# .PCD v0.7 - Point Cloud Data file format
VERSION 0.7
FIELDS x y z
SIZE 4 4 4
TYPE F F F
COUNT 1 1 1
WIDTH 1538
HEIGHT 1
VIEWPOINT 0 0 0 1 0 0 0
POINTS 1538
DATA ascii
7.9512806 -3.6487091 8.6769037
9.8680353 -4.5220499 8.8348713
8.8410721 -4.0719862 8.7505465
0.043669879 -0.046475194 5.8740497
1.1198962 -0.55036187 7.9328728
1.5119631 -0.73122001 8.0979671
2.2350228 -1.0624735 7.9584994
3.166225 -1.4917701 8.3051739
4.0969601 -1.9198979 8.3589058
5.1791792 -2.4182882 8.4676247
6.4203267 -2.9896708 8.5559673
0.39424852 -0.23772545 7.8013906
0.74000901 -0.40943137 7.8448443
1.847409 -0.88802993 7.9292984
2.7240126 -1.2938454 8.2549906
3.6165485 -1.7055299 8.3314915
4.6212449 -2.170537 8.4213734
5.7659664 -2.6996553 8.5052414
7.1300979 -3.3308046 8.6096268
7.9384956 -3.6764419 8.6769037
9.85219 -4.556468 8.8348713
8.8268042 -4.1028223 8.7505465
0.043533456 -0.046662338 5.8790493
1.1207522 -0.5556491 7.9526296
1.5094014 -0.73649329 8.0979671
2.2313004 -1.0702688 7.9584994
3.1609983 -1.5028132 8.3051739
4.0902338 -1.9341871 8.3589058
5.1707063 -2.4363523 8.4676247
6.4069505 -3.0107002 8.5521297
0.39341632 -0.2391002 7.8013906
0.73857534 -0.41201198 7.8448443
1.8476905 -0.89611906 7.9438162
2.7194798 -1.3033462 8.2549906
3.6105733 -1.7181437 8.3314915
4.6136403 -2.186655 8.4213734
5.7565079 -2.7197659 8.5052414
7.1184273 -3.3556728 8.6096268
7.9256139 -3.7041299 8.6769037
9.8362255 -4.5908308 8.8348713
8.8090487 -4.1320233 8.747221
0.043396261 -0.046849094 5.8840494
1.1208904 -0.56060123 7.9674473
1.5077347 -0.74220741 8.1028614
2.2275507 -1.078051 7.9584994
3.1539717 -1.5129929 8.3005705
4.0834575 -1.9484529 8.3589058
5.1621704 -2.4543865 8.4676247
6.3964019 -3.0330465 8.5521297
0.39257932 -0.24047202 7.8013906
0.73713267 -0.41458756 7.8448443
1.8490673 -0.90477371 7.9631743
2.7133601 -1.3120794 8.2502975
3.6045537 -1.7307365 8.3314915
4.6036267 -2.2016211 8.4171076
5.7469792 -2.7398434 8.5052414
7.1036091 -3.3790441 8.6059513
7.9126358 -3.7317729 8.6769037
9.8201399 -4.6251378 8.8348713
8.7945719 -4.1627474 8.747221
0.043258283 -0.047035456 5.8890495
1.1217011 -0.56591129 7.9872041
1.5051347 -0.74746585 8.1028614
2.2224329 -1.0851649 7.9537272
3.1486712 -1.523993 8.3005705
4.0766311 -1.962695 8.3589058
5.1535716 -2.4723909 8.4676247
6.385776 -3.0553555 8.5521297
0.39173749 -0.24184091 7.8013906
0.73568094 -0.41715813 7.8448443
1.8582951 -0.91734439 8.016407
2.7087634 -1.3215429 8.2502975
3.5984905 -1.7433082 8.3314915
4.5959139 -2.2176774 8.4171076
5.73738 -2.7598872 8.5052414
7.0917711 -3.4038198 8.6059513
7.8995619 -3.7593706 8.6769037
9.8039351 -4.6593881 8.8348713
8.776618 -4.1918116 8.7438965
0.043093838 -0.04718617 5.8890495
1.1190265 -0.5694707 7.982265
1.5043371 -0.75362772 8.1126518
2.2186315 -1.092916 7.9537272
3.1433322 -1.5349746 8.3005705
4.0697551 -1.9769132 8.3589058
5.1423769 -2.4891388 8.4634914
6.375072 -3.0776274 8.5521297
0.39113551 -0.24336028 7.8063827
0.7346828 -0.41998878 7.8498158
1.8742083 -0.93335336 8.0986776
2.704134 -1.3309902 8.2502975
3.5923831 -1.7558587 8.3314915
4.5881448 -2.2337065 8.4171076
5.7277117 -2.7798977 8.5052414
7.0767946 -3.4270761 8.6022758
7.8863907 -3.7869222 8.6769037
9.787612 -4.6935821 8.8348713
8.7619324 -4.2224221 8.7438965
0.042928863 -0.047336306 5.8890495
1.1156496 -0.57266325 7.9723864
1.5026058 -0.75933361 8.117547
2.214803 -1.1006538 7.9537272
3.1379552 -1.5459377 8.3005705
4.0628295 -1.9911072 8.3589058
5.1336565 -2.5070739 8.4634914
6.3642902 -3.0998619 8.5521297
0.39028361 -0.24472412 7.8063827
0.73321229 -0.42255071 7.8498158
1.8731854 -0.94101876 8.1083565
2.6994715 -1.3404213 8.2502975
3.5862322 -1.7683877 8.3314915
4.5803194 -2.2497087 8.4171076
5.7179732 -2.7998741 8.5052414
7.0647888 -3.4517579 8.6022758
7.8763332 -3.8159826 8.6804085
9.7746716 -4.7294135 8.8380098
8.7471399 -4.2529812 8.7438965
0.042763367 -0.047485869 5.8890495
1.1115741 -0.57548171 7.9575691
1.5008532 -0.76503664 8.1224422
2.2109473 -1.1083782 7.9537272
3.1307902 -1.556012 8.2959681
4.0558543 -2.0052769 8.3589058
5.1248741 -2.5249786 8.4634914
6.3534307 -3.1220586 8.5521297
0.38967052 -0.24624008 7.8113742
0.73173285 -0.42510754 7.8498158
1.8766161 -0.95096141 8.137393
2.6947761 -1.3498361 8.2502975
3.5800374 -1.7808952 8.3314915
4.5724387 -2.2656832 8.4171076
5.7054634 -2.8184819 8.5012512
7.0526972 -3.4763975 8.6022758
7.8629646 -3.8434529 8.6804085
9.7581034 -4.763505 8.8380098
8.7322416 -4.2834888 8.7438965
0.042572018 -0.047599327 5.8840494
1.1074926 -0.57827878 7.9427509
1.4999846 -0.77120245 8.1322336
2.2083969 -1.1167629 7.9584994
3.1253395 -1.5669311 8.2959681
4.04883 -2.0194223 8.3589058
5.1160293 -2.5428522 8.4634914
6.342494 -3.144217 8.5521297
0.38880861 -0.24759878 7.8113742
0.73024452 -0.42765918 7.8498158
1.8755237 -0.95865077 8.1470718
2.6900477 -1.3592343 8.2502975
3.5718536 -1.7924045 8.3269901
4.5645022 -2.28163 8.4171076
5.69559 -2.8383806 8.5012512
7.0405188 -3.5009949 8.6022758
7.8463025 -3.8692992 8.6769037
9.7379246 -4.7958183 8.8348713
8.720582 -4.3155999 8.747221
0.0423804 -0.047712024 5.8790493
1.1034051 -0.58105433 7.9279332
1.4981873 -0.77690262 8.1371288
2.2044854 -1.1244648 7.9584994
3.1198509 -1.577831 8.2959681
4.0417562 -2.0335431 8.3589058
5.1046057 -2.5594337 8.4593582
6.33148 -3.1663373 8.5521297
0.38794196 -0.24895449 7.8113742
0.72874719 -0.43020561 7.8498158
1.8732829 -0.9657678 8.1519117
2.6852868 -1.3686161 8.2502975
3.5655749 -1.8048618 8.3269901
4.55651 -2.2975495 8.4171076
5.6856475 -2.8582447 8.5012512
7.0282555 -3.5255497 8.6022758
7.8327484 -3.8966644 8.6769037
9.7211246 -4.8297811 8.8348713
8.7054644 -4.346014 8.747221
0.04218851 -0.047823966 5.8740497
1.0999979 -0.58417302 7.9180546
1.4954664 -0.7821275 8.1371288
2.2005467 -1.132153 7.9584994
3.1125841 -1.5878239 8.2913656
4.0367684 -2.048723 8.3632956
5.0956407 -2.5772364 8.4593582
6.3203888 -3.1884191 8.5521297
0.38707057 -0.25030711 7.8113742
0.7272411 -0.4327468 7.8498158
1.8710157 -0.9728809 8.1567507
2.6804931 -1.3779811 8.2502975
3.559253 -1.8172969 8.3269901
4.5484624 -2.3134406 8.4171076
5.6756358 -2.8780737 8.5012512
7.0159063 -3.5500612 8.6022758
7.8159113 -3.9223821 8.673399
9.7007275 -4.8619409 8.8317337
8.6902418 -4.3763752 8.747221
0.041996364 -0.047935151 5.86905
1.0965824 -0.58727515 7.9081759
1.4936275 -0.78781807 8.142024
2.1965814 -1.1398275 7.9584994
3.1070225 -1.5986792 8.2913656
4.0295925 -2.0628014 8.3632956
5.0841069 -2.593729 8.455225
6.3092208 -3.2104619 8.5521297
0.38595319 -0.25149822 7.8063827
0.72572613 -0.43528268 7.8498158
1.8676082 -0.97940606 8.1567507
2.6741347 -1.3865349 8.2456045
3.5528879 -1.82971 8.3269901
4.540359 -2.3293035 8.4171076
5.665555 -2.8978679 8.5012512
7.0034714 -3.5745299 8.6022758
7.8021712 -3.949641 8.673399
9.6836967 -4.8957729 8.8317337
8.6749115 -4.406683 8.747221
0.041828778 -0.048081454 5.86905
1.0931586 -0.5903604 7.8982973
1.4908684 -0.79302698 8.142024
2.1925893 -1.1474881 7.9584994
3.1031573 -1.610415 8.2959681
4.0223675 -2.0768547 8.3632956
5.0750222 -2.6114602 8.455225
6.2979755 -3.2324657 8.5521297
0.38507295 -0.25284392 7.8063827
0.72420222 -0.43781331 7.8498158
1.8652891 -0.98650706 8.1615906
2.6692784 -1.395861 8.2456045
3.5464795 -1.8421007 8.3269901
4.5322003 -2.3451381 8.4171076
5.655405 -2.9176269 8.5012512
6.9909511 -3.5989547 8.6022758
7.7851605 -3.9752295 8.6698942
9.6630812 -4.9277773 8.8285952
8.6561546 -4.4352345 8.7438965
0.041635983 -0.048191205 5.8640504
1.090409 -0.59380084 7.8933587
1.4880911 -0.7982263 8.142024
2.1885705 -1.1551347 7.9584994
3.097517 -1.6212372 8.2959681
4.0150933 -2.0908828 8.3632956
5.0633779 -2.6278629 8.4510918
6.286654 -3.2544301 8.5521297
0.384188 -0.25418654 7.8063827
0.72312438 -0.44061655 7.8547873
1.8618342 -0.99301207 8.1615906
2.6643896 -1.4051701 8.2456045
3.5400276 -1.8544691 8.3269901
4.5239868 -2.3609443 8.4171076
5.6451859 -2.93735 8.5012512
6.9783459 -3.6233358 8.6022758
7.7712374 -4.0023808 8.6698942
9.6458206 -4.9614778 8.8285952
8.6406193 -4.4654236 8.7438965
0.041467506 -0.048336249 5.8640504
1.0876486 -0.5972293 7.8884192
1.4852958 -0.80341583 8.142024
2.1858425 -1.1634686 7.9632711
3.0918388 -1.6320397 8.2959681
4.0077705 -2.1048851 8.3632956
5.051681 -2.6442165 8.4469595
6.2752557 -3.2763546 8.5521297
0.38305876 -0.25536504 7.8013906
0.721582 -0.443138 7.8547873
1.8583565 -0.9995051 8.1615906
2.6594687 -1.414462 8.2456045
3.5335326 -1.8668147 8.3269901
4.5134101 -2.3755066 8.4128418
5.6348987 -2.9570374 8.5012512
6.9656558 -3.6476727 8.6022758
7.7572188 -4.0294828 8.6698942
9.6284437 -4.9951177 8.8285952
8.6216688 -4.4938321 8.7405701
0.041274074 -0.048444565 5.8590503
1.0848776 -0.60064566 7.8834796
1.4815885 -0.80810791 8.1371288
2.1817679 -1.1710916 7.9632711
3.0878475 -1.6437403 8.3005705
4.0003986 -2.1188622 8.3632956
5.0424199 -2.661834 8.4469595
6.2637806 -3.2982395 8.5521297
0.38216501 -0.25670061 7.8013906
0.72003073 -0.44565412 7.8547873
1.8548563 -1.0059859 8.1615906
2.654515 -1.4237366 8.2456045
3.5269947 -1.8791378 8.3269901
4.5050907 -2.3912468 8.4128418
5.6245422 -2.9766889 8.5012512
6.9528804 -3.6719649 8.6022758
7.7431059 -4.0565362 8.6698942
9.6109486 -5.028697 8.8285952
8.6059303 -4.5239 8.7405701
0.041179948 -0.04858147 5.8640504
1.082728 -0.60291648 7.8785405
1.4796095 -0.81172568 8.1371288
2.1791053 -1.1760387 7.9632711
3.0841103 -1.6507422 8.3005705
3.9934671 -2.1268077 8.3589058
5.0368342 -2.672389 8.4469595
6.2568593 -3.3113511 8.5521297
0.38167149 -0.25743383 7.8013906
0.71917385 -0.44703567 7.8547873
1.8529216 -1.0095451 8.1615906
2.6535451 -1.4291857 8.2502975
3.5237098 -1.8852906 8.3269901
4.5009098 -2.399106 8.4128418
5.6198592 -2.9855204 8.5012512
6.947104 -3.6828821 8.6022758
7.733171 -4.0754437 8.6698942
9.599514 -5.0504904 8.8285952
8.5939274 -4.5386701 8.7372446
0.040922791 -0.048514962 5.8390512
1.0810401 -0.60593766 7.8785405
1.4764457 -0.81536192 8.1322336
2.1808519 -1.1853509 7.9823589
3.0794885 -1.6593481 8.3005705
3.9875124 -2.1379511 8.3589058
5.028883 -2.6873217 8.4469595
6.2470064 -3.329901 8.5521297
0.38090599 -0.25856516 7.8013906
0.71784425 -0.44916752 7.8547873
1.8477143 -1.0138288 8.1519117
2.6490424 -1.4375151 8.2502975
3.5181005 -1.8957373 8.3269901
4.493772 -2.4124501 8.4128418
5.6104527 -3.0031607 8.5012512
6.9331555 -3.7018814 8.5986004
7.7186098 -4.0953517 8.6663895
9.584487 -5.0789504 8.8285952
8.5804234 -4.5641489 8.7372446
0.040994588 -0.049020987 5.8890495
1.0782421 -0.60932499 7.8736014
1.4735905 -0.82051069 8.1322336
2.181937 -1.1958264 8.0014477
3.073386 -1.670624 8.3005705
3.9796495 -2.1525517 8.3589058
5.0189996 -2.7057354 8.4469595
6.2319369 -3.3512568 8.5482922
0.37991038 -0.2600258 7.8013906
0.71611428 -0.45192054 7.8547873
1.8427082 -1.0203071 8.1470718
2.6435032 -1.4476761 8.2502975
3.5104623 -1.9098446 8.3269901
4.4840517 -2.4304695 8.4128418
5.598352 -3.0256584 8.5012512
6.9175878 -3.7308905 8.5986004
7.7042675 -4.1222696 8.6663895
9.5667 -5.1123757 8.8285952
8.5595446 -4.5952954 8.7339191
0.040895261 -0.049273077 5.9040484
1.0761086 -0.61308509 7.8736014
1.4707174 -0.8256495 8.1322336
2.1908138 -1.2106563 8.0491676
3.0675356 -1.6813419 8.3005705
3.9721117 -2.1664302 8.3589058
5.0095243 -2.7232387 8.4469595
6.220201 -3.3729899 8.5482922
0.37923747 -0.26151514 7.8063827
0.71453249 -0.45441747 7.8547873
1.8369405 -1.0255072 8.137393
2.6384337 -1.4568948 8.2502975
3.5018656 -1.9210397 8.3224888
4.4755402 -2.4461071 8.4128418
5.5877562 -3.0451818 8.5012512
6.9015446 -3.7533948 8.5949249
7.6898313 -4.1491375 8.6663895
9.5453691 -5.1438918 8.8254566
8.5434523 -4.6251459 8.7339191
0.040890213 -0.049671132 5.9390473
1.0746356 -0.61722487 7.8785405
1.4669403 -0.83027649 8.1273375
2.2113485 -1.2321023 8.1398344
3.0599382 -1.6910943 8.2959681
3.9624267 -2.1791279 8.354517
4.9999876 -2.7407086 8.4469595
6.2055774 -3.3931446 8.5444546
0.3783223 -0.26283732 7.8063827
0.71294188 -0.45690888 7.8547873
1.8311591 -1.0306799 8.1277151
2.6318245 -1.4652562 8.2456045
3.4951384 -1.9332517 8.3224888
4.4669747 -2.4617147 8.4128418
5.5770926 -3.0646682 8.5012512
6.8884006 -3.7774627 8.5949249
7.6721683 -4.1742501 8.6628857
9.5273552 -5.1771798 8.8254566
8.5272551 -4.6549397 8.7339191
0.040716581 -0.049813561 5.9390473
1.0723661 -0.62115949 7.8785405
1.4638873 -0.83564752 8.1273375
2.2287202 -1.2530221 8.2209578
3.0534222 -1.702831 8.2959681
3.95403 -2.1943266 8.354517
4.988946 -2.7607577 8.4469595
6.1919069 -3.4180281 8.5444546
0.37717184 -0.26448554 7.8063827
0.71086115 -0.46013942 7.8547873
1.8253706 -1.0383571 8.1228752
2.6251483 -1.4771839 8.2456045
3.4859896 -1.9497007 8.3224888
4.4530463 -2.481468 8.408576
5.5625887 -3.0909157 8.5012512
6.8698583 -3.8110805 8.5949249
7.6575503 -4.2010059 8.6628857
9.5049028 -5.2101941 8.8223181
8.5068636 -4.6921024 8.7339191
0.040455204 -0.05002607 5.9390473
1.0690991 -0.62676585 7.8785405
1.4533212 -0.83973396 8.093071
2.2247233 -1.2661513 8.2305021
3.0427635 -1.7178349 8.2913656
3.9424865 -2.2149997 8.354517
4.974422 -2.7868416 8.4469595
6.1739249 -3.4504015 8.5444546
0.37578183 -0.26645675 7.8063827
0.70844215 -0.46385515 7.8547873
1.815552 -1.0453911 8.1035175
2.6173778 -1.490909 8.2456045
3.4757333 -1.9679265 8.3224888
4.4399924 -2.5047498 8.408576
5.5463285 -3.1199987 8.5012512
6.8498096 -3.8469987 8.5949249
7.6354494 -4.2410426 8.6628857
9.4740887 -5.2580009 8.8191795
8.4821796 -4.7365799 8.7339191
0.040233456 -0.050093371 5.9290476
1.0676837 -0.63070303 7.8834796
1.4505285 -0.84454876 8.093071
2.2220297 -1.2738768 8.2352743
3.0373514 -1.7273854 8.2913656
3.9355083 -2.2273743 8.354517
4.9685822 -2.8029714 8.4510918
6.1636605 -3.4687049 8.5444546
0.37508297 -0.26743966 7.8063827
0.70730662 -0.46558481 7.8547873
1.8173428 -1.0523442 8.1228752
2.6137269 -1.4972999 8.2456045
3.4712591 -1.9758075 8.3224888
4.434298 -2.5148175 8.408576
5.536612 -3.1310914 8.497261
6.8417373 -3.8613365 8.5949249
7.6237106 -4.2694125 8.6663895
9.4566002 -5.2893891 8.8191795
8.4697495 -4.75877 8.7339191
0.040035043 -0.050196622 5.9240479
1.0654756 -0.63442612 7.8834796
1.4370352 -0.84342015 8.0343285
2.2214465 -1.2838664 8.2495909
3.0296085 -1.7370054 8.2867632
3.9277096 -2.2410984 8.354517
4.9587674 -2.820298 8.4510918
6.1515145 -3.4901991 8.5444546
0.37391329 -0.26857802 7.8013906
0.70567709 -0.46805093 7.8547873
1.8071455 -1.0548787 8.0938377
2.6084845 -1.5064144 8.2456045
3.4643412 -1.9879125 8.3224888
4.4254928 -2.5302808 8.408576
5.5256486 -3.1503987 8.497261
6.828217 -3.885195 8.5949249
7.6087618 -4.2959981 8.6663895
9.4346895 -5.3204551 8.816041
8.4530869 -4.7883058 8.7339191
0.039836399 -0.050299097 5.9190478
1.0632546 -0.63814145 7.8834796
1.4279487 -0.84480095 8.000062
2.2156615 -1.2908614 8.2448187
3.0235267 -1.74757 8.2867632
3.9198625 -2.2547948 8.354517
4.9513345 -2.83899 8.455225
6.1392941 -3.5116506 8.5444546
0.3729735 -0.26988158 7.8013906
0.70403898 -0.47051135 7.8547873
1.7893698 -1.0528919 8.0309258
2.6032102 -1.5155106 8.2456045
3.4573808 -1.9999932 8.3224888
4.4166331 -2.5457132 8.408576
5.5146184 -3.1696677 8.497261
6.8146133 -3.9090061 8.5949249
7.593719 -4.3225312 8.6663895
9.4160595 -5.3533559 8.816041
8.4330778 -4.8159313 8.7305937
0.039637528 -0.050400797 5.9140482
1.0603559 -0.64144659 7.8785405
1.4179957 -0.84560686 7.9608998
2.2111423 -1.2985876 8.2448187
3.0174079 -1.7581135 8.2867632
3.911968 -2.2684641 8.354517
4.9413939 -2.856256 8.455225
6.1269994 -3.5330591 8.5444546
0.37202916 -0.27118188 7.8013906
0.70239234 -0.47296602 7.8547873
1.7727112 -1.0514351 7.9728527
2.5979042 -1.5245882 8.2456045
3.4503787 -2.0120497 8.3224888
4.4077201 -2.5611145 8.408576
5.5035205 -3.1888976 8.497261
6.8009267 -3.9327698 8.5949249
7.5785847 -4.3490124 8.6663895
9.397316 -5.3861914 8.816041
8.4162159 -4.8453388 8.7305937
0.039526518 -0.05043282 5.9090486
1.0592346 -0.6432963 7.8785405
1.4096769 -0.84364891 7.9217381
2.2078137 -1.3013012 8.2400465
3.0166371 -1.763311 8.2913656
3.9087968 -2.2739239 8.354517
4.9379005 -2.8622911 8.455225
6.1226778 -3.5405421 8.5444546
0.37179238 -0.27150643 7.8013906
0.70197934 -0.47357878 7.8547873
1.7654934 -1.0488199 7.9438162
2.5968392 -1.5264014 8.2456045
3.4493248 -2.0138559 8.3224888
4.4063787 -2.563422 8.408576
5.5024071 -3.1908188 8.497261
6.7966194 -3.9334452 8.5912504
7.5740719 -4.3640132 8.6698942
9.3888435 -5.4009457 8.816041
8.4119844 -4.8526816 8.7305937
10.457522 -6.0230069 8.8707743
0.03928842 -0.050618522 5.9090486
1.0554163 -0.64805818 7.8736014
1.4010342 -0.84813583 7.8972621
2.1999168 -1.3116947 8.2352743
3.0073631 -1.7790818 8.2913656
3.8964367 -2.2950394 8.354517
4.9194112 -2.8883996 8.4510918
6.1055737 -3.5763018 8.5482922
0.36984769 -0.27366453 7.7963991
0.69898993 -0.47798008 7.8547873
1.7554544 -1.0582519 7.9292984
2.5869281 -1.5431391 8.2456045
3.4355369 -2.0372877 8.3224888
4.3888278 -2.5933557 8.408576
5.4799967 -3.2291546 8.497261
6.7689934 -3.9807982 8.5912504
7.5534229 -4.3996563 8.6698942
9.3623371 -5.4467635 8.816041
8.382184 -4.9039764 8.7305937
10.421898 -6.0924525 8.8737183
0.039196197 -0.050744779 5.9140482
1.0540566 -0.65026724 7.8736014
1.3992548 -0.85106832 7.8972621
2.1973946 -1.3159158 8.2352743
3.003942 -1.7848524 8.2913656
3.8928266 -2.3011568 8.354517
4.9148679 -2.8961234 8.4510918
6.0999484 -3.5858879 8.5482922
0.3695609 -0.27405167 7.7963991
0.69857258 -0.47858989 7.8547873
1.7502267 -1.0571831 7.9099402
2.5855806 -1.5453961 8.2456045
3.4344697 -2.0390866 8.3224888
4.3874693 -2.5956535 8.408576
5.4788694 -3.2310672 8.497261
6.7676034 -3.983161 8.5912504
7.5403442 -4.4149809 8.6663895
9.3509092 -5.4663601 8.816041
8.3770447 -4.9127522 8.7305937
10.423553 -6.1056304 8.8796034
0.03906402 -0.05095594 5.9240479
1.0517805 -0.65394264 7.8736014
1.3962755 -0.85594738 7.8972621
2.1912789 -1.3231891 8.2305021
2.99738 -1.7958503 8.2913656
3.8839622 -2.3160875 8.354517
4.9012928 -2.9135361 8.4469595
6.0861344 -3.6092837 8.5482922
0.36845782 -0.27553296 7.7963991
0.69656169 -0.48151186 7.8547873
1.7457831 -1.0645052 7.9099402
2.5790844 -1.5562129 8.2456045
3.42554 -2.0540526 8.3224888
4.3761024 -2.6147726 8.408576
5.4641509 -3.2558963 8.497261
6.7494588 -4.0138307 8.5912504
7.5248866 -4.4412751 8.6663895
9.3308105 -5.500596 8.816041
8.3563919 -4.9477987 8.7305937
10.401366 -6.1512971 8.8825474
0.03888591 -0.051091991 5.9240479
1.0494913 -0.65761006 7.8736014
1.3932792 -0.86081606 7.8972621
2.1866469 -1.33083 8.2305021
2.9910929 -1.8063022 8.2913656
3.875854 -2.3296309 8.354517
4.8910928 -2.9306271 8.4469595
6.0734987 -3.630506 8.5482922
0.36749378 -0.27681747 7.7963991
0.69443965 -0.48363519 7.8498158
1.7420567 -1.0705926 7.9099402
2.5736365 -1.5652062 8.2456045
3.418349 -2.0659974 8.3224888
4.3669481 -2.6300323 8.408576
5.4527526 -3.27495 8.497261
6.7354069 -4.0373659 8.5912504
7.5062728 -4.4656911 8.6628857
9.311554 -5.5331335 8.816041
8.3390703 -4.9769373 8.7305937
10.390246 -6.1937761 8.8913765
0.038707331 -0.051227417 5.9240479
1.0471895 -0.66126943 7.8736014
1.3902658 -0.86567426 7.8972621
2.181988 -1.3384547 8.2305021
2.9847696 -1.816732 8.2913656
3.8656499 -2.3419046 8.3501282
4.8832417 -2.949137 8.4510918
6.058044 -3.6500309 8.5444546
0.36652526 -0.27809855 7.7963991
0.69274724 -0.4860563 7.8498158
1.738309 -1.076667 7.9099402
2.5681572 -1.5741804 8.2456045
3.4111166 -2.0779171 8.3224888
4.3577414 -2.6452596 8.408576
5.4387097 -3.2924032 8.4932709
6.7212725 -4.0608521 8.5912504
7.4845228 -4.4881983 8.6558771
9.2888432 -5.5636024 8.8129025
8.3184481 -5.0040908 8.7272682
10.372026 -6.2320886 8.8943195
0.038483869 -0.051287096 5.9140482
1.0455302 -0.66533822 7.8785405
1.3863733 -0.86998051 7.8923669
2.1773028 -1.3460631 8.2305021
2.9784098 -1.8271397 8.2913656
3.8574514 -2.3553841 8.3501282
4.8729177 -2.9661646 8.4510918
6.0452662 -3.6711552 8.5444546
0.36555231 -0.27937627 7.7963991
0.69104636 -0.48847145 7.8498158
1.7345401 -1.0827283 7.9099402
2.5626466 -1.5831352 8.2456045
3.4038424 -2.0898116 8.3224888
4.3484812 -2.6604548 8.408576
5.4271841 -3.3113678 8.4932709
6.707057 -4.0842891 8.5912504
7.4657578 -4.5124516 8.6523724
9.2693663 -5.5959926 8.8129025
8.3009291 -5.0330977 8.7272682
10.353667 -6.27035 8.8972635
1.0432013 -0.6689837 7.8785405
1.383328 -0.87481457 7.8923669
2.1713238 -1.3528657 8.2257299
2.972014 -1.8375252 8.2913656
3.8492062 -2.3688345 8.3501282
4.8625336 -2.9831562 8.4510918
6.0324144 -3.6922348 8.5444546
0.36457485 -0.28065059 7.7963991
0.68890321 -0.49057087 7.8448443
1.7307501 -1.0887764 7.9099402
2.5571051 -1.5920711 8.2456045
3.3965268 -2.1016803 8.3224888
4.3369474 -2.6742487 8.4043093
5.4155922 -3.330292 8.4932709
6.6898699 -4.1059031 8.587575
7.4499612 -4.5384846 8.6523724
9.2497759 -5.628315 8.8129025
8.2833099 -5.0620427 8.7272682
10.331717 -6.3064528 8.8972635
1.0408598 -0.67262107 7.8785405
1.3802658 -0.87963796 7.8923669
2.1665883 -1.3604368 8.2257299
2.9655814 -1.8478884 8.2913656
3.840914 -2.3822567 8.3501282
4.8520913 -3.0001113 8.4510918
6.0167618 -3.7115865 8.540617
0.36359298 -0.28192148 7.7963991
0.6871866 -0.49297261 7.8448443
1.7258775 -1.0941379 7.9051008
2.551532 -1.6009872 8.2456045
3.3891699 -2.1135237 8.3224888
4.3275862 -2.6893711 8.4043093
5.4064956 -3.3507628 8.497261
6.6754971 -4.12923 8.587575
7.4310346 -4.5625963 8.6488676
9.2267551 -5.6585336 8.8097639
8.2624111 -5.0889678 8.7239428
10.30964 -6.3424788 8.8972635
1.0377969 -0.67733741 7.8785405
1.3762599 -0.88589233 7.8923669
2.1603925 -1.3702543 8.2257299
2.9588189 -1.8623673 8.2959681
3.8300643 -2.3996615 8.3501282
4.8384271 -3.0220983 8.4510918
5.9992046 -3.7398987 8.540617
0.36221093 -0.28369495 7.7963991
0.68476927 -0.49632496 7.8448443
1.72051 -1.1025592 7.9051008
2.5436778 -1.6134372 8.2456045
3.3769598 -2.1289001 8.3179884
4.3143921 -2.7104874 8.4043093
5.3894668 -3.3780847 8.497261
6.6545115 -4.1629648 8.587575
7.411056 -4.5949769 8.6488676
9.2019777 -5.6987391 8.8097639
8.2383375 -5.1278467 8.7239428
10.276205 -6.3888564 8.8943195
1.0348315 -0.6818592 7.8785405
1.3723814 -0.89188898 7.8923669
2.1543932 -1.3796678 8.2257299
2.9506648 -1.8752599 8.2959681
3.8195572 -2.4163504 8.3501282
4.8228149 -3.0416801 8.4469595
5.9801164 -3.7643316 8.5367794
0.36096963 -0.28527272 7.7963991
0.68302703 -0.49962339 7.8498158
1.7146275 -1.1093729 7.9002614
2.5366135 -1.6245207 8.2456045
3.3676383 -2.1436145 8.3179884
4.3025241 -2.7292867 8.4043093
5.3746753 -3.4015687 8.497261
6.6334181 -4.1901507 8.5839005
7.3909359 -4.6272697 8.6488676
9.1737251 -5.7367725 8.8066254
8.2158852 -5.1637444 8.7239428
10.24823 -6.4336338 8.8943195
1.0325648 -0.68528706 7.8785405
1.3694164 -0.89643502 7.8923669
2.1498063 -1.3868043 8.2257299
2.9444299 -1.8850343 8.2959681
3.8115232 -2.4290032 8.3501282
4.8127017 -3.0576563 8.4469595
5.9682608 -3.7830999 8.5367794
0.36034691 -0.28652295 7.8013906
0.68154156 -0.50164777 7.8498158
1.7113284 -1.1144553 7.9002614
2.5303319 -1.6311048 8.2409115
3.3612633 -2.1535969 8.3179884
4.2944074 -2.7420404 8.4043093
5.3626142 -3.4149458 8.4932709
6.6216912 -4.2086582 8.5839005
7.3777542 -4.6549435 8.6523724
9.1536436 -5.7687593 8.8066254
8.1996222 -5.1895304 8.7239428
10.224551 -6.4636383 8.8913765
1.0301664 -0.68888718 7.8785405
1.3662788 -0.90120977 7.8923669
2.1449523 -1.3943002 8.2257299
2.9361904 -1.8942416 8.2913656
3.8030212 -2.4422929 8.3501282
4.8019991 -3.0744374 8.4469595
5.9523182 -3.8021848 8.5329418
0.35934457 -0.28777906 7.8013906
0.67978632 -0.50402373 7.8498158
1.7074277 -1.1204222 7.9002614
2.5246229 -1.6399273 8.2409115
3.3537254 -2.1653171 8.3179884
4.2848096 -2.757014 8.4043093
5.3506613 -3.4336438 8.4932709
6.6069598 -4.2317467 8.5839005
7.3614612 -4.6806684 8.6523724
9.1301661 -5.7985902 8.8034868
8.1814575 -5.2181206 8.7239428
10.201927 -6.499289 8.8913765
1.0277554 -0.69247895 7.8785405
1.3631247 -0.90597343 7.8923669
2.1400721 -1.4017791 8.2257299
2.9279222 -1.9034144 8.2867632
3.7944729 -2.4555531 8.3501282
4.7912383 -3.0911808 8.4469595
5.9390097 -3.8229389 8.5329418
0.35833782 -0.28903165 7.8013906
0.6780228 -0.50639355 7.8498158
1.7035064 -1.1263754 7.9002614
2.518883 -1.6487298 8.2409115
3.3461466 -2.1770105 8.3179884
4.2751598 -2.7719541 8.4043093
5.3361125 -3.4506638 8.4892807
6.5921478 -4.2547836 8.5839005
7.3420749 -4.704412 8.6488676
9.10987 -5.8304248 8.8034868
8.1631927 -5.2466469 8.7239428
10.175776 -6.5326772 8.8884335
1.025332 -0.69606227 7.8785405
1.3599539 -0.91072607 7.8923669
2.1351659 -1.4092407 8.2257299
2.9196262 -1.9125526 8.2821608
3.7858784 -2.4687834 8.3501282
4.7804189 -3.1078866 8.4469595
5.9256287 -3.8436468 8.5329418
0.35732678 -0.29028073 7.8013906
0.67625105 -0.50875723 7.8498158
1.6995643 -1.1323149 7.9002614
2.5131125 -1.6575124 8.2409115
3.3385272 -2.1886775 8.3179884
4.2654576 -2.7868602 8.4043093
5.3240352 -3.4692693 8.4892807
6.5772562 -4.2777681 8.5839005
7.3256087 -4.7300124 8.6488676
9.0861902 -5.8600788 8.8003483
8.1448288 -5.2751098 8.7239428
10.152911 -6.5681577 8.8884335
0.037034586 -0.053032428 5.9790454
1.0228961 -0.69963712 7.8785405
1.3567667 -0.91546774 7.8923669
2.1302338 -1.4166852 8.2257299
2.9113016 -1.9216559 8.2775574
3.7772377 -2.4819834 8.3501282
4.7695413 -3.1245544 8.4469595
5.909493 -3.8625536 8.5291042
0.35631129 -0.29152626 7.8013906
0.67404658 -0.51079208 7.8448443
1.6956013 -1.1382407 7.9002614
2.5073116 -1.6662747 8.2409115
3.3326831 -2.2015173 8.3224888
4.2557039 -2.8017328 8.4043093
5.3118925 -3.4878328 8.4892807
6.5622835 -4.3007011 8.5839005
7.3090534 -4.7555547 8.6488676
9.0624161 -5.8896394 8.7972097
8.1232395 -5.3014679 8.7206173
10.129923 -6.6035576 8.8884335
0.036849242 -0.053161379 5.9790454
1.0210872 -0.70364457 7.8834796
1.3527209 -0.91962552 7.8874717
2.1252756 -1.4241124 8.2257299
2.9045761 -1.9318064 8.2775574
3.7685509 -2.4951534 8.3501282
4.758605 -3.1411843 8.4469595
5.8959742 -3.8831582 8.5291042
0.35551366 -0.29295263 7.8063827
0.67225945 -0.51314187 7.8448443
1.6926589 -1.1448567 7.9051008
2.5029137 -1.675977 8.2456045
3.3249779 -2.2131374 8.3224888
4.2458978 -2.8165705 8.4043093
5.2971721 -3.5046906 8.4852905
6.5472317 -4.3235817 8.5839005
7.2894263 -4.7790833 8.6453629
9.0418024 -5.9212365 8.7972097
8.1046839 -5.3297911 8.7206173
10.106811 -6.6388779 8.8884335
0.036394622 -0.052790206 5.9140482
1.0186249 -0.70720452 7.8834796
1.3495026 -0.9243418 7.8874717
2.1202915 -1.4315224 8.2257299
2.8994381 -1.9430213 8.2821608
3.7598181 -2.5082932 8.3501282
4.7452679 -3.1562171 8.4428263
5.8823833 -3.9037154 8.5291042
0.35448888 -0.29419184 7.8063827
0.67046416 -0.51548535 7.8448443
1.6896909 -1.1514663 7.9099402
2.4984787 -1.6856687 8.2502975
3.3172324 -2.2247303 8.3224888
4.2338724 -2.8299251 8.4000435
5.2849064 -3.5231595 8.4852905
6.5292773 -4.3445311 8.580225
7.2726994 -4.8044987 8.6453629
9.0178289 -5.9506187 8.7940712
8.08603 -5.3580494 8.7206173
10.083575 -6.6741166 8.8884335
1.0167866 -0.71120143 7.8884192
1.3462677 -0.92904681 7.8874717
2.1152818 -1.4389149 8.2257299
2.8942571 -1.9542236 8.2867632
3.7510397 -2.5214019 8.3501282
4.7342219 -3.1727617 8.4428263
5.868721 -3.9242249 8.5291042
0.35368067 -0.29561341 7.8113742
0.66866076 -0.51782262 7.8448443
1.6866975 -1.1580691 7.9147801
2.4925792 -1.6943798 8.2502975
3.3094463 -2.2362959 8.3224888
4.2239685 -2.8446867 8.4000435
5.2725759 -3.5415859 8.4852905
6.5140719 -4.3672962 8.580225
7.2558846 -4.8298564 8.6453629
8.9710732 -5.9648194 8.7689638
8.0641727 -5.3841691 8.7172918
10.063579 -6.7115169 8.8913765
1.0142978 -0.7147463 7.8884192
1.3430166 -0.9337405 7.8874717
2.1102462 -1.4462898 8.2257299
2.887418 -1.9643146 8.2867632
3.7422154 -2.5344801 8.3501282
4.7231178 -3.1892679 8.4428263
5.8549871 -3.9446869 8.5291042
0.35264659 -0.29684621 7.8113742
0.66684914 -0.52015346 7.8448443
1.6836785 -1.1646649 7.9196196
2.490921 -1.7059959 8.2643766
3.2998209 -2.2466094 8.3179884
4.2140131 -2.8594139 8.4000435
5.2601814 -3.5599689 8.4852905
6.4987879 -4.390008 8.580225
7.2389808 -4.8551545 8.6453629
8.9340286 -5.9852662 8.7532721
8.0453291 -5.4122853 8.7172918
10.04009 -6.7466044 8.8913765
1.0124302 -0.71873254 7.8933587
1.3397491 -0.9384228 7.8874717
2.1039565 -1.452799 8.2209578
2.8821554 -1.9754863 8.2913656
3.7313673 -2.5461774 8.3457384
4.7096305 -3.2041523 8.438693
5.8385301 -3.9633 8.5252666
0.35160828 -0.29807535 7.8113742
0.66502941 -0.52247804 7.8448443
1.6816651 -1.1719725 7.9292984
2.4735885 -1.7068392 8.2268343
3.2919588 -2.2581143 8.3179884
4.2040057 -2.8741064 8.4000435
5.245234 -3.5766118 8.4813013
6.4834242 -4.4126663 8.580225
7.2219892 -4.8803935 8.6453629
8.9034033 -6.0098825 8.7438564
8.0263872 -5.4403358 8.7172918
10.019825 -6.7838755 8.8943195
0.03569429 -0.053370621 5.9240479
1.0099152 -0.7222622 7.8933587
1.3364652 -0.94309366 7.8874717
2.0988724 -1.4601343 8.2209578
2.875242 -1.985535 8.2913656
3.7224567 -2.5591869 8.3457384
4.6984172 -3.2205727 8.438693
5.8246603 -3.9836564 8.5252666
0.35056567 -0.29930088 7.8113742
0.66320151 -0.52479625 7.8448443
1.682707 -1.1814474 7.953495
2.4661984 -1.7144781 8.2221413
3.2840564 -2.2695916 8.3179884
4.1960955 -2.8902431 8.4043093
5.232717 -3.5948992 8.4813013
6.4679813 -4.4352703 8.580225
7.2049093 -4.9055738 8.6453629
8.8662786 -6.0299797 8.7281647
8.0042648 -5.4662147 8.7139664
9.999424 -6.8210883 8.8972635
1.0073879 -0.72578305 7.8933587
1.333165 -0.94775307 7.8874717
2.0925407 -1.4665951 8.2161865
2.8682935 -1.9955593 8.2913656
3.7135007 -2.572165 8.3457384
4.6871467 -3.2369537 8.438693
5.8080797 -4.0021453 8.5214291
0.34951878 -0.30052277 7.8113742
0.66178209 -0.52744085 7.8498158
1.6806251 -1.188766 7.9631743
3.276114 -2.2810411 8.3179884
4.1859808 -2.9048722 8.4043093
5.2201366 -3.613143 8.4813013
6.4524598 -4.4578214 8.580225
7.1848011 -4.9286757 8.6418581
8.8548079 -6.0674925 8.7375793
7.985136 -5.4941211 8.7139664
9.9788837 -6.8582406 8.9002066
1.0054768 -0.72975165 7.8982973
1.3298486 -0.95240092 7.8874717
2.0874085 -1.4738904 8.2161865
2.8613102 -2.0055592 8.2913656
3.7044997 -2.5851119 8.3457384
4.6758189 -3.2532952 8.438693
5.7940741 -4.0223947 8.5214291
0.34846762 -0.30174097 7.8113742
0.6599369 -0.52974772 7.8498158
1.6846539 -1.2004617 8.0018892
3.2663496 -2.2912128 8.3134871
4.1758156 -2.9194665 8.4043093
5.2074924 -3.6313426 8.4813013
6.4368601 -4.4803171 8.580225
7.1675529 -4.9537253 8.6418581
8.8303719 -6.0961533 8.7344408
7.962841 -5.519834 8.7106409
9.9548826 -6.8930311 8.9002066
1.0029234 -0.73325694 7.8982973
1.3273416 -0.95763296 7.8923669
2.0810349 -1.4803025 8.2114143
2.8542922 -2.0155349 8.2913656
3.6954534 -2.5980272 8.3457384
4.664434 -3.2695968 8.438693
5.7799983 -4.0425954 8.5214291
0.3476291 -0.30314603 7.8163657
0.65849781 -0.53238374 7.8547873
1.6906633 -1.2136663 8.0502844
3.2583318 -2.3026006 8.3134871
4.1634674 -2.9325233 8.4000435
5.1947851 -3.6494977 8.4813013
6.4184055 -4.5008125 8.5765495
7.1502175 -4.9787145 8.6418581
8.8090382 -6.1269398 8.7344408
7.9435244 -5.547596 8.7106409
9.9340754 -6.9300508 8.9031487
1.0016088 -0.73767537 7.9081759
1.3239908 -0.96226043 7.8923669
2.0758548 -1.4875576 8.2114143
2.8472393 -2.025486 8.2913656
3.686362 -2.6109111 8.3457384
4.6506944 -3.2842357 8.4345608
5.7658515 -4.062747 8.5214291
0.34635258 -0.30416635 7.8113742
0.6566354 -0.53467911 7.8547873
1.6955825 -1.2261907 8.0938377
3.2502744 -2.3139603 8.3134871
4.1532054 -2.9470384 8.4000435
5.1795549 -3.665868 8.4773111
6.4026561 -4.5231891 8.5765495
7.1327949 -5.003643 8.6418581
8.7844095 -6.1554174 8.7313023
7.9241114 -5.5752902 8.7106409
9.9098253 -6.964685 8.9031487
1.0008993 -0.74255651 7.9229937
1.3206238 -0.96687621 7.8923669
2.0706496 -1.4947947 8.2114143
2.8401518 -2.0354123 8.2913656
3.6772258 -2.6237626 8.3457384
4.6392021 -3.3004496 8.4345608
5.7516346 -4.0828485 8.5214291
0.34528872 -0.30537352 7.8113742
0.65517682 -0.53730655 7.8597589
1.7004349 -1.238764 8.137393
3.2421772 -2.3252916 8.3134871
4.1407714 -2.9600012 8.3957777
5.1667271 -3.6839259 8.4773111
6.3868279 -4.5455112 8.5765495
7.1123734 -5.0264525 8.6383533
8.7469711 -6.1748199 8.7156105
7.901556 -5.6007571 8.7073154
9.8854532 -6.9992342 8.9031487
1.0007902 -0.74790716 7.9427509
1.3172407 -0.97148019 7.8923669
2.0654192 -1.5020134 8.2114143
2.8330295 -2.0453141 8.2913656
3.6661005 -2.6351852 8.3413496
4.6276531 -3.3166234 8.4345608
5.7373481 -4.102901 8.5214291
0.3442207 -0.30657694 7.8113742
0.6537078 -0.53993028 7.8647308
1.701167 -1.2484112 8.1615906
2.4283564 -1.7647357 8.2174482
3.234041 -2.3365948 8.3134871
4.1304135 -2.974437 8.3957777
5.1538363 -3.7019389 8.4773111
6.3681674 -4.5658026 8.572875
7.0947847 -5.051249 8.6383533
8.712676 -6.1962914 8.7030563
7.8819571 -5.628305 8.7073154
9.8576708 -7.0313516 8.9002066
1.0000353 -0.75279856 7.9575691
1.3138416 -0.97607225 7.8923669
2.0601637 -1.5092139 8.2114143
2.8258727 -2.0551906 8.2913656
3.6568794 -2.6479659 8.3413496
4.6160479 -3.3327568 8.4345608
5.7203903 -4.1210289 8.5175915
0.34293422 -0.30758306 7.8063827
0.65222842 -0.54255021 7.8697019
1.6988204 -1.2558365 8.1712694
2.4249663 -1.7752403 8.2268343
3.2258649 -2.3478696 8.3134871
4.1200056 -2.9888368 8.3957777
5.140883 -3.7199061 8.4773111
6.352191 -4.5880032 8.572875
7.0771089 -5.0759835 8.6383533
8.6783381 -6.2175994 8.6905022
7.8622627 -5.6557837 8.7073154
9.8330669 -7.0657182 8.9002066
0.99925846 -0.75769371 7.9723864
1.3112416 -0.98126274 7.8972621
2.0548828 -1.5163962 8.2114143
2.8171055 -2.0638874 8.2867632
3.647614 -2.6607149 8.3413496
4.6043863 -3.3488493 8.4345608
5.7059703 -4.1409717 8.5175915
0.34185845 -0.30877823 7.8063827
0.65073884 -0.54516649 7.8746734
1.6954341 -1.2625096 8.1761084
2.4048667 -1.7734513 8.1799059
3.2158937 -2.3578284 8.3089857
4.1095476 -3.0032003 8.3957777
5.1278663 -3.7378287 8.4773111
6.3361368 -4.6101489 8.572875
7.0593476 -5.1006565 8.6383533
8.6439562 -6.2387424 8.677948
7.8424726 -5.6831937 8.7073154
9.805069 -7.0976286 8.8972635
0.99907684 -0.76306444 7.9921436
1.3078084 -0.98583382 7.8972621
2.0495772 -1.5235597 8.2114143
2.8083122 -2.0725484 8.2821608
3.6363742 -2.672013 8.3369598
4.5926685 -3.3649013 8.4345608
5.6914806 -4.1608639 8.5175915
0.34077853 -0.30996966 7.8063827
0.64923882 -0.54777896 7.8796449
1.6900116 -1.2676659 8.1712694
2.4097433 -1.7900681 8.2174482
3.207644 -2.3690395 8.3089857
4.10114 -3.0190732 8.4000435
5.1147876 -3.7557056 8.4773111
6.3172717 -4.6302338 8.5691996
7.0414996 -5.125267 8.6383533
8.6126823 -6.2620106 8.6685333
7.8195701 -5.7083325 8.70399
9.776968 -7.1294298 8.8943195
0.9982543 -0.76796919 8.0069618
1.3051699 -0.99100882 7.9021573
2.0442464 -1.5307049 8.2114143
2.797925 -2.0800073 8.2729559
3.6270249 -2.68469 8.3369598
4.57863 -3.379241 8.4304276
5.6743407 -4.1788049 8.5137539
0.33990666 -0.31135312 7.8113742
0.64813429 -0.55073327 7.8895879
1.6855763 -1.2735573 8.1712694
2.3993351 -1.7953669 8.2033701
3.1993549 -2.3802218 8.3089857
4.0905762 -3.0333705 8.4000435
5.1016469 -3.7735364 8.4773111
6.3010702 -4.652257 8.5691996
7.02069 -5.1477065 8.6348486
8.5907717 -6.2920365 8.6685333
7.7995973 -5.7355928 8.70399
9.748764 -7.1611218 8.8913765
0.99740952 -0.7728774 8.0217791
1.3025115 -0.99617743 7.9070525
2.0388908 -1.5378313 8.2114143
2.7875199 -2.087419 8.263751
3.6176314 -2.6973343 8.3369598
4.5668068 -3.3952026 8.4304276
5.6597195 -4.1985865 8.5137539
0.33902922 -0.31273422 7.8163657
0.647017 -0.55368656 7.8995309
1.6801205 -1.278672 8.1664305
2.3944314 -1.8047699 8.2080622
3.1910269 -2.3913753 8.3089857
4.0799632 -3.0476308 8.4000435
5.0884438 -3.7913218 8.4773111
6.2847929 -4.6742234 8.5691996
7.0026784 -5.1721816 8.6348486
8.5687561 -6.3219857 8.6685333
7.7765279 -5.760561 8.7006645
9.720459 -7.1927032 8.8884335
0.99654275 -0.77778918 8.0365973
1.2998327 -1.0013394 7.9119477
2.0335104 -1.5449389 8.2114143
2.7786567 -2.0959599 8.2591476
3.6081941 -2.7099457 8.3369598
4.5549273 -3.4111233 8.4304276
5.6450295 -4.218317 8.5137539
0.3381463 -0.31411299 7.8213573
0.64629036 -0.55698723 7.9144454
1.6756468 -1.2845289 8.1664305
2.3894916 -1.8141607 8.2127552
3.1826599 -2.4024994 8.3089857
4.0693002 -3.0618539 8.4000435
5.0751781 -3.8090606 8.4773111
6.2684383 -4.6961327 8.5691996
6.9845815 -5.1965938 8.6348486
8.5528841 -6.3565011 8.6748104
7.7563729 -5.7876716 8.7006645
9.6920509 -7.2241745 8.8854904
0.99565375 -0.78270411 8.0514145
1.2971338 -1.006495 7.9168429
2.028105 -1.5520278 8.2114143
2.7651014 -2.1009183 8.2407379
3.5987124 -2.7225242 8.3369598
4.5429926 -3.4270022 8.4304276
5.63027 -4.2379961 8.5137539
0.33725789 -0.31548941 7.8263493
0.64595068 -0.5606395 7.9343314
1.6711527 -1.2903702 8.1664305
2.3831444 -1.8224905 8.2127552
3.1742544 -2.4135945 8.3089857
4.0585876 -3.0760398 8.4000435
5.0618515 -3.8267531 8.4773111
6.2520075 -4.7179852 8.5691996
6.9663997 -5.2209435 8.6348486
8.5368748 -6.3909826 8.6810865
7.7331381 -5.8124676 8.6973391
9.6635427 -7.2555356 8.8825474
0.99474257 -0.78762239 8.0662327
1.2944146 -1.0116439 7.9217381
2.021493 -1.5581863 8.2066431
2.7639565 -2.1153073 8.2591476
3.5891874 -2.7350693 8.3369598
4.5310025 -3.4428391 8.4304276
5.6154428 -4.2576237 8.5137539
0.33636397 -0.31686348 7.8313408
0.64599425 -0.56464756 7.9591889
1.6676304 -1.2969676 8.1712694
2.3781354 -1.8318514 8.2174482
3.1658099 -2.42466 8.3089857
4.0457525 -3.0886052 8.3957777
5.0484629 -3.844399 8.4773111
6.2328019 -4.7377286 8.5655241
6.9452863 -5.2430801 8.6313438
8.523838 -6.427774 8.6905022
7.7128015 -5.839426 8.6973391
9.6349335 -7.2867851 8.8796034
0.99380922 -0.79254389 8.0810499
1.2908756 -1.0161561 7.9217381
2.0160418 -1.5652332 8.2066431
2.7534614 -2.1225567 8.2499428
3.5796185 -2.7475815 8.3369598
4.5189571 -3.4586346 8.4304276
5.6005468 -4.2771993 8.5137539
0.33546457 -0.3182351 7.8363323
0.64561796 -0.56830996 7.979075
1.663093 -1.3027807 8.1712694
2.37309 -1.8411993 8.2221413
3.1573272 -2.4356959 8.3089857
4.0349464 -3.1027088 8.3957777
5.0326214 -3.8601639 8.473321
6.2162261 -4.7594562 8.5655241
6.9269428 -5.267292 8.6313438
8.4982491 -6.4551339 8.6873636
7.6894021 -5.864049 8.6940126
9.606225 -7.317924 8.8766613
0.99285346 -0.7974683 8.0958672
1.2873206 -1.0206558 7.9217381
2.0105658 -1.5722609 8.2066431
3.5700054 -2.7600598 8.3369598
4.5068564 -3.4743872 8.4304276
5.5855823 -4.2967229 8.5137539
0.33455971 -0.31960434 7.8413239
0.64562237 -0.57233071 8.003933
1.6585354 -1.308578 8.1712694
2.3666484 -1.8494718 8.2221413
3.1488056 -2.446702 8.3089857
4.0220294 -3.1151774 8.3915119
5.0191164 -3.8777072 8.473321
6.1995745 -4.7811255 8.5655241
6.905683 -5.2892714 8.62784
8.4663906 -6.4776635 8.677948
7.6688862 -5.8908544 8.6940126
9.5774155 -7.3489504 8.8737183
0.99066764 -0.80141807 8.1008072
1.2837499 -1.0251431 7.9217381
2.0050652 -1.5792695 8.2066431
3.5603495 -2.7725046 8.3369598
4.4947014 -3.4900982 8.4304276
5.57055 -4.3161936 8.5137539
0.33344203 -0.32077023 7.8413239
0.64560664 -0.57635838 8.0287905
1.6539574 -1.3143594 8.1712694
2.3601782 -1.8577216 8.2221413
3.1402459 -2.4576786 8.3089857
4.0111313 -3.1291981 8.3915119
5.0055499 -3.8952038 8.473321
6.1801696 -4.8006573 8.5618486
6.8871784 -5.313344 8.62784
8.42523 -6.4929218 8.6591177
7.6453228 -5.9153023 8.6906872
9.5453072 -7.3773932 8.8678312
0.98906875 -0.80585331 8.1106853
1.2785771 -1.0283414 7.9119477
1.9995403 -1.5862589 8.2066431
3.5506499 -2.7849157 8.3369598
4.4824915 -3.5057662 8.4304276
5.5529232 -4.3336411 8.5099173
0.33252692 -0.32213384 7.8463159
0.64517468 -0.58003604 8.0486765
1.6493595 -1.3201249 8.1712694
2.3536792 -1.8659489 8.2221413
3.1316478 -2.4686251 8.3089857
4.0001836 -3.1431804 8.3915119
4.9895511 -3.910794 8.4693308
6.1633749 -4.8222013 8.5618486
6.8657727 -5.3351636 8.6243353
8.4055882 -6.5246787 8.6622562
7.6157932 -5.9350686 8.6807117
9.5131178 -7.4057012 8.8619452
0.98766071 -0.80757827 8.1106853
1.2753757 -1.0290695 7.9021573
1.9970462 -1.5893978 8.2066431
3.5467582 -2.7898707 8.3369598
4.4782047 -3.51124 8.4304276
5.5476246 -4.3404222 8.5099173
0.33245212 -0.32262573 7.8513074
0.64664644 -0.582385 8.0735331
1.6484373 -1.3212761 8.1712694
2.3510244 -1.8665185 8.2174482
3.1303549 -2.4702644 8.3089857
3.9985375 -3.1452746 8.3915119
4.9881854 -3.9125352 8.4693308
6.1616912 -4.8243523 8.5618486
6.856451 -5.3471389 8.6243353
8.4106836 -6.5498314 8.677948
7.6017823 -5.9348192 8.6707344
9.4951944 -7.4024005 8.850173
0.98327684 -0.81291026 8.1106853
1.2688197 -1.0355326 7.8972621
1.9878589 -1.6008735 8.2066431
3.5301402 -2.8108683 8.3369598
4.4538512 -3.5375578 8.4262943
5.5177321 -4.3732018 8.5060797
0.3301917 -0.32493877 7.8513074
0.64364165 -0.58807755 8.0884485
1.6387076 -1.3333241 8.1712694
2.3399661 -1.8858681 8.2268343
3.1112924 -2.494231 8.3089857
3.9742658 -3.1758878 8.3915119
4.957303 -3.9515913 8.4693308
6.1227608 -4.8736653 8.5618486
6.8255591 -5.3807583 8.6208315
8.3862028 -6.606338 8.6905022
7.5484571 -5.9784722 8.6574326
0.98057574 -0.81616646 8.1106853
1.2645922 -1.0390878 7.8923669
1.9839793 -1.6080507 8.2114143
3.5217848 -2.8213301 8.3369598
4.4439549 -3.5499816 8.4262943
5.5054979 -4.3885932 8.5060797
0.32960123 -0.32594836 7.8562989
0.64269799 -0.58989739 8.09342
1.6359116 -1.3367532 8.1712694
2.3386939 -1.8929362 8.2362194
3.106498 -2.5001996 8.3089857
3.9661267 -3.18188 8.3872452
4.9497075 -3.9611015 8.4693308
6.1124487 -4.8811617 8.5581732
6.806735 -5.404551 8.6208315
8.3764467 -6.643786 8.7030563
7.5261073 -5.9886088 8.6474562
0.97814983 -0.81907225 8.1106853
1.2607189 -1.0421865 7.8874717
1.9791994 -1.6139302 8.2114143
3.5133982 -2.8317668 8.3369598
4.4334025 -3.5631514 8.4262943
5.4924526 -4.4049087 8.5060797
0.32904056 -0.3273336 7.8662825
0.6409449 -0.59180176 8.09342
1.6319382 -1.3416011 8.1712694
2.3397574 -1.9053158 8.2596836
3.0990663 -2.5094056 8.3089857
3.9566686 -3.1936336 8.3872452
4.937933 -3.97577 8.4693308
6.0979385 -4.8992763 8.5581732
6.7906694 -5.4247231 8.6208315
8.3688669 -6.6783218 8.7156105
7.5024762 -6.0062456 8.6408052
0.97569448 -0.8207891 8.1057463
1.2583511 -1.0450443 7.8874717
1.9758148 -1.6180719 8.2114143
3.5074594 -2.839119 8.3369598
4.4237409 -3.5706611 8.4221621
5.4832153 -4.4164023 8.5060797
0.32861504 -0.32816944 7.871274
0.63991106 -0.59291947 8.09342
1.6283901 -1.3439317 8.1664305
2.3360953 -1.9098041 8.2596836
3.0946817 -2.5148106 8.3089857
3.9490621 -3.1988928 8.3829803
4.929337 -3.9816279 8.4653406
6.0893784 -4.9099112 8.5581732
6.7755623 -5.4378843 8.6173267
8.3700476 -6.708005 8.7313023
7.4851112 -6.0159607 8.6341543
0.97123933 -0.82605606 8.1057463
1.2526784 -1.0518373 7.8874717
1.9664627 -1.6294249 8.2114143
3.4905503 -2.8598826 8.3369598
4.4018464 -3.5976174 8.4221621
5.4536505 -4.4477892 8.5022421
0.32683563 -0.3307538 7.8812571
0.63536805 -0.59700686 8.0884485
1.618968 -1.3552672 8.1664305
2.3160639 -1.9205585 8.2362194
3.0761645 -2.5374281 8.3089857
3.9255071 -3.2277548 8.3829803
4.8993168 -4.0185094 8.4653406
6.048871 -4.954381 8.5544987
6.7469969 -5.4732862 8.6173267
8.3475714 -6.7669029 8.746995
7.4382 -6.0620522 8.6275034
0.96790451 -0.82876664 8.1008072
1.2499609 -1.056643 7.8923669
1.961334 -1.6355946 8.2114143
3.479701 -2.8693109 8.332572
4.3889794 -3.608875 8.4180288
5.4404297 -4.4639506 8.5022421
0.32637185 -0.33202156 7.8912406
0.63390738 -0.59855753 8.0884485
1.6156517 -1.359219 8.1664305
2.3073874 -1.9228973 8.2221413
3.0703993 -2.5444012 8.3089857
3.9181733 -3.2366531 8.3829803
4.8901868 -4.0296154 8.4653406
6.0384817 -4.9670386 8.5544987
6.7278504 -5.4968047 8.6173267
8.3492088 -6.8142366 8.7721024
7.419416 -6.0791383 8.6241779
0.9650057 -0.83214027 8.1008072
1.2470402 -1.0616601 7.8972621
1.9556128 -1.642431 8.2114143
3.4696639 -2.8814397 8.332572
4.3763552 -3.6241734 8.4180288
5.4248147 -4.4829144 8.5022421
0.32581362 -0.33378077 7.9062157
0.63181418 -0.60076672 8.0884485
1.6108974 -1.3648504 8.1664305
2.2966957 -1.9276114 8.2080622
3.0614989 -2.5551033 8.3089857
3.9068515 -3.2503104 8.3829803
4.876091 -4.0466609 8.4653406
6.0211067 -4.9880867 8.5544987
6.7058682 -5.5179896 8.613822
8.3103371 -6.8309803 8.7564096
7.3952708 -6.1026235 8.6208525
0.96150863 -0.83499402 8.0958672
1.2433267 -1.0660064 7.8972621
1.9487281 -1.6482832 8.2066431
3.4595847 -2.8935337 8.332572
4.3636775 -3.6394277 8.4180288
5.4066696 -4.4997725 8.4984045
0.32504687 -0.33533204 7.9161992
0.6297133 -0.60296845 8.0884485
1.6061233 -1.370465 8.1664305
2.2859995 -1.9322745 8.193985
3.052561 -2.5657744 8.3089857
3.8954821 -3.2639282 8.3829803
4.8596239 -4.0617247 8.4613504
6.0010557 -5.0069027 8.5508242
6.6865664 -5.5413642 8.613822
8.2894411 -6.8624301 8.7595482
7.3710523 -6.1260142 8.617527
0.95946431 -0.8361603 8.090929
1.2424225 -1.0686222 7.9021573
1.9461366 -1.6513423 8.2066431
3.4555411 -2.8983612 8.332572
4.357069 -3.642951 8.4138956
5.4011679 -4.5063753 8.4984045
0.32535413 -0.33624014 7.9311738
0.62918687 -0.60351777 8.0884485
1.6051661 -1.3715861 8.1664305
2.2833331 -1.9327549 8.189292
3.0512173 -2.5673726 8.3089857
3.8937724 -3.2659674 8.3829803
4.8582058 -4.0634208 8.4613504
5.9993081 -5.008997 8.5508242
6.6768847 -5.5530257 8.613822
8.2756557 -6.8729548 8.7564096
7.3657036 -6.1324439 8.617527
0.030022684 -0.056165699 5.8640504
0.9559558 -0.83899158 8.08599
1.2384975 -1.0731689 7.9021573
1.9412055 -1.6594342 8.2114143
3.444387 -2.9116082 8.332572
4.3424101 -3.6604121 8.4138956
5.3830347 -4.5280204 8.4984045
0.32428208 -0.33807471 7.9411569
0.62654752 -0.60625738 8.0884485
1.5998775 -1.3796769 8.1712694
2.2745388 -1.9430964 8.189292
3.0390851 -2.5817225 8.3089857
3.8783388 -3.2842801 8.3829803
4.8382902 -4.0871139 8.4613504
5.9747577 -5.0382552 8.5508242
6.6547256 -5.5740085 8.6103172
8.2504091 -6.9032407 8.7564096
7.3388758 -6.1645246 8.617527
0.029730115 -0.056026723 5.8340511
0.95185733 -0.84129387 8.0761108
1.2347438 -1.0774854 7.9021573
1.9354013 -1.6662002 8.2114143
3.4342024 -2.9236135 8.332572
4.3296065 -3.6755476 8.4138956
5.3671961 -4.5467825 8.4984045
0.32349673 -0.33962411 7.9511404
0.6244275 -0.6084407 8.0884485
1.5950516 -1.3852531 8.1712694
2.2703586 -1.9532752 8.198678
3.0300546 -2.592315 8.3089857
3.8668509 -3.2977979 8.3829803
4.8216987 -4.102025 8.4573603
5.9571347 -5.0590806 8.5508242
6.6352282 -5.5972037 8.6103172
8.226263 -6.9319978 8.7564096
7.3144612 -6.1876926 8.6142015
0.029534362 -0.056130163 5.8340511
0.94833463 -0.84409457 8.0711718
1.2302105 -1.0811167 7.8972621
1.9295734 -1.6729457 8.2114143
3.4239762 -2.9355836 8.332572
4.31675 -3.6906383 8.4138956
5.3512926 -4.5654902 8.4984045
0.32270446 -0.34117213 7.9611235
0.62229979 -0.61061668 8.0884485
1.5902065 -1.3908124 8.1712694
2.2661347 -1.9634485 8.2080622
3.0209875 -2.6028759 8.3089857
3.8553157 -3.3112757 8.3829803
4.8073506 -4.1188312 8.4573603
5.936862 -5.0776401 8.5471487
6.6156502 -5.6203313 8.6103172
8.199049 -6.9581528 8.7532721
7.295661 -6.2156096 8.617527
0.94480401 -0.84688091 8.0662327
1.2256669 -1.0847293 7.8923669
1.923722 -1.679671 8.2114143
3.4118953 -2.9459522 8.3281832
4.3038411 -3.7056842 8.4138956
5.3328919 -4.5820527 8.4945669
0.32170847 -0.34250766 7.9661155
0.62016457 -0.61278516 8.0884485
1.585342 -1.3963548 8.1712694
2.2605677 -1.9724816 8.2127552
3.011883 -2.6134055 8.3089857
3.843734 -3.324713 8.3829803
4.7906628 -4.1336179 8.4533701
5.9191017 -5.0983329 8.5471487
6.5932808 -5.6410708 8.6068125
8.171751 -6.9842019 8.7501335
7.2739196 -6.2410378 8.617527
0.94126546 -0.84965289 8.0612926
1.221113 -1.0883235 7.8874717
1.9167261 -1.6853901 8.2066431
3.4015915 -2.957844 8.3281832
4.2908797 -3.7206848 8.4138956
5.316865 -4.6006408 8.4945669
0.32090324 -0.34405217 7.976099
0.61802173 -0.61494619 8.0884485
1.5804582 -1.4018801 8.1712694
2.2562611 -1.9826388 8.2221413
3.0027425 -2.623903 8.3089857
3.8321052 -3.33811 8.3829803
4.7762046 -4.1503153 8.4533701
5.901269 -5.1189632 8.5471487
6.5735502 -5.6640511 8.6068125
8.144372 -7.0101447 8.746995
7.25209 -6.2663908 8.617527
0.029037884 -0.056681111 5.8640504
0.93829387 -0.85293335 8.0612926
1.2165489 -1.0918992 7.8825765
1.909714 -1.6910807 8.2018709
3.3912458 -2.9696996 8.3281832
4.2778659 -3.7356398 8.4138956
5.3007736 -4.6191716 8.4945669
0.31989574 -0.34538275 7.9810901
0.61587143 -0.61709976 8.0884485
1.5755551 -1.4073886 8.1712694
2.2506189 -1.9916462 8.2268343
2.9919307 -2.6329303 8.3044844
3.8204296 -3.3514662 8.3829803
4.7616878 -4.1669621 8.4533701
5.8833647 -5.1395311 8.5471487
6.5510454 -5.6846256 8.6033077
8.1169109 -7.0359817 8.7438564
7.2189054 -6.2818623 8.6042252
0.028839853 -0.05678213 5.8640504
