# .PCD v0.7 - Point Cloud Data file format
VERSION 0.7
FIELDS x y z
SIZE 4 4 4
TYPE F F F
COUNT 1 1 1
WIDTH 1398
HEIGHT 1
VIEWPOINT 0 0 0 1 0 0 0
POINTS 1398
DATA ascii
-0.90347934 -0.51355398 1.4508783
-0.88477242 -0.50392693 1.1821188
-0.88500547 -0.50794476 1.0825521
-0.85984844 -0.49409485 0.88202262
-0.85363269 -0.49110633 0.73029011
-0.84197843 -0.48478448 0.59513074
-0.83218652 -0.47952503 0.4763687
-0.81894416 -0.47226691 0.36781636
-0.81260937 -0.46898606 0.2696026
-0.80622452 -0.46566764 0.17653254
-0.88134813 -0.50420541 0.98550397
-0.85105455 -0.48745692 0.79768533
-0.84678406 -0.48539492 0.6591689
-0.84334111 -0.48399949 0.53695905
-0.82763976 -0.47536424 0.42132831
-0.80922455 -0.46515471 0.31583801
-0.80266339 -0.46156383 0.22135513
-0.80084217 -0.46087974 0.13094862
-0.06271559 -0.0085524051 5.8190517
-1.3049734 -0.70341098 9.4245281
-1.090078 -0.59665751 5.9979138
-0.98213905 -0.54621363 3.639854
-0.94328052 -0.52886903 2.6072483
-0.93720818 -0.52801001 2.0386319
-0.9266001 -0.52371413 1.63586
-0.89406174 -0.50654268 1.3069214
-0.31050104 -0.13492291 5.6949105
-0.69711882 -0.33328974 7.1637483
-1.0325688 -0.56841069 4.5755773
-0.97639209 -0.54342979 3.0929477
-0.93208343 -0.52214217 2.2728574
-0.93355143 -0.52486295 1.8219732
-0.90264153 -0.50891739 1.4468882
-0.88357419 -0.49916804 1.1784436
-0.88367391 -0.50308824 1.0790474
-0.8581863 -0.48916313 0.87888414
-0.85534173 -0.48812363 0.73029011
-0.84366548 -0.48184249 0.59513074
-0.83385533 -0.47661725 0.4763687
-0.81642377 -0.46702358 0.36640632
-0.81424147 -0.46614665 0.2696026
-0.80784518 -0.46285051 0.17653254
-0.87985533 -0.49928331 0.98217851
-0.84923643 -0.4824867 0.79474217
-0.84472567 -0.48030552 0.6566357
-0.84502548 -0.48105276 0.53695905
-0.82929397 -0.47247234 0.42132831
-0.80662084 -0.45991963 0.31466568
-0.80426961 -0.45875919 0.22135513
-0.80244607 -0.45808148 0.13094862
-0.062745057 -0.0083334353 5.8190517
-1.3094769 -0.6999498 9.4393463
-1.0894692 -0.59139228 5.9832282
-0.98273247 -0.54206121 3.6350818
-0.94512087 -0.52557319 2.6072483
-0.9369548 -0.52356726 2.0342431
-0.92596775 -0.51910067 1.631727
-0.89303005 -0.50184864 1.3030838
-0.3109701 -0.13383824 5.6949105
-0.69924212 -0.33130944 7.1736913
-1.0323397 -0.56359869 4.5658979
-0.97526121 -0.53835076 3.0835621
-0.93199736 -0.51782835 2.2683563
-0.93309999 -0.52033114 1.8177074
-0.90178245 -0.50429302 1.4428982
-0.88235354 -0.49442369 1.1747683
-0.88231921 -0.49824718 1.0755429
-0.85650015 -0.484249 0.87574571
-0.85704041 -0.48513493 0.73029011
-0.84148794 -0.47671127 0.59281194
-0.83551389 -0.47370362 0.4763687
-0.81804901 -0.46417087 0.36640632
-0.8115921 -0.46087596 0.26866996
-0.80945587 -0.46002778 0.17653254
-0.87833893 -0.49437779 0.97885299
-0.85091543 -0.47951937 0.79474217
-0.8463971 -0.47735393 0.6566357
-0.84669954 -0.47810012 0.53695905
-0.83093822 -0.46957469 0.42132831
-0.80399042 -0.45470843 0.31349337
-0.80155599 -0.45351046 0.22066444
-0.79969281 -0.45281601 0.13074709
-0.062773764 -0.0081143631 5.8190517
-1.3043592 -0.69137383 9.3850145
-1.0879402 -0.58565605 5.9636474
-0.98461866 -0.53862756 3.6350818
-0.94523877 -0.52132756 2.6026456
-0.93668175 -0.51913273 2.0298538
-0.92531455 -0.514498 1.6275939
-0.8947764 -0.49872831 1.3030838
-0.31170154 -0.1328638 5.6999025
-1.0320898 -0.55879527 4.5562196
-0.97562063 -0.53411478 3.0788693
-0.93189245 -0.51352149 2.263855
-0.93262821 -0.51580882 1.8134414
-0.90090203 -0.49968082 1.4389081
-0.88407409 -0.4913407 1.1747683
-0.88094145 -0.49342173 1.0720384
-0.85818529 -0.48125631 0.87574571
-0.85872859 -0.48214036 0.73029011
-0.84314686 -0.47377104 0.59281194
-0.83312148 -0.46851197 0.47449568
-0.81548375 -0.45895982 0.36499628
-0.81319588 -0.45804018 0.26866996
-0.81105673 -0.45719945 0.17653254
-0.87679905 -0.48948896 0.97552752
-0.84905571 -0.47457427 0.79179901
-0.84429598 -0.47229218 0.65410256
-0.84440345 -0.47292408 0.53486103
-0.83257228 -0.46667129 0.42132831
-0.80557275 -0.45189923 0.31349337
-0.80313414 -0.45070973 0.22066444
-0.80126852 -0.4500218 0.13074709
-0.062801704 -0.0078951921 5.8190517
-1.3067646 -0.68681657 9.3850145
-1.0872828 -0.58041704 5.9489617
-0.98518062 -0.53447574 3.6303101
-0.94533873 -0.51708764 2.5980432
-0.93638921 -0.51470655 2.025465
-0.92464054 -0.50990617 1.623461
-0.89370662 -0.49405146 1.2992463
-0.31216341 -0.13177495 5.6999025
-1.031819 -0.55400044 4.5465403
-0.9759624 -0.52988279 3.0741765
-0.93176889 -0.50922173 2.2593539
-0.9321363 -0.51129609 1.8091755
-0.90000051 -0.49508092 1.4349182
-0.88281471 -0.48661539 1.1710931
-0.88265848 -0.49034363 1.0720384
-0.85645831 -0.47636598 0.87260723
-0.85675311 -0.47710568 0.72754866
-0.84092599 -0.46866861 0.59049314
-0.83475184 -0.465601 0.47449568
-0.81708086 -0.45611045 0.36499628
-0.81478977 -0.45519879 0.26866996
-0.80830103 -0.45193526 0.17608546
-0.8752358 -0.48461694 0.972202
-0.8471719 -0.46964803 0.78885585
-0.84593946 -0.46934214 0.65410256
-0.84208155 -0.46776986 0.53276294
-0.83419615 -0.46376225 0.42132831
-0.80714524 -0.44908449 0.31349337
-0.80037564 -0.44549519 0.21997377
-0.80283457 -0.44722208 0.13074709
-0.062828884 -0.0076759253 5.8190517
-1.2995062 -0.67722642 9.3158646
-1.0866021 -0.57518977 5.9342756
-0.984411 -0.52961963 3.6207662
-0.9454205 -0.51285332 2.5934405
-0.93607712 -0.51028866 2.0210757
-0.92394578 -0.50532544 1.619328
-0.89261502 -0.48938811 1.2954088
-0.31262147 -0.13068449 5.6999025
-1.0304177 -0.54862386 4.5320225
-0.97628653 -0.52565497 3.0694838
-0.92971265 -0.503892 2.2503514
-0.93162423 -0.5067932 1.8049095
-0.89907789 -0.49049345 1.4309281
-0.88450789 -0.48353082 1.1710931
-0.88124108 -0.48553881 1.0685339
-0.85811591 -0.47337347 0.87260723
-0.85841328 -0.47411212 0.72754866
-0.83867979 -0.46358746 0.58817434
-0.83231539 -0.46044034 0.47262263
-0.81447119 -0.45093209 0.36358625
-0.81637377 -0.4523519 0.26866996
-0.80987364 -0.44911104 0.17608546
-0.87364918 -0.47976178 0.96887648
-0.84526408 -0.46474075 0.78591269
-0.84379578 -0.46430838 0.65156937
-0.83973402 -0.46263769 0.53066492
-0.83580989 -0.46084753 0.42132831
-0.80445224 -0.44391599 0.31232107
-0.79759043 -0.44030541 0.21928309
-0.80439073 -0.44441697 0.13074709
-0.062811658 -0.0074562677 5.8140521
-1.2935774 -0.66840822 9.2565937
-1.0858983 -0.5699743 5.9195905
-0.98493654 -0.52547777 3.615994
-0.94376379 -0.50769949 2.5842357
-0.93785262 -0.50701803 2.0210757
-0.92323041 -0.50075579 1.615195
-0.89150184 -0.48473847 1.2915714
-0.31280845 -0.12948337 5.6949105
-1.030103 -0.54385042 4.5223432
-0.97659302 -0.52143133 3.064791
-0.92954826 -0.4996132 2.2458501
-0.9310922 -0.50230014 1.8006437
-0.90078455 -0.48735207 1.4309281
-0.88320982 -0.47882476 1.167418
-0.88293052 -0.48245975 1.0685339
-0.85976309 -0.47037521 0.87260723
-0.85639566 -0.4691042 0.7248072
-0.8364085 -0.45852783 0.58585554
-0.83391756 -0.4575322 0.47262263
-0.81604028 -0.44808629 0.36358625
-0.81794775 -0.44949943 0.26866996
-0.80707282 -0.44388142 0.17563838
-0.87203944 -0.47492364 0.96555102
-0.84688121 -0.46178737 0.78591269
-0.84541136 -0.46136013 0.65156937
-0.84134376 -0.45970365 0.53066492
-0.83741349 -0.4579272 0.42132831
-0.80599689 -0.44110525 0.31232107
-0.79912251 -0.4375186 0.21928309
-0.81031847 -0.4440071 0.13094862
-0.06283731 -0.0072369687 5.8140521
-1.2945193 -0.66318053 9.2467146
-1.0851712 -0.56477082 5.9049048
-0.98412561 -0.52064085 3.6064501
-0.94208246 -0.50256348 2.5750306
-0.9375059 -0.50260985 2.0166867
-0.92249435 -0.49619722 1.6110622
-0.89318854 -0.48162356 1.2915714
-0.31325853 -0.12839067 5.6949105
-0.5479579 -0.24828434 5.5678959
-1.0297678 -0.53908592 4.5126648
-0.97688198 -0.51721197 3.0600982
-0.9293654 -0.49534178 2.241349
-0.93054008 -0.49781689 1.7963778
-0.89982486 -0.48278043 1.4269381
-0.88487589 -0.47573888 1.167418
-0.88147366 -0.47767588 1.0650293
-0.86139977 -0.46737123 0.87260723
-0.85435355 -0.4641161 0.72206575
-0.83800393 -0.45560542 0.58585554
-0.82736516 -0.45018727 0.46887657
-0.8133865 -0.44294092 0.36217624
-0.81951183 -0.44664153 0.26866996
-0.80861735 -0.44106153 0.17563838
-0.87040657 -0.47010261 0.9622255
-0.84493244 -0.45690593 0.78296953
-0.84322536 -0.45635465 0.64903617
-0.8389529 -0.45460194 0.52856684
-0.83485574 -0.45275024 0.4196848
-0.80325967 -0.43597052 0.31114873
-0.7962929 -0.43236354 0.21859241
-0.81186342 -0.44117585 0.13094862
-0.062862188 -0.0070175817 5.8140521
-1.294055 -0.65725118 9.2269583
-1.0844212 -0.55957937 5.8902192
-0.98461509 -0.51650929 3.6016781
-0.94210404 -0.49835867 2.5704281
-0.93713975 -0.49821025 2.0122976
-0.92422074 -0.4929741 1.6110622
-0.89203763 -0.47699165 1.2877338
-0.31370482 -0.12729642 5.6949105
-0.54979467 -0.24680491 5.5778389
-1.0294117 -0.53433037 4.5029855
-0.9756254 -0.51219511 3.0507126
-0.92916405 -0.49107772 2.2368479
-0.92996818 -0.49334374 1.7921119
-0.8988443 -0.47822142 1.4229481
-0.8835395 -0.4710525 1.1637428
-0.87999433 -0.47290808 1.0615247
-0.8630259 -0.46436152 0.87260723
-0.85228711 -0.45914799 0.71932429
-0.83568996 -0.45057529 0.58353674
-0.82485169 -0.44509506 0.46700355
-0.8149277 -0.44009897 0.36217624
-0.81674445 -0.44144255 0.26773736
-0.81015205 -0.43823621 0.17563838
-0.87204224 -0.46706146 0.9622255
-0.84652221 -0.45395377 0.78296953
-0.84481323 -0.45340848 0.64903617
-0.84053469 -0.45167065 0.52856684
-0.83227211 -0.44759673 0.41804129
-0.80049652 -0.43086034 0.3099764
-0.80215746 -0.43192905 0.21928309
-0.81339848 -0.43833923 0.13094862
-0.062886298 -0.006798109 5.8140521
-1.2935649 -0.65133309 9.207201
-1.0836481 -0.55440009 5.8755331
-0.98376316 -0.51169205 3.5921342
-0.94210762 -0.49415979 2.5658255
-0.93675441 -0.49381942 2.0079086
-0.92344832 -0.48842949 1.6069292
-0.8936972 -0.47387496 1.2877338
-0.31414723 -0.1262006 5.6949105
-0.54967791 -0.24445285 5.5678959
-1.029035 -0.52958393 4.4933071
-0.97281486 -0.50639671 3.0366344
-0.92894417 -0.48682106 2.2323468
-0.93168455 -0.49009451 1.7921119
-0.90050817 -0.47508094 1.4229481
-0.88517845 -0.46796548 1.1637428
-0.87849236 -0.46815646 1.0580202
-0.86464161 -0.46134618 0.87260723
-0.85388464 -0.45617017 0.71932429
-0.83725768 -0.44765544 0.58353674
-0.82231277 -0.44002596 0.46513051
-0.81645894 -0.43725166 0.36217624
-0.8182804 -0.43858889 0.26773736
-0.80728835 -0.43305153 0.1751913
-0.8736673 -0.46401462 0.9622255
-0.84810162 -0.4509961 0.78296953
-0.84639078 -0.45045674 0.64903617
-0.83810079 -0.44659969 0.52646881
-0.82966274 -0.44246683 0.41639778
-0.80199558 -0.42806348 0.3099764
-0.80366033 -0.42912638 0.21928309
-0.81051737 -0.4331426 0.13074709
-0.062953278 -0.006578241 5.8190517
-1.2923542 -0.64507967 9.1825047
-1.0828521 -0.54923296 5.8608475
-0.98421651 -0.50757104 3.5873621
-0.94382679 -0.49086821 2.5658255
-0.93634981 -0.48943728 2.0035193
-0.92265534 -0.48389629 1.6027963
-0.89534587 -0.47075248 1.2877338
-0.31458583 -0.12510325 5.6949105
-0.55345714 -0.24381666 5.5977249
-1.0286378 -0.52484655 4.4836278
-0.96997583 -0.50062424 3.0225561
-0.93063784 -0.48357546 2.2323468
-0.93107712 -0.48563349 1.7878458
-0.89949089 -0.4705382 1.4189581
-0.88380384 -0.46329901 1.1600677
-0.87696797 -0.46342111 1.0545157
-0.8628062 -0.45650506 0.86946881
-0.85547173 -0.45318678 0.71932429
-0.83881515 -0.44473016 0.58353674
-0.81974852 -0.43498001 0.46325746
-0.81374353 -0.43214917 0.3607662
-0.81546861 -0.43342444 0.26680472
-0.80879509 -0.43023095 0.1751913
-0.87197798 -0.45922247 0.95890003
-0.84609526 -0.4461478 0.78002638
-0.84414542 -0.44548771 0.64650303
-0.83965462 -0.44367146 0.52646881
-0.82702774 -0.43736058 0.41475427
-0.80348492 -0.42526138 0.3099764
-0.80515331 -0.42631847 0.21928309
-0.81202435 -0.43031073 0.13074709
-0.062975854 -0.0063584526 5.8190517
-1.2939014 -0.64022017 9.1775656
-1.0811235 -0.543621 5.8412666
-0.98465317 -0.50345308 3.5825901
-0.94379795 -0.4866755 2.5612228
-0.93592596 -0.48506403 1.9991302
-0.92433888 -0.48067266 1.6027963
-0.89414138 -0.46614277 1.2838963
-0.31502062 -0.12400439 5.6949105
-0.5513711 -0.24060947 5.5678959
-1.0282201 -0.52011853 4.4739494
-0.96710843 -0.49487785 3.0084779
-0.93038487 -0.47932726 2.2278454
-0.93276662 -0.48238048 1.7878458
-0.89845282 -0.46600831 1.414968
-0.88240743 -0.45864782 1.1563925
-0.87542129 -0.45870209 1.0510111
-0.86439443 -0.45349053 0.86946881
-0.85704845 -0.45019788 0.71932429
-0.84036243 -0.44179943 0.58353674
-0.82126188 -0.43211591 0.46325746
-0.81524706 -0.42930603 0.3607662
-0.81263101 -0.42828506 0.26587209
-0.80588716 -0.42508176 0.17474423
-0.87357563 -0.45617592 0.95890003
-0.84764737 -0.44319165 0.78002638
-0.84569538 -0.44253838 0.64650303
-0.84119821 -0.44073781 0.52646881
-0.82436723 -0.43227819 0.41311076
-0.80066061 -0.42019543 0.30880409
-0.81102115 -0.4258073 0.21997377
-0.81352144 -0.4274736 0.13074709
-0.062997669 -0.0061385869 5.8190517
-1.2884537 -0.63193822 9.1232328
-1.0802803 -0.53848189 5.826581
-0.98507297 -0.49933827 3.5778182
-0.94549102 -0.48337805 2.5612228
-0.93548322 -0.48069972 1.9947413
-0.9235099 -0.47615391 1.5986633
-0.89576304 -0.46301877 1.2838963
-0.31545156 -0.122904 5.6949105
-0.54975915 -0.23763038 5.5430384
-1.0289056 -0.51596302 4.4691095
-0.96575183 -0.48993802 2.9990923
-0.93011349 -0.47508666 2.2233443
-0.9321239 -0.47793183 1.7835798
-0.89739424 -0.4614915 1.410978
-0.88098937 -0.45401207 1.1527174
-0.87701708 -0.45564348 1.0510111
-0.86251903 -0.44867441 0.86633033
-0.85861474 -0.44720346 0.71932429
-0.83797127 -0.4368158 0.58121794
-0.82687551 -0.43139076 0.46513051
-0.81248832 -0.42423746 0.35935616
-0.81412107 -0.42544585 0.26587209
-0.80736607 -0.4222661 0.17474423
-0.87516266 -0.45312378 0.95890003
-0.84560078 -0.43836999 0.77708322
-0.84340835 -0.43759847 0.64396977
-0.83870399 -0.43570665 0.52437073
-0.82587111 -0.42939797 0.41311076
-0.80212247 -0.41739804 0.30880409
-0.8125025 -0.42297369 0.21997377
-0.81057805 -0.42232287 0.13054556
-0.063062333 -0.0059178779 5.8240519
-1.2864583 -0.62539971 9.0935984
-1.0785016 -0.53290445 5.8070002
-0.98547614 -0.49522674 3.5730462
-0.94542986 -0.47919175 2.5566204
-0.93502134 -0.47634441 1.990352
-0.92266059 -0.47164673 1.5945303
-0.89452124 -0.45842752 1.2800589
-0.31587866 -0.12180212 5.6949105
-0.55254704 -0.23654546 5.5629244
-1.0295746 -0.51180899 4.4642701
-0.96437252 -0.48501369 2.989707
-0.92982405 -0.47085384 2.218843
-0.93146145 -0.47349361 1.7793139
-0.8963151 -0.45698771 1.406988
-0.88256884 -0.45093408 1.1527174
-0.87543184 -0.45094648 1.0475066
-0.86407995 -0.44566092 0.86633033
-0.85645521 -0.44228518 0.71658283
-0.83949095 -0.43388808 0.58121794
-0.82837629 -0.42850175 0.46513051
-0.81396425 -0.42139876 0.35935616
-0.81123954 -0.42034161 0.26493949
-0.80883509 -0.41944528 0.17474423
-0.87341726 -0.44836119 0.95557451
-0.84712577 -0.43541563 0.77708322
-0.84493071 -0.43465176 0.64396977
-0.84021974 -0.43277636 0.52437073
-0.82316768 -0.42434892 0.41146725
-0.80357456 -0.41459557 0.30880409
-0.80957353 -0.4178637 0.21928309
-0.8120473 -0.41949084 0.13054556
-0.063082613 -0.0056977132 5.8240519
-1.2823327 -0.61787164 9.0491447
-1.0766971 -0.52734607 5.7874193
-0.98586255 -0.49111843 3.5682743
-0.94535089 -0.47501177 2.5520179
-0.93454039 -0.47199816 1.9859631
-0.92179114 -0.46715128 1.5903975
-0.89325833 -0.45385063 1.2762213
-0.31630191 -0.12069876 5.6949105
-0.55484277 -0.23523675 5.5778389
-1.0302273 -0.50765663 4.4594307
-0.96297067 -0.48010501 2.9803214
-0.93146193 -0.46760529 2.218843
-0.93077946 -0.46906585 1.775048
-0.89790481 -0.45385623 1.406988
-0.88111311 -0.44631889 1.1490422
-0.87700057 -0.44788793 1.0475066
-0.86216474 -0.44087011 0.8631919
-0.85799384 -0.43929291 0.71658283
-0.84100038 -0.43095505 0.58121794
-0.83399212 -0.42772308 0.46700355
-0.81116247 -0.41636443 0.35794613
-0.81270188 -0.41750726 0.26493949
-0.80586547 -0.41434225 0.17429715
-0.87497705 -0.44530967 0.95557451
-0.84503901 -0.43062091 0.77414006
-0.84644282 -0.43169972 0.64396977
-0.83768326 -0.42777687 0.52227271
-0.82884872 -0.42362189 0.41311076
-0.80501688 -0.41178808 0.30880409
-0.80661881 -0.4127793 0.21859241
-0.8135066 -0.41665372 0.13054556
-0.063102111 -0.0054774792 5.8240519
-1.279573 -0.61104929 9.0145702
-1.0757829 -0.52225113 5.7727332
-0.98489374 -0.48635271 3.5587301
-0.94525445 -0.47083819 2.5474155
-0.93618226 -0.46873313 1.9859631
-0.92090154 -0.46266776 1.5862645
-0.89483708 -0.45072982 1.2762213
-0.31672129 -0.11959393 5.6949105
-0.55713612 -0.23391493 5.5927529
-1.0308635 -0.503506 4.4545918
-0.96154618 -0.47521201 2.9709356
-0.93113953 -0.46338141 2.2143419
-0.93007797 -0.46464869 1.7707821
-0.89678955 -0.44936949 1.402998
-0.88266569 -0.44324049 1.1490422
-0.8785587 -0.44482386 1.0475066
-0.86369836 -0.4378579 0.8631919
-0.85579336 -0.43440276 0.71384138
-0.84249955 -0.42801678 0.58121794
-0.83548009 -0.42480928 0.46700355
-0.81261092 -0.41353041 0.35794613
-0.81415433 -0.41466787 0.26493949
-0.80730689 -0.41152674 0.17429715
-0.87319243 -0.44057098 0.95224905
-0.84653705 -0.42766854 0.77414006
-0.8440975 -0.42679748 0.64143664
-0.83917141 -0.4248502 0.52227271
-0.83032238 -0.42072609 0.41311076
-0.80644935 -0.40897551 0.30880409
-0.80363852 -0.40772066 0.21790172
-0.81495607 -0.4138115 0.13054556
-0.063077234 -0.0052584042 5.8190517
-1.2732693 -0.60259289 8.9552994
-1.0748465 -0.517169 5.7580476
-0.98524469 -0.48225588 3.5539584
-0.9451403 -0.46667102 2.5428128
-0.93566734 -0.46439785 1.9815739
-0.91999191 -0.4581961 1.5821315
-0.89353728 -0.44617182 1.2723838
-0.31713682 -0.11848763 5.6949105
-0.55893445 -0.23237619 5.6026964
-1.0314834 -0.49935707 4.4497519
-0.96009946 -0.47033483 2.96155
-0.93079883 -0.45916545 2.2098405
-0.92935699 -0.46024209 1.7665161
-0.89835268 -0.44623637 1.402998
-0.88420749 -0.44015673 1.1490422
-0.88010603 -0.4417544 1.0475066
-0.86174369 -0.43309268 0.86005342
-0.85356921 -0.42953339 0.71109986
-0.84003204 -0.42308083 0.57889915
-0.83695781 -0.42189032 0.46700355
-0.80976653 -0.40853071 0.35653609
-0.81121188 -0.40960935 0.26400685
-0.80429381 -0.40646008 0.17385007
-0.87472504 -0.43752027 0.95224905
-0.84802473 -0.42471099 0.77414006
-0.84558213 -0.42384845 0.64143664
-0.84064931 -0.42191833 0.52227271
-0.83600569 -0.4199447 0.41475427
-0.80787206 -0.40615797 0.30880409
-0.80063277 -0.40268794 0.21721105
-0.81639558 -0.41096425 0.13054556
-0.063095205 -0.0050381911 5.8190517
-1.2739578 -0.59748524 8.9454203
-1.0738876 -0.51209986 5.7433624
-0.98423576 -0.47751114 3.5444143
-0.9450087 -0.4625105 2.5382104
-0.93728268 -0.46112892 1.9815739
-0.91906232 -0.45373642 1.5779986
-0.89221656 -0.44162843 1.2685463
-0.31754848 -0.1173799 5.6949105
-0.55875558 -0.2300197 5.5927529
-1.0309534 -0.49466643 4.440073
-0.96018296 -0.46622708 2.9568574
-0.93239599 -0.45591354 2.2098405
-0.92861658 -0.45584619 1.7622502
-0.89720142 -0.44176698 1.3990079
-0.88269824 -0.43556762 1.145367
-0.8816427 -0.43867958 1.0475066
-0.8632502 -0.43008199 0.86005342
-0.8513217 -0.42468488 0.70835841
-0.8415038 -0.42014599 0.57889915
-0.8384254 -0.41896626 0.46700355
-0.81118768 -0.40570158 0.35653609
-0.81263667 -0.40677521 0.26400685
-0.80570769 -0.40365008 0.17385007
-0.87290168 -0.43280584 0.94892353
-0.84588164 -0.41995102 0.7711969
-0.84705651 -0.42089424 0.64143664
-0.83805352 -0.41695982 0.52017462
-0.83746648 -0.41702396 0.41475427
-0.80928487 -0.40333551 0.30880409
-0.8020336 -0.39989072 0.21721105
-0.81782514 -0.40811202 0.13054556
-0.0630688 -0.0048194481 5.8140521
-1.2711027 -0.59074378 8.9108458
-1.0729066 -0.50704372 5.7286763
-0.98455119 -0.47342598 3.5396423
-0.94310164 -0.45750409 2.5290053
-0.9367339 -0.4568049 1.977185
-0.91811281 -0.44928885 1.5738657
-0.89087498 -0.4370997 1.2647089
-0.31768468 -0.11617295 5.6899195
-0.55906111 -0.22786759 5.5877819
-1.0315386 -0.49052516 4.4352341
-0.96024942 -0.4621245 2.9521646
-0.93202263 -0.45170698 2.2053394
-0.92785686 -0.45146117 1.7579843
-0.89602995 -0.43731108 1.395018
-0.88421327 -0.43248379 1.145367
-0.88316858 -0.43559942 1.0475066
-0.86474621 -0.42706609 0.86005342
-0.84905058 -0.41985732 0.70561695
-0.83899504 -0.41524127 0.57658035
-0.83572853 -0.41397935 0.46513051
-0.81259888 -0.40286756 0.35653609
-0.81405169 -0.40393609 0.26400685
-0.8071118 -0.40083519 0.17385007
-0.87440711 -0.42975619 0.94892353
-0.84734237 -0.41699579 0.7711969
-0.84465331 -0.41603029 0.63890344
-0.83950382 -0.41403195 0.52017462
-0.83891708 -0.41409808 0.41475427
-0.81068784 -0.40050814 0.30880409
-0.79898506 -0.39489454 0.21652037
-0.81924474 -0.40525478 0.13054556
-0.063085243 -0.0045992676 5.8140521
-1.2689219 -0.58435428 8.8812094
-1.0728256 -0.50243229 5.7188859
-0.98350257 -0.46870258 3.5300984
-0.94293201 -0.45336294 2.5244026
-0.93832272 -0.45353231 1.977185
-0.91967553 -0.44608128 1.5738657
-0.88951284 -0.43258575 1.2608713
-0.31808826 -0.11506332 5.6899195
-0.5588637 -0.22551759 5.5778389
-1.0309702 -0.48585024 4.4255548
-0.96029907 -0.45802718 2.9474719
-0.93163127 -0.44750845 2.2008381
-0.92707783 -0.44708693 1.7537184
-0.89755094 -0.43418071 1.395018
-0.88266689 -0.42791599 1.1416919
-0.8814798 -0.43094778 1.0440021
-0.86273557 -0.42233375 0.85691494
-0.84675628 -0.41505077 0.70287549
-0.83646226 -0.41035917 0.57426155
-0.83300704 -0.40901643 0.46325746
-0.81400019 -0.40002859 0.35653609
-0.81104881 -0.39892402 0.26307425
-0.80403811 -0.39581591 0.17340299
-0.87254524 -0.42506632 0.94559801
-0.84879279 -0.41403547 0.7711969
-0.84610039 -0.41307938 0.63890344
-0.84094399 -0.41109899 0.52017462
-0.83611572 -0.40909195 0.41311076
-0.80771559 -0.39553821 0.30763176
-0.80035865 -0.39210317 0.21652037
-0.81616867 -0.40019315 0.13034403
-0.063100912 -0.0043790303 5.8140521
-1.0718018 -0.4973993 5.7042003
-0.98378283 -0.46462944 3.5253265
-0.94274503 -0.44922864 2.5198004
-0.93774003 -0.4492197 1.9727957
-0.91869086 -0.44164935 1.5697327
-0.88812995 -0.42808664 1.2570338
-0.31821564 -0.11385638 5.6849275
-0.5596475 -0.22356541 5.5778389
-1.0303818 -0.48118532 4.4158759
-0.96033168 -0.45393506 2.9427791
-0.93122202 -0.44331828 2.196337
-0.9262796 -0.44272366 1.7494525
-0.89634383 -0.42974254 1.3910279
-0.88415521 -0.42483225 1.1416919
-0.88297868 -0.42786822 1.0440021
-0.86420453 -0.41931966 0.85691494
-0.8481999 -0.41209251 0.70287549
-0.83788967 -0.40743688 0.57426155
-0.83442974 -0.4061062 0.46325746
-0.81107885 -0.39508411 0.35512605
-0.81243634 -0.39609054 0.26307425
-0.80541492 -0.39300689 0.17340299
-0.87402368 -0.42201796 0.94559801
-0.8502329 -0.41107011 0.7711969
-0.84365666 -0.40824583 0.63637024
-0.83828944 -0.4061822 0.5180766
-0.83328974 -0.40411046 0.41146725
-0.80909139 -0.39271635 0.30763176
-0.80172247 -0.38930702 0.21652037
-0.81756067 -0.39734176 0.13034403
-0.063159399 -0.0041567539 5.8190517
-0.78437793 -0.35477075 5.4731216
-1.071681 -0.49280459 5.6944098
-0.98269445 -0.45992759 3.5157826
-0.94077408 -0.44426715 2.5105953
-0.9371388 -0.44491675 1.9684068
-0.91768634 -0.43722969 1.5655998
-0.88961887 -0.42498389 1.2570338
-0.31861115 -0.11274491 5.6849275
-0.56042451 -0.22161052 5.5778389
-1.0297735 -0.47653043 4.4061971
-0.96034759 -0.44984841 2.9380865
-0.93079484 -0.43913639 2.1918356
-0.92546225 -0.43837142 1.7451864
-0.89511675 -0.42531815 1.3870379
-0.88257188 -0.42028606 1.1380167
-0.88125205 -0.42323968 1.0404975
-0.86215508 -0.41461375 0.85377645
-0.84586573 -0.40731525 0.70013404
-0.83531618 -0.40258649 0.57194275
-0.83166665 -0.40117699 0.46138445
-0.81245303 -0.39225051 0.35512605
-0.80939102 -0.39111498 0.26214162
-0.80229861 -0.38802487 0.17295592
-0.87212336 -0.41735294 0.94227254
-0.84801739 -0.40635324 0.76825374
-0.84118962 -0.40343446 0.6338371
-0.83970219 -0.40325353 0.5180766
-0.82618302 -0.39710811 0.40818024
-0.80607706 -0.38778263 0.30645946
-0.80307651 -0.38650611 0.21652037
-0.81894267 -0.39448553 0.13034403
-0.063173525 -0.0039362609 5.8190517
-0.78844845 -0.35330018 5.4928789
-1.0715413 -0.48821691 5.6846194
-0.98158526 -0.45523897 3.5062382
-0.94054943 -0.4401527 2.5059927
-0.93435168 -0.43960413 1.9596287
-0.91666216 -0.43282241 1.5614668
-0.88819987 -0.42050463 1.2531964
-0.31900275 -0.11163205 5.6849275
-0.5611946 -0.21965292 5.5778389
-1.0291451 -0.47188562 4.3965182
-0.96034658 -0.44576707 2.9333935
-0.93034995 -0.4349629 2.1873345
-0.92462593 -0.43403032 1.7409205
-0.8965959 -0.42219099 1.3870379
-0.88096756 -0.41575605 1.1343416
-0.87950385 -0.41862848 1.036993
-0.8635971 -0.41160175 0.85377645
-0.84728241 -0.40436015 0.70013404
-0.83671635 -0.39966825 0.57194275
-0.83306193 -0.39827147 0.46138445
-0.80949008 -0.38734165 0.35371602
-0.81075132 -0.38828731 0.26214162
-0.80364823 -0.38522196 0.17295592
-0.87357491 -0.41430613 0.94227254
-0.84943068 -0.40339065 0.76825374
-0.84259272 -0.40049571 0.6338371
-0.84110469 -0.40031996 0.5180766
-0.82756418 -0.39422178 0.40818024
-0.7986508 -0.38078296 0.30411482
-0.80442077 -0.38370049 0.21652037
-0.82031471 -0.39162448 0.13034403
-0.063186884 -0.00371572 5.8190517
-0.7889666 -0.35023096 5.4879398
-1.0713826 -0.4836362 5.674829
-0.98045552 -0.45056376 3.4966943
-0.93853515 -0.43522364 2.4967875
-0.93370968 -0.43532816 1.9552395
-0.91561854 -0.4284277 1.5573338
-0.88966221 -0.4174017 1.2531964
-0.31939048 -0.11051784 5.6849275
-0.56245542 -0.2178843 5.5828104
-1.0284971 -0.46725106 4.3868394
-0.96032888 -0.44169134 2.9287009
-0.92988706 -0.43079785 2.1828332
-0.92613536 -0.43080014 1.7409205
-0.89533347 -0.41778478 1.3830478
-0.87934244 -0.41124243 1.1306664
-0.88095981 -0.41555592 1.036993
-0.86150908 -0.40692255 0.85063797
-0.84490871 -0.39961252 0.69739258
-0.83810639 -0.39674512 0.57194275
-0.83444709 -0.39536113 0.46138445
-0.81083727 -0.38451365 0.35371602
-0.81210178 -0.38545486 0.26214162
-0.80498803 -0.38241437 0.17295592
-0.87163651 -0.40966624 0.93894702
-0.85083354 -0.40042311 0.76825374
-0.84398562 -0.39755204 0.6338371
-0.83839208 -0.39544556 0.51597857
-0.82466489 -0.3893148 0.40653673
-0.79558039 -0.37591636 0.30294251
-0.80575526 -0.38089019 0.21652037
-0.82167667 -0.38875866 0.13034403
-0.063199468 -0.0034951339 5.8190517
-0.78805 -0.34653744 5.4731216
-1.0721349 -0.479478 5.6699333
-0.97930503 -0.44590193 3.4871504
-0.93827337 -0.43112946 2.4921851
-0.93304926 -0.43106201 1.9508505
-0.91710842 -0.42522898 1.5573338
-0.89111382 -0.41429362 1.2531964
-0.32004794 -0.10949438 5.6899195
-0.56321257 -0.21591963 5.5828104
-1.0278292 -0.46262673 4.3771605
-0.96029425 -0.43762112 2.9240079
-0.9294067 -0.4266414 2.1783321
-0.92526472 -0.42647323 1.7366546
-0.89405119 -0.41339254 1.3790579
-0.88077259 -0.40817043 1.1306664
-0.87917411 -0.41096818 1.0334884
-0.86292422 -0.40391284 0.85063797
-0.84629852 -0.3966608 0.69739258
-0.83948612 -0.39381719 0.57194275
-0.83162564 -0.39047572 0.4595114
-0.8121745 -0.38168097 0.35371602
-0.81344229 -0.38261777 0.26214162
-0.80181229 -0.37748092 0.17250884
-0.87306118 -0.40662119 0.93894702
-0.85222614 -0.39745072 0.76825374
-0.84536815 -0.39460358 0.6338371
-0.83976734 -0.39251658 0.51597857
-0.82601881 -0.38643384 0.40653673
-0.79248577 -0.3710759 0.30177018
-0.80707991 -0.37807527 0.21652037
-0.81850529 -0.38376725 0.1301425
-0.063167721 -0.0032771011 5.8140521
-0.78782988 -0.34316465 5.4632435
-1.072871 -0.47532043 5.6650386
-0.97813404 -0.44125369 3.4776065
-0.93799436 -0.42704237 2.4875827
-0.93237042 -0.42680579 1.9464613
-0.91602999 -0.42085052 1.553201
-0.88964325 -0.40983966 1.2493588
-0.32042819 -0.10837654 5.6899195
-0.56396282 -0.21395235 5.5828104
-1.0271416 -0.45801282 4.3674817
-0.96024323 -0.43355656 2.9193153
-0.92890853 -0.42249349 2.1738307
-0.9243753 -0.42215765 1.7323887
-0.89548874 -0.41026923 1.3790579
-0.87911105 -0.40367901 1.1269913
-0.88060325 -0.40789682 1.0334884
-0.86079788 -0.39926064 0.84749955
-0.84767795 -0.39370424 0.69739258
-0.83683872 -0.38901722 0.56962395
-0.83298361 -0.38757044 0.4595114
-0.80915314 -0.37681857 0.35230598
-0.8147729 -0.379776 0.26214162
-0.80312508 -0.37467977 0.17250884
-0.87447524 -0.40357113 0.93894702
-0.85360831 -0.39447343 0.76825374
-0.84674042 -0.39165029 0.6338371
-0.83701402 -0.38767558 0.51388049
-0.82736272 -0.38354814 0.40653673
-0.79377627 -0.36830735 0.30177018
-0.80390304 -0.37317073 0.21582969
-0.81530905 -0.37880272 0.12994097
-0.063178778 -0.0030565844 5.8140521
-0.78688222 -0.33949015 5.4484258
-1.0735911 -0.47116357 5.6601434
-0.97694248 -0.43661907 3.4680624
-0.93769836 -0.42296258 2.4829803
-0.93167335 -0.42255968 1.9420724
-0.91493219 -0.4164848 1.549068
-0.8910684 -0.40673172 1.2493588
-0.32107878 -0.10734754 5.6949105
-0.56470621 -0.21198244 5.5828104
-1.0264342 -0.45340934 4.3578029
-0.96017528 -0.4294976 2.9146225
-0.92839283 -0.41835436 2.1693296
-0.9258433 -0.41892841 1.7323887
-0.89417148 -0.40589559 1.3750678
-0.87742889 -0.39920413 1.123316
-0.87878054 -0.40333307 1.0299838
-0.86218631 -0.39625347 0.84749955
-0.84524846 -0.38899493 0.69465113
-0.83819157 -0.38609374 0.56962395
-0.8301214 -0.38271958 0.45763838
-0.81046355 -0.37399179 0.35230598
-0.81609362 -0.37692958 0.26214162
-0.8044281 -0.37187406 0.17250884
-0.87587863 -0.40051621 0.93894702
-0.85130489 -0.38980877 0.76531059
-0.84810239 -0.38869223 0.6338371
-0.83836222 -0.3847515 0.51388049
-0.82869649 -0.38065776 0.40653673
-0.79505706 -0.36553431 0.30177018
-0.80520076 -0.37036234 0.21582969
-0.81208825 -0.37386525 0.12973943
-0.063145526 -0.0028389299 5.809052
-0.78806245 -0.33674136 5.4484258
-1.0742954 -0.46700746 5.6552482
-0.9757306 -0.43199816 3.4585185
-0.93738526 -0.41888997 2.4783776
-0.93095803 -0.41832355 1.9376832
-0.91638041 -0.41328853 1.549068
-0.88956219 -0.4022983 1.2455213
-0.32145154 -0.10622612 5.6949105
-0.5649426 -0.20982526 5.5778389
-1.0257074 -0.44881642 4.348124
-0.96009094 -0.42544454 2.9099298
-0.92785949 -0.41422391 2.1648283
-0.92492002 -0.41462749 1.7281228
-0.89558291 -0.40277189 1.3750678
-0.87881696 -0.39613891 1.123316
-0.88018304 -0.4002631 1.0299838
-0.86002183 -0.39162856 0.84436107
-0.84660119 -0.38604212 0.69465113
-0.8395341 -0.38316554 0.56962395
-0.83145225 -0.37981957 0.45763838
-0.81176412 -0.37116045 0.35230598
-0.81740439 -0.37407857 0.26214162
-0.80119365 -0.36698997 0.17206176
-0.87387031 -0.39591575 0.93562156
-0.85266042 -0.3868348 0.76531059
-0.84945405 -0.38572943 0.6338371
-0.83556855 -0.37994421 0.51178247
-0.82572222 -0.37580678 0.40489322
-0.79632813 -0.36275682 0.30177018
-0.8019824 -0.3654958 0.21513902
-0.80884296 -0.36895487 0.12953791
-0.063155048 -0.0026184942 5.809052
-0.78923315 -0.33398846 5.4484258
-1.0749836 -0.46285218 5.6503525
-0.97313124 -0.42679179 3.4442027
-0.93705523 -0.41482478 2.4737751
-0.93022454 -0.41409764 1.9332942
-0.91524816 -0.40893954 1.544935
-0.89096111 -0.39919069 1.2455213
-0.32182038 -0.10510338 5.6949105
-0.56567162 -0.20785196 5.5778389
-1.0249609 -0.44423404 4.3384452
-0.96157014 -0.42209062 2.9099298
-0.92730862 -0.41010231 2.1603272
-0.92636174 -0.41139638 1.7281228
-0.89423084 -0.39841717 1.3710777
-0.87709886 -0.39168674 1.1196409
-0.87832326 -0.39572352 1.0264792
-0.86138356 -0.38862416 0.84436107
-0.84413284 -0.38136318 0.69190961
-0.83683014 -0.37840766 0.56730521
-0.83277297 -0.37691495 0.45763838
-0.81305474 -0.36832464 0.35230598
-0.81870514 -0.37122303 0.26214162
-0.80246979 -0.36419103 0.17206176
-0.875247 -0.39286292 0.93562156
-0.85031879 -0.3821992 0.76236743
-0.84686393 -0.38099349 0.63130391
-0.83688974 -0.37702525 0.51178247
-0.82272416 -0.37098119 0.40324971
-0.79758954 -0.35997489 0.30177018
-0.79874003 -0.36065629 0.21444833
-0.80557328 -0.36407176 0.12933637
-0.063120291 -0.002401229 5.8040524
-0.79039419 -0.33123147 5.4484258
-1.0765927 -0.459097 5.6503525
-0.9732458 -0.42279783 3.4394307
-0.93849754 -0.41155133 2.4737751
-0.9294728 -0.40988192 1.928905
-0.91409671 -0.40460351 1.5408021
-0.88941944 -0.39477813 1.2416838
-0.32191014 -0.1038921 5.6899195
-0.56639373 -0.20587614 5.5778389
-1.0253503 -0.44015807 4.3336058
-0.96145493 -0.41804367 2.905237
-0.92873454 -0.40686288 2.1603272
-0.92540485 -0.40711033 1.7238568
-0.89561611 -0.3952933 1.3710777
-0.87846071 -0.3886227 1.1196409
-0.87969923 -0.39265519 1.0264792
-0.86273491 -0.38561499 0.84436107
-0.84545892 -0.37841427 0.69190961
-0.83814591 -0.37548426 0.56730521
-0.83408362 -0.37400573 0.45763838
-0.81433553 -0.36548427 0.35230598
-0.819996 -0.36836296 0.26214162
-0.79919422 -0.3593455 0.17161468
-0.87661302 -0.38980538 0.93562156
-0.85164773 -0.37922871 0.76236743
-0.8481887 -0.37803504 0.63130391
-0.83820069 -0.37410164 0.51178247
-0.81970257 -0.36618114 0.4016062
-0.79884124 -0.35718858 0.30177018
-0.79547369 -0.3558439 0.21375765
-0.80227953 -0.359216 0.12913485
-0.063128293 -0.0021808832 5.8040524
-0.79298115 -0.32906538 5.4583039
-1.0763125 -0.45454445 5.6405625
-0.97197318 -0.41821855 3.4298866
-0.93813628 -0.40749475 2.4691725
-0.92870307 -0.40567651 1.9245161
-0.9155035 -0.40141025 1.5408021
-0.89079201 -0.39167109 1.2416838
-0.32227084 -0.1027678 5.6899195
-0.56710887 -0.2038978 5.5778389
-1.0245667 -0.43559313 4.3239269
-0.96132338 -0.41400278 2.9005444
-0.92815197 -0.40275219 2.1558261
-0.92442924 -0.40283594 1.7195909
-0.89422947 -0.39095777 1.3670877
-0.87670678 -0.38419342 1.1159657
-0.87780273 -0.38814008 1.0229747
-0.86407566 -0.38260114 0.84436107
-0.8467747 -0.37546077 0.69190961
-0.83945155 -0.3725563 0.56730521
-0.83538401 -0.37109193 0.45763838
-0.81122297 -0.36069065 0.35089597
-0.81678891 -0.36350119 0.26120901
-0.80044371 -0.35655361 0.17161468
-0.8745513 -0.38523808 0.93229604
-0.85296631 -0.3762536 0.76236743
-0.84555954 -0.37333104 0.62877071
-0.83950144 -0.3711735 0.51178247
-0.82097578 -0.36331758 0.4016062
-0.80008322 -0.35439792 0.30177018
-0.79218346 -0.35105869 0.21306697
-0.80352855 -0.35641333 0.12913485
-0.06313552 -0.0019605106 5.8040524
-0.79053074 -0.32482055 5.4336076
-1.0769531 -0.45039201 5.6356673
-0.97205383 -0.41423827 3.4251149
-0.93955296 -0.40421754 2.4691725
-0.93011349 -0.40243223 1.9245161
-0.91431785 -0.39709139 1.5366691
-0.88921505 -0.38727963 1.2378463
-0.3226276 -0.10164224 5.6899195
-0.56781721 -0.20191699 5.5778389
-1.0237638 -0.43103907 4.3142481
-0.96117508 -0.40996778 2.8958514
-0.92955214 -0.39950991 2.1558261
-0.92343515 -0.39857337 1.715325
-0.89282346 -0.38663673 1.3630977
-0.87493253 -0.37978116 1.1122906
-0.8791523 -0.3850736 1.0229747
-0.86184138 -0.37801939 0.84122264
-0.8480801 -0.37250268 0.69190961
-0.84074688 -0.36962381 0.56730521
-0.83667433 -0.36817366 0.45763838
-0.81247705 -0.35785675 0.35089597
-0.81805283 -0.36064786 0.26120901
-0.80168343 -0.35375735 0.17161468
-0.87589073 -0.38218299 0.93229604
-0.8505705 -0.37165567 0.75942427
-0.84290797 -0.36865002 0.62623757
-0.83663464 -0.36642021 0.50968438
-0.81791413 -0.35855383 0.39996269
-0.80131537 -0.35160297 0.30177018
-0.78886968 -0.34630084 0.21237628
-0.80019385 -0.35159659 0.12893331
-0.063185453 -0.0017364568 5.809052
-0.80029815 -0.32556853 5.4928789
-1.0756962 -0.44546202 5.6209817
-0.97211844 -0.4102625 3.4203427
-0.94275576 -0.40170103 2.4737751
-0.92931104 -0.39823997 1.9201269
-0.91311324 -0.39278564 1.5325361
-0.89056146 -0.38417333 1.2378463
-0.32270432 -0.10043102 5.6849275
-0.56851852 -0.19993369 5.5778389
-1.0229416 -0.42649594 4.3045692
-0.96101058 -0.40593895 2.8911588
-0.92893791 -0.39541036 2.1513247
-0.92242265 -0.39432266 1.7110591
-0.89416766 -0.38351786 1.3630977
-0.87625289 -0.37672475 1.1122906
-0.87721938 -0.38058326 1.0194702
-0.86315566 -0.37500867 0.84122264
-0.84937525 -0.36954007 0.69190961
-0.84203196 -0.36668679 0.56730521
-0.8379544 -0.36525086 0.45763838
-0.8137213 -0.35501853 0.35089597
-0.81480503 -0.35582432 0.26027638
-0.80291343 -0.3509568 0.17161468
-0.87721944 -0.37912324 0.93229604
-0.85186261 -0.36868438 0.75942427
-0.84418958 -0.36570546 0.62623757
-0.83790857 -0.36349756 0.50968438
-0.8191607 -0.35569662 0.39996269
-0.79808003 -0.34686634 0.30059788
-0.79007369 -0.34354508 0.21237628
-0.80141622 -0.34880126 0.12893331
-0.063191131 -0.001515888 5.809052
-0.79277909 -0.31929374 5.4336076
-1.0744181 -0.4405463 5.6062956
-0.97216731 -0.4062914 3.4155707
-0.94415218 -0.39840776 2.4737751
-0.93069547 -0.39499363 1.9201269
-0.91447878 -0.38959593 1.5325361
-0.88894951 -0.3798033 1.2340088
-0.32305294 -0.099303961 5.6849275
-0.56921297 -0.19794798 5.5778389
-1.0221001 -0.42196375 4.2948899
-0.95923752 -0.4012506 2.8817732
-0.92830634 -0.39132002 2.1468236
-0.92379349 -0.39110041 1.7110591
-0.89272743 -0.37921646 1.3591076
-0.87444335 -0.37233588 1.1086154
-0.87854248 -0.37751889 1.0194702
-0.8644594 -0.37199342 0.84122264
-0.85065997 -0.36657295 0.69190961
-0.84330678 -0.3637453 0.56730521
-0.83922422 -0.36232364 0.45763838
-0.81055206 -0.3502731 0.34948593
-0.81604213 -0.35297793 0.26027638
-0.80413353 -0.34815195 0.17161468
-0.8751049 -0.37458977 0.92897052
-0.84942931 -0.36411625 0.75648111
-0.84546101 -0.36275646 0.62623757
-0.8350023 -0.35877895 0.5075863
-0.81605923 -0.35096946 0.39831915
-0.79928595 -0.34407839 0.30059788
-0.79126805 -0.34078512 0.21237628
-0.80262893 -0.34600165 0.12893331
-0.063196041 -0.0012953002 5.809052
-0.79966396 -0.31882381 5.4731216
-1.0731187 -0.43564498 5.59161
-0.97220021 -0.40232489 3.4107988
-0.94553709 -0.39510959 2.4737751
-0.92986065 -0.39081481 1.9157379
-0.91324037 -0.38530779 1.5284033
-0.8873179 -0.37544918 1.2301713
-0.32339761 -0.09817569 5.6849275
-0.56990045 -0.19595987 5.5778389
-1.0224034 -0.41791812 4.290051
-0.95744342 -0.39657956 2.8723876
-0.9296667 -0.38807723 2.1468236
-0.92274773 -0.38686523 1.7067931
-0.89404571 -0.37609795 1.3591076
-0.87573773 -0.36928123 1.1086154
-0.8765735 -0.37305361 1.0159656
-0.86217189 -0.36744779 0.83808416
-0.85193437 -0.36360136 0.69190961
-0.84049767 -0.3590593 0.56498641
-0.8404839 -0.35939199 0.45763838
-0.81176978 -0.34744161 0.34948593
-0.81275392 -0.3481929 0.25934377
-0.80534393 -0.34534287 0.17161468
-0.87640715 -0.3715328 0.92897052
-0.85069507 -0.36114898 0.75648111
-0.8427546 -0.35811731 0.62370437
-0.83624965 -0.35586205 0.5075863
-0.8172794 -0.34811875 0.39831915
-0.80048209 -0.34128627 0.30059788
-0.79245281 -0.33802101 0.21237628
-0.80383182 -0.34319788 0.12893331
-0.063200176 -0.0010746967 5.809052
-1.2525753 -0.49409169 8.5601578
-1.0717982 -0.43075812 5.5769243
-0.97221726 -0.39836311 3.4060268
-0.94691056 -0.39180666 2.4737751
-0.92900795 -0.3866466 1.9113487
-0.91198313 -0.38103303 1.5242703
-0.888623 -0.37234956 1.2301713
-0.32373831 -0.097046219 5.6849275
-0.57058102 -0.19396934 5.5778389
-1.0215253 -0.41340411 4.2803721
-0.9572252 -0.39258051 2.8676949
-0.92900372 -0.38399839 2.1423223
-0.92409253 -0.38364187 1.7067931
-0.89257139 -0.3718164 1.3551177
-0.87389296 -0.364916 1.1049403
-0.87787032 -0.36999151 1.0159656
-0.86344928 -0.364436 0.83808416
-0.85319841 -0.36062533 0.69190961
-0.84174591 -0.35612324 0.56498641
-0.84173328 -0.35645598 0.45763838
-0.81297767 -0.34460589 0.34948593
-0.81396437 -0.34535375 0.25934377
-0.80654448 -0.34252962 0.17161468
-0.87425584 -0.36702618 0.92564505
-0.8482244 -0.35661095 0.75353795
-0.84399951 -0.35517335 0.62370437
-0.83330435 -0.35117844 0.50548828
-0.81848955 -0.34526378 0.39831915
-0.80166852 -0.33848998 0.30059788
-0.79362786 -0.33525276 0.21237628
-0.80502486 -0.34038988 0.12893331
-0.063246965 -0.00084981474 5.8140521
-1.2579118 -0.4911283 8.5848551
-1.0704569 -0.42588577 5.5622387
-0.97221851 -0.39440614 3.4012549
-0.94646448 -0.38775852 2.4691725
-0.92813748 -0.38248911 1.9069598
-0.91330767 -0.37784728 1.5242703
-0.88695675 -0.36801729 1.2263339
-0.3240751 -0.095915571 5.6849275
-0.57125467 -0.19197646 5.5778389
-1.0217952 -0.40936857 4.2755322
-0.95539176 -0.38793886 2.8583093
-0.9303385 -0.38075325 2.1423223
-0.92301381 -0.37942255 1.7025272
-0.89386386 -0.36869845 1.3551177
-0.87516147 -0.36186332 1.1049403
-0.87915653 -0.36692491 1.0159656
-0.86471611 -0.3614198 0.83808416
-0.85445201 -0.35764492 0.69190961
-0.83889806 -0.35147116 0.56266761
-0.8429724 -0.35351562 0.45763838
-0.81417561 -0.34176597 0.34948593
-0.81063616 -0.34060758 0.25841114
-0.80773526 -0.33971217 0.17161468
-0.87553173 -0.36397222 0.92564505
-0.849464 -0.35364792 0.75353795
-0.84523416 -0.3522251 0.62370437
-0.83452511 -0.3482675 0.50548828
-0.81968975 -0.34240463 0.39831915
-0.80284518 -0.33568957 0.30059788
-0.79479331 -0.33248043 0.21237628
-0.80620813 -0.33757776 0.12893331
-0.063292958 -0.00062461983 5.8190517
-1.2581687 -0.48617467 8.574976
-1.0690944 -0.42102805 5.5475531
-0.97220415 -0.39045405 3.3964829
-0.94419116 -0.38298425 2.4599674
-0.92724931 -0.37834242 1.9025706
-0.91201687 -0.3735905 1.5201373
-0.88823593 -0.36491898 1.2263339
-0.32440794 -0.094783753 5.6849275
-0.57242751 -0.19014837 5.5828104
-1.0208808 -0.40487313 4.2658539
-0.95513874 -0.38395813 2.8536165
-0.92964423 -0.37668619 2.1378212
-0.92433256 -0.37619832 1.7025272
-0.89235574 -0.36443701 1.3511276
-0.87641925 -0.35880622 1.1049403
-0.88043195 -0.36385384 1.0159656
-0.86237592 -0.35691088 0.83494574
-0.85183227 -0.35305926 0.6891681
-0.84011978 -0.34854072 0.56266761
-0.83991975 -0.34879309 0.45576534
-0.81093401 -0.33708072 0.3480759
-0.81182015 -0.33777586 0.25841114
-0.80891615 -0.33689058 0.17161468
-0.8767969 -0.36091384 0.92564505
-0.85069329 -0.35068059 0.75353795
-0.84645849 -0.34927252 0.62370437
-0.83573568 -0.34535235 0.50548828
-0.82088006 -0.33954129 0.39831915
-0.79952109 -0.33102578 0.29942557
-0.79594904 -0.32970408 0.21237628
-0.80738163 -0.33476147 0.12893331
-0.063338138 -0.00039911384 5.8240519
-1.2569547 -0.4806706 8.5552187
-1.0677112 -0.41618505 5.5328674
-0.97078663 -0.38595563 3.3869388
-0.94370931 -0.37895837 2.4553649
-0.92856431 -0.37510341 1.9025706
-0.91070753 -0.36934733 1.5160043
-0.88653517 -0.36060879 1.2224963
-0.32473683 -0.093650781 5.6849275
-0.57308775 -0.18814905 5.5828104
-1.0211177 -0.40084809 4.2610145
-0.95486981 -0.37998402 2.8489239
-0.93095344 -0.37343884 2.1378212
-0.92322099 -0.37199506 1.6982613
-0.8936224 -0.3613199 1.3511276
-0.87766635 -0.35574475 1.1049403
-0.87839597 -0.35942799 1.0124611
-0.86361653 -0.35389847 0.83494574
-0.85305953 -0.35008368 0.6891681
-0.8413313 -0.34560606 0.56266761
-0.83255678 -0.34233335 0.45201927
-0.81210572 -0.33424798 0.3480759
-0.8129943 -0.33494002 0.25841114
-0.8100872 -0.33406487 0.17161468
-0.87459362 -0.35644209 0.92231953
-0.84816986 -0.34618175 0.75059479
-0.84368187 -0.34468549 0.62117118
-0.83693612 -0.34243301 0.50548828
-0.82206023 -0.33667383 0.39831915
-0.80067176 -0.32823291 0.29942557
-0.79709506 -0.3269237 0.21237628
-0.80392361 -0.33004382 0.12873179
-0.063382521 -0.00017330016 5.829051
-1.2549911 -0.47490624 8.5305223
-1.0663073 -0.41135684 5.5181818
-0.97073895 -0.38201827 3.3821669
-0.9413951 -0.37421906 2.4461598
-0.92764419 -0.37097085 1.8981816
-0.90937978 -0.36511791 1.5118713
-0.88778853 -0.357512 1.2224963
-0.32506174 -0.092516668 5.6849275
-0.57374102 -0.18614747 5.5828104
-1.0213389 -0.39682627 4.2561746
-0.95619035 -0.37664858 2.8489239
-0.93022788 -0.36938375 2.1333199
-0.92451388 -0.36877018 1.6982613
-0.89208061 -0.35707885 1.3471376
-0.87890279 -0.35267895 1.1049403
-0.87964523 -0.35635963 1.0124611
-0.86123973 -0.34941858 0.83180726
-0.85040241 -0.34552997 0.68642664
-0.83842915 -0.34099841 0.56034881
-0.82945293 -0.33767724 0.45014626
-0.81326747 -0.33141115 0.3480759
-0.80961007 -0.33024484 0.25747854
-0.81124836 -0.33123511 0.17161468
-0.8758325 -0.35338703 0.92231953
-0.8493731 -0.34321898 0.75059479
-0.84487993 -0.34173837 0.62117118
-0.83812636 -0.33950946 0.50548828
-0.82323045 -0.33380222 0.39831915
-0.80181265 -0.32543603 0.29942557
-0.79823142 -0.3241393 0.21237628
-0.80044252 -0.32535437 0.12853025
-0.063296027 3.8204882e-05 5.8190517
-1.254458 -0.46970588 8.5157051
-1.0648826 -0.40654352 5.5034962
-0.97067547 -0.37808594 3.3773947
-0.94087768 -0.37021565 2.4415574
-0.9289335 -0.3677305 1.8981816
-0.9106487 -0.36194137 1.5118713
-0.88605362 -0.35322419 1.2186587
-0.32538271 -0.091381431 5.6849275
-0.57387936 -0.18398178 5.5778389
-1.0215447 -0.3928079 4.2513356
-0.95749927 -0.37330854 2.8489239
-0.93151158 -0.36613441 2.1333199
-0.92336965 -0.36458322 1.6939954
-0.89052016 -0.352853 1.3431475
-0.8801285 -0.34960887 1.1049403
-0.87757373 -0.35195965 1.0089566
-0.86245418 -0.34641019 0.83180726
-0.85160333 -0.34255943 0.68642664
-0.83961439 -0.33806968 0.56034881
-0.82632679 -0.33304694 0.44827321
-0.81441939 -0.32857031 0.3480759
-0.81075788 -0.32741678 0.25747854
-0.80778253 -0.32653496 0.1711676
-0.87359327 -0.34894285 0.91899407
-0.84681302 -0.33875096 0.74765164
-0.84606761 -0.33878714 0.62117118
-0.83930635 -0.3365818 0.50548828
-0.82439059 -0.3309266 0.39831915
-0.7984336 -0.32082304 0.29825324
-0.79935801 -0.32135099 0.21237628
-0.8015734 -0.32255831 0.12853025
-0.063252166 0.00025412621 5.8140521
-1.253175 -0.46424532 8.4959478
-1.0634373 -0.40174514 5.4888101
-0.97059637 -0.37415871 3.372623
-0.94034362 -0.36622038 2.4369547
-0.92798138 -0.36361217 1.8937924
-0.90928787 -0.35773042 1.5077385
-0.88728118 -0.3501291 1.2186587
-0.32569972 -0.090245076 5.6849275
-0.57451808 -0.18197745 5.5778389
-1.0217347 -0.3887929 4.2464962
-0.9587965 -0.36996397 2.8489239
-0.93075508 -0.3620916 2.1288188
-0.9246366 -0.36135784 1.6939954
-0.8917464 -0.34974235 1.3431475
-0.87818837 -0.34529421 1.1012651
-0.87548232 -0.3475785 1.005452
-0.8600412 -0.34195966 0.82866883
-0.84890914 -0.33803794 0.68368518
-0.84078932 -0.33513683 0.56034881
-0.82748425 -0.3301605 0.44827321
-0.81556129 -0.32572544 0.3480759
-0.81189585 -0.32458472 0.25747854
-0.80891746 -0.32371327 0.1711676
-0.87480599 -0.34589133 0.91899407
-0.84799033 -0.33579293 0.74765164
-0.84323758 -0.33424345 0.61863804
-0.8404761 -0.33365002 0.50548828
-0.82554072 -0.32804692 0.39831915
-0.79954863 -0.31803405 0.29825324
-0.80047482 -0.31855875 0.21237628
-0.79805321 -0.31790948 0.12832873
-0.063207567 0.00046974162 5.809052
-0.80022836 -0.29343295 5.4187899
-1.0610179 -0.39660561 5.4692292
-0.97050178 -0.37023661 3.3678508
-0.94161624 -0.36293578 2.4369547
-0.929245 -0.36037073 1.8937924
-0.91053098 -0.35455424 1.5077385
-0.88551223 -0.34586391 1.2148212
-0.32601273 -0.089107618 5.6849275
-0.57464081 -0.17981264 5.5728669
-1.0219091 -0.38478133 4.2416568
-0.95846975 -0.36599955 2.8442309
-0.92998165 -0.35805851 2.1243174
-0.92345983 -0.35718745 1.6897295
-0.89015269 -0.3455373 1.3391576
-0.87938827 -0.34222665 1.1012651
-0.87337101 -0.34321621 1.0019474
-0.86122966 -0.33895546 0.82866883
-0.85008395 -0.33507264 0.68368518
-0.83783329 -0.33057418 0.55803001
-0.8286317 -0.32727003 0.44827321
-0.81669337 -0.32287663 0.3480759
-0.81302387 -0.32174867 0.25747854
-0.8100425 -0.32088766 0.1711676
-0.872531 -0.34147504 0.91566855
-0.84915727 -0.33283085 0.74765164
-0.84439909 -0.33129796 0.61863804
-0.83741152 -0.32905447 0.50339019
-0.82228631 -0.32343486 0.39667568
-0.80065387 -0.31524116 0.29825324
-0.80158192 -0.31576261 0.21237628
-0.79915804 -0.31512183 0.12832873
-0.063162237 0.00068504998 5.8040524
-0.80197835 -0.29090244 5.4237294
-1.0595306 -0.39184082 5.4545436
-0.96899498 -0.36579287 3.3583069
-0.94287741 -0.35964668 2.4369547
-0.9282611 -0.35626689 1.8894032
-0.90913719 -0.35036206 1.5036055
-0.88671416 -0.34277079 1.2148212
-0.32632181 -0.087969072 5.6849275
-0.57475537 -0.1776492 5.5678959
-1.0220681 -0.38077328 4.2368169
-0.95974147 -0.36265162 2.8442309
-0.92919153 -0.35403529 2.1198163
-0.92470104 -0.35396183 1.6897295
-0.89135343 -0.34242797 1.3391576
-0.88057756 -0.33915496 1.1012651
-0.87456375 -0.3401655 1.0019474
-0.86240757 -0.33594713 0.82866883
-0.85124838 -0.33210325 0.68368518
-0.83898211 -0.3276476 0.55803001
-0.82976902 -0.32437557 0.44827321
-0.81781542 -0.32002386 0.3480759
-0.81414205 -0.31890872 0.25747854
-0.80652136 -0.31624025 0.17072052
-0.87023586 -0.33707884 0.91234308
-0.84654546 -0.32840306 0.74470848
-0.84555048 -0.32834843 0.61863804
-0.83855504 -0.32612938 0.50339019
-0.82341027 -0.32056257 0.39667568
-0.79722047 -0.31067958 0.29708093
-0.8026793 -0.31296268 0.21237628
-0.7955991 -0.31051394 0.12812719
-0.063159458 0.0009055229 5.8040524
-0.80225736 -0.28783917 5.4187899
-1.0561103 -0.38639206 5.4300675
-0.96886748 -0.3618862 3.3535349
-0.94229913 -0.35566363 2.4323523
-0.92949909 -0.35302451 1.8894032
-0.91035467 -0.34718645 1.5036055
-0.88491154 -0.33852848 1.2109838
-0.32662687 -0.086829461 5.6849275
