# .PCD v0.7 - Point Cloud Data file format
VERSION 0.7
FIELDS x y z
SIZE 4 4 4
TYPE F F F
COUNT 1 1 1
WIDTH 1503
HEIGHT 1
VIEWPOINT 0 0 0 1 0 0 0
POINTS 1503
DATA ascii
-0.85665607 1.0597227 0.71739161
-0.84380561 1.0430924 0.55609608
-0.8258276 1.0201514 0.40727875
-0.81643492 1.0081967 0.27315614
-0.81764376 1.0089812 0.14606345
-0.044094268 0.19953838 22.013435
-1.5406621 1.9871379 12.112053
-1.1660632 1.4830666 6.0783377
-1.0437012 1.3179959 4.0202231
-0.98261535 1.2355692 2.9603386
-0.96193022 1.2061313 2.3384612
-0.94572157 1.1832898 1.890222
-1.1751698 1.8557661 37.821228
-2.2707615 3.2933903 37.266205
-1.3216954 1.6961685 8.316452
-1.0900475 1.3854179 4.8480425
-1.0101203 1.2765303 3.4296696
-0.97072822 1.2228296 2.6239688
-0.95484638 1.1998399 2.1052423
-0.92636454 1.1619883 1.6892914
-0.91777366 1.1434236 1.5206202
-0.88202637 1.0977218 1.2178375
-0.86884356 1.0801713 0.99347091
-0.85918903 1.0674171 0.80382276
-0.8525905 1.0584747 0.6374495
-0.83411384 1.0348079 0.48061898
-0.82961404 1.0284985 0.34234694
-0.81938589 1.0151051 0.21006347
-0.89811605 1.1221451 1.3612856
-0.86850554 1.083998 1.0949446
-0.86402524 1.0776467 0.89728767
-0.85579252 1.0662459 0.71948963
-0.84607339 1.0533949 0.55938309
-0.82530653 1.0268165 0.40845108
-0.81601375 1.0148997 0.27384681
-0.81724858 1.0157217 0.14626497
-0.043452039 0.1999916 22.048433
-1.5517246 2.0159049 12.254015
-1.1682264 1.4965417 6.1165137
-1.045131 1.3293108 4.0432358
-0.9842326 1.2465109 2.977895
-0.96295458 1.2161005 2.3508601
-0.94556981 1.1916054 1.897897
-1.167304 1.8576558 37.776299
-2.2586498 3.3004169 37.25626
-1.3249947 1.7127029 8.3745251
-1.0905157 1.3960145 4.8715057
-1.0137266 1.29032 3.4566767
-0.96968234 1.2303073 2.6325009
-0.95438832 1.2078946 2.1132224
-0.92651069 1.1705315 1.6966418
-0.91822183 1.1521983 1.5276293
-0.88304377 1.1068795 1.2241144
-0.86767703 1.0864651 0.99621236
-0.86098886 1.0773309 0.80846035
-0.85178596 1.0650649 0.63932252
-0.83649129 1.0452039 0.48343906
-0.82908958 1.0352224 0.34327957
-0.82206625 1.0257311 0.21095763
-0.89883912 1.1311198 1.3679365
-0.86974883 1.0933496 1.1008309
-0.86294299 1.084029 0.89982086
-0.85489386 1.0727762 0.72158772
-0.84533536 1.060034 0.56102657
-0.82778084 1.0372895 0.41079572
-0.81555557 1.0216122 0.2745375
-0.81681627 1.0224715 0.14646651
-0.042791896 0.20035684 22.073433
-1.5632229 2.0455818 12.400871
-1.1703094 1.5100501 6.1546893
-1.0464944 1.3406515 4.0662484
-0.98430789 1.2555937 2.9910622
-0.96218181 1.2238791 2.3591259
-0.94537145 1.1999346 1.9055719
-1.162033 1.8636799 37.816235
-2.245918 3.3065166 37.236374
-1.3281947 1.7292811 8.4325981
-1.0919808 1.4079951 4.8996625
-1.0159103 1.3024338 3.479183
-0.97020322 1.2398468 2.6452987
-0.95202571 1.2135894 2.1172123
-0.92660844 1.1790898 1.7039921
-0.91861987 1.1609902 1.5346385
-0.88159126 1.1130064 1.2272528
-0.86907488 1.0960401 1.0016953
-0.85997635 1.0837998 0.81077915
-0.85094583 1.0716622 0.6411956
-0.83582205 1.0518733 0.4848491
-0.83158553 1.0458001 0.34514484
-0.82468235 1.036388 0.21185179
-0.89951056 1.1401132 1.3745875
-0.86843216 1.099551 1.103774
-0.86182666 1.0904166 0.902354
-0.85677588 1.0828723 0.72578382
-0.84456122 1.0666804 0.56267005
-0.82717353 1.0439825 0.41196805
-0.81813639 1.0322144 0.27591884
-0.81634682 1.0292308 0.14666803
-0.042107247 0.20059097 22.083433
-1.5677642 2.0664399 12.49388
-1.1723124 1.5235912 6.1928654
-1.0477912 1.3520178 4.0892611
-0.98580259 1.2665825 3.0086186
-0.96309775 1.2338853 2.3715248
-0.94512653 1.2082766 1.913247
-1.1559755 1.8684615 37.831207
-2.2334688 3.3130102 37.221462
-1.330533 1.7449028 8.4858322
-1.0944279 1.42137 4.9325118
-1.0180215 1.3145785 3.501689
-0.97066921 1.2494048 2.6580963
-0.95148653 1.22166 2.1251922
-0.92665762 1.187663 1.7113425
-0.91896755 1.1697987 1.5416477
-0.88251281 1.1221962 1.2335297
-0.86783016 1.1023527 1.0044367
-0.85892916 1.0902749 0.81309795
-0.85006988 1.0782667 0.64306861
-0.83808756 1.0623168 0.48766914
-0.8309738 1.052552 0.34607744
-0.82414681 1.0431681 0.21229887
-0.90012997 1.1491251 1.3812386
-0.86957675 1.1089373 1.1096603
-0.86067623 1.0968097 0.9048872
-0.85859787 1.0929945 0.72997987
-0.84375095 1.0733346 0.56431359
-0.82953471 1.0545042 0.41431266
-0.81759065 1.0389557 0.27660954
-0.81584007 1.0359991 0.14686957
-0.041487582 0.20120984 22.13843
-1.5734036 2.0889809 12.59668
-1.1751411 1.5383506 6.2358131
-1.0502126 1.3649579 4.1168761
-0.98576814 1.2757015 3.021786
-0.96395552 1.2439129 2.3839235
-0.94680065 1.2191632 1.9247596
-1.1500498 1.8734698 37.851177
-2.2218907 3.3207862 37.221462
-1.3327781 1.7605615 8.5390654
-1.0967952 1.4347794 4.9653616
-1.0187335 1.3250278 3.5196936
-0.97108018 1.2589811 2.6708941
-0.95090252 1.2297415 2.1331723
-0.92873424 1.198931 1.7223679
-0.9170717 1.1758114 1.5451521
-0.88338071 1.1314058 1.2398067
-0.86912674 1.1119645 1.0099196
-0.86057639 1.1002451 0.81773555
-0.85201561 1.088529 0.6468147
-0.84029019 1.0727887 0.49048921
-0.83335537 1.0631785 0.34794268
-0.82357395 1.0499568 0.21274593
-0.90069741 1.1581551 1.3878895
-0.86818367 1.1151555 1.1126035
-0.86214101 1.1066087 0.90995359
-0.85756844 1.0995637 0.73207796
-0.84290451 1.0799959 0.56595707
-0.83183241 1.0650548 0.4166573
-0.8170079 1.0457056 0.27730021
-0.81837314 1.0467122 0.14727263
-0.040734619 0.20105217 22.103432
-1.5782951 2.1107712 12.694585
-1.1769791 1.5519589 6.2739892
-1.0513706 1.3763788 4.1398888
-0.98713976 1.2867361 3.0393422
-0.96475494 1.2539614 2.3963223
-0.94645315 1.2275376 1.9324346
-1.144703 1.8794464 37.891109
-2.2079275 3.3249686 37.18169
-1.3349304 1.776257 8.5922995
-1.0990819 1.4482222 4.9982109
-1.0207057 1.3372285 3.5421999
-0.97143608 1.2685753 2.683692
-0.95210856 1.2402242 2.1451426
-0.92867672 1.2075404 1.7297182
-0.91732842 1.1846451 1.5521612
-0.88419509 1.1406353 1.2460835
-0.86780345 1.118295 1.0126611
-0.85944748 1.1067411 0.82005435
-0.85105532 1.095157 0.64868772
-0.84243 1.0832891 0.49330926
-0.83265591 1.0699577 0.34887531
-0.82296371 1.0567544 0.21319301
-0.90349448 1.1701583 1.397866
-0.86922932 1.1245755 1.1184899
-0.86091036 1.1130213 0.91248679
-0.8592822 1.1097277 0.73627406
-0.84491408 1.0903971 0.56924409
-0.83108795 1.0717931 0.41782963
-0.81638783 1.0524639 0.27799088
-0.81777787 1.0535089 0.14747415
-0.040025521 0.20115007 22.098431
-1.5848738 2.1350732 12.807175
-1.1796339 1.5667913 6.316937
-1.0536419 1.3893809 4.1675038
-0.98844618 1.2977955 3.0568984
-0.96378791 1.2617941 2.4045882
-0.94800681 1.2384697 1.943947
-1.1376882 1.882689 37.876133
-2.1963077 3.3326554 37.18169
-1.3430012 1.8000494 8.6842489
-1.1012878 1.4616985 5.0310602
-1.0212902 1.3477237 3.5602047
-0.97173679 1.2781874 2.6964898
-0.95142645 1.2483333 2.1531224
-0.92857039 1.2161639 1.7370685
-0.91753459 1.1934948 1.5591702
-0.88495576 1.1498841 1.2523605
-0.86899823 1.1279423 1.018144
-0.86098832 1.1167511 0.82469195
-0.85289085 1.105462 0.65243381
-0.84157497 1.0900202 0.4947193
-0.83191925 1.0767449 0.34980792
-0.82231599 1.0635602 0.21364009
-0.90394723 1.1792318 1.4045171
-0.87021971 1.1340162 1.1243762
-0.86227077 1.1228577 0.91755313
-0.8581692 1.1163186 0.73837209
-0.84398192 1.0970826 0.57088763
-0.83327168 1.0823907 0.42017427
-0.81573057 1.0592308 0.27868158
-0.81714505 1.0603142 0.14767569
-0.039302457 0.20115931 22.083433
-1.5925097 2.1610866 12.929556
-1.1821995 1.5816611 6.3598847
-1.0558351 1.4024155 4.1951189
-0.98824304 1.3069693 3.0700655
-0.96447814 1.2718778 2.4169872
-0.94755644 1.2468754 1.951622
-1.1290338 1.8831807 37.806248
-2.1875775 3.3447635 37.231403
-1.3479301 1.8198787 8.7568398
-1.1034133 1.4752077 5.0639095
-1.021814 1.3582395 3.5782096
-0.97198218 1.2878168 2.7092876
-0.95251721 1.2588558 2.1650927
-0.93046296 1.2275033 1.7480941
-0.91769004 1.2023602 1.5661794
-0.88329953 1.156059 1.2554989
-0.87013626 1.1376115 1.023627
-0.85977721 1.1232672 0.82701075
-0.85184586 1.1121129 0.65430683
-0.84360152 1.1005658 0.49753937
-0.83114535 1.08354 0.35074055
-0.81859845 1.0664243 0.21364009
-0.90434748 1.1883225 1.411168
-0.87115479 1.1434776 1.1302625
-0.86618644 1.1361455 0.92515266
-0.85977417 1.126523 0.74256819
-0.84587961 1.1075276 0.57417464
-0.83244002 1.0891546 0.42134658
-0.815036 1.0660057 0.27937225
-0.81951046 1.0710957 0.14807875
-0.038586553 0.20120907 22.073433
-1.5993823 2.186357 13.047041
-1.1846753 1.5965674 6.4028325
-1.0567808 1.4139175 4.218132
-0.98942548 1.3180729 3.0876219
-0.96341729 1.2797333 2.4252532
-0.94898915 1.2578518 1.9631346
-1.124959 1.8913304 37.891109
-2.1784997 3.3564043 37.27615
-1.3534812 1.840777 8.8342705
-1.1054577 1.4887493 5.0967588
-1.0222766 1.368775 3.5962143
-0.97373593 1.2995509 2.7263515
-0.95354605 1.2694011 2.1770625
-0.93024915 1.2361615 1.7554444
-0.91779476 1.2112411 1.5731884
-0.88396323 1.1653377 1.2617759
-0.86868858 1.143972 1.0263685
-0.86121124 1.1333158 0.83164835
-0.85357082 1.12246 0.65805292
-0.84265959 1.1073213 0.49894941
-0.83331025 1.0942508 0.35260579
-0.82090807 1.0771971 0.21453427
-0.90469539 1.1974305 1.417819
-0.87203431 1.1529591 1.1361488
-0.86741829 1.1460367 0.93021905
-0.85857743 1.1331348 0.74466628
-0.84771454 1.1179992 0.57746166
-0.83450919 1.0997981 0.42369121
-0.81430405 1.0727888 0.28006294
-0.81878853 1.0779282 0.14828028
-0.037883967 0.20134254 22.073433
-1.6084902 2.2149973 13.184108
-1.1879468 1.6127124 6.4505525
-1.0588228 1.4270117 4.2457466
-0.99054247 1.3292006 3.1051781
-0.96399778 1.289851 2.4376521
-0.94843537 1.2662878 1.9708096
-1.1167384 1.8925097 37.836201
-2.1679246 3.3657811 37.296036
-1.3589028 1.8617363 8.9117012
-1.1084447 1.5037123 5.1343012
-1.0252711 1.382828 3.6232216
-0.97386289 1.30922 2.7391491
-0.9527117 1.2775532 2.1850426
-0.93201518 1.2475492 1.7664698
-0.91784865 1.2201376 1.5801976
-0.88457274 1.1746349 1.2680528
-0.86972415 1.1536754 1.0318514
-0.85991776 1.1398515 0.83396715
-0.85244077 1.1291326 0.65992594
-0.84457248 1.1179111 0.50176948
-0.83244789 1.1010714 0.35353839
-0.82014757 1.0840274 0.21498135
-0.90499061 1.2065551 1.4244701
-0.87285829 1.1624607 1.1420351
-0.86859167 1.1559504 0.93528539
-0.86007327 1.143379 0.74886233
-0.84664685 1.1247244 0.5791052
-0.83651406 1.110469 0.42603585
-0.81651485 1.0835345 0.28144431
-0.81802899 1.0847687 0.14848182
-0.037180919 0.20147355 22.073433
-1.6120597 2.2362933 13.277117
-1.190239 1.6276945 6.4935002
-1.0596277 1.4385645 4.2687593
-0.99016947 1.3384266 3.1183455
-0.96451926 1.299988 2.4500508
-0.94974667 1.2773075 1.9823222
-2.1544406 3.3706324 37.266205
-1.3619822 1.8797016 8.9746141
-1.1103215 1.5173213 5.16715
-1.0268894 1.3951652 3.6457279
-0.97393435 1.3189057 2.7519469
-0.95362467 1.2881367 2.1970129
-0.9337129 1.2589642 1.7774954
-0.91785145 1.2290488 1.5872066
-0.88512814 1.1839505 1.2743297
-0.87070251 1.1633998 1.0373343
-0.86124462 1.1499376 0.83860481
-0.85127443 1.1358111 0.66179895
-0.84354329 1.1246899 0.50317949
-0.83449686 1.111828 0.35540363
-0.81934935 1.0908656 0.21542843
-0.90523309 1.2156963 1.4311211
-0.87362635 1.171982 1.1479214
-0.86970621 1.1658862 0.94035172
-0.8587923 1.1500106 0.75096041
-0.84836906 1.1352383 0.58239222
-0.83554369 1.1172748 0.42720816
-0.81866038 1.0943085 0.28282565
-0.81423748 1.0876175 0.14848182
-0.036483709 0.20164527 22.078432
-1.6184624 2.2617815 13.394603
-1.1924409 1.6427121 6.5364485
-1.0603647 1.4501402 4.2917724
-0.99116153 1.3495966 3.1359019
-0.96498179 1.3101445 2.4624498
-0.94908899 1.2857727 1.9899971
-2.1426618 3.3781323 37.266205
-1.3708233 1.9058751 9.0762415
-1.1131309 1.5323581 5.2046924
-1.0297183 1.4092882 3.672735
-0.97394991 1.3286079 2.7647448
-0.9544754 1.2987421 2.2089827
-0.93333244 1.267676 1.7848457
-0.91780329 1.237975 1.5942158
-0.88562918 1.1932842 1.2806066
-0.87162352 1.1731451 1.0428174
-0.86251134 1.1600468 0.84324241
-0.85283905 1.1462144 0.66554505
-0.84534192 1.1353229 0.50599957
-0.8364808 1.1226122 0.35726887
-0.82149029 1.1017035 0.21632259
-0.90542269 1.224854 1.437772
-0.87193441 1.1782736 1.1508646
-0.86819661 1.1723791 0.94288492
-0.86017841 1.1602933 0.75515652
-0.84721464 1.1419852 0.58403569
-0.8345359 1.1240873 0.42838046
-0.82074064 1.1051108 0.28420702
-0.81341618 1.0944629 0.14868335
-0.035773475 0.20172821 22.073433
-1.6282434 2.2923226 13.541459
-1.1936797 1.6565535 6.5746241
-1.0610338 1.4617386 4.314785
-0.99208766 1.3607897 3.1534581
-0.96538496 1.32032 2.4748485
-0.95027816 1.2968343 2.0015097
-2.1302893 3.3846889 37.25626
-1.3765769 1.9280403 9.1585121
-1.1138306 1.5446333 5.2328491
-1.0311828 1.4216855 3.6952412
-0.97390962 1.338326 2.7775426
-0.95348781 1.3069346 2.2169628
-0.93490273 1.2791376 1.7958713
-0.91770393 1.2469159 1.6012248
-0.88607579 1.2026358 1.2868835
-0.87248707 1.1829108 1.0483003
-0.86371797 1.1701787 0.84788001
-0.85158718 1.1529133 0.66741806
-0.84422517 1.1421245 0.50740957
-0.83547831 1.1294745 0.3582015
-0.82060248 1.108567 0.21676967
-0.90776819 1.2370379 1.4477484
-0.87260199 1.1878252 1.1567509
-0.86920542 1.1823492 0.94795126
-0.85881311 1.1669443 0.75725454
-0.84882367 1.1525402 0.58732271
-0.8363744 1.1348191 0.4307251
-0.8227554 1.1159407 0.28558838
-0.81255686 1.1013157 0.14888488
-0.035069093 0.20185184 22.073433
-1.6624699 2.3579125 13.893915
-1.1948363 1.6704234 6.6128001
-1.0616349 1.4733591 4.3377976
-0.9929477 1.3720055 3.1710143
-0.96572888 1.3305142 2.4872472
-0.9495163 1.3053278 2.0091846
-2.1187439 3.3925567 37.261234
-1.3858259 1.955397 9.2649784
-1.1164664 1.5597383 5.270391
-1.0313014 1.4323434 3.7132461
-0.97381318 1.34806 2.7903402
-0.9542219 1.3175766 2.2289329
-0.93640429 1.2906255 1.8068967
-0.91965705 1.2587507 1.6117386
-0.88646781 1.2120049 1.2931604
-0.87329298 1.1926968 1.0537832
-0.86224616 1.1767598 0.85019881
-0.85304004 1.1633561 0.6711641
-0.84590906 1.1527997 0.51022971
-0.83443803 1.1363434 0.35913411
-0.81967676 1.1154377 0.21721675
-0.90784127 1.246235 1.4543995
-0.87321341 1.1973957 1.1626372
-0.86761409 1.1888583 0.95048445
-0.86008906 1.1772645 0.76145065
-0.84758228 1.1593082 0.58896625
-0.83527803 1.1416545 0.43189743
-0.82470447 1.1267982 0.28696972
-0.81461167 1.1122063 0.14928794
-0.034370121 0.20201626 22.078432
-1.6676548 2.3828895 14.006506
-1.1933186 1.68067 6.6366601
-1.0644405 1.4881796 4.3700151
-0.99374133 1.3832438 3.1885707
-0.96601325 1.3407267 2.4996462
-0.95058298 1.3164303 2.0206971
-2.10745 3.4008381 37.271175
-1.3905618 1.9766726 9.3424091
-1.1150128 1.5692532 5.2891622
-1.0326239 1.4447905 3.7357521
-0.97518033 1.3599293 2.807404
-0.95489329 1.3282397 2.2409031
-0.937837 1.3021394 1.8179222
-0.91944492 1.2677271 1.6187476
-0.8868053 1.2213913 1.2994373
-0.87404102 1.2025027 1.0592661
-0.86334461 1.1869274 0.85483634
-0.85170215 1.1700748 0.67303717
-0.84470433 1.1596229 0.51163971
-0.8333599 1.1432186 0.36006674
-0.81871307 1.1223154 0.21766382
-0.91004902 1.2584735 1.4643761
-0.87376869 1.206985 1.1685236
-0.8685168 1.1988616 0.95555079
-0.85863876 1.1839335 0.76354873
-0.84907764 1.1699033 0.59225327
-0.83414412 1.148496 0.43306974
-0.82367688 1.1336763 0.28766042
-0.81366241 1.1190839 0.14948948
-0.033664744 0.202135 22.078432
-1.6843019 2.4246573 14.217
-1.2003416 1.7031282 6.7082396
-1.0671555 1.5030376 4.4022326
-0.99446863 1.3945044 3.2061269
-0.967875 1.3532463 2.5161779
-0.9515835 1.3275559 2.0322096
-2.0961242 3.4090817 37.281116
-1.3908489 1.9918212 9.3908043
-1.1214621 1.5900594 5.3454752
-1.0326124 1.4554886 3.753757
-0.97647643 1.3718241 2.8244677
-0.9537515 1.3364704 2.2488832
-0.93920064 1.3136789 1.8289475
-0.92126489 1.2796118 1.6292613
-0.88936359 1.2339526 1.3088527
-0.8747313 1.2123283 1.064749
-0.86178923 1.1935252 0.85715514
-0.85304284 1.1805562 0.6767832
-0.84346217 1.1664517 0.51304972
-0.83224392 1.1501002 0.36099935
-0.81771129 1.1291999 0.21811089
-0.91000503 1.267709 1.471027
-0.87426746 1.2165924 1.1744099
-0.86936015 1.2088858 0.96061713
-0.85980421 1.1942903 0.76774484
-0.85050929 1.1805228 0.59554029
-0.83297265 1.1553435 0.43424204
-0.82261145 1.140561 0.28835109
-0.81852251 1.1340702 0.15009406
-0.032958955 0.20225129 22.078432
-1.6896973 2.4506419 14.334486
-1.206367 1.7244328 6.7750473
-1.0686543 1.5163356 4.4298482
-0.99651289 1.4077418 3.2280724
-0.96803218 1.3635005 2.5285769
-0.95251811 1.3387047 2.0437222
-2.0847664 3.4172883 37.291061
-1.3931948 2.0100954 9.4537172
-1.1258005 1.608102 5.3924031
-1.0325387 1.466204 3.7717619
-0.97619641 1.3816147 2.8372657
-0.95430541 1.3471682 2.2608531
-0.94049513 1.3252436 1.8399732
-0.92301297 1.2915244 1.6397748
-0.88958031 1.2433808 1.3151296
-0.87536365 1.2221733 1.0702319
-0.86277896 1.2037272 0.86179274
-0.85432065 1.1910607 0.6805293
-0.84497982 1.1771829 0.5158698
-0.83109009 1.156988 0.36193198
-0.81667137 1.136091 0.21855797
-0.91207427 1.2800004 1.4810036
-0.8747099 1.2262181 1.1802962
-0.87014419 1.2189302 0.96568352
-0.85826886 1.200977 0.76984292
-0.85187703 1.1911664 0.5988273
-0.83459228 1.1661495 0.43658668
-0.82150781 1.147452 0.28904179
-0.82037818 1.1450428 0.15049712
-0.032258153 0.20240842 22.083433
-1.6914818 2.4716508 14.4226
-1.2122577 1.7457995 6.841855
-1.0723127 1.5328642 4.4666681
-0.99710017 1.4190505 3.2456288
-0.96812946 1.3737723 2.5409758
-0.95338619 1.3498758 2.0552347
-2.0736527 3.4259129 37.305977
-1.3954298 2.0284095 9.5166292
-1.131011 1.6276113 5.4440236
-1.0336498 1.478721 3.7942681
-0.97735733 1.393555 2.8543293
-0.95479637 1.3578862 2.2728233
-0.94172019 1.3368332 1.8509985
-0.92468911 1.3034647 1.6502886
-0.8897419 1.2528255 1.3214065
-0.8759377 1.2320374 1.0757148
-0.86370796 1.2139506 0.86643034
-0.85284668 1.1978122 0.68240231
-0.84364909 1.1840321 0.51727986
-0.82989824 1.1638817 0.36286458
-0.81848592 1.1470423 0.21945213
-0.91191268 1.2892731 1.4876546
-0.87743139 1.2391605 1.1891258
-0.87086856 1.228995 0.97074991
-0.8593232 1.211369 0.77403903
-0.85318083 1.201834 0.60211432
-0.83614659 1.1769806 0.43893132
-0.82036602 1.1543491 0.28973246
-0.82216722 1.1560422 0.15090019
-0.031551421 0.20251979 22.083433
-1.708585 2.5154457 14.642885
-1.2163203 1.7647704 6.8991189
-1.0747544 1.5478315 4.4988856
-0.99762034 1.4303802 3.263185
-0.96816677 1.3840612 2.5533745
-0.95418799 1.3610694 2.0667472
-2.0625043 3.4345016 37.320889
-1.3989713 2.0488403 9.58922
-1.1351194 1.6457555 5.4909515
-1.034686 1.4912634 3.8167739
-0.97844672 1.4055204 2.871393
-0.95522404 1.3686239 2.2847934
-0.94287574 1.3484476 1.8620242
-0.9262929 1.3154323 1.6608021
-0.89209098 1.2654676 1.3308219
-0.87645352 1.2419202 1.0811977
-0.86457598 1.224195 0.87106794
-0.85401154 1.2083536 0.68614835
-0.84505093 1.1948029 0.52009988
-0.8286683 1.1707811 0.36379722
-0.81735539 1.1539562 0.21989921
-0.91384262 1.3016162 1.497631
-0.87774897 1.2488297 1.1950121
-0.87153316 1.2390794 0.97581625
-0.8603152 1.221783 0.77823514
-0.85170043 1.208665 0.6037578
-0.83763534 1.1878368 0.44127598
-0.82204068 1.1652989 0.29111382
-0.82100815 1.1629864 0.15110172
-0.030849384 0.20267202 22.08843
-1.7191429 2.5501018 14.809323
-1.2219502 1.7862548 6.9659266
-1.0771044 1.5628346 4.5311031
-0.99943674 1.4437003 3.2851305
-0.96974868 1.3966786 2.5699062
-0.95492303 1.372285 2.0782597
-2.0510488 3.4425964 37.330833
-1.4023871 2.06932 9.6618128
-1.1391147 1.6639484 5.5378785
-1.0368818 1.5056241 3.8437812
-0.97946429 1.41751 2.8884568
-0.95558828 1.3793809 2.2967634
-0.94396168 1.3600861 1.8730495
-0.92782456 1.327427 1.6713158
-0.89213103 1.2749523 1.3370987
-0.8769111 1.2518218 1.0866808
-0.86538291 1.23446 0.87570554
-0.85245073 1.2151225 0.68802142
-0.84363133 1.2016715 0.52150995
-0.83022428 1.1817054 0.36566246
-0.81618655 1.1608762 0.22034629
-0.91569757 1.3139883 1.5076076
-0.87800956 1.2585161 1.2008984
-0.87213802 1.2491834 0.98088264
-0.86384499 1.2359387 0.78452927
-0.85288918 1.2193698 0.60704482
-0.83627111 1.1947355 0.44244829
-0.82080841 1.1722177 0.29180449
-0.81981057 1.1699367 0.15130325
-0.030151602 0.20286517 22.098431
-1.7306117 2.5865545 14.985551
-1.2207379 1.7979193 6.9945588
-1.079363 1.577873 4.5633211
-1.0011722 1.4570502 3.3070757
-0.9696576 1.4070066 2.5823052
-0.95376998 1.3808848 2.0859349
-2.0390193 3.4497349 37.330833
-1.4063783 2.0908916 9.7392435
-1.1420271 1.6807615 5.5801139
-1.0377616 1.5182208 3.8662875
-0.98041016 1.4295241 2.9055204
-0.95588893 1.3901571 2.3087335
-0.9449777 1.3717486 1.8840752
-0.9272508 1.3365179 1.6783249
-0.89211583 1.2844526 1.3433758
-0.87731004 1.2617414 1.0921637
-0.86612862 1.2447457 0.88034314
-0.85350227 1.2256997 0.69176745
-0.84491676 1.2124804 0.52433002
-0.83171391 1.1926547 0.36752769
-0.81782937 1.1718857 0.22124045
-0.91747707 1.326389 1.517584
-0.88051426 1.2715425 1.2097279
-0.87022752 1.2557634 0.98341578
-0.86469936 1.2464046 0.78872538
-0.85132056 1.2262185 0.60868835
-0.83764225 1.205631 0.44479293
-0.82236403 1.1832085 0.29318586
-0.81572163 1.1727912 0.15130325
-0.029452849 0.20305593 22.108431
-1.74072 2.6214213 15.151989
-1.23197 1.8281666 7.0947704
-1.0815296 1.5929458 4.5955386
-1.0028265 1.4704298 3.3290212
-0.97109479 1.4196737 2.5988369
-0.95438075 1.3921368 2.0974472
-2.0285821 3.4595909 37.360664
-1.4018623 2.0999701 9.7586002
-1.1448358 1.697615 5.6223488
-1.0385659 1.5308418 3.8887932
-0.98128396 1.4415617 2.9225843
-0.95612603 1.4009522 2.3207035
-0.94783717 1.3862332 1.8987757
-0.92864728 1.3485583 1.6888385
-0.89425397 1.2971727 1.3527911
-0.87765038 1.271679 1.0976466
-0.86681312 1.2550516 0.88498074
-0.85185426 1.2324851 0.69364047
-0.84613681 1.223313 0.52715003
-0.83034146 1.1995898 0.3684603
-0.81656945 1.178827 0.22168753
-0.91918123 1.3388182 1.5275606
-0.88064927 1.2812706 1.2156142
-0.87072462 1.2658969 0.98848218
-0.86549115 1.2568915 0.79292148
-0.85239393 1.2369595 0.61197537
-0.83618808 1.212549 0.44596523
-0.82385278 1.1942244 0.2945672
-0.81446123 1.1797427 0.15150478
-0.02875313 0.20324427 22.118431
-1.7489256 2.6538393 15.303741
-1.2380269 1.8510684 7.1663499
-1.0836039 1.608053 4.6277561
-1.0030571 1.4818552 3.3465776
-0.97087479 1.4300394 2.6112356
-0.95492446 1.40341 2.1089599
-1.4111824 2.1300008 9.8747463
-1.1475407 1.7145084 5.6645837
-1.0405104 1.5452927 3.9158006
-0.98208559 1.4536229 2.9396482
-0.95629925 1.4117657 2.3326735
-0.94870341 1.3979492 1.9098014
-0.92795885 1.3576803 1.6958475
-0.8941164 1.3067111 1.3590679
-0.87793201 1.2816343 1.1031295
-0.86743605 1.2653772 0.88961834
-0.85279202 1.2430969 0.69738662
-0.84729153 1.2341688 0.52997011
-0.83171242 1.2105787 0.37032557
-0.81809241 1.1898775 0.22258168
-0.91870725 1.3481897 1.5342115
-0.88300478 1.2943542 1.2244437
-0.87116146 1.2760491 0.99354851
-0.8662203 1.2673992 0.79711759
-0.85073674 1.2438251 0.61361885
-0.83744115 1.2234826 0.44830987
-0.82807243 1.2093508 0.29663923
-0.81316215 1.1866999 0.15170631
-0.028056933 0.20347361 22.13343
-1.7619407 2.6940157 15.49955
-1.2439389 1.8740348 7.2379298
-1.0845 1.6215698 4.6553717
-1.0045557 1.4952878 3.3685231
-0.97216648 1.4427547 2.6277676
-0.955401 1.4147035 2.1204722
-1.4216911 2.1622226 10.000571
-1.1491867 1.7300038 5.7021255
-1.0411572 1.5579656 3.9383068
-0.98281497 1.4657071 2.9567118
-0.95640874 1.4225975 2.3446436
-0.94949913 1.4096879 1.9208267
-0.9292199 1.3697653 1.7063613
-0.89610976 1.3194842 1.3684834
-0.87815475 1.291607 1.1086124
-0.86799747 1.2757224 0.89425594
-0.8562749 1.2575623 0.70300567
-0.84567952 1.241083 0.53138018
-0.83301646 1.2215915 0.3721908
-0.81674099 1.1968395 0.22302876
-0.92027068 1.3606671 1.5441881
-0.88527954 1.3074695 1.2332731
-0.87153798 1.2862198 0.99861485
-0.86688638 1.2779269 0.80131364
-0.849042 1.250694 0.61526239
-0.83862817 1.2344395 0.45065451
-0.829413 1.2204256 0.29802063
-0.8118245 1.1936622 0.15190785
-0.027359484 0.20370056 22.14843
-1.7702622 2.7274818 15.656197
-1.2488846 1.8958181 7.3047376
-1.086395 1.6367401 4.6875892
-1.0059725 1.5087491 3.3904684
-0.97181714 1.4531572 2.6401665
-0.95581037 1.4260176 2.1319847
-1.9954189 3.4861963 37.420322
-1.4299313 2.1913853 10.111878
-1.1516881 1.7469722 5.7443609
-1.0429313 1.5724761 3.9653139
-0.98491645 1.479985 2.9780414
-0.9564541 1.4334471 2.3566139
-0.95022458 1.4214492 1.9318523
-0.93040782 1.3818755 1.716875
-0.89802474 1.3322872 1.3778987
-0.87831855 1.3015969 1.1140954
-0.86849725 1.2860869 0.89889359
-0.8570714 1.2682256 0.70675176
-0.84671682 1.2519748 0.53420019
-0.83150059 1.2285599 0.37312344
-0.81814361 1.2079295 0.22392292
-0.9196772 1.3700715 1.5508391
-0.88521898 1.3172617 1.2391595
-0.87185407 1.2964085 1.0036812
-0.86748958 1.2884748 0.80550975
-0.84994817 1.2614827 0.61854941
-0.83703136 1.2413895 0.45182684
-0.82791698 1.2274188 0.2987113
-0.81324315 1.2047703 0.15231091
-0.026673317 0.20405541 22.178429
-1.787192 2.7747357 15.891169
-1.2545097 1.918908 7.376317
-1.0881974 1.6519434 4.7198071
-1.0059859 1.5202409 3.4080248
-0.97296292 1.4659194 2.6566982
-0.95615214 1.4373517 2.1434972
-1.9821854 3.491286 37.400436
-1.4386681 2.2216866 10.228024
-1.1531403 1.7625349 5.7819028
-1.0434198 1.5851994 3.9878199
-0.98549312 1.4921192 2.9951053
-0.95809889 1.4468267 2.3725739
-0.95087928 1.4332324 1.9428777
-0.93152231 1.3940103 1.7273885
-0.89769703 1.3418841 1.3841758
-0.87842321 1.3116034 1.1195784
-0.86893511 1.2964704 0.90353119
-0.85780388 1.2789099 0.7104978
-0.84768838 1.2628888 0.53702027
-0.83268517 1.2396102 0.37498868
-0.81670052 1.214911 0.22437
-0.92109913 1.3825955 1.5608156
-0.88734353 1.3304318 1.2479889
-0.87210959 1.3066151 1.0087476
-0.86550814 1.2952687 0.80760783
-0.84816444 1.2683673 0.62019289
-0.83809948 1.2523828 0.45417145
-0.82638228 1.2344164 0.29940197
-0.81737471 1.2200533 0.15291549
-0.025968915 0.20423417 22.188427
-1.7906542 2.801549 16.008654
-1.258364 1.9395554 7.4383531
-1.0899066 1.6671791 4.7520247
-1.007246 1.533753 3.4299703
-0.97248346 1.476357 2.6690972
-0.95642656 1.4487054 2.1550097
-1.9723393 3.5023646 37.445179
-1.4465312 2.2510178 10.339332
-1.156377 1.7810235 5.8288302
-1.0450227 1.5997677 4.0148273
-0.98742658 1.5064566 3.0164349
-0.95966178 1.4602351 2.3885341
-0.95146334 1.4450377 1.9539032
-0.93453449 1.4091421 1.7414067
-0.89946598 1.3547378 1.393591
-0.87846869 1.3216265 1.1250613
-0.86931086 1.3068724 0.90816879
-0.85847211 1.2896147 0.71424389
-0.84593439 1.2698324 0.53843033
-0.83107787 1.2465966 0.37592128
-0.81798232 1.2260396 0.22526415
-0.92038584 1.3920316 1.5674665
-0.88715595 1.3402624 1.2538751
-0.87230444 1.3168392 1.013814
-0.86599815 1.3058469 0.81180394
-0.84895426 1.2791893 0.62347996
-0.83641183 1.2593497 0.45534378
-0.82480878 1.2414182 0.30009267
-0.81864327 1.2312196 0.15331855
-0.025306171 0.20488857 22.253426
-1.7928603 2.8267 16.116348
-1.2637055 1.9627632 7.509933
-1.0925857 1.6840856 4.7888446
-1.0084239 1.5472925 3.4519155
-0.97348255 1.4891645 2.6856289
-0.95663327 1.4600786 2.1665225
-1.9588028 3.5069008 37.420322
-1.4562342 2.2836103 10.465157
-1.158564 1.7981056 5.8710651
-1.0465364 1.6143663 4.0418344
-0.98784989 1.5186394 3.0334985
-0.96114272 1.473672 2.404494
-0.95197642 1.4568642 1.9649286
-0.93549162 1.4213326 1.7519203
-0.90115625 1.36762 1.4030064
-0.87845474 1.3316658 1.1305442
-0.86962467 1.3172927 0.91280639
-0.85907602 1.3003396 0.71798992
-0.84678793 1.2807807 0.54125035
-0.83214241 1.2576835 0.37778652
-0.81919646 1.237192 0.22615832
-0.92166597 1.4046013 1.5774431
-0.8869105 1.3501076 1.2597615
-0.87243849 1.3270804 1.0188802
-0.86642462 1.316444 0.81600004
-0.8496787 1.2900324 0.62676698
-0.83736074 1.2703784 0.45768842
-0.82319641 1.2484239 0.30078334
-0.81984383 1.2424096 0.15372162
-0.024590822 0.20497565 22.253426
-1.7981663 2.8570714 16.253414
-1.2640785 1.9784842 7.5528808
-1.0941027 1.6993883 4.8210621
-1.0095195 1.5608586 3.473861
-0.97287256 1.4996361 2.6980276
-0.95851928 1.4741578 2.1818724
-1.9504222 3.5207121 37.494892
-1.4616947 2.3099244 10.561945
-1.1597162 1.8137704 5.908607
-1.047961 1.6289949 4.0688419
-0.98820013 1.5308433 3.0505624
-0.96254146 1.4871368 2.4204543
-0.95241851 1.468712 1.9759542
-0.93832511 1.4365327 1.7659385
-0.90276724 1.3805302 1.4124217
-0.88067168 1.3452194 1.1387686
-0.86987627 1.3277311 0.91744399
-0.85707355 1.3072073 0.719863
-0.84757519 1.2917504 0.54407042
-0.8304435 1.2646867 0.37871915
-0.8176077 1.2442058 0.2266054
-0.92083222 1.4140677 1.584094
-0.88881439 1.3633535 1.268591
-0.87251151 1.3373384 1.0239466
-0.86430591 1.3232602 0.81809807
-0.85033768 1.3008958 0.630054
-0.83558196 1.2773612 0.45886073
-0.82154518 1.2554336 0.30147403
-0.8209762 1.2536228 0.15412468
-0.023821658 0.20440795 22.178429
-1.8032817 2.8875139 16.390482
-1.2763448 2.0131426 7.6674085
-1.0965778 1.7163684 4.8578825
-1.0118259 1.5764668 3.5001953
-0.9737246 1.5124875 2.7145593
-0.95858079 1.4855746 2.1933849
-1.937351 3.5260973 37.479977
-1.4783506 2.3544018 10.741004
-1.1635466 1.8338367 5.960228
-1.0492958 1.643653 4.095849
-0.98988378 1.5452642 3.071892
-0.96385783 1.5006292 2.4364142
-0.95278937 1.4805803 1.9869798
-0.93912411 1.4487771 1.7764521
-0.90429914 1.3934685 1.4218372
-0.8805266 1.3552983 1.1442515
-0.86765093 1.3344734 0.91976279
-0.85756189 1.3179626 0.72360903
-0.84567857 1.298721 0.54548049
-0.83138764 1.2758089 0.38058439
-0.81870025 1.2553949 0.22749956
-0.92196983 1.4266815 1.5940706
-0.88844091 1.3732351 1.2744772
-0.87252361 1.3476132 1.0290129
-0.86461884 1.3338863 0.82229424
-0.85093105 1.3117794 0.63334101
-0.83376461 1.2843471 0.46003303
-0.81985497 1.2624468 0.3021647
-0.82204008 1.264859 0.15452774
-0.023111412 0.20453335 22.18343
-1.809279 2.9197576 16.537338
-1.2820259 2.037802 7.7437596
-1.0979016 1.7317363 4.8901005
-1.0140357 1.59211 3.5265298
-0.97601342 1.5277346 2.7352242
-0.96030241 1.499709 2.2087348
-0.5706811 1.150864 22.052576
-1.4714526 2.3616817 10.750683
-1.1608154 1.8437288 5.9789991
-1.0517061 1.6601794 4.127358
-0.9900797 1.5575144 3.0889559
-0.96347213 1.5116079 2.4483843
-0.95491356 1.4953265 2.0016804
-0.93984896 1.4610444 1.7869658
-0.90785891 1.4097065 1.434391
-0.8803218 1.3653923 1.1497345
-0.86779064 1.3449384 0.92440039
-0.85798556 1.3287373 0.72735512
-0.84634709 1.3097233 0.54830056
-0.83226413 1.286953 0.38244963
-0.81701887 1.2624259 0.22794664
-0.92101514 1.4361771 1.6007215
-0.89019305 1.3865322 1.2833068
-0.87247443 1.3579042 1.0340793
-0.86241263 1.3407133 0.82439226
-0.85145891 1.322683 0.63662797
-0.8345409 1.2954218 0.46237767
-0.82080829 1.273626 0.30354607
-0.82303542 1.2761174 0.1549308
-0.022416901 0.20487384 22.213427
-3.0598619 5.0496578 37.533844
-1.8006756 2.9286573 16.552023
-1.2899216 2.0663245 7.8344274
-1.0991312 1.7471341 4.922318
-1.0161486 1.6077876 3.5528643
-0.97670102 1.5406393 2.751756
-0.96021837 1.5111681 2.2202475
-0.5719946 1.1637377 22.262226
-1.4797214 2.3935337 10.871668
-1.1717426 1.8755782 6.0681615
-1.0540136 1.6767422 4.1588659
-0.99159348 1.5719906 3.1102853
-0.96463215 1.5251487 2.4643445
-0.95694625 1.5101054 2.016381
-0.94241822 1.4763405 1.800984
-0.90922028 1.4227062 1.4438063
-0.88005728 1.3755015 1.1552174
-0.86786783 1.3554207 0.92903793
-0.85834444 1.3395309 0.73110116
-0.84435964 1.3167077 0.54971057
-0.83307284 1.2981186 0.38431486
-0.81529826 1.2694603 0.22839372
-0.92200994 1.4488337 1.6106981
-0.89186305 1.3998581 1.2921362
-0.87236422 1.3682113 1.0391457
-0.86261111 1.3513666 0.82858837
-0.84937871 1.3296267 0.63827151
-0.83263206 1.3024223 0.46355
-0.82169354 1.2848271 0.30492741
-0.82126904 1.2831906 0.15513234
-0.02160826 0.20364518 22.063433
-3.0514235 5.0756254 37.647449
-1.8249043 2.9914284 16.870214
-1.2944897 2.0898502 7.9060073
-1.1013012 1.7642187 4.9591379
-1.0181642 1.6234993 3.5791988
-0.97731036 1.5535672 2.7682879
-0.96177518 1.5253562 2.2355974
-0.57209027 1.1742971 22.42695
-1.90485 3.5546501 37.569466
-1.4825287 2.4169002 10.953938
-1.1751885 1.8957915 6.119782
-1.0562183 1.6933411 4.1903744
-0.99301809 1.5864961 3.1316152
-0.96410745 1.5361633 2.4763145
-0.95708263 1.5220464 2.0274065
-0.94298404 1.4886596 1.8114977
-0.91050196 1.4357327 1.4532217
-0.87973267 1.3856252 1.1607003
-0.86550683 1.3621808 0.93135673
-0.85863823 1.3503431 0.73484725
-0.84490901 1.3277414 0.55253065
-0.83381373 1.3093054 0.3861801
-0.81621498 1.2806977 0.22928788
-0.92492092 1.4646714 1.6240001
-0.89345074 1.4132125 1.3009658
-0.8721925 1.378534 1.0442121
-0.86031723 1.3582036 0.83068645
-0.84978861 1.3405601 0.64155853
-0.83328819 1.3135297 0.46589461
-0.82516402 1.300231 0.30699944
-0.82214177 1.294484 0.1555354
-0.020968316 0.20476414 22.18343
-1.3004724 2.1159766 7.9871311
-1.1033652 1.7813399 4.9959583
-1.0213476 1.6412781 3.6099226
-0.97784126 1.5665179 2.7848196
-0.96154463 1.5368559 2.2471099
-0.56711137 1.174466 22.392008
-1.8879302 3.552803 37.479977
-1.4851909 2.4403148 11.036208
-1.1794114 1.9175217 6.176095
-1.0571741 1.7081248 4.217382
-0.99297756 1.598815 3.1486788
-0.96511048 1.549751 2.4922745
-0.95894188 1.5368831 2.0421071
-0.94537276 1.5040196 1.8255159
-0.91170377 1.4487855 1.4626372
-0.87934822 1.3957635 1.1661832
-0.86547172 1.3726883 0.93599433
-0.85886699 1.3611734 0.73859328
-0.84539163 1.3387948 0.55535072
-0.83448666 1.3205132 0.38804534
-0.81440133 1.287748 0.22973496
-0.92574996 1.4773831 1.6339766
-0.89495605 1.4265949 1.3097954
-0.87195927 1.388872 1.0492785
-0.86040121 1.3688836 0.8348825
-0.85013252 1.3515127 0.64484555
-0.83387679 1.3246573 0.46823925
-0.82589805 1.3114843 0.30838081
-0.82028186 1.3015726 0.15573692
-0.020253427 0.2048361 22.18343
-3.0186846 5.1014857 37.682022
-1.8500977 3.0809157 17.300993
-1.305511 2.1408951 8.0634823
-1.1043001 1.796832 5.0281758
-1.0231612 1.6570605 3.6362567
-0.9782936 1.5794914 2.8013513
-0.96124548 1.5483726 2.2586224
-0.55828547 1.1665369 22.202326
-1.8762622 3.5607865 37.494892
-1.4870579 2.4627016 11.113639
-1.1834968 1.9393044 6.2324085
-1.0580398 1.7229357 4.2443895
-0.99423122 1.6133733 3.1700087
-0.9660303 1.5633641 2.5082345
-0.96070915 1.5517511 2.0568078
-0.94577861 1.5163884 1.8360294
-0.91282523 1.4618638 1.4720525
-0.87890363 1.4059159 1.1716661
-0.86537361 1.3832117 0.94063193
-0.85903066 1.3720218 0.74233937
-0.84580719 1.3498677 0.5581708
-0.83509135 1.3317415 0.38991058
-0.81519544 1.2990192 0.2306291
-0.92847294 1.4932892 1.6472787
-0.8942427 1.4365733 1.3156817
-0.87394363 1.402884 1.056878
-0.86042106 1.3795805 0.83907861
-0.85041016 1.3624839 0.64813256
-0.83697295 1.3399277 0.47175622
-0.82393926 1.3185588 0.30907148
-0.81838244 1.3086638 0.15593846
-0.019564854 0.20534107 22.233427
-1.3127092 2.1697063 8.154151
-1.1061574 1.8140205 5.0649962
-1.024877 1.6728758 3.6625915
-0.9786672 1.5924867 2.8178833
-0.96255851 1.5626351 2.2739725
-0.55297631 1.1658685 22.152409
-1.8665352 3.5725121 37.54958
-1.4991206 2.5023842 11.268501
-1.1874446 1.9611385 6.2887216
-1.0599471 1.7396322 4.275898
-0.99539524 1.6279596 3.1913381
-0.96686667 1.5770024 2.5241947
-0.96060979 1.5637614 2.0678334
-0.94798601 1.5318108 1.8500476
-0.9138667 1.4749676 1.4814678
-0.88060284 1.4196353 1.1798905
-0.86521256 1.3937513 0.94526953
-0.86157525 1.3868258 0.74795848
-0.8461557 1.3609596 0.56099087
-0.83303273 1.3388193 0.39084318
-0.81328839 1.3060843 0.23107618
-0.9291358 1.5060543 1.6572551
-0.8955946 1.4500028 1.3245111
-0.87357432 1.41326 1.0619444
-0.86276489 1.3941536 0.8453728
-0.85310787 1.377488 0.65306306
-0.83741188 1.3511039 0.47410086
-0.8219412 1.3256356 0.30976218
-0.8164435 1.3157578 0.15613998
-0.018837946 0.20523387 22.213427
-1.3181857 2.1960337 8.2352743
-1.1079079 1.8312435 5.1018167
-1.0264945 1.6887227 3.6889257
-0.98042679 1.6079067 2.8385479
-0.96378356 1.5769253 2.2893224
-0.55196488 1.1743274 22.277201
-1.8540534 3.5790057 37.54958
-1.5032188 2.5292134 11.365289
-1.1903653 1.981544 6.3403416
-1.0617509 1.7563629 4.3074059
-0.99782205 1.6448035 3.2169337
-0.96761966 1.5906656 2.5401547
-0.96220255 1.5786846 2.0825341
-0.95009732 1.547267 1.8640658
-0.91482759 1.4880962 1.4908831
-0.88002533 1.4298227 1.1853735
-0.86498851 1.4043065 0.94990712
-0.86159426 1.3977176 0.75170451
-0.84643716 1.3720703 0.56381088
-0.83351535 1.3500786 0.39270842
-0.81395954 1.3173884 0.23197034
-0.93166977 1.5220267 1.670557
-0.89686358 1.4634594 1.3333406
-0.87539673 1.427325 1.0695438
-0.86264265 1.4048921 0.8495689
-0.85323888 1.388504 0.65635008
-0.8377828 1.3622996 0.4764455
-0.82249838 1.3369322 0.31114352
-0.81708431 1.327108 0.15654305
-0.01819199 0.20660545 22.36342
-1.3250217 2.2249906 8.325942
-1.1095515 1.8485008 5.1386366
-1.0280139 1.7046014 3.7152603
-0.98063415 1.6209503 2.8550797
-0.96492058 1.5912431 2.3046725
-0.55333209 1.1880306 22.501825
-1.8425229 3.587353 37.569466
-1.5084246 2.5582674 11.471757
-1.1940415 2.0034764 6.3966551
-1.0634505 1.7731272 4.3389144
-0.99879855 1.6594495 3.2382634
-0.96984577 1.6069329 2.5601048
-0.9637028 1.5936378 2.0972347
-0.95211208 1.5627563 1.8780839
-0.91368109 1.4979265 1.4971601
-0.88156652 1.4435918 1.1935979
-0.86701113 1.4186569 0.95686358
-0.86154771 1.4086264 0.75545061
-0.84915549 1.3872911 0.56804103
-0.83136362 1.3571689 0.39364108
-0.81456155 1.3287129 0.2328645
-0.93216556 1.5348437 1.6805335
-0.89594942 1.4734886 1.339227
-0.8748908 1.4377372 1.0746102
-0.86481702 1.4195224 0.85586303
-0.85330325 1.3995377 0.65963709
-0.83808583 1.3735142 0.47879013
-0.82040668 1.3440219 0.31183422
-0.81505126 1.3342155 0.15674458
-0.017470691 0.20666769 22.36342
-1.3309121 2.2527363 8.4118385
-1.1110882 1.8657917 5.175457
-1.0306644 1.7225664 3.7459838
-0.98221034 1.6364279 2.8757446
-0.96596926 1.6055878 2.3200223
-0.5491817 1.1899548 22.501825
-1.8278136 3.5894868 37.524723
-1.5166181 2.592813 11.602421
-1.1984572 2.0269437 6.4576612
-1.0650461 1.7899246 4.3704233
-0.99968481 1.6741221 3.259593
-0.97042209 1.6206497 2.5760651
-0.96511018 1.6086206 2.1119354
-0.95403039 1.5782787 1.8921022
-0.91449237 1.511097 1.5065755
-0.88085544 1.4538128 1.1990808
-0.8666473 1.4292506 0.96150118
-0.86143541 1.4195517 0.75919664
-0.84928781 1.3984472 0.57086104
-0.83172369 1.368458 0.39550632
-0.81509441 1.3400576 0.23375866
-0.93451005 1.5508808 1.6938356
-0.89706403 1.4869901 1.3480563
-0.87432283 1.4481633 1.0796765
-0.86455214 1.4303008 0.86005914
-0.85330093 1.4105887 0.66292417
-0.83832073 1.3847474 0.48113477
-0.82084078 1.3553491 0.31321558
-0.81556797 1.3455973 0.15714765
-0.016687747 0.20541988 22.213427
-1.3358701 2.2792623 8.4929619
-1.1125174 1.8831155 5.2122769
-1.0319797 1.738511 3.7723184
-0.98369026 1.6519357 2.8964093
-0.96857214 1.6227115 2.33921
-0.54239082 1.1860851 22.392008
-1.8143123 3.5939415 37.504837
-1.5258505 2.6296217 11.742764
-1.2018503 2.0489779 6.5139742
-1.0676438 1.8086294 4.4064331
-1.0004808 1.688821 3.2809229
-0.97245342 1.6369807 2.5960152
-0.96642458 1.6236327 2.126636
-0.95585167 1.5938332 1.9061204
-0.91321909 1.520954 1.5128524
-0.88223803 1.4676303 1.2073052
-0.86850351 1.4436547 0.96845758
-0.86125731 1.4304935 0.76294273
-0.84935248 1.409621 0.57368112
-0.83201498 1.3797662 0.39737156
-0.8155579 1.3514222 0.23465282
-0.93483806 1.5637478 1.703812
-0.89809519 1.5005172 1.3568859
-0.87369251 1.4586028 1.0847429
-0.86422235 1.4410945 0.86425525
-0.85323185 1.4216567 0.66621119
-0.83848721 1.3959987 0.48347941
-0.82120574 1.3666956 0.31459692
-0.81601518 1.3569988 0.15755071
-0.016010405 0.20639232 22.318424
-1.3414092 2.3071404 8.5788565
-1.1138391 1.9004722 5.2490973
-1.0344112 1.7565494 3.8030419
-0.98507398 1.6674739 2.917074
-0.96943408 1.6371146 2.3545601
-0.53931648 1.1903392 22.436934
-1.8005638 3.5978687 37.479977
-1.5266935 2.6523628 11.820195
-1.2051042 2.0710597 6.5702872
-1.0712236 1.8292527 4.4469438
-1.0025074 1.7057943 3.3065183
-0.97438222 1.6533453 2.6159654
-0.96764588 1.6386732 2.1413364
-0.95757592 1.6094193 1.9201386
-0.91387987 1.5341644 1.5222677
-0.88139307 1.4778835 1.2127882
-0.86799937 1.4542851 0.97309518
-0.86101323 1.4414511 0.76668876
-0.8493495 1.4208121 0.57650119
-0.83475935 1.3953085 0.4001694
-0.81851006 1.3670789 0.23599406
-0.93508768 1.5766358 1.7137885
-0.89904267 1.5140694 1.3657153
-0.87520218 1.4727613 1.0923425
-0.86614829 1.4558038 0.87054938
-0.85309577 1.4327412 0.66949821
-0.83858544 1.4072682 0.48582402
-0.82150149 1.3780612 0.31597832
-0.81639266 1.3684199 0.15795377
-0.015296837 0.20662132 22.338421
-1.346024 2.3337915 8.6599808
-1.1150533 1.9178606 5.2859173
-1.0367292 1.7746255 3.8337653
-0.98636091 1.6830417 2.9377387
-0.97020727 1.6515435 2.36991
-0.53504032 1.1919512 22.431942
-1.7905984 3.6093855 37.534664
-1.5442215 2.7046156 12.028291
-1.2082185 2.0931892 6.6266007
-1.0735791 1.8480402 4.4829535
-1.0044278 1.722802 3.332114
-0.97468793 1.6671419 2.6319253
-0.96877396 1.6537418 2.1560371
-0.95739025 1.6219656 1.9306521
-0.91445971 1.5473981 1.5316831
-0.8826164 1.4917475 1.2210126
-0.86968857 1.4687414 0.98005158
-0.86070305 1.4524243 0.77043486
-0.84927869 1.4320202 0.57932127
-0.83489811 1.4066623 0.40203464
-0.81881958 1.3784908 0.23688821
-0.93525851 1.5895447 1.7237651
-0.89990664 1.5276469 1.3745449
-0.87443435 1.4832344 1.0974088
-0.86567515 1.4666355 0.87474555
-0.85289276 1.4438421 0.67278522
-0.83861518 1.4185551 0.48816866
-0.82424855 1.3937076 0.31805035
-0.81415564 1.3755606 0.15815529
-0.014583457 0.20689148 22.36342
-1.349728 2.3592072 8.7363319
-1.1190872 1.9403578 5.336545
-1.0389336 1.7927395 3.8644891
-0.98755115 1.6986386 2.9584033
-0.97250521 1.668767 2.3890977
-0.5308764 1.1938114 22.431942
-1.7805744 3.6208763 37.589352
-1.539726 2.71874 12.067006
-1.2111927 2.1153655 6.6829138
-1.0758163 1.8668664 4.5189633
-1.0062416 1.739844 3.3577094
-0.97642088 1.6835675 2.6518755
-0.96980864 1.6688384 2.170738
-0.95893049 1.6376078 1.9446703
-0.91495812 1.5606544 1.5410986
-0.8837536 1.5056376 1.229237
-0.86904371 1.4794073 0.98468918
-0.86032677 1.4634129 0.77418089
-0.84913999 1.4432453 0.58214134
-0.8374601 1.4222671 0.40483251
-0.81905937 1.3899215 0.23778237
-0.93723273 1.6056986 1.7370671
-0.90068662 1.5412484 1.3833743
-0.87578017 1.4974412 1.1050084
-0.86743003 1.4813979 0.88103968
-0.85262239 1.4549587 0.67607224
-0.83857608 1.4298593 0.49051329
-0.82439041 1.4051188 0.31943169
-0.81440836 1.3870106 0.15855835
-0.013875572 0.20737723 22.41342
-1.354744 2.3872736 8.8222284
-1.1229777 1.9629065 5.3871732
-1.0410241 1.81089 3.8952124
-0.99005026 1.7167021 2.983201
-0.97309041 1.6832513 2.4044476
-0.52682197 1.1959215 22.436934
-1.7728264 3.6371336 37.693752
-1.3757308 2.4490149 10.85231
-1.2123226 2.1345868 6.7298412
-1.0790153 1.8876204 4.5594745
-1.0079484 1.7569193 3.3833053
-0.97805077 1.7000251 2.6718256
-0.97244245 1.6868992 2.1891139
-0.95858204 1.6501966 1.9551841
-0.91537505 1.5739326 1.5505139
-0.88690835 1.5231675 1.2402028
-0.87056518 1.493914 0.99164557
-0.85988414 1.4744164 0.77792698
-0.8489331 1.4544866 0.58496141
-0.83744556 1.4336649 0.40669775
-0.81922913 1.4013706 0.23867653
-0.93723446 1.618654 1.7470435
-0.90138239 1.5548736 1.3922038
-0.87487417 1.5079466 1.1100746
-0.86681283 1.4922657 0.88523579
-0.85465813 1.4701735 0.68100274
-0.83602417 1.4369792 0.4916856
-0.82446265 1.4165478 0.32081306
-0.81459105 1.398479 0.15896143
-0.013138738 0.20698825 22.36342
-1.3551877 2.407598 8.8794928
-1.12576 1.9838065 5.433198
-1.0430002 1.8290766 3.925936
-0.99103796 1.7323607 3.003866
-0.97518063 1.7005405 2.423635
-0.52264416 1.1977532 22.436934
-1.7589608 3.6408997 37.668896
-1.3635035 2.4472136 10.823274
-1.2192611 2.1643662 6.8096185
-1.0810087 1.9065257 4.5954843
-1.0095483 1.7740276 3.408901
-0.97808421 1.7138975 2.6877859
-0.97327924 1.7020556 2.2038143
-0.95815718 1.6628026 1.9656976
-0.91571033 1.5872329 1.5599293
-0.88786024 1.5371168 1.2484273
-0.86977893 1.5046142 0.99628317
-0.85937518 1.4854345 0.78167301
-0.84865797 1.4657439 0.58778149
-0.83489889 1.4408298 0.40763035
-0.81932908 1.4128377 0.23957069
-0.93901682 1.6348667 1.7603455
-0.90199417 1.5685227 1.4010333
-0.87605572 1.5222001 1.1176742
-0.86613017 1.5031472 0.88943189
-0.85423893 1.4813293 0.68428975
-0.83586222 1.4483083 0.49403024
-0.82446492 1.4279943 0.32219443
-0.8147034 1.4099654 0.15936449
-0.01241727 0.20707648 22.368422
-1.3642365 2.4435954 8.9940195
-1.1293683 2.0064521 5.4838262
-1.0436832 1.8452145 3.9522705
-0.99331689 1.7504946 3.0286636
-0.97557735 1.7150786 2.4389851
-0.51834595 1.1993053 22.431942
-1.7439401 3.6422086 37.619179
-1.3513056 2.4453568 10.794237
-1.2209563 2.1851809 6.861239
-1.0828831 1.9254675 4.6314936
-1.0123227 1.7934395 3.4387622
-0.97951686 1.7304128 2.7077358
-0.97569442 1.7201871 2.2221904
-0.95765597 1.6754256 1.9762113
-0.91596389 1.6005546 1.5693445
-0.88872528 1.551091 1.2566516
-0.87113202 1.5191697 1.0032395
-0.86110711 1.5004879 0.78729212
-0.84831464 1.477017 0.59060156
-0.83476025 1.452253 0.40949559
-0.81935871 1.4243225 0.24046485
-0.94069725 1.6511115 1.7736475
-0.90252137 1.5821947 1.4098626
-0.87714827 1.5364799 1.1252737
-0.86538213 1.5140421 0.893628
-0.85609686 1.496599 0.68922031
-0.83804619 1.4638721 0.49754718
-0.82193637 1.4351609 0.3228851
-0.81474543 1.4214693 0.15976755
-0.011692397 0.20703131 22.358421
-1.3665434 2.4679315 9.0655994
-1.1318797 2.027441 5.529851
-1.0454377 1.8634681 3.9829941
-0.99410111 1.7662128 3.0493283
-0.9758845 1.7296401 2.4543352
-0.51438296 1.2016385 22.441925
-1.7307593 3.647311 37.609238
-1.3373255 2.4401381 10.750683
-1.2300484 2.2196186 6.9550943
-1.085699 1.946347 4.6720047
-1.0136999 1.8106165 3.4643579
-0.97937107 1.7443315 2.723696
-0.9763326 1.7354012 2.236891
-0.95883703 1.6911678 1.9902295
-0.91805685 1.6172822 1.5818983
-0.89156967 1.5687252 1.2676175
-0.87239408 1.5337529 1.010196
-0.86274445 1.5155714 0.79291129
-0.84790283 1.4883054 0.59342158
-0.83455205 1.4636927 0.41136083
-0.81931818 1.4358246 0.24135901
-0.94227564 1.6673877 1.7869495
-0.90296417 1.5958894 1.4186922
-0.88027591 1.5545374 1.1354066
-0.86680686 1.5288982 0.89992213
-0.85552818 1.5077925 0.69250727
-0.83773148 1.4752421 0.49989185
-0.82181382 1.4466327 0.32426646
-0.81471705 1.4329909 0.16017061
-0.010970482 0.20711449 22.36342
-1.3751627 2.5040891 9.1801271
-1.1342583 2.0484717 5.5758762
-1.0459131 1.8796632 4.0093288
-0.99615932 1.7844151 3.074126
-0.9776668 1.7470217 2.4735227
-0.51052231 1.2042243 22.4569
-1.7180172 3.6533301 37.609238
-1.2380835 2.2526333 7.0442567
-1.0873282 1.9653641 4.7080145
-1.0162355 1.8301049 3.4942195
-0.98060584 1.7609028 2.7436461
-0.9785282 1.7536011 2.2552667
-0.9581719 1.70383 2.0007432
-0.91813469 1.6306522 1.5913138
-0.89430159 1.5863981 1.2785833
-0.87356496 1.5483633 1.0171524
-0.86200744 1.5266474 0.79665732
-0.84742248 1.4996088 0.59624165
-0.83427399 1.4751486 0.41322607
-0.82166022 1.4516776 0.24270025
-0.94375187 1.6836952 1.8002516
-0.90332216 1.6096063 1.4275216
-0.88117695 1.5688763 1.1430061
-0.86591369 1.5398265 0.90411824
-0.85489178 1.5190002 0.69579428
-0.83973289 1.4908624 0.50340879
-0.821621 1.4581212 0.3256478
-0.81461811 1.4445294 0.16057368
-0.010242706 0.20684612 22.328423
-1.3799767 2.533782 9.2707949
-1.1355635 2.067831 5.6172991
-1.0462879 1.8958844 4.0356631
-0.99673933 1.800191 3.0947907
-0.97778416 1.7616339 2.4888728
-0.50653851 1.2065318 22.466885
-1.704354 3.6573718 37.589352
-1.2910388 2.3951948 10.513551
-1.2459031 2.2857316 7.1334195
-1.089885 1.9863249 4.7485251
-1.0186472 1.849633 3.524081
-0.98173666 1.7775036 2.7635963
-0.97896719 1.7688713 2.2699676
-0.95916706 1.7196226 2.0147614
-0.9181301 1.644042 1.6007291
-0.89488041 1.6004593 1.2868078
-0.87464422 1.5630004 1.0241088
-0.86346883 1.5417815 0.80227643
-0.84687352 1.510927 0.59906173
-0.8339262 1.4866203 0.41509131
-0.82146358 1.4632217 0.24359439
-0.94512558 1.7000329 1.8135536
-0.90359539 1.6233451 1.4363512
-0.88408649 1.5870064 1.1531388
-0.86716557 1.5547309 0.91041237
-0.85418743 1.5302216 0.6990813
-0.83926481 1.5022713 0.50575346
-0.82135808 1.4696257 0.32702917
-0.81688732 1.4604449 0.16117826
-0.0095263962 0.20736055 22.383421
-1.3831816 2.5609119 9.3519182
-1.1367472 2.0872242 5.6587219
-1.0465623 1.9121307 4.0619974
-0.99857563 1.8184593 3.1195884
-0.9778114 1.7762681 2.5042226
-0.50309718 1.2101595 22.501825
-1.6918005 3.6637831 37.594326
-1.2535064 2.3189108 7.2225819
-1.0912681 2.005415 4.7845349
-1.0196847 1.8669111 3.5496764
-0.98276359 1.7941338 2.7835462
-0.97931129 1.7841655 2.2846682
-0.96006358 1.7354428 2.0287795
-0.91992909 1.6608566 1.6132829
-0.89739966 1.6182005 1.2977736
