# .PCD v0.7 - Point Cloud Data file format
VERSION 0.7
FIELDS x y z
SIZE 4 4 4
TYPE F F F
COUNT 1 1 1
WIDTH 1593
HEIGHT 1
VIEWPOINT 0 0 0 1 0 0 0
POINTS 1593
DATA ascii
3.9010346 3.3227143 19.766529
1.3326265 1.1460658 4.8339639
3.6222508 3.1323373 9.9654322
4.5974355 3.9881852 10.025364
5.6978016 4.9548831 10.073321
6.9998569 6.0978575 10.14217
7.7276711 6.77707 10.180354
9.4911242 8.3323584 10.266008
11.779902 10.352598 10.366543
8.5694256 7.4941201 10.220418
10.573364 9.2563448 10.315866
0.20560765 0.054224897 22.963398
1.2767863 1.0639296 10.565496
1.6078454 1.3572158 10.139277
3.6104631 3.0882602 15.235775
3.3016424 2.844074 10.325682
4.0956721 3.542938 9.991643
5.1326604 4.4508834 10.050544
6.3305187 5.5012002 10.117831
0.5177021 0.35973033 10.741478
0.93853438 0.70631558 10.912263
2.6997659 2.2866538 13.659176
1.3465157 1.1510763 4.8715057
3.6331792 3.1229951 9.9699326
4.6092482 3.9745269 10.025364
5.7133393 4.9369588 10.073321
7.0189795 6.0758367 10.14217
7.7433538 6.7645674 10.183859
9.5114832 8.3150225 10.269146
11.804707 10.330658 10.369285
8.5918331 7.4741111 10.223743
10.602221 9.2294359 10.31881
0.20524074 0.053040873 22.888401
1.2755599 1.0520171 10.511166
1.6139127 1.3484075 10.134381
3.645416 3.0863426 15.316898
3.3189688 2.8298619 10.334887
4.1153712 3.5237205 9.9960327
5.1551228 4.4248476 10.050544
6.3607116 5.4711781 10.121669
0.51951623 0.35710537 10.741478
0.94466424 0.70346397 10.942091
2.7170854 2.2778046 13.688213
1.356277 1.14759 4.8855844
3.6489396 3.1045659 9.9699326
4.6312895 3.9528396 10.029631
5.7382545 4.9079776 10.073321
7.0522161 6.0424385 10.145844
7.7801909 6.7276211 10.187363
9.5563917 8.2693214 10.272285
11.860003 10.273515 10.372026
8.6295528 7.4305282 10.223743
10.651861 9.1782942 10.321753
0.3569029 0.30830824 0.20446785
0.20576556 0.052399021 22.9284
1.271226 1.0413822 10.446955
1.6168081 1.341748 10.124591
2.6441534 2.224488 11.093693
3.3442395 2.8333116 10.385514
4.126421 3.5107741 9.9960327
5.1682286 4.4095325 10.050544
6.3793535 5.4543648 10.125506
0.52044934 0.35574409 10.741478
0.94650269 0.70098841 10.942091
2.7191775 2.2674637 13.668856
1.3656781 1.1498291 4.9090486
3.6565146 3.0956407 9.9699326
4.6409345 3.9415114 10.029631
5.7516694 4.8968987 10.077311
7.0684867 6.0286222 10.14952
7.8036275 6.7004218 10.187363
9.5867119 8.2401228 10.275423
11.900345 10.239583 10.377509
8.6531057 7.4088292 10.227069
10.678922 9.1530066 10.324696
0.36497259 0.31383559 0.20681247
1.253149 1.0192934 10.269142
1.6206958 1.3354487 10.119696
3.740272 3.1242955 15.627077
4.1386509 3.4963489 9.9960327
5.1835895 4.3914652 10.050544
6.3983536 5.4320636 10.125506
0.52168792 0.3539252 10.741478
0.9493736 0.69799566 10.947063
2.7232029 2.2547519 13.649498
1.3643869 1.1406282 4.8902769
3.6689644 3.084259 9.9744339
4.6546645 3.9252875 10.029631
5.7687278 4.8767915 10.077311
7.0920749 6.0061026 10.153195
7.8296824 6.6754556 10.190867
9.6183786 8.209137 10.278562
11.942375 10.203413 10.382992
8.6817589 7.3809977 10.230394
10.713885 9.1182938 10.32764
0.38085228 0.32518399 0.21150175
1.2371773 0.99951178 10.111085
2.2760394 1.8626524 14.163153
2.6523407 2.2007198 11.065061
3.5493505 2.9658115 10.956227
4.1502228 3.4826055 9.9960327
5.2002769 4.3760638 10.054677
6.4187822 5.4128823 10.129344
0.52285874 0.3521933 10.741478
0.95082134 0.69421571 10.937119
2.7258105 2.2417173 13.6253
1.3653086 1.1341312 4.8808918
3.6786356 3.0727172 9.9744339
4.6669731 3.910645 10.029631
5.7863274 4.8605824 10.081301
7.113503 5.9859757 10.15687
7.854497 6.6517591 10.194372
9.6485167 8.1797123 10.2817
11.979333 10.166461 10.385735
8.7049036 7.3536863 10.230394
10.745564 9.0872002 10.330582
0.38563555 0.32706302 0.21267407
1.2245629 0.98544723 9.9925423
2.2646148 1.8460574 14.070144
2.6596289 2.1989405 11.079376
3.5695353 2.9721124 11.002253
4.1556878 3.4760821 9.9960327
5.2071443 4.3678899 10.054677
6.4263339 5.4039145 10.129344
0.52280849 0.35123354 10.731494
0.95068556 0.69259268 10.927176
2.7242699 2.2356725 13.605944
1.3638381 1.1304984 4.8715057
3.6835241 3.0702572 9.9789352
4.6703839 3.9065709 10.029631
5.7905669 4.8555312 10.081301
7.1176801 5.9810076 10.15687
7.8727055 6.6412663 10.201382
9.6627779 8.1628599 10.2817
12.00983 10.156337 10.396699
8.7167368 7.3454518 10.23372
10.759749 9.0766726 10.333526
0.36737192 0.31102356 0.20681247
1.2219002 0.97385633 9.9332724
2.2653661 1.8289697 14.021191
3.8127525 3.1209681 15.798869
3.6292419 2.9919133 11.140328
4.1750736 3.456531 10.000422
5.2321076 4.3423619 10.058809
6.4554777 5.3690658 10.129344
0.52434081 0.34789866 10.721511
0.95434564 0.68662804 10.922205
2.7339694 2.2158234 13.586585
1.3695787 1.1208142 4.8668137
3.704423 3.0484357 9.9834366
4.6955142 3.8763297 10.029631
5.8241229 4.8199577 10.085291
7.1608367 5.9345841 10.160545
7.9000249 6.6031861 10.197877
9.7041225 8.1197319 10.284838
12.054353 10.096944 10.393958
8.7630424 7.2959862 10.237045
10.816526 9.0152512 10.336469
0.36191276 0.30241162 0.20446785
1.2296273 0.97161889 9.9629078
1.908909 1.5280796 11.779177
3.8373828 3.1143761 15.846588
3.6704829 3.0001755 11.227776
4.1895156 3.4390121 10.000422
5.2494969 4.3213243 10.058809
6.4769783 5.3431087 10.129344
0.5252499 0.34547502 10.711528
0.95579159 0.68186414 10.907291
2.7395184 2.2029467 13.572066
1.372727 1.11422 4.8621206
3.7183168 3.0349169 9.9879379
4.7110367 3.8574493 10.029631
5.8457541 4.7984509 10.089281
7.1835709 5.9070449 10.160545
7.9413438 6.5814142 10.2154
9.741045 8.0814981 10.287977
12.096539 10.046363 10.393958
8.7980165 7.2655048 10.243696
10.855742 8.9743328 10.339411
1.2371222 0.97089279 9.9974823
1.9713557 1.5673584 12.131634
3.8372295 3.0932031 15.80364
3.7031634 3.0064573 11.296814
4.2008967 3.4251003 10.000422
5.2637982 4.3038926 10.058809
6.4971404 5.3236322 10.133182
0.52584839 0.34350878 10.701545
0.95705861 0.67824239 10.897347
2.7474077 2.1951139 13.576906
1.3746836 1.1090587 4.8574276
3.7273052 3.0238712 9.9879379
4.7244844 3.8451009 10.033896
5.8623004 4.7829905 10.09327
7.2010655 5.885705 10.160545
7.9752846 6.5627179 10.229418
9.7721987 8.049921 10.291115
12.118629 9.9934368 10.382992
8.8236847 7.2401972 10.247022
10.887007 8.94275 10.342355
1.2733537 0.99393755 10.269142
3.8313389 3.0719421 15.746377
3.7348151 3.0170419 11.370455
4.2111135 3.4163346 10.004811
5.2764821 4.2927938 10.062943
6.509203 5.308877 10.133182
0.52589899 0.34184468 10.686569
0.95728725 0.67514867 10.882433
2.7519991 2.1893549 13.576906
1.3770034 1.1061771 4.8574276
3.7353239 3.0174263 9.9924393
4.7318573 3.8360233 10.033896
5.8738108 4.7736273 10.09726
7.2123523 5.8718691 10.160545
8.0227947 6.5666628 10.267967
9.7962513 8.0267773 10.294254
12.133315 9.9558372 10.374768
8.8475037 7.2287889 10.256998
10.91197 8.9250469 10.348242
1.2882288 1.0001272 10.367927
2.1428139 1.6854104 13.13026
3.8300312 3.0544558 15.7082
3.7609766 3.0219371 11.425684
4.2200427 3.405298 10.004811
5.2877026 4.2789655 10.062943
6.5230789 5.2918177 10.133182
0.5260635 0.33999857 10.671594
0.95774144 0.67172325 10.867519
2.7577214 2.1821427 13.576906
1.3785464 1.1014912 4.852735
3.7432106 3.0076368 9.9924393
4.7439146 3.8252594 10.038162
5.8862882 4.7582335 10.09726
7.2303348 5.8551006 10.164221
8.0648489 6.5659008 10.299508
9.8202486 8.003562 10.297392
12.149619 9.9161062 10.366543
8.8721943 7.2103114 10.26365
10.938434 8.8990002 10.351184
1.3087705 1.0065833 10.496347
2.1576693 1.6813011 13.174317
3.8684494 3.0564768 15.808414
3.8057504 3.0285099 11.517735
4.2379141 3.386869 10.0092
5.3078079 4.2540002 10.062943
6.552279 5.2607403 10.137019
0.52710545 0.33677515 10.65662
0.95993054 0.66578919 10.852604
2.7684975 2.1664155 13.572066
1.3844857 1.0940164 4.852735
3.7577238 2.9859858 9.9879379
4.7652049 3.7987049 10.038162
5.9159498 4.7261329 10.101251
7.263938 5.8133602 10.164221
8.1156244 6.548564 10.327545
9.8581057 7.9630833 10.300531
12.184737 9.8529844 10.358319
8.9185543 7.1707764 10.273625
10.991176 8.846673 10.357071
1.3198667 1.0099908 10.565496
2.1665995 1.6797667 13.203688
3.9357569 3.0940621 16.051785
3.8361144 3.0373919 11.586773
4.2461767 3.3765037 10.0092
5.3203864 4.2427726 10.067075
6.5641985 5.2458601 10.137019
0.52707756 0.33520767 10.641644
0.960006 0.66286987 10.837689
2.7789786 2.1652474 13.601104
1.3867741 1.0911145 4.852735
3.7673841 2.9808104 9.9969406
4.7731504 3.7887166 10.038162
5.9250126 4.714766 10.101251
7.2777367 5.801517 10.167896
8.1383038 6.5317597 10.334554
9.8819532 7.9396844 10.303669
12.203974 9.8158092 10.352836
8.9406319 7.1551886 10.280277
11.01122 8.8217125 10.357071
1.3246218 1.0063174 10.575376
2.1748705 1.6740563 13.218374
4.0041938 3.1253057 16.285612
3.9250257 3.0855579 11.821502
4.2579374 3.3616612 10.0092
5.3351641 4.224175 10.067075
6.584981 5.2249074 10.140857
0.52751082 0.33290559 10.62667
0.96099412 0.65861207 10.822776
2.7904966 2.1586099 13.620461
1.3919344 1.0873293 4.8574276
3.7948856 2.9810891 10.041953
4.7863464 3.772032 10.038162
5.9414339 4.6940551 10.101251
7.3006015 5.7781811 10.171572
8.216835 6.5477614 10.404645
9.9126511 7.9075694 10.306808
12.22836 9.7653227 10.344612
0.36040211 0.2886498 0.17913844
8.9684763 7.1262589 10.283603
11.045111 8.7857389 10.360014
1.3392947 1.0101063 10.664282
2.1847463 1.6695452 13.242849
4.0410376 3.1314232 16.390594
4.060523 3.1691988 12.194306
4.2696457 3.3467779 10.0092
5.3520894 4.2072654 10.071208
6.6056957 5.2038727 10.144693
0.52768922 0.33045194 10.606703
0.96196413 0.65435535 10.80786
2.8020024 2.1519182 13.639819
1.3957214 1.0824639 4.8574276
3.8207178 2.9798732 10.082463
4.7994838 3.7553015 10.038162
5.9577832 4.6732869 10.101251
7.3207269 5.7526627 10.171572
8.2871866 6.5566564 10.464223
9.9462948 7.8777523 10.313084
12.259097 9.7199802 10.341871
0.37678707 0.29961911 0.18286891
8.9962292 7.0972228 10.286928
11.078882 8.7496357 10.362957
0.34141403 0.27061462 0.15297781
1.3459229 1.007753 10.688978
2.1962395 1.6662161 13.277117
4.0874376 3.1446033 16.533754
4.281302 3.3318536 10.0092
5.3667426 4.1885571 10.071208
6.6263456 5.1827574 10.148531
0.52859396 0.32845622 10.601711
0.96291614 0.65009993 10.792947
2.8114963 2.1436486 13.649498
1.4008589 1.0786381 4.8621206
3.8448665 2.9771802 10.118473
4.8125629 3.7385254 10.038162
5.9740596 4.652462 10.101251
7.3434358 5.7291589 10.175246
8.3548956 6.5629363 10.520295
9.9767923 7.8453918 10.316223
12.283095 9.6693697 10.333646
0.38554174 0.30438974 0.18473415
9.0238876 7.0680795 10.290254
11.109358 8.7109098 10.362957
0.33457336 0.26329643 0.15159644
1.7529721 1.302853 13.884679
2.211803 1.6658896 13.335859
4.1173706 3.1448123 16.610107
4.2948012 3.3183529 10.013589
5.3835549 4.1715217 10.075341
6.6443963 5.1595955 10.148531
0.52776802 0.32540235 10.561778
0.9638502 0.64584577 10.778031
4.3795009 3.3149047 21.184481
1.4059867 1.0747894 4.8668137
3.867317 2.9730284 10.149982
4.8276491 3.7232962 10.042428
5.9902635 4.6315804 10.101251
7.3660693 5.7055659 10.178921
8.4114981 6.5600495 10.562349
10.007185 7.8129129 10.319361
12.283827 9.6006851 10.306231
0.37500346 0.293951 0.18193629
9.0485048 7.0365367 10.290254
11.142885 8.6745596 10.3659
0.33158809 0.25907815 0.15090576
1.359804 1.0034053 10.74331
2.2257597 1.6642553 13.384811
4.1533008 3.1493599 16.710318
4.3063583 3.3033409 10.013589
5.3980837 4.1527042 10.075341
6.6649051 5.1383276 10.152369
0.52692729 0.32235828 10.521845
0.96343392 0.64070892 10.748203
4.3910456 3.299597 21.184481
1.4111043 1.0709181 4.8715057
3.8915157 2.9700768 10.185992
4.8406162 3.7064221 10.042428
6.0087843 4.6124773 10.105241
7.3886275 5.6818857 10.182596
8.4399853 6.5350146 10.569359
10.037474 7.7803197 10.3225
12.297443 9.542367 10.289783
0.36439714 0.28358966 0.17913844
0.33380324 0.25995889 0.13093048
9.0759678 7.0071902 10.293579
11.176296 8.6380844 10.368843
0.32466462 0.25184879 0.14952441
1.7344398 1.2703867 13.667351
2.2421851 1.6643641 13.448449
4.1869283 3.1518993 16.800985
4.317863 3.2882891 10.013589
5.4125462 4.1338358 10.075341
6.6828003 5.1150317 10.152369
0.52607173 0.31932405 10.481912
0.96165788 0.6347031 10.70346
4.3974986 3.2804918 21.160284
1.4162123 1.0670242 4.8761988
3.9278867 2.9761946 10.25351
4.8556008 3.6910808 10.046695
6.024848 4.5914741 10.105241
7.4111109 5.6581168 10.186272
8.4542627 6.4989929 10.558845
10.064571 7.7452345 10.3225
0.39259532 0.30333903 0.18566677
0.33076888 0.25574604 0.1304834
9.1003723 6.9754667 10.293579
11.209586 8.6014786 10.371786
0.33338872 0.25675693 0.15090576
1.7338357 1.2606702 13.627837
2.2692947 1.6722296 13.575726
4.2230153 3.1560295 16.901196
4.3293152 3.2731969 10.013589
5.4291854 4.1166182 10.079474
6.700614 5.0916729 10.152369
0.52470601 0.31600323 10.431994
0.9594056 0.62842596 10.653744
4.4089231 3.2651217 21.160284
1.4213104 1.0631077 4.8808918
3.9713063 2.987329 10.339033
4.8684554 3.674109 10.046695
6.043242 4.5722342 10.109231
7.4335179 5.6342611 10.189947
8.4683924 6.4629526 10.548331
10.094638 7.7124176 10.325638
0.35857272 0.27505937 0.1772732
0.33560991 0.25762218 0.13093048
9.127636 6.9459186 10.296904
11.242759 8.5647478 10.37473
0.33821693 0.25859937 0.15159644
1.734445 1.2518826 13.598202
1.6710482 1.2225093 9.9777336
4.2579832 3.1590562 16.996635
4.3426294 3.2595022 10.017978
5.4435225 4.0976415 10.079474
6.7209058 5.0701833 10.156206
0.524813 0.31358021 10.412028
0.95712131 0.6221723 10.604029
4.4263706 3.254179 21.189322
1.4277837 1.0601971 4.8902769
4.0200839 3.0021036 10.43806
4.8812509 3.6570926 10.046695
6.0591655 4.5511112 10.109231
7.4558487 5.6103168 10.193622
8.4823742 6.4268923 10.537818
10.124599 7.6794868 10.328777
0.35562259 0.27083001 0.17634058
0.31670257 0.24135661 0.12869509
9.1518259 6.9140148 10.296904
11.27581 8.5278883 10.377672
0.34306201 0.26041123 0.15228713
1.7305921 1.239939 13.533991
1.6736574 1.2154725 9.9679432
4.2954268 3.1636481 17.10162
4.353981 3.2443237 10.017978
5.4600463 4.0802999 10.083608
6.7385631 5.0466919 10.156206
0.52540684 0.31145328 10.402045
0.95435673 0.61565369 10.549342
4.4549637 3.2513046 21.271591
1.4328649 1.0562307 4.8949699
4.0462785 2.9997203 10.478571
4.8939867 3.6400316 10.046695
6.0774298 4.5317335 10.11322
7.4753871 5.5842566 10.193622
8.4905062 6.3865256 10.520295
10.151344 7.6440988 10.328777
0.33342886 0.25226828 0.1304834
9.1788921 6.8842673 10.30023
11.308743 8.4909048 10.380616
0.34396893 0.25921211 0.15228713
1.7292101 1.2298387 13.489537
1.6787162 1.2102183 9.9728384
4.331749 3.1671348 17.201832
4.3652792 3.2291057 10.017978
5.4742565 4.0612154 10.083608
6.7587104 5.0250516 10.160044
0.52649081 0.30961737 10.402045
0.94841403 0.60715342 10.459856
4.4866443 3.2504821 21.36838
1.4407214 1.0542794 4.9090486
4.0602317 2.9881587 10.487574
4.9066629 3.6229262 10.046695
6.0932117 4.5104923 10.11322
7.4948339 5.5581288 10.193622
8.5098896 6.3547153 10.51679
10.177965 7.6086173 10.328777
9.2028666 6.8521848 10.30023
11.341553 8.4537926 10.383559
0.34883693 0.26097628 0.15297781
1.7353972 1.2251391 13.504355
1.6821022 1.2037586 9.9679432
4.3693557 3.171284 17.306816
4.3765244 3.2138486 10.017978
5.4906654 4.0437512 10.08774
6.7787886 5.0033321 10.163881
0.5273186 0.30763292 10.397053
0.94332397 0.59927285 10.380311
4.5367427 3.2626872 21.552279
1.4471853 1.0512722 4.9184337
4.0811844 2.9816728 10.514581
4.9192796 3.6057768 10.046695
6.1089191 4.4891949 10.11322
7.5141897 5.5319333 10.193622
8.5406151 6.3313422 10.527304
10.207587 7.5753622 10.331915
9.2297316 6.8222384 10.303555
11.374242 8.4165554 10.386501
0.34974578 0.25975701 0.15297781
1.7402996 1.2195197 13.509295
1.6896145 1.2002378 9.987524
4.4009881 3.1708457 17.387939
4.404243 3.1965363 12.880082
4.3896518 3.1999626 10.022367
5.5047474 4.02456 10.08774
6.7987981 4.9815335 10.167719
0.52838928 0.30579036 10.397053
0.93909311 0.59200299 10.31071
4.5839114 3.2723911 21.721657
1.4564452 1.0502509 4.9372048
4.0739441 2.954628 10.469568
4.9339452 3.5901175 10.050961
6.126986 4.4696198 10.11721
7.5334544 5.5056696 10.193622
8.568408 6.3057189 10.534313
10.237103 7.5419941 10.335054
9.2564993 6.7921882 10.306881
11.410068 8.381587 10.392388
0.34666449 0.25559595 0.15228713
1.7439079 1.212994 13.504355
1.6971229 1.1966792 10.007105
4.4338851 3.1710932 17.473835
4.4232998 3.1868529 12.903095
4.4007945 3.1846204 10.022367
5.5187616 4.0053205 10.08774
6.8161449 4.9577708 10.167719
0.52920264 0.30380103 10.392061
0.93617952 0.58561665 10.256023
2.9881818 2.1176202 14.138279
1.4601024 1.0451605 4.9372048
4.0718656 2.9314864 10.43806
4.9464469 3.5728729 10.050961
6.1425509 4.448205 10.11721
7.5526266 5.4793401 10.193622
8.5932465 6.2778749 10.537818
10.263367 7.5062141 10.335054
0.32889259 0.24169044 0.12958924
9.2831707 6.7620335 10.310206
11.442521 8.3440895 10.395332
0.34355846 0.2514596 0.15159644
1.7481314 1.2068993 13.504355
2.3219876 1.6250426 13.649154
4.4546652 3.1625094 17.512011
4.4661794 3.1941218 12.995145
4.4138298 3.1706369 10.026756
5.5327091 3.9860322 10.08774
6.8360081 4.9358244 10.171556
0.53025985 0.30195192 10.392061
0.93504572 0.58038062 10.221223
2.9965837 2.1078997 14.143119
1.4581146 1.0360599 4.9184337
4.066133 2.9058635 10.397549
4.9610076 3.5571048 10.055226
6.1604877 4.4284954 10.121201
7.5744581 5.4549241 10.197297
8.620882 6.252028 10.544827
10.292654 7.4726286 10.338192
0.33375749 0.24347581 0.13003632
9.3097439 6.7317762 10.313532
11.474852 8.3064661 10.398274
0.34042782 0.24734806 0.15090576
1.7497694 1.1990334 13.484598
2.319283 1.6111194 13.600202
4.4888611 3.1632771 17.602678
4.4916396 3.1886904 13.036568
4.4268203 3.1566007 10.031145
5.5488787 3.9683316 10.091872
6.8531957 4.9119325 10.171556
0.53131062 0.3000991 10.392061
0.93297851 0.57460147 10.176479
3.0039234 2.0974267 14.143119
1.4673635 1.0349417 4.9372048
4.0655985 2.8840954 10.370542
4.9755187 3.5412776 10.059492
6.1759081 4.4069643 10.121201
7.5934534 5.4284511 10.197297
8.6310759 6.2135639 10.530808
10.321834 7.438931 10.341331
0.33057186 0.23938848 0.12958924
9.3362188 6.701416 10.316857
11.50706 8.2687206 10.401218
0.32522339 0.23457123 0.14814304
1.7603699 1.1972868 13.533991
2.3248928 1.6030138 13.600202
4.7298374 3.3084302 18.499811
4.4378119 3.1411288 10.031145
5.5626969 3.9489384 10.091872
6.8729115 4.8898382 10.175393
0.53235495 0.29824266 10.392061
0.93315804 0.57023138 10.156594
3.0122597 2.0876441 14.147958
4.550137 3.1850712 15.15805
4.0792007 2.8723931 10.379544
4.9878497 3.5238883 10.059492
6.1937127 4.3871217 10.125191
7.6151204 5.4038734 10.200973
8.6498108 6.1813235 10.527304
10.350904 7.4051204 10.344469
0.3394928 0.24404657 0.1304834
9.3595543 6.6687856 10.316857
11.539143 8.2308493 10.404161
0.33409324 0.2392 0.14952441
1.7690471 1.1941769 13.568565
2.3363566 1.5989133 13.634468
4.8149276 3.3429756 18.786131
1.6801494 1.1753281 4.8901005
4.4507093 3.1269958 10.035534
5.5787473 3.9311178 10.096005
6.8899388 4.8658175 10.175393
0.53364551 0.29652214 10.397053
0.93559885 0.56724644 10.161566
3.0216 2.0785415 14.157638
4.5626445 3.1701536 15.162744
4.0838494 2.8543952 10.36604
5.0022554 3.5079539 10.063758
6.2089887 4.3654747 10.125191
7.6367087 5.3792114 10.204648
8.6306124 6.1222057 10.47824
10.383037 7.3734512 10.350746
0.34439635 0.24575262 0.13093048
9.3858242 6.6382294 10.320183
11.571103 8.1928568 10.407104
0.38336498 0.27245599 0.15781257
1.7777239 1.191021 13.60314
2.3444505 1.5924642 13.649154
4.8548379 3.3456287 18.895885
1.6890563 1.1727985 4.9039078
4.461597 3.1114409 10.035534
5.5924354 3.9116201 10.096005
6.9095063 4.8435774 10.179231
0.53493059 0.29479617 10.402045
0.93848741 0.56452578 10.171509
3.0246844 2.0651467 14.138279
4.5708418 3.1522481 15.153358
4.115252 2.8550124 10.420054
5.0144696 3.4904711 10.063758
6.2241893 4.3437743 10.125191
7.658217 5.3544641 10.208323
8.6169395 6.0674047 10.436186
10.411892 7.3394051 10.353885
0.35337976 0.2503058 0.13182464
9.4119949 6.6075721 10.323508
11.602937 8.1547394 10.410048
0.35598779 0.25113443 0.15297781
1.7883416 1.1891092 13.652533
2.3533723 1.5865471 13.668735
4.8800397 3.3379314 18.948378
1.6915312 1.165787 4.8993053
4.4724312 3.0958481 10.035534
5.6083674 3.8936803 10.100139
6.9290023 4.82126 10.183068
0.53595632 0.29292712 10.402045
0.94320035 0.5628826 10.201338
4.8300314 3.2729354 22.500805
4.5846653 3.1382234 15.162744
4.135951 2.848038 10.447062
5.0266232 3.4729462 10.063758
6.2393141 4.322022 10.125191
7.6796465 5.3296318 10.211998
8.6146812 6.0209451 10.408149
10.443827 7.3074794 10.360162
0.36239904 0.25479919 0.1327188
9.4380646 6.5768123 10.326834
11.634646 8.1165009 10.412991
1.7924814 1.1828595 13.652533
2.3622813 1.5805871 13.688315
4.9237728 3.3426743 19.072451
1.6939774 1.1587723 4.8947024
4.4832101 3.0802174 10.035534
5.6242418 3.8756764 10.104272
6.9457893 4.7970433 10.183068
0.53722978 0.29119137 10.407037
0.94699526 0.56067115 10.221223
4.837254 3.2532496 22.481447
4.617003 3.1367464 15.233133
4.2878537 2.9306214 10.802658
5.0387158 3.4553788 10.063758
6.256846 4.3019233 10.129181
7.6982036 5.3027921 10.211998
8.6385765 5.9928703 10.411654
10.472467 7.2731991 10.363299
9.464036 6.5459509 10.330159
11.666231 8.0781393 10.415934
1.7926991 1.174042 13.622898
2.3711774 1.5745845 13.707897
4.9453144 3.3321393 19.110624
1.6963959 1.151755 4.8901005
4.4939346 3.0645494 10.035534
5.640059 3.8576093 10.108405
6.9651356 4.7745814 10.186906
0.53824294 0.28931433 10.407037
0.95262581 0.55951822 10.260995
4.844399 3.2335534 22.46209
4.6594024 3.1418352 15.336375
4.3953424 2.981627 11.045724
5.0507464 3.4377692 10.063758
6.2718244 4.2800565 10.129181
7.7194657 5.277802 10.215672
8.6535683 5.9586344 10.404645
10.500997 7.2388086 10.366439
9.4899063 6.5149889 10.333485
11.697689 8.0396576 10.418877
1.7915736 1.1643908 13.583384
2.3775096 1.5668581 13.712792
4.9556746 3.3140268 19.105854
1.6971654 1.1436431 4.8808951
4.5046048 3.0488439 10.035534
5.655818 3.8394785 10.112537
6.98176 4.7502394 10.186906
0.53950477 0.28756884 10.412028
0.95733827 0.5577969 10.290825
4.8608961 3.2200947 22.486288
4.6717749 3.1265113 15.341067
4.4580927 3.001523 11.176258
5.0648766 3.4215777 10.068024
6.2892213 4.2598276 10.133171
7.7378411 5.2508235 10.215672
8.6713715 5.9263792 10.40114
10.529413 7.2043061 10.369576
0.36504737 0.25099024 0.1327188
9.5156755 6.4839258 10.33681
11.72902 8.0010538 10.421821
1.7969334 1.158972 13.593263
2.3761468 1.5540915 13.673631
4.9846244 3.3082635 19.172661
1.6978991 1.1355401 4.8716903
4.5152197 3.0331013 10.035534
5.6691861 3.8197126 10.112537
6.9982986 4.7258396 10.186906
0.54127198 0.28608641 10.427003
0.96851498 0.55977744 10.390254
4.9004655 3.2217495 22.616951
4.7085357 3.1273696 15.425537
4.5047436 3.0101321 11.266283
5.0767894 3.403877 10.068024
6.3065529 4.2395291 10.137161
7.7589355 5.2256756 10.219348
8.6801996 5.8880668 10.387122
10.557717 7.1696954 10.372716
0.34946749 0.23848625 0.13093048
9.5413437 6.4527621 10.340136
11.760225 7.9623289 10.424763
1.8068587 1.1564611 13.637715
2.3815572 1.5457877 13.673631
5.0135946 3.3023386 19.23947
1.696969 1.1263655 4.8578825
4.5257797 3.0173216 10.035534
5.6824851 3.7999001 10.112537
7.0147524 4.7013822 10.186906
0.54405987 0.28512841 10.461946
0.98619515 0.5653922 10.559285
5.0769634 3.3124523 23.376741
4.7511215 3.131808 15.528778
4.5478802 3.0160453 11.347305
5.0908117 3.3875802 10.072289
6.3213134 4.2174892 10.137161
7.7771287 5.1985598 10.219348
8.7006998 5.8577309 10.387122
10.585907 7.134973 10.375854
0.35442105 0.2400576 0.13137756
9.5669098 6.4214978 10.343461
11.794657 7.9257388 10.43065
1.8108845 1.1501471 13.637715
1.852754 1.1934705 10.619009
5.0075989 3.2733839 19.172661
1.6976274 1.118286 4.8486776
4.5382819 3.0028272 10.039924
5.6957145 3.7800415 10.112537
7.0311203 4.6768675 10.186906
0.54633451 0.28388959 10.486903
1.0006807 0.56904876 10.693516
5.1338654 3.324084 23.584835
4.7880201 3.1322088 15.613248
4.5856576 3.0181038 11.414824
5.1026058 3.3697891 10.072289
6.3385091 4.1970615 10.141151
7.795228 5.171381 10.219348
8.7210941 5.8273249 10.387122
10.613984 7.1001425 10.378993
0.37592161 0.25271034 0.13361296
9.5923738 6.3901339 10.346787
11.825615 7.8867626 10.433593
1.8208051 1.1475463 13.682169
1.8560508 1.1864477 10.614113
5.0114808 3.2510102 19.14403
1.7015206 1.1123533 4.8486776
4.5587463 2.99354 10.061869
5.7088747 3.7601366 10.112537
7.0474029 4.6522961 10.186906
0.54860717 0.28263837 10.511861
1.00359 0.56607515 10.70346
5.1845655 3.3312826 23.763895
4.8365574 3.1399064 15.735259
4.6380849 3.029458 11.518351
5.116519 3.3533871 10.076556
6.3531213 4.1749105 10.141151
7.8160639 5.1460032 10.223023
8.7919083 5.8303528 10.446699
10.641945 7.0652018 10.382131
0.35608834 0.23757745 0.13137756
9.6177359 6.3586702 10.350113
11.859812 7.8498964 10.439479
1.8287526 1.1436546 13.711804
1.860181 1.1799617 10.614113
5.020288 3.2318811 19.134485
1.7037539 1.1053439 4.8440752
4.5912404 2.991992 10.110148
5.7219648 3.740186 10.112537
7.0662804 4.6294241 10.190743
0.55113512 0.28150535 10.541812
1.0116107 0.5659461 10.768088
5.2385573 3.340194 23.957472
4.8547416 3.1276774 15.758724
4.6869941 3.0381148 11.612877
5.1281929 3.3355064 10.076556
6.3701787 4.1543541 10.145141
7.8339787 5.1186886 10.223023
8.8628492 5.8329573 10.506277
10.666543 7.0280113 10.382131
9.6429949 6.3271079 10.353437
11.893898 7.8128881 10.445365
1.8373556 1.1401311 13.746379
1.866012 1.1745458 10.623904
5.031539 3.2143373 19.134485
1.7092447 1.1004475 4.8486776
4.6237783 2.9902534 10.158429
5.7349858 3.72019 10.112537
7.0850849 4.6064773 10.194581
0.55237228 0.27970952 10.546803
1.0191764 0.56550974 10.827747
5.2820525 3.3420491 24.102655
4.878715 3.1190774 15.800958
4.8184094 3.0994616 11.909957
5.1398048 3.3175857 10.076556
6.3846416 4.132093 10.145141
7.8546433 5.0931563 10.226699
8.945859 5.8429379 10.579872
10.69101 6.9907351 10.382131
9.6650219 6.2934089 10.353437
11.924484 7.7735305 10.448309
1.8452946 1.1361541 13.776014
1.8683732 1.1669465 10.614113
5.0843334 3.2231271 19.291962
1.714722 1.0955261 4.8532801
4.6684537 2.9960849 10.233043
5.7479367 3.7001483 10.112537
7.1038146 4.5834551 10.198419
0.55463707 0.27842373 10.571761
1.0239477 0.56348807 10.857575
5.3192358 3.3396306 24.2188
4.8910303 3.1029527 15.805652
4.9888434 3.1845241 12.301562
5.1535501 3.3010306 10.080822
6.3990264 4.1097813 10.145141
7.8723741 5.0657077 10.226699
8.9871473 5.825253 10.604404
10.718614 6.9554935 10.385269
9.6900663 6.2616601 10.356763
11.961728 7.7384458 10.457138
1.853891 1.1325403 13.810589
2.4566851 1.5223856 13.918391
5.1296687 3.226819 19.420805
1.7201856 1.0905799 4.8578825
4.6930246 2.9887762 10.263766
5.7608175 3.6800618 10.112537
7.1197705 4.5586305 10.198419
0.55482918 0.27610227 10.556786
1.0273129 0.56067514 10.872491
5.3521991 3.3343346 24.31559
4.8959904 3.0821836 15.78688
5.0624576 3.2066958 12.454603
5.1650414 3.2830212 10.080822
6.4158745 4.0890388 10.149131
7.8928661 5.0400219 10.230374
9.0164242 5.799634 10.614918
10.742827 6.9180365 10.385269
9.7118654 6.227797 10.356763
11.964857 7.6813588 10.436536
1.859827 1.1272701 13.825407
2.4715257 1.5196664 13.972239
5.1801562 3.2333941 19.568735
1.7256358 1.0856088 4.8624849
4.7499952 3.0018027 10.364716
5.7760053 3.661437 10.116671
7.1383452 4.5354686 10.202256
0.55578959 0.27416387 10.556786
1.0287946 0.55683243 10.867519
5.3702207 3.319597 24.344625
5.1381297 3.2295501 12.612146
5.1786761 3.2663631 10.085088
6.4301085 4.0666184 10.149131
7.9104109 5.0124397 10.230374
9.0366135 5.7681255 10.614918
10.770189 6.8825898 10.388408
9.7366953 6.1958628 10.360088
11.967734 7.6243443 10.415934
1.8657484 1.1219722 13.840225
2.4915931 1.5200433 14.055457
5.2256751 3.2365122 19.697578
1.7310721 1.0806131 4.8670878
4.7969675 3.008106 10.443719
5.7887511 3.641253 10.116671
7.1541333 4.5105233 10.202256
0.55570447 0.27171776 10.536819
1.0302621 0.5529862 10.862548
5.3721318 3.2949171 24.301071
5.0640678 3.1388381 16.256157
5.2047858 3.2461545 12.747182
5.1922569 3.24965 10.089354
6.4442644 4.0441484 10.149131
7.9307294 4.9866014 10.234049
9.065732 5.7422719 10.625431
10.797435 6.8470373 10.391545
9.7614212 6.1638317 10.363415
11.977193 7.5717244 10.401218
1.8723227 1.1170444 13.859982
2.5125642 1.5208255 14.143572
5.2738233 3.2409146 19.835966
1.7381554 1.0766212 4.8762927
4.8420081 3.0128524 10.518333
5.8014259 3.6210241 10.116671
7.1725512 4.4872231 10.206094
0.55742991 0.27015185 10.551794
1.0312446 0.54888654 10.852604
5.3674936 3.2663438 24.228479
5.104393 3.1392214 16.350012
5.2382998 3.241713 12.801197
5.2057843 3.2328813 10.093619
6.4609003 4.023222 10.153121
7.9480877 4.9588876 10.234049
9.103838 5.7219782 10.646459
10.824564 6.811379 10.394685
9.7860413 6.1317029 10.36674
11.979581 7.5148344 10.380616
1.8755417 1.1101063 13.855042
2.5274601 1.5178109 14.197419
5.323339 3.2457974 19.979126
1.7435675 1.07157 4.8808951
4.8667607 3.0047395 10.549057
5.8140302 3.6007514 10.116671
7.1881704 4.4621592 10.206094
0.55915123 0.26857731 10.56677
1.0293809 0.54329658 10.812832
5.4186773 3.2716246 24.407537
5.1609859 3.1492486 16.495489
5.2811208 3.2427723 12.877718
5.2170372 3.2146902 10.093619
6.4749045 4.0006447 10.153121
7.9682312 4.9328971 10.237723
9.1419115 5.7014875 10.667486
10.848274 6.7735529 10.394685
9.8105555 6.0994773 10.370066
12.00574 7.4729719 10.380616
1.8834261 1.1059127 13.884679
2.5362418 1.5110635 14.217
5.3729529 3.2503736 20.122286
1.7506336 1.0675116 4.8901005
4.8956003 2.998992 10.588558
5.8289618 3.581908 10.120804
7.2037029 4.4370403 10.206094
0.56139034 0.26724073 10.591727
1.0326887 0.5404402 10.827747
5.4850593 3.28563 24.654348
5.2118053 3.1553438 16.622192
5.3091407 3.2345116 12.918229
5.2304516 3.1978199 10.097885
6.4913988 3.9795938 10.157111
7.9854012 4.9050527 10.237723
9.1496277 5.662035 10.653468
10.875161 6.7376933 10.397822
9.8381433 6.0691156 10.376717
12.028314 7.428894 10.377672
1.8886178 1.1001134 13.894556
2.5344882 1.498057 14.177838
5.423943 3.2554104 20.270218
1.7576922 1.0634165 4.8993053
4.8773856 2.9644704 10.527111
5.8414292 3.5615394 10.120804
7.2218819 4.4135394 10.209931
0.56336546 0.26576933 10.611694
1.3948138 0.72332615 14.611061
5.4640775 3.2472003 24.509167
5.2686477 3.1646764 16.767668
5.3297138 3.2215896 12.940734
5.2415824 3.1795428 10.097885
6.5052509 3.9569101 10.157111
8.0053692 4.8789129 10.241399
9.117671 5.59834 10.59389
10.90193 6.7017298 10.400962
9.8592691 6.0347371 10.376717
12.03694 7.3763027 10.362957
1.4900914 0.86112082 10.940881
2.5317967 1.4845666 14.133782
5.4737511 3.2593675 20.413376
1.7647439 1.0592852 4.9085107
4.8712964 2.9375334 10.491998
5.8538256 3.5411274 10.120804
7.2372441 4.3883033 10.209931
0.56533712 0.26428738 10.63166
1.3949591 0.71723598 14.586204
5.3211708 3.171 16.899065
5.3483944 3.2074444 12.958739
5.2526493 3.1612272 10.097885
6.5190229 3.9341784 10.157111
8.0223513 4.8509398 10.241399
10.925257 6.6636343 10.400962
9.8802738 6.0002851 10.376717
12.059161 7.3321414 10.360014
1.4971335 0.85823178 10.970516
2.5325623 1.4731604 14.109305
5.5275078 3.2652934 20.570852
1.7717881 1.0551175 4.9177151
4.8568573 2.9057567 10.439329
5.8661509 3.5206721 10.120804
7.2552648 4.3646665 10.213769
0.56704313 0.2626743 10.646636
1.3936535 0.71042824 14.546432
5.3752871 3.1778736 17.035156
5.3670416 3.1932075 12.976744
5.2614131 3.1415355 10.093619
6.5353012 3.9129467 10.161101
8.0421429 4.8246508 10.245074
8.8971081 5.3777471 10.296003
10.951781 6.6274724 10.404099
9.8979597 5.9638324 10.373391
1.5028222 0.85453618 10.990273
2.535043 1.4627848 14.094619
5.5787954 3.2693741 20.718782
1.7737781 1.0479326 4.9131126
4.8669705 2.8887854 10.439329
5.8808222 3.5016131 10.124936
7.2732086 4.3409567 10.217607
0.56874472 0.26105252 10.661612
1.3994564 0.70723981 14.581232
5.4216747 3.1456501 24.170406
5.4265385 3.1826618 17.161861
5.2723465 3.1231508 10.093619
6.5489206 3.8901103 10.161101
8.0589352 4.7965493 10.245074
8.9127665 5.3448234 10.2925
10.981523 6.5932097 10.410377
9.9155121 5.92733 10.370066
1.5037653 0.84814048 10.975455
2.5357151 1.4513984 14.070144
5.6340508 3.2753868 20.881031
1.7858531 1.0466734 4.9361253
4.8770247 2.8717787 10.439329
5.8930092 3.4810638 10.124936
7.2910748 4.3171749 10.221444
0.57070488 0.25954083 10.681578
1.0362424 0.51947379 10.768088
5.4358902 3.1285863 24.184925
5.4778886 3.1871305 17.288567
2.0133557 1.1790204 4.888063
5.2832165 3.104728 10.093619
6.5650558 3.8687563 10.165092
8.0785484 4.770113 10.24875
8.937499 5.3173261 10.299508
11.007814 6.5568299 10.413516
9.9329309 5.8907781 10.36674
1.4992566 0.8387152 10.921124
2.526598 1.4344962 13.99182
5.6764846 3.2735968 20.99556
4.8952913 2.8595688 10.456885
5.9051242 3.4604723 10.124936
7.3061004 4.291698 10.221444
0.57160735 0.25754711 10.681578
1.038527 0.51609027 10.77306
5.4424109 3.1071 24.165565
5.5278401 3.1904166 17.410578
2.0155766 1.1708919 4.8835616
5.2940221 3.086267 10.093619
6.5785203 3.8458169 10.165092
8.09515 4.7418842 10.24875
8.9529343 5.2842836 10.296003
11.030636 6.5183649 10.413516
9.953433 5.8560696 10.36674
1.4994571 0.83196944 10.901366
2.4827909 1.3981937 13.722583
5.7345228 3.2804439 21.167351
5.919601 3.4412529 10.129069
7.3238058 4.2677827 10.225282
0.57276678 0.25566721 10.686569
1.0431925 0.51387256 10.802889
5.4608803 3.0924189 24.199442
5.5793791 3.1942501 17.537281
2.0196514 1.1638492 4.8835616
5.3047624 3.0677686 10.093619
6.594511 3.8243415 10.169082
8.114584 4.7153015 10.252424
8.9774799 5.2566037 10.303013
11.05668 6.4817896 10.416654
9.973814 5.82129 10.36674
1.4962246 0.82336026 10.856913
2.4440958 1.3651932 13.482716
5.7615175 3.2692461 21.224615
5.2099867 2.994803 11.080134
5.9315767 3.4205685 10.129069
7.3386588 4.2421918 10.225282
0.57392013 0.25378236 10.691561
1.0459384 0.51069486 10.812832
5.4650664 3.0696449 24.170406
5.6325126 3.1986141 17.66868
2.036932 1.164354 4.9150701
5.3131766 3.0479352 10.089354
6.6078205 3.8012991 10.169082
8.1339312 4.6886406 10.2561
8.9988585 5.227026 10.306518
11.082602 6.4451118 10.419791
9.9940739 5.7864399 10.36674
1.4984074 0.81776041 10.851974
2.4221249 1.3418537 13.335859
5.785903 3.2564356 21.272333
5.4926519 3.1166329 14.937411
5.2745042 3.0074413 11.194251
5.943481 3.3998427 10.129069
7.3534222 4.2165489 10.225282
0.57506722 0.2518926 10.696553
1.0462745 0.50634545 10.797917
5.4702573 3.0474911 24.14621
5.6857433 3.2026463 17.800077
2.0334086 1.1529421 4.8970652
5.3328505 3.0345294 10.106418
6.6236663 3.7797041 10.173072
8.1531916 4.6619024 10.259775
9.0201397 5.1973624 10.310022
11.105032 6.4063869 10.419791
10.014211 5.7515187 10.36674
1.4964689 0.8099373 10.817399
2.4339337 1.3373126 13.375021
5.8037519 3.239857 21.296194
5.5392509 3.1175625 15.034063
5.3433414 3.0220227 11.317145
5.9553123 3.3790753 10.129069
7.3680954 4.190855 10.225282
0.57647336 0.25011212 10.706536
1.0470741 0.50223011 10.787975
5.4709597 3.0229073 24.102655
5.7405777 3.2071869 17.936169
2.037421 1.1458371 4.8970652
5.3479528 3.0184596 10.114949
6.6368198 3.7565598 10.173072
8.1723642 4.6350865 10.263451
9.0413237 5.1676145 10.313527
11.130706 6.3695178 10.422931
10.037471 5.7183757 10.370066
1.4999716 0.805076 10.822338
2.4359043 1.327347 13.360335
5.9260297 3.2810328 21.701813
5.6183352 3.1362965 15.218165
5.3851895 3.0209284 11.382981
5.9695234 3.359647 10.133203
7.3826795 4.1651106 10.225282
0.57787395 0.24832481 10.716519
1.0478574 0.49811524 10.778031
5.4726596 2.9989593 24.063938
5.7940025 3.210547 18.067564
2.0395069 1.1376578 4.8925643
5.3903165 3.0176084 10.174672
6.6498923 3.7333703 10.173072
8.1884937 4.6065316 10.263451
9.0593061 5.136023 10.313527
11.152871 6.3306251 10.422931
10.05737 5.6833034 10.370066
1.5014008 0.79910541 10.81246
2.4458981 1.3217399 13.389708
5.9688492 3.2775698 21.816341
5.6634326 3.1355908 15.310214
5.4438381 3.0288932 11.48393
5.9812145 3.338789 10.133203
7.399971 4.1408796 10.229119
0.57926911 0.24653082 10.726502
1.0486249 0.49400109 10.768088
5.4720507 2.9738364 24.015545
5.8490329 3.2144041 18.203655
2.0434656 1.1305317 4.8925643
5.4464207 3.0240943 10.259992
6.6628838 3.710135 10.173072
8.2074833 4.5795717 10.267126
9.0802879 5.1061163 10.317032
11.178293 6.2935653 10.426068
10.080404 5.6499872 10.373391
1.5034937 0.79349715 10.80752
2.4585745 1.3175217 13.433764
5.9972959 3.2659945 21.878376
5.7291431 3.1458919 15.457497
5.4984136 3.0341713 11.576101
5.9952946 3.3192534 10.137336
7.4143801 4.1150236 10.229119
0.58039248 0.24461868 10.731494
1.0488932 0.48966262 10.753174
5.4812908 2.9541209 24.010704
5.9056745 3.2187414 18.344439
2.0473995 1.1233917 4.8925643
5.4934964 3.0251927 10.328246
6.6757941 3.6868546 10.173072
8.2234192 4.5508943 10.267126
9.1011696 5.0761261 10.320536
11.203592 6.2564054 10.429208
10.103329 5.6165805 10.376717
1.505566 0.78788412 10.802582
2.4730494 1.3141863 13.487611
5.7932782 3.1548376 15.600174
5.5509901 3.0379548 11.663882
6.006844 3.2983057 10.137336
7.4315066 4.0906634 10.232957
0.5812428 0.24259125 10.731494
1.049628 0.48555166 10.743232
5.4893522 2.9337847 24.001026
5.9624181 3.2227223 18.48522
2.0513084 1.1162381 4.8925643
5.5406456 3.0259988 10.396501
6.688623 3.6635294 10.173072
8.2422266 4.5237927 10.270801
9.1188335 5.0443263 10.320536
11.228767 6.2191453 10.432345
10.126142 5.5830812 10.380041
1.5034785 0.78011996 10.768006
2.4785225 1.3060204 13.492506
5.7265053 3.0669003 20.814224
5.8386354 3.153162 15.692225
5.5994501 3.0391235 11.742886
6.020792 3.2786634 10.141468
7.4457407 4.0646977 10.232957
0.58181894 0.24045132 10.726502
1.0498621 0.48121983 10.728316
5.4962277 2.9128397 23.986507
6.0192609 3.2263463 18.626003
2.0571082 1.1101047 4.8970652
5.5786939 3.0215442 10.447692
6.7040176 3.6415973 10.177061
8.257967 4.4949942 10.270801
9.139513 5.0141807 10.32404
11.25382 6.1817861 10.435485
10.148845 5.5494919 10.383368
1.5034286 0.77344602 10.74825
2.4884815 1.3001893 13.521878
5.7134461 3.0342908 20.728327
5.882329 3.1502857 15.779672
5.6522036 3.0422609 11.830667
6.0322003 3.2576268 10.141468
7.4598837 4.0386825 10.232957
0.58292222 0.23852754 10.731494
1.0534778 0.47843206 10.748203
5.5007982 2.8907132 23.962311
6.0777245 3.2304218 18.771481
2.0609705 1.1029173 4.8970652
5.6443501 3.0316696 10.550075
6.7166882 3.6181738 10.177061
8.2765903 4.4677515 10.274475
9.1569605 4.9822469 10.32404
11.278748 6.1443272 10.438622
10.168154 5.5140319 10.383368
1.4998889 0.76501745 10.703796
2.4930048 1.291495 13.521878
5.747777 3.0268474 20.814224
5.9329753 3.1508079 15.88553
5.692369 3.0383003 11.892115
6.0435348 3.2365506 10.141468
7.4767599 4.0141339 10.236794
0.5856263 0.23724504 10.766436
1.0556277 0.47497004 10.753174
5.5063963 2.8691711 23.942953
6.1362896 3.2341285 18.916956
2.0667307 1.0967367 4.9015665
5.7101431 3.0413728 10.652457
6.731935 3.5961258 10.181051
8.2921362 4.4388337 10.274475
9.177434 4.9519463 10.327545
11.303551 6.1067686 10.441761
10.190629 5.4802732 10.386693
1.5032437 0.76012766 10.708735
2.4947805 1.2813896 13.507193
5.7490454 3.0019293 20.780819
5.9422092 3.1291687 15.880928
5.7622104 3.0497806 12.015009
6.0547957 3.2154353 10.141468
7.490726 3.9880109 10.236794
0.58645087 0.23519939 10.766436
1.4216182 0.63326806 14.471859
5.5085607 2.8458943 23.909077
6.1949534 3.2374651 19.062431
2.0743999 1.0915431 4.9105687
5.7207251 3.0214221 10.652457
6.7444463 3.5726049 10.181051
8.3105745 4.4114513 10.278151
9.194663 4.9198809 10.327545
11.328229 6.0691133 10.4449
10.212992 5.446425 10.390018
1.5044984 0.75417966 10.698856
2.4974234 1.2717494 13.497402
5.7409306 2.9722357 20.714012
5.9392409 3.1011734 15.844107
5.8237176 3.0563581 12.120347
6.0659828 3.1942804 10.141468
7.5074353 3.963335 10.240631
0.59317768 0.23547862 10.876253
1.4228445 0.62787211 14.461916
5.520699 2.8277946 23.918756
6.2506514 3.2388439 19.198521
2.0820575 1.0863092 4.9195709
5.7196846 2.9953849 10.631127
6.7568765 3.5490408 10.181051
8.325923 4.3824153 10.278151
9.2149315 4.8894272 10.331049
11.352782 6.0313592 10.448038
10.235241 5.412487 10.393344
1.5085137 0.7496146 10.708735
2.5009384 1.2625653 13.492506
5.7406464 2.9467249 20.675835
5.9743199 3.0929976 15.908544
5.8810916 3.0603323 12.216907
6.0795908 3.1743891 10.145601
7.521224 3.9371052 10.240631
1.2540516 0.49075165 23.125782
1.4186758 0.6201306 14.397286
5.53614 2.811352 23.942953
6.3156428 3.2446039 19.362768
2.0877705 1.080035 4.9240723
5.7046452 2.9621813 10.584203
6.7718964 3.5268252 10.185041
8.3411694 4.3533258 10.278151
9.2319431 4.8572316 10.331049
11.377211 5.9935083 10.451177
10.254071 5.3767266 10.393344
1.5125153 0.7450307 10.718615
2.5025985 1.252461 13.477821
5.7402549 2.9212527 20.637661
6.1171737 3.139924 16.258335
5.9385638 3.0639429 12.313467
6.0906343 3.1531482 10.145601
7.5349216 3.9108269 10.240631
1.2546797 0.48595551 23.105816
1.4178959 0.61390603 14.367457
5.5571465 2.7976618 23.991346
6.3807507 3.2499495 19.527016
2.101213 1.0777076 4.9465785
5.6824865 2.9255376 10.524479
6.7841659 3.5031655 10.185041
8.3563147 4.324183 10.278151
9.2520027 4.8266253 10.334554
11.401512 5.9555597 10.454315
10.276091 5.3426228 10.396669
0.21129765 0.0036732203 22.813404
1.5144085 0.73940575 10.713675
2.5096917 1.2450749 13.492506
5.7410879 2.8964915 20.604258
6.1890378 3.1495628 16.419422
5.9662805 3.0519202 12.348579
6.1041069 3.1331537 10.149734
7.5513768 3.885968 10.244469
0.59507155 0.22904807 10.866269
1.4195402 0.60874319 14.362486
5.6062436 2.7978904 24.160728
6.4459715 3.2548795 19.691261
2.1088433 1.0723398 4.9555812
5.6996336 2.9092414 10.537277
6.7963529 3.4794631 10.185041
8.3743734 4.296535 10.281826
9.268795 4.7943006 10.334554
11.425689 5.9175153 10.457454
10.297996 5.3084307 10.399995
0.21174543 0.0029271799 22.863401
1.5204777 0.73580647 10.738371
2.5176775 1.2381037 13.512088
5.7404828 2.8710921 20.56608
6.2767425 3.1666577 16.621935
2.3669956 1.2004591 4.931035
6.1150064 3.1118271 10.149734
7.5648956 3.859585 10.244469
1.2580417 0.47718441 23.105816
1.420184 0.60316032 14.347571
5.647522 2.7939088 24.29623
6.5113049 3.2593939 19.855509
2.1067417 1.0620323 4.9420772
5.7167349 2.8928609 10.550075
6.8084574 3.455718 10.185041
8.3893204 4.2672763 10.281826
9.2886467 4.763545 10.338058
11.449738 5.879374 10.460592
10.316463 5.2724514 10.399995
1.5097243 0.72411329 10.644525
2.5265605 1.2315381 13.536564
5.7411084 2.8463957 20.532677
6.3716292 3.1866732 16.842855
2.3690319 1.1911137 4.9266462
6.1283441 3.0917306 10.153868
7.581182 3.8346019 10.248306
0.60422754 0.22771899 11.006035
1.4203147 0.59737396 14.327685
5.6752977 2.7830324 24.373661
6.5767465 3.2634909 20.019756
5.7337914 2.8763962 10.562872
6.8204784 3.431931 10.185041
8.4071913 4.2394929 10.285501
9.3052187 4.7310925 10.338058
11.47366 5.8411369 10.463731
10.338136 5.2380958 10.40332
1.510839 0.71817219 10.634646
2.530844 1.2227111 13.536564
5.7416315 2.8217297 20.499273
6.4439774 3.1947839 17.003942
2.3731751 1.182837 4.9266462
6.1390991 3.0703197 10.153868
7.5973868 3.8095524 10.252144
0.62532574 0.23312026 11.380409
1.4169768 0.59016204 14.272999
5.7166333 2.7785895 24.509167
6.6438446 3.2679324 20.188696
6.0753994 3.0212617 11.168634
6.8351126 3.4094472 10.189032
8.4219389 4.2101202 10.285501
9.3248615 4.7001877 10.341563
11.497454 5.8028045 10.466869
10.359694 5.2036533 10.406646
1.5091187 0.71090817 10.605011
2.5433624 1.2178261 13.580621
5.7433944 2.7977488 20.470642
6.5024309 3.1955349 17.128212
2.379437 1.1756066 4.931035
6.1497793 3.0488715 10.153868
7.6135092 3.7844362 10.255981
0.63725114 0.23500372 11.585068
1.4150847 0.58358926 14.233227
5.7523432 2.7711642 24.620474
6.7141552 3.2734575 20.367022
6.137373 3.0254042 11.262486
6.8469725 3.3855674 10.189032
8.4365835 4.180697 10.285501
9.3444014 4.6692033 10.345068
11.521119 5.7643771 10.470007
10.377794 5.1674595 10.406646
1.506662 0.7033366 10.570436
2.5761158 1.2224698 13.732372
5.7437153 2.7731404 20.437237
6.571507 3.2010496 17.280096
2.3770733 1.1641338 4.9178681
6.170486 3.0323505 10.170399
7.6266727 3.7578371 10.255981
0.64512539 0.23533277 11.71485
1.413164 0.57703692 14.193455
6.781477 3.277029 20.535959
6.347507 3.089179 14.660199
6.2228813 3.0406001 11.398995
6.861454 3.3629725 10.193022
8.4541693 4.1527171 10.289176
9.3638391 4.6381397 10.348573
11.544659 5.7258554 10.473146
10.399117 5.1328549 10.409971
1.5006446 0.69416064 10.511166
2.6061683 1.2255999 13.869439
5.7479749 2.7504971 20.41815
6.6371803 3.2044215 17.422773
2.3768129 1.1537375 4.9090896
6.1886234 3.0144899 10.182798
7.6426239 3.7325988 10.259819
0.64757371 0.23366334 11.744802
1.4126979 0.57110339 14.168597
7.8110561 3.6958799 33.30724
6.8566866 3.2838974 20.728363
6.4072709 3.0906472 14.772729
6.2733603 3.0381839 11.471517
6.8731513 3.3390009 10.193022
8.4686136 4.1231813 10.289176
9.3799715 4.6054254 10.348573
11.568068 5.6872392 10.476284
10.416969 5.0965238 10.409971
1.4924622 0.68406457 10.437076
2.6187372 1.2203653 13.913496
5.7346115 2.7195437 20.337025
6.7011957 3.2065308 17.56085
2.3786676 1.1443957 4.9047008
6.2878036 3.0356891 10.327452
7.6556063 3.705898 10.259819
0.65056252 0.23217241 11.784735
1.415673 0.56656414 14.17854
7.8455334 3.6787302 33.399189
6.9382625 3.2932398 20.939537
6.3473144 3.034462 14.610685
6.3521128 3.0489948 11.595228
6.8874803 3.3162961 10.197012
8.4860077 4.0950685 10.292851
9.3991966 4.5742154 10.352077
11.594848 5.6502347 10.482561
10.438057 5.0617599 10.413297
1.4821051 0.67307091 10.34817
2.6276031 1.2133504 13.937972
5.7535262 2.7039535 20.370428
6.7776608 3.2140911 17.731144
2.380486 1.1350551 4.9003115
6.3161306 3.0222239 10.356381
7.6713858 3.6805389 10.263657
0.65164143 0.22999552 11.789726
1.4131805 0.55985528 14.133797
7.8663063 3.6550293 33.433064
7.0106168 3.2976458 21.122555
6.4385281 3.0505013 14.795235
6.41924 3.0536907 11.697611
6.9017334 3.2935319 10.201001
8.5002499 4.0654216 10.292851
9.4151068 4.5413785 10.352077
11.62151 5.6131124 10.488838
10.455662 5.0252938 10.413297
1.4716896 0.66215783 10.259263
2.6503415 1.2126418 14.035877
5.7724023 2.6882644 20.403831
6.8489561 3.2186637 17.887629
2.3844335 1.1267387 4.9003115
6.3851223 3.0278893 10.45144
7.6841865 3.6537383 10.263657
0.66116983 0.23074234 11.949459
1.4171116 0.55569589 14.153683
7.882442 3.6291254 33.447582
7.1081119 3.3132508 21.380659
6.3013449 2.9586198 14.457644
6.4888363 3.0590672 11.804259
6.9159126 3.2707088 10.204991
8.5174532 4.0371776 10.296527
9.4341192 4.5100236 10.355581
11.623479 5.5641088 10.473146
10.47314 4.9887662 10.413297
0.21155858 -0.0037164893 22.843403
1.4640551 0.65259039 10.190113
2.6564133 1.2042236 14.045668
5.8319001 2.6912389 20.580397
6.9221363 3.2236023 18.048717
2.390521 1.1194241 4.9047008
6.4338551 3.0235348 10.513433
7.6968937 3.6268933 10.263657
0.66087872 0.22805896 11.929492
1.4185457 0.55055338 14.148711
7.8973489 3.6026316 33.45726
7.1478329 3.3014424 21.465126
6.2386036 2.9026289 14.291099
6.5561848 3.0628905 11.906641
6.9300156 3.2478263 10.208982
8.5345612 4.0088625 10.300201
9.4498043 4.4770651 10.355581
11.628762 5.5168276 10.460592
10.493866 4.9537711 10.416622
0.21154432 -0.0044549443 22.843403
1.4592156 0.64433914 10.140721
2.6652448 1.197029 14.070144
5.9064207 2.7006576 20.809452
6.998981 3.2297056 18.219009
2.3944139 1.1110728 4.9047008
6.513247 3.0331321 10.625024
7.7124114 3.6013603 10.267494
0.66112387 0.22556557 11.919509
1.4204589 0.54559839 14.148711
7.924768 3.5817728 33.520176
7.2362032 3.3116586 21.695072
6.2585831 2.8853917 14.313605
6.6283712 3.0684719 12.017555
6.9440427 3.2248852 10.212971
8.5485029 3.9790471 10.300201
9.4686031 4.4455676 10.359086
11.63386 5.4695778 10.448038
10.511094 4.9171109 10.416622
0.21100475 -0.0051631127 22.783405
1.4628797 0.63986403 10.150599
2.6694071 1.1877183 14.070144
5.9566026 2.6985018 20.952612
7.0457473 3.2215016 18.31106
2.4004538 1.1037084 4.9090896
6.5365705 3.016273 10.645688
7.7249351 3.5744169 10.267494
0.65999079 0.22261521 11.884567
1.4218564 0.54044771 14.14374
8.0129385 3.5879896 33.839577
7.3011556 3.3106077 21.854628
6.2646565 2.8617184 14.304603
6.6911945 3.0692375 12.111406
6.9579949 3.2018862 10.216961
8.5654192 3.9506028 10.303877
9.4840631 4.4124889 10.359086
11.642298 5.4240041 10.438622
10.531582 4.8819609 10.419948
0.21102899 -0.0059022959 22.788404
1.4651043 0.63475364 10.150599
2.6660824 1.1751084 14.030982
7.8330779 3.5156231 27.495001
7.133472 3.2315516 18.508968
2.4086509 1.0973082 4.9178681
6.5572968 2.9981184 10.66222
7.7402782 3.5487657 10.271331
