# .PCD v0.7 - Point Cloud Data file format
VERSION 0.7
FIELDS x y z
SIZE 4 4 4
TYPE F F F
COUNT 1 1 1
WIDTH 1514
HEIGHT 1
VIEWPOINT 0 0 0 1 0 0 0
POINTS 1514
DATA ascii
1.3809152 0.35705256 3.9329526
4.6477828 1.2151251 9.9969406
5.9212055 1.5579282 10.085088
7.3757515 1.9502237 10.177061
9.1007137 2.4147837 10.285501
10.094586 2.7143455 10.352077
11.221325 3.0005088 10.426599
0.046691142 -0.0039064591 3.9191241
0.58386928 0.14070018 3.8184705
0.78523511 0.19435306 3.9125471
1.1353756 0.28898299 3.7925575
1.7602475 0.45440465 4.3423996
5.2662702 1.3709022 10.039924
6.6293869 1.7355769 10.137336
8.2103567 2.1586232 10.240631
0.23070873 0.035779517 3.8779471
0.41653731 0.079608828 3.912385
0.99472761 0.2486368 3.9851673
1.380481 0.3518042 3.9282601
4.6519961 1.1988939 9.9969406
5.929132 1.5379044 10.089354
7.382514 1.9244657 10.177061
9.1123676 2.3838596 10.289176
10.107447 2.6800063 10.355581
11.235341 2.9622724 10.429925
0.046677221 -0.0040694177 3.9191241
0.58435684 0.13866124 3.8184705
0.78393018 0.1911293 3.9027567
1.1363776 0.28501803 3.7925575
1.7542493 0.44633123 4.3239899
5.2710233 1.3525112 10.039924
6.6354051 1.7124254 10.137336
8.2209444 2.1307545 10.244469
0.23111795 0.035015151 3.8829386
0.41419175 0.077670023 3.8875272
0.97972184 0.24125971 3.9222548
1.378353 0.34614301 3.9188745
4.6561527 1.1826481 9.9969406
5.9344645 1.5171986 10.089354
7.3921051 1.899434 10.181051
9.1239157 2.3528836 10.292851
10.120191 2.6456106 10.359086
11.245612 2.9230361 10.429925
0.046662733 -0.004232327 3.9191241
0.58408058 0.13644436 3.8135312
0.78261226 0.18791701 3.8929663
1.1359162 0.28069174 3.7877855
1.7501116 0.43878022 4.3101821
5.275713 1.3341036 10.039924
6.6413417 1.6892531 10.137336
8.2283325 2.1020451 10.244469
0.2309529 0.034168009 3.8779471
0.41183782 0.075748563 3.8626699
0.98055804 0.23783839 3.9222548
1.3795528 0.34132957 3.9188745
4.6602526 1.1663879 9.9969406
5.939724 1.4964743 10.089354
7.3986902 1.8736191 10.181051
9.1353598 2.321856 10.296527
10.129364 2.6102681 10.359086
11.259364 2.88469 10.43325
0.046647675 -0.0043951846 3.9191241
0.5845533 0.1344047 3.8135312
0.78029048 0.18448235 3.8782806
1.1368891 0.27672493 3.7877855
1.7459426 0.43126354 4.2963748
5.2803373 1.3156798 10.039924
6.6471982 1.6660602 10.137336
8.2356195 2.0733101 10.244469
0.23078474 0.033322442 3.8729553
0.40947545 0.073844492 3.8378124
1.3807359 0.33651194 3.9188745
4.6642957 1.1501135 9.9969406
5.9449115 1.4757316 10.089354
7.4081097 1.848511 10.185041
9.1434088 2.2899535 10.296527
10.14187 2.575772 10.362591
11.269365 2.8453701 10.43325
0.046589755 -0.0045472779 3.9141245
0.58501887 0.13236342 3.8135312
0.7789461 0.18129665 3.8684902
1.1378481 0.27275479 3.7877855
1.7474372 0.42516643 4.2963748
5.2848978 1.2972399 10.039924
6.655705 1.6435215 10.141468
8.2428064 2.0445499 10.244469
0.23061348 0.03247847 3.8679638
0.40868044 0.072231956 3.8278694
1.0849818 0.25513345 4.3287663
1.3953266 0.33491072 3.9564166
4.6682816 1.1338249 9.9969406
5.9500265 1.454971 10.089354
7.4145164 1.8226407 10.185041
9.1546364 2.2588351 10.300201
10.154259 2.5412204 10.366095
11.282851 2.8069167 10.436575
0.046573594 -0.0047098794 3.9141245
0.58547735 0.13032052 3.8135312
0.77659643 0.17789559 3.8538043
1.1387933 0.2687813 3.7877855
1.7432109 0.41769892 4.282567
5.2893939 1.2787843 10.039924
6.6614013 1.6202787 10.141468
8.2498932 2.0157647 10.244469
0.23015289 0.031598914 3.8579805
0.40840459 0.070715427 3.8228979
1.0858657 0.25134459 4.3287663
1.4099228 0.33321166 3.9939587
4.6722112 1.1175228 9.9969406
5.9576044 1.4348032 10.093619
7.4237623 1.7974571 10.189032
9.162466 2.2268655 10.300201
10.16653 2.5066135 10.369599
11.296207 2.7684038 10.4399
0.046514649 -0.0048614163 3.9091246
0.58592868 0.12827604 3.8135312
0.78019279 0.17585421 3.8684902
1.1411786 0.26514208 3.7925575
1.7655748 0.41654432 4.3331947
5.2938256 1.260313 10.039924
6.6670165 1.5970163 10.141468
8.2599955 1.9877048 10.248306
0.22997537 0.030759158 3.8529887
0.40970051 0.069464803 3.8328409
1.1235056 0.25591993 4.4739494
1.4077158 0.32750642 3.9845734
4.6760836 1.1012069 9.9969406
5.9625764 1.4139986 10.093619
7.4299917 1.7715323 10.189032
9.1701832 2.194869 10.300201
10.178683 2.4719522 10.373104
11.305801 2.7289557 10.4399
0.046497397 -0.0050237533 3.9091246
0.58561319 0.12606697 3.8085921
0.78477848 0.17400987 3.8880711
1.1435524 0.26148948 3.7973294
1.7822423 0.41391316 4.3700151
5.2981925 1.2418265 10.039924
6.6725507 1.5737344 10.141468
8.2668839 1.9588598 10.248306
0.2297948 0.029921025 3.8479972
0.41046658 0.068120122 3.8378124
1.124392 0.25199661 4.4739494
1.4088504 0.32259059 3.9845734
4.6798992 1.0848776 9.9969406
5.9674759 1.3931766 10.093619
7.43613 1.745586 10.189032
9.1810884 2.1636233 10.303877
10.18725 2.4364069 10.373104
11.318892 2.6903379 10.443226
0.046479575 -0.0051860292 3.9091246
0.58604968 0.12402202 3.8085921
0.78737098 0.17170256 3.8978615
1.1444582 0.25749615 3.7973294
1.8046267 0.41247618 4.4206429
5.3048286 1.2238632 10.044312
6.6780033 1.5504332 10.141468
8.2767925 1.9307194 10.252144
0.22961119 0.029084526 3.8430054
0.4154394 0.067443199 3.882556
1.1264923 0.24834052 4.4787884
1.4049174 0.31653357 3.9704952
4.6836576 1.0685351 9.9969406
5.9723029 1.3723378 10.093619
7.4451137 1.7202967 10.193022
9.1885853 2.1315622 10.303877
10.199165 2.4016495 10.376609
11.331849 2.6516619 10.446552
0.046461191 -0.005348241 3.9091246
0.58647901 0.12197558 3.8085921
0.78995687 0.16937925 3.9076519
1.14535 0.25349966 3.7973294
1.8098676 0.40703136 4.4298482
5.3090687 1.2053384 10.044312
6.6833749 1.5271131 10.141468
8.2866058 1.9025335 10.255981
0.22942454 0.028249675 3.8380139
0.41883236 0.066485792 3.912385
1.1273524 0.2444068 4.4787884
1.4026439 0.31088108 3.9611094
4.6894832 1.0526564 10.001442
5.9796004 1.3520573 10.097885
7.4510732 1.6942979 10.193022
9.1959696 2.0994751 10.303877
10.207486 2.3660331 10.376609
11.344674 2.6129282 10.449878
0.046484303 -0.0055219829 3.9141245
0.58690119 0.11992764 3.8085921
0.79054326 0.16662076 3.9076519
1.1462278 0.24950011 3.7973294
1.80937 0.40028942 4.4252453
5.3132434 1.1867989 10.044312
6.6886644 1.5037745 10.141468
8.2931967 1.8735962 10.255981
0.22952175 0.027448662 3.8380139
0.42380458 0.065746583 3.9571285
1.1257399 0.23994663 4.4691095
1.3969761 0.30451375 3.9423382
4.6931291 1.0362806 10.001442
5.9842834 1.3311763 10.097885
7.4598832 1.6689365 10.197012
9.2032423 2.0673625 10.303877
10.219158 2.3311806 10.380113
11.353726 2.573312 10.449878
0.046464745 -0.00568421 3.9141245
0.58731622 0.11787824 3.8085921
1.1456321 0.24518539 3.7925575
1.8126651 0.39438629 4.4298482
5.3196936 1.168759 10.048702
6.6966209 1.4810252 10.145601
8.3028154 1.8453317 10.259819
0.22932915 0.026616136 3.8330221
0.42350426 0.064188309 3.952157
1.12411 0.23550063 4.4594307
1.399718 0.299997 3.9470313
4.6988449 1.020354 10.005943
5.9888935 1.3102793 10.097885
7.465663 1.6428865 10.197012
9.2104034 2.0352247 10.303877
10.227234 2.295495 10.380113
11.366284 2.5344772 10.453203
0.046444621 -0.0058463677 3.9141245
0.58848661 0.11597713 3.8135312
0.93338037 0.18987402 4.6027741
1.1450202 0.24087785 3.7877855
1.8159412 0.38846502 4.4344501
5.323741 1.1501827 10.048702
6.7017498 1.4576406 10.145601
8.309206 1.8163382 10.259819
0.22942066 0.025815465 3.8330221
0.42319822 0.062632941 3.9471855
1.1224627 0.23106898 4.4497519
1.3990679 0.29475367 3.9423382
4.7023783 1.0039458 10.005943
5.9934311 1.2893661 10.097885
7.4713526 1.6168164 10.197012
9.2174511 2.0030618 10.303877
10.238667 2.2605503 10.383617
11.375062 2.494786 10.453203
0.04646587 -0.0060204873 3.9191241
0.58888781 0.11392223 3.8135312
0.93403745 0.18661475 4.6027741
1.1443924 0.2365776 3.7830136
1.8211099 0.38292754 4.4436555
5.327723 1.1315923 10.048702
6.7095485 1.4348267 10.149734
8.3154955 1.7873225 10.259819
0.22950938 0.025014481 3.8330221
0.42235875 0.061005663 3.9372425
1.1183342 0.22615393 4.4303942
1.4102277 0.29196614 3.9704952
4.7058539 0.98752534 10.005943
5.9978952 1.2684373 10.097885
7.479898 1.5913537 10.201001
9.2277021 1.971583 10.307552
10.246495 2.2247968 10.383617
11.387351 2.4558513 10.456529
0.046444569 -0.0061826473 3.9191241
0.59004539 0.11201032 3.8184705
0.91070163 0.17865692 4.4852891
1.1452112 0.23258148 3.7830136
1.8300886 0.37814906 4.4620657
5.3339844 1.1134773 10.05309
6.7145162 1.4113973 10.149734
8.3216839 1.7582852 10.259819
0.2295953 0.024213191 3.8330221
0.41781679 0.058874082 3.892499
1.1314461 0.22469458 4.4787884
1.4163115 0.288073 3.9845734
4.7092724 0.97109282 10.005943
6.0048399 1.2480236 10.102151
7.4854069 1.5652343 10.201001
9.2378464 1.9400572 10.311227
10.257687 2.1897609 10.387122
11.399507 2.4168615 10.459854
0.046380851 -0.0063324049 3.9141245
0.59196073 0.11023346 3.8283491
1.4632679 0.28156567 7.1874542
1.1518717 0.2297494 3.8021016
1.8352269 0.37253556 4.4712706
5.3378386 1.0948515 10.05309
6.7194023 1.3879507 10.149734
8.3277702 1.7292262 10.259819
0.22967842 0.023411606 3.8330221
0.41379347 0.056846101 3.8527269
1.1420939 0.22266591 4.5175037
1.4291543 0.28549227 4.0174227
4.7126336 0.95464855 10.005943
6.00916 1.2270553 10.102151
7.4937773 1.5397023 10.204991
9.2478819 1.9084843 10.314902
10.265268 2.1539414 10.387122
11.411529 2.3778167 10.463179
0.046358466 -0.006494266 3.9141245
0.59387082 0.10844459 3.8382275
1.4662429 0.27683356 7.1972442
1.1599914 0.22716029 3.8259614
1.838432 0.36650893 4.475873
5.3416276 1.0762124 10.05309
6.724206 1.3644871 10.149734
8.3337564 1.7001463 10.259819
0.23004624 0.022635901 3.8380139
0.41240376 0.055193439 3.8378124
1.1440989 0.21891388 4.5223432
1.4284487 0.28016993 4.0127296
4.7159371 0.93819255 10.005943
6.0134063 1.2060719 10.102151
7.4991059 1.5135348 10.204991
9.254488 1.8761916 10.314902
10.276217 2.1188159 10.390627
11.423417 2.3387175 10.466505
0.046335515 -0.0066560479 3.9141245
0.59807038 0.1070529 3.8629239
1.4461747 0.26782444 7.0944448
1.1666408 0.22423574 3.8450491
1.8186098 0.35596311 4.4252453
5.3477015 1.0580249 10.057479
6.7316885 1.3415569 10.153868
8.342783 1.6716756 10.263657
0.23012386 0.021832753 3.8380139
0.41206515 0.05368609 3.8328409
1.1473271 0.21538222 4.5320225
1.4294178 0.27518201 4.0127296
4.719183 0.92172515 10.005943
6.0201387 1.1855778 10.106418
7.5043435 1.4873488 10.204991
9.2643061 1.844538 10.318578
10.28355 2.0829325 10.390627
11.438832 2.3003001 10.473156
0.046270274 -0.0068049836 3.9091246
0.59844047 0.10496459 3.8629239
0.8209359 0.14920695 4.0349278
1.1762178 0.22182034 3.8736811
1.7987367 0.34556013 4.3746176
5.3513622 1.0393513 10.057479
6.73633 1.3180507 10.153868
8.3517122 1.6431623 10.267494
0.23048635 0.021053495 3.8430054
0.41489503 0.052575435 3.8576982
1.118402 0.20591985 4.4158759
1.4286742 0.26987064 4.0080371
4.7245097 0.90565628 10.010444
6.02424 1.1645563 10.106418
7.5124474 1.4617201 10.208982
9.2740154 1.8128387 10.322253
10.294256 2.0477192 10.394132
11.450456 2.2610807 10.476481
0.046246234 -0.0069664558 3.9091246
0.60646194 0.10418551 3.9123166
0.81543666 0.14527118 4.0055566
1.176985 0.21771322 3.8736811
1.8248901 0.34398165 4.4344501
5.3549576 1.0206654 10.057479
6.74089 1.2945285 10.153868
8.3605433 1.614607 10.271331
0.23084618 0.020271972 3.8479972
0.41560528 0.051190626 3.8626699
1.1092178 0.20023045 4.3771605
1.4296075 0.264882 4.0080371
4.7276421 0.88915914 10.010444
6.0308313 1.1440067 10.110683
7.5175037 1.4354879 10.208982
9.2802868 1.7804554 10.322253
10.301342 2.0117731 10.394132
11.461944 2.221808 10.479807
0.046221636 -0.0071278424 3.9091246
0.61525142 0.10348006 3.9666481
0.82998234 0.14486982 4.07409
1.1777378 0.21360344 3.8736811
1.8260797 0.33760953 4.4344501
5.3584881 1.0019668 10.057479
6.7453675 1.2709906 10.153868
8.369278 1.5860102 10.275168
0.23091555 0.019466043 3.8479972
0.41736975 0.049925324 3.8775842
1.1086721 0.19613865 4.3723211
1.4271275 0.25927359 3.9986515
4.7307172 0.87265116 10.010444
6.0347877 1.1229482 10.110683
7.5254297 1.4097928 10.212971
9.2897768 1.7486774 10.325929
10.311803 1.9764738 10.397636
11.473298 2.1824825 10.483132
0.046196476 -0.0072891428 3.9091246
0.63094425 0.1038458 4.0654335
0.83249032 0.14231418 4.0838799
1.1784762 0.20949107 3.8736811
1.8407037 0.33367145 4.4666681
5.3619528 0.9832561 10.057479
6.7525306 1.2479485 10.158001
8.3779144 1.5573721 10.279006
0.23098208 0.018659879 3.8479972
0.41701183 0.048408061 3.872613
1.1217356 0.19441126 4.4207153
1.4331207 0.25519738 4.0127296
4.7337346 0.85613251 10.010444
6.0412364 1.102344 10.114949
7.5303054 1.3835156 10.212971
9.2991571 1.7168547 10.329603
10.31864 1.9404668 10.397636
11.484516 2.1431046 10.486458
0.046170749 -0.0074503538 3.9091246
0.64434522 0.10373415 4.1494007
0.83298206 0.13940738 4.0838799
1.1792003 0.20537613 3.8736811
1.8957168 0.33680892 4.5955386
5.3653522 0.96453345 10.057479
6.7568455 1.2243701 10.158001
8.3832989 1.5281183 10.279006
0.23104581 0.017853487 3.8479972
0.41770813 0.04701034 3.8775842
1.1434753 0.19406545 4.5029855
1.444203 0.25197169 4.0408864
4.7366939 0.83960348 10.010444
6.0450473 1.0812496 10.114949
7.5380545 1.3577557 10.216961
9.3050938 1.6843841 10.329603
10.328857 1.9050832 10.40114
11.491927 2.103003 10.486458
0.046144463 -0.0076114745 3.9091246
0.65621775 0.1032895 4.2234898
0.83044899 0.1360063 4.0691943
1.1799099 0.20125872 3.8736811
1.9276768 0.33554769 4.669179
5.3686862 0.94579899 10.057479
6.7638478 1.2012689 10.162133
8.3917379 1.4994094 10.282844
0.23081867 0.017027747 3.8430054
0.41733959 0.045495614 3.872613
1.1689461 0.19418736 4.5997739
1.4535791 0.24838124 4.0643501
4.7395959 0.82306427 10.010444
6.0487847 1.0601418 10.114949
7.542748 1.3314347 10.216961
9.3142548 1.6524853 10.333278
10.338954 1.8696516 10.404645
11.499198 2.062876 10.486458
0.046117611 -0.0077725025 3.9091246
0.6657908 0.10241021 4.2827606
0.82890773 0.13278528 4.0594039
1.1806054 0.19713883 3.8736811
1.9288362 0.32881683 4.669179
5.3719549 0.92705297 10.057479
6.7680001 1.1776513 10.162133
8.3969212 1.4701077 10.282844
0.23058859 0.016203808 3.8380139
0.41749588 0.044038549 3.872613
1.1745799 0.19091138 4.6191316
1.4595433 0.24415937 4.0784287
4.7424402 0.80651492 10.010444
6.0524483 1.0390211 10.114949
7.5503187 1.3056109 10.220951
9.3199663 1.6199623 10.333278
10.348927 1.8341727 10.408149
11.502651 2.0220773 10.483132
0.046090201 -0.007933436 3.9091246
0.66614419 0.10008555 4.2827606
0.82333022 0.12894799 4.0300326
1.1812862 0.19301654 3.8736811
1.9492427 0.32529631 4.7152042
5.3751583 0.90829569 10.057479
6.7748437 1.1544921 10.166265
8.40516 1.4413297 10.286681
0.23064375 0.015398805 3.8380139
0.41764706 0.042580951 3.872613
1.1752391 0.18681018 4.6191316
1.4654958 0.23989886 4.0925069
4.7473736 0.79031324 10.014945
6.0534668 1.0174556 10.110683
7.5548306 1.2792474 10.220951
9.3289061 1.5879886 10.336953
10.355268 1.7980371 10.408149
11.50596 1.9812797 10.479807
0.046062227 -0.0080942726 3.9091246
0.66418302 0.097422771 4.2679429
0.80968362 0.12392193 3.9614995
1.1819528 0.18889192 3.8736811
1.9503663 0.31849018 4.7152042
5.3782964 0.88952738 10.057479
6.7788329 1.1308365 10.166265
8.41014 1.4119815 10.286681
0.2306961 0.014593614 3.8380139
0.41779312 0.041122828 3.872613
1.1845788 0.18405582 4.653008
1.4629163 0.2342366 4.0831213
4.7501035 0.77373695 10.014945
6.0569816 0.99631888 10.110683
7.5592494 1.2528683 10.220951
9.3343925 1.5554149 10.336953
10.364997 1.7624773 10.411654
11.509125 1.9404837 10.476481
0.046033692 -0.0082550105 3.9091246
0.65221137 0.093349896 4.1889148
0.7970193 0.11914293 3.8978615
1.1840799 0.18499514 3.8784533
1.9553245 0.31229615 4.7244091
5.3837328 0.87113076 10.061869
6.7855158 1.1076202 10.170399
8.4181805 1.3831357 10.290519
0.23074563 0.013788246 3.8380139
0.41793415 0.039664209 3.872613
1.1752717 0.17841259 4.6142926
1.4603151 0.22859529 4.0737357
4.7527757 0.75715131 10.014945
6.0629973 0.97558427 10.114949
7.5635772 1.2264739 10.220951
9.3397655 1.5228224 10.336953
10.371086 1.7262861 10.411654
11.508459 1.8990816 10.469831
0.046004597 -0.0084156469 3.9091246
0.65022445 0.090751909 4.1740975
0.78836197 0.11504038 3.8538043
1.1847185 0.18086082 3.8784533
1.9621937 0.30637264 4.7382174
5.3867407 0.85233271 10.061869
6.7893405 1.0839276 10.170399
8.4229574 1.3537424 10.290519
0.23108068 0.012996811 3.8430054
0.41807005 0.038205102 3.872613
1.1572361 0.17154819 4.5417008
1.4593985 0.22323573 4.0690432
4.7575407 0.7408914 10.019446
6.0663657 0.95441455 10.114949
7.567812 1.2000647 10.220951
9.3450241 1.4902114 10.336953
10.377048 1.6900737 10.411654
11.511332 1.858303 10.466505
0.04597494 -0.0085761817 3.9091246
0.64437735 0.087647699 4.134583
0.78472632 0.11171532 3.8342235
1.1853426 0.17672427 3.8784533
1.955526 0.29834342 4.7198071
5.3920503 0.83389032 10.066257
6.7930827 1.0602219 10.170399
8.4276314 1.3243325 10.290519
0.23083627 0.012177015 3.8380139
0.42085654 0.036971807 3.8974702
1.1578279 0.16750762 4.5417008
1.4584619 0.21788533 4.0643501
4.760098 0.72427994 10.019446
6.0696602 0.93323308 10.114949
7.5719547 1.1736407 10.220951
9.3535185 1.4581041 10.340629
10.382885 1.6538408 10.411654
11.510372 1.8169453 10.459854
0.045985878 -0.008751113 3.9141245
0.64005744 0.084788561 4.1049476
0.78208572 0.10855665 3.8195379
1.1859522 0.17258558 3.8784533
1.9565555 0.29151553 4.7198071
5.3949285 0.81506342 10.066257
6.7967424 1.0365032 10.170399
8.4322033 1.2949064 10.290519
0.23145422 0.01139535 3.8479972
0.42470205 0.035806317 3.932271
1.0364275 0.14627871 4.0674376
1.4592136 0.21279302 4.0643501
4.7625971 0.70765972 10.019446
6.0728807 0.91204041 10.114949
7.5760059 1.1472025 10.220951
9.3619032 1.4259559 10.344304
10.388595 1.6175876 10.411654
11.509265 1.775617 10.453203
0.045955051 -0.0089115798 3.9141245
0.63495475 0.081861779 4.0703731
0.77943265 0.10541778 3.8048522
1.1865474 0.16844478 3.8784533
1.9594942 0.2849651 4.7244091
5.3977404 0.79622668 10.066257
6.8003192 1.0127717 10.170399
8.4366722 1.2654647 10.290519
0.23149261 0.010587354 3.8479972
0.42960736 0.034697514 3.9770145
1.0282147 0.1414628 4.0335612
1.4633645 0.20818383 4.0737357
4.7650385 0.6910308 10.019446
6.078608 0.89121485 10.119215
7.5829444 1.121191 10.224941
9.3701773 1.3937668 10.347979
10.397703 1.581851 10.415158
11.508008 1.7343185 10.446552
0.045923661 -0.0090719387 3.9141245
0.63061041 0.079067834 4.0407372
0.77878636 0.10256386 3.7999568
1.1871282 0.16430193 3.8784533
4.175261 0.59215117 9.9942999
5.4004869 0.77738017 10.066257
6.8065977 0.98943281 10.174532
8.4442091 1.2364719 10.294356
0.35472432 0.014081352 5.9794354
0.43344688 0.033475522 4.0118151
1.0448985 0.14003961 4.0964737
1.4606636 0.20260069 4.0643501
4.7674212 0.67439353 10.019446
6.0816822 0.86999112 10.119215
7.586812 1.0947149 10.224941
9.3749847 1.3610502 10.347979
10.403161 1.5455468 10.415158
11.506604 1.6930505 10.4399
0.04593271 -0.0092471167 3.9191241
0.62471175 0.076118261 4.0012231
0.77913958 0.099844761 3.7999568
1.186215 0.15995784 3.8736811
4.1792383 0.57784075 9.9989023
5.4031677 0.75852424 10.066257
6.8100104 0.96566737 10.174532
8.4484739 1.2069886 10.294356
0.35477132 0.012843047 5.9794354
0.42611709 0.031432629 3.942214
1.056599 0.13785233 4.1400285
1.4493908 0.19588436 4.0315008
4.7697463 0.65774798 10.019446
6.087265 0.84911704 10.123482
7.5935712 1.0686451 10.228931
9.3830357 1.3287926 10.351654
10.412023 1.5097352 10.418663
11.508748 1.6523441 10.436575
0.045900155 -0.0094073955 3.9191241
0.62420189 0.073846355 3.9962838
0.78049386 0.097249947 3.8048522
1.1867663 0.15581621 3.8736811
4.1734853 0.56220591 9.9804916
5.4057822 0.73965907 10.066257
6.8161268 0.9422754 10.178665
8.4558096 1.1779327 10.298194
0.35683402 0.011661012 6.0143771
0.42569244 0.029909039 3.9372425
1.0732847 0.13621695 4.2029414
1.4398 0.18947415 4.0033445
4.7720132 0.64109451 10.019446
6.0901918 0.8278634 10.123482
7.5972557 1.0421321 10.228931
9.3876171 1.2960316 10.351654
10.420761 1.4738809 10.422168
11.507051 1.6111255 10.429925
0.045867037 -0.0095675597 3.9191241
0.62522793 0.071755134 4.0012231
0.78082854 0.09452492 3.8048522
1.1873028 0.15167266 3.8736811
4.1831708 0.54865032 9.9989023
5.4083314 0.72078478 10.066257
6.8193746 0.91847688 10.178665
8.4598703 1.1484092 10.298194
0.35542956 0.010380091 5.9894185
0.42260242 0.028218182 3.9074132
1.2272018 0.15136512 4.7981901
1.426759 0.18269539 3.9658022
4.7742219 0.62443316 10.019446
6.0930443 0.80659962 10.123482
7.6038332 1.0160054 10.232922
9.395443 1.2637064 10.35533
10.429375 1.4379835 10.425673
11.508905 1.570444 10.426599
0.04583336 -0.0097276075 3.9191241
0.62547457 0.06957224 4.0012231
0.7831763 0.092035629 3.8146427
1.1863437 0.14734356 3.8689091
4.1831217 0.53379768 9.9942999
5.4108143 0.70190185 10.066257
6.8225393 0.89466727 10.178665
8.4638271 1.1188718 10.298194
0.35661811 0.0091635296 6.0093851
0.42110214 0.026646065 3.892499
1.247692 0.14946872 4.8756213
1.4256755 0.17750095 3.9611094
4.7763729 0.60776424 10.019446
6.0958233 0.785326 10.123482
7.6073337 0.98945689 10.232922
9.3997965 1.2309026 10.35533
10.437865 1.4020443 10.429177
11.514317 1.5302608 10.426599
0.045839913 -0.0099030389 3.924124
0.62571365 0.067388505 4.0012231
0.78450453 0.089416191 3.8195379
1.1868508 0.14320154 3.8689091
4.1849594 0.51919264 9.9942999
5.4132314 0.68301034 10.066257
6.8256207 0.87084669 10.178665
8.4676819 1.0893207 10.298194
0.35664794 0.0079186447 6.0093851
0.42225698 0.025236795 3.902442
1.672726 0.19438143 6.5210257
1.4245732 0.17231631 3.9564166
4.7784648 0.59108782 10.019446
6.1011143 0.76436687 10.127747
7.6137309 0.96327454 10.236912
9.4040365 1.1980838 10.35533
10.442696 1.3656008 10.429177
11.519588 1.490059 10.426599
0.045805067 -0.010062989 3.924124
0.62517214 0.065123938 3.9962838
0.78784817 0.087011352 3.8342235
1.1873435 0.13905779 3.8689091
4.1809278 0.50388014 9.9804916
5.4179597 0.66440189 10.070647
6.8286185 0.84701556 10.178665
8.4714327 1.0597564 10.298194
0.35696208 0.0066776937 6.0143771
0.42181018 0.023734139 3.8974702
1.6758924 0.18882242 6.530704
1.428594 0.16774465 3.9658022
4.7804995 0.5744043 10.019446
6.1037455 0.74306536 10.127747
7.6170473 0.93669182 10.236912
9.4081612 1.1652502 10.35533
10.450936 1.3295908 10.432681
11.524719 1.449839 10.426599
0.045769662 -0.010222818 3.924124
0.62462252 0.062863983 3.9913447
0.79219705 0.084692098 3.8538043
1.1878216 0.13491234 3.8689091
4.1884823 0.48996368 9.9942999
5.4202461 0.64548564 10.070647
6.8315339 0.823174 10.178665
8.4750795 1.030179 10.298194
0.35698318 0.0054316232 6.0143771
0.42242286 0.022288293 3.902442
1.6740423 0.18269895 6.5210257
1.427456 0.16256183 3.9611094
4.782475 0.55771375 10.019446
6.1063023 0.72175479 10.127747
7.6232624 0.91045493 10.240902
9.4155369 1.1328075 10.359005
10.455514 1.293102 10.432681
11.52971 1.4096014 10.426599
0.045733698 -0.010382521 3.924124
0.62406474 0.060608651 3.9864051
0.79552639 0.082239233 3.8684902
1.1882852 0.13076524 3.8689091
2.0917161 0.23736452 5.018971
5.4248452 0.62683636 10.075036
6.8343654 0.79932255 10.178665
8.4818068 1.0009648 10.302032
0.35699999 0.0041854861 6.0143771
0.4219656 0.020788794 3.8974702
1.6746699 0.17685434 6.5210257
1.4297302 0.15776718 3.9658022
4.7843928 0.5410164 10.019446
6.1087842 0.7004354 10.127747
7.6263938 0.88383925 10.240902
9.4194345 1.0999342 10.359005
10.459965 1.2565976 10.432681
11.53456 1.3693466 10.426599
0.045697179 -0.010542098 3.924124
0.62427247 0.058429889 3.9864051
0.79884821 0.07976415 3.8831758
1.1887345 0.12661657 3.8689091
2.0925319 0.23006161 5.018971
5.4270005 0.60789633 10.075036
6.8371143 0.77546126 10.178665
8.4852495 0.97135162 10.302032
0.35701242 0.0029392981 6.0143771
0.4220356 0.019315733 3.8974702
1.6815294 0.17164488 6.5452228
1.4422836 0.15405707 3.9986515
4.7862525 0.52431244 10.019446
6.1111917 0.67910755 10.127747
7.6294327 0.85721278 10.240902
9.4265852 1.0674289 10.362679
10.46783 1.2204909 10.436186
11.53927 1.3290751 10.426599
0.045660101 -0.010701546 3.924124
0.6229248 0.056112003 3.9765267
0.80013531 0.077072404 3.8880711
1.1876843 0.12231367 3.8641372
2.0836086 0.22172299 4.9959583
5.4314704 0.58920705 10.079425
6.8425765 0.75189793 10.182798
8.4917736 0.94208008 10.305869
0.3570205 0.0016930263 6.0143771
0.4215678 0.017821323 3.892499
1.6621035 0.16380468 6.467792
1.4531121 0.15008415 4.0268083
4.7880535 0.5076021 10.019446
6.1135254 0.65777135 10.127747
7.6323786 0.83057588 10.240902
9.4336243 1.0348872 10.366355
10.472026 1.183944 10.436186
11.543839 1.2887875 10.426599
0.045622468 -0.010860865 3.924124
0.62234277 0.053870745 3.9715877
0.80141342 0.074372642 3.8929663
1.188104 0.11816713 3.8641372
2.0824263 0.21424866 4.9913554
5.4334941 0.57024413 10.079425
6.8451595 0.72800827 10.182798
8.4981976 0.9127748 10.309707
0.35702425 0.00044678187 6.0143771
0.42162746 0.016349668 3.892499
1.6639165 0.15812057 6.472631
1.4656472 0.14620858 4.0596576
4.7919612 0.49110743 10.023948
6.1157842 0.63642716 10.127747
7.635231 0.80392885 10.240902
9.4371786 1.0019515 10.366355
10.47964 1.1477708 10.439691
11.544555 1.2480828 10.423273
0.045624673 -0.011036545 3.9291236
0.62175262 0.051634226 3.9666481
0.80268234 0.071664892 3.8978615
1.1885092 0.11401916 3.8641372
2.0792735 0.20659231 4.982151
5.4378343 0.55151582 10.083815
6.8504581 0.70439756 10.186931
8.5013323 0.88310498 10.309707
0.35702363 -0.00079946796 6.0143771
0.42061642 0.014843023 3.882556
1.6882417 0.1544843 6.5645804
1.4781729 0.14224732 4.0925069
4.7936463 0.47437739 10.023948
6.1179686 0.61507523 10.127747
7.6379905 0.77727199 10.240902
9.4439907 0.9693495 10.370029
10.483582 1.1111829 10.439691
11.541413 1.2070005 10.416622
0.045585871 -0.011195738 3.9291236
0.62115443 0.049402494 3.961709
0.80394208 0.068949185 3.9027567
1.1874137 0.10973269 3.8593652
2.0858164 0.19989173 4.9959583
5.4397264 0.5325309 10.083815
6.8528752 0.68048072 10.186931
8.5075521 0.85374445 10.313544
0.35701865 -0.002045708 6.0143771
0.42013282 0.013359173 3.8775842
1.7050486 0.15002015 6.6274929
1.4906887 0.13820037 4.1253562
4.7952733 0.45764154 10.023948
6.122674 0.59396756 10.132012
7.6406574 0.7506057 10.240902
9.4473162 0.93637788 10.370029
10.490944 1.0749451 10.443194
11.545557 1.1667061 10.416622
0.045546513 -0.011354793 3.9291236
0.62054831 0.047175564 3.9567697
0.80519271 0.066225559 3.9076519
1.1907632 0.105851 3.8689091
2.0962284 0.19350685 5.018971
5.4415522 0.51353949 10.083815
6.8580103 0.65682381 10.191064
8.5104809 0.82404238 10.313544
0.35700935 -0.0032919236 6.0143771
0.419644 0.011878881 3.872613
1.7093195 0.14438435 6.6420112
1.4963187 0.13345537 4.1394343
4.7968411 0.44090015 10.023948
6.1247101 0.57259184 10.132012
7.6432309 0.7239303 10.240902
9.4505272 0.90339488 10.370029
10.498182 1.0386695 10.446699
11.530978 1.1245854 10.399995
0.0455066 -0.011513712 3.9291236
0.61993426 0.044953473 3.9518306
0.80643404 0.063494042 3.9125471
1.1941001 0.10194727 3.8784533
4.2160978 0.37420455 10.03112
5.4433117 0.49454176 10.083815
6.860261 0.63288093 10.191064
8.5133047 0.79433018 10.313544
0.35699567 -0.0045380984 6.0143771
0.42074877 0.010437606 3.882556
1.7185831 0.13912554 6.6758871
1.4967754 0.12823142 4.1394343
4.7983513 0.42415336 10.023948
6.1266718 0.55120915 10.132012
7.6487117 0.69751954 10.244891
9.4536228 0.87040091 10.370029
10.501744 1.0020176 10.446699
11.523682 1.0832796 10.390018
0.045506291 -0.011689544 3.9341238
0.62008739 0.042789225 3.9518306
0.80766612 0.060754661 3.9174426
1.1974242 0.09802153 3.8879972
4.2037525 0.35832441 9.9989023
5.4450045 0.47553807 10.083815
6.8624287 0.60893029 10.191064
8.5160255 0.76460832 10.313544
0.35726628 -0.0057902643 6.0193686
0.42078263 0.0089688553 3.882556
1.7203116 0.13322259 6.6807265
1.4989338 0.12314702 4.1441274
4.7998023 0.40740141 10.023948
6.1285586 0.52981967 10.132012
7.6510997 0.6708163 10.244891
9.456604 0.83739626 10.370029
10.508729 0.96568 10.450204
11.516236 1.0420384 10.380041
0.045465209 -0.011848319 3.9341238
0.6194576 0.040574182 3.9468911
0.80787331 0.057935014 3.9174426
1.2022237 0.094190158 3.9023132
4.2030301 0.34348929 9.9942999
5.4466314 0.45652854 10.083815
6.8645124 0.58497226 10.191064
8.5218363 0.73515272 10.317382
0.3572439 -0.0070373206 6.0193686
0.42134437 0.0075080888 3.8875272
1.5010748 0.11804911 4.1488199
4.8033657 0.39082101 10.028449
6.1303706 0.50842381 10.132012
7.6533947 0.64410496 10.244891
9.4594688 0.80438149 10.370029
10.512036 0.92899179 10.450204
0.045423575 -0.012006951 3.9341238
0.61881989 0.038364053 3.941952
0.8090865 0.055183552 3.9223375
1.2040336 0.09010417 3.9070849
4.2042036 0.32881588 9.9942999
5.4481916 0.43751347 10.083815
6.8693166 0.56123614 10.195196
8.5243502 0.70540142 10.317382
0.35750577 -0.0082923537 6.0243607
0.42190105 0.006043511 3.892499
1.2259187 0.086402185 4.7691541
1.5031986 0.11293775 4.153513
4.8047004 0.37405172 10.028449
6.1321077 0.48702168 10.132012
7.6586003 0.61762792 10.248881
9.4622192 0.77135688 10.370029
10.518767 0.8925938 10.453709
0.045381386 -0.012165435 3.9341238
0.61817431 0.036158871 3.9370127
0.8092742 0.052358985 3.9223375
1.2073187 0.086112656 3.9166293
4.2072744 0.31428397 9.9989023
5.4496861 0.41849309 10.083815
6.8712335 0.53725427 10.195196
8.5299559 0.6758948 10.321219
0.35747465 -0.009540231 6.0243607
0.42245263 0.004575137 3.8974702
1.2337378 0.082624853 4.7981901
1.5053049 0.10781301 4.1582055
4.8081479 0.35743925 10.03295
6.1363707 0.46581101 10.136279
7.6607094 0.59089059 10.248881
9.4682341 0.73858654 10.373705
10.521819 0.85587102 10.453709
0.045298725 -0.012306157 3.9291236
0.6182968 0.034000818 3.9370127
0.80843568 0.049471963 3.9174426
1.2076119 0.08189781 3.9166293
4.2083459 0.29959589 9.9989023
5.4511132 0.39946756 10.083815
6.8730674 0.51326591 10.195196
8.5322638 0.64611554 10.321219
0.35772768 -0.010798067 6.0293517
0.42246601 0.0031004744 3.8974702
1.2440544 0.078952715 4.836906
1.5091155 0.10279199 4.1675911
4.8093662 0.34065348 10.03295
6.1379595 0.4443883 10.136279
7.6627259 0.56414616 10.248881
9.4707546 0.70553172 10.373705
10.524743 0.81913775 10.453709
0.045255493 -0.012464205 3.9291236
0.62306768 0.03207903 3.9666481
0.80860341 0.046649694 3.9174426
1.2078904 0.077681951 3.9166293
4.2093663 0.28490424 9.9989023
5.4524746 0.38043723 10.083815
6.8748169 0.48927131 10.195196
8.5376635 0.61655933 10.325057
0.3576878 -0.012046704 6.0293517
0.42247424 0.001625774 3.8974702
1.2255014 0.073484898 4.7643147
1.5111871 0.097634628 4.1722836
4.8126984 0.32400978 10.037452
6.1420755 0.42313933 10.140545
7.6646481 0.53739482 10.248881
9.4765425 0.67270833 10.37738
10.531096 0.78265887 10.457213
0.045171913 -0.012604207 3.924124
0.62550426 0.030014137 3.9814661
0.80774462 0.043772146 3.9125471
1.2081543 0.073465154 3.9166293
4.2122841 0.27033406 10.003505
5.4513793 0.36124387 10.079425
6.876483 0.46527079 10.195196
8.5397644 0.58675361 10.325057
0.357932 -0.013307283 6.0343437
0.42247736 0.00015099632 3.8974702
1.2182207 0.068783037 4.7352781
1.5149637 0.092569113 4.1816697
4.8137999 0.30720836 10.037452
6.1435151 0.40169692 10.140545
7.6664772 0.51063693 10.248881
9.4822149 0.63985318 10.381056
10.533763 0.74589372 10.457213
0.045127641 -0.012761808 3.924124
0.62715775 0.027898593 3.9913447
0.80484182 0.04079885 3.8978615
1.2069131 0.069162317 3.9118571
4.213202 0.25562879 10.003505
5.4526072 0.3422128 10.079425
6.8780651 0.44126448 10.195196
8.5417604 0.55694062 10.325057
0.35817176 -0.014569714 6.0393353
0.42300838 -0.0013267958 3.902442
1.0841445 0.057444371 4.2174592
1.5152776 0.08728034 4.1816697
4.8148427 0.29040319 10.037452
6.1448798 0.38024959 10.140545
7.6712203 0.48406255 10.252872
9.4843903 0.60675019 10.381056
10.536303 0.7091195 10.457213
0.045082819 -0.012919256 3.924124
0.62958038 0.025803184 4.0061622
0.80091089 0.037798744 3.8782806
1.2056565 0.064869031 3.9070849
4.2179694 0.24114332 10.01271
5.4537683 0.32317758 10.079425
6.8795638 0.4172529 10.195196
8.5436516 0.52712095 10.325057
0.35811871 -0.015819877 6.0393353
0.42300114 -0.0028033624 3.902442
1.2337365 0.061018739 4.7933512
1.51385 0.081897475 4.1769767
4.8158274 0.2735945 10.037452
6.1461697 0.35879764 10.140545
7.672863 0.45728204 10.252872
9.4898348 0.57384437 10.384731
10.542272 0.67256361 10.460718
0.045037448 -0.013076546 3.924124
0.62811369 0.023548165 3.9962838
0.79696894 0.034826577 3.8586998
1.2058756 0.060660113 3.9070849
4.2129335 0.22610451 9.9989023
5.4572549 0.30427167 10.083815
6.8809786 0.39323622 10.195196
8.5454397 0.49729481 10.325057
0.35834962 -0.017084958 6.0443273
0.42352176 -0.004286686 3.9074132
1.262822 0.058033362 4.9046578
1.512403 0.076525643 4.1722836
4.8167529 0.25678244 10.037452
6.1473846 0.33734131 10.140545
7.6744127 0.43049595 10.252872
9.4917803 0.54071516 10.384731
10.544555 0.63576013 10.460718
0.044991527 -0.013233677 3.924124
0.63362807 0.021536779 4.0308585
0.79301596 0.03188239 3.8391187
1.204589 0.056380924 3.9023132
4.213697 0.21139726 9.9989023
5.4582834 0.28522044 10.083815
6.882309 0.36921471 10.195196
8.5471239 0.46746263 10.325057
0.35828778 -0.018335728 6.0443273
0.42350423 -0.0057650269 3.9074132
1.2416675 0.052722663 4.8223877
1.505766 0.07092195 4.153513
4.8176198 0.23996727 10.037452
6.1511292 0.31601462 10.144811
7.6758685 0.40370464 10.252872
9.4936104 0.50757939 10.384731
10.550272 0.59915113 10.464223
0.044945061 -0.013390645 3.924124
0.6414659 0.019556737 4.0802512
0.78905231 0.028966233 3.8195379
1.2047786 0.052175775 3.9023132
4.2163606 0.19677842 10.003505
5.461638 0.26628232 10.088202
6.8863664 0.34532964 10.199329
8.5487041 0.43762475 10.325057
0.35850978 -0.019603394 6.0493183
0.42401448 -0.0072538098 3.912385
1.2016511 0.046830002 4.6675262
1.5077283 0.065740384 4.1582055
4.818428 0.22314918 10.037452
6.1521945 0.29454124 10.144811
7.6802406 0.37705609 10.256862
9.4953241 0.47443742 10.384731
10.552299 0.56232011 10.464223
0.044937458 -0.013566174 3.9291236
0.64774412 0.017481284 4.1197653
0.78609562 0.026111538 3.8048522
1.2049532 0.047970001 3.9023132
5.462534 0.24721602 10.088202
6.8875303 0.32128963 10.199329
8.5533819 0.40793428 10.328895
0.35843915 -0.020854708 6.0493183
0.42398658 -0.0087338528 3.912385
1.2457739 0.044185895 4.836906
1.5148458 0.060752846 4.1769767
4.8191776 0.20632836 10.037452
6.1583962 0.27329546 10.153343
7.68151 0.35024476 10.256862
9.4969225 0.44128966 10.384731
10.557758 0.52565962 10.467727
0.04488983 -0.013722952 3.9291236
0.65634602 0.015415533 4.1740975
0.78414649 0.023307692 3.7950618
1.2066051 0.04381755 3.9070849
5.4657564 0.22824657 10.092592
6.8914213 0.29736698 10.203463
8.5547533 0.37807491 10.328895
0.35836419 -0.022105765 6.0493183
0.42395353 -0.010213789 3.912385
1.2647655 0.04043588 4.9094973
1.5202222 0.055653479 4.1910548
4.8198686 0.18950504 10.037452
6.1541009 0.25158399 10.144811
7.6826859 0.32342917 10.256862
9.501792 0.40828204 10.388406
10.559529 0.48880294 10.467727
0.044841655 -0.013879564 3.9291236
0.65251154 0.013049102 4.1494007
0.78422308 0.020570368 3.7950618
1.2067506 0.039605442 3.9070849
5.4593406 0.20889159 10.079425
6.889605 0.27319816 10.199329
8.5560207 0.34821093 10.328895
0.35828483 -0.023356555 6.0493183
0.4239153 -0.011693601 3.912385
1.2611296 0.035914171 4.894979
1.5273061 0.050574232 4.209826
6.1549416 0.23010065 10.144811
7.6897902 0.29684204 10.264842
9.5031586 0.37511215 10.388406
10.561171 0.45194033 10.467727
0.044792932 -0.014036005 3.9291236
0.65099931 0.010746651 4.1395221
0.78429008 0.017832793 3.7950618
1.2083737 0.035436358 3.9118571
4.380764 0.14318103 10.385514
5.4696107 0.19016631 10.096981
6.9017658 0.24955387 10.215861
8.5603876 0.31846187 10.332732
0.35791323 -0.024585918 6.0443273
0.42440465 -0.013191222 3.9173565
1.2612474 0.031511787 4.894979
1.5309232 0.04534442 4.2192116
6.1583142 0.2087028 10.149076
7.6847563 0.26978645 10.256862
9.5077972 0.34205943 10.39208
10.562684 0.41507223 10.467727
0.04478281 -0.014211547 3.9341238
0.65647143 0.0085415728 4.1740975
0.78434759 0.015095001 3.7950618
1.2084899 0.031218134 3.9118571
4.3792849 0.12783152 10.380912
5.6856852 0.17780565 10.491998
6.8997827 0.22536886 10.211728
8.5614471 0.2885786 10.332732
0.35753739 -0.02581297 6.0393353
0.42435601 -0.01467259 3.9173565
1.2575794 0.027028732 4.8804607
1.5362474 0.040134836 4.2332897
5.0174322 0.1446635 10.442561
7.6856513 0.24296002 10.256862
9.5123224 0.30897897 10.395756
10.567632 0.37832662 10.471231
0.044772007 -0.014387189 3.9391236
0.66659778 0.0063399193 4.2383075
0.7854135 0.012372663 3.7999568
1.2085916 0.026999526 3.9118571
4.379704 0.11254419 10.380912
5.6862712 0.15795782 10.491998
6.920217 0.20185682 10.240659
8.5624027 0.25869182 10.332732
0.35715735 -0.027037699 6.0343437
0.42430222 -0.016153781 3.9173565
1.2526391 0.022549294 4.8611031
1.5398288 0.034849789 4.2426753
5.0048494 0.126818 10.415554
7.6864529 0.2161306 10.256862
9.5099545 0.2756747 10.39208
10.572453 0.34155151 10.474735
0.044760529 -0.01456293 3.9441233
0.66117698 0.0039835912 4.2037325
0.78545189 0.0096309828 3.7999568
1.2101709 0.022808466 3.9166293
4.3800707 0.097255476 10.380912
5.6891818 0.13816616 10.496387
7.1937494 0.18470196 10.641555
8.5600491 0.22871628 10.328895
0.35648546 -0.028235935 6.0243607
0.42477575 -0.017658303 3.922328
1.2577375 0.018248584 4.8804607
1.5399411 0.029474571 4.2426753
5.0009084 0.10925205 10.406551
7.8166914 0.19248687 10.428432
9.5108585 0.2424771 10.39208
10.573582 0.30464467 10.474735
0.044748362 -0.014738764 3.9491231
0.64331585 0.0016413163 4.0901299
0.78649896 0.0068977154 3.8048522
1.2102432 0.018584041 3.9166293
4.3823357 0.082002059 10.385514
5.6848412 0.1182069 10.48761
7.1971641 0.15965232 10.645688
8.6280861 0.20039706 10.409481
0.3560971 -0.029454965 6.0193686
0.42577645 -0.019191718 3.932271
1.2590505 0.013871752 4.8853002
1.5400345 0.024098996 4.2426753
5.0077887 0.091914631 10.420054
6.4057341 0.12757647 10.550075
7.8655171 0.16621844 10.492273
10.578145 0.26782438 10.47824
0.04469664 -0.014894875 3.9491231
0.62233865 -0.0005714196 3.9567697
0.78651828 0.0041522793 3.8048522
1.2103007 0.014359392 3.9166293
4.3865027 0.066763684 10.394719
5.6828246 0.098320998 10.48322
7.1723552 0.13405561 10.608491
8.8210096 0.17407084 10.639731
0.35570461 -0.030671632 6.0143771
0.42677158 -0.020732332 3.942214
1.262862 0.0095044039 4.8998184
1.5401093 0.018723125 4.2426753
5.0102563 0.07446593 10.424556
6.4035325 0.1051727 10.545809
8.0227137 0.14152363 10.699755
9.9766922 0.18466558 10.895578
10.582581 0.23097593 10.481745
0.044683181 -0.015070755 3.9541228
0.62466389 -0.0027555816 3.9715877
0.7875461 0.0014082151 3.8097472
1.2103435 0.010134567 3.9166293
5.6831326 0.078483641 10.48322
7.1755934 0.10906134 10.612624
8.9401426 0.14520361 10.781719
0.35473314 -0.031831581 5.999402
0.42776111 -0.022280129 3.952157
1.2616307 0.0050913086 4.894979
1.5401652 0.013347026 4.2426753
4.9974246 0.056828238 10.397549
6.4195075 0.083021663 10.571404
7.9990554 0.11317749 10.667834
10.085749 0.15146759 11.013184
10.583323 0.19403444 10.481745
0.044630304 -0.015226637 3.9541228
0.62931228 -0.0049759187 4.0012231
0.78856444 -0.0013430833 3.8146427
1.211864 0.0059166518 3.9214008
5.6929512 0.058743976 10.500776
7.1787443 0.084046088 10.616757
8.9213648 0.11375078 10.758695
0.35461986 -0.033069637 5.999402
0.42927724 -0.02386605 3.9670715
1.2578697 0.00068604801 4.8804607
1.5384768 0.0079620304 4.2379827
6.8588195 0.054002225 14.246086
8.0054274 0.085319042 10.675814
9.9607887 0.11481594 10.877203
10.583936 0.15709056 10.481745
0.04457688 -0.015382334 3.9541228
0.62540632 -0.0071258126 3.9765267
0.79059136 -0.0041070525 3.8244331
1.21337 0.0016882452 3.926173
8.9441433 0.082816266 10.785557
0.35450229 -0.03430729 5.999402
0.43131948 -0.025495643 3.9869576
1.2528366 -0.0036891201 4.8611031
1.5384952 0.0025916959 4.2379827
6.8567891 0.030050656 14.241585
9.9041939 0.058880154 16.270691
10.16114 0.081651464 11.094037
10.587986 0.12018523 10.48525
0.044561505 -0.0155582 3.9591229
0.62460077 -0.0092967758 3.9715877
0.79159033 -0.0068759467 3.8293283
1.2133685 -0.0025473849 3.926173
10.04943 0.047453705 14.832365
0.43122786 -0.027001074 3.9869576
1.2402468 -0.0079789488 4.8127089
1.5402205 -0.0027821972 4.2426753
6.8568525 0.00611581 14.241585
9.9173784 0.024339572 16.292021
10.142212 0.037259579 13.504742
10.246117 0.046566576 11.185916
10.588342 0.083225533 10.48525
0.04450693 -0.015713653 3.9591229
0.62223393 -0.01143264 3.9567697
0.79257965 -0.0096518658 3.8342235
1.2148449 -0.0067914133 3.9309452
6.2234316 -0.013968861 14.721092
10.032649 0.012353729 14.807568
10.255444 0.023347467 12.355096
0.27848533 -0.028550202 4.6816039
0.43379 -0.028688848 4.0118151
1.0830983 -0.010717674 4.2077808
1.5402014 -0.0081585534 4.2426753
6.8590093 -0.017825769 14.246086
9.9278355 -0.010291002 16.309086
10.145293 0.0018569508 13.508731
10.337751 0.010896537 11.285146
10.588567 0.046264824 10.48525
0.044451807 -0.015868915 3.9591229
0.62063664 -0.013569587 3.9468911
0.79355919 -0.012434774 3.8391187
1.2133212 -0.011018164 3.926173
6.2116232 -0.035625093 14.693477
10.043887 -0.022693772 14.8241
10.258667 -0.012456205 12.358933
0.27895781 -0.029586485 4.6915874
0.44113058 -0.030740349 4.0814157
1.0415782 -0.013933655 4.04808
1.5436146 -0.013565529 4.2520609
6.8610821 -0.04178137 14.250587
9.9407778 -0.045004722 16.330414
10.151265 -0.03357815 13.516711
10.341117 -0.02519875 11.288821
10.588664 0.0093035428 10.48525
0.04439614 -0.016023984 3.9591229
0.61903203 -0.015695523 3.9370127
0.79452902 -0.01522464 3.8440139
1.2117827 -0.01523436 3.9214008
6.2114611 -0.057307485 14.693477
10.038119 -0.057720929 14.815833
10.258561 -0.048265561 12.358933
0.27799243 -0.030460505 4.6766124
0.44899365 -0.032883693 4.1559887
1.0201578 -0.017203884 3.9658096
1.5452836 -0.018975055 4.2567539
6.863071 -0.065751657 14.255089
10.154099 -0.069032982 13.520701
10.334186 -0.061255593 11.28147
10.592198 -0.02766867 10.488754
0.044339936 -0.016178861 3.9591229
0.61897343 -0.017856255 3.9370127
0.79548895 -0.018021429 3.8489091
1.2087371 -0.019415725 3.9118571
6.2034087 -0.078889623 14.675066
10.037857 -0.092760153 14.815833
10.251921 -0.08402174 12.351258
0.27874446 -0.031533245 4.6915874
0.45153308 -0.034661278 4.1808462
1.0100379 -0.020557713 3.927094
1.5486587 -0.024423799 4.266139
6.8649769 -0.089736342 14.25959
10.150784 -0.10444596 13.516711
10.337299 -0.097360209 11.285146
10.592037 -0.064642169 10.488754
0.04424496 -0.01631251 3.9541228
0.61968392 -0.020042391 3.941952
0.79643905 -0.020825103 3.8538043
1.2041848 -0.023546575 3.897541
6.212863 -0.10070163 14.698079
10.254769 -0.11984459 12.355096
0.27805957 -0.032435682 4.6816039
0.45087808 -0.036193255 4.1758747
1.0074468 -0.024022732 3.9174151
1.5485641 -0.029829474 4.266139
6.8646216 -0.11369904 14.25959
10.156383 -0.13996126 13.524692
10.340286 -0.13348731 11.288821
10.591746 -0.10161489 10.488754
0.044187747 -0.016466854 3.9541228
0.62038666 -0.022233708 3.9468911
0.79737931 -0.02363563 3.8586998
1.2055876 -0.027784469 3.9023132
6.2085667 -0.12231089 14.688874
10.260698 -0.15573701 12.362771
0.27679902 -0.033261366 4.6616373
0.45181116 -0.037858512 4.1858177
1.0086133 -0.027573891 3.9222548
1.5432749 -0.035116438 4.2520609
6.8663597 -0.13770403 14.264091
10.339757 -0.16958083 11.288821
10.598459 -0.13867973 10.495763
0.044130001 -0.016620997 3.9541228
0.62108165 -0.024430174 3.9518306
0.7983095 -0.026452972 3.863595
1.2054833 -0.031992584 3.9023132
6.2120085 -0.14407279 14.698079
10.260093 -0.19155259 12.362771
0.27839896 -0.034450468 4.6915874
0.44689795 -0.039006423 4.1410737
1.0110236 -0.031172529 3.9319336
1.5362426 -0.040321361 4.2332897
6.857131 -0.16146611 14.246086
10.342492 -0.20573974 11.292497
10.590779 -0.17555615 10.488754
0.044071712 -0.016774939 3.9541228
0.62176883 -0.026631758 3.9567697
0.79922986 -0.029277097 3.8684902
1.2098403 -0.036335502 3.9166293
6.1977973 -0.16539072 14.665862
0.27770466 -0.035345685 4.6816039
0.44357461 -0.040269051 4.1112452
1.0146773 -0.034831755 3.9464519
1.5309179 -0.04552912 4.2192116
6.8739347 -0.18587205 14.282096
10.590102 -0.21252379 10.488754
0.044012889 -0.016928675 3.9541228
0.62244827 -0.028838441 3.961709
0.80014014 -0.032107968 3.8733854
1.2171654 -0.040809769 3.9404888
0.27900973 -0.036510743 4.7065625
0.43918672 -0.041406222 4.0714731
1.0170618 -0.038469061 3.9561307
1.5204012 -0.05052764 4.1910548
10.589295 -0.24948885 10.488754
0.043953527 -0.017082207 3.9541228
0.62234378 -0.031011015 3.961709
0.8000232 -0.034900784 3.8733854
1.2244738 -0.045335621 3.9643488
0.43744829 -0.042779353 4.0565586
1.019433 -0.042123426 3.9658096
1.5253892 -0.05602514 4.2051334
0.043893632 -0.017235529 3.9541228
0.62300766 -0.033225097 3.9666481
0.80091357 -0.037741493 3.8782806
1.2317654 -0.049912985 3.9882088
0.35475487 -0.049410444 6.0343437
0.43517554 -0.044085786 4.0366726
1.0217911 -0.045794815 3.9754882
1.5286328 -0.061488509 4.2145185
0.043833204 -0.017388642 3.9541228
0.62754214 -0.035667144 3.9962838
0.80077696 -0.040536974 3.8782806
1.23904 -0.054541804 4.0120687
0.35629383 -0.05090151 6.0642939
0.43554902 -0.045661487 4.0416441
1.0241361 -0.049483184 3.9851673
1.5577171 -0.068108805 4.2942958
0.043772236 -0.017541541 3.9541228
0.62974054 -0.037999358 4.0111017
0.80063063 -0.043331958 3.8782806
1.2462972 -0.059222013 4.0359287
0.35811204 -0.052447077 6.0992351
0.43485713 -0.047122784 4.0366726
1.0239571 -0.053057786 3.9851673
1.5850497 -0.074851297 4.36938
0.043710738 -0.017694229 3.9541228
0.63193023 -0.040347353 4.0259194
0.79945791 -0.04606745 3.8733854
1.252046 -0.063877247 4.0550165
0.35935327 -0.053917632 6.1241937
0.43416038 -0.048579808 4.0317011
1.0149803 -0.056143641 3.9512913
1.5882258 -0.080558918 4.3787656
0.043648709 -0.0178467 3.9541228
0.64186329 -0.043238215 4.0901299
0.79929227 -0.048857797 3.8733854
1.2562867 -0.068491824 4.0693326
0.35887775 -0.055126518 6.1192017
0.43345881 -0.050032549 4.0267296
1.011014 -0.059463922 3.9367731
1.5862117 -0.086008742 4.374073
0.043586146 -0.017998954 3.9541228
0.65100873 -0.046143498 4.1494007
0.79810077 -0.051581487 3.8684902
1.2620007 -0.073223494 4.0884204
0.35925308 -0.056471217 6.1291852
0.43275234 -0.051480975 4.0217581
1.003273 -0.062521726 3.9077363
1.5910702 -0.091844037 4.3881512
0.043485735 -0.018128376 3.9491231
0.6562674 -0.048822522 4.1839757
0.79791582 -0.054367065 3.8684902
1.2751462 -0.078455411 4.1313686
0.35962337 -0.057819199 6.1391683
0.43151215 -0.052858926 4.0118151
1.004303 -0.06610629 3.912576
1.5855726 -0.097080402 4.374073
0.043422189 -0.018280059 3.9491231
0.65841681 -0.051295504 4.1987934
0.79772121 -0.057151981 3.8684902
1.2763542 -0.083003134 4.1361403
0.35970402 -0.059122309 6.1441603
0.43079633 -0.054296851 4.0068436
1.0040661 -0.069611557 3.912576
1.5835021 -0.10250283 4.36938
0.043358114 -0.01843152 3.9491231
0.66133136 -0.053847618 4.2185502
0.79954749 -0.060089596 3.8782806
1.2998838 -0.089094847 4.212492
0.36006442 -0.060475826 6.1541433
0.42954725 -0.055660576 3.9969006
1.003817 -0.073115982 3.912576
1.5796914 -0.10779433 4.3599949
0.04329351 -0.018582758 3.9491231
0.65494597 -0.055625901 4.1790361
0.802378 -0.063120902 3.8929663
1.3189197 -0.095029294 4.274528
0.35956684 -0.061682194 6.1491518
0.42829391 -0.057016239 3.9869576
1.0023023 -0.076523505 3.9077363
1.5775841 -0.11318413 4.3553019
0.04322838 -0.018733766 3.9491231
0.65087819 -0.057567071 4.1543403
0.80621177 -0.066256471 3.9125471
1.3349528 -0.10087232 4.3270197
0.35906518 -0.062885806 6.1441603
0.42703637 -0.058363836 3.9770145
1.0007762 -0.079921365 3.9028971
1.5754586 -0.11856054 4.3506088
0.043162726 -0.018884547 3.9491231
0.64603108 -0.059408888 4.1247044
0.80901903 -0.069332257 3.927233
1.3688176 -0.10824314 4.4367752
0.35855952 -0.064086683 6.1391683
0.42577463 -0.059703346 3.9670715
1.000491 -0.083414242 3.9028971
1.5750351 -0.12405919 4.3506088
0.043096542 -0.019035097 3.9491231
0.64272606 -0.061366249 4.1049476
0.81282866 -0.072519302 3.9468138
1.3684313 -0.11302055 4.4367752
0.35804987 -0.065284796 6.1341767
0.42503619 -0.061111979 3.9621
0.99894154 -0.086796977 3.8980575
1.5728728 -0.12941465 4.3459163
0.043066591 -0.019208932 3.9541228
0.64096153 -0.063455328 4.0950689
0.81763965 -0.075828195 3.9712899
1.3739773 -0.11830971 4.455863
0.35753623 -0.06648013 6.1291852
0.42376596 -0.062437125 3.952157
0.99863243 -0.090283401 3.8980575
