# .PCD v0.7 - Point Cloud Data file format
VERSION 0.7
FIELDS x y z
SIZE 4 4 4
TYPE F F F
COUNT 1 1 1
WIDTH 1513
HEIGHT 1
VIEWPOINT 0 0 0 1 0 0 0
POINTS 1513
DATA ascii
-0.94709849 3.8998094 1.9426541
-0.88848191 3.6529112 1.3975728
-0.85246497 3.4995394 0.95944029
-0.83386832 3.4206207 0.5832715
-0.80331916 3.2903435 0.23030338
0.021262787 0.1079163 11.188847
-1.2974311 6.0448871 39.302101
-0.91750419 4.144012 20.429045
-2.5363514 11.10007 36.447243
-1.5992318 6.8231955 12.91038
-1.3263422 5.6235566 8.5585489
-1.155569 4.8766565 6.0769391
-0.29438919 2.3837132 41.370293
-0.69873822 4.2741036 40.348537
-1.2966796 5.7903819 22.88312
-3.0084777 13.145456 36.726002
-1.4417932 6.175735 10.443426
-1.2504883 5.3269277 7.3202033
-1.1107507 4.7131972 5.3277044
-1.0743692 4.4920692 4.618639
-1.0087956 4.2081847 3.5716798
-0.97739619 4.0678425 2.8275115
-0.96212357 3.9981647 2.2391601
-0.92563254 3.840657 1.6844749
-0.87915182 3.6422431 1.1912755
-0.85299754 3.5285077 0.78067839
-0.81790435 3.3782079 0.40498993
-1.0386683 4.3697753 4.0815449
-0.98983175 4.1546774 3.193418
-0.96492052 4.0438819 2.5286548
-0.94720328 3.9604743 1.9699289
-0.89772481 3.7478359 1.4304429
-0.85271662 3.5544858 0.97233576
-0.83463955 3.4764783 0.59086895
-0.80350864 3.3417027 0.23231868
0.021752359 0.10826287 11.238845
-1.2745585 6.0410156 39.247768
-0.90346634 4.149179 20.438833
-2.4966075 11.104487 36.43293
-1.6723076 7.2488027 13.700416
-1.3448863 5.7926202 8.8065262
-1.1581981 4.9649396 6.180552
-0.28627175 2.3864465 41.400246
-0.68373054 4.27599 40.343567
-1.2778113 5.8010111 22.907316
-3.0126128 13.378103 37.345448
-1.4646124 6.3739066 10.767637
-1.2569852 5.4398894 7.4678349
-1.1149759 4.8062124 5.4269338
-1.0766649 4.5721617 4.6957393
-1.0092999 4.2760801 3.6250336
-0.97859329 4.1363358 2.8713753
-0.96143889 4.0575352 2.2693043
-0.9282769 3.9115241 1.7125703
-0.87752527 3.6919601 1.2053758
-0.85318887 3.5840294 0.79093724
-0.81650174 3.4246404 0.40901366
-1.039572 4.44245 4.1447291
-0.99286008 4.2328758 3.2493379
-0.96262902 4.0975847 2.5590529
-0.94585556 4.0167689 1.9951055
-0.89872801 3.8106959 1.4518086
-0.86041641 3.6425886 0.99343747
-0.83503067 3.532382 0.59846646
-0.80104709 3.3833795 0.23393093
0.022221716 0.10852312 11.278844
-1.2553562 6.0545578 39.307041
-0.8894037 4.1542988 20.448624
-2.4578304 11.113135 36.43293
-1.7116785 7.5395341 14.235882
-1.3660266 5.9783392 9.0793009
-1.1702657 5.0970349 6.3378897
-0.27797297 2.3877177 41.405235
-0.66880041 4.2783508 40.343567
-1.2578202 5.8066645 22.912155
-1.4791634 6.5417848 11.040657
-1.2613721 5.5470829 7.6074858
-1.1193196 4.9026189 5.5298386
-1.0768039 4.6453748 4.76583
-1.0102232 4.3478208 3.6815257
-0.97837538 4.2008128 2.912497
-0.96035129 4.1169486 2.2994487
-0.93043768 3.9824562 1.7406659
-0.87884122 3.7557228 1.2237064
-0.85300285 3.6395953 0.8011961
-0.8159228 3.4759514 0.41348442
-1.0475231 4.5479307 4.237843
-0.99444515 4.3072076 3.3023148
-0.96191645 4.1597195 2.5945175
-0.94720083 4.0863657 2.0265763
-0.89823526 3.8690078 1.4715307
-0.85870463 3.6929131 1.0051607
-0.83504158 3.5883307 0.6060639
-0.7994383 3.4299445 0.2357447
0.022588801 0.10840282 11.273844
-1.2348343 6.0619483 39.326797
-0.87510675 4.1583748 20.45352
-2.4218781 11.134773 36.475876
-1.729724 7.744143 14.608954
-1.3531737 6.0187621 9.133029
-1.1778932 5.2136412 6.4760394
-0.26989403 2.3909688 41.445168
-0.65378159 4.2801318 40.338593
-1.2401613 5.8233142 22.96055
-1.4982224 6.7352982 11.356337
-1.2709461 5.6808372 7.7830472
-1.1222606 4.9958043 5.6290679
-1.0788239 4.7290745 4.8464346
-1.0080547 4.4082365 3.7286026
-0.97771907 4.2653384 2.953619
-0.95786905 4.1720848 2.3272743
-0.9321143 4.0534496 1.7687613
-0.87218589 3.7868154 1.2321664
-0.85354322 3.6999888 0.81238753
-0.81499547 3.5272999 0.41795522
-1.0514487 4.6389527 4.3176551
-0.99641871 4.3855424 3.3582351
-0.96365136 4.234509 2.6375816
-0.94807136 4.1560197 2.0580471
-0.8973462 3.9273624 1.4912528
-0.86098903 3.7622221 1.0215731
-0.83577746 3.6491485 0.61435205
-0.79081184 3.4473224 0.2363493
0.022943581 0.10823927 11.263844
-1.2145809 6.0707936 39.35643
-0.8607921 4.1624012 20.458414
-2.3848686 11.151917 36.504505
-1.7468752 7.9513059 14.986416
-1.3680061 6.1855597 9.376873
-1.1888928 5.3491344 6.6372147
-0.26139045 2.3904614 41.420212
-0.63875872 4.2818604 40.333622
-1.2205989 5.8312984 22.975069
-1.5170627 6.9341178 11.680548
-1.2912577 5.8676958 8.0304279
-1.1260273 5.0956907 5.7356472
-1.0841776 4.8302431 4.944562
-1.0157294 4.5142579 3.8133409
-0.97294414 4.3135939 2.9837754
-0.95598984 4.231575 2.3574188
-0.93330657 4.1245031 1.7968569
-0.88441008 3.9021182 1.2660072
-0.84714741 3.731688 0.81798321
-0.81482363 3.5835395 0.42287311
-1.053939 4.7264132 4.3941417
-0.998739 4.4678869 3.4170983
-0.96204996 4.2967396 2.6730459
-0.94846714 4.2257295 2.0895181
-0.89088178 3.9627204 1.5027573
-0.86813861 3.8553004 1.0438471
-0.83283281 3.6955218 0.62056822
-0.79637426 3.5280352 0.23957379
0.023226161 0.10782266 11.223846
-1.1933826 6.0749965 39.35643
-0.84645998 4.1663785 20.46331
-2.3477688 11.168939 36.533138
-1.7454064 8.0790873 15.214648
-1.3792981 6.3415337 9.6041851
-1.2044363 5.5098171 6.8290901
-0.25289369 2.3899236 41.395252
-0.62380832 4.2840638 40.333622
-1.2007428 5.837986 22.984747
-1.1566359 5.3764029 9.0655289
-1.2943476 5.9811358 8.1780596
-1.1240709 5.1724725 5.8165011
-1.0865313 4.9210577 5.0321755
-1.0218347 4.6165848 3.8949409
-0.98052448 4.4190183 3.0523119
-0.95755082 4.3083992 2.3968382
-0.93199915 4.186563 1.8212063
-0.88748777 3.9800954 1.2885678
-0.85553104 3.8305051 0.83663565
-0.81535608 3.64468 0.42823803
-1.0574307 4.8212409 4.4772792
-0.99962819 4.5463519 3.4730182
-0.96744305 4.3926897 2.728776
-0.94838756 4.2954912 2.1209886
-0.90865314 4.1087403 1.5537062
-0.87254632 3.9389822 1.0637765
-0.83278978 3.7564228 0.62885636
-0.79813349 3.5941963 0.24219368
0.023530187 0.10748928 11.193847
-1.1709931 6.0730209 39.316917
-0.8319115 4.1693077 20.46331
-2.3069561 11.168295 36.504505
-1.1411992 5.3363934 8.0873928
-1.212137 5.6393352 6.9825897
-0.24443306 2.389643 41.375286
-0.60885036 4.2862153 40.333622
-1.1808549 5.8446054 22.994427
-1.1351639 5.36765 9.0441999
-1.3023039 6.1211929 8.3615999
-1.1315085 5.2957168 5.9488068
-1.0897774 5.0189166 5.1267982
-1.0272379 4.7190084 3.9765408
-0.9820314 4.5000339 3.1043997
-0.95764107 4.3809576 2.4339392
-0.9312613 4.2531915 1.8474287
-0.8910591 4.0628257 1.3125383
-0.84847879 3.8622551 0.84223133
-0.81012046 3.6815493 0.43136761
-1.052402 4.8796506 4.5271616
-1.0008359 4.628828 3.5318813
-0.96852785 4.4718766 2.7743733
-0.94783229 4.3653035 2.1524594
-0.90935862 4.1811013 1.5783587
-0.87638015 4.0227408 1.0837059
-0.82178223 3.7689834 0.6302377
-0.79517651 3.6408885 0.24400747
0.023953974 0.10757409 11.213846
-1.148632 6.0709643 39.277405
-0.81735283 4.1721859 20.46331
-2.2673638 11.173354 36.494965
-1.1208283 5.3320827 8.0749941
-1.2288864 5.8160129 7.1936531
-0.23589297 2.3884704 41.340343
-0.59388494 4.2883143 40.333622
-1.1609354 5.8511581 23.004107
-1.3234822 6.3292155 8.6369123
-1.1422795 5.4389815 6.1031642
-1.089375 5.1029067 5.2074027
-1.0327525 4.8253303 4.0612788
-0.9838618 4.5852017 3.159229
-0.9581672 4.4578996 2.4733589
-0.92616642 4.3017368 1.8661591
-0.8930524 4.1409397 1.3350989
-0.86092287 3.9852307 0.86554682
-0.81832933 3.7817011 0.44030917
-1.0578196 4.9892192 4.6236014
-0.99895865 4.6995058 3.5819151
-0.96907157 4.5511236 2.8199706
-0.94490612 4.4262862 2.179734
-0.91450703 4.2766056 1.6112288
-0.88065773 4.1113267 1.1048076
-0.83353412 3.8880384 0.64681405
-0.79924572 3.7217953 0.24723196
0.024353987 0.10757353 11.223846
-1.1277168 6.0764642 39.287281
-0.80259198 4.1740141 20.458414
-2.2274725 11.176809 36.480648
-1.1016399 5.3332067 8.0708609
-1.2457198 5.9991498 7.4123907
-0.22771722 2.3910038 41.370293
-0.57891232 4.2903614 40.333622
-1.1407442 5.8564086 23.008944
-1.1336633 5.5517597 9.3385496
-1.3268504 6.4577637 8.804493
-1.1500083 5.5724235 6.2464952
-1.0869349 5.1799736 5.2809982
-1.036736 4.927938 4.142879
-0.9790687 4.6417966 3.1948681
-0.95999885 4.5435653 2.517416
-0.9293831 4.3911171 1.9017466
-0.89550591 4.2238088 1.3590695
-0.86537528 4.0747037 0.88233399
-0.81341368 3.8235023 0.4438858
-1.0655313 5.1135049 4.7333426
-1.0007329 4.7900095 3.6466646
-0.96819043 4.6262078 2.8630345
-0.94715744 4.5139518 2.2195971
-0.91705692 4.3629532 1.640812
-0.88132292 4.1857204 1.1223924
-0.83425307 3.9587629 0.65648353
-0.80069584 3.7929974 0.25005341
0.024741808 0.10752968 11.228846
-1.106082 6.0780706 39.272465
-0.78782839 4.1757898 20.45352
-2.188158 11.183051 36.475876
-1.0858148 5.3508096 8.091526
-1.2587267 6.1699114 7.6157789
-0.21942201 2.3923593 41.38028
-0.56400198 4.2928848 40.338593
-1.1207665 5.862824 23.018623
-1.1199182 5.5838118 9.3854742
-1.3388748 6.6336708 9.0359144
-1.1662492 5.7525001 6.4412794
-1.08469 5.2605772 5.3580985
-1.0400157 5.030632 4.2244787
-0.98916829 4.7721128 3.2798536
-0.96034354 4.6249599 2.5591543
-0.93104285 4.4760327 1.9354613
-0.89641285 4.3020477 1.3816299
-0.87021679 4.1690626 0.90005374
-0.82248533 3.9335585 0.45372155
-1.0768811 5.2598519 4.8630371
-1.0083894 4.9122572 3.7349596
-0.96332371 4.6844506 2.8959658
-0.9341445 4.5305653 2.2258914
-0.91901499 4.4493699 1.6703953
-0.87950963 4.250649 1.1376325
-0.83047163 4.0101428 0.66339034
-0.80267328 3.8691459 0.25307634
0.025129624 0.10748442 11.233845
-1.0854044 6.0849543 39.292221
-0.77287698 4.1765118 20.443729
-2.1471381 11.18036 36.442471
-1.0731797 5.3849239 8.1369877
-1.2711858 6.3439775 7.8230038
-0.21117042 2.3942606 41.400246
-0.54928339 4.2969427 40.358479
-1.100758 5.8691716 23.028303
-1.0868152 5.5185971 9.2702942
-1.3649175 6.8865881 9.3710766
-1.1746266 5.8995066 6.5993109
-1.0748159 5.3062749 5.4001527
-1.0433651 5.1372213 4.309217
-0.99169469 4.8697758 3.3429072
-0.96013123 4.7064104 2.6008925
-0.93212086 4.5610123 1.9691759
-0.89678442 4.3803439 1.4041904
-0.87243617 4.2538805 0.91590834
-0.82478511 4.0144548 0.46087483
-1.0872216 5.4063377 4.9927316
-1.0136063 5.02669 3.817368
-0.97427934 4.823 2.9770277
-0.93183839 4.6005216 2.2573621
-0.91850263 4.5265965 1.6966914
-0.88015819 4.3299046 1.1563896
-0.8342396 4.1003652 0.67582262
-0.80412859 3.9453535 0.25609931
0.025504664 0.10739605 11.233845
-1.0646921 6.0917678 39.311981
-0.75774843 4.1761785 20.429045
-2.1100328 11.198055 36.475876
-1.0576183 5.4052076 8.1617861
-1.2768761 6.4898987 7.9956918
-0.20278744 2.3946955 41.395252
-0.53434652 4.2993627 40.363453
-1.0804912 5.8742142 23.03314
-2.5406876 13.458135 37.298523
-1.0561612 5.4634624 9.1721773
-1.391512 7.1515961 9.7221985
-1.1936982 6.1065292 6.8234963
-1.0562871 5.3099942 5.4001527
-1.0429378 5.2286263 4.3814015
-0.99519116 4.9757133 3.4114439
-0.96023226 4.7922597 2.6449499
-0.9289673 4.627872 1.9953983
-0.89567441 4.4539914 1.4253409
-0.86534286 4.295424 0.92336929
-0.82554471 4.0905323 0.46758097
-1.0835328 5.4870234 5.0625672
-1.0180364 5.1412187 3.8997765
-0.97589111 4.9193959 3.0327575
-0.94410759 4.7461886 2.3244998
-0.91653919 4.5992417 1.721344
-0.87169987 4.3663163 1.1645958
-0.84418011 4.2246537 0.6930896
-0.80604213 4.0265164 0.25932381
0.025879389 0.10730636 11.233845
-1.0453873 6.106935 39.386066
-0.74280971 4.1767931 20.419254
-2.0717452 11.209756 36.490189
-1.0350293 5.3895211 8.1328554
-1.2894635 6.6768479 8.2182665
-0.19438086 2.3948135 41.385269
-0.51984584 4.3054361 40.403225
-1.0604259 5.880424 23.04282
-2.4886675 13.439772 37.223434
-1.0370836 5.4671159 9.1721773
-1.3925366 7.2925606 9.9057398
-1.2081444 6.2971077 7.029305
-1.0616688 5.4361539 5.5228119
-1.0501127 5.3621063 4.4881091
-0.99876583 5.0858369 3.482722
-0.95803523 4.869473 2.6843696
-0.92894405 4.7129574 2.0291131
-0.89313173 4.5229778 1.4450815
-0.85606354 4.327332 0.92896503
-0.82868749 4.1813188 0.47562841
-1.0771623 5.5567527 5.122426
-1.0224503 5.2598052 3.9851279
-0.97848982 5.0243249 3.0935538
-0.95189106 4.8741775 2.3832452
-0.91407979 4.6719279 1.7459967
-0.87889189 4.483809 1.1927315
-0.85516942 4.3587794 0.71173793
-0.80739874 4.1077394 0.2625483
0.026253803 0.10721537 11.233845
-0.53905952 3.2153821 20.725552
-0.72770137 4.1763511 20.404568
-2.0336678 11.222795 36.509277
-1.0120419 5.3709788 8.0997915
-1.3031479 6.8765588 8.456192
-0.18597592 2.3949018 41.375286
-0.50481391 4.3072243 40.403225
-1.0401117 5.8853278 23.047661
-2.4429719 13.455169 37.242207
-1.0127459 5.4424987 9.1252527
-1.3876002 7.4069605 10.05337
-1.2200203 6.4811954 7.2277646
-1.0520848 5.4888616 5.571876
-1.0504909 5.4651203 4.5697088
-0.98892087 5.1303506 3.5101368
-0.95615047 4.951077 2.7261078
-0.91777068 4.7434802 2.0403512
-0.88829231 4.5825801 1.4620018
-0.85874581 4.4219146 0.94668478
-0.8197934 4.2135158 0.47831091
-1.0779929 5.6668506 5.2188659
-1.0252911 5.3745141 4.0675368
-0.98036742 5.1293292 3.15435
-0.95366633 4.975533 2.4294024
-0.90756172 4.7261019 1.7640753
-0.87976438 4.5727658 1.2138332
-0.8521226 4.424953 0.72071677
-0.81009066 4.1988316 0.26617587
0.026641093 0.10716467 11.238845
-0.52896374 3.2241452 20.770004
-0.7127763 4.1768579 20.394775
-1.9952635 11.234233 36.523594
-1.313696 7.0669899 8.6826048
-0.17744587 2.3932328 41.33535
-0.48917508 4.3036633 40.353508
-1.0204191 5.8938761 23.067017
-2.395385 13.460217 37.232822
-0.99233741 5.438303 9.1124544
-1.365548 7.4325051 10.081301
-1.2263167 6.6421041 7.400497
-1.0203962 5.425909 5.5052891
-1.0516051 5.575851 4.6575861
-0.99509567 5.261137 3.5951221
-0.96525419 5.0936604 2.8003097
-0.92887813 4.8924012 2.1002882
-0.88932252 4.6751914 1.4887924
-0.86445659 4.5358701 0.96813506
-0.83029866 4.3484249 0.49038202
-1.0903963 5.8430886 5.3751645
-1.0280867 5.4932775 4.1528883
-0.98152375 5.2344074 3.2151463
-0.94635785 5.0323558 2.4545791
-0.91553998 4.8591757 1.8100934
-0.88182956 4.6713338 1.2372795
-0.85138237 4.5057564 0.73176765
-0.81308568 4.2948999 0.27000496
0.027015008 0.10707103 11.238845
-0.51733702 3.22367 20.755186
-0.69785666 4.1773124 20.384987
-1.9570601 11.247012 36.542683
-0.91381484 5.042871 7.5997052
-1.3246545 7.2670364 8.9205303
-0.16939291 2.3981576 41.410225
-0.47333452 4.2979264 40.283905
-0.99899936 5.892446 23.047661
-2.3454218 13.451497 37.185894
-0.96462423 5.3929553 9.0314016
-1.0207261 5.6667995 7.6992559
-1.2466004 6.8865328 7.6651092
-0.96781456 5.2470689 5.3230529
-1.0639945 5.75172 4.7988162
-1.0072339 5.4290304 3.7047811
-0.96851623 5.2102332 2.8605981
-0.9287709 4.9867644 2.137749
-0.89411676 4.7914438 1.5226332
-0.86757642 4.6402597 0.98772013
-0.8334533 4.449193 0.49932361
-1.0807468 5.905623 5.4283719
-1.0264171 5.592248 4.2235241
-0.98351741 5.3480339 3.281009
-0.93866402 5.0891871 2.4797556
-0.91573501 4.9552126 1.8429636
-0.88144714 4.7604127 1.2583812
-0.83925897 4.5281773 0.73453039
-0.81085879 4.3664789 0.2728264
0.027402081 0.10701756 11.243845
-0.50632191 3.2269917 20.765064
-0.6831066 4.1787181 20.380091
-1.919293 11.262604 36.571312
-0.89276218 5.0266361 7.5707746
-1.349453 7.5524349 9.2620678
-0.16115469 2.4007506 41.445168
-0.45883638 4.3043232 40.328651
-0.97801334 5.8934169 23.037981
-2.29671 13.449394 37.157738
-0.93949085 5.3603258 8.9716787
-0.98784482 5.5961432 7.5995054
-1.2574936 7.0877857 7.8819432
-0.95266587 5.2679615 5.3405757
-1.0689172 5.8932729 4.9118009
-1.0159664 5.5847278 3.8062153
-0.97335917 5.3399649 2.9278433
-0.92718309 5.0766253 2.1733365
-0.89551938 4.8936286 1.5522439
-0.86732006 4.7302308 1.0045073
-0.83771408 4.5598316 0.50915933
-1.106934 6.1702924 5.6644826
-1.0419633 5.7907243 4.3677387
-0.98319995 5.4532518 3.3418052
-0.93866104 5.1906872 2.5259128
-0.91442871 5.0466628 1.8741903
-0.88045347 4.8495445 1.279483
-0.8376146 4.6090355 0.74558127
-0.80903703 4.4430099 0.27584937
0.027775474 0.10692126 11.243845
-0.49434853 3.2241313 20.73543
-0.66819465 4.1790657 20.3703
-1.88095 11.275125 36.590401
-0.87713993 5.0408111 7.587306
-1.3214236 7.5476274 9.250555
-0.15270101 2.400146 41.425201
-0.44386315 4.3064284 40.333622
-0.95723403 5.8955541 23.03314
-2.2477572 13.445415 37.124889
-0.91239089 5.314734 8.890626
-0.95598298 5.5282965 7.5037451
-1.2617717 7.2591362 8.0657015
-0.93551618 5.2782784 5.3475847
-1.0687765 6.0119348 5.0059547
-1.0184859 5.7117352 3.8884592
-0.95471328 5.3433294 2.9278433
-0.92743003 5.1802249 2.2145431
-0.89621925 4.9958801 1.5818546
-0.86210072 4.7960815 1.0166312
-0.83768141 4.650948 0.51720679
-1.0963783 6.2366343 5.7210164
-1.0371852 5.8818998 4.4324884
-0.98515975 5.5755119 3.4127343
-0.94667268 5.3414049 2.5951486
-0.91827458 5.1707091 1.9169216
-0.87884802 4.9387264 1.3005847
-0.84236324 4.7289391 0.76215762
-0.80142367 4.4900708 0.27766311
0.02816231 0.10686506 11.248845
-0.48286122 3.2243001 20.725552
-0.65344572 4.180367 20.365406
-1.8442261 11.297828 36.642895
-0.86048418 5.0493903 7.595572
-1.2934445 7.5427175 9.2390432
-0.14452747 2.4041226 41.485104
-0.42898625 4.3095436 40.348537
-0.93586069 5.8938942 23.013784
-2.2002532 13.449774 37.115505
-0.89080775 5.2998829 8.8607645
-0.92410392 5.4573259 7.4039946
-1.2466646 7.3236537 8.131855
-0.91769594 5.2850256 5.3510895
-1.0791739 6.1958542 5.1534619
-1.0201309 5.8388271 3.9707029
-0.95897275 5.4775329 2.9974074
-0.91334724 5.2062621 2.2239084
-0.89372444 5.0840211 1.6072352
-0.85643202 4.8619523 1.0287553
-0.83875382 4.7519269 0.52614838
-1.1297246 6.5605502 6.0103345
-1.0510466 6.0846357 4.5796466
-0.98260182 5.6766129 3.4709976
-0.9458791 5.4475245 2.6434038
-0.9034577 5.1924925 1.9234957
-0.87746543 5.0327435 1.3228587
-0.83521646 4.785512 0.76975507
-0.80554086 4.60603 0.28229836
0.028549092 0.10680746 11.253845
-0.47137877 3.2244287 20.715673
-0.63854223 4.1806097 20.355616
-1.8040721 11.299774 36.628578
-0.84239024 5.0495872 7.5914388
-1.0638601 6.3365221 7.769279
-0.13594124 2.4011536 41.425201
-0.41414374 4.3131371 40.36842
-0.91643775 5.9045773 23.04282
-2.1524737 13.45226 37.101425
-0.8684929 5.279799 8.8223715
-0.89273214 5.3862004 7.304244
-1.2517389 7.5118842 8.3339891
-0.90163344 5.3022599 5.3651075
-1.0876458 6.376081 5.2978311
-1.0187851 5.9536338 4.0447226
-0.9488306 5.5332394 3.025233
-0.92107648 5.3601942 2.2857184
-0.89469516 5.1958423 1.639666
-0.88539517 5.1311517 1.0800495
-0.83743435 4.8431549 0.53419578
-1.104955 6.5534091 6.0003586
-1.0628308 6.2835517 4.7238612
-0.98727411 5.8245149 3.5571256
-0.94587767 5.5626502 2.6958549
-0.91308886 5.358542 1.9810184
-0.87216443 5.107645 1.3404435
-0.84604114 4.9494805 0.79254752
-0.81138837 4.7368431 0.28753814
0.028921748 0.10670715 11.253845
-0.45946288 3.2214389 20.686037
-0.62364501 4.180799 20.345825
-1.7655383 11.311902 36.647667
-0.82067907 5.0275016 7.5542421
-1.0401759 6.330708 7.7577658
-0.1275135 2.4007485 41.410225
-0.39869392 4.3103099 40.328651
-0.89393741 5.8953123 22.994427
-2.1049697 13.456282 37.092037
-0.84508634 5.2518997 8.7711802
-0.87103164 5.3714375 7.280304
-1.2446034 7.633317 8.4626188
-1.2034055 7.2296414 7.2820945
-1.0903844 6.5295658 5.4202309
-1.0194132 6.0849962 4.1297078
-0.96398079 5.7418456 3.1342165
-0.91697383 5.4502382 2.321306
-0.88213545 5.2320457 1.6495361
-0.88139093 5.2165527 1.095904
-0.83631927 4.9393401 0.54269028
-1.0620159 6.4148307 4.8180423
-0.99374753 5.9895258 3.6533861
-0.94657409 5.6867948 2.7525024
-0.901371 5.4036164 1.99581
-0.87757075 5.2496872 1.3744407
-0.84347093 5.040318 0.8049798
-0.81385344 4.8529706 0.29217336
0.02920877 0.10635802 11.223846
-0.44725281 3.2160964 20.641582
-0.60875422 4.1809349 20.336035
-1.7264915 11.320947 36.657207
-0.80001962 5.0108838 7.5253119
-1.0063738 6.2615142 7.6695037
-0.11907613 2.4000256 41.390259
-0.38331595 4.3079591 40.29385
-0.79181671 5.3475618 20.850561
-2.0574641 13.460135 37.082653
-0.82553279 5.2470884 8.7583818
-0.85038894 5.3625412 7.2643433
-1.2611918 7.908792 8.7603083
-1.2171429 7.4731493 7.5204029
-1.0889261 6.6639385 5.5269384
-1.0245483 6.2494454 4.2366252
-0.96978593 5.9025388 3.2176933
-0.92882359 5.6409535 2.3981006
-0.89588815 5.4291482 1.7073475
-0.87119097 5.2680621 1.1052303
-0.83372867 5.0306625 0.55073774
-1.1341509 7.0254059 6.4193716
-1.0641748 6.5701194 4.929883
-0.99148315 6.1078467 3.7217822
-0.93984932 5.7706957 2.7902672
-0.89543498 5.4859586 2.0237496
-0.87885708 5.3726406 1.4037486
-0.8434779 5.1507454 0.82017475
-0.81470829 4.964242 0.29660705
0.029522425 0.10609061 11.203847
-0.43664923 3.2222579 20.671219
-0.59387004 4.1810184 20.326242
-1.6876234 11.331335 36.671528
-0.77775055 4.9830613 7.4798489
-0.97256988 6.1889954 7.5774035
-0.11064538 2.3992732 41.370293
-0.36845702 4.3113947 40.313736
-0.77314544 5.3502932 20.850561
-2.0102122 13.465529 37.077961
-0.80602306 5.2422047 8.7455845
-0.83120346 5.3624988 7.2603531
-1.2732612 8.1677237 9.0396204
-1.2291945 7.7168388 7.7587123
-1.1025137 6.8983116 5.7152457
-1.0258992 6.3974881 4.3325768
-0.96253151 5.9889884 3.2617507
-0.91502494 5.6807771 2.4130847
-0.89527887 5.5458999 1.7411882
-0.86770266 5.3632054 1.1229501
-0.83051032 5.122026 0.55878508
-1.1608506 7.3538752 6.7120152
-1.0677912 6.741468 5.0534954
-0.99786627 6.2858272 3.8256423
-0.93611962 5.877028 2.8385227
-0.9097783 5.6988912 2.0977075
-0.87929541 5.4956651 1.4330566
-0.84194058 5.2563424 0.83467901
-0.81479603 5.0755763 0.30104074
0.02983457 0.10582229 11.183847
-0.42986718 3.2576573 20.888546
-0.57885319 4.1800404 20.311558
-1.6489179 11.343063 36.690613
-0.76332104 5.0052195 7.5087805
-0.92371696 6.0149384 7.3625026
-0.10226967 2.3996446 41.370293
-0.35340521 4.3126545 40.313736
-0.75446469 5.3529596 20.850561
-1.9629477 13.470756 37.073265
-0.78655756 5.2372489 8.7327871
-0.81247979 5.3653674 7.2603531
-1.2590355 8.2659607 9.1425247
-1.2307807 7.9043202 7.940949
-1.1060659 7.0790176 5.8596144
-1.0242858 6.5332212 4.4203033
-0.96775007 6.1586037 3.3498652
-0.92331731 5.862535 2.4861329
-0.89536124 5.6721897 1.7778491
-0.85511714 5.4050169 1.130411
-0.82588434 5.2085085 0.56638545
-1.1704694 7.5866699 6.9181967
-1.0578567 6.8330317 5.1182451
-1.0016967 6.4554057 3.9244366
-0.94771862 6.0865464 2.9350331
-0.90735495 5.8140092 2.1371517
-0.87813413 5.6139545 1.4611921
-0.83354717 5.3228512 0.84365785
-0.81024295 5.162293 0.30446672
0.030203776 0.10571751 11.183847
-0.78725541 6.1337943 39.311981
-0.56385046 4.1790085 20.296873
-1.6099421 11.353186 36.704929
-0.74874634 5.0273371 7.5377111
-0.87846875 5.8564677 7.1667905
-0.093892731 2.3999872 41.370293
-0.33855677 4.3165188 40.338593
-0.73526174 5.3518248 20.836044
-1.9156712 13.475818 37.068577
-0.76713651 5.2322216 8.7199888
-0.79462767 5.3741326 7.2683334
-1.2456357 8.3742561 9.2564554
-1.2224909 8.0354929 8.0671129
-1.1165935 7.3136997 6.0479221
-1.0350343 6.7558169 4.5656013
-0.97179592 6.3283267 3.4379795
-0.92964649 6.0398374 2.5573082
-0.89457268 5.7985463 1.81451
-0.86026585 5.563314 1.1602548
-0.82219005 5.3048635 0.57488
-1.1768072 7.8085418 7.1144004
-1.0726815 7.0924621 5.3066072
-1.0017707 6.6080365 4.0130978
-0.95240504 6.2603197 3.0147591
-0.90983349 5.9665241 2.1897442
-0.87468892 5.722692 1.4869832
-0.83818263 5.4774761 0.86506897
-0.8058517 5.2539773 0.30809429
0.030631766 0.10577563 11.203847
-0.40807587 3.2682893 20.937939
-0.54886186 4.1779218 20.282187
-1.5709153 11.363173 36.719246
-0.73078835 5.0271349 7.5335779
-0.85337692 5.8277841 7.1284156
-0.085585162 2.4023199 41.405235
-0.32360631 4.3192697 40.353508
-0.71657592 5.3543587 20.836044
-1.8686202 13.482423 37.068577
-0.74776018 5.2271218 8.7071905
-0.77629381 5.3798561 7.2723236
-1.2202929 8.4053936 9.2858562
-0.79510987 5.3517265 5.3966484
-1.1272177 7.5600877 6.245645
-1.0460972 6.9909697 4.7191234
-0.97926772 6.5288167 3.5423255
-0.92303187 6.139318 2.5966418
-0.89362729 5.929708 1.8525808
-0.86138505 5.7022843 1.1863682
-0.82454282 5.4455686 0.58739817
-1.18161 8.0305481 7.310605
-1.0780317 7.3000941 5.4567084
-1.0039473 6.7820668 4.1144247
-0.95055413 6.398283 3.0777006
-0.90778035 6.0957708 2.2341187
-0.87408304 5.8555088 1.5186357
-0.83735657 5.6028109 0.88233596
-0.80231047 5.3555746 0.31212491
0.031030666 0.10575007 11.213846
-0.39750627 3.2766361 20.982393
-0.53388774 4.1767821 20.267502
-1.5318385 11.373024 36.733562
-0.71442097 5.0380135 7.5459762
-0.83166909 5.821208 7.1169028
-0.077226192 2.4034696 41.420212
-0.30867866 4.3224998 40.373394
-0.69544643 5.3381305 20.763451
-1.8215463 13.488863 37.068577
-0.72806853 5.2193685 8.6901274
-0.75792986 5.3855171 7.2763138
-0.92523336 6.5332246 7.2314396
-0.77744752 5.3615284 5.4036574
-1.1350138 7.7989321 6.4370904
-1.0513004 7.1973181 4.8534551
-0.98021728 6.6943684 3.6281211
-0.92785186 6.3213873 2.6696901
-0.89038038 6.0514402 1.8878317
-0.85939378 5.8267479 1.2096838
-0.82228118 5.5617208 0.59768099
-1.088863 7.5558558 5.6421275
-1.0190965 7.0543203 4.2740154
-0.95100778 6.5587668 3.1511323
-0.90823191 6.2484407 2.2867112
-0.86695385 5.9499116 1.5409098
-0.83638042 5.7331047 0.90029365
-0.79156327 5.4127197 0.31434175
0.031444829 0.10576393 11.228846
-0.38842672 3.2980671 21.110813
-0.51880282 4.1745787 20.247919
-1.4927121 11.382742 36.747879
-0.69760126 5.0460515 7.5542421
-0.81178647 5.8272505 7.1207404
-0.068900526 2.406033 41.460144
-0.29380432 4.3267422 40.403225
-0.67680866 5.3405256 20.763451
-1.7749003 13.498561 37.077961
-0.70879132 5.2141252 8.6773291
-0.73994529 5.3941011 7.2842941
-0.90334964 6.5431304 7.2387896
-0.75922698 5.3677406 5.4071622
-1.1438912 8.057189 6.6442285
-1.051536 7.3789473 4.9713378
-0.9844079 6.8907013 3.7301481
-0.92812568 6.4806166 2.7333734
-0.88765782 6.1827178 1.9259026
-0.85724366 5.9561281 1.2339318
-0.81921858 5.6779232 0.6079638
-0.79729301 5.6942558 5.2022381
-1.0956712 7.7957673 5.8157735
-1.0203279 7.2413864 4.3829422
-0.95797908 6.7732549 3.2497408
-0.89702189 6.3263798 2.3130074
-0.87012041 6.1213298 1.5819409
-0.83380687 5.8585558 0.91756064
-0.79312873 5.5588794 0.32018617
0.03182904 0.10569442 11.233845
-0.37647146 3.295543 21.086117
-0.50386173 4.1733317 20.233234
-1.4539144 11.395287 36.77174
-0.68223655 5.0651894 7.5790396
-0.79057837 5.8236966 7.1130652
-0.060430951 2.403373 41.410225
-0.27869937 4.3277411 40.403225
-0.65570468 5.3228946 20.68602
-1.7273327 13.501251 37.068577
-0.6895597 5.2088113 8.6645317
-0.72190982 5.4026237 7.2922735
-0.87508172 6.5059252 7.1946878
-0.74292082 5.3880224 5.424685
-1.1339028 8.1922216 6.750936
-1.0453372 7.5233889 5.064548
-0.98479497 7.0695939 3.8229003
-0.93306953 6.6812453 2.8139136
-0.8866899 6.3330512 1.9696136
-0.85488343 6.0904274 1.2591126
-0.81466061 5.7892389 0.61779958
-0.78447866 5.7487979 5.2487955
-1.104109 8.059845 6.0070796
-1.0196791 7.4242735 4.4893355
-0.95416605 6.9204297 3.3168786
-0.90855575 6.5727119 2.3984697
-0.86809731 6.2639537 1.6159381
-0.82560307 5.9497213 0.92999285
-0.79299474 5.7001657 0.32582903
0.032213151 0.10562351 11.238845
-0.36624655 3.3084214 21.160204
-0.48881727 4.17102 20.213654
-1.415047 11.407699 36.795597
-0.66455162 5.0675397 7.5790396
-0.77066511 5.8295979 7.1169028
-0.052023105 2.4027033 41.395252
-0.26359105 4.3286877 40.403225
-0.63607544 5.3164148 20.652145
-1.678277 13.491786 37.02634
-0.67037374 5.2034264 8.6517334
-0.70382398 5.411087 7.3002539
-0.8475247 6.4719639 7.1542606
-0.72458339 5.3941174 5.4281893
-1.1318285 8.3928576 6.9109974
-1.0330937 7.6305823 5.1330848
-0.98096555 7.2266231 3.9040585
-0.91724384 6.7395844 2.83639
-0.88598007 6.4929576 2.0161448
-0.85159576 6.224781 1.2842933
-0.81407237 5.9351268 0.63076484
-0.76686621 5.7700071 5.2654223
-1.1123196 8.336091 6.2072144
-1.013764 7.5773325 4.5779963
-0.96323305 7.1711149 3.4322715
-0.90955687 6.7536807 2.460923
-0.86964172 6.4403543 1.6581415
-0.83004302 6.1390491 0.95623869
-0.78919935 5.8217149 0.33066577
0.032581646 0.10551043 11.238845
-0.35345528 3.2980909 21.086117
-0.47379503 4.168654 20.194073
-1.3766466 11.424424 36.833775
-0.64614636 5.0642462 7.5707746
-0.75112909 5.8386111 7.124578
-0.043610603 2.4014273 41.370293
-0.24847949 4.3295817 40.403225
-0.61505032 5.2973762 20.569874
-1.6303436 13.490709 37.007568
-0.65123379 5.1979709 8.638936
-0.68606603 5.4224792 7.3122239
-1.0978327 8.6170988 9.4953413
-0.70713711 5.4072223 5.4387031
-1.12634 8.5781384 7.0585051
-1.016289 7.7087626 5.1824312
-0.99694979 7.5418062 4.0686932
-0.93939668 7.0874252 2.9768674
-0.88669229 6.6719551 2.068316
-0.84867805 6.3689232 1.3113393
-0.80917788 6.0563989 0.64149475
-0.74672043 5.7726488 5.2654223
-1.0957087 8.4361238 6.2778502
-1.0329578 7.9313517 4.7857175
-0.9640879 7.3724427 3.524586
-0.90991932 6.9394159 2.5250199
-0.86362898 6.5686488 1.6886218
-0.82864624 6.2941093 0.97764981
-0.78456485 5.943305 0.33550251
0.032949749 0.10539606 11.238845
-0.34194064 3.2993047 21.086117
-0.45879534 4.166234 20.174492
-1.3355459 11.418782 36.800369
-0.62811852 5.0636783 7.5666413
-0.73193753 5.850739 7.1360908
-0.03528019 2.4053173 41.435188
-0.23319362 4.3272285 40.373394
-0.5962742 5.2969933 20.560196
-1.5816342 13.482608 36.970028
-0.63214022 5.1924467 8.6261387
-0.66786939 5.4308224 7.3202033
-1.0694134 8.6343365 9.5100412
-0.6891582 5.4167333 5.4457121
-1.1146393 8.7248726 7.1746278
-0.99043822 7.7205586 5.1879139
-0.98757309 7.6770496 4.138257
-0.94252574 7.3067584 3.0649002
-0.88001186 6.8034596 2.1063867
-0.84476423 6.5131187 1.3383853
-0.81179577 6.2419066 0.65803665
-0.7265656 5.7752199 5.2654223
-1.0895579 8.624362 6.4132357
-1.0372308 8.1872282 4.9351745
-0.9750039 7.6639061 3.6588612
-0.9095934 7.1299181 2.5907602
-0.85734767 6.7017994 1.7202743
-0.81673837 6.3755546 0.98870069
-0.78927553 6.1442165 0.34356374
0.03331745 0.1052804 11.238845
-0.6156829 6.1533842 39.311981
-0.44381833 4.1637607 20.154911
-1.2958469 11.424858 36.805141
-0.61043918 5.0658393 7.5666413
-0.71267039 5.8628035 7.1476026
-0.026914082 2.4083126 41.485104
-0.21800728 4.3264189 40.358479
-0.57818919 5.3027911 20.574715
-1.5345615 13.488047 36.970028
-0.61278695 5.1842613 8.6090746
-0.64998013 5.4420967 7.3321738
-1.0408872 8.6514807 9.5247421
-0.67155921 5.4297233 5.4562254
-1.0846567 8.7325726 7.1777663
-0.96555263 7.7405653 5.1988797
-0.99925733 7.9881372 4.3005729
-0.94528878 7.535398 3.1566789
-0.89158368 7.0873036 2.1895788
-0.83800924 6.6427422 1.3626333
-0.80500299 6.3632765 0.66876656
-0.70640188 5.7777209 5.2654223
-1.0520576 8.567935 6.3690882
-1.0507938 8.5330791 5.1378293
-0.97832596 7.9104896 3.7721558
-0.9108544 7.3439317 2.6647182
-0.86094612 6.9218068 1.7730286
-0.82324648 6.6093292 1.0211626
-0.78825825 6.3105288 0.35021427
0.033668816 0.10512283 11.233845
-0.59479666 6.1616826 39.35149
-0.42875981 4.1602201 20.130436
-1.2557958 11.427828 36.800369
-0.59275234 5.0679398 7.5666413
-0.6933279 5.874805 7.1591153
-0.01849726 2.4069483 41.460144
-0.20282944 4.3255563 40.343567
-0.56007093 5.308527 20.589231
-1.4872808 13.491605 36.965336
-0.59349853 5.1760044 8.5920115
-0.63097972 5.4443321 7.3321738
-1.0130407 8.6752653 9.546793
-0.65345258 5.4391165 5.4632349
-1.0532352 8.7285767 7.1714897
-0.93852711 7.7438884 5.1988797
-1.006109 8.2774105 4.4512949
-0.94871044 7.7825499 3.2559493
-0.87731713 7.1760821 2.2149594
-0.8399244 6.8504081 1.4018034
-0.8070969 6.5637579 0.68664974
-0.68622959 5.7801518 5.2654223
-1.0202292 8.5555019 6.3573151
-1.0414778 8.7079067 5.2391562
-0.96315742 8.017498 3.8204112
-0.915151 7.5955443 2.7518241
-0.86360174 7.1467443 1.8269552
-0.82218289 6.7940621 1.0467178
-0.78488535 6.4669876 0.3564617
0.03403556 0.10500466 11.233845
-0.57141519 6.1436062 39.223072
-0.41383225 4.1576385 20.110853
-1.2158977 11.432141 36.800369
-0.57537544 5.0727744 7.5707746
-0.67391032 5.8867431 7.1706281
-0.010096339 2.4072869 41.465134
-0.18772921 4.3262382 40.343567
-0.54115498 5.3066983 20.574715
-1.4392619 13.488133 36.941872
-0.57456338 5.1702685 8.5792131
-0.61197156 5.4465017 7.3321738
-0.98580366 8.705698 9.5761948
-0.63528848 5.4484482 5.4702439
-1.0227604 8.7322006 7.1714897
-0.91246736 7.7554231 5.2043629
-1.0182209 8.6284161 4.6344805
-0.95205271 8.0436268 3.3608394
-0.89071643 7.503026 2.3108416
-0.83517253 7.0142651 1.4325799
-0.80602908 6.7494936 0.70319164
-0.66647613 5.786221 5.2687483
-1.006619 8.699543 6.4603262
-1.0110751 8.7114887 5.2391562
-0.97300702 8.3453856 3.9714708
-0.92099255 7.8754148 2.8487914
-0.86073345 7.3379889 1.8726757
-0.81983936 6.9788651 1.072273
-0.7745834 6.5738816 0.36069387
0.034401886 0.10488521 11.233845
-0.55017418 6.1478853 39.237892
-0.39883065 4.1539898 20.086378
-1.1770532 11.446711 36.833775
-0.55766469 5.0747519 7.5707746
-0.6558314 5.9113593 7.1974907
-0.0016932777 2.4073076 41.465134
-0.17224661 4.3172789 40.254078
-0.52312016 5.3135586 20.594072
-1.3934103 13.505092 36.97472
-0.5553965 5.161871 8.56215
-0.59295601 5.4486051 7.3321738
-0.95836627 8.7360449 9.6055956
-0.61746788 5.4612641 5.4807577
-0.99183381 8.7318497 7.1683512
-0.88586438 7.7627153 5.2071042
-1.0223525 8.9311905 4.7921586
-0.94776618 8.2541552 3.4451258
-0.88427973 7.67765 2.3616028
-0.84168935 7.2855268 1.483874
-0.80424744 6.9402471 0.72018069
-0.64668864 5.792223 5.2720737
-1.0158949 9.0564833 6.7193246
-0.98307025 8.7363844 5.251822
-0.99128544 8.7681427 4.1665897
-0.92276257 8.1366472 2.9391842
-0.85818851 7.5437865 1.9219129
-0.81397307 7.144052 1.0950654
-0.78113061 6.8346543 0.37117347
0.034751441 0.10472404 11.228846
-0.52910966 6.1544132 39.267525
-0.3839533 4.1513014 20.066797
-1.1348774 11.428468 36.762192
-0.54024464 5.0794654 7.5749073
-0.63519293 5.9136128 7.1974907
0.0067148427 2.4087424 41.490097
-0.15742575 4.3247795 40.318707
-0.50694376 5.3403792 20.690859
-1.3431805 13.478964 36.890247
-0.53683496 5.1585894 8.5536175
-0.57393318 5.4506412 7.3321738
-0.93108708 8.7696781 9.6386719
-0.59917718 5.4704762 5.4877667
-0.961348 8.7352591 7.1683512
-0.85922158 7.7699165 5.209846
-0.99751979 8.9919395 4.8223028
-0.94561064 8.4970016 3.5425236
-0.89153695 7.9858065 2.4518447
-0.83866817 7.4885712 1.5221114
-0.792804 7.0568352 0.73046345
-0.62686741 5.7981577 5.2753992
-1.0039197 9.2407999 6.8517661
-0.95163453 8.7311916 5.2467561
-0.9913066 9.0512648 4.296669
-0.92942411 8.4590044 3.0509429
-0.8590098 7.7931361 1.9817013
-0.79935551 7.2403708 1.1081883
-0.7743172 6.991272 0.37742093
0.035116784 0.1046021 11.228846
-0.50762355 6.1562223 39.267525
-0.36900941 4.1475453 20.04232
-0.66824508 6.9761219 22.451014
-0.52279848 5.0841193 7.5790396
-0.61421561 5.9126058 7.1936531
0.015120867 2.4084156 41.485104
-0.1423285 4.3253026 40.318707
-0.49058646 5.3671513 20.787649
-1.2863814 13.382224 36.613377
-0.68998623 6.9730101 14.552169
-0.51830316 5.155242 8.5450859
-0.55490345 5.4526114 7.3321738
-0.90358478 8.8032274 9.6717491
-0.5808298 5.4796271 5.4947758
-0.93085039 8.7385616 7.1683512
-0.83253944 7.7770267 5.2125874
-0.97369456 9.0658388 4.8594036
-0.94524741 8.7721958 3.6530325
-0.89974666 8.3227196 2.5505471
-0.83794713 7.7258668 1.5668772
-0.79617852 7.316999 0.75371158
-0.60740083 5.8077369 5.2820501
-0.97165716 9.2442484 6.8517661
-0.91979486 8.7215986 5.2391562
-0.99223322 9.3615704 4.4393363
-0.93184865 8.7627211 3.1561275
-0.86480409 8.1054106 2.0567296
-0.80828184 7.563179 1.1530825
-0.76535451 7.137989 0.38326535
0.035299297 0.10454065 11.228846
-0.49694058 6.1578736 39.272465
-0.3621397 4.1440616 20.022739
-0.65770602 6.9816208 22.46533
-0.5165866 5.084754 7.5790396
-0.60666424 5.9101629 7.1898155
0.017206728 2.4063807 41.450161
-0.13863856 4.3280892 40.343567
-0.48740679 5.3737516 20.811846
-1.2758912 13.371093 36.580528
-0.68654829 6.9755368 14.556671
-0.51560378 5.1555123 8.5450859
-0.55300009 5.452805 7.3321738
-0.9039613 8.8372679 9.7085009
-0.57237417 5.4912739 5.5052891
-0.91712272 8.7400122 7.1683512
-0.82119936 7.7866411 5.2180705
-0.95963478 9.0539751 4.8524475
-0.97123516 9.1330805 3.7991288
-0.90996808 8.5146074 2.6069484
-0.85469264 7.9710975 1.6135081
-0.80428338 7.4764113 0.76801813
-0.60310268 5.8156929 5.2887011
-0.96688205 9.2610054 6.8635392
-0.91550225 8.7393885 5.249289
-1.0346422 9.8271589 4.655436
-0.94614196 8.9416552 3.218581
-0.89083505 8.3910379 2.1258962
-0.83973479 7.8835349 1.1979767
-0.79312348 7.4214115 0.39475259
0.035647292 0.10437649 11.223846
-0.47550234 6.1603456 39.277405
-0.34660918 4.1413031 20.003159
-0.63157469 6.9780383 22.446243
-0.49644414 5.0895877 7.5831728
-0.5829345 5.9125504 7.1898155
0.027692238 2.405128 41.430195
-0.11975244 4.3286529 40.343567
-0.46333998 5.3796654 20.826365
-1.2102069 13.321751 36.430359
-0.65306038 6.9721918 14.543166
-0.49179792 5.1630778 8.5536175
-0.52634615 5.4554424 7.3321738
-0.86601901 8.8955669 9.7673035
-0.55391717 5.5003347 5.5122986
-0.88508284 8.7433157 7.1683512
-0.79307759 7.7937579 5.2208114
-0.92486304 9.0575933 4.8524475
-0.97632331 9.5287437 3.9583366
-0.92238849 8.9715242 2.7409017
-0.85444564 8.2823038 1.6722634
-0.8055436 7.781743 0.79528993
-0.57845902 5.8256998 5.295352
-0.92565 9.2733412 6.8694253
-1.0408186 10.390557 6.2220297
-1.018684 10.116241 4.7876134
-0.93960088 9.2983828 3.3418441
-0.89002132 8.7771721 2.2185092
-0.82722139 8.143733 1.2338921
-0.77761716 7.6289763 0.40301538
0.036011416 0.10425142 11.223846
-0.45393878 6.1611934 39.272465
-0.3315821 4.1353831 19.968891
-0.60695428 6.9772263 22.436699
-0.47893852 5.0940914 7.587306
-0.56229228 5.9145494 7.1898155
0.036069397 2.403862 41.410225
-0.10471836 4.332242 40.373394
-0.44383463 5.3724813 20.792488
-1.1659495 13.351681 36.500751
-0.62852347 6.9722614 14.538666
-0.47424883 5.1699576 8.56215
-0.5072999 5.4572463 7.3321738
-0.8406629 8.9592924 9.833456
-0.53540385 5.5093336 5.5193076
-0.85455757 8.7463512 7.1683512
-0.76668501 7.8048024 5.2262945
-0.89280593 9.0563574 4.8501287
-0.99052292 10.011889 4.1531324
-0.92234665 9.2897463 2.8339639
-0.82601678 8.2901239 1.673196
-0.79125768 7.9133444 0.80691397
-0.55918783 5.8388343 5.3053288
-0.89327431 9.276516 6.8694253
-1.0062011 10.411291 6.2321625
-1.0355995 10.657288 5.0372815
-0.94518018 9.6916952 3.4782553
-0.86837381 8.872138 2.2407832
-0.82440108 8.4077778 1.270498
-0.75049299 7.6266723 0.40281382
0.036375102 0.10412508 11.223846
-0.43188608 6.1549892 39.223072
-0.31714487 4.1365151 19.968891
-0.58023709 6.9510393 22.346029
-0.46140745 5.0985346 7.5914388
-0.54164326 5.9164762 7.1898155
0.044449136 2.4031441 41.400246
-0.089519188 4.3288503 40.338593
-0.42339444 5.3526955 20.710218
-1.1314406 13.500119 36.894943
-0.60455763 6.9787502 14.547668
-0.45665762 5.1767774 8.5706806
-0.48851582 5.4619851 7.336164
-0.82036036 9.0837221 9.9657612
-0.5168345 5.5182705 5.5263166
-0.82402188 8.7492809 7.1683512
-0.73943651 7.8074307 5.2262945
-0.86118788 9.0594187 4.8501287
-0.99255455 10.402942 4.3104672
-0.91003394 9.5030184 2.8960052
-0.81305259 8.4592056 1.704905
-0.80188406 8.3126144 0.84268034
-0.53948897 5.848186 5.3119798
-0.86088777 9.2795773 6.8694253
-0.96985286 10.41474 6.2321625
-1.0440946 11.148862 5.2638712
-0.95023435 10.108663 3.622884
-0.8885361 9.417098 2.3720829
-0.82487345 8.7261305 1.3147017
-0.73283243 7.7237444 0.40664291
0.036755469 0.10403761 11.228846
-0.41256699 6.1890211 39.430523
-0.30240694 4.1335349 19.94931
-0.55442381 6.9336791 22.283995
-0.44385126 5.1029177 7.595572
-0.52098757 5.9183311 7.1898155
0.052850503 2.4035516 41.410225
-0.074390084 4.3280706 40.328651
-0.4048022 5.3553944 20.715057
-1.0913526 13.591714 37.134274
-0.58037382 6.9829879 14.552169
-0.43924463 5.1861358 8.5834789
-0.46944699 5.4636569 7.336164
-0.49820918 5.5271449 5.5333257
-0.79347616 8.7521048 7.1683512
-0.71331811 7.8224568 5.234519
-0.82955933 9.0623703 4.8501287
-1.0067146 10.955702 4.5333576
-0.91342711 9.9026098 3.0130377
-0.78397238 8.4668827 1.7058375
-0.79083663 8.5087481 0.86011636
-0.51973164 5.8574724 5.3186307
-0.82849073 9.282526 6.8694253
-0.93349272 10.418061 6.2321625
-0.95621812 10.568104 3.7823043
-0.88907504 9.7880354 2.4611788
-0.80428255 8.8374538 1.3298966
-0.70723063 7.7411804 0.40724751
0.037118405 0.10390867 11.228846
-0.3897866 6.1718125 39.311981
-0.28790569 4.1335497 19.944416
-0.52896619 6.9191999 22.231503
-0.42627004 5.1072402 7.5997052
-0.50059545 5.9233069 7.1936531
0.061262809 2.4042182 41.425201
-0.05923171 4.324573 40.29385
-0.38520283 5.3442373 20.666662
-1.043902 13.595441 37.134274
-0.55513161 6.9741206 14.529663
-0.42156091 5.1928363 8.5920115
-0.4503724 5.4652624 7.336164
-0.91193348 10.950763 11.990777
-0.47952828 5.5359559 5.5403347
-0.7629208 8.7548208 7.1683512
-0.68527794 7.8165684 5.2290359
-0.79753226 9.0607967 4.8478098
-1.0080495 11.407089 4.7150421
-0.9246394 10.421794 3.1653214
-0.75441265 8.4695683 1.7058375
-0.79528469 8.8933907 0.8945415
-0.49959898 5.8629704 5.3219562
-0.79573852 9.2813349 6.8664823
-0.89786071 10.429848 6.2372289
-1.0132297 11.698472 5.5156379
-0.92668658 10.656057 3.8118875
-0.87561959 10.028347 2.5186226
-0.81399971 9.3039293 1.3948206
-0.68064177 7.748579 0.40744904
0.037498292 0.10381848 11.233845
-0.191185 3.2017167 20.389681
-0.27374369 4.1385937 19.963997
-0.50122851 6.8718753 22.074026
-0.40866408 5.1115022 7.603838
-0.47991624 5.9250188 7.1936531
0.06968043 2.4048557 41.440178
-0.044135768 4.3247533 40.29385
-0.36396763 5.3079281 20.521481
-0.99757344 13.61449 37.17651
-0.40383574 5.1994762 8.6005421
-0.43152925 5.4698052 7.3401542
-0.87208539 10.933601 11.968726
-0.46079189 5.5447044 5.5473437
-0.73235613 8.757431 7.1683512
-0.83049428 9.8689318 6.5778375
-0.7658993 9.0635252 4.8478098
-1.0183954 12.00181 4.9547901
-0.92083478 10.807338 3.2781241
-0.7240063 8.4623623 1.7039725
-0.78810555 9.1739683 0.9195779
-0.47973835 5.8721218 5.3286071
-0.76333576 9.2840567 6.8664823
-0.86144829 10.432918 6.2372289
-0.97238821 11.701938 5.5156379
-0.89576727 10.734521 3.8381836
-0.88687921 10.583518 2.6522667
-0.81964082 9.7607069 1.4583632
-0.65359002 7.7509079 0.40744904
0.037860457 0.10368696 11.233845
-0.17987724 3.200037 20.374863
-0.25954992 4.1435885 19.983578
-0.47651473 6.8631592 22.040623
-0.39103356 5.1157036 7.6079712
-0.45947871 5.9298534 7.1974907
0.078131936 2.4063287 41.470127
-0.029063391 4.3286123 40.328651
-0.34201208 5.2564855 20.318226
-0.95076442 13.62822 37.204666
-0.38626224 5.2086568 8.6133404
-0.41265994 5.4742827 7.3441443
-0.83288389 10.923059 11.954026
-0.44200024 5.5533891 5.5543532
-0.70178252 8.7599335 7.1683512
-0.79570407 9.8676014 6.5750957
-0.73389947 9.0617285 4.8454909
-0.99190402 12.194739 5.0315843
-0.93465865 11.441596 3.4642484
-0.6940611 8.4599419 1.7030398
-0.7875644 9.5588264 0.95400298
-0.45981991 5.8812056 5.335258
-0.73092371 9.286664 6.8664823
-0.82536501 10.440159 6.2397623
-0.93225485 11.714308 5.5198336
-0.85829133 10.737582 3.8381836
-0.89271736 11.119504 2.7812216
-0.81376231 10.113973 1.5074013
-0.6261279 7.7481623 0.40724751
0.038222164 0.10355416 11.233845
-0.16833872 3.1936619 20.33041
-0.24526463 4.1475186 19.998264
-0.75946277 11.52237 36.962616
-0.37317401 5.1170373 7.6079712
-0.43877682 5.9314213 7.1974907
0.08650995 2.4054642 41.460144
-0.013963026 4.3318853 40.358479
-0.32142341 5.2212639 20.177881
-0.9020465 13.614235 37.157738
-0.36844575 5.2151766 8.6218719
-0.39354861 5.4756904 7.3441443
-0.79450417 10.922518 11.950351
-0.42315364 5.5620098 5.5613618
-0.67149758 8.7662106 7.1714897
-0.75900429 9.8411369 6.5559058
-0.70226365 9.0642347 4.8454909
-0.96515703 12.401493 5.1139979
-0.94107413 12.037815 3.6390924
-0.6641416 8.4574156 1.7021072
-0.78160441 9.9090357 0.98529857
-0.43984386 5.8902216 5.3419094
-0.69971496 9.3052816 6.8782549
-0.7885924 10.438678 6.2372289
-0.89101446 11.712965 5.5177355
-0.82008529 10.731095 3.8348968
-0.89594012 11.670192 2.9136934
-0.81834447 10.635186 1.5799228
-0.599078 7.7503004 0.40724751
0.038547758 0.10334046 11.223846
-0.15791348 3.2089756 20.424255
-0.23095505 4.1513996 20.012949
-0.42831078 6.8618493 22.026308
-0.35530996 5.118309 7.6079712
-0.41806966 5.9329166 7.1974907
0.094894491 2.4048593 41.455154
0.0011606732 4.3367057 40.403225
-0.30246788 5.2098055 20.129486
-0.85365409 13.603523 37.120197
-0.35041386 5.2190337 8.6261387
-0.37463799 5.4800372 7.3481345
-0.7573092 10.938753 11.965052
-0.40425217 5.5705671 5.5683713
-0.64117748 8.7723837 7.1746278
-0.72587556 9.8604069 6.5668712
-0.6702925 9.0622139 4.8431721
-0.92186189 12.404786 5.1139979
-0.93833762 12.56724 3.7941961
-0.6342482 8.4547844 1.7011745
-0.77695143 10.308974 1.0210649
-0.41981053 5.8991699 5.3485599
-0.53487021 7.4611659 5.5302873
-0.75214976 10.441367 6.2372289
-0.85045153 11.720531 5.5198336
-0.78262174 10.733892 3.8348968
-0.89248759 12.182249 3.036787
-0.81349427 11.077528 1.6413933
-0.57165307 7.7473617 0.40704599
0.038890284 0.10316551 11.218846
-0.14653419 3.2056265 20.399561
-0.21662132 4.1552305 20.027634
-0.40611079 6.893105 22.121748
-0.33725652 5.1167102 7.603838
-0.39714327 5.9311419 7.1936531
0.10327584 2.4042251 41.450161
0.016298594 4.3366752 40.403225
-0.28414357 5.2083187 20.119806
-0.80616379 13.606421 37.120197
-0.33368406 5.24365 8.6645317
-0.35570174 5.4843183 7.3521247
-0.71889889 10.937948 11.961377
-0.38529614 5.5790596 5.5753803
-0.61082238 8.778451 7.1777663
-0.69145191 9.8628807 6.5668712
-0.63865542 9.0644979 4.8431721
-0.87855548 12.407928 5.1139979
-0.94825888 13.326463 4.0169811
-0.60473162 8.4569464 1.7011745
-0.77130008 10.733833 1.0590667
-0.39972004 5.9080501 5.3552113
-0.50332433 7.3823357 5.4714246
-0.71540326 10.439628 6.2346954
-0.80953407 11.723428 5.5198336
-0.74482185 10.731849 3.8332531
-0.85875171 12.311359 3.0672669
-0.82180125 11.752141 1.7353258
-0.54460621 7.7493105 0.40704599
0.039232064 0.10298944 11.213846
-0.13524555 3.2037892 20.384741
-0.20221433 4.1579952 20.037424
-0.38287234 6.9093847 22.169466
-0.31921858 5.115047 7.5997052
-0.37664023 5.9356909 7.1974907
0.11165392 2.4035616 41.445168
0.031428311 4.3355255 40.39328
-0.26589742 5.208024 20.114969
-0.75866359 13.609152 37.120197
-0.31647372 5.2630057 8.6943932
-0.3367402 5.4885335 7.3561139
-0.67924029 10.916703 11.935649
-0.36628571 5.5874882 5.5823894
-0.58068937 8.7882977 7.1840434
-0.65701979 9.8652334 6.5668712
-0.60671467 9.062252 4.8408532
-0.8352384 12.410919 5.1139979
-0.93314046 13.793945 4.1537542
-0.5748744 8.4541044 1.7002418
-0.76982301 11.263108 1.106457
-0.37957263 5.9168611 5.3618622
-0.47729123 7.3800135 5.4684811
-0.6786781 10.437759 6.2321625
-0.76890355 11.730712 5.5219316
-0.70735615 10.734384 3.8332531
-0.81705689 12.333682 3.0719564
-0.80899817 12.179879 1.7947242
-0.51755285 7.751164 0.40704599
0.039591324 0.10285186 11.213846
-0.12409138 3.2050185 20.389681
-0.18774483 4.1596937 20.04232
-0.36230946 6.9792514 22.388977
-0.3013618 5.1161304 7.5997052
-0.3559185 5.9369693 7.1974907
0.12002864 2.402869 41.440178
0.046573658 4.3364558 40.403225
-0.24777602 5.2101755 20.119806
-0.29913226 5.2823052 8.7242546
-0.31792757 5.4956923 7.3640943
-0.63973892 10.895318 11.909924
-0.34722114 5.5958509 5.5893984
-0.55049503 8.7980404 7.19032
-0.47724748 7.5638976 5.0535822
-0.57507777 9.0643148 4.8408532
-0.79191118 12.413759 5.1139979
-0.89972383 14.026904 4.221436
-0.54536062 8.4560595 1.7002418
-0.78044939 12.036005 1.1757542
-0.35959458 5.9293308 5.3718386
-0.45152724 7.3816347 5.4684811
-0.64197475 10.435761 6.229629
-0.72795105 11.733324 5.5219316
-0.66988182 10.736787 3.8332531
-0.77369493 12.331608 3.0707841
-0.81747234 12.993165 1.9079959
-0.49049306 7.7529235 0.40704599
0.039950103 0.10271303 11.213846
-0.11303928 3.2093143 20.414377
-0.17318134 4.159306 20.037424
-0.34097493 7.0430942 22.589401
-0.28334573 5.1143413 7.595572
-0.33537304 5.9413757 7.2013283
0.12839986 2.4021468 41.435188
0.061671816 4.333602 40.378365
-0.23002976 5.221055 20.158524
-0.28248978 5.3171735 8.7797117
-0.29890555 5.4997773 7.368084
-0.59964764 10.860251 11.869497
-0.32831106 5.6077099 5.5999122
-0.52023971 8.8076782 7.1965971
-0.44835448 7.523777 5.0261674
-0.5434339 9.066267 4.8408532
-0.7485742 12.416448 5.1139979
-0.8516264 14.044325 4.225666
-0.51584011 8.4579124 1.7002418
-0.77837157 12.689809 1.2343216
-0.33932111 5.9380054 5.3784895
-0.42924789 7.4436951 5.5126286
-0.60579288 10.442243 6.2321625
-0.68698967 11.735793 5.5219316
-0.63239938 10.73906 3.8332531
-0.73121983 12.343939 3.0731287
-0.80588704 13.564425 1.987424
-0.46342731 7.7545886 0.40704599
0.040326908 0.10261247 11.218846
-0.10134516 3.1941574 20.315592
-0.15862288 4.1588678 20.03253
-0.31786039 7.0770483 22.694386
