# .PCD v0.7 - Point Cloud Data file format
VERSION 0.7
FIELDS x y z
SIZE 4 4 4
TYPE F F F
COUNT 1 1 1
WIDTH 1511
HEIGHT 1
VIEWPOINT 0 0 0 1 0 0 0
POINTS 1511
DATA ascii
-0.97142065 4.1091957 3.1581001
-0.93203884 3.9364944 2.4627922
-0.88684452 3.7369113 1.8629282
-0.85405594 3.5931947 1.3745636
-0.83412981 3.5039549 0.95944029
-0.80906093 3.3960366 0.57912743
-0.79071808 3.3139427 0.2311095
0.038103595 0.16808343 18.343575
-0.61311823 2.9302888 19.031385
-0.72114062 3.3395896 16.449224
-0.21424092 0.95987618 3.1912875
-0.80445224 3.548723 8.6319523
-0.89835083 3.9000762 5.9506583
-1.1921676 5.1511931 6.4069643
-0.13313125 1.1187801 19.32214
-0.3280243 2.0709877 19.512962
-0.17878729 0.81746256 3.2592535
-0.83015865 3.7161596 10.40897
-1.3584343 5.9594316 10.068024
-0.86509836 3.7738094 5.2015009
-1.1324365 4.9204803 5.5518894
-1.1449481 4.9004707 5.0251665
-1.0018352 4.2778354 3.6250336
-0.95130616 4.0525508 2.8138044
-0.90670669 3.8565316 2.1603208
-0.86300808 3.6649506 1.6095537
-0.84135002 3.5674236 1.1673049
-0.82660615 3.4994607 0.77415007
-0.80249792 3.3921368 0.40588409
-1.0444825 4.4988136 4.1946115
-0.97356129 4.1834245 3.211077
-0.93492699 4.0110941 2.5058563
-0.88721758 3.7974379 1.8902029
-0.85764676 3.6651237 1.3992163
-0.83520293 3.5636344 0.97350812
-0.81190211 3.4615157 0.58810622
-0.78828567 3.3555911 0.23272175
0.03867856 0.16790731 18.338573
-0.6028859 2.9324112 19.031385
-0.70969015 3.3430822 16.454119
-0.21056925 0.95916015 3.1865156
-0.79461098 3.5629504 8.6595669
-1.3770562 6.1149163 11.554155
-0.8704254 3.8400662 5.8556004
-1.1891261 5.220953 6.4875522
-0.12922516 1.119238 19.32214
-0.32087448 2.0726471 19.517935
-0.17593272 0.81808168 3.2592535
-0.81718183 3.7190349 10.40897
-0.87843603 3.9454641 8.4215164
-1.369583 6.106647 10.306916
-0.85125721 3.7738669 5.1975112
-1.1212441 4.9508548 5.5812902
-1.1677953 5.0782151 5.2003937
-0.99826199 4.3306136 3.6658337
-0.95409817 4.1291804 2.8631506
-0.90921932 3.9287248 2.1974216
-0.87114573 3.7582645 1.6470143
-0.83431643 3.5937028 1.1743551
-0.8266235 3.5549552 0.78440887
-0.80194789 3.443419 0.41035488
-1.0462371 4.5788713 4.2644472
-0.97700006 4.2655969 3.2699401
-0.93826944 4.0899639 2.5514536
-0.88616174 3.8535888 1.9153794
-0.86180538 3.7417221 1.4255123
-0.83368421 3.6138902 0.98523128
-0.81095397 3.5125804 0.59501302
-0.78557187 3.3972619 0.23433399
0.039264433 0.16777126 18.338573
-0.59264618 2.9344978 19.031385
-0.69801629 3.3455391 16.454119
-0.20721987 0.95988929 3.1865156
-0.77923954 3.5523446 8.6273499
-1.3598466 6.138392 11.589268
-0.85517853 3.8348415 5.8432016
-1.1898172 5.3095193 6.5911651
-0.12538087 1.1202562 19.332123
-0.31363761 2.0737545 19.517935
-0.173076 0.81869078 3.2592535
-0.8038305 3.7201779 10.404278
-0.86745209 3.9612656 8.4485226
-1.3729783 6.2234497 10.494617
-0.83742601 3.7738738 5.193521
-1.1275469 5.0606275 5.6988959
-1.1713127 5.1761746 5.2950163
-1.0038035 4.4251723 3.7411566
-0.95636666 4.2058783 2.912497
-0.9122225 4.0053015 2.2368412
-0.87658012 3.8426392 1.6807289
-0.84420538 3.6948009 1.2039658
-0.82516772 3.6057038 0.79373515
-0.80216217 3.4995925 0.41527274
-1.0458075 4.6517096 4.3276315
-0.974545 4.3241844 3.3111444
-0.94107229 4.1689038 2.5970509
-0.88272125 3.9009249 1.93636
-0.86439586 3.8137882 1.450165
-0.83182466 3.6641784 0.99695444
-0.81075621 3.5685084 0.60261053
-0.77814263 3.4194691 0.23514012
0.039849821 0.16763319 18.338573
-0.58255035 2.9373107 19.036324
-0.68633395 3.3479552 16.454119
-0.20386797 0.96060675 3.1865156
-1.3271958 6.0916195 11.492708
-0.84058154 3.8323059 5.8349357
-1.1857643 5.3793721 6.6717525
-0.12150034 1.1209739 19.337114
-0.30647451 2.0753639 19.522907
-0.1702172 0.81928998 3.2592535
-0.79048127 3.7212729 10.399585
-0.85545218 3.9727824 8.4665279
-1.3849742 6.383678 10.75484
-0.82360512 3.7738297 5.1895308
-1.1091496 5.0612211 5.6952209
-1.1687356 5.2498531 5.3651075
-1.0171744 4.5578108 3.8478642
-0.95811117 4.2826414 2.9618437
-0.90501595 4.0387192 2.2530727
-0.88245106 3.9316199 1.7163165
-0.84603333 3.7632489 1.2237064
-0.82552564 3.6660695 0.80492657
-0.80089819 3.5509505 0.41974354
-1.0569754 4.7792854 4.4406986
-0.98481542 4.4419994 3.3964958
-0.94240081 4.2437043 2.6401148
-0.89868462 4.0368853 1.9993017
-0.86752105 3.8905258 1.4764612
-0.82750511 3.7050097 1.006333
-0.81017774 3.6244779 0.61020797
-0.78475779 3.5050435 0.23856613
0.040434733 0.16749308 18.338573
-0.57229364 2.9393263 19.036324
-0.67464322 3.3503304 16.454119
-0.20051359 0.96131253 3.1865156
-1.4523989 6.7800412 12.77432
-0.82897884 3.8434689 5.8473349
-1.1900651 5.4899836 6.8022275
-0.11764603 1.1219656 19.347097
-0.29922828 2.076421 19.522907
-0.16760734 0.82111079 3.2640929
-0.77713418 3.7223203 10.394892
-0.84428388 3.9885228 8.493535
-1.3849875 6.4930501 10.929743
-0.8097949 3.7737353 5.1855407
-1.1043298 5.1247153 5.761374
-1.1641328 5.3166075 5.4281893
-1.0162792 4.6297665 3.9043562
-0.96112829 4.3676338 3.0166728
-0.91665727 4.1586552 2.3156803
-0.88571239 4.0116339 1.748158
-0.84739345 3.8317535 1.2434467
-0.82547206 3.7264805 0.816118
-0.79928529 3.6023419 0.42421433
-1.0839285 4.9836121 4.6236014
-0.98824763 4.5322933 3.4612455
-0.94229871 4.314353 2.6806457
-0.89720702 4.0976329 2.0265763
-0.86910933 3.9627185 1.5011138
-0.82603925 3.7600973 1.0192285
-0.80921817 3.6804857 0.61780548
-0.78756124 3.5760677 0.24138756
0.041019145 0.1673509 18.338573
-0.56188428 2.9405429 19.031385
-0.66294426 3.3526652 16.454119
-0.19715676 0.96200663 3.1865156
-1.4603039 6.9350605 13.055221
-0.8155576 3.8463392 5.8473349
-1.206301 5.6602516 7.0056157
-0.11361423 1.1212205 19.327129
-0.29205236 2.077981 19.52788
-0.16474009 0.8216908 3.2640929
-0.76413614 3.7250104 10.394892
-1.395491 6.6561022 11.19423
-0.79599535 3.773591 5.181551
-1.1173462 5.2744675 5.9230809
-1.1583273 5.3799071 5.4877667
-1.0206424 4.7284031 3.9828176
-0.96444809 4.4567862 3.0742438
-0.91808802 4.2354274 2.3550999
-0.88547468 4.078126 1.7743806
-0.8482855 3.9003129 1.2631872
-0.82396108 3.782136 0.8263768
-0.79732323 3.653765 0.42868513
-1.114152 5.2100902 4.8264565
-0.99275553 4.630568 3.5318813
-0.94352466 4.3934803 2.7262428
-0.90677887 4.2116609 2.0790277
-0.86821294 4.0257363 1.5224793
-0.82830417 3.8342235 1.0368133
-0.80997044 3.7462111 0.62678432
-0.78987819 3.6471536 0.24420901
0.041615315 0.16724859 18.343575
-0.55161643 2.9424863 19.031385
-0.65123725 3.3549588 16.454119
-0.19409181 0.9641524 3.1912875
-0.73113245 3.5705338 8.6457605
-1.4768494 7.1371222 13.423903
-0.8044225 3.8601823 5.8638663
-1.2101912 5.7773652 7.143765
-0.10967209 1.121323 19.32214
-0.2848691 2.0795157 19.53285
-0.16211329 0.82349426 3.2689323
-0.75112873 3.7276549 10.394892
-1.0230225 5.0052943 10.62711
-1.4111873 6.8499584 11.50991
-0.7828182 3.7763464 5.181551
-1.1051466 5.3082066 5.9561572
-1.1506172 5.4362521 5.5403347
-1.0299848 4.8537784 4.0832486
-0.96367651 4.5296535 3.1208487
-0.92084026 4.3209238 2.399157
-0.88187993 4.1310635 1.7949839
-0.84269053 3.9407783 1.2744675
-0.82310027 3.8426285 0.83756822
-0.79187763 3.6906097 0.43181467
-1.1689191 5.5610709 5.1423793
-0.99658942 4.728929 3.6025174
-0.93619621 4.4347076 2.7490413
-0.9146257 4.3213649 2.1293809
-0.8698253 4.1026545 1.5487754
-0.83410043 3.9274282 1.0590873
-0.81233263 3.8216732 0.63714451
-0.78962755 3.7085254 0.24662738
0.042198867 0.16710231 18.343575
-0.54120147 2.9436297 19.026445
-0.63952231 3.3572114 16.454119
-0.19101427 0.96628845 3.1960595
-0.71827936 3.5711489 8.6411572
-1.489616 7.3276463 13.77064
-0.79094303 3.8629665 5.8638663
-1.207463 5.8663192 7.2473779
-0.10567726 1.1208365 19.307163
-0.27767873 2.0810261 19.537823
-0.15923777 0.82405514 3.2689323
-0.73811221 3.7302542 10.394892
-1.0042593 5.0024323 10.613606
-1.4203738 7.0184402 11.782929
-0.76963156 3.7790561 5.181551
-1.0988394 5.3718166 6.0223103
-1.1330867 5.4472184 5.5473437
-1.0368747 4.9716539 4.177402
-0.9692542 4.635313 3.1893852
-0.92028213 4.3934832 2.4362578
-0.87697434 4.1794877 1.813714
-0.84965056 4.0422802 1.3040781
-0.82182705 3.9031608 0.84875971
-0.80057269 3.7956796 0.44120333
-1.172913 5.6784716 5.2454696
-0.99974829 4.8273711 3.6731532
-0.94522882 4.5561352 2.8199706
-0.91524762 4.4000692 2.1650479
-0.8622418 4.1380258 1.5602802
-0.83429015 3.9969292 1.0754998
-0.81316507 3.8923495 0.64681405
-0.78793442 3.765049 0.24884421
0.042806998 0.16703756 18.353575
-0.53078526 2.9447362 19.021507
-0.62779951 3.3594236 16.454119
-0.18792418 0.96841478 3.2008314
-0.70429546 3.5659676 8.6227474
-1.498257 7.5042524 14.091043
-0.78688508 3.9126036 5.9341269
-1.220008 6.033865 7.4469285
-0.10176416 1.1211985 19.307163
-0.27054965 2.0830398 19.547764
-0.15659411 0.82584089 3.2737718
-0.72508675 3.7328079 10.394892
-0.98763347 5.010179 10.622609
-1.4233174 7.1614876 12.013289
-0.75466251 3.772855 5.1695805
-1.093437 5.4420948 6.0958138
-1.1183497 5.472105 5.5683713
-1.0413913 5.0820098 4.2652788
-0.97578877 4.7492566 3.2634048
-0.91654956 4.453074 2.4664023
-0.87548596 4.2460895 1.8399366
-0.85009003 4.1156898 1.3252286
-0.81914574 3.9589195 0.8590185
-0.80045789 3.8618433 0.44701537
-1.1716461 5.7740111 5.3286071
-1.0030377 4.929853 3.7467322
-0.93792826 4.6016464 2.8453023
-0.9207834 4.5055089 2.2133029
-0.86957544 4.2474132 1.5980808
-0.82716894 4.0331473 1.0837059
-0.81650108 3.9776301 0.65855563
-0.78686261 3.8264992 0.25126258
0.043402497 0.16692886 18.358574
-0.52050298 2.9465709 19.021507
-0.61606914 3.3615944 16.454119
-0.18482158 0.97053128 3.2056036
-0.69258714 3.5722404 8.6319523
-1.4969299 7.6363516 14.328054
-0.78248996 3.9622583 6.0043864
-1.220786 6.1481228 7.5812411
-0.0978745 1.1218345 19.312155
-0.26340991 2.0850294 19.557707
-0.15371042 0.82638252 3.2737718
-0.7120524 3.735316 10.394892
-0.96972507 5.0114579 10.618108
-1.4337695 7.3481555 12.316172
-0.74264956 3.7813802 5.1775608
-1.0796833 5.4724874 6.1252151
-1.1048565 5.5039477 5.5964074
-1.0543658 5.238245 4.3908172
-0.97823054 4.8469062 3.3264587
-0.91855693 4.5430851 2.5127783
-0.88458651 4.3672547 1.8886355
-0.84525764 4.1656446 1.339329
-0.81510669 4.0098929 0.86834478
-0.80287188 3.9426911 0.45416865
-1.1573216 5.8073606 5.3552113
-1.0072075 5.0403428 3.8261974
-0.95147538 4.7528348 2.9339635
-0.91487575 4.5576434 2.2363815
-0.87150097 4.3337541 1.627664
-0.83996302 4.1694279 1.1165309
-0.81337851 4.033854 0.66615307
-0.78141439 3.8683987 0.25287482
0.043997765 0.16681805 18.363575
-0.51047909 2.9499013 19.031385
-0.60433125 3.3637245 16.454119
-0.18170649 0.97263783 3.2103753
-0.67938334 3.5707977 8.6227474
-1.4861013 7.723845 14.481671
-0.76972526 3.9704909 6.0126524
-1.2336588 6.3285241 7.7961411
-0.093981616 1.122457 19.317146
-0.25625959 2.0869944 19.56765
-0.15105006 0.82815069 3.2786112
-0.69869226 3.7360828 10.390199
-0.95222592 5.0148125 10.618108
-1.4453877 7.5477891 12.640383
-1.0850669 5.6026988 6.2648711
-1.0602244 5.3640838 4.4912477
-0.97756362 4.9323244 3.3812878
-0.91994703 4.6331644 2.5591543
-0.88652062 4.4567056 1.9242231
-0.85414922 4.2861838 1.3745798
-0.82130015 4.1138744 0.8879298
-0.80082428 4.0040689 0.4595336
-1.1513815 5.8846512 5.4217215
-1.0121745 5.1588535 3.9115491
-0.95566416 4.8618741 2.997293
-0.90773749 4.6053371 2.2573621
-0.86826026 4.3969951 1.6490296
-0.84992874 4.2963076 1.147011
-0.80794948 4.0803881 0.67236918
-0.78540403 3.9593108 0.25650239
0.0445798 0.16666347 18.363575
-0.50030863 2.9524314 19.036324
-0.59258592 3.3658135 16.454119
-0.17857894 0.97473454 3.2151475
-0.66727322 3.575068 8.6273499
-1.464018 7.7548733 14.529951
-0.76111948 4.0007982 6.0539823
-1.2410709 6.487051 7.984179
-0.090040289 1.1224905 19.312155
-0.24909872 2.0889347 19.577593
-0.14815837 0.82867289 3.2786112
-0.68533546 3.7368016 10.385507
-0.93471515 5.018106 10.618108
-1.447443 7.7040162 12.892073
-1.1819619 6.2192736 6.9411011
-1.1077275 5.7251072 5.810185
-1.0970955 5.6543312 4.7266316
-0.98749214 5.0752587 3.4744978
-0.93343192 4.7885261 2.6403122
-0.88961786 4.5553226 1.9635568
-0.85576183 4.3738799 1.3999604
-0.81449407 4.1552806 0.89539075
-0.7983579 4.0654793 0.46489853
-1.142099 5.9473023 5.4749293
-1.0186189 5.2893653 4.0057302
-0.96073622 4.9794645 3.0656888
-0.91407108 4.7243314 2.3119113
-0.8708787 4.4927168 1.6818998
-0.84419298 4.3469634 1.1587343
-0.80315048 4.1317949 0.67927605
-0.77921855 4.0012589 0.25811464
0.045135032 0.1664236 18.353575
-0.49076197 2.9587588 19.06596
-0.58083349 3.3678615 16.454119
-0.17543896 0.97682118 3.2199194
-1.4369395 7.7599363 14.529951
-0.7450847 3.9923656 6.0374503
-1.247391 6.6457047 8.1722164
-0.086121522 1.122798 19.312155
-0.24198844 2.0913804 19.592506
-0.14548139 0.83042318 3.2834506
-0.67198211 3.7374728 10.380814
-0.91758412 5.0234799 10.622609
-1.4602398 7.9244695 13.250411
-1.1993872 6.4333243 7.172637
-1.0877365 5.7289386 5.810185
-1.1166642 5.8646021 4.8961086
-0.99094456 5.18957 3.5485172
-0.93502277 4.887475 2.6913259
-0.88592857 4.6221428 1.9897792
-0.8603909 4.4804821 1.430981
-0.82318556 4.2786937 0.91870624
-0.79358721 4.1171408 0.46936929
-1.136541 6.0319757 5.54809
-1.0324193 5.4636731 4.1322861
-0.96419692 5.0929117 3.1315515
-0.90688646 4.7765403 2.33499
-0.86930948 4.569953 1.7081959
-0.84357333 4.4262786 1.1774913
-0.79800212 4.1832166 0.6861828
-0.78494185 4.1070037 0.2623468
0.04568914 0.16618192 18.343575
-0.47968477 2.9558523 19.036324
-0.56907392 3.3698685 16.454119
-0.17228658 0.97889781 3.2246914
-1.4077044 7.7531228 14.508006
-0.73013115 3.9894059 6.0291843
-1.254359 6.8139377 8.371767
-0.082181059 1.1228038 19.307163
-0.23474583 2.0927422 19.597479
-0.14279401 0.83216488 3.28829
-0.65863246 3.738096 10.376121
-0.90004337 5.0266523 10.622609
-1.4682691 8.1271381 13.578888
-1.1860682 6.4874949 7.2277646
-1.070344 5.7467246 5.8242035
-1.1454977 6.1324682 5.1126623
-0.99438065 5.3080754 3.6252785
-0.94083673 5.0126147 2.7562523
-0.88949436 4.7299967 2.0328588
-0.86162138 4.5730267 1.4577718
-0.82282424 4.3587723 0.93362814
-0.79031658 4.1786051 0.47473428
-1.124299 6.0836363 5.5913215
-1.045015 5.6381392 4.258842
-0.96766406 5.2106819 3.1999471
-0.91679895 4.9224548 2.4021277
-0.87587386 4.6936526 1.7509272
-0.83973032 4.4913082 1.1927315
-0.79614824 4.2541223 0.69585234
-0.78441173 4.1833739 0.26536974
0.046255521 0.16597988 18.338573
-0.46936399 2.9575086 19.036324
-0.55730736 3.3718343 16.454119
-0.16886854 0.97949326 3.2246914
-1.3873458 7.7957163 14.578232
-0.71421355 3.9808509 6.0126524
-1.225443 6.789886 8.3372288
-0.078280881 1.1233718 19.312155
-0.22812687 2.0999084 19.657137
-0.13988835 0.83265829 3.28829
-0.64499319 3.7369714 10.366735
-0.88249153 5.0297632 10.622609
-1.474901 8.3299561 13.907366
-1.1885321 6.6317492 7.3821216
-1.1563442 6.3125453 5.257031
-0.999268 5.4390054 3.7102637
-0.9441843 5.1291404 2.8165412
-0.88727266 4.810576 2.0647006
-0.86047262 4.6561985 1.4817423
-0.82727993 4.4678817 0.95414579
-0.79571009 4.2890592 0.48457
-1.1097132 6.1242638 5.6245766
-1.0571276 5.8167348 4.388341
-0.97109282 5.332778 3.2708764
-0.92325717 5.0551009 2.4629712
-0.87648475 4.7895818 1.7837974
-0.83719665 4.5659261 1.2103162
-0.81258166 4.42735 0.72002614
-0.78426147 4.2647033 0.26859424
0.046834618 0.16581741 18.338573
-0.45879951 2.9575932 19.026445
-0.54553407 3.373759 16.454119
-0.16569661 0.98154867 3.2294633
-1.3720547 7.8689346 14.705515
-0.68910789 3.9195747 5.9175949
-0.074359104 1.1236383 19.312155
-0.22057366 2.0985711 19.637251
-0.13718453 0.83438188 3.2931294
-0.63136977 3.7357967 10.357349
-0.86456037 5.0306678 10.618108
-1.4841455 8.5560436 14.274235
-1.040825 5.9570231 8.0822992
-1.1249166 6.4054618 7.1285348
-1.1628047 6.4947596 6.5636621
-1.1721387 6.5272503 5.4296465
-1.0054765 5.5823774 3.8034737
-0.94672966 5.245749 2.8768299
-0.9009977 4.9824352 2.1340027
-0.86217469 4.7582984 1.511353
-0.83800334 4.6157393 0.98212433
-0.79499424 4.3702035 0.49172324
-1.0665879 5.9875231 4.5119538
-0.97140837 5.4422288 3.3342059
-0.9104048 5.0850973 2.4755595
-0.87727034 4.8902202 1.818311
-0.8444711 4.6979876 1.2419689
-0.79799932 4.4350333 0.72071677
-0.78089362 4.3313317 0.27121416
0.047413144 0.16565292 18.338573
-0.44835648 2.9584084 19.021507
-0.53375411 3.3756428 16.454119
-0.16226935 0.98212105 3.2294633
-0.73274928 4.3451972 10.440744
-1.3554626 7.937417 14.824018
-0.67542183 3.9219565 5.9175949
-1.0428488 6.0182042 7.3893661
-0.070489295 1.1247554 19.327129
-0.214158 2.1083446 19.721767
-0.13427116 0.83485562 3.2931294
-0.61748093 3.7328703 10.343272
-0.84699476 5.0336547 10.618108
-1.4887723 8.7642984 14.611243
-1.0124015 5.9160681 8.0224476
-1.0433558 6.065217 6.7499924
-1.1795641 6.7235866 6.7879534
-1.1668855 6.630971 5.5112462
-1.0136033 5.7423286 3.9076493
-0.94924355 5.3667984 2.9394374
-0.89816242 5.0677166 2.1677175
-0.85226995 4.7990637 1.5226332
-0.83909833 4.7153616 1.0007768
-0.79022467 4.4317842 0.49708822
-1.1162126 6.4151073 5.88064
-1.0776482 6.1743731 4.6473393
-0.96725821 5.5305133 3.3848693
-0.87409347 4.9723167 1.8462507
-0.84830374 4.8157926 1.2701044
-0.81261051 4.6084814 0.74489063
-0.77793926 4.4029078 0.27403557
0.04799109 0.16548641 18.338573
-0.4381406 2.9607241 19.026445
-0.52196771 3.3774855 16.454119
-0.15884012 0.98268151 3.2294633
-0.71694118 4.343873 10.43154
-1.3356451 7.9893446 14.9118
-0.66172749 3.9242902 5.9175949
-1.0223712 6.0249681 7.3932037
-0.066579357 1.1252829 19.332123
-0.20783198 2.1196899 19.821198
-0.13155106 0.83656108 3.2979689
-0.60444701 3.735003 10.343272
-0.8290652 5.0344329 10.613606
-1.4821244 8.9135132 14.850137
-0.99224222 5.9225378 8.0264378
-1.0221779 6.0688219 6.7499924
-1.1868883 6.9069142 6.9666848
-1.1503437 6.6733603 5.5426302
-1.0234751 5.9188843 4.0227909
-0.95092374 5.4879279 3.0020452
-0.89236319 5.1393347 2.1958127
-0.86511505 4.9721479 1.5733944
-0.83360189 4.7811728 1.0129008
-0.79703355 4.5620623 0.50871223
-1.09444 6.4226451 5.883966
-1.0819685 6.3294978 4.7591791
-0.98288196 5.7378039 3.5064619
-0.93329561 5.4312749 2.6350114
-0.88397646 5.133563 1.90213
-0.84636515 4.904942 1.2912061
-0.818434 4.7381639 0.76284826
-0.77279043 4.4646692 0.27645394
0.048568454 0.16531788 18.338573
-0.42791402 2.9630044 19.031385
-0.51017487 3.379287 16.454119
-0.15540895 0.98322999 3.2294633
-0.69990575 4.3347769 10.403924
-1.307749 7.993958 14.9118
-0.64756703 3.9237995 5.9134617
-0.99975836 6.0190144 7.381691
-0.062682204 1.1260849 19.342104
-0.20212778 2.1384468 19.990229
-0.12882067 0.83825755 3.3028083
-0.59059674 3.7319767 10.329193
-0.81114048 5.0351467 10.609105
-1.4556079 8.9469481 14.897062
-0.97497493 5.9467802 8.054368
-1.0031931 6.0857339 6.7646937
-1.1970884 7.1149917 7.1699486
-1.1283377 6.6850114 5.5489073
-1.0349184 6.1120672 4.1488986
-0.95251054 5.6135006 3.0669715
-0.86628652 5.0839019 1.6058251
-0.82682914 4.8421588 1.0240922
-0.79202324 4.6286292 0.51452428
-1.0732428 6.4337921 5.8906169
-1.0852185 6.4847255 4.8710194
-0.98423654 5.8687429 3.5824573
-0.9143312 5.4344997 2.6350114
-0.88567841 5.2530289 1.9432178
-0.84462398 4.9989271 1.3134801
-0.81675512 4.8288813 0.77528054
-0.78224772 4.6151099 0.28249988
0.049131092 0.16510607 18.333574
-0.41778514 2.9660189 19.041264
-0.49837586 3.3810472 16.454119
-0.1519759 0.98376644 3.2294633
-0.68172419 4.3178964 10.357899
-1.2802154 8.0008402 14.916191
-0.63700563 3.9454825 5.9423923
-0.05878026 1.1268734 19.352089
-0.19591086 2.1529422 20.119488
-0.12626627 0.84118825 3.3124871
-0.5788846 3.7425423 10.352656
-0.79355955 5.0379472 10.609105
-1.4243683 8.9519749 14.897062
-0.95993596 5.9858503 8.1022491
-0.98356289 6.0992393 6.7757192
-1.1994765 7.284514 7.3346624
-1.132274 6.8540411 5.6838613
-1.0361377 6.2517724 4.239367
-0.9394421 5.6561208 3.0878408
-0.917355 5.5112791 2.3456554
-0.8674776 5.2004557 1.639666
-0.82692999 4.9467611 1.0436772
-0.79725403 4.7590656 0.52614838
-1.0507782 6.4374995 5.8906169
-1.0991554 6.7118506 5.0358362
-0.98957545 6.0295367 3.6761849
-0.88809448 5.3818855 1.9875925
-0.83985782 5.0785728 1.3322372
-0.8160702 4.9294143 0.78909409
-0.78248698 4.7163839 0.28653049
0.049692832 0.16489233 18.328573
-0.40753487 2.9682293 19.046204
-0.4867157 3.3837745 16.459015
-0.14854097 0.98429096 3.2294633
-0.66903079 4.3356962 10.394719
-1.2522794 8.0052605 14.916191
-0.62761694 3.9754779 5.9837222
-0.054859985 1.1273602 19.35708
-0.18941048 2.1652963 20.228861
-0.12369298 0.84411144 3.3221662
-0.56736374 3.7547784 10.380814
-0.77596903 5.0406866 10.609105
-1.3939129 8.9620466 14.905593
-0.94323599 6.0159569 8.1381588
-0.96332252 6.109333 6.7830691
-1.2239466 7.5984931 7.6430621
-1.1300759 6.9924378 5.7937074
-1.047102 6.4576006 4.3736987
-0.96161431 5.9173403 3.2246499
-0.89811152 5.5144477 2.3456554
-0.86863798 5.3218122 1.6749167
-0.82393146 5.0368786 1.0604645
-0.80641741 4.9190793 0.54045486
-1.0271235 6.433754 5.883966
-1.0833913 6.7635407 5.0711546
-1.0006363 6.2330003 3.7952442
-0.94060183 5.8395391 2.8217382
-0.88510621 5.4828506 2.0221062
-0.83609831 5.1678419 1.353339
-0.81627673 5.0397768 0.8042891
-0.78442985 4.8325086 0.29116571
0.050268106 0.16471787 18.328573
-0.39717135 2.9696336 19.046204
-0.47490114 3.3854527 16.459015
-0.14532155 0.98628032 3.2342353
-0.65418339 4.3399367 10.399322
-1.22469 8.0119495 14.920579
-0.61201996 3.9665201 5.9671903
-0.050937016 1.1278332 19.362072
-0.18287057 2.1781623 20.343204
-0.12110083 0.84702682 3.331845
-0.55400187 3.7550287 10.376121
-0.75836909 5.0433645 10.609105
-1.3763338 9.0571022 15.054901
-0.92861885 6.0609117 8.1940193
-0.94302374 6.1193595 6.7904196
-1.2223821 7.7612467 7.8007674
-1.1354308 7.1847253 5.9474916
-1.0559868 6.6594481 4.5052891
-0.95346785 5.9994087 3.2663882
-0.86291176 5.4053426 1.6988873
-0.8319546 5.1997924 1.0912409
-0.80579984 5.0251245 0.54984355
-1.0046593 6.4372997 5.883966
-1.0960453 6.9988952 5.2418575
-1.0069463 6.4153194 3.9016378
-0.92727304 5.887619 2.8427186
-0.88657761 5.6165109 2.0681243
-0.85071403 5.3771687 1.4037486
-0.81029969 5.115962 0.81464928
-0.7832216 4.9338999 0.29519632
0.050828204 0.16450027 18.323576
-0.38690314 2.9717722 19.051142
-0.46308082 3.3870897 16.459015
-0.1418779 0.9867816 3.2342353
-0.6398834 4.3479929 10.41313
-1.1967156 8.0161762 14.920579
-0.59858984 3.9714148 5.971323
-0.9170652 6.0418935 7.3932037
-0.046988253 1.1277158 19.35708
-0.1762431 2.1910086 20.45755
-0.118663 0.8511793 3.3463631
-0.74075979 5.0459809 10.609105
-1.3531318 9.1186066 15.148752
-0.9087944 6.0730562 8.2059898
-0.92317128 6.1326718 6.8014455
-1.2289184 7.9840007 8.0180483
-1.1228211 7.2694259 6.0133986
-1.060913 6.8449059 4.6259131
-0.96991962 6.2434521 3.3939223
-0.91950297 5.9053645 2.5029902
-0.87066662 5.5789504 1.7496485
-0.83125883 5.3142896 1.1126913
-0.79982376 5.1017051 0.55654973
-0.98161983 6.4370766 5.88064
-1.113183 7.2743721 5.4419928
-1.0113418 6.5934954 4.0054979
-0.92397612 6.0029626 2.89517
-0.8928864 5.7875824 2.1272907
-0.86387795 5.586657 1.4541582
-0.82046789 5.2998295 0.84020448
-0.78208095 5.040278 0.29942846
0.051387399 0.16428077 18.318577
-0.37652734 2.9731045 19.051142
-0.45125487 3.3886857 16.459015
-0.13863949 0.98874903 3.2390072
-0.62525737 4.3540668 10.422334
-1.169072 8.0226746 14.924969
-0.58267522 3.9595599 5.9506583
-0.89362007 6.0292044 7.3740153
-0.043051504 1.1278729 19.35708
-0.16847214 2.190016 20.442636
-0.11602881 0.85407948 3.3560419
-0.72314155 5.0485358 10.609105
-1.3317595 9.1955452 15.268198
-0.88758993 6.0761919 8.2059898
-0.9022516 6.1392107 6.8051205
-1.2286122 8.1716251 8.200285
-1.1363457 7.531167 6.2236753
-1.0620532 7.0139399 4.7355723
-0.97337872 6.4132261 3.4820366
-0.90167272 5.9268708 2.5104823
-0.87143457 5.7147384 1.7891294
-0.83125806 5.4385557 1.1360067
-0.7933225 5.1783037 0.56325591
-0.95914435 6.440464 5.88064
-1.1164613 7.470099 5.5832644
-1.0164214 6.7845674 4.1169581
-0.93000644 6.1856747 2.9790921
-0.88323373 5.8607049 2.1519434
-0.8545357 5.6569242 1.4705707
-0.80714655 5.3369355 0.84503925
-0.77047276 5.0824933 0.30104074
0.051960528 0.16410041 18.318577
-0.36614698 2.9744008 19.051142
-0.43942338 3.39024 16.459015
-0.13538907 0.99070597 3.2437794
-0.61005503 4.3562231 10.422334
-1.1410605 8.0267067 14.924969
-0.56685072 3.9476423 5.9299936
-0.87165105 6.0259423 7.3663402
-0.039104652 1.1277276 19.352089
-0.16074899 2.1895273 20.432692
-0.11337582 0.85697162 3.3657207
-0.70551443 5.0510292 10.609105
-1.2985586 9.1923914 15.255401
-0.86467433 6.0673208 8.1900291
-0.88562804 6.1758804 6.8418717
-1.2249391 8.3452301 8.3685036
-1.1508929 7.8123426 6.4496446
-1.0705878 7.2409735 4.8836112
-0.97891146 6.6050091 3.5817451
-0.91776508 6.1776042 2.6116261
-0.87267822 5.8600879 1.8314304
-0.82387257 5.5191588 1.1509286
-0.789244 5.2746191 0.5717504
-0.93719411 6.4474673 5.883966
-1.114302 7.6379371 5.7039337
-1.0251693 7.0098763 4.2486835
-0.94993097 6.4717793 3.1112695
-0.84967768 5.7608533 1.4951894
-0.80153376 5.4279017 0.85747147
-0.77833098 5.2581248 0.30809429
0.052533034 0.16391802 18.318577
-0.35576215 2.9756608 19.051142
-0.42758659 3.3917532 16.459015
-0.13193004 0.99117255 3.2437794
-0.59484524 4.358326 10.422334
-1.1133639 8.0330133 14.929358
-0.55267721 3.94681 5.9258604
-0.85732752 6.0765557 7.4239035
-0.03516791 1.1278573 19.352089
-0.15314204 2.1906066 20.437664
-0.11054388 0.85860884 3.3705604
-0.68787879 5.0534616 10.609105
-1.2678862 9.207202 15.272463
-0.84183151 6.0583634 8.1740694
-0.86782074 6.2057948 6.8712735
-1.2438307 8.6848278 8.7014351
-1.157398 8.0513268 6.6410899
-1.0769526 7.4640107 5.0289092
-0.98501885 6.8100576 3.6884098
-0.91415668 6.3046451 2.6621981
-0.87222731 6.0007658 1.8723214
-0.82372522 5.6532454 1.1761093
-0.79170012 5.4202447 0.58471566
-0.91468257 6.4506993 5.883966
-1.1235138 7.8938856 5.8893528
-1.0287027 7.2097206 4.3652091
-0.95242715 6.65027 3.1930935
-0.90403563 6.2967587 2.3031461
-0.85172093 5.917738 1.5327035
-0.77782929 5.3844252 0.31313258
0.053104896 0.16373366 18.318577
-0.345373 2.9768844 19.051142
-0.41586825 3.3942358 16.463909
-0.12866087 0.99310738 3.2485511
-0.57937092 4.3584399 10.417732
-1.0853167 8.03685 14.929358
-0.5369947 3.9347744 5.9051957
-0.83567446 6.0763364 7.4200659
-0.031215627 1.1273961 19.342104
-0.14549445 2.191128 20.437664
-0.1081693 0.86397862 3.3899181
-0.65463161 5.0459175 13.891003
-0.67023468 5.0558319 10.609105
-1.240247 9.2451754 15.327921
-0.81987011 6.0552926 8.1660891
-0.84981519 6.2356591 6.9006748
-1.2485276 8.9398861 8.9502583
-1.1600872 8.275032 6.8199825
-1.073033 7.6250687 5.1330848
-0.9810431 6.9538183 3.7626114
-0.91746265 6.4868164 2.7352462
-0.87013137 6.1367621 1.9118022
-0.83647752 5.884665 1.2199426
-0.79806679 5.600462 0.60081059
-0.89267111 6.457552 5.8872914
-1.1303964 8.1459856 6.0718288
-1.0373871 7.4566402 4.5096011
-0.95682728 6.8513303 3.2854078
-0.88532406 6.3232584 2.3113637
-0.84254473 6.0025034 1.5526329
-0.82220209 5.850194 0.91617924
-0.78272831 5.5553079 0.31998461
0.053660817 0.1635064 18.313576
-0.33497962 2.9780719 19.051142
-0.40401763 3.3956666 16.463909
-0.12537982 0.99503148 3.2533233
-0.56415361 4.3604355 10.417732
-1.0575684 8.042964 14.933745
-0.52548075 3.953362 5.9299936
-0.81658691 6.0951004 7.4392533
-0.027247341 1.126055 19.317146
-0.13787831 2.1921546 20.442636
-0.10651579 0.8755812 3.4334726
-0.63830996 5.0584445 13.919159
-0.65258247 5.0581403 10.609105
-1.224853 9.3787518 15.541218
-0.79557765 6.0342188 8.1341686
-0.8289355 6.2453089 6.9080248
-1.2572298 9.2374849 9.2411356
-1.1696587 8.5605545 7.0490899
-1.0912986 7.9560375 5.3496609
-0.98754185 7.1810145 3.8808703
-0.91697496 6.6507168 2.8008025
-0.86315531 6.2443032 1.9428229
-0.83616048 6.0335212 1.2479211
-0.79701662 5.736393 0.61288166
-0.87062293 6.4643288 5.8906169
-1.1371571 8.410243 6.263134
-1.0362526 7.6438994 4.6185274
-0.96228302 7.0704875 3.3861144
-0.86111629 6.2943535 1.622972
-0.80312032 5.8628411 0.91756064
-0.76944977 5.6025515 0.32179841
0.05423123 0.1633181 18.313576
-0.32458216 2.9792233 19.051142
-0.39216208 3.3970563 16.463909
-0.12226803 0.99842644 3.2628672
-0.54868561 4.3604398 10.41313
-1.0294867 8.046607 14.933745
-0.5127607 3.9635444 5.9423923
-0.7965495 6.1074486 7.4507661
-0.023272175 1.1238343 19.277214
-0.13022543 2.1926227 20.442636
-0.10419423 0.88218939 3.45767
-0.63519329 5.0625482 10.613606
-1.1973666 9.424366 15.609472
-0.77029198 6.0040827 8.0902786
-0.81668466 6.3221335 6.9888787
-1.2685548 9.5706043 9.5670586
-1.1772506 8.846241 7.2781973
-1.1022823 8.2499199 5.541563
-0.99952412 7.4610248 4.0269547
-0.91226828 6.7917166 2.8569934
-0.87208545 6.4754772 2.0105047
-0.83744359 6.2019181 1.2796302
-0.80037183 5.9118638 0.62852949
-0.8485384 6.4710312 5.8939424
-1.1441964 8.6906729 6.4662123
-1.0451066 7.9167156 4.7781177
-0.9632383 7.2672677 3.4763305
-0.90647733 6.8207922 2.4839323
-0.86096793 6.4611349 1.6628308
-0.80360842 6.0226827 0.9396624
-0.77572489 5.7983236 0.32965809
0.054785416 0.16308704 18.308577
-0.31418076 2.9803379 19.051142
-0.38030177 3.3984046 16.463909
-0.11913405 1.0018117 3.2724111
-0.53298724 4.3584499 10.403924
-1.0016882 8.0525284 14.938136
-0.49997589 3.973686 5.9547911
-0.77683926 6.122911 7.4661155
-0.019349119 1.1239086 19.277214
-0.12257095 2.1930637 20.442636
-0.61751783 5.0647345 10.613606
-1.1695764 9.4699011 15.677727
-0.74485362 5.9708543 8.0423985
-0.79461133 6.3249454 6.9888787
-1.2775689 9.9039097 9.8929815
-1.1858615 9.155241 7.5261354
-1.0918132 8.3946981 5.6347728
-0.9981063 7.6533504 4.1266627
-0.92041326 7.0384889 2.9562643
-0.87379891 6.6639795 2.0654957
-0.83692062 6.3655243 1.3104067
-0.80055887 6.0726137 0.64283597
-0.82594514 6.4739532 5.8939424
-1.1467234 8.9512053 6.6545744
-1.0564618 8.2238865 4.9579735
-0.94657433 7.3381047 3.5078015
-0.89417183 6.9128942 2.5151589
-0.85341358 6.5797868 1.6909664
-0.81829751 6.300457 0.97834045
-0.77677137 5.9644818 0.33630863
0.05532293 0.16281341 18.298576
-0.3036969 2.9806437 19.046204
-0.36843678 3.3997114 16.463909
-0.11597794 1.0051874 3.2819552
-0.51753992 4.3583436 10.399322
-0.97357357 8.0559759 14.938136
-0.48678505 3.9809935 5.963057
-0.75742298 6.1414909 7.4853034
-0.015429354 1.1242579 19.282206
-0.11491498 2.1934783 20.442636
-0.4757798 4.2935648 16.669298
-0.58352166 5.0494232 13.876925
-0.59983486 5.0668592 10.613606
-1.1352707 9.4635687 15.660663
-0.72183168 5.9554691 8.0184574
-0.7717067 6.3209505 6.9815283
-1.2864907 10.255084 10.236426
-1.193302 9.4721298 7.7803502
-1.1023881 8.7137346 5.8431244
-1.0026053 7.902884 4.2565155
-0.9128052 7.1750259 3.0105822
-0.86874336 6.8097444 2.1077969
-0.83152539 6.4999657 1.3355874
-0.80026674 6.2383742 0.65758955
-0.80334175 6.4767971 5.8939424
-1.1504428 9.2359257 6.8605962
-1.0630136 8.5098438 5.1251631
-0.95202315 7.5890412 3.6231942
-0.88712829 7.0518456 2.5628207
-0.83834928 6.6454172 1.7062066
-0.82298815 6.5145345 1.0080397
-0.77792281 6.1406283 0.34336221
0.055843353 0.16249736 18.283577
-0.29329064 2.9816856 19.046204
-0.35656735 3.4009767 16.463909
-0.11296532 1.0100366 3.2962713
-0.5014292 4.3523607 10.380912
-0.94572604 8.0617037 14.942524
-0.47354931 3.9882574 5.971323
-0.73598057 6.1440978 7.4853034
-0.011530061 1.1271918 19.332123
-0.10725762 2.193866 20.442636
-0.45998552 4.2877007 16.640263
-0.56550813 5.0479989 13.867538
-0.58239287 5.0710845 10.618108
-0.69822216 5.9340115 7.9865375
-0.74724346 6.3034062 6.9594774
-1.2977225 10.645378 10.618423
-1.1957062 9.7659979 8.0157347
-1.1255478 9.1532984 6.1309786
-1.0145906 8.2272806 4.4257884
-0.92530763 7.4818258 3.1342022
-0.87626046 7.0650463 2.1825285
-0.83611524 6.7221899 1.3775553
-0.80499089 6.4536223 0.67681402
-0.78072864 6.4795618 5.8939424
-1.1638423 9.6170816 7.1372533
-1.0670619 8.7916641 5.2898202
-0.95023954 7.7950511 3.7176068
-0.8917321 7.2939501 2.6466396
-0.81412381 6.6304164 1.0239254
-0.77235842 6.2722268 0.34860203
0.056410238 0.16230145 18.283577
-0.28288084 2.9826913 19.046204
-0.34479612 3.403214 16.468805
-0.10975982 1.0133928 3.3058152
-0.48601681 4.3521428 10.376309
-0.91757971 8.0649557 14.942524
-0.45994675 3.9926815 5.9754558
-0.71378905 6.1402617 7.4776282
-0.0076029156 1.1286687 19.35708
-0.099575028 2.1936944 20.437664
-0.44527513 4.2917809 16.64994
-0.54825604 5.0533738 13.876925
-0.56468791 5.0730863 10.618108
-1.0884819 9.6423063 15.942215
-0.67545456 5.9184499 7.9625978
-0.72213745 6.2790327 6.9300761
-1.3058254 11.032328 10.996913
-1.2038848 10.1257 8.3044729
-1.1372224 9.522541 6.3722272
-1.0269569 8.573844 4.6066546
-0.91577333 7.6230946 3.1903932
-0.87741506 7.2823796 2.24598
-0.82443112 6.8226032 1.3962078
-0.7836569 6.46628 0.67770815
-0.75810599 6.4822474 5.8939424
-1.1665772 9.9301929 7.3638763
-1.0691553 9.0736113 5.4544764
-0.97103417 8.2039566 3.9064314
-0.90578949 7.6299543 2.7633288
-0.86376989 7.2544241 1.8527462
-0.80035591 6.711894 1.0349762
-0.76291823 6.3790569 0.35283417
0.057089411 0.16238731 18.318577
-0.27246761 2.9836605 19.046204
-0.33291459 3.4043968 16.468805
-0.10653225 1.016739 3.3153591
-0.47082204 4.3538132 10.376309
-0.8896845 8.0704899 14.946914
-0.44663131 3.9998562 5.9837222
-0.69163328 6.1363454 7.4699531
-0.0036671115 1.1309978 19.397013
-0.091916993 2.1940286 20.437664
-0.42991546 4.289557 16.635424
-0.53061312 5.0552568 13.876925
-0.54674292 5.0728626 10.613606
-1.0565183 9.6616039 15.967811
-0.65644717 5.9357471 7.9825482
-0.69608414 6.2444525 6.8896494
-1.3153102 11.45489 11.41045
-1.2113503 10.501041 8.6057644
-1.147295 9.900279 6.6189594
-1.0292441 8.8545885 4.752739
-0.91063261 7.8104343 3.2653148
-0.87149084 7.4521589 2.2953312
-0.82407367 7.0254703 1.4344451
-0.73547405 6.4848547 5.8939424
-1.1703432 10.271551 7.6111016
-1.077125 9.4242048 5.6596642
-0.97604215 8.5003738 4.0428047
-0.88941616 7.7222023 2.7945554
-0.84234673 7.2911949 1.8609524
-0.81164193 7.0147204 1.0771077
-0.77232391 6.6546264 0.36391836
0.057721015 0.16234894 18.338573
-0.26211885 2.9853673 19.051142
-0.32112443 3.4065516 16.4737
-0.10343273 1.0215601 3.329675
-0.4600918 4.3981767 10.477565
-0.86150783 8.0735464 14.946914
-0.43327141 4.0069861 5.9919877
-0.66951352 6.1323495 7.4622779
0.00027831059 1.1295601 19.372055
-0.08423768 2.1938035 20.432692
-0.41493949 4.2910314 16.635424
-0.51278967 5.0553608 13.872231
-0.52880627 5.0725746 10.609105
-1.0282751 9.717104 16.053129
-0.67064488 6.2131386 6.8528976
-1.3254102 11.909546 11.855527
-1.2192373 10.903631 8.9290257
-1.1608126 10.332219 6.9013305
-1.0295832 9.1354494 4.8988233
-0.92815077 8.2097301 3.4263954
-0.86709452 7.6458163 2.3517325
-0.83396953 7.3309121 1.4922676
-0.80003774 7.01091 0.72643977
-0.71324098 6.4910927 5.8972673
-1.1810541 10.697422 7.9201341
-1.0717449 9.6764145 5.8065882
-0.97798842 8.7879009 4.1749821
-0.87712491 7.8566642 2.8405735
-0.86341363 7.709507 1.9617717
-0.8097831 7.2192802 1.1054256
-0.77199382 6.8608303 0.37218115
0.058369491 0.16234861 18.363575
-0.25169638 2.9862642 19.051142
-0.3092314 3.4076519 16.4737
-0.10001107 1.0234007 3.3344471
-0.46555614 4.6057944 10.965432
-0.83356637 8.078887 14.951303
-0.41986713 4.0140719 6.0002537
-0.64776689 6.1314616 7.4584403
0.0042136521 1.128109 19.347097
-0.076579355 2.1940842 20.432692
-0.3998419 4.2912016 16.630583
-0.49497193 5.0554023 13.867538
-0.51087838 5.0722241 10.604605
-0.99461508 9.7232285 16.057396
-0.64543271 6.1817231 6.8161454
-1.3113383 12.169393 12.107854
-1.230194 11.360575 9.2962246
-1.1523308 10.589779 7.0685596
-1.044799 9.5705442 5.1260657
-0.92169452 8.4156885 3.5088089
-0.87759775 7.9873505 2.4518447
-0.84174263 7.6365047 1.5500901
-0.78322297 7.0829573 0.73269886
-0.69057846 6.4935427 5.8972673
-1.1875169 11.111429 8.220336
-1.0885153 10.151583 6.085238
-0.98231488 9.1161556 4.3260417
-0.90552336 8.3761072 3.0213597
-0.84488279 7.7897906 1.9805288
-0.80436653 7.4042172 1.1309807
-0.76427919 7.0124793 0.37822708
0.05893584 0.16214387 18.363575
-0.24127083 2.9871244 19.051142
-0.29733458 3.4087105 16.4737
-0.097555712 1.0356326 3.372623
-0.80536073 8.0817471 14.951303
-0.40641868 4.0211124 6.0085196
-0.62538344 6.1241198 7.4469285
0.0081262691 1.1252005 19.29718
-0.068920106 2.1943381 20.432692
-0.38486037 4.2925711 16.630583
-0.47716022 5.0553818 13.862846
-0.49274883 5.0696425 10.595602
-0.6170457 6.116478 6.7426429
-1.2825294 12.305137 12.237522
-1.2383804 11.821593 9.666563
-1.161328 11.030374 7.3564138
-1.0281378 9.7327242 5.2095428
-0.93970782 8.8660345 3.6904929
-0.87710333 8.2479544 2.5279868
-0.83019429 7.7810473 1.577136
-0.79082757 7.3877006 0.75997066
-0.6679076 6.4959145 5.8972673
-1.1960891 11.573854 8.5558567
-1.0953114 10.562662 6.3258901
-0.98906577 9.4896822 4.4980822
-0.8782444 8.3980036 3.0279338
-0.8410188 8.0150604 2.0344553
-0.801292 7.6236777 1.1613708
-0.74975145 7.1095033 0.38205615
0.059417933 0.16173559 18.338573
-0.23084237 2.9879484 19.051142
-0.28543419 3.4097276 16.4737
-0.093133025 1.027047 3.343991
-0.63853371 6.7913136 16.129465
-0.77737445 8.0868931 14.955692
-0.39292619 4.0281081 6.0167856
-0.60337353 6.1198859 7.4392533
0.012068009 1.12632 19.317146
-0.061245412 2.1940324 20.427719
-0.36976641 4.2926369 16.625744
-0.45951074 5.0570168 13.862846
-0.47484651 5.0691643 10.591101
-0.94302899 9.9012899 16.338947
-0.59470606 6.1084719 6.731617
-1.2420697 12.334376 12.262053
-1.2519866 12.367996 10.105947
-1.1710724 11.508595 7.6689405
-1.0558035 10.339998 5.5272183
-0.91253394 8.9061546 3.7054772
-0.87970591 8.5563679 2.6182287
-0.81311017 7.8816252 1.5957885
-0.79272437 7.6579056 0.78411293
-0.64485967 6.4944911 5.8939424
-1.2086732 12.108866 8.9443541
-1.1134287 11.115457 6.6501369
-0.99776757 9.9085207 4.691103
-0.90874243 8.9929962 3.2350156
-0.82872719 8.1726933 2.0719695
-0.78968859 7.7742295 1.1820911
-0.7664718 7.5196323 0.39858168
0.059864219 0.16124545 18.303576
-0.22041106 2.9887362 19.051142
-0.27353027 3.4107032 16.4737
-0.6148237 6.7935014 16.129465
-0.74936199 8.0919418 14.960081
-0.37938973 4.035058 6.0250511
-0.58018762 6.1028099 7.4162283
0.015999526 1.126271 19.317146
-0.053586438 2.1942329 20.427719
-0.35478005 4.2939014 16.625744
-0.44185564 5.0585899 13.862846
-0.45734429 5.0729589 10.595602
-0.91131955 9.9356871 16.390139
-1.1993521 12.342188 12.265559
-1.2390844 12.682201 10.357023
-1.1791267 12.003658 7.992434
-1.0566432 10.718337 5.7243161
-0.92662507 9.3660126 3.8909078
-0.87068677 8.7694244 2.6802702
-0.82406867 8.2705708 1.6694654
-0.77342057 7.7349553 0.79081917
-0.62218571 6.4967027 5.8939424
-1.2233472 12.70445 9.3769979
-1.1343343 11.737152 7.0149145
-0.99653381 10.255254 4.8505549
-0.8975125 9.2029076 3.3073301
-0.85559011 8.7415247 2.2091305
-0.80168891 8.1761417 1.2380362
-0.75832111 7.706223 0.40603831
0.060324799 0.16079438 18.273579
-0.20997709 2.9894872 19.051142
-0.26162302 3.4116373 16.4737
-0.59212172 6.8072839 16.15708
-0.7211113 8.0945091 14.960081
-0.36555603 4.0391607 6.0291843
-0.56034213 6.1207571 7.4354157
0.019936394 1.126497 19.32214
-0.045959469 2.1960056 20.442636
-0.33978936 4.2951136 16.625744
-0.42419517 5.0601015 13.862846
-0.8802979 9.9803753 16.458393
-1.1555976 12.339197 12.25855
-1.2090405 12.837581 10.479424
-1.1849214 12.5114 8.324151
-1.0699449 11.255562 6.0048909
-0.94588196 9.9137545 4.1119251
-0.86567795 9.0398226 2.759232
-0.81681234 8.4983234 1.712366
-0.7837134 8.1242495 0.82569128
-0.59950423 6.4988346 5.8939424
-1.1497134 12.346245 7.3720927
-0.99627644 10.638244 5.0267916
-0.90604085 9.6385174 3.458533
-0.84561747 8.9622202 2.2618849
-0.80483407 8.5141363 1.2850025
-0.76020241 8.0122128 0.41833171
0.060765825 0.16030191 18.238579
-0.19959219 2.9909773 19.056082
-0.24971259 3.4125297 16.4737
-0.37578422 4.6987629 15.116475
-0.56819379 6.8073626 16.152477
-0.69305593 8.0993633 14.964471
-0.35218588 4.0488224 6.0415831
-0.53981638 6.1322546 7.4469285
0.023861928 1.1261319 19.317146
-0.038311742 2.1972184 20.452579
-0.32479459 4.2962732 16.625744
-0.40652955 5.0615516 13.862846
-0.84523439 9.9807873 16.454126
-1.1121986 12.339604 12.255046
-1.1652759 12.853352 10.488838
-1.1940198 13.094278 8.7052155
-1.0774894 11.770946 6.2738719
-0.94096446 10.240149 4.2430377
-0.88434708 9.5873423 2.9199755
-0.8161279 8.814168 1.7720536
-0.77562797 8.3451147 0.84536278
-0.57714534 6.5046067 5.8972673
-1.1673217 13.079048 9.6448259
-1.1627768 12.977048 7.7419367
-1.0157636 11.269964 5.3184204
-0.89962387 9.9426098 3.5637176
-0.84510642 9.3039656 2.3439472
-0.78677857 8.6451178 1.3029602
-0.73722982 8.0695457 0.42054856
0.061480414 0.16044948 18.283577
-0.18919943 2.9924312 19.06102
-0.23779911 3.4133806 16.4737
-0.35915267 4.6970692 15.106931
-0.54754144 6.8482533 16.244528
-0.66477966 8.1017332 14.964471
-0.33898675 4.0612445 6.058115
0.02778516 1.1257532 19.312155
-0.030677604 2.2000039 20.477436
-0.3097958 4.2973809 16.625744
-0.38885894 5.0629396 13.862846
-0.59364259 7.4580483 15.533434
-0.81503123 10.040866 16.547977
-0.49268225 5.9787889 8.0184574
-1.0685031 12.336306 12.248036
-1.1197264 12.849586 10.482561
-1.1709449 13.356624 8.875186
-1.0896045 12.379181 6.591547
-0.96642554 10.93606 4.5239925
-0.88521397 9.9774132 3.0341885
-0.82588685 9.2720013 1.8587874
-0.75891298 8.4866562 0.85788101
-0.55475348 6.5103016 5.9005928
-1.1220055 13.08707 9.647769
-1.1636858 13.517893 8.0585842
-1.0351599 11.951681 5.6331286
-0.92382288 10.623126 3.8003829
-0.84221935 9.645812 2.4260094
-0.78983009 9.0276699 1.3561425
-0.75015056 8.5398865 0.43949246
0.062040109 0.16023389 18.283577
-0.17879897 2.9938493 19.06596
-0.22594987 3.4152057 16.478594
-0.34297174 4.7012715 15.116475
-0.52988547 6.9319377 16.437834
-0.63668275 8.1063919 14.968859
-0.3250325 4.0652084 6.0622478
0.031714603 1.1256493 19.312155
-0.023003275 2.2006307 20.482407
-0.29487914 4.2996898 16.630583
-0.37118363 5.0642657 13.862846
-0.56711024 7.4535637 15.519931
-0.78583229 10.119056 16.67169
-0.47844374 6.0645823 8.1301785
-1.0251393 12.336406 12.244532
-1.0745419 12.849538 10.479424
-1.125717 13.377297 8.8861523
-1.1138973 13.181856 7.01125
-0.96352166 11.355105 4.6925654
-0.88092446 10.338923 3.139941
-0.82115304 9.5978565 1.9203403
-0.77659714 9.0400028 0.90750682
-0.5323289 6.5159202 5.9039187
-1.0763162 13.090907 9.647769
-1.1764402 14.247928 8.4866924
-1.0464261 12.592955 5.9289541
-0.91461581 10.9604 3.9170723
-0.84832042 10.123372 2.5408964
-0.77944607 9.2820415 1.3913671
-0.73251009 8.6868229 0.44533688
0.062651686 0.16013619 18.298576
-0.1683909 2.9952307 19.070898
-0.2140272 3.4159737 16.478594
-0.32624915 4.6979733 15.102159
-0.50795823 6.9649205 16.511473
-0.60838234 8.1085653 14.968859
0.03564366 1.1255318 19.312155
-0.015311173 2.1990983 20.467493
-0.27986863 4.300693 16.630583
-0.35350379 5.0655308 13.862846
-0.54156154 7.4620109 15.533434
-0.75436187 10.173754 16.757008
-0.45727152 6.0662155 8.1301785
-0.46896905 6.1500101 6.7646937
-0.98178816 12.336353 12.241028
-1.0296822 12.85321 10.479424
-1.0790147 13.381145 8.8861523
-1.0964835 13.538892 7.196754
-0.97236103 11.954466 4.9341869
-0.89052516 10.901327 3.3049145
-0.82821178 10.09514 2.014535
-0.76630062 9.3007421 0.93075484
-0.51016283 6.5251827 5.9105697
-1.0306139 13.094584 9.647769
-1.1671255 14.763337 8.7881403
-1.0586278 13.302309 6.2562499
-0.94369972 11.806106 4.2112603
-0.85576504 10.659225 2.6698515
-0.79589051 9.8918476 1.4763209
-0.74322855 9.1972561 0.46589303
0.063245647 0.15999629 18.308577
-0.15805697 2.9981282 19.085718
-0.20210192 3.4166999 16.478594
-0.31004447 4.7020626 15.111703
-0.48391357 6.9705491 16.520679
-0.58024526 8.1130276 14.973248
-0.86858833 11.742673 14.174073
0.039582856 1.1256889 19.317146
-0.0076300493 2.1975391 20.452579
-0.2648547 4.3016434 16.630583
-0.33570555 5.065012 13.858153
-0.51566088 7.4660273 15.537934
-0.72325408 10.238763 16.85939
-0.44774458 6.1549907 6.7683687
-0.93872035 12.339705 12.241028
-0.98451245 12.852845 10.476284
-1.0322992 13.38483 8.8861523
-1.0594821 13.675134 7.2663178
-0.99105525 12.734273 5.2488561
-0.89172333 11.406529 3.4529681
-0.81757969 10.411389 2.0742226
-0.77181464 9.7849226 0.97412157
-0.48710459 6.523201 5.9072442
-0.98429281 13.09004 9.6418819
-1.1321454 14.986546 8.9173317
-1.0486774 13.785621 6.4786434
-0.93234766 12.200129 4.3476715
-0.85650206 11.156477 2.789428
-0.80200797 10.422874 1.5502236
-0.71843499 9.2944345 0.46972209
0.063821577 0.15981437 18.313576
-0.14751442 2.9971097 19.075838
-0.19017418 3.4173844 16.478594
-0.29362932 4.7031159 15.111703
-0.45957884 6.9721961 16.520679
-0.5519219 8.1150036 14.973248
-0.82781881 11.748831 14.177912
0.043512005 1.1255438 19.317146
3.888693e-05 2.193821 20.417776
-0.24976479 4.3012877 16.625744
-0.31802329 5.066153 13.858153
-0.48931175 7.4634385 15.528934
-0.69135237 10.298473 16.953241
-0.43093938 6.2241569 6.8418717
-0.89538288 12.33935 12.237522
-0.939358 12.852322 10.473146
-0.98557115 13.388352 8.8861523
-1.0182754 13.767104 7.3126941
-0.99091774 13.334044 5.4904776
-0.90226316 12.084082 3.6517828
-0.82789969 11.036288 2.1926653
-0.76572371 10.159998 1.0076525
-0.46433145 6.5248613 5.9072442
-0.93830508 13.089365 9.6389399
-1.0795159 14.986109 8.9147987
-1.0067906 13.875203 6.5185065
-0.94572616 12.970985 4.6155634
-0.87011391 11.876848 2.9629309
-0.79934973 10.884916 1.6144569
-0.73929387 10.019333 0.49894407
0.064397015 0.15963039 18.318577
-0.13694549 2.9952774 19.06102
-0.17819118 3.417011 16.4737
-0.27721059 4.7041125 15.111703
-0.43536022 6.975708 16.525282
-0.52374607 8.1192713 14.977637
-0.27268228 4.1367407 6.1614385
-0.78637457 11.745253 14.170237
0.047465809 1.125962 19.327129
0.0077031702 2.1954067 20.432692
-0.23468053 4.3008776 16.620903
-0.30033723 5.0672326 13.858153
-0.46325651 7.4651012 15.528934
-0.66102928 10.389318 17.098284
-0.40921035 6.2256231 6.8418717
-0.85205942 12.338842 12.234018
-0.8942191 12.851639 10.470007
-0.93883109 13.391711 8.8861523
-0.97021312 13.770575 7.3126941
-0.96663189 13.651877 5.6178441
-0.90978545 12.785762 3.8576474
-0.83106345 11.622179 2.303647
-0.78307855 10.89775 1.0738202
-0.4413006 6.5227175 5.9039187
-0.89233404 13.088528 9.6359959
-1.0274926 14.994084 8.9173317
-0.96616703 13.991825 6.5709577
-0.94032937 13.548929 4.8160715
-0.8678835 12.442279 3.0989196
-0.79105711 11.31248 1.6738553
-0.73933917 10.520218 0.51909721
0.064935729 0.15936492 18.313576
-0.12639117 2.9934084 19.046204
-0.16626252 3.4176121 16.4737
-0.26087102 4.7065415 15.116475
-0.41135234 6.983036 16.539089
-0.49540138 8.1210508 14.977637
-0.25648847 4.1095815 6.1201096
-0.74516815 11.744727 14.166398
0.051436655 1.1266545 19.342104
0.015370522 2.1958992 20.437664
-0.21966624 4.3016706 16.620903
-0.28264743 5.0682497 13.858153
-0.43706837 7.4644985 15.524431
-0.62632471 10.417595 17.140944
-0.389792 6.2642336 6.8822989
-0.80875039 12.338184 12.230515
-0.84909648 12.850799 10.466869
-0.89235735 13.399077 8.8888931
-0.92213893 13.773877 7.3126941
-0.96223962 14.298106 5.8781953
-0.8926695 13.19568 3.9775002
-0.81548333 11.992579 2.3735936
-0.78238755 11.446939 1.122999
-0.41757339 6.5093136 5.8906169
-0.84664112 13.091562 9.6359959
-0.97458798 14.988977 8.9122648
-0.91732049 13.995113 6.5709577
-0.93494523 14.188243 5.0379453
-0.86942661 13.12423 3.2630441
-0.80177796 12.071174 1.7795293
-0.73323369 10.981339 0.53763801
0.065473385 0.15909766 18.308577
-0.11585157 2.991502 19.031385
-0.1543318 3.4181716 16.4737
-0.24444053 4.7074237 15.116475
-0.39324051 7.0975676 16.806034
-0.46705058 8.1227303 14.977637
-0.24098383 4.0907874 6.0911784
-0.7043587 11.750457 14.170237
0.055398308 1.1270447 19.352089
0.023041412 2.1963656 20.442636
-0.20464927 4.3024111 16.620903
-0.26495421 5.0692053 13.858153
-0.41100976 7.4659786 15.524431
-0.59260994 10.466587 17.21773
-0.36812207 6.2689409 6.8859739
-0.76567715 12.340932 12.230515
-0.80423367 12.853684 10.466869
-0.8455804 13.402112 8.8888931
-0.87685812 13.821221 7.3358822
-0.91232419 14.301378 5.8781953
-0.90801448 14.15616 4.2595067
-0.84158748 13.049298 2.5741069
-0.78077167 12.040975 1.1762012
-0.39597902 6.529366 5.9072442
-0.80069113 13.090404 9.6330528
-0.92331946 15.009498 8.9223986
-0.8712731 14.043529 6.5919385
-0.91275907 14.629728 5.1907916
-0.86865377 13.845147 3.4365473
-0.79912668 12.701571 1.8672458
-0.74694455 11.806517 0.57089061
0.065991588 0.15878899 18.298576
-0.10535407 2.9903352 19.021507
-0.14239922 3.4186895 16.4737
-0.22807923 4.7097392 15.121247
-0.36856422 7.1008487 16.810638
