# .PCD v0.7 - Point Cloud Data file format
VERSION 0.7
FIELDS x y z
SIZE 4 4 4
TYPE F F F
COUNT 1 1 1
WIDTH 1401
HEIGHT 1
VIEWPOINT 0 0 0 1 0 0 0
POINTS 1401
DATA ascii
-0.89883786 -0.5202803 1.2041698
-0.89684111 -0.52309382 1.1000748
-0.88326836 -0.51578647 0.90713024
-0.87184244 -0.50971544 0.74673891
-0.86916161 -0.50854647 0.6136812
-0.86482382 -0.506405 0.49322599
-0.84873766 -0.49737519 0.37909663
-0.83473933 -0.4895578 0.27519831
-0.82442832 -0.48388866 0.17876793
-0.88749069 -0.51597553 0.99548054
-0.87557805 -0.5096522 0.82123065
-0.87317437 -0.50865239 0.6794343
-0.87130606 -0.50816649 0.55374348
-0.85692763 -0.50017321 0.43447638
-0.85212523 -0.49776021 0.3287335
-0.81224829 -0.47465158 0.22342718
-0.84073108 -0.49168038 0.13296394
-0.083326235 -0.0096360603 8.188962
-0.81686306 -0.44786793 5.9225945
-1.1268194 -0.62701762 6.2230945
-1.0211875 -0.57729077 3.7973294
-0.95993549 -0.54704624 2.6624784
-0.93557769 -0.53572989 2.0430212
-0.92048109 -0.52876872 1.631727
-0.9071703 -0.52236736 1.3299464
-0.31669429 -0.1402079 5.8296857
-0.54512846 -0.26558071 5.612639
-1.0801352 -0.60444498 4.80303
-0.99660802 -0.56382501 3.1680319
-0.94544262 -0.53832901 2.3133683
-0.92760003 -0.53007382 1.8177074
-0.9069103 -0.51970047 1.4588583
-0.89770842 -0.51545173 1.2004945
-0.89557469 -0.51817423 1.0965703
-0.88169533 -0.51074928 0.90399176
-0.87361634 -0.50666904 0.74673891
-0.86710012 -0.50328588 0.6113624
-0.86658627 -0.5033831 0.49322599
-0.85046864 -0.4944095 0.37909663
-0.83644313 -0.48664102 0.27519831
-0.82611233 -0.48100793 0.17876793
-0.88928634 -0.51287442 0.99548054
-0.87385124 -0.50457174 0.81828749
-0.87121207 -0.50344467 0.67690116
-0.87307459 -0.50512195 0.55374348
-0.85866833 -0.49717897 0.43447638
-0.85385752 -0.49478269 0.3287335
-0.80961591 -0.46932989 0.22273649
-0.83812088 -0.48623568 0.1327624
-0.083359361 -0.0093451394 8.188962
-0.81773865 -0.4446429 5.9176555
-1.1174107 -0.61668742 6.1594563
-1.0205922 -0.57226306 3.7877855
-0.95843744 -0.5417698 2.6532736
-0.93327683 -0.53009564 2.0342431
-0.9198761 -0.52415949 1.6275939
-0.90620488 -0.51760811 1.3261089
-0.31638694 -0.13875763 5.8147106
-0.54653269 -0.26390716 5.6176105
-1.0800403 -0.59945136 4.7933512
-0.99555993 -0.55865425 3.1586463
-0.94542044 -0.53395522 2.3088672
-0.92490661 -0.52426094 1.8091755
-0.90609908 -0.51504278 1.4548682
-0.8965562 -0.51063734 1.1968194
-0.89737797 -0.51504493 1.0965703
-0.8834728 -0.5076685 0.90399176
-0.87175518 -0.50153148 0.74399745
-0.86885166 -0.50025606 0.6113624
-0.86833811 -0.50035512 0.49322599
-0.8521893 -0.49143779 0.37909663
-0.83388215 -0.48126295 0.27426568
-0.82347399 -0.47563061 0.17832085
-0.88783026 -0.50791323 0.99215508
-0.87560719 -0.50151837 0.81828749
-0.87296408 -0.50040054 0.67690116
-0.87089604 -0.49981228 0.55164546
-0.85630381 -0.49182683 0.43283287
-0.85557944 -0.49179921 0.3287335
-0.81124926 -0.46650094 0.22273649
-0.83981305 -0.48330709 0.1327624
-0.083391473 -0.0090541039 8.188962
-0.81860167 -0.44141725 5.9127159
-1.1097304 -0.60740793 6.1056089
-1.0186696 -0.56652123 3.7734697
-0.95691437 -0.53651059 2.6440685
-0.93303472 -0.52565932 2.0298538
-0.92170018 -0.52094531 1.6275939
-0.90521723 -0.51286185 1.3222713
-0.31235847 -0.135719 5.7298527
-0.54793179 -0.26222703 5.6225824
-1.0777211 -0.59325397 4.7739935
-0.994488 -0.55349773 3.1492608
-0.94537908 -0.5295881 2.3043661
-0.92445749 -0.51975125 1.8049095
-0.90526652 -0.51039708 1.4508783
-0.89538145 -0.50583738 1.1931442
-0.89607102 -0.51014513 1.0930656
-0.88185787 -0.50265419 0.90085334
-0.87350053 -0.49848542 0.74399745
-0.86674589 -0.49502334 0.6090436
-0.86605448 -0.4950206 0.49135295
-0.85389954 -0.48846012 0.37909663
-0.83555698 -0.47834921 0.27426568
-0.82080823 -0.47027755 0.17787378
-0.88635033 -0.50296849 0.98882955
-0.87383801 -0.49646235 0.81534433
-0.87095803 -0.49521968 0.67436796
-0.87263536 -0.49676925 0.55164546
-0.85801536 -0.4888348 0.43283287
-0.85729098 -0.48880967 0.3287335
-0.8085711 -0.46121272 0.22204581
-0.83715624 -0.47789589 0.13256088
-0.083466187 -0.0087638637 8.1939611
-0.81945217 -0.43819106 5.9077764
-1.101104 -0.59770417 6.0468664
-1.0180266 -0.56152052 3.7639256
-0.95536619 -0.5312686 2.6348634
-0.93277311 -0.52123117 2.025465
-0.92105824 -0.5163489 1.623461
-0.90420753 -0.50812882 1.3184339
-0.31601921 -0.13598146 5.7897525
-0.54932582 -0.26054034 5.6275539
-1.0764751 -0.58768213 4.7594748
-0.99490309 -0.54918921 3.1445682
-0.94531894 -0.52522784 2.299865
-0.92398822 -0.51525122 1.8006437
-0.90441251 -0.50576353 1.4468882
-0.8971417 -0.50270885 1.1931442
-0.89784634 -0.50701416 1.0930656
-0.88360703 -0.49957284 0.90085334
-0.87159628 -0.4933736 0.741256
-0.86846852 -0.4919948 0.6090436
-0.86777711 -0.49199447 0.49135295
-0.85142708 -0.48310915 0.37768659
-0.83295006 -0.47300404 0.27333307
-0.81811517 -0.46494895 0.1774267
-0.88484663 -0.49804023 0.98550397
-0.87204421 -0.49142483 0.81240118
-0.87268138 -0.49217644 0.67436796
-0.87041199 -0.4914887 0.54954737
-0.85971653 -0.48583677 0.43283287
-0.85899198 -0.48581418 0.3287335
-0.81017613 -0.45838749 0.22204581
-0.83881927 -0.47497076 0.13256088
-0.083496273 -0.0084724594 8.1939611
-0.82097673 -0.43532795 5.9077764
-1.1040804 -0.59433943 6.0517616
-1.017361 -0.55653125 3.7543814
-0.95379311 -0.52604395 2.6256583
-0.93458694 -0.51797205 2.025465
-0.92039543 -0.51176339 1.619328
-0.9059757 -0.50496948 1.3184339
-0.31729034 -0.13521312 5.8047271
-0.55119759 -0.25907299 5.6374965
-1.0752035 -0.58212626 4.744957
-0.99378639 -0.54405612 3.1351826
-0.94523972 -0.52087438 2.2953637
-0.92349881 -0.51076078 1.7963778
-0.90353721 -0.50114214 1.4428982
-0.89592767 -0.49792749 1.1894691
-0.8964991 -0.50213444 1.0895611
-0.8819505 -0.49458182 0.89771485
-0.87331319 -0.49032819 0.741256
-0.8663187 -0.48679042 0.6067248
-0.86544836 -0.48669007 0.48947993
-0.85310823 -0.48013419 0.37768659
-0.83459604 -0.47009364 0.27333307
-0.81973314 -0.46209037 0.1774267
-0.88657969 -0.49494848 0.98550397
-0.87375432 -0.48837784 0.81240118
-0.87063181 -0.48702285 0.67183477
-0.87212229 -0.4884474 0.54954737
-0.85728788 -0.48052403 0.43118936
-0.86068255 -0.48281279 0.3287335
-0.81177127 -0.45555666 0.22204581
-0.83611619 -0.46959338 0.13235934
-0.08352533 -0.0081809508 8.1939611
-0.82180339 -0.43209824 5.9028373
-1.1052499 -0.59000248 6.0468664
-1.0166731 -0.55155343 3.7448375
-0.9539094 -0.52177411 2.6210558
-0.93429017 -0.51355302 2.0210757
-0.91971201 -0.50718886 1.615195
-0.90492767 -0.50025344 1.3145963
-0.31749386 -0.1339938 5.7997355
-0.5525822 -0.25737157 5.6424685
-1.0727988 -0.57599205 4.7255993
-0.99264604 -0.53893751 3.125797
-0.94514179 -0.51652801 2.2908626
-0.92298937 -0.50628006 1.7921119
-0.90528107 -0.49798512 1.4428982
-0.89766026 -0.49479708 1.1894691
-0.89512885 -0.49727032 1.0860566
-0.88367152 -0.49150023 0.89771485
-0.87501943 -0.48727676 0.741256
-0.86801267 -0.48376343 0.6067248
-0.86714196 -0.48366615 0.48947993
-0.85477901 -0.47715336 0.37768659
-0.83623189 -0.46717748 0.27333307
-0.81699443 -0.45679584 0.17697962
-0.88503546 -0.4900423 0.98217851
-0.87191838 -0.48336521 0.80945796
-0.87232655 -0.48398077 0.67183477
-0.86985445 -0.48319635 0.54744929
-0.85895997 -0.47752863 0.43118936
-0.86236268 -0.4798055 0.3287335
-0.81335652 -0.45272025 0.22204581
-0.83775026 -0.46667191 0.13235934
-0.083597019 -0.0078897923 8.1989613
-0.82330674 -0.42922699 5.9028373
-1.1073027 -0.58614087 6.0468664
-1.0146482 -0.54588026 3.7305217
-0.95400757 -0.51750988 2.6164534
-0.93397421 -0.50914258 2.0166867
-0.91900778 -0.50262529 1.6110622
-0.90385765 -0.4955509 1.3107588
-0.3190273 -0.13332479 5.8197021
-0.55396163 -0.25566363 5.64744
-1.071474 -0.5704723 4.711081
-0.99148214 -0.53383356 3.1164114
-0.94502497 -0.51218861 2.2863612
-0.9224599 -0.50180906 1.7878458
-0.90436852 -0.49337924 1.4389081
-0.89640713 -0.49003467 1.1857939
-0.89373553 -0.49242193 1.0825521
-0.88197356 -0.48653275 0.89457643
-0.87305468 -0.48219794 0.73851454
-0.86969602 -0.48073053 0.6067248
-0.86476833 -0.47839233 0.48760688
-0.85643941 -0.47416672 0.37768659
-0.8378576 -0.46425566 0.27333307
-0.81858391 -0.45394123 0.17697962
-0.88674062 -0.48694995 0.98217851
-0.8700583 -0.4783715 0.8065148
-0.87023377 -0.47885478 0.66930163
-0.87153578 -0.48015705 0.54744929
-0.85648632 -0.47224739 0.42954585
-0.86403221 -0.47679237 0.3287335
-0.81059647 -0.44748512 0.22135513
-0.83937418 -0.46374479 0.13235934
-0.08362405 -0.0075979368 8.1989613
-0.82480001 -0.4263505 5.9028373
-1.1084403 -0.58179909 6.0419707
-1.0139133 -0.54093039 3.7209778
-0.9540875 -0.51325125 2.6118507
-0.93363875 -0.50474054 2.0122976
-0.91828293 -0.49807286 1.6069292
-0.90558189 -0.49239284 1.3107588
-0.31735241 -0.13133772 5.7797689
-0.55533588 -0.25394917 5.652411
-1.0701237 -0.56496882 4.6965628
-0.99029469 -0.52874428 3.1070261
-0.94680715 -0.50888669 2.2863612
-0.92191041 -0.49734795 1.7835798
-0.90343487 -0.48878571 1.4349182
-0.89513183 -0.4852871 1.1821188
-0.89231944 -0.48758939 1.0790474
-0.88025177 -0.48158315 0.89143795
-0.87473249 -0.47914746 0.73851454
-0.87136877 -0.47769183 0.6067248
-0.86643296 -0.47537079 0.48760688
-0.85388446 -0.46886551 0.37627655
-0.83516794 -0.45896238 0.27240044
-0.81579995 -0.44868118 0.17653254
-0.88843507 -0.48385167 0.98217851
-0.87172288 -0.47533149 0.8065148
-0.8718999 -0.47581419 0.66930163
-0.86922365 -0.47493586 0.54535127
-0.85812962 -0.46925485 0.42954585
-0.86569124 -0.47377342 0.3287335
-0.81215358 -0.44465286 0.22135513
-0.8366065 -0.45841131 0.13215782
-0.08365006 -0.0073059881 8.1989613
-0.82628322 -0.42346883 5.9028373
-1.109561 -0.57745653 6.0370755
-1.0131562 -0.53599232 3.7114339
-0.95242554 -0.50807917 2.6026456
-0.9332841 -0.50034708 2.0079086
-0.91753751 -0.49353158 1.6027963
-0.9044739 -0.48770773 1.3069214
-0.32316235 -0.13239206 5.8796024
-0.55670488 -0.25222823 5.6573825
-1.0687481 -0.55948174 4.682044
-0.98908383 -0.52366984 3.0976403
-0.94665641 -0.50455493 2.2818599
-0.92134106 -0.49289683 1.7793139
-0.90513557 -0.48562917 1.4349182
-0.89682037 -0.48215955 1.1821188
-0.89401597 -0.48447165 1.0790474
-0.88192743 -0.47850755 0.89143795
-0.87272543 -0.47409534 0.73577309
-0.8730309 -0.47464728 0.6067248
-0.86808699 -0.47234347 0.48760688
-0.8555159 -0.46588203 0.37627655
-0.83676493 -0.45604432 0.27240044
-0.81736118 -0.44583079 0.17653254
-0.88683325 -0.47897336 0.97885299
-0.86982119 -0.47036323 0.80357164
-0.86976427 -0.47071615 0.66676843
-0.87087619 -0.47189882 0.54535127
-0.85561126 -0.4640055 0.42790234
-0.86306775 -0.46843016 0.32756117
-0.81370074 -0.44181523 0.22135513
-0.83820158 -0.4554882 0.13215782
-0.083675057 -0.0070139505 8.1989613
-0.8270635 -0.42023033 5.8978982
-1.1115699 -0.57357991 6.0370755
-1.012377 -0.53106606 3.7018898
-0.95246625 -0.50383824 2.5980432
-0.93291008 -0.49596223 2.0035193
-0.91677171 -0.48900169 1.5986633
-0.90617079 -0.48454759 1.3069214
-0.32228228 -0.13072716 5.8546438
-0.55855536 -0.25071827 5.667326
-1.0684631 -0.55459005 4.6723657
-0.98784977 -0.5186103 3.0882547
-0.94648713 -0.50023049 2.2773588
-0.92075193 -0.48845577 1.775048
-0.90416491 -0.48105159 1.4309281
-0.89550626 -0.47743139 1.1784436
-0.89256018 -0.47966 1.0755429
-0.88016462 -0.47358206 0.88829952
-0.87437499 -0.47104606 0.73577309
-0.87468243 -0.47159693 0.6067248
-0.86565071 -0.46710902 0.48573387
-0.852916 -0.46061349 0.37486652
-0.83403033 -0.4507851 0.27146783
-0.81453222 -0.44060558 0.17608546
-0.88849974 -0.47587481 0.97885299
-0.87145776 -0.46732411 0.80357164
-0.86760372 -0.46563885 0.66423523
-0.86852026 -0.46670783 0.54325318
-0.85722572 -0.46101603 0.42790234
-0.86041754 -0.46311101 0.32638884
-0.8108778 -0.43662444 0.22066444
-0.83538842 -0.4501895 0.13195628
-0.083699025 -0.0067218272 8.1989613
-0.82783127 -0.4169915 5.8929591
-1.1126587 -0.56923282 6.0321808
-1.0115758 -0.5261519 3.6923459
-0.9524889 -0.49960318 2.5934405
-0.93251681 -0.49158612 1.9991302
-0.91598547 -0.48448309 1.5945303
-0.90502471 -0.47988018 1.3030838
-0.32246822 -0.12949511 5.8496523
-0.55991453 -0.2489827 5.672297
-1.067039 -0.54913211 4.6578469
-0.98659235 -0.51356578 3.0788693
-0.94629914 -0.4959133 2.2728574
-0.92014313 -0.48402485 1.7707821
-0.90317339 -0.47648674 1.4269381
-0.89417005 -0.47271827 1.1747683
-0.89422911 -0.47654149 1.0755429
-0.87837821 -0.46867469 0.88516104
-0.87232566 -0.46602091 0.73303157
-0.87241673 -0.4664523 0.604406
-0.86727589 -0.46408451 0.48573387
-0.85451865 -0.45763344 0.37486652
-0.83126915 -0.4455505 0.2705352
-0.81606525 -0.43775964 0.17608546
-0.89015543 -0.47277048 0.97885299
-0.87308371 -0.46427932 0.80357164
-0.86922377 -0.4626075 0.66423523
-0.87014407 -0.46367329 0.54325318
-0.85882974 -0.45802096 0.42790234
-0.85774076 -0.45781612 0.32521653
-0.812397 -0.43379131 0.22066444
-0.8325485 -0.44491604 0.13175476
-0.08372198 -0.0064296224 8.1989613
-0.82858646 -0.41375247 5.8880196
-1.1137308 -0.56488508 6.0272856
-1.0120795 -0.52193367 3.6875737
-0.95249367 -0.49537414 2.5888383
-0.93210453 -0.48721886 1.9947413
-0.91517878 -0.47997597 1.5903975
-0.90385723 -0.47522673 1.2992463
-0.56175673 -0.24745473 5.6822405
-1.06671 -0.54426205 4.6481686
-0.98531181 -0.50853634 3.0694838
-0.94609261 -0.49160358 2.2683563
-0.91951454 -0.47960413 1.7665161
-0.902161 -0.47193468 1.4229481
-0.89281201 -0.46802038 1.1710931
-0.89273387 -0.47175112 1.0720384
-0.88000888 -0.46560574 0.88516104
-0.87394708 -0.46297309 0.73303157
-0.87403965 -0.46340418 0.604406
-0.86889058 -0.46105433 0.48573387
-0.85187405 -0.45239794 0.37345648
-0.83281934 -0.44264612 0.2705352
-0.81319171 -0.43256965 0.17563838
-0.88849664 -0.46792072 0.97552752
-0.87112361 -0.45934376 0.80062848
-0.86702073 -0.45755869 0.6617021
-0.86774451 -0.4585129 0.54115516
-0.86042333 -0.45502028 0.42790234
-0.85503751 -0.45254555 0.32404423
-0.81390619 -0.43095288 0.22066444
-0.82968205 -0.43966788 0.13155322
-0.083743915 -0.0061373385 8.1989613
-0.83002561 -0.41085765 5.8880196
-1.114786 -0.5605368 6.0223899
-1.012566 -0.51771837 3.682802
-0.95074415 -0.4902561 2.5796332
-0.93167299 -0.48286042 1.990352
-0.91435194 -0.47548047 1.5862645
-0.90266824 -0.47058725 1.2954088
-0.31851959 -0.12536156 5.7598023
-0.56359494 -0.24591693 5.692183
-1.065238 -0.53883386 4.6336503
-0.98400819 -0.50352216 3.0600982
-0.94586748 -0.48730132 2.263855
-0.91886634 -0.47519371 1.7622502
-0.90112787 -0.46739551 1.4189581
-0.89444023 -0.46490103 1.1710931
-0.89121616 -0.46697703 1.0685339
-0.87818187 -0.46072295 0.88202262
-0.87185591 -0.45797527 0.73029011
-0.8717308 -0.45828915 0.6020872
-0.87049466 -0.45801854 0.48573387
-0.85344803 -0.44942158 0.37345648
-0.83001375 -0.43744609 0.2696026
-0.81469673 -0.42972848 0.17563838
-0.8901245 -0.46481645 0.97552752
-0.87272167 -0.45630017 0.80062848
-0.86861265 -0.45452943 0.6617021
-0.8693397 -0.45548111 0.54115516
-0.85782427 -0.4498212 0.42625883
-0.85230815 -0.44729951 0.32287189
-0.81540561 -0.4281092 0.22066444
-0.83121175 -0.4367691 0.13155322
-0.083764829 -0.00584498 8.1989613
-0.83005941 -0.40727392 5.8781414
-1.1149131 -0.5557341 6.0125999
-1.011704 -0.51283139 3.6732578
-0.95070994 -0.4860453 2.5750306
-0.93122244 -0.47851092 1.9859631
-0.91350484 -0.47099653 1.5821315
-0.90145797 -0.46596193 1.2915714
-0.56493962 -0.24415872 5.6971545
-1.0648649 -0.53398573 4.623971
-0.98268163 -0.49852332 3.0507126
-0.94562393 -0.48300669 2.2593539
-0.92051953 -0.47198334 1.7622502
-0.90007401 -0.46286932 1.414968
-0.89304388 -0.46022323 1.167418
-0.8928408 -0.46386325 1.0685339
-0.87978476 -0.45765474 0.88202262
-0.87344927 -0.45492914 0.73029011
-0.87332529 -0.45524344 0.6020872
-0.86797792 -0.45283294 0.48386082
-0.85075927 -0.44421953 0.37204644
-0.8315357 -0.43454614 0.2696026
-0.81619179 -0.42688203 0.17563838
-0.88842589 -0.45998996 0.972202
-0.87072057 -0.45139086 0.79768533
-0.86636746 -0.4495095 0.6591689
-0.87092435 -0.45244378 0.54115516
-0.85938925 -0.4468241 0.42625883
-0.84955245 -0.44207802 0.32169959
-0.81689501 -0.42526028 0.22066444
-0.83273131 -0.43386495 0.13155322
-0.083784722 -0.0055525512 8.1989613
-0.83077705 -0.40403447 5.8732018
-1.1159333 -0.55138814 6.0077043
-1.0121539 -0.50862676 3.6684859
-0.95065808 -0.48184076 2.5704281
-0.93075299 -0.47417051 1.9815739
-0.91514337 -0.46780494 1.5821315
-0.90307897 -0.46281239 1.2915714
-0.3242448 -0.12498013 5.8496523
-0.5667693 -0.24260299 5.707098
-1.0633453 -0.52858758 4.6094532
-0.98133224 -0.49353984 3.0413272
-0.94536191 -0.47871962 2.2548525
-0.91983646 -0.46758571 1.7579843
-0.90168428 -0.45972463 1.414968
-0.89464492 -0.4571031 1.167418
-0.89128405 -0.45911092 1.0650293
-0.88137692 -0.45458093 0.88202262
-0.87131661 -0.44995898 0.72754866
-0.87097371 -0.45015842 0.5997684
-0.86955327 -0.44980034 0.48386082
-0.85230476 -0.44124711 0.37204644
-0.83304745 -0.43164089 0.2696026
-0.81325603 -0.42173782 0.1751913
-0.88670427 -0.455181 0.96887648
-0.86869591 -0.44650117 0.79474217
-0.86793125 -0.44648257 0.6591689
-0.87249833 -0.44940093 0.54115516
-0.85674638 -0.44165793 0.42461532
-0.84677082 -0.43688127 0.32052726
-0.81397402 -0.42013496 0.21997377
-0.83424067 -0.43095553 0.13155322
-0.083803594 -0.005260054 8.1989613
-0.83148223 -0.40079498 5.8682623
-1.1169366 -0.54704177 6.002809
-1.0112507 -0.50375986 3.658942
-0.94884253 -0.47676557 2.5612228
-0.93026459 -0.46983922 1.977185
-0.91426051 -0.46333575 1.5779986
-0.90183133 -0.45820561 1.2877338
-0.322247 -0.12293338 5.8047271
-0.56908619 -0.24124463 5.722012
-1.0629286 -0.52376187 4.5997739
-0.98150456 -0.48934165 3.0366344
-0.94508153 -0.47444037 2.2503514
-0.9191339 -0.46319854 1.7537184
-0.90059417 -0.45521531 1.410978
-0.89321071 -0.45244572 1.1637428
-0.89288121 -0.45599699 1.0650293
-0.88295835 -0.45150158 0.88202262
-0.87288195 -0.44691479 0.72754866
-0.87253976 -0.44711542 0.5997684
-0.87111813 -0.44676232 0.48386082
-0.85383976 -0.43826935 0.37204644
-0.83017963 -0.42648575 0.26866996
-0.81472319 -0.41889647 0.1751913
-0.88828778 -0.45208305 0.96887648
-0.87024921 -0.44346613 0.79474217
-0.86948448 -0.44345018 0.6591689
-0.8740617 -0.44635263 0.54115516
-0.85407794 -0.43651566 0.42297181
-0.84829062 -0.43392283 0.32052726
-0.81543559 -0.41729107 0.21997377
-0.83573991 -0.42804086 0.13155322
-0.083821446 -0.004967493 8.1989613
-0.83287627 -0.39789012 5.8682623
-1.1179231 -0.54269511 5.9979138
-1.0103259 -0.49890554 3.6493979
-0.94875216 -0.47257981 2.5566204
-0.93189895 -0.46658912 1.977185
-0.91335762 -0.45887849 1.5738657
-0.90342528 -0.45505482 1.2877338
-0.32348591 -0.12210967 5.8197021
-0.57090861 -0.23966759 5.7319555
-1.0613618 -0.51839417 4.5852556
-0.98011231 -0.48438391 3.0272489
-0.94478279 -0.47016886 2.2458501
-0.91841197 -0.45882204 1.7494525
-0.90217769 -0.45206887 1.410978
-0.89175487 -0.44780394 1.1600677
-0.89446753 -0.45287743 1.0650293
-0.88105726 -0.44665691 0.87888414
-0.87070799 -0.44197267 0.7248072
-0.87014562 -0.44206062 0.59744954
-0.86853981 -0.44161773 0.4819878
-0.85536444 -0.43528619 0.37204644
-0.83166331 -0.4235853 0.26866996
-0.81618047 -0.41604999 0.1751913
-0.88652682 -0.44729787 0.96555102
-0.86818409 -0.43860325 0.79179901
-0.87102711 -0.44041243 0.6591689
-0.87156522 -0.44124898 0.53905708
-0.85559648 -0.4335317 0.42297181
-0.84546506 -0.42876077 0.31935495
-0.81688726 -0.41444212 0.21997377
-0.8327744 -0.4228591 0.13135168
-0.083838277 -0.004674871 8.1989613
-0.83355761 -0.39464825 5.8633232
-1.1188933 -0.53834838 5.9930191
-1.0107206 -0.49471986 3.6446261
-0.94864404 -0.46840042 2.5520179
-0.93137652 -0.46226883 1.9727957
-0.91243488 -0.45443323 1.5697327
-0.9021405 -0.45046684 1.2838963
-0.32391021 -0.12097975 5.8197021
-0.57321948 -0.23828448 5.74687
-1.060902 -0.51359123 4.5755773
-0.98024732 -0.4802008 3.0225561
-0.94446582 -0.46590528 2.241349
-0.92000794 -0.45561337 1.7494525
-0.90375018 -0.44891691 1.410978
-0.8902775 -0.44317782 1.1563925
-0.89604288 -0.44975242 1.0650293
-0.88261098 -0.44357875 0.87888414
-0.87224543 -0.43893063 0.7248072
-0.86772692 -0.43702808 0.59513074
-0.87007606 -0.43858328 0.4819878
-0.85687864 -0.4322978 0.37204644
-0.83313686 -0.42067966 0.26866996
-0.81762779 -0.41319847 0.1751913
-0.8880828 -0.44420058 0.96555102
-0.86970973 -0.43557003 0.79179901
-0.87255913 -0.43736932 0.6591689
-0.87310016 -0.43820396 0.53905708
-0.85288477 -0.42842293 0.42132831
-0.84695661 -0.42580691 0.31935495
-0.81390488 -0.40936312 0.21928309
-0.83424538 -0.41994956 0.13135168
-0.083854079 -0.0043821922 8.1989613
-0.83493018 -0.39173618 5.8633232
-1.1198463 -0.53400135 5.9881234
-1.009755 -0.48988611 3.6350818
-0.94851846 -0.46422765 2.5474155
-0.93083549 -0.45795789 1.9684068
-0.91401559 -0.45124546 1.5697327
-0.90370739 -0.44731504 1.2838963
-0.32351667 -0.11955214 5.8047271
-0.57552755 -0.23688814 5.7617841
-1.0592879 -0.50825429 4.5610585
-0.9803651 -0.47602266 3.0178635
-0.94217485 -0.4606936 2.2323468
-0.91925144 -0.45125017 1.7451864
-0.9053117 -0.44575948 1.410978
-0.89181906 -0.4400675 1.1563925
-0.89441448 -0.44503346 1.0615247
-0.88067001 -0.4387596 0.87574571
-0.87003052 -0.43401685 0.72206575
-0.8692472 -0.4339965 0.59513074
-0.86745465 -0.43347132 0.48011476
-0.85838246 -0.42930406 0.37204644
-0.83020747 -0.41557017 0.26773736
-0.81906515 -0.41034189 0.1751913
-0.88962793 -0.44109792 0.96555102
-0.86760443 -0.43073434 0.78885585
-0.87021989 -0.43240273 0.6566357
-0.87462443 -0.4351536 0.53905708
-0.85437506 -0.4254432 0.42132831
-0.84408742 -0.42067984 0.31818265
-0.8153289 -0.40651953 0.21928309
-0.83123595 -0.41480422 0.13115016
-0.083868861 -0.0040894607 8.1989613
-0.8355878 -0.38849208 5.8583841
-1.1198621 -0.52921945 5.978333
-1.0087681 -0.48506516 3.6255379
-0.94837523 -0.4600614 2.5428128
-0.9302755 -0.45365635 1.9640176
-0.91305745 -0.44681552 1.5655998
-0.9052633 -0.44415778 1.2838963
-0.3214874 -0.117542 5.7598023
-0.57783294 -0.23547861 5.7766986
-1.0587852 -0.50347447 4.5513802
-0.98046565 -0.47184959 3.0131705
-0.94181812 -0.45645285 2.2278454
-0.92082095 -0.44803864 1.7451864
-0.90415418 -0.44127527 1.406988
-0.89030427 -0.43546247 1.1527174
-0.89596248 -0.44190866 1.0615247
-0.88219619 -0.43568283 0.87574571
-0.87154019 -0.43097726 0.72206575
-0.86678666 -0.42899483 0.59281194
-0.86896241 -0.43044069 0.48011476
-0.85987574 -0.42630515 0.37204644
-0.83165306 -0.41266966 0.26773736
-0.82049251 -0.40748033 0.1751913
-0.89116222 -0.43798983 0.96555102
-0.86910272 -0.4277032 0.78885585
-0.87172395 -0.42936245 0.6566357
-0.87206757 -0.43009061 0.53695905
-0.85585493 -0.42245826 0.42132831
-0.84555072 -0.41773087 0.31818265
-0.81230348 -0.40147692 0.21859241
-0.83267879 -0.41190013 0.13115016
-0.083839022 -0.0037983616 8.1939611
-0.8369388 -0.38557297 5.8583841
-1.1207803 -0.52487552 5.9734378
-1.0077599 -0.48025715 3.615994
-0.94997537 -0.45674816 2.5428128
-0.92969704 -0.44936433 1.9596287
-0.91207951 -0.44239777 1.5614668
-0.90392566 -0.43959355 1.2800589
-0.32189572 -0.11641909 5.7598023
-0.57964081 -0.23385727 5.7866421
-1.0571246 -0.49816877 4.5368614
-0.98054916 -0.46768165 3.0084779
-0.94144326 -0.45222011 2.2233443
-0.92003012 -0.44368905 1.7409205
-0.90568894 -0.43811649 1.406988
-0.89181888 -0.43235207 1.1527174
-0.89429563 -0.43721232 1.0580202
-0.88371164 -0.43260074 0.87574571
-0.86928457 -0.42609215 0.71932429
-0.8682788 -0.42596656 0.59281194
-0.86629832 -0.42536169 0.47824174
-0.86135858 -0.42330101 0.37204644
-0.83308852 -0.40976414 0.26773736
-0.82190984 -0.40461376 0.1751913
-0.89268565 -0.43487644 0.96555102
-0.86695743 -0.42289495 0.78591269
-0.86934358 -0.42442587 0.65410256
-0.87356359 -0.42704388 0.53695905
-0.85308266 -0.41739297 0.4196848
-0.84263837 -0.41263917 0.31701031
-0.81369996 -0.39863902 0.21859241
-0.82962579 -0.40679157 0.13094862
-0.08385177 -0.0035056851 8.1939611
-0.83757257 -0.38232681 5.8534451
-1.1216822 -0.52053177 5.9685426
-1.0067303 -0.47546202 3.6064501
-0.94980019 -0.45258924 2.5382104
-0.92909986 -0.44508189 1.9552395
-0.91108191 -0.43799233 1.5573338
-0.90545458 -0.43643561 1.2800589
-0.58144432 -0.23222621 5.7965846
-1.0565791 -0.49341246 4.5271826
-0.98061532 -0.46351877 3.0037851
-0.94105041 -0.44799566 2.218843
-0.92157334 -0.44047481 1.7409205
-0.90449554 -0.43364993 1.402998
-0.8902669 -0.42776835 1.1490422
-0.89260685 -0.43253306 1.0545157
-0.88171434 -0.42781442 0.87260723
-0.87076658 -0.42305517 0.71932429
-0.8657766 -0.4209961 0.59049314
-0.86777782 -0.42233515 0.47824174
-0.85851824 -0.41819113 0.3706364
-0.83451372 -0.40685365 0.26773736
-0.81884164 -0.39955845 0.17474423
-0.89083582 -0.43013442 0.9622255
-0.86842829 -0.41986611 0.78591269
-0.86693937 -0.41951117 0.65156937
-0.87504888 -0.42399201 0.53695905
-0.85453445 -0.41441259 0.4196848
-0.83970094 -0.40757295 0.31583801
-0.81063181 -0.39363316 0.21790172
-0.82654738 -0.40170935 0.13074709
-0.083863497 -0.0032129667 8.1939611
-0.83890206 -0.37940079 5.8534451
-1.1225671 -0.51618803 5.9636474
-1.0056797 -0.47068003 3.5969059
-0.95137423 -0.44927102 2.5382104
-0.92848414 -0.44080907 1.9508505
-0.91260529 -0.43480942 1.5573338
-0.90408027 -0.4318909 1.2762213
-0.32924387 -0.11644761 5.8796024
-0.58324355 -0.23058538 5.8065281
-1.0560132 -0.48866603 4.5175037
-0.97910166 -0.45862946 2.9943995
-0.94063962 -0.4437795 2.2143419
-0.92074811 -0.43613902 1.7366546
-0.90328199 -0.42919704 1.3990079
-0.89175469 -0.42465815 1.1490422
-0.89411128 -0.4294146 1.0545157
-0.88320231 -0.42473406 0.87260723
-0.87223804 -0.42001307 0.71932429
-0.86724085 -0.4179714 0.59049314
-0.86507118 -0.41728944 0.4763687
-0.85997277 -0.41519177 0.3706364
-0.83150578 -0.40180093 0.26680472
-0.82023138 -0.39669776 0.17474423
-0.89233184 -0.42702222 0.9622255
-0.86624348 -0.4150857 0.78296953
-0.86839843 -0.41648245 0.65156937
-0.87243235 -0.41897032 0.53486103
-0.85171968 -0.40938163 0.41804129
-0.83673829 -0.40253228 0.31466568
-0.80753869 -0.38865361 0.21721105
-0.82344359 -0.39665359 0.13054556
-0.083874203 -0.0029202087 8.1939611
-0.83951205 -0.37615275 5.8485055
-1.1234354 -0.51184452 5.9587522
-1.004608 -0.46591109 3.5873621
-0.95116699 -0.44511956 2.5336077
-0.92784989 -0.436546 1.9464613
-0.91157269 -0.43041989 1.553201
-0.90558237 -0.42873245 1.2762213
-0.33101314 -0.11576756 5.9045606
-0.58503836 -0.22893482 5.8164706
-1.0554272 -0.48392957 4.5078249
-0.97913134 -0.4544827 2.989707
-0.93823862 -0.43864983 2.2053394
-0.91990393 -0.43181434 1.7323887
-0.90204841 -0.42475793 1.395018
-0.89016557 -0.42009607 1.145367
-0.89238453 -0.42475846 1.0510111
-0.8811658 -0.41997406 0.86946881
-0.87369883 -0.41696581 0.71932429
-0.86869454 -0.41494164 0.59049314
-0.86652255 -0.41426721 0.4763687
-0.86141682 -0.41218737 0.3706364
-0.83290333 -0.39889598 0.26680472
-0.81712037 -0.39167961 0.17429715
-0.89044333 -0.42230502 0.95890003
-0.86768711 -0.41205943 0.78296953
-0.86595356 -0.41159821 0.64903617
-0.87388951 -0.4159224 0.53486103
-0.85314351 -0.40640607 0.41804129
-0.83375078 -0.39751726 0.31349337
-0.80889046 -0.3858324 0.21721105
-0.82031471 -0.39162448 0.13034403
-0.083883882 -0.0026274151 8.1939611
-0.84081995 -0.37322003 5.8485055
-1.1242869 -0.50750113 5.9538565
-1.0035154 -0.46115544 3.5778182
-0.95094252 -0.44097504 2.5290053
-0.92719734 -0.43229279 1.9420724
-0.91306955 -0.42723531 1.553201
-0.90417147 -0.4242076 1.2723838
-0.58682883 -0.22727455 5.8264141
-1.0536766 -0.47868356 4.4933071
-0.97914374 -0.45034125 2.985014
-0.93778861 -0.43445724 2.2008381
-0.9190408 -0.42750096 1.7281228
-0.90352559 -0.4216066 1.395018
-0.89162654 -0.41698626 1.145367
-0.89386183 -0.4216409 1.0510111
-0.88262647 -0.41689566 0.86946881
-0.871369 -0.41212592 0.71658283
-0.87013769 -0.41190678 0.59049314
-0.86377376 -0.40925512 0.47449568
-0.86285043 -0.40917796 0.3706364
-0.83429062 -0.39598617 0.26680472
-0.81848264 -0.38882497 0.17429715
-0.89191204 -0.41919422 0.95890003
-0.86546278 -0.40730709 0.78002638
-0.86738503 -0.40857297 0.64903617
-0.87123114 -0.41093346 0.53276294
-0.8502866 -0.40140972 0.41639778
-0.83073854 -0.39252806 0.31232107
-0.80575526 -0.38089019 0.21652037
-0.82167667 -0.38875866 0.13034403
-0.08384899 -0.0023370325 8.188962
-0.84211761 -0.37028274 5.8485055
-1.1251221 -0.50315815 5.9489617
-1.0024017 -0.45641312 3.5682743
-0.95070064 -0.43683749 2.5244026
-0.92870069 -0.42905363 1.9420724
-0.91200227 -0.42286202 1.549068
-0.90274018 -0.41969779 1.2685463
-0.32852989 -0.11234888 5.8446603
-0.58861476 -0.22560456 5.8363571
-1.0530484 -0.47397128 4.4836278
-0.97913945 -0.44620538 2.9803214
-0.93732095 -0.43027318 2.196337
-0.91815883 -0.42319885 1.7238568
-0.90225661 -0.41718572 1.3910279
-0.89000064 -0.41244614 1.1416919
-0.89209741 -0.41700816 1.0475066
-0.88055098 -0.4121623 0.86633033
-0.87280232 -0.40908176 0.71658283
-0.87157017 -0.40886694 0.59049314
-0.86519706 -0.40623748 0.47449568
-0.86427349 -0.40616357 0.3706364
-0.83122271 -0.39098081 0.26587209
-0.81532925 -0.38384441 0.17385007
-0.88998508 -0.41450214 0.95557451
-0.86687934 -0.40428361 0.78002638
-0.86489964 -0.40371957 0.64650303
-0.87266028 -0.40788978 0.53276294
-0.8516826 -0.39843926 0.41639778
-0.83210367 -0.38962585 0.31232107
-0.80707991 -0.37807527 0.21652037
-0.82302874 -0.3858881 0.13034403
-0.083900183 -0.0020417362 8.1939611
-0.84269249 -0.36703101 5.8435659
-1.1259406 -0.49881545 5.9440665
-1.0026281 -0.45229775 3.5635023
-0.94866341 -0.43189782 2.5151978
-0.92801487 -0.42481259 1.9376832
-0.91347283 -0.41967598 1.549068
-0.90419972 -0.41654411 1.2685463
-0.3280983 -0.11092804 5.8296857
-0.59089488 -0.22411302 5.8512716
-1.0512521 -0.46875763 4.4691095
-0.97911805 -0.44207489 2.9756284
-0.93683541 -0.42609763 2.1918356
-0.91725796 -0.41890809 1.7195909
-0.90096784 -0.41277888 1.3870379
-0.88835394 -0.40792248 1.1380167
-0.89354759 -0.41389164 1.0475066
-0.87845325 -0.40744853 0.8631919
-0.8704325 -0.40427139 0.71384138
-0.86897504 -0.40395486 0.58817434
-0.86660987 -0.4032149 0.47449568
-0.86568594 -0.40314421 0.3706364
-0.83258241 -0.38807693 0.26587209
-0.81666416 -0.38099602 0.17385007
-0.88803625 -0.40982857 0.95224905
-0.86461604 -0.39955974 0.77708322
-0.86630362 -0.40069804 0.64650303
-0.86996037 -0.40293384 0.53066492
-0.85306823 -0.39546388 0.41639778
-0.82904947 -0.38467315 0.31114873
-0.80390304 -0.37317073 0.21582969
-0.82437068 -0.38301283 0.13034403
-0.0839068 -0.0017488574 8.1939611
-0.84325498 -0.36377978 5.8386273
-1.1267424 -0.49447322 5.9391713
-1.0028378 -0.44818634 3.5587301
-0.94838434 -0.42778072 2.5105953
-0.92949206 -0.42157066 1.9376832
-0.91237092 -0.41531917 1.544935
-0.90273219 -0.4120546 1.2647089
-0.59317178 -0.22260828 5.8661857
-1.0505821 -0.4640699 4.4594307
-0.97750443 -0.4372457 2.966243
-0.93633223 -0.42193079 2.1873345
-0.9187147 -0.41570371 1.7195909
-0.90240324 -0.4096314 1.3870379
-0.88977247 -0.40481904 1.1380167
-0.89174563 -0.40928265 1.0440021
-0.87987018 -0.40437967 0.8631919
-0.87183839 -0.40123054 0.71384138
-0.87037981 -0.40091911 0.58817434
-0.86801207 -0.40018743 0.47449568
-0.8670879 -0.40011993 0.3706364
-0.83393198 -0.38516831 0.26587209
-0.81346875 -0.37605336 0.17340299
-0.8894614 -0.40672627 0.95224905
-0.86600548 -0.39653921 0.77708322
-0.867697 -0.39767164 0.64650303
-0.87136161 -0.39989465 0.53066492
-0.85444349 -0.39248371 0.41639778
-0.83038718 -0.38177687 0.31114873
-0.80520076 -0.37036234 0.21582969
-0.82570261 -0.38013291 0.13034403
-0.083912395 -0.0014559571 8.1939611
-0.84380502 -0.36052909 5.8336878
-1.1275276 -0.49013144 5.9342756
-1.0016662 -0.44347498 3.5491862
-0.94987178 -0.42446765 2.5105953
-0.9287734 -0.41734222 1.9332942
-0.91124982 -0.41097519 1.5408021
-0.90416509 -0.40890098 1.2647089
-0.32337347 -0.10685059 5.7298527
-0.59494525 -0.22090572 5.8761292
-1.0487406 -0.45888898 4.4449124
-0.97744691 -0.43313202 2.96155
-0.93581134 -0.41777262 2.1828332
-0.91778022 -0.41142771 1.715325
-0.90107936 -0.40524325 1.3830478
-0.8880893 -0.40031773 1.1343416
-0.89316887 -0.40616739 1.0440021
-0.87773395 -0.39969301 0.86005342
-0.86942893 -0.39645013 0.71109986
-0.86774403 -0.39603937 0.58585554
-0.86940366 -0.39715505 0.47449568
-0.86411667 -0.39509618 0.3692264
-0.83080471 -0.38021088 0.26493949
-0.81477648 -0.37321153 0.17340299
-0.88747466 -0.40207836 0.94892353
-0.86738437 -0.39351389 0.77708322
-0.86907989 -0.39464039 0.64650303
-0.87275219 -0.39685059 0.53066492
-0.85580826 -0.38949877 0.41639778
-0.82729137 -0.37686107 0.3099764
-0.80648863 -0.36754939 0.21582969
-0.82702452 -0.37724835 0.13034403
-0.083916962 -0.0011630399 8.1939611
-0.84505838 -0.35758147 5.8336878
-1.1282964 -0.48579025 5.9293809
-1.0018409 -0.43937653 3.5444143
-0.94956106 -0.42035878 2.5059927
-0.93022454 -0.41409764 1.9332942
-0.91267884 -0.40779185 1.5408021
-0.90266174 -0.404432 1.2608713
-0.32374448 -0.10572115 5.7298527
-0.59671408 -0.21919349 5.8860717
-1.0480292 -0.45422617 4.4352341
-0.97737259 -0.42902413 2.9568574
-0.93527293 -0.41362327 2.1783321
-0.91921079 -0.40822151 1.715325
-0.90248847 -0.40209544 1.3830478
-0.88948131 -0.39721531 1.1343416
-0.8945812 -0.4030472 1.0440021
-0.87912375 -0.39662671 0.86005342
-0.87080753 -0.39341286 0.71109986
-0.86508477 -0.39118293 0.58353674
-0.8707847 -0.39411786 0.47449568
-0.8654905 -0.39207745 0.3692264
-0.83212674 -0.37730852 0.26493949
-0.81153941 -0.36830711 0.17295592
-0.8888728 -0.39897802 0.94892353
-0.86875278 -0.39048374 0.77708322
-0.87045211 -0.39160433 0.64650303
-0.8699941 -0.3919377 0.52856684
-0.85285783 -0.38456807 0.41475427
-0.82860184 -0.37397099 0.3099764
-0.80776668 -0.36473197 0.21582969
-0.8283363 -0.37435922 0.13034403
-0.083920516 -0.00087010802 8.1939611
-0.84558469 -0.35432947 5.8287487
-1.1290485 -0.48144963 5.9244857
-1.0006301 -0.43468782 3.5348704
-0.94923335 -0.41625732 2.5013902
-0.9294728 -0.40988192 1.928905
-0.91152346 -0.40346479 1.5366691
-0.90406799 -0.40127867 1.2608713
-0.32741368 -0.10563793 5.7897525
-0.59797698 -0.21729043 5.8910437
-1.0484533 -0.45006955 4.4303942
-0.97728157 -0.42492202 2.9521646
-0.93671107 -0.41035604 2.1783321
-0.91824281 -0.40396047 1.7110591
-0.90112972 -0.39772624 1.3790579
-0.88776201 -0.3927367 1.1306664
-0.89272594 -0.39846867 1.0404975
-0.87694925 -0.39196742 0.85691494
-0.87217551 -0.39037076 0.71109986
-0.866445 -0.38816082 0.58353674
-0.86792499 -0.38917917 0.47262263
-0.8624773 -0.38708976 0.36781636
-0.83343875 -0.37440157 0.26493949
-0.81282014 -0.36547208 0.17295592
-0.88684827 -0.39435598 0.94559801
-0.86641788 -0.38580483 0.77414006
-0.87181377 -0.38856348 0.64650303
-0.87135696 -0.38889846 0.52856684
-0.85419506 -0.3815887 0.41475427
-0.82546496 -0.36909238 0.30880409
-0.80903494 -0.36191016 0.21582969
-0.829638 -0.3714655 0.13034403
-0.083879545 -0.00058051955 8.188962
-0.84681636 -0.35137567 5.8287487
-1.1297841 -0.47710973 5.9195905
-1.0007701 -0.43060255 3.5300984
-0.94888848 -0.41216326 2.4967875
-0.93089789 -0.40663496 1.928905
-0.91292626 -0.40028054 1.5366691
-0.90252894 -0.39683059 1.2570338
-0.32778046 -0.1044944 5.7897525
-0.59923375 -0.21538121 5.8960152
-1.0477041 -0.44542393 4.4207153
-0.97717392 -0.42082581 2.9474719
-0.9361406 -0.40621746 2.1738307
-0.9172563 -0.3997111 1.7067931
-0.90251261 -0.39457831 1.3790579
-0.88912749 -0.38963541 1.1306664
-0.89411139 -0.39535007 1.0404975
-0.87831211 -0.38890389 0.85691494
-0.86971027 -0.38562924 0.70835841
-0.86374563 -0.38333717 0.58121794
-0.86927813 -0.38614714 0.47262263
-0.86382324 -0.3840768 0.36781636
-0.83025271 -0.36949283 0.26400685
-0.80954188 -0.36060625 0.17250884
-0.88821942 -0.39125791 0.94559801
-0.86775935 -0.38277811 0.77414006
-0.86922109 -0.3837769 0.64396977
-0.87270916 -0.38585448 0.52856684
-0.85120362 -0.37669379 0.41311076
-0.82674831 -0.36620873 0.30880409
-0.81029332 -0.35908389 0.21582969
-0.83092964 -0.36856726 0.13034403
-0.083881058 -0.00028772125 8.188962
-0.84803778 -0.34841761 5.8287487
-1.1295637 -0.47237796 5.9098001
-1.0008938 -0.42652172 3.5253265
-0.94852668 -0.40807667 2.4921851
-0.93011349 -0.40243223 1.9245161
-0.91173661 -0.39597064 1.5325361
-0.90390867 -0.39367774 1.2570338
-0.32207599 -0.10147148 5.6799359
-0.60048443 -0.21346582 5.9009862
-1.0480939 -0.44127655 4.4158759
-0.97863692 -0.41741228 2.9474719
-0.93755281 -0.40294728 2.1738307
-0.91625136 -0.39547357 1.7025272
-0.90111917 -0.39022833 1.3750678
-0.89048213 -0.38652942 1.1306664
-0.89548606 -0.39222664 1.0404975
-0.8796643 -0.38583568 0.85691494
-0.87105101 -0.38259101 0.70835841
-0.86507845 -0.38031983 0.58121794
-0.86637747 -0.38124338 0.47074962
-0.86515862 -0.38105917 0.36781636
-0.83153743 -0.36659247 0.26400685
-0.81079566 -0.35777822 0.17250884
-0.88615751 -0.38666207 0.94227254
-0.8690902 -0.37974674 0.77414006
-0.87055546 -0.38074043 0.64396977
-0.87405074 -0.38280579 0.52856684
-0.85251331 -0.37372023 0.41311076
-0.82357049 -0.36136767 0.30763176
-0.8115418 -0.35625324 0.21582969
-0.8276372 -0.36365482 0.1301425
-0.083881557 5.0792191e-06 8.188962
-0.84996867 -0.34574774 5.8336878
-1.1302649 -0.46804279 5.9049048
-1.0010011 -0.42244521 3.5205543
-0.94814795 -0.40399766 2.4875827
-0.92931104 -0.39823997 1.9201269
-0.91052818 -0.39167395 1.5284033
-0.90233415 -0.38925076 1.2531964
-0.32684547 -0.10169709 5.7598023
-0.60223234 -0.21172027 5.9109297
-1.0484676 -0.43713188 4.4110365
-0.9784981 -0.41332239 2.9427791
-0.93695062 -0.3988198 2.1693296
-0.9176262 -0.39227286 1.7025272
-0.89970642 -0.3858929 1.3710777
-0.89182597 -0.38341868 1.1306664
-0.89357805 -0.38767922 1.036993
-0.87743574 -0.38121191 0.85377645
-0.87238127 -0.37954816 0.70835841
-0.86233926 -0.37552929 0.57889915
-0.86770302 -0.3782168 0.47074962
-0.86648351 -0.37803689 0.36781636
-0.82831019 -0.36172178 0.26307425
-0.80747652 -0.35295132 0.17206176
-0.88750184 -0.38356644 0.94227254
-0.86670095 -0.37510547 0.7711969
-0.8679235 -0.37598589 0.64143664
-0.87538165 -0.37975246 0.52856684
-0.84948117 -0.36886147 0.41146725
-0.8248269 -0.35849068 0.30763176
-0.81278044 -0.35341823 0.21582969
-0.82890153 -0.36076361 0.1301425
-0.083837561 0.00029407005 8.1839619
-0.8511703 -0.34277868 5.8336878
-1.1309495 -0.46370852 5.9000092
-1.0010922 -0.41837317 3.5157826
-0.9477523 -0.3999263 2.4829803
-0.92849076 -0.39405826 1.9157379
-0.90930086 -0.38739052 1.5242703
-0.90073979 -0.38483959 1.2493588
-0.32830396 -0.10088934 5.7797689
-0.60347158 -0.20979099 5.9159012
-1.0488253 -0.43298998 4.4061971
-0.97675067 -0.40857291 2.9333935
-0.93833697 -0.39554679 2.1693296
-0.91658819 -0.38805082 1.6982613
-0.90104795 -0.38275003 1.3710777
-0.89003968 -0.37897542 1.1269913
-0.89492583 -0.38455772 1.036993
-0.87876105 -0.37814674 0.85377645
-0.8737008 -0.37650064 0.70835841
-0.86364484 -0.3725169 0.57889915
-0.86901796 -0.37518567 0.47074962
-0.86339432 -0.37310717 0.36640632
-0.82956785 -0.35882825 0.26307425
-0.8087036 -0.35013056 0.17206176
-0.88540268 -0.37899703 0.93894702
-0.86800504 -0.37207785 0.7711969
-0.86923069 -0.37295398 0.64143664
-0.87253189 -0.37490293 0.52646881
-0.85076356 -0.36589396 0.41146725
-0.82160866 -0.35368747 0.30645946
-0.81400913 -0.35057899 0.21582969
-0.82556802 -0.35589027 0.12994097
-0.083836019 0.00058671634 8.1839619
-0.85236168 -0.33980545 5.8336878
-1.1306742 -0.45899248 5.8902192
-1.0011672 -0.41430563 3.5110104
-0.94733977 -0.39586258 2.4783776
-0.9276526 -0.38988706 1.9113487
-0.91064751 -0.38421413 1.5242703
-0.90207767 -0.38169307 1.2493588
-0.32588753 -0.098917969 5.7298527
-0.60520893 -0.208028 5.9258437
-1.0491666 -0.42885092 4.4013577
-0.97657657 -0.40450087 2.9287009
-0.93770295 -0.39143062 2.1648283
-0.91553187 -0.38384086 1.6939954
-0.89960092 -0.37843427 1.3670877
-0.89135712 -0.37586629 1.1269913
-0.89298111 -0.38003513 1.0334884
-0.87649488 -0.37355116 0.85063797
-0.87116379 -0.37180737 0.70561695
-0.86493993 -0.36949995 0.57889915
-0.87032235 -0.37214994 0.47074962
-0.86469144 -0.37009108 0.36640632
-0.82629997 -0.35399595 0.26214162
-0.80534393 -0.34534287 0.17161468
-0.88672024 -0.37590408 0.93894702
-0.86557782 -0.36746633 0.76825374
-0.87052727 -0.36991754 0.64143664
-0.87383527 -0.37185496 0.52646881
-0.84769106 -0.36107162 0.40982375
-0.82283825 -0.35081735 0.30645946
-0.81522793 -0.3477354 0.21582969
-0.82680523 -0.35300636 0.12994097
-0.083833463 0.00087935553 8.1839619
-0.85426551 -0.33711299 5.8386273
-1.1313246 -0.45466349 5.885324
-1.0012258 -0.41024268 3.5062382
-0.94691056 -0.39180666 2.4737751
-0.92900795 -0.3866466 1.9113487
-0.90938652 -0.37994841 1.5201373
-0.9004482 -0.37730342 1.2455213
-0.6069414 -0.20625544 5.9357872
-1.0494919 -0.42471471 4.3965182
-0.97638583 -0.40043494 2.9240079
-0.93705153 -0.38732368 2.1603272
-0.91445732 -0.37964296 1.6897295
-0.9009164 -0.37529176 1.3670877
-0.88953525 -0.37144646 1.123316
-0.89430219 -0.37691572 1.0334884
-0.87420744 -0.36897603 0.84749955
-0.87245631 -0.36876419 0.70561695
-0.86622447 -0.3664785 0.57889915
-0.86734706 -0.367302 0.46887657
-0.86597806 -0.3670705 0.36640632
-0.82753056 -0.35110947 0.26214162
-0.80654448 -0.34252962 0.17161468
-0.88802695 -0.37280655 0.93894702
-0.86685526 -0.36444265 0.76825374
-0.87181318 -0.36687657 0.64143664
-0.87512791 -0.36880243 0.52646881
-0.84894627 -0.35811043 0.40982375
-0.81958002 -0.34605241 0.30528715
-0.81643677 -0.34488761 0.21582969
-0.82803243 -0.35011813 0.12994097
-0.083873302 0.0011762487 8.188962
-0.8554371 -0.33412901 5.8386273
-1.1310126 -0.44995934 5.8755331
-1.0026517 -0.40674523 3.5062382
-0.94827247 -0.38849893 2.4737751
-0.92813748 -0.38248911 1.9069598
-0.91070729 -0.37677178 1.5201373
-0.90175974 -0.37415797 1.2455213
-0.6081633 -0.20430443 5.9407582
-1.0498011 -0.42058155 4.3916788
-0.97457963 -0.39572635 2.9146225
-0.93638301 -0.38322613 2.1558261
-0.91577697 -0.3764486 1.6897295
-0.89943522 -0.37099594 1.3630977
-0.8908264 -0.36833915 1.123316
-0.89232135 -0.37241837 1.0299838
-0.87549007 -0.36592221 0.84749955
-0.86988097 -0.36410215 0.70287549
-0.8674984 -0.36345255 0.57889915
-0.86862385 -0.36427218 0.46887657
-0.86283088 -0.36218879 0.36499628
-0.82875115 -0.34821871 0.26214162
-0.81232578 -0.3416428 0.17206176
-0.88587511 -0.36827141 0.93562156
-0.8681221 -0.36141452 0.76825374
-0.86910933 -0.36217314 0.63890344
-0.87222153 -0.36399761 0.52437073
-0.85019112 -0.35514486 0.40982375
-0.82078296 -0.34318942 0.30528715
-0.81763566 -0.34203562 0.21582969
-0.8292495 -0.34722561 0.12994097
-0.08386869 0.0014690135 8.188962
-0.85732299 -0.33142075 5.8435659
-1.1316289 -0.4456358 5.8706384
-1.0026803 -0.40268683 3.5014665
-0.9478122 -0.38445237 2.4691725
-0.92724931 -0.37834242 1.9025706
-0.90941274 -0.37252405 1.5160043
-0.90306032 -0.37100795 1.2455213
-0.32413042 -0.094704181 5.6799359
-0.60887271 -0.20218031 5.9407582
-1.0489258 -0.41598824 4.382
-0.97435391 -0.39167869 2.9099298
-0.93569732 -0.37913793 2.1513247
-0.91466963 -0.37226677 1.6854634
-0.90072477 -0.36785409 1.3630977
-0.88896924 -0.3639431 1.1196409
-0.89361584 -0.36930132 1.0299838
-0.87316555 -0.36137569 0.84436107
-0.87114668 -0.36106348 0.70287549
-0.86876178 -0.36042222 0.57889915
-0.86560863 -0.35946006 0.46700355
-0.85966027 -0.35733357 0.36358625
-0.8299616 -0.34532371 0.26214162
-0.81351334 -0.33880517 0.17206176
-0.88715523 -0.36517692 0.93562156
-0.86564136 -0.35684174 0.76531059
-0.87036824 -0.35913718 0.63890344
-0.87348676 -0.36095077 0.52437073
-0.85142565 -0.35217497 0.40982375
-0.81748492 -0.33846295 0.30411482
-0.81424952 -0.33728439 0.21513902
-0.82584155 -0.34241539 0.12973943
-0.083906434 0.0017663287 8.1939611
-0.85847461 -0.32842612 5.8435659
-1.1312798 -0.44094387 5.8608475
-1.0026926 -0.39863318 3.4966943
-0.94733542 -0.38041386 2.46457
-0.92856431 -0.37510341 1.9025706
-0.91070753 -0.36934733 1.5160043
-0.90138078 -0.36664602 1.2416838
-0.33001474 -0.095144279 5.7797689
-0.61008149 -0.20021905 5.9457297
-1.0492013 -0.4118652 4.3771605
-0.97250819 -0.38699961 2.9005444
-0.93499452 -0.37505925 2.1468236
-0.91596353 -0.36907169 1.6854634
-0.90200335 -0.36470771 1.3630977
-0.89023417 -0.36083782 1.1196409
-0.89159882 -0.36482942 1.0264792
-0.87442166 -0.35832554 0.84436107
-0.86853331 -0.35643306 0.70013404
-0.87001461 -0.35738748 0.57889915
-0.86685812 -0.35643634 0.46700355
-0.85646629 -0.35250494 0.36217624
-0.83116198 -0.34242448 0.26214162
-0.81469107 -0.3359634 0.17206176
-0.88842452 -0.36207792 0.93562156
-0.86688167 -0.35381791 0.76531059
-0.86762589 -0.35446665 0.63637024
-0.87054086 -0.35618106 0.52227271
-0.85264975 -0.34920079 0.40982375
-0.81866145 -0.33560735 0.30411482
-0.81542188 -0.33444005 0.21513902
-0.82703179 -0.33953059 0.12973943
-0.083899759 0.0020592064 8.1939611
-0.86034262 -0.32570228 5.8485055
-1.1309119 -0.43625981 5.8510571
-1.0026888 -0.39458433 3.4919224
-0.9468419 -0.3763833 2.4599674
-0.92764419 -0.37097085 1.8981816
-0.90937978 -0.36511791 1.5118713
-0.90265512 -0.36349738 1.2416838
-0.33034483 -0.093991734 5.7797689
-0.61128408 -0.19825183 5.9507017
-1.0494609 -0.40774533 4.3723211
-0.9722473 -0.38297033 2.8958514
-0.93427461 -0.37099007 2.1423223
-0.91482377 -0.36490616 1.6811975
-0.90047336 -0.36043739 1.3591076
-0.89148837 -0.35772812 1.1196409
-0.88956141 -0.36037609 1.0229747
-0.8756671 -0.35527107 0.84436107
-0.8697722 -0.35339916 0.70013404
-0.87125683 -0.35434839 0.57889915
-0.86380321 -0.35166037 0.46513051
-0.85324913 -0.34770295 0.3607662
-0.82780379 -0.33766586 0.26120901
-0.81585884 -0.33311754 0.17206176
-0.8862204 -0.35757768 0.93229604
-0.86811143 -0.35078976 0.76531059
-0.86885792 -0.35143587 0.63637024
-0.87177885 -0.35314015 0.52227271
-0.85386348 -0.34622234 0.40982375
-0.81532407 -0.33091974 0.30294251
-0.8119961 -0.32972857 0.21444833
-0.82358366 -0.33476043 0.12953791
-0.083935425 0.0023569299 8.1989613
-0.86147434 -0.3226971 5.8485055
-1.1305252 -0.43158373 5.8412666
-1.002669 -0.39054039 3.4871504
-0.94633198 -0.37236086 2.4553649
-0.92670649 -0.36684921 1.8937924
-0.9106487 -0.36194137 1.5118713
-0.90094101 -0.35915762 1.2378463
-0.61248028 -0.19627865 5.9556732
-1.0497044 -0.40362871 4.3674817
-0.97197044 -0.37894771 2.8911588
-0.93353778 -0.36693048 2.1378212
-0.91366607 -0.36075306 1.6769315
-0.90172601 -0.35729197 1.3591076
-0.89273161 -0.35461408 1.1196409
-0.89081395 -0.35726878 1.0229747
-0.87690192 -0.35221228 0.84436107
-0.86712104 -0.34880066 0.69739258
-0.87248844 -0.35130498 0.57889915
-0.86502552 -0.34864298 0.46513051
-0.85000896 -0.34292778 0.35935616
-0.82897735 -0.33477423 0.26120901
-0.81701666 -0.33026764 0.17206176
-0.88746315 -0.354482 0.93229604
-0.86557776 -0.34625632 0.76236743
-0.86607742 -0.34679857 0.6338371
-0.86879373 -0.34840578 0.52017462
-0.85068452 -0.3414807 0.40818024
-0.81647426 -0.32807171 0.30294251
-0.81314212 -0.32689217 0.21444833
-0.82011247 -0.33001849 0.12933637
-0.083926685 0.0026499049 8.1989613
-0.8625955 -0.31968805 5.8485055
-1.1301196 -0.42691565 5.8314762
-1.0026333 -0.38650143 3.4823785
-0.94762594 -0.36905527 2.4553649
-0.92575127 -0.36273864 1.8894032
-0.90928787 -0.35773042 1.5077385
-0.9021892 -0.35601056 1.2378463
-0.61316168 -0.1941395 5.9556732
-1.0499321 -0.39951533 4.3626423
-0.97167718 -0.3749316 2.8864658
-0.93278396 -0.36288059 2.1333199
-0.91249049 -0.35661247 1.6726656
-0.90016234 -0.35304224 1.3551177
-0.89080888 -0.3502554 1.1159657
-0.88874096 -0.35284135 1.0194702
-0.87812603 -0.34914917 0.84436107
-0.8683334 -0.3457717 0.69739258
-0.8695944 -0.34661725 0.57658035
-0.86193132 -0.34390348 0.46325746
-0.84674585 -0.33817944 0.35794613
-0.83014089 -0.33187851 0.26120901
-0.81816453 -0.32741371 0.17206176
-0.88522285 -0.35000935 0.92897052
-0.86678118 -0.34323275 0.76236743
-0.86728269 -0.34377331 0.6338371
-0.87000459 -0.34537098 0.52017462
-0.85187131 -0.33850917 0.40818024
-0.81309801 -0.3234233 0.30177018
-0.80967706 -0.32222077 0.21375765
-0.8166182 -0.32530493 0.12913485
-0.083914846 0.0030014319 8.1989613
-0.864712 -0.31618774 5.8534451
-1.1300634 -0.42126974 5.8216858
-1.0015196 -0.38106182 3.4728346
-0.94740349 -0.36421618 2.4507625
-0.92509145 -0.35783213 1.8850143
-0.91084009 -0.3537595 1.5077385
-0.9007473 -0.35090736 1.2340088
-0.61454558 -0.19151279 5.9606447
-1.0505573 -0.39430532 4.3578029
-0.97182024 -0.36973521 2.8817732
-0.93448365 -0.35848093 2.1333199
-0.91416085 -0.35230854 1.6726656
-0.90181607 -0.3487964 1.3551177
-0.89244956 -0.34605369 1.1159657
-0.89021111 -0.34911552 1.0194702
-0.87595791 -0.3440451 0.84122264
