# .PCD v0.7 - Point Cloud Data file format
VERSION 0.7
FIELDS x y z
SIZE 4 4 4
TYPE F F F
COUNT 1 1 1
WIDTH 1551
HEIGHT 1
VIEWPOINT 0 0 0 1 0 0 0
POINTS 1551
DATA ascii
4.6537108 -10.452291 8.4145842
8.676178 -19.468628 12.610707
8.8378735 -19.803581 10.112471
6.665957 -14.922833 5.777524
7.8049994 -17.456429 4.7026496
1.2494392 -3.0138638 20.740368
1.5645977 -3.7067375 19.366779
1.8583028 -4.3206367 15.083072
1.3092898 -3.0150959 7.8034983
1.707251 -3.909307 7.8848858
2.1547694 -4.9154558 7.9551387
0.90187204 -2.5196962 24.916988
1.6841063 -3.963027 16.616064
1.1311054 -2.6272173 7.8326416
1.4969026 -3.4505429 7.8408589
1.9360975 -4.4439678 7.9990454
2.432924 -5.5658822 8.1182079
3.0534916 -6.96909 8.3266382
3.4004598 -7.6915355 8.3439713
4.1973586 -9.4806843 8.442564
9.8812513 -22.287704 16.068794
8.7313547 -19.67552 11.354362
7.3551002 -16.543085 5.4115038
8.7078447 -19.567295 4.1576962
3.7593513 -8.5355511 8.3880672
4.6139355 -10.461077 8.4086981
8.6482096 -19.589497 12.66897
8.7613516 -19.817709 10.104078
7.5215812 -16.981375 4.570178
1.2412709 -3.0239573 20.779882
1.5614645 -3.7356637 19.489161
1.8478892 -4.3380837 15.121247
1.2987571 -3.0196481 7.8034983
1.6973976 -3.9240351 7.9024415
2.1364775 -4.9203663 7.9510059
0.89289355 -2.5223262 24.912016
1.6702625 -3.9688816 16.616064
1.1212511 -2.6295621 7.8279486
1.484849 -3.4557469 7.8408589
1.9422721 -4.5009861 8.0886307
2.4266496 -5.6047583 8.1620989
3.0304961 -6.9828162 8.3303137
3.37216 -7.7000909 8.3404675
4.1626763 -9.4917135 8.4394264
9.7966661 -22.306747 16.057827
7.137486 -16.190466 3.4507699
11.956004 -27.095066 2.7517078
3.7295339 -8.5486221 8.3880672
4.5644455 -10.447486 8.3851528
8.5918674 -19.647213 12.686702
8.6848392 -19.831541 10.095686
6.3454933 -14.475968 5.5901642
7.4466357 -16.971918 4.5607996
7.2950387 -16.618536 2.6235404
1.2289531 -3.0239525 20.750248
1.5558121 -3.7589669 19.582169
1.8304145 -4.3390059 15.102159
1.2882087 -3.024163 7.8034983
1.6836897 -3.9299362 7.9024415
2.1181772 -4.925209 7.9468727
0.88337982 -2.5234151 24.89213
1.6559151 -3.9735279 16.611227
1.1113942 -2.6318705 7.823256
1.472777 -3.4609091 7.8408589
1.9326981 -4.5221276 8.1142263
2.4153833 -5.6325803 8.1900291
3.0047641 -6.9902372 8.3266382
3.3452611 -7.7118154 8.3404675
4.1279678 -9.5026159 8.4362879
9.7204103 -22.344643 16.060568
12.977411 -29.774855 13.211119
7.0710983 -16.192774 3.4461067
11.861352 -27.136635 2.7517078
3.6981902 -8.5581617 8.3847418
4.5456071 -10.50416 8.4175272
8.5575018 -19.756199 12.737366
6.2874012 -14.480702 5.58359
7.443531 -17.127085 4.5947967
7.1816955 -16.516743 2.6042013
1.21868 -3.0289447 20.755186
1.54963 -3.7813344 19.670282
1.8135315 -4.3412371 15.087844
1.2776446 -3.0286415 7.8034983
1.6858636 -3.9732707 7.977056
2.0998697 -4.9299841 7.9427395
0.8761335 -2.5310173 24.936874
1.6420348 -3.9792838 16.611227
1.1015347 -2.6341417 7.818563
1.4606873 -3.4660289 7.8408589
1.8955542 -4.4784093 8.024642
2.3968849 -5.6437507 8.1940193
2.9803455 -7.0006833 8.3266382
3.3169138 -7.7201691 8.3369627
4.0947723 -9.5169678 8.4362879
9.6969557 -22.505161 16.151037
7.8413768 -18.128998 3.841538
11.742812 -27.123034 2.7463429
3.6668253 -8.5675859 8.3814163
4.5120974 -10.527394 8.4234142
8.4544964 -19.706717 12.686702
6.2368155 -14.502563 5.58359
6.845593 -15.902887 4.2665482
1.5425451 -3.8018169 19.748606
1.7966553 -4.3434029 15.073527
1.2670648 -3.0330827 7.8034983
1.684972 -4.0100441 8.0385036
2.0815542 -4.934691 7.9386067
2.6594703 -6.2864642 8.2489672
0.86574173 -2.5295208 24.89213
1.6281344 -3.9849913 16.611227
1.091673 -2.6363764 7.81387
1.4485795 -3.4711065 7.8408589
1.8738613 -4.4705667 7.9990454
2.3841791 -5.6687484 8.2179594
2.9558904 -7.011044 8.3266382
3.2899451 -7.7317004 8.3369627
4.0600014 -9.5276213 8.4331493
9.4410887 -22.123516 15.854959
8.4888535 -19.872911 11.398419
7.6696954 -17.937889 7.9703732
7.0705571 -16.520681 5.3720226
7.7799807 -18.160774 3.8424704
11.618624 -27.095205 2.7396367
3.6368964 -8.5803337 8.3814163
4.491116 -10.580288 8.4528456
8.289567 -19.509958 12.542311
7.4371538 -17.478333 8.8683252
6.1509967 -14.441699 5.5523639
6.7766957 -15.895387 4.2583418
1.5383719 -3.8298552 19.866093
1.7786546 -4.342741 15.049667
1.2557231 -3.0356817 7.7988958
1.6755641 -4.026957 8.0604486
2.0643163 -4.941927 7.9386067
2.6313176 -6.2809277 8.2297792
0.95843774 -2.8330054 27.850176
1.6142143 -3.9906504 16.611227
1.0824637 -2.6401708 7.81387
1.4364543 -3.4761417 7.8408589
1.8442484 -4.443357 7.9393229
2.3655353 -5.6798182 8.2219496
2.9300931 -7.0181909 8.3229637
3.2615519 -7.7398515 8.3334579
4.0267191 -9.5417356 8.4331493
9.3214846 -22.056196 15.783681
8.4004478 -19.857544 11.372912
7.5979958 -17.943209 7.9610081
7.012846 -16.545263 5.3720226
7.6225309 -17.96624 3.7967722
11.377975 -26.791813 2.7061057
3.6054778 -8.5895329 8.3780909
4.4463248 -10.577269 8.4381294
8.2832747 -19.685793 12.636039
7.3813844 -17.516733 8.8746195
6.1207361 -14.510943 5.5704422
6.726841 -15.93238 4.2618585
1.2958906 -3.3209562 22.661739
1.5261221 -3.8380401 19.880777
1.7651672 -4.3530731 15.063983
1.2451189 -3.0400465 7.7988958
1.6633217 -4.03721 8.0692272
2.0459778 -4.9465022 7.9344735
2.6118333 -6.2959952 8.2374544
0.94685405 -2.8312778 27.800461
1.6002746 -3.9962606 16.611227
1.0725924 -2.6423345 7.8091784
1.4243116 -3.4811349 7.8408589
1.825753 -4.4425311 7.9265246
2.3445458 -5.6852551 8.2179594
2.9055772 -7.0283761 8.3229637
3.2345147 -7.7511892 8.3334579
3.9918869 -9.5521431 8.4300108
9.2444363 -22.088598 15.783681
8.3276567 -19.878574 11.368275
7.5445476 -17.956509 3.7893109
11.249635 -26.748737 2.6980584
3.5754726 -8.602066 8.3780909
4.403163 -10.577799 8.4263573
8.1912966 -19.658878 12.600574
7.3324294 -17.571712 8.8893061
6.0518456 -14.488646 5.5540071
7.6217909 -18.229372 4.8562236
11.355315 -27.145725 4.196219
1.2842904 -3.3254595 22.661739
1.5272566 -3.8802965 20.071692
1.7499615 -4.3592081 15.063983
1.2344995 -3.0443745 7.7988958
1.6501236 -4.0452094 8.073616
2.0286987 -4.9536138 7.9344735
2.5995829 -6.3287935 8.2681541
0.9394719 -2.8421583 27.875032
1.5863153 -4.0018225 16.611227
1.0633624 -2.6460624 7.8091784
1.4121516 -3.4860854 7.8408589
1.8092519 -4.4464612 7.9222593
2.3246863 -5.6934042 8.2179594
2.8797417 -7.0353384 8.3192883
3.2074382 -7.7624321 8.3334579
3.9570305 -9.5624218 8.4268723
9.2729321 -22.375683 15.964618
8.2208748 -19.817503 11.317261
7.7712197 -18.715105 8.2756777
7.1291552 -17.151955 5.5496869
11.14088 -26.751068 2.6944818
3.5440032 -8.611042 8.3747654
4.3662128 -10.593104 8.4263573
8.3906136 -20.336899 13.013482
7.2710481 -17.5972 8.8893061
5.9922104 -14.487864 5.5457892
7.4335399 -17.954975 4.7776785
11.296496 -27.272125 4.2093415
1.2837671 -3.3589556 22.85931
1.518876 -3.8988869 20.140226
1.7341831 -4.363903 15.059211
1.2231374 -3.0468516 7.7942929
1.6377865 -4.0553856 8.0823936
2.011395 -4.9606652 7.9344735
0.92706507 -2.8378191 27.800461
1.5723367 -4.0073352 16.611227
1.0541195 -2.6497581 7.8091784
1.4007845 -3.4930141 7.8453603
1.7917708 -4.4479117 7.9137273
2.3047986 -5.7014842 8.2179594
2.8551662 -7.0453477 8.3192883
3.1789722 -7.7702799 8.3299541
3.9236274 -9.5761757 8.4268723
9.2423897 -22.523968 16.046862
8.1146221 -19.755934 11.266248
7.8010387 -18.97365 8.3768206
7.0966263 -17.243279 5.5708375
7.2244077 -17.536379 3.6923184
11.03794 -26.766771 2.6922462
3.5139234 -8.6233606 8.3747654
4.3322639 -10.615766 8.4322433
8.2755585 -20.258316 12.945086
5.9469705 -14.521804 5.5507202
6.655499 -16.235813 4.3228192
11.137341 -27.155611 4.1858587
1.5169761 -3.9345672 20.296873
1.7205788 -4.3740973 15.073527
1.2124945 -3.0511029 7.7942929
1.6236206 -4.0610781 8.0823936
1.9951149 -4.9702673 7.9386067
0.91878939 -2.8461113 27.850176
1.5583388 -4.0127993 16.611227
1.0448636 -2.6534216 7.8091784
1.3885831 -3.4978824 7.8453603
1.7762338 -4.4541388 7.9137273
2.2837634 -5.7066979 8.2139692
2.8292935 -7.0521245 8.3156128
3.1518297 -7.7813292 8.3299541
3.8887134 -9.5862074 8.4237337
8.0906677 -19.894932 11.328856
7.7627273 -19.069466 8.4067898
7.0508738 -17.303484 5.5821176
7.1538739 -17.538748 3.6876554
11.002794 -26.948065 2.7061057
3.4824042 -8.6321106 8.3714399
4.2785258 -10.589599 8.399869
8.128829 -20.099253 12.826027
7.9934697 -19.715088 7.4933481
6.5549154 -16.150854 4.2946835
15.476606 -38.076141 1.7516602
1.5148456 -3.9702816 20.45352
1.7052999 -4.3800769 15.073527
1.2018367 -3.0553167 7.7942929
1.615604 -4.0823097 8.1131182
1.9777534 -4.9772015 7.9386067
0.90965796 -2.8518405 27.875032
1.543871 -4.0170407 16.606386
1.0355951 -2.6570528 7.8091784
1.3763646 -3.5027082 7.8453603
1.7597175 -4.4578857 7.9094615
2.2638292 -5.7146349 8.2139692
2.8046598 -7.0619578 8.3156128
3.1233215 -7.7889743 8.3264494
3.8537769 -9.5961103 8.4205952
9.5249243 -23.681936 16.819954
8.0906572 -20.09564 11.426245
7.7030463 -19.113644 8.4142818
7.0944486 -17.568169 3.6885881
10.910528 -26.990925 2.706553
3.4522512 -8.6442146 8.3714399
4.2355313 -10.589458 8.3880968
8.0297794 -20.055468 12.78043
8.3549185 -20.835949 10.464944
7.8542423 -19.567575 7.4276075
1.5067307 -3.9907868 20.531843
1.6942931 -4.3971457 15.111703
1.1911644 -3.0594933 7.7942929
1.6022177 -4.0901546 8.117506
1.9624275 -4.9893122 7.9468727
0.90049785 -2.8575411 27.899891
1.5298395 -4.0224056 16.606386
1.0263139 -2.6606514 7.8091784
1.3649186 -3.5095203 7.8498616
1.7441459 -4.4640012 7.9094615
2.2438676 -5.7225027 8.2139692
2.7787516 -7.0685492 8.3119373
3.0961139 -7.799829 8.3264494
3.8202567 -9.6095037 8.4205952
8.0516224 -20.201942 11.470302
7.5727191 -18.9811 8.3449802
7.5864058 -18.996157 6.1024199
7.0549626 -17.64756 3.6997795
10.808845 -27.010351 2.7047646
3.4206836 -8.6527395 8.3681145
4.1851492 -10.570354 8.3616076
7.9025445 -19.939104 12.689235
8.2838106 -20.869204 10.467041
7.7701974 -19.555378 7.412816
6.6360154 -16.684002 4.4212937
11.754907 -29.508778 1.374999
1.5006286 -4.0170064 20.639538
1.6853153 -4.4197702 15.168967
1.179775 -3.0618095 7.7896905
1.5775423 -4.0689254 8.0648375
1.9449997 -4.9961319 7.9468727
0.89194191 -2.865248 27.944635
1.5157894 -4.0277209 16.606386
1.016405 -2.6626053 7.8044853
1.3550055 -3.5203586 7.8633657
1.7276124 -4.4676299 7.9051952
2.2238789 -5.7302999 8.2139692
2.7540607 -7.0782061 8.3119373
3.067564 -7.8072691 8.3229446
3.785265 -9.6191597 8.4174566
8.3060684 -21.075283 14.936567
7.9778032 -20.221685 11.465664
7.4093552 -18.761641 8.2382174
3.3890986 -8.6611509 8.364789
4.1452765 -10.577371 8.3557215
7.9194832 -20.187286 12.828561
8.1909962 -20.847301 10.441865
7.6828766 -19.534042 7.3947372
6.5777364 -16.707064 4.4212937
11.690314 -29.647232 1.3792311
1.4904796 -4.0327263 20.693386
1.6809421 -4.4549551 15.269178
1.1690803 -3.0659091 7.7896905
1.5573242 -4.0587549 8.0341148
1.9285598 -5.005517 7.9510059
0.88146544 -2.8668153 27.92972
1.5017208 -4.0329876 16.606386
1.0071045 -2.6661372 7.8044853
1.3450333 -3.5311699 7.8768687
1.7120069 -4.4736333 7.9051952
2.2027822 -5.7352147 8.20998
2.7281182 -7.0846133 8.3082628
3.040293 -7.8179297 8.3229446
3.7516646 -9.6323137 8.4174566
8.2233343 -21.080774 14.920118
7.897501 -20.224653 11.451752
7.2577424 -18.567184 8.1426916
7.0802884 -18.076017 3.7771869
3.3588448 -8.6729279 8.364789
4.1097913 -10.595546 8.3586645
7.8318048 -20.170603 12.800695
7.8911748 -20.292036 10.152333
7.3542628 -18.891865 7.1449237
11.652145 -29.855402 1.3864862
1.2721024 -3.5496867 23.970644
1.4798896 -4.0474677 20.742338
1.6758217 -4.4887648 15.364618
1.1583711 -3.0699711 7.7896905
1.5278454 -4.0238638 7.955111
1.9090705 -5.0069594 7.9427395
0.87176239 -2.8708951 27.939663
1.4871995 -4.0370259 16.601547
0.99718773 -2.66802 7.7997923
1.3365377 -3.5460291 7.899375
1.695457 -4.4771423 7.9009295
2.1827493 -5.7428689 8.20998
2.7033718 -7.0940928 8.3082628
3.011704 -7.8251672 8.3194399
3.716619 -9.6417189 8.414319
8.1496983 -21.10935 14.920118
7.8284526 -20.256227 11.45407
7.1928868 -18.592405 8.1426916
11.601015 -29.893707 2.9716709
3.3272135 -8.6811123 8.3614626
4.071332 -10.606052 8.3557215
7.8015509 -20.302441 12.866558
8.0126534 -20.819265 10.399903
7.2882724 -18.917421 7.1449237
8.3638706 -21.686705 5.696775
11.547859 -29.895893 1.3864862
1.2597039 -3.5541055 23.970644
1.4664446 -4.0545235 20.752129
1.6673826 -4.5141907 15.431426
1.1476479 -3.0739961 7.7896905
1.5011562 -3.9955423 7.8892746
1.8905879 -5.0109596 7.9386067
0.86188883 -2.8744311 27.944635
1.4730986 -4.0421925 16.601547
0.98786855 -2.6714845 7.7997923
1.3249123 -3.5527127 7.9038763
1.6798185 -4.4830337 7.9009295
2.1626894 -5.750453 8.20998
2.6785922 -7.1034861 8.3082628
2.9843707 -7.8356318 8.3194399
3.6829405 -9.6546335 8.414319
8.0461159 -21.059547 14.865289
7.1329169 -18.63039 8.1483116
7.2380328 -18.885218 6.0347381
11.359115 -29.576059 2.9372456
3.2968907 -8.6926737 8.3614626
4.0328498 -10.616422 8.3527784
7.7444243 -20.365814 12.889357
8.0610838 -21.165207 10.557258
7.1767731 -18.823612 7.1005487
8.3245163 -21.811131 5.7213941
6.5893464 -17.255762 2.6684346
11.416676 -29.866022 1.3834633
1.2570536 -3.5863457 24.158335
1.4543402 -4.0653701 20.7815
1.651615 -4.5199833 15.431426
1.1369106 -3.0779834 7.7896905
1.4821934 -3.987288 7.8629398
1.8711168 -5.0122561 7.9303408
2.388267 -6.3773084 8.2297792
0.85200101 -2.8779333 27.949606
1.4611108 -4.0532227 16.625744
0.97853732 -2.6749165 7.7997923
1.3117495 -3.5552733 7.899375
1.6641595 -4.4888701 7.9009295
2.1426036 -5.757967 8.20998
2.6525953 -7.1096172 8.3045874
2.9544857 -7.8393273 8.3124304
3.6478426 -9.6637897 8.4111805
7.9400244 -21.001459 14.804977
7.1819539 -18.976337 10.707417
7.0727682 -18.668179 8.1539307
7.3847075 -19.471031 6.2109919
6.5436411 -17.235281 3.5915956
11.275267 -29.666733 2.9421635
3.2652159 -8.700634 8.3581381
3.9943454 -10.626651 8.3498354
8.1023941 -21.498997 10.708318
7.1726971 -19.012026 7.1613593
9.8660412 -26.123463 6.825717
6.516819 -17.246231 2.6636
1.2539393 -3.6178765 24.341087
1.4408197 -4.0723419 20.79129
1.6480038 -4.5594134 15.545955
1.1261594 -3.081933 7.7896905
1.4690926 -3.9946854 7.8673291
1.8536092 -5.0187569 7.9303408
2.3693326 -6.3946228 8.241292
0.84224862 -2.8819132 27.959549
1.4482197 -4.0618501 16.640263
0.96978128 -2.6799386 7.8044853
1.2985848 -3.5577853 7.8948741
1.6475824 -4.4922032 7.8966632
2.1214507 -5.7625837 8.2059898
2.6254139 -7.1124716 8.2972374
2.9283493 -7.8529339 8.3159351
3.6127255 -9.6728172 8.408042
7.847621 -20.978134 14.769338
7.1125631 -18.992996 10.70278
7.0075617 -18.692755 8.1539307
7.3166957 -19.496691 6.2109919
6.4851661 -17.262615 3.5925281
11.171641 -29.70591 2.9421635
3.2348251 -8.7119789 8.3581381
3.9558177 -10.63674 8.3468914
7.0861721 -19.033693 12.020476
8.022542 -21.514389 10.702023
7.1062894 -19.036947 7.1613593
9.7305565 -26.039364 6.7952366
6.4947324 -17.370918 2.6787946
1.2516272 -3.6523695 24.543598
1.4265957 -4.0773468 20.79129
1.635093 -4.5735717 15.574585
1.1153947 -3.0858455 7.7896905
1.4551396 -3.999789 7.8673291
1.8351134 -5.0225534 7.9262075
2.3458934 -6.3998451 8.2374544
0.83203614 -2.8843234 27.954576
1.4411372 -4.0870333 16.722532
0.96042061 -2.6833074 7.8044853
1.2824619 -3.5520582 7.8723674
1.6318916 -4.4979267 7.8966632
2.1013224 -5.7699537 8.2059898
2.5970821 -7.1120386 8.286211
2.8996854 -7.8597627 8.3124304
3.5775902 -9.6817188 8.4049034
7.7728944 -21.001478 14.766597
7.0431442 -19.009399 10.698142
7.0293255 -18.951817 8.2550745
7.1818047 -19.34223 6.1545911
6.3837943 -17.174641 3.5701454
3.2043951 -8.723218 8.3581381
3.917269 -10.64669 8.3439484
7.0181999 -19.054268 12.017943
8.0432158 -21.802 10.830005
7.0577898 -19.110363 7.1794381
8.0248671 -21.705629 5.6721563
6.4392118 -17.407419 2.680867
1.2421106 -3.6662831 24.607807
1.4123545 -4.0823016 20.79129
1.6201135 -4.5820661 15.584129
1.1046162 -3.08972 7.7896905
1.4411689 -4.0048442 7.8673291
1.8175703 -5.0289283 7.9262075
2.3224471 -6.4049816 8.2336168
0.82196295 -2.8872101 27.954576
1.4338963 -4.1122155 16.804802
0.95104825 -2.6866436 7.8044853
1.2685912 -3.5524135 7.8633657
1.6161809 -4.5035958 7.8966632
2.0801475 -5.7744188 8.2019997
2.5699372 -7.1146841 8.278861
2.8710093 -7.8664856 8.3089256
3.5424364 -9.6904917 8.4017649
7.7383552 -21.134497 14.840615
6.9462552 -18.950684 10.651766
7.5907407 -20.686642 8.9911766
7.049736 -19.19157 6.0995998
6.2932873 -17.113832 3.5533583
3.1739256 -8.7343502 8.3581381
3.8786986 -10.656501 8.3410053
6.8970408 -18.928789 11.924215
7.9826245 -21.87258 10.850986
7.9507203 -21.738073 5.6733289
6.327354 -17.290276 2.6601462
1.2344855 -3.6860695 24.711533
1.398096 -4.0872068 20.79129
1.6100204 -4.6046019 15.641393
1.0938244 -3.0935569 7.7896905
1.4271806 -4.0098505 7.8673291
1.7990577 -5.0325928 7.9220743
2.3011572 -6.4160662 8.2374544
0.81173563 -2.8895485 27.949606
1.4568107 -4.2253356 17.24519
0.94109422 -2.6883183 7.7997923
1.2540084 -3.5506616 7.8498616
1.5995783 -4.506752 7.8923974
2.0599785 -5.7816448 8.2019997
2.5416653 -7.1140347 8.2678356
3.5072649 -9.6991377 8.3986263
7.6972866 -21.251806 14.90367
6.8060727 -18.770754 10.538144
7.5785918 -20.878605 9.0623512
7.095746 -19.527155 6.1968918
6.1495461 -16.904881 3.5067272
10.812241 -29.690247 2.9296453
3.1434178 -8.7453756 8.3581381
3.8565376 -10.711808 8.3733807
6.864543 -19.046022 11.982479
7.9016023 -21.887501 10.84469
7.9095192 -21.861679 5.6979475
6.2669606 -17.312258 2.6601462
10.577103 -29.187077 1.3459785
1.2272255 -3.7073226 24.825134
1.3834945 -4.0910978 20.786396
1.5973516 -4.620069 15.674796
1.0830191 -3.0973563 7.7896905
1.4123797 -4.0125484 7.8629398
1.78148 -5.0388417 7.9220743
2.2787471 -6.4240599 8.2374544
0.80164438 -2.8923643 27.949606
1.4513789 -4.2577596 17.356497
0.93170446 -2.691587 7.7997923
1.2401711 -3.5509067 7.8408589
1.583837 -4.5123081 7.8923974
2.0387828 -5.7859578 8.1980095
2.5145581 -7.1164699 8.2604856
3.4733872 -9.7113218 8.3986263
7.6230569 -21.278545 14.90367
6.7763996 -18.89447 10.593796
7.5448294 -21.014013 9.1091766
7.056747 -19.633062 6.2222724
3.1141219 -8.7598124 8.3614626
3.8313265 -10.759476 8.399869
6.7994652 -19.073929 11.985011
7.8800955 -22.068823 10.92022
6.2246642 -17.413467 6.5253205
7.8691883 -21.989836 5.7237387
10.488642 -29.261442 1.3475908
1.214277 -3.7115841 24.825134
1.3692054 -4.095902 20.786396
1.583146 -4.6312671 15.693885
1.0722008 -3.1011178 7.7896905
1.3983648 -4.0174541 7.8629398
1.7629515 -5.0423737 7.917942
2.258431 -6.4380245 8.2451296
0.79168361 -2.8956594 27.954576
1.4441335 -4.2854323 17.448446
0.92174476 -2.6931901 7.7950997
1.2270581 -3.5531564 7.8363576
1.5680765 -4.5178089 7.8923974
2.0185735 -5.7930393 8.1980095
2.4885833 -7.1220036 8.2568102
2.7956007 -7.9162955 8.3299541
3.4381692 -9.719717 8.3954878
7.4984612 -21.163137 14.804977
6.7800064 -19.114233 10.70278
7.5210729 -21.180019 9.1691141
7.0138812 -19.729897 6.244833
9.9144316 -27.827572 2.7450016
3.0847642 -8.7741528 8.364789
3.7964306 -10.780409 8.405755
6.7557764 -19.162598 12.025542
7.8015018 -22.091917 10.918123
6.1669908 -17.443995 6.5286078
7.7891383 -22.008005 5.7213941
10.296294 -29.043602 1.3367081
1.2058537 -3.7298472 24.91898
1.3548996 -4.1006565 20.786396
0.8640669 -2.556541 8.6742973
1.0613694 -3.1048417 7.7896905
1.3843327 -4.0223107 7.8629398
1.7453396 -5.0484962 7.917942
0.78157103 -2.8984051 27.954576
1.4283713 -4.2880621 17.438768
0.91233814 -2.6963911 7.7950997
1.2146478 -3.5574181 7.8363576
1.5522969 -4.5232553 7.8923974
1.9983398 -5.8000503 8.1980095
2.4648149 -7.1338515 8.2604856
2.7679505 -7.9260054 8.3299541
3.4042199 -9.7316589 8.3954878
7.4093323 -21.145773 14.774821
6.6824517 -19.050001 10.654084
10.089112 -28.729504 12.390731
6.8797359 -19.568712 6.1870217
9.8619194 -27.988825 2.7570727
3.0541179 -8.7848673 8.364789
3.7508013 -10.770693 8.3880968
6.7257423 -19.291897 12.091406
7.6944122 -22.033318 10.876162
6.1045036 -17.46096 6.5269647
7.6432233 -21.83779 5.6709843
6.8938718 -19.685774 3.0013425
10.042785 -28.645624 1.3181673
1.1935359 -3.7362542 24.933798
1.3405775 -4.105361 20.786396
0.85702926 -2.5652049 8.6933851
1.050525 -3.1085277 7.7896905
1.3695126 -4.0248518 7.8585515
1.7277066 -5.0545583 7.917942
0.77144897 -2.9011157 27.954576
1.4114295 -4.2870522 17.41457
0.90292048 -2.6995595 7.7950997
1.2022227 -3.5616362 7.8363576
1.5364983 -4.528646 7.8923974
1.9780816 -5.8069901 8.1980095
2.440994 -7.1456199 8.2641611
2.735611 -7.9221358 8.3159351
3.3689573 -9.7398043 8.3923492
7.2998819 -21.068781 14.703543
6.8271384 -19.637917 6.2011218
6.9931302 -20.092783 4.13065
9.8182335 -28.17827 2.7718265
3.024648 -8.7990055 8.3681145
3.7144973 -10.78754 8.3910389
6.65836 -19.315256 12.091406
7.6159735 -22.055752 10.874063
6.0620303 -17.535717 6.5466866
7.5685382 -21.868929 5.6721563
6.7991872 -19.634848 2.9902916
9.9574594 -28.722988 1.3199811
1.1823568 -3.7463257 24.973312
1.3262389 -4.1100154 20.786396
0.84713382 -2.5653458 8.6838408
1.0390488 -3.1103225 7.7850876
1.3554549 -4.0296078 7.8585515
1.7154573 -5.0765543 7.9427395
0.76145244 -2.9043067 27.959549
1.3949007 -4.2871714 17.395212
0.89349174 -2.7026947 7.7950997
1.1897829 -3.5658109 7.8363576
1.5215104 -4.5364552 7.8966632
1.9577994 -5.8138595 8.1980095
2.4182055 -7.160521 8.2715111
2.7079408 -7.9316363 8.3159351
3.3336792 -9.7478218 8.3892107
7.2181635 -21.070402 14.687095
8.5514297 -24.905657 10.727478
6.8022113 -19.788652 6.240603
6.8478222 -19.89876 4.0868168
9.7198133 -28.212372 2.7718265
2.9951167 -8.8130445 8.3714399
3.6755168 -10.796616 8.3880968
6.5463953 -19.207809 12.010343
7.5492029 -22.112268 10.888749
6.0084186 -17.579111 6.554904
6.8453898 -20.005093 5.1903338
6.7161713 -19.616297 2.9840755
9.8085394 -28.615789 1.3139352
1.1692725 -3.7504303 24.973312
1.3118843 -4.1146197 20.786396
0.83539593 -2.559773 8.6552095
1.0281854 -3.1139305 7.7850876
1.3451583 -4.0456777 7.8804965
1.7012922 -5.0931873 7.959271
0.75130993 -2.9069469 27.959549
1.3772347 -4.283638 17.361338
0.8840521 -2.705797 7.7950997
1.1766471 -3.5678754 7.8318572
1.505666 -4.5417385 7.8966632
1.9374933 -5.8206582 8.1980095
2.3942695 -7.1721339 8.2751865
2.6790977 -7.9376616 8.3124304
3.2996325 -9.7593994 8.3892107
7.1324983 -21.059824 14.662421
8.0856981 -23.846939 13.267372
8.3899326 -24.71586 10.633826
6.8164458 -20.057539 6.3167443
6.5773773 -19.331936 3.9683743
9.600399 -28.184843 2.7660143
2.9643352 -8.8234463 8.3714399
3.6365178 -10.805549 8.3851528
6.4875665 -19.255054 12.025542
6.78019 -20.042677 5.193851
6.6476569 -19.639622 2.9840755
10.010034 -29.539404 1.3518229
1.1561739 -3.7544889 24.973312
1.2975135 -4.119174 20.786396
0.82737166 -2.5655146 8.664753
1.0173095 -3.1175005 7.7850876
1.3399998 -4.077652 7.9331651
1.687032 -5.1097832 7.9758034
0.74102682 -2.9090352 27.954576
1.3599906 -4.2812309 17.3323
0.87460178 -2.7088664 7.7950997
1.1641856 -3.5719609 7.8318572
1.4898032 -4.5469666 7.8966632
1.916222 -5.8245234 8.1940193
2.3702817 -7.1836672 8.278861
2.6491163 -7.9401994 8.3054218
3.264312 -9.7671671 8.3860722
7.0615973 -21.092524 14.667904
8.2711601 -24.648304 10.592619
6.7337933 -20.020576 4.1017385
9.3462133 -27.755665 2.7222006
2.9299874 -8.8231087 8.3614626
3.5962255 -10.810506 8.3792667
6.4557295 -19.383923 12.091406
7.3601751 -22.061106 10.838397
6.8983545 -20.652864 7.6675596
9.9417725 -29.678383 1.3562566
1.1430614 -3.758502 24.973312
1.2828244 -4.1227059 20.7815
0.81750512 -2.5655427 8.6552095
1.0070208 -3.1228924 7.7896905
1.3427712 -4.134697 8.0341148
1.671804 -5.1236672 7.9882026
0.73086786 -2.9116039 27.954576
1.3427802 -4.2787566 17.303263
0.86514068 -2.7119029 7.7950997
1.15171 -3.5760031 7.8318572
1.4739223 -4.5521393 7.8966632
1.8958789 -5.8311768 8.1940193
2.3462424 -7.1951208 8.2825365
2.6202672 -7.9460115 8.3019171
3.2289772 -9.7748051 8.3829336
7.0063186 -21.172621 14.706285
8.2215576 -24.787031 10.639445
8.5808887 -25.810099 5.2553902
9.258707 -27.816471 2.7248831
2.8945138 -8.8190928 8.3481617
3.5572057 -10.819153 8.3763237
6.3880281 -19.406338 12.091406
7.2788596 -22.073734 10.832103
6.8158574 -20.64543 7.656055
7.1450067 -21.617109 5.5818877
6.7560606 -20.428406 3.0932028
9.8381147 -29.712906 1.3562566
1.1299348 -3.7624691 24.973312
1.2684257 -4.1271586 20.7815
0.80854475 -2.5683806 8.6552095
0.99611372 -3.1263883 7.7896905
1.3356476 -4.1621637 8.0780058
1.6564993 -5.137506 8.0006008
0.72082782 -2.914655 27.959549
1.3241153 -4.2714119 17.254869
0.85515046 -2.7132602 7.7904067
1.1385604 -3.5779269 7.8273559
1.4580233 -4.5572562 7.8966632
1.8755127 -5.8377595 8.1940193
2.3211126 -7.2032666 8.2825365
2.5903039 -7.9483275 8.2949085
3.1936293 -9.7823172 8.3797951
6.9466667 -21.240665 14.736441
8.1941938 -24.996195 10.716239
8.4907417 -25.839893 5.2553902
9.1506596 -27.815508 2.7217536
3.5181689 -10.82766 8.3733807
6.3602543 -19.551498 12.1674
7.1975436 -22.086061 10.825809
7.0770526 -21.665022 5.58775
6.6985579 -20.494228 3.0994189
9.5416698 -29.158291 1.3312668
1.1170152 -3.7671351 24.978251
1.2537159 -4.1305866 20.776606
0.79913133 -2.5697618 8.6504374
0.98578095 -3.1317101 7.7942929
1.3283483 -4.18963 8.1218958
1.6402643 -5.1486197 8.0088673
0.71052337 -2.9166355 27.954576
1.3069897 -4.2687955 17.225832
0.84567416 -2.7162287 7.7904067
1.1260642 -3.5818794 7.8273559
1.4421066 -4.5623178 7.8966632
1.8551238 -5.8442707 8.1940193
2.2959545 -7.2113247 8.2825365
2.5614502 -7.953927 8.2914038
3.158268 -9.7897005 8.3766565
6.8699088 -21.256826 14.730958
7.618309 -23.544472 13.04013
8.0940323 -24.984953 10.699382
8.1207981 -25.037786 7.82689
8.2760859 -25.486263 5.178915
8.9595861 -27.558384 2.6944818
3.4791162 -10.836026 8.3704367
6.3275871 -19.684387 12.235797
7.0633669 -21.933929 10.739788
6.7222776 -20.849813 7.7135782
7.0043707 -21.698843 5.5900941
6.4839063 -20.074524 3.0344951
9.4429045 -29.200928 1.3316698
1.1038587 -3.7710111 24.978251
1.2392899 -4.1349378 20.776606
0.78971809 -2.5711088 8.6456652
0.9748432 -3.1351318 7.7942929
1.3029788 -4.1599588 8.0560598
1.6273509 -5.1704192 8.0336647
0.70095897 -2.92169 27.979435
1.2869886 -4.2564869 17.158079
0.8361876 -2.7191639 7.7904067
1.1141998 -3.5878673 7.8318572
1.4261723 -4.5673242 7.8966632
1.8347121 -5.8507104 8.1940193
2.2697511 -7.2160611 8.278861
2.532589 -7.9594207 8.287899
3.1228945 -9.796957 8.373518
6.7982116 -21.288645 14.736441
7.5050497 -23.473873 12.986797
8.094841 -25.257847 7.8861113
8.0895166 -25.210968 5.1182947
8.8633347 -27.589491 2.6944818
3.440048 -10.844252 8.3674936
6.2914596 -19.809071 12.299126
6.9908891 -21.971428 10.746082
6.6508899 -20.877649 7.7152214
6.9448309 -21.774099 5.6029897
6.409277 -20.082882 3.032423
9.3257103 -29.186123 1.3296546
1.0906886 -3.7748413 24.978251
1.2248487 -4.1392384 20.776606
0.78030527 -2.5724213 8.640893
0.96446717 -3.1403835 7.7988958
1.2742935 -4.118722 7.9682784
1.6092929 -5.1760683 8.0336647
0.68977726 -2.9199684 27.939663
1.2678087 -4.2465005 17.100008
0.82618946 -2.7204151 7.7857137
1.1054988 -3.6042223 7.8588643
1.4102206 -4.5722747 7.8966632
1.8142781 -5.857079 8.1940193
2.2435427 -7.2207026 8.2751865
2.5037205 -7.9648108 8.2843943
3.0886776 -9.8077984 8.373518
6.7326651 -21.340158 14.75563
7.4270673 -23.512598 12.993753
9.7953978 -30.972672 13.212993
8.0457239 -25.409428 7.9241819
8.7639627 -27.610769 2.6935875
3.4021735 -10.856193 8.3674936
6.2016258 -19.7651 12.258595
6.8814883 -21.891785 10.695729
6.5241027 -20.729572 7.6527681
6.8746271 -21.816753 5.6076789
6.4329491 -20.402672 3.0759358
1.0772923 -3.7778785 24.973312
1.2103925 -4.1434889 20.776606
0.77089292 -2.5736992 8.6361208
0.95349932 -3.1437309 7.7988958
1.2410134 -4.0613022 7.8497729
1.582129 -5.1520638 7.9882026
0.67982149 -2.9233966 27.949606
1.2490695 -4.237637 17.046774
0.81668842 -2.7232826 7.7857137
1.0973281 -3.6226435 7.8903728
1.3942518 -4.5771694 7.8966632
1.7938222 -5.8633766 8.1940193
2.2163348 -7.2220087 8.2678356
2.4748452 -7.9700956 8.2808895
3.0532668 -9.8148031 8.3703794
6.6407146 -21.307642 14.717251
9.619482 -30.78985 13.121213
7.9612751 -25.451092 7.928412
8.6958399 -27.731478 2.7020819
3.3642578 -10.868002 8.3674936
6.1325951 -19.786629 12.258595
6.8265638 -21.985022 10.729298
6.3830109 -20.531267 7.5722365
6.4073429 -20.571573 3.097347
11.935758 -38.274235 1.7109511
1.0640986 -3.7816162 24.973312
1.1959218 -4.1476884 20.776606
0.76105791 -2.5735114 8.6265764
0.9425199 -3.1470399 7.7988958
1.2275211 -4.0679026 7.8541622
1.5576022 -5.1360116 7.9551387
0.66818804 -2.9195161 27.889948
1.2293543 -4.2250748 16.979021
0.80668759 -2.724462 7.7810211
1.0877948 -3.6368799 7.9128785
1.3797685 -4.5870032 7.9051952
1.7724727 -5.8667178 8.1900291
2.1901286 -7.2264562 8.2641611
2.4470093 -7.9786859 8.2808895
3.0189881 -9.8254013 8.3703794
6.8147984 -22.137957 15.271027
9.6636858 -31.314949 13.32912
7.8199892 -25.309145 7.8762407
8.0471907 -26.012299 5.2609854
8.6078272 -27.790205 2.7047646
2.6830316 -8.7920675 8.2683496
3.3263006 -10.87968 8.3674936
6.7564335 -22.030411 10.739788
6.2964845 -20.479706 5.2583284
11.799141 -38.30611 1.7105479
1.0508918 -3.7853074 24.973312
1.1811576 -4.1508584 20.771709
0.75165182 -2.5747194 8.6218052
0.93152893 -3.1503108 7.7988958
1.2126302 -4.0698671 7.8497729
1.529978 -5.1090684 7.9055433
0.65764219 -2.9202704 27.875032
1.2121702 -4.2208829 16.945147
0.7966885 -2.7256048 7.7763281
1.0787919 -3.6531823 7.9398861
1.365976 -4.5992923 7.9179935
1.7519833 -5.8728695 8.1900291
2.163918 -7.2308097 8.2604856
2.4181101 -7.9837661 8.2773857
2.9835427 -9.8321552 8.3672409
6.7934284 -22.345642 15.397134
5.8298402 -19.152086 10.56597
7.7862015 -25.515226 7.931232
7.8070626 -25.551653 5.1639934
8.3985929 -27.4534 2.6703396
2.6566341 -8.8156796 8.2816515
3.2871351 -10.887356 8.3645506
6.0853705 -20.130184 12.443518
6.6163445 -21.845364 10.639082
6.2291951 -20.515512 5.2618451
6.1829543 -20.350462 3.0586689
11.656632 -38.31839 1.7093388
1.0376722 -3.7889526 24.973312
1.1666613 -4.1549559 20.771709
0.74183351 -2.5744591 8.6122618
0.92052662 -3.1535432 7.7988958
1.195713 -4.0648842 7.8322163
1.5113368 -5.1116786 7.9014101
0.64882576 -2.9287939 27.934692
1.1946878 -4.2154131 16.906429
0.78669125 -2.726711 7.7716351
1.0678608 -3.6631954 7.9533892
1.3521141 -4.6115398 7.9307909
1.7306211 -5.8760586 8.186039
2.1377041 -7.2350674 8.2568102
2.3892052 -7.9887419 8.273881
2.9480867 -9.8387814 8.3641024
5.9723787 -19.894215 13.702908
5.7808032 -19.23171 10.598433
5.9005284 -19.580475 6.1010094
7.7504597 -25.686916 5.1854434
8.2508631 -27.31093 2.6542447
2.630105 -8.8392143 8.2949533
3.2491112 -10.898764 8.3645506
6.0360265 -20.221525 12.486581
6.5426507 -21.877024 10.643278
5.8425589 -19.511292 7.177794
6.1575446 -20.537132 5.2618451
6.1118803 -20.371922 3.0586689
11.498371 -38.277508 1.7059128
1.0244399 -3.7925518 24.973312
1.151879 -4.1580219 20.766815
0.73284245 -2.577033 8.6122618
0.909513 -3.1567373 7.7988958
1.1828521 -4.0736332 7.8409948
1.4934845 -5.1169233 7.9014101
1.1772584 -4.2098737 16.867716
0.77669597 -2.7277811 7.766943
1.0574749 -3.6752689 7.9713945
1.3403587 -4.6312637 7.956387
1.7092583 -5.8791704 8.1820498
2.1114867 -7.2392306 8.2531347
2.3613045 -7.9970331 8.273881
2.9126213 -9.8452806 8.3609648
5.8898277 -19.870842 13.672751
5.7123761 -19.247526 10.596114
5.8321438 -19.600952 6.1010094
7.6495275 -25.676149 5.1779823
8.1697159 -27.387287 2.6587155
3.2121885 -10.913916 8.3674936
6.6173339 -22.454691 13.841832
6.4341149 -21.790911 10.590826
5.7248807 -19.364014 7.1169844
6.1134133 -20.651716 5.2852917
6.0927711 -20.568813 3.084224
11.292237 -38.073132 1.6956347
1.0111952 -3.7961047 24.973312
1.1370893 -4.1610351 20.761919
0.72343928 -2.5781381 8.6074896
0.89848846 -3.1598928 7.7988958
1.1679657 -4.0754352 7.8366055
1.475614 -5.1221051 7.9014101
1.1602166 -4.2054758 16.833839
0.76716954 -2.7304757 7.766943
1.0470176 -3.6873143 7.989399
1.3249006 -4.638422 7.9606528
1.6878947 -5.882205 8.1780596
2.0862043 -7.2465568 8.2531347
2.3323774 -8.0018024 8.2703762
2.8771455 -9.8516502 8.3578262
5.7781553 -19.746805 13.574059
5.827219 -19.863079 8.4517422
5.9963226 -20.386845 4.1259871
8.1007977 -27.506403 2.6672099
3.1774557 -10.936707 8.3763237
6.5208502 -22.415565 13.803834
6.3249917 -21.699951 10.536278
5.8358555 -19.995844 7.3388577
6.0371981 -20.658934 5.281775
6.0515132 -20.694523 3.0994189
11.174711 -38.165062 1.6978515
0.99793816 -3.7996113 24.973312
1.1225576 -4.1649785 20.761919
0.7136392 -2.5777702 8.5979452
0.88798052 -3.1648908 7.8034983
1.1543843 -4.0817919 7.8409948
1.4577255 -5.1272249 7.9014101
0.35282183 -2.0758555 36.248852
1.1432198 -4.2010098 16.799963
0.75763375 -2.7331369 7.766943
1.036489 -3.699332 8.0074043
1.3058714 -4.6329775 7.9435887
1.6673517 -5.888061 8.1780596
2.0608962 -7.2537947 8.2531347
2.3034458 -8.0064688 8.2668715
2.8427393 -9.8616333 8.3578262
5.6743822 -19.646339 13.491815
5.6553979 -19.555029 10.742199
5.7617164 -19.896656 8.4573612
5.8990993 -20.318022 4.1082673
8.0047331 -27.534512 2.6672099
3.1414886 -10.955503 8.3822098
6.4413757 -22.434046 13.801301
6.2504606 -21.726257 10.538375
5.8640571 -20.356415 7.462121
5.9650483 -20.679882 5.281775
5.988852 -20.748823 3.1042535
11.038648 -38.194233 1.6974484
0.98466897 -3.8030715 24.973312
1.1077508 -4.1678882 20.757023
0.7042436 -2.5788057 8.593173
0.87692767 -3.1679711 7.8034983
1.1401291 -4.0857964 7.8409948
1.4398192 -5.1322823 7.9014101
0.3455736 -2.0770745 36.248852
1.1265939 -4.19769 16.770926
0.74808866 -2.7357647 7.766943
1.0282092 -3.7197137 8.0434141
1.29039 -4.6400199 7.947855
1.6459774 -5.8909431 8.1740694
2.0300729 -7.2413592 8.2310839
2.2754838 -8.0144606 8.2668715
2.8072336 -9.867753 8.3546877
5.5392871 -19.432793 13.332809
5.5883203 -19.578911 10.744518
5.5941353 -19.573423 8.313138
5.6711712 -19.790712 4.000083
3.1098309 -10.989738 8.399869
6.3724284 -22.489573 13.821567
6.1386361 -21.621328 10.477531
5.8665686 -20.635664 7.5558009
5.9726725 -20.98107 5.3521137
5.8973951 -20.702929 3.0945842
10.895665 -38.198902 1.6960377
0.97119576 -3.8057327 24.968374
1.0931954 -4.1717296 20.757023
0.69446135 -2.5783656 8.5836287
0.86586404 -3.1710131 7.8034983
1.12586 -4.0897512 7.8409948
1.421145 -5.1345649 7.8972769
0.33772108 -2.0745633 36.18396
1.110327 -4.1955218 16.746729
0.73853451 -2.7383595 7.766943
1.0152186 -3.72328 8.0434141
1.2679759 -4.6218596 7.9094615
1.6254042 -5.8966527 8.1740694
1.9993612 -7.2287965 8.209033
2.2465322 -8.0189199 8.2633677
2.7727716 -9.877492 8.3546877
5.4589667 -19.407736 13.302654
5.6931415 -20.186258 8.5622511
5.7769294 -20.456045 6.3378949
5.5459142 -19.61186 3.9609132
8.6901522 -30.689877 2.95647
3.0692766 -10.99274 8.3939819
6.3356714 -22.661137 13.912761
6.0570045 -21.620775 10.467041
5.7791953 -20.601458 7.5360789
5.8980846 -20.997112 5.3509417
7.1088428 -25.290472 3.7562559
10.754138 -38.207851 1.6948285
0.95790535 -3.8090997 24.968374
1.0786268 -4.1755199 20.757023
0.68430775 -2.5764458 8.569314
0.85529774 -3.1759026 7.8081007
1.1115773 -4.0936565 7.8409948
1.4032134 -5.1394944 7.8972769
0.33056778 -2.0762999 36.193947
1.0940888 -4.1932907 16.722532
0.72941476 -2.7425883 7.7716351
0.9999547 -3.7183919 8.0254087
1.2457047 -4.6036005 7.871068
1.6048111 -5.9022903 8.1740694
1.9723312 -7.2291903 8.201683
2.2185273 -8.0267134 8.2633677
2.738276 -9.8871107 8.3546877
5.4124317 -19.503223 13.354741
5.7518439 -20.642443 6.3886561
5.4100933 -19.389791 3.9133496
8.605751 -30.801559 2.9640703
3.0298126 -10.999489 8.3910389
6.2347536 -22.60416 13.864631
7.009932 -25.276957 3.7507303
10.612682 -38.216274 1.6936194
0.9440428 -3.8101571 24.953554
1.0640448 -4.1792598 20.757023
0.67455399 -2.5759308 8.5597696
0.84420651 -3.1788688 7.8081007
1.097281 -4.0975118 7.8409948
1.3874594 -5.152513 7.9096761
1.7666345 -6.5335379 8.1798916
0.32362729 -2.0794382 36.228886
0.65875143 -3.3612356 31.901953
1.0781927 -4.1922145 16.703175
0.72027451 -2.7467871 7.7763281
0.98752689 -3.723964 8.0299101
1.2309722 -4.6129603 7.8796
1.5841986 -5.907856 8.1740694
1.9417995 -7.2163887 8.1796322
2.1895571 -8.0309668 8.2598629
2.7027206 -9.8928537 8.3515491
5.3156147 -19.417141 13.283463
5.6797528 -20.662394 6.3886561
5.3097858 -19.290155 3.8900342
8.3182144 -30.178488 2.9032676
2.990339 -11.006099 8.3880968
5.7495322 -21.132488 12.955219
5.740943 -21.028515 7.675777
5.9256754 -21.675423 5.5103769
6.9334164 -25.344261 3.7569463
10.471296 -38.224174 1.6924101
0.93221045 -3.8194685 24.993071
1.0492023 -4.1819611 20.752129
0.66481227 -2.5753789 8.5502253
0.83310503 -3.1817963 7.8081007
1.0829713 -4.1013169 7.8409948
1.3745204 -5.176363 7.9386067
1.7487721 -6.5582471 8.2029161
0.31653941 -2.081697 36.248852
0.64500397 -3.3530447 31.802521
1.0623175 -4.1910787 16.683817
0.71068209 -2.7492845 7.7763281
0.97176898 -3.7168577 8.0074043
1.2148625 -4.6172295 7.8796
1.5635666 -5.9133501 8.1740694
1.9200754 -7.2362299 8.1943321
2.1615105 -8.0385609 8.2598629
2.6671593 -9.898469 8.3484106
5.7271824 -21.181648 11.57233
4.7896295 -17.689663 7.4927502
5.6427417 -20.811731 6.4281373
5.2063785 -19.175835 3.8639205
8.3147297 -30.58217 2.9381397
2.9508562 -11.012565 8.3851528
5.6321611 -20.990049 12.856424
5.6381726 -20.968613 10.125058
5.6675043 -21.048428 7.675777
5.8373232 -21.649042 5.4986534
6.8332963 -25.325279 3.7507303
10.332595 -38.241203 1.691604
0.9197799 -3.8264763 25.017765
1.0345982 -4.1855979 20.752129
0.65508258 -2.5747905 8.5406809
0.82199347 -3.1846848 7.8081007
1.0686485 -4.105072 7.8409948
1.3678457 -5.2246861 8.004734
1.7258688 -6.5643115 8.2029161
0.30943972 -2.0839319 36.268822
0.6352697 -3.3657527 31.901953
1.0464634 -4.1898832 16.664459
0.70108092 -2.7517486 7.7763281
0.95227009 -3.6949301 7.9533892
1.198738 -4.6214418 7.8796
1.5436758 -5.9216881 8.1780596
2.1325235 -8.0426111 8.2563581
2.6315911 -9.9039574 8.3452721
5.6748943 -21.282835 11.616386
4.7254596 -17.697313 7.4890037
5.5824523 -20.877644 6.4422379
5.139411 -19.19389 3.8639205
8.2079277 -30.611008 2.9381397
2.3549681 -8.9319077 8.3082552
2.910332 -11.014982 8.3792667
5.5401139 -20.938738 12.813361
5.5649438 -20.988167 10.125058
5.5976329 -21.081776 7.6807079
5.81043 -21.852488 5.544374
6.7677732 -25.435118 3.7631624
10.191326 -38.24807 1.6903949
0.90963727 -3.8432741 25.106672
1.0197407 -4.1881943 20.747232
0.64572805 -2.5756137 8.5359097
0.81087184 -3.1875348 7.8081007
1.0543126 -4.1087775 7.8409948
1.3629597 -5.2811995 8.0832596
1.7005323 -6.5609875 8.1914043
0.30224589 -2.0855706 36.278801
0.62283915 -3.3642805 31.867151
1.0306306 -4.1886287 16.645102
0.69147128 -2.754179 7.7763281
0.93454379 -3.6792419 7.9128785
1.1819528 -4.6230712 7.8753338
1.5229958 -5.9270401 8.1780596
2.1044366 -8.050005 8.2563581
2.5960176 -9.909318 8.3421335
6.4689422 -24.640455 16.787058
5.6478748 -21.482454 11.713777
4.6612949 -17.704735 7.4852576
5.5291095 -20.971222 6.4647985
5.0623488 -19.173717 3.8564599
8.1010246 -30.639471 2.9381397
2.3228362 -8.9364595 8.3049297
2.870846 -11.021163 8.3763237
5.493104 -21.058058 12.874158
5.2861819 -20.221479 9.7495079
5.5168338 -21.073776 7.6708469
5.787117 -22.07481 5.5947833
10.057753 -38.283413 1.6903949
0.89991719 -3.8623176 25.210396
1.0048777 -4.1907387 20.742338
0.63637573 -2.5764029 8.5311375
0.8002153 -3.192241 7.8127036
1.0393769 -4.1101108 7.8366055
1.3452102 -5.2886524 8.0873928
1.678413 -6.5699887 8.195241
0.29504442 -2.0871847 36.288788
0.61327761 -3.3784978 31.981495
1.0151151 -4.1885352 16.630583
0.68143892 -2.7549007 7.7716351
0.91746718 -3.6655872 7.8768687
1.165171 -4.62464 7.871068
1.5015575 -5.929399 8.1740694
2.076324 -8.0573025 8.2563581
2.5604386 -9.9145498 8.338995
5.563962 -21.467731 11.695226
4.6099477 -17.761284 7.5021148
5.4739738 -21.060036 6.4859486
4.9867277 -19.157995 3.8499315
7.9374976 -30.45071 2.9180212
2.2907014 -8.940897 8.3016043
2.8323576 -11.031116 8.3763237
5.3648148 -20.864178 12.744966
5.1464796 -19.971718 9.6215267
5.5140362 -21.367249 7.7694578
5.7221889 -22.141939 5.6065068
9.9140368 -38.279594 1.6887826
0.88712424 -3.8684649 25.230154
0.99000913 -4.1932292 20.737442
0.62667292 -2.5757077 8.5215931
0.7895357 -3.1969113 7.8173051
1.0250235 -4.1137142 7.8366055
1.3308458 -5.3096933 8.1121902
1.6585993 -6.5882411 8.2105913
0.28779614 -2.0884876 36.293777
0.60315841 -3.3900652 32.070984
0.99961305 -4.1883855 16.616064
0.67141002 -2.7555861 7.766943
0.89789182 -3.6412902 7.8183532
1.1483926 -4.6261473 7.8668017
1.4808509 -5.9346042 8.1740694
2.0473082 -8.0610437 8.2528534
2.5248544 -9.9196558 8.3358574
5.0565434 -19.822985 13.497298
4.5398779 -17.745829 7.4890037
5.4147139 -21.134779 6.5028691
4.9405766 -19.256174 3.8657858
7.8076096 -30.386589 2.9095266
2.2567358 -8.9379787 8.2916279
2.7928429 -11.037017 8.3733807
5.2686563 -20.790848 12.689235
4.8924003 -19.263744 9.2753477
5.4394169 -21.386366 7.7694578
5.6784568 -22.293665 5.6393318
9.7679996 -38.265564 1.6867672
0.87361532 -3.8715382 25.230154
0.975366 -4.1966596 20.737442
0.61733055 -2.5764277 8.5168219
0.77837157 -3.1996479 7.8173051
1.0100868 -4.1149411 7.8322163
1.3102797 -5.3061104 8.0997915
1.6386783 -6.6064339 8.2259417
0.28061876 -2.0903382 36.30875
0.59150392 -3.3932002 32.080925
0.98412454 -4.1881785 16.601547
0.66178715 -2.7579129 7.766943
0.88517588 -3.6444023 7.8183532
1.1322373 -4.6301279 7.8668017
1.4594071 -5.9368114 8.1700792
2.0191574 -8.068141 8.2528534
2.4902132 -9.9284086 8.3358574
5.0545955 -20.108164 13.678235
5.4582925 -21.682178 11.790297
5.4038143 -21.434195 9.0192709
5.3796592 -21.307037 6.5493999
4.9070468 -19.406647 3.8918991
7.7014928 -30.413658 2.9095266
2.7533216 -11.042777 8.3704367
5.2075381 -20.855118 12.7171
4.7645283 -19.038555 9.159955
5.2028642 -20.759371 7.5377221
5.624269 -22.407637 5.6627779
9.5368662 -37.911827 1.6706449
0.8600958 -3.8745642 25.230154
0.96048409 -4.1990461 20.732548
0.60799074 -2.5771141 8.5120497
0.76765305 -3.2042453 7.821908
0.99571681 -4.1184416 7.8322163
1.2917498 -5.3106518 8.0997915
0.27343196 -2.0921638 36.32373
0.57965589 -3.3952441 32.080925
0.96893263 -4.1891389 16.591867
0.65175951 -2.7585268 7.7622504
0.87093008 -3.641118 7.8048491
1.1179001 -4.6416588 7.8796
1.4386748 -5.9418697 8.1700792
1.9901285 -8.0716782 8.2493486
2.4546077 -9.9332619 8.3327188
5.0537329 -20.405741 13.867395
5.4060354 -21.795689 11.841311
5.3010216 -21.340448 8.9724455
5.2936707 -21.279135 6.5352998
4.8475881 -19.457026 3.8984277
7.6037216 -30.474176 2.9126563
2.7147584 -11.05232 8.3704367
5.1573634 -20.965263 12.77283
4.669795 -18.9405 9.1054058
5.201685 -21.066229 7.6412635
5.5483508 -22.436571 5.665123
9.1280441 -36.829563 1.6242927
0.84623444 -3.876024 25.220276
0.94559723 -4.2013798 20.727652
0.59831607 -2.5763125 8.5025053
0.75646353 -3.2069054 7.821908
0.98078007 -4.1195621 7.827827
1.268616 -5.2959723 8.0708609
0.26630819 -2.0945377 36.348686
0.56841469 -3.4009275 32.115726
0.95346719 -4.1888185 16.577349
0.6421265 -2.7607851 7.7622504
0.85721695 -3.6398978 7.7958465
1.105903 -4.6632962 7.9094615
1.4172261 -5.943924 8.1660891
1.9610994 -8.0751104 8.2458448
2.4189987 -9.9379883 8.3295803
4.974545 -20.39076 13.845465
5.2300382 -21.405621 11.621024
5.169199 -21.124662 8.8750477
5.2284946 -21.334757 6.5465798
4.7854953 -19.497683 3.9030907
7.4973006 -30.500534 2.9126563
2.6752114 -11.057801 8.3674936
5.1308441 -21.175856 12.889357
4.5393887 -18.692064 8.9795218
5.149322 -21.171438 7.6724906
5.4653974 -22.436911 5.6604333
8.9911356 -36.827232 1.622882
0.83269948 -3.8789544 25.220276
0.93048584 -4.2026663 20.717861
0.58898693 -2.57693 8.4977331
0.74526471 -3.2095263 7.821908
0.96639413 -4.1229606 7.827827
1.240433 -5.259285 8.0088673
0.25885451 -2.0943081 36.328716
0.5566256 -3.4034171 32.120697
0.93856502 -4.1908946 16.57251
0.63248557 -2.7630095 7.7622504
0.8454892 -3.6471093 7.8048491
1.0949544 -4.6899858 7.947855
1.3964692 -5.9488349 8.1660891
1.7258329 -7.3233175 8.2347593
1.9320706 -8.0784378 8.2423401
2.3833866 -9.9425859 8.3264418
4.8574262 -20.216911 13.716615
5.3221426 -22.117151 11.994351
5.1030326 -21.174128 8.8881598
5.1483631 -21.329561 6.5395298
4.7254863 -19.547689 3.9096191
7.3626642 -30.410357 2.9019265
2.6356595 -11.06314 8.3645506
5.0498919 -21.164286 12.871624
4.4540567 -18.62393 8.9396591
5.0654888 -21.147953 7.6576991
5.3643675 -22.36132 5.6369867
8.8450098 -36.78553 1.619859
0.81883359 -3.880317 25.210396
0.91537708 -4.2038994 20.708073
0.57933342 -2.5760577 8.4881897
0.73362166 -3.2102036 7.8173051
0.95199645 -4.1263089 7.827827
1.2157032 -5.2361712 7.9675374
0.25154245 -2.0951991 36.328716
0.54491013 -3.4063921 32.130638
0.92366004 -4.1929178 16.567671
0.62283707 -2.7652006 7.7622504
0.8327533 -3.6500382 7.8048491
1.0826646 -4.7115717 7.9777164
1.3763739 -5.9566092 8.1700792
1.7002593 -7.3292971 8.2347593
1.9038597 -8.0851326 8.2423401
2.3316779 -9.8788691 8.2668104
4.7858639 -20.229675 13.713874
7.9695573 -33.582558 14.033381
4.7664299 -20.022821 3.9991505
7.2148895 -30.26148 2.8858316
2.5970259 -11.072272 8.3645506
4.9917574 -21.248928 12.912155
4.3900599 -18.64378 8.9417572
4.9829659 -21.128736 7.6445508
5.2795749 -22.351526 5.6299529
8.7096443 -36.78701 1.6186498
0.80512613 -3.882391 25.205458
0.90048397 -4.2060728 20.703176
0.57001543 -2.5766068 8.4834175
0.72198308 -3.2108393 7.8127036
0.93758714 -4.1296067 7.827827
1.1867627 -5.1937466 7.8972769
0.24399504 -2.0940568 36.293777
0.53318071 -3.409327 32.140583
0.90875238 -4.1948881 16.562832
0.61318088 -2.7673578 7.7622504
0.82000726 -3.6529231 7.8048491
1.0719631 -4.7407608 8.0203762
1.3555731 -5.9613771 8.1700792
1.6761742 -7.3417983 8.2421103
1.8748206 -8.0882559 8.2388353
2.2593024 -9.7239199 8.1318569
4.7085805 -20.217751 13.694684
7.8944707 -33.790741 14.108302
5.1796703 -22.135681 6.7721853
4.7200465 -20.139774 4.0187354
7.1023846 -30.257391 2.8831489
2.5583608 -11.08127 8.3645506
4.8816204 -21.110825 12.818428
4.3321276 -18.689939 8.9564438
5.2015209 -22.369818 5.6299529
0.79110396 -3.8828933 25.190639
0.88537741 -4.2071981 20.693386
0.56070071 -2.5771222 8.4786453
0.71034884 -3.211432 7.8081007
0.92264432 -4.130517 7.8234377
1.1667744 -5.1896214 7.8848786
0.23661958 -2.0943222 36.283794
0.52135706 -3.4116943 32.145557
0.89384216 -4.196805 16.557993
0.60351729 -2.7694814 7.7622504
0.80678183 -3.6536374 7.8003478
1.0571069 -4.7521105 8.0331726
1.3347558 -5.9660726 8.1700792
1.6490502 -7.3409886 8.2347593
1.8465759 -8.0947504 8.2388353
2.2062581 -9.6482716 8.0628109
4.6351757 -20.221834 13.686459
7.8273778 -34.039478 14.20008
5.1131368 -22.200373 6.7862854
4.6894679 -20.328442 4.05231
6.9731808 -30.180105 2.8737605
2.5187688 -11.086192 8.3616076
4.8241611 -21.199194 12.861491
4.2355714 -18.56778 8.8914042
4.7532978 -20.803932 7.5163569
5.1179829 -22.364149 5.6240911
8.6737862 -37.811069 1.6585529
0.77739298 -3.8848696 25.185701
0.87027389 -4.2082686 20.683594
0.55138928 -2.5776041 8.4738731
0.69871938 -3.2119832 7.8034983
0.90822047 -4.1337123 7.8234377
1.1486521 -5.1936626 7.8848786
0.22902699 -2.0925522 36.238869
0.50975889 -3.4156024 32.165443
0.87918711 -4.1998997 16.557993
0.59420776 -2.7732587 7.766943
0.79402333 -3.6564312 7.8003478
1.0416272 -4.7608671 8.0417051
1.3132745 -5.9677525 8.1660891
1.6241468 -7.3500104 8.2384348
1.8183087 -8.1011477 8.2388353
2.1725659 -9.6559143 8.0628109
4.5802002 -20.307234 13.733064
4.9864645 -22.072639 11.931744
7.6952095 -34.007812 14.175732
5.0186467 -22.14323 6.7637253
5.6385231 -24.838055 4.9271078
6.8677897 -30.204262 2.8737605
2.4818187 -11.102805 8.3674936
4.1717257 -18.586878 8.8935022
4.6920433 -20.871078 7.5344357
4.9683461 -22.064171 5.5455465
8.5886822 -38.110939 5.5409732
8.5956507 -38.07991 1.6684281
0.76292914 -3.8829846 25.156065
0.85517371 -4.2092857 20.673805
0.54177433 -2.5765913 8.4643297
0.68750316 -3.2144024 7.8034983
0.89378566 -4.1368575 7.8234377
1.1299177 -5.1948905 7.8807454
0.22190228 -2.0950618 36.268822
0.49737301 -3.4141958 32.135612
0.86452138 -4.2029428 16.557993
0.58452362 -2.775316 7.766943
0.7808007 -3.6570516 7.7958465
1.0299386 -4.7874217 8.0800982
1.2917979 -5.9693551 8.1620989
1.5977606 -7.3523221 8.2347593
1.7892505 -8.1039619 8.2353306
2.138006 -9.6596375 8.0596724
5.7084861 -25.727873 17.362764
4.8017492 -21.605591 11.672038
4.0094409 -18.010904 7.5433221
5.5528579 -24.862379 4.92804
8.1658859 -36.502113 3.4509397
2.440444 -11.099559 8.3586645
4.1381307 -18.743145 8.96064
4.7619114 -21.532835 7.7645268
4.780921 -21.583094 5.4224529
8.4555979 -38.140686 5.5409732
8.498414 -38.270626 1.6750784
0.75010568 -3.8894386 25.180761
0.84007698 -4.2102475 20.664015
0.53247511 -2.5770049 8.4595575
