# .PCD v0.7 - Point Cloud Data file format
VERSION 0.7
FIELDS x y z
SIZE 4 4 4
TYPE F F F
COUNT 1 1 1
WIDTH 1558
HEIGHT 1
VIEWPOINT 0 0 0 1 0 0 0
POINTS 1558
DATA ascii
2.5837278 -3.7774122 10.841165
2.4251757 -3.529763 7.9156089
3.0805125 -4.4702954 8.0460634
3.8043492 -5.508409 8.091629
2.4010093 -3.5699434 16.601547
2.5064266 -3.6891682 12.182837
2.500705 -3.6588006 9.2272329
2.712003 -3.9546683 7.9137273
3.4312708 -4.9905138 8.0942688
4.2142997 -6.1179862 8.131855
4.8423314 -6.9800839 8.4280806
5.9987583 -8.6374226 8.5618258
7.5370355 -10.840263 8.7408543
11.258963 -16.145325 3.8284812
5.3692803 -7.7628078 8.4878321
6.6929183 -9.66572 8.6441507
8.4938955 -12.25753 8.8489361
11.88658 -17.108891 5.1153054
11.364133 -16.350824 2.8694224
25.996332 -37.375969 1.9302167
2.1260428 -3.2469552 24.672018
2.2734807 -3.4238985 19.782873
2.454705 -3.6429954 14.090499
2.5771103 -3.7961066 10.868779
2.4074421 -3.5302918 7.8980522
3.0490031 -4.4577937 8.004734
3.7850981 -5.5216551 8.091629
2.3836484 -3.5709841 16.567671
2.4935336 -3.6978948 12.182837
2.4194834 -3.5666192 8.9751654
2.6981821 -3.9641106 7.9137273
3.4053373 -4.9900165 8.0743189
4.1890922 -6.1270628 8.124505
4.8179369 -6.996944 8.4280806
5.9663615 -8.6551046 8.5586872
7.4967761 -10.863065 8.7381124
21.65757 -31.359234 20.03595
11.286407 -16.3057 3.8564599
25.850224 -37.318535 4.1685014
5.3400373 -7.7784247 8.4845066
6.656848 -9.6856918 8.6412077
8.4486141 -12.283553 8.8464031
11.385724 -16.504528 2.8887615
25.823132 -37.404816 1.9271936
2.1155427 -3.2556596 24.681896
2.2587142 -3.4275625 19.758396
2.4361656 -3.6428559 14.057096
2.5616601 -3.8018386 10.859574
2.3910775 -3.5327234 7.8848858
3.0302632 -4.4637532 7.9964676
3.765801 -5.5348344 8.091629
2.3663096 -3.5719469 16.533794
2.4767716 -3.7008395 12.164064
2.3523095 -3.4937806 8.7726097
2.682868 -3.9713435 7.9094615
3.3811388 -4.9918928 8.0583582
4.1657753 -6.1388431 8.1208296
4.7934842 -7.0137196 8.4280806
5.9339156 -8.6726665 8.5555487
7.4564481 -10.885718 8.7353706
21.512911 -31.38349 20.003487
11.332342 -16.494802 3.8909667
25.635155 -37.285431 4.1550889
5.3107505 -7.793932 8.4811811
6.6207209 -9.7055302 8.6382647
8.4032555 -12.30941 8.8438702
10.083924 -14.732687 4.3966751
11.392392 -16.638149 2.9046471
25.627459 -37.399944 1.9225585
2.101218 -3.2584531 24.647322
2.2433927 -3.4303126 19.729027
2.4168315 -3.6413872 14.018918
2.3773959 -3.5390601 7.8804965
3.014663 -4.4743037 7.9964676
3.7464578 -5.5479455 8.091629
2.3483033 -3.5717826 16.495079
2.4619286 -3.7065878 12.154679
2.3352618 -3.4947302 8.7546053
2.6689894 -3.9806845 7.9094615
3.3569696 -4.9936624 8.0423985
4.1424274 -6.1505346 8.1171541
4.7689724 -7.0304089 8.4280806
5.9014192 -8.6901064 8.5524101
7.4184036 -10.911679 8.7353706
21.383297 -31.429094 19.984936
11.208275 -16.436855 3.8685837
25.451515 -37.296532 4.1465945
5.2835121 -7.8124223 8.4811811
6.5845351 -9.725235 8.6353216
8.3578186 -12.335099 8.8413363
10.048823 -14.791919 4.4037089
11.286926 -16.608187 2.8929057
25.420895 -37.377632 1.9171171
2.0910873 -3.2677314 24.662138
2.2286336 -3.433852 19.70455
2.3983588 -3.6410751 13.985515
2.362371 -3.5433519 7.8717179
2.9990268 -4.4847994 7.9964676
3.7252846 -5.5583267 8.0877914
2.3310134 -3.5725889 16.461203
2.446126 -3.7108362 12.140601
2.3194396 -3.4974177 8.7411013
2.6536331 -3.9878054 7.9051952
3.331156 -4.9928164 8.0224476
4.1190491 -6.1621385 8.1134787
4.7444024 -7.0470128 8.4280806
5.8710494 -8.7106533 8.5524101
7.3779316 -10.934042 8.7326298
21.241232 -31.455818 19.954792
11.172858 -16.508425 3.8760448
25.265316 -37.302681 4.1376529
5.2541285 -7.8277168 8.4778557
6.5482936 -9.7448063 8.6323786
8.3123045 -12.360621 8.8388033
9.9971285 -14.826904 4.4037089
11.095963 -16.450424 2.8597531
25.239954 -37.391605 1.9134896
2.0750871 -3.2677951 24.607807
2.2127748 -3.4356182 19.670282
2.375834 -3.6344311 13.928251
2.3499877 -3.5515766 7.8717179
2.9817975 -4.4928956 7.9923348
3.7058594 -5.5712962 8.0877914
2.3137469 -3.5733182 16.427328
2.4237111 -3.7049108 12.093674
2.3072171 -3.5054929 8.7411013
2.6382596 -3.9948676 7.9009295
3.3137076 -5.0044141 8.0224476
4.0975142 -6.1764793 8.1134787
4.7197747 -7.0635309 8.4280806
5.8384438 -8.7278595 8.5492716
7.3373928 -10.956256 8.729888
21.07951 -31.452494 19.906096
11.104209 -16.531013 3.8723142
25.07939 -37.307991 4.1287112
5.2267733 -7.8460097 8.4778557
6.5119953 -9.7642412 8.6294355
8.2667131 -12.385975 8.8362703
21.758385 -32.563667 18.19207
9.9912682 -14.930385 4.4236383
11.462714 -17.122778 2.9661176
25.056446 -37.400616 1.9096605
2.0624251 -3.2730463 24.592989
2.197479 -3.4381733 19.640913
2.3615081 -3.6401975 13.918707
2.3362615 -3.5577559 7.8673291
2.9660962 -4.5032768 7.9923348
3.6846237 -5.5815234 8.0839539
2.2965033 -3.5739698 16.393452
2.3929112 -3.6858473 12.004511
2.2878239 -3.5025895 8.7140951
2.6242988 -4.0040526 7.9009295
3.2945638 -5.013432 8.0184574
4.0740647 -6.1879129 8.1098042
4.6931186 -7.0769901 8.4245758
5.8079419 -8.7481852 8.5492716
7.2944746 -10.974835 8.7244053
20.925428 -31.45949 19.864357
10.071856 -15.119222 5.4298344
11.040987 -16.561499 3.8704488
24.882675 -37.295883 4.1179814
5.1993532 -7.8642063 8.4778557
6.4778719 -9.7869129 8.6294355
8.2186661 -12.407567 8.8312035
21.611979 -32.590248 18.164795
10.019764 -15.08664 4.4588079
11.084985 -16.684223 2.8859987
24.867649 -37.400486 1.9054283
2.0460453 -3.2723193 24.533718
2.1816473 -3.4398038 19.606646
2.3463635 -3.6446533 13.904391
2.400296 -3.7000935 10.44995
2.3238285 -3.5658894 7.8673291
2.9488194 -4.5112481 7.9882026
3.665118 -5.5943508 8.0839539
2.2799597 -3.5756054 16.364414
2.3613396 -3.6651633 11.910656
2.2708476 -3.503247 8.6960897
2.6088843 -4.0110025 7.8966632
3.2770436 -5.0249014 8.0184574
4.0524402 -6.202096 8.1098042
4.6683865 -7.0933294 8.4245758
5.7752285 -8.7651567 8.546134
7.2538185 -10.996741 8.7216635
20.76668 -31.458406 19.817982
10.996662 -16.620422 3.8751123
24.675356 -37.266251 4.1054635
5.1718702 -7.8823075 8.4778557
6.4436703 -9.8094645 8.6294355
8.1729383 -12.432579 8.8286705
21.468142 -32.619995 18.139618
9.9750652 -15.133698 4.4623246
10.93672 -16.586388 2.8632064
24.709431 -37.445366 1.9034131
2.0301051 -3.2721782 24.479387
2.1658311 -3.4413657 19.57238
2.3320196 -3.6503055 13.894848
2.3746762 -3.6887364 10.394719
2.311367 -3.5739791 7.8673291
2.933054 -4.5215139 7.9882026
3.6438208 -5.6044235 8.0801163
2.2634323 -3.5771685 16.335377
2.3392363 -3.658844 11.863728
2.2527168 -3.5019977 8.673584
2.5948672 -4.0200849 7.8966632
3.2578466 -5.0337811 8.0144682
4.030766 -6.2162042 8.1098042
4.6435976 -7.1095819 8.4245758
5.7445974 -8.7852621 8.546134
7.2108078 -11.014997 8.7161808
20.620329 -31.475121 19.783199
10.008163 -15.253339 5.4523945
10.93858 -16.658707 3.8751123
24.564264 -37.38129 4.108593
5.1443248 -7.9003129 8.4778557
6.4071822 -9.8285122 8.6264925
8.1247797 -12.453812 8.8236046
21.284657 -32.588341 18.080873
9.9301596 -15.180629 4.4658422
24.701742 -37.719467 1.912482
2.0145984 -3.2726276 24.429995
2.1500301 -3.4428589 19.538111
2.3096735 -3.6432946 13.837584
2.3649406 -3.7019422 10.408527
2.2975838 -3.5800099 7.8629398
2.918776 -4.53409 7.9923348
3.6224978 -5.6144152 8.0762787
2.2475903 -3.5797246 16.31118
2.3246017 -3.664073 11.854342
2.2357936 -3.5025001 8.6555796
2.5808187 -4.0291181 7.8966632
3.2402556 -5.0451221 8.0144682
4.0090427 -6.2302365 8.1098042
4.618753 -7.1257477 8.4245758
5.7117772 -8.8019962 8.5429955
7.1700368 -11.036594 8.713439
20.493431 -31.520912 19.766968
8.5688601 -13.169665 6.4363594
9.9496241 -15.280142 5.4495745
11.033231 -16.931376 3.9282715
24.54244 -37.633656 4.1264758
5.1146894 -7.9150858 8.4745302
6.3728347 -9.8508177 8.6264925
8.0765734 -12.474859 8.8185377
21.138681 -32.61293 18.053598
9.7977123 -15.092892 4.4306722
9.984561 -15.374857 2.6490955
1.9974931 -3.2703557 24.360844
2.1342454 -3.444284 19.503845
2.2985315 -3.6538615 13.847128
2.3488665 -3.7052248 10.394719
2.2850733 -3.5880079 7.8629398
2.9105058 -4.556109 8.0129995
3.6028774 -5.6270261 8.0762787
2.2317581 -3.5822141 16.286983
2.2989271 -3.6517191 11.788644
2.2188947 -3.5029271 8.6375742
2.5667388 -4.0381021 7.8966632
3.2226248 -5.0564022 8.0144682
3.9872711 -6.2441926 8.1098042
4.5919218 -7.1388278 8.421072
5.6810179 -8.8218803 8.5429955
7.1269364 -11.054526 8.7079563
20.354462 -31.54759 19.739143
8.5027199 -13.16834 6.4213748
9.9066401 -15.330896 5.455215
10.966059 -16.957409 3.9254735
5.0870295 -7.9328914 8.4745302
6.3362265 -9.8696012 8.6235495
8.0283175 -12.495721 8.8134718
20.982975 -32.621628 18.017933
9.6686325 -15.008502 4.3966751
9.9308329 -15.409616 2.6490955
1.984455 -3.2746503 24.341087
2.1184771 -3.445641 19.469578
2.3317578 -3.7067864 10.376309
2.2725348 -3.5959628 7.8629398
2.8991041 -4.5733705 8.0253983
3.5832138 -5.6395679 8.0762787
2.2159359 -3.5846364 16.262787
2.2843378 -3.6567943 11.779258
2.2031782 -3.5051215 8.6240702
2.554019 -4.049243 7.9009295
3.21784 -5.0879941 8.0463886
3.9636359 -6.255209 8.1061287
4.5669746 -7.1548128 8.421072
5.6480932 -8.838377 8.5398569
7.0837989 -11.072292 8.7024736
20.19644 -31.543831 19.692766
8.4592037 -13.201843 6.4232483
9.8504744 -15.361344 5.4538045
5.0573034 -7.9474497 8.4712048
6.2995653 -9.8882494 8.6206055
7.9753819 -12.509131 8.803339
20.822578 -32.621986 17.978069
16.719604 -26.173857 10.898699
9.5507317 -14.939778 4.3673673
9.8796511 -15.44836 2.6497862
1.9698097 -3.2762296 24.301573
2.1032555 -3.4477992 19.440208
2.31777 -3.7132461 10.371707
2.2599688 -3.6038733 7.8629398
2.8891156 -4.5929904 8.0419302
3.5635061 -5.6520414 8.0762787
2.2007809 -3.5880635 16.243429
2.2697411 -3.6618123 11.769873
2.1874738 -3.5072491 8.6105671
2.5412524 -4.0603447 7.9051952
3.2048645 -5.1068521 8.0583582
3.9417768 -6.2690067 8.1061287
4.5400639 -7.1676989 8.4175673
5.6151228 -8.8547516 8.5367184
7.0383821 -11.086362 8.6942492
20.071959 -31.591705 19.678854
8.2314825 -12.945708 6.2865162
9.7607393 -15.338974 5.4340639
11.087522 -17.410603 4.0103421
22.913151 -35.952583 3.9203727
5.0275378 -7.9618988 8.4678793
6.2628498 -9.9067621 8.6176624
7.9293633 -12.533251 8.800806
20.640583 -32.587116 17.919323
9.7094269 -15.305483 4.4623246
9.8336258 -15.495296 2.6518583
1.9551777 -3.2777469 24.26206
2.0875177 -3.4490223 19.405941
2.2955363 -3.7063651 10.330284
2.247375 -3.6117401 7.8629398
2.8745553 -4.6054349 8.0460634
3.5437553 -5.6644459 8.0762787
2.1862826 -3.5925024 16.22891
2.2542334 -3.6653035 11.755795
2.1717813 -3.5093102 8.5970631
2.5284395 -4.0714059 7.9094615
3.194983 -5.1307979 8.0783091
3.9180753 -6.2798514 8.1024532
4.5131183 -7.1804833 8.4140625
5.5821066 -8.8710032 8.5335798
6.9929543 -11.100249 8.6860247
20.006449 -31.732775 19.722912
8.171401 -12.950839 6.2752786
10.987318 -17.386911 3.9963529
22.712984 -35.914497 3.9078541
4.9997149 -7.9793992 8.4678793
6.2260828 -9.9251394 8.6147194
7.8695211 -12.535295 8.7830734
20.497723 -32.612854 17.894146
10.157845 -16.149086 6.729116
9.7491598 -15.487366 4.504528
9.8085051 -15.575621 2.6594558
1.9401636 -3.2785335 24.217607
2.0723209 -3.4510503 19.37657
2.188236 -3.5887353 13.484457
2.2754254 -3.7027042 10.298066
2.2347541 -3.6195629 7.8629398
2.8599434 -4.6178331 8.0501966
3.5239608 -5.6767812 8.0762787
2.1704812 -3.5947318 16.204714
2.2378297 -3.6672571 11.737023
2.1549623 -3.5094492 8.5790586
2.5169487 -4.0846481 7.9179935
3.1786377 -5.1444831 8.0822992
3.8979154 -6.2963729 8.1061287
4.4861388 -7.1931667 8.4105577
5.5511065 -8.8904343 8.5335798
6.947515 -11.113954 8.6778002
19.933147 -31.862503 19.760012
8.4459572 -13.490098 6.5187726
9.6355867 -15.378287 5.4241939
10.950046 -17.462614 4.0047464
22.571596 -35.96825 3.9051719
4.9698591 -7.9936314 8.4645538
6.1892633 -9.9433794 8.6117764
19.288166 -30.963562 21.52243
10.028904 -16.068274 6.6814542
9.8083391 -15.702692 4.5561099
9.8170567 -15.710555 2.6760321
1.9251679 -3.2792549 24.173153
2.0566144 -3.4521396 19.342304
2.173378 -3.5925202 13.47014
2.2563844 -3.7006159 10.270451
2.222106 -3.6273417 7.8629398
2.8452804 -4.6301861 8.0543299
3.5058048 -5.6917772 8.0801163
2.1495233 -3.5882678 16.141802
2.2223339 -3.6706173 11.722944
2.1393008 -3.5113726 8.5655546
2.5040357 -4.095634 7.9222593
3.1622353 -5.1581154 8.0862885
3.8759131 -6.3099403 8.1061287
4.4610028 -7.2087827 8.4105577
5.5179901 -8.9064484 8.5304413
6.8998618 -11.123923 8.6668339
19.826477 -31.939417 19.76465
8.3963699 -13.51556 6.5169001
9.6274385 -15.485159 5.4495745
23.119703 -37.157784 8.4001846
4.941926 -8.010931 8.4645538
6.1545172 -9.9649239 8.6117764
19.168633 -31.012367 21.509766
9.8664026 -15.943871 8.7550306
10.000104 -16.147345 6.699533
9.7534676 -15.736835 4.5561099
9.8013 -15.807858 2.6863923
1.9101906 -3.2799118 24.1287
2.0414436 -3.4540377 19.312931
2.15852 -3.5962453 13.455825
2.2333415 -3.6917531 10.224426
2.2094307 -3.635076 7.8629398
2.8305652 -4.6424923 8.0584621
3.4875867 -5.7067146 8.0839539
2.1260688 -3.5773792 16.05953
2.2050648 -3.6709559 11.699481
2.1225266 -3.5113666 8.5475492
2.4910765 -4.1065793 7.9265246
3.1457767 -5.1716967 8.0902786
3.8556278 -6.3263264 8.1098042
4.4339466 -7.221272 8.4070539
5.486867 -8.9256554 8.5304413
6.8522239 -11.133698 8.6558685
19.640528 -31.887733 19.690447
8.1545324 -13.229072 6.3670568
9.5934753 -15.551332 5.4608545
22.925344 -37.133766 8.3768692
4.9139323 -8.0281324 8.4645538
6.1175847 -9.9829016 8.6088333
19.044487 -31.053368 21.492033
20.098093 -32.732895 17.843794
9.9436789 -16.182154 6.699533
9.6959305 -15.766644 4.5549378
9.7720079 -15.884152 2.6932988
1.8952324 -3.280504 24.084246
2.0267994 -3.4567506 19.288456
2.1459537 -3.6037581 13.455825
2.2214465 -3.7012017 10.229029
2.1967282 -3.6427662 7.8629398
2.824538 -4.6691985 8.0873928
3.4676454 -5.718854 8.0839539
1.5548112 -3.0268056 31.693148
2.0739918 -3.5176442 15.759486
2.188704 -3.6727009 11.68071
2.1057782 -3.5112865 8.5295448
2.4780712 -4.1174841 7.9307909
3.1308188 -5.1878057 8.098259
3.8370299 -6.3455486 8.1171541
4.4087124 -7.2367048 8.4070539
5.455677 -8.9447536 8.5304413
6.8046017 -11.143273 8.6449022
19.496758 -31.903177 19.657984
8.1905441 -13.391922 6.4307399
10.702435 -17.471603 3.9814308
4.885879 -8.0452366 8.4645538
6.0806003 -10.00074 8.6058903
18.895639 -31.05337 21.446436
20.004961 -32.83773 17.862675
9.7572937 -15.991258 4.6088643
9.811965 -16.07456 2.7188542
1.8802934 -3.2810318 24.039793
2.0121617 -3.4594035 19.263979
2.1242509 -3.5958037 13.398561
2.2065146 -3.7055764 10.219824
2.1839993 -3.6504123 7.8629398
2.7937417 -4.6549015 8.0460634
3.4476616 -5.7309232 8.0839539
1.5408517 -3.0255635 31.623547
2.0572581 -3.517267 15.725611
2.1714797 -3.6728909 11.657246
2.0890565 -3.5111318 8.5115395
2.4650207 -4.1283488 7.9350567
3.1111431 -5.1961174 8.0942688
3.8166008 -6.3618112 8.1208296
4.3834248 -7.2520504 8.4070539
5.4224057 -8.960413 8.5273027
6.7548294 -11.149077 8.6311951
19.380684 -31.963465 19.653347
8.1966572 -13.507624 6.4719467
9.2008104 -15.150505 5.3001108
10.391356 -17.097475 3.8900342
4.8577662 -8.0622425 8.4645538
6.0435662 -10.018444 8.6029472
18.751482 -31.060091 21.405903
9.7763758 -16.174494 8.8242664
8.8088312 -14.562266 6.0125461
9.6938629 -16.012745 4.6053476
9.7506638 -16.100241 2.7174728
21.826946 -36.012188 1.7923695
1.8661416 -3.2828465 24.005219
1.9975299 -3.4619963 19.239504
2.1079128 -3.5967577 13.374701
2.1905854 -3.7082093 10.206016
2.1712437 -3.6580136 7.8629398
2.7702777 -4.6525354 8.0253983
3.4276359 -5.7429228 8.0839539
1.532202 -3.0347311 31.663321
2.0443375 -3.5233397 15.720772
2.1542809 -3.6730058 11.633782
2.0723617 -3.5109038 8.493535
2.4505951 -4.1369281 7.9350567
3.0760589 -5.1784477 8.0503778
3.7995715 -6.3838339 8.131855
4.3562493 -7.2642484 8.4035492
5.3910947 -8.9792862 8.5273027
6.7115617 -11.165419 8.6257124
19.195921 -31.909452 19.579145
8.1088085 -13.468636 6.4401054
9.0562696 -15.030502 5.2479396
22.405863 -37.157257 8.3293056
4.8276787 -8.0759449 8.4612284
6.0064826 -10.03601 8.6000042
18.609718 -31.069883 21.367905
9.7898798 -16.325289 8.887208
8.9790745 -14.961383 6.1621056
9.6103792 -16.000652 4.592452
9.7020559 -16.146912 2.7195449
21.654766 -36.011097 1.7887421
1.8520001 -3.2846026 23.970644
1.9834102 -3.4654131 19.219923
2.0900936 -3.5950603 13.341297
2.1776278 -3.7158332 10.206016
2.1584616 -3.6655703 7.8629398
2.7382777 -4.6355252 7.9799361
3.4059355 -5.7520947 8.0801163
1.5218377 -3.0405376 31.668291
2.0263834 -3.5206492 15.677217
2.1379752 -3.6745367 11.615011
2.0556939 -3.5106015 8.4755297
2.4361393 -4.1454568 7.9350567
3.0396066 -5.1580019 8.0024977
3.7841594 -6.4087348 8.1465559
4.3308659 -7.2794104 8.4035492
5.3577266 -8.9947062 8.5241642
6.6789713 -11.199553 8.6339369
19.077608 -31.964853 19.572189
7.9714088 -13.345618 6.3689303
9.1218929 -15.259662 5.3156214
22.210455 -37.125645 8.3050585
21.542221 -35.980164 3.8577814
4.799459 -8.0927477 8.4612284
5.9693499 -10.05344 8.5970602
18.461514 -31.067945 21.322308
9.8186941 -16.503679 8.9648361
8.8180819 -14.810051 6.0881472
9.5669079 -16.054977 4.5983138
9.6507044 -16.189188 2.7209263
21.59548 -36.198013 1.7939817
1.8378692 -3.2862999 23.936069
1.9687884 -3.4678879 19.195446
2.0745492 -3.5971615 13.322209
2.1646438 -3.723412 10.206016
2.1456532 -3.6730824 7.8629398
2.7277706 -4.6547666 7.9964676
3.3825896 -5.7584214 8.0724411
1.511452 -3.046309 31.673264
2.0109658 -3.5222428 15.653019
2.1173725 -3.6685255 11.572776
2.0390537 -3.5102265 8.4575253
2.4216545 -4.1539354 7.9350567
3.0215831 -5.1685805 8.0024977
3.799463 -6.4862609 8.2274094
4.3036175 -7.2914124 8.4000444
5.324316 -9.0100021 8.5210257
6.6398368 -11.222799 8.6339369
18.927547 -31.966455 19.53277
7.9554992 -13.42521 6.39328
9.066124 -15.287285 5.3142114
9.5774279 -16.136616 3.6540811
21.502964 -36.200714 3.872982
4.7692871 -8.1062346 8.4579029
5.9321694 -10.070733 8.5941172
18.333252 -31.09878 21.299511
8.982481 -15.206666 6.2360635
9.4712315 -16.021326 4.5795565
9.5966558 -16.227039 2.721617
21.591137 -36.479546 1.8036553
1.8241258 -3.2886183 23.906433
1.9541734 -3.4703023 19.170969
2.0590158 -3.5991986 13.303122
2.1633451 -3.7512546 10.261247
2.1328187 -3.6805496 7.8629398
2.7072632 -4.6569619 7.9840693
3.359241 -5.7646551 8.0647669
1.5003389 -3.0506096 31.663321
1.9924655 -3.5183032 15.604625
2.1062686 -3.6788893 11.582162
2.0224407 -3.5097775 8.4395199
2.4071395 -4.1623635 7.9350567
3.0035229 -5.1790962 8.0024977
3.8108642 -6.5581083 8.3009129
4.2781391 -7.3063903 8.4000444
5.2908649 -9.025176 8.5178881
6.6006222 -11.245908 8.6339369
7.8522019 -13.356982 6.3483267
8.8910799 -15.11211 5.24371
9.3141727 -15.818614 3.5766737
21.467487 -36.430008 3.8890769
4.7390804 -8.1196079 8.4545774
5.8949399 -10.087889 8.5911741
18.196293 -31.114208 21.266581
19.286638 -32.939037 17.732597
8.8147478 -15.042367 6.1571751
9.3906593 -16.012363 4.5678334
9.5725317 -16.315964 2.7305956
21.585091 -36.761482 1.8133286
1.810014 -3.2901995 23.871859
1.9395658 -3.4726577 19.146494
2.0442297 -3.6024692 13.288805
2.1502376 -3.7587833 10.261247
2.1199582 -3.6879721 7.8629398
2.6909909 -4.6663833 7.9840693
3.3374939 -5.773571 8.0609293
1.4913151 -3.0591826 31.69812
1.980172 -3.5252366 15.604625
2.0883017 -3.6772158 11.554006
2.0058563 -3.5092559 8.4215164
2.393893 -4.1730027 7.9393229
2.9854264 -5.189549 8.0024977
3.7997997 -6.5919309 8.3266382
4.2508178 -7.3181953 8.3965397
5.2573724 -9.0402241 8.5147495
6.5613256 -11.26888 8.6339369
7.7728324 -13.328245 6.3221045
8.685935 -14.882043 5.1548777
8.7509861 -14.981493 3.3854866
21.443237 -36.680992 3.9074073
4.708837 -8.1328688 8.451252
5.8576636 -10.104908 8.5882311
18.061613 -31.13279 21.236181
8.3563681 -14.374939 5.8761353
9.4764757 -16.288723 4.6358275
9.632597 -16.550436 2.7630577
21.592426 -37.069721 1.8242114
1.7959137 -3.2917228 23.837284
1.9254588 -3.4758441 19.126913
2.0272496 -3.6017776 13.260174
2.1554217 -3.7985508 10.348694
2.105886 -3.69327 7.8585515
2.6732888 -4.673306 7.9799361
3.3157256 -5.7824054 8.0570917
1.4792368 -3.0614893 31.668291
1.9703016 -3.53652 15.623983
2.0771465 -3.6874897 11.563391
1.9892998 -3.508661 8.403511
2.379312 -4.1813335 7.9393229
2.9672933 -5.1999383 8.0024977
3.7818151 -6.6139841 8.3376646
4.2252464 -7.3329887 8.3965397
5.2238388 -9.0551491 8.511611
6.5198588 -11.288095 8.6311951
8.4464531 -14.58846 5.0448952
8.9990988 -15.530479 3.4992661
21.452467 -36.992558 3.9319963
4.6804194 -8.1492567 8.451252
5.8203406 -10.121789 8.585288
17.927027 -31.150812 21.205782
8.2967033 -14.387656 5.8695607
9.4219904 -16.325912 4.6370001
9.5871458 -16.605402 2.7665112
21.49539 -37.201103 1.8268313
1.7818248 -3.2931879 23.80271
2.0110271 -3.6023154 13.236313
2.152689 -3.8247795 10.399322
2.0929811 -3.7005982 7.8585515
2.6527934 -4.6752663 7.9675374
3.295521 -5.7939439 8.0570917
1.4655503 -3.0603833 31.603661
1.9579449 -3.543376 15.623983
2.0634208 -3.6932118 11.558699
1.971705 -3.5060961 8.3810053
2.364702 -4.1896133 7.9393229
2.9476397 -5.2076421 7.998508
3.7587047 -6.6271443 8.3376646
4.1978545 -7.3445973 8.3930359
5.1921988 -9.073329 8.511611
6.4783378 -11.307156 8.6284542
8.0903187 -14.097899 6.6555042
8.3954782 -14.617854 5.0448952
9.0231667 -15.698081 3.52911
21.372875 -37.153549 3.9409382
4.6500969 -8.1623001 8.4479265
5.7849736 -10.142044 8.585288
17.792538 -31.168276 21.175385
20.316677 -35.546745 19.014507
9.4132414 -16.443068 4.6604466
9.6767874 -16.896601 2.8079522
21.449871 -37.423283 1.8336834
1.7673801 -3.2939095 23.763193
1.9926564 -3.5988653 13.198137
2.1507516 -3.8527415 10.454553
2.0800509 -3.7078817 7.8585515
2.6378376 -4.6869502 7.9716702
3.2752762 -5.8054123 8.0570917
1.4528031 -3.0611455 31.558916
2.0747707 -3.7441657 11.694788
1.955213 -3.5053523 8.3629999
2.3487892 -4.1955667 7.9350567
2.9368191 -5.2310367 8.0184574
3.735549 -6.6402245 8.3376646
4.1721916 -7.3592057 8.3930359
5.1585736 -9.0880117 8.5084724
6.4367623 -11.326064 8.6257124
8.0961008 -14.222749 6.7004571
8.3444014 -14.647071 5.0448952
21.179911 -37.147369 8.2099304
21.30476 -37.336063 3.9521153
4.6215768 -8.1784821 8.4479265
5.749536 -10.162175 8.585288
17.656019 -31.181427 21.142452
20.320057 -35.842495 19.134096
8.0142918 -14.124873 5.7413673
9.307785 -16.391293 4.6370001
21.158133 -37.245026 6.0665808
21.264786 -37.402378 1.8292496
1.7533171 -3.2952569 23.728619
1.9750527 -3.5966401 13.164734
2.1495912 -3.8824449 10.514385
2.0659308 -3.7130268 7.8541622
2.6214612 -4.6961293 7.9716702
3.2549918 -5.8168092 8.0570917
1.4373479 -3.0560668 31.454515
2.0675061 -3.761972 11.727637
1.9387501 -3.5045362 8.3449955
2.3341296 -4.2037401 7.9350567
2.9229393 -5.249155 8.0304279
3.7123475 -6.6532235 8.3376646
4.1447296 -7.3706164 8.3895311
5.1268191 -9.1059637 8.5084724
6.3951349 -11.344821 8.6229706
8.1239023 -14.388177 6.7641401
8.2979431 -14.684462 5.0477152
20.994495 -37.122734 8.1884804
21.115427 -37.306187 3.941385
4.5911746 -8.191308 8.4446001
5.7120509 -10.178659 8.582345
17.521736 -31.197765 21.112057
7.9672537 -14.156876 5.7430105
9.0930786 -16.144169 4.5596275
20.97208 -37.219425 6.0506949
21.10465 -37.42416 1.8268313
1.738904 -3.2958593 23.689106
1.9703386 -3.617933 13.217226
2.1407273 -3.8984869 10.537397
2.0518003 -3.7181184 7.8497729
2.6064155 -4.7077131 7.9758034
3.2362227 -5.8309388 8.0609293
1.4250964 -3.057683 31.419716
2.0667489 -3.7918947 11.798029
1.9223168 -3.503648 8.3269901
2.3181837 -4.2095771 7.9307909
2.9089687 -5.2672391 8.0423985
3.6891007 -6.6661415 8.3376646
4.1189766 -7.3850393 8.3895311
5.0931044 -9.1204062 8.5053339
6.3514142 -11.359776 8.6174879
8.2395973 -14.700783 5.0434852
20.833542 -37.140095 8.1763563
20.95826 -37.331898 3.9364672
4.5625539 -8.207284 8.4446001
5.6764855 -10.198536 8.582345
17.387556 -31.213545 21.081657
7.9315982 -14.209341 5.752872
8.8304291 -15.806638 4.4576354
20.842031 -37.292404 6.0506949
21.044611 -37.624043 1.8326756
1.7248679 -3.2970893 23.654531
1.9576976 -3.6247885 13.217226
2.1467264 -3.9419672 10.63405
2.0388091 -3.7252579 7.8497729
2.6021562 -4.7389822 8.0129995
3.2173948 -5.8450074 8.0647669
1.4115109 -3.0563464 31.355085
2.0633461 -3.8173032 11.854342
1.9069538 -3.5046003 8.3134871
2.3034751 -4.2176433 7.9307909
2.8949072 -5.2852893 8.054368
3.6658092 -6.678978 8.3376646
4.0914464 -7.3962512 8.3860264
5.0612373 -9.1381283 8.5053339
6.2975273 -11.35628 8.5982981
12.726598 -22.930996 13.814609
7.4875002 -13.479998 6.3183584
8.3164253 -14.960056 5.1210365
9.1876163 -16.513643 3.6792617
4.5338774 -8.2231607 8.4446001
5.6388979 -10.214749 8.579402
17.253477 -31.228769 21.051258
9.5437002 -17.252716 9.2019157
8.2204542 -14.848373 5.9961114
8.8529406 -15.977671 4.4963222
20.783756 -37.494865 6.0714154
1.7108444 -3.2982616 23.619955
1.9485562 -3.6381795 13.241085
2.1440928 -3.9700646 10.689281
2.0246506 -3.7302468 7.8453836
2.5990558 -4.7727509 8.0543299
3.198508 -5.8590159 8.0686035
1.4001688 -3.0598006 31.340172
1.8728521 -3.5336909 15.435246
2.0606065 -3.8442554 11.915348
1.890574 -3.503572 8.2954817
2.287497 -4.2233648 7.9265246
2.8807554 -5.3033061 8.0663385
3.6424727 -6.6917334 8.3376646
4.0656037 -7.4104877 8.3860264
5.0274343 -9.1523285 8.5021954
6.2477727 -11.359874 8.5845909
12.663566 -23.006327 13.833159
7.4650064 -13.550717 6.3389616
8.257206 -14.976394 5.1168065
9.2201014 -16.709049 3.7147014
4.5033541 -8.2356606 8.4412756
5.6012664 -10.230825 8.5764589
17.119507 -31.243441 21.020861
9.4921513 -17.301842 9.2103081
8.1413012 -14.827307 5.9763894
8.7105007 -15.850863 4.4529467
21.506346 -39.087563 1.8933364
1.6979001 -3.3014498 23.600199
1.9407455 -3.6541874 13.274489
2.1431339 -4.001636 10.753716
2.0116174 -3.7372916 7.8453836
2.5823798 -4.7817941 8.0543299
3.1795628 -5.8729639 8.0724411
1.38772 -3.0607853 31.3004
1.86226 -3.5435455 15.449763
2.0568933 -3.8697107 11.971662
1.8752515 -3.5043917 8.2819786
2.2727406 -4.2313242 7.9265246
2.8650839 -5.318635 8.0743189
3.6174817 -6.7014241 8.3339891
4.0380073 -7.4215021 8.3825216
4.9954562 -9.1698208 8.5021954
6.1980705 -11.363259 8.5708838
12.598039 -23.077608 13.849391
7.4043236 -13.552283 6.327723
9.2136011 -16.835934 3.7352192
4.4745789 -8.2513304 8.4412756
5.563591 -10.246762 8.5735149
16.985643 -31.257555 20.990463
9.4685726 -17.402643 9.2459745
8.5163126 -15.63945 6.2870126
8.662096 -15.893974 4.4564633
21.360201 -39.144855 1.8925303
1.6853067 -3.3052795 23.585381
1.9446697 -3.6926384 13.389016
2.1401479 -4.029798 10.808946
1.9985595 -3.7442906 7.8453836
2.5670009 -4.7932596 8.0584621
3.1605592 -5.8868508 8.0762787
1.3757178 -3.0626926 31.270571
1.8365213 -3.5243852 15.338457
2.0530279 -3.8951867 12.027975
1.8599466 -3.5051472 8.2684746
2.2579567 -4.2392321 7.9265246
2.8493407 -5.3339195 8.0822992
3.5940671 -6.7140102 8.3339891
4.0120764 -7.4355521 8.3825216
4.9615669 -9.1837778 8.4990568
6.1484203 -11.366436 8.5571756
17.330059 -32.011127 19.140892
7.3967252 -13.651416 6.3614378
9.1547766 -16.867992 3.7352192
4.4439807 -8.2636108 8.4379501
5.5277891 -10.266121 8.5735149
16.843712 -31.255941 20.949932
9.3883715 -17.399639 9.2270927
8.2754316 -15.324215 6.1506009
8.5279865 -15.778728 4.4166045
21.206785 -39.188419 1.8911196
1.6720066 -3.3076746 23.560684
1.9414406 -3.7179291 13.455825
2.1369913 -4.0579882 10.864177
1.9854772 -3.7512443 7.8453836
2.5515735 -4.8046761 8.0625944
3.1414971 -5.9006767 8.0801163
1.3637193 -3.0645535 31.240742
1.8357453 -3.5531094 15.435246
2.0498087 -3.9222119 12.088981
1.8436453 -3.503912 8.2504692
2.2431452 -4.247088 7.9265246
2.8335249 -5.3491578 8.0902786
3.5706091 -6.7265153 8.3339891
3.9844146 -7.4463668 8.3790169
4.9294796 -9.2010422 8.4990568
6.1008 -11.37309 8.5462103
12.37376 -23.047909 13.779827
7.9612303 -14.816515 6.8840141
7.6137114 -14.157912 4.8150597
9.3030396 -17.284819 3.8182223
4.4151087 -8.2790728 8.4379501
5.4900165 -10.281789 8.5705719
16.724344 -31.295532 20.937265
7.7425938 -14.457998 5.7972469
15.442288 -28.799723 4.6499958
21.08404 -39.288624 1.8923289
1.6594064 -3.3114071 23.545868
1.9408033 -3.7485447 13.54172
2.1327596 -4.0844727 10.914804
1.9723709 -3.758152 7.8453836
2.5334754 -4.8110638 8.0584621
3.1178882 -5.9059377 8.0724411
1.3515097 -3.0658803 31.20594
1.8187475 -3.5505457 15.39653
2.0456319 -3.9477301 12.145294
1.8283828 -3.5045359 8.2369661
2.2283065 -4.2548919 7.9265246
2.8176382 -5.3643522 8.098259
3.5471075 -6.7389379 8.3339891
3.9583976 -7.4602294 8.3790169
4.8955054 -9.2147551 8.4959183
6.0571365 -11.386933 8.5407267
12.255763 -23.020578 13.738089
8.8054447 -16.52577 7.653831
7.613905 -14.277524 4.8460808
9.3837395 -17.581539 3.8751123
4.3844366 -8.2911329 8.4346247
5.4522014 -10.297318 8.5676289
16.580688 -31.288971 20.894203
7.7430182 -14.580861 5.8350472
9.7042055 -18.25861 5.0777912
15.20682 -28.599846 4.6099362
1.6450725 -3.3116117 23.506351
1.9379308 -3.7752163 13.6133
2.129267 -4.1127119 10.970035
1.9592404 -3.7650139 7.8453836
2.5244808 -4.8348446 8.0832596
3.0927944 -5.9082661 8.0609293
1.3393075 -3.0671592 31.171141
1.8097574 -3.5635972 15.425566
2.0413015 -3.9732664 12.201607
1.8131379 -3.5050957 8.2234621
2.2134407 -4.2626443 7.9265246
2.7891531 -5.3554468 8.0703287
3.5235627 -6.7512789 8.3339891
3.9323323 -7.4740019 8.3790169
4.8633103 -9.2317867 8.4959183
6.0134497 -11.40061 8.535244
12.152582 -23.020126 13.712582
7.2815199 -13.78141 6.3857875
7.5460811 -14.27009 4.8348002
9.2143126 -17.410128 3.831279
4.3554688 -8.3063869 8.4346247
5.4143453 -10.312708 8.5646858
16.453321 -31.312313 20.871403
12.424057 -23.614182 12.422426
7.6458697 -14.520056 5.8005333
9.7401247 -18.481573 5.1293736
15.051468 -28.547625 4.5933599
21.373482 -40.504131 1.9410994
1.6335027 -3.3173339 23.506351
1.9355726 -3.8032439 13.689652
2.1256034 -4.1409769 11.025266
1.9460862 -3.7718298 7.8453836
2.5075886 -4.8436275 8.0832596
3.0691986 -5.9133363 8.0532541
1.3271128 -3.0683901 31.136339
1.7978722 -3.5710154 15.430406
2.0360348 -3.9972825 12.253227
1.7969185 -3.5036554 8.2054577
2.1985478 -4.2703447 7.9265246
2.7579997 -5.3410535 8.0344181
3.4984164 -6.7605262 8.3303137
3.9045696 -7.48452 8.3755121
4.8292542 -9.2452583 8.4927797
5.9658661 -11.406711 8.5242786
12.049555 -23.019234 13.687075
7.1516166 -13.650697 6.3146119
7.496223 -14.296344 4.8348002
9.2584858 -17.642269 3.8741794
8.7531395 -16.665195 1.7828876
4.3247252 -8.3182278 8.4312992
5.378314 -10.331544 8.5646858
11.961871 -22.958885 15.29841
12.370941 -23.713737 12.451798
7.464005 -14.2955 5.7019229
9.7836084 -18.72224 5.1856451
14.820953 -28.349846 4.5539913
20.972557 -40.08271 1.9185278
1.6191874 -3.3174295 23.466839
1.9323699 -3.8299677 13.761231
2.122654 -4.1710062 11.085097
1.9318175 -3.7764676 7.8409948
2.476531 -4.8248119 8.037797
3.0456052 -5.9183135 8.045579
1.3151356 -3.0700636 31.10651
1.7853961 -3.5772696 15.430406
2.0314028 -4.0228505 12.309541
1.7817175 -3.5040848 8.1919537
2.1836281 -4.2779932 7.9265246
2.7242346 -5.3211441 7.9905276
3.4747965 -6.772697 8.3303137
3.8784199 -7.4981041 8.3755121
4.7951622 -9.2586021 8.4896412
5.9317875 -11.438602 8.5325022
11.97321 -23.069019 13.691712
8.9182701 -17.168344 7.9048171
8.6949139 -16.695648 1.7828876
4.2939515 -8.3299532 8.4279737
5.340363 -10.346663 8.5617428
11.909355 -23.054117 15.333875
12.288089 -23.756777 12.451798
7.4140592 -14.321467 5.7019229
10.149765 -19.589214 5.4119024
20.74509 -39.98716 1.9108697
1.6086123 -3.3251598 23.481657
1.9290041 -3.8567152 13.832811
2.1204007 -4.2028098 11.149533
1.9186234 -3.7831879 7.8409948
2.4494646 -4.813364 8.004734
3.0220146 -5.9231982 8.0379038
1.3029549 -3.0711999 31.071711
1.7896178 -3.61728 15.575589
2.0258446 -4.0468917 12.361161
1.7675154 -3.5063946 8.182951
2.1675043 -4.2832623 7.9222593
2.7042797 -5.3279338 7.9865375
3.4495971 -6.7817631 8.3266382
3.850596 -7.5084238 8.3720083
4.7610369 -9.271822 8.4865026
5.8899112 -11.455519 8.5297613
11.831804 -22.992508 13.622149
8.7755032 -17.038633 7.8317685
7.3698583 -14.297161 4.8178797
8.6731396 -16.796696 1.7900409
4.2631493 -8.341567 8.4246473
5.3023734 -10.361644 8.5587997
11.987982 -23.406334 15.539062
12.113963 -23.621836 12.359485
7.3230529 -14.267439 5.6706963
10.083544 -19.628847 5.4130745
8.1171465 -15.794234 2.5689766
1.9254751 -3.883486 13.904391
2.1162035 -4.231154 11.204763
1.9054058 -3.7898622 7.8409948
2.4174383 -4.7917356 7.9551387
2.9998736 -5.9308505 8.0340662
1.2907823 -3.072289 31.036909
1.7858342 -3.641562 15.653019
2.0247455 -4.0802178 12.440938
1.7523459 -3.5067012 8.1694479
2.1525397 -4.290802 7.9222593
2.6870198 -5.3400331 7.9905276
3.424377 -6.7907357 8.3229637
3.8227468 -7.5186396 8.3685036
4.7268767 -9.2849159 8.4833641
5.8669791 -11.509537 8.5544338
11.71121 -22.95475 13.575772
8.7370567 -17.110451 7.8504992
8.8003197 -17.204708 3.7603996
4.2340059 -8.3563976 8.4246473
5.2643428 -10.376485 8.5558567
11.88864 -23.413443 15.516263
11.996465 -23.5952 12.323817
7.2646394 -14.27608 5.6641221
9.7965784 -19.235132 5.2970147
8.0552206 -15.809237 2.5669045
19.065042 -37.384979 1.7865251
1.9217826 -3.9102793 13.975971
2.1179085 -4.2717719 11.292212
1.8921652 -3.7964902 7.8409948
2.4006972 -4.8001451 7.9551387
2.9777164 -5.9384212 8.0302296
1.2784134 -3.0728383 30.997139
1.7824527 -3.6669929 15.73529
2.0097289 -4.085712 12.436245
1.7381622 -3.5088954 8.1604452
2.1363878 -4.2959547 7.9179935
2.6670182 -5.346683 7.9865375
3.4006519 -6.8026476 8.3229637
3.7948735 -7.5287533 8.3649998
4.6926842 -9.297884 8.4802256
5.8493996 -11.57473 8.5873318
11.627013 -22.987583 13.571135
8.752655 -17.289745 7.9179287
9.7176704 -19.179417 6.4098067
9.7164173 -19.143812 2.0202866
4.203135 -8.3677893 8.4213219
5.2262745 -10.391187 8.5529137
11.735123 -23.312332 15.422535
7.1871123 -14.246542 5.6427565
9.7841454 -19.377684 5.3263226
8.0491085 -15.934503 2.5820997
18.920902 -37.424545 1.7853159
1.9179263 -3.9370928 14.047551
2.1081541 -4.2896595 11.319826
1.8789015 -3.8030717 7.8409948
2.3839271 -4.8084955 7.9551387
2.9541159 -5.9430389 8.0225544
1.2664622 -3.0743244 30.967308
1.7789148 -3.6924434 15.817559
1.9954548 -4.0927024 12.436245
1.7230248 -3.5090787 8.1469412
2.1213791 -4.3033857 7.9179935
2.6483386 -5.3559604 7.9865375
3.3753805 -6.8114395 8.3192883
3.7685699 -7.541954 8.3649998
4.6602001 -9.314208 8.4802256
5.7958498 -11.568908 8.5681419
11.409698 -22.754797 13.411139
8.7608681 -17.456924 7.9797382
9.6700411 -19.251802 6.4224968
9.6338654 -19.146471 2.0171568
4.1739006 -8.38241 8.4213219
5.1881666 -10.405748 8.5499697
11.620955 -23.287582 15.379472
8.7418575 -17.495132 9.1284838
7.1098809 -14.21664 5.6213913
9.7795382 -19.537767 5.3603201
7.9934378 -15.962502 2.5820997
18.758812 -37.427834 1.7824944
1.6348907 -3.4454558 18.358362
1.9132571 -3.9625835 14.114358
2.1025782 -4.3163118 11.370455
1.8656148 -3.8096073 7.8409948
2.3658867 -4.8142624 7.9510059
2.9404359 -5.96769 8.0417414
1.2529069 -3.0718153 30.897707
1.7752212 -3.7179146 15.89983
1.9804056 -4.0980892 12.431552
1.7079076 -3.5091991 8.1334381
2.1051996 -4.3084211 7.9137273
2.6283007 -5.3624668 7.9825482
3.3515837 -6.8231802 8.3192883
3.7406383 -7.551868 8.361495
4.6259294 -9.326931 8.477087
5.7572913 -11.592814 8.5708838
11.338084 -22.81035 13.420413
8.7721519 -17.632673 8.0452948
9.6027813 -19.285439 6.4224968
9.5847559 -19.215633 2.0207336
4.142962 -8.3935804 8.4179964
5.1500216 -10.420172 8.5470266
11.58929 -23.428465 15.445333
8.6565619 -17.476738 9.1033068
7.0706992 -14.262524 5.6296086
9.9100409 -19.972363 5.4681735
18.594706 -37.425976 1.7794715
1.6228538 -3.4511416 18.358362
1.9090774 -3.9894352 14.185938
2.0959921 -4.3412189 11.41648
1.8512597 -3.813942 7.8366055
2.3478351 -4.8199615 7.9468727
2.9252133 -5.9894385 8.0570917
1.2429744 -3.0781474 30.917595
1.7713711 -3.7434039 15.9821
1.9660887 -4.1049771 12.431552
1.6928107 -3.5092576 8.119935
2.0901475 -4.3157434 7.9137273
2.6161494 -5.3851604 8.0024977
3.3277457 -6.8348379 8.3192883
3.7142544 -7.5648794 8.361495
4.5933442 -9.3430214 8.477087
5.7112494 -11.601585 8.5626593
11.313214 -22.961054 13.48534
8.7310524 -17.704763 8.0640249
9.3613014 -18.966108 6.3068743
8.7920475 -17.797144 3.8601899
9.4624414 -19.137373 2.0095568
4.1136379 -8.4079914 8.4179964
5.1118388 -10.434455 8.5440836
11.507439 -23.468777 15.445333
8.5975046 -17.510923 9.1054058
9.8424082 -20.011194 5.4693456
18.428635 -37.418949 1.776247
1.6107972 -3.4567854 18.358362
1.9040942 -4.0149574 14.252747
2.085042 -4.3573208 11.439492
1.8379353 -3.8203809 7.8366055
2.3334427 -4.8331962 7.9551387
2.9098744 -6.0111527 8.0724411
1.2314312 -3.0804873 30.897707
1.7673645 -3.7689118 16.064371
1.9517475 -4.111815 12.431552
1.6777339 -3.5092528 8.106431
2.0750701 -4.3230133 7.9137273
2.6051788 -5.4105492 8.0264378
3.3038673 -6.8464117 8.3192883
3.6862648 -7.5745907 8.3579903
4.5589976 -9.3555002 8.4739485
5.6542144 -11.587629 8.5379858
11.184396 -22.900892 13.42737
8.64884 -17.693485 8.0452948
8.4876165 -17.348326 5.7668319
8.7341909 -17.83655 3.8620553
9.410923 -19.201588 2.0126863
4.0826344 -8.4189396 8.4146709
5.0753846 -10.452235 8.5440836
11.393414 -23.442892 15.40227
8.3575878 -17.173542 8.9165802
8.7017393 -17.864889 7.0052257
9.5978374 -19.687164 5.3732157
8.3946037 -17.211464 2.7630577
18.267225 -37.420193 1.7734256
1.6012816 -3.4679341 18.387733
1.8989558 -4.0404935 14.319553
2.0848866 -4.3963466 11.522338
1.8245885 -3.8267732 7.8366055
2.3129139 -4.8336968 7.9427395
2.8930333 -6.029943 8.0839539
1.2202789 -3.0837753 30.887764
1.7632015 -3.7944374 16.146641
1.9373828 -4.1186028 12.431552
1.662678 -3.509186 8.0929279
2.0610876 -4.3325853 7.9179935
2.5940628 -5.4359264 8.0503778
3.2799489 -6.857903 8.3192883
3.659802 -7.5874124 8.3579903
4.5263133 -9.371357 8.4739485
5.6046286 -11.588474 8.5242786
11.12369 -22.979666 13.450558
8.6246891 -17.769709 3.841538
4.0532222 -8.4331398 8.4146709
5.0371156 -10.466246 8.5411406
11.543489 -23.964098 15.716384
8.1753426 -16.949167 8.7865019
8.6311131 -17.878143 6.9986515
8.4508591 -17.481417 2.8003545
18.097324 -37.402782 1.769798
1.5845076 -3.4633169 18.333885
1.893662 -4.0660415 14.386361
2.0803294 -4.4265833 11.58217
1.8112195 -3.8331189 7.8366055
2.3068783 -4.8646245 7.9799361
2.8774726 -6.0515833 8.0993032
1.2089244 -3.0865271 30.87285
1.758356 -3.8188374 16.224072
1.9222654 -4.1237764 12.42686
1.6485682 -3.5110273 8.0839252
2.0459516 -4.3397536 7.9179935
2.5815134 -5.4585686 8.0703287
3.2545383 -6.8662467 8.3156128
3.6332946 -7.600141 8.3579903
4.4918928 -9.3835878 8.4708099
5.5424547 -11.562719 8.4913807
11.06257 -23.058292 13.473745
11.707831 -24.381443 11.015924
9.6235018 -20.02294 6.6199017
8.5115013 -17.693464 3.8191547
4.0221548 -8.4438658 8.4113464
5.0005507 -10.483765 8.5411406
11.443054 -23.969234 15.693585
8.593111 -17.959278 7.0183735
8.4154634 -17.564402 2.8086426
17.940731 -37.411667 1.7673796
1.5803946 -3.486448 18.426897
1.8882132 -4.0916023 14.45317
2.0714629 -4.4479861 11.618991
1.7968128 -3.8372488 7.8322163
2.2982614 -4.8904753 8.0088673
2.8590636 -6.0673895 8.1069784
1.195833 -3.0847631 30.81319
1.7544049 -3.8455369 16.31118
1.907859 -4.1304612 12.42686
1.6335474 -3.510839 8.0704212
2.0318944 -4.3492317 7.9222593
2.5726733 -5.4893746 8.1022491
3.2305508 -6.8775654 8.3156128
3.6052165 -7.6095548 8.3544855
4.4574428 -9.3956947 8.4676723
5.5038538 -11.585773 8.4941225
10.9706 -23.072765 13.459833
11.367656 -23.886347 10.776176
8.3776855 -17.587833 5.8161831
8.4623718 -17.749672 3.8247507
8.4994307 -17.811413 1.8647029
3.9910614 -8.4544773 8.40802
4.9621978 -10.497502 8.5381975
11.486526 -24.277905 15.868375
8.0471001 -16.985319 8.7760105
8.6416502 -18.223839 7.108767
8.4324532 -17.76667 4.8339496
8.3307352 -17.544462 2.8010452
17.775719 -37.401871 1.7641553
1.5807269 -3.5198097 18.573753
1.8832294 -4.1185317 14.524749
2.0739317 -4.494216 11.720246
1.7834072 -3.8434975 7.8322163
2.2894917 -4.9163246 8.037797
2.8378673 -6.077333 8.1069784
1.1839132 -3.0859323 30.783363
1.7477005 -3.8665283 16.374094
1.8934293 -4.1370955 12.42686
1.6185482 -3.5105891 8.0569181
2.0112221 -4.3444638 7.9009295
2.5522268 -5.4955883 8.098259
3.2050931 -6.8857265 8.3119373
3.5786321 -7.6220932 8.3544855
4.4229622 -9.4076738 8.4645338
5.4633784 -11.604915 8.4941225
10.889995 -23.110918 13.459833
11.300029 -23.959425 10.791161
8.4780159 -17.959671 5.9275756
8.4255438 -17.832399 3.835942
8.4733992 -17.917507 1.8723034
3.9599438 -8.4649754 8.4046946
4.92381 -10.511099 8.5352545
14.613363 -31.16777 20.314104
7.9241104 -16.877733 8.7067757
6.7182388 -14.296354 5.5868773
8.4696865 -18.007118 4.8902206
8.1640186 -17.349398 2.7665112
1.5762932 -3.5429819 18.666761
1.8786966 -4.1468353 14.601101
2.0704162 -4.528079 11.789285
1.7689795 -3.847523 7.827827
2.2841067 -4.9498377 8.0791273
2.8125982 -6.0784755 8.0954666
1.1702986 -3.0825696 30.70879
1.742925 -3.8921077 16.456364
1.8789767 -4.1436801 12.42686
1.6044751 -3.5122571 8.0479155
2.009093 -4.3799047 7.9521208
2.5393262 -5.5181508 8.1182079
3.1810381 -6.8968725 8.3119373
3.5504997 -7.6313047 8.3509808
4.3884525 -9.419528 8.4613953
5.4228363 -11.623915 8.4941225
10.811131 -23.152803 13.462152
8.8883381 -19.017693 8.5697441
8.1408691 -17.402563 5.7372212
8.2216024 -17.559189 3.7725239
8.4086895 -17.942465 1.8718562
3.930371 -8.4787474 8.4046946
4.8853879 -10.524556 8.5323114
14.446354 -31.093489 20.233042
6.7261043 -14.443861 5.6345391
8.3718691 -17.961678 4.8702912
7.4881144 -16.058289 2.5634513
18.097349 -38.774536 1.8197776
1.5754122 -3.5745516 18.803827
1.8739887 -4.1751575 14.677453
2.0691085 -4.5673118 11.872129
1.7555386 -3.8536747 7.827827
2.2691548 -4.9628992 8.0873928
2.7806768 -6.0649467 8.0647669
1.1600931 -3.0881331 30.723703
1.7349347 -3.9108071 16.509598
1.8637936 -4.1486387 12.422167
1.5904101 -3.5138698 8.0389128
2.0002661 -4.4011369 7.9777164
2.5225492 -5.5324645 8.1261883
3.1555352 -6.904851 8.3082628
3.5238397 -7.6436515 8.3509808
4.3539143 -9.4312544 8.4582567
5.3839827 -11.646568 8.4968634
8.9485331 -19.322037 8.6914902
8.0578794 -17.382999 5.7217107
8.2222834 -17.72146 3.8005023
8.3481054 -17.976225 1.8723034
3.8991923 -8.4890213 8.4013691
4.8486204 -10.541546 8.5323114
14.350349 -31.171139 20.250774
6.6617951 -14.437237 5.6230345
8.2765121 -17.920189 4.8515344
7.4361701 -16.093321 2.5648327
18.087719 -39.109543 1.8318696
1.5674055 -3.5902944 18.857676
1.8691062 -4.2034974 14.753804
2.0659513 -4.6030245 11.94577
1.742076 -3.8597789 7.827827
2.2518175 -4.9707899 8.0873928
2.748884 -6.05127 8.0340662
1.1487498 -3.0906646 30.70879
1.726835 -3.9294982 16.562832
1.849301 -4.1551194 12.422167
1.5754627 -3.5134406 8.0254087
1.9881036 -4.4152269 7.9905143
2.5032218 -5.5412359 8.1261883
3.1314135 -6.9158239 8.3082628
3.4956555 -7.6526618 8.347476
4.3209662 -9.4463949 8.4582567
5.3380718 -11.653886 8.4886389
9.0453815 -19.7113 8.8506985
7.9310784 -17.267166 5.6751795
8.2124434 -17.846914 1.8566556
3.8695362 -8.5025797 8.4013691
4.8101177 -10.554728 8.5293684
10.717067 -23.494625 15.260412
9.1744089 -20.084862 10.295001
8.0035572 -17.489311 4.7296133
7.3717027 -16.10117 2.5620699
17.951092 -39.172443 1.8318696
1.5629445 -3.6144359 18.95558
1.8646499 -4.2332196 14.834929
2.0617766 -4.6369853 12.014808
1.7285922 -3.8658364 7.827827
2.2356045 -4.9811873 8.091526
2.7237983 -6.0520601 8.0225544
1.1368517 -3.0916538 30.678963
1.7176225 -3.9458747 16.606386
1.8347856 -4.1615491 12.422167
1.5614216 -3.5149398 8.016407
1.9737418 -4.4245214 7.9947805
2.4690933 -5.5169358 8.0783091
3.1058662 -6.9236197 8.3045874
3.4689217 -7.6648178 8.347476
4.2863593 -9.4578762 8.4551182
5.2939034 -11.664833 8.4831562
9.6044102 -21.143288 12.242463
8.9477396 -19.679451 8.8226032
9.2590551 -20.326509 4.3320961
8.3380985 -18.287815 1.8973397
3.8382983 -8.5126314 8.3980436
4.7715821 -10.56777 8.5264244
10.647418 -23.559391 15.278144
9.1042442 -20.116764 10.295001
7.5428858 -16.65131 6.4513631
9.1688423 -20.221941 5.445899
17.781197 -39.162079 1.8286451
1.5571318 -3.635782 19.038799
1.860009 -4.2629614 14.916052
2.0558147 -4.667397 12.07464
1.7150874 -3.8718469 7.827827
2.2239194 -5.0018172 8.1121902
2.7013507 -6.0586033 8.0187168
1.1244143 -3.0910943 30.634218
1.7038382 -3.9518464 16.606386
1.8188668 -4.1647658 12.412782
1.5473891 -3.5163834 8.0074043
1.9603935 -4.4361548 8.0033121
2.429059 -5.4786916 8.010478
3.0816793 -6.9344192 8.3045874
3.440686 -7.6736255 8.3439713
4.2517247 -9.4692287 8.4519796
5.2480092 -11.6718 8.4749317
9.51964 -21.152447 12.22855
8.8789911 -19.710566 8.8226032
8.4413052 -18.721504 6.12639
9.0950947 -20.152744 4.2891955
8.1614542 -18.067196 1.8727504
3.8085604 -8.5259781 8.3980436
4.7330141 -10.580671 8.5234814
10.588015 -23.64756 15.311076
8.9448404 -19.949638 10.194295
7.5214515 -16.759396 6.4825897
9.0942144 -20.244955 5.4435544
8.9866171 -19.996103 3.1498384
1.5515863 -3.6580682 19.126913
1.8551831 -4.2927222 14.997175
2.0496657 -4.6978235 12.134474
1.7015616 -3.87781 7.827827
2.210983 -5.0198507 8.1287222
2.6801858 -6.067996 8.0187168
1.1119949 -3.0904856 30.589476
1.6905272 -3.958926 16.611227
1.8097987 -4.1837606 12.450324
1.5324957 -3.5157764 7.9939003
1.9469881 -4.4477496 8.0118437
2.4002268 -5.465066 7.9785581
3.0574548 -6.9451337 8.3045874
3.4138789 -7.6855884 8.3439713
4.2186451 -9.4840126 8.4519796
5.2072353 -11.690048 8.4749317
9.3862181 -21.052034 12.15203
8.1394348 -18.238554 8.1576767
8.3759041 -18.750856 6.12639
8.2146559 -18.372663 3.9124169
7.9640765 -17.795568 1.8432432
3.7787759 -8.5392208 8.3980436
4.6944146 -10.593433 8.5205383
10.508901 -23.692255 15.316142
8.8972559 -20.030512 10.219471
9.0215158 -20.272137 5.4423823
8.7898693 -19.742344 3.1063259
1.5462985 -3.6812994 19.219923
1.8501718 -4.3225007 15.0783
2.043329 -4.7282634 12.194306
1.6880151 -3.8837259 7.827827
2.1855705 -5.0094829 8.0997915
2.6589882 -6.0773149 8.0187168
1.0992362 -3.0888236 30.534788
1.6762079 -3.963645 16.606386
1.8067358 -4.2170186 12.530101
1.5184884 -3.517107 7.9848976
1.934563 -4.4616971 8.024642
2.3775294 -5.4651217 7.966588
3.0331933 -6.9557638 8.3045874
3.3855939 -7.6941938 8.3404675
4.185514 -9.4986801 8.4519796
5.1866541 -11.754061 8.5078297
7.6406879 -17.26655 5.6399288
8.7612104 -19.780083 4.1987314
7.8373218 -17.677578 1.8289367
3.7474465 -8.5489397 8.3947182
4.6557827 -10.606053 8.5175953
10.452147 -23.787992 15.354139
9.0265207 -20.514252 10.448159
7.8272128 -17.75502 4.7706442
8.2652702 -18.739851 2.9488506
1.5404763 -3.7035973 19.308037
1.8455577 -4.3536716 15.164195
2.0368049 -4.7587161 12.254139
1.6744483 -3.8895946 7.827827
2.1524436 -4.9809175 8.0419302
2.6352091 -6.0806775 8.0110416
1.0893315 -3.0951562 30.559645
1.662362 -3.9694719 16.606386
1.7920046 -4.2232995 12.530101
1.5036347 -3.5163815 7.9713945
1.9241225 -4.4804049 8.0459709
2.3608227 -5.4789219 7.9745679
3.0075505 -6.9631968 8.3009129
3.3587155 -7.705965 8.3404675
4.150775 -9.5096664 8.4488411
5.1623406 -11.810408 8.535244
8.9744558 -20.51235 11.806528
7.846396 -17.91699 7.9909768
7.4705958 -17.042686 5.559557
7.7595472 -17.66835 1.8253599
3.7160954 -8.5585432 8.3913927
4.6171207 -10.618534 8.5146523
10.369047 -23.824333 15.354139
8.9693651 -20.57892 10.464944
7.4833803 -17.153196 6.6025658
7.9130206 -18.12077 4.8597403
8.3722887 -19.163385 3.00894
1.5349048 -3.7268405 19.401045
1.8401705 -4.3834853 15.245319
2.0300927 -4.7891808 12.313972
1.6608608 -3.8954155 7.827827
2.1195428 -4.9521818 7.9840693
2.6190245 -6.1016207 8.026392
1.0779955 -3.0974293 30.544731
1.6484958 -3.9752502 16.606386
1.7825991 -4.2422571 12.567643
1.4888045 -3.5155945 7.9578905
1.9105126 -4.4918938 8.0545034
2.339318 -5.4815865 7.966588
2.9832258 -6.9736528 8.3009129
3.3303831 -7.7143683 8.3369627
4.1160097 -9.5205231 8.4457026
5.1376963 -11.866728 8.5626593
8.9063225 -20.551682 11.811166
7.7358394 -17.833691 7.9422774
7.4760184 -17.218267 5.6074982
7.6700149 -17.631395 1.8191009
3.6861978 -8.5714636 8.3913927
4.5784278 -10.630874 8.5117083
10.540091 -24.450222 15.731584
8.8686953 -20.543434 10.431375
7.3635187 -17.040501 6.5499735
7.9925113 -18.478411 4.9464922
1.5288056 -3.7491474 19.489161
1.8345978 -4.4133148 15.326443
2.0284858 -4.8322663 12.406023
1.6472532 -3.9011896 7.827827
2.0912621 -4.9336414 7.9427395
2.6115031 -6.1431727 8.0686035
1.0670037 -3.1006691 30.539759
1.6346096 -3.9809804 16.606386
1.4739982 -3.5147476 7.9443874
1.8816609 -4.4672894 7.9990454
2.3178234 -5.4841676 7.9586077
2.9575427 -6.9809017 8.2972374
3.3034346 -7.7259464 8.3369627
4.0827518 -9.534833 8.4457026
5.0995378 -11.892276 8.5681419
8.8659792 -20.655916 11.852904
7.6790318 -17.873363 7.947897
