# .PCD v0.7 - Point Cloud Data file format
VERSION 0.7
FIELDS x y z
SIZE 4 4 4
TYPE F F F
COUNT 1 1 1
WIDTH 1458
HEIGHT 1
VIEWPOINT 0 0 0 1 0 0 0
POINTS 1458
DATA ascii
-0.90807384 -4.7831016 2.0553353
-0.88155693 -4.6522527 1.4817423
-0.86539966 -4.5756907 0.97559601
-0.82764512 -4.3844109 0.49351156
-1.1078608 -5.7371607 5.2853756
-1.0192916 -5.2933526 4.0086732
-0.97508407 -5.0732813 3.1214187
-0.92712104 -4.8373661 2.3643627
-0.89534324 -4.6803622 1.7476401
-0.87608272 -4.5883188 1.2173501
-0.83695418 -4.3875232 0.71519136
-0.80916727 -4.2498775 0.26819119
-0.046188399 -0.06750562 7.9489708
-0.26684234 -1.2165724 7.9180546
-0.3439458 -1.6168466 7.9706907
-0.49747306 -2.4180946 7.9394116
-0.44567782 -2.2051241 5.3595576
-0.87876177 -4.3943858 8.2799025
-0.88783628 -4.4721007 6.7689824
-0.75160861 -3.8067589 4.7223001
-0.13821085 -0.44397902 7.8812571
-0.17012469 -0.62909353 6.0352173
-0.4240562 -2.0169771 7.9728527
-0.58415556 -2.8441339 7.9499607
-0.55033004 -2.7177541 5.797308
-0.86172223 -4.2896538 7.2269115
-1.3389691 -6.7074127 9.1316748
-1.2061312 -6.0695248 6.7867446
-1.1463042 -5.8701949 5.957376
-1.0585318 -5.4358134 4.54774
-0.99520463 -5.124876 3.5073953
-0.94689596 -4.8851886 2.6913259
-0.91067475 -4.707078 2.0253668
-0.88596648 -4.5879164 1.4634118
-0.8664909 -4.4954667 0.96067411
-0.82600951 -4.2934704 0.48546419
-1.0990504 -5.5867167 5.1523557
-1.0214211 -5.2064681 3.9468672
-0.97290444 -4.9683161 3.0606225
-0.92747331 -4.7494674 2.3244998
-0.89631641 -4.5984144 1.7197005
-0.87909758 -4.518436 1.2009376
-0.84470516 -4.345686 0.70966595
-0.81257856 -4.1881733 0.26577282
-0.046423756 -0.06734398 7.9489708
-0.27108735 -1.2156336 7.9180546
-0.34958756 -1.6156361 7.9706907
-0.50591075 -2.4163432 7.9394116
-0.45179713 -2.1959009 5.3411474
-0.89600724 -4.4006791 8.2974596
-0.76868349 -3.8229659 4.7453251
-0.13949646 -0.44266883 7.8662825
-0.17231961 -0.62849581 6.0352173
-0.4310942 -2.0154846 7.9728527
-0.59407985 -2.8420775 7.9499607
-0.56245095 -2.7286091 5.8243151
-0.87773591 -4.2917304 7.2354436
-1.3233593 -6.5107617 8.872324
-1.201759 -5.9390111 6.6470885
-1.1403499 -5.7332439 5.8242035
-1.0532645 -5.3099117 4.4473095
-0.99523544 -5.0311275 3.447083
-0.94420528 -4.781898 2.6379933
-0.91006678 -4.6174507 1.9897792
-0.88993794 -4.5236073 1.4450815
-0.8613534 -4.3863702 0.94015646
-0.82758087 -4.2221432 0.47920504
-1.0906707 -5.443728 5.0259867
-1.0245405 -5.1275616 3.8909469
-0.96916091 -4.8592014 2.997293
-0.92633784 -4.6571741 2.2825387
-0.89580911 -4.5118866 1.6901174
-0.88163549 -4.4485898 1.1845253
-0.8444795 -4.264987 0.69861507
-0.81460029 -4.1215963 0.26315293
-0.046658549 -0.06718152 7.9489708
-0.27378097 -1.2078605 7.8736014
-0.35522506 -1.614406 7.9706907
-0.51403117 -2.4131026 7.9346399
-0.45986 -2.1962225 5.3457503
-0.91427946 -4.4115949 8.3237934
-0.94853425 -4.6091189 6.9838958
-1.1921674 -5.8236504 7.1936531
-0.14121827 -0.44272861 7.8762655
-0.1743688 -0.62737715 6.0302453
-0.43812692 -2.0139675 7.9728527
-0.60399693 -2.8399863 7.9499607
-0.89271152 -4.28864 7.2354436
-1.2960141 -6.2641406 8.5451412
-1.1903346 -5.7787194 6.4743552
-1.1277902 -5.5684452 5.6629939
-1.0394248 -5.1459622 4.3154941
-0.99297273 -4.9292455 3.3812878
-0.94080538 -4.6786871 2.584661
-0.90701962 -4.5187955 1.9504455
-0.89252877 -4.4546227 1.4253409
-0.86991578 -4.3496189 0.93362814
-0.81599015 -4.0873713 0.46713394
-1.0790676 -5.2898922 4.8896413
-1.0206749 -5.0170107 3.8114817
-0.9646678 -4.750175 2.9339635
-0.92456979 -4.5649486 2.2405777
-0.89470869 -4.4254184 1.6605341
-0.88369656 -4.3787808 1.1681128
-0.843701 -4.1843438 0.68756419
-0.8171531 -4.0599551 0.26073456
-0.046892773 -0.067018248 7.9489708
-0.27869412 -1.209926 7.8933587
-0.36085823 -1.6131562 7.9706907
-0.52245134 -2.4112937 7.9346399
-0.46752343 -2.1946039 5.3457503
-0.93263882 -4.4224372 8.3501282
-1.2098731 -5.8069015 7.1783028
-0.1413278 -0.43784246 7.7963991
-0.1765577 -0.62676466 6.0302453
-0.44515431 -2.0124261 7.9728527
-0.61390668 -2.8378608 7.9499607
-0.90821666 -4.2880492 7.2397099
-1.3035929 -6.1917601 8.4533701
-1.1826752 -5.641808 6.3273487
-1.1191353 -5.428256 5.5263166
-1.0385655 -5.0508022 4.2401714
-0.99505156 -4.8520179 3.3319414
-0.93847358 -4.5842385 2.5359662
-0.90700793 -4.4383869 1.918604
-0.89369029 -4.3809767 1.4041904
-0.87039071 -4.274354 0.91963881
-0.82430071 -4.0552168 0.46445143
-1.0694404 -5.1508288 4.7665977
-1.0185093 -4.9184246 3.7408457
-0.9602983 -4.6454616 2.873167
-0.92125267 -4.4683475 2.1965184
-0.88730419 -4.3112631 1.6210899
-0.88528121 -4.3090129 1.1517003
-0.8413741 -4.098907 0.67582262
-0.81828272 -3.9934528 0.25811464
-0.04712642 -0.066854149 7.9489708
-0.366487 -1.6118867 7.9706907
-0.53086513 -2.4094553 7.9346399
-0.47518119 -2.1929586 5.3457503
-1.220829 -5.7587457 7.124578
-0.14385241 -0.4403615 7.8513074
-0.17859723 -0.62563217 6.0252738
-0.45190042 -2.0096338 7.9680138
-0.62380892 -2.8357005 7.9499607
-0.97944999 -4.5116916 9.6098366
-0.92317921 -4.284853 7.2397099
-1.2936422 -6.0398507 8.2538691
-1.167003 -5.4718661 6.1435905
-1.0875459 -5.1834893 5.284503
-1.0346628 -4.9442816 4.1554327
-0.98549676 -4.7216258 3.2469561
-0.9318797 -4.4725184 2.4779963
-0.8941732 -4.2990308 1.8624129
-0.89337343 -4.30268 1.3816299
-0.86935401 -4.1943293 0.90471691
-0.82735187 -3.9986715 0.4595336
-1.0688896 -5.0593891 4.6867857
-1.0148346 -4.8159609 3.6672666
-0.95166004 -4.5239644 2.8022382
-0.91447693 -4.3585014 2.1461654
-0.89266706 -4.2619209 1.6046548
-0.88638979 -4.2392888 1.135288
-0.8323853 -3.9844546 0.65993696
-0.81997824 -3.9318836 0.25569627
-0.0473595 -0.066689245 7.9489708
-0.37211129 -1.6105976 7.9706907
-0.53927243 -2.4075875 7.9346399
-0.48829991 -2.2160888 5.4055829
-1.3520314 -6.238029 9.4471331
-1.2341661 -5.7231169 7.0862026
-0.14584669 -0.44122553 7.8762655
-0.18078001 -0.62500495 6.0252738
-0.45891261 -2.0080442 7.9680138
-0.63370359 -2.8335056 7.9499607
-0.99660069 -4.5146227 9.6233397
-0.93868881 -4.284152 7.2439756
-1.2800819 -5.8763118 8.0384083
-1.1422534 -5.2656608 5.9194055
-0.97608835 -4.5728064 4.6747117
-1.0324612 -4.8492723 4.0801101
-0.97938728 -4.6118112 3.175678
-0.93646127 -4.4172368 2.4501708
-0.90821433 -4.2913475 1.8605399
-0.89351261 -4.2291336 1.3604794
-0.86878318 -4.1191716 0.89072764
-0.83001828 -3.9421544 0.45461568
-1.0551605 -4.9096112 4.5537658
-1.0096101 -4.7096319 3.5907447
-0.95391351 -4.4573846 2.7642405
-0.91452563 -4.2842665 2.1125965
-0.88982266 -4.1756468 1.5750718
-0.8870225 -4.1696091 1.1188755
-0.83496302 -3.9282424 0.65233952
-0.82125396 -3.8703518 0.2532779
-0.047591999 -0.066523522 7.9489708
-0.22343151 -0.92598963 6.0559545
-0.37773106 -1.6092888 7.9706907
-0.54734176 -2.4042349 7.9298677
-0.49987707 -2.2315283 5.4470057
-1.3677408 -6.2057905 9.4058027
-1.2218641 -5.5716248 6.9058404
-0.14831154 -0.44344828 7.9261823
-0.18296058 -0.6243701 6.0252738
-0.46591917 -2.0064299 7.9680138
-0.64359051 -2.8312764 7.9499607
-1.0147372 -4.5217366 9.6458454
-0.95363754 -4.2808495 7.2439756
-1.2738676 -5.7511883 7.8748174
-0.9882611 -4.5519462 4.6571889
-1.0287853 -4.750536 4.0016484
-0.97517222 -4.51436 3.1126244
-0.92666024 -4.2970238 2.387563
-0.90660107 -4.2111063 1.8286985
-0.8860935 -4.1228099 1.3294587
-0.85636252 -3.9912376 0.86647946
-0.82812828 -3.8661907 0.44790953
-1.0411963 -4.7636395 4.4240713
-1.0045168 -4.6073484 3.5171657
-0.94287789 -4.3318748 2.6907785
-0.92177117 -4.2455664 2.0958121
-0.89739066 -4.1402102 1.563567
-0.88820773 -4.1047287 1.1036353
-0.83925158 -3.8817418 0.64612335
-0.8221103 -3.8088598 0.25085953
-0.047823921 -0.066356987 7.9489708
-0.2275885 -0.92897707 6.0806508
-0.38358256 -1.6089511 7.9755859
-0.55573076 -2.4023099 7.9298677
-0.52328128 -2.2983453 5.6126966
-1.0011449 -4.4393563 8.4071856
-1.3327873 -5.9483533 9.0255718
-1.2078222 -5.4171624 6.7216401
-0.14939103 -0.44156224 7.9012237
-0.18513891 -0.62372762 6.0252738
-0.47292009 -2.0047915 7.9680138
-0.65346956 -2.8290126 7.9499607
-1.0290624 -4.5117998 9.6323423
-0.97606301 -4.3105612 7.2994328
-1.2575284 -5.5850253 7.6553655
-1.0810626 -4.8209033 5.4342842
-1.0018377 -4.5380216 4.6466756
-1.024433 -4.6518855 3.923187
-0.96311152 -4.3843231 3.0276387
-0.93406224 -4.2591472 2.3690126
-0.90939635 -4.1535721 1.806222
-0.89433306 -4.0915732 1.3209985
-0.86505276 -3.9642272 0.86181635
-0.82677835 -3.7951548 0.44165042
-1.0448576 -4.7016587 4.370863
-0.99872214 -4.5051589 3.4435868
-0.94215673 -4.2570052 2.6477144
-0.91995174 -4.1669831 2.0601451
-0.90167302 -4.0909381 1.5471321
-0.88895106 -4.0398917 1.0883951
-0.84003574 -3.8207502 0.6378352
-0.82361853 -3.7522893 0.24864268
-0.048055261 -0.066189647 7.9489708
-0.23082985 -0.928177 6.0806508
-0.38919649 -1.6076024 7.9755859
-0.56411296 -2.4003553 7.9298677
-0.53878891 -2.328862 5.6909394
-1.0182405 -4.4428382 8.4203529
-1.3441695 -5.9025078 8.9635782
-1.1955512 -5.2753711 6.5527897
-0.15102591 -0.44131085 7.9062157
-0.18716069 -0.62256742 6.0203028
-0.47991523 -2.0031283 7.9680138
-0.66294634 -2.8250344 7.9452682
-1.0482463 -4.5230255 9.6638508
-0.99870753 -4.3401685 7.3548903
-1.2434063 -5.4337358 7.4558644
-1.0918568 -4.790657 5.4048829
-1.0184534 -4.5379763 4.6501803
-1.0202551 -4.5571227 3.8478642
-0.96656102 -4.3278828 2.9919996
-0.93446279 -4.1910067 2.3342307
-0.90877938 -4.0824952 1.7781265
-0.89508039 -4.0275497 1.3026681
-0.8629247 -3.8892493 0.84782708
-0.8217116 -3.7095897 0.43405008
-1.0472761 -4.6360688 4.3143296
-0.99222654 -4.4030681 3.3700078
-0.94849443 -4.2158389 2.6249156
-0.92157072 -4.1061773 2.0328705
-0.90149218 -4.0232549 1.524123
-0.88925266 -3.9751 1.073155
-0.84040433 -3.7598009 0.62954706
-0.82474208 -3.6957557 0.24642584
-0.04828601 -0.066021495 7.9489708
-0.23425886 -0.92811888 6.0855904
-0.39504889 -1.6072226 7.9804807
-0.57283509 -2.3998234 7.9346399
-0.54646772 -2.3250651 5.686337
-1.0429776 -4.4789104 8.4949675
-1.3216221 -5.7113533 8.6825371
-1.1801471 -5.1243625 6.3724265
-0.15247004 -0.44050854 7.9012237
-0.18917657 -0.62140059 6.0153313
-0.48720175 -2.0026619 7.9728527
-0.67280352 -2.8227029 7.9452682
-1.0655249 -4.5256953 9.6773539
-1.015039 -4.3417349 7.3634214
-1.2623661 -5.4293628 7.4558644
-1.096334 -4.733973 5.3460803
-1.0342876 -4.5343938 4.6501803
-1.0154282 -4.4624462 3.772541
-0.96037179 -4.2306962 2.928946
-0.93635738 -4.131556 2.3040862
-0.90767741 -4.0114741 1.7500311
-0.89644891 -3.9682508 1.2857476
-0.86352611 -3.8287108 0.83663565
-0.82152772 -3.6483989 0.42868513
-1.0509206 -4.5777988 4.2644472
-0.97961622 -4.2774372 3.2787695
-0.94879103 -4.1494679 2.5869181
-0.92176718 -4.0409875 2.0034976
-0.89875287 -3.9464149 1.4978268
-0.88156909 -3.8771789 1.0497087
-0.83926082 -3.6940672 0.62056822
-0.82548112 -3.6392605 0.24420901
-0.048516177 -0.065852545 7.9489708
-0.23981439 -0.93632704 6.1448612
-0.4009034 -1.6068215 7.9853759
-0.58120853 -2.3978093 7.9346399
-0.55412656 -2.321243 5.6817341
-1.060811 -4.4845653 8.5125237
-1.3048414 -5.5505633 8.4469595
-1.1695461 -4.9984951 6.222764
-0.15400676 -0.43997362 7.9012237
-0.19134451 -0.62073648 6.0153313
-0.49418938 -2.0009491 7.9728527
-0.68265247 -2.8203373 7.9452682
-1.0838479 -4.5325351 9.6998606
-1.0301882 -4.3381653 7.3634214
-1.244598 -5.2694979 7.2443938
-1.088782 -4.6278152 5.2321501
-1.0509144 -4.5342293 4.6536846
-1.0064456 -4.3526921 3.6846642
-0.96385485 -4.1784248 2.8960483
-0.93685424 -4.0678272 2.2716229
-0.90712976 -3.9450293 1.7238085
-0.89741457 -3.9089928 1.2688273
-0.85932559 -3.7490637 0.82171369
-0.82981426 -3.6260912 0.42689681
-1.0431449 -4.4722896 4.1713328
-0.97988331 -4.2110028 3.2316792
-0.94961137 -4.0873456 2.5514536
-0.9225449 -3.9802685 1.9762231
-0.89761764 -3.8788457 1.4748176
-0.87759 -3.7983046 1.0309516
-0.83655483 -3.6235635 0.61089867
-0.82695806 -3.5876741 0.24219368
-0.048745748 -0.065682791 7.9489708
-0.24268985 -0.93398029 6.1349826
-0.40701005 -1.6073865 7.9951663
-0.58957487 -2.3957658 7.9346399
-0.56314665 -2.323092 5.6909394
-1.0764587 -4.4808354 8.5125237
-1.2974118 -5.4337544 8.2775087
-1.1580813 -4.872766 6.073102
-0.15563895 -0.43970516 7.9062157
-0.19335046 -0.61955619 6.0103593
-0.50117099 -1.9992119 7.9728527
-0.69249314 -2.8179371 7.9452682
-1.1012039 -4.5350699 9.7133636
-1.0434905 -4.3269367 7.3506241
-1.2292444 -5.1244755 7.0528727
-1.0820785 -4.5283647 5.1255703
-1.0601964 -4.5027633 4.625648
-1.0029404 -4.2695799 3.6187568
-0.96412259 -4.1139684 2.8549263
-0.93590862 -3.9998329 2.2368412
-0.90612942 -3.8786376 1.6975861
-0.89143926 -3.8217463 1.2434467
-0.85680819 -3.6790621 0.80865705
-0.8323158 -3.5795174 0.42287311
-1.0380893 -4.3814249 4.0915213
-0.98248833 -4.1564198 3.193418
-0.94901961 -4.0210729 2.5134559
-0.92291003 -3.919594 1.9489484
-0.88629538 -3.7699618 1.437017
-0.86418515 -3.6816499 1.0028161
-0.84467512 -3.6013365 0.608136
-0.82808501 -3.5361221 0.24017838
-0.048974726 -0.06551224 7.9489708
-0.2447585 -0.92861998 6.1053472
-0.41312557 -1.6079284 8.0049572
-0.59793407 -2.3936932 7.9346399
-0.57125235 -2.3211122 5.6909394
-1.0807405 -4.4305148 8.4247417
-1.2845411 -5.2979236 8.0791273
-1.1457531 -4.747179 5.923439
-0.15717284 -0.43915918 7.9062157
-0.1953505 -0.61836952 6.0053878
-0.50814646 -1.9974504 7.9728527
-0.70232534 -2.8155029 7.9452682
-1.1185911 -4.53754 9.7268677
-1.0573473 -4.3182015 7.342092
-1.2157463 -4.9913363 6.8773112
-1.0698975 -4.4092512 4.9969397
-1.0593176 -4.429666 4.5555573
-1.0097077 -4.2319789 3.5905106
-0.96492052 -4.0536289 2.8165457
-0.93552411 -3.9362051 2.2043779
-0.90360647 -3.8077912 1.6694907
-0.88707811 -3.7439263 1.2208862
-0.84928918 -3.5900035 0.79186988
-0.83564717 -3.5378175 0.41929647
-1.0315387 -4.2870212 4.0083838
-0.9828372 -4.0940104 3.1492708
-0.94697195 -3.9506626 2.4729249
-0.92180723 -3.8545516 1.9195757
-0.892869 -3.7392864 1.4271559
-0.86688584 -3.6360579 0.99226516
-0.84691226 -3.5550106 0.60191983
-0.82886237 -3.4846067 0.23816307
-0.049203109 -0.065340884 7.9489708
-0.24799849 -0.92775995 6.1053472
-0.41950679 -1.6094322 8.0196428
-0.60628599 -2.3915915 7.9346399
-0.57982469 -2.3209994 5.6955423
-1.08526 -4.3825455 8.3413496
-1.2646843 -5.1376576 7.8435493
-1.1325629 -4.6217394 5.7737761
-0.15860562 -0.43833676 7.9012237
-0.19750783 -0.61768383 6.0053878
-0.51511574 -1.9956645 7.9728527
-0.71257263 -2.814707 7.9499607
-1.1354802 -4.5378313 9.7358704
-1.0724143 -4.3144846 7.342092
-1.1962706 -4.8378797 6.67382
-1.0731176 -4.3561134 4.941812
-1.065516 -4.3878212 4.5170074
-0.99789351 -4.1187258 3.4994953
-0.9653092 -3.993335 2.7781653
-0.93470711 -3.8726299 2.1719148
-0.90168625 -3.7415173 1.6432681
-0.87657332 -3.6428645 1.1912755
-0.85722512 -3.5679121 0.7881394
-0.83753598 -3.4912956 0.41527274
-1.0270007 -4.2035985 3.9352229
-0.98371971 -4.0355768 3.1080663
-0.94648355 -3.888694 2.4374604
-0.9213329 -3.7939763 1.892301
-0.89367551 -3.6856661 1.4090773
-0.87042266 -3.5952165 0.98288667
-0.85000092 -3.5135272 0.59639442
-0.83046329 -3.4379859 0.2363493
-0.049401633 -0.065136366 7.9439707
-0.25062466 -0.92463899 6.090529
-0.42616394 -1.6118953 8.0392237
-0.61463052 -2.3894606 7.9346399
-0.58792293 -2.3189611 5.6955423
-1.1028869 -4.3880215 8.3589058
-1.2560043 -5.0267386 7.6823635
-1.1169634 -4.4902296 5.6164384
-0.16013475 -0.43778047 7.9012237
-0.19966273 -0.61699063 6.0053878
-0.52239746 -1.9950702 7.9776921
-0.72239345 -2.8122025 7.9499607
-1.1529207 -4.5401692 9.7493734
-1.0893822 -4.3183012 7.3548903
-1.1882095 -4.7343068 6.5381594
-1.0743351 -4.2964306 4.879334
-1.0620446 -4.307898 4.4399071
-1.0029668 -4.0774207 3.4681108
-0.96429205 -3.9290273 2.7370431
-0.93345773 -3.8091085 2.1394515
-0.89600897 -3.6617951 1.6114266
-0.88472968 -3.6211426 1.1856353
-0.86036032 -3.5267196 0.78067839
-0.83793181 -3.4399657 0.41080198
-1.0245893 -4.1311326 3.8720381
-0.98226446 -3.9693398 3.0609758
-0.9373014 -3.793298 2.3817306
-0.92153358 -3.7378583 1.8671243
-0.8952474 -3.6366713 1.3926421
-0.87136453 -3.5449553 0.97116351
-0.84926665 -3.457638 0.58879691
-0.83055902 -3.3865447 0.23433399
-0.049628701 -0.064963527 7.9439707
-0.25343832 -0.92226022 6.0806508
-0.43284342 -1.6143317 8.0588045
-0.62296754 -2.3873005 7.9346399
-0.59601402 -2.3168948 5.6955423
-1.2597089 -4.9677701 7.5997052
-1.1020294 -4.3651028 5.4667764
-0.16166191 -0.43721882 7.9012237
-0.20181522 -0.61628991 6.0053878
-0.52935833 -1.9932346 7.9776921
-0.73220545 -2.8096638 7.9499607
-1.1698483 -4.5403337 9.7583761
-1.1057427 -4.3195252 7.3634214
-1.1786963 -4.6279287 6.3985081
-1.0743153 -4.2335062 4.8131814
-1.0554311 -4.2176757 4.3522935
-1.0002204 -4.0059204 3.4116185
-0.96283799 -3.8647764 2.6959214
-0.93284589 -3.7499428 2.1093071
-0.90096235 -3.627151 1.5983154
-0.88350648 -3.5621605 1.168715
-0.86321849 -3.4855492 0.77321744
-0.83917499 -3.3935106 0.40677825
-1.0262425 -4.0768394 3.8254809
-0.98134363 -3.9070833 3.0168283
-0.94424444 -3.7649155 2.3665316
-0.92135382 -3.6817858 1.8419477
-0.89419883 -3.5785487 1.37292
-0.87078959 -3.4900157 0.95826799
-0.8481527 -3.4017978 0.58119941
-0.83030587 -3.3351452 0.23231868
-0.049825676 -0.064757727 7.938971
-0.25561199 -0.91762787 6.0559545
-0.43954507 -1.6167408 8.0783854
-0.63091493 -2.3836684 7.9298677
-0.60409784 -2.3148003 5.6955423
-1.4371254 -5.5534267 10.57978
-1.2412784 -4.8243551 7.3889246
-1.0925997 -4.2649755 5.3478131
-0.16308506 -0.43638182 7.8962326
-0.20396523 -0.61558169 6.0053878
-0.53631282 -1.9913747 7.9776921
-0.74200857 -2.8070908 7.9499607
-1.1873418 -4.5425415 9.7718801
-1.122781 -4.3232121 7.3762197
-1.162424 -4.4983382 6.2269373
-1.073024 -4.1673522 4.7433529
-1.0482011 -4.127553 4.2646799
-0.99985564 -3.9458091 3.3645418
-0.95889723 -3.7924767 2.6493163
-0.93183255 -3.6908283 2.0791626
-0.90228492 -3.5790315 1.5795851
-0.88539577 -3.5171874 1.1560247
-0.86819488 -3.4539306 0.76762176
-0.83889198 -3.3422594 0.40230745
-1.0266051 -4.0189686 3.7755985
-0.98000044 -3.8448827 2.9726808
-0.94355774 -3.7072875 2.3336003
-0.92191112 -3.6301596 1.8188692
-0.89391625 -3.5250552 1.3548415
-0.86864871 -3.4304121 0.94420016
-0.84665948 -3.3460083 0.57360196
-0.8284803 -3.2789457 0.23010184
-0.050021823 -0.064551353 7.9339709
-0.2592364 -0.91822547 6.0658331
-0.44626883 -1.619123 8.0979671
-0.63923162 -2.3814516 7.9298677
-0.61217433 -2.3126774 5.6955423
-1.4169719 -5.3978043 10.29449
-1.2566893 -4.8145471 7.3806586
-1.0913543 -4.1990924 5.2710633
-0.16471031 -0.43607959 7.9012237
-0.20611279 -0.61486596 6.0053878
-0.54326075 -1.9894905 7.9776921
-0.75180256 -2.8044834 7.9499607
-1.2043068 -4.5425777 9.7808828
-1.1385294 -4.3217883 7.3804855
-1.1574875 -4.4155545 6.1192064
-1.0721409 -4.1045394 4.6771998
-1.0403548 -4.0375328 4.1770663
-0.997145 -3.8782103 3.311188
-0.95550287 -3.7243025 2.605453
-0.93151748 -3.6360586 2.051337
-0.9044317 -3.5354385 1.5627277
-0.88460732 -3.4629493 1.1405143
-0.85960543 -3.3699617 0.75176722
-0.83826143 -3.2910519 0.39783669
-1.0265764 -3.9611456 3.7257161
-0.97823495 -3.7827396 2.9285336
-0.94463605 -3.6580586 2.3057351
-0.92098677 -3.5741796 1.7936924
-0.89444804 -3.4761815 1.3384063
-0.86731207 -3.3755741 0.93130469
-0.84601879 -3.2950675 0.56669515
-0.82875419 -3.2324791 0.22828805
-0.050246846 -0.064376347 7.9339709
-0.25815922 -0.90237612 5.9670477
-0.45191789 -1.6175554 8.0979671
-0.64714843 -2.3777654 7.9250956
-0.62024337 -2.3105266 5.6955423
-1.4117721 -5.3025656 10.123316
-1.2410762 -4.6877189 7.1946764
-1.0855768 -4.1177745 5.1751256
-0.16633543 -0.43577129 7.9062157
-0.20825781 -0.61414272 6.0053878
-0.55020201 -1.987582 7.9776921
-0.76113474 -2.8001769 7.9452682
-1.2218517 -4.5446525 9.7943859
-1.1515886 -4.3102293 7.3676877
-1.1504389 -4.3270369 6.0034957
-1.0699645 -4.0385075 4.6073718
-1.0273836 -3.9303672 4.0719299
-0.9939748 -3.8106792 3.2578342
-0.94743121 -3.6400127 2.5506237
-0.93083155 -3.5813367 2.0235114
-0.90512061 -3.4873874 1.5439974
-0.88345116 -3.4087608 1.1250039
-0.85782522 -3.3146293 0.74150842
-0.83852988 -3.2447114 0.39381295
-1.0252072 -3.899761 3.6725082
-0.97604781 -3.7206562 2.8843861
-0.9442901 -3.6046979 2.275337
-0.92083108 -3.5226426 1.7706139
-0.89464962 -3.4273474 1.3219713
-0.8668294 -3.3254914 0.91958153
-0.84253639 -3.2345884 0.55840701
-0.82242566 -3.1618757 0.22546662
-0.050471257 -0.064200565 7.9339709
-0.26499051 -0.91415465 6.0510149
-0.45728385 -1.6149883 8.093071
-0.65544438 -2.3754921 7.9250956
-0.62830484 -2.3083472 5.6955423
-1.4040519 -5.2004933 9.9389744
-1.2318907 -4.5882363 7.0500226
-1.0717932 -4.0086803 5.0446506
-0.16796042 -0.43545699 7.9112072
-0.21022651 -0.61290812 6.0004168
-0.55713665 -1.9856493 7.9776921
-0.77090454 -2.797503 7.9452682
-1.2388533 -4.5445604 9.8033886
-1.1652631 -4.3011484 7.3591557
-1.1263132 -4.1775274 5.8039947
-1.0655808 -3.9659936 4.5301933
-1.0365269 -3.9095221 4.0544076
-0.99034548 -3.7432179 3.2044804
-0.95265949 -3.6083829 2.5314333
-0.93090451 -3.5309482 1.9980048
-0.90548515 -3.4393754 1.5252671
-0.88192761 -3.3546226 1.1094936
-0.84818524 -3.2308435 0.72565383
-0.83595943 -3.1887758 0.38889509
-1.0224603 -3.8348272 3.6159747
-0.97447884 -3.6625414 2.8431821
-0.94358307 -3.5513849 2.2449389
-0.92032683 -3.4711506 1.7475353
-0.89452142 -3.3785551 1.3055362
-0.86476529 -3.2707546 0.90668601
-0.84117228 -3.1837499 0.5515002
-0.82835966 -3.1396632 0.2246605
-0.050695051 -0.064023994 7.9339709
-0.26796067 -0.91247869 6.0460763
-0.46263745 -1.6124036 8.0881758
-0.66373241 -2.3731897 7.9250956
-0.63687837 -2.3080232 5.7001443
-1.3950042 -5.0962305 9.7502441
-1.2161123 -4.4671545 6.8723059
-1.0698432 -3.9461367 4.9717379
-0.16958523 -0.43513668 7.9161992
-0.21236464 -0.61217058 6.0004168
-0.56406444 -1.9836924 7.9776921
-0.7802006 -2.793133 7.9405751
-1.2552892 -4.5423069 9.8078899
-1.1788881 -4.2920251 7.3506241
-1.1305586 -4.1357841 5.7521243
-1.0633775 -3.9033725 4.4640403
-1.0362769 -3.8542206 4.0018392
-0.98323143 -3.6645517 3.1417115
-0.95335251 -3.560605 2.5012772
-0.92949277 -3.4763238 1.9701792
-0.9055258 -3.3914039 1.5065368
-0.88250887 -3.3098073 1.0968033
-0.85313815 -3.2041287 0.72099072
-0.83300889 -3.1328983 0.38397723
-1.0192728 -3.7699609 3.5594413
-0.97356904 -3.6083856 2.8049209
-0.94251573 -3.4981215 2.2145407
-0.91947448 -3.4197056 1.7244568
-0.89406365 -3.3298061 1.2891011
-0.86484748 -3.2254632 0.89613515
-0.8356185 -3.1186109 0.54252136
-0.83156598 -3.1077957 0.22345132
-0.050918229 -0.06384664 7.9339709
-0.27203158 -0.91451645 6.0658331
-0.46797854 -1.6098012 8.0832806
-0.67241961 -2.3722944 7.9298677
-0.64493102 -2.3057861 5.7001443
-1.3865269 -4.9967113 9.5702925
-1.2024989 -4.3570914 6.7111211
-1.0700184 -3.8929288 4.9103379
-0.17120984 -0.43481025 7.9211903
-0.21450025 -0.61142552 6.0004168
-0.57098538 -1.9817115 7.9776921
-0.78994572 -2.7903926 7.9405751
-1.2723117 -4.5420899 9.8168926
-1.1931633 -4.2853713 7.3463583
-1.1240648 -4.056314 5.6483841
-1.0535301 -3.8146746 4.3684864
-1.0356541 -3.7989702 3.949271
-0.98682058 -3.6272953 3.1134653
-0.95481926 -3.516902 2.4738624
-0.92539281 -3.4132016 1.9377159
-0.9040311 -3.3389995 1.4859334
-0.88153607 -3.2603989 1.082703
-0.85407364 -3.163192 0.71352977
-0.82838196 -3.0722723 0.37861225
-1.0166321 -3.7087655 3.5062332
-0.97229326 -3.5542815 2.7666597
-0.94108802 -3.4449093 2.1841426
-0.91827446 -3.3683095 1.7013782
-0.89327651 -3.2811017 1.2726661
-0.86207384 -3.1708307 0.88323969
-0.83870918 -3.0870023 0.53837729
-0.83455992 -3.0759444 0.22224213
-0.051170934 -0.06370005 7.938971
-0.27611995 -0.91653675 6.0855904
-0.4733071 -1.6071811 8.0783854
-0.68069637 -2.3699329 7.9298677
-0.65297586 -2.3035207 5.7001443
-1.3734814 -4.8834815 9.3640051
-1.1850995 -4.2363391 6.5334044
-1.0646733 -3.8212426 4.825913
-0.17283425 -0.43447787 7.9261823
-0.21681228 -0.61117518 6.0053878
-0.57754695 -1.9784995 7.9728527
-0.79920524 -2.7859592 7.9358821
-1.2899424 -4.5439034 9.8303957
-1.2052813 -4.2711406 7.3292942
-1.1186601 -3.9827423 5.5526228
-1.0576997 -3.7783272 4.3317347
-1.0346578 -3.7437708 3.8967025
-0.98809195 -3.5825543 3.0789423
-0.95377332 -3.4651697 2.4409649
-0.92321199 -3.3586943 1.9098903
-0.90340894 -3.2911179 1.4672031
-0.8814975 -3.2156646 1.0700127
-0.8560307 -3.1270258 0.70700145
-0.83253497 -3.0453436 0.37637687
-1.0135767 -3.6476345 3.4530251
-0.97065187 -3.500231 2.7283986
-0.94045097 -3.3959043 2.1562774
-0.91672683 -3.3169639 1.6782995
-0.8921603 -3.2324436 1.256231
-0.86022091 -3.1209433 0.87151647
-0.84158933 -3.0554101 0.53423321
-0.83734179 -3.0441103 0.22103295
-0.051453497 -0.063583918 7.9489708
-0.27795532 -0.91110879 6.0559545
-0.47804067 -1.6025921 8.0636997
-0.68896478 -2.3675423 7.9298677
-0.66155213 -2.3031051 5.7047472
-1.3616321 -4.7773142 9.170886
-1.1753159 -4.1455421 6.4011497
-1.0692943 -3.7866566 4.7875376
-0.17445841 -0.43413937 7.9311738
-0.21894436 -0.61041462 6.0053878
-0.58444965 -1.9764714 7.9728527
-0.80844343 -2.7814956 7.9311891
-1.3076013 -4.5456495 9.8438997
-1.2252028 -4.2844596 7.3591557
-1.1053303 -3.8831749 5.4209523
-1.0542257 -3.7159064 4.2655816
-1.0323273 -3.6851916 3.8406298
-0.98801494 -3.5341005 3.0412805
-0.95237803 -3.4134884 2.4080672
-0.91114968 -3.2701061 1.8635143
-0.90370643 -3.2477484 1.4503458
-0.87987304 -3.1663489 1.0559124
-0.85380512 -3.0766852 0.69767523
-0.83518016 -3.0136244 0.37369442
-1.0101073 -3.5865712 3.399817
-0.96864492 -3.4462357 2.6901374
-0.9394837 -3.3469467 2.1284127
-0.91238356 -3.2569301 1.6510248
-0.8907156 -3.1838343 1.2397958
-0.85541457 -3.0617454 0.85744864
-0.84425944 -3.0238361 0.53008914
-0.83856982 -3.0074825 0.21962222
-0.051705502 -0.063435256 7.9539704
-0.28388962 -0.9190405 6.1152253
-0.48156941 -1.5940912 8.0294333
-0.69722486 -2.365123 7.9298677
-0.66958737 -2.3007817 5.7047472
-1.3490587 -4.6712909 8.977766
-1.172684 -4.0819135 6.310225
-1.0728053 -3.7490041 4.7453251
-0.17597279 -0.43352777 7.9311738
-0.22107376 -0.60964668 6.0053878
-0.59098458 -1.9732155 7.9680138
-0.81814778 -2.7786565 7.9311891
-1.3252881 -4.5473266 9.8574028
-1.2394251 -4.2776523 7.3548903
-1.0988358 -3.809808 5.325192
-1.0540761 -3.6665897 4.2141294
-1.0305746 -3.630106 3.7880619
-0.98761189 -3.4856913 3.0036192
-0.95063365 -3.3618593 2.3751698
-0.91894728 -3.2541165 1.856558
-0.90371227 -3.2044172 1.4334885
-0.8779152 -3.1170838 1.0418121
-0.85389894 -3.0358562 0.69021428
-0.83896083 -2.9867187 0.37145901
-1.007249 -3.5291677 3.3499346
-0.96627319 -3.3922977 2.6518764
-0.93818599 -3.2980378 2.1005476
-0.90887219 -3.201334 1.6258483
-0.88894254 -3.1352749 1.2233608
-0.86212415 -3.0447109 0.85393173
-0.84671938 -2.992281 0.52594507
-0.83955252 -2.9708834 0.21821152
-0.051957101 -0.063285604 7.9589701
-0.28570259 -0.91359508 6.0855904
-0.48593873 -1.588506 8.0098524
-0.70504922 -2.3612444 7.9250956
-0.67761457 -2.2984307 5.7047472
-1.3196199 -4.5102477 8.6793089
-1.1617573 -3.9913349 6.1779704
-1.0751737 -3.7082953 4.6992755
-0.17737453 -0.43264413 7.9261823
-0.2233848 -0.60937142 6.0103593
-0.5978688 -1.9711405 7.9680138
-0.82734889 -2.7741303 7.9264975
-1.3448521 -4.5552001 9.8844109
-1.2198226 -4.1556849 7.1543908
-1.0901523 -3.7307494 5.2214508
-1.0469584 -3.5945354 4.136951
-1.0284498 -3.5750778 3.7354934
-0.9836607 -3.4261055 2.9565425
-0.94854075 -3.3102849 2.3422723
-0.91811281 -3.2083006 1.83337
-0.90215284 -3.1566687 1.4147581
-0.87430775 -3.0632591 1.0263016
-0.84563869 -2.9667196 0.67715758
-0.84120047 -2.9550338 0.36877653
-1.0050397 -3.4754152 3.3033776
-0.96465766 -3.3423026 2.6165586
-0.9365586 -3.2491796 2.0726826
-0.90121943 -3.1327178 1.5943774
-0.88814545 -3.0913057 1.2085692
-0.86336279 -3.0089781 0.84572548
-0.84760433 -2.9559853 0.5211103
-0.84166527 -2.9391172 0.21700232
-0.052238867 -0.063166082 7.9689703
-0.48906925 -1.5790195 7.9706907
-0.71328717 -2.3587689 7.9250956
-0.68619257 -2.2979233 5.7093496
-1.2822675 -4.3265066 8.3369598
-1.1541924 -3.9143791 6.066381
-1.0799812 -3.6768422 4.6647377
-0.17877226 -0.43175602 7.9211903
-0.22551054 -0.60858792 6.0103593
-0.60437649 -1.9678401 7.9631743
-0.83702737 -2.7712255 7.9264975
-1.3613683 -4.5525641 9.8889122
-1.2157378 -4.0889053 7.0477424
-1.1014577 -3.721143 5.2134714
-1.0383914 -3.5193245 4.0560975
-1.0259539 -3.5201094 3.6829252
-0.98148018 -3.3740652 2.9157424
-0.9460994 -3.2587662 2.3093746
-0.91943699 -3.1710396 1.8148195
-0.90156078 -3.1134238 1.3979009
-0.87033546 -3.0094981 1.0107913
-0.8532632 -2.9543111 0.67529237
-0.84460944 -2.9281549 0.36654112
-1.0014176 -3.4181387 3.2534952
-0.9615708 -3.2884808 2.5782974
-0.9346016 -3.2003729 2.0448177
-0.90579909 -3.1077666 1.5838872
-0.8870523 -3.0473809 1.1937776
-0.86571944 -2.9779418 0.83869159
-0.8482464 -2.9197204 0.51627553
-0.84217459 -2.902575 0.21559161
-0.052489731 -0.063014358 7.9739695
-0.49427328 -1.5763313 7.9657955
-0.72107929 -2.3548374 7.9203234
-0.69420964 -2.2955141 5.7093496
-1.2601763 -4.1981363 8.0999508
-1.1477154 -3.8429182 5.963057
-1.0736133 -3.6085348 4.5841498
-0.18016595 -0.43086344 7.9161992
-0.22763354 -0.60779703 6.0103593
-0.61124188 -1.9657184 7.9631743
-0.84720033 -2.7699368 7.9311891
-1.3753582 -4.5415335 9.8754082
-1.2127061 -4.0272007 6.949626
-1.100594 -3.6710944 5.149631
-1.0380493 -3.4734519 4.0083203
-1.022077 -3.4617825 3.6268525
-0.97674787 -3.314615 2.8686657
-0.94213033 -3.2032943 2.2737355
-0.91926396 -3.129559 1.7939503
-0.9006778 -3.0702217 1.3810436
-0.86195225 -2.9419923 0.99105084
-0.85805231 -2.9324565 0.6715619
-0.84365046 -2.8869483 0.36296451
-0.99740815 -3.3609302 3.2036126
-0.9604159 -3.2424734 2.5459228
-0.93231553 -3.1516201 2.0169528
-0.90764534 -3.0741169 1.5692009
-0.88566357 -3.0035019 1.178986
-0.86787021 -2.9469259 0.83165771
-0.85004395 -2.8882384 0.51213139
-0.84243912 -2.8660655 0.21418089
-0.052709375 -0.062830754 7.9739695
-0.293814 -0.90611899 6.0559545
-0.49977264 -1.5745963 7.9657955
-0.72929484 -2.3523061 7.9203234
-0.70221829 -2.2930768 5.7093496
-1.2664632 -4.1662145 8.0472813
-1.1383097 -3.7634706 5.8473349
-1.0704812 -3.5525937 4.5189123
-0.18166885 -0.4302319 7.9161992
-0.22975376 -0.60699874 6.0103593
-0.61772227 -1.962374 7.9583349
-0.85686415 -2.7669625 7.9311891
-1.3867348 -4.5221362 9.8438997
-1.2046938 -3.9505992 6.8259139
-1.1028963 -3.6326311 5.1017504
-1.0226681 -3.3789535 3.9054155
-1.0188272 -3.4069424 3.5742843
-0.97272605 -3.2589695 2.8247273
-0.93659168 -3.143883 2.2353551
-0.91881269 -3.0881186 1.7730811
-0.89950448 -3.0270643 1.3641863
-0.8722164 -2.9389656 0.99105084
-0.86130345 -2.905895 0.66689879
-0.84382778 -2.8505602 0.35983497
-0.99301183 -3.3037925 3.1537302
-0.95779032 -3.1926427 2.5106049
-0.92846334 -3.0987937 1.9865546
-0.90926766 -3.0404923 1.5545145
-0.88397938 -2.9596701 1.1641943
-0.86286777 -2.8926425 0.81876218
-0.85304689 -2.8615253 0.50867802
-0.84245908 -2.8295896 0.21277018
-0.052897464 -0.062615588 7.9689703
-0.2969752 -0.90508795 6.0559545
-0.50526595 -1.5728422 7.9657955
-0.7379486 -2.3511703 7.9250956
-0.71021831 -2.2906117 5.7093496
-1.2676105 -4.1182775 7.9638891
-1.1357809 -3.7083521 5.7688084
-1.0660361 -3.4936531 4.4498372
-0.18305533 -0.42933002 7.9112072
-0.23187119 -0.60619307 6.0103593
-0.6245684 -1.9602057 7.9583349
-0.86651742 -2.7639546 7.9311891
-1.1977009 -3.8790879 6.7107339
-1.1049436 -3.5941966 5.0538702
-1.0304829 -3.3623979 3.8907149
-1.0141737 -3.3487549 3.5182116
-0.96832776 -3.203393 2.7807887
-0.92944217 -3.0805469 2.1942329
-0.91808349 -3.0467198 1.7522119
-0.89670491 -2.9795139 1.3454559
-0.86728024 -2.8853691 0.97554052
-0.86437958 -2.8793464 0.66223568
-0.84233111 -2.8094356 0.3562583
-0.98931623 -3.2502985 3.107173
-0.95600361 -3.1467378 2.4782298
-0.92926073 -3.0625334 1.9662892
-0.90803534 -2.9982066 1.535632
-0.87926561 -2.9068472 1.1461158
-0.87295967 -2.8896129 0.81876218
-0.85587364 -2.8348265 0.50522465
-0.84223491 -2.7931492 0.21135946
-0.05308469 -0.062399875 7.9639702
-0.51106811 -1.5720371 7.9706907
-0.74615127 -2.3485801 7.9250956
-0.71820974 -2.2881186 5.7093496
-1.2677261 -4.0680971 7.8761072
-1.1295471 -3.6425469 5.6737509
-1.0621393 -3.4378498 4.3845997
-0.18455285 -0.42868841 7.9112072
-0.23379275 -0.60488313 6.0053878
-0.63140702 -1.9580135 7.9583349
-0.87668222 -2.762558 7.9358821
-1.3079469 -4.1613731 9.0831938
-1.1863327 -3.7952282 6.574224
-1.096885 -3.5241444 4.9620996
-1.0281469 -3.3134503 3.8392625
-1.0091265 -3.2906423 3.4621389
-0.96355361 -3.1478879 2.7368505
-0.93285871 -3.0532901 2.1777842
-0.91707653 -3.0053644 1.7313428
-0.8962875 -2.9408891 1.3304716
-0.87734687 -2.882324 0.97554052
-0.8687098 -2.8575122 0.6585052
-0.83911109 -2.763592 0.3522346
-0.98415965 -3.1933036 3.0572906
-0.95390832 -3.1008852 2.4458551
-0.9285503 -3.0221848 1.9434905
-0.90784967 -2.9603064 1.5188476
-0.88525814 -2.8902152 1.1411853
-0.87735325 -2.8679562 0.81407291
-0.86142033 -2.8176148 0.50315261
-0.84176677 -2.7567453 0.20994875
-0.053271059 -0.062183619 7.9589701
-0.30625901 -0.91183013 6.1152253
-0.51655245 -1.5702436 7.9706907
-0.75480187 -2.3473821 7.9298677
-0.72619241 -2.2855976 5.7093496
-1.2624629 -4.0019789 7.7576017
-1.1237111 -3.5795159 5.5828261
-1.057866 -3.3821175 4.3193626
-0.18604814 -0.42804158 7.9112072
-0.23590277 -0.60406333 6.0053878
-0.63784778 -1.9546025 7.953495
-0.88631999 -2.759481 7.9358821
-1.3079437 -4.1111441 8.9841681
-1.1806889 -3.7313883 6.4718418
-1.0937848 -3.4714372 4.894269
-1.0275141 -3.2710297 3.7951605
-1.0026287 -3.2292006 3.4025614
-0.95725167 -3.0887375 2.6897736
-0.93362468 -3.0180581 2.1558526
-0.91579223 -2.9640532 1.7104735
-0.89561158 -2.9023046 1.3154874
-0.88033801 -2.8563228 0.9684903
-0.87434345 -2.840378 0.65570736
-0.83850831 -2.7273254 0.34910506
-0.97972959 -3.1399486 3.0107336
-0.95150477 -3.0550859 2.4134803
-0.92756969 -2.9818792 1.920692
-0.90606481 -2.9181099 1.4999652
-0.88974655 -2.8690667 1.1346112
-0.88160652 -2.8463042 0.80938363
-0.86246413 -2.7862067 0.49900851
-0.84105474 -2.7203791 0.20853803
-0.053394098 -0.061905883 7.9439707
-0.30944005 -0.91075552 6.1152253
-0.52203047 -1.568431 7.9706907
-0.76299113 -2.3447332 7.9298677
-0.7341662 -2.2830489 5.7093496
-1.2501966 -3.9154139 7.5995955
-1.1131876 -3.5031617 5.4712362
-1.0532167 -3.3264573 4.2541246
-0.18742418 -0.4271256 7.9062157
-0.23800991 -0.6032362 6.0053878
-0.64466673 -1.9523641 7.953495
-0.89594698 -2.7563703 7.9358821
-1.2982638 -4.0319557 8.8221235
-1.1730229 -3.6626668 6.3609271
-1.0884987 -3.4130535 4.818459
-1.024543 -3.2221923 3.7437081
-0.99464506 -3.164443 3.3394799
-0.9540444 -3.0408115 2.652112
-0.93415618 -2.9828584 2.1339209
-0.91423076 -2.9227881 1.6896043
-0.89467734 -2.8637605 1.3005033
-0.88315856 -2.8303361 0.96144021
-0.8769449 -2.8138597 0.65104419
-0.83174235 -2.6720774 0.34418717
-0.97156525 -3.0759833 2.9542
-0.94757771 -3.0054867 2.3781624
-0.92631918 -2.9416177 1.8978933
-0.90535754 -2.8802922 1.4831808
-0.8940981 -2.8479218 1.1280372
-0.88862789 -2.8339336 0.80703902
-0.85441422 -2.7264738 0.49072033
-0.84009916 -2.6840518 0.20712732
-0.053829238 -0.06193164 7.9789696
-0.31008893 -0.90232277 6.0658331
-0.52750212 -1.5665992 7.9706907
-0.77117109 -2.3420556 7.9298677
-0.74213105 -2.280472 5.7093496
-1.2402878 -3.8381 7.4591446
-1.1107613 -3.4537139 5.4009762
-1.0472137 -3.2678187 4.1850495
-0.18891399 -0.42646876 7.9062157
-0.24011414 -0.60240173 6.0053878
-0.65068102 -1.9477175 7.9438162
-0.90556306 -2.753226 7.9358821
-1.2597175 -3.8659542 8.4710283
-1.1665002 -3.5990074 6.2585449
-1.0846699 -3.3604846 4.7506285
-1.0222826 -3.1766438 3.6959314
-0.99487197 -3.1269679 3.3044343
-0.95640552 -3.0114951 2.6301429
-0.93445343 -2.9476917 2.111989
-0.91239268 -2.8815711 1.6687351
-0.89488298 -2.8296793 1.2873919
-0.88725317 -2.8089387 0.9558
-0.87198216 -2.7639353 0.64171803
-0.83807129 -2.6596584 0.34329301
-0.97433722 -3.0476782 2.9309216
-0.94454503 -2.9598036 2.3457878
-0.92479885 -2.9014013 1.8750948
-0.90302134 -2.8381906 1.4642982
-0.8997432 -2.8312824 1.1231067
-0.88528013 -2.7891188 0.79648817
-0.85044998 -2.6809924 0.48450425
-0.83890045 -2.6477644 0.2057166
-0.054076534 -0.061773609 7.9839692
-0.31195971 -0.89756566 6.0411367
-0.53296739 -1.5647483 7.9706907
-0.7793417 -2.3393493 7.9298677
-0.75069797 -2.2797234 5.7139521
-1.2298549 -3.7609043 7.3186941
-1.0984225 -3.3748918 5.2852535
-1.0408142 -3.2092633 4.1159744
-0.19052029 -0.42606986 7.9112072
-0.24221545 -0.60155988 6.0053878
-0.65707326 -1.9442437 7.9389768
-0.91516811 -2.7500484 7.9358821
-1.2534342 -3.801578 8.3404942
-1.162799 -3.5453513 6.1732264
-1.0814232 -3.3108485 4.6867876
-1.0176169 -3.1247034 3.6408036
-0.9926632 -3.0827408 3.2623799
-0.95738256 -2.9784937 2.6050353
-0.93323922 -2.9085789 2.0873158
-0.91027802 -2.8404026 1.6478659
-0.89344829 -2.7912164 1.2724077
-0.88682681 -2.7738402 0.94592983
-0.86817598 -2.7187593 0.63332444
-0.8382706 -2.6282499 0.34061053
-0.97347516 -3.0087342 2.8976665
-0.93375123 -2.8911006 2.2957542
-0.92300934 -2.8612323 1.8522962
-0.90179354 -2.8004606 1.4475138
-0.90094537 -2.8011522 1.1132456
-0.88757718 -2.7628732 0.79062659
-0.84617877 -2.6355724 0.47828811
-0.83898431 -2.6162763 0.20450741
-0.05454424 -0.061825592 8.0239677
-0.31457499 -0.8950054 6.0312581
-0.53809428 -1.5619158 7.9657955
-0.78750283 -2.3366146 7.9298677
-0.75865114 -2.2770889 5.7139521
-1.2173936 -3.6792812 7.1694651
-1.1040343 -3.3523278 5.2563229
-1.0310205 -3.1416569 4.035387
-0.19200639 -0.42540222 7.9112072
-0.24431382 -0.60071075 6.0053878
-0.66344923 -1.940749 7.9341373
-0.9242112 -2.7452016 7.9311891
-1.2591181 -3.7744641 8.2909803
-1.1579162 -3.48929 6.0836415
-1.0768979 -3.2584164 4.6189575
-1.0136623 -3.0760548 3.5893517
-0.99126297 -3.0419586 3.2238295
-0.9569369 -2.9418213 2.5767891
-0.93176335 -2.8695102 2.0626426
-0.90788716 -2.7992842 1.6269966
-0.89175624 -2.7527986 1.2574234
-0.88764316 -2.7433431 0.9374696
-0.86406541 -2.6736448 0.62493086
-0.83979082 -2.6016121 0.33837515
-0.97351503 -2.9733825 2.8677373
-0.93881446 -2.8724558 2.2839816
-0.92095083 -2.8211114 1.8294976
-0.9003135 -2.7627745 1.4307294
-0.89756334 -2.7575777 1.098454
-0.88218772 -2.7135334 0.77890337
-0.84466153 -2.5996346 0.47345334
-0.83731657 -2.5800683 0.2030967
-0.054569785 -0.061454646 7.993969
-0.31717619 -0.89243793 6.0213799
-0.54354316 -1.560028 7.9657955
-0.7956543 -2.3338516 7.9298677
-0.76721913 -2.276278 5.7185545
-1.2119813 -3.6205034 7.0641279
-1.1023848 -3.308408 5.1943288
-1.0288488 -3.0984941 3.9854991
-0.19349016 -0.42472941 7.9112072
-0.24640919 -0.59985429 6.0053878
-0.66939789 -1.9360455 7.924459
-0.93378818 -2.7419586 7.9311891
-1.2618434 -3.7391067 8.2234621
-1.1526564 -3.4333069 5.9940572
-1.0720196 -3.2060564 4.5511274
-1.0093808 -3.0274725 3.5378993
-0.98847347 -2.9978378 3.1817751
-0.95746404 -2.9088857 2.5516815
-0.93002635 -2.8304882 2.0379694
-0.90522063 -2.7582181 1.6061275
-0.89125097 -2.718832 1.2443122
-0.88825744 -2.7128747 0.92900944
-0.86117733 -2.6332607 0.61746991
-0.84113532 -2.5749955 0.33613977
-0.97214568 -2.9345226 2.8344822
-0.93868214 -2.8384604 2.2604361
-0.91727144 -2.7769468 1.8041657
-0.8985815 -2.7251332 1.413945
-0.88945669 -2.7006061 1.0787319
-0.87646496 -2.6642656 0.7671802
-0.84445065 -2.5684447 0.46930927
-0.83696502 -2.5486503 0.2018875
-0.054688692 -0.061174028 7.9789696
-0.31950021 -0.8891319 6.0065618
-0.54898536 -1.5581211 7.9657955
-0.80330944 -2.3296487 7.9250956
-0.77516013 -2.2735863 5.7185545
-1.2023321 -3.5504663 6.9368443
-1.1058359 -3.2805407 5.1571321
-1.0304717 -3.067539 3.9509621
-0.19497156 -0.4240514 7.9112072
-0.24850158 -0.5989905 6.0053878
-0.67573684 -1.9325106 7.9196196
-0.94335365 -2.7386825 7.9311891
-1.2671506 -3.7120168 8.1739483
-1.1461811 -3.3749337 5.9002066
-1.0667894 -3.1537707 4.4832969
-1.0069396 -2.9853828 3.4937973
-0.98651695 -2.9571567 3.1432252
-0.95654303 -2.8722899 2.5234354
-0.92802846 -2.7915137 2.0132964
-0.90367448 -2.7214088 1.5875772
-0.89051962 -2.6849031 1.2312009
-0.88112682 -2.659667 0.91349906
-0.8580181 -2.5929303 0.61000896
-0.84074157 -2.5436735 0.33345729
-0.97170383 -2.8992496 2.8045526
-0.93960673 -2.8083346 2.2398341
-0.91602784 -2.74102 1.7839004
-0.89803421 -2.6918433 1.3992586
-0.8824563 -2.6482048 1.0606533
-0.87194413 -2.6196835 0.75662941
-0.84403241 -2.5372877 0.4651652
-0.83640456 -2.517267 0.20067832
-0.054933757 -0.061012562 7.9839692
-0.32207069 -0.8865509 5.9966831
-0.55407894 -1.5552362 7.9608998
-0.81143647 -2.3268304 7.9250956
-0.78309178 -2.2708664 5.7185545
-1.1976426 -3.4964018 6.8402848
-1.098207 -3.2207286 5.0703402
-1.0298282 -3.0305405 3.9087491
-0.19657305 -0.4236297 7.9161992
-0.25059095 -0.59811938 6.0053878
-0.68247849 -1.93014 7.9196196
-0.95290774 -2.7353728 7.9311891
-1.2658896 -3.6664169 8.0839252
-1.1410074 -3.3215818 5.8148875
-1.0612072 -3.1015613 4.4154663
-1.0042173 -2.9433475 3.4496953
-0.98428851 -2.9165263 3.1046753
-0.95537829 -2.8357363 2.4951892
-0.92576975 -2.7525878 1.988623
-0.90329343 -2.6888437 1.5713456
-0.88808763 -2.6466177 1.2162167
-0.8751604 -2.6110914 0.89939874
-0.85458803 -2.5526545 0.60254794
-0.84171873 -2.5171087 0.33122188
-0.96982878 -2.8604798 2.7712977
-0.93903655 -2.7744088 2.2162888
-0.91454476 -2.7051358 1.7636348
-0.89581406 -2.6542904 1.3824742
-0.87962675 -2.6093106 1.0475053
-0.86246938 -2.5613458 0.74256152
-0.84340692 -2.5061657 0.46102113
-0.8356353 -2.4859188 0.19946913
-0.32489517 -0.88469195 5.991744
-0.55950433 -1.5532926 7.9608998
-0.81905717 -2.322576 7.9203234
-0.79165715 -2.2699637 5.7231569
-1.1902379 -3.4356246 6.7305579
-1.0938444 -3.1716516 5.0000801
-1.032065 -3.0026779 3.8780491
-0.19805059 -0.42294094 7.9161992
-0.25267723 -0.59724104 6.0053878
-0.68878847 -1.9265625 7.9147801
-0.96245009 -2.7320302 7.9311891
-0.91910386 -2.6323073 5.8288164
-1.1354755 -3.2683077 5.729569
-1.0552738 -3.0494297 4.3476357
-1.0023197 -2.9045722 3.4092684
-0.98294079 -2.8793228 3.0696297
-0.95397025 -2.799226 2.4669433
-0.92325091 -2.7137122 1.9639498
-0.90269613 -2.6563146 1.5551139
-0.88837951 -2.6171622 1.2049785
-0.86886567 -2.5625904 0.88529837
-0.85246301 -2.5170875 0.59601969
-0.84092504 -2.485851 0.3285394
-0.96890628 -2.8252904 2.7413681
-0.93693185 -2.7366972 2.1898003
-0.9128226 -2.6692963 1.7433695
-0.8962757 -2.6253767 1.3698859
-0.87958479 -2.5794077 1.0376441
-0.8620016 -2.5307133 0.73552763
-0.84257466 -2.4750791 0.45687702
-0.83465749 -2.4546068 0.19825995
-0.32771063 -0.88282412 5.9868045
-0.56492293 -1.5513301 7.9608998
-0.82715946 -2.3197031 7.9203234
-0.79957604 -2.2671864 5.7231569
-1.1832159 -3.377203 6.6252198
-1.087299 -3.1173306 4.9215541
-1.0256999 -2.9506171 3.8166492
-0.19952573 -0.42224705 7.9161992
-0.25476044 -0.59635538 6.0053878
-0.6955092 -1.9241465 7.9147801
-0.97140175 -2.7270284 7.9264975
-0.9297365 -2.6331882 5.8378186
-1.1295859 -3.2151127 5.6442499
-1.0509804 -3.0030663 4.2877855
-1.0001639 -2.8658473 3.3688416
-0.98134547 -2.8421645 3.034584
-0.95231909 -2.7627606 2.4386971
-0.9231934 -2.682796 1.9447596
-0.90188289 -2.6238229 1.5388824
-0.88697141 -2.5833526 1.1918672
-0.86068696 -2.5096283 0.86978805
-0.8516922 -2.4862132 0.59042388
-0.84153587 -2.4593418 0.32630402
-0.96652633 -2.7866151 2.708113
-0.93589801 -2.7028542 2.166255
-0.91227067 -2.6375759 1.7256372
-0.89506507 -2.5922022 1.3551995
-0.87780523 -2.545073 1.0261397
-0.86133063 -2.5001159 0.72849375
-0.84314799 -2.4487116 0.45342362
-0.83509618 -2.4280565 0.19725229
-0.33051702 -0.88094747 5.9818659
-0.57033461 -1.5493487 7.9608998
-0.83525175 -2.3168015 7.9203234
-0.8074851 -2.2643816 5.7231569
-1.1758006 -3.3188722 6.5198817
-1.0775799 -3.0551338 4.8306293
-1.0221732 -2.9077091 3.7667615
-0.20099843 -0.42154798 7.9161992
-0.25684059 -0.5954625 6.0053878
-0.7017898 -1.9205261 7.9099402
-0.98091495 -2.7236209 7.9264975
-0.93892229 -2.6299269 5.8378186
-1.124212 -3.1644576 5.5631976
-1.0463765 -2.9567704 4.2279348
-0.99774998 -2.8271728 3.3284149
-0.9806788 -2.8084204 3.0030434
-0.95042515 -2.7263415 2.4104509
-0.92293125 -2.6519132 1.9255693
-0.90085381 -2.5913696 1.5226507
-0.88533813 -2.5495851 1.178756
-0.86472571 -2.493012 0.86555791
-0.8523246 -2.4600174 0.58576083
-0.84034312 -2.4281528 0.32362157
-0.96512449 -2.7515149 2.6781836
-0.93330353 -2.6652372 2.1397665
-0.91150838 -2.6058919 1.7079049
-0.89363402 -2.5590689 1.3405132
-0.87735194 -2.5152411 1.0162785
-0.86045665 -2.4695539 0.72145987
-0.84191906 -2.4176939 0.44927955
-0.83371854 -2.3968153 0.1960431
-0.3333143 -0.879062 5.9769263
-0.57573938 -1.5473484 7.9608998
-0.84333378 -2.3138719 7.9203234
-0.81538439 -2.2615492 5.7231569
-1.1679929 -3.2606359 6.4145441
-1.075948 -3.0168974 4.7769008
-1.0162125 -2.8588221 3.7091992
-0.20246869 -0.42084378 7.9161992
-0.25870389 -0.59407395 6.0004168
-0.70848942 -1.9180647 7.9099402
-0.98982567 -2.718559 7.9218044
-0.94513994 -2.618443 5.8198137
-1.1184984 -3.1138794 5.4821448
-1.0394317 -2.9048698 4.1601048
-0.99621797 -2.7917435 3.2916632
-0.97860098 -2.7713525 2.9679978
-0.94828874 -2.6899695 2.3822048
-0.92246509 -2.6210659 1.906379
-0.90107858 -2.5631349 1.5087379
-0.88348007 -2.515861 1.1656448
-0.86389554 -2.4628184 0.85709774
-0.85116023 -2.4292121 0.58016509
-0.84058815 -2.4017026 0.32138616
-0.96348923 -2.7164586 2.6482542
-0.93180734 -2.6314816 2.1162212
-0.91197377 -2.57831 1.6927059
-0.89349389 -2.5302565 1.3279248
-0.87513053 -2.4809906 1.0047741
-0.86099511 -2.4436135 0.71559823
-0.84212881 -2.3913856 0.44582614
-0.83379084 -2.3703263 0.19503546
-0.3358241 -0.87644225 5.9670477
-0.58077854 -1.5443764 7.9560046
-0.8514055 -2.310914 7.9203234
-0.8239429 -2.260525 5.7277598
-1.1606089 -3.2047465 6.3135953
-1.060698 -2.9416499 4.6653113
-1.0110072 -2.8130291 3.6554739
-0.20380947 -0.41987523 7.9112072
-0.26077601 -0.5931673 6.0004168
-0.71474069 -1.9144025 7.9051008
-0.99930924 -2.7150872 7.9218044
-0.9542743 -2.615128 5.8198137
-1.1124456 -3.06338 5.4010921
-1.0311126 -2.8502209 4.0882845
-0.99445087 -2.7563596 3.2549114
-0.97867483 -2.741051 2.9399614
-0.94591004 -2.653646 2.3539586
-0.92319679 -2.5941935 1.8899302
-0.89963341 -2.5307565 1.4925063
-0.88294876 -2.4865496 1.1544065
-0.86446875 -2.4371824 0.85004753
-0.85143179 -2.403075 0.57550198
-0.8406589 -2.3752804 0.31915075
-0.96162134 -2.6814477 2.6183245
-0.93008697 -2.5977697 2.0926759
-0.910806 -2.5466979 1.6749736
-0.89163738 -2.4972029 1.3132385
-0.87426716 -2.4512348 0.99491298
-0.85973191 -2.4131212 0.70856434
-0.84050411 -2.3604407 0.44168207
-0.8336885 -2.3438659 0.1940278
-0.34028569 -0.87888706 5.991744
-0.5861659 -1.5423397 7.9560046
-0.85946697 -2.3079278 7.9203234
-0.83182853 -2.2576351 5.7277598
-1.1536725 -3.1511984 6.2170353
-1.0661408 -2.9247108 4.6446466
-1.0153469 -2.7944202 3.6362863
-0.20527387 -0.41916126 7.9112072
-0.26262793 -0.59176654 5.9954453
-0.7214188 -1.911896 7.9051008
-1.0081787 -2.709965 7.9171114
-0.9618901 -2.6076963 5.8108115
-1.1060541 -3.0129619 5.3200393
-1.03381 -2.8267944 4.0603542
-0.99244905 -2.7210226 3.2181599
-0.97733831 -2.7074287 2.9084206
-0.94328946 -2.6173723 2.3257127
-0.92233658 -2.5634139 1.8707401
-0.89947182 -2.5025887 1.4785935
-0.8806572 -2.4529099 1.1412953
-0.86487371 -2.4115729 0.84299743
-0.85153133 -2.376966 0.57083887
-0.83887762 -2.3441989 0.31646827
-0.95952088 -2.6464832 2.5883951
-0.92951846 -2.5679026 2.0720737
-0.90942889 -2.515126 1.6572415
-0.89110219 -2.4684622 1.3006502
-0.87320685 -2.421515 0.98505193
-0.85826635 -2.3826675 0.70153046
-0.84035122 -2.3341961 0.43822867
-0.83172095 -2.3127344 0.19281861
-0.3436349 -0.87841737 5.9966831
-0.59191132 -1.5412346 7.9608998
-0.86751789 -2.3049138 7.9203234
-0.84038603 -2.2565484 5.7323623
-1.1463765 -3.0977378 6.1204758
-1.0646666 -2.8892858 4.5950508
-1.0140433 -2.7607727 3.5979116
-0.20673576 -0.41844213 7.9112072
-0.26469195 -0.59084618 5.9954453
-0.72764021 -1.9081917 7.9002614
-1.0176321 -2.7064292 7.9171114
-0.97022617 -2.602283 5.8063102
-1.0938801 -2.9479551 5.2133913
-1.0332221 -2.7949059 4.0204539
-0.99021274 -2.6857333 3.1814082
-0.97577929 -2.6738498 2.8768797
-0.94175977 -2.5848064 2.3006048
-0.92127275 -2.5326722 1.8515497
-0.89761168 -2.4702895 1.4623619
-0.87972343 -2.4236746 1.1300571
-0.86347532 -2.3814807 0.83453721
-0.85145921 -2.3508859 0.56617582
-0.83858395 -2.317842 0.31423289
-0.95847303 -2.615072 2.5617909
-0.92736381 -2.5342758 2.0485287
-0.90932244 -2.4876432 1.6420423
-0.88882142 -2.4354923 1.2859638
-0.8735671 -2.3962693 0.97683436
