# .PCD v0.7 - Point Cloud Data file format
VERSION 0.7
FIELDS x y z
SIZE 4 4 4
TYPE F F F
COUNT 1 1 1
WIDTH 1503
HEIGHT 1
VIEWPOINT 0 0 0 1 0 0 0
POINTS 1503
DATA ascii
-0.54669803 2.6984994 5.7567973
-0.93487984 4.5781879 7.7132277
-1.1534158 5.6136045 7.6633458
-1.2171544 5.8978028 6.6066613
-1.2048403 5.7419038 5.8452306
-0.68417215 3.2520041 2.7619581
-1.0541447 4.9977503 3.4333756
-1.0158573 4.8079467 2.6588626
-0.95434064 4.5090389 1.9504455
-0.68359017 3.224251 1.0587324
-0.89088714 4.1948304 0.90564954
-0.85279095 4.0085988 0.46087483
-0.68167067 3.2712507 3.0572906
-0.73374939 3.5120323 2.6960239
-1.0352997 4.9468818 3.0555561
-0.9993487 4.762692 2.3370881
-0.67908555 3.2307611 1.2381524
-0.72109067 3.4247062 0.93482167
-0.86897177 4.1235147 0.67996669
-0.83681196 3.9640849 0.25710699
0.016572196 0.080142699 7.9539704
-0.17116195 0.93864006 6.0658331
-0.47364637 2.4198322 7.9298677
-0.64293814 3.2256041 7.8081007
-0.82506073 4.0949335 7.7224894
-1.0315353 5.0833001 7.6906295
-0.93711191 4.5933509 5.6893516
-0.043960277 0.46436152 7.9062157
-0.11361425 0.85795617 8.0287905
-0.38267255 2.0009265 7.8809042
-0.56530154 2.8831201 8.0438166
-0.53685051 2.6982563 5.752296
-0.91838062 4.578867 7.7089629
-1.1338137 5.6175966 7.6633458
-1.1958861 5.8986926 6.6029863
-1.1984727 5.812438 5.9118171
-0.6728164 3.2543726 2.7619581
-1.0545148 5.0873818 3.4909463
-1.0188811 4.9068837 2.7098763
-0.97258174 4.6757383 2.0178747
-0.67233127 3.2266176 1.0587324
-0.89430565 4.2844701 0.92243671
-0.85612011 4.0944185 0.46847516
-0.67024767 3.2736104 3.0572906
-0.72148561 3.5145721 2.6960239
-1.0379961 5.0475821 3.1138194
-1.0056295 4.8772769 2.3895392
-0.667804 3.2331116 1.2381524
-0.71011668 3.4319623 0.93599391
-0.85959393 4.1507692 0.68342006
-0.83717728 4.0354671 0.25992844
0.016889701 0.080209672 7.9689703
-0.16788444 0.93923175 6.0658331
-0.46463367 2.418539 7.9203234
-0.63167477 3.2278287 7.8081007
-0.81076175 4.0977888 7.7224894
-1.0137849 5.0868697 7.6906295
-0.92107242 4.5965943 5.6893516
-0.042339087 0.46451211 7.9062157
-0.11034891 0.85623246 8.0089045
-0.37568569 2.0022502 7.8809042
-0.55556011 2.8867702 8.0485086
-0.52742857 2.7001138 5.752296
-0.90239179 4.5820451 7.7089629
-1.1141977 5.62152 7.6633458
-1.1746266 5.8995066 6.5993109
-1.1902113 5.8760056 5.9713941
-0.66145241 3.2567015 2.7619581
-1.06929 5.2508283 3.5978637
-1.0212263 5.0058994 2.76089
-0.96924961 4.7426939 2.0440972
-0.66010207 3.2242453 1.0573224
-0.89020044 4.3404984 0.93269551
-0.85886043 4.1803098 0.4760755
-0.65808052 3.2722695 3.0539651
-0.71001196 3.5210311 2.698967
-1.0442693 5.169487 3.1847482
-1.0102215 4.9875145 2.4398925
-0.65557516 3.2307951 1.2365088
-0.69813257 3.4344203 0.93599391
-0.87669277 4.3090291 0.70552182
-0.83904952 4.1166892 0.26315293
0.017182346 0.080191948 7.9739695
-0.16447116 0.93904668 6.0608935
-0.45618856 2.4201462 7.9203234
-0.62077212 3.2319329 7.8127036
-0.79645288 4.1005936 7.7224894
-0.99602222 5.0903778 7.6906295
-0.90440297 4.5966363 5.685514
-0.040717378 0.4646571 7.9062157
-0.10709698 0.85449642 7.9890184
-0.36869422 2.0035493 7.8809042
-0.54548001 2.8886917 8.0485086
-0.5175904 2.6998003 5.7477946
-0.886392 4.5851669 7.7089629
-1.0945681 5.6253753 7.6633458
-1.1533761 5.9002438 6.5956364
-1.1703886 5.8836212 5.9748983
-0.64931899 3.2551732 2.7588196
-1.0755563 5.3775358 3.6801078
-1.0298545 5.1397376 2.8304539
-0.96637392 4.8142271 2.0721927
-0.64884335 3.2265301 1.0573224
-0.90123671 4.473598 0.95787632
-0.86199647 4.2711501 0.48412293
-0.64593083 3.2708836 3.0506394
-0.69771695 3.523488 2.698967
-1.0505428 5.2957249 3.2582104
-1.0158267 5.1067448 2.494442
-0.64429361 3.2330639 1.2365088
-0.68709153 3.4416027 0.93716627
-0.87426054 4.3751917 0.71450067
-0.83938402 4.1930737 0.26617587
0.017526714 0.080339879 7.9989686
-0.16119228 0.93961507 6.0608935
-0.4477379 2.4217236 7.9203234
-0.60948676 3.2340801 7.8127036
-0.78213423 4.1033487 7.7224894
-0.9782474 5.0938234 7.6906295
-0.88835222 4.5997653 5.685514
-0.039095171 0.46479636 7.9062157
-0.10385852 0.85274804 7.9691319
-0.36192131 2.0060611 7.8857436
-0.53570747 2.8922751 8.0532017
-0.50816315 2.7015905 5.7477946
-0.87086719 4.5907946 7.7132277
-1.0754905 5.632122 7.667336
-1.1321346 5.9009047 6.5919609
-1.1505274 5.891171 5.9784031
-0.63795239 3.2574198 2.7588196
-1.0769219 5.4838343 3.7486444
-1.03414 5.25631 2.8907425
-0.63400006 3.2165296 1.4128852
-0.63664746 3.2240691 1.0559124
-0.89991474 4.5489998 0.97186553
-0.86354035 4.3571773 0.49172324
-0.63450933 3.2731185 3.0506394
-0.68618476 3.52987 2.70191
-1.0575954 5.4305305 3.3367388
-1.0206114 5.2260733 2.5489914
-0.63209754 3.2306592 1.2348653
-0.67600888 3.44875 0.93833858
-0.8685168 4.4268117 0.72140747
-0.83437783 4.2449999 0.26819119
0.017963711 0.080777824 8.0589666
-0.15791143 0.94017202 6.0608935
-0.43741891 2.4129903 7.8869195
-0.598194 3.2361877 7.8127036
-0.76824635 4.1084085 7.7268786
-0.96098167 5.0999722 7.6947627
-0.87169391 4.599689 5.6816764
-0.037472494 0.46493 7.9062157
-0.10063358 0.85098761 7.9492459
-0.35491663 2.0073123 7.8857436
-0.5256083 2.8941276 8.0532017
-0.49872977 2.7033479 5.7477946
-0.85483706 4.5938063 7.7132277
-1.0563788 5.638803 7.6713262
-1.1109025 5.9014888 6.5882859
-1.1299562 5.8951511 5.9784031
-0.62657791 3.2596271 2.7588196
-1.0973436 5.6928525 3.8857176
-1.0384641 5.3773232 2.9533503
-0.6245296 3.2278261 1.4166312
-0.62538946 3.2262719 1.0559124
-0.90744179 4.672667 0.99518108
-0.86639619 4.453043 0.5002178
-0.62238252 3.2716458 3.0473142
-0.673859 3.5322437 2.70191
-1.0645286 5.5696821 3.4178007
-1.0245754 5.3454962 2.6035409
-0.62081659 3.2328458 1.2348653
-0.66488463 3.455862 0.93951094
-0.88208789 4.5805607 0.74281853
-0.8394298 4.3509016 0.27242333
0.018113563 0.080298744 8.0089684
-0.15462865 0.94071752 6.0608935
-0.42794928 2.4086235 7.8678312
-0.58654565 3.2363336 7.8081007
-0.7543326 4.113421 7.7312675
-0.94317359 5.1032953 7.6947627
-0.85563266 4.602704 5.6816764
-0.035870496 0.46534589 7.9112072
-0.097422205 0.84921515 7.9293599
-0.34790766 2.008539 7.8857436
-0.51489806 2.8925467 8.0438166
-0.48967767 2.7072146 5.752296
-0.8387965 4.5967627 7.7132277
-1.0377784 5.6483841 7.6793065
-1.0896802 5.9019966 6.5846105
-1.1080534 5.8920507 5.9713941
-0.61447453 3.2579691 2.755681
-1.1015543 5.8240147 3.9707029
-1.0427803 5.5027809 3.0182767
-0.61758214 3.2527592 1.4259963
-0.61322743 3.2237227 1.0545024
-0.9104377 4.7771401 1.0147661
-0.86672503 4.5391974 0.5078181
-0.61027366 3.2701278 3.0439887
-0.66226858 3.5385473 2.7048533
-1.0673251 5.6919985 3.4887297
-1.0293951 5.4739299 2.6622863
-0.60952806 3.2349932 1.2348653
-0.65371901 3.4629376 0.94068319
-0.88907921 4.7052608 0.76008552
-0.8493281 4.486341 0.27786466
0.018447131 0.08040119 8.0289679
-0.151344 0.94125152 6.0608935
-0.41749209 2.3983381 7.8296556
-0.5755868 3.2402849 7.8127036
-0.74039322 4.1183863 7.7356567
-0.92585582 5.1093259 7.6988955
-0.83956099 4.6056628 5.6816764
-0.034245919 0.46546826 7.9112072
-0.094399087 0.84902012 7.9243889
-0.34089443 2.0097411 7.8857436
-0.50390887 2.8892262 8.0297375
-0.48022476 2.7089074 5.752296
-0.82320487 4.6022301 7.717494
-1.0180556 5.6519718 7.6793065
-1.0684679 5.9024282 6.5809355
-1.0868328 5.892375 5.9678898
-0.60309839 3.2600944 2.755681
-1.0812179 5.8278241 3.9707029
-1.0405661 5.5978465 3.0669715
-0.60367775 3.2412226 1.4203773
-0.60197085 3.2258434 1.0545024
-0.91452056 4.891346 1.0362163
-0.86921346 4.6400914 0.51675969
-0.59885502 3.272238 3.0439887
-0.64991266 3.5408375 2.7048533
-1.0739583 5.8398399 3.5748577
-1.0308609 5.5890708 2.7147374
-0.59737396 3.2324574 1.2332218
-0.64251208 3.4699781 0.94185555
-0.88799089 4.791111 0.7718271
-0.85008144 4.5776939 0.28149223
0.018673709 0.080170333 8.0089684
-0.14817785 0.94254172 6.0658331
-0.40911779 2.3997808 7.8296556
-0.56728643 3.2595968 7.8541255
-0.72684377 4.1256628 7.7444353
-0.90801525 5.1125264 7.6988955
-0.82347912 4.6085649 5.6816764
-0.032620922 0.46558499 7.9112072
-0.091322139 0.8482843 7.9144454
-0.33387706 2.0109186 7.8857436
-0.49265864 2.8841634 8.0109663
-0.47113836 2.7127123 5.7567973
-0.80713511 4.6050754 7.717494
-0.99884397 5.6584582 7.6832967
-1.0478581 5.9061217 6.5809355
-1.0649887 5.8891144 5.9608803
-0.59102035 3.2583501 2.752543
-1.0608685 5.831563 3.9707029
-1.051999 5.7714076 3.1574047
-0.59236002 3.24331 1.4203773
-0.58984333 3.2232063 1.0530922
-0.91693115 5.0008063 1.056734
-0.87280774 4.750854 0.52659547
-0.58676982 3.2706332 3.040663
-0.63754886 3.5430846 2.7048533
-1.0795721 5.9877949 3.6609859
-1.0307275 5.699821 2.7650907
-0.58608693 3.2345231 1.2332218
-0.63126391 3.4769821 0.94302785
-0.88100123 4.8477764 0.77942461
-0.85378706 4.6887655 0.28592592
-0.14488685 0.94305319 6.0658331
-0.40024731 2.3982496 7.8201122
-0.55754572 3.2711868 7.8771386
-0.71325254 4.132895 7.7532129
-0.89016372 5.1156654 7.6988955
-0.80683452 4.608254 5.6778388
-0.030995531 0.46569601 7.9112072
-0.088306002 0.8480677 7.9094739
-0.3268556 2.0120721 7.8857436
-0.48173451 2.8807595 7.9968886
-0.46166638 2.7143402 5.7567973
-0.79149669 4.610435 7.7217603
-0.74805468 4.3257723 5.887785
-1.026655 5.9064031 6.57726
-1.0444254 5.892796 5.9608803
-0.57964295 3.2603934 2.752543
-1.04124 5.8393469 3.9734445
-1.0544412 5.9015055 3.2246499
-0.5802182 3.2407944 1.4185042
-0.57774168 3.2205238 1.0516822
-0.9055528 5.0378199 1.0632623
-0.87740439 4.8714981 0.53732532
-0.57534963 3.2726614 3.040663
-0.62587929 3.5492692 2.7077966
-1.1014167 6.2334948 3.805377
-1.0345854 5.8374505 2.8280323
-0.5739671 3.2318995 1.2315784
-0.61997473 3.4839499 0.94420016
-0.89620578 5.031209 0.8049798
-0.85584956 4.7949996 0.29015803
-0.1415941 0.94355315 6.0658331
-0.39235434 2.4025784 7.8296556
-0.54965955 3.2943106 7.9277668
-0.69961965 4.1400824 7.761991
-0.87277389 5.1215153 7.7030287
-0.79074377 4.6110425 5.6778388
-0.029369758 0.46580139 7.9112072
-0.085345156 0.84837073 7.9094739
-0.31983015 2.0132005 7.8857436
-0.4708401 2.8773141 7.98281
-0.45218873 2.715935 5.7567973
-0.77583075 4.6157422 7.7260261
-0.73445946 4.3372703 5.899755
-1.0060315 5.9099512 6.57726
-1.0232391 5.8928924 5.957376
-0.56759065 3.2585623 2.7494044
-1.0201309 5.8388271 3.9707029
-1.0651544 6.0840511 3.3197207
-0.56810117 3.238234 1.4166312
-0.56649643 3.2225211 1.0516822
-0.92886567 5.2731633 1.1080281
-0.8811692 4.9922309 0.54805523
-0.56328881 3.2709703 3.0373375
-0.61348623 3.5514324 2.7077966
-1.1039134 6.3774734 3.8889718
-1.049917 6.0467215 2.9245427
-0.56268221 3.2338836 1.2315784
-0.60780972 3.486093 0.94420016
-0.90503162 5.185535 0.82639086
-0.85718066 4.9013038 0.2943902
-0.13841191 0.94481051 6.0707722
-0.38396537 2.4039333 7.8296556
-0.53784227 3.294281 7.9231639
-0.68555462 4.1448622 7.7663803
-0.85489112 5.1245303 7.7030287
-0.7741127 4.6106133 5.6740012
-0.02774363 0.46590105 7.9112072
-0.082332455 0.84813291 7.9045029
-0.31280082 2.0143049 7.8857436
-0.46024826 2.8755322 7.9734244
-0.44270563 2.7174971 5.7567973
-0.76056057 4.623569 7.7345581
-0.71931517 4.3398075 5.899755
-0.98483855 5.9100823 6.573585
-1.0020652 5.8929124 5.9538713
-0.55621266 3.2605236 2.7494044
-0.99974346 5.8423524 3.9707029
-1.0753545 6.2711077 3.4171102
-0.55679417 3.2401974 1.4166312
-0.55443019 3.2197514 1.0502722
-0.92966431 5.3877096 1.1294783
-0.88410151 5.1130481 0.55878508
-0.55186754 3.2729166 3.0373375
-0.60108566 3.5535519 2.7077966
-1.1227075 6.6235485 4.0333629
-1.0546705 6.2024755 2.9958766
-0.55059719 3.231173 1.2299348
-0.59645534 3.4929845 0.94537246
-0.90945333 5.320457 0.84503925
-0.85946679 5.0175233 0.29902542
-0.13511306 0.94528788 6.0707722
-0.37557176 2.4052591 7.8296556
-0.52633977 3.2961383 7.9231639
-0.67146468 4.1495948 7.7707696
-0.83699799 5.1274834 7.7030287
-0.7580139 4.6132874 5.6740012
-0.026117163 0.46599504 7.9112072
-0.079371423 0.84841508 7.9045029
-0.30595607 2.0166271 7.8905821
-0.4491412 2.8703015 7.9546537
-0.43287462 2.716876 5.752296
-0.74524528 4.6313457 7.7430902
-0.70609111 4.3541894 5.9157152
-0.96583921 5.9235229 6.5846105
-0.98031777 5.889338 5.9468617
-0.54482794 3.2624452 2.7494044
-0.97865289 5.8416829 3.9679618
-1.0915954 6.5019941 3.5376878
-0.54548037 3.2421212 1.4166312
-0.5431878 3.2216671 1.0502722
-0.93540299 5.5362301 1.157457
-0.88121283 5.2044849 0.56683254
-0.54043961 3.274823 3.0373375
-0.58867782 3.5556285 2.7077966
-1.1221578 6.7635126 4.1144247
-1.06282 6.3851957 3.0797987
-0.53931493 3.2330751 1.2299348
-0.58425891 3.4950452 0.94537246
-0.91457844 5.4652395 0.86506897
-0.85516781 5.0993271 0.30224991
-0.13181257 0.94575375 6.0707722
-0.36717352 2.4065554 7.8296556
-0.51362592 3.2902341 7.9047537
-0.65735006 4.1542788 7.7751584
-0.8195383 5.133153 7.7071619
-0.74139732 4.612741 5.6701636
-0.024490377 0.46608338 7.9112072
-0.076409414 0.84868699 7.9045029
-0.29891485 2.0176828 7.8905821
-0.43599048 2.8513815 7.8983402
-0.42338836 2.7183704 5.752296
-0.7298848 4.639071 7.7516212
-0.68994403 4.3506751 5.9077353
-0.94729167 5.9402494 6.5993109
-0.95918113 5.889205 5.9433579
-0.53343654 3.2643273 2.7494044
-0.95825565 5.8450632 3.9679618
-1.0940281 6.6587567 3.6188459
-0.5341599 3.2440054 1.4166312
-0.53193879 3.2235434 1.0502722
-0.93530715 5.655776 1.1798398
-0.88583851 5.3450918 0.57935077
-0.52841002 3.2730036 3.0340123
-0.57690895 3.5616515 2.7107396
-1.1303141 6.9631233 4.2309513
-1.0755427 6.6038837 3.1805053
-0.5280261 3.2349381 1.2299348
-0.57284009 3.5018604 0.94654483
-0.91790324 5.6052337 0.884408
-0.86325318 5.2600403 0.30869889
-0.12867561 0.94618565 6.0707722
-0.35941121 2.409236 7.8344274
-0.50064844 3.2784004 7.8725362
-0.64357036 4.156436 7.7751584
-0.80251163 5.1358423 7.7071619
-0.72609687 4.6151738 5.6701636
-0.022944655 0.46616206 7.9112072
-0.073639996 0.8494668 7.9094739
-0.29240227 2.019907 7.895422
-0.42371073 2.8305504 7.8373346
-0.41451809 2.717535 5.7477946
-0.71570438 4.643919 7.7558875
-0.67673522 4.3557992 5.9117255
-0.93124187 5.9599438 6.6176872
-0.93852329 5.8853097 5.9363489
-0.52199382 3.2622344 2.7462659
-0.93886745 5.8482084 3.9679618
-1.1057167 6.8722792 3.7301481
-0.52396595 3.2456677 1.4166312
-0.5218091 3.2251985 1.0502722
-0.9448204 5.8334126 1.2134142
-0.89922756 5.53971 0.59678686
-0.51812494 3.2746475 3.0340123
-0.5657168 3.5634463 2.7107396
-1.1504277 7.2305894 4.3880081
-1.0850831 6.8046174 3.2728195
-0.51729578 3.2366714 1.2299348
-0.56122434 3.5037408 0.94654483
-0.92383683 5.7547736 0.90512836
-0.86656392 5.3860388 0.31373715
-0.12520681 0.94665092 6.0707722
-0.35057852 2.4105372 7.8344274
-0.4871904 3.2705519 7.8495235
-0.62868971 4.1611352 7.7795477
-0.78453082 5.1443129 7.7154279
-0.70869005 4.6146359 5.666326
-0.021142516 0.46595827 7.9062157
-0.070377737 0.84974331 7.9094739
-0.28499454 2.0235043 7.9051008
-0.4113507 2.8253977 7.818563
-0.40328643 2.7170238 5.7432938
-0.69783044 4.6519132 7.7644196
-0.65924454 4.3584809 5.9117255
-0.90934908 5.9770398 6.6323876
-0.91584897 5.8816624 5.9293394
-0.51003361 3.2641258 2.7462659
-0.91742641 5.8516107 3.9679618
-1.1121521 7.0775862 3.836813
-0.51077843 3.2430758 1.4147581
-0.50942141 3.2271783 1.0502722
-0.95385152 6.0359311 1.2516516
-0.89742601 5.6660881 0.6079638
-0.50554746 3.2766128 3.0340123
-0.55264843 3.5695868 2.7136827
-1.1682634 7.5288815 4.5627975
-1.084056 6.9701796 3.3483493
-0.5048641 3.2386336 1.2299348
-0.54851711 3.5106721 0.94771707
-0.9122076 5.8318248 0.91548854
-0.87124485 5.5572867 0.32058921
-0.1234542 0.94609755 6.0658331
-0.34679163 2.4110849 7.8344274
-0.47977275 3.2519014 7.8034983
-0.62500542 4.1762199 7.805882
-0.77866608 5.1480498 7.7195601
-0.70305163 4.6154985 5.666326
-0.020817211 0.4659729 7.9062157
-0.06982743 0.85032356 7.9144454
-0.28445852 2.0273876 7.9196196
-0.41011891 2.8273206 7.823256
-0.40201917 2.7150109 5.7387924
-0.69620657 4.6521564 7.7644196
-0.6584838 4.3585958 5.9117255
-0.91238016 6.0040121 6.6617889
-0.90720958 5.893826 5.9398532
-0.50490564 3.2649229 2.7462659
-0.90823352 5.8530445 3.9679618
-1.1438415 7.3461342 3.9782598
-0.50624979 3.2437861 1.4147581
-0.50547826 3.2277985 1.0502722
-0.95819372 6.104867 1.2647083
-0.9085176 5.7752538 0.61779958
-0.50212181 3.2733619 3.0306866
-0.5501563 3.5699718 2.7136827
-1.1926173 7.7214088 4.6767907
-1.1137717 7.1860251 3.4490559
-0.50300783 3.2341435 1.2282913
-0.54804027 3.515666 0.94888943
-0.94941109 6.0766187 0.95002258
-0.88496041 5.6512189 0.32441831
-0.12005343 0.94575185 6.0608935
-0.33815917 2.4138181 7.8391995
-0.4672828 3.2537196 7.8034983
-0.60896534 4.1785893 7.805882
-0.7588135 5.156702 7.7278261
-0.68451828 4.6182833 5.666326
-0.01878383 0.4660593 7.9062157
-0.066116534 0.85062015 7.9144454
-0.27795729 2.0485868 7.9970503
-0.39728475 2.8291523 7.823256
-0.3892206 2.7168751 5.7387924
-0.67464995 4.6579666 7.7686853
-0.63761139 4.3647432 5.9157152
-0.88302827 6.008399 6.6617889
-0.88769114 5.9040098 5.9468617
-0.49293575 3.2667518 2.7462659
-0.88740098 5.8604684 3.9707029
-1.1535141 7.6001115 4.1104312
-0.49379081 3.2457058 1.4147581
-0.4917939 3.2250595 1.0488622
-0.92605019 6.0446711 0.64194185
-0.4878343 3.2755218 3.0306866
-0.5345481 3.5764294 2.7166259
-1.2099371 8.0763254 4.8845115
-1.1250101 7.4827299 3.5854292
-0.48776174 3.2364779 1.2282913
-0.53219306 3.5230157 0.95006174
-0.94340038 6.2378712 0.9721244
-0.88878226 5.8629351 0.33288261
-0.11675141 0.94616514 6.0608935
-0.32973132 2.4149837 7.8391995
-0.45673501 3.2611349 7.8173051
-0.5980832 4.2067723 7.8541622
-0.74160844 5.1648903 7.7360921
-0.66839325 4.6206446 5.666326
-0.017166436 0.46641058 7.9112072
-0.063146912 0.85084569 7.9144454
-0.27376574 2.0719755 8.0841599
-0.38717282 2.8288121 7.818563
-0.37943342 2.7160611 5.7342911
-0.65838647 4.6602931 7.7686853
-0.62237167 4.3669424 5.9157152
-0.86060613 6.0013776 6.6507635
-0.8681128 5.9141297 5.9538713
-0.48152965 3.2684524 2.7462659
-0.86693871 5.8635302 3.9707029
-1.1704886 7.8976817 4.2657909
-0.48177692 3.2428243 1.4128852
-0.48053339 3.2267563 1.0488622
-0.97109413 6.5054178 1.3402505
-0.93515956 6.2497973 0.66027206
-0.47586057 3.2735095 3.0273612
-0.52206075 3.5782735 2.7166259
-1.2347593 8.4430609 5.0998316
-1.1351334 7.7335849 3.7008224
-0.47577399 3.2334888 1.2266477
-0.52060145 3.5296605 0.9512341
-0.94911009 6.4272857 0.99837023
-0.8909893 6.0192065 0.33913007
-0.11344796 0.94656694 6.0608935
-0.3214961 2.4175999 7.8439717
-0.44482046 3.2588382 7.8081007
-0.58668274 4.2325573 7.8980522
-0.72435546 5.1730213 7.7443585
-0.65226012 4.6229496 5.666326
-0.015538256 0.46646765 7.9112072
-0.060176525 0.85106099 7.9144454
-0.2665315 2.0729187 8.0841599
-0.37729609 2.8301466 7.818563
-0.36995032 2.7173691 5.7342911
-0.64211506 4.6625628 7.7686853
-0.60753912 4.3720727 5.9197054
-0.83683527 5.9841995 6.6287122
-0.84847444 5.9241843 5.9608803
-0.46956387 3.2662606 2.7431273
-0.84646589 5.8665204 3.9707029
-1.1834967 8.1823072 4.4141941
-0.47045445 3.2444863 1.4128852
-0.46926695 3.2284141 1.0488622
-0.95121312 6.5282116 1.343981
-0.92773294 6.3515778 0.66921365
-0.46390685 3.2714541 3.0240355
-0.5101366 3.5840759 2.7195692
-1.2545999 8.7929935 5.3050189
-1.1505958 8.0340166 3.8392937
-0.46381304 3.2304559 1.2250042
-0.50896984 3.5362673 0.95240635
-0.94432646 6.5530953 1.0156373
-0.89854467 6.2200646 0.3471913
-0.11014314 0.94695717 6.0608935
-0.31305513 2.4187071 7.8439717
-0.4336997 3.2623079 7.8127036
-0.57414818 4.251194 7.9287767
-0.70667428 5.1783071 7.7484913
-0.63611901 4.6251984 5.666326
-0.013909884 0.46651906 7.9112072
-0.057205401 0.85126585 7.9144454
-0.25960562 2.0763304 8.0938377
-0.36741474 2.8314462 7.818563
-0.36017662 2.7164857 5.7297897
-0.6261825 4.6673608 7.7729516
-0.59227401 4.3741665 5.9197054
-0.8118217 5.9568529 6.5956364
-0.82581693 5.9129815 5.9468617
-0.4581596 3.2678797 2.7431273
-0.82598275 5.8694396 3.9707029
-1.2056699 8.5460701 4.6043358
-0.45847702 3.2415183 1.4110121
-0.45732144 3.2252829 1.0474521
-0.96713215 6.8038411 1.3962078
-0.92452496 6.4878922 0.68128479
-0.45248449 3.2730534 3.0240355
-0.49762276 3.5858347 2.7195692
-1.2821097 9.2157488 5.5532703
-1.1608356 8.3121729 3.9672747
-0.45253384 3.2320552 1.2250042
-0.49662289 3.5380223 0.95240635
-0.93660843 6.6642365 1.0308322
-0.89355564 6.3418927 0.35202804
-0.10692371 0.94810802 6.0658331
-0.30461037 2.4197853 7.8439717
-0.42230949 3.2638018 7.8127036
-0.56398827 4.2887902 7.9946127
-0.68896496 5.1835313 7.7526236
-0.6199702 4.6273909 5.666326
-0.012287894 0.46685338 7.9161992
-0.054233581 0.85146034 7.9144454
-0.2522049 2.0759766 8.0889997
-0.3575289 2.8327115 7.818563
-0.35069212 2.7177265 5.7297897
-0.60988653 4.669518 7.7729516
-0.57700175 4.3762074 5.9197054
-0.78790122 5.9361248 6.5699096
-0.80421007 5.9087615 5.9398532
-0.44674978 3.269459 2.7431273
-0.80605775 5.8764296 3.9734445
-1.2325594 8.9627466 4.8223028
-0.44715917 3.243099 1.4110121
-0.4460603 3.2268596 1.0474521
-0.957537 6.9093566 1.4157928
-0.91146702 6.5601354 0.68754387
-0.44055834 3.2709129 3.0207102
-0.48510286 3.5875499 2.7195692
-1.3003129 9.5918083 5.7736573
-1.1868958 8.7209101 4.1560993
-0.44061065 3.2289362 1.2233608
-0.48492867 3.5445499 0.95357871
-0.95769703 6.9912777 1.076417
-0.89452463 6.5132556 0.3588801
-0.10361355 0.94847548 6.0658331
-0.29598075 2.4193521 7.8391995
-0.41091412 3.2652559 7.8127036
-0.54931802 4.2931089 7.999002
-0.67122787 5.1886954 7.7567568
-0.60339934 4.626348 5.6624885
-0.010658197 0.46689343 7.9161992
-0.051229764 0.85111237 7.9094739
-0.2451039 2.0780923 8.0938377
-0.34784871 2.8356552 7.823256
-0.34147432 2.7210941 5.7342911
-0.59424055 4.6767931 7.7814837
-0.56133902 4.3752065 5.9157152
-0.76326686 5.9085793 6.5368333
-0.78264248 5.9044619 5.9328442
-0.43533456 3.2709987 2.7431273
-0.78554034 5.8792071 3.9734445
-1.2489079 9.3226318 5.0101256
-0.43583596 3.2446401 1.4110121
-0.4341535 3.2236431 1.0460422
-0.99125755 7.3410468 1.4978633
-0.91060978 6.72613 0.70229751
-0.42913806 3.2724309 3.0207102
-0.47257698 3.5892212 2.7195692
-1.2927749 9.7928801 5.890183
-1.2059417 9.0984316 4.3302379
-0.42933691 3.2304547 1.2233608
-0.47255293 3.5462213 0.95357871
-0.96668923 7.2449155 1.1116418
-0.88569564 6.6203265 0.36311224
-0.10030212 0.94883138 6.0658331
-0.28753382 2.4203706 7.8391995
-0.39975077 3.2686093 7.8173051
-0.5349201 4.2997532 8.0077791
-0.65311188 5.1910067 7.7567568
-0.58724672 4.6284261 5.6624885
-0.0090283696 0.46692777 7.9161992
-0.048258517 0.85128599 7.9094739
-0.23756309 2.0764377 8.0841599
-0.33794829 2.8368521 7.823256
-0.33197385 2.7222695 5.7342911
-0.58206725 4.7124872 7.8369403
-0.5460633 4.3771391 5.9157152
-0.74263746 5.9112072 6.5368333
-0.7611149 5.900084 5.9258347
-0.42391396 3.2724981 2.7431273
-0.76555252 5.8860602 3.976186
-1.256457 9.6344166 5.172442
-0.42450735 3.2461417 1.4110121
-0.42289826 3.2251389 1.0460422
-0.98163474 7.4662204 1.5211788
-0.9229241 7.0008173 0.72688687
-0.41771251 3.2739089 3.0207102
-0.46055892 3.5948579 2.7225122
-1.2673712 9.8657436 5.9307141
-1.2212048 9.467185 4.5001802
-0.41805789 3.2319336 1.2233608
-0.45954627 3.5430288 0.95240635
-0.96563047 7.4348569 1.1378876
-0.88838834 6.8215418 0.37117347
-0.096989475 0.94917572 6.0658331
-0.2789126 2.4198766 7.8344274
-0.38856909 3.2719247 7.821908
-0.51760942 4.2825727 7.9726667
-0.63532931 5.1960478 7.7608895
-0.57069468 4.6272674 5.6586514
-0.0073984331 0.46695647 7.9161992
-0.045286678 0.85144925 7.9094739
-0.22948326 2.0697582 8.0551224
-0.32824185 2.8397288 7.8279486
-0.5696519 4.7481537 7.8923974
-0.53078085 4.3790183 5.9157152
-0.7207666 5.9036684 6.5258079
-0.74007124 5.8991661 5.9223304
-0.41248825 3.273958 2.7431273
-0.74500167 5.8886967 3.976186
-1.2590567 9.9243917 5.3231635
-0.41317362 3.2476037 1.4110121
-0.41163784 3.2265954 1.0460422
-0.99234277 7.757082 1.5762033
-0.93713307 7.305305 0.75415868
-0.40628189 3.275347 3.0207102
-0.44800773 3.5964437 2.7225122
-1.2318571 9.8615513 5.9256477
-1.2163956 9.6965513 4.605083
-0.40736318 3.2380583 1.2250042
-0.44839263 3.554256 0.95475101
-0.96201581 7.6150503 1.162752
-0.89533776 7.0674605 0.3810485
-0.093675636 0.94950849 6.0658331
-0.27046397 2.4208355 7.8344274
-0.37714556 3.2732613 7.821908
-0.50126225 4.27246 7.9507217
-0.61685616 5.1954398 7.7567568
-0.55453902 4.629231 5.6586514
-0.0057684057 0.46697944 7.9161992
-0.042288531 0.85106975 7.9045029
-0.22131903 2.0617981 8.0212469
-0.31832734 2.8408573 7.8279486
-0.55367744 4.7552938 7.9009295
-0.51513994 4.377852 5.9117255
-0.70015454 5.9061484 6.5258079
-0.71904325 5.8981738 5.9188256
-0.40058446 3.2715144 2.7399888
-0.72495204 5.8954115 3.9789276
-1.2238642 9.9243298 5.3208447
-0.40183488 3.2490261 1.4110121
-0.40037239 3.2280128 1.0460422
-1.016796 8.1748476 1.6554761
-0.94367969 7.5654993 0.77740681
-0.39484632 3.2767451 3.0207102
-0.43593669 3.6019986 2.7254553
-1.2083334 9.9556599 5.9788446
-1.2012129 9.8539152 4.6764169
-0.39605775 3.2394607 1.2250042
-0.43775785 3.5702734 0.95826799
-0.96318966 7.8444595 1.1945233
-0.89508557 7.2688823 0.38910973
-0.09028741 0.94905615 6.0608935
-0.26201203 2.4217649 7.8344274
-0.36571744 3.2745578 7.821908
-0.48499203 4.2622857 7.9287767
-0.59936088 5.2031527 7.7650228
-0.53837663 4.6311383 5.6586514
-0.0041398196 0.46728539 7.9211903
-0.039317485 0.85121214 7.9045029
-0.21308351 2.052556 7.9825315
-0.30840895 2.8419509 7.8279486
-0.30585638 2.7472327 5.7793036
-0.53707504 4.7571979 7.9009295
-0.49985522 4.3796239 5.9117255
-0.67914665 5.9051886 6.5221329
-0.69803119 5.8971057 5.9153209
-0.3891623 3.2728927 2.7399888
-0.70436883 5.8979063 3.9789276
-1.1792051 9.8449736 5.2767878
-0.39049119 3.2504091 1.4110121
-0.3891021 3.2293904 1.0460422
-1.0212545 8.4514465 1.7077029
-0.93703711 7.7318926 0.79216039
-0.38340595 3.2781034 3.0207102
-0.42383233 3.6075127 2.7283986
-1.1735742 9.9598169 5.9788446
-1.1673424 9.8625555 4.678515
-0.38474753 3.2408233 1.2250042
-0.42644194 3.5814328 0.9606126
-0.98212278 8.2362356 1.249087
-0.90886289 7.5993614 0.40241078
0.024470108 0.080460221 8.2139606
-0.086974032 0.94936556 6.0608935
-0.25355691 2.4226646 7.8344274
-0.35449487 3.2777569 7.8265104
-0.46879888 4.2520494 7.9068308
-0.52220768 4.6329894 5.6586514
-0.0025091679 0.46758568 7.9261823
-0.036345959 0.85134423 7.9045029
-0.2050405 2.0445323 7.9486556
-0.2984868 2.8430102 7.8279486
-0.29649809 2.7504478 5.7838044
-0.51876521 4.7434883 7.8753338
-0.48456445 4.3813419 5.9117255
-0.65852958 5.9075232 6.5221329
-0.67744219 5.8995061 5.9153209
-0.37818146 3.2780981 2.7431273
-0.68377697 5.9003286 3.9789276
-1.1453439 9.8534288 5.2791061
-0.37914276 3.2517524 1.4110121
-0.37782705 3.2307291 1.0460422
-1.0340948 8.8159904 1.7767167
-0.95484674 8.1159468 0.82658547
-0.37196088 3.2794218 3.0207102
-0.41169474 3.6129861 2.7313418
-1.1353744 9.9338722 5.9611125
-1.1329086 9.8665705 4.678515
-0.37343261 3.2421467 1.2250042
-0.41616911 3.6022134 0.96530187
-1.0006087 8.6479101 1.3064134
-0.91803962 7.9101706 0.4149057
-0.083591737 0.94888926 6.0559545
-0.24509868 2.4235349 7.8344274
-0.342848 3.2770312 7.821908
-0.45268318 4.2417526 7.8848858
-0.5878225 5.4366231 8.1039248
-0.50603229 4.6347842 5.6586514
-0.00087647012 0.46788028 7.9311738
-0.033373993 0.85146594 7.9045029
-0.19681428 2.0339754 7.9051008
-0.28856105 2.8440349 7.8279486
-0.28870073 2.7687879 5.8198137
-0.49973434 4.7219281 7.8369403
-0.46926779 4.3830066 5.9117255
-0.63790447 5.9097857 6.5221329
-0.65645063 5.8982916 5.9118171
-0.36673644 3.2793982 2.7431273
-0.66317683 5.9026794 3.9789276
-1.110942 9.8573666 5.2791061
-0.36778972 3.2530558 1.4110121
-0.36654741 3.2320282 1.0460422
-1.0549515 9.2734585 1.8634504
-0.95756477 8.3913641 0.85117483
-0.3605113 3.2807002 3.0207102
-0.39952412 3.6184189 2.7342851
-1.0916756 9.8563681 5.912982
-1.0979589 9.8659534 4.6764169
-0.36211312 3.2434306 1.2250042
-0.4041335 3.6084747 0.96647424
-1.0051919 8.9613867 1.3499264
-0.91667771 8.1466627 0.42437762
0.024702771 0.079478942 8.1139641
-0.080213837 0.94840103 6.0510149
-0.23678236 2.4258614 7.8391995
-0.33160335 3.2801518 7.8265104
-0.435662 4.2218661 7.8453836
-0.56884152 5.4386415 8.1039248
-0.48985082 4.6365223 5.6586514
0.00075523055 0.46759182 7.9261823
-0.030401619 0.85157722 7.9045029
-0.18913049 2.0283923 7.8809042
-0.27879983 2.8467422 7.8326416
-0.2792522 2.7719448 5.8243151
-0.48059502 4.6976991 7.794281
-0.4539654 4.3846178 5.9117255
-0.61691952 5.9086046 6.5184574
-0.6358577 5.900547 5.9118171
-0.35528696 3.2806585 2.7431273
-0.64302087 5.9091153 3.9816689
-1.076046 9.856782 5.2767878
-0.3564322 3.2543201 1.4110121
-0.35526329 3.233288 1.0460422
-1.0387205 9.4235659 1.8914291
-0.97588599 8.8252878 0.89007068
-0.34905735 3.2819386 3.0207102
-0.38689104 3.6197915 2.7342851
-1.0577234 9.8644047 5.9155149
-1.0630274 9.8652134 4.6743188
-0.35028172 3.23998 1.2233608
-0.3915351 3.6098635 0.96647424
-1.0225734 9.4128428 1.4127783
-0.9315384 8.5471354 0.44050014
0.024980053 0.079392232 8.1139641
-0.076902807 0.94867522 6.0510149
-0.22831309 2.4266732 7.8391995
-0.31977221 3.2774005 7.8173051
-0.41807282 4.1947627 7.7927146
-0.54334676 5.3762002 8.0088673
-0.47366336 4.6382041 5.6586514
0.002394984 0.46845236 7.9411569
-0.027428875 0.85167813 7.9045029
-0.18227327 2.031544 7.8905821
-0.26886114 2.847698 7.8326416
-0.26789027 2.7555685 5.7883058
-0.4631688 4.6889663 7.7772179
-0.43865743 4.3861756 5.9117255
-0.59629089 5.9107223 6.5184574
-0.61525714 5.9027309 5.9118171
-0.34383318 3.2818787 2.7431273
-0.62239027 5.911324 3.9816689
-1.0407022 9.8516674 5.27215
-0.34458175 3.2509344 1.409139
-0.34397486 3.2345083 1.0460422
-1.0454266 9.798357 1.962308
-0.98005784 9.1554508 0.9195779
-0.33721724 3.279423 3.0173848
-0.37466869 3.6251402 2.7372279
-1.0223944 9.8594618 5.9104486
-1.0281144 9.8643503 4.6722207
-0.33896992 3.2411828 1.2233608
-0.37893194 3.6112082 0.96647424
-1.0233562 9.7364759 1.4576725
-0.92841923 8.8037233 0.45077822
0.025557712 0.080030099 8.2039604
-0.073531106 0.94816321 6.0460763
-0.21997553 2.428942 7.8439717
-0.30906138 3.2862771 7.8357158
-0.40274048 4.1890445 7.7795477
-0.52239192 5.3556581 7.9758034
-0.45747012 4.6398292 5.6586514
0.0040125386 0.46699783 7.9161992
-0.024470402 0.85230154 7.9094739
-0.17518075 2.0321679 7.8905821
-0.25891921 2.8486192 7.8326416
-0.25928482 2.7673242 5.8108115
-0.44704571 4.693151 7.7814837
-0.42334414 4.3876801 5.9117255
-0.57532656 5.9093938 6.5147824
-0.59500623 5.90839 5.9153209
-0.3323752 3.2830586 2.7431273
-0.60217541 5.9176202 3.9844103
-1.0054072 9.846426 5.2675123
-0.33323178 3.2521172 1.409139
-0.33219159 3.2309175 1.0446321
-1.0722127 10.393192 2.0751553
-0.99475533 9.6095858 0.96026206
-0.32576784 3.2805798 3.0173848
-0.36161089 3.6224043 2.7342851
-0.9896909 9.8801279 5.9205813
-0.99367523 9.8678789 4.6722207
-0.32765403 3.2423465 1.2233608
-0.36681449 3.6173446 0.96764648
-1.0303992 10.143979 1.5143082
-0.95239639 9.3436909 0.47254354
0.025921142 0.080141649 8.22896
-0.070220947 0.94841415 6.0460763
-0.21149559 2.4296951 7.8439717
-0.29723611 3.2834444 7.8265104
-0.38833633 4.1928096 7.783937
-0.49263307 5.2397785 7.8022194
-0.44127128 4.641398 5.6586514
0.0056970553 0.47044483 7.976099
-0.02150791 0.85291463 7.9144454
-0.1680861 2.0327668 7.8905821
-0.24897408 2.8495057 7.8326416
-0.43066081 4.6946831 7.7814837
-0.40802571 4.3891311 5.9117255
-0.55437875 5.9079905 6.511107
-0.57472342 5.9139805 5.9188256
-0.32091314 3.284199 2.7431273
-0.58151537 5.9196863 3.9844103
-0.97103059 9.8498755 5.2675123
-0.32187772 3.2532609 1.409139
-0.32091153 3.2320571 1.0446321
-1.0885265 10.924782 2.1758783
-0.99687982 9.9697781 0.99245185
-0.31431451 3.2816973 3.0173848
-0.34896415 3.6236446 2.7342851
-0.95834595 9.8622522 4.6680241
-0.31633413 3.2434704 1.2233608
-0.35418537 3.6186028 0.96764648
-1.0476568 10.684713 1.5895923
-0.94815171 9.6353292 0.48423234
0.026064845 0.079729162 8.188962
-0.066909939 0.94865346 6.0460763
-0.20301311 2.4304185 7.8439717
-0.28644997 3.2922475 7.8449211
-0.37369832 4.1941395 7.783937
-0.4723112 5.2190452 7.769156
-0.4250671 4.64291 5.6586514
0.0074167689 0.47446299 8.0459814
-0.018530551 0.85298455 7.9144454
-0.16098939 2.0333412 7.8905821
-0.23902594 2.8503575 7.8326416
-0.41449976 4.6987553 7.785749
-0.39297068 4.3935299 5.9157152
-0.53344768 5.9065132 6.507432
-0.55440879 5.9195013 5.9223304
-0.3094472 3.2852991 2.7431273
-0.56124258 5.9258432 3.9871519
-0.93915725 9.8796635 5.281425
-0.31007943 3.2497494 1.407266
-0.30917034 3.2283826 1.0432221
-1.0677739 11.109433 2.2103851
-1.0017612 10.384625 1.0295594
-0.30285734 3.2827742 3.0173848
-0.33631313 3.6248405 2.7342851
-1.5014405 16.123409 9.6012897
-0.92349118 9.8610182 4.665926
-0.30501038 3.2445548 1.2233608
-0.3420085 3.6246562 0.96881884
-1.0555588 11.166524 1.6565882
-0.95367968 10.051389 0.5009594
0.026360115 0.079677813 8.1939611
-0.063598111 0.94888121 6.0460763
-0.19452812 2.4311123 7.8439717
-0.27820534 3.332165 7.9369712
-0.35905576 4.1954184 7.783937
-0.45482185 5.229073 7.7815552
-0.40885773 4.6443653 5.6586514
0.0089484667 0.46895051 7.9511404
-0.01556199 0.85357708 7.9194169
-0.15398541 2.0351441 7.895422
-0.22907488 2.8511744 7.8326416
-0.39809552 4.7001734 7.785749
-0.37763199 4.394875 5.9157152
-0.51253378 5.9049621 6.503757
-0.53406256 5.9249525 5.9258347
-0.29797748 3.2863593 2.7431273
-0.54093385 5.9319305 3.9898934
-1.5030891 16.420521 8.7178869
-0.2987338 3.2508118 1.407266
-0.29789931 3.2294421 1.0432221
-1.0317057 11.142442 2.2159808
-1.0152799 10.923588 1.0778439
-0.29139647 3.2838116 3.0173848
-0.32365802 3.6259925 2.7342851
-1.4455349 16.132845 9.6038237
-0.2936829 3.2455997 1.2233608
-0.32979372 3.6306689 0.96999115
-1.0794085 11.860577 1.7532834
-0.95676869 10.472575 0.51788801
0.026620822 0.079545252 8.188962
-0.060334429 0.94987285 6.0510149
-0.1861545 2.433265 7.8487439
-0.26999676 3.3759599 8.0382271
-0.34440881 4.1966462 7.783937
-0.43656623 5.230629 7.7815552
-0.39264339 4.6457639 5.6586514
-0.012582357 0.85362619 7.9194169
-0.14688049 2.0356693 7.895422
-0.21912102 2.8519566 7.8326416
-0.38189742 4.704134 7.7900147
-0.363031 4.4051757 5.9276857
-0.49191847 5.9067149 6.503757
-0.51306969 5.9232278 5.9223304
-0.28650412 3.2873795 2.7431273
-0.52022421 5.9337826 3.9898934
-1.4686769 16.68602 8.8546963
-0.28738454 3.2518349 1.407266
-0.28662464 3.2304623 1.0432221
-0.99367666 11.155761 2.2178459
-1.0223861 11.433002 1.1234459
-0.28024903 3.2885289 3.0207102
-0.3116895 3.6351542 2.7401712
-1.3881027 16.124907 9.5962238
-1.4197237 16.391886 7.6934156
-0.28235185 3.2466052 1.2233608
-0.31754109 3.6366401 0.97116351
-1.0820242 12.36746 1.8237329
-0.96042556 10.933713 0.53642881
0.026898323 0.079451844 8.188962
-0.057064604 0.95085329 6.0559545
-0.17765968 2.4338999 7.8487439
-0.2583597 3.3788295 8.0428295
-0.32975769 4.197823 7.783937
-0.41808102 5.2293153 7.777422
-0.3759068 4.640717 5.6509762
-0.009607872 0.85419792 7.9243889
-0.13985971 2.0374236 7.9002614
-0.20916452 2.852704 7.8326416
-0.36547458 4.7054386 7.7900147
-0.34694102 4.3974042 5.9157152
-0.47129723 5.9083962 6.503757
-0.49179995 5.9178743 5.9153209
-0.2750273 3.2883596 2.7431273
-0.49985886 5.9397287 3.9926348
-1.4160178 16.757256 8.8894787
-0.27603176 3.2528181 1.407266
-0.27534646 3.2314432 1.0432221
-0.96017325 11.222788 2.2299702
-1.0293577 11.982289 1.1726246
-0.26876822 3.2894871 3.0207102
-0.30032331 3.652334 2.7519438
-1.3339362 16.155432 9.6114235
-1.4233809 17.129457 8.0333004
-0.27101737 3.247571 1.2233608
-0.30525076 3.6425703 0.97233576
-1.0765556 12.82022 1.8865848
-0.96927023 11.494566 0.55900031
0.027175497 0.079357468 8.188962
-0.053832181 0.95259839 6.0658331
-0.16916271 2.4345052 7.8487439
-0.24713202 3.3875046 8.0612392
-0.31528169 4.2013364 7.7883253
-0.39961034 5.2279372 7.7732887
-0.36069563 4.6547832 5.666326
-0.0066226637 0.85369319 7.9194169
-0.13274692 2.0378995 7.9002614
-0.19908537 2.8516953 7.8279486
-0.34924018 4.7092867 7.794281
-0.33158913 4.3985882 5.9157152
-0.45067021 5.9100056 6.503757
-0.47057396 5.9124455 5.9083123
-0.26385793 3.2931795 2.7462659
-0.47912228 5.9414372 3.9926348
-1.3728913 16.951958 8.9891863
-0.26467565 3.253762 1.407266
-0.26406494 3.2323847 1.0432221
-0.91737765 11.182008 2.2215765
-1.0423205 12.650872 1.2325332
-0.25757512 3.2941275 3.0240355
-0.28852382 3.6654484 2.7607732
-1.2771953 16.155693 9.6088896
-1.3686197 17.19766 8.0626736
-0.25930333 3.2437899 1.2217172
-0.29253399 3.6436133 0.97233576
-1.1009023 13.682783 2.006763
-0.97903937 12.115363 0.5839901
0.027470022 0.079301998 8.1939611
-0.050588265 0.95433229 6.0757113
-0.16066366 2.435081 7.8487439
-0.23544119 3.3902957 8.0658417
-0.30061436 4.2024112 7.7883253
-0.38135901 5.2293 7.7732887
-0.34468165 4.6592107 5.6701636
-0.003642678 0.85371113 7.9194169
-0.12563251 2.0383503 7.9002614
-0.18912987 2.8523729 7.8279486
-0.33279955 4.7104769 7.794281
-0.43003768 5.9115424 6.503757
-0.44939181 5.90694 5.9013033
-0.25265822 3.2979615 2.7494044
-0.45837989 5.9430733 3.9926348
-1.3106301 16.916897 8.968317
-0.25331625 3.2546661 1.407266
-0.2527802 3.2332866 1.0432221
-0.87757057 11.175349 2.2197113
-1.0498443 13.309753 1.2915477
-0.24690892 3.3061769 3.0340123
-0.27693954 3.6825557 2.7725458
-1.2214432 16.168648 9.6139555
-1.2720907 16.722635 7.8402796
-0.24797881 3.2446752 1.2217172
-0.28018567 3.6494589 0.97350812
-1.1154405 14.496288 2.1200347
-0.98833591 12.786171 0.61099529
0.027711028 0.079125986 8.1839619
-0.047294807 0.95527911 6.0806508
-0.15216267 2.435627 7.8487439
-0.22270621 3.3774509 8.0336246
-0.28594336 4.2034349 7.7883253
-0.36290818 5.2277923 7.769156
-0.3277401 4.6507936 5.6586514
-0.00066264783 0.85371864 7.9194169
-0.11851658 2.0387764 7.9002614
-0.17928013 2.854738 7.8326416
-0.31635493 4.7116098 7.794281
-0.40916583 5.9096255 6.500082
-0.42851189 5.9049153 5.8977985
-0.24142838 3.3027053 2.752543
-0.4379389 5.9488082 3.9953761
-1.2515711 16.92137 8.968317
-0.24161027 3.2509074 1.405393
-0.24149238 3.2341495 1.0432221
-0.83782107 11.168548 2.2178459
-1.0662538 14.147606 1.3666569
-0.23669173 3.3256402 3.0506394
-0.26437235 3.6875317 2.7754891
-1.1649966 16.172813 9.6139555
-1.2137101 16.726974 7.8402796
-0.23630789 3.2408116 1.2200737
-0.26708984 3.6455667 0.97233576
-1.0651948 14.505033 2.1207254
-1.0058279 13.631567 0.64505398
0.027915208 0.078869715 8.1639624
-0.044030733 0.95699072 6.090529
-0.14365983 2.4361432 7.8487439
-0.21079372 3.3762577 8.0290222
-0.27142307 4.2067976 7.7927146
-0.34465757 5.2290273 7.769156
0.0023173902 0.85371578 7.9194169
-0.1113992 2.0391779 7.9002614
-0.16931416 2.8553464 7.8326416
-0.29990637 4.7126856 7.794281
-0.28784958 4.4379029 5.9635959
-0.38853487 5.9110184 6.500082
-0.40765163 5.9028172 5.8942938
-0.23016845 3.3074107 2.755681
-0.41717103 5.9503002 3.9953761
-1.1828458 16.788649 8.8964348
-0.230261 3.2517309 1.405393
-0.23020163 3.2349725 1.0432221
-0.79883045 11.171403 2.2178459
-1.0861059 15.114873 1.4533904
-0.40198803 5.941577 5.3851409
-0.25094903 3.6803672 2.769603
-1.1091251 16.185383 9.6190224
-1.1603169 16.803553 7.8738484
-0.22499391 3.241617 1.2200737
-0.25436282 3.6464767 0.97233576
-1.0263013 14.676622 2.1442084
-1.0097237 14.36759 0.67467904
0.028172243 0.078732088 8.1589622
-0.040689945 0.9571386 6.090529
-0.13515523 2.4366298 7.8487439
-0.19728445 3.347719 7.9599843
-0.25673693 4.2077198 7.7927146
-0.3267532 5.2358155 7.777422
0.0052974001 0.85370249 7.9194169
-0.10428046 2.0395541 7.9002614
-0.1593461 2.8559201 7.8326416
-0.28439316 4.7293234 7.8198762
-0.27272561 4.4448957 5.9715757
-0.36789921 5.9123383 6.500082
-0.3868112 5.9006462 5.890789
-0.21913525 3.3159618 2.7619581
-0.39667588 5.9558921 3.9981177
-1.1192051 16.717539 8.8570156
-0.21890894 3.2525148 1.405393
-0.21890807 3.2357564 1.0432221
-0.76616186 11.267241 2.2355659
-1.1026132 16.13212 1.5445944
-0.38005066 5.9243135 5.3685131
-0.23810063 3.6812208 2.769603
-1.0529007 16.193459 9.6215563
-1.102545 16.821089 7.8801432
-0.21367718 3.2423825 1.2200737
-0.2413114 3.6424925 0.97116351
-0.97572035 14.689998 2.1455898
-1.0218067 15.303192 0.71236533
0.028319223 0.078355812 8.1239643
-0.037348658 0.95727479 6.090529
-0.12664898 2.4370868 7.8487439
-0.18408504 3.3210776 7.8955483
-0.2420477 4.20859 7.7927146
-0.30913651 5.2481608 7.7939534
-0.28400594 4.7371573 5.7584262
0.0082773454 0.85367876 7.9194169
-0.097160451 2.0399058 7.9002614
-0.14946613 2.8581824 7.8373346
-0.25947013 4.4849277 6.0234461
-0.34725907 5.9135866 6.500082
-0.36621174 5.9019604 5.890789
-0.2078021 3.3205914 2.7650967
-0.37614682 5.9614139 4.0008593
-1.0608431 16.721344 8.8570156
-0.20784935 3.2578857 1.407266
-0.20761184 3.2365007 1.0432221
-1.1233095 17.323591 1.6514462
-0.35756066 5.8957882 5.3419094
-0.22500254 3.6779947 2.7666597
-0.99663323 16.201338 9.6240892
-1.0376393 16.725178 7.8339853
-0.20235786 3.2431085 1.2200737
-0.22859524 3.6433127 0.97116351
-0.92661339 14.72791 2.1504245
-1.0343089 16.348732 0.75448525
0.02868445 0.078454345 8.148963
-0.034034178 0.9581759 6.0954685
-0.11814118 2.4375141 7.8487439
-0.17249118 3.3217001 7.8955483
-0.2273555 4.2094092 7.7927146
-0.29143757 5.260447 7.8104854
0.01125719 0.85364467 7.9194169
-0.090039261 2.0402324 7.9002614
-0.13948831 2.8586867 7.8373346
-0.24561147 4.5189028 6.0673361
-0.3269884 5.9215322 6.507432
-0.34560785 5.9032025 5.890789
-0.19643927 3.3251815 2.768235
-0.355584 5.9668646 4.0036006
-0.99955302 16.676304 8.8315086
-0.19675492 3.2632189 1.409139
-0.19602272 3.2324173 1.0418121
-0.91115856 14.939866 2.9331656
-1.1289928 18.406033 1.7484626
-0.33697835 5.8970008 5.3419094
-0.21216258 3.6787577 2.7666597
-0.94032347 16.209021 9.6266212
-0.97765976 16.701511 7.8213968
-0.19075847 3.2390811 1.2184302
-0.21587634 3.6440885 0.97116351
-0.8749041 14.726112 2.149734
-1.0404177 17.409496 0.79720986
0.028958132 0.07835374 8.148963
-0.030713851 0.9590655 6.1004076
-0.10963195 2.4379115 7.8487439
-0.160612 3.3164279 7.881741
-0.21266054 4.2101774 7.7927146
-0.27394819 5.2782936 7.8352828
-0.25245252 4.7678313 5.792964
0.014236897 0.85360014 7.9194169
-0.082916975 2.0405343 7.9002614
-0.12950878 2.8591564 7.8373346
-0.23075391 4.5377889 6.0912766
-0.30701667 5.9361801 6.5221329
-0.32499972 5.9043732 5.890789
-0.18504694 3.3297334 2.7713735
-0.33498773 5.9722443 4.0063419
-0.94008774 16.657578 8.8199139
-0.18562578 3.2685144 1.4110121
-0.18473828 3.2330821 1.0418121
-0.86746055 15.09008 2.9611444
-1.1509975 19.901361 1.8825862
-0.31639192 5.8981409 5.3419094
-0.19932003 3.6794758 2.7666597
-0.88397241 16.216511 9.6291552
-0.17945081 3.239727 1.2184302
-0.20315477 3.6448197 0.97116351
-0.82515365 14.758742 2.153878
0.029250113 0.078291617 8.1539621
-0.027387733 0.95994359 6.1053472
-0.10118311 2.4397709 7.8535161
-0.14868411 3.3091614 7.8633308
-0.19796298 4.2108941 7.7927146
-0.25565788 5.2820287 7.839416
-0.23501691 4.752677 5.7737761
0.017227873 0.85407817 7.9243889
-0.075793676 2.0408113 7.9002614
-0.11959963 2.8613153 7.8420272
-0.16863596 3.7836123 7.8948741
-0.21448529 4.5295377 6.0793066
-0.28629366 5.9372153 6.5221329
-0.30438763 5.9054713 5.890789
-0.17322052 3.326472 2.768235
-0.31435823 5.9775529 4.0090837
-0.17446208 3.2737718 1.4128852
-0.1734516 3.2337072 1.0418121
-0.81954736 15.181308 2.9779315
-1.1428527 21.034048 1.9840732
-0.29580164 5.8992095 5.3419094
-0.18647504 3.6801493 2.7666597
-0.8253845 16.18075 9.6063566
-0.16838564 3.24505 1.2200737
-0.19068427 3.6503608 0.97233576
-0.78088778 14.9 2.1732168
0.029523224 0.078189045 8.1539621
-0.023998497 0.95847976 6.0954685
-0.092666112 2.4401093 7.8535161
-0.13688973 3.3038046 7.8495235
-0.18336707 4.2139521 7.7971039
-0.23721859 5.2828889 7.839416
-0.21739601 4.7310553 5.7469139
0.020235663 0.85507864 7.9343314
-0.068669453 2.0410635 7.9002614
-0.10961106 2.8617151 7.8420272
-0.1550706 3.7754772 7.8768687
-0.20225589 4.7439895 7.8369403
-0.19893686 4.5362792 6.0872865
-0.26617286 5.9517255 6.5368333
-0.28377184 5.906498 5.890789
-0.16160792 3.3270564 2.768235
-0.29349077 5.9786139 4.0090837
-0.82114941 16.610641 8.7920885
-0.16303343 3.2743609 1.4128852
-0.1621628 3.2342927 1.0418121
-0.77274144 15.306726 3.0012472
-1.0868676 21.381083 2.0149217
-0.27503383 5.8964767 5.3385835
-0.17362779 3.6807778 2.7666597
-0.76726145 16.149084 9.586091
-0.15705729 3.2456179 1.2200737
-0.17794098 3.6510041 0.97233576
0.029795976 0.078085512 8.1539621
-0.020619815 0.95700407 6.0855904
-0.084199287 2.4419096 7.8582883
-0.12513453 3.2984054 7.8357158
-0.16865651 4.2145667 7.7971039
-0.21854368 5.2780614 7.8311501
-0.20115203 4.7381902 5.7545891
0.023235483 0.85553557 7.9393029
-0.061544396 2.0412908 7.9002614
-0.099621132 2.8620803 7.8420272
-0.14107411 3.7542417 7.8318572
-0.18518539 4.731636 7.8156109
-0.18370834 4.5519996 6.1072364
-0.24455826 5.9322953 6.5147824
-0.2631526 5.9074526 5.890789
-0.27018738 5.9950194 4.9212165
-0.27281016 5.9837794 4.0118251
-0.15160277 3.27491 1.4128852
-0.15444744 3.3115089 1.0643725
-1.0108143 21.354898 2.012239
-0.25477144 5.9048615 5.3452349
-0.16095473 3.6853998 2.769603
-0.71031743 16.138744 9.5784912
-0.59616226 13.38556 6.2814269
-0.14572699 3.2461462 1.2200737
-0.16541517 3.6564589 0.97350812
0.030068362 0.077981032 8.1539621
-0.017279124 0.95707017 6.0855904
-0.075674914 2.4421887 7.8582883
-0.11355302 3.2968695 7.8311133
-0.1539439 4.2151294 7.7971039
-0.19958574 5.2647324 7.8104854
-0.18436199 4.7324576 5.7469139
0.026306834 0.85811323 7.9641604
-0.054451928 2.0427496 7.9051008
-0.089576095 2.8606858 7.8373346
-0.1278944 3.7525356 7.8273559
-0.16838925 4.7244349 7.8028131
-0.16715212 4.5345459 6.0832963
-0.24238388 5.9047718 5.8872848
-0.24861269 5.9803705 4.9086623
-0.25192121 5.9846954 4.0118251
-0.13997211 3.2707875 1.4110121
-0.14619496 3.38871 1.0869331
-0.80564815 18.526236 3.612113
-0.93713802 21.378199 2.0140274
-0.23430596 5.9094453 5.3485599
-0.1480893 3.6859391 2.769603
-0.65432739 16.14974 9.5835581
-0.54850376 13.364884 6.2709365
-0.13498075 3.2607894 1.2250042
-0.15305611 3.6667268 0.97585273
0.030321183 0.077836417 8.148963
-0.013839361 0.95013237 6.0411367
-0.067149624 2.4424379 7.8582883
-0.10204411 3.2972457 7.8311133
-0.13922942 4.2156415 7.7971039
-0.18082021 5.2541471 7.7939534
-0.16784151 4.7330728 5.7469139
0.029339809 0.85908163 7.9741035
-0.047321066 2.0429273 7.9051008
-0.079637773 2.8627059 7.8420272
-0.1145954 3.7464311 7.8138518
-0.15172938 4.7197804 7.794281
-0.15092085 4.5230556 6.0673361
-0.38019264 11.107597 12.126758
-0.22150336 5.8984547 5.8802762
-0.22803192 5.9889808 4.9149394
-0.23119041 5.9897156 4.0145664
-0.12855408 3.271256 1.4110121
-0.13683534 3.4515121 1.1052636
-0.74391878 18.602558 3.6261024
-0.87394971 21.664967 2.039511
-0.21327211 5.8990331 5.3385835
-0.13522208 3.6864336 2.769603
-0.59906656 16.182081 9.6012897
-0.12431288 3.2801158 1.2315784
0.030592699 0.077730104 8.148963
-0.010646779 0.96182919 6.1152253
-0.058623519 2.4426575 7.8582883
-0.090533949 3.2975819 7.8311133
-0.12458386 4.2184954 7.8014927
-0.16230486 5.2491202 7.7856874
-0.15131897 4.7336297 5.7469139
0.032359127 0.85950661 7.979075
-0.040189631 2.0430801 7.9051008
-0.069435276 2.8543406 7.818563
-0.10128167 3.7381036 7.7958465
-0.1351787 4.7176743 7.7900147
-0.13486178 4.5145192 6.055366
-0.34141758 11.108857 12.126758
-0.11608058 3.3562186 2.7902043
-0.21028101 5.9904861 4.0145664
-0.11713447 3.2716849 1.4110121
-0.11837539 3.2745934 1.0530922
-0.5707745 15.640017 3.0627999
-0.12235319 3.6868832 2.769603
-0.54387677 16.222849 9.6240892
-0.6730935 19.768532 9.2312889
-0.11334936 3.2946877 1.2365088
0.030863842 0.077622838 8.148963
-0.0073560257 0.97118425 6.1744967
-0.050310053 2.4532938 7.8916917
-0.079022691 3.2978778 7.8311133
-0.10985781 4.2189045 7.8014927
-0.14398102 5.2496552 7.7856874
-0.13488577 4.7373328 5.7507515
0.035698179 0.86737704 8.053648
-0.033077888 2.0444646 7.9099402
-0.059722215 2.8666427 7.8514123
-0.088130064 3.734082 7.7868447
-0.11877567 4.7207246 7.794281
-0.11878473 4.5029135 6.0394063
-0.30079255 11.042206 12.053256
-0.34433538 11.268128 11.158122
-0.10436448 3.3566034 2.7902043
-0.18936901 5.9911838 4.0145664
-0.60440612 18.915909 9.993227
-0.10571345 3.2720737 1.4110121
-0.10850958 3.3229315 1.0671926
-0.51714927 15.671371 3.0683956
-0.09820006 3.3662243 3.080569
-0.10948283 3.6872878 2.769603
-0.48724514 16.224649 9.6240892
-0.60644054 19.847881 9.2669554
