# .PCD v0.7 - Point Cloud Data file format
VERSION 0.7
FIELDS x y z
SIZE 4 4 4
TYPE F F F
COUNT 1 1 1
WIDTH 1439
HEIGHT 1
VIEWPOINT 0 0 0 1 0 0 0
POINTS 1439
DATA ascii
-0.88068879 -7.2458949 1.1102604
-0.82822913 -6.8341393 0.37137502
-0.056229368 -0.091223426 10.863859
-0.048919559 -0.33047071 2.1243052
-0.064192034 -0.452095 2.2187984
-0.086705677 -0.64029914 2.1128192
-0.12031584 -0.91136432 2.2252388
-0.1661059 -1.2781165 2.42926
-0.17555265 -1.3654789 2.0946171
-0.2187876 -1.7156386 2.1473348
-0.032614253 -0.1420112 2.3604829
-0.062642284 -0.31828985 2.9827137
-0.079453476 -0.56855416 2.2478137
-0.098807417 -0.7311393 2.0605392
-0.13538189 -1.022437 2.196337
-0.17720813 -1.3541417 2.3040237
-0.2056735 -1.5864252 2.1930227
-0.2915678 -2.2640476 2.5529552
-0.29562205 -2.3571231 2.4142797
-0.38001043 -3.0426633 2.5548198
-0.4998202 -4.0188489 2.7397847
-0.49793771 -4.0150933 2.2043779
-0.67433035 -5.4528494 2.3081949
-0.75328261 -6.1086993 1.8991119
-0.86746824 -7.0548897 1.4409735
-0.85024768 -6.934762 0.72018069
-0.38664988 -3.0482645 2.8178544
-0.40353197 -3.1946549 2.4281962
-0.49426004 -3.9237947 2.4095955
-0.5746091 -4.5808926 2.2216952
-0.72976679 -5.8341994 2.1355083
-0.83385116 -6.6851707 1.7155851
-0.86423469 -6.9385757 1.0674382
-0.83433992 -6.7176213 0.36673981
-0.056547455 -0.091026589 10.863859
-0.049368437 -0.32568944 2.0946693
-0.065769754 -0.45186818 2.2187984
-0.088734269 -0.6385141 2.108047
-0.12743801 -0.93997723 2.2942765
-0.17088351 -1.2799028 2.4336493
-0.180318 -1.3648577 2.0946171
-0.22977538 -1.753001 2.1933849
-0.033178627 -0.14217684 2.3654745
-0.063646391 -0.3175469 2.9777422
-0.081258781 -0.56702924 2.2429745
-0.10112148 -0.72908068 2.0558462
-0.13865647 -1.019801 2.1918356
-0.18123862 -1.3483455 2.2954919
-0.20921992 -1.5707633 2.1730726
-0.31192484 -2.3571198 2.6558597
-0.30156699 -2.338392 2.3967569
-0.38071054 -2.9641063 2.4920509
-0.50429493 -3.9424222 2.6904383
-0.51251054 -4.017725 2.2066967
-0.68633962 -5.3952756 2.2857184
-0.76675296 -6.0441675 1.8807815
-0.86311275 -6.8227682 1.3971403
-0.84203804 -6.674829 0.69693255
-0.26450923 -2.0287309 1.9033421
-0.39437789 -3.0369017 2.3134131
-0.51404458 -3.9690716 2.4374604
-0.58653164 -4.5473504 2.2070088
-0.72843844 -5.6630077 2.0763419
-0.83677274 -6.5231228 1.6768986
-0.84629101 -6.6064177 1.0211626
-0.83309382 -6.5213976 0.3588801
-0.05689038 -0.090864033 10.868859
-0.050505005 -0.32551512 2.0946693
-0.06734667 -0.45163584 2.2187984
-0.090751462 -0.6367228 2.1032753
-0.13476135 -0.96855134 2.3633144
-0.17567562 -1.2816713 2.4380381
-0.18508114 -1.36422 2.0946171
-0.23460974 -1.7426586 2.1818724
-0.03325567 -0.14037946 2.3355246
-0.064537704 -0.31627896 2.9677992
-0.082871206 -0.564255 2.2332957
-0.10342239 -0.72701484 2.0511537
-0.14191431 -1.0171549 2.1873345
-0.18273421 -1.3244529 2.2570984
-0.21061736 -1.5401689 2.1331723
-0.32015082 -2.3560166 2.6558597
-0.30832195 -2.3267193 2.3862433
-0.3869797 -2.9318888 2.4669433
-0.84345579 -6.4156528 4.3270936
-0.65207934 -4.9734135 2.7121952
-0.69915748 -5.3468785 2.266988
-0.77730078 -5.9605889 1.856811
-0.88692337 -6.8197141 1.3971403
-0.84867847 -6.5434461 0.68530846
-0.27109346 -2.0240943 1.9000165
-0.4263595 -3.1957664 2.4311395
-0.87931508 -6.6080484 4.002965
-0.6489144 -4.8962107 2.3706567
-0.7147854 -5.4076324 1.9875925
-0.85572582 -6.4912481 1.6698647
-0.86676109 -6.5837846 1.0184
-0.83243918 -6.340126 0.35162497
-0.057207208 -0.090664893 10.868859
-0.051518206 -0.32456961 2.0897303
-0.068922766 -0.45139802 2.2187984
-0.092973493 -0.63640219 2.1032753
-0.13814141 -0.96807504 2.3633144
-0.18081588 -1.2857935 2.4468162
-0.18984203 -1.3635657 2.0946171
-0.23805803 -1.7227787 2.1588473
-0.033533029 -0.13942292 2.3205497
-0.065531142 -0.31553021 2.9628277
-0.084465273 -0.56147653 2.2236168
-0.1054607 -0.7232343 2.0417681
-0.14484675 -1.0123434 2.1783321
-0.1847966 -1.3057312 2.2272372
-0.2122227 -1.5125685 2.0972621
-0.33258766 -2.3851035 2.6889362
-0.31451818 -2.3114941 2.372225
-0.40191734 -2.9652336 2.4951892
-0.86248839 -6.3878064 4.3106451
-0.66943586 -4.971107 2.7121952
-0.70979446 -5.2846751 2.2426386
-0.78727454 -5.8770113 1.8328404
-0.82415479 -6.1850271 0.65311879
-0.28222653 -2.0527272 1.9266205
-0.90927619 -6.6382213 4.9622574
-0.62402201 -4.5676146 2.7946386
-0.66600138 -4.8939161 2.3706567
-0.72476506 -5.3395948 1.9645834
-0.87316251 -6.4496884 1.6604861
-0.83253258 -6.1737947 0.34497446
-0.05752334 -0.090464652 10.868859
-0.05265085 -0.32438782 2.0897303
-0.070498012 -0.45115468 2.2187984
-0.095194384 -0.63607371 2.1032753
-0.14463316 -0.98885041 2.4139423
-0.18598707 -1.2898955 2.4555948
-0.1946006 -1.3628947 2.0946171
-0.24182038 -1.7060697 2.1396599
-0.033660531 -0.13790691 2.2955914
-0.066408135 -0.31425726 2.9528847
-0.086232811 -0.55993605 2.2187772
-0.10772923 -0.72115505 2.0370753
-0.14806347 -1.0096776 2.1738307
-0.18673055 -1.2870113 2.1973755
-0.21449645 -1.4909407 2.0693319
-0.34379128 -2.4040639 2.7109871
-0.32159841 -2.3033183 2.365216
-0.41494709 -2.9830885 2.5108817
-0.88937265 -6.417892 4.3325768
-0.71529222 -5.1749792 2.8211787
-0.79602087 -5.7886853 1.8074598
-0.85440981 -6.2293539 1.2852259
-0.84168947 -6.1525087 0.65043634
-0.28939018 -2.0517297 1.9266205
-0.92569196 -6.5869746 4.9269395
-0.86857277 -6.196188 3.7623129
-0.69563472 -4.9814601 2.4126182
-0.73102111 -5.2481694 1.9333566
-0.87225902 -6.2780976 1.619455
-0.8391946 -6.0478258 0.94380653
-0.82942039 -5.9926953 0.33771935
-0.057838771 -0.090263307 10.868859
-0.053654749 -0.32343569 2.0847909
-0.07191103 -0.44990057 2.2139034
-0.097414114 -0.6357376 2.1032753
-0.14953291 -0.99799973 2.4369547
-0.1904885 -1.2892385 2.4555948
-0.19894914 -1.3594228 2.0904841
-0.2463911 -1.6956995 2.1281471
-0.033923402 -0.13695046 2.2806165
-0.067277029 -0.31298202 2.9429417
-0.087990627 -0.55839008 2.213938
-0.11024588 -0.72077459 2.0370753
-0.15126336 -1.007002 2.1693296
-0.18853608 -1.2682941 2.1675138
-0.21925983 -1.4872019 2.0653419
-0.33014211 -2.305712 2.3687205
-0.42315835 -2.9662087 2.4983277
-0.9058854 -6.3733501 4.305162
-0.73024261 -5.1505218 2.8095849
-0.71291244 -5.0408988 2.145241
-0.80282009 -5.6908708 1.7792592
-0.87614912 -6.2263336 1.2852259
-0.83685631 -5.962131 0.63344729
-0.30456749 -2.1061368 1.976503
-0.94291407 -6.5436969 4.8975077
-0.88712949 -6.1717839 3.7496471
-0.70787174 -4.9430594 2.3958335
-0.74199033 -5.1941638 1.9152781
-0.89348274 -6.2702026 1.6182828
-0.8603003 -6.0448599 0.94380653
-0.82926756 -5.8413739 0.33167341
-0.058153491 -0.09006086 10.868859
-0.054783422 -0.32324642 2.0847909
-0.072986335 -0.44663247 2.1992176
-0.099632651 -0.63539368 2.1032753
-0.15064348 -0.98202354 2.4001346
-0.19391197 -1.2814616 2.4424274
-0.2032758 -1.3559371 2.0863512
-0.25419712 -1.7075101 2.1434972
-0.034106255 -0.13571474 2.2606497
-0.067443952 -0.3085824 2.9031699
-0.089738704 -0.55683863 2.2090983
-0.11302846 -0.7220903 2.0417681
-0.15444635 -1.0043162 2.1648283
-0.18982056 -1.2470018 2.1333864
-0.22489986 -1.4894068 2.0693319
-0.2800163 -1.8651946 2.1229608
-0.32575917 -2.2198627 2.2846115
-0.44871685 -3.0686998 2.583066
-0.91426051 -6.274981 4.2421083
-0.74757963 -5.1435571 2.807266
-0.7305041 -5.0383797 2.145241
-0.81100649 -5.6073236 1.7552886
-0.8392179 -5.8310151 0.62182331
-0.32888597 -2.219557 2.0795937
-0.96752161 -6.552362 4.9063377
-0.91118056 -6.185708 3.7597797
-0.66778177 -4.5498924 2.2133029
-0.75327563 -5.1448188 1.8988429
-0.83492953 -5.7233067 0.89891225
-0.83094651 -5.7099032 0.3264336
-0.058441371 -0.089822382 10.863859
-0.055777978 -0.32228777 2.0798516
-0.074713334 -0.44737917 2.204113
-0.10184999 -0.63504201 2.1032753
-0.15225089 -0.96991181 2.3725195
-0.19801711 -1.2784101 2.4380381
-0.20715345 -1.3496565 2.0780854
-0.26112223 -1.7129496 2.1511722
-0.034280907 -0.13447945 2.2406831
-0.068520695 -0.30834508 2.9031699
-0.091477022 -0.55528182 2.2042592
-0.1182806 -0.73873031 2.0886958
-0.15795113 -1.0037709 2.1648283
-0.19658241 -1.2617931 2.158982
-0.22917655 -1.4826571 2.061352
-0.28394967 -1.8474518 2.1045849
-0.31547904 -2.0988069 2.1654568
-0.48076245 -3.2095411 2.6991892
-0.49291366 -3.3023839 2.2737355
-0.74008298 -4.9700379 2.7168326
-0.71402538 -4.80652 2.0515893
-0.81229007 -5.481082 1.7186277
-0.85134315 -5.7584195 1.196627
-0.83413476 -5.6556163 0.60617548
-0.36072302 -2.37713 2.22259
-0.4790462 -3.1678557 2.4164236
-0.94755918 -6.280529 3.818043
-0.6816355 -4.5340695 2.2070088
-0.76352513 -5.0907884 1.8807644
-0.88400775 -5.9080858 1.5315312
-0.84904683 -5.6811762 0.89338684
-0.81329995 -5.4549603 0.31615555
-0.058754552 -0.089617848 10.863859
-0.057038754 -0.32285607 2.0847909
-0.074211635 -0.43507254 2.1453702
-0.10406607 -0.6346826 2.1032753
-0.15160564 -0.94429862 2.3126867
-0.2101161 -1.3378054 2.0615535
-0.26759416 -1.7151947 2.1550097
-0.034447353 -0.1332446 2.2207165
-0.067449614 -0.29875228 2.8136826
-0.093205571 -0.55371964 2.1994195
-0.13286294 -0.81153941 2.2904847
-0.16145398 -1.0032135 2.1648283
-0.20303911 -1.2739768 2.1803117
-0.23529232 -1.4878005 2.0693319
-0.28934309 -1.8397514 2.0972347
-0.30869806 -2.0060496 2.0743387
-0.492553 -3.2116907 2.7023273
-0.50759691 -3.3213105 2.2874429
-0.75475603 -4.9499078 2.7075574
-0.73010164 -4.7994146 2.0497162
-0.82997805 -5.4687281 1.7158077
-0.87143862 -5.7554126 1.196627
-0.82114327 -5.4360094 0.58650404
-0.37417686 -2.4090619 2.2525196
-0.49010116 -3.1661642 2.4164236
-0.61481225 -3.9808893 2.4526594
-0.71748018 -4.6617479 2.2678523
-0.77269 -5.032083 1.8610423
-0.89505672 -5.842505 1.5162911
-0.85913497 -5.6145415 0.884408
-0.83233637 -5.4520884 0.31615555
-0.059067022 -0.089412205 10.863859
-0.058165383 -0.32265499 2.0847909
-0.076957732 -0.44183171 2.1796367
-0.10628089 -0.63431549 2.1032753
-0.15141694 -0.92255783 2.262059
-0.17627107 -1.0878673 2.0869119
-0.21344511 -1.3287288 2.0491548
-0.27105328 -1.6984243 2.1358223
-0.034605596 -0.13201025 2.2007499
-0.067402244 -0.29384294 2.7689393
-0.094924316 -0.55215222 2.1945801
-0.14054188 -0.84000391 2.3702617
-0.16495487 -1.0026438 2.1648283
-0.20580621 -1.2629641 2.1632481
-0.24096553 -1.4899447 2.0733221
-0.28930104 -1.7985649 2.0531328
-0.3107053 -1.9732543 2.0427978
-0.49108681 -3.1292014 2.6364198
-0.51272547 -3.2782061 2.2600281
-0.77066386 -4.9384899 2.70292
-0.72188735 -4.6365118 1.9841602
-0.83728063 -5.3899546 1.6932472
-0.8697052 -5.6115608 1.1695811
-0.82337135 -5.3248377 0.57666832
-0.39196014 -2.4667411 2.3057275
-0.49988559 -3.15645 2.4105372
-0.630723 -3.9914927 2.4602592
-0.73374838 -4.659215 2.2678523
-0.78145432 -4.9733758 1.8413202
-0.89286053 -5.6952858 1.4811215
-0.8274554 -5.2961321 0.30990809
-0.05935226 -0.089170821 10.858859
-0.059432771 -0.32321402 2.0897303
-0.079215191 -0.4455699 2.1992176
-0.10874669 -0.63541186 2.108047
-0.15172525 -0.90468347 2.2206361
-0.17654316 -1.0659804 2.0474102
-0.2162571 -1.3168685 2.0326231
-0.27543131 -1.6879777 2.1243098
-0.03467802 -0.13049836 2.1757917
-0.065600812 -0.2816759 2.6545947
-0.096633278 -0.55057955 2.1897407
-0.14201792 -0.83100349 2.3467977
-0.16953726 -1.0085022 2.1783321
-0.20506968 -1.2313672 2.112057
-0.25058955 -1.5158503 2.1092322
-0.28842485 -1.7540562 2.0053556
-0.31759134 -1.9721577 2.0427978
-0.49645442 -3.0928807 2.6081738
-0.52812904 -3.3011701 2.2764771
-0.77043962 -4.8264089 2.6449499
-0.72348303 -4.5423989 1.9466994
-0.85232544 -5.3633103 1.686197
-0.86774778 -5.4726453 1.1434677
-0.84195352 -5.3219309 0.57666832
-0.48680836 -2.9960597 2.7845998
-0.51607049 -3.1866057 2.4340825
-0.65221715 -4.0360785 2.4881241
-0.71825224 -4.4594717 2.1755381
-0.78906918 -4.910007 1.8199546
-0.87117785 -5.4329715 1.4178164
-0.83722037 -5.2270074 0.83053493
-0.83016884 -5.1945453 0.30587748
-0.059663162 -0.088963099 10.858859
-0.060560636 -0.3230046 2.0897303
-0.082411706 -0.4543063 2.2432747
-0.11147885 -0.63796902 2.1175911
-0.15488225 -0.90414834 2.2206361
-0.17946342 -1.060635 2.0386319
-0.2189889 -1.3050048 2.0160913
-0.27868494 -1.6711981 2.1051223
-0.03481891 -0.12926538 2.1558251
-0.063216455 -0.26745212 2.520364
-0.098554567 -0.55023891 2.1897407
-0.14491779 -0.83050263 2.3467977
-0.1774805 -1.0336502 2.2323468
-0.2063033 -1.2126466 2.0821953
-0.2644133 -1.5654759 2.1770625
-0.29005092 -1.7262926 1.9759542
-0.32099721 -1.9499239 2.0217705
-0.50031358 -3.0488784 2.5736506
-0.62537593 -3.8233831 2.6246431
-0.77015632 -4.7187634 2.5892987
-0.73262793 -4.4986653 1.9298422
-0.86488616 -5.3224235 1.6749167
-0.84910685 -5.2368345 1.0987018
-0.83666497 -5.1714778 0.56325591
-0.50643981 -3.0495915 2.8344822
-0.53247201 -3.2166867 2.4576278
-0.68246096 -4.1315994 2.546387
-0.7293902 -4.430068 2.1629498
-0.79625112 -4.8466468 1.798589
-0.86890614 -5.3003893 1.3861638
-0.85546088 -5.2240534 0.83053493
-0.8281551 -5.0683517 0.30083919
-0.05997334 -0.088754296 10.858859
-0.061834551 -0.32355422 2.0946693
-0.082509801 -0.4460071 2.204113
-0.11423019 -0.64051491 2.127135
-0.15736358 -0.89975333 2.2114313
-0.18316463 -1.0600021 2.0386319
-0.22164054 -1.2931383 1.9995594
-0.28397843 -1.6670555 2.1012847
-0.034872048 -0.12775551 2.1308668
-0.063770093 -0.26567635 2.5054493
-0.10024818 -0.54865509 2.1849012
-0.14508961 -0.81470191 2.304563
-0.18372059 -1.0480337 2.263855
-0.20919515 -1.2042106 2.0693977
-0.27756172 -1.609084 2.236913
-0.2955015 -1.7219282 1.972279
-0.32484338 -1.9312074 2.0042477
-0.51095313 -3.0471134 2.5736506
-0.64147592 -3.8376737 2.6356089
-0.75892723 -4.5500078 2.5011845
-0.73995399 -4.4457774 1.9092388
-0.88424557 -5.3241038 1.6763268
-0.864169 -5.2144537 1.0949714
-0.83927429 -5.0751743 0.55476141
-0.52395242 -3.0882978 2.8710625
-0.54234898 -3.2068379 2.4517417
-0.7119447 -4.2184567 2.5995839
-0.74334365 -4.4185438 2.1587536
-0.8037824 -4.7879539 1.7788669
-0.86652291 -5.1726851 1.3556837
-0.83772862 -5.0061326 0.80014497
-0.82609355 -4.947165 0.29600245
-0.060309652 -0.088578783 10.863859
-0.06296359 -0.32333642 2.0946693
-0.084444948 -0.44771728 2.2139034
-0.11700064 -0.6430493 2.1366789
-0.16050334 -0.89919859 2.2114313
-0.1876962 -1.0640733 2.0474102
-0.22615308 -1.2923567 1.9995594
-0.30408075 -1.7481569 2.2010598
-0.034995615 -0.12652409 2.1109002
-0.063413829 -0.26027834 2.4557343
-0.10193194 -0.54706627 2.1800618
-0.14021133 -0.77174526 2.1872437
-0.19198141 -1.0731006 2.3178697
-0.2188642 -1.2342882 2.1205888
-0.28369951 -1.6110731 2.2409031
-0.30151033 -1.7208862 1.972279
-0.32795891 -1.9089732 1.9832205
-0.52092928 -3.0414748 2.5705123
-0.6351614 -3.7200015 2.5588479
-0.7242071 -4.2503843 2.3435059
-0.75002843 -4.4111757 1.8961276
-0.88838023 -5.2358546 1.6509463
-0.85120356 -5.0273595 1.0595318
-0.83873254 -4.9641857 0.54492569
-0.54046649 -3.119561 2.9009919
-0.55697948 -3.2248397 2.4664571
-0.74131072 -4.300909 2.6502476
-0.81091368 -4.7292681 1.7591448
-0.87309641 -5.1025548 1.3392712
-0.85519814 -5.0031776 0.80014497
-0.82487643 -4.8359056 0.29156876
-0.060618483 -0.088367723 10.863859
-0.064091861 -0.32311466 2.0946693
-0.08600726 -0.44741976 2.2139034
-0.11979018 -0.64557213 2.1462228
-0.16504245 -0.90632075 2.2298412
-0.19268298 -1.070483 2.0605774
-0.23066288 -1.2915595 1.9995594
-0.32251078 -1.8165138 2.285485
-0.035111014 -0.12529339 2.0909336
-0.063150801 -0.25540304 2.4109907
-0.10360584 -0.54547232 2.1752224
-0.13409066 -0.7237429 2.0558462
-0.19689937 -1.0788484 2.3313732
-0.2292102 -1.2668788 2.1760459
-0.28665602 -1.5952443 2.220953
-0.30930609 -1.729835 1.9833045
-0.33030701 -1.8832285 1.9586885
-0.53154284 -3.039638 2.5705123
-0.59930581 -3.4376495 2.3724282
-0.72916806 -4.1910949 2.3133614
-0.75828415 -4.3674221 1.8792703
-0.90665132 -5.2327218 1.6509463
-0.86121458 -4.9807944 1.0511383
-0.83827329 -4.858171 0.535537
-0.55070221 -3.1139786 2.8976665
-0.56963664 -3.2308376 2.4723437
-0.71149427 -4.0435605 2.4982567
-0.7067309 -4.0288048 1.9783211
-0.81845951 -4.6752424 1.7410661
-0.86915278 -4.9749851 1.3087909
-0.84456098 -4.8391771 0.77735257
-0.81517774 -4.6804194 0.2853213
-0.060953677 -0.088189773 10.868859
-0.065064579 -0.32212755 2.0897303
-0.087175764 -0.44511864 2.204113
-0.12204292 -0.64515007 2.1462228
-0.17213246 -0.92686749 2.2804689
-0.19944771 -1.0862926 2.091301
-0.23567444 -1.2935147 2.0036924
-0.33399266 -1.8437618 2.3200223
-0.035465684 -0.1248934 2.0859418
-0.062854528 -0.25053281 2.3662472
-0.10526987 -0.54387343 2.170383
-0.13405061 -0.70970553 2.0183041
-0.20385273 -1.0952756 2.367383
-0.28524086 -1.545622 2.6410327
-0.2933096 -1.6001616 2.2289329
-0.32203591 -1.7654309 2.0237315
-0.33436483 -1.8680222 1.9446703
-0.54351777 -3.0454276 2.5767891
-0.64353466 -3.6166742 2.493053
-0.71281093 -4.0140619 2.2206097
-0.76705265 -4.3282304 1.8642861
-0.89316344 -5.0500226 1.5973649
-0.85981083 -4.8713326 1.0306207
-0.83708423 -4.7522216 0.52614838
-0.55891615 -3.0973396 2.8843644
-0.60095268 -3.3402166 2.5547521
-0.70808101 -3.943465 2.4399939
-0.71919012 -4.0173779 1.974125
-0.82563823 -4.6212234 1.7229875
-0.86774248 -4.8666477 1.2829999
-0.83452654 -4.6850653 0.75594151
-0.82538968 -4.6431141 0.2839106
-0.061261147 -0.087976471 10.868859
-0.066346049 -0.32265934 2.0946693
-0.088129401 -0.44181642 2.1894271
-0.12401114 -0.64325452 2.1414511
-0.17900412 -0.94545597 2.3264942
-0.20588423 -1.0997143 2.1176355
-0.23967397 -1.2899177 1.9995594
-0.33984414 -1.839433 2.316185
-0.035734542 -0.1242161 2.0759585
-0.062391303 -0.24515182 2.3165321
-0.1071677 -0.54350269 2.170383
-0.13881342 -0.72109479 2.0511537
-0.20808078 -1.0966961 2.3718843
-0.28822219 -1.5318018 2.6197031
-0.29833966 -1.596166 2.2249429
-0.33563805 -1.8042915 2.0678334
-0.34024268 -1.8633356 1.9411659
-0.55763143 -3.0626585 2.5924816
-0.65839607 -3.6267483 2.5012772
-0.70786363 -3.9069369 2.1649582
-0.77390695 -4.2799067 1.8455557
-0.91078585 -5.0468745 1.5973649
-0.85939527 -4.7716131 1.0119683
-0.83516604 -4.6463408 0.51675969
-0.63668734 -3.4692934 2.6518764
-0.69776422 -3.8095217 2.361465
-0.72179347 -3.9523375 1.9447522
-0.83329654 -4.5718565 1.7065524
-0.85427761 -4.6962142 1.2419689
-0.84113544 -4.6285281 0.748344
-0.81662822 -4.5025635 0.27826774
-0.061567873 -0.087762095 10.868859
-0.068432473 -0.3269878 2.1243052
-0.088857703 -0.43751529 2.1698463
-0.12596761 -0.64135307 2.1366789
-0.18489631 -0.95825291 2.358712
-0.23667294 -1.2401384 2.3809803
-0.24889041 -1.3139565 2.0367558
-0.33854792 -1.7972877 2.2662973
-0.036083512 -0.12381452 2.0709667
-0.062162362 -0.24080825 2.2767601
-0.10856818 -0.54066074 2.1607041
-0.14398986 -0.73415238 2.0886958
-0.20818605 -1.0767274 2.3313732
-0.2847226 -1.4846824 2.5429161
-0.30560184 -1.6039948 2.236913
-0.34256595 -1.8064399 2.0715086
-0.34413308 -1.8481128 1.9271477
-0.57116133 -3.0760009 2.6050353
-0.66800666 -3.6079819 2.4903114
-0.71425223 -3.8652384 2.1440892
-0.78127432 -4.2361484 1.8286985
-0.88497555 -4.8077741 1.5268633
-0.85918152 -4.6767869 0.99424845
-0.83072293 -4.530736 0.50647688
-1.1404827 -6.0768251 5.5879965
-0.64879358 -3.4670498 2.6518764
-0.65090376 -3.4850116 2.1689434
-0.73059952 -3.9230235 1.9321641
-0.83889455 -4.5132084 1.6868303
-0.85913932 -4.6310754 1.2267287
-0.84104306 -4.5379195 0.73591179
-0.82143545 -4.4407344 0.27584937
-0.061873842 -0.087546647 10.868859
-0.070224412 -0.32978597 2.144062
-0.089557067 -0.43321455 2.1502655
-0.12761907 -0.63798219 2.127135
-0.18899435 -0.9614355 2.3679171
-0.24100038 -1.2393047 2.3809803
-0.25560972 -1.3241316 2.0532877
-0.33273062 -1.7331405 2.1895473
-0.036430117 -0.12341204 2.065975
-0.061354537 -0.23440906 2.2171021
-0.11095941 -0.54274124 2.170383
-0.14655165 -0.73364532 2.0886958
-0.27789581 -1.4222497 2.4405339
-0.31349671 -1.6147503 2.2528732
-0.3488695 -1.8052331 2.0715086
-0.35257766 -1.8574111 1.9376613
-0.5862391 -3.0969346 2.6238658
-0.67982107 -3.6015191 2.4875698
-0.71953821 -3.8191893 2.1209011
-0.78834563 -4.1923909 1.8118411
-0.89998257 -4.7952261 1.5240432
-0.84565425 -4.5144267 0.96347195
-0.81999165 -4.385849 0.49351156
-1.151866 -6.0214648 5.5414391
-0.63665521 -3.3377113 2.5576954
-0.65822709 -3.4573102 2.1537445
-0.74005628 -3.898155 1.9216738
-0.84673089 -4.4684963 1.6720387
-0.86536336 -4.5755129 1.2138332
-0.84124786 -4.4522347 0.72417021
-0.82026595 -4.3494711 0.2722218
-0.062179059 -0.087330133 10.868859
-0.0725329 -0.33485317 2.1786368
-0.0904378 -0.42991054 2.1355798
-0.12924853 -0.63460767 2.1175911
-0.19234924 -0.96076989 2.3679171
-0.2434625 -1.2290587 2.3634241
-0.26511911 -1.3480812 2.0904841
-0.32708517 -1.6722021 2.1166348
-0.036774356 -0.12300863 2.0609834
-0.061059341 -0.23007685 2.1773303
-0.11131357 -0.5349676 2.1413465
-0.15152203 -0.74496603 2.1215448
-0.1908492 -0.9514544 2.070303
-0.27012753 -1.3573253 2.3338854
-0.32497895 -1.6432058 2.2927732
-0.35582381 -1.8073305 2.0751836
-0.36718813 -1.8981851 1.9797159
-0.59778321 -3.0986912 2.6270044
-0.69159865 -3.5950184 2.4848285
-0.71699309 -3.7339981 2.076844
-0.79512101 -4.1486359 1.7949839
-0.86140746 -4.5114474 0.96347195
-0.82877004 -4.3487163 0.49038202
-1.1678772 -5.9917536 5.5181608
-0.6490733 -3.3394361 2.5606387
-0.68424946 -3.5269334 2.1968086
-0.74848616 -3.8688121 1.9090853
-0.86232364 -4.4655132 1.6720387
-0.85373098 -4.4292812 1.1786637
-0.84180129 -4.3714676 0.71311933
-0.82035547 -4.2680831 0.26899731
-0.062455822 -0.087078847 10.863859
-0.073701315 -0.33459798 2.1786368
-0.091296569 -0.42660567 2.120894
-0.13115948 -0.63269114 2.1128192
-0.19492079 -0.9562642 2.358712
-0.24775121 -1.2282013 2.3634241
-0.26982319 -1.3471476 2.0904841
-0.32477695 -1.6301855 2.0667472
-0.037203509 -0.12287952 2.0609834
-0.062003009 -0.23037639 2.1823015
-0.11213663 -0.52965742 2.1219888
-0.15867464 -0.76639944 2.1825509
-0.19286162 -0.94438392 2.0567994
-0.27071846 -1.3359258 2.299758
-0.33487836 -1.6627389 2.3207035
-0.36146381 -1.8027534 2.0715086
-0.38277701 -1.9423778 2.025275
-0.60709471 -3.0889475 2.6207275
-0.70816487 -3.6130989 2.4985356
-0.7155633 -3.6575673 2.0374243
-0.80160069 -4.1048856 1.7781265
-0.8737812 -4.4827771 1.432391
-0.85744905 -4.4071541 0.94388694
-0.83160305 -4.2822447 0.48457
-1.1858767 -5.9729919 5.504859
-0.65209013 -3.2935348 2.5282636
-0.69655657 -3.5245235 2.1968086
-0.75672048 -3.8394589 1.8964971
-0.8788175 -4.4671092 1.6736822
-0.85794747 -4.3690395 1.1645958
-0.84275466 -4.2956109 0.70275909
-0.81700665 -4.17204 0.26516822
-0.062759399 -0.086860307 10.863859
-0.074015394 -0.33054858 2.1539407
-0.09213338 -0.42330012 2.1062086
-0.13275005 -0.62930852 2.1032753
-0.20302372 -0.9785322 2.4139423
-0.25348291 -1.234367 2.3765912
-0.27452397 -1.3461975 2.0904841
-0.32982802 -1.6259009 2.0629098
-0.037632212 -0.12274891 2.0609834
-0.06237863 -0.22861779 2.1673872
-0.1123936 -0.52189076 2.0929523
-0.17452592 -0.82831627 2.3561833
-0.19571362 -0.94157362 2.0522981
-0.27854261 -1.3502979 2.3253536
-0.33946961 -1.6556562 2.3127234
-0.3677544 -1.8014808 2.0715086
-0.39095855 -1.9480228 2.032284
-0.61787343 -3.0868096 2.6207275
-0.70440024 -3.5285945 2.4437065
-0.71707183 -3.5985701 2.0072799
-0.80868918 -4.0656881 1.7631422
-0.87914729 -4.4279423 1.4168808
-0.84895349 -4.2836714 0.92057145
-0.83398217 -4.2158065 0.47875795
-1.2104187 -5.9871149 5.5214863
-0.65799022 -3.2635026 2.5076616
-0.69949871 -3.4755838 2.1689434
-0.76386565 -3.8056457 1.8818107
-0.88512826 -4.4177136 1.6572472
-0.84840852 -4.2420964 1.1341156
-0.84221858 -4.2149458 0.69170821
-0.81202024 -4.0711741 0.2611376
-0.063062221 -0.086640708 10.863859
-0.074128769 -0.32574368 2.1243052
-0.093168944 -0.42098793 2.0964179
-0.13463227 -0.62738186 2.0985031
-0.20643818 -0.97781754 2.4139423
-0.25533924 -1.2217532 2.3546457
-0.27979347 -1.3479862 2.0946171
-0.3309631 -1.6027666 2.0360472
-0.038060457 -0.1226168 2.0609834
-0.063031763 -0.22788554 2.1624155
-0.11340619 -0.51781201 2.078434
-0.17814025 -0.83107656 2.3655689
-0.19854838 -0.9387548 2.0477967
-0.28111032 -1.3391081 2.30829
-0.32677633 -1.5659705 2.1930227
-0.37335065 -1.7968668 2.0678334
-0.39632791 -1.9396582 2.025275
-0.61309797 -3.0083559 2.5579584
-0.71504724 -3.5179193 2.4382236
-0.72170079 -3.5569732 1.9864107
-0.81459349 -4.0219469 1.746285
-0.87653631 -4.3355103 1.3900901
-0.85807037 -4.251791 0.91497576
-0.83099049 -4.1249962 0.47071058
-1.2441062 -6.0450239 5.5780196
-0.66450137 -3.2374291 2.4900024
-0.71249181 -3.477344 2.1714766
-0.77169293 -3.7762764 1.8692224
-0.8911047 -4.3683276 1.640812
-0.854482 -4.1962428 1.1235647
-0.84409165 -4.1488957 0.68272936
-0.8192662 -4.0340428 0.25972688
-0.063336216 -0.086386628 10.858859
-0.075969279 -0.32851017 2.144062
-0.09418951 -0.41867369 2.0866272
-0.13650268 -0.6254499 2.0937314
-0.22175531 -1.032482 2.5474155
-0.25561553 -1.2021139 2.3195331
-0.28566054 -1.3525078 2.1028829
-0.33128142 -1.5765079 2.0053473
-0.038488235 -0.1224832 2.0609834
-0.063534237 -0.22663896 2.1524725
-0.11302283 -0.5075987 2.0397186
-0.17772895 -0.81527573 2.323334
-0.20136586 -0.93592793 2.0432956
-0.28523803 -1.3355681 2.3040237
-0.31596524 -1.4881849 2.0892823
-0.37962064 -1.7955526 2.0678334
-0.40309617 -1.9382631 2.025275
-0.60699183 -2.9261627 2.4920509
-0.71885043 -3.4744544 2.4108088
-0.72067201 -3.4893587 1.9516288
-0.82113868 -3.9827559 1.7313007
-0.88489544 -4.2995343 1.3802199
-0.85906649 -4.1814051 0.90191907
-0.83037668 -4.0488935 0.46400437
-1.2651997 -6.0406442 5.5780196
-0.67331839 -3.2232203 2.481173
-0.72374558 -3.4706156 2.1689434
-0.77747607 -3.7380126 1.852438
-0.90634763 -4.3651905 1.640812
-0.85531336 -4.1266017 1.1071522
-0.84250146 -4.0683374 0.67167854
-0.82120579 -3.9724486 0.25730851
-0.063637376 -0.086165018 10.858859
-0.077651374 -0.33051157 2.1588798
-0.095422722 -0.41734993 2.0817323
-0.13868508 -0.6249696 2.0937314
-0.22494078 -1.029793 2.5428128
-0.25525138 -1.1801471 2.2800314
-0.2927452 -1.3625073 2.119415
-0.33343127 -1.55967 1.9861596
-0.038915548 -0.1223481 2.0609834
-0.06417688 -0.22590375 2.1475012
-0.11451594 -0.50597519 2.0348792
-0.17160256 -0.77421749 2.2107074
-0.20463163 -0.93521935 2.0432956
-0.28879067 -1.3294672 2.2954919
-0.31352291 -1.4517292 2.0414019
-0.38517302 -1.7909021 2.0641582
-0.41133636 -1.943822 2.032284
-0.61720234 -2.924026 2.4920509
-0.722359 -3.4310069 2.383394
-0.73193657 -3.4824867 1.9493099
-0.82742018 -3.9435682 1.7163165
-0.88022947 -4.2025161 1.3520193
-0.85958171 -4.1110649 0.88886231
-0.82110167 -3.9338474 0.45372155
-1.2769392 -5.9923697 5.5381136
-0.65515214 -3.0824716 2.3781624
-0.71527565 -3.3710794 2.1106803
-0.78394121 -3.7041943 1.8377515
-0.89815187 -4.2511163 1.6013678
-0.85667235 -4.0617638 1.0919122
-0.84138042 -3.992687 0.66131836
-0.82272547 -3.9108908 0.25489014
-0.063937761 -0.085942358 10.858859
-0.079529621 -0.33326074 2.1786368
-0.096416719 -0.41503108 2.0719419
-0.14053684 -0.62302566 2.0889592
-0.21539481 -0.96988076 2.4001346
-0.25833994 -1.1745708 2.2712533
-0.29629761 -1.355979 2.1111491
-0.33478644 -1.5397044 1.9631346
-0.039434467 -0.12248513 2.065975
-0.064815156 -0.22516678 2.1425295
-0.11882239 -0.51659608 2.078434
-0.16443245 -0.72984576 2.0886958
-0.20742187 -0.93237436 2.0387943
-0.29286695 -1.3259045 2.2912261
-0.31729537 -1.4447397 2.0334218
-0.39142209 -1.7895467 2.0641582
-0.41811907 -1.9423743 2.032284
-0.62822258 -2.9256594 2.4951892
-0.7282005 -3.3998437 2.3642039
-0.73760414 -3.4495873 1.9330783
-0.83247036 -3.8998518 1.6994591
-0.87989616 -4.1290412 1.3308687
-0.8585946 -4.0359688 0.87487304
-0.83069021 -3.9114723 0.45193323
-1.2970576 -5.9842267 5.5347877
-0.64113688 -2.965595 2.2928109
-0.71703398 -3.3222106 2.0828154
-0.78922462 -3.6659405 1.8209671
-0.90008599 -4.1879373 1.5800022
-0.85656935 -3.992214 1.0754998
-0.83974171 -3.9170949 0.65095812
-0.8238256 -3.8493714 0.25247177
-0.064237364 -0.085718654 10.858859
-0.081428006 -0.3360008 2.1983938
-0.097864859 -0.41469198 2.0719419
-0.14304477 -0.62398618 2.0937314
-0.21447401 -0.95006663 2.3541093
-0.26139262 -1.1689873 2.2624753
-0.29858702 -1.3439482 2.0946171
-0.34361953 -1.5541747 1.9823222
-0.03986178 -0.12234673 2.065975
-0.065449081 -0.22442816 2.1375582
-0.12836319 -0.54922235 2.2090983
-0.16582245 -0.72422117 2.0746174
-0.21067519 -0.93164468 2.0387943
-0.29635024 -1.3197848 2.2826943
-0.32627741 -1.4612682 2.0573621
-0.39840245 -1.7914788 2.0678334
-0.41421804 -1.892131 1.9832205
-0.63510913 -2.9082379 2.4826355
-0.72493279 -3.327826 2.3175991
-0.7458753 -3.4296772 1.9238031
-0.84017658 -3.8697405 1.688221
-0.87702864 -4.0462461 1.3068981
-0.85917151 -3.9705324 0.86274898
-0.8285656 -3.8355334 0.44522706
-0.66936755 -3.0371387 2.8511097
-0.63672948 -2.8962278 2.2427771
-0.71568733 -3.2607396 2.0473509
-0.79522139 -3.632129 1.8062809
-0.90562367 -4.1432509 1.5652106
-0.85599148 -3.9227152 1.0590873
-0.83653075 -3.8367255 0.63990724
-0.8245064 -3.7878928 0.25005341
-0.064564697 -0.085526921 10.863859
-0.081667744 -0.33194312 2.1736977
-0.09907376 -0.41335782 2.0670464
-0.14522202 -0.62348306 2.0937314
-0.21691474 -0.94550395 2.3449044
-0.26759565 -1.1774094 2.2800314
-0.30017602 -1.3291736 2.0739524
-0.3525576 -1.5686016 2.0015097
-0.040476587 -0.12275278 2.0759585
-0.066078626 -0.22368783 2.1325865
-0.13289741 -0.55977654 2.2526534
-0.16795804 -0.72195727 2.0699246
-0.21343812 -0.92878205 2.0342932
-0.29979441 -1.313657 2.2741623
-0.3420493 -1.5071362 2.1212022
-0.40465346 -1.7900772 2.0678334
-0.41617078 -1.8697872 1.9621931
-0.64356935 -2.8984039 2.4763584
-0.73021448 -3.2966981 2.2984087
-0.75210345 -3.4011009 1.9098903
-0.84568363 -3.8305686 1.6732366
-0.8725614 -3.9588366 1.2815176
-0.8593024 -3.9051418 0.85062492
-0.82912678 -3.77425 0.4398621
-0.67098451 -2.9947057 2.8145289
-0.64948052 -2.9058213 2.2516067
-0.71298152 -3.1951118 2.0093532
-0.80099183 -3.5983205 1.7915945
-0.8975423 -4.038651 1.5290533
-0.85599196 -3.8580153 1.0438471
-0.83491284 -3.7660966 0.6302377
-0.82476825 -3.7264571 0.24763502
-0.064862855 -0.085301027 10.863859
-0.08225847 -0.32939517 2.1588798
-0.10051604 -0.41300946 2.0670464
-0.14739749 -0.62297237 2.0937314
-0.21977007 -0.94283849 2.340302
-0.27332139 -1.1834686 2.2931986
-0.30481386 -1.3281177 2.0739524
-0.37659317 -1.648604 2.1012847
-0.041094709 -0.12315601 2.0859418
-0.066859052 -0.2234558 2.1325865
-0.13278462 -0.55075645 2.2187772
-0.17047711 -0.72136658 2.0699246
-0.21667887 -0.92803138 2.0342932
-0.30378878 -1.3100621 2.2698965
-0.36017719 -1.5617198 2.1970129
-0.4078629 -1.7754376 2.0531328
-0.42663038 -1.8857149 1.9797159
-0.65111172 -2.8847494 2.4669433
-0.72702062 -3.2288601 2.2545452
-0.75814122 -3.3725233 1.8959775
-0.86006498 -3.8321166 1.6751097
-0.87064147 -3.8855519 1.260367
-0.85898727 -3.8397996 0.83850092
-0.83035576 -3.7178702 0.43494424
-0.66070598 -2.9013319 2.7313917
-0.66051525 -2.9074781 2.2545497
-0.71554792 -3.1547675 1.9865546
-0.8065359 -3.5645161 1.776908
-0.89498538 -3.9617958 1.5027573
-0.85769016 -3.8028476 1.0309516
-0.83934432 -3.7245121 0.62471229
-0.82461131 -3.665066 0.24521665
-0.065160215 -0.085074089 10.863859
-0.082832411 -0.32684714 2.144062
-0.10171217 -0.41166779 2.0621514
-0.14992039 -0.62390524 2.0985031
-0.22351027 -0.94396657 2.3449044
-0.27799812 -1.1848389 2.2975879
-0.31392267 -1.3462288 2.1028829
-0.38669461 -1.6660126 2.1243098
-0.041716136 -0.12355641 2.0959251
-0.067324638 -0.22220226 2.1226435
-0.13380811 -0.54662728 2.2042592
-0.17259094 -0.71908915 2.0652318
-0.21991698 -0.92726934 2.0342932
-0.30716348 -1.3039166 2.2613645
-0.37869021 -1.6161945 2.2728233
-0.40943372 -1.7541947 2.0310817
-1.3754662 -5.9818854 6.1115761
-0.65334481 -2.848315 2.4386971
-0.70657206 -3.0877168 2.1613355
-0.76497543 -3.3482637 1.8843836
-0.87137431 -3.8200517 1.6713637
-0.87461221 -3.8403933 1.2476767
-0.8571375 -3.7697179 0.82544416
-0.83120149 -3.6615286 0.43002635
-0.66577858 -2.877182 2.7114387
-0.67247874 -2.9130316 2.2604361
-0.71880972 -3.1186452 1.9662892
-0.81287098 -3.5351405 1.7643198
-0.89084637 -3.8804064 1.4748176
-0.85901374 -3.7477148 1.0180562
-0.84017915 -3.6684613 0.61711478
-0.82514971 -3.608593 0.24299981
-0.065427929 -0.084813401 10.858859
-0.08338958 -0.32429913 2.1292443
-0.10314853 -0.41131029 2.0621514
-0.15209731 -0.6233781 2.0985031
-0.22634691 -0.9412812 2.340302
-0.27991053 -1.1745425 2.2800314
-0.32575676 -1.3752451 2.1483455
-0.39397919 -1.6708921 2.1319847
-0.04234086 -0.12395396 2.1059084
-0.068576209 -0.22349247 2.1375582
-0.1345007 -0.54127783 2.1849012
-0.17469101 -0.71680588 2.0605392
-0.22315241 -0.92649603 2.0342932
-0.3117131 -1.3028365 2.2613645
-0.39409873 -1.6559017 2.3286836
-0.40382138 -1.7032745 1.9759542
-1.3866025 -5.9353747 6.069521
-0.65798223 -2.8232729 2.4198663
-0.69651151 -2.9956303 2.1010232
-0.77064782 -3.3196828 1.8704708
-0.88784385 -3.8305352 1.6769828
-0.87395233 -3.7765613 1.2293464
-0.8570208 -3.709269 0.81425273
-0.83166403 -3.605227 0.42510849
-0.66641814 -2.8348591 2.6748581
-0.68818098 -2.9342778 2.278095
-0.72477686 -3.0951309 1.9536233
-0.81901079 -3.5057645 1.7517314
-0.8861503 -3.7990947 1.446878
-0.85996312 -3.6926203 1.0051607
-0.84175545 -3.6172745 0.61020797
-0.82417333 -3.5472946 0.24058144
-0.065723576 -0.084584497 10.858859
-0.084127009 -0.32250291 2.1193657
-0.10458364 -0.41094771 2.0621514
-0.15427238 -0.62284338 2.0985031
-0.22963123 -0.94048542 2.340302
-0.27780947 -1.1479532 2.2317514
-0.33582211 -1.395987 2.1814091
-0.3923431 -1.6383359 2.0936098
-0.042968858 -0.12434865 2.1158917
-0.069837593 -0.22477663 2.1524725
-0.13546556 -0.53714913 2.170383
-0.17719206 -0.71619171 2.0605392
-0.23104201 -0.9447425 2.0748043
-0.3131794 -1.2890692 2.2400348
-0.41191304 -1.704307 2.3965139
-0.40341473 -1.675487 1.946553
-1.4089594 -5.9374385 6.0765305
-0.65976256 -2.7868705 2.3916202
-0.69639051 -2.9484172 2.0708671
-0.77714688 -3.2954147 1.8588767
-0.89589667 -3.8048499 1.6676176
-0.87395525 -3.7174504 1.2124259
-0.8531251 -3.634521 0.80026346
-0.83060753 -3.5441189 0.41974354
-0.67284083 -2.8179889 2.661556
-0.68998879 -2.8964701 2.2516067
-0.73158628 -3.0758069 1.9434905
-0.82390767 -3.4719732 1.737045
-0.88525259 -3.736244 1.4255123
-0.86165732 -3.6422951 0.99343747
-0.84298474 -3.5661216 0.60330123
-0.82277936 -3.4860482 0.23816307
-0.066018432 -0.084354565 10.858859
-0.084453598 -0.31920364 2.0996087
-0.1057622 -0.40959445 2.057256
-0.15644556 -0.6223011 2.0985031
-0.23291272 -0.93967813 2.340302
-0.27666965 -1.1260445 2.1922498
-0.3426967 -1.4030073 2.1938081
-0.39578712 -1.6276131 2.0820973
-0.043600131 -0.12474046 2.125875
-0.071108788 -0.2260547 2.1673872
-0.1367154 -0.5342378 2.1607041
-0.17969096 -0.71556884 2.0605392
-0.2374872 -0.95660669 2.1018114
-0.31018016 -1.257583 2.1888437
-0.4128319 -1.6823739 2.3685837
-0.4044295 -1.6543099 1.924502
-1.4321829 -5.9428849 6.0870442
-0.66402674 -2.7618437 2.3727894
-0.70472735 -2.9378362 2.0653841
-0.78245413 -3.2668343 1.8449639
-0.88868499 -3.7160332 1.63203
-0.87132818 -3.6490548 1.1926856
-0.84985739 -3.5646241 0.78720677
-0.82567501 -3.468529 0.41303736
-0.68179345 -2.8119943 2.6582305
-0.70009518 -2.8940439 2.2516067
-0.73928189 -3.0606637 1.935891
-0.829642 -3.4426026 1.7244568
-0.88282239 -3.6688557 1.4025033
-0.86187547 -3.5872784 0.980542
-0.84271133 -3.5101898 0.59570372
-0.82213241 -3.4297132 0.23594624
-0.066283286 -0.084091187 10.853861
-0.08597187 -0.3204073 2.1094873
-0.1071913 -0.40922275 2.057256
-0.15861686 -0.62175119 2.0985031
-0.23619139 -0.93885934 2.340302
-0.27538034 -1.1041583 2.1527481
-0.34555966 -1.3936086 2.1814091
-0.39762437 -1.6106628 2.0629098
-0.044234663 -0.12512937 2.1358583
-0.072389744 -0.22732659 2.1823015
-0.13794656 -0.53132433 2.1510253
-0.1813346 -0.71159297 2.0511537
-0.24561451 -0.97476983 2.1423223
-0.30823216 -1.2311937 2.1461844
-0.40777504 -1.6370643 2.3087335
-0.41346848 -1.6660494 1.9392027
-1.4563093 -5.9517055 6.1010623
-0.66997069 -2.7443843 2.3602357
-0.70706105 -2.9028568 2.0434523
-0.78757137 -3.2382572 1.8310511
-0.89180464 -3.6723635 1.6151727
-0.86710393 -3.5760617 1.171535
-0.84148872 -3.4756985 0.7704196
-0.83075649 -3.4365823 0.41035488
-0.69249749 -2.8132229 2.661556
-0.70440811 -2.8680308 2.2339478
-0.7458539 -3.0413177 1.9257584
-0.83302397 -3.4044182 1.7076724
-0.87881184 -3.5969434 1.3778507
-0.8640241 -3.5417485 0.96999115
-0.8420577 -3.4543037 0.58810622
-0.81637639 -3.3540096 0.23292327
-0.066576414 -0.083859302 10.853861
-0.087909371 -0.32310325 2.1292443
-0.10835695 -0.40786225 2.052361
-0.16041172 -0.61974889 2.0937314
-0.2409178 -0.94370776 2.3541093
-0.27629334 -1.0915818 2.1308026
-0.35042217 -1.3923938 2.1814091
-0.40012726 -1.5968285 2.0475595
-0.04487244 -0.1255154 2.1458418
-0.074012183 -0.22960548 2.207159
-0.13947971 -0.52962416 2.1461859
-0.18468215 -0.71429694 2.0605392
-0.2490156 -0.97390652 2.1423223
-0.30481899 -1.1997783 2.0949931
-0.40166834 -1.58889 2.2448931
-0.42673522 -1.6941826 1.972279
-0.68141901 -2.7495847 2.3665125
-0.70915931 -2.867898 2.0215206
-0.79249877 -3.2096846 1.8171383
-0.88575238 -3.5927088 1.5833311
-0.86123425 -3.4984851 1.1489745
-0.85127091 -3.4631994 0.76855439
-0.83087689 -3.3852973 0.40588409
-0.70502883 -2.8216558 2.6715326
-0.7105037 -2.8498664 2.2221751
-0.75229979 -3.0219631 1.9156257
-0.83724362 -3.370657 1.692986
-0.88567811 -3.5709372 1.3696331
-0.86469704 -3.4915302 0.95826799
-0.84221417 -3.4032729 0.58119941
-0.82328522 -3.3317392 0.23211715
-0.066898152 -0.083658613 10.858859
-0.090074249 -0.32653832 2.1539407
-0.1095144 -0.40649855 2.0474656
-0.16257407 -0.61918515 2.0937314
-0.25695431 -0.99203157 2.4737751
-0.28010198 -1.0906107 2.1308026
-0.35597691 -1.3938886 2.1855421
-0.40253857 -1.5829967 2.0322096
-0.045411866 -0.12562822 2.1508334
-0.073975004 -0.22681569 2.1823015
-0.1413276 -0.52913404 2.1461859
-0.18936534 -0.72199339 2.0840027
-0.25022602 -0.96460283 2.1243174
-0.30574894 -1.1860799 2.0736635
-0.40721217 -1.5874783 2.2448931
-0.45279828 -1.7715116 2.060483
-0.63298821 -2.5110092 2.6245522
-0.70240718 -2.792486 2.4041741
-0.7110222 -2.8329599 1.999589
-0.79723632 -3.1811171 1.8032255
-0.89491159 -3.5761034 1.5777119
-0.8687892 -3.4768417 1.1433344
-0.85027319 -3.4077795 0.75829554
-0.83305734 -3.3437183 0.40230745
-0.70844918 -2.7938428 2.6482542
-0.70755732 -2.7964284 2.1839139
-0.75756377 -2.9984214 1.9029597
-0.84012842 -3.3325076 1.6762016
-0.88660979 -3.5220311 1.3531979
-0.86503011 -3.4413509 0.94654483
-0.84323114 -3.3570864 0.57498336
-0.82397157 -3.2852325 0.23030338
-0.067189775 -0.083424583 10.858859
-0.091213532 -0.32622191 2.1539407
-0.11066366 -0.40513176 2.0425704
-0.16434985 -0.61717153 2.0889592
-0.27382767 -1.0421436 2.5980432
-0.28330311 -1.0873088 2.1264138
-0.36225232 -1.3980857 2.1938081
-0.40565914 -1.5722713 2.0206971
-0.045952633 -0.12573883 2.1558251
-0.07408867 -0.22453439 2.1624155
-0.14284462 -0.5274244 2.1413465
-0.20165282 -0.75801456 2.1872437
-0.25303736 -0.96161842 2.1198163
-0.30790716 -1.177436 2.0608656
-0.41275099 -1.5860472 2.2448931
-0.46663934 -1.7994546 2.0935595
-0.63821393 -2.4949644 2.6105342
-0.71600133 -2.8051026 2.4167278
-0.70748943 -2.7777841 1.9639498
-0.80287606 -3.1568491 1.7916315
-0.89711869 -3.5325184 1.5608548
-0.86912847 -3.427289 1.1292341
-0.85251665 -3.3666952 0.75083458
-0.83251619 -3.2925098 0.39783669
-0.70796233 -2.7515771 2.6116736
-0.70927274 -2.7626214 2.1603687
-0.76374322 -2.9790559 1.892827
-0.8495062 -3.3207607 1.6720055
-0.88837963 -3.4777372 1.3384063
-0.86622483 -3.3959219 0.93599391
-0.84271288 -3.3061364 0.56807649
-0.82557583 -3.2436039 0.22869113
-0.067480564 -0.083189532 10.858859
-0.091500759 -0.32291231 2.1341836
-0.11207716 -0.40474299 2.0425704
-0.16611359 -0.61515313 2.0841873
-0.27696043 -1.0392936 2.5934405
-0.2864846 -1.0839977 2.1220245
-0.36927682 -1.4049772 2.2062068
-0.40789798 -1.5584428 2.0053473
-0.046391264 -0.12557766 2.1558251
-0.074187316 -0.22225511 2.1425295
-0.14468482 -0.52692258 2.1413465
-0.22858872 -0.84727061 2.4406531
-0.25526929 -0.95652276 2.1108139
-0.30933985 -1.1662707 2.0438018
-0.41828486 -1.5845968 2.2448931
-0.48240596 -1.833879 2.1339862
-0.64602315 -2.4892697 2.6070297
-0.73164392 -2.8251941 2.4355586
-0.7161352 -2.7712493 1.9612085
-0.80835623 -3.132581 1.7800375
-0.90018946 -3.4934514 1.5458705
-0.87152332 -3.3870687 1.1179538
-0.85081637 -3.3113637 0.74057573
-0.83286548 -3.24617 0.39381295
-0.71096134 -2.7238002 2.5883951
-0.70464766 -2.705368 2.1191642
-0.76871163 -2.9555118 1.880161
-0.85539162 -3.2958102 1.6615151
-0.88866645 -3.4289038 1.3219713
-0.86589527 -3.3458219 0.92427075
-0.84184921 -3.2552311 0.56116968
-0.82565027 -3.1971672 0.22687735
-0.067770548 -0.082953475 10.858859
-0.092196696 -0.32109779 2.1243052
-0.11321343 -0.40336922 2.0376751
-0.1678652 -0.61312991 2.0794153
-0.28313619 -1.0477504 2.6164534
-0.28964645 -1.0806779 2.1176355
-0.37562892 -1.4091178 2.2144728
-0.41251293 -1.5539116 2.0015097
-0.04672493 -0.12514579 2.1508334
-0.074098021 -0.21947365 2.117672
-0.14652324 -0.52641433 2.1413465
-0.23792392 -0.86976951 2.5063519
-0.25803769 -0.95352453 2.1063125
-0.31408668 -1.1677023 2.0480678
-0.424593 -1.5860379 2.2488832
-0.50453663 -1.8911442 2.2001393
-0.65561634 -2.4904482 2.6105342
-0.72963291 -2.7774482 2.397897
-0.7183817 -2.7404191 1.9420182
-0.81479859 -3.1125987 1.7707623
-0.90065348 -3.4454355 1.5271401
-0.87243646 -3.342232 1.1052636
-0.84997946 -3.2608397 0.73124957
-0.8316471 -3.1950495 0.38934216
-0.71473092 -2.6996458 2.5684421
-0.70272923 -2.659905 2.0867896
-0.77462465 -2.9361377 1.8700284
-0.87035751 -3.3059714 1.6678094
-0.88862336 -3.3801112 1.3055362
-0.86522669 -3.2957656 0.91254759
-0.84064078 -3.2043731 0.55426294
-0.82667691 -3.1556027 0.2252651
-0.06805969 -0.082716413 10.858859
-0.092881061 -0.31928235 2.1144264
-0.11434147 -0.40199238 2.0327799
-0.1700044 -0.61254025 2.0794153
-0.28782481 -1.0505239 2.6256583
-0.29341695 -1.0796602 2.1176355
-0.38201433 -1.4132309 2.2227387
-0.41876796 -1.5555571 2.0053473
-0.04705615 -0.12471315 2.1458418
-0.074688986 -0.21871005 2.1127005
-0.14801803 -0.52469003 2.136507
-0.2423429 -0.87392229 2.5204303
-0.26136455 -0.952618 2.1063125
-0.31884724 -1.1691149 2.0523336
-0.43091619 -1.587454 2.2528732
-0.51821834 -1.9155513 2.2295406
-0.70938593 -2.6569757 2.7822568
-0.72128487 -2.707185 2.3414049
-0.72579426 -2.7298129 1.9365352
-0.8199746 -3.0883284 1.7591683
-0.90079343 -3.39746 1.5084097
-0.87427521 -3.3020682 1.0939832
-0.84377772 -3.191366 0.71819288
-0.83135343 -3.1487923 0.38531846
-0.7173723 -2.6718922 2.5451636
-0.7005021 -2.6144884 2.054415
-0.78041196 -2.9167585 1.8598957
-0.88540465 -3.3160677 1.6741035
-0.88825071 -3.3313613 1.2891011
-0.86546999 -3.2504525 0.90199673
-0.83908761 -3.1535635 0.54735613
-0.82614052 -3.1092422 0.22345132
-0.068348013 -0.082478337 10.858859
-0.093553901 -0.31746611 2.104548
-0.11546127 -0.40061262 2.0278847
-0.17214152 -0.61194307 2.0794153
-0.29358238 -1.0570421 2.6440685
-0.29654744 -1.0763205 2.1132464
-0.38843304 -1.4173167 2.2310045
-0.42503941 -1.5571779 2.0091846
-0.047384918 -0.12427971 2.1408501
-0.075628415 -0.218951 2.117672
-0.14742634 -0.51571143 2.1026311
-0.24585924 -0.87473214 2.5251229
-0.26468819 -0.95169991 2.1063125
-0.32292625 -1.1679949 2.0523336
-0.43885389 -1.5946558 2.2648432
-0.53207654 -1.9398856 2.2589419
-0.72145236 -2.6648104 2.7927706
-0.69519562 -2.5731359 2.231559
-0.73205292 -2.7151513 1.9283109
-0.82499117 -3.0640597 1.7475743
-0.89940584 -3.3450491 1.4878064
-0.87584424 -3.2619326 1.082703
-0.84855145 -3.1646779 0.71352977
-0.82945901 -3.0977659 0.38084766
-0.72767538 -2.6729741 2.5484891
-0.69478738 -2.5574191 2.0132108
-0.78607339 -2.8973751 1.8497629
-0.89104396 -3.2910531 1.6636133
-0.886316 -3.2780969 1.2710226
-0.86540759 -3.2051785 0.89144588
-0.83203 -3.0836804 0.53768659
-0.8252908 -3.0629244 0.22163753
-0.068635501 -0.082239255 10.858859
-0.094438352 -0.31639338 2.0996087
-0.11685897 -0.40020713 2.0278847
-0.17427656 -0.61133844 2.0794153
-0.29727036 -1.056011 2.6440685
-0.30030271 -1.0752789 2.1132464
-0.39488485 -1.4213747 2.2392704
-0.43645704 -1.5773087 2.0360472
-0.047604024 -0.12357746 2.1308668
-0.076392233 -0.21868567 2.117672
-0.14677377 -0.50674337 2.0687551
-0.24938419 -0.87552822 2.5298157
-0.26682684 -0.94657975 2.0973101
-0.3326332 -1.1869502 2.0864613
-0.44603726 -1.598919 2.2728233
-0.54520261 -1.9608802 2.2846682
-0.75718302 -2.7585688 2.890898
-0.68874753 -2.5143836 2.1844821
-0.73821807 -2.700479 1.9200864
-0.82984835 -3.0397944 1.7359804
-0.89766347 -3.2926898 1.4672031
-0.87714392 -3.2218268 1.0714227
-0.85186046 -3.1332555 0.70793408
-0.83113313 -3.0612099 0.37771809
-0.72110677 -2.6128306 2.495281
-0.69512314 -2.5238032 1.9896654
-0.79046583 -2.8738315 1.837097
-0.9001236 -3.2791693 1.6594172
-0.88526887 -3.2294416 1.2545874
-0.86503983 -3.159945 0.88089502
-0.83886886 -3.0664275 0.53561455
-0.82544446 -3.0214703 0.22002529
-0.068891943 -0.081967682 10.853861
-0.09531644 -0.31531829 2.0946693
-0.11825524 -0.39979678 2.0278847
-0.17640947 -0.61072642 2.0794153
-0.3014909 -1.0568454 2.6486709
-0.3034018 -1.0719196 2.1088572
-0.39908108 -1.4172789 2.2351375
-0.45321462 -1.6158949 2.0859349
-0.04781881 -0.12287519 2.1208835
-0.077515036 -0.21942122 2.127615
-0.14535148 -0.49537438 2.0252004
-0.25243884 -0.87465239 2.5298157
-0.27132583 -0.94982886 2.1063125
-0.34960377 -1.2309394 2.1632481
-0.45735535 -1.617649 2.3007534
-0.55848157 -1.9818063 2.310394
-0.75629121 -2.718116 2.8523479
-0.68502235 -2.4669592 2.1468205
-0.74428982 -2.685797 1.911862
-0.83454627 -3.0155327 1.7243863
-0.89556658 -3.2403839 1.4465997
-0.87434536 -3.1678796 1.0559124
-0.8549605 -3.1018488 0.70233834
-0.83124071 -3.0198789 0.37414148
-0.72318107 -2.5851278 2.4720025
-0.70284164 -2.5174682 1.9867221
-0.79470348 -2.8502929 1.8244312
-0.9030478 -3.2454007 1.6447308
-0.88262868 -3.1762846 1.2365088
-0.86436695 -3.1147535 0.87034416
-0.83898056 -3.0253048 0.53008914
-0.82398552 -2.9752383 0.21821152
-0.069177642 -0.081726708 10.853861
-0.096188195 -0.31424099 2.0897303
-0.11965007 -0.39938155 2.0278847
-0.17854021 -0.61010689 2.0794153
-0.30517814 -1.0557865 2.6486709
-0.30714163 -1.0708539 2.1088572
-0.4024812 -1.4104654 2.2268715
-0.46849373 -1.6482167 2.1281471
-0.04813835 -0.12244023 2.1158917
-0.078643903 -0.22015157 2.1375582
-0.14672108 -0.49365929 2.0203609
-0.26082128 -0.89198434 2.5814362
-0.28130043 -0.97187728 2.1558261
-0.36977124 -1.2848488 2.2570984
-0.46714956 -1.6305262 2.3207035
-0.56818914 -1.9896241 2.3214197
-0.74157393 -2.6296506 2.7647343
-0.69046581 -2.4533131 2.1374052
-0.74913728 -2.6670799 1.9008961
-0.83908504 -2.9912755 1.7127924
-0.89436638 -3.1925976 1.4278694
-0.87376606 -3.1232312 1.0432221
-0.85652995 -3.0657279 0.69580996
-0.83240843 -2.9833817 0.37101194
-0.72507089 -2.5574424 2.448724
-0.70722276 -2.4994423 1.9749496
-0.79878652 -2.8267596 1.8117652
-0.91067499 -3.2291241 1.6384366
-0.8821888 -3.1322761 1.2217172
-0.86470538 -3.074285 0.86096561
-0.84149551 -2.9937541 0.52594507
-0.82491446 -2.9386737 0.21680079
-0.069462501 -0.081484735 10.853861
-0.09705358 -0.3131614 2.0847909
-0.12133978 -0.39993563 2.0327799
-0.1806688 -0.60947996 2.0794153
-0.95539695 -3.2614038 8.0658417
-0.31622642 -1.0881737 2.14397
-0.40349323 -1.3955355 2.2062068
-0.48666576 -1.6896914 2.1818724
-0.048455447 -0.12200455 2.1109002
-0.079595342 -0.22037619 2.1425295
-0.14771761 -0.49073723 2.0106821
-0.27815506 -0.9390496 2.7175262
-0.29081941 -0.99177855 2.2008381
-0.39762163 -1.3636688 2.3936086
-0.47787932 -1.646248 2.3446436
-0.57984281 -2.0039115 2.3397954
-0.7311486 -2.5584669 2.6946433
-0.70116055 -2.4583738 2.143682
-0.75386322 -2.6483622 1.8899302
-0.84467596 -2.9712844 1.7035172
-0.8928436 -3.1448596 1.409139
-0.86503446 -3.050935 1.0220716
-0.85651958 -3.0249083 0.68834901
-0.83333141 -2.9469132 0.36788237
-0.72059005 -2.5082443 2.4054925
-0.71260071 -2.4853022 1.96612
-0.80152828 -2.799089 1.7965661
-0.90697509 -3.1735599 1.6132599
-0.88015652 -3.0837693 1.2052821
-0.86477196 -3.0338526 0.85158712
-0.84108728 -2.9526978 0.5204196
-0.82559818 -2.9021394 0.21539007
-0.069746517 -0.081241764 10.853861
-0.097679086 -0.31133857 2.0749123
-0.12273508 -0.39950964 2.0327799
-0.18322489 -0.61027515 2.0841873
-0.96788716 -3.2617946 8.0750475
-0.33693811 -1.1444989 2.2536969
-0.40519726 -1.3833166 2.1896749
-0.49705082 -1.7033666 2.2010598
-0.048881024 -0.12183467 2.1109002
-0.081290103 -0.22259627 2.1673872
