# .PCD v0.7 - Point Cloud Data file format
VERSION 0.7
FIELDS x y z
SIZE 4 4 4
TYPE F F F
COUNT 1 1 1
WIDTH 1473
HEIGHT 1
VIEWPOINT 0 0 0 1 0 0 0
POINTS 1473
DATA ascii
-1.1164228 -3.4098356 3.2767737
-1.0555997 -3.2297609 2.5576954
-1.0065721 -3.08338 1.9916209
-0.97062582 -2.9785326 1.535632
-0.92825663 -2.8518736 1.1329677
-0.9017244 -2.7736254 0.7941435
-0.88138813 -2.7126675 0.49002969
-0.85736465 -2.6418433 0.2057166
-0.15941244 -0.16091184 24.553337
-0.83222073 -2.3396506 15.786292
-1.0888981 -3.124316 15.930329
-1.553988 -4.5576248 15.44097
-1.6590667 -4.9217668 12.295562
-0.91849065 -2.7438607 5.3699431
-1.3390294 -4.0185471 6.2936931
-1.2268358 -3.6947074 4.7376499
-0.37902626 -0.82811385 15.588378
-0.97515482 -2.3652997 23.818285
-1.4016002 -4.0529099 16.548313
-1.7172134 -5.0419393 14.538605
-1.5465711 -4.5827222 10.064459
-1.1260922 -3.3541903 5.8575468
-1.2000728 -3.588989 5.0857902
-1.2367179 -3.7092836 4.3170342
-1.2486928 -3.7869775 3.9983344
-1.0828146 -3.2896934 2.8749425
-1.0279248 -3.1284235 2.2435794
-0.97981507 -2.9854994 1.7313428
-0.94612741 -2.8862319 1.3154874
-0.92259008 -2.8177292 0.96144021
-0.89629686 -2.7406456 0.63892013
-0.8705157 -2.664938 0.34463426
-1.1142278 -3.3633859 3.2368677
-1.0516373 -3.1800053 2.5223775
-1.0038077 -3.0389152 1.9662892
-0.96822518 -2.9363344 1.5167495
-0.92491072 -2.80825 1.1181762
-0.89924914 -2.7335236 0.78476501
-0.88002473 -2.6766438 0.48519492
-0.85567009 -2.6056089 0.20430589
-0.15968733 -0.16008514 24.508339
-0.838278 -2.3308823 15.746778
-1.0994589 -3.1195357 15.925435
-1.5669674 -4.5437059 15.412337
-1.6522752 -4.8456798 12.120666
-0.92729455 -2.7383695 5.3655539
-1.3332716 -3.9551833 6.2027683
-1.2387046 -3.6873641 4.7338128
-0.38191459 -0.8267858 15.588378
-0.98340535 -2.3618815 23.818285
-1.4078532 -4.0254488 16.456364
-1.7336785 -5.0326519 14.52922
-1.5351278 -4.4969487 9.8889122
-1.1419874 -3.3625865 5.8788767
-1.1961784 -3.5362542 5.0179601
-1.2485746 -3.7017319 4.3133588
-1.234817 -3.7014053 3.9142253
-1.0758426 -3.2305005 2.8278658
-1.024328 -3.0811696 2.2134233
-0.9790619 -2.9484286 1.7127924
-0.94452059 -2.8477101 1.3005033
-0.92185974 -2.7826159 0.95156991
-0.89505547 -2.7048554 0.63239181
-0.86887282 -2.6287844 0.34150469
-1.1117224 -3.3169935 3.1969616
-1.0486231 -3.1341505 2.4900024
-1.0007453 -2.9945076 1.9409574
-0.96410573 -2.8898845 1.495769
-0.92873609 -2.7870843 1.1116022
-0.89804006 -2.6980848 0.77655876
-0.87998402 -2.6453624 0.48105082
-0.85530829 -2.5741599 0.2030967
-0.16040447 -0.15967581 24.533339
-0.84322178 -2.31918 15.687508
-1.1099994 -3.1147199 15.920539
-1.5823265 -4.536799 15.407566
-1.6443363 -4.7678542 11.941168
-0.93684763 -2.7351158 5.3655539
-1.327088 -3.8919103 6.1118431
-1.2360982 -3.637496 4.67625
-0.38467583 -0.82518619 15.583386
-0.99164391 -2.3584342 23.818285
-1.4172853 -4.0074749 16.403131
-1.7472605 -5.015162 14.496369
-1.5231044 -4.4113107 9.7133636
-1.153718 -3.3585796 5.8788767
-1.190955 -3.4807398 4.9461393
-1.2516354 -3.668474 4.280282
-1.2112358 -3.5889449 3.8020799
-1.0672282 -3.1677082 2.7776506
-1.0217468 -3.0379424 2.1860087
-0.97806197 -2.9113994 1.6942419
-0.94413137 -2.8136303 1.2873919
-0.92089564 -2.7475421 0.94169968
-0.89513481 -2.6737659 0.62679613
-0.86856759 -2.597398 0.33882225
-1.1017129 -3.249444 3.1371026
-1.0453018 -3.0883563 2.4576278
-0.9973852 -2.9501588 1.9156257
-0.96112508 -2.8477995 1.4768865
-0.92940801 -2.7569768 1.1017411
-0.89814568 -2.6672945 0.76952487
-0.87973565 -2.6141143 0.47690675
-0.85473746 -2.5427451 0.2018875
-0.16102481 -0.15917431 24.543337
-0.84648496 -2.3030956 15.598601
-1.1201745 -3.1089103 15.910748
-1.5991466 -4.5340638 15.41711
-1.6358743 -4.6901445 11.761669
-0.94638926 -2.7318289 5.3655539
-1.3168089 -3.8180878 6.0043864
-1.2373266 -3.5998166 4.6340375
-0.38755393 -0.82383841 15.583386
-1.0000789 -2.3554492 23.823257
-1.4338052 -4.0096045 16.432167
-1.7590212 -4.9927568 14.449443
-1.5140913 -4.3360896 9.5603228
-1.1705705 -3.3693135 5.9044724
-1.1952139 -3.4537809 4.9142194
-1.2589035 -3.6480596 4.2619066
-1.1684492 -3.4226954 3.6338615
-1.0707452 -3.1418581 2.7588196
-1.0175298 -2.9908133 2.1558526
-0.97681576 -2.874414 1.6756915
-0.9420256 -2.7751985 1.2724077
-0.91969824 -2.7125101 0.93182951
-0.89500809 -2.6427093 0.62120038
-0.86645824 -2.5613289 0.3356927
-1.0900345 -3.1784737 3.0739181
-1.0416739 -3.0426235 2.4252529
-0.99512291 -2.9099498 1.892827
-0.95639634 -2.801476 1.455906
-0.92988116 -2.7268991 1.09188
-0.89804763 -2.6365371 0.76249093
-0.87927991 -2.5829 0.47276267
-0.85556632 -2.5160964 0.20087986
-0.16157945 -0.15861125 24.543337
-0.84856349 -2.2841039 15.489938
-1.1299741 -3.1021111 15.896063
-1.6149637 -4.5284543 15.41711
-1.6262403 -4.6107097 11.577568
-0.95591933 -2.7285087 5.3655539
-1.3162261 -3.7736132 5.9423923
-1.2372546 -3.5591455 4.5879874
-0.39030302 -0.82221997 15.578394
-1.0078744 -2.3509641 23.813314
-1.4477925 -4.0045753 16.432167
-1.7550092 -4.9264393 14.275809
-1.5060214 -4.2650914 9.4162836
-1.2195009 -3.4710107 6.0879073
-1.2052717 -3.4438996 4.906239
-1.2593412 -3.608434 4.2214794
-1.1443055 -3.3140967 3.5252209
-1.0664839 -3.0939436 2.7211583
-1.014357 -2.9477043 2.1284378
-0.97532326 -2.8374729 1.6571411
-0.94116884 -2.7412007 1.2592964
-0.91982359 -2.6820574 0.92336923
-0.89467549 -2.611686 0.61560464
-0.86571997 -2.5300181 0.3330102
-1.0937812 -3.1534839 3.0539651
-1.039062 -3.0007739 2.3958213
-0.98413724 -2.8453488 1.8548293
-0.95431882 -2.7638009 1.4391216
-0.92861623 -2.6923881 1.0803754
-0.89932907 -2.6104088 0.75662941
-0.87861723 -2.5517218 0.4686186
-0.85621953 -2.4894729 0.1998722
-0.16219647 -0.15810521 24.553337
-0.85543829 -2.2782185 15.470181
-1.1404437 -3.0971925 15.891169
-1.6256973 -4.5087466 15.36939
-1.6167282 -4.5332408 11.398069
-0.96543777 -2.7251554 5.3655539
-1.3134768 -3.7238817 5.8721323
-1.2347878 -3.5124714 4.5342627
-0.39317071 -0.82085252 15.578394
-1.0150149 -2.3449862 23.788458
-1.4617623 -3.9994972 16.432167
-1.7400293 -4.8309884 14.017708
-1.4974748 -4.1942034 9.2722454
-1.2385949 -3.4863932 6.122035
-1.2112538 -3.4226279 4.8822994
-1.2617745 -3.5752439 4.1884031
-1.1394063 -3.2629464 3.4761569
-1.064464 -3.0534484 2.6897736
-1.0108956 -2.9046545 2.1010232
-0.97358501 -2.8005779 1.6385907
-0.94008619 -2.707243 1.2461853
-0.91817576 -2.6471055 0.91349906
-0.89413738 -2.5806978 0.61000896
-0.86477375 -2.498744 0.33032772
-1.0899513 -3.107367 3.0140591
-1.0375069 -2.9627953 2.369333
-0.98979324 -2.829689 1.8472298
-0.95498264 -2.7347443 1.4265333
-0.92712152 -2.6579194 1.0688709
-0.90043914 -2.5843036 0.75076777
-0.87774754 -2.5205793 0.4644745
-0.85669744 -2.4628761 0.19886455
-0.16284421 -0.15762617 24.568338
-0.85869706 -2.2628696 15.386212
-1.1505375 -3.0912845 15.881378
-1.6342679 -4.4834108 15.302582
-1.6060327 -4.4540572 11.213968
-0.97494453 -2.7217689 5.3655539
-1.3103964 -3.6742163 5.8018723
-1.2395257 -3.4869993 4.5074
-0.39603364 -0.81947511 15.578394
-1.0227668 -2.340452 23.778515
-1.4765855 -3.9967282 16.441845
-1.7291285 -4.7486749 13.797147
-1.4884517 -4.1234279 9.1282063
-1.205789 -3.3568707 5.9044724
-1.221163 -3.4127049 4.8743191
-1.2537366 -3.5133452 4.1222506
-1.1199141 -3.1715178 3.3850389
-1.059586 -3.0056636 2.652112
-1.0085348 -2.8656101 2.07635
-0.97160113 -2.7637298 1.6200403
-0.94031405 -2.6777005 1.234947
-0.91629517 -2.6121974 0.90362883
-0.89339399 -2.5497453 0.60441321
-0.86361998 -2.4675078 0.32764524
-1.0883094 -3.0683541 2.980804
-1.0356994 -2.9248641 2.3428447
-0.98816419 -2.793704 1.8269643
-0.95394403 -2.7014372 1.4118469
-0.92539781 -2.6234941 1.0573663
-0.89976257 -2.5536387 0.74373388
-0.87667137 -2.4894745 0.46033043
-0.85700017 -2.436306 0.19785689
-0.16345818 -0.15711525 24.578337
-0.87020898 -2.2692893 15.450423
-1.161321 -3.0872495 15.881378
-1.6437141 -4.4608717 15.245319
-1.5954734 -4.3768396 11.03447
-0.98362386 -2.7160974 5.361165
-1.3050765 -3.6193235 5.7233462
-1.2462692 -3.4675698 4.4882126
-0.39889175 -0.8180877 15.578394
-1.0292073 -2.3329668 23.738741
-1.4892086 -3.9880178 16.427328
-1.7135017 -4.6551609 13.543738
-1.4789532 -4.0527668 8.9841681
-1.2103771 -3.3330305 5.8703451
-1.2228167 -3.3800867 4.8344188
-1.2383783 -3.4324131 4.0340462
-1.1261809 -3.154155 3.3710206
-1.0543878 -2.9579508 2.6144507
-1.0059136 -2.8266177 2.0516768
-0.96937203 -2.7269301 1.60149
-0.93879616 -2.6438215 1.2218359
-0.91578585 -2.5818567 0.8951686
-0.89244556 -2.5188301 0.59881747
-0.86225879 -2.4363105 0.32496279
-1.0838876 -3.0223615 2.9408979
-1.0322776 -2.8831768 2.3134131
-0.98919964 -2.7658839 1.8117652
-0.95421088 -2.6724458 1.3992586
-0.92344517 -2.589114 1.0458617
-0.90051442 -2.5275886 0.7378723
-0.87538886 -2.4584084 0.45618635
-0.85712796 -2.4097643 0.19684923
-0.16423298 -0.15674765 24.613335
-0.87475467 -2.2575443 15.391152
-1.1717286 -3.0822248 15.876482
-1.6498965 -4.4299278 15.159423
-1.5843952 -4.2997518 10.854972
-0.99392211 -2.714896 5.3655539
-1.3003532 -3.5671573 5.648953
-1.253987 -3.4511483 4.4728622
-0.40187287 -0.81694919 15.583386
-1.0388641 -2.332768 23.773542
-1.5040081 -3.985147 16.437006
-1.7080759 -4.5909271 13.374799
-1.4644588 -3.9699686 8.8131208
-1.2193075 -3.3214402 5.8575468
-1.2252926 -3.3503282 4.7985086
-1.2073683 -3.3102281 3.8980651
-1.1190197 -3.0998893 3.3184526
-1.0435905 -2.8956645 2.5642354
-1.0030327 -2.7876787 2.0270035
-0.96839631 -2.6943491 1.5852584
-0.93705314 -2.6099858 1.2087245
-0.91345668 -2.5470364 0.88529837
-0.8896355 -2.4833283 0.59228915
-0.86236829 -2.409842 0.32272738
-1.0804309 -2.9799478 2.9043176
-1.029953 -2.84535 2.2869246
-0.98712116 -2.7299829 1.7914999
-0.95428705 -2.6434855 1.3866704
-0.92286581 -2.5592217 1.0360007
-0.89944828 -2.4969921 0.73083836
-0.87557775 -2.4320414 0.45273295
-0.85708112 -2.3832521 0.19584158
-0.16445331 -0.15588324 24.563337
-0.88206291 -2.2530301 15.381273
-1.1828457 -3.0790668 15.881378
-1.6569351 -4.4017901 15.083072
-1.5727986 -4.222795 10.675473
-1.0033928 -2.71141 5.3655539
-1.2933358 -3.5097878 5.5662942
-1.2660261 -3.4467502 4.4728622
-0.40472212 -0.81554139 15.583386
-1.047657 -2.3305857 23.788458
-1.5147736 -3.9716516 16.403131
-1.6900738 -4.4944839 13.112003
-1.4615746 -3.9199581 8.7140951
-1.2299868 -3.314719 5.853281
-1.2265308 -3.3177679 4.7586083
-1.174348 -3.1851223 3.7584088
-1.1151619 -3.055763 3.2763979
-1.0443642 -2.8664043 2.5422661
-1.0013219 -2.7527246 2.0050719
-0.96569228 -2.6576447 1.566708
-0.93666738 -2.5805526 1.1974864
-0.91253084 -2.5167735 0.87683815
-0.88826156 -2.4524958 0.58669341
-0.86230361 -2.3834026 0.320492
-1.0766915 -2.9375958 2.8677373
-1.0273771 -2.807575 2.2604361
-0.98480427 -2.6941304 1.7712344
-0.95417291 -2.6145577 1.374082
-0.92208916 -2.5293658 1.0261397
-0.89817953 -2.466434 0.72380447
-0.87389958 -2.4010499 0.44858888
-0.85685956 -2.3567696 0.19483392
-0.16493107 -0.15525042 24.553337
-0.88877857 -2.2470474 15.361517
-1.1935865 -3.074919 15.881378
-1.6786596 -4.4127212 15.140335
-1.5613725 -4.1478004 10.500577
-1.0128514 -2.707891 5.3655539
-1.2947744 -3.4762444 5.5208321
-1.2657773 -3.4092572 4.4306502
-0.4075664 -0.81412369 15.583386
-1.0531403 -2.3210905 23.728798
-1.5245593 -3.9557846 16.359575
-1.6861339 -4.4369383 12.961836
-1.4568236 -3.8659427 8.6060658
-1.2424657 -3.3128469 5.8575468
-1.2296662 -3.2908852 4.7266879
-1.1605965 -3.1142931 3.6812308
-1.1097752 -3.0083561 3.2308388
-1.0436013 -2.8335218 2.5171585
-0.99937928 -2.7178164 1.9831401
-0.9657988 -2.6293087 1.5527952
-0.93449056 -2.546802 1.184375
-0.90975404 -2.4820447 0.86696798
-0.88837218 -2.4263167 0.58203036
-0.86206502 -2.3569932 0.31825659
-1.0726696 -2.8953063 2.8311565
-1.0231479 -2.766062 2.2310045
-0.98224932 -2.6583278 1.7509691
-0.95229757 -2.5814049 1.3593956
-0.91948247 -2.4951155 1.0146351
-0.89838773 -2.4404769 0.71794289
-0.87372577 -2.374747 0.44513547
-0.85646385 -2.330318 0.19382627
-0.16537364 -0.15458737 24.538338
-0.89661676 -2.2439315 15.361517
-1.2039406 -3.0697858 15.876482
-1.6935171 -4.4054413 15.135563
-1.5487478 -4.0711126 10.321078
-1.0222974 -2.704339 5.3655539
-1.2771568 -3.3926966 5.3968434
-1.2675346 -3.37781 4.3961124
-0.41027513 -0.81243855 15.578394
-1.5315154 -3.9328694 16.286983
-1.6768628 -4.3665872 12.774124
-1.4493892 -3.8059056 8.4845324
-1.254022 -3.3084898 5.8575468
-1.2251769 -3.2442894 4.6668377
-1.1511451 -3.0562894 3.618753
-1.1053175 -2.9643657 3.1887844
-1.0426215 -2.8006799 2.4920509
-0.99720538 -2.682956 1.9612085
-0.96417731 -2.5968521 1.5365635
-0.93047768 -2.5087521 1.1693908
-0.90841269 -2.4518647 0.85850781
-0.8866061 -2.3955598 0.57643461
-0.86165267 -2.330615 0.3160212
-1.0696754 -2.8565784 2.7979016
-1.0214728 -2.7321856 2.2074592
-0.97794825 -2.6185379 1.7281704
-0.95020264 -2.5482976 1.3447093
-0.91829652 -2.4653397 1.0047741
-0.89673072 -2.4099932 0.71090895
-0.87165302 -2.3438342 0.4409914
-0.85589385 -2.3038981 0.19281861
-0.16591226 -0.15400916 24.538338
-0.89862514 -2.2263784 15.262732
-1.2146488 -3.0655646 15.876482
-1.7078035 -4.3967199 15.126019
-1.5384113 -4.0018578 10.15999
-1.0325859 -2.7029915 5.3699431
-1.2629746 -3.3198352 5.2893867
-1.2679513 -3.3433952 4.3577371
-0.4129771 -0.81074458 15.573403
-1.0706619 -2.3165843 23.758627
-1.5410918 -3.9169722 16.243429
-1.6671219 -4.2963562 12.586413
-1.4431174 -3.750031 8.3720026
-1.2655632 -3.3040922 5.8575468
-1.2343451 -3.2343624 4.6588578
-1.1437153 -3.0047269 3.5636251
-1.0993085 -2.9171069 3.1432252
-1.0400546 -2.7642367 2.4638047
-0.99480051 -2.6481442 1.9392767
-0.96389771 -2.5685863 1.5226507
-0.92946523 -2.4794433 1.1581527
-0.90687174 -2.4217241 0.85004753
-0.88635713 -2.369446 0.5717715
-0.8610667 -2.3042684 0.31378582
-1.0664239 -2.8179066 2.7646465
-1.018145 -2.6945736 2.1809707
-0.97642618 -2.5868769 1.710438
-0.94788814 -2.5152369 1.3300229
-0.91857767 -2.4400225 0.99655646
-0.8965829 -2.3841009 0.70504743
-0.87111741 -2.3175998 0.43753797
-0.85690612 -2.2821879 0.19201249
-0.16648181 -0.15345766 24.543337
-0.9028697 -2.2145946 15.203461
-1.2249639 -3.0603609 15.871587
-1.7225952 -4.3893428 15.121247
-1.5332702 -3.9472952 10.035723
-1.0420148 -2.6993706 5.3699431
-1.2533488 -3.2602477 5.2025948
-1.2555255 -3.2760973 4.2771497
-0.41580459 -0.8092981 15.573403
-1.5459325 -3.8893762 16.15148
-1.6594311 -4.2326741 12.417475
-1.4364735 -3.694248 8.2594719
-1.277089 -3.2996545 5.8575468
-1.2445433 -3.2272227 4.6548676
-1.138374 -2.9595823 3.5158479
-1.0942528 -2.8732593 3.1011708
-1.0372462 -2.7278464 2.4355586
-0.99364889 -2.6172915 1.9200864
-0.96343249 -2.5403545 1.5087379
-0.92661721 -2.4458373 1.1450413
-0.90513164 -2.3916249 0.84158736
-0.88767397 -2.3479583 0.56804103
-0.86030746 -2.2779548 0.31155041
-1.0629158 -2.7792928 2.7313917
-1.0160091 -2.660795 2.1574254
-0.97315884 -2.5512311 1.6901727
-0.94696999 -2.4864647 1.3174345
-0.91701418 -2.41032 0.98669541
-0.89453852 -2.3536954 0.69801354
-0.86865097 -2.2867692 0.4333939
-0.85600495 -2.2558281 0.19100484
-0.16704956 -0.15290403 24.548338
-0.90556318 -2.1992164 15.119493
-1.2352573 -3.0551224 15.866691
-1.7368059 -4.3805275 15.111703
-1.5256256 -3.887361 9.8976469
-1.0514311 -2.6957169 5.3699431
-1.2524937 -3.2243764 5.1529994
-1.2426454 -3.2089272 4.1965618
-0.41862705 -0.80784172 15.573403
-1.5552838 -3.8734584 16.107925
-1.6532229 -4.1739111 12.262613
-1.429458 -3.6385572 8.1469412
-1.2952486 -3.3121789 5.8874087
-1.2536128 -3.2172434 4.6468878
-1.1327317 -2.9145124 3.4680707
-1.0889045 -2.829483 3.0591161
-1.0341965 -2.6915092 2.4073124
-0.99079651 -2.5825753 1.8981547
-0.96278214 -2.5121574 1.4948251
-0.92686123 -2.4209406 1.1356763
-0.90490633 -2.3660483 0.83453721
-0.88709843 -2.3219016 0.56337792
-0.86115074 -2.2563274 0.30976209
-1.0604972 -2.744221 2.701462
-1.0136499 -2.627064 2.1338801
-0.97275549 -2.5236847 1.6749736
-0.94423252 -2.4534945 1.3027482
-0.91694939 -2.3850663 0.9784779
-0.89403552 -2.3278711 0.6921519
-0.86775464 -2.260607 0.42994049
-0.85671902 -2.2341676 0.19019872
-0.16781457 -0.15251832 24.583338
-0.91711444 -2.2053678 15.183703
-1.2455292 -3.0498493 15.861796
-1.7520862 -4.3744383 15.111703
-1.5161412 -3.8238971 9.7503662
-1.0608345 -2.6920302 5.3699431
-1.2442065 -3.1702149 5.0744734
-1.2211362 -3.1209936 4.0891118
-0.42144439 -0.8063755 15.573403
-1.5692676 -3.8691707 16.112764
-1.6447015 -4.1104374 12.093674
-1.4212683 -3.5809376 8.0299101
-1.3010521 -3.2930839 5.8618131
-1.2626276 -3.2072403 4.6389074
-1.126789 -2.8695188 3.420294
-1.0845565 -2.7891028 3.020566
-1.0323148 -2.6588557 2.3822048
-0.98922521 -2.55181 1.8789644
-0.96194679 -2.4839966 1.4809123
-0.92694271 -2.3960721 1.1263111
-0.90278429 -2.3360279 0.82607704
-0.88812131 -2.3004606 0.55964744
-0.86006182 -2.2300756 0.30752671
-1.0564886 -2.7057223 2.6682072
-1.0110679 -2.5933826 2.1103349
-0.97217184 -2.4961727 1.6597745
-0.94292146 -2.424804 1.2901599
-0.91671938 -2.3598423 0.97026032
-0.8933633 -2.3020792 0.68629032
-0.86847728 -2.2390966 0.42717776
-0.85729241 -2.2125294 0.1893926
-0.16834593 -0.15193161 24.583338
-0.92480701 -2.202153 15.183703
-1.2557793 -3.0445421 15.856902
-1.762866 -4.3572264 15.073527
-1.5098649 -3.7696154 9.6260977
-1.0702249 -2.6883109 5.3699431
-1.2480041 -3.1475413 5.0455427
-1.199029 -3.0332506 3.981662
-0.42425662 -0.80489945 15.573403
-1.5851468 -3.8694849 16.136961
-1.6396377 -4.0566745 11.95289
-1.4151245 -3.5294816 7.9263821
-1.2961028 -3.2473452 5.7892919
-1.2715881 -3.1972136 4.6309276
-1.120546 -2.8246021 3.3725169
-1.0812443 -2.7521079 2.9855206
-1.0287963 -2.6226249 2.3539586
-0.98592645 -2.517194 1.8570327
-0.96092659 -2.4558721 1.4669995
-0.92854983 -2.3755507 1.118819
-0.90220863 -2.3105199 0.81902683
-0.88722014 -2.2744646 0.55498439
-0.86060834 -2.2084997 0.30573839
-1.0508541 -2.6638122 2.6316266
-1.0097444 -2.5635123 2.0897326
-0.97140819 -2.4686956 1.6445755
-0.94142169 -2.3961527 1.2775716
-0.91632462 -2.3346496 0.96204275
-0.89252204 -2.2763209 0.68042874
-0.86725342 -2.2129984 0.42372438
-0.8577252 -2.1909151 0.18858647
-0.16840792 -0.15094966 24.51334
-0.92884666 -2.1903279 15.124432
-1.2660073 -3.0391998 15.852006
-1.7650762 -4.3192658 14.963772
-1.5039613 -3.7172356 9.5064316
-1.080496 -2.6867807 5.374332
-1.2380552 -3.0909209 4.9628835
-1.1846457 -2.9665372 3.9010744
-0.42719957 -0.8036682 15.578394
-1.5981636 -3.8627665 16.132122
-1.6276958 -3.9870205 11.76518
-1.401284 -3.459954 7.7823434
-1.2928007 -3.2065191 5.7253032
-1.2737533 -3.1703873 4.5990076
-1.1152645 -2.7829115 3.3284149
-1.0776871 -2.7151701 2.950475
-1.0264717 -2.5900698 2.328851
-0.98393691 -2.4865208 1.8378423
-0.9580934 -2.4236658 1.450768
-0.92832237 -2.3507361 1.1094538
-0.90146601 -2.2850447 0.81197667
-0.88794953 -2.2530732 0.55125391
-0.86101478 -2.1869469 0.30395007
-1.0477049 -2.628912 2.6016972
-1.0067306 -2.5299275 2.0661874
-0.97046459 -2.4412546 1.6293764
-0.93973362 -2.367542 1.2649833
-0.91750592 -2.3138781 0.95546871
-0.89151192 -2.2505965 0.67456716
-0.86768103 -2.1915402 0.42096168
-0.85618019 -2.1646791 0.18757881
-0.16859901 -0.15008105 24.463341
-0.93832248 -2.1913579 15.154068
-1.2762136 -3.0338237 15.847112
-1.7664733 -4.2799635 14.849244
-1.4977108 -3.6649435 9.3867664
-1.0898681 -2.6829925 5.374332
-1.2477815 -3.083972 4.9587507
-1.1758072 -2.9148242 3.8396745
-0.4300023 -0.80217212 15.578394
-1.6121219 -3.8583241 16.136961
-1.6166037 -3.9206915 11.586855
-1.4034613 -3.4308629 7.7283287
-1.2902135 -3.1681716 5.6655798
-1.2746137 -3.1407936 4.563097
-1.1084337 -2.7381501 3.2806377
-1.0738856 -2.6782911 2.9154298
-1.0239326 -2.5575633 2.3037434
-0.9817453 -2.4558926 1.8186522
-0.95669019 -2.3956234 1.4368552
-0.92621493 -2.3216457 1.0982156
-0.90233266 -2.2640595 0.80633652
-0.88672334 -2.2271409 0.54659075
-0.86128134 -2.1654186 0.30216175
-1.0359582 -2.5732849 2.5518146
-1.0034945 -2.4963956 2.0426424
-0.9693414 -2.4138503 1.6141773
-0.93954641 -2.3431847 1.254493
-0.91679752 -2.2887437 0.94725126
-0.89213908 -2.2294199 0.66987789
-0.86796945 -2.1701066 0.41819894
-0.85631621 -2.1431196 0.18677269
-0.16892041 -0.14932443 24.433344
-0.94072229 -2.1759458 15.070101
-1.2863977 -3.0284133 15.842216
-1.7486635 -4.1952376 14.577241
-1.4926044 -3.6163526 9.2763052
-1.0992268 -2.6791718 5.374332
-1.2425698 -3.040525 4.8967566
-1.1714604 -2.8750827 3.7936239
-0.43279979 -0.80066627 15.578394
-1.6260689 -3.8538315 16.141802
-1.6050686 -3.8544888 11.408529
-1.3996336 -3.3877163 7.6428061
-1.2873745 -3.1298816 5.6058569
-1.2775689 -3.1168082 4.5351672
-1.1025872 -2.696609 3.2365358
-1.0711786 -2.6447778 2.883889
-1.0226384 -2.5287149 2.2817743
-0.97935194 -2.4253099 1.7994618
-0.95344567 -2.3635125 1.4206235
-0.92564893 -2.2968993 1.0888505
-0.90127242 -2.2386465 0.79928643
-0.88716006 -2.2058022 0.54286027
-0.86140817 -2.1439152 0.30037344
-1.0393082 -2.5558181 2.5385127
-1.0000368 -2.4629171 2.0190971
-0.96803874 -2.3864841 1.5989783
-0.93749696 -2.3146515 1.2419046
-0.91592485 -2.2636425 0.93903369
-0.89080769 -2.2037604 0.66401625
-0.86997402 -2.1532888 0.41612691
-0.85631239 -2.1215866 0.18596657
-0.16940695 -0.14870614 24.428343
-0.94426966 -2.1633916 15.00589
-1.2969608 -3.0239043 15.842216
-1.7308639 -4.1120653 14.31001
-1.4811635 -3.5534167 9.1290245
-1.1094891 -2.6775312 5.3787212
-1.2499545 -3.0283654 4.8843579
-1.1631912 -2.8265157 3.7360616
-0.43573064 -0.79940391 15.583386
-1.6395115 -3.8481319 16.141802
-1.5924226 -3.7868252 11.225512
-1.395522 -3.3446381 7.5572829
-1.2852844 -3.0940588 5.5503998
-1.2642355 -3.0538642 4.4513764
-1.0977587 -2.6582758 3.1961088
-1.0669004 -2.6080151 2.8488433
-1.0196836 -2.4963038 2.2566667
-0.97833639 -2.3986461 1.7830131
-0.95166028 -2.335556 1.4067107
-0.92492151 -2.2721851 1.0794853
-0.90004575 -2.2132683 0.79223621
-0.88745874 -2.1844878 0.53912979
-0.86139536 -2.1224375 0.29858512
-1.0382929 -2.527998 2.515234
-0.99789166 -2.4332335 1.9984947
-0.96655703 -2.3591566 1.5837791
-0.9369784 -2.2903621 1.2314144
-0.91488832 -2.2385757 0.93081611
-0.89114547 -2.1826372 0.65932697
-0.87000072 -2.1318991 0.41336417
-0.85616863 -2.1000795 0.18516044
-0.17019515 -0.14833492 24.468342
-0.95181555 -2.1600823 15.00589
-1.3071038 -3.0184245 15.83732
-1.7177606 -4.0414324 14.085727
-1.4662699 -3.4834032 8.963335
-1.1188287 -2.6736422 5.3787212
-1.2540212 -3.0083997 4.85956
-1.1570576 -2.7839613 3.6861739
-0.43851843 -0.79787803 15.583386
-0.7477088 -1.493665 15.535761
-1.652934 -3.8423853 16.141802
-1.5826966 -3.7272389 11.065957
-1.3911268 -3.3016303 7.4717593
-1.2819513 -3.0558841 5.4906764
-1.242342 -2.9715912 4.3396559
-1.0926759 -2.6200094 3.1556821
-1.0637407 -2.5746114 2.8173025
-1.0179996 -2.4675424 2.2346973
-0.97714686 -2.3720191 1.7665644
-0.94969171 -2.3076415 1.3927979
-0.92403287 -2.2475045 1.0701201
-0.90047556 -2.1923635 0.78659606
-0.88761955 -2.1631987 0.53539932
-0.86124331 -2.1009862 0.2967968
-1.038527 -2.5036654 2.495281
-0.99400467 -2.3998609 1.9749496
-0.96489638 -2.3318689 1.56858
-0.93630171 -2.2661047 1.2209241
-0.91368794 -2.2135439 0.9225986
-0.89134681 -2.1615393 0.65463775
-0.8698889 -2.1105359 0.41060147
-0.85588533 -2.0785997 0.18435432
-0.1709151 -0.14790499 24.498339
-0.9584021 -2.1546171 14.991073
-1.3176321 -3.0138435 15.83732
-1.7124283 -3.9901462 13.928251
-1.4531983 -3.4189312 8.81145
-1.129087 -2.6719265 5.3831105
-1.2514129 -2.9728808 4.8099647
-1.1494012 -2.7385297 3.6324492
-0.44130087 -0.79634249 15.583386
-0.75291812 -1.4910458 15.535761
-1.6628307 -3.8285222 16.107925
-1.5773349 -3.678869 10.939253
-1.3864485 -3.2586946 7.3862362
-1.2763326 -3.0129681 5.4224219
-1.21989 -2.8895092 4.2279348
-1.0886557 -2.5849359 3.1189303
-1.060361 -2.5412617 2.7857616
-1.0161275 -2.4388237 2.2127283
-0.97578341 -2.3454301 1.7501155
-0.94753975 -2.2797689 1.3788851
-0.92298335 -2.2228577 1.0607549
-0.9007706 -2.1714833 0.78095597
-0.88764262 -2.1419353 0.53166884
-0.86285704 -2.0841637 0.29545557
-1.0371614 -2.4759185 2.4720025
-0.99145675 -2.3702738 1.9543474
-0.96305716 -2.3046219 1.553381
-0.93546724 -2.2418799 1.2104338
-0.91232419 -2.1885481 0.91438103
-0.89141172 -2.1404665 0.64994848
-0.86963844 -2.0891993 0.40783876
-0.85738087 -2.0617604 0.18374974
-0.17146429 -0.14733489 24.50334
-0.96464372 -2.1484234 14.971314
-1.327733 -3.0082941 15.832424
-1.7121012 -3.9512734 13.813724
-1.4173487 -3.3025312 8.5260944
-1.1393468 -2.6701715 5.3874993
-1.2617824 -2.9684947 4.8099647
-1.1414416 -2.6931851 3.5787239
-0.4442192 -0.79504889 15.588378
-0.75618023 -1.4846098 15.495989
-1.6665926 -3.8008223 16.015976
-1.5668558 -3.6194973 10.779698
-1.3806285 -3.2138321 7.2962127
-1.2735075 -2.9773223 5.3669643
-1.1980623 -2.8103933 4.1202044
-1.0844041 -2.5499229 3.0821788
-1.0567616 -2.5079675 2.7542205
-1.0125577 -2.4065607 2.1876206
-0.97424638 -2.3188798 1.7336668
-0.94691944 -2.2560248 1.3672911
-0.92356598 -2.2025216 1.0532628
-0.90093088 -2.1506279 0.77531582
-0.88563162 -2.1161666 0.52700573
-0.86244291 -2.0627608 0.29366726
-1.0356146 -2.4482119 2.448724
-0.98871469 -2.3407347 1.9337454
-0.9610396 -2.2774162 1.5381819
-0.93447524 -2.2176893 1.1999437
-0.91079718 -2.1635888 0.90616351
-0.89134055 -2.1194198 0.6452592
-0.86924982 -2.0678904 0.40507603
-0.85683495 -2.0403302 0.18294361
-0.17197755 -0.14673546 24.50334
-0.97085381 -2.1422124 14.951558
-1.3378114 -3.0027113 15.82753
-1.7019504 -3.8905709 13.622844
-1.3434169 -3.1003807 8.0198164
-1.1496084 -2.6683779 5.3918886
-1.2710268 -2.9614863 4.8058314
-1.1331797 -2.6479304 3.5249987
-0.44699174 -0.79349345 15.588378
-0.76135784 -1.4819614 15.495989
-1.669673 -3.7719948 15.919188
-1.5539082 -3.5555007 10.606067
-1.3745121 -3.1690502 7.2061877
-1.2766539 -2.9560993 5.3371034
-1.1828457 -2.7480719 4.0364141
-1.081259 -2.5180864 3.0491023
-1.0529429 -2.4747298 2.7226796
-1.0102974 -2.3779352 2.1656513
-0.97416919 -2.2962184 1.7199594
-0.94614512 -2.2323129 1.3556972
-0.92582554 -2.1864774 1.0476437
-0.90095663 -2.1297979 0.76967573
-0.88536394 -2.0949633 0.52327526
-0.86188996 -2.0413866 0.29187894
-1.0338873 -2.4205468 2.4254456
-0.98577851 -2.3112435 1.9131432
-0.96053404 -2.2542193 1.5255162
-0.93332577 -2.1935329 1.1894534
-0.91095448 -2.1430135 0.89958948
-0.89113337 -2.0984001 0.64056993
-0.86872309 -2.0466099 0.40231332
-0.85614991 -2.0189288 0.18213749
-0.17245455 -0.14610711 24.498339
-0.97670895 -2.1352777 14.926862
-1.3474493 -2.996166 15.817739
-1.6950157 -3.838181 13.460597
-1.3495326 -3.0849335 7.9922018
-1.1598711 -2.6665449 5.3962774
-1.2835945 -2.9621954 4.8140974
-1.1258874 -2.6057091 3.4751112
-0.44975883 -0.79192835 15.588378
-0.765544 -1.4774021 15.476103
-1.6777009 -3.7546678 15.870793
-1.5502867 -3.5137427 10.498133
-1.367227 -3.1223567 7.1116624
-1.2796677 -2.9348903 5.3072414
-1.1876268 -2.7328722 4.0204539
-1.0779051 -2.4863031 3.0160258
-1.0503129 -2.4448259 2.6946433
-1.0063149 -2.3457775 2.1405437
-0.97229916 -2.2697425 1.7035106
-0.94521677 -2.2086341 1.3441031
-0.92616183 -2.1661818 1.0401516
-0.90084797 -2.1089942 0.76403558
-0.88303107 -2.0692694 0.51861215
-0.86315131 -2.0246224 0.29053769
-1.0305009 -2.3894949 2.3988416
-0.98424751 -2.2855146 1.8954842
-0.95817435 -2.2270932 1.510317
-0.93381071 -2.1735816 1.1810611
-0.90911669 -2.1181235 0.89137191
-0.88887483 -2.0729406 0.6347084
-0.8700093 -2.0299101 0.40024126
-0.85532606 -1.9975575 0.18133135
-0.17299776 -0.14553127 24.50334
-0.98350507 -2.1304448 14.916984
-1.3570577 -2.9895899 15.807949
-1.6859126 -3.7817976 13.284033
-1.3397703 -3.0337391 7.8725362
-1.1691719 -2.6624799 5.3962774
-1.2849032 -2.9370723 4.781034
-1.1093426 -2.5430064 3.3983612
-0.45266438 -0.79060382 15.593369
-0.7702021 -1.4737763 15.46616
-1.6840776 -3.7338932 15.80788
-1.544286 -3.4673247 10.376121
-1.3605131 -3.0777445 7.0216379
-1.282549 -2.9136968 5.27738
-1.1789986 -2.6873195 3.9606035
-1.075702 -2.45768 2.9866245
-1.0474869 -2.4149709 2.6666069
-1.0036676 -2.3172491 2.1185744
-0.97191608 -2.2471454 1.6898032
-0.94237763 -2.180923 1.3301903
-0.92269307 -2.1373985 1.0289134
-0.90060526 -2.0882175 0.75839543
-0.88052982 -2.0436182 0.5139491
-0.86233729 -2.0033004 0.2887494
-1.0284011 -2.3619201 2.3755629
-0.98254901 -2.2598243 1.8778253
-0.95563722 -2.200012 1.4951179
-0.93236178 -2.1494906 1.170571
-0.90711647 -2.0932732 0.88315433
-0.88838065 -2.0519829 0.63001907
-0.869223 -2.0086818 0.39747855
-0.8543635 -1.9762168 0.18052523
-0.17353904 -0.14495343 24.508339
-0.99126381 -2.1277027 14.921922
-1.3670609 -2.9839091 15.803054
-1.6782745 -3.7296083 13.121786
-1.3503519 -3.0290442 7.8725362
-1.1794293 -2.6605723 5.4006667
-1.2928737 -2.9274209 4.772768
-1.1130449 -2.527385 3.3830111
-0.4554213 -0.78901899 15.593369
-0.77534181 -1.4710789 15.46616
-1.7002264 -3.7348561 15.836917
-1.5372728 -3.4194176 10.249416
-1.3499559 -3.0252657 6.913609
-1.2852981 -2.892519 5.2475185
-1.1725079 -2.6473715 3.9087331
-1.0719422 -2.426002 2.953548
-1.0444657 -2.3851659 2.6385705
-0.9992739 -2.2852018 2.0934668
-0.97138745 -2.2245793 1.676096
-0.94112802 -2.1573188 1.3185964
-0.92088699 -2.1129155 1.0195483
-0.9002285 -2.0674682 0.75275534
-0.87786037 -2.0180097 0.50928593
-0.86138499 -1.9820091 0.28696108
-1.0261216 -2.3343894 2.3522847
-0.98068321 -2.234174 1.8601663
-0.95465428 -2.1769238 1.482452
-0.93257678 -2.1295934 1.1621786
-0.9068467 -2.0727892 0.8765803
-0.88580441 -2.0266008 0.62415749
-0.86829901 -1.9874839 0.39471582
-0.85326254 -1.9549072 0.17971911
-0.17411283 -0.14440037 24.518339
-0.99901557 -2.1249328 14.926862
-1.377041 -2.978195 15.798158
-1.6696757 -3.6761603 12.954766
-1.3480885 -2.9958072 7.7988958
-1.1896875 -2.6586249 5.4050555
-1.2824579 -2.8766274 4.6983747
-1.111443 -2.5000539 3.3523111
-0.45831835 -0.78767365 15.598361
-0.77746606 -1.4627171 15.406502
-1.7127283 -3.7277563 15.832079
-1.5292308 -3.3700309 10.118018
-1.3453078 -2.9867923 6.8370886
-1.2740384 -2.8404233 5.1622
-1.1657528 -2.607502 3.8568628
-1.0693555 -2.3974767 2.9241467
-1.0426911 -2.3586736 2.6140387
-0.99624091 -2.2567744 2.0714977
-0.97071308 -2.2020442 1.6623886
-0.93972522 -2.1337504 1.3070024
-0.91705418 -2.0842283 1.0083101
-0.89778745 -2.0423558 0.74570513
-0.87699813 -1.9969426 0.50555545
-0.8602947 -1.9607488 0.28517276
-1.0221479 -2.3034906 2.3256807
-0.97865045 -2.2085648 1.8425074
-0.95352179 -2.1538692 1.4697862
-0.93082905 -2.1055703 1.1516885
-0.90453732 -2.0480132 0.86836278
-0.88502413 -2.0057085 0.61946821
-0.86723781 -1.9663171 0.39195311
-0.85202324 -1.9336298 0.17891298
-0.17468488 -0.14384508 24.528339
-1.0064269 -2.1214325 14.926862
-1.386567 -2.9715245 15.788367
-1.6619686 -3.6255322 12.797291
-1.3456097 -2.9626236 7.7252555
-1.1989605 -2.6544559 5.4050555
-1.2705488 -2.8233771 4.6198487
-1.1083517 -2.4698408 3.3177736
-0.46106508 -0.78606904 15.598361
-0.78105432 -1.4571764 15.376673
-1.7257301 -3.721755 15.832079
-1.5215821 -3.3223119 9.9913139
-1.340408 -2.9483891 6.7605677
-1.2656583 -2.7955699 5.0896788
-1.1587338 -2.5677123 3.8049927
-1.0651909 -2.3659079 2.8910701
-1.0407445 -2.3322229 2.5895069
-0.99619061 -2.235507 2.0558054
-0.96989334 -2.1795413 1.6486813
-0.93996912 -2.1142662 1.2977272
-0.91491443 -2.0598307 0.99894488
-0.89712793 -2.0216703 0.74006504
-0.87599957 -1.9759064 0.50182498
-0.86108333 -1.9440738 0.28383151
-1.0194975 -2.2760561 2.302402
-0.97810143 -2.1866868 1.8277916
-0.95224017 -2.1308494 1.4571203
-0.93077493 -2.0857303 1.1432962
-0.9039889 -2.0275917 0.86178875
-0.8841089 -1.9848468 0.614779
-0.86805367 -1.949706 0.38988104
-0.85267645 -1.9169497 0.1783084
-0.17525518 -0.14328755 24.538338
-1.0141616 -2.1186073 14.931801
-1.3964974 -2.9657454 15.783473
-1.6533018 -3.5736485 12.635043
-1.3535004 -2.9525805 7.7114472
-1.2092128 -2.6524339 5.4094448
-1.2466456 -2.7446249 4.4999933
-1.1037407 -2.4367607 3.2793987
-0.46380615 -0.78445482 15.598361
-0.78283685 -1.448347 15.312043
-1.738711 -3.7157085 15.832079
-1.514343 -3.2762539 9.8693027
-1.3343487 -2.908078 6.6795464
-1.2428885 -2.7199726 4.9617009
-1.1514517 -2.5280039 3.7531223
-1.0622218 -2.3374844 2.8616688
-1.038626 -2.3058147 2.564975
-0.99600393 -2.2142675 2.040113
-0.96892846 -2.1570711 1.634974
-0.93827468 -2.0907648 1.2861332
-0.91451228 -2.0397036 0.99145275
-0.89633512 -2.0010149 0.73442489
-0.87486506 -1.9549017 0.49809453
-0.86176616 -1.9274176 0.28249028
-1.0166683 -2.2486684 2.2791235
-0.98073834 -2.1722074 1.818962
-0.95080942 -2.1078651 1.4444543
-0.92872941 -2.0617783 1.1328059
-0.90330905 -2.007199 0.85521472
-0.88106561 -1.9595829 0.60891736
-0.86876422 -1.9331135 0.38780904
-0.85117722 -1.8957312 0.17750227
-0.1758237 -0.14272781 24.548338
-1.0218887 -2.1157541 14.93674
-1.4068412 -2.9608526 15.783473
-1.641767 -3.5164597 12.453709
-1.3580558 -2.9354265 7.6792297
-1.218464 -2.6481967 5.4094448
-1.21869 -2.6584005 4.3677392
-1.1002451 -2.4066579 3.2448611
-0.46654162 -0.78283107 15.598361
-0.78558904 -1.4413947 15.2673
-1.7516706 -3.7096164 15.832079
-1.5068011 -3.2302876 9.7472906
-1.3289392 -2.8698211 6.6030254
-1.2469139 -2.7037759 4.940371
-1.1388717 -2.4774268 3.685292
-1.0590675 -2.3091106 2.8322675
-1.0363361 -2.2794504 2.5404434
-0.99407214 -2.1895127 2.0212824
-0.96609199 -2.1308262 1.6185251
-0.93642771 -2.0673013 1.2745391
-0.91398084 -2.0196049 0.98396063
-0.8934328 -1.9760189 0.72737467
-0.87561679 -1.9384058 0.49529666
-0.8602947 -1.9062413 0.28070197
-1.0136604 -2.2213285 2.2558451
-0.98161012 -2.1540585 1.8071893
-0.95101625 -2.08884 1.4343216
-0.92840677 -2.0419979 1.1244137
-0.90445095 -1.9911355 0.85028416
-0.88187432 -1.9432173 0.60540044
-0.86936951 -1.9165397 0.38573697
-0.85160261 -1.8790972 0.17689767
-0.17642526 -0.14219214 24.563337
-1.0286146 -2.1098993 14.921922
-1.4172435 -2.9547584 15.778579
-1.6406415 -3.4807146 12.348725
-1.3654981 -2.9233494 7.6608205
-1.2291712 -2.6458852 5.4138341
-1.213515 -2.620506 4.3140106
-1.0960385 -2.3733165 3.206486
-0.46968031 -0.78095192 15.598361
-0.78879595 -1.4335612 15.217585
-1.7666523 -3.7011118 15.827238
-1.5011798 -3.1833668 9.6252785
-1.3224863 -2.8247986 6.513001
-1.2549218 -2.6914384 4.9275737
-1.1365378 -2.4453094 3.6453915
-1.057718 -2.2798653 2.8028662
-1.0353621 -2.2563713 2.5194161
-0.9936012 -2.1683369 2.00559
-0.96482414 -2.1084299 1.6048177
-0.93662798 -2.0477417 1.2652639
-0.91366935 -1.9993755 0.9764685
-0.89269984 -1.9552761 0.72173458
-0.87693506 -1.9216226 0.49249882
-0.8614099 -1.8893303 0.27936071
-1.0116228 -2.1935077 2.2325666
-0.98686719 -2.1427581 1.801303
-0.9503836 -2.0654249 1.4216557
-0.92747319 -2.017473 1.1139234
-0.90524334 -1.9700068 0.84371012
-0.88223261 -1.9216813 0.60071111
-0.87152773 -1.899226 0.38366497
-0.85354728 -1.8617393 0.17629308
-0.1770687 -0.14139009 24.563337
-1.037491 -2.1038165 14.912045
-1.4301925 -2.9473805 15.773683
-1.636498 -3.4314675 12.200792
-1.3754101 -2.9100578 7.6424098
-1.2411652 -2.6402802 5.4138341
-1.2074816 -2.576751 4.2520161
-1.0932257 -2.3392811 3.1681111
-0.47321931 -0.77881259 15.598361
-0.79321784 -1.4262415 15.177813
-1.7845227 -3.6953211 15.836917
-1.496287 -3.1360285 9.5032663
-1.3194463 -2.7853239 6.4364805
-1.2660093 -2.6833572 4.9233074
-1.1296676 -2.4019535 3.5895314
-1.0579673 -2.2535608 2.7771401
-1.0365781 -2.2322428 2.4983885
-0.99360514 -2.1426194 1.9867593
-0.96559578 -2.0850585 1.5911106
-0.93660623 -2.0233705 1.25367
-0.91494882 -1.9783782 0.96897638
-0.89351487 -1.9337865 0.71609443
-0.88152677 -1.9087043 0.49063358
-0.86371505 -1.8718365 0.27801949
-1.0120914 -2.1685944 2.2126136
-0.99145776 -2.1272671 1.7924737
-0.95064747 -2.0415518 1.4089899
-0.92896074 -1.9967835 1.1055312
-0.90620881 -1.9487513 0.83713609
-0.88275176 -1.9000258 0.59602183
-0.87387973 -1.8817774 0.3815929
-0.8556788 -1.8442512 0.17568849
-0.17751859 -0.1410352 24.578337
-1.0401895 -2.0972807 14.882408
-1.4368762 -2.944128 15.773683
-1.6249634 -3.3890002 12.062406
-1.3781472 -2.9001124 7.6239991
-1.2477157 -2.6398401 5.4182229
-1.1927996 -2.5339038 4.1858892
-1.085047 -2.3112566 3.1335733
-0.47415558 -0.77790487 15.593369
-0.79286796 -1.4209447 15.133069
-1.7862955 -3.6874819 15.81272
-1.4802047 -3.0939867 9.3812542
-1.3148893 -2.7682095 6.4004707
-1.2665879 -2.6773152 4.9147758
-1.1266236 -2.3900642 3.5735712
-1.0494399 -2.2313473 2.7514141
-1.0314593 -2.2070875 2.4738569
-0.9885906 -2.1191955 1.9679285
-0.96149498 -2.063911 1.5774032
-0.93336463 -2.0053401 1.2443948
-0.91092891 -1.959802 0.96148425
-0.88914376 -1.9146643 0.71045434
-0.87898487 -1.8936416 0.48783568
-0.85860312 -1.8522534 0.27623117
-1.0040312 -2.1435106 2.1893351
-0.98035955 -2.0967622 1.7689284
-0.9440183 -2.0208607 1.3963239
-0.92372161 -1.9791967 1.097139
-0.90192419 -1.9351195 0.83220553
-0.87825382 -1.8860358 0.59250492
-0.8692525 -1.8675454 0.37952086
-0.85064852 -1.830062 0.17508389
-0.17783442 -0.14028494 24.553337
-1.0478518 -2.0943317 14.887347
-1.4471444 -2.9390945 15.773683
-1.6178623 -3.3427143 11.919246
-1.3870775 -2.8915193 7.6147947
-1.2563515 -2.6330879 5.4138341
-1.1904366 -2.5038915 4.1445599
-1.0815537 -2.2810085 3.099036
-0.47727448 -0.77599519 15.593369
-0.79594636 -1.4131078 15.083354
-1.7944525 -3.666734 15.754648
-1.4773736 -3.0551353 9.2827063
-1.31705 -2.7430537 6.3554587
-1.2777915 -2.6719863 4.9147758
-1.1227771 -2.3552063 3.5296807
-1.0489719 -2.205317 2.7256877
-1.0300298 -2.1841207 2.4528296
-0.98640013 -2.09443 1.9490979
-0.96015465 -2.0414541 1.5636958
-0.93128818 -1.9818596 1.2328007
-0.91056633 -1.9395039 0.95399201
-0.8903774 -1.8982069 0.7062242
-0.87966591 -1.8770633 0.48503786
-0.85937387 -1.8354129 0.27488995
-1.0046406 -2.1225891 2.1727076
-0.97876942 -2.0707114 1.7512692
-0.94327044 -1.9973987 1.3836579
-0.92391515 -1.959053 1.0887468
-0.90197086 -1.914238 0.8256315
-0.88200581 -1.8735453 0.59016031
-0.87074208 -1.8504455 0.37744883
-0.85224885 -1.8127694 0.17447931
-0.17821753 -0.13958587 24.538338
-1.0558565 -2.0920486 14.897226
-1.457395 -2.934025 15.773683
-1.6092138 -3.2954667 11.771315
-1.3818405 -2.8550072 7.531949
-1.2582622 -2.6135809 5.3831105
-1.1833456 -2.466738 4.0908318
-1.0756751 -2.2483063 3.0606608
-0.47998026 -0.77432448 15.593369
-0.79850233 -1.4061507 15.03861
-1.7966667 -3.6390336 15.662698
-1.4721372 -3.017391 9.1841583
-1.3114301 -2.707094 6.2834392
-1.2757761 -2.6440213 4.8721161
-1.1205415 -2.3295496 3.4977605
-1.0463947 -2.1802478 2.6999617
-1.02692 -2.1579704 2.4282978
-0.98368043 -2.0698812 1.9302671
-0.95831031 -2.0192022 1.5499885
-0.93060857 -1.9625866 1.2235255
-0.91137636 -1.9237452 0.94837296
-0.8887887 -1.877744 0.70058405
-0.87781245 -1.8562183 0.48130739
-0.85939306 -1.8188939 0.27354869
-1.0023885 -2.0988541 2.1527545
-0.97381079 -2.0417445 1.7306672
-0.94096446 -1.9746364 1.3709922
-0.92294663 -1.9394236 1.0803547
-0.9005363 -1.8940192 0.81905752
-0.88228321 -1.8572836 0.58664334
-0.86869955 -1.8295013 0.37468609
-0.85214722 -1.7962421 0.17387471
-0.17876944 -0.13852261 24.51334
-1.067868 -2.0876889 14.907104
-1.474164 -2.9279158 15.783473
-1.607718 -3.2462995 11.628155
-1.3960421 -2.8437378 7.5227442
-1.2654821 -2.5914483 5.3523865
-1.1827514 -2.4295204 4.0412364
-1.077406 -2.2190068 3.0299606
-0.48470137 -0.77137804 15.593369
-0.80545652 -1.397874 15.00381
-1.7930065 -3.5748672 15.435246
-1.4749708 -2.9756138 9.0856104
-1.3096479 -2.6595094 6.1934147
-1.2755947 -2.6006052 4.8081274
-1.1223239 -2.2951956 3.4578602
-1.0504211 -2.1519341 2.6742356
-1.0273595 -2.130079 2.4037659
-0.98472649 -2.0434906 1.9114364
-0.96015453 -1.9951489 1.5362811
-0.93353492 -1.9415537 1.2142503
-0.91407353 -1.9019119 0.94088084
-0.89303249 -1.8597779 0.69635403
-0.88211203 -1.837846 0.47850949
-0.86370909 -1.8002924 0.27220747
-1.0070421 -2.0758951 2.136127
-0.97569048 -2.0139322 1.7130083
-0.94395834 -1.9492863 1.3583262
-0.92754471 -1.9170815 1.0719625
-0.90658289 -1.8754102 0.81412703
-0.88612282 -1.8338856 0.58195406
-0.87435287 -1.810322 0.37261406
-0.85566592 -1.772404 0.17306858
-0.17921647 -0.13787222 24.508339
-1.07621 -2.0868981 14.926862
-1.4820212 -2.9193797 15.763891
-1.5972394 -3.1998312 11.480223
-1.3937043 -2.8165753 7.4629116
-1.2693859 -2.5788648 5.3348303
-1.1750828 -2.3956831 3.9916406
-1.0713078 -2.1898885 2.9954233
-0.48671916 -0.77010643 15.593369
-0.80672914 -1.3922135 14.964038
-1.7728524 -3.5132456 15.188435
-1.4660616 -2.9395719 8.9870615
-1.2915227 -2.6077623 6.0808845
-1.256106 -2.5462494 4.7142768
-1.1155596 -2.2683082 3.4219503
-1.0459642 -2.131469 2.6521845
-1.0254256 -2.10724 2.3827386
-0.98299056 -2.0227098 1.8957441
-0.95763642 -1.9731451 1.5225738
-0.93223673 -1.9225038 1.2049751
-0.91397995 -1.8865145 0.93526173
-0.8905105 -1.839692 0.69071388
-0.87900615 -1.8175317 0.47477901
-0.86223304 -1.7844214 0.27086622
-1.0042807 -2.0564761 2.1194994
-0.97210008 -1.9932064 1.6982924
-0.94116503 -1.9314734 1.3481935
-0.92394805 -1.8986483 1.0635703
-0.90257609 -1.8563609 0.80755287
-0.88359004 -1.8189094 0.57843715
-0.86949027 -1.7906681 0.36985135
-0.85252512 -1.7572732 0.172464
-0.17937732 -0.13701726 24.463341
-1.0834881 -2.0831287 14.926862
-1.4903462 -2.9105637 15.744311
-1.5922856 -3.16224 11.365696
-1.3904381 -2.7854743 7.3938732
-1.2634664 -2.5443878 5.2733836
-1.1684605 -2.3613019 3.9420452
-1.0690149 -2.1660161 2.9685607
-0.48940438 -0.76840276 15.593369
-0.80969971 -1.3861682 14.929237
-1.7565922 -3.4510276 14.946463
-1.4608008 -2.9036059 8.8932066
-1.2957525 -2.5935016 6.0583787
-1.2405831 -2.4928179 4.624692
-1.1100774 -2.2374079 3.38205
-1.0428686 -2.1065376 2.6264584
-1.0217727 -2.081239 2.358207
-0.9814772 -2.0017924 1.8800519
-0.95532352 -1.9510136 1.5088665
-0.92920804 -1.8993424 1.1933811
-0.91241598 -1.8666527 0.9277696
-0.88850617 -1.8193306 0.68507373
-0.87888271 -1.8012081 0.47198114
-0.86190975 -1.7679719 0.26952499
-1.0015516 -2.0328624 2.0995464
-0.96834445 -1.9680408 1.6806335
-0.94029379 -1.912702 1.3380609
-0.92456925 -1.8831896 1.057276
-0.8986522 -1.8320016 0.79933542
-0.88351649 -1.8027202 0.57492018
-0.86919969 -1.7742808 0.36777928
-0.85206491 -1.7408248 0.1718594
-0.17985451 -0.13639028 24.463341
-1.0889478 -2.0758939 14.902165
-1.4986275 -2.9017251 15.72473
-1.585061 -3.1207299 11.236853
-1.3887292 -2.7579203 7.3340406
-1.2573218 -2.5099838 5.2119365
-1.1616127 -2.3269963 3.8924499
-1.0665685 -2.1421866 2.9416981
-0.49208364 -0.76668978 15.593369
-0.81290865 -1.3805784 14.899408
-1.7462354 -3.4012663 14.757726
-1.4553069 -2.8677127 8.7993517
-1.2881403 -2.5559154 5.9818578
-1.2211921 -2.4325342 4.5223098
-1.105742 -2.2092683 3.3461397
-1.0411266 -2.084687 2.6044073
-1.019534 -2.0584853 2.3371794
-0.97982979 -1.9809101 1.8643595
-0.95286793 -1.9289223 1.4951591
-0.92798972 -1.880198 1.1841059
-0.91277504 -1.850983 0.92215055
-0.8884908 -1.8033085 0.68084365
-0.87648648 -1.7805007 0.46825066
-0.86148214 -1.7515463 0.26818374
-1.0003319 -2.0126364 2.0829191
-0.96622211 -1.9465461 1.6659176
-0.93930304 -1.8939604 1.3279281
-0.92509383 -1.8677497 1.0509819
-0.89666367 -1.8119245 0.79276139
-0.88334066 -1.7865539 0.57140321
-0.86661136 -1.7534782 0.36501658
-0.85371238 -1.7288809 0.17145634
-0.18054345 -0.13591251 24.49334
-1.0950968 -2.0700197 14.887347
-1.5073359 -2.8937674 15.710045
-1.5782467 -3.0806379 11.112781
-1.3833058 -2.7234452 7.2557979
-1.2606745 -2.4948916 5.189991
-1.1558056 -2.2952809 3.8469875
-1.0639689 -2.1184011 2.9148357
-0.49475688 -0.76496738 15.593369
-0.8160885 -1.3749833 14.869579
-1.7436455 -3.3672462 14.636741
-1.4495806 -2.8318939 8.7054968
-1.2852149 -2.5281167 5.9278436
-1.2214273 -2.4119699 4.4924479
-1.0985075 -2.175807 3.3022494
-1.039245 -2.0628746 2.5823565
-1.015555 -2.032583 2.3126478
-0.97804868 -1.9600639 1.8486671
-0.95400017 -1.9143573 1.4869348
-0.92862386 -1.8650512 1.1771495
-0.91303581 -1.8353335 0.91653144
-0.88837451 -1.7873092 0.67661357
-0.87614155 -1.7642316 0.46545282
-0.86316395 -1.7396065 0.26728958
-0.99730986 -1.9891063 2.0629661
-0.96577162 -1.9287049 1.654145
-0.94012189 -1.8791044 1.3203285
-0.92349344 -1.8482697 1.0425898
-0.8966552 -1.7961085 0.78783083
-0.88089329 -1.7660614 0.56671393
-0.86609805 -1.7371471 0.36294454
-0.85528696 -1.7169468 0.17105328
-0.18108827 -0.13533151 24.50334
-1.1023159 -2.0661845 14.887347
-1.5174279 -2.8884878 15.710045
-1.5711721 -3.0406318 10.988709
-1.3794407 -2.6925194 7.1867599
-1.2628496 -2.4776735 5.1636567
-1.1497914 -2.2636349 3.8015251
-1.0626651 -2.0975194 2.8918107
-0.4974241 -0.76323569 15.593369
-0.81951314 -1.3698399 14.844722
-1.725709 -3.3043187 14.38993
-1.4444135 -2.7976832 8.616334
-1.2821112 -2.5003705 5.8738289
-1.2144152 -2.3774984 4.4369907
-1.093788 -2.1477935 3.2663393
-1.0356878 -2.0380783 2.5566301
-1.0130129 -2.009918 2.2916205
-0.97788423 -1.9427314 1.8361133
-0.95316404 -1.8960719 1.475969
-0.9271751 -1.8459643 1.1678745
-0.91111928 -1.8155618 0.90903932
-0.89030766 -1.7756211 0.67379349
-0.87349343 -1.7435948 0.46172231
-0.86254388 -1.7232231 0.26594836
-0.99582094 -1.9689537 2.0463386
-0.96520829 -1.9108905 1.6423724
-0.94084871 -1.8642663 1.312729
-0.92381108 -1.8328764 1.0362955
-0.89442348 -1.7760975 0.78125679
-0.88049847 -1.7499498 0.56319702
-0.86325628 -1.7164171 0.36018181
-0.85454535 -1.7005588 0.17044869
-0.18166704 -0.13477325 24.518339
-1.1073122 -2.0582192 14.857712
-1.5270245 -2.8822739 15.70515
-1.5645278 -3.0020366 10.86941
-1.3744797 -2.6599185 7.1131196
-1.2649198 -2.4604704 5.1373219
-1.1435704 -2.232059 3.7560625
-1.0612285 -2.0766723 2.8687856
-0.49992633 -0.76125365 15.588378
-0.82263631 -1.3642333 14.814893
-1.7220007 -3.2693601 14.264104
-1.4390256 -2.7635438 8.5271711
-1.2758292 -2.4668756 5.8063102
-1.2071778 -2.3431063 4.3815341
-1.0806253 -2.1037583 3.2064888
-1.0335169 -2.0163493 2.5345793
-1.0103251 -1.987296 2.2705932
-0.97584862 -1.9219536 1.8204211
-0.95410317 -1.8815452 1.4677445
-0.92760664 -1.830862 1.160918
-0.91116959 -1.7999617 0.90342015
-0.89000487 -1.7596604 0.66956335
-0.87292755 -1.7273824 0.45892447
-0.85957551 -1.70242 0.26416004
-0.9925068 -1.9455101 2.0263855
-0.96453261 -1.893104 1.6305997
-0.94148326 -1.8494457 1.3051294
-0.92197573 -1.8134578 1.0279033
-0.89420182 -1.7603345 0.7763263
-0.87780207 -1.7295284 0.55850768
-0.86252099 -1.7001446 0.35810977
-0.85595864 -1.6886531 0.17004563
-0.18217233 -0.13416308 24.52334
-1.1167136 -2.0584385 14.887347
-1.5365964 -2.8760281 15.700254
-1.557633 -2.9635255 10.75011
-1.3711141 -2.6308503 7.0486841
-1.2746034 -2.4581664 5.1417112
-1.1384352 -2.2030547 3.7147334
-1.0596595 -2.0558615 2.8457606
-0.50258052 -0.75950396 15.588378
-0.82711625 -1.360898 14.809921
-1.7168902 -3.2322478 14.128601
-1.4342197 -2.7310042 8.4427013
-1.2773842 -2.4488966 5.7748022
-1.1997151 -2.3087938 4.326077
-1.0838035 -2.0919471 3.1945188
-1.031207 -1.9946606 2.5125282
-1.0074917 -1.9647174 2.2495661
-0.97545421 -1.904678 1.8078673
-0.95495278 -1.8670353 1.4595201
-0.92794418 -1.8157793 1.1539615
-0.90901399 -1.780255 0.89592803
-0.89178175 -1.7479968 0.66674334
-0.87225932 -1.7111955 0.4561266
-0.86099267 -1.690534 0.26326588
-0.99245805 -1.9287539 2.0130837
-0.96374446 -1.8753453 1.6188271
-0.94005686 -1.830809 1.2949967
-0.92001611 -1.7940748 1.0195111
-0.89388096 -1.7445945 0.77139574
-0.87718886 -1.7134739 0.55499077
-0.86168265 -1.6838984 0.35603774
-0.85502499 -1.6723102 0.16944103
-0.18271154 -0.13357565 24.533339
-1.1246382 -2.0558915 14.897226
-1.5461432 -2.8697505 15.695358
-1.5511882 -2.9264183 10.635583
-1.3657444 -2.5983796 6.9750438
-1.2820662 -2.4515796 5.1373219
-1.1331116 -2.1741133 3.6734035
-1.0579581 -2.0350866 2.8227355
-0.50522864 -0.75774497 15.588378
-0.82851642 -1.3525503 14.750263
-1.7050121 -3.1830239 13.939863
-1.430012 -2.700057 8.3629236
-1.2757884 -2.4251568 5.7297897
-1.1920278 -2.2745621 4.2706194
-1.0799347 -2.0667865 3.1625988
-1.0271909 -1.9700069 2.4868021
-1.0061516 -1.9453505 2.2320433
-0.97316474 -1.8839706 1.7921749
-0.95762986 -1.8562584 1.4540372
-0.92818785 -1.8007169 1.1470052
-0.90885484 -1.7647071 0.89030898
-0.89129299 -1.7320769 0.6625132
-0.87148875 -1.6950343 0.45332876
-0.86006176 -1.6742293 0.26192465
-0.99058449 -1.9087076 1.996456
-0.96284431 -1.8576158 1.6070545
-0.93851173 -1.8122047 1.2848641
-0.91793257 -1.7747277 1.0111189
-0.89346123 -1.7288784 0.76646519
-0.87424439 -1.6931262 0.55030149
-0.86301279 -1.6720793 0.3546564
-0.85398769 -1.6559947 0.16883643
-0.18328497 -0.13301061 24.548338
-1.1325586 -2.053314 14.907104
