# .PCD v0.7 - Point Cloud Data file format
VERSION 0.7
FIELDS x y z
SIZE 4 4 4
TYPE F F F
COUNT 1 1 1
WIDTH 1470
HEIGHT 1
VIEWPOINT 0 0 0 1 0 0 0
POINTS 1470
DATA ascii
-0.32286954 0.77244729 2.7236331
-0.43713066 1.035956 2.7085037
-0.25561708 0.60218549 1.2661541
-0.25727302 0.60380143 1.0365824
-0.29040876 0.67967063 0.961546
-0.13351481 0.43636465 7.7315073
-0.27597246 0.79491621 7.8050723
-0.26663849 0.64562577 2.726917
-0.37861785 0.90510559 2.7222192
-1.2721745 3.0186677 6.8370886
-0.2538698 0.59955484 1.1351579
-0.25907508 0.60982937 0.95212519
-0.31523588 0.74031484 0.95058334
-0.35217932 0.81956303 0.95638841
-0.41352856 0.96099561 0.92596096
-0.91590577 2.1255836 1.6020764
-0.89004123 2.0635927 1.2629452
-0.87129241 2.018203 0.9764685
-0.85452533 1.9774858 0.72314465
-0.8366037 1.9341704 0.49156618
-0.82103336 1.8963746 0.27846655
-0.38340434 0.89570051 0.94892353
-0.93098068 2.1720226 1.8042463
-0.89982647 2.0973318 1.426722
-0.8837043 2.0567987 1.1223158
-0.86399901 2.0090191 0.85028416
-0.84182972 1.9556066 0.60422808
-0.82655966 1.9192235 0.38366497
-0.80878872 1.8761765 0.17609155
0.00053124281 0.083227679 8.1139641
-0.45793492 1.1490569 7.8637228
-0.6224249 1.5335629 7.9804807
-0.32017124 0.77356958 2.7236331
-0.43351182 1.0374756 2.7085037
-0.2525858 0.60086614 1.261765
-0.25407013 0.60210294 1.0324494
-0.2880345 0.68068022 0.961546
-0.13248564 0.43848798 7.7614574
-0.27319601 0.79587466 7.8050723
-0.26390785 0.6453889 2.7220774
-0.37545612 0.90642166 2.7222192
-1.2934867 3.0994334 7.0081344
-0.25076729 0.59803206 1.1308919
-0.25694481 0.61072999 0.95212519
-0.31264979 0.74141073 0.95058334
-0.34931636 0.82078737 0.95638841
-0.41017157 0.96243322 0.92596096
-0.91668648 2.1479969 1.6157837
-0.89153308 2.0870554 1.2745391
-0.87335509 2.0425451 0.98583359
-0.85705459 2.002507 0.73019475
-0.8375845 1.9551404 0.49529666
-0.8202967 1.9129599 0.27980781
-0.38027543 0.89703333 0.94892353
-0.9328692 2.1975832 1.8219053
-0.90092868 2.1202977 1.439388
-0.88362724 2.0765755 1.130708
-0.86623299 2.0337455 0.85850173
-0.84262305 1.976418 0.60891736
-0.82762671 1.9403169 0.38642767
-0.81008154 1.897367 0.17689767
0.0007806209 0.082790934 8.0639658
-0.45278153 1.1477568 7.8439655
-0.61706799 1.5357262 7.9804807
-0.31746903 0.77468252 2.7236331
-0.43063444 1.0407879 2.7131064
-0.25048685 0.60174417 1.261765
-0.25196683 0.60298616 1.0324494
-0.28565672 0.68168145 0.961546
-0.13209537 0.44282502 7.8313408
-0.2704162 0.79682344 7.8050723
-0.26165342 0.64630622 2.7220774
-0.37228984 0.90772676 2.7222192
-0.2410107 0.58294702 1.3681135
-0.24867822 0.59890378 1.1308919
-0.25481138 0.61162317 0.95212519
-0.31005988 0.7424975 0.95058334
-0.34644914 0.8220017 0.95638841
-0.40832287 0.96744519 0.92909944
-0.91732192 2.1704419 1.629491
-0.89287186 2.1105537 1.2861332
-0.87345064 2.0626571 0.99332571
-0.85754746 2.0231533 0.7358349
-0.83842903 1.9761405 0.49902713
-0.82140076 1.9341466 0.28159612
-0.37714186 0.89835536 0.94892353
-0.93459052 2.2231832 1.8395641
-0.9018814 2.1432965 1.4520538
-0.88518518 2.100559 1.1411982
-0.86646956 2.0541606 0.86507577
-0.84328133 1.9972588 0.61360663
-0.82662958 1.9568794 0.38849968
-0.80929047 1.9139875 0.17750227
0.00106108 0.082700863 8.0539665
-0.44764286 1.1464348 7.8242087
-0.61170352 1.5378709 7.9804807
-0.31476292 0.77578592 2.7236331
-0.42699876 1.0422848 2.7131064
-0.24838485 0.60261482 1.261765
-0.2498605 0.60386199 1.0324494
-0.28327546 0.68267447 0.961546
-0.12942122 0.43940219 7.7614574
-0.26763314 0.79776251 7.8050723
-0.25939578 0.6472156 2.7220774
-0.36847004 0.90742177 2.7175262
-0.24309584 0.59385896 1.3906196
-0.24658616 0.5997681 1.1308919
-0.25267485 0.61250889 0.95212519
-0.30746618 0.74357533 0.95058334
-0.34357771 0.82320601 0.95638841
-0.40494338 0.96886462 0.92909944
-0.91781163 2.1929169 1.6431984
-0.89234567 2.1300006 1.2954084
-0.87520909 2.0870697 1.0026909
-0.85790658 2.0438271 0.74147499
-0.83723426 1.9926414 0.50182498
-0.82043612 1.9507735 0.28293735
-0.37400374 0.89966631 0.94892353
-0.93614441 2.2488215 1.857223
-0.90434253 2.1703067 1.467253
-0.88658649 2.1245785 1.1516885
-0.86657405 2.0746019 0.8716498
-0.84567934 2.0226126 0.61946821
-0.82743788 1.9780267 0.39126241
-0.80839312 1.9306256 0.17810686
0.0013144175 0.082349382 8.0139675
-0.44251901 1.1450911 7.8044519
-0.60633165 1.5399966 7.9804807
-0.31205302 0.77687997 2.7236331
-0.4233579 1.043769 2.7131064
-0.24627982 0.60347819 1.261765
-0.24668467 0.60212642 1.0283164
-0.28089076 0.68365908 0.961546
-0.12756833 0.4387413 7.7414908
-0.2650139 0.79919809 7.8100438
-0.257135 0.64811718 2.7220774
-0.3653003 0.90870243 2.7175262
-0.24592495 0.60681021 1.4176269
-0.24350819 0.59820956 1.126626
-0.25053528 0.61338717 0.95212519
-0.30486873 0.74464405 0.95058334
-0.34070209 0.82440037 0.95638841
-0.40304717 0.97386879 0.93223786
-0.91975635 2.2192845 1.6596472
-0.89339197 2.1535611 1.3070024
-0.87502986 2.1072381 1.0101831
-0.85813183 2.064528 0.74711519
-0.83782142 2.0136933 0.50555545
-0.82128 1.9720143 0.28472567
-0.37086102 0.90096635 0.94892353
-0.93753064 2.2744977 1.874882
-0.90662587 2.19736 1.482452
-0.88609749 2.1444387 1.1600807
-0.86654633 2.0950689 0.87822384
-0.8460511 2.0435159 0.62415749
-0.82810855 1.9992036 0.39402512
-0.80738956 1.9472806 0.17871146
0.0016155677 0.08247447 8.0289679
-0.43713263 1.1429996 7.7797551
-0.60095233 1.5421039 7.9804807
-0.30933931 0.77796447 2.7236331
-0.41971189 1.0452404 2.7131064
-0.24327499 0.60211349 1.257376
-0.24458134 0.60298383 1.0283164
-0.27850264 0.6846354 0.961546
-0.12556443 0.4375172 7.7115407
-0.26222256 0.80011827 7.8100438
-0.2548711 0.64901078 2.7220774
-0.36212614 0.90997207 2.7175262
-0.2438053 0.60766494 1.4176269
-0.24141857 0.59905589 1.126626
-0.24839263 0.61425799 0.95212519
-0.30226758 0.7457037 0.95058334
-0.33647197 0.82228392 0.95288384
-0.40112102 0.97887152 0.93537635
-0.91994059 2.2418234 1.6733544
-0.89596754 2.181252 1.3209151
-0.87648332 2.1317182 1.0195483
-0.86004853 2.0896914 0.75416535
-0.83827174 2.0347733 0.50928593
-0.82008696 1.9886808 0.28606692
-0.36771381 0.90225542 0.94892353
-0.93874884 2.3002107 1.8925409
-0.90710104 2.2204645 1.4951179
-0.88719916 2.1685216 1.170571
-0.86638612 2.1155605 0.88479787
-0.84628713 2.0644464 0.62884676
-0.82864147 2.0204091 0.39678788
-0.80817676 1.9685737 0.17951758
0.0019081674 0.082511701 8.033968
-0.43396443 1.1466988 7.7945728
-0.59593195 1.5451422 7.9853759
-0.30662182 0.7790395 2.7236331
-0.41606078 1.046699 2.7131064
-0.24117175 0.60295898 1.257376
-0.24247506 0.60383391 1.0283164
-0.27611113 0.68560344 0.961546
-0.12512334 0.44184563 7.781424
-0.25942802 0.80102873 7.8100438
-0.25305903 0.65106821 2.726917
-0.35894752 0.91123056 2.7175262
-0.24168266 0.60851228 1.4176269
-0.239326 0.59989494 1.126626
-0.24624695 0.6151213 0.95212519
-0.29966277 0.74675429 0.95058334
-0.33359963 0.82345343 0.95288384
-0.39770171 0.9802658 0.93537635
-0.92155254 2.2682645 1.6898032
-0.89669186 2.2048836 1.332509
-0.87602848 2.1519399 1.0270404
-0.8599897 2.1104503 0.75980544
-0.8385849 2.0558805 0.5130164
-0.82066995 2.0099733 0.28785524
-0.36456212 0.90353346 0.94892353
-0.93979883 2.3259597 1.9102001
-0.91065842 2.2515917 1.5128502
-0.88643956 2.1884317 1.1789632
-0.86786759 2.1404526 0.89301538
-0.84455943 2.0808995 0.63236368
-0.82903612 2.041642 0.39955059
-0.80882508 1.9898956 0.18032371
0.0021961755 0.082504541 8.033968
-0.42968687 1.1474789 7.7896342
-0.59053475 1.547213 7.9853759
-0.3039006 0.78010511 2.7236331
-0.41311961 1.0499631 2.7177088
-0.23906556 0.60379714 1.257376
-0.24036582 0.6046766 1.0283164
-0.27371624 0.68656307 0.961546
-0.12473021 0.44645458 7.8562989
-0.25663033 0.80192941 7.8100438
-0.25078484 0.65194762 2.726917
-0.35576454 0.91247797 2.7175262
-0.2395571 0.60935217 1.4176269
-0.23627298 0.59830076 1.1223601
-0.24409828 0.61597711 0.95212519
-0.29705426 0.74779576 0.95058334
-0.33072323 0.82461292 0.95288384
-0.39572805 0.98525995 0.93851483
-0.9229911 2.2947443 1.706252
-0.89726204 2.2285466 1.3441031
-0.87717581 2.1764836 1.0364054
-0.85979629 2.1312342 0.76544559
-0.83876085 2.0770149 0.51674694
-0.82111412 2.0312939 0.28964353
-0.36140597 0.90480053 0.94892353
-0.94218153 2.3554966 1.9308021
-0.91240704 2.2787688 1.5280492
-0.88724077 2.2125747 1.1894534
-0.86742693 2.1609986 0.89958948
-0.84453928 2.1018755 0.63705301
-0.82744557 2.0583074 0.40162262
-0.80933428 2.0112457 0.18112983
0.0024942022 0.082583062 8.0439672
-0.42567879 1.1489719 7.7896342
-0.58513033 1.5492648 7.9853759
-0.30117568 0.78116119 2.7236331
-0.40945205 1.0513988 2.7177088
-0.23695646 0.60462797 1.257376
-0.23722367 0.60289323 1.0241835
-0.27131799 0.68751431 0.961546
-0.12271687 0.44521573 7.8263493
-0.25382951 0.80282032 7.8100438
-0.24850759 0.65281904 2.726917
-0.35257727 0.91371423 2.7175262
-0.23742861 0.61018467 1.4176269
-0.23418307 0.59912187 1.1223601
-0.24194664 0.6168254 0.95212519
-0.29444218 0.74882811 0.95058334
-0.32784277 0.82576233 0.95288384
-0.39228642 0.98663533 0.93851483
-0.92580259 2.3251457 1.7254423
-0.8993178 2.256355 1.3580159
-0.87816256 2.201062 1.0457706
-0.86124736 2.156497 0.77249575
-0.83879948 2.098175 0.52047741
-0.82141942 2.0526416 0.29143184
-0.3582454 0.90605658 0.94892353
-0.94288135 2.38132 1.9484611
-0.91397703 2.305985 1.5432483
-0.88620973 2.2325318 1.1978456
-0.86859685 2.1859553 0.90780699
-0.84438294 2.1228766 0.64174229
-0.82757974 2.0795877 0.40438533
-0.80970418 2.0326238 0.18193595
0.0027876291 0.082617171 8.0489674
-0.42166552 1.1504508 7.7896342
-0.57971889 1.5512979 7.9853759
-0.29897887 0.78360248 2.728405
-0.40577951 1.0528216 2.7177088
-0.23484448 0.60545141 1.257376
-0.23511773 0.60371763 1.0241835
-0.26891649 0.68845719 0.961546
-0.12101259 0.44508365 7.8163657
-0.25102562 0.80370146 7.8100438
-0.24622732 0.65368253 2.726917
-0.34938565 0.9149394 2.7175262
-0.23451528 0.60897809 1.4131256
-0.23209031 0.59993565 1.1223601
-0.23979203 0.61766618 0.95212519
-0.29182649 0.74985135 0.95058334
-0.32626244 0.83022088 0.95638841
-0.38884005 0.9879986 0.93851483
-0.92687964 2.3517044 1.7418911
-0.90119028 2.284205 1.3719287
-0.87898833 2.2256732 1.0551358
-0.86076885 2.1773345 0.7781359
-0.83870059 2.1193609 0.52420789
-0.8215856 2.0740161 0.29322016
-0.35508052 0.90730155 0.94892353
-0.9448871 2.4109402 1.9690633
-0.91536796 2.3332396 1.5584474
-0.88670987 2.2567325 1.2083359
-0.8696031 2.2109466 0.91602457
-0.84587061 2.1484246 0.64760381
-0.82757539 2.1008937 0.40714806
-0.80993456 2.0540283 0.18274207
0.0030919756 0.082736857 8.0639658
-0.41764715 1.1519157 7.7896342
-0.57430029 1.5533119 7.9853759
-0.29624176 0.78464139 2.728405
-0.40210199 1.0542316 2.7177088
-0.23187172 0.60403144 1.2529869
-0.23300894 0.60453469 1.0241835
-0.26651168 0.68939173 0.961546
-0.11945824 0.44550332 7.8163657
-0.24821864 0.80457282 7.8100438
-0.24350548 0.65336007 2.7220774
-0.34618977 0.91615343 2.7175262
-0.23161329 0.60775864 1.4086244
-0.22999473 0.60074216 1.1223601
-0.23763451 0.61849946 0.95212519
-0.28920725 0.75086546 0.95058334
-0.32336244 0.83135468 0.95638841
-0.38538891 0.9893499 0.93851483
-0.92930228 2.3821945 1.7610815
-0.90287912 2.3120947 1.3858415
-0.87965268 2.2503166 1.064501
-0.86190343 2.2026625 0.78518611
-0.84025538 2.1451449 0.528871
-0.82343042 2.1000531 0.29545557
-0.35191128 0.90853548 0.94892353
-0.94523567 2.4368343 1.9867221
-0.91501927 2.356513 1.5711133
-0.88705158 2.2809637 1.2188261
-0.87044525 2.2359707 0.92424208
-0.84542549 2.1694798 0.65229309
-0.82563347 2.1176112 0.4092201
-0.81184185 2.0801132 0.18374974
0.0033807619 0.082725562 8.0639658
-0.41362366 1.1533666 7.7896342
-0.56887472 1.5553073 7.9853759
-0.29350105 0.78567064 2.728405
-0.39841959 1.0556288 2.7177088
-0.22976185 0.60483712 1.2529869
-0.22989479 0.6027149 1.0200505
-0.26410362 0.69031781 0.961546
-0.11848456 0.44815257 7.8562989
-0.24525397 0.80492425 7.8050723
-0.24122334 0.65420604 2.7220774
-0.34298968 0.91735625 2.7175262
-0.22949043 0.60856336 1.4086244
-0.22789635 0.60154134 1.1223601
-0.23547409 0.61932522 0.95212519
-0.28658447 0.75187039 0.95058334
-0.3204585 0.83247834 0.95638841
-0.38193306 0.99068916 0.93851483
-0.93152308 2.4127297 1.7802718
-0.90438426 2.3400242 1.3997543
-0.878483 2.270668 1.0719931
-0.86113894 2.223551 0.7908262
-0.83986461 2.1663854 0.53260148
-0.82330161 2.121485 0.29724389
-0.35007396 0.91324484 0.95224905
-0.94686347 2.4665339 2.0073245
-0.91606551 2.3838365 1.5863123
-0.88723493 2.3052244 1.2293164
-0.87112331 2.2610281 0.93245965
-0.84834152 2.1996279 0.65932697
-0.82536745 2.1389606 0.41198283
-0.81177652 2.1015759 0.18455586
0.0036920155 0.082886331 8.0839653
-0.40985462 1.1555356 7.7945728
-0.56344223 1.5572835 7.9853759
-0.29075673 0.78669035 2.728405
-0.39404914 1.0551828 2.7131064
-0.22764918 0.60563546 1.2529869
-0.22778952 0.60351372 1.0200505
-0.26169237 0.69123548 0.961546
-0.1169195 0.44856343 7.8562989
-0.24244274 0.80577546 7.8050723
-0.23893826 0.65504408 2.7220774
-0.33978543 0.91854793 2.7175262
-0.22660413 0.60732096 1.4041232
-0.22579519 0.60233319 1.1223601
-0.2333108 0.62014335 0.95212519
-0.2839582 0.75286615 0.95058334
-0.31755066 0.83359188 0.95638841
-0.3784726 0.99201632 0.93851483
-0.93354183 2.4433088 1.7994618
-0.90570527 2.3679922 1.4136672
-0.8804971 2.2996974 1.0832313
-0.86195588 2.24894 0.79787636
-0.84109533 2.1922352 0.53726459
-0.82481849 2.1475904 0.29947928
-0.34688404 0.91446126 0.95224905
-0.94829524 2.496274 2.0279264
-0.91539979 2.407166 1.5989783
-0.88887489 2.3337553 1.2419046
-0.87163687 2.2861168 0.94067723
-0.84932411 2.2252815 0.66518861
-0.82496238 2.1603334 0.41474554
-0.81157118 2.1230631 0.18536198
0.0039813211 0.082872935 8.0839653
-0.40581855 1.1569592 7.7945728
-0.55800283 1.5592408 7.9853759
-0.2880089 0.78770053 2.728405
-0.39036343 1.0565519 2.7131064
-0.22553372 0.60642642 1.2529869
-0.22568148 0.60430515 1.0200505
-0.25927791 0.69214481 0.961546
-0.11450318 0.44561037 7.7963991
-0.23947746 0.80610567 7.8001013
-0.23665027 0.65587413 2.7220774
-0.33657703 0.9197284 2.7175262
-0.2244828 0.60810828 1.4041232
-0.22278476 0.6006723 1.1180942
-0.2311447 0.62095404 0.95212519
-0.28132847 0.75385278 0.95058334
-0.31463894 0.83469522 0.95638841
-0.37500751 0.99333137 0.93851483
-0.93535846 2.4739313 1.8186522
-0.90527385 2.3918543 1.4252611
-0.88067663 2.3244328 1.0925965
-0.86090487 2.2698762 0.80351645
-0.84215575 2.2181199 0.54192764
-0.82439405 2.1690772 0.30126759
-0.34368983 0.91566652 0.95224905
-0.94953102 2.5260539 2.0485287
-0.91458231 2.4305201 1.6116441
-0.8903265 2.3623252 1.254493
-0.87198573 2.3112364 0.94889468
-0.85013783 2.2509685 0.67105019
-0.8261686 2.186362 0.41819894
-0.81299323 2.1492469 0.18636963
-0.40177754 1.1583687 7.7945728
-0.55255669 1.561179 7.9853759
-0.28525758 0.78870106 2.728405
-0.386673 1.0579081 2.7131064
-0.22258893 0.60496211 1.2485977
-0.22357067 0.60508925 1.0200505
-0.25686029 0.69304562 0.961546
-0.11252797 0.44432667 7.7664495
-0.23666216 0.80693668 7.8001013
-0.2343594 0.6566962 2.7220774
-0.33336455 0.92089766 2.7175262
-0.22235875 0.60888821 1.4041232
-0.22068667 0.60144633 1.1180942
-0.22897574 0.62175709 0.95212519
-0.27869534 0.75483018 0.95058334
-0.31172341 0.83578843 0.95638841
-0.37153786 0.99463433 0.93851483
-0.93550742 2.5006795 1.835101
-0.90624034 2.4198904 1.4391739
-0.88232142 2.3535385 1.1038347
-0.86140352 2.2953236 0.81056666
-0.84304565 2.2440383 0.54659075
-0.82382941 2.1905866 0.30305591
-0.34049147 0.91686064 0.95224905
-0.95197904 2.5596611 2.0720737
-0.91361284 2.4538972 1.62431
-0.89158922 2.3909335 1.2670813
-0.87216991 2.3363862 0.95711231
-0.85078251 2.2766876 0.67691177
-0.82546872 2.2077863 0.42096168
-0.812491 2.1707876 0.18717575
-0.39773163 1.1597642 7.7945728
-0.54710382 1.5630984 7.9853759
-0.28250277 0.78969198 2.728405
-0.38297787 1.0592514 2.7131064
-0.22047585 0.60573542 1.2485977
-0.22049148 0.60322291 1.0159175
-0.25443953 0.69393802 0.961546
-0.11049426 0.44275424 7.7315073
-0.23369645 0.80724567 7.7951293
-0.23206568 0.65751028 2.7220774
-0.33014795 0.92205572 2.7175262
-0.22023198 0.60966063 1.4041232
-0.21858588 0.60221297 1.1180942
-0.22680402 0.62255257 0.95212519
-0.27605876 0.75579846 0.95058334
-0.30880404 0.8368715 0.95638841
-0.36806369 0.99592513 0.93851483
-0.93693238 2.5313802 1.8542913
-0.90548295 2.4438083 1.450768
-0.88377357 2.3826835 1.1150728
-0.86173499 2.320802 0.81761682
-0.84547621 2.2745943 0.55218649
-0.82312459 2.2121181 0.30484423
-0.33728898 0.91804361 0.95224905
-0.95280826 2.5895224 2.0926759
-0.91547096 2.4853871 1.6420423
-0.89423394 2.4238374 1.2817677
-0.87218881 2.3615646 0.96532977
-0.85125786 2.3024387 0.68277335
-0.82634729 2.2338767 0.42441505
-0.81358302 2.1970356 0.18818341
0.0049112379 0.083258562 8.1339636
-0.39368087 1.1611454 7.7945728
-0.54164422 1.5649986 7.9853759
-0.27974451 0.79067332 2.728405
-0.37927806 1.0605818 2.7131064
-0.2183601 0.60650134 1.2485977
-0.2183845 0.60398889 1.0159175
-0.25201571 0.69482189 0.961546
-0.10826926 0.44033125 7.681591
-0.23087721 0.80805647 7.7951293
-0.22976913 0.65831631 2.7220774
-0.32692739 0.92320257 2.7175262
-0.21810253 0.61042565 1.4041232
-0.21648245 0.60297233 1.1180942
-0.22462954 0.62334043 0.95212519
-0.27341887 0.75675744 0.95058334
-0.30588093 0.83794433 0.95638841
-0.36458501 0.99720389 0.93851483
-0.93815416 2.5621207 1.8734815
-0.90609413 2.4719095 1.4646807
-0.88503295 2.4118667 1.1263111
-0.86024493 2.3418076 0.82325697
-0.84600824 2.3005838 0.5568496
-0.82227939 2.2336714 0.30663255
-0.33408237 0.91921538 0.95224905
-0.95344043 2.6194201 2.1132779
-0.9200719 2.5250206 1.6648409
-0.89510369 2.4525249 1.294356
-0.87204266 2.3867722 0.97354734
-0.85156363 2.3282206 0.68863493
-0.8287555 2.2646501 0.42855912
-0.81278324 2.2186263 0.18898953
0.0052018352 0.083240911 8.1339636
-0.38962531 1.1625125 7.7945728
-0.53617805 1.5668797 7.9853759
-0.27698284 0.79164499 2.728405
-0.37557364 1.0618993 2.7131064
-0.21624169 0.60725987 1.2485977
-0.21627487 0.60474747 1.0159175
-0.24850672 0.6926803 0.95770848
-0.10746749 0.44379568 7.7364993
-0.22819914 0.8093707 7.8001013
-0.22746979 0.65911436 2.7220774
-0.32370281 0.92433804 2.7175262
-0.21597041 0.61118329 1.4041232
-0.21437636 0.6037243 1.1180942
-0.2224523 0.62412077 0.95212519
-0.27191621 0.76089978 0.9542585
-0.30295411 0.83900696 0.95638841
-0.3611019 0.99847049 0.93851483
-0.93917269 2.5929003 1.8926718
-0.90803003 2.5042088 1.4809123
-0.88609922 2.4410877 1.1375493
-0.86025685 2.3673389 0.83030707
-0.84636879 2.3266044 0.56151271
-0.82299775 2.2599247 0.30886793
-0.33087167 0.92037594 0.95224905
-0.95524466 2.6531565 2.1368234
-0.9229455 2.5606604 1.6851063
-0.89732504 2.4855165 1.3090423
-0.87333596 2.4164476 0.98340839
-0.85169983 2.3540323 0.69449651
-0.82927334 2.2908113 0.43201256
-0.81354457 2.2449353 0.18999718
0.00546624 0.083049685 8.1139641
-0.38532096 1.1631279 7.7896342
-0.5303793 1.5677774 7.9804807
-0.27421778 0.79260701 2.728405
-0.37186462 1.0632038 2.7131064
-0.2133255 0.60575187 1.2442087
-0.21416259 0.60549879 1.0159175
-0.2460873 0.69354355 0.95770848
-0.10585178 0.44388703 7.7315073
-0.2255147 0.81067604 7.8050723
-0.22597864 0.6622839 2.7317562
-0.3204743 0.92546237 2.7175262
-0.21383566 0.61193347 1.4041232
-0.21140394 0.60200804 1.1138282
-0.22027235 0.62489349 0.95212519
-0.2692585 0.76184428 0.9542585
-0.30002359 0.84005928 0.95638841
-0.35761437 0.99972486 0.93851483
-0.9399876 2.6237178 1.911862
-0.9097513 2.5365512 1.4971439
-0.88853872 2.4747086 1.1506605
-0.8617236 2.3974133 0.83876729
-0.84655809 2.3526554 0.56617582
-0.82354277 2.2862101 0.31110334
-0.32765692 0.92152524 0.95224905
-0.95818061 2.6907449 2.1633117
-0.9255814 2.5963507 1.7053717
-0.89932674 2.518553 1.3237287
-0.87443262 2.4461613 0.99326944
-0.85166597 2.379873 0.70035815
-0.82961845 2.3170033 0.43546596
-0.81413203 2.271276 0.19100484
0.0057561039 0.08303009 8.1139641
-0.38125855 1.1644659 7.7896342
-0.52490348 1.5696192 7.9804807
-0.27144942 0.79355937 2.728405
-0.36751273 1.0626489 2.7085037
-0.21120974 0.60649282 1.2442087
-0.21111901 0.60358626 1.0117847
-0.24366489 0.69439828 0.95770848
-0.10404191 0.44312865 7.7115407
-0.22268352 0.81145829 7.8050723
-0.22446814 0.66545105 2.7414351
-0.31724188 0.92657542 2.7175262
-0.21098778 0.61061841 1.399622
-0.20930125 0.60274231 1.1138282
-0.21808971 0.62565857 0.95212519
-0.26659754 0.76277953 0.9542585
-0.2970894 0.84110153 0.95638841
-0.3554205 1.0046365 0.94165331
-0.94199532 2.658514 1.9337938
-0.91273856 2.5731108 1.5156943
-0.88920289 2.5040069 1.1618987
-0.86299062 2.4275262 0.84722745
-0.84657574 2.3787355 0.57083887
-0.82558554 2.3172176 0.31378582
-0.32443821 0.92266333 0.95224905
-0.95952308 2.7245734 2.186857
-0.92797929 2.6320903 1.7256372
-0.90110868 2.5516338 1.3384151
-0.87690639 2.4803638 1.0047741
-0.85308373 2.4103241 0.70739204
-0.83144379 2.3478932 0.43961003
-0.81621474 2.3023565 0.19221403
0.0059775654 0.082578555 8.0639658
-0.37719148 1.1657896 7.7896342
-0.51846319 1.5685415 7.9657955
-0.26867771 0.79450208 2.728405
-0.36443305 1.065774 2.7131064
-0.2090914 0.60722637 1.2442087
-0.20901079 0.60431951 1.0117847
-0.2412395 0.69524467 0.95770848
-0.10211072 0.44180003 7.681591
-0.21998823 0.81274539 7.8100438
-0.22412981 0.67219335 2.7656324
-0.31400561 0.92767715 2.7175262
-0.20885505 0.61135119 1.399622
-0.20719601 0.60346925 1.1138282
-0.21688595 0.62926495 0.95611519
-0.26504037 0.76690978 0.95793366
-0.29415157 0.8421334 0.95638841
-0.35191151 1.0058712 0.94165331
-0.94377136 2.6933556 1.9557256
-0.91401535 2.6055417 1.5319259
-0.89120924 2.537714 1.17501
-0.8640579 2.4576771 0.85568774
-0.84642154 2.4048443 0.57550198
-0.8257668 2.34357 0.3160212
-0.32121551 0.92379028 0.95224905
-0.96197027 2.7622607 2.2133455
-0.93013865 2.6678774 1.7459027
-0.90117413 2.580472 1.3510034
-0.87915182 2.5146127 1.0162785
-0.85429913 2.4408135 0.71442592
-0.83142656 2.3741498 0.44306341
-0.81643748 2.3287647 0.19322167
0.0063076853 0.082815602 8.0939655
-0.3731198 1.1670991 7.7896342
-0.51235282 1.5684059 7.9560046
-0.26590273 0.79543507 2.728405
-0.36008516 1.0651886 2.7085037
-0.2069705 0.60795254 1.2442087
-0.20690006 0.60504538 1.0117847
-0.23881117 0.69608247 0.95770848
-0.10245722 0.45060593 7.8313408
-0.2171499 0.81350833 7.8100438
-0.22335409 0.67774743 2.7849901
-0.31076548 0.92876756 2.7175262
-0.20671976 0.61207652 1.399622
-0.20508824 0.60418886 1.1138282
-0.21468808 0.63001817 0.95611519
-0.26236176 0.76783025 0.95793366
-0.29237422 0.84652597 0.95989293
-0.34839821 1.0070934 0.94165331
-0.94531548 2.7282414 1.9776572
-0.91507667 2.6380129 1.5481576
-0.89147019 2.5670857 1.1862482
-0.86807555 2.4969268 0.86696798
-0.84609532 2.4309809 0.58016509
-0.82577395 2.3699515 0.31825659
-0.31798893 0.9249059 0.95224905
-0.96548182 2.8038197 2.2427771
-0.93205947 2.7037115 1.7661681
-0.90401185 2.6179216 1.3677878
-0.87962586 2.5444446 1.0261397
-0.85531199 2.4713407 0.72145987
-0.83285666 2.4051142 0.44720748
-0.8164857 2.3552022 0.19422933
0.0065895924 0.082750037 8.0889654
-0.36904359 1.1683944 7.7896342
-0.50562447 1.5663086 7.9364243
-0.26312456 0.79635841 2.728405
-0.35760266 1.0701451 2.7177088
-0.2048471 0.60867131 1.2442087
-0.20478681 0.60576391 1.0117847
-0.23637994 0.69691181 0.95770848
-0.10088368 0.45096081 7.8313408
-0.2141739 0.81374574 7.8050723
-0.22293115 0.68449944 2.8091869
-0.30752158 0.9298467 2.7175262
-0.20458195 0.61279434 1.399622
-0.20214874 0.60242838 1.1095623
-0.21248761 0.63076377 0.95611519
-0.25967991 0.76874137 0.95793366
-0.28941751 0.84754139 0.95989293
-0.34488067 1.0083034 0.94165331
-0.94798255 2.7671263 2.0023305
-0.91592222 2.6705225 1.5643891
-0.89304239 2.6008747 1.1993594
-0.87027013 2.5316975 0.87683815
-0.84719515 2.4617887 0.58576083
-0.82560706 2.3963616 0.320492
-0.31475848 0.92601019 0.95224905
-0.96741205 2.84161 2.2692657
-0.93374127 2.7395911 1.7864335
-0.90513259 2.6511271 1.3824742
-0.88142955 2.5787778 1.0376441
-0.85612202 2.5019042 0.72849375
-0.8324765 2.4314322 0.45066091
-0.8163591 2.3816679 0.19523698
0.0068856874 0.08276955 8.0939655
-0.36519402 1.1704173 7.7945728
-0.4995355 1.5661237 7.9266338
-0.26080608 0.79869103 2.7331769
-0.3520276 1.0658214 2.7039013
-0.20196562 0.60710996 1.2398196
-0.20267104 0.60647506 1.0117847
-0.23394582 0.69773275 0.95770848
-0.099308923 0.45131025 7.8313408
-0.21133208 0.81448835 7.8050723
-0.22207913 0.6900602 2.8285449
-0.30480978 0.9325549 2.7222192
-0.20244165 0.61350477 1.399622
-0.20004463 0.60313034 1.1095623
-0.21028453 0.63150162 0.95611519
-0.25699493 0.76964319 0.95793366
-0.28645727 0.8485465 0.95989293
-0.34135896 1.0095011 0.94165331
-0.95038944 2.8060627 2.0270035
-0.91797453 2.7072654 1.5829396
-0.89438933 2.6347051 1.2124707
-0.87223238 2.5665133 0.88670844
-0.84809011 2.4926338 0.59135652
-0.82526553 2.4227989 0.32272738
-0.31152418 0.92710334 0.95224905
-0.97037953 2.8832784 2.2986972
-0.93518376 2.7755151 1.8066989
-0.9060325 2.6843719 1.3971606
-0.88300413 2.6131549 1.0491488
-0.85828668 2.5371077 0.7367
-0.83351034 2.4624674 0.45480499
-0.81445426 2.4034295 0.1960431
0.0071671321 0.082702018 8.0889654
-0.36133495 1.1724277 7.7995124
-0.49314809 1.5649443 7.9119477
-0.25801656 0.79959655 2.7331769
-0.35072893 1.0744728 2.7223115
-0.19984517 0.60781127 1.2398196
-0.19967064 0.60450673 1.0076517
-0.23251688 0.70158768 0.961546
-0.097732946 0.45165414 7.8313408
-0.2084877 0.81522107 7.8050723
-0.22119097 0.69562316 2.8479025
-0.30155271 0.93361318 2.7222192
-0.20029889 0.61420768 1.399622
-0.1979381 0.60382497 1.1095623
-0.20807889 0.63223177 0.95611519
-0.25430679 0.77053559 0.95793366
-0.28349355 0.84954131 0.95989293
-0.33783308 1.0106865 0.94165331
-0.95386344 2.8490143 2.0544181
-0.91978115 2.7440543 1.60149
-0.89551091 2.6685767 1.2255819
-0.87243444 2.5968261 0.8951686
-0.8487801 2.5235147 0.59695226
-0.82633889 2.4539826 0.32540986
-0.30946282 0.93172866 0.95557451
-0.9717918 2.9211664 2.3251858
-0.9363867 2.8114822 1.8269643
-0.90671104 2.7176549 1.4118469
-0.88285321 2.6430945 1.0590098
-0.85867417 2.5677464 0.74373388
-0.83433747 2.4935386 0.45894906
-0.81399411 2.429944 0.19705077
0.0074557713 0.0826765 8.0889654
-0.35724017 1.1736817 7.7995124
-0.48677513 1.5637394 7.8972621
-0.25567698 0.80191469 2.7379491
-0.34877467 1.0812687 2.7361188
-0.1977223 0.60850519 1.2398196
-0.1975593 0.60519999 1.0076517
-0.23006646 0.70239508 0.961546
-0.09403047 0.44181925 7.6516409
-0.20564078 0.8159439 7.8050723
-0.22026664 0.70118827 2.8672602
-0.29881632 0.93630415 2.7269118
-0.19815369 0.61490309 1.399622
-0.19502583 0.60203099 1.1052964
-0.20587072 0.6329543 0.95611519
-0.25161561 0.77141857 0.95793366
-0.28052637 0.85052568 0.95989293
-0.33430305 1.0118597 0.94165331
-0.95573545 2.8880541 2.0790915
-0.92134202 2.7808883 1.6200403
-0.89640665 2.7024875 1.238693
-0.87394714 2.6317241 0.90503883
-0.85081428 2.5590918 0.60348064
-0.82720429 2.4852026 0.32809234
-0.30620858 0.93280315 0.95557451
-0.97421372 2.9629388 2.3546171
-0.9386977 2.8515859 1.8497629
-0.9085896 2.7552853 1.4286313
-0.88398445 2.6775494 1.0705144
-0.86038351 2.6030333 0.75194007
-0.83495784 2.5246456 0.46309313
-0.81335884 2.4564843 0.19805843
0.0077443216 0.082649969 8.0889654
-0.3533645 1.1756659 7.8044519
-0.48041654 1.5625092 7.8825765
-0.25287622 0.80280226 2.7379491
-1.0079739 3.1636181 7.881741
-0.19559701 0.60919166 1.2398196
-0.19544555 0.60588592 1.0076517
-0.2286 0.70624346 0.96538347
-0.20279135 0.81665677 7.8050723
-0.21893403 0.70555472 2.8817785
-0.29606482 0.93898743 2.7316046
-0.195346 0.61351657 1.3951207
-0.19292316 0.6027081 1.1052964
-0.20366004 0.63366908 0.95611519
-0.24892132 0.77229214 0.95793366
-0.27755579 0.85149974 0.95989293
-0.33076897 1.0130204 0.94165331
-0.95864612 2.9311154 2.1065061
-0.92403531 2.8219764 1.6409096
-0.89707667 2.7364371 1.2518044
-0.87373078 2.6621058 0.91349906
-0.85261035 2.5947134 0.61000896
-0.82630545 2.5117276 0.33032772
-0.30295062 0.93386632 0.95557451
-0.97510666 3.0009189 2.3811057
-0.94074005 2.8917391 1.8725616
-0.91021639 2.7929616 1.4454159
-0.88488549 2.712043 1.082019
-0.861857 2.6383636 0.76014632
-0.83537102 2.5557871 0.46723723
-0.81254804 2.4830492 0.19906607
0.0080327764 0.082622431 8.0889654
-0.34925851 1.1768922 7.8044519
-0.4743681 1.562228 7.8727856
-0.25361755 0.81508338 2.776125
-0.34063107 1.0818138 2.7315164
-0.19274558 0.6075877 1.2354306
-0.19332942 0.60656446 1.0076517
-0.22613335 0.70703709 0.96538347
-0.0912861 0.44416294 7.681591
-0.19993946 0.81735963 7.8050723
-0.21757364 0.70992047 2.8962967
-0.29329821 0.94166279 2.7362974
-0.19320324 0.61419469 1.3951207
-0.19081813 0.60337788 1.1052964
-0.20144689 0.63437611 0.95611519
-0.246224 0.77315634 0.95793366
-0.27458179 0.85246336 0.95989293
-0.32723081 1.0141687 0.94165331
-0.95998174 2.9702532 2.1311793
-0.9264527 2.8631165 1.6617787
-0.89752036 2.7704234 1.2649156
-0.87479287 2.6970806 0.92336923
-0.85265088 2.6257064 0.61560464
-0.82831091 2.5477483 0.33345729
-0.29968899 0.93491817 0.95557451
-0.97698176 3.0427895 2.4105372
-0.94251317 2.931941 1.8953601
-0.91159093 2.8306818 1.4622003
-0.88700569 2.7510703 1.095167
-0.86309415 2.6737351 0.76835257
-0.83557689 2.5869613 0.47138131
-0.81309879 2.5143919 0.20027526
0.0083130989 0.082550995 8.0839653
-0.34514827 1.1781042 7.8044519
-0.46803525 1.5609481 7.8581004
-0.33917275 1.0904585 2.7499266
-0.19062354 0.60825676 1.2354306
-0.19121094 0.60723561 1.0076517
-0.22462939 0.71087855 0.969221
-0.19708511 0.81805259 7.8050723
-0.2165491 0.71548831 2.9156544
-0.2910237 0.94597989 2.745683
-0.19041257 0.61278635 1.3906196
-0.18871079 0.60404027 1.1052964
-0.19923128 0.63507539 0.95611519
-0.24352367 0.77401114 0.95793366
-0.27160445 0.85341662 0.95989293
-0.32368875 1.0153048 0.94165331
-0.9623276 3.0134184 2.1585939
-0.92859411 2.9043078 1.6826479
-0.89773762 2.8044462 1.2780267
-0.87562126 2.7320952 0.93323952
-0.85398614 2.6614084 0.62213302
-0.82855165 2.5790722 0.33613977
-0.29642367 0.93595856 0.95557451
-0.97735411 3.0808563 2.4370258
-0.94532204 2.9762988 1.920692
-0.91271311 2.8684459 1.4789846
-0.88743067 2.7856457 1.1066716
-0.86557168 2.7137778 0.77773106
-0.83557516 2.6181684 0.47552541
-0.81344044 2.545768 0.20148444
0.0086012045 0.082521476 8.0839653
-0.34103382 1.1793017 7.8044519
-0.46171713 1.5596434 7.8434148
-0.2760781 0.90968448 3.0863039
-0.95930612 3.1235747 7.757473
-0.18849915 0.60891849 1.2354306
-0.18909013 0.60789937 1.0076517
-0.22214659 0.7116583 0.969221
-0.19422838 0.81873554 7.8050723
-0.21728599 0.72708005 2.9592094
-0.28922394 0.9519437 2.7597613
-0.18827239 0.61344731 1.3906196
-0.18660116 0.60469532 1.1052964
-0.19701324 0.63576698 0.95611519
-0.24082038 0.77485651 0.95793366
-0.26862383 0.85435951 0.95989293
-0.32014269 1.0164286 0.94165331
-0.96438372 3.0566361 2.1860087
-0.93045908 2.9455483 1.7035172
-0.89912593 2.8429236 1.293011
-0.87766391 2.7717214 0.94451976
-0.85508239 2.6971509 0.62866133
-0.82858372 2.6104281 0.33882225
-0.29315478 0.93698758 0.95557451
-0.97868109 3.1228194 2.4664571
-0.94783241 3.0207114 1.9460238
-0.91494364 2.9105811 1.4978671
-0.88904244 2.8247609 1.1198196
-0.86631918 2.7492342 0.78593731
-0.8368547 2.654129 0.48036015
-0.813573 2.5771773 0.20269364
0.0088308752 0.082191139 8.0489674
-0.3367022 1.1797378 7.7995124
-0.4551284 1.5573359 7.8238339
-0.275042 0.91779244 3.1101637
-0.94442832 3.1138172 7.7252555
-0.18637249 0.60957277 1.2354306
-0.18696702 0.60855573 1.0076517
-0.21966107 0.7124294 0.969221
-0.19136928 0.81940854 7.8050723
-0.21368071 0.72421694 2.9446909
-0.28738609 0.95790642 2.7738397
-0.18612991 0.61410075 1.3906196
-0.18448924 0.60534298 1.1052964
-0.19479281 0.63645083 0.95611519
-0.23811416 0.77569234 0.95793366
-0.2656399 0.85529196 0.95989293
-0.31774893 1.0212564 0.94479173
-0.96614969 3.0999048 2.2134233
-0.93204725 2.9868367 1.7243863
-0.90025663 2.8814452 1.3079953
-0.87944049 2.8113945 0.9558
-0.85593939 2.7329333 0.63518965
-0.82840681 2.6418154 0.34150469
-0.2898823 0.93800515 0.95557451
-0.9809224 3.1686907 2.4988322
-0.95132029 3.0692947 1.9738886
-0.91554517 2.9484322 1.5146515
-0.89039201 2.8639214 1.1329677
-0.86682963 2.7847283 0.7941435
-0.83789331 2.6901302 0.48519492
-0.81498331 2.6133873 0.20410435
0.0092449598 0.082801826 8.1239643
-0.33258209 1.1809058 7.7995124
-0.44884342 1.55598 7.8091478
-0.51179218 1.7303833 5.8158784
-0.93019074 3.105866 7.6976404
-0.18424354 0.6102196 1.2354306
-0.18484163 0.60920465 1.0076517
-0.21717291 0.71319181 0.969221
-0.18862657 0.82059121 7.8100438
-0.28551006 0.96386784 2.7879179
-0.18398517 0.61474675 1.3906196
-0.18237506 0.60598332 1.1052964
-0.19256999 0.63712686 0.95611519
-0.23540504 0.77651882 0.95793366
-0.26265278 0.85621405 0.95989293
-0.31418213 1.0223594 0.94479173
-0.96885538 3.147218 2.2435794
-0.93466306 3.0324047 1.7475743
-0.90112919 2.9200082 1.3229796
-0.88095057 2.8511133 0.9670803
-0.85655689 2.7687545 0.64171803
-0.8294943 2.6779902 0.34463426
-0.28660628 0.93901134 0.95557451
-0.98285508 3.2146146 2.5312068
-0.9532187 3.113817 1.9992205
-0.91722405 2.9906614 1.5335339
-0.89147878 2.903125 1.1461158
-0.86853111 2.8249052 0.80352205
-0.8386907 2.7261708 0.49002969
-0.81615072 2.6496382 0.20551507
0.0096893078 0.08353892 8.2139606
-0.32825014 1.1813108 7.7945728
-0.44257349 1.5545993 7.7944622
-0.50616705 1.7335923 5.8206506
-0.91878974 3.1072204 7.693038
-0.18211237 0.61085904 1.2354306
-0.18190674 0.60715038 1.0035187
-0.21468207 0.71394557 0.969221
-0.18576102 0.8212446 7.8100438
-0.57354718 1.9966698 8.0357656
-0.28359598 0.96982771 2.8019962
-0.18122171 0.61329734 1.3861184
-0.1795162 0.60411608 1.1010305
-0.19034483 0.63779521 0.95611519
-0.23269305 0.77733576 0.95793366
-0.25966242 0.85712564 0.95989293
-0.31061152 1.0234499 0.94479173
-0.97002614 3.1905873 2.2709942
-0.93568212 3.0737894 1.7684435
-0.90309483 2.9630466 1.3398368
-0.88219398 2.8908768 0.97836059
-0.85549921 2.7999146 0.64731371
-0.82888234 2.7094421 0.34731674
-0.28332675 0.94000608 0.95557451
-0.98447889 3.2605903 2.5635815
-0.95481759 3.1583891 2.0245523
-0.91993487 3.037282 1.5545145
-0.89230263 2.9423711 1.159264
-0.86855036 2.8604765 0.8117283
-0.84068614 2.7669876 0.4955551
-0.81562066 2.6811488 0.20672426
0.0099808536 0.083504587 8.2139606
-0.3241246 1.1824495 7.7945728
-0.43631867 1.5531937 7.7797766
-0.50011265 1.7353485 5.8206506
-0.90793788 3.1104088 7.693038
-0.17997895 0.61149096 1.2354306
-0.17978628 0.60778165 1.0035187
-0.21218863 0.71469057 0.969221
-0.18277812 0.82136762 7.8050723
-0.5658887 1.996241 8.0260868
-0.28164372 0.97578597 2.8160744
-0.17907982 0.61392623 1.3861184
-0.17740636 0.60473901 1.1010305
-0.18811734 0.63845575 0.95611519
-0.22997823 0.77814335 0.95793366
-0.25666893 0.85802686 0.95989293
-0.30703712 1.0245279 0.94479173
-0.97210807 3.2380075 2.3011503
-0.93897378 3.123702 1.7939503
-0.90477079 3.006134 1.3566941
-0.88455433 2.9352758 0.99105084
-0.85565329 2.8358037 0.65384209
-0.83094114 2.7504561 0.35089338
-0.28004381 0.94098938 0.95557451
-0.98694843 3.3104894 2.5988996
-0.95611686 3.2030098 2.0498841
-0.92233121 3.083957 1.575495
-0.89421773 2.986181 1.1740555
-0.87112361 2.9053936 0.82227916
-0.84240657 2.8078506 0.50108057
-0.81488061 2.712688 0.20793344
0.010040092 0.082358792 8.0839653
-0.31999511 1.1835736 7.7945728
-0.43035084 1.5527447 7.7699862
-0.49405208 1.7370837 5.8206506
-0.89707506 3.113559 7.693038
-0.17717555 0.60981548 1.2310414
-0.17766362 0.60840553 1.0035187
-0.20969261 0.71542692 0.969221
-0.081559993 0.45279968 7.7963991
-0.1799099 0.82200056 7.8050723
-0.55722487 1.9921515 8.0018892
-0.27918082 0.98008263 2.82546
-0.17693572 0.61454761 1.3861184
-0.17529434 0.60535461 1.1010305
-0.18588758 0.63910848 0.95611519
-0.22726059 0.77894139 0.95793366
-0.25468218 0.86233783 0.9633975
-0.30345899 1.0255934 0.94479173
-0.97505891 3.2894893 2.3340478
-0.94066793 3.1694279 1.8171383
-0.9074775 3.0537126 1.3754244
-0.88661546 2.9797263 1.0037411
-0.84995693 2.8528965 0.65663993
-0.83130014 2.7867453 0.35402292
-0.27675745 0.94196111 0.95557451
-0.98908126 3.3604448 2.6342175
-0.95589751 3.2435429 2.0726826
-0.92569786 3.1350377 1.5985737
-0.89449894 3.0255115 1.1872035
-0.87201399 2.9457026 0.83165771
-0.84244555 2.8440111 0.50591534
-0.81535083 2.7490439 0.20934415
0.010363836 0.082493968 8.1039648
-0.31606165 1.1854343 7.7995124
-0.42519647 1.5552197 7.7748814
-0.48798555 1.7387977 5.8206506
-0.8862012 3.1166716 7.693038
-0.17504582 0.61043018 1.2310414
-0.17553882 0.60902196 1.0035187
-0.20719403 0.71615452 0.969221
-0.080028065 0.4533661 7.8013906
-0.17703949 0.82262355 7.8050723
-0.54792804 1.9856024 7.9680138
-0.27809137 0.98935801 2.8489239
-0.17478946 0.61516148 1.3861184
-0.17318019 0.60596275 1.1010305
-0.18365553 0.63975346 0.95611519
-0.2245402 0.7797299 0.95793366
-0.25167051 0.86322159 0.9633975
-0.29987714 1.0266465 0.94479173
-0.9764877 3.3370175 2.3642039
-0.94205403 3.215203 1.8403263
-0.90986282 3.1013463 1.3941548
-0.88702494 3.0196238 1.0150214
-0.85662669 2.9123979 0.66783142
-0.83282256 2.8278468 0.35759956
-0.27346772 0.94292146 0.95557451
-0.99087733 3.4104552 2.6695354
-0.95661074 3.2882516 2.0980146
-0.92744905 3.1818221 1.6195542
-0.89583933 3.0694132 1.2019951
-0.87263346 2.9860523 0.8410362
-0.84224206 2.8802056 0.51075006
-0.81557691 2.7854357 0.21075487
0.010577905 0.082116112 8.0639658
-0.31192178 1.1865304 7.7995124
-0.41976514 1.5566944 7.7748814
-0.48191303 1.7404903 5.8206506
-0.87531662 3.119746 7.693038
-0.17291397 0.61103749 1.2310414
-0.17341186 0.609631 1.0035187
-0.20469292 0.71687335 0.969221
-0.077867299 0.4502269 7.7414908
-0.1741669 0.82323653 7.8050723
-0.53967369 1.9826512 7.9486556
-0.27694058 0.99863768 2.8723876
-0.17205384 0.6136716 1.3816172
-0.17106393 0.60656363 1.1010305
-0.18142125 0.64039063 0.95611519
-0.22274357 0.78377008 0.96160883
-0.24865577 0.86409479 0.9633975
-0.29629165 1.027687 0.94479173
-0.97875655 3.3886125 2.3971014
-0.9443627 3.2652817 1.8658332
-0.91192657 3.1490331 1.4128852
-0.88983834 3.0687745 1.0291218
-0.86152136 2.9672618 0.67809021
-0.83267796 2.8642108 0.36072913
-0.27017462 0.94387031 0.95557451
-0.99345028 3.4644039 2.7077966
-0.95583385 3.3288615 2.1208131
-0.93013936 3.2330174 1.6426327
-0.89688402 3.1133604 1.2167867
-0.87163466 3.0217717 0.84924245
-0.84454268 2.9259486 0.51696622
-0.81694597 2.8266616 0.21236712
0.010864479 0.082078688 8.0639658
-0.30797282 1.1883641 7.8044519
-0.41432872 1.5581503 7.7748814
-0.47544152 1.7407219 5.8158784
-0.86442131 3.1227822 7.693038
-0.17077999 0.61163735 1.2310414
-0.17052275 0.6075232 0.99938583
-0.20218931 0.71758354 0.969221
-0.07714396 0.45562264 7.8313408
-0.17129222 0.82383949 7.8050723
-0.5307951 1.977239 7.9196196
-0.27572832 1.0079211 2.8958514
-0.16991067 0.61426842 1.3816172
-0.16894558 0.60715705 1.1010305
-0.17918478 0.64102 0.95611519
-0.22000635 0.7845428 0.96160883
-0.24661201 0.86838818 0.96690202
-0.29270256 1.028715 0.94479173
-0.98067707 3.4402633 2.4299991
-0.94633293 3.3154144 1.8913399
-0.91366822 3.1967716 1.4316155
-0.89099932 3.1133692 1.0418121
-0.86604339 3.0221953 0.68834901
-0.83366287 2.9053943 0.36430573
-0.26687825 0.94480759 0.95557451
-0.99675894 3.5223002 2.7490005
-0.9571352 3.3778002 2.1486781
-0.93124402 3.2799044 1.6636133
-0.8976326 3.1573517 1.2315784
-0.87305856 3.0668697 0.85979331
-0.83839411 2.9431667 0.51903826
-0.81803697 2.8679309 0.21397936
0.011179497 0.082168005 8.0789652
-0.30382279 1.1894319 7.8044519
-0.40914527 1.5605719 7.7797766
-0.46936232 1.742371 5.8158784
-0.85351551 3.1257806 7.693038
-0.16864395 0.61222976 1.2310414
-0.16840106 0.60811472 0.99938583
-0.19968325 0.71828496 0.969221
-0.075229973 0.45389429 7.7963991
-0.16841544 0.82443237 7.8050723
-0.52131796 1.9693584 7.8809042
-0.27580234 1.0222068 2.9333935
-0.16833805 0.61695808 1.3861184
-0.16682519 0.60774308 1.1010305
-0.1769461 0.64164162 0.95611519
-0.21726644 0.78530598 0.96160883
-0.24357928 0.86924374 0.96690202
-0.28910986 1.0297304 0.94479173
-0.98338097 3.4959936 2.4656382
-0.94796449 3.3656006 1.9168466
-0.91634595 3.249022 1.4522189
-0.89185989 3.1580091 1.0545024
-0.86885554 3.0724688 0.69767523
-0.83437037 2.9466193 0.36788237
-0.26357862 0.94573343 0.95557451
-1.0007625 3.5841551 2.7931483
-0.96274936 3.4433949 2.1866758
-0.93203247 3.3268378 1.6845938
-0.89425862 3.1877458 1.2414393
-0.86629122 3.0839372 0.86331028
-0.84687579 3.0128176 0.52870774
-0.81884968 2.9092412 0.21559161
0.011543643 0.082468852 8.1189642
-0.29966903 1.1904852 7.8044519
-0.40369534 1.5619906 7.7797766
-0.46327749 1.7439986 5.8158784
-0.84259927 3.128741 7.693038
-0.16587831 0.61050344 1.2266524
-0.16627732 0.60869884 0.99938583
-0.19717476 0.71897757 0.969221
-0.074232221 0.45786092 7.8612905
-0.16553661 0.82501531 7.8050723
-0.51190227 1.961436 7.8421888
-0.27267596 1.0248312 2.9380865
-0.16618343 0.61754191 1.3861184
-0.16470276 0.60832167 1.1010305
-0.17470528 0.64225537 0.95611519
-0.21452388 0.78605962 0.96160883
-0.24054356 0.8700887 0.96690202
-0.2855137 1.0307333 0.94479173
-0.98570758 3.551784 2.5012772
-0.95044321 3.4201062 1.9446723
-0.91866994 3.3013291 1.4728222
-0.89370698 3.2073131 1.0686027
-0.8713271 3.1227982 0.70700145
-0.83480012 2.9878843 0.37145901
-0.26126543 0.950248 0.95890003
-1.0064929 3.6538734 2.8431821
-0.96677071 3.5049131 2.2221403
-0.93129539 3.3694413 1.7034762
-0.90579796 3.2727673 1.2710226
-0.87629116 3.1618874 0.88206732
-0.8495878 3.0634751 0.53561455
-0.82072055 2.9554057 0.21740538
0.011919847 0.082810678 8.1639624
-0.29551163 1.191524 7.8044519
-0.39824054 1.5633903 7.7797766
-0.45680892 1.7441612 5.8111067
-0.83167285 3.1316631 7.693038
-0.16374622 0.61107868 1.2266524
-0.16341989 0.60655832 0.99525285
-0.19466384 0.71966147 0.969221
-0.16265576 0.82558811 7.8050723
-0.50223529 1.9522547 7.7986341
-0.26997221 1.0291152 2.9474719
-0.16458473 0.62022251 1.3906196
-0.16257831 0.60889292 1.1010305
-0.17246233 0.64286131 0.95611519
-0.2117787 0.78680366 0.96160883
-0.23750491 0.87092304 0.96690202
-0.281914 1.0317236 0.94479173
-0.98876053 3.611666 2.5396578
-0.95372391 3.4789412 1.9748167
-0.91941255 3.3492215 1.4915526
-0.896492 3.2612936 1.084113
-0.87215418 3.1684458 0.71539503
-0.8362751 3.0339887 0.37548271
-0.25794688 0.95115417 0.95890003
-1.0106885 3.7197742 2.8902726
-0.97037423 3.5665009 2.2576048
-0.93027216 3.41208 1.7223587
-0.90929234 3.3305745 1.2907445
-0.87806642 3.2118127 0.89379048
-0.85326302 3.118964 0.54321206
-0.82227916 3.0016184 0.21921916
0.012208837 0.082768559 8.1639624
-0.29153481 1.1933031 7.809391
-0.39278087 1.5647709 7.7797766
-0.4507179 1.7457451 5.8111067
-0.82073623 3.1345472 7.693038
-0.16161217 0.61164659 1.2266524
-0.16130163 0.60712504 0.99525285
-0.19132477 0.71723956 0.96538347
-0.07103397 0.458368 7.8612905
-0.15977293 0.82615083 7.8050723
-0.49263865 1.9430298 7.7550788
-0.26681003 1.0317221 2.9521646
-0.16131757 0.6165809 1.3816172
-0.16045187 0.60945672 1.1010305
-0.17021726 0.64345938 0.95611519
-0.20903096 0.78753811 0.96160883
-0.23446338 0.87174678 0.96690202
-0.27831089 1.0327015 0.94479173
-0.99140716 3.6716108 2.5780382
-0.95660514 3.5378406 2.004961
-0.92104334 3.4016328 1.5121559
-0.89765573 3.3107023 1.0982133
-0.87395996 3.2188768 0.72472119
-0.83743817 3.0801389 0.37950641
-0.25462514 0.95204878 0.95890003
-1.0154825 3.7896521 2.9403062
-0.97467631 3.632319 2.2956023
-0.93839031 3.489815 1.7580256
-0.91362172 3.3930054 1.3121102
-0.88076907 3.2664814 0.90668601
-0.8539809 3.164953 0.54942816
-0.8222217 3.0430541 0.22083141
0.012436964 0.082470782 8.1339636
-0.28736761 1.1943135 7.809391
-0.38731638 1.5661324 7.7797766
-0.44462135 1.7473077 5.8111067
-0.8097896 3.137393 7.693038
-0.15947615 0.612207 1.2266524
-0.15918137 0.60768437 0.99525285
-0.18881999 0.71790302 0.96538347
-0.15688814 0.82670349 7.8050723
-0.48585322 1.9447376 7.7550788
-0.26363298 1.0343194 2.9568574
-0.15753467 0.610816 1.3681135
-0.1583235 0.61001307 1.1010305
-0.16797014 0.64404958 0.95611519
-0.20628066 0.78826296 0.96160883
-0.231419 0.87255991 0.96690202
-0.27470443 1.0336666 0.94479173
-0.9947232 3.7356594 2.6191604
-0.95908678 3.5968018 2.0351055
-0.92112339 3.4496171 1.5308862
-0.89848518 3.3601577 1.1123136
-0.87288308 3.2598689 0.73218215
-0.83957893 3.131144 0.38397723
-0.25034842 0.94932139 0.95557451
-1.0208333 3.8635156 2.993283
-0.97632545 3.6898754 2.3285336
-0.94132417 3.5500994 1.7853003
-0.91510272 3.4463782 1.3301889
-0.88185161 3.31651 0.91840917
-0.85566133 3.2157705 0.55633497
-0.82188481 3.0845258 0.22244366
0.012724765 0.082426861 8.1339636
-0.28319693 1.1953094 7.809391
-0.38184723 1.5674748 7.7797766
-0.43851939 1.7488492 5.8111067
-0.79883313 3.1402004 7.693038
-0.15733817 0.61275989 1.2266524
-0.15705918 0.60823631 0.99525285
-0.18631287 0.71855778 0.96538347
-0.067914598 0.45942423 7.871274
-0.15400146 0.82724607 7.8050723
-0.47906184 1.9464216 7.7550788
-0.26002091 1.0352334 2.9568574
-0.81504697 3.2087212 6.9091077
-0.15554726 0.60803527 1.0967644
-0.16572097 0.64463204 0.95611519
-0.20352787 0.78897822 0.96160883
-0.22746982 0.86991209 0.9633975
-0.27109456 1.0346192 0.94479173
-0.9965421 3.7957299 2.6575408
-0.96116823 3.6558223 2.0652499
-0.92442042 3.5110924 1.5552356
-0.89775723 3.405021 1.1250039
-0.87153059 3.3008919 0.73964316
-0.84010059 3.1773863 0.38800094
-0.24703315 0.95018947 0.95557451
-1.0246614 3.9335506 3.0433166
-0.97867256 3.7516582 2.3639984
-0.94499612 3.6148372 1.8146731
-0.9162218 3.4998019 1.3482674
-0.88259548 3.3665855 0.93013233
-0.85699731 3.2666376 0.56324178
-0.82380742 3.1356959 0.22445898
0.01297075 0.082212456 8.1139641
-0.27919903 1.1970474 7.8143306
-0.37637338 1.5687982 7.7797766
-0.43241212 1.7503692 5.8111067
-0.78786689 3.1429698 7.693038
-0.15519828 0.61330539 1.2266524
-0.15493509 0.60878086 0.99525285
-0.18459682 0.72230929 0.969221
-0.066913165 0.46394673 7.9461489
-0.1511129 0.82777864 7.8050723
-0.47226465 1.9480821 7.7550788
-0.25640571 1.0361347 2.9568574
-0.80225605 3.2052112 6.8956041
-0.15342388 0.60857457 1.0967644
-0.16420946 0.64812762 0.96010524
-0.20077257 0.78968388 0.96160883
-0.22443189 0.87070078 0.9633975
-0.26748142 1.0355592 0.94479173
-0.99481076 3.843714 2.6876969
-0.96396035 3.7191887 2.097713
-0.92613477 3.5681448 1.5777119
-0.89552003 3.445276 1.1362842
-0.8686648 3.3371909 0.74617147
-0.84156567 3.2284887 0.39247173
-0.24371488 0.95104605 0.95557451
-1.0290183 4.0075736 3.0962937
-0.97952658 3.8093266 2.3969297
-0.9470951 3.6752484 1.8419477
-0.91579908 3.5487027 1.3647026
-0.88664889 3.430824 0.94537246
-0.85922819 3.3223464 0.57083923
-0.81911951 3.1627338 0.22546662
0.013257646 0.082166687 8.1139641
-0.27501887 1.1980147 7.8143306
-0.37089497 1.5701025 7.7797766
-0.42629954 1.7518679 5.8111067
-0.77689105 3.1457009 7.693038
-0.1530565 0.61384344 1.2266524
-0.1528091 0.60931796 0.99525285
-0.18207437 0.72294921 0.969221
-0.06529329 0.46417746 7.9461489
-0.14812928 0.82777619 7.8001013
-0.4654617 1.9497187 7.7550788
-0.25278735 1.0370234 2.9568574
-0.78585166 3.1868558 6.8505921
-0.15129861 0.60910636 1.0967644
-0.16194607 0.64869684 0.96010524
-0.19801484 0.79037988 0.96160883
-0.22139119 0.87147892 0.9633975
-0.26482511 1.0402586 0.94793022
-1.0051584 3.940352 2.7507505
-0.96412909 3.774035 2.1255388
-0.9286108 3.6297426 1.6020615
-0.88825053 3.466969 1.1419244
-0.87532252 3.4115748 0.7601608
-0.84268421 3.2796397 0.39694253
-0.24039362 0.95189095 0.95557451
-1.0338621 4.0855932 3.1522136
-0.97787172 3.8586884 2.4247947
-0.94878352 3.7357173 1.8692224
-0.91620994 3.6022186 1.3827811
-0.88786495 3.4857109 0.95826799
-0.86108059 3.3781106 0.57843673
-0.82660979 3.2381847 0.22848959
0.01354438 0.082119904 8.1139641
-0.27083534 1.1989673 7.8143306
-0.36541203 1.5713875 7.7797766
-0.42018178 1.7533453 5.8111067
-0.7659058 3.1483934 7.693038
-0.15034197 0.61204797 1.2222633
-0.15068126 0.60984766 0.99525285
-0.17954969 0.72358036 0.969221
-0.062794439 0.45782098 7.8313408
-0.14523891 0.82828826 7.8001013
-0.45894054 1.9525553 7.7599182
-0.24876335 1.0362214 2.9521646
-0.76958531 3.1684248 6.8055801
-0.14917152 0.60963076 1.0967644
