# .PCD v0.7 - Point Cloud Data file format
VERSION 0.7
FIELDS x y z
SIZE 4 4 4
TYPE F F F
COUNT 1 1 1
WIDTH 1507
HEIGHT 1
VIEWPOINT 0 0 0 1 0 0 0
POINTS 1507
DATA ascii
-0.63143659 1.4654862 14.83975
-1.4278024 2.8482201 12.304138
-1.2790087 2.5217679 7.7434788
-1.0641385 2.0837028 4.9015665
-0.98950046 1.9300977 3.6179318
-0.93270624 1.8138852 2.7755663
-0.90897977 1.7639849 2.2295406
-0.90608615 1.7441558 2.0112567
-0.88152593 1.694728 1.6226983
-0.85666406 1.6448458 1.3005152
-0.844271 1.6196855 1.042659
-0.83235943 1.5954906 0.81538767
-0.82165933 1.5736564 0.61175203
-0.8122074 1.554242 0.42441753
-0.80308145 1.5354888 0.24851227
-0.89770901 1.7339544 1.8202046
-0.86433989 1.6673797 1.4510671
-0.85051298 1.639321 1.170871
-0.83949018 1.61602 0.92929488
-0.82801992 1.5925964 0.71387291
-0.81452137 1.5653142 0.51630425
-0.80026436 1.537271 0.33393598
-0.79397756 1.5239118 0.16299205
-0.0031044837 0.2226465 24.113354
-0.9231565 1.8993915 13.425327
-1.1811843 2.3913493 12.846336
-1.4506508 2.8876052 10.377895
-1.1529127 2.275131 6.0683465
-1.0132884 1.9892877 4.1585574
-0.95699525 1.8723403 3.1609178
-0.92176253 1.798789 2.4965477
-0.50244546 1.3179291 24.228939
-0.62924159 1.4745473 14.909351
-1.4178517 2.8531866 12.304138
-1.2849255 2.555511 7.8326416
-1.0666909 2.106827 4.9465785
-0.98984659 1.9474897 3.643527
-0.93321115 1.8305528 2.7955165
-0.91052806 1.7822422 2.2479162
-0.90652394 1.7599899 2.025275
-0.88274086 1.7116324 1.6352521
-0.85859108 1.6626875 1.311481
-0.84471345 1.6344287 1.0496155
-0.83317465 1.6107395 0.82100672
-0.82277739 1.5892951 0.61598212
-0.81129682 1.5657908 0.42628276
-0.80230182 1.5471246 0.24940643
-0.89847082 1.7503647 1.8335066
-0.86590475 1.6847668 1.4628397
-0.85070086 1.6537799 1.1784705
-0.83800024 1.6270102 0.93349099
-0.82678294 1.6038718 0.71715993
-0.81350958 1.5767871 0.51864892
-0.80170721 1.5532566 0.33600801
-0.79323912 1.5355513 0.16339511
-0.002324519 0.22278687 24.128355
-0.91652071 1.9026024 13.425327
-1.1723821 2.3945432 12.841441
-1.4571958 2.9260569 10.497194
-1.1598713 2.3088202 6.1465893
-1.0171331 2.0141919 4.2024479
-0.96062851 1.8957511 3.1939816
-0.92273623 1.8162841 2.5157351
-0.49784201 1.3196748 24.228939
-0.62512642 1.4791905 14.934209
-1.4073281 2.8569908 12.299298
-1.2913917 2.5908711 7.9264975
-1.070071 2.1319401 4.9960918
-0.99125677 1.967237 3.6733885
-0.93361109 1.8472461 2.8154664
-0.91042829 1.7975075 2.2626171
-0.90686214 1.775848 2.0392931
-0.88384849 1.7285657 1.6478059
-0.85849839 1.6768405 1.3197054
-0.84506333 1.6491947 1.056572
-0.83389342 1.6260132 0.82662582
-0.82379621 1.6049608 0.62021226
-0.81256002 1.5817213 0.42908064
-0.80372781 1.5632024 0.25074768
-0.89912879 1.766801 1.8468086
-0.86552358 1.6985834 1.4716691
-0.8527565 1.6721004 1.1886032
-0.83850771 1.6420516 0.93978512
-0.82762617 1.6193625 0.72209048
-0.81464106 1.5925993 0.52216589
-0.80079222 1.5648624 0.33738938
-0.79470652 1.551651 0.16399969
-0.0015339503 0.22331704 24.188351
-0.90987384 1.9057901 13.425327
-1.1635721 2.3977051 12.836546
-1.46349 2.9645891 10.616494
-1.1648669 2.3390875 6.2156272
-1.019744 2.0370052 4.2419496
-0.96284682 1.9166952 3.2229121
-0.92215729 1.8309448 2.5310853
-0.49323246 1.3214047 24.228939
-0.62345195 1.4897254 15.018724
-1.3967954 2.8607564 12.294458
-1.2960979 2.6232121 8.0109663
-1.0732888 2.1571019 5.0456057
-0.99137574 1.9846843 3.6989844
-0.93525541 1.8666581 2.8394065
-0.91175389 1.815823 2.2809927
-0.90710062 1.7917298 2.0533113
-0.88484842 1.7455274 1.6603597
-0.85831732 1.691013 1.3279297
-0.84532005 1.6639827 1.0635283
-0.83451563 1.6413115 0.83224493
-0.82471561 1.6206527 0.62444234
-0.81149256 1.5933025 0.43094587
-0.80278957 1.574872 0.25164184
-0.899683 1.7832632 1.8601105
-0.86687899 1.7160256 1.4834417
-0.85274959 1.6866082 1.1962028
-0.8389203 1.6571162 0.94607931
-0.82623708 1.6306663 0.7253775
-0.81347358 1.6041034 0.5245105
-0.80204642 1.5808967 0.33946142
-0.79380918 1.5633247 0.16440275
-0.00075441867 0.22332105 24.188351
-0.90288365 1.9082521 13.420388
-1.154754 2.4008343 12.831651
-1.4682206 3.0005188 10.72625
-1.1748536 2.3799291 6.3122802
-1.0222081 2.0598612 4.2814517
-0.96493047 1.9376776 3.2518427
-0.92291892 1.8484912 2.5502727
-0.48861688 1.3231183 24.228939
-0.62171155 1.5002664 15.10324
-1.3862535 2.8644831 12.289619
-1.2960402 2.6463182 8.0672798
-1.0763438 2.182312 5.0951185
-0.99254209 2.0044935 3.7288458
-0.93543512 1.8834052 2.8593569
-0.91296279 1.8341697 2.2993689
-0.9072392 1.8076348 2.0673294
-0.8857407 1.762517 1.6729136
-0.85804766 1.7052044 1.3361541
-0.84349149 1.6748362 1.0681659
-0.83504117 1.6566339 0.83786404
-0.82337475 1.6320875 0.62726241
-0.81035411 1.6048955 0.43281111
-0.80402577 1.5909986 0.25298306
-0.90013301 1.7997504 1.8734126
-0.86812299 1.7334977 1.4952143
-0.85265177 1.7011362 1.2038023
-0.83923787 1.6722035 0.95237339
-0.82689857 1.6461997 0.730308
-0.81441891 1.6199613 0.52802747
-0.8009733 1.5925349 0.34084278
-0.79508632 1.5794734 0.16500735
3.1562135e-07 0.22253732 24.098354
-0.89621711 1.9113921 13.420388
-1.1463666 2.4048505 12.831651
-1.4798825 3.0512912 10.888497
-1.1725488 2.3962998 6.3444982
-1.0245249 2.0827587 4.3209534
-0.96812481 1.9612212 3.2849064
-0.92356914 1.8660651 2.5694602
-0.48399538 1.3248159 24.228939
-0.62030911 1.5118003 15.197699
-1.3757026 2.8681712 12.28478
-1.3078932 2.6942954 8.198678
-1.0792356 2.2075696 5.1446319
-0.99243319 2.0219936 3.7544415
-0.93684012 1.9028796 2.883297
-0.91405463 1.8525468 2.3177445
-0.90727788 1.8235626 2.0813477
-0.88652509 1.779534 1.6854674
-0.85955578 1.7231563 1.3471199
-0.84357607 1.6896604 1.0751224
-0.8354699 1.6719798 0.84348315
-0.82410967 1.6478229 0.6314925
-0.81134325 1.6208925 0.43560895
-0.80292845 1.6027005 0.25387722
-0.9004789 1.8162626 1.8867146
-0.86745834 1.7473791 1.5040439
-0.85246265 1.7156837 1.2114018
-0.83946031 1.6873132 0.95866758
-0.8253569 1.6575304 0.73359501
-0.81309539 1.6314951 0.53037208
-0.80203825 1.6086164 0.34291482
-0.7962603 1.5956498 0.16561194
0.00077558507 0.22249237 24.093355
-0.8895396 1.9145089 13.420388
-1.1375303 2.4079168 12.826756
-1.4873279 3.0941093 11.022113
-1.1744063 2.4214725 6.3997283
-1.0256447 2.1035447 4.3560658
-0.96992975 1.9822829 3.3138371
-0.92410785 1.8836659 2.5886478
-0.47946575 1.3267689 24.233931
-0.61823273 1.5218601 15.277243
-1.3651429 2.8718207 12.279941
-1.3194265 2.7423871 8.3300743
-1.0819643 2.2328737 5.1941457
-0.99335474 2.0418625 3.7843029
-0.93812054 1.9223865 2.9072371
-0.91502917 1.8709537 2.3361204
-0.90563881 1.8363138 2.0918612
-0.88720137 1.7965777 1.6980213
-0.85909563 1.7373911 1.3553444
-0.84356719 1.7045053 1.0820787
-0.83374381 1.6831944 0.84722924
-0.82474476 1.6635833 0.63572258
-0.81004715 1.6325154 0.43747419
-0.80397421 1.6188741 0.25521845
-0.90072042 1.832799 1.9000165
-0.86849183 1.7649033 1.5158166
-0.85408694 1.7341179 1.2215346
-0.83958745 1.7024447 0.96496183
-0.82583612 1.6731046 0.73852557
-0.81385398 1.6473969 0.53388906
-0.80080646 1.6202852 0.34429619
-0.79511583 1.6073756 0.166015
0.0015471757 0.2223575 24.078356
-0.88285136 1.9176022 13.420388
-1.1291182 2.4118729 12.826756
-1.4989858 3.1464491 11.189133
-1.1735634 2.4414048 6.4411511
-1.0266316 2.1243634 4.3911786
-0.97159922 2.0033803 3.3427677
-0.92453474 1.9012928 2.6078353
-0.47492835 1.3287064 24.238922
-0.61768228 1.5358816 15.396559
-1.3545746 2.8754313 12.275102
-1.3172724 2.762553 8.3770027
-1.0835868 2.2562611 5.2391572
-0.9941498 2.0617623 3.8141649
-0.9392761 1.9419254 2.9311771
-0.91440749 1.8863389 2.350821
-0.9054879 1.8522798 2.1058795
-0.88605827 1.8101516 1.7074367
-0.86038667 1.7553982 1.3663102
-0.84346509 1.7193708 1.0890352
-0.83399266 1.6985785 0.85284829
-0.82527977 1.6793679 0.63995266
-0.81084764 1.6485567 0.44027206
-0.80271733 1.6306065 0.25611261
-0.90085733 1.8493588 1.9133185
-0.8694135 1.7824558 1.5275892
-0.85370189 1.7487103 1.2291342
-0.83762586 1.7135199 0.96915793
-0.82414132 1.6844608 0.74181259
-0.8123737 1.6589584 0.53623366
-0.80168152 1.6364118 0.34636822
-0.79609859 1.6235985 0.1666196
0.0023141648 0.22213277 24.053356
-0.87615228 1.9206724 13.420388
-1.1202639 2.4148757 12.821861
-1.5001004 3.17731 11.279799
-1.1809969 2.4789982 6.5285988
-1.0295546 2.1495347 4.4350691
-0.97191429 2.0219777 3.3675654
-0.92484987 1.9189458 2.6270227
-0.47038332 1.3306284 24.243914
-0.61330152 1.5405053 15.421416
-1.3439976 2.8790033 12.270262
-1.3356351 2.8264248 8.5553274
-1.0850592 2.2796867 5.2841697
-0.99594229 2.0840454 3.8482921
-0.94160903 1.9642129 2.9591074
-0.91368949 1.9017426 2.3655217
-0.90368158 1.8650575 2.1163931
-0.88653004 1.8272414 1.7199905
-0.86156243 1.7734354 1.3772761
-0.84326929 1.7342559 1.0959915
-0.83414435 1.7139851 0.8584674
-0.82361394 1.6908638 0.64277273
-0.81154609 1.6646237 0.44306993
-0.80357212 1.6468253 0.25745386
-0.90088952 1.8659419 1.9266205
-0.87198234 1.8036753 1.542305
-0.85322511 1.7633209 1.2367337
-0.83757609 1.7286865 0.97545201
-0.82443774 1.7000741 0.74674314
-0.81294501 1.6749023 0.53975064
-0.80029064 1.6481096 0.34774956
-0.7947939 1.6353542 0.16702266
0.0030796048 0.22190541 24.028358
-0.86944258 1.923719 13.420388
-1.1118276 2.4187715 12.821861
-1.5079753 3.2230892 11.422959
-1.193186 2.5272734 6.643662
-1.0312873 2.1725883 4.4745708
-0.97332132 2.0431416 3.3964961
-0.92505282 1.9366237 2.6462102
-0.46592557 1.3328074 24.253897
-0.61260289 1.5545423 15.540732
-1.3334121 2.8825362 12.265423
-1.3447865 2.8717039 8.6773396
-1.0826668 2.2952743 5.3111773
-0.9975912 2.1063659 3.8824196
-0.94379771 1.9865401 2.9870377
-0.91287506 1.9171641 2.3802223
-0.90179688 1.8778449 2.1269066
-0.88520652 1.8408484 1.7294059
-0.86080861 1.7877344 1.3855006
-0.84490305 1.7531517 1.1052668
-0.83419859 1.729413 0.86408657
-0.8239634 1.7066884 0.64700282
-0.81214207 1.6807153 0.44586781
-0.80432343 1.6630698 0.25879508
-0.90242839 1.8859156 1.943248
-0.87266701 1.8212889 1.5540776
-0.8545208 1.7818363 1.2468663
-0.83939511 1.7479647 0.98384422
-0.8266806 1.7199658 0.75331712
-0.81341487 1.6908704 0.54326761
-0.80097532 1.6642797 0.3498216
-0.79558492 1.6516215 0.16762725
0.0038349282 0.22150107 23.98336
-0.86303961 1.9274515 13.425327
-1.1033777 2.4226379 12.821861
-1.5117821 3.2608361 11.537487
-1.2000854 2.5650454 6.7311101
-1.033891 2.1978474 4.5184617
-0.97459227 2.0643399 3.4254265
-0.92651492 1.9572234 2.6692355
-0.46145836 1.3349718 24.26388
-0.60852641 1.5601484 15.575533
-1.3228184 2.8860302 12.260583
-1.3594483 2.9296036 8.8368931
-1.0866307 2.3246775 5.3696923
-0.99909621 2.1287229 3.9165471
-0.94584179 2.0089061 3.0149677
-0.91341072 1.9356689 2.3985982
-0.90136653 1.893862 2.1409249
-0.88547319 1.857982 1.7419597
-0.86176628 1.8058234 1.3964664
-0.84450567 1.7680819 1.1122231
-0.83415502 1.744862 0.86970562
-0.82421231 1.7225358 0.65123296
-0.8126356 1.6968311 0.44866565
-0.80281842 1.6748488 0.25968924
-0.90223897 1.9025489 1.9565501
-0.87323916 1.8389291 1.5658503
-0.85384709 1.7964888 1.2544659
-0.8391394 1.7631786 0.99013841
-0.82676405 1.7356308 0.75824767
-0.81378299 1.7068619 0.54678452
-0.80155683 1.6804746 0.35189366
-0.79627204 1.667914 0.16823184
0.0046080882 0.22148633 23.98336
-0.85630631 1.9304522 13.425327
-1.0944959 2.4255466 12.816965
-1.5140973 3.2959356 11.64247
-1.2075571 2.6046684 6.8231606
-1.0373423 2.2253213 4.5667415
-0.97453469 2.0830226 3.4502244
-0.92648327 1.974955 2.6884229
-0.4567956 1.3365744 24.26388
-0.6048016 1.5667399 15.620276
-1.3122165 2.8894858 12.255743
-1.3708386 2.9813688 8.9776773
-1.093147 2.3600626 5.4417124
-1.0015571 2.153481 3.9549406
-0.94646722 2.0285797 3.0389078
-0.91239226 1.9511296 2.4132988
-0.90083528 1.909899 2.154943
-0.88563091 1.8751397 1.7545135
-0.86260808 1.8239408 1.4074323
-0.84590966 1.7870346 1.1214983
-0.83401388 1.7603317 0.87532473
-0.82436073 1.7384058 0.65546304
-0.81302637 1.7129706 0.45146352
-0.80337787 1.6911355 0.2610305
-0.90353239 1.9225831 1.9731777
-0.8754198 1.8602526 1.5805659
-0.85491818 1.8150578 1.2645986
-0.84072363 1.7825165 0.99853063
-0.82674789 1.751317 0.76317817
-0.81404936 1.7228764 0.55030149
-0.80203485 1.6966935 0.3539657
-0.79471833 1.6797154 0.16863491
0.005395852 0.22173031 24.013359
-0.84956259 1.9334295 13.425327
-1.0860224 2.4293523 12.816965
-1.5087661 3.3147867 11.69019
-1.2147665 2.6443744 6.9152107
-1.0406145 2.2528462 4.6150217
-0.97554195 2.1042831 3.4791548
-0.92768991 1.9956164 2.711448
-0.4518511 1.3373399 24.248905
-0.59970868 1.5698376 15.630219
-1.3021224 2.8940485 12.255743
-1.3840301 3.0379593 9.1325378
-1.0976135 2.3915637 5.5047293
-1.003857 2.1782818 3.9933336
-0.94823116 2.0510173 3.066838
-0.91127688 1.9666065 2.4279995
-0.90171295 1.929186 2.1724658
-0.88402969 1.8887956 1.7639289
-0.86333376 1.8420857 1.4183981
-0.84719145 1.8060185 1.1307735
-0.83377469 1.7758213 0.88094378
-0.82440811 1.7542974 0.65969312
-0.81331432 1.7291336 0.45426136
-0.8017121 1.7029409 0.26192465
-0.9046967 1.942649 1.9898051
-0.87575382 1.8779502 1.5923386
-0.85586995 1.833656 1.2747314
-0.84218299 1.8018867 1.0069228
-0.82863331 1.7713015 0.76975226
-0.81421375 1.7389134 0.55381846
-0.80240947 1.712936 0.35603774
-0.79521275 1.6960495 0.16923951
0.0061853733 0.22197144 24.043356
-0.84249848 1.9356707 13.420388
-1.0771236 2.4321973 12.81207
-1.5033218 3.3336411 11.73791
-1.220904 2.682384 7.0026588
-1.0447036 2.2825985 4.6676908
-0.97641259 2.125576 3.5080857
-0.93010461 2.0192215 2.7383106
-0.44699785 1.338361 24.238922
-0.59554243 1.5754126 15.66502
-1.2915007 2.897428 12.250904
-1.3904539 3.0805221 9.2451649
-1.1018732 2.4231248 5.5677462
-1.005996 2.2031248 4.0317273
-0.95110476 2.0762312 3.0987582
-0.91147906 1.9851805 2.4463751
-0.90096813 1.945266 2.1864841
-0.88398153 1.9059944 1.7764827
-0.86394322 1.860258 1.429364
-0.84835094 1.8250329 1.1400487
-0.83343756 1.7913311 0.88656294
-0.82435465 1.7702105 0.66392326
-0.81142402 1.7408668 0.4561266
-0.80207908 1.7192681 0.26326588
-0.90416753 1.9593562 2.0031071
-0.87767041 1.8993421 1.6070545
-0.85670227 1.8522828 1.2848641
-0.84351724 1.8212887 1.0153151
-0.82840312 1.7870357 0.77468276
-0.81427604 1.7549725 0.55733538
-0.80268025 1.7292018 0.35810977
-0.7956028 1.7124075 0.16984409
0.006990382 0.2224275 24.098354
-0.83542913 1.9378862 13.415449
-1.0686271 2.4359422 12.81207
-1.491676 3.3388681 11.73791
-1.2267908 2.7204683 7.090107
-1.0476084 2.3102248 4.7159705
-0.97714627 2.1469002 3.5370164
-0.93103474 2.0399516 2.7613354
-0.44205293 1.3390907 24.223948
-0.59115809 1.5804783 15.694849
-1.2808712 2.9007685 12.246064
-1.4001191 3.1310425 9.3812542
-1.1050316 2.4527593 5.6262622
-1.0079737 2.2280087 4.0701203
-0.95256847 2.0987458 3.1266885
-0.91156256 2.0037796 2.464751
-0.90160936 1.9646055 2.2040069
-0.88544917 1.9267524 1.7921749
-0.86443615 1.8784564 1.4403298
-0.84753484 1.8400539 1.1470052
-0.83300215 1.8068595 0.89218199
-0.82419991 1.7861443 0.66815329
-0.81152135 1.7570673 0.45892447
-0.80025214 1.7310981 0.26416004
-0.90508515 1.9794788 2.0197346
-0.87776548 1.9170946 1.6188271
-0.8574149 1.8709377 1.2949967
-0.8428334 1.836597 1.0216092
-0.82807314 1.8027902 0.77961332
-0.81423604 1.7710531 0.56085235
-0.80284721 1.74549 0.36018181
-0.79588813 1.7287885 0.17044869
0.0077580586 0.22227116 24.083357
-0.82896453 1.9415053 13.420388
-1.0597118 2.4387238 12.807175
-1.4775958 3.3385944 11.718822
-1.2332231 2.7604094 7.1821575
-1.0513145 2.3400838 4.7686391
-0.9788996 2.1708205 3.5700798
-0.93315214 2.0636332 2.788198
-0.43737593 1.3406255 24.223948
-0.58582222 1.5830321 15.699821
-1.2707379 2.9052219 12.246064
-1.4073516 3.1769342 9.5032663
-1.1088836 2.4844332 5.6892786
-1.0097897 2.2529333 4.1085138
-0.95512211 2.1240439 3.1586087
-0.91292012 2.0254939 2.4868021
-0.90212643 1.9839728 2.2215295
-0.88516963 1.9440011 1.8047289
-0.86654729 1.9004859 1.4540372
-0.84846306 1.859121 1.1562804
-0.83246845 1.8224066 0.8978011
-0.82593876 1.8064615 0.67379349
-0.81151539 1.7732897 0.46172231
-0.80042619 1.7474638 0.26550126
-0.9043327 1.9962306 2.0330365
-0.87941718 1.938552 1.633543
-0.85800761 1.8896199 1.3051294
-0.84205276 1.8519223 1.0279033
-0.8295992 1.8228618 0.78618735
-0.81409365 1.7871543 0.56436926
-0.80291021 1.7618004 0.36225384
-0.79399544 1.740647 0.17085175
0.0085369311 0.22228622 24.088354
-0.82097238 1.941524 13.400631
-1.0507901 2.4414725 12.802279
-1.4665323 3.3450992 11.723595
-1.2386009 2.7986417 7.2696052
-1.0528771 2.3656204 4.81253
-0.97934991 2.1922095 3.5990105
-0.93642557 2.0902791 2.818898
-0.43278182 1.3424189 24.228939
-0.58065873 1.5860689 15.709764
-1.2600894 2.9084868 12.241225
-1.4101207 3.2134326 9.5971222
-1.1116475 2.5141721 5.7477946
-1.011444 2.2778974 4.1469073
-0.95628452 2.1466327 3.1865389
-0.91413713 2.0472419 2.508853
-0.90251923 2.0033677 2.2390523
-0.88638103 1.9648192 1.8204211
-0.86679357 1.9187416 1.4650031
-0.84926856 1.8782169 1.1655556
-0.83183628 1.8379719 0.90342015
-0.82556617 1.8224423 0.67802358
-0.81140602 1.7895331 0.46452022
-0.80255371 1.7683864 0.26728958
-0.90347415 2.0130007 2.0463386
-0.87927264 1.956357 1.6453156
-0.85848022 1.9083287 1.3152622
-0.84303945 1.8714025 1.0362955
-0.82905406 1.8386608 0.79111785
-0.81384873 1.8032763 0.56788623
-0.80490685 1.7826457 0.36501658
-0.79408705 1.7570655 0.17145634
0.0093160067 0.22229859 24.093355
-0.81689 1.9508288 13.445084
-1.0418622 2.4441888 12.797384
-1.4542524 3.3488288 11.718822
-1.2445109 2.8387344 7.3616557
-1.0552404 2.3933878 4.8608098
-0.9796629 2.2136281 3.6279414
-0.93822426 2.1140432 2.8457606
-0.42826787 1.3444717 24.238922
-0.57529998 1.5885873 15.714735
-1.2494338 2.9117124 12.236386
-1.416091 3.2579019 9.7144413
-1.1142173 2.5439606 5.8063102
-1.015036 2.3076749 4.1938329
-0.95851725 2.1720119 3.2184591
-0.91521335 2.0690229 2.5309041
-0.90424091 2.0260458 2.2600796
-0.88745755 1.9856691 1.8361133
-0.86692291 1.9370222 1.475969
-0.84995097 1.8973409 1.1748308
-0.83110559 1.853555 0.90903932
-0.82509208 1.8384426 0.68225372
-0.81320584 1.8102782 0.46825066
-0.80250257 1.7848029 0.26863083
-0.90250939 2.0297894 2.0596406
-0.87901449 1.9741846 1.6570883
-0.8588326 1.9270637 1.3253949
-0.84205067 1.8867675 1.0425898
-0.82840878 1.8544782 0.7960484
-0.813501 1.819418 0.57140321
-0.80474561 1.7990057 0.36708862
-0.7940737 1.773506 0.17206094
0.010095273 0.22230823 24.098354
-0.81126523 1.9565396 13.464842
-1.0329282 2.4468727 12.792489
-1.4419643 3.3525136 11.714051
-1.2493777 2.8771098 7.4491038
-1.0583807 2.4233947 4.9134789
-0.98096788 2.2376525 3.6610048
-0.93986827 2.137845 2.8726232
-0.42365849 1.346234 24.243914
-0.57011014 1.5915897 15.724678
-1.2387708 2.9148991 12.231546
-1.415627 3.2881861 9.789525
-1.1157261 2.5718 5.8603249
-1.0184323 2.3375046 4.2407579
-0.95817071 2.1919107 3.2423992
-0.91614848 2.090836 2.5529552
-0.90437317 2.0454986 2.2776024
-0.88839942 2.0065503 1.8518057
-0.86693519 1.9553269 1.4869348
-0.85051 1.9164921 1.1841059
-0.83215797 1.8733917 0.91653144
-0.82451612 1.8544614 0.68648374
-0.81287354 1.8265697 0.47104853
-0.80437285 1.8057897 0.27041915
-0.89993346 2.0431786 2.069617
-0.87864244 1.9920338 1.6688609
-0.86080557 1.9497678 1.3380609
-0.84096485 1.902148 1.0488838
-0.82766294 1.8703133 0.8009789
-0.81501901 1.8400234 0.57609248
-0.80447996 1.8153862 0.36916068
-0.79395509 1.7899677 0.17266552
0.010874719 0.22231513 24.103355
-0.80590552 1.9629537 13.489537
-1.0239882 2.4495242 12.787595
-1.4296681 3.3561532 11.709279
-1.2586228 2.9263217 7.564167
-1.0613245 2.4534526 4.9661479
-0.98099619 2.2591317 3.6899354
-0.94007784 2.1587451 2.895648
-0.4189567 1.3477046 24.243914
-0.56472868 1.5940727 15.72965
-1.2281008 2.9180467 12.226707
-1.4298576 3.3534296 9.9678497
-1.1153355 2.5956807 5.9053373
-1.0216326 2.3673863 4.2876835
-0.9576968 2.2118335 3.2663393
-0.91829205 2.1157906 2.5786812
-0.90581107 2.0682433 2.2986295
-0.88920617 2.0274622 1.867498
-0.8685115 1.9774836 1.5006422
-0.85094577 1.9356704 1.1933811
-0.8330819 1.8932585 0.92402357
-0.82383847 1.8704988 0.69071388
-0.81441873 1.8473754 0.47477901
-0.80409592 1.8222548 0.27176037
-0.89876807 2.0599964 2.0829191
-0.87815642 2.0099046 1.6806335
-0.86090326 1.9685595 1.3481935
-0.84160244 1.9217013 1.057276
-0.82871252 1.8904907 0.80755287
-0.81445003 1.8562101 0.57960939
-0.80610001 1.836321 0.37192339
-0.79373121 1.8064499 0.17327012
0.011647019 0.22223233 24.098354
-0.8002184 1.9686344 13.509295
-1.0150422 2.4521427 12.782699
-1.4179442 3.3611231 11.709279
-1.2667735 2.9738352 7.6746273
-1.0640711 2.4835601 5.0188165
-0.98088646 2.280638 3.7188659
-0.94142222 2.182616 2.9225106
-0.41416538 1.3488827 24.238922
-0.55951267 1.5970407 15.739593
-1.2174239 2.9211557 12.221868
-1.4342525 3.3965547 10.080476
-1.1241673 2.6416242 5.9998627
-1.0246365 2.3973181 4.3346086
-0.95709556 2.2317793 3.2902796
-0.91759491 2.1345563 2.5970571
-0.90568185 2.0877509 2.3161523
-0.88832676 2.0448339 1.8800519
-0.86994344 1.9996747 1.5143495
-0.85125792 1.9548749 1.2026563
-0.83387733 1.913154 0.93151569
-0.82305872 1.8865535 0.69494396
-0.8138628 1.8637123 0.47757691
-0.80570823 1.8433028 0.27354869
-0.89601505 2.0734036 2.0928955
-0.87755626 2.0277958 1.6924061
-0.86259347 1.9913309 1.3608595
-0.84211373 1.9412822 1.0656683
-0.82775056 1.9063665 0.81248349
-0.81571525 1.8768731 0.58429867
-0.80560893 1.8527474 0.37399539
-0.79539561 1.8275329 0.17407624
0.012418874 0.22214685 24.093355
-0.79450148 1.9742992 13.529052
-1.0064764 2.4556708 12.782699
-1.4056276 3.3646748 11.704507
-1.2753669 3.023241 7.7896905
-1.0675557 2.5159211 5.0758748
-0.98063844 2.3021712 3.7477968
-0.9400931 2.2006266 2.9416981
-0.40945435 1.3503202 24.238922
-0.55410874 1.5994878 15.744564
-1.2067404 2.9242253 12.217028
-1.4430234 3.4508965 10.225953
-1.1284651 2.6776297 6.0718822
-1.0264273 2.4248979 4.3772678
-0.95283288 2.243427 3.3022494
-0.91810578 2.156462 2.619108
-0.90542758 2.1072829 2.3336751
-0.88887519 2.0657992 1.8957441
-0.87123114 2.0218999 1.5280569
-0.84969187 1.9700375 1.2096127
-0.83454376 1.9330783 0.93900776
-0.82407981 1.9070293 0.70058405
-0.8151527 1.8845762 0.48130739
-0.80520469 1.8598143 0.27488995
-0.89464843 2.0902491 2.1061976
-0.8784343 2.0494227 1.707122
-0.86243552 2.0101762 1.3709922
-0.84249854 1.9608898 1.0740606
-0.82668781 1.9222584 0.81741405
-0.81492424 1.8931029 0.58781564
-0.80501318 1.8691931 0.37606746
-0.79494464 1.8440617 0.17468084
0.013186309 0.22201525 24.083357
-0.78875476 1.979948 13.548809
-0.99789846 2.4591694 12.782699
-1.3933038 3.3681815 11.699735
-1.2828777 3.0709395 7.9001508
-1.0708272 2.5483365 5.1329327
-0.98025185 2.3237295 3.7767274
-0.94114727 2.2245586 2.9685607
-0.40457341 1.3511879 24.228939
-0.54886693 1.602421 15.754507
-1.1965256 2.9284198 12.217028
-1.4494517 3.5005562 10.357349
-1.1383934 2.7277606 6.1754098
-1.0290461 2.4549243 4.4241929
-0.9555096 2.2717381 3.3381598
-0.91452378 2.1690252 2.6301334
-0.90504783 2.1268384 2.3511977
-0.88776219 2.0832124 1.9082979
-0.872374 2.044158 1.541764
-0.84977049 1.9892863 1.2188879
-0.83508116 1.9530299 0.94649988
-0.82308042 1.9231246 0.7048142
-0.8143723 1.9009562 0.4841052
-0.80459571 1.8763443 0.27623117
-0.89317501 2.10711 2.1194994
-0.87759238 2.0673592 1.7188946
-0.86215639 2.0290444 1.3811249
-0.84097952 1.9763471 1.0803547
-0.82552397 1.9381659 0.82234448
-0.81593591 1.9138207 0.59250492
-0.8023693 1.8811017 0.37744883
-0.79438794 1.8606095 0.17528543
0.013957093 0.22192441 24.078356
-0.78240842 1.984135 13.558688
-0.98930824 2.4626377 12.782699
-1.381538 3.3730245 11.699735
-1.2908175 3.1205323 8.015214
-1.0729653 2.5785937 5.1856017
-0.98623425 2.3608932 3.8304558
-0.9408071 2.245568 2.9915857
-0.39977294 1.3523151 24.223948
-0.5434407 1.6048322 15.759479
-1.185825 2.9314134 12.212189
-1.4581689 3.5566897 10.507518
-1.1471539 2.7759807 6.2744365
-1.0324671 2.487407 4.4753842
-0.95915848 2.3028758 3.3780599
-0.91739565 2.197232 2.6595349
-0.90592736 2.149703 2.372225
-0.88653839 2.1006429 1.9208517
-0.87337208 2.0664487 1.5554714
-0.84799904 2.0044799 1.2258444
-0.83548945 1.9730089 0.95399201
-0.82197857 1.939236 0.70904434
-0.81540614 1.9218756 0.48783568
-0.80193436 1.8883089 0.27712533
-0.89303982 2.127429 2.136127
-0.87663597 2.0853148 1.7306672
-0.86008412 2.0439615 1.3887243
-0.84112525 1.9960001 1.0887468
-0.82425922 1.9540886 0.8272751
-0.81492227 1.9300908 0.59602183
-0.80157912 1.8975766 0.37952086
-0.79567099 1.881777 0.17609155
0.014723139 0.2217875 24.068357
-0.77604252 1.9883019 13.568565
-0.98070604 2.4660759 12.782699
-1.3697555 3.3778265 11.699735
-1.297686 3.1684093 8.1256742
-1.0758175 2.6111112 5.2426596
-0.98981786 2.3929255 3.8759179
-0.94278806 2.2725232 3.0222857
-0.39496946 1.3534249 24.218956
-0.53800434 1.6072249 15.76445
-1.1755852 2.935535 12.212189
-1.46132 3.6001341 10.620145
-1.1547672 2.8222797 6.3689623
-1.0346829 2.5175312 4.5223098
-0.96145284 2.3312812 3.4139702
-0.92137682 2.2286179 2.6926112
-0.90528476 2.1693079 2.3897476
-0.8852036 2.1180899 1.9334055
-0.87099653 2.0810566 1.5636958
-0.84784341 2.0237708 1.2351196
-0.83397567 1.9887391 0.95961118
-0.82263088 1.9597865 0.71468443
-0.81440085 1.9382963 0.49063358
-0.80112994 1.9048684 0.27846655
-0.89420676 2.1512201 2.15608
-0.8740114 2.0995567 1.7394966
-0.85957623 2.0628684 1.3988571
-0.84114397 2.0156779 1.097139
-0.8228932 1.9700258 0.83220553
-0.81380492 1.946377 0.5995388
-0.8006835 1.9140683 0.3815929
-0.79488617 1.8983678 0.17669614
0.015497232 0.22173476 24.068357
-0.76965702 1.9924483 13.578444
-0.97171897 2.4685366 12.777803
-1.3579564 3.3825872 11.699735
-1.3049699 3.2181823 8.2407379
-1.0766464 2.6392443 5.2909398
-0.99318987 2.4250116 3.9213808
-0.9458099 2.3024843 3.0568233
-0.39008358 1.3542404 24.208971
-0.5325579 1.6095992 15.769422
-1.164868 2.9384522 12.207349
-1.4712623 3.6612568 10.784391
-1.1628882 2.8706832 6.467989
-1.0386664 2.5525322 4.5777669
-0.96356052 2.3597305 3.4498804
-0.92771834 2.2663331 2.7330382
-0.90860194 2.1988227 2.417784
-0.88375783 2.1355534 1.9459594
-0.8685295 2.0956731 1.5719203
-0.84756333 2.0430846 1.2443948
-0.83413988 2.008764 0.9671033
-0.82130843 1.9759347 0.71891451
-0.81517786 1.9592689 0.49436405
-0.80021966 1.9214449 0.27980781
-0.89521825 2.175045 2.176033
-0.8728385 2.117543 1.7512692
-0.85730249 2.077811 1.4064566
-0.84103537 2.0353799 1.1055312
-0.82142597 1.9859772 0.83713609
-0.81444305 1.9671698 0.60422808
-0.79968256 1.930577 0.38366497
-0.7939952 1.9149758 0.17730074
0.016266568 0.22163592 24.063356
-0.7615881 1.9922196 13.558688
-0.9630962 2.4719136 12.777803
-1.3455895 3.3859193 11.694963
-1.3111942 3.2662313 8.3511992
-1.0781885 2.6696355 5.3436089
-0.99529225 2.4545419 3.9627099
-0.94742656 2.3295248 3.0875232
-0.38582563 1.3572606 24.238922
-0.52710146 1.6119552 15.774393
-1.1546038 2.9425004 12.207349
-1.4833468 3.7289064 10.96741
-1.1642035 2.9030128 6.5310059
-1.0424178 2.5875907 4.6332235
-0.96548104 2.3882222 3.4857907
-0.93253446 2.3009775 2.7697897
-0.91037363 2.225086 2.4423161
-0.88367647 2.1566339 1.9616517
-0.86597091 2.110297 1.5801446
-0.84715873 2.0624213 1.25367
-0.83417434 2.0288141 0.97459543
-0.82170886 1.9965338 0.72455466
-0.81394708 1.975728 0.4971619
-0.79920316 1.9380381 0.28114903
-0.89607424 2.1989028 2.195986
-0.87307775 2.1392887 1.7659851
-0.85656512 2.0967536 1.4165894
-0.84079945 2.0551057 1.1139234
-0.82164693 2.0063124 0.84371012
-0.81310225 1.9834931 0.60774505
-0.80045497 1.9516834 0.38642767
-0.79299796 1.9316007 0.17790534
0.017040122 0.22157779 24.063356
-0.75710225 2.0014069 13.60314
-0.95409554 2.4743102 12.772908
-1.3337622 3.3905957 11.694963
-1.3178202 3.3161781 8.4662619
-1.0759755 2.6911738 5.3787212
-0.99720055 2.4841163 4.0040398
-0.94886583 2.3566041 3.1182234
-0.38131848 1.3594332 24.253897
-0.5214715 1.6137854 15.774393
-1.1443255 2.9465127 12.207349
-1.4975052 3.803107 11.169199
-1.1853859 2.9859703 6.706553
-1.0459371 2.6227067 4.6886811
-0.96721441 2.4167559 3.5217009
-0.93711972 2.3356824 2.8065414
-0.9133116 2.2546933 2.4703522
-0.88199562 2.1741328 1.9742055
-0.86489463 2.1288028 1.5911106
-0.84662944 2.0817797 1.2629452
-0.83407891 2.0488887 0.98208755
-0.82197553 2.0171597 0.73019475
-0.81446671 1.9967512 0.5008924
-0.79808062 1.9546475 0.28249028
-0.89677447 2.2227933 2.215939
-0.87166154 2.1573141 1.7777578
-0.85732222 2.1197126 1.4292552
-0.84043616 2.0748546 1.1223158
-0.82173574 2.0266728 0.85028416
-0.81348526 2.0043344 0.61243433
-0.80108982 1.9728184 0.38919038
-0.79189414 1.9482415 0.17850992
0.01781347 0.22151697 24.063356
-0.75174493 2.008404 13.632776
-0.94545275 2.4776254 12.772908
-1.3213772 3.3938398 11.69019
-1.322683 3.3625739 8.5721197
-1.0868442 2.7461333 5.47967
-0.99891436 2.5137334 4.0453687
-0.95012748 2.3837216 3.1489234
-0.37680086 1.361591 24.268873
-0.51599693 1.6161038 15.779365
-1.1340332 2.9504893 12.207349
-1.5042711 3.8597641 11.319367
-1.1996344 3.052901 6.8460913
-1.0492238 2.6578782 4.7441382
-0.96986985 2.448132 3.5616009
-0.9352175 2.3546932 2.8249173
-0.91605401 2.2843482 2.4983885
-0.88310421 2.1988697 1.9930362
-0.86526 2.151206 1.6048177
-0.84762955 2.1052685 1.2745391
-0.83385348 2.0689871 0.98957968
-0.82210797 2.0378115 0.7358349
-0.8130098 2.0132465 0.50369024
-0.79871809 1.9758896 0.2842786
-0.89870352 2.2501824 2.2392175
-0.87163121 2.1791084 1.7924737
-0.85632694 2.1387002 1.439388
-0.84163409 2.0988379 1.1328059
-0.82345146 2.0514405 0.85850173
-0.81373245 2.0252025 0.6171236
-0.80158675 1.9939817 0.39195311
-0.79068387 1.9648982 0.17911452
0.0185866 0.22145343 24.063356
-0.74634778 2.015388 13.662412
-0.93643892 2.4799581 12.768013
-1.3089858 3.3970387 11.685418
-1.3307813 3.4181461 8.7009897
-1.0903541 2.7833607 5.5455065
-0.99631357 2.5329175 4.0701666
-0.95003486 2.4078948 3.175786
-0.37204573 1.362898 24.268873
-0.51035255 1.617895 15.779365
-1.1232804 2.9532547 12.202509
-1.5075545 3.908463 11.446072
-1.2126406 3.1179376 6.9811273
-1.0522774 2.6931043 4.7995954
-0.97231799 2.4795556 3.6015015
-0.93567449 2.3800294 2.8506434
-0.91728455 2.3107345 2.5229206
-0.88405073 2.2236409 2.0118668
-0.86547941 2.1736374 1.6185251
-0.84847593 2.1287897 1.2861332
-0.83349776 2.0891087 0.9970718
-0.82210618 2.0584884 0.74147499
-0.81327116 2.0343175 0.50742072
-0.79921693 1.9971596 0.28606692
-0.90045214 2.277612 2.2624962
-0.8729471 2.2046864 1.8101326
-0.85838616 2.1657217 1.4545871
-0.84100026 2.1186361 1.1411982
-0.82500416 2.0762444 0.86671925
-0.81564021 2.0506129 0.62298518
-0.80194563 2.015172 0.39471582
-0.78936678 1.9815699 0.17971911
0.019364677 0.22143053 24.068357
-0.74064398 2.0216291 13.687108
-0.92777658 2.4832118 12.768013
-1.2965882 3.4001923 11.680646
-1.3279724 3.4464705 8.7608232
-1.0953486 2.8251119 5.620121
-1.0017575 2.5730925 4.1280279
-0.94978505 2.4320962 3.2026484
-0.36691245 1.362794 24.243914
-0.50470197 1.6196667 15.779365
-1.1129647 2.9571576 12.202509
-1.5000556 3.9298241 11.492999
-1.2126964 3.1505947 7.0441442
-1.0569789 2.7332485 4.863584
-0.97455835 2.5110261 3.6414013
-0.9359659 2.4053969 2.8763695
-0.9196462 2.3404763 2.550957
-0.88483512 2.248445 2.0306978
-0.86555248 2.1960959 1.6322324
-0.8491683 2.1523421 1.2977272
-0.83301163 2.1092527 1.0045639
-0.82197011 2.07919 0.74711519
-0.81158775 2.0508468 0.51021862
-0.79957694 2.0184569 0.28785524
-0.90202022 2.3050807 2.2857745
-0.87409508 2.2303002 1.8277916
-0.85869271 2.1887698 1.467253
-0.84023851 2.1384556 1.1495904
-0.82639354 2.101084 0.87493682
-0.8155998 2.0715384 0.6276744
-0.80216628 2.0363891 0.39747855
-0.78977555 2.0029039 0.18052523
0.020158796 0.22153479 24.088354
-0.73490572 2.0278549 13.711804
-0.91910291 2.4864352 12.768013
-1.2841845 3.403301 11.675875
-1.3576931 3.5606136 9.0369749
-1.0992068 2.8646953 5.6903458
-1.0059212 2.6107101 4.181756
-0.95284414 2.4652941 3.2410235
-0.36193198 1.3632292 24.228939
-0.49904519 1.6214185 15.779365
-1.1021972 2.959847 12.197671
-1.4887677 3.9414942 11.51177
-1.2179626 3.1975307 7.13867
-1.0586169 2.7661512 4.9147758
-0.97659069 2.5425417 3.6813018
-0.93609136 2.4307954 2.9020958
-0.92051864 2.3669388 2.5754888
-0.88545686 2.2732816 2.0495286
-0.86699903 2.2224774 1.6486813
-0.84970647 2.1759248 1.3093212
-0.83408284 2.1337366 1.0139291
-0.82169944 2.0999157 0.75275534
-0.81338173 2.0765364 0.51488167
-0.79979789 2.0397809 0.28964353
-0.90340722 2.3325877 2.3090532
-0.87507463 2.2559485 1.8454504
-0.86196923 2.2198834 1.4849851
-0.84099346 2.1625254 1.1600807
-0.82590652 2.121558 0.88151085
-0.81718808 2.0970173 0.63353604
-0.80404729 2.0622456 0.40093195
-0.78822863 2.0196109 0.18112983
0.020953879 0.22163625 24.108355
-0.72939503 2.0347967 13.74144
-0.91006845 2.488672 12.763118
-1.2722969 3.4077628 11.675875
-1.3666339 3.6219959 9.1796532
-1.1002517 2.8976223 5.7474041
-1.010837 2.651017 4.2396173
-0.95453781 2.495549 3.2755611
-0.35702562 1.3639255 24.218956
-0.49338236 1.6231506 15.779365
-1.0914242 2.9624968 12.192831
-1.473792 3.9434335 11.502385
-1.2183095 3.2323186 7.2061877
-1.0683498 2.8210487 5.0043602
-0.97948533 2.5769188 3.7251918
-0.93605095 2.4562237 2.9278219
-0.92249823 2.3967636 2.6035252
-0.88591594 2.2981496 2.0683591
-0.86827177 2.2488952 1.6651301
-0.85168725 2.2036693 1.3232338
-0.83332038 2.1539297 1.0214212
-0.82302624 2.1251378 0.75980544
-0.81323069 2.0976837 0.51861215
-0.79807794 2.0564883 0.29098478
-0.90461314 2.3601322 2.3323317
-0.87588573 2.2816305 1.8631094
-0.86349267 2.2470224 1.5001842
-0.84159052 2.1866262 1.170571
-0.82698417 2.1464603 0.88972837
-0.81860828 2.1225324 0.63939762
-0.80397469 2.0835199 0.40369466
-0.7883746 2.0409913 0.18193595
0.021749914 0.22173482 24.128355
-0.72384483 2.0417247 13.771075
-0.90137583 2.4918337 12.763118
-1.2598768 3.4107833 11.671103
-1.3860941 3.7127681 9.3959713
-1.1086602 2.9507692 5.8439636
-1.0154834 2.69139 4.2974792
-0.95603186 2.5258455 3.3100986
-0.35247788 1.3660023 24.233931
-0.48771349 1.624863 15.779365
-1.0806462 2.9651077 12.187992
-1.4624118 3.9550288 11.521156
-1.2267948 3.2895851 7.3232193
-1.0603261 2.8296452 5.0128922
-0.98109108 2.6085262 3.7650924
-0.93584424 2.4816811 2.953548
-0.9230116 2.4232981 2.628057
-0.88621205 2.3230481 2.0871899
-0.86937052 2.2753487 1.6815789
-0.85348445 2.2314541 1.3371466
-0.83408475 2.178473 1.0307864
-0.82590371 2.1548738 0.76826566
-0.81470144 2.123441 0.52327526
-0.79803646 2.077857 0.2927731
-0.90563768 2.3877134 2.3556101
-0.87652808 2.3073456 1.8807683
-0.86483711 2.2741988 1.5153832
-0.84202939 2.210757 1.1810611
-0.82789785 2.1713955 0.89794594
-0.81812704 2.1435413 0.6440869
-0.80552989 2.1094449 0.40714806
-0.7883808 2.062397 0.18274207
0.022523783 0.22165756 24.128355
-0.7182551 2.0486388 13.800712
-0.89232922 2.4940059 12.758223
-1.2479633 3.4151604 11.671103
-1.3927538 3.7707312 9.5294447
-1.115042 2.9995196 5.9317451
-1.01986 2.7318265 4.35534
-0.95732588 2.5561824 3.3446362
-0.34799072 1.3683438 24.253897
-0.48203868 1.6265556 15.779365
-1.0702894 2.9688618 12.187992
-1.4491898 3.9617298 11.525848
-1.2341415 3.3449073 7.43575
-1.0576946 2.8528926 5.0470195
-0.98248798 2.6401758 3.8049927
-0.93547118 2.5071669 2.9792743
-0.92460847 2.4532025 2.6560934
-0.88497049 2.3443348 2.1028821
-0.87029505 2.3018367 1.6980277
-0.85509807 2.2592778 1.3510596
-0.83468759 2.203047 1.0401516
-0.82688248 2.1801701 0.77531582
-0.81600225 2.1492341 0.52793837
-0.79608619 2.0945954 0.29411432
-0.90648055 2.4153302 2.3788886
-0.87842369 2.3368759 1.9013705
-0.8660022 2.3014116 1.5305824
-0.84231007 2.2349174 1.1915514
-0.82864749 2.1963632 0.90616351
-0.81922615 2.1691198 0.64994848
-0.80516338 2.1307733 0.40991077
-0.78824723 2.0838277 0.1835482
0.023232151 0.22110206 24.073357
-0.71237159 2.0548043 13.825407
-0.88361812 2.4971056 12.758223
-1.2355273 3.4180918 11.666331
-1.3990256 3.8287852 9.6629181
-1.1219234 3.0505979 6.0239158
-1.0249414 2.7749665 4.4173346
-0.95841938 2.5865581 3.3791735
-0.34349158 1.3706707 24.273863
-0.47650731 1.62874 15.784336
-1.0594975 2.9713953 12.183152
-1.4359391 3.9683869 11.530541
-1.2441021 3.4085002 7.5662856
-1.0576074 2.8835013 5.0939445
-0.98367572 2.6718667 3.8448927
-0.93493146 2.5326798 3.0050001
-0.92476159 2.4798052 2.680625
-0.88359112 2.3656414 2.1185744
-0.86811501 2.3205261 1.7089936
-0.85652769 2.2871399 1.3649724
-0.83512908 2.2276518 1.0495168
-0.82769448 2.2054994 0.78236604
-0.81540519 2.1704631 0.53166884
-0.79578173 2.1160064 0.29590264
-0.90844125 2.4464819 2.4054925
-0.87871462 2.362659 1.9190295
-0.86247557 2.3165402 1.5381819
-0.84401792 2.2633591 1.2041397
-0.82923287 2.2213624 0.91438103
-0.82015669 2.1947317 0.65581006
-0.80639189 2.1567631 0.41336417
-0.78797346 2.1052823 0.18435432
0.023991641 0.22093321 24.063356
-0.70670545 2.0616887 13.855042
-0.87456 2.4992137 12.753327
-1.2235883 3.4223838 11.666331
-1.412877 3.9089763 9.8516207
-1.1284616 3.1017604 6.1160865
-1.0316654 2.8234606 4.4875946
-0.95931256 2.6169732 3.4137111
-0.33904928 1.3732631 24.298822
-0.47081906 1.6303933 15.784336
-1.0491189 2.9750757 12.183152
-1.422078 3.9733751 11.530541
-1.2588078 3.4865353 7.7283287
-1.0644349 2.9337575 5.1749978
-0.98465407 2.7035975 3.884793
-0.93422484 2.5582192 3.0307264
-0.92597455 2.5097849 2.7086616
-0.87937546 2.3796642 2.12799
-0.86726642 2.3431497 1.722701
-0.85777301 2.3150387 1.3788851
-0.83540887 2.2522864 1.058882
-0.82500005 2.2218661 0.78659606
-0.81466967 2.191714 0.53539932
-0.79533744 2.1374407 0.29769096
-0.90890789 2.4741716 2.428771
-0.87883621 2.3884723 1.9366884
-0.86034381 2.3357172 1.5483147
-0.84396642 2.2875812 1.21463
-0.82965362 2.246392 0.9225986
-0.81923282 2.2158175 0.66049933
-0.8057307 2.1781428 0.41612691
-0.78755951 2.1267602 0.18516044
0.02481254 0.22119361 24.103355
-0.70100003 2.0685589 13.884679
-0.86583072 2.5022511 12.753327
-1.2111369 3.4252269 11.661559
-1.4242126 3.9837916 10.026518
-1.1338452 3.1507516 6.2038684
-1.0265857 2.840277 4.5082593
-0.96219021 2.6534519 3.455924
-0.33425364 1.3744383 24.298822
-0.46527082 1.6325396 15.789308
-1.0383137 2.9775326 12.178312
-1.4087754 3.9799418 11.535234
-1.2751797 3.5708647 7.9038763
-1.0682817 2.9767313 5.2432523
-0.98440158 2.7325325 3.9207034
-0.93335128 2.5837843 3.0564525
-0.92698932 2.5398028 2.7366979
-0.88442713 2.4192767 2.1593745
-0.86627036 2.3657951 1.7364081
-0.85730928 2.3388147 1.3904791
-0.83552665 2.2769494 1.0682471
-0.82385558 2.2427442 0.79223621
-0.8137958 2.212986 0.53912979
-0.79475307 2.1588972 0.29947928
-0.91046739 2.5054033 2.4553752
-0.87878823 2.4143147 1.9543474
-0.85661274 2.3508573 1.5559143
-0.84531206 2.3160942 1.2272184
-0.82828921 2.2670159 0.92917264
-0.81817156 2.236923 0.66518861
-0.80492997 2.199544 0.41888961
-0.78700513 2.1482606 0.18596657
0.025565354 0.22097614 24.088354
-0.6952551 2.0754139 13.914314
-0.85709101 2.5052583 12.753327
-1.1991733 3.4294336 11.661559
-1.4350426 4.0587325 10.201413
-1.1413094 3.2065864 6.3048167
-1.0251899 2.8676915 4.5454555
-0.96482462 2.6899822 3.4981363
-0.32918632 1.3744735 24.278856
-0.45956939 1.6341537 15.789308
-1.0275043 2.9799507 12.173473
-1.3954443 3.9864635 11.539927
-1.2793797 3.6225066 8.0074043
-1.0762025 3.0320566 5.3328371
-0.98497009 2.7643368 3.9606035
-0.9323107 2.6093748 3.0821788
-0.92659485 2.5665038 2.7612295
-0.88788921 2.4552925 2.1876206
-0.86797476 2.3963253 1.7555984
-0.85669011 2.3626156 1.4020731
-0.83390057 2.2972829 1.0757391
-0.82093692 2.2591321 0.79646635
-0.81446242 2.2388947 0.5437929
-0.79573268 2.1850553 0.30171469
-0.91181982 2.5366759 2.4819791
-0.87993973 2.443989 1.9749496
-0.85278642 2.3659992 1.5635138
-0.84646887 2.3446441 1.2398067
-0.82679087 2.2876575 0.93574667
-0.81697291 2.2580481 0.66987789
-0.80398959 2.2209656 0.42165235
-0.78801221 2.1744795 0.18697423
0.026140586 0.21959133 23.93836
-0.68971509 2.0829918 13.948889
-0.84834081 2.5082347 12.753327
-1.1867073 3.4321878 11.656787
-1.4473009 4.139329 10.390117
-1.1444217 3.2512155 6.3838205
-1.0245531 2.897784 4.5867853
-0.96721554 2.7265627 3.5403488
-0.32425463 1.375052 24.268873
-0.4540045 1.6362618 15.794279
-1.0170962 2.9835191 12.173473
-1.3815205 3.9913104 11.539927
-1.286823 3.6844964 8.1334381
-1.0820225 3.0825508 5.4138899
-0.98633009 2.7990205 4.0044937
-0.93787909 2.6541674 3.129956
-0.9272244 2.596591 2.7892661
-0.8911103 2.4913611 2.2158666
-0.86806607 2.4229593 1.7720473
-0.85591519 2.3864405 1.4136672
-0.83370936 2.3219962 1.0851043
-0.81791383 2.2755268 0.80069637
-0.81329489 2.2602124 0.54752338
-0.79485148 2.2065606 0.30350298
-0.91296476 2.5679877 2.5085831
-0.8795386 2.4698925 1.9926084
-0.85899723 2.4095669 1.5888456
-0.84743643 2.3732295 1.252395
-0.82674789 2.3127627 0.94396424
-0.81563663 2.2791917 0.67456716
-0.80290931 2.2424076 0.42441505
-0.78716004 2.1960287 0.18778035
0.02686863 0.21950343 23.93836
-0.68425375 2.0896983 13.978524
-0.84001857 2.5110343 12.753327
-1.1748363 3.4346917 11.652015
-1.461666 4.2253442 10.592628
-1.1525371 3.3092752 6.4891582
-1.0307336 2.946321 4.6570454
-0.96984512 2.7630234 3.5825615
-0.31956303 1.3755571 24.25889
-0.44857594 1.6377584 15.794279
-1.0067953 2.9856846 12.168633
-1.3695339 3.9972634 11.54462
-1.2937342 3.7420154 8.2504692
-1.0894526 3.1352062 5.4992089
-0.99142605 2.8419368 4.0603542
-0.94296873 2.6955011 3.174058
-0.92930144 2.6299143 2.820807
-0.89453155 2.5273261 2.2441127
-0.86980665 2.4534123 1.7912376
-0.85540479 2.4101391 1.4252611
-0.83417457 2.3464441 1.0944695
-0.81880301 2.3006821 0.80774659
-0.8107388 2.2767801 0.55032122
-0.79589075 2.2326384 0.30573839
-0.91480958 2.5990193 2.535187
-0.88118231 2.4993279 2.0132108
-0.86003149 2.4366438 1.6040447
-0.84863389 2.4017024 1.2649833
-0.82537287 2.3332992 0.95053828
-0.81456411 2.300211 0.67925638
-0.8008247 2.2589214 0.42648712
-0.78694105 2.2173238 0.18858647
-0.68021888 2.0959172 14.00816
-0.83312142 2.5122581 12.748432
-1.1653609 3.436342 11.647243
-1.4583124 4.2492299 10.643256
-1.1647823 3.3709373 6.6032743
-1.0364484 2.9860489 4.7149067
-0.97517437 2.7985113 3.624774
-0.31637681 1.3759971 24.253897
-0.44499817 1.6392864 15.799251
-1.0005398 2.9877865 12.168633
-1.3610166 4.0019946 11.549313
-1.3057315 3.8046544 8.3810053
-1.0990493 3.1843226 5.5802612
-1.0022421 2.8924096 4.1281843
-0.95067328 2.7358983 3.2181599
-0.93184739 2.6592631 2.8488433
-0.89951324 2.5627134 2.2723589
-0.87213439 2.479197 1.8076863
-0.85687017 2.4331136 1.4368552
-0.8357358 2.370481 1.1038347
-0.82116556 2.3252923 0.81479669
-0.81335574 2.3019125 0.55498439
-0.79873651 2.2580509 0.30797377
-0.91999465 2.6328113 2.5651166
-0.8835209 2.5242112 2.0308697
-0.86447906 2.4670668 1.6217768
-0.85262012 2.4291689 1.2775716
-0.82831126 2.3572984 0.95875573
-0.81619644 2.3202529 0.68394566
-0.80431616 2.2839479 0.42994049
-0.7906009 2.2425258 0.18959412
-0.6757893 2.1022472 14.037795
-0.82610261 2.5145748 12.748432
-1.1548096 3.436753 11.637698
-1.4697118 4.3217225 10.813549
-1.184844 3.4602802 6.7700596
-1.0409189 3.0261862 4.772768
-0.97836864 2.8347206 3.6669865
-0.31253308 1.3768753 24.253897
-0.44041869 1.6405227 15.799251
-0.99167055 2.990742 12.168633
-1.3496872 4.0076509 11.554006
-1.3147253 3.8659952 8.5070391
-1.1056228 3.2344587 5.661314
-1.0102824 2.9438224 4.1960149
-0.95627427 2.7770078 3.2622619
-0.93494666 2.6921751 2.8803842
-0.90386218 2.5983014 2.3006048
-0.8748433 2.5092614 1.8268765
-0.85883069 2.4605908 1.450768
-0.83828807 2.3990643 1.1150728
-0.82218236 2.350359 0.8218469
-0.81341869 2.3227196 0.55871487
-0.8006658 2.2837703 0.31020918
-0.92194813 2.6637571 2.5917206
-0.88574088 2.5534003 2.0514717
-0.86607111 2.4939048 1.6369759
-0.85286057 2.4531226 1.2880619
-0.82907432 2.3820446 0.9669733
-0.81611431 2.3408821 0.68863493
-0.80406016 2.3050275 0.43270323
-0.79217923 2.2684445 0.19060178
0.029033141 0.22054732 24.088354
-0.66985732 2.1090367 14.06743
-0.81669158 2.5155065 12.738642
-1.1423357 3.4393466 11.632927
-1.4843483 4.4178257 11.039072
-1.2013173 3.5508096 6.9368443
-1.0406861 3.0619535 4.8223634
-0.97935224 2.8716583 3.7091992
-0.30724394 1.3780651 24.253897
-0.4341163 1.6422018 15.799251
-0.98017967 2.9945278 12.168633
-1.3348334 4.014441 11.558699
-1.3241276 3.94554 8.6690826
-1.1076344 3.2833531 5.738101
-1.0148889 2.9963725 4.2638454
-0.957717 2.8195097 3.3063638
-0.93480843 2.7224059 2.9084206
-0.90491432 2.6308863 2.3257127
-0.87517488 2.5401249 1.8460668
-0.85847282 2.4888484 1.4646807
-0.83856815 2.4284127 1.1263111
-0.82139885 2.3760254 0.82889712
-0.81293285 2.3488955 0.56337792
-0.79881144 2.3055117 0.3119975
-0.92137384 2.6955421 2.6183245
-0.88464874 2.5837038 2.0720737
-0.86443967 2.5218289 1.6521751
-0.85227811 2.4821341 1.3006502
-0.82759708 2.4075389 0.97519082
-0.81461918 2.3671198 0.69449651
-0.80124974 2.3269658 0.43546596
-0.79283577 2.2999451 0.19181097
0.02980282 0.22044463 24.088354
-0.66435122 2.1172934 14.106945
-0.80883855 2.5212505 12.753327
-1.1303231 3.4433129 11.632927
-1.491699 4.4915814 11.209366
-1.2109423 3.620851 7.0641279
-1.043434 3.1055803 4.8843579
-0.9836573 2.9175813 3.762924
-0.30243173 1.3791292 24.253897
-0.42851534 1.6442227 15.804221
-0.96972078 2.9979308 12.168633
-1.3208122 4.0190763 11.558699
-1.3405023 4.0410528 8.867136
-1.1134905 3.3391559 5.8276854
-1.0216427 3.0513299 4.3356657
-0.95973915 2.8581879 3.3467906
-0.93447047 2.7526684 2.9364569
-0.90700299 2.6671948 2.3539586
-0.87574035 2.5708711 1.8652571
-0.85835856 2.5169864 1.4785935
-0.8390733 2.4576488 1.1375493
-0.82240885 2.4061136 0.83735728
-0.81109011 2.3703098 0.56710839
-0.79882848 2.3318422 0.31423289
-0.92152095 2.7270401 2.6449285
-0.88599187 2.6174049 2.095619
-0.86393273 2.5493274 1.6673741
-0.85090292 2.5065823 1.3111404
-0.82830489 2.4372394 0.98505193
-0.815745 2.3975582 0.70153046
-0.80110157 2.3531878 0.43891934
-0.79286104 2.3263431 0.19281861
0.030505903 0.2199522 24.043356
-0.65718633 2.1203415 14.111884
-0.80157048 2.5289118 12.777803
-1.1178362 3.4458177 11.628155
-1.5034263 4.5802917 11.41648
-1.217086 3.6819055 7.1738544
-1.0485504 3.1572747 4.9587507
-0.98562694 2.9574873 3.808974
-0.29761583 1.3801764 24.253897
-0.42277336 1.6457086 15.804221
-0.95886749 3.0001001 12.163794
-1.3073078 4.0253034 11.563391
-1.3691103 4.1760306 9.150712
-1.1140726 3.3801773 5.8916745
-1.0213983 3.0863447 4.3795562
-0.96257067 2.9001319 3.3908927
-0.93393242 2.7829614 2.9644933
-0.90760881 2.6998601 2.3790665
-0.87610179 2.6016517 1.8844473
-0.85805815 2.5451534 1.4925063
-0.83938438 2.4869175 1.1487875
-0.82168299 2.4316928 0.84440744
-0.8122561 2.401046 0.57270414
-0.79867119 2.3582003 0.31646827
-0.92264223 2.7621133 2.6748581
-0.88711041 2.6511467 2.1191642
-0.85776711 2.5605028 1.6724405
-0.85081124 2.5353537 1.3237287
-0.82881534 2.4669738 0.99491298
-0.81511873 2.4234264 0.70739204
-0.80078006 2.3794367 0.44237274
-0.79271156 2.3527687 0.19382627
0.031273495 0.21984437 24.043356
-0.6506902 2.1255949 14.131641
-0.79425877 2.5365531 12.802279
-1.1058013 3.4496987 11.628155
-1.5187715 4.6821461 11.65581
-1.2235618 3.7453237 7.2879705
-1.057706 3.2224109 5.0538087
-0.98933524 3.003531 3.8626993
-0.29279631 1.381207 24.253897
-0.41702619 1.6471742 15.804221
-0.94838935 3.0034289 12.163794
-1.2932489 4.0298419 11.563391
-1.3853866 4.2760496 9.3577681
-1.1151892 3.4237225 5.9599295
-1.0218585 3.124259 4.4274364
-0.96406424 2.9389083 3.4313195
-0.92982608 2.803129 2.9820161
-0.90922487 2.7362556 2.4073124
-0.87757945 2.6364336 1.906379
-0.85757148 2.5733485 1.5064191
-0.83803415 2.5118206 1.1581527
-0.82230836 2.4618461 0.85286766
-0.81165922 2.42716 0.57736725
-0.79833966 2.3845856 0.31870368
-0.92235923 2.7936814 2.701462
-0.88800412 2.6849282 2.1427097
-0.86372888 2.6084967 1.7003053
-0.85052896 2.5641546 1.3363171
-0.82912815 2.4967411 1.0047741
-0.81432164 2.4493186 0.71325362
-0.80028492 2.4057119 0.44582614
-0.79238713 2.3792214 0.19483392
0.032071341 0.21990569 24.063356
-0.64371592 2.1293409 14.14152
-0.78660274 2.5432012 12.821861
-1.0937529 3.4535377 11.628155
-1.5274611 4.7655578 11.849116
-1.2303451 3.8111098 7.406476
-1.065551 3.2849717 5.144733
-0.99074978 3.0435402 3.9087491
-0.28797323 1.3822206 24.253897
-0.41127393 1.64862 15.804221
-0.93789965 3.006721 12.163794
-1.2796959 4.0359764 11.568083
-1.3943442 4.3554983 9.5198116
-1.1311963 3.5144861 6.1092372
