# .PCD v0.7 - Point Cloud Data file format
VERSION 0.7
FIELDS x y z
SIZE 4 4 4
TYPE F F F
COUNT 1 1 1
WIDTH 1393
HEIGHT 1
VIEWPOINT 0 0 0 1 0 0 0
POINTS 1393
DATA ascii
-1.0539732 -0.23323673 2.6026456
-0.97502255 -0.21788593 1.8981816
-0.91212922 -0.20515297 1.4457443
-0.88975739 -0.20108421 1.1687713
-0.28259683 -0.033401974 4.7614703
-0.51918519 -0.080290735 4.8569708
-1.2093397 -0.25774673 4.7981901
-1.1389991 -0.24831273 3.2243452
-1.0092055 -0.222946 2.2008381
-0.94612247 -0.21055144 1.6556019
-0.89358687 -0.19999109 1.2872872
-0.880983 -0.1979631 1.0571631
-0.88358164 -0.20161921 0.97040659
-0.8680827 -0.1985514 0.80042273
-0.85802525 -0.19671389 0.66175348
-0.85194063 -0.19562434 0.54411715
-0.83662724 -0.1924082 0.43516198
-0.82774419 -0.19066186 0.3396157
-0.8376357 -0.19324271 0.25468066
-0.82465804 -0.19054425 0.1689322
-0.88101035 -0.19973363 0.88573903
-0.85784709 -0.19494559 0.72410631
-0.85922575 -0.19556634 0.60343897
-0.86835152 -0.19811338 0.49919412
-0.83838809 -0.19157836 0.38845813
-0.8198387 -0.18763342 0.29356396
-0.82047856 -0.18792528 0.20961356
-0.832425 -0.1909593 0.12812719
-0.13958879 0.031702422 14.993702
-0.75341302 -0.15109776 4.8853502
-1.0553583 -0.21848512 5.2048869
-1.1631486 -0.24893092 3.8498213
-1.054781 -0.22955626 2.6026456
-0.97577715 -0.21448113 1.8981816
-0.91009218 -0.20136018 1.4416113
-0.89045388 -0.19797716 1.1687713
-0.28271168 -0.032415323 4.7614703
-0.51946229 -0.078477956 4.8569708
-1.2114624 -0.25378126 4.80303
-1.1364841 -0.24361247 3.2149594
-1.0099776 -0.21942186 2.2008381
-0.94685161 -0.20724756 1.6556019
-0.89427954 -0.19687065 1.2872872
-0.88166863 -0.1948867 1.0571631
-0.88080043 -0.19775273 0.96690202
-0.86497313 -0.19466563 0.79728431
-0.85870671 -0.19371761 0.66175348
-0.85261834 -0.19264932 0.54411715
-0.8372938 -0.18948665 0.43516198
-0.82840466 -0.18777134 0.3396157
-0.83351481 -0.18923017 0.25374803
-0.82046217 -0.18656036 0.16848512
-0.8780579 -0.19584455 0.88241351
-0.85852236 -0.19194996 0.72410631
-0.85990322 -0.1925659 0.60343897
-0.86460948 -0.19408716 0.49709606
-0.83905172 -0.18865067 0.38845813
-0.81574678 -0.18370274 0.29239166
-0.82596052 -0.18614882 0.21030425
-0.83308649 -0.18805245 0.12812719
-0.13926737 0.032130048 14.968703
-0.75393587 -0.14846694 4.8853502
-1.0551167 -0.21459723 5.1999917
-1.1625497 -0.24456221 3.8450491
-1.0555757 -0.22587299 2.6026456
-0.97417885 -0.21056801 1.8937924
-0.91078955 -0.19818214 1.4416113
-0.88800824 -0.19418323 1.1649337
-0.28368449 -0.031518809 4.7764459
-0.51973307 -0.076664209 4.8569708
-1.2135721 -0.24980411 4.8078694
-1.1339502 -0.23893283 3.205574
-1.0086085 -0.21544059 2.196337
-0.94756931 -0.20394117 1.6556019
-0.89496124 -0.19374785 1.2872872
-0.88234353 -0.19180793 1.0571631
-0.88148534 -0.19467695 0.96690202
-0.86564738 -0.19164513 0.79728431
-0.85937762 -0.19071899 0.66175348
-0.85328561 -0.18967195 0.54411715
-0.83795011 -0.18656281 0.43516198
-0.82905507 -0.18487853 0.3396157
-0.8389644 -0.18739025 0.25468066
-0.8211084 -0.18369527 0.16848512
-0.8787362 -0.19277835 0.88241351
-0.85918719 -0.18895198 0.72410631
-0.86057013 -0.1895631 0.60343897
-0.86084986 -0.19008946 0.49499801
-0.83970511 -0.18572068 0.38845813
-0.816383 -0.18085414 0.29239166
-0.82660526 -0.18326455 0.21030425
-0.83373785 -0.18514328 0.12812719
-0.13902853 0.03257988 14.953704
-0.75521243 -0.14598137 4.8902898
-1.0508666 -0.20991705 5.1755161
-1.1633962 -0.24050266 3.8450491
-1.0563579 -0.22218697 2.6026456
-0.97490793 -0.20716621 1.8937924
-0.90872389 -0.19441326 1.4374783
-0.88868064 -0.19108231 1.1649337
-0.28436717 -0.030586721 4.7864289
-0.51946974 -0.074774705 4.8519993
-1.2144367 -0.24556643 4.8078694
-1.1313976 -0.23427385 3.1961884
-1.0093542 -0.21191858 2.196337
-0.94572377 -0.20009273 1.651336
-0.89563209 -0.19062267 1.2872872
-0.88300771 -0.1887268 1.0571631
-0.88215953 -0.19159882 0.96690202
-0.86631107 -0.18862228 0.79728431
-0.8559528 -0.18682656 0.65901202
-0.85827017 -0.18763822 0.54643595
-0.83859622 -0.18363667 0.43516198
-0.82969534 -0.18198346 0.3396157
-0.83961338 -0.18446057 0.25468066
-0.82174462 -0.18082795 0.16848512
-0.87940371 -0.18970981 0.88241351
-0.85984147 -0.18595171 0.72410631
-0.86122662 -0.18655799 0.60343897
-0.86150813 -0.18708339 0.49499801
-0.83573401 -0.18178487 0.38681462
-0.81700939 -0.17800333 0.29239166
-0.82723987 -0.18037805 0.21030425
-0.83437902 -0.18223186 0.12812719
-0.13878827 0.033028439 14.938704
-0.7557174 -0.1433443 4.8902898
-1.0475961 -0.20546487 5.1559353
-1.1627659 -0.23614337 3.8402774
-1.0552138 -0.21810307 2.5980432
-0.97328055 -0.20327251 1.8894032
-0.90939707 -0.19124003 1.4374783
-0.88620621 -0.18731651 1.1610962
-0.28504685 -0.02965025 4.7964125
-0.51972759 -0.072960965 4.8519993
-1.2152865 -0.24132575 4.8078694
-1.1305175 -0.22997938 3.1914957
-1.0079557 -0.20795436 2.1918356
-0.94386303 -0.19625965 1.6470701
-0.89629203 -0.18749517 1.2872872
-0.88034326 -0.18494663 1.0534879
-0.87933528 -0.18777381 0.9633975
-0.86696422 -0.18559715 0.79728431
-0.85659975 -0.18383758 0.65901202
-0.85891992 -0.18464115 0.54643595
-0.83923215 -0.1807083 0.43516198
-0.83501476 -0.18009746 0.34102574
-0.84025216 -0.18152866 0.25468066
-0.82237083 -0.17795843 0.16848512
-0.88006061 -0.18663898 0.88241351
-0.86048537 -0.18294919 0.72410631
-0.86187255 -0.18355061 0.60343897
-0.85771739 -0.18312754 0.49289995
-0.83636343 -0.17886652 0.38681462
-0.81762576 -0.17515035 0.29239166
-0.82786447 -0.17748934 0.21030425
-0.83501005 -0.17931822 0.12812719
-0.13863027 0.033500373 14.933704
-0.75621319 -0.14070548 4.8902898
-1.0433074 -0.20084587 5.1314588
-1.1621192 -0.23179139 3.8355052
-1.0559686 -0.21441835 2.5980432
-0.97398418 -0.19987386 1.8894032
-0.91005909 -0.18806447 1.4374783
-0.88685465 -0.18422192 1.1610962
-0.28514862 -0.028655071 4.7964125
-0.51997912 -0.071146332 4.8519993
-1.2161214 -0.23708215 4.8078694
-1.1296209 -0.22569387 3.1868029
-1.0086755 -0.20443468 2.1918356
-0.94198704 -0.19244201 1.642804
-0.89398944 -0.18375896 1.2832973
-0.88098353 -0.18187252 1.0534879
-0.87998539 -0.18470323 0.9633975
-0.86760676 -0.18256974 0.79728431
-0.85723627 -0.18084638 0.65901202
-0.85955918 -0.18164185 0.54643595
-0.83985782 -0.17777774 0.43516198
-0.83563834 -0.17718162 0.34102574
-0.84088069 -0.17859453 0.25468066
-0.82298696 -0.17508674 0.16848512
-0.88070673 -0.18356586 0.88241351
-0.86111873 -0.17994441 0.72410631
-0.862508 -0.18054101 0.60343897
-0.85835141 -0.18013243 0.49289995
-0.83698273 -0.17594597 0.38681462
-0.82298851 -0.17329669 0.29356396
-0.82847899 -0.17459847 0.21030425
-0.83074278 -0.17537053 0.12792566
-0.13851248 0.03398408 14.933704
-0.75669974 -0.13806495 4.8902898
-1.0410004 -0.19663674 5.1167731
-1.1614563 -0.22744682 3.8307333
-1.0547945 -0.21034922 2.5934405
-0.97232825 -0.19599986 1.8850143
-0.91070998 -0.18488662 1.4374783
-0.8874923 -0.1811251 1.1610962
-0.2846719 -0.027607212 4.7864289
-0.52022427 -0.069330826 4.8519993
-1.2157069 -0.23259966 4.80303
-1.1304018 -0.22174938 3.1868029
-1.0072479 -0.20048781 2.1873345
-0.94009596 -0.18863989 1.6385381
-0.89462548 -0.18063724 1.2832973
-0.88161296 -0.1787962 1.0534879
-0.88062471 -0.18163037 0.9633975
-0.86823875 -0.17954013 0.79728431
-0.85786229 -0.17785296 0.65901202
-0.86018801 -0.17864032 0.54643595
-0.84047323 -0.17484501 0.43516198
-0.83625174 -0.17426361 0.34102574
-0.84149897 -0.17565821 0.25468066
-0.82359314 -0.17221291 0.16848512
-0.88134211 -0.18049049 0.88241351
-0.85778219 -0.17612469 0.72116315
-0.8589105 -0.17666091 0.60090578
-0.86342001 -0.17805159 0.49499801
-0.83759177 -0.17302327 0.38681462
-0.82358843 -0.17042287 0.29356396
-0.82423419 -0.17070127 0.20961356
-0.83134985 -0.17246962 0.12792566
-0.1384348 0.034479994 14.938704
-0.75794196 -0.13555911 4.8952284
-1.0376755 -0.19226094 5.0971918
-1.1607772 -0.22310971 3.8259614
-1.0536052 -0.2062909 2.5888383
-0.97300643 -0.1926046 1.8850143
-0.90859002 -0.18115658 1.4333454
-0.88811916 -0.17802608 1.1610962
-0.28447893 -0.026588192 4.7814369
-0.52046311 -0.067514494 4.8519993
-1.2140406 -0.22789134 4.7933512
-1.1294746 -0.21747619 3.1821103
-1.0058049 -0.19655338 2.1828332
-0.93818986 -0.1848533 1.6342722
-0.89525056 -0.17751332 1.2832973
-0.88223171 -0.17571771 1.0534879
-0.88125342 -0.17855531 0.9633975
-0.86886019 -0.17650831 0.79728431
-0.85847789 -0.17485738 0.65901202
-0.85646588 -0.17475118 0.54411715
-0.84107846 -0.17191015 0.43516198
-0.83215535 -0.17038137 0.3396157
-0.83729494 -0.17173284 0.25374803
-0.82418925 -0.16933697 0.16848512
-0.88196677 -0.17741293 0.88241351
-0.85839176 -0.17312941 0.72116315
-0.85952193 -0.17366166 0.60090578
-0.86403626 -0.17503662 0.49499801
-0.83356273 -0.16915946 0.38517112
-0.82417828 -0.16754697 0.29356396
-0.82482505 -0.16782311 0.20961356
-0.82705152 -0.16856888 0.12772413
-0.13831359 0.034963008 14.938704
-0.75841051 -0.13291258 4.8952284
-1.0363367 -0.18827419 5.0874019
-1.160082 -0.21878009 3.8211894
-1.0504817 -0.20187505 2.5796332
-0.97132176 -0.18875043 1.8806251
-0.90921682 -0.17798389 1.4333454
-0.88873512 -0.17492488 1.1610962
-0.28428236 -0.025570858 4.7764459
-0.52069563 -0.06569732 4.8519993
-1.2123562 -0.22319748 4.7836723
-1.1285311 -0.21321216 3.1774173
-1.004347 -0.1926315 2.1783321
-0.93370807 -0.18058737 1.6257404
-0.89290696 -0.17381176 1.2793072
-0.88283974 -0.17263708 1.0534879
-0.88187128 -0.17547807 0.9633975
-0.86947101 -0.17347434 0.79728431
-0.85908306 -0.17185967 0.65901202
-0.85707062 -0.1717605 0.54411715
-0.84167343 -0.16897319 0.43516198
-0.83274502 -0.16747557 0.3396157
-0.83788931 -0.1688091 0.25374803
-0.81989378 -0.1654738 0.16803804
-0.87891763 -0.1736099 0.87908798
-0.85502583 -0.1693469 0.71822
-0.86012292 -0.17066032 0.60090578
-0.86464202 -0.1720195 0.49499801
-0.83414817 -0.16624875 0.38517112
-0.81999153 -0.16371743 0.29239166
-0.82054985 -0.16397257 0.20892289
-0.82763487 -0.1656809 0.12772413
-0.13823238 0.035458509 14.943704
-0.75886983 -0.13026442 4.8952284
-1.03398 -0.18412094 5.0727162
-1.1608386 -0.21472931 3.8211894
-1.0492601 -0.19784522 2.5750306
-0.97197467 -0.18535873 1.8806251
-0.90983254 -0.17480905 1.4333454
-0.88934034 -0.17182153 1.1610962
-0.28408208 -0.024555217 4.7714539
-0.52092177 -0.063879356 4.8519993
-1.2118908 -0.21874119 4.7788324
-1.1275717 -0.20895737 3.1727247
-1.0050132 -0.18912449 2.1783321
-0.93177038 -0.17684101 1.6214744
-0.8935082 -0.17069387 1.2793072
-0.88343692 -0.16955434 1.0534879
-0.88247842 -0.1723987 0.9633975
-0.86625153 -0.16969025 0.79414582
-0.85967773 -0.16885985 0.65901202
-0.857665 -0.16876771 0.54411715
-0.83770972 -0.16513768 0.43328893
-0.82861835 -0.16363843 0.33820567
-0.83365458 -0.16493 0.25281543
-0.8204664 -0.16261083 0.16803804
-0.87951833 -0.17054085 0.87908798
-0.85561174 -0.16636127 0.71822
-0.85648209 -0.16683289 0.59837258
-0.86523718 -0.1690003 0.49499801
-0.83472341 -0.16333601 0.38517112
-0.81578821 -0.1599192 0.29121932
-0.81625777 -0.16015394 0.20823221
-0.82820815 -0.16279091 0.12772413
-0.13814941 0.035953872 14.948704
-0.75931996 -0.12761468 4.8952284
-1.0326102 -0.18016113 5.0629253
-1.1601123 -0.21040978 3.8164172
-1.0499443 -0.19418141 2.5750306
-0.97026163 -0.18152465 1.8762361
-0.91043723 -0.17163208 1.4333454
-0.88993472 -0.16871612 1.1610962
-0.28474176 -0.023607733 4.7814369
-0.521671 -0.062122524 4.8569708
-1.2101715 -0.21407217 4.7691541
-1.1265963 -0.20471188 3.1680319
-1.0035264 -0.18522035 2.1738307
-0.92981803 -0.17311038 1.6172085
-0.89113688 -0.1670191 1.2753172
-0.88402343 -0.16646954 1.0534879
-0.88307482 -0.16931723 0.9633975
-0.86683857 -0.16666543 0.79414582
-0.86026186 -0.165858 0.65901202
-0.85824889 -0.16577287 0.54411715
-0.83828098 -0.16221252 0.43328893
-0.82918453 -0.16074502 0.33820567
-0.83422524 -0.16201901 0.25281543
-0.82102901 -0.15974589 0.16803804
-0.8801083 -0.16746973 0.87908798
-0.85618722 -0.16337362 0.71822
-0.85705924 -0.16384219 0.59837258
-0.86582184 -0.16597903 0.49499801
-0.83528847 -0.1604213 0.38517112
-0.81634146 -0.15707059 0.29121932
-0.81681186 -0.15730371 0.20823221
-0.82877141 -0.15989894 0.12772413
-0.13806464 0.036449082 14.953704
-0.75899404 -0.12483769 4.8902898
-1.0322291 -0.17638431 5.0580301
-1.1593701 -0.20609798 3.8116455
-1.0486934 -0.19016694 2.5704281
-0.97088933 -0.17813669 1.8762361
-0.90826362 -0.16794166 1.4292125
-0.89051825 -0.16560864 1.1610962
-0.28367075 -0.022529081 4.7614703
-0.52188468 -0.060301173 4.8569708
-1.2084342 -0.20941781 4.7594748
-1.125605 -0.20047575 3.1633391
-1.0041668 -0.18171626 2.1738307
-0.93041658 -0.16986366 1.6172085
-0.89171445 -0.16390742 1.2753172
-0.88459909 -0.16338271 1.0534879
-0.8836605 -0.16623369 0.9633975
-0.86359012 -0.16291724 0.7910074
-0.85672706 -0.16207705 0.65627056
-0.85882235 -0.16277601 0.54411715
-0.83884215 -0.15928538 0.43328893
-0.82974058 -0.15784964 0.33820567
-0.8347857 -0.15910603 0.25281543
-0.82158166 -0.15687899 0.16803804
-0.88068748 -0.16439654 0.87908798
-0.85675228 -0.16038398 0.71822
-0.8576259 -0.16084948 0.59837258
-0.86193562 -0.16211696 0.49289995
-0.83584338 -0.15750462 0.38517112
-0.81210846 -0.15331845 0.29004702
-0.81248999 -0.1535321 0.20754153
-0.82932448 -0.157005 0.12772413
-0.13793658 0.036930796 14.953704
-0.75942516 -0.12218755 4.8902898
-1.0308299 -0.1724447 5.0482397
-1.1600825 -0.20204976 3.8116455
-1.0493509 -0.18650515 2.5704281
-0.96914792 -0.17432283 1.8718469
-0.90884435 -0.1647702 1.4292125
-0.89109087 -0.16249914 1.1610962
-0.28345969 -0.021518612 4.7564793
-0.52209198 -0.058479086 4.8569708
-1.2066793 -0.20477821 4.7497964
-1.1245979 -0.19624904 3.1586463
-1.0047951 -0.17820995 2.1738307
-0.92843664 -0.16615571 1.6129426
-0.88931561 -0.16025965 1.2713271
-0.88182813 -0.15969005 1.0498128
-0.88423538 -0.16314812 0.9633975
-0.86415356 -0.15990175 0.7910074
-0.85728759 -0.15908553 0.65627056
-0.85503006 -0.15896763 0.54179835
-0.83939302 -0.1563563 0.43328893
-0.83028656 -0.15495235 0.33820567
-0.83533597 -0.15619113 0.25281543
-0.8221243 -0.15401018 0.16803804
-0.88125598 -0.16132139 0.87908798
-0.85333139 -0.15666272 0.71527684
-0.85818219 -0.15785484 0.59837258
-0.86249626 -0.15910727 0.49289995
-0.83638805 -0.15458602 0.38517112
-0.8126387 -0.15048273 0.29004702
-0.813021 -0.15069504 0.20754153
-0.82986748 -0.15410917 0.12772413
-0.13780682 0.037412059 14.953704
-0.7598471 -0.11953591 4.8902898
-1.0304207 -0.16868117 5.0433445
-1.1607807 -0.19799909 3.8116455
-1.0480707 -0.18250622 2.5658255
-0.96975052 -0.17093882 1.8718469
-0.90941399 -0.16159675 1.4292125
-0.8916527 -0.15938766 1.1610962
-0.28122863 -0.02037596 4.7165461
-0.52229297 -0.05665629 4.8569708
-1.2061468 -0.20035914 4.744957
-1.1235751 -0.1920318 3.1539536
-1.005411 -0.17470147 2.1738307
-0.92901099 -0.16291384 1.6129426
-0.88986963 -0.15715438 1.2713271
-0.88238013 -0.15661092 1.0498128
-0.88129014 -0.15942599 0.95989293
-0.86470646 -0.15688431 0.7910074
-0.85783768 -0.15609208 0.65627056
-0.85557973 -0.15598203 0.54179835
-0.83993369 -0.15342532 0.43328893
-0.83082235 -0.15205316 0.33820567
-0.84070778 -0.15416022 0.25374803
-0.82755482 -0.15203932 0.16848512
-0.8818137 -0.15824424 0.87908798
-0.85387301 -0.15368308 0.71527684
-0.85872793 -0.15485826 0.59837258
-0.85858029 -0.15528803 0.49080193
-0.83692253 -0.15166552 0.38517112
-0.81315905 -0.14764518 0.29004702
-0.81354207 -0.14785616 0.20754153
-0.83040035 -0.15121146 0.12772413
-0.13763393 0.037879232 14.948704
-0.75949168 -0.11676516 4.8853502
-1.0289923 -0.16476195 5.0335546
-1.1599923 -0.1937004 3.8068733
-1.0487014 -0.17884664 2.5658255
-0.97034132 -0.16755272 1.8718469
-0.90997249 -0.15842131 1.4292125
-0.89220357 -0.15627424 1.1610962
-0.28014556 -0.019321656 4.6965795
-0.52248752 -0.054832801 4.8569708
-1.205598 -0.19594628 4.7401171
-1.1242385 -0.18810861 3.1539536
-1.0038686 -0.17082596 2.1693296
-0.9270035 -0.15922879 1.6086767
-0.88744342 -0.15353377 1.2673371
-0.87958139 -0.15294935 1.0461376
-0.8818413 -0.15634874 0.95989293
-0.8652488 -0.15386498 0.7910074
-0.85837734 -0.15309671 0.65627056
-0.85175824 -0.15221544 0.53947955
-0.84046412 -0.15049247 0.43328893
-0.83134806 -0.14915213 0.33820567
-0.84124076 -0.15122464 0.25374803
-0.82808048 -0.1491497 0.16848512
-0.8823607 -0.15516517 0.87908798
-0.85440427 -0.15070157 0.71527684
-0.85926324 -0.1518598 0.59837258
-0.85911715 -0.15229008 0.49080193
-0.83744687 -0.14874321 0.38517112
-0.81845492 -0.14565738 0.29121932
-0.81405318 -0.14501546 0.20754153
-0.82600492 -0.14743406 0.1275226
-0.13750088 0.03835943 14.948704
-0.75989467 -0.11411332 4.8853502
-1.0285552 -0.1610119 5.0286589
-1.1591882 -0.18940963 3.8021016
-1.0473921 -0.17486346 2.5612228
-0.97092026 -0.16416457 1.8718469
-0.9077459 -0.15477125 1.4250796
-0.89274365 -0.15315892 1.1610962
-0.27877036 -0.018258041 4.6716208
-0.52320623 -0.053061318 4.8619423
-1.2050333 -0.1915397 4.7352781
-1.1248883 -0.18418314 3.1539536
-1.0044588 -0.16732076 2.1693296
-0.92755365 -0.15599196 1.6086767
-0.88797402 -0.15043509 1.2673371
-0.88010991 -0.1498781 1.0461376
-0.88238168 -0.15326957 0.95989293
-0.86578065 -0.15084375 0.7910074
-0.85890651 -0.15009947 0.65627056
-0.85228437 -0.14924131 0.53947955
-0.84098434 -0.1475578 0.43328893
-0.8271389 -0.14541872 0.33679563
-0.83692575 -0.14743508 0.25281543
-0.8236919 -0.14539263 0.16803804
-0.88289696 -0.15208422 0.87908798
-0.8549251 -0.14771824 0.71527684
-0.85978812 -0.14885949 0.59837258
-0.85964352 -0.14929026 0.49080193
-0.83796096 -0.14581907 0.38517112
-0.8189584 -0.14279956 0.29121932
-0.81455445 -0.14217301 0.20754153
-0.82159328 -0.1436892 0.12732106
-0.13720074 0.038783472 14.928705
-0.76028836 -0.1114601 4.8853502
-1.0270977 -0.15711327 5.0188684
-1.1598423 -0.18536215 3.8021016
-1.0479962 -0.17120633 2.5612228
-0.9714874 -0.16077444 1.8718469
-0.90828061 -0.15160169 1.4250796
-0.89327282 -0.15004173 1.1610962
-0.27739117 -0.017204262 4.6466627
-0.52338827 -0.051234663 4.8619423
-1.2044524 -0.18713944 4.7304387
-1.1255243 -0.18025543 3.1539536
-1.0050367 -0.16381352 2.1693296
-0.92809254 -0.15275325 1.6086767
-0.88849372 -0.14733456 1.2673371
-0.88062775 -0.14680505 1.0461376
-0.88291126 -0.15018857 0.95989293
-0.86246502 -0.14716622 0.78786892
-0.85942519 -0.14710042 0.65627056
-0.84843409 -0.14551672 0.53716075
-0.84149432 -0.14462131 0.43328893
-0.82764149 -0.14253059 0.33679563
-0.83743531 -0.14451279 0.25281543
-0.82419443 -0.14251652 0.16803804
-0.88342249 -0.14900139 0.87908798
-0.85543549 -0.14473309 0.71527684
-0.86030251 -0.14585735 0.59837258
-0.8601594 -0.14628865 0.49080193
-0.83846492 -0.14289315 0.38517112
-0.81945187 -0.13993998 0.29121932
-0.81992704 -0.14016318 0.20823221
-0.81716561 -0.13997693 0.12711954
-0.13718843 0.039304361 14.943704
-0.76067275 -0.10880552 4.8853502
-1.026633 -0.15337694 5.0139737
-1.1590073 -0.18108225 3.7973294
-1.0466583 -0.16723911 2.5566204
-0.97204268 -0.15738232 1.8718469
-0.90602702 -0.14797698 1.4209466
-0.89379114 -0.14692271 1.1610962
-0.27658468 -0.016190555 4.6316876
-0.52409464 -0.049456339 4.8669133
-1.2038555 -0.18274559 4.7255993
-1.1244417 -0.17605884 3.1492608
-1.0034525 -0.15996186 2.1648283
-0.92604518 -0.1490984 1.6044106
-0.88900262 -0.14423224 1.2673371
-0.87778884 -0.14318465 1.0424625
-0.87991232 -0.14652017 0.95638841
-0.86297345 -0.14415477 0.78786892
-0.85993344 -0.14409958 0.65627056
-0.85330552 -0.14328766 0.53947955
-0.84199399 -0.14168307 0.43328893
-0.828134 -0.1396407 0.33679563
-0.83793461 -0.1415887 0.25281543
-0.82468688 -0.13963868 0.16803804
-0.88025331 -0.14530887 0.87576252
-0.85593551 -0.14174616 0.71527684
-0.85655367 -0.1421479 0.59583938
-0.86066484 -0.14328523 0.49080193
-0.83895856 -0.13996549 0.38517112
-0.81993532 -0.1370787 0.29121932
-0.82041126 -0.13730025 0.20823221
-0.81272215 -0.13629736 0.126918
-0.13717416 0.039825637 14.958704
-0.76181751 -0.10625654 4.8902898
-1.0271621 -0.14979239 5.0139737
-1.1596323 -0.17703545 3.7973294
-1.0472356 -0.16358458 2.5566204
-0.97022063 -0.15361407 1.867458
-0.90653801 -0.14481345 1.4209466
-0.89113396 -0.14329332 1.1572587
-0.27606282 -0.015196791 4.6217041
-0.5242641 -0.047626603 4.8669133
-1.2032427 -0.17835817 4.7207594
-1.1233436 -0.171872 3.1445682
-1.0040047 -0.15645818 2.1648283
-0.92656004 -0.14586499 1.6044106
-0.88950062 -0.14112817 1.2673371
-0.87828326 -0.14011972 1.0424625
-0.88041842 -0.14344782 0.95638841
-0.86347139 -0.14114155 0.78786892
-0.86043119 -0.14109696 0.65627056
-0.85380048 -0.1403082 0.53947955
-0.8424834 -0.1387431 0.43328893
-0.82861638 -0.13674913 0.33679563
-0.83357733 -0.13786146 0.25188279
-0.82516932 -0.13675912 0.16803804
-0.88075513 -0.14223534 0.87576252
-0.85642511 -0.13875753 0.71527684
-0.85704464 -0.1391571 0.59583938
-0.86563915 -0.1410096 0.49289995
-0.83944201 -0.13703613 0.38517112
-0.81561196 -0.13343109 0.29004702
-0.82088554 -0.13443564 0.20823221
-0.81319296 -0.1334596 0.126918
-0.13711672 0.040332936 14.968703
-0.76218379 -0.10359666 4.8902898
-1.0266706 -0.1460629 5.009078
-1.1587669 -0.17276666 3.7925575
-1.0458689 -0.15963353 2.5520179
-0.97075099 -0.15022643 1.867458
-0.90425754 -0.14121424 1.4168135
-0.89162874 -0.14018181 1.1572587
-0.27582577 -0.014219963 4.6167126
-0.52495825 -0.045841545 4.8718853
-1.2026139 -0.17397727 4.7159204
-1.1222299 -0.16769499 3.1398752
-1.0023925 -0.15262519 2.1603272
-0.92706358 -0.1426298 1.6044106
-0.88998789 -0.13802236 1.2673371
-0.87876701 -0.13705309 1.0424625
-0.88091379 -0.14037371 0.95638841
-0.86395884 -0.13812661 0.78786892
-0.85678977 -0.13743059 0.65352911
-0.85865873 -0.13802992 0.54179835
-0.8383857 -0.13506423 0.43141592
-0.82908863 -0.13385589 0.33679563
-0.83405352 -0.13495088 0.25188279
-0.82564163 -0.13387792 0.16803804
-0.87755811 -0.13857789 0.872437
-0.85690421 -0.13576722 0.71527684
-0.85752517 -0.13616461 0.59583938
-0.86612612 -0.13798711 0.49289995
-0.83525217 -0.13336068 0.38352761
-0.8160727 -0.13058327 0.29004702
-0.81646013 -0.1307862 0.20754153
-0.80872113 -0.12982835 0.12671648
-0.13705739 0.040840313 14.978703
-0.76331109 -0.10103705 4.8952284
-1.0271741 -0.14247824 5.009078
-1.1578858 -0.16850604 3.7877855
-1.0464197 -0.15598181 2.5520179
-0.96890128 -0.14647923 1.8630688
-0.90474498 -0.13805693 1.4168135
-0.88894451 -0.13658211 1.1534212
-0.27558532 -0.013244977 4.611721
-0.52511507 -0.044008818 4.8718853
-1.2019691 -0.16960293 4.711081
-1.1193932 -0.16327903 3.1304898
-1.0029192 -0.14912525 2.1603272
-0.92497659 -0.13900559 1.6001447
-0.89046419 -0.13491489 1.2673371
-0.8792401 -0.13398477 1.0424625
-0.88139838 -0.13729788 0.95638841
-0.86443573 -0.13510999 0.78786892
-0.85726434 -0.13443899 0.65352911
-0.86351144 -0.13571943 0.54411715
-0.83885199 -0.1321369 0.43141592
-0.82955086 -0.13096102 0.33679563
-0.83937138 -0.13280627 0.25281543
-0.82610393 -0.13099508 0.16803804
-0.87803644 -0.1355138 0.872437
-0.85737294 -0.13277523 0.71527684
-0.85373545 -0.13250948 0.59330624
-0.86660254 -0.13496292 0.49289995
-0.83571261 -0.1304443 0.38352761
-0.81652361 -0.12773386 0.29004702
-0.81691164 -0.12793542 0.20754153
-0.80916935 -0.12700459 0.12671648
-0.136914 0.041318484 14.978703
-0.76365912 -0.09837199 4.8952284
-1.0276653 -0.13889186 5.009078
-1.1584668 -0.16446324 3.7877855
-1.0450245 -0.15204716 2.5474155
-0.96940666 -0.14309624 1.8630688
-0.90522134 -0.13489795 1.4168135
-0.88941586 -0.13347828 1.1534212
-0.27534136 -0.012271841 4.6067295
-0.52473408 -0.042134013 4.8669133
-1.2013086 -0.16523522 4.7062416
-1.1182479 -0.15912776 3.125797
-1.0012792 -0.14531112 2.1558261
-0.92545623 -0.13577597 1.6001447
-0.8909297 -0.13180576 1.2673371
-0.87970245 -0.13091484 1.0424625
-0.8818723 -0.13422041 0.95638841
-0.86490208 -0.13209173 0.78786892
-0.85772836 -0.13144577 0.65352911
-0.86835843 -0.13337675 0.54643595
-0.83930814 -0.12920795 0.43141592
-0.8300029 -0.12806454 0.33679563
-0.83982986 -0.12987551 0.25281543
-0.82655621 -0.12811063 0.16803804
-0.87850422 -0.13244805 0.872437
-0.85783118 -0.12978162 0.71527684
-0.85419273 -0.12952858 0.59330624
-0.86706835 -0.13193709 0.49289995
-0.83616287 -0.12752633 0.38352761
-0.81696451 -0.12488287 0.29004702
-0.81735325 -0.12508307 0.20754153
-0.80960774 -0.1241793 0.12671648
-0.13672788 0.041781366 14.973703
-0.76399785 -0.095705718 4.8952284
-1.0271342 -0.13517123 5.0041828
-1.1575553 -0.16021405 3.7830136
-1.0455489 -0.14839841 2.5474155
-0.96752977 -0.13937034 1.8586799
-0.90568674 -0.13173732 1.4168135
-0.88987637 -0.13037282 1.1534212
-0.275094 -0.011300569 4.6017375
-0.52487797 -0.040302094 4.8669133
-1.2018781 -0.16104087 4.7062416
-1.1187965 -0.15522338 3.125797
-1.0017804 -0.14181513 2.1558261
-0.92592448 -0.13254468 1.6001447
-0.88840204 -0.12826474 1.263347
-0.88015401 -0.12784332 1.0424625
-0.88233542 -0.13114128 0.95638841
-0.86535788 -0.12907185 0.78786892
-0.85818195 -0.12845093 0.65352911
-0.8688187 -0.13034479 0.54643595
-0.83975405 -0.12627743 0.43141592
-0.83044493 -0.12516651 0.33679563
-0.84027809 -0.12694316 0.25281543
-0.82699829 -0.12522464 0.16803804
-0.87896115 -0.12938069 0.872437
-0.85827899 -0.12678646 0.71527684
-0.85463971 -0.1265461 0.59330624
-0.86752355 -0.12890965 0.49289995
-0.84127355 -0.12530233 0.38517112
-0.81739545 -0.12203038 0.29004702
-0.81778491 -0.12222922 0.20754153
-0.8100363 -0.12135249 0.12671648
-0.13654022 0.042243451 14.968703
-0.76432723 -0.093038283 4.8952284
-1.0275997 -0.13158506 5.0041828
-1.1581075 -0.15617245 3.7830136
-1.0441252 -0.14448035 2.5428128
-0.96801037 -0.13599218 1.8586799
-0.90614104 -0.12857507 1.4168135
-0.89032608 -0.12726578 1.1534212
-0.27484322 -0.010331175 4.596746
-0.52501547 -0.03846968 4.8669133
-1.2011864 -0.15668222 4.7014017
-1.1176213 -0.15108618 3.1211042
-1.0022693 -0.13831741 2.1558261
-0.9237985 -0.12895155 1.5958788
-0.88884431 -0.12516285 1.263347
-0.88059497 -0.12477022 1.0424625
-0.87925851 -0.12754881 0.95288384
-0.86580312 -0.1260504 0.78786892
-0.85862511 -0.12545455 0.65352911
-0.86926842 -0.12731126 0.54643595
-0.84018975 -0.12334538 0.43141592
-0.83087677 -0.12226696 0.33679563
-0.84071606 -0.12400927 0.25281543
-0.82743037 -0.1223371 0.16803804
-0.87940741 -0.12631176 0.872437
-0.85471559 -0.12321321 0.71233368
-0.85507625 -0.12356208 0.59330624
-0.86796826 -0.12588064 0.49289995
-0.8417058 -0.12236498 0.38517112
-0.81781644 -0.11917639 0.29004702
-0.81820655 -0.11937387 0.20754153
-0.81045496 -0.11852419 0.12671648
-0.13635097 0.042704731 14.963703
-0.76464731 -0.090369716 4.8952284
-1.0270424 -0.12787177 4.9992876
-1.1586456 -0.15212895 3.7830136
-1.0426871 -0.14057405 2.5382104
-0.96610618 -0.13228774 1.8542906
-0.90658432 -0.12541127 1.4168135
-0.89076483 -0.12415718 1.1534212
-0.27430049 -0.0093556093 4.5867629
-0.52514654 -0.0366368 4.8669133
-1.200479 -0.15233038 4.6965628
-1.1181419 -0.14718403 3.1211042
-1.002746 -0.13481797 2.1558261
-0.92424303 -0.12572609 1.5958788
-0.88927585 -0.12205946 1.263347
-0.87766683 -0.121232 1.0387872
-0.8796984 -0.12447886 0.95288384
-0.8623842 -0.12248033 0.78473049
-0.85905778 -0.12245662 0.65352911
-0.86970752 -0.12427616 0.54643595
-0.84061515 -0.12041181 0.43141592
-0.83129847 -0.11936591 0.33679563
-0.84114385 -0.12107387 0.25281543
-0.82785243 -0.1194481 0.16803804
-0.87984294 -0.12324129 0.872437
-0.85514051 -0.12022895 0.71233368
-0.85550237 -0.12057655 0.59330624
-0.86390865 -0.12221454 0.49080193
-0.8421278 -0.11942612 0.38517112
-0.81822747 -0.11632095 0.29004702
-0.8186183 -0.11651707 0.20754153
-0.81086373 -0.11569444 0.12671648
-0.13607839 0.043134775 14.948704
-0.76495814 -0.087700054 4.8952284
-1.0264717 -0.12416397 4.9943924
-1.1576889 -0.14789471 3.7782414
-1.0431714 -0.13693354 2.5382104
-0.96656203 -0.12891459 1.8542906
-0.90701658 -0.12224594 1.4168135
-0.89119285 -0.12104708 1.1534212
-0.27462006 -0.0084051182 4.5917544
-0.52527124 -0.034803472 4.8669133
-1.1997559 -0.14798537 4.6917233
-1.1186489 -0.1432801 3.1211042
-1.0010519 -0.13103466 2.1513247
-0.9246763 -0.12249912 1.5958788
-0.88969648 -0.11895455 1.263347
-0.87808466 -0.11816764 1.0387872
-0.88012755 -0.12140739 0.95288384
-0.8628065 -0.1194693 0.78473049
-0.85533834 -0.11888175 0.65078765
-0.86574852 -0.12062841 0.54411715
-0.84103036 -0.11747678 0.43141592
-0.8317101 -0.11646342 0.33679563
-0.84156132 -0.11813699 0.25281543
-0.8282643 -0.11655763 0.16803804
-0.8802678 -0.12016931 0.872437
-0.85555494 -0.11724322 0.71233368
-0.85591805 -0.11758956 0.59330624
-0.86432999 -0.1191982 0.49080193
-0.84253949 -0.11648582 0.38517112
-0.81862849 -0.11346409 0.29004702
-0.81901997 -0.11365886 0.20754153
-0.81621087 -0.11355168 0.126918
-0.13584532 0.0435788 14.938704
-0.76525962 -0.085029319 4.8952284
-1.0258876 -0.12046172 4.9894972
-1.158198 -0.14385271 3.7782414
-1.041705 -0.13304412 2.5336077
-0.96463114 -0.12523183 1.8499017
-0.9074378 -0.11907911 1.4168135
-0.89160997 -0.1179355 1.1534212
-0.27493632 -0.0074525103 4.596746
-0.52538949 -0.032969724 4.8669133
-1.2002652 -0.14379655 4.6917233
-1.1174297 -0.13916141 3.1164114
-1.0015032 -0.12753955 2.1513247
-0.92509824 -0.11927065 1.5958788
-0.89010626 -0.11584821 1.263347
-0.87849176 -0.11510183 1.0387872
-0.88054597 -0.11833442 0.95288384
-0.86321825 -0.11645681 0.78473049
-0.85574812 -0.11589534 0.65078765
-0.86616439 -0.11760565 0.54411715
-0.84143531 -0.11454032 0.43141592
-0.83211154 -0.11355948 0.33679563
-0.8371017 -0.11453286 0.25188279
-0.82373238 -0.11298902 0.16759096
-0.88068193 -0.11709587 0.872437
-0.855959 -0.11425607 0.71233368
-0.8563233 -0.11460114 0.59330624
-0.86024266 -0.11557622 0.48870388
-0.83826113 -0.11291385 0.38352761
-0.81901956 -0.11060586 0.29004702
-0.81450433 -0.11013573 0.20685086
-0.81660229 -0.11070189 0.126918
-0.13548844 0.043975212 14.913705
-0.76555175 -0.082357541 4.8952284
-1.02529 -0.11676506 4.984602
-1.1572111 -0.13963041 3.7734697
-1.0421631 -0.12940708 2.5336077
-0.96506238 -0.12186388 1.8499017
-0.90784788 -0.11591084 1.4168135
-0.89201617 -0.11482248 1.1534212
-0.27553797 -0.0065028346 4.6067295
-0.52496928 -0.03110517 4.8619423
-1.2007599 -0.13960597 4.6917233
-1.1179087 -0.13526002 3.1164114
-0.99978179 -0.12377568 2.1468236
-0.92292112 -0.11571657 1.5916129
-0.89050519 -0.11274046 1.263347
-0.87888819 -0.11203462 1.0387872
-0.88095367 -0.11526002 0.95288384
-0.85976034 -0.11293621 0.78159201
-0.85614747 -0.11290751 0.65078765
-0.86217803 -0.11400095 0.54179835
-0.84183002 -0.11160246 0.43141592
-0.8277477 -0.11002224 0.33538559
-0.83749634 -0.11161013 0.25188279
-0.82412177 -0.11011296 0.16759096
-0.88108528 -0.114021 0.872437
-0.85635263 -0.11126751 0.71233368
-0.85671812 -0.11161131 0.59330624
-0.86064082 -0.11257271 0.48870388
-0.83865017 -0.10998708 0.38352761
-0.81940067 -0.10774627 0.29004702
-0.81488377 -0.10729192 0.20685086
-0.81698376 -0.10785073 0.126918
-0.13537483 0.044463534 14.918705
-0.76583457 -0.079684764 4.8952284
-1.0186068 -0.11240576 4.9503355
-1.1576915 -0.13559014 3.7734697
-1.0406688 -0.12553477 2.5290053
-0.96548194 -0.11849444 1.8499017
-0.90824699 -0.11274115 1.4168135
-0.88923109 -0.11131023 1.1495837
-0.2758477 -0.0055450192 4.611721
-0.52507466 -0.029272497 4.8619423
-1.2012398 -0.13541368 4.6917233
-1.118374 -0.13135695 3.1164114
-1.0002078 -0.12028503 2.1468236
-0.92331946 -0.11249427 1.5916129
-0.89089334 -0.10963132 1.263347
-0.87927395 -0.10896605 1.0387872
-0.88135064 -0.11218422 0.95288384
-0.86014932 -0.1099344 0.78159201
-0.85238892 -0.10938629 0.64804614
-0.8625707 -0.11099069 0.54179835
-0.84221441 -0.10866326 0.43141592
-0.82812667 -0.10713219 0.33538559
-0.83300936 -0.10805421 0.25095019
-0.8245011 -0.10723557 0.16759096
-0.88147789 -0.11094475 0.872437
-0.85673577 -0.1082776 0.71233368
-0.85710245 -0.10862013 0.59330624
-0.86102855 -0.10956783 0.48870388
-0.83902895 -0.10705899 0.38352761
-0.81977177 -0.10488537 0.29004702
-0.81525338 -0.10444679 0.20685086
-0.81735522 -0.10499828 0.126918
-0.13538152 0.044998951 14.938704
-0.76610804 -0.077011019 4.8952284
-1.012918 -0.1082024 4.9209638
-1.1581577 -0.13154823 3.7734697
-1.0411007 -0.12190141 2.5290053
-0.96351147 -0.1148404 1.8455126
-0.90584117 -0.10923349 1.4126806
-0.88961422 -0.10820556 1.1495837
-0.27615401 -0.0045851204 4.6167126
-0.52464122 -0.027412772 4.8569708
-1.2029548 -0.13135593 4.6965628
-1.1188257 -0.1274523 3.1164114
-0.99845928 -0.11654082 2.1423223
-0.92111647 -0.1089645 1.587347
-0.8882786 -0.10616355 1.2593571
-0.87964892 -0.10589615 1.0387872
-0.88527608 -0.10954475 0.95638841
-0.86052781 -0.10693125 0.78159201
-0.85276556 -0.10641022 0.64804614
-0.86295283 -0.10797907 0.54179835
-0.8425886 -0.10572272 0.43141592
-0.82849556 -0.10424083 0.33538559
-0.83338147 -0.10514581 0.25095019
-0.82487035 -0.10435687 0.16759096
-0.87815362 -0.10741405 0.86911154
-0.85710853 -0.10528637 0.71233368
-0.85319787 -0.10510077 0.59077305
-0.86140579 -0.10656161 0.48870388
-0.83471131 -0.10354836 0.3818841
-0.82013291 -0.10202319 0.29004702
-0.81561297 -0.10160039 0.20685086
-0.81771678 -0.10214453 0.126918
-0.13530485 0.045503102 14.948704
-0.7663722 -0.074336335 4.8952284
-1.0132895 -0.10466599 4.9209638
-1.1600937 -0.12766771 3.7782414
-1.0395787 -0.1180464 2.5244026
-0.96390653 -0.11147641 1.8455126
-0.90621698 -0.10607085 1.4126806
-0.88998652 -0.10509956 1.1495837
-0.27616835 -0.0036211349 4.6167126
-0.52473372 -0.025581265 4.8569708
-1.204656 -0.12728785 4.7014017
-1.1192638 -0.1235461 3.1164114
-0.99886 -0.11305483 2.1423223
-0.92149127 -0.10574855 1.587347
-0.8886438 -0.10306223 1.2593571
-0.88001323 -0.10282495 1.0387872
-0.88565308 -0.1064539 0.95638841
-0.86089581 -0.10392679 0.78159201
-0.85313177 -0.10343286 0.64804614
-0.86772197 -0.10550065 0.54411715
-0.83835065 -0.10221992 0.42954287
-0.82885438 -0.10134821 0.33538559
-0.82886773 -0.10163832 0.25001755
-0.82522964 -0.1014769 0.16759096
-0.87852329 -0.10434807 0.86911154
-0.85747087 -0.10229387 0.71233368
-0.85355955 -0.1021219 0.59077305
-0.86177254 -0.10355409 0.48870388
-0.83506763 -0.10063404 0.3818841
-0.82048404 -0.099159777 0.29004702
-0.81596267 -0.098752752 0.20685086
-0.81806833 -0.099289544 0.126918
-0.13522634 0.046007272 14.958704
-0.76662707 -0.07166075 4.8952284
-1.000477 -0.099818245 4.857326
-1.1605322 -0.12361746 3.7782414
-1.0399843 -0.11441686 2.5244026
-0.96428972 -0.10811107 1.8455126
-0.90378559 -0.10258982 1.4085476
-0.89034796 -0.10199229 1.1495837
-0.27675667 -0.0026591211 4.6266961
-0.52481979 -0.023749446 4.8569708
-1.205093 -0.12308204 4.7014017
-1.1179723 -0.11945531 3.1117187
-0.99924856 -0.10956748 2.1423223
-0.91926265 -0.1022433 1.583081
-0.88899809 -0.099959664 1.2593571
-0.88036674 -0.099752501 1.0387872
-0.88601929 -0.10336173 0.95638841
-0.86125338 -0.10092107 0.78159201
-0.85348761 -0.10045425 0.64804614
-0.86808491 -0.10247108 0.54411715
-0.83870238 -0.099292912 0.42954287
-0.82920313 -0.098454349 0.33538559
-0.82921743 -0.098744415 0.25001755
-0.82557881 -0.098595694 0.16759096
-0.87888217 -0.10128082 0.86911154
-0.85782266 -0.099300116 0.71233368
-0.8539108 -0.099141806 0.59077305
-0.86212873 -0.10054531 0.48870388
-0.83541387 -0.0977185 0.3818841
-0.82082516 -0.096295148 0.29004702
-0.81630242 -0.095903903 0.20685086
-0.81344837 -0.095848739 0.12671648
-0.1350244 0.046462804 14.953704
-0.76687247 -0.068984278 4.8952284
-0.99271083 -0.095547423 4.8181643
-1.1609566 -0.11956569 3.7782414
-1.0384347 -0.11057936 2.5198004
-0.96228015 -0.10448617 1.8411236
-0.90413815 -0.099434391 1.4085476
-0.89069855 -0.098883778 1.1495837
-0.27647558 -0.0016930436 4.6217041
-0.52489948 -0.021917339 4.8569708
-1.2067661 -0.11899783 4.7062416
-1.1183825 -0.11555213 3.1117187
-0.99962491 -0.10607878 2.1423223
-0.91961402 -0.099033855 1.583081
-0.88634604 -0.096529916 1.255367
-0.88070965 -0.096678846 1.0387872
-0.88637471 -0.10026832 0.95638841
-0.86160034 -0.097914129 0.78159201
-0.85383308 -0.097474411 0.64804614
-0.86843735 -0.099440284 0.54411715
-0.83443826 -0.095835879 0.42766985
-0.82954174 -0.095559292 0.33538559
-0.82955706 -0.095849305 0.25001755
-0.82591796 -0.09571328 0.16759096
-0.87923032 -0.098212324 0.86911154
-0.85414732 -0.095854595 0.70939052
-0.85425168 -0.096160501 0.59077305
-0.86247444 -0.097535312 0.48870388
-0.83574986 -0.094801761 0.3818841
-0.82115632 -0.093429349 0.29004702
-0.81171197 -0.092493303 0.20616017
-0.81377804 -0.093008697 0.12671648
-0.13490185 0.046950199 14.958704
-0.76633453 -0.066240475 4.8902898
-0.98087162 -0.090957247 4.7594213
-1.1613669 -0.11551247 3.7782414
-1.0388144 -0.10695387 2.5198004
-0.96263903 -0.10112655 1.8411236
-0.9044798 -0.096277758 1.4085476
-0.8910383 -0.095774055 1.1495837
-0.27561373 -0.00073097652 4.6067295
-0.5249728 -0.020084964 4.8569708
-1.2084255 -0.11490343 4.711081
-1.1153446 -0.11130535 3.1023331
-0.99998915 -0.1025888 2.1423223
-0.91995406 -0.095823199 1.583081
-0.88667756 -0.093435407 1.255367
-0.87767053 -0.09324611 1.0351121
-0.8831743 -0.096785448 0.95288384
-0.86193693 -0.09490598 0.78159201
-0.85416812 -0.094493382 0.64804614
-0.86437631 -0.095919855 0.54179835
-0.8347677 -0.092922553 0.42766985
-0.82987028 -0.092663072 0.33538559
-0.82988656 -0.092953026 0.25001755
-0.82624698 -0.092829704 0.16759096
-0.8795678 -0.09514264 0.86911154
-0.85447669 -0.092872478 0.70939052
-0.85458213 -0.093178019 0.59077305
-0.86280966 -0.094524123 0.48870388
-0.84076965 -0.092399597 0.38352761
-0.81664604 -0.090029873 0.28887469
-0.8120299 -0.089659333 0.20616017
-0.8140977 -0.090167515 0.12671648
-0.13477755 0.047437303 14.963703
-0.76656109 -0.063565068 4.8902898
-0.97611213 -0.087082021 4.7349453
-1.1602771 -0.11131554 3.7734697
-1.0391815 -0.10332709 2.5198004
-0.96298617 -0.097765692 1.8411236
-0.9020111 -0.092832156 1.4044147
-0.8913672 -0.092663169 1.1495837
-0.27503723 0.00022706851 4.596746
-0.52503973 -0.018252345 4.8569708
-1.2088193 -0.11068454 4.711081
-1.1122909 -0.1070812 3.0929477
-1.0003412 -0.099097557 2.1423223
-0.92028296 -0.092611372 1.583081
-0.88699836 -0.090339758 1.255367
-0.87799072 -0.090181895 1.0351121
-0.88350677 -0.093702003 0.95288384
-0.86226296 -0.091896683 0.78159201
-0.85865045 -0.091956265 0.65078765
-0.86030143 -0.092428997 0.53947955
-0.83508694 -0.09000811 0.42766985
-0.83018863 -0.089765713 0.33538559
-0.83020598 -0.090055615 0.25001755
-0.82161528 -0.089406304 0.16714388
-0.8798945 -0.092071794 0.86911154
-0.85479569 -0.089889236 0.70939052
-0.85490215 -0.090194397 0.59077305
-0.85862112 -0.091033429 0.48660582
-0.84108704 -0.089464203 0.38352761
-0.81695533 -0.087178692 0.28887469
-0.81233788 -0.086824276 0.20616017
-0.81440747 -0.08732523 0.12671648
-0.13465147 0.047924105 14.968703
-0.76677829 -0.060888883 4.8902898
-0.97539556 -0.083587602 4.7300501
-1.1606586 -0.10726474 3.7734697
-1.0395358 -0.099699035 2.5198004
-0.96332151 -0.094403647 1.8411236
-0.90232962 -0.089682981 1.4044147
-0.89168519 -0.089551151 1.1495837
-0.27272534 0.0011629415 4.5568128
-0.52510023 -0.016419502 4.8569708
-1.2091982 -0.1064643 4.711081
-1.1092212 -0.10287973 3.0835621
-1.0006809 -0.095605113 2.1423223
-0.92060059 -0.089398421 1.583081
-0.8873083 -0.087243006 1.255367
-0.87830013 -0.087116592 1.0351121
-0.88028079 -0.090253927 0.94937932
-0.86257851 -0.088886261 0.78159201
-0.85896623 -0.088958457 0.65078765
-0.86061883 -0.089425422 0.53947955
-0.83539605 -0.087092564 0.42766985
-0.83049691 -0.086867273 0.33538559
-0.8354007 -0.08766973 0.25095019
-0.82192236 -0.086537786 0.16714388
-0.88021058 -0.08899983 0.86911154
-0.85510421 -0.086904898 0.70939052
-0.85521185 -0.087209687 0.59077305
-0.85441881 -0.087573148 0.48450777
-0.84139425 -0.08652772 0.38352761
-0.81725466 -0.084326454 0.28887469
-0.81263602 -0.08398816 0.20616017
-0.81470734 -0.084481888 0.12671648
-0.13472503 0.048494484 14.998702
-0.76621133 -0.058153559 4.8853502
-0.97365183 -0.080016181 4.7202597
-1.1595391 -0.10308071 3.7686975
-1.0398774 -0.096069776 2.5198004
-0.96364522 -0.091040455 1.8411236
-0.90263718 -0.086532719 1.4044147
-0.89199239 -0.086438037 1.1495837
-0.27474031 0.002143139 4.5917544
-0.52515435 -0.014586462 4.8569708
-1.2095625 -0.10224276 4.711081
-1.1026981 -0.098394781 3.064791
-0.99884081 -0.091912307 2.1378212
-0.92090708 -0.086184382 1.583081
-0.8876074 -0.084145181 1.255367
-0.87859887 -0.084050216 1.0351121
-0.88059044 -0.087180622 0.94937932
-0.86288351 -0.085874759 0.78159201
-0.85511082 -0.085543543 0.64804614
-0.86092573 -0.086420752 0.53947955
-0.83569497 -0.084175952 0.42766985
-0.83079511 -0.08396776 0.33538559
-0.83570164 -0.084753096 0.25095019
-0.82221943 -0.083668217 0.16714388
-0.87679976 -0.085564375 0.86578602
-0.85540241 -0.083919495 0.70939052
-0.85551101 -0.084223911 0.59077305
-0.85471928 -0.084590137 0.48450777
-0.83699203 -0.083123632 0.3818841
-0.81754404 -0.081473194 0.28887469
-0.81292427 -0.081151016 0.20616017
-0.81499726 -0.081637517 0.12671648
-0.13455495 0.048964471 14.998702
-0.7664097 -0.055478629 4.8853502
-0.97291011 -0.076537482 4.7153645
-1.1584046 -0.098905832 3.7639256
-1.0402066 -0.092439339 2.5198004
-0.96157199 -0.087459505 1.8367344
-0.90293372 -0.0833814 1.4044147
-0.89228868 -0.083323881 1.1495837
-0.27530843 0.0031122246 4.6017375
-0.52573502 -0.012765057 4.8619423
-1.2086592 -0.097918734 4.7062416
-1.1047542 -0.094692156 3.0694838
-0.99915558 -0.088425145 2.1378212
-0.91860473 -0.082735635 1.5788151
-0.88789576 -0.081046343 1.255367
-0.87888694 -0.080982819 1.0351121
-0.88088942 -0.084106259 0.94937932
-0.86317801 -0.082862206 0.78159201
-0.8554042 -0.082558125 0.64804614
-0.86122215 -0.083415031 0.53947955
-0.84059787 -0.08170668 0.42954287
-0.83108312 -0.081067242 0.33538559
-0.8359924 -0.081835434 0.25095019
-0.82250649 -0.080797628 0.16714388
-0.87709308 -0.082503252 0.86578602
-0.85569012 -0.080933072 0.70939052
-0.85579979 -0.0812371 0.59077305
-0.85500932 -0.081606098 0.48450777
-0.83727711 -0.080201477 0.3818841
-0.82266176 -0.079083964 0.29004702
-0.81813186 -0.078787521 0.20685086
-0.81030446 -0.07831157 0.12651494
-0.13422255 0.049365629 14.978703
-0.76659864 -0.052803021 4.8853502
-0.97215593 -0.073064931 4.7104688
-1.1572549 -0.0947401 3.7591536
-1.0405228 -0.088807777 2.5198004
-0.96187139 -0.084102459 1.8367344
-0.90321934 -0.080229059 1.4044147
-0.89257407 -0.080208704 1.1495837
-0.27587318 0.0040853042 4.611721
-0.52577639 -0.010929822 4.8619423
-1.2089936 -0.093699127 4.7062416
-1.1067979 -0.090976357 3.0741765
-0.99728894 -0.084752843 2.1333199
-0.91888797 -0.079528607 1.5788151
-0.88817322 -0.077946521 1.255367
-0.87916422 -0.077914439 1.0351121
-0.8811776 -0.081030868 0.94937932
-0.86346197 -0.079848655 0.78159201
-0.8556872 -0.079571702 0.64804614
-0.85709751 -0.079996817 0.53716075
-0.84087789 -0.078771949 0.42954287
-0.83136106 -0.078165725 0.33538559
-0.83627295 -0.078916781 0.25095019
-0.82278347 -0.077926047 0.16714388
-0.87737572 -0.079441115 0.86578602
-0.8559674 -0.077945665 0.70939052
-0.85178524 -0.077857114 0.58823985
-0.85528898 -0.078621052 0.48450777
-0.83284974 -0.076844618 0.38024059
-0.82293284 -0.076211855 0.29004702
-0.81840187 -0.075931229 0.20685086
-0.81057286 -0.075482592 0.12651494
-0.13392912 0.049782269 14.963703
-0.76677835 -0.050126769 4.8853502
-0.97138953 -0.069598585 4.705574
-1.1560904 -0.090583615 3.7543814
-1.0408264 -0.085175134 2.5198004
-0.95977247 -0.080544397 1.8323452
-0.90349382 -0.07707575 1.4044147
-0.88965523 -0.076817095 1.1457462
-0.27787745 0.005097629 4.6466627
-0.5263443 -0.0091025466 4.8669133
-1.2093133 -0.089478381 4.7062416
-1.1105496 -0.087382548 3.0835621
-0.99757868 -0.081271142 2.1333199
-0.91915995 -0.076320596 1.5788151
-0.88843995 -0.074845739 1.255367
-0.87943089 -0.074845113 1.0351121
-0.88145506 -0.077954493 0.94937932
-0.8637355 -0.076834127 0.78159201
-0.85595971 -0.076584309 0.64804614
-0.85737151 -0.0770045 0.53716075
-0.84114778 -0.075836249 0.42954287
-0.8316288 -0.075263254 0.33538559
-0.83654338 -0.075997166 0.25095019
-0.8230505 -0.075053521 0.16714388
-0.8776477 -0.076378025 0.86578602
-0.85623431 -0.074957304 0.70939052
-0.85205185 -0.074883357 0.58823985
-0.85555822 -0.075635061 0.48450777
-0.8331129 -0.073936962 0.38024059
-0.8183524 -0.072907582 0.28887469
-0.81866193 -0.073074013 0.20685086
-0.81083137 -0.072652705 0.12651494
-0.13367444 0.05021479 14.953704
-0.76694864 -0.047449909 4.8853502
-0.97061068 -0.066138476 4.7006788
-1.1563996 -0.086547554 3.7543814
-1.0391698 -0.081389196 2.5151978
-0.96004778 -0.07719367 1.8323452
-0.90375739 -0.073921494 1.4044147
-0.88991797 -0.073711157 1.1457462
-0.27554932 0.0060030855 4.6067295
-0.52637285 -0.007265206 4.8669133
-1.2096182 -0.085256547 4.7062416
-1.1142895 -0.083763652 3.0929477
-0.99785632 -0.07778845 2.1333199
-0.91682088 -0.072905235 1.5745492
-0.88869572 -0.071744047 1.255367
-0.87968671 -0.071774863 1.0351121
-0.88172179 -0.074877165 0.94937932
-0.86012018 -0.073487535 0.77845359
-0.85622185 -0.073595986 0.64804614
-0.85763508 -0.074011244 0.53716075
-0.83678877 -0.072499625 0.42766985
-0.82710749 -0.071944281 0.33397555
-0.8368035 -0.073076613 0.25095019
-0.82330745 -0.072180085 0.16714388
-0.87418813 -0.073003516 0.86246049
-0.85649073 -0.071968034 0.70939052
-0.85230803 -0.071908683 0.58823985
-0.85581702 -0.072648145 0.48450777
-0.83336592 -0.071028404 0.38024059
-0.81860191 -0.07005056 0.28887469
-0.81891203 -0.070215903 0.20685086
-0.8110801 -0.069821931 0.12651494
-0.13345836 0.050663617 14.948704
-0.76710957 -0.044772469 4.8853502
-0.97083563 -0.062750012 4.7006788
-1.1552057 -0.082404487 3.7496097
-1.0374994 -0.077615865 2.5105953
-0.96031141 -0.073842011 1.8323452
-0.90400988 -0.070766345 1.4044147
-0.8901698 -0.070604309 1.1457462
-0.27610379 0.0069830311 4.6167126
-0.52692801 -0.0054321508 4.8718853
-1.2099085 -0.081033669 4.7062416
-1.1162963 -0.079996623 3.0976403
-0.9981218 -0.074304797 2.1333199
-0.91706985 -0.069704488 1.5745492
-0.88593644 -0.068409786 1.251377
-0.87993193 -0.068703748 1.0351121
-0.88197786 -0.071798921 0.94937932
-0.86037147 -0.070484713 0.77845359
-0.85647351 -0.070606768 0.64804614
-0.85788822 -0.071017087 0.53716075
-0.83703679 -0.069578253 0.42766985
-0.8273536 -0.069056697 0.33397555
-0.83705354 -0.070155188 0.25095019
-0.8235544 -0.069305763 0.16714388
-0.87443763 -0.069951579 0.86246049
-0.85673666 -0.068977885 0.70939052
-0.85255384 -0.068933137 0.58823985
-0.85606539 -0.069660343 0.48450777
-0.83360875 -0.068118982 0.38024059
-0.8188414 -0.067192674 0.28887469
-0.81421673 -0.066951178 0.20616017
-0.81131887 -0.066990316 0.12651494
-0.13324079 0.051111553 14.943704
-0.76726121 -0.042094484 4.8853502
-0.97003239 -0.059298974 4.6957836
-1.1554863 -0.078371562 3.7496097
-1.0358152 -0.073855169 2.5059927
-0.95817471 -0.07031446 1.8279562
-0.90425146 -0.067610331 1.4044147
-0.89041084 -0.067496613 1.1457462
-0.2769433 0.0079769967 4.6316876
-0.5269438 -0.0035927952 4.8718853
-1.210184 -0.076809809 4.7062416
-1.1182904 -0.076216616 3.1023331
-0.99837506 -0.070820257 2.1333199
-0.91730756 -0.066502891 1.5745492
-0.88616985 -0.065316878 1.251377
-0.87678558 -0.065379962 1.0314369
-0.88222307 -0.068719812 0.94937932
-0.86061227 -0.067481026 0.77845359
-0.85671473 -0.067616686 0.64804614
-0.85813087 -0.068022065 0.53716075
-0.83727455 -0.066656023 0.42766985
-0.82758957 -0.066168271 0.33397555
-0.83729333 -0.067232892 0.25095019
-0.82379127 -0.066430598 0.16714388
-0.87467647 -0.0668988 0.86246049
-0.85697222 -0.065986894 0.70939052
-0.85278928 -0.065956749 0.58823985
-0.85630333 -0.066671692 0.48450777
-0.83854926 -0.065576762 0.3818841
-0.81907099 -0.064333975 0.28887469
-0.81444544 -0.064108618 0.20616017
-0.81154776 -0.064157873 0.12651494
-0.13302171 0.051558584 14.938704
-0.76740348 -0.039415989 4.8853502
-0.97023344 -0.055912569 4.6957836
-1.1557528 -0.074337684 3.7496097
-1.0360667 -0.070239052 2.5059927
-0.95841426 -0.06696938 1.8279562
-0.90448189 -0.06445349 1.4044147
-0.88744414 -0.064157248 1.1419086
-0.27345204 0.0088106748 4.5717878
-0.52748621 -0.0017540479 4.8768568
-1.2104447 -0.072585009 4.7062416
-1.1185497 -0.072312579 3.1023331
-0.99644423 -0.06718868 2.1288188
-0.91753411 -0.063300483 1.5745492
-0.88639241 -0.06222317 1.251377
-0.87700844 -0.062319014 1.0314369
-0.88245761 -0.065639853 0.94937932
-0.86084259 -0.06447652 0.77845359
-0.85694551 -0.064625785 0.64804614
-0.85836303 -0.065026216 0.53716075
-0.83750212 -0.063732982 0.42766985
