# .PCD v0.7 - Point Cloud Data file format
VERSION 0.7
FIELDS x y z
SIZE 4 4 4
TYPE F F F
COUNT 1 1 1
WIDTH 1498
HEIGHT 1
VIEWPOINT 0 0 0 1 0 0 0
POINTS 1498
DATA ascii
-0.84716392 1.1823673 0.94035172
-0.83920205 1.1699733 0.75305843
-0.82641906 1.1513156 0.58239222
-0.81394082 1.1331091 0.42720816
-0.81484002 1.133952 0.28696972
-0.79904145 1.1111606 0.14888488
-0.030525234 0.18581511 20.173506
-1.4207916 2.096987 16.102406
-1.2421452 1.8081393 10.570056
-1.2579731 1.8049158 7.0804543
-1.1939739 1.7004809 4.9545355
-0.98025239 1.3899058 3.1841817
-0.95752639 1.3537005 2.5079119
-0.91681635 1.2932961 1.9746472
-0.55386055 0.99569857 19.541771
-0.17790946 0.29081744 3.1368303
-1.3882561 2.0104549 9.4440384
-1.2197268 1.7487818 5.852294
-0.91370958 1.3022634 3.3531489
-0.9963004 1.4153069 2.9012547
-0.92762959 1.3143642 2.2049928
-0.90099591 1.2742872 1.7701451
-0.89179987 1.2524614 1.5907112
-0.86481708 1.2132356 1.2837451
-0.8537991 1.1964693 1.0483003
-0.84008241 1.176391 0.84324241
-0.83337289 1.1661472 0.66741806
-0.82339078 1.1513422 0.50599957
-0.81191653 1.134469 0.35633627
-0.81178766 1.1334659 0.21811089
-0.88390309 1.2450547 1.4410975
-0.85851967 1.2079743 1.1626372
-0.84552991 1.1888303 0.94288492
-0.83774525 1.1765927 0.75515652
-0.82787544 1.1618848 0.58567923
-0.81280249 1.139901 0.42838046
-0.81375247 1.140821 0.28766042
-0.79806048 1.1180092 0.14908642
-0.029871123 0.18587723 20.168505
-1.4147637 2.1038685 16.117222
-1.236973 1.814147 10.579846
-1.2627039 1.8252558 7.1424899
-0.97539473 1.3933191 3.1841817
-0.95926273 1.3662473 2.5244439
-0.91782951 1.3043526 1.9861596
-0.54996437 0.99686694 19.526796
-0.17689323 0.2914367 3.1368303
-1.3897558 2.0277312 9.5021105
-1.2204901 1.7629615 5.8851438
-0.9079144 1.3036585 3.3486478
-0.99583495 1.42519 2.9140525
-0.92995107 1.3274664 2.220953
-0.90043706 1.2829745 1.7774954
-0.89359725 1.2643037 1.6012248
-0.86507297 1.2226019 1.290022
-0.85203427 1.2028545 1.0510417
-0.84109432 1.1865443 0.84788001
-0.83466166 1.1766115 0.6711641
-0.82214367 1.158121 0.50740957
-0.81364131 1.1453054 0.3582015
-0.81071162 1.1403515 0.21855797
-0.8838529 1.2542367 1.4477484
-0.85895777 1.2175697 1.1685236
-0.84634727 1.1988178 0.94795126
-0.8388719 1.1869226 0.75935262
-0.82654142 1.168623 0.58732271
-0.81443465 1.1506662 0.4307251
-0.8126269 1.1476961 0.28835109
-0.79704142 1.1248646 0.14928794
-0.029222107 0.18598036 20.168505
-1.4082736 2.1100867 16.127102
-1.2323445 1.8209836 10.594532
-1.2673076 1.8456503 7.2045259
-0.97052515 1.3967154 3.1841817
-0.96253192 1.3811312 2.5451086
-0.91877663 1.315432 1.9976722
-0.54661942 0.99903393 19.531788
-0.17587486 0.29205242 3.1368303
-1.3918591 2.046082 9.5650234
-1.2201918 1.775745 5.9133
-0.90212047 1.3050288 3.3441465
-0.99679875 1.4372298 2.9311161
-0.93047202 1.3381264 2.2329228
-0.90176648 1.2944553 1.7885209
-0.89327466 1.2732543 1.6082339
-0.86751109 1.23517 1.2994373
-0.85264021 1.2126626 1.0565246
-0.84204555 1.1967188 0.8525176
-0.83321834 1.1833085 0.67303717
-0.82362235 1.1688265 0.51022971
-0.81246936 1.152153 0.35913411
-0.81246877 1.1513121 0.21945213
-0.88374943 1.2634337 1.4543995
-0.85933912 1.2271825 1.1744099
-0.84710503 1.2088256 0.95301759
-0.83733004 1.1935591 0.76145065
-0.8278836 1.1792308 0.59060973
-0.81600147 1.1614565 0.43306974
-0.8086158 1.1505258 0.28835109
-0.79885828 1.1358126 0.149691
-0.028567731 0.1860379 20.163506
-1.4017574 2.1162853 16.13698
-1.2271159 1.826965 10.604322
-1.2726249 1.8673326 7.2713337
-0.84106833 1.2248676 3.5599706
-0.96564382 1.4000946 3.1841817
-0.96410799 1.3937402 2.5616403
-0.91965753 1.3265338 2.0091846
-0.54244232 0.99966621 19.50683
-0.17485434 0.29266453 3.1368303
-1.3938506 2.0644717 9.6279354
-1.2169024 1.7842708 5.9273782
-0.89632821 1.3063748 3.3396454
-0.99769062 1.449294 2.94818
-0.93264151 1.3512864 2.2488832
-0.9030264 1.3059607 1.7995464
-0.89493841 1.2851446 1.6187476
-0.86764592 1.2445768 1.3057142
-0.8531881 1.2224895 1.0620075
-0.8429358 1.2069143 0.85715514
-0.83439428 1.1938094 0.6767832
-0.82228684 1.1756253 0.51163971
-0.81407624 1.1630307 0.36099935
-0.81130219 1.1582201 0.21989921
-0.88359255 1.2726451 1.4610506
-0.8596639 1.2368129 1.1802962
-0.84780312 1.218853 0.95808399
-0.83575207 1.200199 0.76354873
-0.82646203 1.1859877 0.59225327
-0.81472254 1.1682847 0.43424204
-0.80742806 1.1574028 0.28904179
-0.79774857 1.1426908 0.14989254
-0.027918164 0.18613648 20.163506
-1.395215 2.1224642 16.146858
-1.222425 1.8337792 10.619009
-1.2744612 1.8841285 7.3190532
-0.83568758 1.2261815 3.5553682
-0.96210337 1.4054332 3.1885707
-0.96720046 1.4086968 2.5823052
-0.92047197 1.3376577 2.0206971
-0.53949523 1.0025713 19.526796
-0.17383169 0.29327312 3.1368303
-1.3964303 2.0839446 9.6956882
-1.2145357 1.7942241 5.9461493
-0.89053738 1.3076961 3.335144
-0.99851042 1.4613816 2.9652438
-0.93302733 1.3619915 2.2608531
-0.90421706 1.3174907 1.8105719
-0.89450216 1.2941282 1.6257567
-0.86772561 1.2539995 1.3119911
-0.85367757 1.2323349 1.0674905
-0.84124154 1.21349 0.85947394
-0.8328644 1.2005237 0.67865622
-0.82364947 1.1863695 0.51445979
-0.81281435 1.1698996 0.36193198
-0.81009704 1.1651337 0.22034629
-0.88338196 1.2818707 1.4677017
-0.85993177 1.2464604 1.1861825
-0.84844154 1.2289 0.96315032
-0.83671838 1.2105763 0.76774484
-0.82768953 1.1966329 0.59554029
-0.81617224 1.1791147 0.43658668
-0.80620211 1.1642854 0.28973246
-0.79944593 1.1536812 0.1502956
-0.027268255 0.18623281 20.163506
-1.3886467 2.1286232 16.156738
-1.2177016 1.8405828 10.633694
-1.2753636 1.8997202 7.3620014
-0.83796901 1.2388011 3.5829835
-0.95719171 1.408783 3.1885707
-0.96861547 1.4213663 2.5988369
-0.91941237 1.3461562 2.0283723
-0.53666991 1.0057229 19.551756
-0.17280692 0.29387811 3.1368303
-1.397499 2.1013668 9.7537613
-1.2101898 1.8013176 5.9555349
-0.8847484 1.308993 3.3306429
-0.9992578 1.4734924 2.9823074
-0.93504393 1.3752078 2.2768133
-0.90533799 1.3290447 1.8215973
-0.89401418 1.3031243 1.6327658
-0.86995363 1.2666463 1.3214065
-0.8517397 1.2387528 1.0702319
-0.84202248 1.2237179 0.86411154
-0.83392704 1.2110603 0.68240231
-0.82222515 1.1931875 0.5158698
-0.8143031 1.1808175 0.36379722
-0.80885369 1.1720531 0.22079337
-0.88311768 1.2911103 1.4743526
-0.85785931 1.2527897 1.1891258
-0.84658349 1.2354102 0.96568352
-0.83505505 1.2172322 0.76984292
-0.82618004 1.2034078 0.59718376
-0.81480384 1.1859628 0.43775901
-0.80493796 1.1711736 0.29042313
-0.79824513 1.160581 0.15049712
-0.026618015 0.18632685 20.163506
-1.3820523 2.134762 16.166616
-1.2123867 1.8465246 10.643484
-1.2770002 1.9165834 7.4097214
-0.82384062 1.2271194 3.5415606
-0.9522683 1.4121157 3.1885707
-0.96995384 1.4340628 2.6153688
-0.92010283 1.3573169 2.0398846
-0.53342533 1.0081009 19.561739
-0.17178002 0.29447952 3.1368303
-1.3991553 2.1198709 9.8166742
-1.2077236 1.8112745 5.9743061
-0.88017374 1.3120733 3.3306429
-1.0013889 1.4877898 3.0036371
-0.93529421 1.3859569 2.2887833
-0.90449077 1.337814 1.8289475
-0.89347416 1.3121327 1.6397748
-0.86991149 1.2761077 1.3276834
-0.85212433 1.2486261 1.0757148
-0.84274226 1.2339659 0.86874914
-0.83492619 1.2216188 0.68614835
-0.82076323 1.2000098 0.51727986
-0.81295079 1.1877065 0.36472982
-0.80757177 1.178978 0.22124045
-0.88279974 1.3003635 1.4810036
-0.8580249 1.2624627 1.1950121
-0.84711456 1.245487 0.97074991
-0.83590961 1.2276427 0.77403903
-0.82729238 1.214089 0.60047078
-0.81339741 1.1928157 0.43893132
-0.80642617 1.1821581 0.29180449
-0.79982263 1.1716126 0.15090019
-0.025967453 0.18641862 20.163506
-1.3754318 2.1408808 16.176493
-1.2076011 1.853305 10.658171
-1.2785348 1.9334812 7.4574409
-0.82171828 1.2332394 3.5507658
-0.94600141 1.4134407 3.1841817
-0.96964699 1.4444493 2.6277676
-0.9207266 1.3684988 2.0513971
-0.53070563 1.0114918 19.591688
-0.17075107 0.29507735 3.1368303
-1.3951902 2.1299996 9.8408709
-1.2061547 1.8226751 5.9977698
-0.87438208 1.3133255 3.3261416
-1.0034323 1.50212 3.0249667
-0.93715739 1.3992279 2.3047435
-0.90548193 1.3494087 1.8399732
-0.89487898 1.3241079 1.6502886
-0.86981386 1.2855842 1.3339603
-0.85479522 1.2619792 1.0839393
-0.84340066 1.2442337 0.87338674
-0.83586174 1.232199 0.68989444
-0.81926376 1.2068365 0.51868987
-0.81432086 1.1986635 0.36659506
-0.80625123 1.185908 0.22168753
-0.88242769 1.3096302 1.4876546
-0.85813332 1.2721521 1.2008984
-0.84758544 1.2555822 0.97581625
-0.83670163 1.2380737 0.77823514
-0.82569474 1.220881 0.60211432
-0.81467754 1.2036984 0.44127598
-0.80507106 1.1890664 0.29249516
-0.79853046 1.1785333 0.15110172
-0.02531657 0.18650813 20.163506
-1.3692032 2.1476347 16.191313
-1.2022301 1.8592192 10.667961
-1.2816043 1.9529089 7.5147047
-0.81417626 1.2312113 3.5369582
-0.94106179 1.4167342 3.1841817
-0.9708395 1.4571931 2.6442995
-0.92306328 1.3823671 2.0667472
-0.5267731 1.0125692 19.576714
-0.16998386 0.29613474 3.1418018
-1.3788421 2.1211557 9.7779589
-1.2035738 1.8326442 6.016541
-0.86859244 1.3145534 3.3216405
-1.0053878 1.5164826 3.0462966
-0.9372713 1.410019 2.3167133
-0.90640324 1.3610265 1.8509985
-0.89422446 1.3331472 1.6572976
-0.86966068 1.2950754 1.3402373
-0.85505044 1.2718956 1.0894222
-0.84399748 1.2545213 0.87802434
-0.83673346 1.2428002 0.69364047
-0.82040685 1.2176455 0.52150995
-0.81287795 1.2055717 0.36752769
-0.80489224 1.1928433 0.22213461
-0.88407725 1.3220139 1.497631
-0.85593605 1.2784985 1.2038416
-0.84799612 1.2656959 0.98088264
-0.83743095 1.2485254 0.78243119
-0.82669151 1.2315975 0.60540134
-0.81318116 1.2105696 0.44244829
-0.80643946 1.2000899 0.29387653
-0.79719967 1.1854593 0.15130325
-0.024665382 0.18659537 20.163506
-1.3625288 2.1537147 16.201191
-1.1968323 1.8651184 10.677751
-1.2845539 1.9723814 7.571969
-0.80987352 1.2340459 3.5369582
-0.93611073 1.4200106 3.1841817
-0.97195488 1.4699626 2.6608312
-0.92354375 1.3935964 2.0782597
-0.52323532 1.0144018 19.576714
-0.16894913 0.29672629 3.1418018
-1.3421345 2.0805335 9.5698633
-1.2160122 1.8657502 6.1103964
-0.86280489 1.3157568 3.3171391
-1.0072551 1.5308768 3.067626
-0.93732125 1.4208282 2.3286836
-0.90538526 1.3698387 1.8583488
-0.89549381 1.3451664 1.6678112
-0.86945164 1.3045812 1.3465142
-0.85524678 1.2818294 1.0949051
-0.84453285 1.264828 0.88266194
-0.83496583 1.2495681 0.69551355
-0.81881803 1.2244896 0.52291995
-0.81412876 1.2165669 0.36939296
-0.80626565 1.2039212 0.22302876
-0.88565105 1.3344249 1.5076076
-0.85594165 1.2882118 1.2097279
-0.84834647 1.2758278 0.98594898
-0.83558255 1.255219 0.78452927
-0.82762337 1.2423357 0.60868835
-0.81434292 1.2214894 0.44479293
-0.80774075 1.2111374 0.2952579
-0.79860359 1.1965457 0.15170631
-0.024013894 0.18668033 20.163506
-1.3558286 2.1597738 16.211069
-1.1919549 1.8718616 10.692437
-1.2881927 1.9931517 7.6340041
-0.80449498 1.2352281 3.5323555
-0.93245918 1.4252738 3.1885707
-0.97453636 1.4851104 2.6814959
-0.92571825 1.4075239 2.0936098
-0.5198223 1.0164793 19.581705
-0.16791232 0.29731423 3.1418018
-1.3003068 2.0312121 9.3230524
-1.2432272 1.9221499 6.279336
-0.85701948 1.3169358 3.3126378
-1.0104598 1.5474861 3.0932217
-0.93730706 1.4316546 2.3406537
-0.90617603 1.3814954 1.8693745
-0.89472437 1.3542352 1.6748203
-0.86918682 1.3141011 1.3527911
-0.85538417 1.2917798 1.1003881
-0.84255958 1.2714609 0.88498074
-0.83572316 1.2602023 0.69925964
-0.81984389 1.2353343 0.52574003
-0.81259483 1.2234933 0.37032557
-0.80757153 1.2150232 0.22392292
-0.88509512 1.3437446 1.5142586
-0.85588986 1.2979407 1.2156142
-0.85101062 1.2895753 0.99354851
-0.83619922 1.2657015 0.78872538
-0.82849044 1.2530953 0.61197537
-0.81275612 1.2283782 0.44596523
-0.80897456 1.2222084 0.29663923
-0.79718089 1.2034912 0.15190785
-0.023362109 0.18676302 20.163506
-1.3491027 2.1658125 16.220947
-1.1870451 1.8785937 10.707123
-1.2917025 2.0139713 7.6960402
-0.80017823 1.2380289 3.5323555
-0.92747843 1.42852 3.1885707
-0.97548854 1.4979357 2.6980276
-0.92780662 1.4214834 2.1089599
-0.51640111 1.0185453 19.586697
-0.16713248 0.29836446 3.1467733
-1.2837743 2.0208838 9.2553005
-1.2551507 1.9555248 6.3731914
-0.85123646 1.3180904 3.3081367
-1.0121425 1.5619478 3.1145513
-0.93722874 1.4424983 2.3526237
-0.90689629 1.3931738 1.8803998
-0.89585775 1.3662975 1.685334
-0.86886609 1.323635 1.3590679
-0.85546237 1.3017466 1.105871
-0.8429842 1.2817965 0.88961834
-0.83386773 1.2669843 0.70113266
-0.820804 1.2462009 0.5285601
-0.81372583 1.2345252 0.3721908
-0.80880952 1.2261487 0.22481708
-0.8865276 1.3562019 1.524235
-0.85578048 1.3076848 1.2215005
-0.8512274 1.2997507 0.99861485
-0.83675289 1.2762038 0.79292148
-0.82929218 1.263876 0.61526239
-0.81379914 1.2393337 0.44830987
-0.81014109 1.233303 0.29802063
-0.79846376 1.2146158 0.15231091
-0.022710042 0.18684344 20.163506
-1.3423512 2.1718304 16.230825
-1.1821024 1.8853137 10.721807
-1.2950824 2.0348396 7.7580757
-0.7947973 1.2391698 3.5277531
-0.92248625 1.4317487 3.1885707
-0.97789007 1.5131494 2.7186925
-0.92980868 1.4354745 2.1243098
-0.51310116 1.0208579 19.59668
-0.16608997 0.29894602 3.1467733
-1.2773824 2.0264161 9.2601395
-1.2510978 1.9642609 6.3872695
-0.84663033 1.3210539 3.3081367
-1.0151472 1.5786334 3.140147
-0.93545324 1.4508262 2.3606038
-0.9075461 1.4048743 1.8914254
-0.89497292 1.3753947 1.6923431
-0.87061387 1.3364441 1.3684834
-0.85548145 1.3117298 1.1113539
-0.84334689 1.2921506 0.89425594
-0.83451021 1.2776501 0.70487875
-0.82169807 1.2570893 0.53138018
-0.81478959 1.2455798 0.37405604
-0.80725211 1.2331311 0.22526415
-0.88788396 1.3686857 1.5342115
-0.85561347 1.3174438 1.2273868
-0.85138339 1.3099431 1.0036812
-0.83724338 1.2867252 0.79711759
-0.83002883 1.2746774 0.61854941
-0.81477553 1.2503115 0.45065451
-0.8085354 1.2402717 0.2987113
-0.79694879 1.2215798 0.15251243
-0.022057699 0.18692157 20.163506
-1.3351681 2.1771655 16.235765
-1.1771276 1.8920224 10.736494
-1.2983325 2.0557559 7.8201122
-0.79046696 1.2419367 3.5277531
-0.91748297 1.43496 3.1885707
-0.98019725 1.5283976 2.739357
-0.93172431 1.4494967 2.1396599
-0.50940621 1.0223842 19.591688
-0.16504546 0.29952395 3.1467733
-1.2696347 2.0297971 9.2553005
-1.2451555 1.9700749 6.3919625
-0.8408457 1.3221641 3.3036354
-1.0180475 1.595359 3.1657426
-0.93525493 1.4616973 2.3725739
-0.90812516 1.4165961 1.902451
-0.89596987 1.3874983 1.7028567
-0.8701697 1.3460126 1.3747603
-0.85544127 1.3217289 1.1168369
-0.84605569 1.306241 0.90121239
-0.8325668 1.2844455 0.70675176
-0.81991553 1.2639744 0.53279018
-0.81311148 1.2525365 0.37498868
-0.80836892 1.2442937 0.22615832
-0.88714296 1.3780557 1.5408626
-0.85757822 1.3306153 1.2362163
-0.84914213 1.3165298 1.0062144
-0.83767051 1.2972653 0.80131364
-0.8307001 1.2854995 0.62183642
-0.81304562 1.2572296 0.45182684
-0.80958074 1.2514023 0.30009267
-0.79811013 1.2327416 0.15291549
-0.021408428 0.18704093 20.168505
-1.3287716 2.1838043 16.250584
-1.1721205 1.8987194 10.75118
-1.3014516 2.076719 7.8821478
-0.78508389 1.2430364 3.5231504
-0.91375142 1.4401764 3.1929598
-0.98240989 1.5436804 2.7600219
-0.93182963 1.4608473 2.1511722
-0.50583428 1.0241561 19.591688
-0.16399892 0.30009824 3.1467733
-1.261879 2.0331485 9.2504616
-1.2401044 1.9773331 6.4013476
-0.83506376 1.3232501 3.2991343
-1.0208433 1.6121237 3.1913381
-0.936607 1.4751288 2.3885341
-0.90863335 1.4283388 1.9134763
-0.89496928 1.3966229 1.7098659
-0.87177086 1.3588704 1.3841758
-0.85534149 1.3317435 1.1223198
-0.84388602 1.3129128 0.90353119
-0.833094 1.2951418 0.7104978
-0.82069153 1.2748959 0.53561026
-0.81405491 1.2636263 0.37685391
-0.80671895 1.2512934 0.2266054
-0.88835722 1.3905839 1.5508391
-0.85728371 1.3404111 1.2421026
-0.84918898 1.3267474 1.0112808
-0.83803421 1.3078243 0.80550975
-0.82875681 1.2923664 0.62347996
-0.81390244 1.2682413 0.45417145
-0.81055832 1.262555 0.30147403
-0.79650259 1.2397233 0.15311703
-0.02075859 0.18715802 20.173506
-1.322345 2.1904249 16.2654
-1.1670805 1.9054042 10.765865
-1.3044404 2.0977292 7.9441829
-0.77970278 1.2441138 3.5185483
-0.90871871 1.4433572 3.1929598
-0.98452777 1.5589973 2.7806866
-0.93186718 1.4722162 2.1626849
-0.50225621 1.0259155 19.591688
-0.16295037 0.3006689 3.1467733
-1.2541153 2.0364704 9.2456217
-1.2341064 1.9831153 6.4060407
-0.82812923 1.3224665 3.2901318
-1.0235344 1.6289275 3.2169337
-0.93627048 1.4860375 2.4005039
-0.90907067 1.4401023 1.924502
-0.89582914 1.4087666 1.7203795
-0.87120259 1.3684721 1.3904526
-0.85518217 1.3417735 1.1278027
-0.84406203 1.32332 0.90816879
-0.83106226 1.3019497 0.71237087
-0.821401 1.2858381 0.53843033
-0.8149308 1.2747378 0.37871915
-0.80503005 1.2582966 0.22705248
-0.88749576 1.3999834 1.5574901
-0.859097 1.3536336 1.250932
-0.84686375 1.3333424 1.013814
-0.83833432 1.3184012 0.80970585
-0.82931089 1.3032194 0.62676698
-0.81469226 1.2792745 0.45651609
-0.80880696 1.2695532 0.3021647
-0.79754198 1.2509212 0.15352009
-0.020105159 0.18722935 20.173506
-1.3158883 2.1970274 16.280218
-1.162537 1.9129473 10.785446
-1.3088659 2.1213262 8.0157633
-0.7743237 1.2451687 3.5139456
-0.9036749 1.4465204 3.1929598
-0.98505622 1.5719627 2.7972186
-0.93183655 1.4836031 2.1741974
-0.49867204 1.0276625 19.591688
-0.16189985 0.30123585 3.1467733
-1.246999 2.0408359 9.2456217
-1.2289896 1.9903475 6.4154258
-0.82235909 1.3235 3.2856307
-1.0261205 1.6457695 3.2425294
-0.93906373 1.5020722 2.4204543
-0.90943676 1.4518862 1.9355273
-0.89661521 1.4209334 1.7308931
-0.87265652 1.381377 1.3998679
-0.85719824 1.3553525 1.1360271
-0.84417576 1.3337445 0.91280639
-0.83147383 1.3126756 0.71611691
-0.82204413 1.2968007 0.54125035
-0.81573904 1.2858708 0.38058439
-0.80597109 1.2695076 0.22794664
-0.88856745 1.4125545 1.5674665
-0.8608284 1.3668852 1.2597615
-0.84680116 1.3435844 1.0188802
-0.83857077 1.3289962 0.81390196
-0.82727796 1.310099 0.62841046
-0.81281841 1.2862194 0.45768842
-0.8096627 1.2807403 0.30354607
-0.79851276 1.2621415 0.15392315
-0.019448601 0.18725485 20.168505
-1.3097984 2.2042792 16.299974
-1.1574293 1.9196098 10.800132
-1.3115834 2.1424329 8.0777988
-0.76894689 1.2462012 3.5093429
-0.89862013 1.449666 3.1929598
-0.98699188 1.5873406 2.8178833
-0.93173772 1.4950076 2.1857097
-0.49508181 1.0293969 19.591688
-0.16084735 0.30179918 3.1467733
-1.2398676 2.0451763 9.2456217
-1.23195 2.0108125 6.4670467
-0.81659198 1.3245094 3.2811296
-1.0217415 1.6515592 3.2467954
-0.94016802 1.5155838 2.4364142
-0.90794206 1.4608107 1.9428777
-0.89732718 1.4331224 1.7414067
-0.87196374 1.3910108 1.4061449
-0.85690719 1.36542 1.14151
-0.8442269 1.3441859 0.91744399
-0.83182061 1.32342 0.719863
-0.82262075 1.3077836 0.54407042
-0.81386244 1.2928675 0.38151699
-0.80418921 1.2765268 0.22839372
-0.8875851 1.4219823 1.5741175
-0.86033571 1.3767374 1.2656479
-0.84667724 1.353842 1.0239466
-0.83874345 1.3396088 0.81809807
-0.82771432 1.3209819 0.63169748
-0.81348813 1.2972848 0.46003303
-0.80781865 1.2877537 0.30423674
-0.79675853 1.2691524 0.15412468
-0.018792108 0.18727805 20.163506
-1.3036741 2.2115159 16.319733
-1.1517668 1.925386 10.809922
-1.3157191 2.1661358 8.1493788
-0.76357216 1.2472115 3.5047405
-0.89355433 1.452794 3.1929598
-0.98735487 1.6003561 2.834415
-0.93157053 1.5064294 2.1972225
-0.49148554 1.0311189 19.591688
-0.1597929 0.30235881 3.1467733
-1.2333688 2.0505688 9.2504616
-1.2320936 2.0268979 6.5045886
-0.80969197 1.3236375 3.2721272
-1.0186986 1.6595612 3.2553272
-0.94276875 1.5316874 2.4563644
-0.90817571 1.472628 1.9539032
-0.89796484 1.4453338 1.7519203
-0.87327003 1.4039615 1.4155602
-0.8565563 1.375502 1.146993
-0.84421533 1.3546437 0.92208159
-0.83210236 1.3341827 0.72360903
-0.82313055 1.318786 0.54689056
-0.81454921 1.304033 0.38338223
-0.80500782 1.2877717 0.22928788
-0.88851368 1.4345951 1.584094
-0.86191469 1.3900378 1.2744772
-0.84876496 1.3677781 1.0315461
-0.8412472 1.354094 0.82439226
-0.82559144 1.3278733 0.63334101
-0.81409037 1.3083705 0.46237767
-0.80855232 1.298974 0.30561811
-0.79760653 1.2804068 0.15452774
-0.018135691 0.18729895 20.158504
-1.297515 2.2187362 16.339489
-1.1465976 1.932022 10.824608
-1.3189352 2.1886156 8.2161865
-0.75819981 1.2481993 3.5001378
-0.88847768 1.4559042 3.1929598
-0.98910791 1.6157936 2.8550797
-0.93301111 1.5206002 2.2125723
-0.4875145 1.0320445 19.576714
-0.1589824 0.3033877 3.1517448
-1.2262034 2.0548615 9.2504616
-1.2357041 2.0489197 6.5609021
-0.80393726 1.3245946 3.2676258
-1.014256 1.6653346 3.259593
-0.94369799 1.5452557 2.4723246
-0.91010708 1.4873564 1.9686038
-0.89852822 1.457567 1.7624339
-0.87245232 1.413626 1.4218372
-0.85614532 1.3855978 1.152476
-0.84414101 1.3651177 0.92671913
-0.83231908 1.3449636 0.72735512
-0.82104778 1.3257296 0.54830056
-0.81516796 1.315219 0.38524747
-0.8057577 1.2990378 0.23018204
-0.88936496 1.4472313 1.5940706
-0.86129308 1.3999233 1.2803636
-0.84850562 1.3780742 1.0366125
-0.84127837 1.3647493 0.82858837
-0.82590985 1.3387851 0.63662797
-0.81717861 1.323612 0.46589461
-0.80661541 1.3060018 0.30630878
-0.79838556 1.2916825 0.1549308
-0.017481785 0.18736111 20.158504
-1.2921011 2.2272849 16.369125
-1.1403632 1.9368901 10.829503
-1.3220099 2.2111435 8.2829943
-0.75282991 1.2491651 3.4955354
-0.88339025 1.4589967 3.1929598
-0.99076509 1.6312625 2.8757446
-0.93269742 1.5320612 2.2240849
-0.48427504 1.0345249 19.591688
-0.1579224 0.3039408 3.1517448
-1.2190231 2.0591295 9.2504616
-1.2400618 2.0724723 6.6219077
-0.79818588 1.3255279 3.2631247
-1.0111341 1.6733294 3.2681251
-0.94610518 1.561426 2.4922745
-0.91018742 1.4992182 1.9796295
-0.89901698 1.4698217 1.7729477
-0.87361014 1.426621 1.4312525
-0.85785973 1.3992726 1.1607003
-0.8440038 1.3756076 0.93135673
-0.83247072 1.355762 0.73110116
-0.82143813 1.3367618 0.55112064
-0.81571841 1.3264252 0.38711271
-0.80643868 1.3103248 0.23107618
-0.89013875 1.459891 1.6040471
-0.86271906 1.4132715 1.2891932
-0.85043186 1.3920637 1.0442121
-0.84124541 1.3754212 0.83278447
-0.82862717 1.3537426 0.64155853
-0.81763124 1.3347459 0.46823925
-0.8072266 1.3172541 0.30769014
-0.79909557 1.3029792 0.15533386
-0.016827667 0.18742098 20.158504
-1.283156 2.2297606 16.354307
-1.1346219 1.9426173 10.839293
-1.3249434 2.2337191 8.349802
-0.74746257 1.2501084 3.4909327
-0.87952507 1.4641244 3.1973488
-0.99232626 1.6467626 2.8964093
-0.93397194 1.5462823 2.2394347
-0.48150855 1.0380435 19.626629
-0.15686049 0.30449021 3.1517448
-1.2111917 2.062288 9.2456217
-1.24427 2.0960801 6.6829138
-0.79243773 1.326437 3.2586234
-1.0066278 1.6790855 3.2723908
-0.94685853 1.5750495 2.5082345
-0.91194499 1.5140027 1.9943302
-0.89943105 1.4820973 1.7834612
-0.87266684 1.4363148 1.4375293
-0.85731608 1.4094034 1.1661832
-0.84610701 1.3898969 0.93831313
-0.8325569 1.3665779 0.73484725
-0.82176125 1.3478127 0.55394071
-0.81620055 1.3376513 0.38897794
-0.80705059 1.3216321 0.23197034
-0.89083487 1.4725733 1.6140234
-0.86196828 1.4231892 1.2950795
-0.8500362 1.4023969 1.0492785
-0.84114802 1.3861094 0.83698058
-0.82879895 1.3646992 0.64484555
-0.81801611 1.3458993 0.47058392
-0.80519629 1.3242952 0.30838081
-0.79973644 1.3142965 0.15573692
-0.016175468 0.18752219 20.163506
-1.2757502 2.2349014 16.359247
-1.1288546 1.9483284 10.849084
-1.3284922 2.2576287 8.421381
-0.7420978 1.2510295 3.4863303
-0.87440902 1.4671856 3.1973488
-0.99379128 1.6622933 2.917074
-0.93351114 1.5577813 2.2509475
-0.47908393 1.0423428 19.676546
-0.15603758 0.30551139 3.1567163
-1.2039856 2.0665035 9.2456217
-1.2492039 2.1212292 6.7486124
-0.78780276 1.329195 3.2586234
-1.0020937 1.6848307 3.2766569
-0.94907165 1.591285 2.5281849
-0.9136104 1.5288175 2.0090308
-0.8997705 1.4943938 1.7939749
-0.87367594 1.449353 1.4469448
-0.85887253 1.4231277 1.1744076
-0.84583038 1.4004258 0.94295073
-0.83257771 1.3774105 0.73859328
-0.82201719 1.358882 0.55676073
-0.81661427 1.3488965 0.39084318
-0.80759329 1.3329598 0.2328645
-0.89145327 1.4852785 1.6240001
-0.86324054 1.4365834 1.3039091
-0.85180026 1.4164383 1.056878
-0.84332722 1.4007018 0.84327471
-0.82890433 1.3756734 0.64813256
-0.81833297 1.3570713 0.47292855
-0.80568457 1.3355783 0.30976218
-0.79772592 1.321357 0.15593846
-0.015522766 0.18762109 20.168505
-1.2675582 2.2386646 16.354307
-1.1225542 1.9531398 10.853979
-1.3318901 2.2815905 8.4929619
-0.73673564 1.2519283 3.4817278
-0.8705011 1.4722906 3.2017381
-0.9951598 1.6778539 2.9377387
-0.93461919 1.5720512 2.2662973
-0.47532329 1.0437459 19.671555
-0.1549702 0.3060542 3.1567163
-1.1967647 2.0706935 9.2456217
-1.253107 2.144948 6.8096185
-0.78205502 1.3300602 3.2541223
-0.99753165 1.6905646 3.2809229
-0.9511829 1.607555 2.548135
-0.91518342 1.5436622 2.0237315
-0.90003484 1.5067105 1.8044887
-0.87460446 1.4624153 1.4563601
-0.85819554 1.4332922 1.1798905
-0.84549063 1.4109694 0.94758832
-0.832533 1.3882602 0.74233937
-0.82220584 1.3699695 0.5595808
-0.8169592 1.3601609 0.39270842
-0.8055011 1.3400389 0.23331158
-0.89199382 1.4980056 1.6339766
-0.86236006 1.4465319 1.3097954
-0.85126805 1.4268072 1.0619444
-0.84308738 1.4114298 0.84747082
-0.82894313 1.3866649 0.65141958
-0.81858164 1.3682618 0.47527319
-0.80610371 1.3468808 0.31114352
-0.79824281 1.3327054 0.15634152
-0.01486957 0.18771772 20.173506
-1.2601166 2.2437532 16.359247
-1.116738 1.9588155 10.86377
-1.3351367 2.3056028 8.5645418
-0.73137641 1.2528052 3.4771254
-0.86535645 1.4753203 3.2017381
-0.99643165 1.6934445 2.9584033
-0.9340108 1.5835867 2.2778101
-0.47049361 1.0427655 19.621637
-0.15390092 0.30659327 3.1567163
-1.1901544 2.075949 9.2504616
-1.2508032 2.1582677 6.8377752
-0.77740741 1.332782 3.2541223
-0.99294186 1.6962873 3.2851889
-0.95319206 1.6238589 2.568085
-0.91494519 1.5556141 2.0347569
-0.90022403 1.5190471 1.8150022
-0.87346649 1.4721547 1.4626372
-0.85959357 1.4470643 1.188115
-0.84508747 1.4215277 0.95222592
-0.83242267 1.3991262 0.74608546
-0.82478112 1.3851963 0.56381088
-0.81723553 1.3714441 0.39457369
-0.80592 1.3513967 0.23420574
-0.89245629 1.5107546 1.6439531
-0.86347806 1.4599705 1.3186247
-0.85067362 1.4371893 1.0670106
-0.8427828 1.4221729 0.85166693
-0.8265065 1.3936116 0.65306306
-0.81876218 1.3794706 0.47761783
-0.80645376 1.3582025 0.31252488
-0.79613811 1.3397787 0.15654305
-0.014214223 0.18776849 20.173506
-1.2526547 2.2488167 16.364185
-1.1108958 1.9644747 10.873561
-1.3397186 2.3322539 8.6456652
-0.72601992 1.2536598 3.4725227
-0.86140579 1.4804022 3.2061269
-0.99902534 1.7114947 2.983201
-0.93495172 1.5979035 2.29316
-0.46661603 1.043874 19.611654
-0.15282978 0.30712864 3.1567163
-1.1829008 2.0800908 9.2504616
-1.2510015 2.1760859 6.8800101
-0.77166033 1.3336033 3.2496209
-0.98832417 1.7019982 3.2894547
-0.95661491 1.6428005 2.592025
-0.91634309 1.5705113 2.0494576
-0.90033811 1.5314033 1.8255159
-0.87424535 1.4852577 1.4720525
-0.85878283 1.4572608 1.1935979
-0.84462088 1.4321003 0.95686358
-0.83224648 1.410008 0.7498315
-0.82482046 1.3963276 0.56663096
-0.81744295 1.3827456 0.39643893
-0.80373353 1.3584877 0.23465282
-0.89095271 1.5203034 1.650604
-0.86451274 1.4734346 1.3274543
-0.85001719 1.4475847 1.072077
-0.84241349 1.4329312 0.85586303
-0.82642591 1.4046282 0.65635008
-0.81887448 1.3906972 0.47996244
-0.80673462 1.3695431 0.31390625
-0.7965309 1.3511571 0.15694611
-0.013557187 0.18777336 20.168505
-1.2451729 2.2538559 16.369125
-1.1050276 1.9701164 10.88335
-1.3441306 2.3589654 8.7267885
-0.72163939 1.2561865 3.4725227
-0.85743016 1.4854743 3.2105162
-1.0000949 1.7271479 3.003866
-0.93419492 1.6094738 2.3046725
-0.46227038 1.0439116 19.581705
-0.15175676 0.30766025 3.1567163
-1.1768674 2.0863967 9.2601395
-1.2510904 2.1939313 6.9222445
-0.76591694 1.3344005 3.2451198
-0.98237699 1.7054378 3.2894547
-0.95991713 1.6617854 2.6159654
-0.91594982 1.582503 2.060483
-0.90037674 1.5437787 1.8360294
-0.87494332 1.4983844 1.4814678
-0.85791123 1.4674693 1.1990808
-0.84409076 1.4426869 0.96150118
-0.83200449 1.4209057 0.75357759
-0.82721722 1.4116148 0.57086104
-0.8175813 1.3940654 0.39830416
-0.80402827 1.3698746 0.23554698
-0.89126986 1.5330881 1.6605806
-0.86343074 1.4834301 1.3333406
-0.85146821 1.461718 1.0796765
-0.84197927 1.4437041 0.86005914
-0.82627851 1.4156611 0.65963709
-0.81891817 1.4019413 0.48230708
-0.80694598 1.3809019 0.31528762
-0.79433161 1.3582417 0.15714765
-0.012901653 0.18781953 20.168505
-1.237671 2.2588701 16.374063
-1.0986388 1.9748516 10.888246
-1.3476379 2.3844359 8.8031406
-0.71628308 1.2570004 3.4679203
-0.85223967 1.4884584 3.2105162
-1.0024688 1.7452695 3.0286636
-0.93496805 1.623836 2.3200223
-0.45827687 1.0447252 19.566729
-0.1506819 0.30818808 3.1567163
-1.1683502 2.0882983 9.2504616
-1.2493712 2.2088001 6.9550943
-0.76125437 1.3370659 3.2451198
-0.97771174 1.7111211 3.2937207
-0.96459639 1.6834278 2.6438954
-0.9171719 1.597451 2.0751836
-0.90033996 1.556173 1.8465432
-0.87556022 1.5115337 1.4908831
-0.85697901 1.4776895 1.2045637
-0.84572041 1.4571184 0.96845758
-0.83169645 1.4318187 0.75732362
-0.82710636 1.422788 0.57368112
-0.81765062 1.4054027 0.4001694
-0.8042531 1.3812802 0.23644114
-0.89150852 1.5458934 1.670557
-0.8643102 1.4969363 1.34217
-0.85067403 1.4721462 1.0847429
-0.84148014 1.4544915 0.86425525
-0.82606399 1.42671 0.66292417
-0.81889337 1.4132025 0.48465171
-0.8070879 1.3922789 0.31666899
-0.79459965 1.3696489 0.15755071
-0.012244751 0.18781981 20.163506
-1.2297785 2.2631764 16.374063
-1.0937057 1.9822408 10.907827
-1.3517133 2.4112618 8.884264
-0.71092981 1.2577921 3.4633176
-0.8482213 1.4935068 3.2149053
-1.0033354 1.7609835 3.0493283
-0.93724179 1.6410066 2.33921
-0.45508593 1.0473783 19.586697
-0.14960521 0.30871218 3.1567163
-1.1610535 2.0923638 9.2504616
-1.2551615 2.2372286 7.0301785
-0.75551212 1.3378195 3.2406185
-0.9717328 1.7145236 3.2937207
-0.96764725 1.7025032 2.6678357
-0.91830063 1.6124265 2.0898843
-0.90022743 1.5685855 1.8570567
-0.87609601 1.5247055 1.5002986
-0.85807079 1.4915454 1.2127882
-0.84504944 1.4677397 0.97309518
-0.83132231 1.4427469 0.76106972
-0.8269276 1.4339778 0.57650119
-0.81765062 1.4167573 0.40203464
-0.80440813 1.3927038 0.23733529
-0.89166868 1.558719 1.6805335
-0.86510605 1.5104668 1.3509996
-0.85196108 1.4863266 1.0923425
-0.84091568 1.4652926 0.86845136
-0.82578248 1.4377745 0.66621119
-0.81879985 1.4244806 0.48699635
-0.80469161 1.3993807 0.31735966
-0.79479772 1.3810744 0.15795377
-0.011589063 0.1878614 20.163506
-1.2222397 2.2681396 16.379004
-1.0892229 1.9905128 10.932302
-1.355618 2.4381447 8.9653883
-0.70653492 1.2602661 3.4633176
-0.84300286 1.4964585 3.2149053
-1.0054888 1.7791748 3.074126
-0.93782705 1.6554236 2.3545601
-0.45176831 1.0497564 19.601671
-0.1485267 0.30923253 3.1567163
-1.151319 2.0919986 9.2311029
-1.2590903 2.2627082 7.0958776
-0.75083768 1.3404485 3.2406185
-0.96574211 1.717905 3.2937207
-0.9690969 1.7189952 2.6877859
-0.92100328 1.6303813 2.1082602
-0.90180355 1.5841155 1.8710749
-0.87847763 1.541281 1.5128524
-0.85907626 1.505427 1.2210126
-0.84431452 1.4783739 0.97773278
-0.83318233 1.4577146 0.76668876
-0.82906258 1.4493474 0.58073127
-0.8175813 1.4281291 0.40389988
-0.80449319 1.4041454 0.23822945
-0.89359254 1.5748119 1.6938356
-0.86581779 1.5240208 1.3598289
-0.85315943 1.5005339 1.0999421
-0.8402862 1.4761076 0.87264746
-0.82777113 1.4529574 0.67114168
-0.81863743 1.4357749 0.48934099
-0.80470902 1.410784 0.31874102
-0.79492563 1.3925178 0.15835683
-0.010932328 0.18785708 20.158504
-1.2146811 2.2730777 16.383944
-1.4357377 2.6458549 14.496029
-1.3593512 2.4650841 9.0465117
-0.70592839 1.2695547 3.4817278
-0.83894217 1.5014828 3.2192943
-1.0061513 1.7949475 3.0947907
-0.93989313 1.6726592 2.3737476
-0.44832683 1.0518585 19.611654
-0.14744636 0.3097491 3.1567163
-1.3089812 2.3983328 10.557105
-1.2628564 2.2882421 7.1615758
-0.74509698 1.3411582 3.2361174
-0.96100956 1.7235435 3.2979865
-0.97191358 1.738148 2.711726
-0.92193466 1.6454167 2.1229608
-0.90152866 1.5965701 1.8815886
-0.87883854 1.5545031 1.5222677
-0.85999501 1.5193335 1.229237
-0.84569895 1.4928752 0.98468918
-0.83266163 1.4686799 0.77043486
-0.82873297 1.4605772 0.58355141
-0.81744236 1.4395174 0.40576512
-0.80450803 1.4156042 0.23912361
-0.8935836 1.5876831 1.703812
-0.86644536 1.5375984 1.3686585
-0.85426891 1.5147676 1.1075416
-0.8418228 1.490888 0.87894166
-0.82966375 1.4681715 0.67607224
-0.81840616 1.4470855 0.4916856
-0.80465662 1.4222045 0.32012239
-0.79498333 1.4039789 0.15875989
-0.010277271 0.18793774 20.163506
-1.2071028 2.2779903 16.388882
-1.4245635 2.6472638 14.476447
-1.3629127 2.492079 9.127636
-0.70432234 1.2771437 3.4955354
-0.83369589 1.5044022 3.2192943
-1.0080833 1.8132058 3.1195884
-0.94028986 1.687129 2.3890977
-0.44476432 1.0536834 19.616648
-0.14636424 0.31026191 3.1567163
-1.3119678 2.4238915 10.649055
-1.2639742 2.3092883 7.2131968
-0.73936051 1.3418442 3.231616
-0.95498741 1.7268876 3.2979865
-0.9746083 1.7573411 2.735666
-0.92441893 1.6634417 2.1413364
-0.90292025 1.6121534 1.8956068
-0.87721431 1.5643513 1.5285445
-0.86082721 1.5332646 1.2374614
-0.84482247 1.5035421 0.98932678
-0.8320744 1.4796592 0.77418089
-0.82833499 1.4718221 0.58637142
-0.81723392 1.4509221 0.40763035
-0.80689812 1.4314184 0.24046485
-0.89349568 1.6005733 1.7137885
-0.86698878 1.5511985 1.377488
-0.85318494 1.5252649 1.112608
-0.84104872 1.5017371 0.88313776
-0.82915139 1.4792973 0.67935926
-0.82048386 1.4626513 0.49520257
-0.80211073 1.4293232 0.32081306
-0.79741704 1.4198134 0.15936449
-0.0096211834 0.18797246 20.163506
-1.1995052 2.2828782 16.393822
-1.4210656 2.6630006 14.535191
-1.3670135 2.5204403 9.2135305
-0.70360923 1.2864511 3.5139456
-0.82843947 1.5073031 3.2192943
-1.0098999 1.8314992 3.1443861
-0.94059688 1.7016219 2.4044476
-0.44130543 1.0557624 19.626629
-0.14505616 0.3102873 3.1517448
-1.2981496 2.4184883 10.605499
-1.2674296 2.3349199 7.2788949
-0.73467213 1.3444167 3.231616
-0.95020771 1.7324975 3.3022525
-0.97572863 1.7739339 2.7556162
-0.92515206 1.6785347 2.1560371
-0.90248233 1.6246483 1.9061204
-0.87931556 1.5810107 1.5410986
-0.86157244 1.5472198 1.2456857
-0.84603816 1.5180905 0.99628317
-0.83367878 1.494701 0.7798
-0.82786852 1.4830819 0.5891915
-0.81695575 1.4623429 0.40949559
-0.80675715 1.4429197 0.24135901
-0.89332861 1.6134822 1.7237651
-0.86744756 1.564821 1.3863175
-0.8541292 1.5395423 1.1202074
-0.84020913 1.5125989 0.88733381
-0.83086586 1.4945644 0.68428975
-0.82009947 1.4740012 0.49754718
-0.80193329 1.4407684 0.32219443
-0.79731852 1.4313171 0.15976755
-0.0089649791 0.1880049 20.163506
-1.191888 2.2877402 16.39876
-1.4227123 2.6886454 14.64778
-1.3709329 2.5488608 9.2994261
-0.70283961 1.2957689 3.5323555
-0.82317299 1.5101857 3.2192943
-1.0116012 1.8498275 3.169184
-0.94235492 1.7189481 2.423635
-0.43783745 1.0578302 19.636612
-0.14397217 0.31079176 3.1517448
-1.2837945 2.4119086 10.557105
-1.2641788 2.3484471 7.3070517
-0.72893775 1.345059 3.2271149
-0.94540042 1.7380947 3.3065183
-0.9781878 1.7932009 2.7795563
-0.92741704 1.696628 2.1744132
-0.90368885 1.6402832 1.9201386
-0.87943107 1.594295 1.5505139
-0.86223078 1.5611988 1.2539102
-0.84716249 1.5326654 1.0032395
-0.83294427 1.5057151 0.78354609
-0.82733345 1.4943564 0.59201157
-0.81660777 1.4737792 0.41136083
-0.80654573 1.4544374 0.24225317
-0.8930822 1.6264093 1.7337415
-0.86782181 1.5784657 1.395147
-0.85498428 1.553845 1.127807
-0.84149379 1.5274482 0.893628
-0.83020371 1.5057261 0.68757677
-0.81964594 1.4853666 0.49989185
-0.80168569 1.4522295 0.32357576
-0.79956537 1.4472103 0.16037214
-0.008308962 0.18807867 20.168505
-1.184608 2.2932675 16.408638
-1.4189944 2.7044153 14.706523
-1.3746705 2.5773389 9.3853226
-0.70108813 1.3033763 3.5461633
-0.81789643 1.51305 3.2192943
-1.0145279 1.8706634 3.1981144
-0.94247246 1.7334912 2.4389851
-0.43425137 1.0596194 19.641605
-0.14288643 0.31129241 3.1517448
-1.1140466 2.1106615 9.226263
-1.2738495 2.3863385 7.4102926
-0.72320771 1.3456776 3.2226136
-0.94056559 1.7436798 3.3107843
-0.98052424 1.8125066 2.8034966
-0.92795134 1.7117767 2.1891139
-0.9047972 1.6559461 1.9341568
-0.87946463 1.6075994 1.5599293
-0.86280185 1.575201 1.2621346
-0.84819537 1.5472666 1.010196
-0.83214289 1.5167423 0.78729212
-0.82672971 1.505645 0.59483165
-0.81382412 1.4809257 0.41229346
-0.80626363 1.465971 0.24314731
-0.89275634 1.6393542 1.7437181
-0.86811119 1.5921315 1.4039763
-0.85368484 1.5643883 1.1328733
-0.840509 1.538342 0.89782411
-0.82947379 1.5169013 0.69086379
-0.81912297 1.4967464 0.50223649
-0.8013677 1.4637064 0.32495713
-0.79931015 1.4587551 0.1607752
-0.007652394 0.18810654 20.168505
-1.1773039 2.2987721 16.418518
-1.4170631 2.7238052 14.784847
-1.3782258 2.6058741 9.4712181
-0.70205003 1.3161588 3.5737784
-0.81260991 1.5158957 3.2192943
-1.0159887 1.8890637 3.2229121
-0.94249994 1.7480559 2.4543352
-0.43087438 1.0619317 19.65658
-0.14179894 0.31178927 3.1517448
-1.1060895 2.1134236 9.2214241
-1.2776202 2.4136491 7.4806843
-0.71748239 1.3462728 3.2181125
-0.93447328 1.7469523 3.3107843
-0.98131335 1.8291951 2.8234465
-0.9283911 1.7269498 2.2038143
-0.90580708 1.6716366 1.948175
-0.87941581 1.6209234 1.5693445
-0.86128986 1.585552 1.2676175
-0.84702075 1.5580018 1.0148336
-0.83127469 1.5277824 0.79103822
-0.82835132 1.5211604 0.59906173
-0.81335115 1.4923841 0.4141587
-0.80591077 1.4775201 0.24404147
-0.89412504 1.6556017 1.7570201
-0.86831582 1.6058187 1.4128059
-0.85437381 1.5787325 1.1404729
-0.83945829 1.5492474 0.90202022
-0.82642478 1.5239385 0.69250727
-0.81853038 1.5081404 0.50458109
-0.80334234 1.4795506 0.32702917
-0.79898405 1.4703157 0.16117826
-0.0069957403 0.18808848 20.163506
-1.1692725 2.3028674 16.418518
-1.4140801 2.7414045 14.85338
-1.3822917 2.635787 9.5618858
-0.70019126 1.3237824 3.5875859
-0.8073135 1.518723 3.2192943
-1.0173333 1.9074967 3.2477098
-0.94243711 1.7626418 2.4696853
-0.42684332 1.0626252 19.641605
-0.14092714 0.31276906 3.1567163
-1.0958112 2.1116929 9.1972275
-1.2812157 2.4410148 7.5510755
-0.71277863 1.3487691 3.2181125
-0.92959154 1.7525076 3.3150501
-0.98341292 1.8485712 2.8473866
-0.92873609 1.7421465 2.2185149
-0.90671831 1.6873541 1.9621931
-0.87928474 1.6342666 1.57876
-0.8616991 1.5995929 1.275842
-0.84788364 1.5726467 1.02179
-0.83254081 1.5429144 0.79665732
-0.82759523 1.5324845 0.6018818
-0.8128081 1.503857 0.41602394
-0.80548704 1.4890847 0.24493563
-0.89362848 1.6685873 1.7669965
-0.86843526 1.6195267 1.4216353
-0.85293466 1.5893021 1.1455393
-0.84048975 1.5641619 0.90831435
-0.82557327 1.5351319 0.69579428
-0.81556463 1.5152686 0.50575346
-0.80286825 1.4910662 0.32841054
-0.80095702 1.4862897 0.16178286
-0.0063391472 0.18811174 20.163506
-1.1619253 2.3083231 16.428396
-1.4119186 2.7608292 14.931704
-1.3834109 2.6604621 9.6334658
-0.702824 1.3400602 3.6244061
-0.80200726 1.5215318 3.2192943
-1.0185615 1.9259622 3.2725077
-0.94378513 1.7800802 2.4888728
-0.42270634 1.063035 19.621637
-0.13983451 0.31325907 3.1567163
-1.0878586 2.1143875 9.1923876
-1.2846354 2.4684343 7.6214666
-0.70705599 1.3493205 3.2136111
-0.92346853 1.7557417 3.3150501
-0.98538905 1.8679839 2.8713269
-0.93057054 1.7603639 2.236891
-0.9075309 1.7030984 1.9762113
-0.87907106 1.6476282 1.5881753
-0.86202061 1.6136556 1.2840662
-0.84865451 1.5873164 1.0287464
-0.83152431 1.5539863 0.80040342
-0.82677007 1.5438218 0.60470188
-0.81219476 1.5153443 0.41788921
-0.80499238 1.5006642 0.24582979
-0.89480335 1.6848872 1.7802985
-0.86846966 1.6332549 1.4304649
-0.85345709 1.6036861 1.1531388
-0.84142733 1.5791026 0.91460848
-0.82465369 1.5463378 0.6990813
-0.81484777 1.5266824 0.50809807
-0.80232358 1.5025964 0.3297919
-0.79811865 1.4934827 0.16198438
-0.0056827883 0.18808907 20.158504
-1.1542076 2.3130603 16.433334
-1.4087179 2.7784555 15.000237
-1.3912143 2.6984451 9.7527657
-1.2298445 2.3652031 6.3398952
-0.79780042 1.5264447 3.2236834
-1.0196731 1.9444591 3.2973053
-0.94502282 1.7975494 2.5080602
-0.41867712 1.0636978 19.606663
-0.13874018 0.31374526 3.1567163
-1.0793293 2.1159325 9.1827087
-1.2823409 2.4851723 7.659009
-0.70234162 1.3517804 3.2136111
-0.91854006 1.7612671 3.3193161
-0.98724157 1.8874329 2.895267
-0.9307152 1.7756124 2.2515917
-0.90824443 1.7188685 1.9902295
-0.88059491 1.6644487 1.6007291
-0.86421174 1.6314352 1.2950323
-0.84933323 1.6020106 1.0357027
-0.83261341 1.569165 0.80602247
-0.82812572 1.5594085 0.60893196
-0.8115111 1.5268455 0.41975445
-0.80442661 1.5122584 0.24672395
-0.89587504 1.7012151 1.7936004
-0.86841857 1.6470027 1.4392942
-0.85388947 1.6180931 1.1607383
-0.84227073 1.5940685 0.92090267
-0.82587332 1.5617303 0.70401186
-0.81406099 1.5381094 0.51044267
-0.80402523 1.5185171 0.33186394
-0.79757911 1.5050883 0.16238745
-0.0050257351 0.18815142 20.163506
-1.1464709 2.3177717 16.438274
-1.4076973 2.8006423 15.093246
-1.3960516 2.7311974 9.8529768
-1.2251614 2.3764279 6.3583055
-0.7924673 1.5292202 3.2236834
-1.0206678 1.9629869 3.322103
-0.94763142 1.8178909 2.5310853
-0.41464835 1.0643452 19.591688
-0.13764416 0.31422767 3.1567163
-1.0708025 2.1174436 9.1730309
-1.2917329 2.5249698 7.766943
-0.69761878 1.3542238 3.2136111
-0.91238654 1.7644626 3.3193161
-0.99035722 1.9095923 2.923197
-0.9323281 1.7938915 2.2699676
-0.9088589 1.7346643 2.0042477
-0.88020384 1.6778531 1.6101445
-0.86434472 1.6455473 1.3032565
-0.84785843 1.6128076 1.0403403
-0.83360654 1.5843698 0.81164157
-0.82938248 1.5750233 0.61316204
-0.81075698 1.5383604 0.42161968
-0.80378968 1.5238667 0.24761811
-0.89684379 1.7175713 1.8069026
-0.87015486 1.6643524 1.4510671
-0.85623008 1.636342 1.170871
-0.84512603 1.6130798 0.92929488
-0.82699549 1.5771501 0.70894241
-0.81546307 1.5538535 0.51395965
-0.80332369 1.5300835 0.33324531
-0.79464442 1.5122858 0.16258898
-0.0043689334 0.18816783 20.163506
-1.1387153 2.3224571 16.443214
-1.3992746 2.8082733 15.107932
-1.4000025 2.7626848 9.9484167
-1.2141914 2.3754709 6.3444982
-0.78821886 1.5341074 3.2280724
-1.0215455 1.9815454 3.3469007
-0.9486379 1.835425 2.5502727
-0.41113746 1.0663252 19.601671
-0.13654646 0.31470621 3.1567163
-1.0628414 2.1200449 9.168191
-1.2946186 2.5525498 7.8373346
-0.69288743 1.3566508 3.2136111
-0.90741146 1.7699574 3.3235822
-0.9933303 1.9317962 2.9511273
-0.93382442 1.812203 2.2883432
-0.909374 1.7504852 2.0182657
-0.88152593 1.694728 1.6226983
-0.86632115 1.663389 1.3142223
-0.84836608 1.627542 1.0472968
-0.83450365 1.5996008 0.81726068
-0.82832003 1.5864135 0.61598212
-0.8122074 1.554242 0.42441753
-0.80538946 1.5399017 0.24895935
-0.89770901 1.7339544 1.8202046
-0.86992025 1.6781454 1.4598964
-0.85646844 1.6508003 1.1784705
-0.84576654 1.6281025 0.93558902
-0.82801992 1.5925964 0.71387291
-0.81452137 1.5653142 0.51630425
-0.80255097 1.5416635 0.33462667
-0.79397756 1.5239118 0.16299205
-0.0037120788 0.18818191 20.163506
-1.1312805 2.3278158 16.453093
-1.3944224 2.8231831 15.161778
-1.4057605 2.7982345 10.058172
-1.2147219 2.3971219 6.390523
-0.78394592 1.5389836 3.2324615
-1.0223061 2.0001338 3.3716984
-0.95245671 1.8586932 2.5771353
-0.40761784 1.0682936 19.611654
-0.1354471 0.31518093 3.1567163
-1.0548754 2.1226163 9.1633511
-1.2996526 2.5848055 7.9218044
-0.69011396 1.3629454 3.2226136
-0.90122765 1.7731141 3.3235822
-0.99616027 1.9540441 2.9790576
-0.933662 1.8275278 2.3030438
-0.91142267 1.7695012 2.0357885
-0.88095689 1.708173 1.6321138
-0.86626494 1.677549 1.3224468
-0.84878105 1.6422994 1.0542531
-0.83530444 1.6148571 0.82287979
-0.82939357 1.6020755 0.62021226
-0.81129682 1.5657908 0.42628276
-0.8045944 1.5515455 0.24985351
-0.89847082 1.7503647 1.8335066
-0.8714475 1.6955518 1.4716691
-0.8585881 1.6691135 1.1886032
-0.84631246 1.6431495 0.94188321
-0.82894653 1.6080691 0.71880347
-0.81573814 1.5811067 0.51982123
-0.8039785 1.5576571 0.33669871
-0.79323912 1.5355513 0.16339511
-0.0030542572 0.18823735 20.168505
-1.1234852 2.3324506 16.458033
-1.385902 2.8307769 15.176465
-1.4046339 2.8204956 10.120209
-1.2221313 2.4327719 6.4733686
-0.77856904 1.5417107 3.2324615
-1.0242209 2.0212615 3.400629
-0.95467275 1.8791528 2.6001604
-0.40398791 1.0699801 19.616648
-0.13434608 0.3156518 3.1567163
-1.0469042 2.1251576 9.1585121
-1.3029376 2.6140385 7.9968886
-0.69121087 1.3770202 3.2496209
-0.89503282 1.7762493 3.3235822
-0.99748778 1.9736456 3.0029976
-0.93493563 1.8458978 2.3214197
-0.91334945 1.7885526 2.0533113
-0.88207656 1.7251002 1.6446676
-0.86612034 1.6917287 1.3306712
-0.84910333 1.6570795 1.0612096
-0.83600891 1.6301383 0.82849884
-0.82817721 1.6134963 0.62303233
-0.81256002 1.5817213 0.42908064
-0.80600494 1.5676312 0.25119475
-0.90082216 1.7701286 1.850134
-0.87286371 1.7129891 1.4834417
-0.85863173 1.6836213 1.1962028
-0.84469968 1.6541778 0.94607931
-0.82977521 1.6235673 0.72373396
-0.81464106 1.5925993 0.52216589
-0.80304813 1.5692707 0.33808005
-0.79242909 1.5472041 0.16379817
-0.002397168 0.18824686 20.168505
-1.1156712 2.3370593 16.462971
-1.3791234 2.8420103 15.210732
-1.4112967 2.8588448 10.239508
-1.221469 2.4527628 6.5147915
-0.7742548 1.5465608 3.2368507
-1.0272639 2.0449414 3.4336927
-0.95675749 1.8996499 2.6231852
-0.40035111 1.0716543 19.621637
-0.1334489 0.31661072 3.1616879
-1.0389282 2.1276696 9.1536722
-1.3045055 2.6402309 8.0625868
-0.68930894 1.3852718 3.2631247
-0.88999254 1.7816961 3.3278482
-0.99869049 1.9932799 3.0269377
-0.93609226 1.8642987 2.3397954
-0.91515422 1.8076386 2.0708342
-0.88132882 1.7385839 1.6540829
-0.86588728 1.7059277 1.3388957
-0.84933257 1.6718817 1.0681659
-0.83661669 1.6454439 0.83411795
-0.82906675 1.6292033 0.62726241
-0.81149256 1.5933025 0.43094587
-0.80505121 1.5793087 0.2520889
-0.90136462 1.7865967 1.863436
-0.87234634 1.7268491 1.4922713
-0.85663962 1.6943024 1.2012691
-0.84506983 1.6692638 0.95237339
-0.83050561 1.6390909 0.72866452
-0.81567198 1.6084385 0.52568281
-0.80428696 1.585313 0.34015211
-0.79380918 1.5633247 0.16440275
-0.0017412747 0.18821047 20.163506
-1.1078386 2.3416419 16.467909
-1.3705182 2.8495598 15.225417
-1.4131168 2.8878887 10.325403
-1.2206823 2.4727788 6.5562143
-0.76885158 1.5492541 3.2368507
-1.0301538 2.0686669 3.4667561
-0.95871067 1.9201844 2.6462102
-0.39670759 1.0733163 19.626629
-0.1323429 0.31707463 3.1616879
-1.0314949 2.1312833 9.1536722
-1.3066651 2.668016 8.1329784
-0.68543208 1.3896219 3.2676258
-0.88376778 1.7847918 3.3278482
-0.9997682 2.0129464 3.050878
-0.93713182 1.8827301 2.3581712
-0.91843647 1.8299466 2.0918612
-0.88224536 1.7555611 1.6666367
-0.86556548 1.7201455 1.3471199
-0.85146135 1.6906619 1.0774411
-0.8371278 1.6607736 0.83973712
-0.82769603 1.6406533 0.63008249
-0.81035411 1.6048955 0.43281111
-0.80402577 1.5909986 0.25298306
-0.90180302 1.8030899 1.876738
-0.87355256 1.7443404 1.5040439
-0.85651481 1.7088439 1.2088687
-0.84534502 1.6843727 0.95866758
-0.82901812 1.6504195 0.73195153
-0.81441891 1.6199613 0.52802747
-0.8031984 1.5969589 0.34153345
-0.79284 1.5750109 0.16480581
-0.001084287 0.1882154 20.163506
-1.099658 2.3454945 16.467909
-1.3645054 2.8625989 15.269474
-1.410192 2.907578 10.377895
-1.2266389 2.5068579 6.6344571
-0.76343894 1.5519283 3.2368507
-1.0328904 2.0924375 3.4998198
-0.96053207 1.9407555 2.6692355
-0.39295861 1.0746945 19.626629
-0.1312353 0.31753466 3.1616879
-1.024049 2.1348708 9.1536722
-1.303372 2.6849806 8.1705208
-0.69109333 1.4135197 3.3171391
-0.8775323 1.7878658 3.3278482
-1.0007206 2.0326447 3.0748181
-0.93805403 1.9011914 2.3765471
-0.921574 1.8522991 2.1128886
-0.88305402 1.7725661 1.6791905
-0.86702144 1.7381237 1.358086
-0.85149062 1.7055138 1.0843976
-0.837542 1.6761267 0.84535617
-0.82625538 1.6521133 0.6329025
-0.81134325 1.6208925 0.43560895
-0.80292845 1.6027005 0.25387722
-0.90379572 1.8229531 1.8933655
-0.8746472 1.7618608 1.5158166
-0.8562988 1.7234049 1.2164682
-0.8475464 1.7035669 0.96705979
-0.82956654 1.6659846 0.73688203
-0.81526339 1.6358453 0.53154445
-0.80424786 1.6130482 0.34360549
-0.79402953 1.5911796 0.16541041
-0.00042728637 0.18821804 20.163506
-1.0917913 2.3500237 16.472849
-1.3575485 2.8737893 15.303741
-1.4019741 2.9165192 10.392211
-1.2332246 2.5427656 6.7173023
-0.75801706 1.5545838 3.2368507
-1.0354736 2.1162519 3.5328834
-0.9622215 1.9613626 2.6922605
-0.38930264 1.0763313 19.631622
-0.13012609 0.31799081 3.1616879
-1.0155116 2.1361618 9.1439934
-1.3141901 2.7315016 8.297225
-0.69279939 1.4296373 3.3486478
-0.87128615 1.7909181 3.3278482
-1.0015477 2.0523736 3.0987582
-0.93885851 1.9196814 2.394923
-0.92456651 1.8746954 2.1339159
-0.88203138 1.7861078 1.6886059
-0.8665089 1.7523842 1.3663102
-0.85339123 1.7243565 1.0936728
-0.83785909 1.6915028 0.85097528
-0.82687545 1.6678811 0.63713264
