# .PCD v0.7 - Point Cloud Data file format
VERSION 0.7
FIELDS x y z
SIZE 4 4 4
TYPE F F F
COUNT 1 1 1
WIDTH 1592
HEIGHT 1
VIEWPOINT 0 0 0 1 0 0 0
POINTS 1592
DATA ascii
9.5351686 31.562149 6.3512182
5.2103176 17.268322 1.712249
3.0475209 9.9495535 9.3491373
3.6535604 11.95042 9.1827497
4.5879803 15.025502 9.3175745
2.866231 9.4044733 4.6323576
7.6608787 25.167627 9.2453289
10.843916 35.669212 9.082428
6.7745972 22.297871 3.3425384
9.4437227 31.122026 1.4056317
0.061427876 0.07042449 9.2889194
0.49490118 1.4812433 9.9283323
0.63889605 1.9533895 9.9043045
0.93798888 2.9344797 9.8959246
1.2041433 3.8125987 9.478817
1.5277835 4.8725801 9.4254522
1.8911449 6.0609102 9.3975382
2.3099167 7.4302511 9.3925428
0.2217076 0.51169765 9.4835796
0.38821757 0.99723893 9.9378471
0.7892502 2.4327509 9.8844252
1.0998806 3.4448819 9.888073
1.3270233 4.196445 9.164216
1.7626232 5.6043186 9.6798239
2.1035829 6.7169356 9.3950167
2.5556006 8.185195 9.3740606
2.7847035 9.0240059 9.3602896
1.7814144 5.7835708 4.9620161
4.215426 13.711116 9.489275
5.1522732 16.7791 9.2743988
1.6395074 5.3459868 2.3475285
5.2348385 17.090443 5.343822
9.8277845 32.12524 6.4696617
5.2720184 17.254791 1.7126962
3.7036197 11.964623 9.203352
4.6582279 15.067055 9.3530388
2.9003794 9.3987474 4.6344557
7.7778921 25.235498 9.2798424
10.985519 35.68689 9.0964966
6.7577438 21.966433 3.2976439
0.061735693 0.07027068 9.2989197
0.49981964 1.4787706 9.9233932
0.64571083 1.9511474 9.9043045
0.94822639 2.9311876 9.8959246
1.2174444 3.8083723 9.478817
1.5447826 4.8672175 9.4254522
1.9122899 6.0542722 9.3975382
2.3358388 7.4221425 9.3925428
0.22349241 0.51092064 9.4835796
0.39150059 0.99538183 9.9328756
0.7977373 2.429981 9.8844252
1.1118988 3.4410214 9.888073
1.3416636 4.1917877 9.164216
1.7782193 5.5857067 9.6584949
2.1270165 6.7095513 9.3950167
2.5841565 8.1762238 9.3740606
2.81725 9.0176353 9.3637943
1.8039097 5.7847495 4.9682932
4.2234926 13.568558 9.4015474
5.2147565 16.773703 9.2813549
6.7007132 21.579918 9.2178135
5.2845168 17.039993 5.333952
5.3336887 17.241041 1.7131432
3.7526135 11.974765 9.2210112
4.7198067 15.0795 9.3707714
2.908808 9.3105898 4.5966907
7.8673391 25.212702 9.2814856
11.091221 35.587997 9.081255
6.8284893 21.9238 3.2948813
10.181648 32.729763 1.4763691
0.062011894 0.070085168 9.3039188
0.50472695 1.4762816 9.9184542
0.65251762 1.9488815 9.9043045
0.95845246 2.9278598 9.8959246
1.2307307 3.8040993 9.478817
1.561763 4.8617954 9.4254522
1.9342684 6.0502396 9.4016705
2.3627057 7.4169984 9.3963804
0.22515708 0.50987369 9.4785881
0.39497271 0.99400914 9.9328756
0.80621463 2.4271817 9.8844252
1.1239034 3.4371192 9.888073
1.3562875 4.1870785 9.164216
1.7921072 5.5620894 9.6286335
2.1504242 6.702086 9.3950167
2.6137142 8.1703825 9.3777361
2.8487101 9.0077457 9.3637943
1.8276063 5.7895527 4.9777083
4.2306161 13.426113 9.3138208
5.2772651 16.768074 9.288311
6.7954626 21.618313 9.2440357
5.382762 17.145018 5.3720226
5.3968158 17.231823 1.7140374
3.3664036 10.593192 9.9809818
3.0403056 9.5844145 7.4050808
4.7672067 15.046494 9.3606377
6.0136533 19.015104 9.306819
7.9510331 25.171579 9.2765551
11.158344 35.368286 9.0355349
10.337852 32.82745 1.4820119
0.062381726 0.069989495 9.3239183
0.50987703 1.4745109 9.9184542
0.65931654 1.946592 9.9043045
0.96866673 2.9244962 9.8959246
1.24461 3.8016367 9.4834194
1.5787244 4.8563142 9.4254522
1.9553758 6.0434508 9.4016705
2.3885815 7.4087052 9.3963804
0.22693549 0.50908464 9.4785881
0.39844003 0.99262434 9.9328756
0.81468213 2.4243526 9.8844252
1.1364365 3.4348135 9.892766
1.3708948 4.1823187 9.164216
1.7929155 5.4987698 9.5305157
2.1747363 6.6974049 9.3990068
2.6422181 8.1612101 9.3777361
2.8812227 9.0011435 9.3672991
1.8513585 5.7942605 4.9871235
4.2495031 13.323621 9.2535086
5.3384538 16.757992 9.2929487
6.8497996 21.528196 9.2159405
5.4469352 17.139837 5.3762527
10.101235 31.823914 6.430491
5.4599433 17.222374 1.7149316
3.4376576 10.688008 10.080747
3.0762141 9.58144 7.4109669
3.3559096 10.465114 6.5437431
6.0841427 19.006964 9.3131123
8.0460396 25.166159 9.2847729
0.062625654 0.069771312 9.3239183
0.51502091 1.4727222 9.9184542
0.66610736 1.9442787 9.9043045
0.97934365 2.9225125 9.9006968
1.258487 3.7991235 9.4880219
1.5964147 4.8530488 9.429842
1.9764595 6.0365887 9.4016705
2.414428 7.4003224 9.3963804
0.22871116 0.5082894 9.4785881
0.40170175 0.9907338 9.9279041
0.82313973 2.421494 9.8844252
1.1484193 3.4308257 9.892766
1.3854855 4.1775079 9.164216
1.8120989 5.4924779 9.5305157
2.1981015 6.6897726 9.3990068
2.6706901 8.1519365 9.3777361
2.9126253 8.9910307 9.3672991
1.8751659 5.7988734 4.9965391
4.2446055 13.149536 9.1438494
5.4037142 16.760336 9.3045425
6.9490623 21.57917 9.2477818
5.4920425 17.075054 5.3621526
10.19273 31.727665 6.4183669
5.5230703 17.212694 1.7158258
3.4853461 10.707898 10.110676
1.8930681 5.8264165 4.5443287
3.400403 10.477937 6.5589423
6.1308708 18.925165 9.28374
8.1411057 25.160383 9.2929897
5.4804511 16.988089 0.81373543
0.062742405 0.069431946 9.3039188
0.52015853 1.4709154 9.9184542
0.67289007 1.9419416 9.9043045
0.98953909 2.9190762 9.9006968
1.2723616 3.79656 9.4926243
1.6133453 4.8474464 9.429842
1.9984041 6.0323243 9.4058027
2.4402454 7.3918495 9.3963804
0.23036383 0.50722539 9.4735956
0.40515763 0.98932558 9.9279041
0.83158737 2.418606 9.8844252
1.1603881 3.4267962 9.892766
1.4000592 4.1726465 9.164216
1.8147439 5.4366426 9.4451981
2.2223902 6.6849179 9.402997
2.7001958 8.1457815 9.3814106
2.9451029 8.9841986 9.3708038
1.8978174 5.7996907 5.0028162
3.207633 9.819705 6.8574672
5.4663081 16.754007 9.3114996
7.0257816 21.559189 9.2496538
5.5100389 16.928055 5.3226714
5.5877337 17.207518 1.7171669
3.521534 10.692121 10.10735
1.9007699 5.7813749 4.5148969
3.4369574 10.466003 6.5589423
6.1869974 18.873461 9.2690535
8.1583509 24.916403 9.2141018
5.5428176 16.978354 0.81413841
0.062920965 0.069152564 9.2939196
0.52555162 1.4698223 9.9233932
0.67966467 1.939581 9.9043045
0.9997226 2.9156044 9.9006968
1.2862335 3.7939456 9.4972277
1.6302562 4.8417854 9.429842
2.0194488 6.0253119 9.4058027
2.4660327 7.3832865 9.3963804
0.23213297 0.50641823 9.4735956
0.40860856 0.98790526 9.9279041
0.84043771 2.4168758 9.8892651
1.1723428 3.4227247 9.892766
1.4153156 4.169795 9.1687174
1.829538 5.4179196 9.4238672
2.2466722 6.6799765 9.4069872
2.7286134 8.1363068 9.3814106
2.9764457 8.9738636 9.3708038
1.9204975 5.8004212 5.0090933
3.249764 9.8322687 6.8739157
7.1111574 21.565353 9.2627659
5.6126146 17.040852 5.3635626
5.6539841 17.206833 1.7189553
3.558835 10.679762 10.10735
1.9120083 5.7478571 4.4942951
3.4530804 10.392579 6.5209446
6.2599854 18.873289 9.2795439
5.5587797 16.778801 6.2409935
5.5957813 16.939928 0.81333232
0.063098356 0.06887278 9.2839193
0.53067905 1.4679788 9.9233932
0.68643087 1.9371967 9.9043045
1.0098939 2.912097 9.9006968
1.2994691 3.7894325 9.4972277
1.6471474 4.8360653 9.429842
2.0413723 6.0208912 9.409936
2.4917903 7.3746333 9.3963804
0.23402131 0.50586647 9.4785881
0.41205448 0.9864729 9.9279041
0.84886909 2.4139273 9.8892651
1.1842833 3.4186115 9.892766
1.4298623 4.1648293 9.1687174
1.8484389 5.4115005 9.4238672
2.2699761 6.6720934 9.4069872
2.7580869 8.1299429 9.3850861
3.0100212 8.9701815 9.3778133
1.9419694 5.7973728 5.0122313
3.2946739 9.8525906 6.8958473
3.1271937 9.3625946 5.2535996
7.193727 21.562389 9.272131
5.7114949 17.139482 5.4002233
10.504249 31.558599 6.4062433
5.7187257 17.20117 1.7202965
3.602057 10.684967 10.123979
1.9320604 5.741148 4.4942951
6.3287144 18.859928 9.28374
5.635324 16.813026 6.2607164
7.199707 21.517694 3.2568939
5.6501274 16.906075 0.81272769
0.06327454 0.068592608 9.2739201
0.53579998 1.4661175 9.9233932
0.69318879 1.9347888 9.9043045
1.0200528 2.9085538 9.9006968
1.3126888 3.7848735 9.4972277
1.6640183 4.830286 9.429842
2.0623767 6.0137286 9.409936
2.5185542 7.3689232 9.400218
0.2359086 0.50530773 9.4835796
0.41570306 0.98551947 9.9328756
0.85729015 2.4109495 9.8892651
1.1962092 3.4144568 9.892766
1.4451059 4.1618695 9.1732187
1.8664658 5.4025502 9.4196014
2.2942326 6.6669784 9.4109774
2.7875495 8.1234722 9.3887606
3.039022 8.9528656 9.3708038
1.9634433 5.7942448 5.0153699
3.3303857 9.8449907 6.8985891
3.1598563 9.3516216 5.2535996
7.2748795 21.554714 9.279623
5.8111324 17.237631 5.4368844
10.578289 31.414665 6.3847928
5.7834964 17.195263 1.7216376
3.6489732 10.7006 10.150582
1.9481813 5.7228904 4.4854655
3.4214647 10.062121 6.3309565
6.3974271 18.846315 9.2879362
5.7030754 16.820084 6.270577
7.2382565 21.384548 3.2410083
5.7027063 16.867319 0.8119216
0.063513592 0.068371318 9.2739201
0.54118395 1.4649671 9.9283323
0.6999383 1.9323573 9.9043045
1.0301993 2.9049757 9.9006968
1.326539 3.7821116 9.5018291
1.680869 4.8244481 9.429842
2.0833561 6.0064931 9.409936
2.5453084 7.3631167 9.4040556
0.237671 0.5044812 9.4835796
0.41914061 0.98406237 9.9328756
0.866126 2.4091251 9.894105
1.2081206 3.4102604 9.892766
1.4596246 4.1567998 9.1732187
1.886173 5.3984642 9.4238672
2.3174908 6.6589293 9.4109774
2.8158886 8.1136923 9.3887606
1.983657 5.7873559 5.0153699
4.6115322 13.47699 9.4234791
3.231163 9.4537106 5.3162069
7.3560667 21.54674 9.2871151
5.8852019 17.258104 5.4495745
10.733815 31.512396 6.411839
5.8482971 17.189114 1.7229791
3.6802158 10.670148 10.133955
1.9707779 5.7236986 4.4913516
3.4565673 10.050117 6.3309565
6.4661217 18.832457 9.2921324
5.7724776 16.831343 6.2820816
8.1950912 23.935946 3.6208823
5.7550826 16.8284 0.8111155
0.063751869 0.068149194 9.2739201
0.54629433 1.4630692 9.9283323
0.70667917 1.9299023 9.9043045
1.0403334 2.9013619 9.9006968
1.339733 3.7774582 9.5018291
1.6976992 4.8185515 9.429842
2.1052413 6.0018392 9.4140692
2.5709949 7.354187 9.4040556
0.23955527 0.50390887 9.4885712
0.42257309 0.9825933 9.9328756
0.87453014 2.4060872 9.894105
1.2200173 3.4060225 9.892766
1.4741257 4.151679 9.1732187
1.9050056 5.3918471 9.4238672
2.3417208 6.6536407 9.4149666
2.8453164 8.1070127 9.392436
2.0051215 5.7840738 5.0185084
4.6270938 13.369927 9.360425
3.2655902 9.4465609 5.3185258
7.4357738 21.534077 9.2927351
5.9344592 17.205711 5.4397044
11.181365 32.454689 6.6086216
5.9131231 17.18272 1.7243202
3.7137499 10.646661 10.123979
1.9907452 5.7167845 4.4913516
3.4958766 10.050205 6.3385558
6.5347981 18.818344 9.2963285
7.1289887 20.575729 5.3427353
8.3158627 24.01482 3.6367679
5.8088908 16.794046 0.81051093
0.063989364 0.06792625 9.2739201
0.5513981 1.4611533 9.9283323
0.71341151 1.9274238 9.9043045
1.0509634 2.899116 9.9054689
1.3529106 3.7727585 9.5018291
1.7145088 4.8125963 9.429842
2.1261787 5.9944539 9.4140692
2.5977185 7.3481894 9.4078922
0.2413128 0.50306958 9.4885712
0.42600042 0.9811123 9.9328756
0.8829236 2.4030197 9.894105
1.231899 3.4017432 9.892766
1.4893444 4.1485572 9.1777201
1.9246926 5.3876214 9.428134
2.3649321 6.6454263 9.4149666
2.8735979 8.0970316 9.392436
2.0252995 5.7770395 5.0185084
2.138988 6.111537 4.3298349
3.2883115 9.4058332 5.3022943
7.5170097 21.525496 9.3002262
5.9992218 17.198481 5.4439344
11.373782 32.642761 6.6543198
5.9779768 17.176086 1.7256614
3.7558594 10.647717 10.13728
2.0066607 5.6983633 4.4825225
3.5366585 10.054207 6.3486886
6.6019497 18.7997 9.2984257
6.4838104 18.4839 6.9066153
7.1814795 20.495672 5.3286672
8.3505383 23.845432 3.6160476
5.8608785 16.754803 0.80970478
0.064258404 0.067731775 9.2789192
0.55649507 1.4592196 9.9283323
0.71977812 1.9239681 9.8994093
1.0610769 2.8954298 9.9054689
1.3660717 3.768013 9.5018291
1.7312974 4.806582 9.429842
2.1480405 5.989645 9.4182024
2.6244314 7.3420949 9.4117298
0.24306735 0.50222421 9.4885712
0.42963704 0.98010731 9.9378471
0.8913064 2.3999231 9.894105
1.2437658 3.3974223 9.892766
1.5038165 4.143333 9.1777201
1.9434872 5.3808699 9.428134
2.3891349 6.639966 9.4189568
2.9018443 8.0869513 9.392436
3.8176951 10.751201 11.291295
2.0454526 5.7699351 5.0185084
2.1603081 6.1040335 4.3298349
3.3211238 9.3942976 5.3022943
7.596734 21.512241 9.3058462
6.0592194 17.177433 5.4439344
11.477863 32.575062 6.6487246
6.0445104 17.173904 1.7274498
3.7879868 10.620475 10.123979
2.0346746 5.71417 4.5001812
3.571733 10.0418 6.3486886
6.6766453 18.802202 9.3110151
6.5719709 18.527912 6.9312677
5.1865072 14.638176 3.8363075
8.4833145 23.956181 3.6367679
5.91433 16.720112 0.80910015
0.064494446 0.067507051 9.2789192
0.56186491 1.4579933 9.9332724
0.72648966 1.9214439 9.8994093
1.0716959 2.8931081 9.9102411
1.3792163 3.7632217 9.5018291
1.7488843 4.8027596 9.4342299
2.1698942 5.9847555 9.4223356
2.6511335 7.3359041 9.4155674
0.24469151 0.50111359 9.4835796
0.43305567 0.97860163 9.9378471
0.89923644 2.3956206 9.8892651
1.2556175 3.3930602 9.892766
1.5190201 4.1401019 9.1822205
1.9622581 5.374053 9.428134
2.4122982 6.6315861 9.4189568
2.9312117 8.0799599 9.3961115
3.8600211 10.751235 11.305313
2.0655811 5.7627597 5.0185084
2.1773756 6.0846438 4.3216109
7.6764555 21.49869 9.3114643
6.1384811 17.210396 5.4608545
6.1111002 17.171467 1.729238
3.850368 10.677434 10.190488
2.065562 5.7374578 4.5237265
3.6067634 10.029271 6.3486886
6.7468371 18.791595 9.3173084
8.2658243 23.047598 8.6109343
5.2326546 14.606255 3.8327904
8.5251513 23.809864 3.6195009
5.9676104 16.685253 0.80849558
0.064697161 0.067252442 9.2739201
0.56695086 1.456023 9.9332724
0.73355597 1.9198475 9.9043045
1.0817882 2.8893497 9.9102411
1.3916652 3.7565527 9.4972277
1.7656385 4.7966251 9.4342299
2.1907718 5.9771452 9.4223356
2.6778245 7.3296156 9.419405
0.24643922 0.50025642 9.4835796
0.43646899 0.97708404 9.9378471
0.90759319 2.392467 9.8892651
1.2680585 3.3902729 9.897459
1.5342195 4.1368151 9.1867218
1.9819083 5.3696179 9.4323997
2.4364719 6.6259532 9.4229469
2.959398 8.0696793 9.3961115
3.89996 10.7444 11.312322
2.0856843 5.7555141 5.0185084
6.0049229 16.615698 9.3346872
7.7561755 21.484844 9.3170834
6.222929 17.256554 5.4820051
6.1794329 17.17346 1.7314734
2.0855768 5.7302127 4.5237265
3.5769401 9.8383617 6.2372289
8.2947159 22.876543 8.558342
5.293539 14.615321 3.8398242
6.022419 16.654924 0.80809247
0.06496416 0.067055158 9.2789192
0.57202983 1.4540352 9.9332724
0.74025303 1.9172752 9.9043045
1.0918673 2.8855557 9.9102411
1.4047697 3.751672 9.4972277
1.782371 4.7904329 9.4342299
2.2126002 5.9721003 9.4264688
2.7033935 7.3202233 9.419405
0.24818394 0.49939314 9.4835796
0.439877 0.97555447 9.9378471
0.91593891 2.3892844 9.8892651
1.2798849 3.3858259 9.897459
1.5486503 4.1314349 9.1867218
2.0006397 5.3626666 9.4323997
2.4595859 6.6174078 9.4229469
2.9887269 8.062479 9.3997869
3.9435835 10.74746 11.329844
2.1044233 5.744544 5.0153699
3.5771077 9.7803183 6.9122963
6.0917697 16.673691 9.3787451
7.8343039 21.466349 9.3208294
6.302844 17.288809 5.4989257
6.2461514 17.170506 1.7332618
3.6988735 10.03719 9.6085253
2.1153359 5.7494512 4.5443287
3.710896 10.09691 6.4069519
3.5399492 9.6473637 4.8379664
5.3445244 14.596754 3.8398242
6.0770884 16.624416 0.80768943
0.065165095 0.066799134 9.2739201
0.57738906 1.4527515 9.9382114
0.74731123 1.9156281 9.9092007
1.1019332 2.881727 9.9102411
1.4178568 3.7467456 9.4972277
1.7990819 4.7841821 9.4342299
2.2334332 5.9643407 9.4264688
2.7300501 7.3137455 9.4232426
0.24992563 0.49852377 9.4835796
0.44327962 0.97401315 9.9378471
0.92472768 2.3872445 9.894105
1.291696 3.3813374 9.897459
1.5638336 4.1280398 9.1912231
2.0202668 5.3580909 9.4366655
2.4826701 6.6087823 9.4229469
3.0180414 8.055172 9.4034615
3.9860358 10.747005 11.343863
2.1244626 5.7371631 5.0153699
3.6141255 9.7756166 6.917779
6.1637464 16.689724 9.3996134
7.9123964 21.447569 9.3245754
6.3830605 17.320717 5.5158463
6.3146434 17.171968 1.7354971
3.748224 10.062707 9.6451063
2.1353924 5.7420325 4.5443287
5.499536 14.803736 9.3657045
3.5783381 9.6477137 4.8442607
6.9366598 18.722168 7.038096
5.4072542 14.60992 3.8480306
6.1316185 16.593731 0.80728644
0.065397874 0.066571258 9.2739201
0.58245659 1.4507272 9.9382114
0.75399351 1.9130079 9.9092007
1.1119856 2.8778629 9.9102411
1.4302289 3.7399487 9.4926243
1.8157709 4.777873 9.4342299
2.2552352 5.9591398 9.4306011
2.7555633 7.3041711 9.4232426
0.25179535 0.49790558 9.4885712
0.44667688 0.97245985 9.9378471
0.93305504 2.3840022 9.894105
1.3034911 3.3768079 9.897459
1.5782336 4.1225557 9.1912231
2.0389576 5.351006 9.4366655
2.5067935 6.6028934 9.4269371
3.0473411 8.0477571 9.4071369
4.0285335 10.746384 11.357882
2.1444759 5.7297125 5.0153699
3.6496909 9.7668581 6.9205208
3.5341449 9.4677086 5.3764958
7.9904532 21.428509 9.3283224
6.4468312 17.307322 5.5186658
6.3832211 17.173159 1.7377325
3.887253 10.325615 9.9078207
5.5526929 14.788486 9.3682384
3.6119931 9.6351643 4.8442607
6.9705048 18.613819 7.0068688
5.4684367 14.618269 3.8550644
8.9781561 24.013206 3.6678486
6.1877561 16.567545 0.80708486
0.065629847 0.06634257 9.2739201
0.58751702 1.4486852 9.9382114
0.76066655 1.9103643 9.9092007
1.1225673 2.8753543 9.9150133
1.443275 3.7349336 9.4926243
1.8324378 4.7715058 9.4342299
2.2760227 5.951231 9.4306011
2.7821848 7.297503 9.4270802
0.25353184 0.49702358 9.4885712
0.45006865 0.97089469 9.9378471
0.94137108 2.3807306 9.894105
1.3158976 3.3738451 9.9021511
1.5933999 4.1190519 9.1957245
2.0585611 5.3462901 9.4409323
2.5298266 6.5941024 9.4269371
3.0766263 8.0402374 9.4108124
4.076128 10.758934 11.385918
2.1630864 5.7185516 5.0122313
3.66751 9.7110291 6.8903642
6.2550931 16.579973 9.3625126
8.0782833 21.435188 9.3433056
5.7584667 15.295886 4.894022
6.4518847 17.174084 1.7399679
4.042767 10.626059 10.207116
5.6103973 14.785134 9.3783703
3.6488204 9.6309872 4.8484569
7.0187225 18.54521 6.9904342
5.5108361 14.57636 3.8492029
9.061923 23.981722 3.6678486
6.2437854 16.541172 0.80688334
0.06589406 0.066141576 9.2789192
0.5925703 1.4466256 9.9382114
0.76733029 1.9076974 9.9092007
1.1325974 2.8714185 9.9150133
1.4563036 3.7298729 9.4926243
1.8499488 4.767313 9.4386196
2.297797 5.9458752 9.4347343
2.8087931 7.2907376 9.4309177
0.25526524 0.49613559 9.4885712
0.45345497 0.96931779 9.9378471
0.94967562 2.3774302 9.894105
1.3276665 3.3692312 9.9021511
1.6077683 4.1134644 9.1957245
2.0772107 5.3390722 9.4409323
2.5539181 6.5880408 9.4309263
3.1046731 8.0294485 9.4108124
4.1200347 10.761293 11.403441
2.1774755 5.6964235 4.9996777
5.0865178 13.327373 9.4371862
3.6837955 9.6621809 5.4993925
8.164608 21.437189 9.3564177
5.8374109 15.342943 4.9151721
6.5224004 17.179392 1.7426504
4.1253905 10.730374 10.320183
4.5738821 11.915504 9.3769979
5.6727767 14.793634 9.396102
3.6710572 9.588522 4.8337708
5.6040154 14.65251 5.5490766
5.5616837 14.557034 3.8492029
9.066083 23.741762 3.6367679
6.299706 16.514606 0.80668175
0.066124536 0.065911166 9.2789192
0.59761637 1.4445484 9.9382114
0.77398473 1.9050072 9.9092007
1.1426136 2.8674471 9.9150133
1.4693145 3.7247667 9.4926243
1.8665785 4.7608266 9.4386196
2.3195612 5.9404387 9.4388666
2.8353882 7.2838759 9.4347553
0.25699553 0.49524152 9.4885712
0.45683578 0.96772903 9.9378471
0.95796859 2.3741007 9.894105
1.3394192 3.3645763 9.9021511
1.6221173 4.1078272 9.1957245
2.0967889 5.3342156 9.4451981
2.5768991 6.5790858 9.4309263
3.1339159 8.0217209 9.4144869
4.1652942 10.766802 11.424467
2.1903341 5.6706333 4.9839854
5.1254854 13.29003 9.4234791
3.6458354 9.4632492 5.3950462
8.2510443 21.438843 9.3695288
5.8823252 15.300087 4.9081221
6.5948143 17.189064 1.74578
4.1709337 10.736792 10.340136
4.615447 11.899465 9.3769979
3.917696 10.110999 6.4576154
3.6946793 9.550251 4.8211823
5.6636386 14.654881 5.5572939
9.1489029 23.709972 3.6367679
6.3555174 16.487856 0.80648029
0.066354208 0.065679945 9.2789192
0.60265517 1.4424534 9.9382114
0.78062969 1.902294 9.9092007
1.1531734 2.864826 9.9197845
1.4823073 3.719615 9.4926243
1.8840677 4.7565088 9.4430084
2.3402832 5.9323058 9.4388666
2.8607965 7.2739344 9.4347553
0.25872266 0.49434143 9.4885712
0.46021098 0.96612847 9.9378471
0.96672446 2.3719063 9.8989439
1.3511556 3.3598804 9.9021511
1.6364464 4.1021399 9.1957245
2.115396 5.3268638 9.4451981
2.5998485 6.5700507 9.4309263
3.1631424 8.0138865 9.4181623
2.2058692 5.6520753 4.9745698
5.1566629 13.233098 9.3960648
3.6756322 9.4422092 5.390409
2.9003563 7.4583273 3.3215055
5.9721751 15.373363 4.9377327
6.6637754 17.189157 1.7480153
4.2111149 10.729117 10.346787
4.6643305 11.9021 9.3917141
3.9121068 9.9928951 6.3917522
3.7279932 9.5372963 4.8211823
5.7147593 14.635023 5.5572939
9.5333958 24.439342 6.4177504
9.2460012 23.714804 3.6422935
6.4130321 16.46557 0.80648029
0.066583067 0.065447927 9.2789192
0.60768658 1.4403409 9.9382114
0.78726524 1.8995575 9.9092007
1.1631664 2.8607833 9.9197845
1.4960117 3.7162304 9.4972277
1.9006596 4.7499032 9.4430084
2.3620183 5.9267144 9.4429998
2.8873532 7.2668824 9.4385929
0.26044667 0.49343529 9.4885712
0.46358061 0.9645161 9.9378471
0.97499812 2.3685174 9.8989439
1.3635252 3.3567426 9.9068441
1.6499418 4.0943837 9.1912231
2.1339774 5.3194475 9.4451981
2.6238852 6.5637336 9.4349165
3.191097 8.0027962 9.4181623
1.9361907 4.9029245 5.2599711
2.2170186 5.6226153 4.9557395
3.7150548 9.4458113 5.399684
2.8907716 7.3575463 3.282172
6.0906506 15.517641 4.9899035
6.7437153 17.216797 1.7529333
4.2567987 10.735178 10.36674
4.7073359 11.889503 9.3946571
3.9342804 9.9471092 6.3714871
3.7846014 9.5833235 4.8505549
5.7779412 14.645734 5.5687985
9.4814167 24.057714 6.3274817
12.074725 30.653515 4.6872926
6.4686389 16.438437 0.80627871
0.066811122 0.065215103 9.2789192
0.6127106 1.438211 9.9382114
0.79389113 1.8967979 9.9092007
1.1731454 2.8567057 9.9197845
1.5097106 3.7127953 9.5018291
1.9181259 4.74546 9.4473972
2.3826921 5.9184337 9.4429998
2.9138956 7.2597337 9.4424305
0.26216748 0.49252316 9.4885712
0.46694458 0.96289206 9.9378471
0.98325986 2.3650994 9.8989439
1.3752341 3.3519626 9.9068441
1.6642237 4.0885997 9.1912231
2.1525326 5.3119664 9.4451981
2.646781 6.5545344 9.4349165
3.220279 7.9947515 9.4218378
1.9532933 4.8961363 5.2599711
2.227989 5.5931463 4.9369082
4.2243257 10.620772 7.5784726
3.6842101 9.272233 5.3092508
2.9386714 7.4034262 3.3065214
6.7901921 17.123922 5.5045657
6.8092699 17.207047 1.7542746
4.299799 10.734118 10.380041
4.7503104 11.876752 9.3976002
3.6186893 9.0566425 5.8167214
3.8045759 9.5363312 4.8337708
5.7975607 14.546518 5.539216
9.6048918 24.123819 6.3532729
6.5278258 16.420397 0.80648029
0.06700483 0.064953573 9.2739201
0.61772716 1.4360634 9.9382114
0.80050731 1.8940151 9.9092007
1.18311 2.8525932 9.9197845
1.5234039 3.7093101 9.5064316
1.9346788 4.7387362 9.4473972
2.404397 5.9126878 9.4471331
2.939219 7.2495184 9.4424305
0.26388511 0.49160504 9.4885712
0.47030285 0.96125627 9.9378471
0.99199635 2.3628118 9.9037838
1.3869262 3.3471415 9.9068441
1.6793132 4.0847788 9.1957245
2.1710618 5.30442 9.4451981
2.6696444 6.5452557 9.4349165
3.2481661 7.9834623 9.4218378
1.9703721 4.8892884 5.2599711
2.2518582 5.596168 4.9463239
4.244225 10.563282 7.548316
6.594346 16.428898 9.3532381
2.9506929 7.3587003 3.291537
6.9569521 17.367298 5.5891676
6.8766866 17.201668 1.7560627
4.3442445 10.736349 10.396669
4.791739 11.860098 9.3976002
3.9568379 9.8034744 6.2980251
3.8531094 9.5608788 4.852653
5.8624101 14.561234 5.5523639
9.745266 24.22994 6.3896146
6.585104 16.397511 0.80648029
0.067197524 0.064691477 9.2689209
0.62242645 1.4331858 9.9332724
0.80711383 1.8912092 9.9092007
1.1930603 2.8484459 9.9197845
1.537091 3.7057741 9.511034
1.9512084 4.7319536 9.4473972
2.4250216 5.9042587 9.4471331
2.9645069 7.2392139 9.4424305
0.26559952 0.4906809 9.4885712
0.47365537 0.95960873 9.9378471
1.0002381 2.3593349 9.9037838
1.3986014 3.3422799 9.9068441
1.6935617 4.0788918 9.1957245
2.1905608 5.2992196 9.4494638
2.6936231 6.5386834 9.4389067
3.2760141 7.9720755 9.4218378
1.9954944 4.9021993 5.2809982
2.2948291 5.6459665 4.9965391
4.2810721 10.548403 7.548316
6.6666331 16.442726 9.3741074
2.9502559 7.2839031 3.2634416
7.0319285 17.378485 5.6004481
8.3949032 20.78858 2.1056786
4.3887577 10.7384 10.413297
4.8346362 11.847041 9.4005432
3.6834552 9.0351505 5.8192544
5.9096451 14.531935 5.5490766
9.811491 24.150745 6.3778915
6.642302 16.374424 0.80648029
0.067389213 0.064428836 9.2639208
0.62742543 1.4310044 9.9332724
0.81371045 1.8883804 9.9092007
1.2029959 2.844264 9.9197845
1.5515269 3.70399 9.5202398
1.967714 4.7251139 9.4473972
2.4456165 5.8957577 9.4471331
2.9897583 7.2288222 9.4424305
0.26731071 0.4897508 9.4885712
0.47700217 0.95794952 9.9378471
1.0084676 2.355829 9.9037838
1.4109315 3.3389671 9.9115372
1.7077892 4.0729556 9.1957245
2.2090454 5.2915411 9.4494638
2.7164309 6.5292411 9.4389067
3.3038218 7.9605913 9.4218378
3.6453564 8.8664169 9.5004721
2.354435 5.7351403 5.0812774
4.3194523 10.537263 7.5510578
6.7491698 16.480843 9.4088888
2.9616203 7.2392344 3.2484574
7.1143255 17.407116 5.6173682
8.4749413 20.777596 2.1074669
4.4333386 10.740273 10.429925
4.8759608 11.830092 9.4005432
3.7001996 8.9863634 5.7964559
6.701313 16.355761 0.80668175
0.06757988 0.064165637 9.2589207
0.63241678 1.4288056 9.9332724
0.82029712 1.8855286 9.9092007
1.2123305 2.8386748 9.9150133
1.5667304 3.7039497 9.5340471
1.9851241 4.7204242 9.451787
2.4661815 5.8871846 9.4471331
3.0149734 7.2183414 9.4424305
0.26901862 0.48881474 9.4885712
0.4803431 0.95627868 9.9378471
1.0166848 2.3522944 9.9037838
1.422578 3.3340218 9.9115372
1.7228451 4.068974 9.2002258
2.2285156 5.2862 9.4537287
2.7403729 6.5224967 9.4428968
3.3328996 7.9521375 9.4255123
3.6735487 8.8470497 9.4934626
2.4087279 5.8095827 5.1534619
4.3578076 10.525986 7.5537992
3.8725686 9.363162 5.390409
2.9443836 7.1260228 3.2035046
7.1549101 17.333401 5.6018577
8.59484 20.862999 2.118644
4.4779854 10.741962 10.446552
4.9172258 11.813001 9.4005432
6.098525 14.665297 9.4189014
6.7564545 16.327654 0.80648029
0.067769535 0.063901894 9.2539206
0.63771749 1.4272987 9.9382114
0.82728344 1.8835857 9.9140959
1.222232 2.8344257 9.9150133
1.5819522 3.7038479 9.5478544
2.0015893 4.7134657 9.451787
2.487813 5.8811321 9.4512663
3.0413973 7.2107267 9.4462681
0.27072325 0.48787269 9.4885712
0.48367822 0.9545961 9.9378471
1.0248896 2.3487313 9.9037838
1.4342073 3.3290358 9.9115372
1.737038 4.0629358 9.2002258
2.2469542 5.278389 9.4537287
2.763124 6.5128913 9.4428968
3.3606377 7.940455 9.4255123
2.0205166 4.8185463 5.2144122
2.4259861 5.7939596 5.1471853
4.4025888 10.529999 7.5675068
3.8864479 9.3046236 5.364902
2.96924 7.1157017 3.2035046
7.2319841 17.348171 5.6145482
8.7020464 20.915632 2.1266913
4.5226979 10.743473 10.463179
4.9568648 11.792039 9.3976002
6.1396651 14.620072 9.4037027
8.4740028 20.20829 10.217373
6.8134074 16.30397 0.80648029
0.067992181 0.06366495 9.2539206
0.64269584 1.4250638 9.9382114
0.83385336 1.8806864 9.9140959
1.2321185 2.830142 9.9150133
1.5964189 3.7018909 9.5570602
2.0189743 4.7086515 9.4561758
2.5083268 5.8724122 9.4512663
3.0678048 7.2030153 9.4501057
0.27242461 0.48692471 9.4885712
0.48700744 0.95290196 9.9378471
1.032575 2.3439889 9.8989439
1.445819 3.3240089 9.9115372
1.7512097 4.0568476 9.2002258
2.2663956 5.2729096 9.4579954
2.7858415 6.5032067 9.4428968
3.3896668 7.9317932 9.4291878
2.0428867 4.8245997 5.2284303
2.4461958 5.7854557 5.1471853
4.3954048 10.410558 7.4934869
3.9189031 9.2910004 5.364902
2.967057 7.0412111 3.1754088
7.3036637 17.349348 5.6230087
8.8097248 20.967772 2.1347387
4.5689363 10.748238 10.483132
4.996417 11.770943 9.3946571
6.1940269 14.606491 9.4087687
8.5763464 20.253815 10.255138
3.5013106 8.2767324 3.2169373
8.2030401 19.419348 3.032423
6.8702774 16.280087 0.80648029
0.068179898 0.063400008 9.2489214
0.64798832 1.4235188 9.9431496
0.84041309 1.8777643 9.9140959
1.2425907 2.8271904 9.9197845
1.6116711 3.7016699 9.5708675
2.0353982 4.7015753 9.4561758
2.52881 5.8636203 9.4512663
3.0941958 7.1952076 9.4539433
0.27412263 0.48597082 9.4885712
0.49057549 0.95166975 9.9428186
1.0407509 2.3403702 9.8989439
1.4574132 3.3189421 9.9115372
1.7662297 4.0527053 9.2047272
2.2847877 5.2649665 9.4579954
2.8097208 6.4962077 9.4468861
3.4186764 7.9230251 9.4328632
2.0709314 4.8436728 5.2564664
2.4679041 5.7804608 5.1503234
5.5763392 13.079978 9.4070301
3.9270096 9.2202082 5.3324389
2.9625754 6.9625587 3.1454403
7.3547969 17.301674 5.6159587
9.1533804 21.553593 4.5372725
8.9178734 21.019411 2.1427863
4.6108446 10.742516 10.493109
5.0326982 11.742286 9.385828
6.2449756 14.584781 9.4087687
8.670188 20.278002 10.282413
8.2940912 19.445257 3.0407112
6.9251051 16.251411 0.80627871
0.068400793 0.063161626 9.2489214
0.65295345 1.4212482 9.9431496
0.84696257 1.8748194 9.9140959
1.2524519 2.8228357 9.9197845
1.6261549 3.6995986 9.5800724
2.0517974 4.6944418 9.4561758
2.5492625 5.8547578 9.4512663
3.1205695 7.1873026 9.4577808
0.27581733 0.48501098 9.4885712
0.49389443 0.94995153 9.9428186
1.0494288 2.3378701 9.9037838
1.4689895 3.3138342 9.9115372
1.7803656 4.0465155 9.2047272
2.3041985 5.2593474 9.4622612
2.8323796 6.4863605 9.4468861
3.446312 7.9110441 9.4328632
2.1047881 4.8757043 5.298521
2.4803627 5.7539401 5.1346312
5.6252689 13.068114 9.4125128
3.9119184 9.0965681 5.2698312
3.129601 7.2844114 3.291537
7.4586639 17.377283 5.6483893
9.2440481 21.557627 4.544733
9.0108004 21.03393 2.1472569
4.6631618 10.760615 10.526363
5.0608134 11.69497 9.3622828
6.2975578 14.566848 9.4113016
8.7607059 20.293449 10.305491
8.3756285 19.448023 3.0455458
6.9817915 16.227139 0.80627871
0.068586551 0.062895499 9.2439213
0.65823758 1.4196652 9.9480896
0.85350174 1.8718514 9.9140959
1.2622979 2.8184466 9.9197845
1.6382666 3.6921139 9.57547
2.0691385 4.6894426 9.4605656
2.5708163 5.8483996 9.4553986
3.1456389 7.1763663 9.4577808
0.27750865 0.48404527 9.4885712
0.49720737 0.94822174 9.9428186
1.0575832 2.3341928 9.9037838
1.4805481 3.3086865 9.9115372
1.7953635 4.0422659 9.2092285
2.3225429 5.2512722 9.4622612
2.8562198 6.4791918 9.4508762
3.4752707 7.9020691 9.4365387
3.1904643 7.3202467 7.9269309
2.477133 5.6917129 5.0875545
5.6775179 13.06374 9.4234791
3.9013054 8.9853373 5.2141805
3.1586993 7.281949 3.2952833
7.5288138 17.373148 5.6554394
9.3036289 21.489166 4.5372725
7.1902137 16.623581 1.7189553
4.7051849 10.754534 10.536341
5.0838056 11.63649 9.3299074
6.3500924 14.548729 9.4138355
8.8605032 20.329313 10.33906
8.4553118 19.445917 3.04969
7.0383921 16.202669 0.80627871
0.06880568 0.06265571 9.2439213
0.66318911 1.4173589 9.9480896
0.86003053 1.8688608 9.9140959
1.2721283 2.8140233 9.9197845
1.6511445 3.6863728 9.57547
2.085495 4.6821914 9.4605656
2.5912154 5.8393903 9.4553986
3.1706698 7.1653423 9.4577808
0.27919662 0.48307362 9.4885712
0.50076389 0.94695127 9.9477901
1.0662473 2.3316295 9.9086227
1.4920884 3.3034983 9.9115372
1.8094627 4.0359745 9.2092285
2.3408592 5.2431331 9.4622612
2.8788188 6.469182 9.4508762
3.5028329 7.8898902 9.4365387
3.1729083 7.2111382 7.8217945
2.4734995 5.6295786 5.0404773
5.7264442 13.0515 9.4289618
3.8988562 8.8945789 5.1701231
3.1506243 7.1944408 3.2615685
6.3645878 14.547248 4.7572484
9.4966269 21.726624 4.5932293
7.2322536 16.561871 1.7153785
2.5145915 5.6934085 5.6245766
5.1162381 11.600183 9.3151922
6.404314 14.534362 9.4189014
3.0511422 6.9343266 3.5896254
3.4854078 7.9287586 3.1035352
7.0969133 16.182577 0.80648029
0.069023967 0.062415149 9.2439213
0.66813254 1.4150352 9.9480896
0.86654884 1.8658473 9.9140959
1.2819433 2.8095655 9.9197845
1.6631974 3.6788065 9.5708675
2.1018262 4.6748829 9.4605656
2.6127334 5.8328776 9.4595318
3.1969697 7.1571574 9.4616184
0.28088114 0.48209611 9.4885712
0.50406635 0.94519752 9.9477901
1.0743797 2.3278935 9.9086227
1.5036108 3.2982697 9.9115372
1.8235399 4.0296335 9.2092285
2.3591471 5.2349305 9.4622612
2.9026177 6.4618421 9.4548664
3.5303524 7.877615 9.4365387
3.1763453 7.1511307 7.7692261
2.46315 5.553308 4.9808469
4.2479043 9.5905647 6.9616427
3.9083698 8.832305 5.1422977
3.1457262 7.1155586 3.2316
6.3843184 14.454734 4.7346878
2.5481339 5.7152877 5.6545062
6.4567618 14.515858 9.4214344
3.0624323 6.8945994 3.574939
3.5092325 7.9079118 3.1002481
6.6646109 15.032508 4.0567031
7.1533575 16.157705 0.80648029
0.069241419 0.062173828 9.2439213
0.67306793 1.4126943 9.9480896
0.87305659 1.8628111 9.9140959
1.2917428 2.8050737 9.9197845
1.6768397 3.6747561 9.57547
2.1181319 4.6675177 9.4605656
2.6330779 5.8237219 9.4595318
3.2219334 7.1459541 9.4616184
0.28241527 0.4808642 9.4835796
0.5073626 0.94343221 9.9477901
1.082499 2.3241289 9.9086227
1.5151147 3.2930009 9.9115372
1.8384993 4.0252233 9.2137299
2.3774059 5.2266631 9.4622612
2.9264004 6.4544158 9.4588566
3.5592263 7.8683329 9.4402132
3.2246327 7.1920657 7.8252988
2.4363923 5.4416542 4.8898315
4.2369804 9.476429 6.8903642
3.9102688 8.7538939 5.1051965
3.1705451 7.1045341 3.2316
6.4503627 14.467409 4.7459679
2.5665362 5.7029538 5.6511807
3.3430138 7.4386582 6.0217953
6.5109239 14.501098 9.4265013
7.0972338 15.829072 8.1067324
3.5097883 7.8352799 3.077239
6.7190289 15.013589 4.0578752
7.2097154 16.132637 0.80648029
0.069458023 0.061931752 9.2439213
0.67732143 1.408936 9.9382114
0.87998915 1.8606726 9.9189911
1.3015264 2.8005474 9.9197845
1.6912915 3.6724291 9.5846748
2.1354091 4.6622734 9.4649544
2.6545589 5.8170557 9.463665
3.2468576 7.1346641 9.4616184
0.2840921 0.47987545 9.4835796
0.51065272 0.94165546 9.9477901
1.0906051 2.3203361 9.9086227
1.5266002 3.2876923 9.9115372
1.8525387 4.0187817 9.2137299
2.396724 5.2207031 9.466527
2.9489129 6.4441609 9.4588566
3.588078 7.8589439 9.4438877
3.245307 7.1710186 7.814785
2.1427915 4.7414703 4.2778325
4.2614336 9.4425259 6.876657
3.9134898 8.6796169 5.0704145
3.1477237 6.9877524 3.1847744
6.4909806 14.422934 4.7389178
9.5112009 21.173283 2.1767642
2.5848832 5.6905599 5.6478548
3.3706288 7.430624 6.0247383
6.5650616 14.486135 9.4315681
3.114233 6.8813214 3.5791349
3.5157168 7.77565 3.0591602
7.2659845 16.107372 0.80648029
0.069673777 0.061688919 9.2439213
0.68189609 1.4058641 9.9332724
0.88647878 1.8575896 9.9189911
1.3112942 2.7959874 9.9197845
1.7090412 3.6771328 9.6122904
2.1516705 4.6547909 9.4649544
2.6748481 5.807754 9.463665
3.2730803 7.1261997 9.465456
0.28576541 0.47888085 9.4835796
0.51393658 0.9398672 9.9477901
1.098698 2.316515 9.9086227
1.5387994 3.283906 9.9162302
1.8674741 4.0142646 9.2182312
2.4138367 5.2099385 9.4622612
2.9713891 6.4338284 9.4588566
3.6169078 7.8494506 9.4475632
3.2673557 7.1531591 7.8077765
2.1560986 4.7268786 4.2715554
4.3377018 9.5227242 6.9451938
3.9070659 8.5852661 5.0240388
3.1471517 6.9218593 3.1604247
6.5829501 14.491906 4.7685285
9.5994463 21.171703 2.1798937
2.6031754 5.6781087 5.6445298
3.4116898 7.45189 6.0512266
6.619174 14.470969 9.4366341
7.1491117 15.651163 8.0416927
3.525193 7.7246671 3.0443687
9.6890402 21.250872 5.7237387
7.3221655 16.081911 0.80648029
0.069888689 0.061445341 9.2439213
0.68645763 1.4027774 9.9283323
0.89295757 1.8544838 9.9189911
1.3216847 2.7927423 9.9245567
1.7260146 3.6799884 9.6353025
2.1689177 4.6494217 9.4693422
2.6962905 5.8009334 9.4677982
3.2992835 7.1176395 9.4692936
0.28728575 0.47763351 9.4785881
0.51695639 0.93760103 9.9428186
1.1067774 2.3126657 9.9086227
1.550253 3.2785144 9.9162302
1.881475 4.0077214 9.2182312
2.435322 5.208569 9.4750595
2.9951022 6.4261484 9.4628468
3.6471446 7.8429255 9.4549141
3.3147004 7.1902905 7.8603444
2.2002563 4.7794294 4.3249092
4.3988614 9.5683107 6.9890571
3.9037285 8.4991159 4.9823003
3.1113553 6.7802148 3.1023607
6.6334963 14.46884 4.7685285
9.7105923 21.219574 2.1879411
2.6261156 5.6757646 5.6511807
3.4427674 7.4509439 6.0600567
6.6732593 14.455603 9.4417
7.2189012 15.659086 8.0584774
3.5126259 7.626533 3.0114987
9.8850718 21.481853 5.7940774
7.3761716 16.051714 0.80627871
0.070102751 0.061201006 9.2439213
0.69100583 1.3996761 9.9233932
0.89942551 1.8513556 9.9189911
1.3314251 2.7881117 9.9245567
1.743029 3.6827703 9.6583147
2.1851342 4.6418223 9.4693422
2.7165232 5.7914863 9.4677982
3.3254664 7.1089821 9.4731302
0.28895125 0.4766278 9.4785881
0.52022606 0.93579084 9.9428186
1.1148435 2.3087883 9.9086227
1.5616877 3.2730832 9.9162302
1.896385 4.0030961 9.2227316
2.4534886 5.2000365 9.4750595
3.0175154 6.4156542 9.4628468
3.6773798 7.8362851 9.4622641
3.2841184 7.0590391 7.7306762
2.1874056 4.7081814 4.2684169
4.4322343 9.5528975 6.9890571
3.9221942 8.4613247 4.9683876
3.1447446 6.7903457 3.1117258
6.7625246 14.615389 4.8235202
9.5744085 20.71146 4.4234924
9.8180113 21.257887 2.1950943
2.6474912 5.6699462 5.6545062
5.3734255 11.523461 9.3416805
6.7273197 14.440036 9.4467659
7.2524595 15.588529 8.0353985
3.5471876 7.6313534 3.0180726
7.4300556 16.021338 0.80607718
0.070315957 0.060955927 9.2439213
0.69588739 1.3972554 9.9233932
0.90588248 1.8482047 9.9189911
1.3411493 2.783447 9.9245567
1.7600836 3.6854782 9.6813278
2.2013237 4.6341662 9.4693422
2.7367227 5.7819686 9.4677982
3.3516295 7.1002293 9.4769678
0.29061323 0.47561628 9.4785881
0.52322829 0.93350446 9.9378471
1.1228958 2.3048828 9.9086227
1.5731034 3.267612 9.9162302
1.9103467 3.9964519 9.2227316
3.0411839 6.407804 9.4668369
3.6960056 7.8050175 9.4402132
3.2799423 6.9861975 7.6640902
2.2005222 4.693469 4.2621403
4.5754857 9.7721548 7.1590281
3.9498289 8.4435692 4.9660687
3.1860943 6.8171258 3.1285832
6.8155293 14.596039 4.8249302
9.6009579 20.579979 4.4029751
9.9237137 21.291195 2.2018006
2.6513517 5.626894 5.6212511
5.4239435 11.526579 9.3593388
6.7795181 14.420367 9.4492998
7.3029704 15.554899 8.0312023
3.5697942 7.6103759 3.0147858
7.4859357 15.995304 0.80607718
0.070528299 0.060710113 9.2439213
0.70110953 1.3955121 9.9283323
0.91232836 1.8450314 9.9189911
1.3508573 2.7787488 9.9245567
1.7763301 3.6863515 9.6997375
2.2112756 4.6134963 9.4430084
2.7581015 5.774919 9.4719305
3.3763936 7.0884867 9.4769678
0.2922717 0.47459891 9.4785881
0.52648365 0.93167233 9.9378471
1.131489 2.3020771 9.9134617
1.5852538 3.2636528 9.9209223
1.9242853 3.9897594 9.2227316
2.4411693 5.0816956 9.2916241
3.0635328 6.3971491 9.4668369
3.7144578 7.773715 9.4181623
3.3043087 6.9747057 7.6640902
2.216892 4.6857591 4.2621403
4.5970645 9.7296591 7.1398377
4.0322266 8.5418949 5.0309949
3.1525226 6.6843667 3.0742652
6.8112292 14.454994 4.786859
9.5451059 20.275232 4.3460855
10.036127 21.337538 2.2098482
2.6308942 5.5333047 5.5381136
5.4797492 11.540437 9.385828
6.8298135 14.396615 9.4492998
4.7572856 10.041501 5.2240081
3.5983572 7.6021352 3.0164289
7.5395899 15.964558 0.80587566
0.070739791 0.060463548 9.2439213
0.70632792 1.3937492 9.9332724
0.91876316 1.8418355 9.9189911
1.3605486 2.7740164 9.9245567
1.7934586 3.6889136 9.7227507
2.2211094 4.592813 9.4166746
2.7782431 5.7652564 9.4719305
3.4025049 7.0795469 9.4808054
0.29392657 0.47357583 9.4785881
0.52973258 0.92982888 9.9378471
1.1395179 2.2981136 9.9134617
1.5966364 3.2580993 9.9209223
1.9382004 3.9830179 9.2227316
3.0871553 6.3891301 9.4708271
3.246876 6.7346363 8.1833076
3.384007 7.0789585 7.7902532
2.2282043 4.6674547 4.2527251
3.8626163 8.1018791 5.9692321
4.1153584 8.6397476 5.0959215
3.159899 6.639833 3.0592811
6.8513455 14.40947 4.779809
2.598511 5.4163632 5.4316974
5.5374641 11.55769 9.4152594
6.8893318 14.392128 9.4619656
4.7492442 9.9347506 5.1778512
3.5984149 7.5341349 2.9950635
7.5931215 15.933632 0.80567414
0.070915118 0.060190614 9.2389212
0.71118879 1.3912753 9.9332724
0.92518675 1.8386172 9.9189911
1.3708855 2.7705879 9.929328
1.8106263 3.6914005 9.7457628
2.2213738 4.5527458 9.3508377
2.7995811 5.7580543 9.4760637
3.4271965 7.0676265 9.4808054
0.29542401 0.47230265 9.4735956
0.53297508 0.9279741 9.9378471
1.1475329 2.2941217 9.9134617
1.6079997 3.2525063 9.9209223
1.9520921 3.9762282 9.2227316
2.2737908 4.6498394 8.5365534
3.1094387 6.378315 9.4708271
3.2644327 6.7110667 8.1686068
4.146183 8.5960712 9.4584179
2.2596855 4.6912084 4.2809711
3.8908737 8.0883474 5.9692321
4.1454921 8.62533 5.0959215
3.2071383 6.6789117 3.0817575
6.9016023 14.385467 4.779809
2.6239092 5.4207029 5.4449997
5.5707378 11.523734 9.4034863
3.7879224 7.8427696 5.203692
3.6697924 7.6151147 3.0312207
7.6465297 15.902528 0.80547261
0.071124785 0.059942711 9.2389212
0.71639717 1.3894749 9.9382114
0.93159914 1.8353765 9.9189911
1.3805482 2.7657857 9.929328
1.8269668 3.6920619 9.7641735
2.2245591 4.5191789 9.2981691
2.8209028 5.7507734 9.480196
3.4518461 7.0556207 9.4808054
0.29707083 0.47126853 9.4735956
0.53621101 0.92610806 9.9378471
1.1555339 2.2901022 9.9134617
1.6201135 3.2484176 9.9256153
1.9659598 3.9693899 9.2227316
2.2877004 4.6371965 8.5280218
3.1330142 6.3701258 9.4748173
3.2848516 6.6935439 8.1612558
4.1652398 8.5590992 9.4338856
2.2913597 4.7147985 4.309217
4.1311188 8.5191317 5.0425892
3.270859 6.7511163 3.1192181
6.9684954 14.395829 4.7910891
2.6673927 5.4618363 5.4948821
3.8889225 7.9806318 5.3024859
3.7438445 7.6999354 3.0690215
7.6998115 15.871244 0.80527109
0.071298108 0.059668671 9.2339211
0.7212429 1.3869656 9.9382114
0.93800008 1.8321135 9.9189911
1.3901943 2.7609501 9.929328
1.8442065 3.6944015 9.7871857
2.2307329 4.4920807 9.258667
2.8409595 5.7408915 9.480196
3.4778724 7.0464025 9.484643
0.29855853 0.46998551 9.4686041
0.53970975 0.92469078 9.9428186
1.1635208 2.2860546 9.9134617
1.6314427 3.2427428 9.9256153
1.9798034 3.9625034 9.2227316
2.2887664 4.5988297 8.4725647
3.155231 6.3591509 9.4748173
3.2886419 6.6425409 8.1134787
4.2060933 8.5669165 9.4584179
2.3060899 4.7032771 4.3060789
3.7964537 7.7530465 5.7444315
4.2133932 8.6120949 5.1051965
3.290333 6.731328 3.1154718
2.6468363 5.3721089 5.4150705
4.7623372 9.6784544 7.9377928
3.8977373 7.9283228 5.277154
3.8310099 7.8097663 3.1166832
11.808105 24.092741 6.5619454
7.7551656 15.84427 0.80527109
0.071505956 0.059419435 9.2339211
0.72607994 1.3844396 9.9382114
0.94438964 1.828828 9.9189911
1.4004993 2.7574112 9.9341002
1.8606061 3.6949213 9.8055964
2.2388902 4.4692774 9.2279434
2.8622386 5.7334576 9.4843292
3.5024478 7.0342197 9.484643
0.3001973 0.4689405 9.4686041
0.54293418 0.9228012 9.9428186
1.1714935 2.2819793 9.9134617
1.6427521 3.2370281 9.9256153
1.994603 3.9575124 9.2272329
2.2837415 4.5488591 8.3957777
3.1787579 6.3507924 9.4788065
3.2996902 6.6067576 8.0840778
4.2549667 8.5905313 9.5004721
2.3207674 4.69171 4.3029404
3.7864537 7.6647701 5.6896024
3.2769024 6.6449614 3.0817575
8.4405861 17.130934 5.7033801
11.719931 23.80759 5.1294861
2.62901 5.2892795 5.3419094
4.7655392 9.6002245 7.8877587
3.9541194 7.9725976 5.3151512
4.8532467 9.7983341 5.1421843
3.9545937 7.9910302 3.1922848
11.913678 24.09495 6.573669
9.4324455 19.085131 3.0614314
7.8082132 15.812624 0.80506957
0.071748592 0.059194617 9.2389212
0.73090816 1.3818967 9.9382114
0.9507677 1.8255204 9.9189911
1.410116 2.7525058 9.9341002
1.8779163 3.6971128 9.8286085
2.2469158 4.4464722 9.1972198
2.8822348 5.7234321 9.4843292
3.5284193 7.0248156 9.4884806
0.30183238 0.46788973 9.4686041
0.54615206 0.92090034 9.9428186
1.1794519 2.2778761 9.9134617
1.6540413 3.2312741 9.9256153
2.0103786 3.954407 9.2362356
2.2878227 4.5175929 8.3531179
3.2022653 6.3423476 9.4827967
3.3044274 6.5588679 8.0399752
3.4305227 6.8656936 7.622035
2.3371305 4.6835804 4.3029404
2.319247 4.6538172 3.4936879
3.3393111 6.7123442 3.1173451
8.5046034 17.109957 5.7062006
11.792039 23.744537 5.1248231
4.7972112 9.579916 7.8848157
7.1741791 14.339094 9.5075626
4.8935051 9.7935133 5.1484785
3.9930098 7.9983025 3.2005022
11.995543 24.048866 6.5724964
9.3354969 18.724138 3.0103211
7.8611355 15.780801 0.80486798
0.071954787 0.058943808 9.2389212
0.73572737 1.379337 9.9382114
0.95713419 1.8221904 9.9189911
1.4197154 2.7475667 9.9341002
1.8952645 3.6992285 9.8516207
2.253722 4.4215322 9.1621075
2.90347 5.7158446 9.4884624
3.5529189 7.0124559 9.4884806
0.30330572 0.46659175 9.4636135
0.5496372 0.91944557 9.9477901
1.187396 2.2737451 9.9134617
1.6653106 3.2254808 9.9256153
2.0251629 3.9493024 9.240737
2.2893407 4.481709 8.3019276
3.2243845 6.331131 9.4827967
3.3288379 6.5503159 8.0436506
3.4416261 6.8281999 7.5939989
2.3447144 4.65801 4.2872481
2.3411121 4.6569009 3.5019124
2.4681249 4.9138041 2.9649444
3.6455185 7.2641511 3.3720775
8.5728769 17.097319 5.7118406
2.8276527 5.5906525 5.6611571
4.8360901 9.5739365 7.8936453
7.1775727 14.221601 9.4467659
4.9521747 9.8250055 5.173655
12.026982 23.902639 6.5443611
10.317523 20.514141 3.2948813
7.9116859 15.744335 0.80446494
0.072195925 0.058717176 9.2439213
0.7405377 1.3767604 9.9382114
0.96396577 1.8197381 9.9238863
1.4292976 2.7425942 9.9341002
1.9117537 3.6995327 9.8700314
2.2570958 4.3902087 9.1138277
2.9234045 5.7056751 9.4884624
3.5788341 7.0028653 9.4923182
0.30493256 0.46553016 9.4636135
0.55284333 0.91752136 9.9477901
1.1953257 2.2695866 9.9134617
1.6773565 3.2211785 9.9303083
2.0409367 3.9460764 9.2497396
2.3037763 4.4713721 8.2976618
3.2478416 6.3225174 9.4867868
3.3578687 6.5507236 8.0583515
2.4051666 4.7307434 5.2950163
2.3891551 4.7053256 4.3374634
2.361136 4.6561594 3.5073953
2.4852622 4.9051585 2.9649444
3.6708529 7.2513819 3.3720775
8.6476612 17.097254 5.7217107
2.8471506 5.5807486 5.6611571
4.8694797 9.5569973 7.8936453
7.2330394 14.207987 9.4543667
4.8918223 9.6215601 5.0771446
3.9375393 7.7513056 3.1150396
12.110345 23.860512 6.5443611
10.449561 20.59724 3.31353
7.9643369 15.712167 0.80426341
0.072400451 0.058464803 9.2439213
0.74533898 1.374167 9.9382114
0.97031194 1.8163621 9.9238863
1.4381678 2.7362673 9.929328
1.9291707 3.7014987 9.8930435
2.2602787 4.3589158 9.065547
2.9433031 5.6954355 9.4884624
3.6032569 6.9903302 9.4923182
0.30655572 0.46446294 9.4636135
0.55604267 0.91558599 9.9477901
1.2038305 2.2665102 9.9183016
1.6885903 3.2153041 9.9303083
2.0567122 3.9427881 9.2587414
2.3169649 4.4586749 8.2891293
3.2698913 6.311142 9.4867868
3.3838282 6.5449853 8.0657015
2.4477029 4.7730923 5.3510895
2.4339545 4.752387 4.3876786
2.3792789 4.6516118 3.5101368
2.504385 4.9003973 2.967263
3.7151167 7.2756829 3.3889349
8.7051086 17.062691 5.7203007
12.093581 23.724787 5.1472063
2.8597798 5.5574956 5.6478548
4.9249811 9.5830803 7.9289632
4.0650487 7.9166126 5.3151512
4.8673887 9.4913492 5.0183992
11.167562 21.79524 8.6125774
12.164764 23.761847 6.5291204
8.0168591 15.679821 0.80406183
0.07260409 0.058211725 9.2439213
0.74975812 1.3708754 9.9332724
0.9771294 1.8138604 9.9287815
1.4477103 2.7312303 9.929328
1.9457159 3.7016597 9.9114542
2.262161 4.3255324 9.0128784
2.9644668 5.6876225 9.4925957
3.6291142 6.9805536 9.4961557
0.30801454 0.46315014 9.458622
0.55923527 0.91363943 9.9477901
1.2117348 2.2622943 9.9183016
1.6998035 3.2093899 9.9303083
2.0735035 3.941365 9.2722454
2.3288827 4.4436307 8.2763319
3.2932973 6.3023601 9.490777
3.4066541 6.5331335 8.0657015
2.4758182 4.7866917 5.3756213
2.495189 4.8303156 4.4661398
2.401253 4.6544261 3.5183611
2.5214753 4.8916259 2.967263
3.6598299 7.1060572 3.3177595
8.7690058 17.040731 5.7231207
12.15386 23.638741 5.1378798
2.8740017 5.5375376 5.6378789
4.9305 9.512002 7.8848157
11.163357 21.600906 8.5517673
8.7442932 16.941784 2.7513161
8.0669641 15.642861 0.80365884
0.072806843 0.057957936 9.2439213
0.75453883 1.3682498 9.9332724
0.983455 1.8104385 9.9287815
1.4572353 2.7261603 9.929328
1.9622854 3.7017493 9.9298639
2.2649553 4.2943077 8.9645987
2.9843023 5.6772399 9.4925957
3.6534588 6.9678431 9.4961557
0.30962935 0.46207216 9.458622
0.56242108 0.91168183 9.9477901
1.2196242 2.2580509 9.9183016
1.7118092 3.2049592 9.9350004
2.0903099 3.939872 9.2857494
2.345598 4.4377794 8.2805967
3.3152766 6.2908258 9.490777
3.44364 6.5482073 8.0987778
4.4603314 8.550128 9.5565453
2.7368438 5.2530632 4.8584471
2.4213455 4.6534343 3.523844
2.5467086 4.8985157 2.9765382
3.6482825 7.0233006 3.2859178
8.8306465 17.014277 5.7245312
2.8569505 5.4580035 5.5680432
4.9187298 9.4087648 7.8141799
2.4457054 4.6822677 3.1898146
2.5152907 4.821619 2.6014428
8.7988052 16.902374 2.7499349
8.1192131 15.610173 0.80345726
0.073008709 0.057703439 9.2439213
0.75931031 1.3656076 9.9332724
0.98976862 1.8069946 9.9287815
1.4667425 2.7210569 9.929328
1.9751951 3.6948771 9.9298639
2.2664342 4.2610016 8.9119301
3.0041013 5.6667881 9.4925957
3.6792572 6.9578815 9.4999933
0.3112404 0.46098852 9.458622
0.56560004 0.90971303 9.9477901
1.2274988 2.2537796 9.9183016
1.722986 3.1989644 9.9350004
2.1081579 3.9402289 9.3037539
2.3635283 4.4341674 8.2891293
3.3372154 6.2792153 9.490777
3.453769 6.5121865 8.0693769
4.4801865 8.5155687 9.5355167
2.7624059 5.2572603 4.8710008
2.4414604 4.652359 3.5293269
2.5658493 4.8935194 2.978857
3.7652857 7.1871018 3.3664584
8.9189024 17.038595 5.7428613
2.8585539 5.4149785 5.5347877
3.3680277 6.3881345 5.3419251
2.4640441 4.677516 3.1923478
4.835495 9.1908331 4.88832
8.8669586 16.889093 2.7526975
8.1713333 15.577315 0.8032558
0.073173426 0.057423975 9.2389212
