# .PCD v0.7 - Point Cloud Data file format
VERSION 0.7
FIELDS x y z
SIZE 4 4 4
TYPE F F F
COUNT 1 1 1
WIDTH 1514
HEIGHT 1
VIEWPOINT 0 0 0 1 0 0 0
POINTS 1514
DATA ascii
1.1787047 0.34309161 7.8044519
1.5568832 0.46385747 7.8336239
2.346905 0.7163927 7.8916917
0.45143378 0.090293147 7.8013906
0.81839532 0.19565709 7.8050723
1.9425645 0.58379441 7.8470283
0.079807147 -0.0082249558 7.7689772
1.1798952 0.33897507 7.8044519
1.558493 0.4584201 7.8336239
2.3493912 0.70819616 7.8916917
0.4517462 0.088716798 7.8013906
0.8195923 0.1929206 7.8100438
1.9445906 0.5770101 7.8470283
0.079820767 -0.0085118925 7.7739773
1.1810712 0.33485439 7.8044519
1.5600836 0.45297715 7.8336239
2.3518491 0.69999093 7.8916917
0.45205313 0.087139376 7.8013906
0.8202607 0.19005851 7.8100438
1.9465928 0.57021868 7.8470283
0.07979057 -0.008790466 7.7739773
1.1822329 0.33072966 7.8044519
1.5616554 0.44752869 7.8336239
2.3542781 0.69177717 7.8916917
0.45263842 0.085613489 7.8063827
0.82143909 0.18731195 7.8150153
1.9485714 0.56342036 7.8470283
0.079759397 -0.0090689342 7.7739773
1.1833801 0.32660088 7.8044519
1.563208 0.44207478 7.8336239
2.3566787 0.68355501 7.8916917
0.4529345 0.084032968 7.8063827
0.82260817 0.18455946 7.8199873
1.9505262 0.55661511 7.8470283
0.079727255 -0.0093472907 7.7739773
1.184513 0.32246813 7.8044519
1.5647416 0.43661544 7.8336239
2.3590503 0.6753245 7.8916917
0.45322508 0.082451418 7.8063827
0.82376808 0.18180108 7.8249583
1.9524573 0.54980314 7.8470283
0.079651453 -0.0096165296 7.7689772
1.1856314 0.31833142 7.8044519
1.566256 0.43115082 7.8336239
2.3613932 0.66708577 7.8916917
0.45322573 0.080819234 7.8013906
0.82491875 0.17903686 7.8299298
1.9543647 0.54298437 7.8470283
0.079617396 -0.009894507 7.7689772
1.1867354 0.31419089 7.8044519
1.5677515 0.42568097 7.8336239
2.3651454 0.65923953 7.8964639
0.4535051 0.079236686 7.8013906
0.82553864 0.17615627 7.8299298
1.956248 0.5361591 7.8470283
2.7833378 0.77678013 7.9124188
0.079539746 -0.010163061 7.7639775
1.1878248 0.31004649 7.8044519
1.5702114 0.42046905 7.8385196
2.3674321 0.65097964 7.8964639
0.45349416 0.077605523 7.7963991
0.82667035 0.17338227 7.8349013
1.9581077 0.52932727 7.8470283
2.791024 0.76843375 7.9264975
0.079503782 -0.010440644 7.7639775
1.1896524 0.30609167 7.809391
1.5716696 0.41498545 7.8385196
2.3696902 0.64271182 7.8964639
0.45376229 0.076022066 7.7963991
0.82727051 0.1704956 7.8349013
1.9599434 0.52248901 7.8470283
2.7936893 0.7586866 7.9264975
0.079466857 -0.010718102 7.7639775
1.1907136 0.30193713 7.809391
1.5740941 0.40975311 7.8434148
2.3719192 0.63443613 7.8964639
0.45373985 0.074392021 7.7914076
0.8273381 0.16750175 7.8299298
1.9617553 0.51564431 7.8470283
2.7929866 0.74803746 7.9171114
0.079428956 -0.010995426 7.7639775
1.1917603 0.29777893 7.809391
1.5755149 0.40425599 7.8434148
2.3741193 0.62615269 7.8964639
0.45399678 0.072807714 7.7914076
0.8279177 0.16461278 7.8299298
1.9635433 0.50879335 7.8470283
2.7972493 0.73872405 7.9218044
0.079390094 -0.011272619 7.7639775
1.1927925 0.2936171 7.809391
1.5769163 0.39875394 7.8434148
2.3762903 0.61786169 7.8964639
0.45424816 0.071222529 7.7914076
0.82848728 0.16172181 7.8299298
1.9653074 0.5019362 7.8470283
2.7998109 0.72895539 7.9218044
0.079392716 -0.011559718 7.7689772
1.1938101 0.28945169 7.809391
1.5782987 0.39324707 7.8434148
2.3798785 0.6099335 7.9012351
0.45477948 0.069679141 7.7963991
0.82904673 0.15882887 7.8299298
1.9670475 0.49507293 7.8470283
2.8023384 0.71917778 7.9218044
0.079351887 -0.01183678 7.7689772
1.1940575 0.28510255 7.8044519
1.5796617 0.38773537 7.8434148
2.3819931 0.60162246 7.9012351
0.45501998 0.068091244 7.7963991
0.8295961 0.15593398 7.8299298
1.9687636 0.48820364 7.8470283
2.8048317 0.70939142 7.9218044
0.079352476 -0.012124038 7.7739773
1.1950454 0.28093278 7.8044519
1.5810056 0.38221896 7.8434148
2.3840785 0.5933041 7.9012351
0.45554066 0.066543192 7.8013906
0.83013535 0.15303719 7.8299298
1.9716768 0.48162654 7.8518667
2.807291 0.69959635 7.9218044
0.079309665 -0.012400956 7.7739773
1.1952617 0.27658466 7.7995124
1.5823301 0.3766979 7.8434148
2.3861351 0.58497852 7.9012351
0.45577019 0.064952649 7.8013906
0.83066452 0.15013856 7.8299298
1.9733461 0.47474116 7.8518667
2.8097157 0.68979281 7.9218044
0.0792659 -0.012677723 7.7739773
1.1962198 0.27241072 7.7995124
1.5826439 0.37094006 7.8385196
2.3881624 0.57664579 7.9012351
3.2646971 0.80023086 7.978394
0.45599413 0.063361317 7.8013906
0.83118349 0.14723808 7.8299298
1.9749911 0.46785003 7.8518667
2.8121064 0.67998087 7.9218044
0.079221159 -0.012954335 7.7739773
1.1971635 0.26823348 7.7995124
1.5839292 0.36541334 7.8385196
2.3887088 0.56796092 7.8964639
3.2598741 0.78699654 7.9599843
0.45621252 0.061769217 7.8013906
0.83169246 0.14433581 7.8299298
1.9766122 0.46095315 7.8518667
2.8144629 0.67016065 7.9218044
0.079175457 -0.013230789 7.7739773
1.1988513 0.26421994 7.8044519
1.5851949 0.35988218 7.8385196
2.3906767 0.55961925 7.8964639
3.2626014 0.77561265 7.9599843
0.45642537 0.060176361 7.8013906
0.83219117 0.14143179 7.8299298
1.976984 0.45376965 7.8470283
2.8167851 0.66033232 7.9218044
0.079128794 -0.013507083 7.7739773
1.1997663 0.26003358 7.8044519
1.5864415 0.3543466 7.8385196
2.3926156 0.55127084 7.8964639
3.2633867 0.76377416 7.9553814
0.45663264 0.058582772 7.8013906
0.83267981 0.13852604 7.8299298
1.978556 0.44686592 7.8470283
2.819073 0.65049589 7.9218044
0.079081163 -0.013783212 7.7739773
1.2014267 0.2560057 7.809391
1.5876688 0.34880674 7.8385196
2.3945253 0.5429157 7.8964639
3.2641289 0.75193971 7.950779
0.45683435 0.05698847 7.8013906
0.83315825 0.13561858 7.8299298
1.9801039 0.43995675 7.8470283
2.8213263 0.64065146 7.9218044
0.079074696 -0.014070549 7.7789774
1.2030735 0.25196943 7.8143306
1.5878814 0.3430478 7.8336239
2.3964059 0.53455395 7.8964639
3.2667339 0.74054116 7.950779
0.45703048 0.055393476 7.8013906
0.83362657 0.1327095 7.8299298
1.9816275 0.4330422 7.8470283
2.8235455 0.63079929 7.9218044
0.079025097 -0.014346485 7.7789774
1.2047068 0.24792472 7.8192692
1.5890692 0.33750296 7.8336239
2.3982573 0.52618563 7.8964639
3.2712057 0.72955883 7.9553814
0.45722106 0.053797804 7.8013906
0.83408475 0.1297988 7.8299298
1.9831269 0.4261224 7.8470283
2.8257303 0.62093943 7.9218044
0.079016581 -0.014633914 7.783977
1.2070881 0.24402542 7.8291483
1.5902377 0.331954 7.8336239
2.4000793 0.51781094 7.8964639
3.2756407 0.71855426 7.9599843
0.45740607 0.052201472 7.8013906
0.83453274 0.1268865 7.8299298
1.9846025 0.41919741 7.8470283
2.8278806 0.61107206 7.9218044
0.078965016 -0.014909644 7.783977
1.2086949 0.23996149 7.8340874
1.5913868 0.32640103 7.8336239
2.4004118 0.5091204 7.8916917
3.2781291 0.70711577 7.9599843
0.45758548 0.050604511 7.8013906
0.83497059 0.12397267 7.8299298
1.9860536 0.4122673 7.8470283
2.8299963 0.60119718 7.9218044
0.078912489 -0.015185192 7.783977
1.2102877 0.23588926 7.8390265
1.5925163 0.32084405 7.8336239
2.4021745 0.50073826 7.8916917
3.2805774 0.69566864 7.9599843
0.45775935 0.049006931 7.8013906
0.83539826 0.12105732 7.8299298
1.9874805 0.40533215 7.8470283
2.8320777 0.59131497 7.9218044
3.7329507 0.7901935 7.9533892
0.078859009 -0.015460555 7.783977
1.2126302 0.23195459 7.8489051
1.5946255 0.31548062 7.8385196
2.4024453 0.49205071 7.8869195
3.2829857 0.68421304 7.9599843
0.45792764 0.047408756 7.8013906
0.83581573 0.1181405 7.8299298
1.9888833 0.39839211 7.8470283
2.8341246 0.58142561 7.9218044
3.7442117 0.77893162 7.9713945
0.07880456 -0.015735731 7.783977
1.2134324 0.22772031 7.8489051
1.595717 0.30991241 7.8385196
2.4041483 0.48366162 7.8869195
3.2853541 0.67274916 7.9599843
0.45809034 0.045810003 7.8013906
0.83622301 0.11522224 7.8299298
1.9902618 0.39144716 7.8470283
2.8361366 0.57152909 7.9218044
3.7426422 0.76498532 7.9623919
0.07874915 -0.016010713 7.783977
1.2149842 0.22362365 7.8538446
1.5977893 0.30453089 7.8434148
2.405822 0.47526661 7.8869195
3.2876825 0.66127706 7.9599843
0.45824745 0.044210687 7.8013906
0.83662009 0.11230258 7.8299298
1.9916161 0.38449746 7.8470283
2.8381145 0.56162566 7.9218044
3.7516928 0.75320172 7.9758959
0.078818157 -0.01632314 7.7989764
1.2157574 0.2193812 7.8538446
1.5988427 0.29895172 7.8434148
2.4089317 0.46714991 7.8916917
3.288054 0.64941835 7.9553814
0.45839897 0.042610835 7.8013906
0.83700705 0.10938154 7.8299298
1.992946 0.37754309 7.8470283
2.8400576 0.55171537 7.9218044
3.7521634 0.73968029 7.9713945
0.0786772 -0.016572783 7.7889767
1.2165158 0.21513608 7.8538446
1.5998765 0.29336888 7.8434148
2.4105477 0.45873833 7.8916917
3.2903008 0.63793695 7.9553814
0.45854491 0.041010465 7.8013906
0.83738375 0.10645918 7.8299298
1.9942518 0.3705841 7.8470283
2.8419662 0.54179835 7.9218044
3.7547224 0.7265783 7.9713945
0.28112251 -0.079184249 32.06805
1.2172593 0.21088834 7.8538446
1.5998884 0.28760251 7.8385196
2.4136019 0.45059496 7.8964639
3.2925076 0.6264478 7.9553814
0.45839757 0.039385941 7.7963991
0.83775026 0.10353551 7.8299298
1.9955332 0.36362061 7.8470283
2.8438401 0.53187472 7.9218044
3.7572355 0.71346748 7.9713945
0.28105268 -0.08022999 32.093052
1.2179881 0.20663802 7.8538446
1.6008826 0.2820161 7.8385196
2.4151599 0.44216716 7.8964639
3.2946742 0.61495095 7.9553814
0.45824447 0.037762944 7.7914076
0.83810657 0.10061058 7.8299298
1.9967904 0.35665268 7.8470283
2.8473768 0.52225584 7.9264975
3.7597032 0.7003479 7.9713945
0.28064606 -0.081171162 32.078049
1.2187018 0.20238519 7.8538446
1.600854 0.27625331 7.8336239
2.4166887 0.43373397 7.8964639
3.2968006 0.6034466 7.9553814
4.2793002 0.79246974 8.0428915
0.45837349 0.036163144 7.7914076
0.8384527 0.097684436 7.8299298
1.9980232 0.34968042 7.8470283
2.8491824 0.51231349 7.9264975
3.762125 0.68721986 7.9713945
0.28019479 -0.082097225 32.058052
1.219401 0.19812989 7.8538446
1.6018085 0.27066359 7.8336239
2.4181879 0.42529553 7.8964639
3.298887 0.59193498 7.9553814
4.2679019 0.77496052 8.0165577
0.45820898 0.034542259 7.7864161
0.83878857 0.094757095 7.8299298
1.9992316 0.34270388 7.8470283
2.8509533 0.50236487 7.9264975
3.7645009 0.67408335 7.9713945
0.2801556 -0.083155297 32.088051
1.2208525 0.19399388 7.8587832
1.6027435 0.26507059 7.8336239
2.4196577 0.41685188 7.8964639
3.3009331 0.58041608 7.9553814
4.2682228 0.75963843 8.0121689
0.45803872 0.032922965 7.781424
0.83911419 0.0918286 7.8299298
2.0004158 0.33572316 7.8470283
2.8526895 0.49241012 7.9264975
3.7668309 0.66093874 7.9713945
0.27990511 -0.084146276 32.093052
1.2215222 0.18973111 7.8587832
1.6046642 0.25963679 7.8385196
2.4210982 0.40840319 7.8964639
3.3029392 0.56889015 7.9553814
4.2708483 0.74473494 8.0121689
0.45815089 0.03132391 7.781424
0.83995974 0.088954426 7.8349013
2.0015755 0.32873839 7.8470283
2.8543909 0.48244935 7.9264975
3.7712605 0.64815468 7.9758959
0.27973393 -0.085163936 32.108051
1.2221771 0.18546605 7.8587832
1.6065664 0.25419286 7.8434148
2.422509 0.39994946 7.8964639
3.3068314 0.55768216 7.9599843
4.2757831 0.73022544 8.0165577
0.45825744 0.029724477 7.781424
0.84026515 0.086021878 7.8349013
2.0027106 0.32174957 7.8470283
2.8543551 0.4722012 7.9218044
3.7735002 0.63498658 7.9758959
0.27947631 -0.086153723 32.113052
1.2228171 0.18119873 7.8587832
1.6084503 0.24873874 7.8483095
2.4238904 0.39149088 7.8964639
3.3087578 0.54613572 7.9599843
4.2806683 0.71569067 8.0209465
0.45835838 0.028124679 7.781424
0.84056032 0.083088279 7.8349013
2.0038216 0.31475684 7.8470283
2.8559861 0.46223477 7.9218044
3.7756937 0.62181073 7.9758959
4.8409152 0.80498844 8.0971622
0.27917388 -0.087128758 32.113052
1.2234421 0.17692921 7.8587832
1.6113224 0.24342649 7.8581004
2.4252419 0.38302755 7.8964639
3.3125727 0.53489399 7.9645867
4.2831402 0.70074403 8.0209465
0.4581655 0.026508925 7.7764325
0.84031451 0.080103785 7.8299298
2.0049081 0.30776027 7.8470283
2.8575821 0.4522627 7.9218044
3.7778411 0.60862732 7.9758959
4.8359723 0.78682917 8.0843649
0.27886805 -0.088102721 32.113052
1.2248217 0.17276578 7.8637228
1.6131696 0.23794883 7.8629956
2.4265642 0.37455955 7.8964639
3.3144197 0.52332771 7.9645867
4.2855601 0.68578881 8.0209465
0.45825523 0.024909468 7.7764325
0.84058899 0.077170052 7.8299298
2.0059702 0.30075997 7.8470283
2.8608487 0.44254884 7.9264975
3.7799428 0.59543645 7.9758959
4.8386898 0.76994377 8.0843649
0.27860004 -0.0890899 32.11805
1.2254174 0.16848929 7.8637228
1.6149983 0.23246126 7.8678908
2.4293327 0.3663094 7.9012351
3.3181567 0.51205289 7.9691887
4.2879281 0.67082524 8.0209465
0.45805106 0.023296108 7.771441
0.84085327 0.07423538 7.8299298
2.0070078 0.29375598 7.8470283
2.8623762 0.43255991 7.9264975
3.7819982 0.58223838 7.9758959
4.8387704 0.75264806 8.0800982
0.27828735 -0.090061858 32.11805
1.2259979 0.16421077 7.8637228
1.6168082 0.2269638 7.8727856
2.4305966 0.35782722 7.9012351
3.3179924 0.50017619 7.9645867
4.2902436 0.65585345 8.0209465
0.45812958 0.021697072 7.771441
0.84110731 0.071299799 7.8299298
2.0080209 0.28674844 7.8470283
2.8638687 0.4225657 7.9264975
3.7840075 0.56903321 7.9758959
4.8439469 0.73614484 8.0843649
0.2779713 -0.091032714 32.11805
1.2257932 0.15983002 7.8587832
1.6175905 0.22131871 7.8727856
2.4318309 0.34934068 7.9012351
3.3197181 0.48859116 7.9645867
4.2925067 0.64087373 8.0209465
0.45820251 0.020097766 7.771441
0.84135103 0.068363354 7.8299298
2.0090096 0.27973738 7.8470283
2.8653262 0.41256639 7.9264975
3.7881248 0.5561372 7.9803972
4.846487 0.71923178 8.0843649
0.27765182 -0.092002451 32.11805
1.2263436 0.15555024 7.8587832
1.6183532 0.21567091 7.8727856
2.4330356 0.34084985 7.9012351
3.3214035 0.47700021 7.9645867
4.2947178 0.6258862 8.0209465
5.437891 0.80018574 8.1452541
0.45855835 0.018508798 7.7764325
0.84158456 0.065426074 7.8299298
2.009974 0.27272293 7.8470283
2.8667488 0.40256199 7.9264975
3.7900429 0.54291081 7.9803972
4.848968 0.70231003 8.0843649
0.277329 -0.092971079 32.11805
1.2268791 0.15126856 7.8587832
1.6190962 0.21002048 7.8727856
2.4342105 0.3323549 7.9012351
3.3211136 0.46513253 7.9599843
4.2968764 0.61089098 8.0209465
5.4295092 0.77959943 8.1287222
0.45862016 0.016908018 7.7764325
0.84180778 0.062487997 7.8299298
2.0109136 0.26570517 7.8470283
2.8681366 0.39255273 7.9264975
3.7919149 0.52967781 7.9803972
4.8513904 0.68537968 8.0843649
0.2769618 -0.093923569 32.113052
1.2266282 0.14689289 7.8538446
1.6198194 0.20436752 7.8727856
2.4338763 0.3236593 7.8964639
3.322717 0.45353687 7.9599843
4.2989826 0.59588838 8.0209465
5.4266243 0.75986183 8.1204567
0.45896497 0.015315597 7.781424
0.84202081 0.05954916 7.8299298
2.0130756 0.25884429 7.8518667
2.8677788 0.38231072 7.9218044
3.7958975 0.5167318 7.9848976
4.8537531 0.668441 8.0843649
0.27663225 -0.094889775 32.113052
1.2271334 0.14261027 7.8538446
1.6215336 0.19883578 7.8776813
2.4349914 0.3151615 7.8964639
3.3262162 0.44219303 7.9645867
4.3010364 0.5808785 8.0209465
5.4348197 0.74167562 8.1287222
0.45901564 0.013713416 7.781424
0.84222353 0.056609593 7.8299298
2.0152142 0.25197157 7.8567066
2.869096 0.372298 7.9218044
3.797678 0.50347853 7.9848976
4.8560567 0.65149415 8.0843649
6.0732093 0.82229596 8.1900291
0.27629936 -0.095854826 32.113052
1.2276237 0.1383259 7.8538446
1.623229 0.19329457 7.8825765
2.4360766 0.30665988 7.8964639
3.3277397 0.43057966 7.9645867
4.3030376 0.56586152 8.0209465
5.434586 0.72232938 8.1245899
0.45906073 0.01211107 7.781424
0.84241599 0.053669345 7.8299298
2.0185771 0.2452385 7.8663855
2.870378 0.36228073 7.9218044
3.7994123 0.49021906 7.9848976
4.8608875 0.63487715 8.0886307
6.0700679 0.80030382 8.1820498
0.27596307 -0.0968187 32.113052
1.2280991 0.13403985 7.8538446
1.6238937 0.18762726 7.8825765
2.4356503 0.29797336 7.8916917
3.3292224 0.41896108 7.9645867
4.304987 0.5508377 8.0209465
5.4370742 0.70335472 8.1245899
0.45910019 0.010508575 7.781424
0.8425982 0.050728433 7.8299298
2.0206692 0.23833798 7.8712249
2.8733377 0.35246903 7.9264975
3.8011003 0.47695366 7.9848976
4.8630738 0.61790556 8.0886307
6.0698361 0.77872705 8.1780596
0.27562341 -0.097781412 32.113052
1.2285595 0.12975217 7.8538446
1.6245389 0.18195768 7.8825765
2.4366755 0.28946954 7.8916917
3.3306646 0.40733734 7.9645867
4.3068833 0.53580713 8.0209465
5.4394965 0.68437147 8.1245899
0.45913407 0.0089059519 7.781424
0.84223789 0.047757432 7.8249583
2.0239863 0.23156852 7.8809042
2.8745508 0.34243706 7.9264975
3.802742 0.46368244 7.9848976
4.8652015 0.60092658 8.0886307
6.0755072 0.75790763 8.1820498
0.27532113 -0.09875863 32.11805
1.229005 0.1254629 7.8538446
1.6261764 0.17639548 7.8874717
2.4376714 0.2809622 7.8916917
3.330126 0.3954784 7.9599843
4.3111048 0.52105731 8.0253363
5.4418521 0.66537988 8.1245899
0.45916235 0.0073032207 7.781424
0.84239948 0.044817183 7.8249583
2.0260317 0.22464044 7.8857436
2.8757286 0.33240092 7.9264975
3.8043375 0.45040557 7.9848976
4.8698587 0.58425075 8.0928965
6.0721326 0.73597044 8.1740694
0.27501535 -0.09973494 32.123051
1.2294354 0.12117212 7.8538446
1.6257696 0.1706119 7.8825765
2.4401207 0.27261704 7.8964639
3.3314865 0.38385168 7.9599843
4.3128977 0.50600559 8.0253363
5.4441414 0.64638025 8.1245899
6.7615008 0.80992973 8.2297792
0.45889637 0.0056978813 7.7764325
0.84255081 0.041876387 7.8249583
2.0293031 0.2178349 7.895422
2.8768713 0.32236072 7.9264975
3.8058865 0.43712321 7.9848976
4.8718686 0.56724823 8.0928965
6.071672 0.71441823 8.1700792
0.27478734 -0.1007423 32.138046
1.2298509 0.11687985 7.8538446
1.6263552 0.16493587 7.8825765
2.4425414 0.26425818 7.9012351
3.3328061 0.37222028 7.9599843
4.3146377 0.49094763 8.0253363
5.4491601 0.62769467 8.1287222
6.7579198 0.7855826 8.2221041
0.45891348 0.0040959991 7.7764325
0.84269184 0.03893508 7.8249583
2.0300512 0.21075 7.895422
2.877979 0.3123166 7.9264975
3.807389 0.42383552 7.9848976
4.8712273 0.54994625 8.0886307
6.071135 0.69287807 8.1660891
0.27427185 -0.10163631 32.11805
1.2294776 0.11251559 7.8489051
1.6259075 0.15915883 7.8776813
2.446418 0.25604102 7.9107795
3.334085 0.36058432 7.9599843
4.3163247 0.47588378 8.0253363
5.4513183 0.6086697 8.1287222
6.7701755 0.7630651 8.2336168
0.45892495 0.0024940672 7.7764325
0.84335518 0.036015343 7.8299298
2.0320251 0.20378779 7.9002614
2.8790517 0.30226868 7.9264975
3.8066814 0.41030949 7.9803972
4.8731174 0.5329392 8.0886307
6.0735168 0.67168164 8.1660891
0.27387494 -0.1025768 32.113052
1.2298628 0.10822323 7.8489051
1.6254395 0.15338692 7.8727856
2.4502673 0.24780001 7.9203234
3.33338 0.34874079 7.9553814
4.3179598 0.46081409 8.0253363
5.4534097 0.58963734 8.1287222
6.7632394 0.73838466 8.2221041
0.45893085 0.00089204265 7.7764325
0.84347582 0.033071261 7.8299298
2.0327241 0.19669345 7.9002614
2.8800893 0.29221708 7.9264975
3.8080904 0.39701921 7.9803972
4.874948 0.51592553 8.0886307
6.0758243 0.65047699 8.1660891
7.5209241 0.81179249 8.278861
0.27327266 -0.10343365 32.08305
1.2294588 0.1038644 7.8439655
1.625965 0.14771214 7.8727856
2.4540889 0.23953524 7.9298677
3.3345771 0.33710301 7.9553814
4.3195419 0.44573879 8.0253363
5.4554343 0.57059783 8.1287222
6.7721505 0.71544546 8.2297792
0.45893121 -0.00070993055 7.7764325
0.84358609 0.030126784 7.8299298
2.0333984 0.18959673 7.9002614
2.8828089 0.28232998 7.9311891
3.8072872 0.38350594 7.9758959
4.8741245 0.4986403 8.0843649
6.0780578 0.62926447 8.1660891
7.5203409 0.78518271 8.2751865
0.27303106 -0.10443661 32.098053
1.2298139 0.099572152 7.8439655
1.6264708 0.14203556 7.8727856
2.4578824 0.23124681 7.9394116
3.3357337 0.32546112 7.9553814
4.3210716 0.43065807 8.0253363
5.4573932 0.55155134 8.1287222
6.7746062 0.69180191 8.2297792
0.4589259 -0.0023118949 7.7764325
0.84421891 0.027198398 7.8349013
2.0340478 0.1824977 7.9002614
2.8854949 0.27242747 7.9358821
3.8086026 0.37021372 7.9758959
4.8732395 0.48136705 8.0800982
6.0802174 0.60804427 8.1660891
7.5264082 0.75926721 8.278861
0.27274546 -0.10542243 32.108051
1.2309287 0.095338434 7.8489051
1.6269567 0.13635725 7.8727856
2.460161 0.2228003 7.9441829
3.3387945 0.31399807 7.9599843
4.3225484 0.41557208 8.0253363
5.4592853 0.53249812 8.1287222
6.7801695 0.66846436 8.2336168
0.45891505 -0.003913831 7.7764325
0.84430873 0.024251359 7.8349013
2.0346725 0.17539643 7.9002614
2.8881471 0.26250964 7.9405751
3.807704 0.35671395 7.9713945
4.8748903 0.46435332 8.0800982
6.0823026 0.58681661 8.1660891
7.5391355 0.73397595 8.2898865
8.3638191 0.84225547 8.3404675
0.27241606 -0.10639069 32.113052
1.2312541 0.09104111 7.8489051
1.6274227 0.13067728 7.8727856
2.4624109 0.2143407 7.9489551
3.3398702 0.30234161 7.9599843
4.3239727 0.40048102 8.0253363
5.4611106 0.5134384 8.1287222
6.7824621 0.64479303 8.2336168
0.4588986 -0.0055157202 7.7764325
0.84438819 0.021304024 7.8349013
2.0352724 0.16829303 7.9002614
2.8924839 0.25272676 7.9499607
3.8110943 0.34361586 7.9758959
4.8764815 0.44733396 8.0800982
6.0843139 0.56558186 8.1660891
7.5315256 0.70670491 8.278861
8.3738079 0.81374514 8.347476
0.27208319 -0.10735794 32.11805
1.2323394 0.086797014 7.8538446
1.6288841 0.12507348 7.8776813
2.4631441 0.20574397 7.9489551
3.3428516 0.2908507 7.9645867
4.3253446 0.38538513 8.0253363
5.4628692 0.49437246 8.1287222
6.7846713 0.6211139 8.2336168
0.45887655 -0.007117541 7.7764325
0.84445745 0.018356428 7.8349013
2.0358474 0.16118757 7.9002614
2.8967881 0.24291678 7.9593468
3.8122704 0.33031052 7.9758959
4.8780131 0.43030915 8.0800982
6.0862513 0.54434019 8.1660891
7.5339465 0.68041068 8.278861
8.387249 0.78550756 8.3579903
0.27170679 -0.10830703 32.11805
1.2334101 0.082546458 7.8587832
1.6293108 0.11938684 7.8776813
2.4638474 0.19714475 7.9489551
3.345793 0.27934262 7.9691887
4.3266635 0.3702845 8.0253363
5.4617586 0.47505668 8.1245899
6.7867985 0.59742719 8.2336168
0.45884892 -0.0087192757 7.7764325
0.8445164 0.01540861 7.8349013
2.0363975 0.15408015 7.9002614
2.9010584 0.23307981 7.9687314
3.8155699 0.3171815 7.9803972
4.8794856 0.41327906 8.0800982
6.0881143 0.52309191 8.1660891
7.5362754 0.65410811 8.278861
8.3863888 0.75590575 8.3544855
9.2902584 0.82428867 8.3880672
0.27136713 -0.10927208 32.123051
1.2336909 0.078240551 7.8587832
1.6297176 0.11369877 7.8776813
2.4645205 0.18854311 7.9489551
3.3486953 0.26781759 7.9737911
4.3279295 0.35517937 8.0253363
5.466188 0.45622265 8.1287222
6.7888422 0.57373321 8.2336168
0.45852712 -0.010313348 7.771441
0.84456497 0.012460604 7.8349013
2.0369229 0.14697085 7.9002614
2.9052956 0.22321598 7.978117
3.8188233 0.3040334 7.9848976
4.8808985 0.39624396 8.0800982
6.0899029 0.50183719 8.1660891
7.5385132 0.62779766 8.278861
8.3889761 0.72662717 8.3544855
9.2856398 0.79122078 8.3814163
0.27098405 -0.11021866 32.123051
1.234732 0.073979899 7.8637228
1.6311207 0.10807643 7.8825765
2.4651635 0.17993918 7.9489551
3.3515577 0.25627571 7.978394
4.329143 0.34006992 8.0253363
5.4677472 0.43713936 8.1287222
6.7908039 0.5500322 8.2336168
0.45848832 -0.011913843 7.771441
0.84460336 0.0095124468 7.8349013
2.0374236 0.13985978 7.9002614
2.904336 0.21294716 7.9734244
3.8220322 0.29086649 7.989399
4.8822522 0.37920403 8.0800982
6.0916176 0.48057643 8.1660891
7.5406585 0.60147953 8.278861
8.387907 0.69704443 8.3509808
9.3032303 0.76001894 8.3947182
0.27059767 -0.11116389 32.123051
1.2357585 0.069712944 7.8686624
1.631488 0.10238209 7.8825765
2.4657767 0.17133306 7.9489551
3.3543801 0.24471708 7.9829965
4.3303037 0.3249563 8.0253363
5.4692397 0.41805071 8.1287222
6.7926822 0.52632457 8.2336168
0.45844394 -0.013514194 7.771441
0.84463137 0.0065641729 7.8349013
2.0378995 0.13274699 7.9002614
2.9050615 0.20280784 7.9734244
3.8251956 0.2776809 7.9939003
4.8835459 0.36215949 8.0800982
6.0932579 0.45930979 8.1660891
7.5427122 0.57515401 8.278861
8.3902893 0.66776091 8.3509808
9.2834921 0.72579396 8.3747654
0.270208 -0.11210778 32.123051
1.2359943 0.065398917 7.8686624
1.6318353 0.09668652 7.8825765
2.4663596 0.16272484 7.9489551
3.3591123 0.23327716 7.9922018
4.3338003 0.3100096 8.0297251
5.4706655 0.39895692 8.1287222
6.7944779 0.50261045 8.2336168
0.45839396 -0.015114379 7.771441
0.8446492 0.0036158194 7.8349013
2.0383503 0.12563258 7.9002614
2.9057517 0.19266605 7.9734244
3.8304851 0.26462671 8.002903
4.8847799 0.34511051 8.0800982
6.0948243 0.43803754 8.1660891
7.5446739 0.54882157 8.278861
8.3925686 0.63846922 8.3509808
9.2822456 0.69310611 8.3714399
0.26985484 -0.11306813 32.128048
1.2369912 0.061122183 7.8736014
1.6311462 0.090933271 7.8776813
2.4669125 0.15411465 7.9489551
3.3618555 0.2216787 7.9968042
4.3372459 0.2950424 8.0341148
5.4720249 0.37985831 8.1287222
6.7961907 0.47889024 8.2336168
0.45833841 -0.016714381 7.771441
0.84465665 0.00066730473 7.8349013
2.0387764 0.11851665 7.9002614
2.9046843 0.18241385 7.9687314
3.8357303 0.25153896 8.0119057
4.8885574 0.32823202 8.0843649
6.0963163 0.41675997 8.1660891
7.5465436 0.52248234 8.278861
8.3947468 0.60916984 8.3509808
9.2846088 0.6607008 8.3714399
0.2694585 -0.11400941 32.128048
1.2379732 0.056839287 7.8785405
1.6314538 0.085238956 7.8776813
2.4674356 0.14550258 7.9489551
3.3645587 0.21006395 8.0014067
4.3406396 0.28005496 8.0385036
5.4733171 0.36075506 8.1287222
6.797821 0.45516416 8.2336168
0.45827729 -0.018314179 7.771441
0.84465384 -0.0022811012 7.8349013
2.0391779 0.11139927 7.9002614
2.9053032 0.1722735 7.9687314
3.8387578 0.23828304 8.016407
4.8922763 0.31133136 8.0886307
6.097734 0.39547735 8.1660891
7.5483217 0.49613684 8.278861
8.396822 0.57986301 8.3509808
9.2943087 0.62879145 8.3780909
0.26905888 -0.11494929 32.128048
1.2397168 0.052582957 7.8884192
1.6307243 0.079494216 7.8727856
2.4694188 0.13697128 7.9537272
3.3652716 0.19831815 8.0014067
4.3439803 0.26504731 8.0428915
5.471735 0.34147221 8.1245899
6.7961698 0.43122965 8.2297792
0.45821056 -0.019913753 7.771441
0.84464073 -0.0052294792 7.8349013
2.0395541 0.10428053 7.9002614
2.9076099 0.16222708 7.9734244
3.839566 0.22488183 8.016407
4.89854 0.29456523 8.0971622
6.1020851 0.37437436 8.1700792
7.5500073 0.46978524 8.278861
8.3987951 0.55054909 8.3509808
9.3150778 0.59753937 8.3947182
0.26861638 -0.11586954 32.123051
1.2406691 0.048285183 7.8933587
1.6309919 0.073801443 7.8727856
2.469882 0.12835057 7.9537272
3.3678937 0.18667799 8.0060101
4.3496614 0.2501573 8.0516701
5.4700847 0.3222048 8.1204567
6.7976336 0.40750399 8.2297792
0.45813826 -0.021513086 7.771441
0.84461731 -0.0081777936 7.8349013
2.0399058 0.097160526 7.9002614
2.9081585 0.15207663 7.9734244
3.8425009 0.21159747 8.0209074
4.9047456 0.27775913 8.1056938
6.1063628 0.35324582 8.1740694
7.5516014 0.44342795 8.278861
8.4006653 0.52122849 8.3509808
9.343195 0.56660199 8.4179964
0.26821026 -0.11680648 32.123051
1.2416065 0.043981392 7.8982973
1.6312397 0.068107769 7.8727856
2.470315 0.11972829 7.9537272
3.368525 0.17492071 8.0060101
4.3529 0.23510174 8.0560598
5.4711757 0.30310869 8.1204567
6.7926149 0.38341215 8.2221041
0.45806035 -0.023112154 7.771441
0.84458363 -0.011126009 7.8349013
2.0402324 0.090039335 7.9002614
2.9103954 0.14200835 7.978117
3.8410425 0.19807133 8.016407
4.9108944 0.26091331 8.1142263
6.110568 0.33209196 8.1780596
7.5497184 0.4168784 8.2751865
8.4024334 0.49190152 8.3509808
9.3413887 0.53377175 8.4146709
0.26780093 -0.11774201 32.123051
1.2425292 0.039671656 7.9032369
1.6314673 0.062413264 7.8727856
2.4692266 0.11103761 7.9489551
3.3691151 0.16316129 8.0060101
4.3584781 0.22014734 8.0648375
5.4890618 0.28488368 8.1452541
6.8035135 0.36020744 8.2336168
0.45797691 -0.024710942 7.771441
0.84453964 -0.014074088 7.8349013
2.0405343 0.082917042 7.9002614
2.9108732 0.13184831 7.978117
3.8417103 0.18466239 8.016407
4.916985 0.24402794 8.1227579
6.1177077 0.311066 8.186039
7.5511274 0.39052242 8.2751865
8.4040995 0.46256855 8.3509808
9.3133669 0.49956119 8.3880672
0.26734886 -0.11865743 32.11805
1.2434368 0.035356008 7.9081759
1.6316754 0.056718003 7.8727856
2.469599 0.10241774 7.9489551
3.369664 0.1513999 8.0060101
4.3616123 0.20504448 8.0692272
5.4984555 0.26612952 8.1576529
6.798327 0.33614001 8.2259417
0.45788786 -0.026309431 7.771441
0.84448534 -0.017021997 7.8349013
2.0408113 0.075793743 7.9002614
2.9113159 0.12168665 7.978117
3.8423316 0.17125119 8.016407
4.9204121 0.22698309 8.1270237
6.1247764 0.28999427 8.1940193
7.549058 0.36399844 8.2715111
8.4021015 0.43304643 8.347476
9.2814932 0.46536598 8.3581381
0.26693302 -0.11958993 32.11805
1.2443295 0.031034505 7.9131155
1.6318634 0.051022045 7.8727856
2.4699416 0.093796596 7.9489551
3.3682201 0.13955587 8.0014067
4.3623013 0.18981837 8.0692272
5.5077839 0.24731323 8.1700516
6.8250742 0.31358403 8.2566423
0.45779324 -0.027907599 7.771441
0.84442079 -0.019969696 7.8349013
2.0410635 0.06866952 7.9002614
2.9117229 0.11152352 7.978117
3.8450806 0.15792716 8.0209074
4.92378 0.20991731 8.1312904
6.1317725 0.268877 8.2019997
7.550283 0.33764508 8.2715111
8.4035625 0.40371498 8.347476
9.2905207 0.43331254 8.364789
0.26651394 -0.12052098 32.11805
1.245207 0.026707202 7.9180546
1.6320314 0.045325473 7.8727856
2.4687622 0.08512301 7.9441829
3.3686867 0.12779774 8.0014067
4.3653307 0.17468564 8.073616
5.5114255 0.22820236 8.1741848
6.8325315 0.29002994 8.2643166
0.45769304 -0.029505424 7.771441
0.84434593 -0.022917153 7.8349013
2.0412908 0.061544463 7.9002614
2.9120946 0.10135903 7.978117
3.8456085 0.14450435 8.0209074
4.9270892 0.19283077 8.1355562
6.141706 0.24783581 8.2139692
7.5548029 0.31142724 8.2751865
8.4013577 0.37421992 8.3439713
9.3068972 0.40152353 8.3780909
0.26609164 -0.12145055 32.11805
1.2476233 0.022401549 7.9328728
1.6321799 0.039628342 7.8727856
2.4690442 0.076504901 7.9441829
3.3671598 0.11597089 7.9968042
4.3659139 0.15944673 8.073616
5.5121884 0.2089625 8.1741848
6.8463135 0.26667708 8.2796669
0.45758724 -0.03110289 7.771441
0.84426081 -0.025864329 7.8349013
2.0414932 0.054418653 7.9002614
2.9124305 0.091193311 7.978117
3.8460894 0.13107979 8.0209074
4.9277325 0.17563085 8.1355562
6.1485558 0.22661762 8.2219496
7.5897212 0.28633189 8.3119373
8.4026117 0.34489146 8.3439713
9.3194332 0.36947763 8.3880672
0.26566607 -0.12237864 32.11805
1.2484708 0.018057378 7.9378119
1.6323081 0.033930726 7.8727856
2.4707885 0.067926757 7.9489551
3.3675442 0.10421661 7.9968042
4.3664441 0.14420588 8.073616
5.5128841 0.18972011 8.1741848
6.8536096 0.24300443 8.2873421
0.45747587 -0.03269998 7.771441
0.84416538 -0.028811194 7.8349013
2.0416708 0.047292184 7.9002614
2.9127312 0.081026472 7.978117
3.8465238 0.11765364 8.0209074
4.9283152 0.15842879 8.1355562
6.1523209 0.20525423 8.2259388
7.6177793 0.26076466 8.3413391
8.4287109 0.31649527 8.3685036
0.26523727 -0.12330525 32.11805
1.2555188 0.013773741 7.982265
1.6324167 0.028232703 7.8727856
2.4710104 0.059301686 7.9489551
3.3678875 0.092461042 7.9968042
4.3669205 0.12896326 8.073616
5.5163255 0.1705623 8.178318
6.8544159 0.21907939 8.2873421
0.45735896 -0.034296665 7.771441
0.84405965 -0.031757705 7.8349013
2.0418234 0.040165134 7.9002614
2.9129963 0.07085865 7.978117
3.846911 0.10422605 8.0209074
4.9288383 0.14122479 8.1355562
6.1529999 0.18377736 8.2259388
7.6220322 0.23427619 8.3450136
8.4404573 0.28743574 8.3790169
0.26480523 -0.12423035 32.11805
1.260998 0.0094299996 8.016839
1.6325052 0.022534333 7.8727856
2.4712024 0.050675888 7.9489551
3.3681896 0.080704361 7.9968042
4.3673444 0.11371908 8.073616
5.5168872 0.15130569 8.178318
6.8551388 0.19515169 8.2873421
0.45723647 -0.035892941 7.771441
0.84341109 -0.034681231 7.8299298
2.0419509 0.033037599 7.9002614
2.9132257 0.060689967 7.978117
3.8472512 0.090797193 8.0209074
4.9266939 0.12395352 8.1312904
6.153604 0.16229826 8.2259388
7.6194143 0.20757662 8.3413391
8.466361 0.25873363 8.4035492
0.26440895 -0.12517354 32.123051
1.2664622 0.0050481739 8.0514145
1.632574 0.01683569 7.8727856
2.4713643 0.042049475 7.9489551
3.3684509 0.068946697 7.9968042
4.3677144 0.098473512 8.073616
5.520195 0.13211453 8.1824503
6.8557787 0.17122158 8.2873421
0.45710838 -0.037488773 7.771441
0.8432849 -0.037625071 7.8299298
2.0420539 0.025909655 7.9002614
2.91342 0.050520543 7.978117
3.8475449 0.077367216 8.0209074
4.9270964 0.1067554 8.1312904
6.1541328 0.1408172 8.2259388
7.6234818 0.18105911 8.3450136
8.4636478 0.22908248 8.4000444
0.2639704 -0.12609574 32.123051
1.2703573 0.00062804355 8.0761108
1.633641 0.011143594 7.8776813
2.4700034 0.033402488 7.9441829
3.3706243 0.05722126 8.0014067
4.3680315 0.08322674 8.073616
5.5206227 0.11284465 8.1824503
6.8563342 0.14728943 8.2873421
0.45697471 -0.039084151 7.771441
0.84261608 -0.040542141 7.8249583
2.0421319 0.018781397 7.9002614
2.9135785 0.0403505 7.978117
3.8477914 0.063936315 8.0209074
4.930047 0.08960332 8.1355562
6.1575999 0.11939277 8.229929
7.6240678 0.15444708 8.3450136
8.4643965 0.19953746 8.4000444
0.26352865 -0.1270164 32.123051
1.2781217 -0.0038322769 8.1255035
1.6336699 0.0054410547 7.8776813
2.4775681 0.024854617 7.9680433
3.3708034 0.045455236 8.0014067
4.3682957 0.067978963 8.073616
5.5209832 0.093573391 8.1824503
6.8568068 0.12335544 8.2873421
0.45683551 -0.040679052 7.771441
0.84246939 -0.043483172 7.8249583
2.0421851 0.011652914 7.9002614
2.9137015 0.030179968 7.978117
3.850168 0.050533123 8.0254087
4.9303298 0.072393693 8.1355562
6.157979 0.097898014 8.229929
7.6245599 0.12783319 8.3450136
8.4579105 0.16984682 8.3930359
0.26312244 -0.12795553 32.128048
1.2781005 -0.0082937302 8.1255035
1.6336789 -0.00026177763 7.8776813
2.4910741 0.016292894 8.0109911
3.3709416 0.033688664 8.0014067
4.3709011 0.052759193 8.0780058
5.5184622 0.07426317 8.178318
6.8571959 0.099419974 8.2873421
0.45669073 -0.042273458 7.771441
0.84284472 -0.046453707 7.8299298
2.0409563 0.0045216545 7.895422
2.9155147 0.020020815 7.98281
3.8503208 0.037093222 8.0254087
4.9331594 0.055212315 8.1398211
6.1643095 0.076476738 8.2379093
7.6283498 0.10126269 8.3486891
8.4691486 0.14049956 8.4035492
0.2626355 -0.12885307 32.123051
1.2765099 -0.012739081 8.1156254
1.6336681 -0.0059643798 7.8776813
2.509028 0.0076504741 8.0682545
3.3710387 0.021921676 8.0014067
4.3710585 0.037501577 8.0780058
5.5411987 0.055223659 8.211381
6.8607054 0.075518534 8.2911787
0.45654038 -0.04386735 7.771441
0.84267741 -0.049395502 7.8299298
2.0409598 -0.0026029248 7.895422
2.9155669 0.0098436475 7.98281
3.8504269 0.023652868 8.0254087
4.9385381 0.038032096 8.1483536
6.1675515 0.054985642 8.2418995
7.6286569 0.074634157 8.3486891
8.4838524 0.1111226 8.4175673
0.26214549 -0.12974876 32.11805
1.2756807 -0.01718414 8.1106853
1.6336373 -0.011666909 7.8776813
2.5090394 -0.0011080651 8.0682545
3.3710947 0.010154421 8.0014067
4.3735571 0.022255624 8.0823936
5.5497999 0.035935447 8.2237806
6.8641324 0.051593795 8.2950163
0.45638448 -0.045460705 7.771441
0.84303182 -0.05237044 7.8349013
2.0409381 -0.0097271884 7.895422
2.9173093 -0.00033434937 7.9875031
3.8504858 0.010212225 8.0254087
4.9412494 0.020804077 8.1526194
6.1737323 0.033489138 8.2498789
7.6322613 0.048026029 8.3523645
8.5269804 0.081918545 8.4596214
0.26169097 -0.13066302 32.11805
1.275613 -0.021636995 8.1106853
1.6335866 -0.017369296 7.8776813
2.5045424 -0.009848265 8.0539389
3.3711095 -0.0016134282 8.0014067
4.3736081 0.0069889263 8.0823936
5.5667753 0.016612908 8.2485781
6.867476 0.027646054 8.2988539
0.45622301 -0.047053508 7.771441
0.84284383 -0.055312853 7.8349013
2.0408919 -0.016851332 7.895422
2.9172902 -0.010517657 7.9875031
3.8504982 -0.0032290795 8.0254087
4.9465079 0.0035594138 8.1611519
6.1798382 0.011950159 8.2578592
7.6323824 0.021384174 8.3523645
8.5486116 0.052284047 8.480649
0.2612333 -0.1315757 32.11805
1.2739758 -0.026057307 8.1008072
1.6335161 -0.023071472 7.8776813
2.5059855 -0.018601891 8.0587111
3.3710835 -0.013380787 8.0014067
4.3736062 -0.0082784696 8.0823936
5.5696135 -0.0028211195 8.2527113
6.8675308 0.0036739213 8.2988539
0.456056 -0.048645739 7.771441
0.84264565 -0.058254588 7.8349013
2.0408206 -0.023975272 7.895422
2.9189613 -0.020713184 7.9921956
3.8504634 -0.016669806 8.0254087
4.9517064 -0.0137224 8.1696835
6.1858692 -0.0096319076 8.2658396
7.6358008 -0.0052613802 8.35604
8.5986691 0.022574224 8.5297127
0.26077241 -0.13248678 32.11805
1.2754308 -0.030541852 8.1106853
1.6334256 -0.028773366 7.8776813
2.5059052 -0.027349299 8.0587111
3.3710163 -0.025147982 8.0014067
4.3711562 -0.023532201 8.0780058
5.5639415 -0.022240089 8.2444448
6.8675017 -0.020299219 8.2988539
0.45588341 -0.050237373 7.771441
0.84190559 -0.061156295 7.8299298
2.0407245 -0.031098919 7.895422
2.9205971 -0.030920509 7.9968886
3.8503819 -0.030110331 8.0254087
4.9542356 -0.031023379 8.1739492
6.1797709 -0.031194057 8.2578592
7.635736 -0.031915266 8.35604
8.595129 -0.0074389642 8.5262079
0.26030836 -0.13339624 32.11805
1.2737628 -0.034950629 8.1008072
1.6333152 -0.034474909 7.8776813
2.5072868 -0.036117997 8.0634823
3.3709078 -0.036914874 8.0014067
4.3710475 -0.038790241 8.0780058
5.5722723 -0.041725092 8.2568436
6.8673887 -0.044271152 8.2988539
0.45570529 -0.051828399 7.771441
0.84168696 -0.06409473 7.8299298
2.0406034 -0.03822219 7.895422
2.9204714 -0.041115109 7.9968886
3.8524301 -0.043575186 8.0299101
4.9514899 -0.048291218 8.1696835
6.1735978 -0.052713756 8.2498789
7.6559176 -0.058724966 8.3780909
8.57722 -0.037363719 8.5086861
0.25984111 -0.13430406 32.11805
1.9865717 -0.061677121 12.635046
1.6331849 -0.040176034 7.8776813
2.5071454 -0.04486984 8.0634823
3.3727119 -0.048709612 8.0060101
4.3708854 -0.054047808 8.0780058
5.5552092 -0.06099005 8.2320452
6.8639874 -0.068210654 8.2950163
0.45552158 -0.053418789 7.771441
0.84092683 -0.066989347 7.8249583
2.0404577 -0.04534499 7.895422
2.9220355 -0.051339623 8.0015812
3.8522546 -0.057022411 8.0299101
4.9460754 -0.065505661 8.1611519
6.1673503 -0.074190743 8.2418995
7.682786 -0.085751697 8.4074917
8.5306778 -0.066939466 8.4631262
0.25937074 -0.13521026 32.11805
1.984791 -0.06855721 12.625167
1.6330347 -0.045876671 7.8776813
2.508466 -0.053653181 8.0682545
3.3725212 -0.060482275 8.0060101
4.3706703 -0.06930472 8.0780058
5.5465217 -0.08025869 8.2196474
6.8605022 -0.092126951 8.2911787
0.45533234 -0.055008534 7.771441
0.84068787 -0.069924317 7.8249583
2.0402868 -0.052467242 7.895422
2.9201133 -0.06150268 7.9968886
3.8520319 -0.07046894 8.0299101
4.9406009 -0.082682885 8.1526194
6.1640415 -0.095671557 8.2379093
7.7129478 -0.1130164 8.440568
8.4804678 -0.096150272 8.4140625
0.25889719 -0.13611482 32.11805
1.9822105 -0.075395927 12.61035
1.6328646 -0.051576745 7.8776813
2.5082633 -0.062409036 8.0682545
3.3722894 -0.072254203 8.0060101
4.3704019 -0.084560774 8.0780058
5.5349531 -0.09941683 8.2031155
6.8601394 -0.11607402 8.2911787
0.45513755 -0.056597602 7.771441
0.84043866 -0.072858445 7.8249583
2.0400913 -0.05958885 7.895422
2.9198806 -0.071695402 7.9968886
3.8517625 -0.083914615 8.0299101
4.9350672 -0.099822707 8.1440878
6.1606574 -0.11713018 8.2339191
7.7294545 -0.14024659 8.4589443
8.472949 -0.12564623 8.4070539
0.25845852 -0.13703907 32.123051
1.9827116 -0.08234708 12.61529
1.6326746 -0.057276189 7.8776813
2.5080302 -0.071164131 8.0682545
3.3739696 -0.084073998 8.0106115
4.37008 -0.099815816 8.0780058
5.5176921 -0.11837438 8.178318
6.8564878 -0.13995422 8.2873421
0.45522341 -0.058223661 7.7764325
0.8401792 -0.075791672 7.8249583
2.0398707 -0.066709742 7.895422
2.9178874 -0.081838757 7.9921956
3.8514462 -0.097359262 8.0299101
4.9320812 -0.1169868 8.1398211
6.157198 -0.13856632 8.229929
7.7289181 -0.16722657 8.4589443
8.4795895 -0.15535228 8.4140625
0.25794062 -0.13791892 32.11805
1.9808596 -0.089197308 12.605411
1.6324648 -0.062974945 7.8776813
2.5062745 -0.079870678 8.0634823
3.3736556 -0.09585084 8.0106115
4.3697047 -0.11506963 8.0780058
5.522872 -0.13777447 8.1865835
6.8559575 -0.16388698 8.2873421
0.45501739 -0.059812333 7.7764325
0.83990949 -0.078723982 7.8249583
2.0396256 -0.073829807 7.895422
2.9175839 -0.092023589 7.9921956
3.851083 -0.11080272 8.0299101
4.9290366 -0.13413127 8.1355562
6.1566768 -0.16005811 8.229929
7.721509 -0.19403411 8.4515944
8.4718647 -0.18479504 8.4070539
0.25749552 -0.13884009 32.123051
1.978984 -0.096035615 12.595532
1.6322349 -0.068672925 7.8776813
2.5044889 -0.088565864 8.0587111
3.3733003 -0.10762651 8.0106115
4.3692765 -0.13032204 8.0780058
5.5195441 -0.15697199 8.1824503
6.8553438 -0.18781774 8.2873421
0.45480582 -0.061400276 7.7764325
0.83962965 -0.081655338 7.8249583
2.0393555 -0.080948979 7.895422
2.9155204 -0.10214677 7.9875031
3.8484967 -0.12417457 8.0254087
4.9285383 -0.151336 8.1355562
6.1560802 -0.18154795 8.229929
7.6970634 -0.22030686 8.425868
8.4711685 -0.21436624 8.4070539
0.2570093 -0.13973807 32.123051
1.9786366 -0.10294297 12.595532
1.6319853 -0.074370071 7.8776813
2.4937232 -0.096901022 8.0253067
3.3709521 -0.11933168 8.0060101
4.3687949 -0.14557287 8.0780058
5.5189629 -0.17623784 8.1824503
6.8578496 -0.21184519 8.2911787
0.45430297 -0.062946796 7.771441
0.83933949 -0.084585696 7.8249583
2.0403161 -0.088121556 7.9002614
2.9134216 -0.11225667 7.98281
3.8458643 -0.13752969 8.0209074
4.9279799 -0.1685389 8.1355562
6.1554093 -0.20303558 8.229929
7.6725283 -0.24641131 8.4001417
8.4953213 -0.24465361 8.4315853
0.25648221 -0.14061247 32.11805
1.9782654 -0.10984907 12.595532
1.6317158 -0.080066308 7.8776813
2.485913 -0.10528872 8.0014477
3.3744192 -0.1312498 8.015214
4.3658667 -0.16073374 8.073616
5.5155015 -0.19540186 8.178318
6.8570685 -0.23578227 8.2911787
0.45408046 -0.064532228 7.771441
0.83956921 -0.087571017 7.8299298
2.0399961 -0.095243052 7.9002614
2.911288 -0.12235316 7.978117
3.8323092 -0.15044062 7.9939003
4.9273615 -0.18573973 8.1355562
6.1546631 -0.22452073 8.229929
7.6411295 -0.27210581 8.3670654
8.5264959 -0.27534252 8.4631262
0.25598982 -0.1415069 32.11805
1.9770942 -0.11670789 12.590592
1.6314263 -0.085761569 7.8776813
2.47211 -0.11334907 7.9584994
3.3895555 -0.14369057 8.0520344
4.3652787 -0.17597248 8.073616
5.5147858 -0.21465334 8.178318
6.8594069 -0.25983784 8.2950163
0.45356688 -0.066074193 7.7664495
0.83925837 -0.09050113 7.8299298
2.0409067 -0.10242654 7.9051008
2.9091191 -0.13243613 7.9734244
5.5738969 -0.23835711 11.599373
4.9266834 -0.20293829 8.1355562
6.1568527 -0.24612357 8.2339191
7.6299706 -0.29837915 8.35604
8.5753775 -0.30688983 8.5121899
0.25549433 -0.14239959 32.11805
1.2725427 -0.079431675 8.1057463
1.6301004 -0.091398597 7.8727856
2.4716995 -0.12197766 7.9584994
3.3987913 -0.15596968 8.0750475
4.3646383 -0.19120908 8.073616
5.5111914 -0.23378295 8.1741848
6.858458 -0.28378004 8.2950163
0.45333347 -0.067657039 7.7664495
0.8389374 -0.093430132 7.8299298
2.0417919 -0.10961755 7.9099402
2.9086392 -0.14259003 7.9734244
5.5708561 -0.25771156 11.594872
4.9259448 -0.22013439 8.1355562
6.1589665 -0.26774436 8.2379093
7.6254954 -0.32486656 8.3523645
8.5671282 -0.33654162 8.5051813
9.8711882 -0.40158826 8.8802414
0.2549957 -0.14329058 32.11805
1.2691566 -0.083667755 8.08599
1.6297715 -0.097088151 7.8727856
2.4712586 -0.13060476 7.9584994
3.4138365 -0.1686044 8.1118679
4.3639441 -0.20644334 8.073616
5.515964 -0.25327742 8.1824503
6.8606277 -0.30786255 8.2988539
0.45309454 -0.069239058 7.7664495
0.83860618 -0.096358001 7.8299298
2.0426519 -0.11681598 7.9147801
2.9081237 -0.15274221 7.9734244
5.5699229 -0.27715591 11.594872
4.9251461 -0.2373278 8.1355562
6.1670241 -0.28966579 8.2498789
7.6209283 -0.35132641 8.3486891
8.5480852 -0.36568215 8.4876575
9.8398857 -0.43472415 8.8536377
0.25449395 -0.14417981 32.11805
1.2688568 -0.088097438 8.08599
1.6294227 -0.10277653 7.8727856
2.4692974 -0.13914616 7.9537272
3.417129 -0.18072642 8.1210728
4.3631968 -0.22167508 8.073616
5.5150466 -0.27253017 8.1824503
6.8595109 -0.33180869 8.2988539
0.45313519 -0.070865892 7.771441
0.83826464 -0.099284694 7.8299298
2.0447409 -0.12409806 7.924459
2.907573 -0.16289252 7.9734244
5.571095 -0.2967127 11.599373
4.9242878 -0.25451833 8.1355562
6.1750035 -0.31164676 8.2618494
7.6162691 -0.37775826 8.3450136
8.5182571 -0.39419922 8.4596214
0.25398913 -0.14506727 32.11805
1.2662168 -0.092355721 8.0711718
1.6290541 -0.10846364 7.8727856
2.4687965 -0.14776477 7.9537272
3.4184277 -0.19276339 8.1256742
4.3623967 -0.23690414 8.073616
5.5365419 -0.29296958 8.2155142
6.8583112 -0.35575086 8.2988539
0.45288506 -0.072447203 7.771441
0.83791298 -0.10221018 7.8299298
2.046804 -0.13139613 7.9341373
2.908709 -0.17314349 7.978117
5.5765462 -0.3165279 11.612877
4.9233694 -0.27170575 8.1355562
6.1889234 -0.33401179 8.2818003
7.6318312 -0.40524068 8.36339
8.4883347 -0.42251253 8.4315853
0.25351849 -0.14597565 32.123051
1.2658865 -0.096775077 8.0711718
1.6286654 -0.11414944 7.8727856
2.4682658 -0.15638158 7.9537272
3.4177341 -0.20469476 8.1256742
4.3615427 -0.2521303 8.073616
5.5495334 -0.31308669 8.2361784
6.8570275 -0.37968865 8.2988539
0.45291412 -0.074075259 7.7764325
0.83755112 -0.10513443 7.8299298
2.0475869 -0.13862507 7.9389768
2.908087 -0.18329574 7.978117
5.5754075 -0.33599177 11.612877
4.9197874 -0.288737 8.1312904
6.1877193 -0.35561311 8.2818003
7.6709871 -0.43417755 8.4074917
8.4618797 -0.45081156 8.4070539
0.25300738 -0.14685972 32.123051
1.2608941 -0.10082018 8.0415363
1.6292725 -0.11990878 7.8776813
2.4677048 -0.16499649 7.9537272
3.4169986 -0.21662362 8.1256742
4.3630271 -0.26750001 8.0780058
5.5680699 -0.33363482 8.26511
6.8524609 -0.40343341 8.2950163
0.45265278 -0.075655781 7.7764325
0.83717906 -0.10805738 7.8299298
2.0521057 -0.14612937 7.9583349
2.9074295 -0.19344574 7.978117
3.8383527 -0.24472032 8.016407
4.9395733 -0.30720401 8.1654177
6.1864405 -0.37721011 8.2818003
7.6998811 -0.46278244 8.440568
8.4602547 -0.48034629 8.4070539
0.25253034 -0.14776491 32.128048
1.2558886 -0.1048316 8.0118999
1.628844 -0.12559527 7.8776813
2.4671137 -0.17360938 7.9537272
3.4142728 -0.22841939 8.1210728
4.3620667 -0.2827282 8.0780058
5.5752964 -0.35360345 8.2775087
6.8510103 -0.42735052 8.2950163
0.45238593 -0.077235363 7.7764325
0.83732504 -0.11104979 7.8349013
2.0616109 -0.15404214 7.9970503
2.9067366 -0.20359337 7.978117
3.8526793 -0.25914037 8.0479155
4.9462781 -0.32495752 8.178215
6.173058 -0.39802682 8.2658396
7.7354355 -0.49202475 8.4809952
8.4620857 -0.51008976 8.4105577
0.252013 -0.14864551 32.128048
1.2516448 -0.10887691 7.9872041
1.6283957 -0.13128023 7.8776813
2.4664929 -0.18222013 7.9537272
3.4154031 -0.2404733 8.1256742
4.3634419 -0.29811621 8.0823936
5.5796437 -0.37343869 8.2857742
6.8494773 -0.45126238 8.2950163
0.4521136 -0.078814022 7.7764325
0.8369323 -0.11397193 7.8349013
2.0786045 -0.16261211 8.0648022
2.9060082 -0.21373856 7.978117
3.8495796 -0.2724334 8.0434141
4.9581227 -0.34312189 8.1995449
6.1656184 -0.41916353 8.2578592
7.7336707 -0.51902348 8.4809952
8.4602537 -0.53962481 8.4105577
0.25149259 -0.14952429 32.128048
1.2466142 -0.11282359 7.9575691
1.6279275 -0.13696359 7.8776813
2.4658415 -0.1908287 7.9537272
3.4009049 -0.25138509 8.0934572
4.3623748 -0.31334564 8.0823936
5.5754986 -0.39271519 8.281641
6.8478603 -0.47516879 8.2950163
0.45183572 -0.080391712 7.7764325
0.83600152 -0.1168182 7.8299298
2.0980685 -0.1715077 8.1422329
2.9052444 -0.22388111 7.978117
3.8420923 -0.28538528 8.0299101
4.9594955 -0.36061606 8.2038107
6.1581063 -0.44025317 8.2498789
7.7385755 -0.54649353 8.4883461
8.4689941 -0.56987172 8.421072
0.25096911 -0.15040126 32.128048
1.2438921 -0.11695543 7.9427509
1.6274395 -0.14264527 7.8776813
2.4651606 -0.19943494 7.9537272
3.3941631 -0.26280227 8.0796499
4.3612542 -0.32857123 8.0823936
5.5712881 -0.41196737 8.2775087
6.8461599 -0.49906936 8.2950163
0.45126852 -0.081915818 7.771441
0.83558869 -0.11973569 7.8299298
2.0987093 -0.17893723 8.1470718
2.9044452 -0.23402093 7.978117
3.8410726 -0.29879493 8.0299101
4.9608078 -0.378124 8.2080774
6.1505222 -0.46129552 8.2418995
7.6757655 -0.56899124 8.4221926
8.4776249 -0.60018611 8.4315853
0.2504794 -0.15129985 32.133049
1.2427031 -0.12122104 7.9378119
1.6269317 -0.14832523 7.8776813
2.4644494 -0.20803873 7.9537272
3.3854358 -0.27401769 8.0612392
4.3600807 -0.34379286 8.0823936
5.5670099 -0.4311949 8.2733755
6.8411803 -0.52271968 8.2911787
0.45097983 -0.083490536 7.771441
0.83463836 -0.12257357 7.8249583
2.0968199 -0.18615068 8.1422329
2.9036107 -0.24415793 7.978117
3.8400061 -0.31220096 8.0299101
4.9568577 -0.3952308 8.2038107
6.1458707 -0.48252612 8.2379093
7.6568322 -0.59446889 8.4038162
8.4790354 -0.63003927 8.4350901
0.24994974 -0.15217325 32.133049
1.2422724 -0.12555815 7.9378119
1.6264039 -0.15400338 7.8776813
2.4622211 -0.21650912 7.9489551
3.376672 -0.28517541 8.0428295
4.3612413 -0.35920697 8.0867825
5.5430326 -0.4488076 8.2403116
6.839314 -0.54659665 8.2911787
0.45068562 -0.08506424 7.771441
0.83420545 -0.12548624 7.8249583
2.0961573 -0.19346882 8.1422329
2.9027407 -0.25429192 7.978117
