# .PCD v0.7 - Point Cloud Data file format
VERSION 0.7
FIELDS x y z
SIZE 4 4 4
TYPE F F F
COUNT 1 1 1
WIDTH 1498
HEIGHT 1
VIEWPOINT 0 0 0 1 0 0 0
POINTS 1498
DATA ascii
-0.86441678 2.276746 0.67808414
-0.83877575 2.2080634 0.42165235
-0.81496739 2.1431551 0.1861681
0.0010468866 0.060122464 5.4540653
-0.45518589 1.3051469 8.787364
-0.63956326 1.7971671 9.1944971
-0.97945321 2.694813 9.2135305
-0.33866987 0.92152697 2.3725195
-0.42878193 1.1594288 2.3327003
-1.0905128 2.9367323 4.6735773
-0.66420478 1.7829131 2.3545601
-0.076169267 0.29629287 5.1308537
-0.11743062 0.39583069 3.8079834
-0.8055377 2.2465754 9.226263
-0.38511547 1.0581594 3.1164114
-0.38090241 1.037676 2.3493781
-0.51677376 1.4012246 2.5130548
-1.1201208 3.0262113 4.3476357
-0.64093798 1.72692 2.0751836
-0.62614238 1.6700727 1.832525
-0.68385595 1.8211526 1.6509445
-0.84419793 2.2446451 1.6569057
-0.91982704 2.4431794 1.4530867
-0.89787209 2.3823617 1.116946
-0.87556803 2.3207464 0.81902683
-0.85390317 2.2609456 0.55032122
-0.83117372 2.1984615 0.30395007
-0.62674755 1.6788297 1.6772081
-0.74694508 1.9976625 1.6364861
-0.91033882 2.4321125 1.6116441
-0.91009909 2.4276214 1.2859638
-0.88620108 2.361387 0.9669733
-0.86501104 2.3025 0.68394566
-0.83803248 2.2295194 0.42441505
-0.81627852 2.1693661 0.18717575
0.0012567475 0.060118441 5.4540653
-0.45037425 1.3059932 8.7824249
-0.63362396 1.8003492 9.1993933
-0.97004062 2.6982155 9.2135305
-0.3354511 0.9227035 2.3725195
-0.42473215 1.1609185 2.3327003
-1.080255 2.940521 4.6735773
-0.65797722 1.7852207 2.3545601
-0.077215105 0.30496407 5.2806029
-0.1163451 0.39726213 3.8179264
-0.79769081 2.2493737 9.226263
-0.38141948 1.0594971 3.1164114
-0.37727788 1.0389992 2.3493781
-0.51098567 1.4005699 2.5087888
-1.1105865 3.0329323 4.3516259
-0.63957959 1.7418765 2.0898843
-0.62774992 1.6923101 1.8535522
-0.67749476 1.8235285 1.6509445
-0.83927399 2.2554162 1.6623886
-0.92057085 2.4712825 1.4669995
-0.89926904 2.4115436 1.1281842
-0.87752753 2.3507533 0.82748705
-0.85288382 2.2823181 0.5540517
-0.8304739 2.2200067 0.30573839
-0.62217712 1.6845099 1.6805335
-0.73996741 2.0002577 1.6364861
-0.90334058 2.4393179 1.6141773
-0.90951103 2.4520597 1.2964541
-0.8861714 2.3866003 0.97519082
-0.86374247 2.3237298 0.68863493
-0.83887559 2.2556384 0.42786846
-0.81567335 2.1909304 0.18798187
0.0014542815 0.060027298 5.444066
-0.44556218 1.3068218 8.7774858
-0.62733573 1.8025501 9.1993933
-0.96111614 2.7029915 9.2183027
-0.33156741 0.92203039 2.3679171
-0.41986239 1.1601418 2.3283112
-1.0911276 3.0024602 4.764502
-1.0777011 2.9559164 3.8435116
-0.076423593 0.30635363 5.3005695
-0.11539766 0.39920327 3.8328409
-0.79025006 2.2533305 9.2311029
-0.37771884 1.0608221 3.1164114
-0.37364885 1.0403099 2.3493781
-1.1040975 3.0481231 4.3675861
-0.6427536 1.7695906 2.1192856
-0.62798136 1.7112309 1.8710749
-0.67112535 1.8258824 1.6509445
-0.82995152 2.2544081 1.6596472
-0.92266124 2.5035763 1.4832311
-0.90047312 2.4407642 1.1394223
-0.87762606 2.3763022 0.83453721
-0.85342896 2.3083186 0.55871487
-0.83136225 2.2462437 0.30797377
-0.61757451 1.6901783 1.683859
-0.73298067 2.0028286 1.6364861
-0.89482033 2.4424562 1.6141773
-0.90876329 2.4765232 1.3069443
-0.88597643 2.4118419 0.98340839
-0.86401379 2.3495405 0.69449651
-0.83954662 2.2817905 0.43132189
-0.81665421 2.2172043 0.18898953
0.0016575003 0.059978675 5.4390664
-0.44099781 1.3083693 8.7774858
-0.62103981 1.8047289 9.1993933
-0.95167506 2.7063301 9.2183027
-0.32834688 0.92318213 2.3679171
-0.41419628 1.1570905 2.3195331
-1.0844477 3.0168431 4.781034
-1.1054325 3.0651917 3.9778244
-0.075084187 0.30549568 5.2806029
-0.11429323 0.40062964 3.8427839
-0.78237963 2.2560751 9.2311029
-0.37401354 1.0621341 3.1164114
-0.37074369 1.0436593 2.3538795
-1.0975158 3.0633054 4.3835464
-0.64459568 1.7941571 2.1450119
-0.63052183 1.7368782 1.8956068
-0.66474777 1.8282139 1.6509445
-0.82064623 2.2533622 1.6569057
-0.92302012 2.5317531 1.4971439
-0.90148401 2.4700222 1.1506605
-0.87920308 2.4063857 0.84299743
-0.85380286 2.3343503 0.56337792
-0.8320775 2.2725139 0.31020918
-0.61547822 1.7028584 1.6938356
-0.72598505 2.0053749 1.6364861
-0.88775772 2.4496176 1.6167104
-0.90475875 2.4924791 1.3132385
-0.88722867 2.4415493 0.99326944
-0.86411524 2.3753812 0.70035815
-0.84004509 2.3079741 0.43477526
-0.81746149 2.2435119 0.18999718
0.0018539419 0.059886228 5.4290667
-0.43667343 1.3106378 8.7824249
-0.61473638 1.8068857 9.1993933
-0.9427126 2.7110455 9.2230749
-0.32512239 0.92432266 2.3679171
-0.40855664 1.1540138 2.3107548
-1.0776807 3.0312161 4.7975659
-1.1108779 3.1143157 4.035387
-0.074814312 0.3091273 5.3405032
-0.11318024 0.40205315 3.8527269
-0.77449971 2.2587926 9.2311029
-0.36973652 1.0618035 3.1117187
-0.36709839 1.044947 2.3538795
-1.0908415 3.0784788 4.3995061
-0.64286906 1.8091743 2.1597126
-0.62686539 1.7457815 1.9026158
-0.65836209 1.8305231 1.6509445
-0.81135851 2.2522793 1.6541643
-0.92469609 2.5641296 1.5133755
-0.90387577 2.5036774 1.1637717
-0.87895012 2.4319973 0.85004753
-0.85400546 2.3604126 0.56804103
-0.83261943 2.2988164 0.31244457
-0.61581433 1.7225758 1.7104629
-0.71898055 2.0078969 1.6364861
-0.87920153 2.4527016 1.6167104
-0.90372109 2.5169797 1.3237287
-0.88828415 2.4712942 1.0031306
-0.86569238 2.4058242 0.70739204
-0.84037095 2.3341889 0.43822867
-0.81809497 2.2698517 0.19100484
0.0020497572 0.05979313 5.4190669
-0.43233863 1.3128922 8.787364
-0.60842538 1.8090205 9.1993933
-0.93324351 2.7143197 9.2230749
-0.3218939 0.92545193 2.3679171
-0.4021523 1.1486512 2.2975879
-1.0885595 3.0960181 4.8926234
-1.1095963 3.1453788 4.0699244
-0.073669367 0.3091054 5.3355117
-0.11219997 0.40398771 3.8676412
-0.76661032 2.2614822 9.2311029
-0.36602786 1.0630876 3.1117187
-0.36416268 1.0482786 2.3583806
-1.4083741 4.0349054 7.0605407
-1.0840747 3.0936427 4.4154663
-1.0905837 3.1035843 3.644479
-0.63508809 1.7882868 1.9446703
-0.6519683 1.8328102 1.6509445
-0.80068487 2.2472198 1.6486813
-0.92615718 2.5965483 1.5296072
-0.90448439 2.5330126 1.17501
-0.88014382 2.4621537 0.85850781
-0.85403633 2.3865047 0.57270414
-0.83298761 2.3251495 0.31467995
-0.61726481 1.7458367 1.7304161
-0.7133165 2.0142043 1.6394293
-0.8720752 2.4598191 1.6192437
-0.91163564 2.5671644 1.3468072
-0.88914263 2.501076 1.0129915
-0.86706752 2.4363072 0.71442592
-0.84218502 2.365099 0.44237274
-0.81855434 2.2962227 0.19201249
0.0022517035 0.059742503 5.4140673
-0.42823356 1.3158711 8.7972422
-0.60210705 1.8111333 9.1993933
-0.9237631 2.7175608 9.2230749
-0.31929657 0.92841744 2.3725195
-0.39735705 1.1477847 2.2931986
-1.0962267 3.1529591 4.9752822
-1.112334 3.188576 4.119812
-0.072783291 0.31020486 5.3504863
-0.1112076 0.40592039 3.882556
-0.75831228 2.2629526 9.226263
-0.36175892 1.0627251 3.1070261
-0.36120826 1.0516022 2.3628819
-1.4453299 4.1877179 7.3164968
-1.0762287 3.1059494 4.4274364
-1.1186872 3.219455 3.7731099
-0.62766033 1.7871282 1.9411659
-0.64556664 1.8350748 1.6509445
-0.79005659 2.2421136 1.6431984
-0.92740303 2.6290078 1.5458387
-0.90644276 2.5667541 1.1881212
-0.88273638 2.49687 0.86837798
-0.85553432 2.4172559 0.57829988
-0.83318216 2.3515134 0.31691536
-0.61732799 1.7656034 1.7470435
-0.7062813 2.0166821 1.6394293
-0.86490971 2.4669158 1.6217768
-0.91469932 2.6045883 1.3635917
-0.88980412 2.530894 1.0228527
-0.86824012 2.4668283 0.72145987
-0.84214848 2.3913786 0.44582614
-0.82050067 2.3273363 0.19322167
0.0024325969 0.059561949 5.3940678
-0.42411304 1.3188375 8.8071213
-0.59578139 1.813224 9.1993933
-0.91427147 2.7207687 9.2230749
-0.31668252 0.9313761 2.3771222
-0.39179733 1.1446328 2.2844205
-1.0989357 3.1966844 5.0372767
-1.1095579 3.21668 4.1505122
-0.071953908 0.31158355 5.3704529
-0.11020308 0.40785098 3.8974702
-0.75040853 2.2655859 9.226263
-0.35749701 1.0623457 3.1023331
-0.35823503 1.0549182 2.367383
-1.4787085 4.3334303 7.5596547
-1.0692866 3.1210897 4.4433966
-1.1162543 3.2489901 3.8025112
-1.040236 2.9953768 3.1957932
-0.63915712 1.8373171 1.6509445
-0.78084946 2.2409091 1.6404569
-0.92843354 2.6615076 1.5620704
-0.9081766 2.6005397 1.2012324
-0.88351411 2.527106 0.87683815
-0.855205 2.4434094 0.58296293
-0.83484942 2.3826063 0.31959784
-0.61848056 1.7889208 1.7669965
-0.69923747 2.0191352 1.6394293
-0.8562932 2.4699199 1.6217768
-0.9190014 2.6463516 1.3824742
-0.89181846 2.5652068 1.0343572
-0.86921018 2.4973874 0.72849375
-0.84356743 2.4223638 0.44997025
-0.82059503 2.3537736 0.19422933
0.0026687263 0.059725326 5.4140673
-0.41927177 1.3195692 8.8021812
-0.58976263 1.8162609 9.2042875
-0.90429819 2.7225268 9.2183027
-0.31467381 0.93617982 2.386327
-0.387032 1.1437248 2.2800314
-1.0841486 3.1898432 5.0207448
-1.1076337 3.2478366 4.1850495
-0.070678376 0.31098726 5.3554783
-0.10905053 0.40926403 3.9074132
-0.74171376 2.2658024 9.2165852
-0.35378653 1.0635872 3.1023331
-0.35524306 1.0582261 2.3718843
-1.5310931 4.5387349 7.9051952
-1.0612851 3.1333652 4.4553661
-1.1179898 3.2913873 3.8466129
-1.089996 3.1743839 3.3780298
-0.63273978 1.839537 1.6509445
-0.77166045 2.2396677 1.6377153
-0.92780381 2.6898584 1.5759832
-0.90968543 2.6343682 1.2143437
-0.88409126 2.5573773 0.88529837
-0.85631019 2.4742324 0.58855867
-0.83630967 2.413739 0.32228032
-0.61947781 1.8122673 1.7869495
-0.6921851 2.0215638 1.6394293
-0.84906417 2.4769719 1.62431
-0.9215492 2.6838837 1.3992586
-0.89360422 2.5995641 1.0458617
-0.8699773 2.5279827 0.73552763
-0.84478015 2.4533873 0.45411432
-0.82051468 2.3802395 0.19523698
0.0028051012 0.059285317 5.3640695
-0.41698793 1.3284389 8.8515739
-0.58341908 1.8183085 9.2042875
-0.89478922 2.7256668 9.2183027
-0.31325111 0.94283473 2.4001346
-0.3830373 1.1450689 2.2800314
-1.3149714 3.9138372 6.136641
-1.1003855 3.2638326 4.2003994
-0.069653906 0.31151417 5.3604698
-0.10802355 0.41118994 3.922328
-0.73341334 2.2671814 9.2117462
-0.34953305 1.0631762 3.0976403
-0.35223231 1.0615258 2.3763855
-1.5449388 4.6331201 8.0587692
-1.0522544 3.1427658 4.4633465
-1.1172847 3.3274081 3.8833644
-1.09725 3.2322011 3.4341025
-0.62756783 1.8454195 1.6540829
-0.76248962 2.2383895 1.634974
-0.92841727 2.7224298 1.5922148
-0.91246688 2.6726258 1.2293279
-0.88601935 2.5922225 0.8951686
-0.85721034 2.5050926 0.59415436
-0.83594871 2.4401996 0.32451573
-0.61912429 1.8321052 1.8035771
-0.6864202 2.027796 1.6423724
-0.84179634 2.4840033 1.6268432
-0.92238712 2.7171681 1.413945
-0.89668024 2.6384358 1.0590098
-0.87210697 2.5632153 0.74373388
-0.84578621 2.4844482 0.45825839
-0.82025939 2.4067333 0.19624464
0.0031150565 0.059877269 5.4340663
-0.41349772 1.3335973 8.8762703
-0.57737601 1.8213046 9.2091827
-0.88526946 2.7287736 9.2183027
-0.31239495 0.95134735 2.4185448
-0.37903792 1.1463989 2.2800314
-1.333228 4.0145454 6.2854271
-1.0970925 3.2919803 4.2310996
-0.068566099 0.31175542 5.3604698
-0.10685217 0.4125973 3.932271
-0.72472978 2.267333 9.2020664
-0.34528679 1.0627486 3.0929477
-0.34852478 1.0627489 2.3763855
-1.5654906 4.7499485 8.2507362
-1.0441177 3.1550014 4.4753165
-1.1184773 3.369899 3.9274664
-1.1063826 3.2968695 3.4971845
-0.62112224 1.8475989 1.6540829
-0.75333709 2.2370746 1.6322324
-0.92739934 2.7508402 1.6061275
-0.91350955 2.7065418 1.2424392
-0.88617909 2.6225672 0.90362883
-0.85947967 2.5406423 0.60068274
-0.83701044 2.4714036 0.32719818
-0.6233713 1.8661282 1.8335066
-0.67933768 2.0301797 1.6423724
-0.83312035 2.4869268 1.6268432
-0.92300373 2.7504902 1.4286313
-0.8994956 2.6773603 1.0721579
-0.87245166 2.5938861 0.75076777
-0.84658587 2.5155458 0.46240246
-0.82142425 2.4379885 0.19745383
0.0033841226 0.060209889 5.4740653
-0.41043124 1.3402338 8.9108458
-0.57101494 1.8233089 9.2091827
-0.87573886 2.7318473 9.2183027
-0.3114832 0.95986545 2.4369547
-0.37503394 1.1477151 2.2800314
-1.3516746 4.1181016 6.4383464
-1.0876001 3.3018787 4.2387748
-0.06747745 0.31199285 5.3604698
-0.10567227 0.41400141 3.942214
-0.71605402 2.2674518 9.1923876
-0.34104773 1.0623041 3.0882547
-0.34481296 1.063959 2.3763855
-1.5892835 4.8793755 8.4640322
-1.0349716 3.164355 4.4832969
-1.1172736 3.4059956 3.9642181
-1.1060947 3.3345602 3.5322297
-0.6146692 1.8497558 1.6540829
-0.74552363 2.2396905 1.6322324
-0.91919184 2.7582629 1.6084462
-0.91579378 2.7448955 1.2574234
-0.88765752 2.6574945 0.91349906
-0.86151099 2.5762377 0.60721111
-0.83786452 2.5026443 0.32988065
-0.61802399 1.8718382 1.836832
-0.67224687 2.0325387 1.6423724
-0.82578927 2.493912 1.6293764
-0.92482764 2.7881575 1.4454159
-0.90056181 2.7118545 1.0836625
-0.87412614 2.6292024 0.75897402
-0.84717846 2.546679 0.46654654
-0.82238084 2.4692807 0.19866301
0.0036019329 0.06024066 5.4790645
-0.40709865 1.346121 8.9404812
-0.5646469 1.825291 9.2091827
-0.86619759 2.7348874 9.2183027
-0.31290075 0.9758305 2.4737751
-0.37102538 1.1490171 2.2800314
-1.3737552 4.2352185 6.6119299
-1.0780519 3.3117507 4.2464495
-0.06644652 0.31250918 5.3654613
-0.10448387 0.41540235 3.952157
-0.70738637 2.2675374 9.1827087
-0.33681604 1.0618432 3.0835621
-0.33976963 1.0610095 2.367383
-1.5890205 4.9370284 8.5536175
-1.0248463 3.1708157 4.487287
-1.1189673 3.4517996 4.0119953
-1.1133338 3.3960109 3.5918071
-0.61185187 1.8629842 1.6634983
-0.73900789 2.2462513 1.634974
-0.91510129 2.7782848 1.6177214
-0.91636932 2.7788942 1.2705346
-0.88890272 2.6924634 0.92336923
-0.86330408 2.6118777 0.61373943
-0.83851057 2.5339208 0.33256313
-0.62885833 1.9272283 1.8867146
-0.6651479 2.034873 1.6423724
-0.8157382 2.4926825 1.6268432
-0.92639977 2.8258703 1.4622003
-0.9028706 2.7508752 1.0968106
-0.87556452 2.6645617 0.7671802
-0.84911066 2.582551 0.47138131
-0.82312876 2.5006092 0.1998722
0.0037731442 0.060013078 5.4540653
-0.40217525 1.3467892 8.9355421
-0.55856937 1.8282248 9.2140779
-0.85664582 2.7378943 9.2183027
-0.30772328 0.97132915 2.4599674
-0.36774004 1.1525869 2.2844205
-1.3941753 4.3498588 6.7813811
-1.0684481 3.3215961 4.2541246
-0.065412804 0.31302211 5.3704529
-0.10341386 0.41731775 3.9670715
-0.69872695 2.2675903 9.1730309
-0.33207595 1.0597188 3.0741765
-0.33475107 1.0580379 2.3583806
-1.5946966 5.0146213 8.6773291
-1.0146884 3.1772439 4.4912767
-1.1141502 3.4782846 4.0377216
-1.1168597 3.4473734 3.6408708
-0.61015105 1.8799175 1.6760521
-0.73116249 2.2488174 1.634974
-0.9067688 2.7856743 1.6200403
-0.91815501 2.8173382 1.2855189
-0.89140242 2.7320337 0.93464959
-0.86485893 2.6475616 0.62026775
-0.83894831 2.5652318 0.33524561
-0.65804082 2.0371823 1.6423724
-0.80703211 2.4955146 1.6268432
-0.92771971 2.8636277 1.4789846
-0.90491772 2.7899444 1.1099586
-0.87676662 2.6999629 0.77538645
-0.84927237 2.6137574 0.47552541
-0.82366788 2.5319722 0.20108138
0.003998524 0.060085349 5.4640656
-0.39747161 1.3481848 8.9355421
-0.55218434 1.8301634 9.2140779
-0.84752423 2.7422941 9.2230749
-0.30491412 0.974262 2.46457
-0.36371452 1.1538635 2.2844205
-1.4070154 4.4432292 6.9177685
-1.0587884 3.3314149 4.2617998
-0.06431976 0.31324854 5.3704529
-0.10220666 0.41871256 3.9770145
-0.69044143 2.2688129 9.168191
-0.3278648 1.0592229 3.0694838
-0.32910824 1.0529664 2.344877
-1.5975056 5.0848494 8.7882433
-1.0044982 3.1836405 4.4952669
-1.1101846 3.5080097 4.0671229
-1.0972089 3.4274759 3.616339
-0.61071658 1.9042741 1.6948829
-0.72458714 2.255337 1.6377153
-0.89568299 2.7846055 1.6177214
-0.91826224 2.8514154 1.2986301
-0.89363658 2.7716537 0.94592983
-0.86617488 2.6832874 0.62679613
-0.83917761 2.5965767 0.33792809
-0.79898763 2.5079052 2.4254456
-0.6509257 2.0394669 1.6423724
-0.79700416 2.49421 1.62431
-0.93017089 2.9057508 1.4978671
-0.90670305 2.829061 1.1231067
-0.87773204 2.735404 0.78359264
-0.84922636 2.6449959 0.47966948
-0.82552695 2.568126 0.2024921
0.0042001279 0.060028151 5.4590654
-0.39232934 1.3480718 8.925663
-0.54608303 1.8330555 9.2189732
-0.83794665 2.7452359 9.2230749
-0.3009347 0.97345376 2.4599674
-0.36039639 1.1574129 2.2888095
-1.4183804 4.5340557 7.0500226
-1.0490735 3.3412066 4.269475
-0.063281506 0.31375444 5.3754449
-0.10099097 0.42010397 3.9869576
-0.68251759 2.2712095 9.168191
-0.32366118 1.0587106 3.064791
-0.32350492 1.0478681 2.3313732
-1.6067997 5.1775742 8.9375515
-0.99427563 3.1900043 4.4992566
-1.1050134 3.534514 4.0928493
-1.085238 3.4312849 3.616339
-0.61111945 1.9286575 1.7137135
-0.71671009 2.2578526 1.6377153
-0.88461584 2.7834935 1.6154027
-0.91814268 2.8855274 1.3117414
-0.89560479 2.811322 0.95721006
-0.86874455 2.7237344 0.63425708
-0.84071308 2.6326978 0.34105763
-0.80592114 2.5605404 2.4720025
-0.64380264 2.0417266 1.6423724
-0.78829288 2.4969771 1.62431
-0.92960191 2.9392705 1.5125535
-0.90822607 2.8682237 1.1362547
-0.8799296 2.7755182 0.79297125
-0.84897262 2.6762657 0.48381355
-0.82714349 2.6043227 0.20390283
0.0044178977 0.060055971 5.4640656
-0.38719264 1.3479393 8.9157839
-0.53996831 1.8359276 9.2238684
-0.82792813 2.7467148 9.2183027
-0.29753488 0.97449833 2.4599674
-0.35705787 1.160953 2.2931986
-1.4374354 4.6519012 7.2236066
-1.0393029 3.350971 4.2771497
-0.062185913 0.31397343 5.3754449
-0.099766828 0.42149201 3.9969006
-0.67458552 2.2735779 9.168191
-0.31896663 1.0565298 3.0554056
-0.31857592 1.0448263 2.3223708
-1.610116 5.2529707 9.0569983
-0.98402095 3.1963353 4.5032468
-1.1006707 3.5642636 4.1222506
-0.61135942 1.9530666 1.7325443
-0.71007544 2.2643304 1.6404569
-0.87356734 2.7823377 1.6130838
-0.91779602 2.9196723 1.3248526
-0.89730686 2.8510375 0.9684903
-0.8695659 2.7595463 0.6407854
-0.84050816 2.6641119 0.34374011
-0.80141222 2.5776 2.4853046
-0.63787383 2.0478208 1.6453156
-0.7782886 2.4955981 1.6217768
-0.93016368 2.977154 1.5293379
-0.91089648 2.911938 1.1510463
-0.88040489 2.8110418 0.80117744
-0.84851068 2.7075658 0.48795763
-0.8270216 2.6357949 0.20511201
0.0046190978 0.059997365 5.4590654
-0.38185006 1.3470399 8.9009676
-0.53384012 1.8387791 9.2287636
-0.81833535 2.7495883 9.2183027
-0.29356775 0.97366047 2.4553649
-0.35369906 1.1644841 2.2975879
-1.4466497 4.7403264 7.351728
-1.029477 3.3607078 4.2848248
-0.061143164 0.31447226 5.3804364
-0.098414585 0.42235714 4.0018721
-0.66664511 2.275919 9.168191
-0.31527674 1.0576367 3.0554056
-0.31367204 1.0417628 2.3133683
-1.6038586 5.2984982 9.1252527
-0.97373402 3.2026334 4.5072365
-1.1030562 3.6167245 4.1773777
-0.80151254 2.59708 2.750716
-0.61373568 1.9849378 1.7576519
-0.70216715 2.2667952 1.6404569
-0.86384982 2.7853701 1.6130838
-0.9185968 2.9582775 1.3398368
-0.90016663 2.8953795 0.98118061
-0.87014782 2.7953968 0.64731371
-0.84305745 2.705065 0.34731674
-0.79240984 2.5803816 2.4853046
-0.6319102 2.0538981 1.6482587
-0.76957268 2.4982996 1.6217768
-0.92913395 3.0107398 1.5440242
-0.91327262 2.9557054 1.1658379
-0.88207918 2.8512459 0.81055593
-0.84784061 2.7388947 0.4921017
-0.82816887 2.6720695 0.20652272
0.0048284992 0.059980877 5.4590654
-0.37630939 1.3453711 8.8812094
-0.52797908 1.8425891 9.238555
-0.80873251 2.7524278 9.2183027
-0.29016727 0.97467929 2.4553649
-0.35031992 1.1680058 2.3019767
-1.4869293 4.9339519 7.6410346
-1.0186677 3.3673487 4.288662
-0.060045078 0.31468377 5.3804364
-0.097175337 0.42373785 4.0118151
-0.65869665 2.2782319 9.168191
-0.31109601 1.0570753 3.0507126
-0.30879349 1.0386779 2.3043661
-1.588341 5.3140593 9.1423159
-0.96341527 3.2088993 4.5112267
-1.1031336 3.6627529 4.2251549
-0.78828341 2.5862164 2.7366979
-0.60907662 1.9945132 1.7639289
-0.69425029 2.2692323 1.6404569
-0.85282451 2.7841332 1.6107651
-0.92049843 3.0013554 1.3566941
-0.90131944 2.93519 0.99246091
-0.87193334 2.8359799 0.65477473
-0.84386599 2.7413082 0.35044628
-0.78231424 2.5795588 2.4819791
-0.62591195 2.0599589 1.651202
-0.76084721 2.5009706 1.6217768
-0.92655766 3.0400126 1.5566125
-0.91535407 2.9995244 1.1806295
-0.88348353 2.8914957 0.81993455
-0.84985769 2.7797229 0.49762714
-0.82907301 2.708384 0.20793344
0.0050378423 0.059963658 5.4590654
-0.37119794 1.3451786 8.8713322
-0.5218209 1.8454007 9.2434502
-0.79911983 2.7552342 9.2183027
-0.28676322 0.97568619 2.4553649
-0.34692049 1.1715181 2.306366
-1.5403194 5.1764627 8.004734
-1.0087419 3.3770266 4.2963371
-0.058946259 0.31489143 5.3804364
-0.096507691 0.42771643 4.0466156
-0.65074003 2.2805173 9.168191
-0.30740422 1.0581547 3.0507126
-0.30516595 1.0397495 2.3043661
-1.5705198 5.322073 9.1465826
-0.9539209 3.2180204 4.519207
-1.1029029 3.7088251 4.2729321
-0.77411205 2.5718777 2.7191751
-0.6189664 2.052526 1.8110057
-0.68511569 2.2676392 1.6377153
-0.84310091 2.7870932 1.6107651
-0.91942281 3.0356088 1.3698053
-0.90359724 2.9796338 1.0051512
-0.87201893 2.8719089 0.66130304
-0.84443146 2.7775896 0.35357583
-0.77116299 2.5751204 2.475328
-0.61987907 2.0660026 1.654145
-0.75335282 2.50774 1.62431
-0.92509627 3.0736504 1.571299
-0.91714054 3.0433931 1.1954211
-0.88602144 2.9364426 0.83048534
-0.85303116 2.8253391 0.50384325
-0.82973349 2.7447371 0.20934415
0.0052382685 0.059902981 5.4540653
-0.36486933 1.3404678 8.8318176
-0.51564944 1.8481916 9.2483444
-0.78949732 2.7580068 9.2183027
-0.28281161 0.97480482 2.4507625
-0.34350079 1.1750207 2.3107548
-1.5563443 5.2979054 8.1824503
-0.9987607 3.3866756 4.3040118
-0.057846725 0.31509528 5.3804364
-0.095585063 0.43065411 4.0714731
-0.64277565 2.2827749 9.168191
-0.3037087 1.0592213 3.0507126
-0.30092919 1.0387174 2.299865
-1.5475565 5.3124986 9.1209869
-0.94352829 3.2242227 4.5231967
-1.1023638 3.7549398 4.3207092
-0.7651298 2.5745642 2.7191751
-0.61513007 2.0658655 1.8204211
-0.67719603 2.2700169 1.6377153
-0.83336699 2.7900193 1.6107651
-0.92077565 3.0787735 1.3866626
-0.90557551 3.0241287 1.0178415
-0.8718642 2.9078727 0.66783142
-0.84475392 2.8139083 0.3567054
-0.76216942 2.5777965 2.475328
-0.6149596 2.0759051 1.6600313
-0.74459463 2.5103543 1.62431
-0.92341125 3.1073141 1.5859853
-0.91863191 3.0873108 1.2102127
-0.88825637 2.9814422 0.8410362
-0.85589647 2.8710105 0.51005942
-0.83015013 2.781127 0.21075487
0.005447336 0.059884328 5.4540653
-0.36099291 1.3447353 8.8515739
-0.50946498 1.8509622 9.2532396
-0.77986532 2.7607458 9.2183027
-0.27940717 0.97578609 2.4507625
-0.34006089 1.1785138 2.3151441
-1.5989684 5.5141168 8.5048208
-0.98782879 3.393219 4.3078494
-0.056796115 0.31557965 5.385428
-0.094643094 0.4335905 4.0963306
-0.6348033 2.2850049 9.168191
-0.30047908 1.0619355 3.0554056
-0.29670331 1.0376682 2.2953637
-1.5290031 5.3178682 9.1209869
-0.93310404 3.2303915 4.5271869
-1.0996289 3.7945831 4.361136
-0.76216173 2.5977516 2.7402024
-0.65511429 2.2285764 1.9553747
-0.66926801 2.2723668 1.6377153
-0.82362288 2.7929113 1.6107651
-0.92052549 3.1175382 1.401647
-0.90725416 3.0686736 1.0305318
-0.86728573 2.929739 0.6715619
-0.84624821 2.8550367 0.36028203
-0.75421268 2.5840256 2.4786537
-0.61224735 2.0935569 1.671804
-0.73703867 2.5170753 1.6268432
-0.92022473 3.1366487 1.5985737
-0.91982758 3.1312752 1.2250042
-0.89018768 3.0264926 0.85158712
-0.85845304 2.9167356 0.51627553
-0.83173501 2.8223453 0.21236712
0.0056654927 0.059907615 5.4590654
-0.35232443 1.3309633 8.7527885
-0.50300086 1.8527292 9.2532396
-0.77022374 2.7634513 9.2183027
-0.27653033 0.97863561 2.4553649
-0.33660078 1.1819969 2.3195331
-1.5835816 5.5331912 8.525485
-0.97686338 3.3997271 4.3116875
-0.055742834 0.31606057 5.3904195
-0.093681775 0.43652552 4.1211877
-0.62682331 2.2872066 9.168191
-0.29677039 1.0629779 3.0554056
-0.29307938 1.0386976 2.2953637
-1.5090071 5.3181553 9.1124544
-0.92182219 3.233629 4.5271869
-1.1003593 3.8472905 4.4162631
-0.715662 2.4663527 2.1530976
-0.66016465 2.270674 1.634974
-0.81386876 2.7957692 1.6107651
-0.92131299 3.1607885 1.4185042
-0.9099766 3.1178713 1.0446321
-0.87634414 2.9987593 0.68461853
-0.84746546 2.89621 0.36385867
-0.7606914 2.6404605 2.5285361
-0.61054027 2.1150987 1.6865199
-0.72824794 2.5196328 1.6268432
-0.91431987 3.1572795 1.6069659
-0.92072749 3.1752853 1.2397958
-0.89181501 3.0715921 0.86213791
-0.86070079 2.9625137 0.52249163
-0.83304214 2.8636084 0.21397936
0.0058745747 0.059887473 5.4590654
-0.3449325 1.3216587 8.6836395
-0.49653053 1.8544738 9.2532396
-0.76057279 2.7661231 9.2183027
-0.27363694 0.98147684 2.4599674
-0.33247274 1.1831647 2.3195331
-1.5963787 5.6524258 8.699069
-0.96586454 3.4062002 4.3155251
-0.054639235 0.31625322 5.3904195
-0.092592381 0.43893725 4.1410737
-0.61883563 2.2893808 9.168191
-0.29305813 1.0640074 3.0554056
-0.28886831 1.0376172 2.2908626
-1.4897311 5.3208785 9.1081886
-0.91134501 3.2397277 4.531177
-1.1034974 3.9098372 4.4824162
-0.75282764 2.6338699 2.7717433
-0.76812738 2.6821241 2.3319895
-0.65223449 2.2729647 1.634974
-0.80532795 2.8028505 1.6130838
-0.92437309 3.2129927 1.4391075
-0.91103864 3.1625152 1.0573224
-0.878124 3.0442786 0.69301218
-0.84840542 2.9374259 0.36743528
-0.76576412 2.6933801 2.5750933
-0.60869026 2.1366541 1.7012357
-0.72063076 2.526305 1.6293764
-0.90204614 3.1560879 1.6048678
-0.92133105 3.2193391 1.2545874
-0.89447731 3.1214123 0.87386107
-0.86263919 3.008342 0.52870774
-0.83407116 2.9049139 0.21559161
0.0060930368 0.059909198 5.4640656
-0.33877009 1.3168343 8.6441259
-0.49005419 1.8561956 9.2532396
-0.75052202 2.7673204 9.2135305
-0.27020928 0.98242605 2.4599674
-0.32834074 1.1843181 2.3195331
-1.6000534 5.7419972 8.8271904
-0.95483243 3.4126375 4.3193626
-0.053581629 0.31672689 5.3954115
-0.091594204 0.44186893 4.1659317
-0.61084044 2.291527 9.168191
-0.28934225 1.0650239 3.0554056
-0.28466827 1.0365198 2.2863612
-1.4704543 5.3235321 9.1039228
-0.90003073 3.2428894 4.531177
-1.0925709 3.9234629 4.4934416
-0.74750113 2.6502109 2.7857616
-0.7704038 2.7259908 2.3665125
-0.64429641 2.2752275 1.634974
-0.79553926 2.8056445 1.6130838
-0.92707986 3.2652564 1.459711
-0.91311169 3.2118185 1.0714227
-0.88094139 3.0945704 0.70233834
-0.84906799 2.9786832 0.37101194
-0.7593832 2.7068214 2.5850697
-0.61435342 2.1854601 1.7365535
-0.71180797 2.528805 1.6293764
-0.89102381 3.1592174 1.6048678
-0.92163819 3.2634351 1.2693789
-0.8954798 3.1666102 0.88441193
-0.864268 3.0542195 0.53492385
-0.83482182 2.9462614 0.21720386
0.0063117212 0.059930127 5.4690652
-0.33417138 1.3180089 8.6441259
-0.48357186 1.857895 9.2532396
-0.74008656 2.7670393 9.2039871
-0.2683121 0.98902011 2.4737751
-0.32483628 1.1877673 2.3239222
-1.6105806 5.8587961 8.9966412
-0.94376695 3.419039 4.3231997
-0.052475717 0.316912 5.3954115
-0.090471596 0.44427633 4.1858177
-0.60315722 2.2948611 9.1730309
-0.28562284 1.0660273 3.0554056
-0.28104839 1.0375072 2.2863612
-1.4518627 5.3286328 9.1039228
-0.88870543 3.2460113 4.531177
-0.73250949 2.63219 2.7647343
-0.76088357 2.7286634 2.3665125
-0.63635051 2.2774627 1.634974
-0.78574097 2.8084042 1.6130838
-0.93068343 3.3220413 1.4821874
-0.91485149 3.2611737 1.085523
-0.88341826 3.1449189 0.71166456
-0.84945261 3.0199804 0.37458858
-0.7399708 2.673471 2.5518146
-0.61644262 2.2226465 1.7630421
-0.70412982 2.5354278 1.6319095
-0.87999076 3.1623085 1.6048678
-0.92164862 3.3075724 1.2841705
-0.89748389 3.2165349 0.89613515
-0.86558694 3.1001446 0.54114002
-0.83663911 2.9924605 0.21901764
0.0065403744 0.05999279 5.4790645
-0.32825193 1.3138901 8.6095505
-0.47708365 1.8595716 9.2532396
-0.7300427 2.7681625 9.1992149
-0.2628395 0.98240119 2.4553649
-0.32131171 1.1912062 2.3283112
-1.601902 5.9078379 9.062768
-0.93182647 3.4223125 4.3231997
-0.051324505 0.31680804 5.3904195
-0.089436553 0.44720423 4.2106752
-0.59514296 2.2969522 9.1730309
-0.28189996 1.0670179 3.0554056
-0.27742514 1.038482 2.2863612
-1.4332534 5.3336682 9.1039228
-0.87736934 3.2490935 4.531177
-0.72331697 2.6347308 2.7647343
-0.7513541 2.731303 2.3665125
-0.62839675 2.2796702 1.634974
-0.77711165 2.8154004 1.6154027
-0.9326666 3.3744218 1.5027907
-0.91625762 3.3105798 1.0996233
-0.88424236 3.1905878 0.72005814
-0.85089076 3.0661144 0.37861225
-0.72473407 2.6544259 2.5318615
-0.61401331 2.2442784 1.7777578
-0.69527525 2.5378702 1.6319095
-0.87014824 3.1697373 1.6069659
-0.9226135 3.356302 1.3006057
-0.89915019 3.2665114 0.90785837
-0.86659563 3.1461155 0.54735613
-0.83548701 3.0290749 0.22042835
0.0067695426 0.060054589 5.4890647
-0.32384905 1.3157824 8.6144905
-0.47058964 1.8612256 9.2532396
-0.71962446 2.7678044 9.1896715
-0.25642025 0.97197807 2.4277496
-0.31776705 1.1946352 2.3327003
-1.5834508 5.9215488 9.0751677
-0.91987467 3.4255445 4.3231997
-0.050218329 0.31698525 5.3904195
-0.088280722 0.44960698 4.2305613
-0.58743232 2.3002336 9.1778698
-0.27817369 1.0679954 3.0554056
-0.27435273 1.0415492 2.2908626
-1.4152949 5.3411598 9.1081886
-0.86602253 3.2521365 4.531177
-1.222955 4.5766382 5.2137742
-0.71411556 2.6372397 2.7647343
-0.74079639 2.7301526 2.3633742
-0.62153244 2.2858846 1.6377153
-0.76727927 2.8180957 1.6154027
-0.93551463 3.431329 1.5252671
-0.91732991 3.3600352 1.1137238
-0.88605362 3.2410388 0.7293843
-0.85070229 3.1074922 0.38218892
-0.71255153 2.6461234 2.5218852
-0.68641222 2.5402815 1.6319095
-0.86026448 3.1771362 1.6090639
-0.92077804 3.3959632 1.3137537
-0.9004783 3.3165381 0.91958153
-0.86859214 3.1969099 0.55426294
-0.83671254 3.0753593 0.22224213
0.0069791316 0.060030591 5.4890647
-0.31925416 1.3169048 8.6144905
-0.46433586 1.8638449 9.2581348
-0.70958823 2.7688537 9.1848993
-0.25105998 0.96530384 2.4093397
-0.31420246 1.1980538 2.3370893
-1.5642059 5.9324827 9.0834341
-0.90791178 3.4287345 4.3231997
-0.049111534 0.31715864 5.3904195
-0.087109201 0.45200706 4.2504473
-0.57939947 2.3022702 9.1778698
-0.2740151 1.0672883 3.0507126
-0.27016845 1.0403934 2.2863612
-1.396642 5.3460679 9.1081886
-0.85466516 3.2551396 4.531177
-1.2682958 4.8136377 5.4747109
-0.69754553 2.6121519 2.7366979
-0.72623134 2.7139215 2.3476818
-0.61463231 2.292079 1.6404569
-0.75743765 2.8207569 1.6154027
-0.93436539 3.4748659 1.5421244
-0.91806787 3.4095378 1.1278241
-0.88752323 3.2915406 0.73871052
-0.85283136 3.1585207 0.38665971
-0.69947779 2.6341596 2.5085831
-0.63678569 2.3930357 1.8866546
-0.67754072 2.5426621 1.6319095
-0.8515107 3.1888895 1.6132599
-0.92111635 3.4447758 1.3301889
-0.9027251 3.3713086 0.93247694
-0.86896276 3.2429721 0.56047904
-0.83633024 3.1168635 0.22385438
0.0071478616 0.05983616 5.4690652
-0.31591675 1.323302 8.649065
-0.457827 1.8654544 9.2581348
-0.69918799 2.768419 9.175355
-0.24381003 0.95103413 2.3725195
-0.3106178 1.2014623 2.3414786
-1.5427802 5.9351826 9.0793009
-0.89593768 3.4318829 4.3231997
-0.048004143 0.31732813 5.3904195
-0.085922003 0.45440441 4.2703333
-0.57166189 2.3054988 9.1827087
-0.2702879 1.0682384 3.0507126
-0.26761425 1.0455481 2.2953637
-1.3786227 5.353436 9.1124544
-0.84329748 3.2581031 4.531177
-1.286428 4.9525681 5.6253924
-0.68479127 2.600776 2.7226796
-0.71377468 2.7051492 2.3382664
-0.61304069 2.3184655 1.6569057
-0.74758679 2.8233836 1.6154027
-0.92223018 3.4781063 1.5421244
-0.91970247 3.463722 1.1433344
-0.88738859 3.3373442 0.74710411
-0.85461438 3.2096014 0.39113048
-0.68649632 2.6221371 2.495281
-0.66866112 2.5450118 1.6319095
-0.84268522 3.2006202 1.6174561
-0.9114939 3.4571023 1.3334758
-0.90335965 3.4214351 0.94420016
-0.86902231 3.2890754 0.56669515
-0.83566821 3.1584015 0.22546662
0.0072842953 0.059514113 5.4340663
-0.31165075 1.3259096 8.6589432
-0.45131254 1.8670411 9.2581348
-0.68915981 2.7693944 9.1705837
-0.24288009 0.96135044 2.3955321
-0.30701321 1.2048601 2.3458676
-1.5227516 5.9432583 9.0834341
-0.88395274 3.4349895 4.3231997
-0.046855491 0.31720796 5.385428
-0.084815077 0.45732331 4.2951908
-0.56361067 2.3074801 9.1827087
-0.26614022 1.0675008 3.04602
-0.26555952 1.0528086 2.3088672
-1.3599273 5.3582153 9.1124544
-0.83117455 3.2581069 4.5271869
-1.3195809 5.1540823 5.8459024
-0.66854125 2.5755355 2.6946433
-0.69746882 2.6812556 2.3162973
-0.61549115 2.3610537 1.6843203
-0.73772675 2.8259761 1.6154027
-0.92649841 3.5440972 1.5683469
-0.9197548 3.5133181 1.1574347
-0.8894363 3.3926899 0.7573629
-0.85731554 3.2655489 0.39604837
-0.67360729 2.6100562 2.4819791
-0.65977323 2.5473301 1.6319095
-0.83378828 3.2123284 1.6216521
-0.92199129 3.5470989 1.3647026
-0.90365505 3.4716063 0.95592332
-0.87001854 3.3400106 0.57360196
-0.83598739 3.204807 0.22728041
0.0074919933 0.059488326 5.4340663
-0.30772024 1.3300176 8.6787004
-0.4447926 1.8686053 9.2581348
-0.6794886 2.7717831 9.1705837
-0.24093778 0.96788001 2.4093397
-0.30163947 1.2012784 2.3370893
-1.5019965 5.9485373 9.0834341
-0.87116921 3.4349473 4.3193626
-0.045747947 0.31736958 5.385428
-0.083500564 0.45919061 4.3101053
-0.55584651 2.3106556 9.1875477
-0.26241234 1.0684233 3.04602
-0.26555654 1.0685183 2.3403757
-1.341848 5.3654604 9.1167212
-0.81979662 3.2609885 4.5271869
-1.3430486 5.3230152 6.0296607
-0.65866297 2.5743985 2.6911387
-0.68907195 2.6874444 2.3194356
-0.61244881 2.3834372 1.6980277
-0.72896159 2.832824 1.6177214
-0.91759211 3.5607772 1.5739659
-0.92067063 3.567601 1.172945
-0.89110827 3.4480901 0.76762176
-0.85838878 3.3167329 0.40051913
-0.6617313 2.6015358 2.4720025
-0.78840327 3.0928407 2.407594
-0.65087736 2.5496178 1.6319095
-0.82144523 3.2108223 1.6195542
-0.92718345 3.618912 1.3893552
-0.903611 3.5218208 0.96764648
-0.86943823 3.3861954 0.57981807
-0.83723676 3.2560911 0.22929572
0.0077846977 0.059800345 5.4740653
-0.30531535 1.3409332 8.7429113
-0.43826726 1.8701464 9.2581348
-0.66980916 2.7741382 9.1705837
-0.24034791 0.98010015 2.4369547
-0.29916921 1.209299 2.3502567
-1.4812231 5.9537444 9.0834341
-0.85917366 3.4379675 4.3193626
-0.044639844 0.31752732 5.385428
-0.0826355 0.46367934 4.3498769
-0.54806703 2.3138049 9.1923876
-0.25868124 1.0693328 3.04602
-0.26389483 1.077897 2.3583806
-1.3231109 5.3701115 9.1167212
-0.80840862 3.2638302 4.5271869
-1.3489953 5.4263716 6.1399155
-0.65054446 2.5801401 2.6946433
-0.68064028 2.6936069 2.3225741
-0.61336333 2.4220419 1.722701
-0.71906877 2.835351 1.6177214
-0.90743935 3.5729451 1.5777119
-0.92121857 3.6219323 1.1884555
-0.89119172 3.4987822 0.77694792
-0.86034578 3.3727891 0.40543702
-0.64538455 2.5748556 2.4453986
-0.77169424 3.0720525 2.389935
-0.64302528 2.5560548 1.6344428
-0.80912286 3.2092693 1.6174561
-0.93188524 3.6908035 1.4140078
-0.90322727 3.5720766 0.97936964
-0.87097543 3.4420183 0.58741558
-0.83813804 3.3074224 0.23131102
0.0080904542 0.060153317 5.519063
-0.30182016 1.3472986 8.7774858
-0.43173653 1.8716649 9.2581348
-0.6601215 2.7764592 9.1705837
-0.2346333 0.97143763 2.4139423
-0.30061433 1.2336053 2.3941474
-1.4611014 5.9616113 9.0875664
-0.84640151 3.4378333 4.3155251
-0.043531191 0.31768122 5.385428
-0.080926001 0.4634397 4.3449059
-0.54055768 2.3181524 9.2020664
-0.25494701 1.0702293 3.04602
-0.26472104 1.0978588 2.3988914
-1.3043576 5.3746972 9.1167212
-0.79629666 3.2637048 4.5231967
-1.3631066 5.5660543 6.290597
-0.63981467 2.5754728 2.6876342
-0.67405468 2.7072973 2.3319895
-0.61806482 2.4769096 1.7583399
-0.71024108 2.8421416 1.6200403
-0.89721286 3.5850852 1.5814581
-0.92139828 3.6763108 1.2039658
-0.89212775 3.5542808 0.78720677
-0.8607077 3.4240689 0.40990782
-0.63639271 2.5770929 2.4453986
-0.76193714 3.078651 2.3928783
-0.63306201 2.5540996 1.6319095
-0.79572719 3.2032647 1.6132599
-0.93495625 3.7581894 1.437017
-0.9048537 3.6318052 0.99343747
-0.87213343 3.4978924 0.59501302
-0.83869112 3.358799 0.23332633
0.0082566496 0.059955742 5.499064
-0.29945308 1.3589677 8.8466349
-0.42520058 1.8731605 9.2581348
-0.65042585 2.7787466 9.1705837
-0.23033738 0.96844929 2.4047372
-0.30245206 1.2602652 2.4424274
-1.4402826 5.9666753 9.0875664
-0.83364075 3.4376516 4.3116875
-0.042385332 0.31754491 5.3804364
-0.079041928 0.46214238 4.3299909
-0.53274357 2.3212502 9.2069063
-0.25120965 1.0711128 3.04602
-0.26088721 1.0987761 2.3988914
-1.2861947 5.3817539 9.1209869
-0.78489935 3.2664645 4.5231967
-1.3683101 5.6729441 6.4045277
-0.63760191 2.6054032 2.7156706
-0.68036151 2.7738986 2.3853433
-0.62338877 2.5359001 1.7967205
-0.70031583 2.8446035 1.6200403
-0.88691258 3.5971978 1.5852042
-0.9200595 3.7260766 1.2180661
-0.8926872 3.609828 0.79746562
-0.86072195 3.4753919 0.41437858
-0.62651074 2.5756705 2.4420731
-0.7521432 3.0852189 2.3958213
-0.6251651 2.5604818 1.6344428
-0.78346223 3.2016144 1.6111619
-0.93756783 3.8256397 1.460026
-0.90259826 3.6774261 1.0039884
-0.874093 3.5586245 0.60330123
-0.8388955 3.4102192 0.23534164
0.0084658843 0.059926558 5.499064
-0.29454324 1.3592452 8.8416958
-0.41865945 1.8746333 9.2581348
-0.64072227 2.7810001 9.1705837
-0.22606522 0.9654429 2.3955321
-0.29805106 1.2613133 2.4424274
-1.4194461 5.9716663 9.0875664
-0.82089156 3.4374232 4.3078494
-0.041276637 0.31769091 5.3804364
-0.077167913 0.46083766 4.3150768
-0.52519119 2.3255479 9.2165852
-0.24746925 1.071983 3.04602
-0.25754544 1.1018 2.4033928
-1.267401 5.3862109 9.1209869
-0.77279878 3.2662523 4.519207
-1.3837506 5.8261137 6.5699096
-0.63101006 2.6180136 2.7261841
-0.67341644 2.7876072 2.3947587
-0.62043667 2.5624447 1.8131692
-0.69038206 2.8470306 1.6200403
-0.87763268 3.6137865 1.5908233
-0.92065173 3.7851996 1.2349865
-0.89403194 3.6701941 0.80865705
-0.86038828 3.5267558 0.41884938
-0.6218648 2.5959971 2.4587004
-0.73193336 3.0485222 2.3663898
-0.61723137 2.5668397 1.6369759
-0.7712183 3.1999176 1.6090639
-0.93971992 3.8931544 1.4830352
-0.90688783 3.7514226 1.0215731
-0.87331021 3.6097863 0.61020797
-0.83992743 3.4665365 0.23755848
0.0086525632 0.059812319 5.4890647
-0.29092857 1.3655851 8.8762703
-0.41211322 1.8760833 9.2581348
-0.63101083 2.7832198 9.1705837
-0.22137837 0.96051472 2.3817246
-0.29527369 1.2693443 2.4555948
-1.3992337 5.9793248 9.0916996
-0.80815411 3.4371471 4.3040118
-0.040202115 0.31811965 5.385428
-0.075473867 0.46057796 4.3101053
-0.51734269 2.328594 9.2214241
-0.24372582 1.0728403 3.04602
-0.25272211 1.098449 2.3943901
-1.2485919 5.3906021 9.1209869
-0.76139271 3.26893 4.519207
-1.452167 6.2105389 6.9925542
-0.62680835 2.6410196 2.7472115
-0.66728461 2.8050876 2.4073124
-0.64252019 2.6947522 1.9008961
-0.68146867 2.8537319 1.622359
-0.86716956 3.6258457 1.5945694
-0.91525513 3.8210459 1.2448567
-0.89496601 3.7306135 0.81984848
-0.86086971 3.5830019 0.42376727
-0.61708456 2.6163225 2.475328
-0.70919937 2.999922 2.3281288
-0.61621296 2.6025374 1.6572415
-0.7600438 3.20259 1.6090639
-0.94141179 3.9607296 1.5060444
-0.90842044 3.816036 1.0368133
-0.8744759 3.6706197 0.61849618
-0.83709782 3.5083234 0.23917073
0.008861294 0.059781749 5.4890647
-0.28711417 1.3711556 8.9059067
-0.40556192 1.8775104 9.2581348
-0.62129176 2.7854054 9.1705837
-0.21759239 0.95937628 2.3771222
-0.29030678 1.2680327 2.4512055
-1.3783535 5.9841728 9.0916996
-0.79542875 3.4368248 4.3001747
-0.039091427 0.31825805 5.385428
-0.073283903 0.45715287 4.2753048
-0.5092113 2.3303857 9.2214241
-0.23997942 1.0736846 3.04602
-0.24840586 1.0972012 2.389889
-1.2297676 5.3949275 9.1209869
-0.74930418 3.2686307 4.5152168
-1.511833 6.5690761 7.3857965
-0.61596298 2.636246 2.7402024
-0.65038908 2.7770815 2.3822048
-0.67150319 2.8560932 1.622359
-0.85769534 3.6423881 1.6001885
-0.92283279 3.9129276 1.2716473
-0.89661825 3.7958636 0.83197254
-0.86096883 3.6392932 0.42868513
-0.61385864 2.6439199 2.4986067
-0.70422006 3.026 2.3457878
-0.61299574 2.6298621 1.6724405
-0.74782759 3.2008042 1.6069659
-0.945871 4.0421572 1.5339841
-0.90507638 3.8617752 1.0473641
-0.8684426 3.7025771 0.62264025
-0.83512914 3.554996 0.2409845
0.0090583954 0.059708368 5.4840646
-0.28279531 1.3744328 8.9207239
-0.39900574 1.8789147 9.2581348
-0.61156505 2.7875571 9.1705837
-0.2121163 0.9505958 2.3541093
-0.28693098 1.2737112 2.4599836
-1.3580784 5.9916916 9.0958319
-0.78342712 3.4395807 4.3001747
-0.03801294 0.31867939 5.3904195
-0.072662987 0.46372777 4.3349628
-0.50133753 2.3333781 9.226263
-0.23585984 1.0728302 3.0413272
-0.24410135 1.0959368 2.3853879
-1.2114991 5.4017324 9.1252527
-0.73789001 3.2712264 4.5152168
-1.5180956 6.7032642 7.5291276
-0.60915458 2.6488068 2.750716
-0.64069128 2.7793348 2.3822048
-0.79877889 3.4569542 2.4108088
-0.66152948 2.8584199 1.622359
-0.84811616 3.6589084 1.6058075
-0.9276104 3.9955628 1.2956179
-0.8989383 3.8659551 0.84502923
-0.86181486 3.7004786 0.43405008
-0.60462588 2.6460466 2.4986067
-0.69906741 3.0520802 2.3634467
-0.61537832 2.6824057 1.7028385
-0.73665011 3.2033951 1.6069659
-0.94659328 4.109858 1.556993
-0.91562742 3.9691079 1.073155
-0.87779236 3.802089 0.63645387
-0.8283425 3.582227 0.24199216
0.0092550945 0.059634339 5.4790645
-0.27814966 1.3761733 8.925663
-0.39244467 1.880296 9.2581348
-0.60183096 2.7896748 9.1705837
-0.21130793 0.96278024 2.3817246
-0.28351909 1.2793816 2.4687617
-1.3377676 5.9991422 9.0999651
-0.77071518 3.4391663 4.2963371
-0.036931992 0.31909707 5.3954115
-0.071679302 0.46819541 4.3747349
-0.49318948 2.3351138 9.226263
-0.23211351 1.073647 3.0413272
-0.24027434 1.0967821 2.3853879
-1.1926361 5.4059286 9.1252527
-0.72581404 3.2708404 4.5112267
-1.5219651 6.8309565 7.6651092
-0.59833074 2.6439602 2.7437069
-0.62840259 2.7701664 2.3727894
-0.78299862 3.4434121 2.399843
-0.65154767 2.8607118 1.622359
-0.83843207 3.6754057 1.6114266
-0.93075359 4.0736012 1.3181784
-0.9007796 3.9361076 0.85808587
-0.86113143 3.7568593 0.43896794
-0.59374791 2.6408553 2.4919558
-0.69462973 3.0821033 2.3840487
-0.62024891 2.7476125 1.7408363
-0.72546375 3.2059469 1.6069659
-0.93224144 4.1131372 1.556993
-0.9189837 4.0481205 1.0919122
-0.86561239 3.8099587 0.63714451
-0.84022111 3.6922674 0.24642584
0.0094513856 0.059559669 5.4740653
-0.27319315 1.3763736 8.9207239
-0.38608325 1.882652 9.2630301
-0.59208953 2.7917585 9.1705837
-0.21041705 0.9749704 2.4093397
-0.28109068 1.289724 2.4863181
-1.3168185 6.0037756 9.0999651
-0.7587055 3.4418359 4.2963371
-0.03581791 0.31922406 5.3954115
-0.070044562 0.46844277 4.3747349
-0.48503545 2.3368211 9.226263
-0.22836438 1.0744507 3.0413272
-0.2359862 1.095486 2.3808868
-1.1743116 5.4126077 9.1295185
-0.71374977 3.2704098 4.5072365
-1.530041 6.9819369 7.8268161
-0.588323 2.6425519 2.7402024
-0.6161859 2.7609468 2.3633742
-0.7709741 3.4461243 2.399843
-0.64058936 2.8586459 1.6200403
-0.82559735 3.6783099 1.6114266
-0.93231094 4.1470294 1.339329
-0.90214205 4.00632 0.87114257
-0.86006474 3.8132794 0.4438858
-0.584526 2.6429119 2.4919558
-0.69349027 3.1279173 2.4164236
-0.62560612 2.8170936 1.7813672
-0.71426845 3.2084599 1.6069659
-0.92609972 4.1532373 1.5701411
-0.92391819 4.1366911 1.1130139
-0.87499332 3.9144461 0.65164882
-0.84151745 3.7585559 0.24904574
0.0096592316 0.059526317 5.4740653
-0.26838705 1.3773189 8.9207239
-0.37950918 1.8839881 9.2630301
-0.5826453 2.7952695 9.175355
-0.20944361 0.98716605 2.4369547
-0.27708864 1.2930392 2.4907072
-1.2964466 6.011086 9.1040983
-0.74668664 3.4444633 4.2963371
-0.034703389 0.31934714 5.3954115
-0.068787731 0.47132266 4.3995924
-0.47687545 2.3385 9.226263
-0.22461246 1.0752413 3.0413272
-0.23261155 1.0984328 2.3853879
-1.155411 5.4166737 9.1295185
-0.70232964 3.2728813 4.5072365
-1.5335106 7.1164846 7.9701476
-0.57375592 2.6202033 2.7156706
-0.60487562 2.7554772 2.3570971
-0.75894022 3.4487946 2.399843
-0.63251394 2.8695166 1.6246779
-0.81175327 3.6766427 1.6095537
-0.93440247 4.2252007 1.3618895
-0.90408742 4.0813847 0.88513184
-0.85753572 3.8648758 0.4483566
-0.57291639 2.6339905 2.4819791
-0.68170655 3.1263697 2.4134803
-0.62864608 2.8782215 1.8168316
-0.70403516 3.2153668 1.6090639
-0.91867793 4.1887336 1.5816457
-0.9261595 4.2158494 1.131771
-0.88046485 4.0045342 0.66408104
-0.8445102 3.834656 0.2520687
0.0098548504 0.059450317 5.4690652
-0.2637234 1.3790106 8.925663
-0.37293053 1.8853015 9.2630301
-0.57288444 2.7972863 9.175355
-0.20400392 0.97832829 2.4139423
-0.27109304 1.2869678 2.47754
-1.2754561 6.0155749 9.1040983
-0.73399061 3.4439139 4.2924995
-0.033559777 0.31917906 5.3904195
-0.066550806 0.46733662 4.3598204
-0.46870965 2.3401504 9.226263
-0.2208578 1.0760188 3.0413272
-0.22877589 1.099238 2.3853879
-1.1364962 5.4206738 9.1295185
-0.69027901 3.2723649 4.5032468
-1.5613505 7.3705368 8.2457848
-0.56160378 2.6082447 2.7016525
-0.59196866 2.7423532 2.3445435
-0.7495501 3.4636831 2.4080672
-0.62249357 2.871707 1.6246779
-0.79694718 3.6703932 1.6058075
-0.93595958 4.3034363 1.38445
-0.90656513 4.1613102 0.90005374
-0.86315072 3.9554238 0.456404
-0.56059557 2.6213694 2.468677
-0.67163658 3.1326826 2.4164236
-0.62945658 2.9309752 1.8472298
-0.69280714 3.2178047 1.6090639
-0.90006888 4.17345 1.5750718
-0.92683297 4.2903228 1.1493558
-0.88427156 4.0898671 0.67582262
-0.84486669 3.9010561 0.25468862
0.010050057 0.059373677 5.4640656
-0.2590512 1.3806864 8.9306021
-0.36634734 1.8865917 9.2630301
-0.56341088 2.8007326 9.1801271
-0.20293868 0.99051815 2.4415574
-0.2670843 1.2902516 2.4819291
-1.2544501 6.0199904 9.1040983
-0.7219646 3.446455 4.2924995
-0.032445431 0.31929427 5.3904195
-0.064630821 0.46545348 4.3399343
-0.46053815 2.3417721 9.226263
-0.21710043 1.0767831 3.0413272
-0.22537333 1.1021628 2.389889
-1.1175675 5.4246082 9.1295185
-0.6782406 3.2718039 4.4992566
-1.5888165 7.6315045 8.5287724
-0.54732692 2.5857663 2.6771207
-0.57996869 2.73298 2.3351281
-0.74441564 3.4989974 2.4299991
-0.61800534 2.8998575 1.6385907
-0.78219467 3.6640854 1.6020615
-0.93698168 4.3817334 1.4070104
-0.90952462 4.2461052 0.91590834
-0.86605453 4.0363193 0.4635573
-0.54836982 2.6086946 2.4553752
-0.6606974 3.1350079 2.4164236
-0.68157065 3.2202034 1.6090639
-0.88549531 4.1765666 1.5750718
-0.92901713 4.3743596 1.1692852
-0.88646334 4.1704307 0.6868735
-0.84476978 3.9675045 0.25730851
0.010257249 0.059338234 5.4640656
-0.25465134 1.3838749 8.9454203
-0.35975969 1.887859 9.2630301
-0.55420941 2.8056109 9.1896715
-0.20448689 1.0161197 2.5013902
-1.2334287 6.0243325 9.1040983
-0.70928371 3.4458146 4.288662
-0.03130402 0.31911811 5.385428
-0.063005693 0.46567625 4.3399343
-0.45236102 2.3433654 9.226263
-0.21367532 1.0792273 3.04602
-0.22238153 1.1072116 2.3988914
-1.0991424 5.4310317 9.1337843
-0.66621441 3.2711987 4.4952669
-1.5839076 7.743288 8.6463776
-0.53757131 2.5841696 2.6736159
-0.57280916 2.746419 2.3445435
-0.7364763 3.5220394 2.4437065
-0.62150139 2.9670329 1.6733727
-0.76749581 3.6577189 1.5983154
-0.93845505 4.4647837 1.430981
-0.91190284 4.3309708 0.93176287
-0.86840367 4.1172824 0.47071058
-0.534729 2.5886533 2.4354222
-0.64975017 3.137295 2.4164236
-0.67125016 3.2270067 1.6111619
-0.86994773 4.1750093 1.5734282
-0.92963243 4.4537048 1.1880422
-0.8870905 4.2462106 0.69723368
-0.84626573 4.0437789 0.26033148
0.01045177 0.059260279 5.4590654
-0.25009462 1.3862847 8.9552994
-0.35298064 1.8881024 9.2581348
-0.54469669 2.8089941 9.1944427
-0.21115723 1.0685767 2.6256583
-0.336842 1.6866571 3.2192943
-1.2123924 6.0286012 9.1040983
-0.69598091 3.4419861 4.2809873
-0.030189898 0.31922546 5.385428
-0.4441784 2.3449302 9.226263
-0.20990683 1.0799665 3.04602
-0.21767335 1.1037095 2.389889
-1.0801779 5.4348354 9.1337843
-0.65420073 3.2705495 4.4912767
-1.6009417 7.9681373 8.8889389
-0.52854764 2.5860302 2.6736159
-0.57181346 2.7903454 2.3790665
-0.73006815 3.5532596 2.4628966
-0.62542886 3.0386059 1.7104735
-0.75472337 3.6603758 1.5983154
-0.94033021 4.5525947 1.4563617
-0.91369957 4.415904 0.94761741
-0.8691873 4.1934333 0.47741672
-0.52346218 2.5795264 2.4254456
-0.63879496 3.139544 2.4164236
-0.78382522 3.8455572 2.3918631
-0.66179919 3.2382233 1.6153581
-0.85536891 4.1780205 1.5734282
-0.93263459 4.5473919 1.2103162
-0.88919085 4.3317466 0.70897526
-0.84623319 4.1152182 0.26315293
0.010658563 0.059223432 5.4590654
-0.24565922 1.3894447 8.9701166
-0.3463878 1.889323 9.2581348
-0.53544605 2.8138111 9.2039871
-0.21151537 1.0904047 2.676286
-0.33325583 1.699574 3.2412398
-1.1913413 6.0327964 9.1040983
-0.68333763 3.4412508 4.2771497
-0.029050753 0.31904128 5.3804364
-0.43621984 2.3477023 9.2311029
-0.20645882 1.0823878 3.0507126
-0.21133827 1.0916387 2.3628819
-1.0612001 5.4385729 9.1337843
-0.64219987 3.2698565 4.487287
-1.5895221 8.0568285 8.9808178
-0.52021933 2.591356 2.6771207
-0.56974995 2.8304822 2.4104509
-0.72096938 3.5721817 2.4738624
-0.62271911 3.0798481 1.7313428
-0.74102134 3.6584442 1.5964423
-0.9396956 4.6310692 1.4789221
-0.91589272 4.5057154 0.96440458
-0.86845601 4.2647595 0.48367587
-0.51445478 2.5813379 2.4254456
-0.62862402 3.1457183 2.4193666
-0.76955074 3.8440428 2.3893299
-0.65138477 3.2449634 1.6174561
-0.84077978 4.1809807 1.5734282
-0.93307394 4.6316228 1.2302456
-0.88678938 4.3979311 0.7179541
-0.84769034 4.1964993 0.26637742
0.010878064 0.059227567 5.4640656
-0.24120483 1.3925908 8.9849348
-0.33979073 1.8905206 9.2581348
-0.52616835 2.8185976 9.2135305
-0.2142792 1.1256828 2.7591317
-0.32732117 1.700727 3.2412398
-1.1702756 6.0369186 9.1040983
-0.67132127 3.4436152 4.2771497
