# .PCD v0.7 - Point Cloud Data file format
VERSION 0.7
FIELDS x y z
SIZE 4 4 4
TYPE F F F
COUNT 1 1 1
WIDTH 1550
HEIGHT 1
VIEWPOINT 0 0 0 1 0 0 0
POINTS 1550
DATA ascii
3.0038543 -1.6095169 21.664009
3.6071539 -1.903097 19.631123
4.5509062 -2.3617578 16.438314
7.0972457 -3.6520171 18.863363
10.969709 -5.5964761 18.159389
12.828098 -6.5276976 17.309315
1.053604 -0.69006276 21.618301
2.6976206 -1.6215221 29.311798
3.8055432 -1.9959817 16.58219
5.3933277 -2.7966328 16.575266
8.5267067 -4.3913946 19.895109
10.146575 -5.2055612 18.723604
11.916194 -6.0951052 17.798008
13.471404 -6.8757963 16.474478
14.289824 -7.2338996 15.819169
18.42989 -9.3055239 13.620664
20.223347 -10.202223 11.943337
22.111301 -11.144984 10.092519
10.322318 -5.189322 1.1301522
15.632277 -7.9409375 15.697516
16.904549 -8.5761147 13.885921
18.88847 -9.5743341 12.529645
20.93149 -10.596159 10.932809
10.860086 -5.4810638 0.5843932
0.042896599 -0.049624156 6.0840416
2.9982178 -1.6199924 21.664009
3.6058815 -1.9185466 19.660492
4.539989 -2.3762445 16.42877
7.0809865 -3.674969 18.854158
10.187297 -5.2601748 21.078457
10.910072 -5.6141319 18.093262
12.765311 -6.5519452 17.255589
1.0504667 -0.6932584 21.603327
2.6928556 -1.6314815 29.321739
3.7974415 -2.0086658 16.577349
5.386591 -2.8170416 16.58465
8.4978027 -4.4141073 19.863602
10.095915 -5.2241673 18.663881
11.766309 -6.0703487 17.606487
13.456364 -6.927433 16.485504
14.277191 -7.2902231 15.833187
16.039736 -8.1796494 14.600216
18.360033 -9.3508224 13.593248
20.215248 -10.286817 11.959569
21.923496 -11.146461 10.02509
10.219752 -5.1825275 1.1216576
15.551295 -7.9682136 15.644308
16.881704 -8.638752 13.891806
19.196535 -9.8148651 12.755098
20.801407 -10.621687 10.884554
10.823078 -5.5098724 0.58358705
0.042698409 -0.049737625 6.0790415
2.9918628 -1.6300765 21.659071
3.6045456 -1.9340106 19.689863
4.5303464 -2.3913805 16.423998
7.061192 -3.6960399 18.835749
10.177369 -5.300128 21.096014
10.905396 -5.6599593 18.118059
12.69682 -6.5728874 17.194189
1.0478001 -0.69676077 21.598335
2.6885087 -1.6417053 29.336657
3.7881889 -2.0207257 16.567671
6.167377 -3.2528672 19.015503
8.5112677 -4.4588971 19.93112
10.072992 -5.2569633 18.65535
11.723662 -6.100256 17.574566
13.465198 -6.9915476 16.52593
14.226293 -7.3269529 15.80515
15.952244 -8.2053223 14.546863
18.278931 -9.3900156 13.557611
20.23045 -10.383615 11.989714
21.880327 -11.220805 10.023217
10.183865 -5.2090983 1.1198692
15.466998 -7.9933081 15.587775
16.883774 -8.7143135 13.918294
19.257938 -9.9312086 12.818428
20.671402 -10.646437 10.836298
10.457128 -5.369617 0.56786764
0.042499948 -0.049850322 6.0740423
2.9847925 -1.6397617 21.649193
3.6040416 -1.9499733 19.724131
4.5193367 -2.4057772 16.414455
7.0430646 -3.7179294 18.821941
10.165168 -5.3389621 21.10918
10.905517 -5.7084317 18.151123
12.656753 -6.6082668 17.171165
1.0441635 -0.69960898 21.573376
3.780005 -2.0333412 16.562832
6.1498909 -3.2711339 18.996733
10.054581 -5.2920923 18.65535
11.680953 -6.129941 17.542646
13.464736 -7.0510888 16.55533
14.20696 -7.3798552 15.81216
15.899321 -8.2484093 14.524894
18.168076 -9.4133663 13.500039
20.198013 -10.456204 11.992032
21.709261 -11.228958 9.9632797
10.099235 -5.2103658 1.1131631
15.392649 -8.0230885 15.541219
16.849667 -8.7713289 13.915352
19.349361 -10.064013 12.902022
20.55759 -10.678778 10.796435
10.251996 -5.3095875 0.55940336
0.042325683 -0.049998369 6.0740423
2.9790504 -1.6501707 21.649193
3.6025758 -1.9654683 19.753502
4.5082812 -2.4201257 16.404911
7.021421 -3.737901 18.798929
9.2406445 -4.8946004 19.230654
10.892989 -5.7504053 18.163521
12.593904 -6.6314998 17.117439
1.041476 -0.70308769 21.568386
2.6828697 -1.6640892 29.401283
3.7706742 -2.0453246 16.553152
6.1429968 -3.295028 19.010811
8.608654 -4.5867949 20.2327
10.047565 -5.3332715 18.676678
11.619534 -6.1495347 17.482796
14.21902 -7.4492612 15.854214
18.057281 -9.436059 13.442469
21.587727 -11.261785 9.9258194
10.080985 -5.2455869 1.1131631
15.308365 -8.0472345 15.484685
16.865471 -8.854517 13.953613
19.314114 -10.131494 12.902022
20.443806 -10.710455 10.756573
10.034129 -5.2412539 0.55033445
0.042175226 -0.050182026 6.0790415
2.9732721 -1.6605594 21.649193
3.6010454 -1.9809766 19.782873
4.4958673 -2.4337156 16.390594
7.006609 -3.7614634 18.794325
9.2235022 -4.9268265 19.230654
10.902658 -5.8042631 18.213118
12.536708 -6.6573806 17.071388
1.0404463 -0.70769489 21.598335
2.6698141 -1.6689205 29.321739
3.7613063 -2.0572677 16.543472
6.1147618 -3.3074198 18.95919
10.040384 -5.3744655 18.698009
11.576732 -6.1787066 17.450876
13.62763 -7.2580686 16.816269
14.21185 -7.5088458 15.875241
15.961832 -8.4227829 14.634739
17.953951 -9.4619932 13.390381
21.433407 -11.276631 9.8733749
15.224101 -8.0708914 15.428151
16.877325 -8.9360313 13.988931
19.255768 -10.186757 12.886824
20.33005 -10.741467 10.716709
9.7638264 -5.1435237 0.53884721
0.041999798 -0.05032894 6.0790415
2.9681344 -1.6713091 21.654131
3.5976701 -1.9955102 19.802454
4.484725 -2.447964 16.381052
6.9882827 -3.7831078 18.780518
9.1640768 -4.936276 19.142872
10.899686 -5.8516026 18.242048
12.482311 -6.6844563 17.029177
1.0384455 -0.71164948 21.608318
3.7519011 -2.0691702 16.533794
6.1046944 -3.3295705 18.963882
8.52283 -4.617744 20.106667
10.046807 -5.4231076 18.744934
11.571012 -6.2276473 17.474815
13.599225 -7.3039894 16.812593
14.223319 -7.5785322 15.917295
15.660885 -8.3339958 14.386801
17.835888 -9.4794703 13.327328
19.297113 -10.247462 11.523634
21.291534 -11.297058 9.8265486
15.074003 -8.0588503 15.305107
16.842464 -8.9929857 13.985988
19.220093 -10.25391 12.886824
20.356518 -10.846515 10.750278
9.807579 -5.2103891 0.54166859
0.04182386 -0.05047524 6.0790415
2.9480934 -1.6736026 21.550407
3.59868 -2.0125299 19.846512
4.473537 -2.4621642 16.371508
6.9904675 -3.8159034 18.821941
9.142581 -4.9659481 19.134094
10.90889 -5.9056897 18.291643
12.422239 -6.7081885 16.97929
1.0369045 -0.71592736 21.628284
3.743557 -2.0816433 16.528955
6.0869865 -3.347533 18.945112
8.5028381 -4.6453786 20.097664
10.027816 -5.4581442 18.744934
11.549204 -6.2679996 17.474815
14.225053 -7.6433263 15.948836
15.50823 -8.3223534 14.273817
17.751093 -9.5140171 13.288946
19.261227 -10.314759 11.523634
21.157957 -11.321007 9.7834692
14.759849 -7.9572668 15.015789
16.864355 -9.0804663 14.030134
18.265482 -9.826683 12.273794
20.34252 -10.930395 10.762867
9.7893324 -5.2445922 0.54166859
0.041671365 -0.050657399 6.0840416
2.9590917 -1.6935338 21.673887
3.0115986 -1.6979797 16.645033
4.4623046 -2.476316 16.361963
6.997643 -3.8515861 18.877171
10.905498 -5.9531717 18.320574
12.381858 -6.7423124 16.956264
1.034399 -0.7195425 21.628284
3.7340753 -2.0934687 16.519276
6.0737553 -3.3679235 18.94042
8.4903851 -4.6771317 20.106667
9.9675503 -5.4705281 18.668148
11.556331 -6.3241878 17.518705
13.152179 -7.1826372 16.323797
14.144982 -7.664053 15.88926
16.954493 -9.1748514 15.626492
17.655241 -9.5421238 13.242341
19.03801 -10.280896 11.412332
21.024473 -11.344161 9.7403898
14.551563 -7.9106579 14.832887
16.843212 -9.1450644 14.038964
18.06056 -9.7978792 12.159801
20.348137 -11.025121 10.785945
22.105181 -11.967162 8.837738
9.7314062 -5.2573595 0.53985482
0.041470464 -0.050765995 6.0790415
2.9632566 -1.7096785 21.747978
3.6110971 -2.0527015 19.993368
4.4510283 -2.4904194 16.352419
6.9909883 -3.8797812 18.89558
10.879722 -5.9884887 18.312307
1.0311725 -0.72265083 21.61331
3.7256513 -2.1058719 16.514437
6.0589495 -3.3874199 18.931034
8.4530725 -4.6951122 20.057154
9.8593979 -5.456038 18.501776
11.563205 -6.3805022 17.562595
13.18642 -7.261209 16.397301
14.033644 -7.6672153 15.794637
17.055616 -9.3066902 15.748891
17.559408 -9.5696774 13.195736
19.114828 -10.408725 11.479577
20.891087 -11.366521 9.6973095
14.478024 -7.9362774 14.78633
17.867409 -9.7739716 12.053408
20.329443 -11.106962 10.796435
21.963799 -11.989948 8.7982941
9.7129955 -5.2912965 0.53985482
0.041269314 -0.050873809 6.0740423
2.9673448 -1.7258725 21.822065
3.0032048 -1.7209885 16.664614
4.4410076 -2.5052075 16.347647
7.0200253 -3.9280109 19.010645
10.846448 -6.0196018 18.291643
12.340095 -6.8316936 16.96394
1.0284081 -0.72607905 21.608318
3.7160928 -2.117619 16.504759
6.0440817 -3.4068542 18.921648
8.3777514 -4.6916161 19.917618
9.8197956 -5.4789839 18.463381
11.554029 -6.4281516 17.582546
13.125425 -7.287446 16.353197
17.053717 -9.3830547 15.777137
17.459934 -9.5946646 13.146391
20.769993 -11.394779 9.6598492
10.331511 -5.6539879 1.1502707
14.362001 -7.9380002 14.696541
16.085386 -8.8795567 13.462105
17.772787 -9.802968 12.012877
20.254772 -11.158148 10.777553
21.81839 -12.009616 8.757206
0.041067913 -0.050980832 6.0690422
2.9814095 -1.7480123 21.970245
2.9989421 -1.7324798 16.674404
4.4309382 -2.5199564 16.342875
7.0164809 -3.9582512 19.03826
9.5255365 -5.3475327 20.086525
10.805725 -6.0464334 18.258581
1.0253972 -0.72932911 21.598335
3.7064989 -2.1293254 16.495079
6.0291524 -3.4262259 18.912262
8.2286291 -4.6459088 19.602531
11.497355 -6.4492793 17.530676
13.011163 -7.2835383 16.242943
13.524605 -7.5121765 15.282973
16.905138 -9.3783274 15.670429
17.356842 -9.6170483 13.094302
20.624619 -11.408867 9.6111498
10.346594 -5.7092648 1.1538473
14.353773 -7.9989896 14.716494
16.018972 -8.9159927 13.432673
17.79874 -9.8984709 12.053408
20.144283 -11.189115 10.739788
21.685499 -12.03529 8.7210493
10.051672 -5.5671439 0.55718648
0.040819392 -0.051013462 6.0540428
2.9902372 -1.7414002 16.659719
4.4195251 -2.5339229 16.33333
9.5026436 -5.3783908 20.077747
10.772298 -6.0772018 18.237915
1.0226108 -0.73273557 21.593344
3.6968679 -2.1409905 16.485401
6.0126638 -3.4446771 18.898184
8.1574965 -4.6433725 19.471996
10.02858 -5.6876478 18.92837
11.427563 -6.4626737 17.458857
12.858706 -7.2572603 16.084911
13.520081 -7.571538 15.307506
15.6154 -8.7342482 14.509201
17.25746 -9.6408682 13.044955
20.503693 -11.435627 9.5736895
10.548543 -5.8688264 1.1766484
14.351807 -8.0636768 14.743098
15.899632 -8.9224033 13.359095
17.790398 -9.975297 12.071139
20.089266 -11.250493 10.731397
21.540335 -12.053265 8.6799612
10.053988 -5.6143756 0.55819416
0.040641077 -0.051155642 6.0540428
2.9971678 -1.7854887 22.177692
2.9832621 -1.7513118 16.654823
4.4080687 -2.5478404 16.323786
9.4671717 -5.4020329 20.042635
10.73145 -6.1036372 18.204851
1.0200468 -0.73630065 21.593344
3.6882868 -2.1532481 16.480562
5.9976144 -3.4639182 18.8888
8.1525669 -4.6783204 19.499004
10.013192 -5.7252083 18.936901
11.224315 -6.3995423 17.183544
12.69186 -7.2216249 15.908503
13.509096 -7.6274529 15.325027
15.686529 -8.8460608 14.603354
17.147194 -9.6579571 12.987385
18.963778 -10.672423 11.477259
20.386873 -11.463955 9.5381012
10.323857 -5.7911034 1.1556357
14.336566 -8.1210861 14.7564
15.963376 -9.0315905 13.43856
17.777987 -10.050065 12.086339
19.939211 -11.258068 10.67265
21.399422 -12.072694 8.6405172
10.269411 -5.7817912 0.56907684
0.040462259 -0.051297192 6.0540428
3.028218 -1.8183439 22.454292
2.9762547 -1.7611961 16.649929
4.3965688 -2.5617087 16.314241
7.5074382 -4.339489 20.488054
10.644168 -6.1032658 18.093262
1.0172372 -0.73968667 21.58835
3.6785815 -2.1648345 16.470882
5.9810123 -3.4822278 18.874722
10.008964 -5.7692432 18.966763
11.060837 -6.3575964 16.968082
12.613643 -7.2355199 15.84235
13.504085 -7.6869116 15.34956
16.981955 -9.6548758 15.83363
17.066107 -9.6909113 12.951746
18.968788 -10.7626 11.502766
20.423359 -11.57849 9.5736895
14.353522 -8.1970034 14.802958
15.977393 -9.1132908 13.47682
17.776503 -10.131271 12.109138
19.816963 -11.280451 10.628592
21.254534 -12.088953 8.5994301
10.249166 -5.8176026 0.56907684
0.040444307 -0.051697448 6.0890417
3.0364754 -1.8377558 22.562954
2.9692142 -1.7710527 16.645033
4.3850255 -2.5755279 16.304699
7.4871807 -4.3627172 20.474247
10.569201 -6.1094012 18.002337
12.510534 -7.2141399 17.366877
1.0146489 -0.74323303 21.58835
3.6699209 -2.1770203 16.466042
5.9658442 -3.5013371 18.865335
8.2457018 -4.8085995 19.800585
9.9662142 -5.7910423 18.924103
10.999469 -6.3735056 16.908232
12.570701 -7.2693233 15.820299
13.511194 -7.7535281 15.38811
17.04608 -9.7702265 15.924644
16.959599 -9.7088757 12.896917
20.406967 -11.663513 9.5849276
22.178141 -12.665563 7.5970545
10.309134 -5.8778358 1.1583182
14.331294 -8.250782 14.809608
16.040092 -9.2234087 13.556286
17.722342 -10.182523 12.096471
19.702675 -11.306637 10.588729
21.105696 -12.101999 8.5566978
10.155082 -5.8111606 0.56565082
0.040446974 -0.05213533 6.1290398
3.0234091 -1.8442967 22.513563
2.9612691 -1.7803571 16.635242
4.3734403 -2.589298 16.295156
7.4651685 -4.3848681 20.455837
8.8146095 -5.1527691 18.77858
10.343576 -6.0272474 17.655169
12.44371 -7.2336035 17.309315
1.0120484 -0.74677026 21.58835
3.6601419 -2.1885273 16.456364
5.9491296 -3.5195041 18.851255
8.2307434 -4.8384562 19.805086
10.951135 -6.3966641 16.868332
12.501317 -7.2875485 15.765172
13.511828 -7.8167162 15.419651
17.059053 -9.8569307 15.968583
16.831442 -9.7136736 12.825639
18.171743 -10.47874 11.066832
20.398264 -11.753192 9.5999117
22.150425 -12.752476 7.6026945
10.284236 -5.9113035 1.157871
14.33147 -8.317626 14.839538
15.983321 -9.2651539 13.535684
19.57666 -11.325344 10.542571
20.969292 -12.121243 8.5188971
10.082806 -5.8166156 0.56323242
0.040264744 -0.052276198 6.1290398
3.016953 -1.8548391 22.513563
2.9541655 -1.7901553 16.630346
4.3618116 -2.6030183 16.285612
7.4498167 -4.4108996 20.455837
8.7945051 -5.1822896 18.774191
10.203582 -5.9934793 17.452656
1.009667 -0.750471 21.593344
3.6524801 -2.2012901 16.456364
5.9338446 -3.5384817 18.841871
8.2175493 -4.8693767 19.814087
9.770586 -5.7689829 18.629755
10.946916 -6.4455538 16.896263
12.429037 -7.3036604 15.706369
13.493703 -7.8692236 15.430164
17.048084 -9.930131 15.990552
20.108572 -11.679957 9.4837837
22.014498 -12.776742 7.5716739
14.302349 -8.3676004 14.839538
15.902025 -9.2923393 13.494479
17.032856 -9.945178 11.675963
19.438995 -11.336452 10.49012
20.804453 -12.123042 8.4695921
10.092672 -5.8693571 0.56464314
0.039968714 -0.052229997 6.1040406
3.04018 -1.8837789 22.735828
2.9470298 -1.7999254 16.625452
4.3501406 -2.616689 16.276068
7.4226313 -4.4298687 20.423618
8.7475348 -5.1958337 18.712744
10.141435 -6.0046868 17.382395
1.0070412 -0.75399083 21.593344
3.6426258 -2.2127213 16.446686
5.9184985 -3.557395 18.832487
8.2023716 -4.8991485 19.81859
9.7369423 -5.7950501 18.604158
10.895846 -6.4668093 16.852373
12.412216 -7.3521843 15.717394
13.47845 -7.9235063 15.444182
14.613434 -8.5804491 13.746556
16.211363 -9.5072994 12.406195
17.857365 -10.46425 10.920747
20.047676 -11.738366 9.4744186
21.849689 -12.783258 7.5307827
9.8987074 -5.7820134 1.1221048
14.228026 -8.3909197 14.792981
15.820733 -9.3190708 13.453276
16.968317 -9.9870815 11.655699
19.250628 -11.316833 10.410394
20.648005 -12.128622 8.4235744
10.123842 -5.9348702 0.56706154
0.039763618 -0.052331828 6.099041
3.0302906 -1.8923213 22.711132
2.9398618 -1.8096677 16.620556
4.3435326 -2.6334059 16.285612
7.3987527 -4.450716 20.400606
10.190338 -6.1010699 21.83338
10.117997 -6.0386081 17.378262
1.0046333 -0.75767559 21.598335
3.6338074 -2.2247663 16.441845
5.9030929 -3.5762439 18.823101
8.1889496 -4.9299955 19.827593
9.6965256 -5.8169274 18.565765
10.860277 -6.4970689 16.832422
12.409764 -7.4093704 15.746796
13.438437 -7.9632344 15.430164
16.167276 -9.5574446 12.397969
17.835985 -10.535531 10.930022
19.898783 -11.744651 9.4238462
21.643785 -12.764412 7.4757915
9.8784637 -5.8165312 1.1221048
14.115204 -8.3909283 14.706517
15.729023 -9.3391571 13.403241
16.933353 -10.046251 11.655699
18.86351 -11.178041 10.223667
20.589289 -12.191 8.4169998
10.227796 -6.0438805 0.57290596
0.039401498 -0.052170761 6.0590425
3.027612 -1.9053712 22.740768
2.932662 -1.819382 16.615662
4.3368616 -2.6501083 16.295156
7.3748193 -4.4714513 20.377594
10.185384 -6.146503 21.868492
10.096856 -6.0738893 17.378262
1.0019825 -0.76117772 21.598335
3.6249502 -2.2367773 16.437006
5.8891006 -3.5959282 18.818407
8.1735525 -4.9596801 19.832092
9.6627712 -5.8426428 18.540169
10.814308 -6.5209351 16.796513
12.392539 -7.4578872 15.757821
13.407497 -8.0082664 15.42666
14.409441 -8.596509 13.611603
17.852386 -10.629454 10.962485
19.746111 -11.747671 9.3714018
21.537245 -12.803117 7.4546409
9.7638845 -5.7950602 1.1122689
15.644303 -9.3628683 13.359095
16.957378 -10.140698 11.696229
18.617868 -11.120472 10.112471
20.473621 -12.219234 8.3874168
10.170318 -6.0627141 1.743614
10.210929 -6.0821023 0.57310748
0.039464116 -0.052720718 6.1140409
3.0229111 -1.9171766 22.755585
2.9254298 -1.8290678 16.610765
4.3402944 -2.6730587 16.342875
7.3508306 -4.4920731 20.354582
10.21093 -6.2106452 21.96944
10.080404 -6.1120152 17.386528
0.99931937 -0.76467067 21.598335
3.6149857 -2.2480893 16.427328
5.8735728 -3.6146541 18.809021
8.1394758 -4.9779582 19.791582
9.6289558 -5.8681927 18.514574
10.773455 -6.547689 16.768581
12.38962 -7.5151658 15.787223
13.327521 -8.0237474 15.367082
14.419374 -8.670825 13.649263
16.404848 -9.8530827 12.630995
17.853155 -10.7145 10.985673
19.641371 -11.778379 9.3414335
21.4307 -12.841233 7.4334908
9.6666727 -5.7830873 1.1042216
13.583258 -8.2035828 14.214343
15.55961 -9.3861027 13.314946
16.958796 -10.222082 11.72156
18.489508 -11.131553 10.064216
20.370144 -12.25411 8.3627644
10.144847 -6.0956273 1.7429233
10.078271 -6.0508461 0.56786764
0.039501235 -0.053234145 6.1640387
3.0103083 -1.9239503 22.711132
2.9173043 -1.8381823 16.600975
4.33601 -2.6913421 16.361963
7.3267884 -4.5125818 20.331568
8.7701044 -5.3762937 18.919031
10.0422 -6.1368937 17.357597
11.802358 -7.1956201 16.626238
0.99664402 -0.76815426 21.598335
3.606051 -2.2600265 16.422487
5.8579879 -3.6333163 18.799637
8.0571899 -4.9663596 19.634041
9.5973015 -5.8949432 18.493242
10.729978 -6.5726633 16.736662
12.406697 -7.5848923 15.84235
13.247602 -8.0387697 15.307506
14.399005 -8.7271585 13.658679
16.391817 -9.9232788 12.647443
17.823227 -10.78134 10.990311
19.496983 -11.784519 9.2927351
21.315937 -12.873802 7.4095197
9.6421623 -5.8142233 1.1037745
13.557729 -8.2528877 14.217669
15.478399 -9.4109602 13.273743
16.978273 -10.314792 11.759559
18.372938 -11.148936 10.022254
20.286867 -12.30066 8.3463287
10.123507 -6.1310019 1.7429233
9.8861189 -5.9825273 0.55980647
0.039315175 -0.053371705 6.1640387
3.0231702 -1.9470704 22.85931
2.9100108 -1.8478088 16.596081
4.34304 -2.7167528 16.423998
7.301033 -4.5319481 20.303955
8.7512846 -5.4068742 18.919031
10.035093 -6.1807642 17.382395
11.697974 -7.1881104 16.514952
0.99372888 -0.77145123 21.593344
3.5960147 -2.2712576 16.412807
5.8423424 -3.6519125 18.790251
7.9621391 -4.9462056 19.444988
9.5589266 -5.9174261 18.459116
10.683893 -6.5958319 16.70075
12.40035 -7.6406026 15.868075
13.030835 -7.9695992 15.090224
14.411634 -8.8037453 13.699479
16.446314 -10.034884 12.71598
17.815744 -10.861938 11.008862
19.412178 -11.825974 9.272131
21.201214 -12.905727 7.3855495
9.7239437 -5.9099197 1.1145043
13.541569 -8.3079739 14.23097
15.397205 -9.4353647 13.232538
16.953194 -10.380746 11.767158
18.260344 -11.168009 9.9823904
20.159191 -12.319689 8.3118153
10.106272 -6.1688828 1.743614
9.3618832 -5.7100301 0.53602576
0.038953625 -0.053206593 6.1240401
3.0117931 -1.9546499 22.824736
2.9026856 -1.8574066 16.591187
4.3499455 -2.7422454 16.486034
7.2752309 -4.551188 20.276339
8.7343893 -5.4386544 18.923418
10.027802 -6.2246609 17.407192
11.618312 -7.1951485 16.438202
0.99102998 -0.77491534 21.593344
3.5870042 -2.2831213 16.40797
5.8266392 -3.6704443 18.780865
7.8414969 -4.909277 19.192921
9.5116606 -5.9341912 18.407927
10.640338 -6.6203508 16.668831
12.347683 -7.6677446 15.834999
12.808642 -7.8952723 14.865932
14.400703 -8.8662424 13.71831
16.400501 -10.085661 12.707755
17.615431 -10.824335 10.909153
19.291765 -11.845148 9.2346706
21.086523 -12.937009 7.3615785
9.7032547 -5.9438267 1.1145043
13.55377 -8.3807192 14.274202
15.316031 -9.4593182 13.191335
16.957207 -10.464764 11.795023
18.113071 -11.165 9.923646
20.019567 -12.330546 8.2723713
9.9075289 -6.0951405 1.7146053
9.7632465 -6.001689 0.55597734
0.038745921 -0.053304415 6.1190405
3.0186067 -1.9740832 22.928459
2.8953285 -1.8669757 16.58629
4.3466463 -2.7614152 16.509893
7.2493849 -4.5703044 20.248724
8.7153511 -5.46911 18.923418
10.01317 -6.2641029 17.41959
11.367439 -7.0948005 16.119688
0.98831898 -0.7783699 21.593344
3.5768969 -2.294271 16.398291
5.8108778 -3.6889107 18.771481
7.791173 -4.9157095 19.111898
9.4666014 -5.9520864 18.361
10.594188 -6.6430449 16.632921
12.297853 -7.6964126 15.805598
12.717389 -7.9004154 14.792336
14.419276 -8.9472399 13.765387
16.322546 -10.116415 12.674858
17.231058 -10.671183 10.695823
19.183283 -11.870944 9.2028284
20.967796 -12.965124 7.3361988
9.8222847 -6.0639925 1.129258
13.524433 -8.4279804 14.274202
15.234877 -9.4828215 13.15013
16.938879 -10.535275 11.807689
17.946768 -11.149125 9.8544102
19.88814 -12.345563 8.2362137
9.898819 -6.1375155 1.7166774
9.9375954 -6.1567655 0.56524771
0.038494781 -0.053325627 6.1040406
3.0220776 -1.9914497 23.007488
2.8879404 -1.8765161 16.581396
4.3457804 -2.7822053 16.543297
7.2234936 -4.5892954 20.221109
8.6881123 -5.4943795 18.905865
9.9983854 -6.3035197 17.43199
0.98582178 -0.7819947 21.598335
3.5667553 -2.305378 16.388611
5.7950583 -3.7073119 18.762094
7.7390628 -4.920682 19.026375
9.4237366 -5.9711351 18.31834
10.545462 -6.663887 16.593019
12.245105 -7.7230153 15.772522
12.689734 -7.9447594 14.792336
14.397858 -9.0037088 13.774802
17.032112 -10.630409 10.596114
19.200733 -11.974633 9.2309246
20.861341 -13.000181 7.3150477
9.8602533 -6.1350737 1.1355171
13.400075 -8.4155645 14.174438
15.153746 -9.5058718 13.108925
16.87278 -10.576023 11.787424
17.86927 -11.187618 9.8334293
19.844923 -12.414909 8.2362137
10.011722 -6.2560062 1.7387792
9.6490679 -6.0247211 0.55255133
0.038308404 -0.05345967 6.1040406
3.0183442 -2.0041361 23.032185
2.8805203 -1.8860273 16.5765
4.3410597 -2.800595 16.562386
7.1975574 -4.6081614 20.193493
8.5678949 -5.4603133 18.686409
10.009573 -6.3595095 17.489851
0.98308617 -0.78543115 21.598335
3.5565796 -2.3164418 16.378933
5.779181 -3.7256479 18.752708
7.6851807 -4.9241767 18.936352
9.3808556 -5.9899583 18.275681
10.501803 -6.6877093 16.5611
12.192322 -7.7493453 15.739446
12.670972 -7.9947152 14.80285
14.34329 -9.0393839 13.752833
15.943658 -10.036322 12.436351
17.0324 -10.713385 10.619303
19.833925 -12.465899 9.5530863
20.730526 -13.019343 7.2854371
9.8303394 -6.1641636 1.1346229
13.260192 -8.3923998 14.058044
15.069222 -9.5263128 13.064778
16.187029 -10.225062 11.336517
17.768696 -11.211176 9.799861
19.981222 -12.597435 8.3101721
9.8976345 -6.2328606 1.7235843
9.0909643 -5.7204518 0.52695686
0.038121562 -0.053593069 6.1040406
3.0190787 -2.0198452 23.091454
2.8730695 -1.8955101 16.571606
4.95824 -3.2233658 18.95315
7.1699367 -4.6258435 20.161276
8.4439936 -5.4228883 18.458178
9.9849434 -6.3928933 17.485718
11.071026 -7.07196 15.805013
0.98056328 -0.78903937 21.603327
3.5474217 -2.3281531 16.374094
5.7646937 -3.744858 18.748016
7.6423411 -4.9344411 18.873333
9.3379574 -6.0085549 18.233023
10.450499 -6.7064242 16.51721
12.142358 -7.7772288 15.710044
12.721234 -8.0886488 14.893969
14.268935 -9.0622692 13.712033
15.431855 -9.789526 12.066253
17.036055 -10.798861 10.64481
19.758959 -12.515211 9.5381012
20.636311 -13.060843 7.2685165
13.397661 -8.5450497 14.234297
14.984744 -9.546279 13.020631
16.042143 -10.212055 11.260522
17.694986 -11.251216 9.7809782
19.957054 -12.679766 8.3183889
9.8758173 -6.2673721 1.7235843
9.070941 -5.7521501 0.52695686
0.037913043 -0.053687681 6.099041
3.0165195 -2.0334122 23.12603
2.8647399 -1.9043999 16.561813
4.9419637 -3.2373815 18.934063
7.1357288 -4.6391296 20.110647
8.3807774 -5.4237022 18.361618
9.905817 -6.3910933 17.386528
11.035492 -7.103622 15.789662
0.97780299 -0.79245734 21.603327
3.5371764 -2.3391349 16.364414
5.7443681 -3.760232 18.724552
7.6013498 -4.9456544 18.814819
9.2972326 -6.0283437 18.19463
10.399192 -6.7248631 16.47332
12.086654 -7.8011823 15.673292
12.692922 -8.1330042 14.893969
14.165092 -9.0658617 13.642986
15.263716 -9.7577515 11.962077
17.031857 -10.879725 10.665679
20.533974 -13.096683 7.248776
9.4888296 -6.0427165 1.1028804
13.480824 -8.6644382 14.354013
14.903709 -9.567956 12.979426
15.951973 -10.233077 11.222525
17.625034 -11.293325 9.7641935
19.888811 -12.734076 8.3085289
9.7412395 -6.2297702 1.7049359
9.1350021 -5.8375826 0.5309875
0.037704326 -0.053781494 6.0940413
3.014545 -2.0474226 23.165545
2.857229 -1.9138213 16.556919
4.9318781 -3.2554348 18.938833
7.1047845 -4.6543741 20.069225
8.3718252 -5.459465 18.383562
9.8834476 -6.4256325 17.386528
11.016006 -7.1455884 15.797338
0.9754777 -0.79623139 21.61331
3.5279438 -2.3507707 16.359575
5.7384095 -3.7850118 18.748016
7.5712962 -4.9638023 18.78331
9.2499323 -6.0436411 18.143436
10.325164 -6.7282205 16.393518
12.025246 -7.8211436 15.62919
12.652471 -8.1695232 14.879951
15.31041 -9.8630552 12.025131
17.038471 -10.967883 10.693504
20.480061 -13.163091 7.2459559
9.4676781 -6.0758018 1.1028804
13.54138 -8.7703056 14.450454
14.819314 -9.5869884 12.935279
17.509251 -11.305543 9.7222328
19.796625 -12.772702 8.2888069
9.1145697 -5.8694344 0.5309875
0.037474468 -0.053836223 6.0840416
3.0157154 -2.0636382 23.229755
2.8496871 -1.9232136 16.552023
4.9192419 -3.2718036 18.934063
7.0395803 -4.6468568 19.931149
8.4668045 -5.5636244 18.633739
9.8256502 -6.4369617 17.324533
11.007094 -7.19452 15.820363
0.97291499 -0.79981512 21.618301
1.8603178 -1.4122003 21.740198
3.5186727 -2.3623703 16.354736
5.7438455 -3.8174369 18.809021
7.5393915 -4.9806008 18.747301
9.2222452 -6.0715909 18.13064
10.246201 -6.7278347 16.305738
11.963845 -7.8407722 15.585088
12.596973 -8.1961346 14.84841
13.605383 -8.8421316 13.165941
15.682729 -10.180543 12.343141
17.01495 -11.036935 10.70278
20.51049 -13.284048 7.272747
9.4255037 -6.0952921 1.1006449
13.538825 -8.835886 14.480383
14.738355 -9.6077566 12.894074
16.432789 -10.704183 11.610101
17.385986 -11.312138 9.676075
19.660862 -12.782527 8.2510052
8.9934444 -5.8359456 0.52615076
0.037203066 -0.053813312 6.0640426
3.0084934 -2.0741525 23.229755
2.8421144 -1.9325765 16.547129
4.9028311 -3.2856307 18.914974
6.9127035 -4.597826 19.618177
8.4912634 -5.6222339 18.730299
9.7631969 -6.4448657 17.254274
10.925702 -7.1958752 15.739776
0.97122788 -0.80412841 21.643259
1.8524138 -1.4164176 21.705397
3.508323 -2.3732295 16.345057
5.7304854 -3.8374636 18.809021
7.5328331 -5.0141258 18.774309
9.1705694 -6.0835609 18.070917
10.179934 -6.7352943 16.237907
11.902455 -7.8600674 15.540986
12.47285 -8.1774845 14.736264
13.620025 -8.9194241 13.209881
15.647097 -10.235224 12.343141
16.924408 -11.062329 10.670317
18.014212 -11.7657 8.7813959
20.516218 -13.389646 7.2910771
9.5251656 -6.2070022 1.1136103
13.470466 -8.8584738 14.440477
14.66081 -9.6302958 12.855814
16.460194 -10.804057 11.655699
17.251507 -11.310547 9.6236238
19.537125 -12.799324 8.2181358
22.220758 -14.546378 6.4962959
8.9771996 -5.8700371 0.52635229
0.037014995 -0.053942848 6.0640426
3.0050635 -2.0873013 23.25939
2.8345113 -1.94191 16.542233
4.886384 -3.2993832 18.895885
6.8154678 -4.5675449 19.388052
8.5014715 -5.6717787 18.796137
9.6961222 -6.4492946 17.175747
10.895175 -7.2304244 15.7321
0.96841502 -0.80751377 21.643259
1.8499913 -1.4248277 21.735226
3.4989789 -2.3847537 16.340218
5.7499566 -3.8796437 18.916956
7.529748 -5.0500898 18.810316
9.1189222 -6.0952449 18.011194
10.163882 -6.7758017 16.249878
11.8439 -7.8809085 15.500559
13.646358 -9.0151367 16.152102
13.618043 -8.9862061 13.238126
15.537955 -10.241453 12.285569
16.87459 -11.114029 10.66336
17.953671 -11.815767 8.7720308
20.505426 -13.4849 7.3037672
9.5076036 -6.2429471 1.1140573
13.389661 -8.8724403 14.38727
14.579915 -9.6501799 12.81461
16.397211 -10.844801 11.637966
17.086956 -11.28814 9.554389
19.421391 -12.820616 8.1885529
22.141445 -14.605121 6.4880891
8.998373 -5.9288249 0.52836758
0.037031922 -0.054456659 6.1140409
3.0003057 -2.0995605 23.279146
2.8268776 -1.9512141 16.537338
4.8711352 -3.3139009 18.881571
6.7784343 -4.5770946 19.32822
8.5054731 -5.717453 18.848804
9.6501751 -6.4674344 17.134418
10.845891 -7.2523766 15.697563
0.96426547 -0.8097735 21.61331
1.8399544 -1.4273537 21.675568
3.4895968 -2.3962412 16.335377
5.7577853 -3.9142449 18.987347
7.5337191 -5.0909705 18.864332
9.0175524 -6.073133 17.853354
10.147673 -6.8162804 16.261848
11.779713 -7.8976612 15.452784
13.82855 -9.204998 16.404427
13.619007 -9.0552387 13.269511
15.421998 -10.242421 12.222516
16.78771 -11.141022 10.633216
17.900726 -11.870678 8.7664118
20.498219 -13.582894 7.3178682
9.5729713 -6.3338027 1.1234459
14.509151 -9.6763458 12.782235
16.283924 -10.85177 11.58477
17.077673 -11.367837 9.5711727
19.297882 -12.836024 8.1556826
22.02556 -14.63927 6.4693322
9.0150824 -5.9850683 0.53018135
0.036841609 -0.054585591 6.1140409
2.9948633 -2.1113639 23.293964
2.8192134 -1.9604883 16.532442
4.8558445 -3.3283522 18.867254
6.7543397 -4.5952325 19.305206
8.4795151 -5.7430792 18.835638
9.6135483 -6.4916315 17.109619
10.799242 -7.2758636 15.666862
0.95945138 -0.81145406 21.568386
1.8353804 -1.4340959 21.680538
3.4791443 -2.4069774 16.325701
5.755477 -3.9421208 19.024889
7.5356956 -5.1307139 18.913845
8.8560247 -6.0093865 17.576069
10.161249 -6.8769937 16.321699
11.726789 -7.9216523 15.419706
12.12886 -8.1348257 14.431369
13.613184 -9.1200533 13.294618
15.334025 -10.26131 12.181395
16.686117 -11.157693 10.593796
17.809071 -11.89961 8.7420626
20.502546 -13.688993 7.3361988
9.6088142 -6.4058533 1.1297051
12.73568 -8.5676355 13.752099
14.428317 -9.6953707 12.74103
16.160053 -10.850873 11.523973
17.086887 -11.460243 9.5984478
19.174505 -12.850728 8.1228123
21.901628 -14.66738 6.4482303
9.0232029 -6.0359445 0.53159207
2.9906423 -2.1240551 23.318663
2.8115189 -1.969733 16.527548
4.8417401 -3.3435857 18.85771
6.731813 -4.6143637 19.286797
9.56989 -6.5109029 17.072422
10.755216 -7.3009143 15.639999
0.95771056 -0.81573564 21.593344
1.8286885 -1.4391744 21.660652
3.4696898 -2.4183881 16.32086
7.5374875 -5.1705332 18.963358
8.7811699 -6.0034652 17.469419
10.167058 -6.9327936 16.369579
11.654225 -7.9320183 15.360904
12.02652 -8.1271944 14.343755
13.610301 -9.1871157 13.322864
16.584614 -11.173793 10.554377
17.732813 -11.938401 8.7252054
20.470556 -13.771185 7.3418384
9.6484041 -6.4810076 1.1364113
12.668607 -8.5868998 13.712193
14.324098 -9.6980867 12.679224
15.997112 -10.82267 11.435312
17.091906 -11.550312 9.6236238
19.047348 -12.862085 8.0882978
21.773745 -14.692086 6.4259567
9.0269365 -6.0841584 0.53280127
2.9844735 -2.135386 23.328539
2.8037944 -1.9789478 16.522652
4.8288136 -3.3596134 18.852938
6.7092347 -4.6333933 19.268387
8.3129072 -5.7152963 18.554735
9.5285368 -6.5315404 17.03936
10.740249 -7.3456507 15.65535
0.95529515 -0.81945026 21.603327
1.823236 -1.4452176 21.655682
3.4591696 -2.42904 16.31118
6.1372886 -4.2669024 20.3811
7.5426741 -5.212903 19.021875
8.7429781 -6.0222445 17.435291
10.185017 -6.9972472 16.437408
11.539792 -7.9132152 15.246973
11.971547 -8.151062 14.312214
13.600678 -9.2498913 13.344833
14.532208 -9.8723221 11.602944
16.486868 -11.191808 10.517276
17.629648 -11.958588 8.6952372
20.477955 -13.880238 7.3615785
9.6958342 -6.5620985 1.1440116
12.623137 -8.6205406 13.695565
14.206681 -9.6910849 12.605645
15.877309 -10.8226 11.377048
18.924252 -12.87537 8.0554276
21.649971 -14.718812 6.4048548
9.0056438 -6.1156316 0.53280127
2.980783 -2.1485169 23.358175
2.7960398 -1.9881327 16.517757
4.8158345 -3.3755918 18.848166
6.6850019 -4.6512055 19.245375
8.2751875 -5.7320051 18.515234
9.4871559 -6.5519691 17.006296
10.730377 -7.3940086 15.678375
0.9530834 -0.82334679 21.618301
1.8215116 -1.4542353 21.695456
3.4496436 -2.4403741 16.306341
6.1223569 -4.2882996 20.3811
7.5226455 -5.2379565 19.017374
8.7197609 -6.051239 17.431026
10.244768 -7.0910659 16.573071
11.378217 -7.8609514 15.070565
13.763378 -9.4415588 16.481527
13.552254 -9.2863102 13.329141
14.49766 -9.9229879 11.602944
16.389198 -11.209277 10.480174
17.488285 -11.952044 8.6465378
20.445223 -13.962457 7.367219
9.6687546 -6.5930982 1.1435645
12.534527 -8.6243391 13.632381
15.796792 -10.848671 11.34665
16.883606 -11.582063 9.55229
18.7974 -12.885281 8.0209141
21.526279 -14.744851 6.3837533
9.0337191 -6.1808834 0.53521961
2.97578 -2.1607351 23.377932
2.7882552 -1.9972878 16.512863
4.8015838 -3.3906593 18.838623
6.6751242 -4.6789975 19.263783
8.2551289 -5.7608557 18.515234
9.4480572 -6.5737948 16.977365
10.720299 -7.4423866 15.7014
0.95063871 -0.82704824 21.628284
1.8193312 -1.4629245 21.730255
3.4390571 -2.4509416 16.296663
6.0932508 -4.2996945 20.334169
7.5185723 -5.2741847 19.053383
8.6601114 -6.0547409 17.35424
10.311403 -7.190556 16.720701
11.111415 -7.7340593 14.754501
13.762609 -9.5118494 16.520079
13.465302 -9.2959661 13.275788
14.511126 -10.006768 11.641325
16.291607 -11.226202 10.443073
17.393002 -11.976209 8.6203156
20.396362 -14.033738 7.367219
9.8550167 -6.7706265 1.1663655
12.501278 -8.6659136 13.629056
13.653505 -9.4540787 12.175943
15.120735 -10.46224 10.890678
16.831875 -11.633186 9.5459967
18.67848 -12.899832 7.9896874
21.402672 -14.770209 6.3626513
9.0203152 -6.2180495 0.53562272
2.9625757 -2.1669803 23.333479
2.7804406 -2.0064123 16.507967
4.7872863 -3.4056687 18.829079
6.6683254 -4.7090311 19.291399
8.2271328 -5.7841268 18.497679
9.4089231 -6.5954275 16.948435
10.712641 -7.4926209 15.728262
0.94687843 -0.82959938 21.608318
1.8150417 -1.4699374 21.740198
3.4294591 -2.4621978 16.291822
6.034605 -4.2899413 20.188696
7.5125608 -5.3091922 19.084892
8.6303949 -6.0789256 17.337175
10.276378 -7.2195764 16.704741
11.076023 -7.7669597 14.743476
13.4136 -9.3295774 13.256957
14.496713 -10.071675 11.657774
16.190462 -11.240056 10.403654
17.202536 -11.933792 8.547267
9.8395128 -6.8106546 1.1672597
13.793364 -9.6330557 15.065672
13.627051 -9.5063066 12.18183
15.027542 -10.475515 10.850147
16.634733 -11.582944 9.4578781
18.563566 -12.916408 7.9601049
21.279148 -14.794884 6.3415494
9.7002373 -6.7368174 0.57008445
2.9537425 -2.1763866 23.323601
2.7725966 -2.015507 16.503073
4.7741561 -3.4214892 18.824306
6.7059717 -4.7707858 19.447884
8.1951656 -5.8045034 18.471344
9.3697538 -6.6168675 16.919504
10.720483 -7.5539713 15.77815
0.94376063 -0.8327083 21.603327
1.8078349 -1.4745786 21.71534
3.4198258 -2.4734175 16.286983
6.0069666 -4.3019366 20.14646
7.4939828 -5.3353839 19.084892
8.5899811 -6.0954304 17.298782
11.079301 -7.8270912 14.783902
11.862412 -8.3215122 14.319223
13.339513 -9.3473053 13.216156
14.495722 -10.146194 11.685188
16.111198 -11.268573 10.378147
17.134174 -11.975178 8.5341558
19.629301 -13.708854 7.1275134
13.832943 -9.7327099 15.145483
13.607014 -9.5631123 12.193604
14.952078 -10.500653 10.822283
16.557045 -11.614876 9.4368973
18.448765 -12.932337 7.9305215
21.155716 -14.818876 6.3204484
9.6684761 -6.7649083 0.56968147
2.9442558 -2.1852942 23.308783
2.7647228 -2.0245712 16.498177
4.758553 -3.4355118 18.80999
6.6892776 -4.7941651 19.447884
8.1612072 -5.8233361 18.44062
9.3305492 -6.6381145 16.890574
10.620868 -7.5393963 15.6707
0.94041705 -0.83561349 21.593344
1.8022649 -1.4805415 21.710369
3.4101553 -2.4845996 16.282145
5.9667234 -4.3047042 20.061991
7.4611607 -5.3513594 19.048883
8.5665302 -6.1238623 17.294518
9.9435806 -7.0899649 16.245888
11.057436 -7.8696494 14.791252
11.783782 -8.327878 14.259645
13.275005 -9.3713636 13.184772
14.504642 -10.228058 11.720828
16.002964 -11.276264 10.33409
17.130177 -12.061604 8.552887
19.573484 -13.77177 7.1246939
13.832392 -9.8046875 15.182064
13.609835 -9.6362429 12.225977
14.827357 -10.490538 10.758953
16.42745 -11.609735 9.3865452
18.330221 -12.9449 7.8992944
21.036346 -14.844991 6.3005185
9.644804 -6.7986159 0.56968147
2.9353654 -2.1946278 23.298904
2.7568195 -2.0336051 16.49328
4.7453246 -3.4512231 18.805218
6.6851735 -4.8266349 19.484703
8.11166 -5.8308201 18.374784
9.2844486 -6.6542506 16.849245
10.417198 -7.4496398 15.40975
0.93749452 -0.83889109 21.593344
1.7962646 -1.4861436 21.700426
3.3994348 -2.4950004 16.272467
5.9321179 -4.3113017 19.996292
7.4300852 -5.3684473 19.017374
8.5514498 -6.158299 17.307314
9.8894043 -7.1035366 16.198008
11.062962 -7.9319048 14.835356
11.705254 -8.3337984 14.200068
13.204149 -9.3905754 13.147111
14.485894 -10.290734 11.734535
15.880424 -11.273079 10.280758
17.140903 -12.158875 8.5791092
19.37266 -13.731819 7.0697021
9.8448849 -6.9679809 1.1757542
13.831507 -9.8767796 15.218645
13.576115 -9.683692 12.225977
14.762567 -10.522215 10.738688
16.349852 -11.640684 9.3655634
18.215666 -12.95953 7.8697114
20.897245 -14.85637 6.2747273
9.6373062 -6.843812 0.57048756
2.9276869 -2.2048607 23.298904
2.7480698 -2.042001 16.48349
4.7308407 -3.466002 18.795675
6.6761851 -4.8556871 19.507717
8.0893173 -5.8576946 18.370396
9.238349 -6.670146 16.807915
10.255898 -7.3885312 15.210199
0.93434626 -0.84196484 21.58835
1.7910662 -1.4924047 21.700426
3.389694 -2.506104 16.267626
5.8919697 -4.3136325 19.911821
7.4024992 -5.3879442 18.994867
8.5299006 -6.1881118 17.307314
9.8450184 -7.1238809 16.166088
11.05994 -7.9883385 14.868432
11.652908 -8.3579769 14.172031
13.13332 -9.4094057 13.109448
14.426085 -10.324203 11.715344
15.704054 -11.230525 10.192643
17.147392 -12.253675 8.6034584
19.238724 -13.73803 7.0386815
9.8083382 -6.9936309 1.174413
13.799978 -9.9271803 15.22197
13.611162 -9.7805548 12.287785
14.568173 -10.460538 10.624695
16.250111 -11.65536 9.331995
18.097391 -12.970769 7.8384848
20.813646 -14.906584 6.2653494
9.4833355 -6.7843919 0.56403857
2.9168777 -2.2127185 23.274208
2.7401097 -2.0509708 16.478594
4.7175121 -3.4816084 18.790903
6.6497388 -4.8720336 19.480103
8.0320578 -5.8590784 18.287004
9.196804 -6.6891112 16.774851
10.237827 -7.4299345 15.221711
0.93118805 -0.84502691 21.583361
1.7858458 -1.4986475 21.700426
3.3799176 -2.5171704 16.262787
5.8671546 -4.327003 19.878973
7.3731132 -5.4060278 18.967861
8.5208836 -6.2270827 17.332911
9.839572 -7.1724033 16.198008
11.053919 -8.0428524 14.897833
11.583194 -8.3693619 14.122969
13.065678 -9.4301357 13.074927
14.332296 -10.332925 11.668739
15.42035 -11.109197 10.034966
19.260748 -13.855526 7.0640621
9.791955 -7.0336366 1.1753072
12.187046 -8.8316088 13.486059
13.612955 -9.8540773 12.320159
14.559512 -10.531538 10.644959
16.161503 -11.677458 9.3047199
17.983091 -12.984105 7.8089018
20.686592 -14.925111 6.2430749
2.905432 -2.2200558 23.244572
2.732121 -2.0599101 16.4737
4.7029347 -3.496273 18.781359
6.5698156 -4.8488092 19.296
7.9478688 -5.8402796 18.142162
9.1461592 -6.7012153 16.725256
10.23253 -7.4807596 15.252413
0.92823267 -0.8482722 21.583361
1.7806035 -1.5048722 21.700426
3.3701048 -2.5281987 16.257946
5.8187695 -4.3227577 19.766346
7.3419404 -5.422678 18.936352
8.5116959 -6.2660651 17.358505
9.80233 -7.1977882 16.178057
11.047652 -8.0974226 14.927235
11.478942 -8.3551779 14.031851
12.994903 -9.4482174 13.037265
14.191259 -10.306719 11.583755
15.245242 -11.064083 9.9468508
16.840006 -12.212509 8.4929495
9.8803101 -7.1495166 1.1878253
12.138048 -8.8608856 13.466106
13.63726 -9.9444036 12.373135
14.560986 -10.610222 10.672825
16.076611 -11.701752 9.2795439
17.868919 -12.9968 7.7793183
20.575392 -14.954365 6.2254906
9.5731964 -6.9502268 0.57089061
2.8964334 -2.2292361 23.234694
2.7241032 -2.0688186 16.468805
4.6871166 -3.5099835 18.767042
6.51052 -4.840241 19.171734
7.7464862 -5.7340436 17.729589
9.0842218 -6.7046924 16.654995
10.208935 -7.5183325 15.256249
0.9248417 -0.85111564 21.573376
1.7753398 -1.5110785 21.700426
3.3592541 -2.5384316 16.24827
5.8036451 -4.3430429 19.766346
7.3107414 -5.439177 18.904844
8.5023403 -6.305059 17.3841
9.7480755 -7.2104578 16.130177
11.032955 -8.1460056 14.94561
11.380683 -8.3445864 13.947742
12.924162 -9.4659224 12.999603
13.750235 -10.059915 11.254779
15.131432 -11.06233 9.8981562
16.786043 -12.263013 8.4873295
19.37277 -14.142387 7.1402035
11.965669 -8.7992363 13.309807
13.635041 -10.015876 12.402567
14.555136 -10.683941 10.695623
15.955142 -11.698757 9.233386
17.758688 -13.01165 7.751379
20.511299 -15.01748 6.2219734
9.5811386 -7.007195 0.57250285
2.8886342 -2.2393329 23.234694
2.7160563 -2.0776961 16.463909
4.6724534 -3.5245256 18.7575
6.4576187 -4.8360019 19.065874
7.6611438 -5.7123733 17.580362
9.0607634 -6.736361 16.654995
10.208371 -7.5730195 15.294625
0.92165375 -0.85414231 21.568386
1.7696499 -1.5169194 21.695456
3.3493724 -2.5493805 16.243429
5.7774258 -4.3549647 19.728804
7.2812581 -5.4568295 18.877836
8.4928169 -6.3440647 17.409697
9.6648569 -7.2012329 16.034418
10.979971 -8.1662588 14.912534
11.276903 -8.3291721 13.856624
12.856588 -9.4855595 12.96508
13.674642 -10.07808 11.221881
15.039221 -11.075679 9.8633738
16.843948 -12.395723 8.5379019
19.323286 -14.209925 7.1402035
11.898878 -8.8142815 13.269901
13.648732 -10.099473 12.446714
14.555882 -10.762877 10.723489
15.866753 -11.719327 9.2061119
17.644772 -13.023085 7.721796
20.540901 -15.149573 6.246592
9.5485754 -7.0346694 0.5720998
2.8856988 -2.2532287 23.274208
2.7079809 -2.0865426 16.459015
4.6577449 -3.5390077 18.747955
6.4344602 -4.8538079 19.047466
7.6334968 -5.7333269 17.562805
10.210117 -7.6297126 15.336837
0.91803414 -0.85676241 21.55341
1.7639407 -1.5227388 21.690483
3.3384581 -2.5595269 16.233749
5.751194 -4.3667564 19.691261
7.2482657 -5.4717193 18.841825
8.4831238 -6.38308 17.435291
9.5360327 -7.1571474 15.862846
10.940546 -8.1964054 14.897833
11.22487 -8.3514547 13.828587
12.789035 -9.5048389 12.930557
13.683023 -10.158154 11.25752
14.950661 -11.091158 9.8309107
16.737265 -12.407512 8.5060606
11.838114 -8.8334332 13.236647
13.70414 -10.214693 12.529123
14.535509 -10.826495 10.736155
15.825748 -11.77464 9.2061119
17.538572 -13.039517 7.6954999
20.550322 -15.267562 6.2653494
9.6041994 -7.1275039 0.57613045
2.8784268 -2.2637684 23.279146
2.6998763 -2.0953581 16.454119
4.642992 -3.5534303 18.738411
6.420589 -4.878602 19.056671
7.6038876 -5.7527132 17.540859
10.219275 -7.6922927 15.390563
0.91545808 -0.86035764 21.563393
1.7582124 -1.5285369 21.685513
3.3285084 -2.5703964 16.22891
5.7318039 -4.3836598 19.677183
7.220458 -5.4903989 18.819319
8.4711838 -6.4205298 17.456623
9.4364777 -7.134057 15.739155
10.89022 -8.2182083 14.868432
11.141429 -8.3499508 13.762
12.721504 -9.5237646 12.896035
13.697713 -10.243419 11.298642
14.855079 -11.10085 9.7938099
16.526699 -12.341039 8.4217739
18.877594 -14.086284 7.0133009
22.237953 -16.581682 5.3579779
11.804222 -8.8724585 13.23332
13.564964 -10.184806 12.434942
14.518319 -10.892692 10.751353
15.813603 -11.851585 9.2228956
17.428692 -13.052538 7.6675596
20.535818 -15.368326 6.277072
9.599268 -7.1759419 0.57713807
2.3114319 -1.8308432 18.744907
2.6909416 -2.1035154 16.444328
4.6281958 -3.5677927 18.728867
6.4872952 -4.9651055 19.305206
7.6123338 -5.8009953 17.606695
10.207685 -7.7395368 15.413587
0.9124493 -0.86354798 21.563393
1.7524652 -1.5343134 21.680538
3.3185236 -2.5812278 16.224072
5.7082648 -4.3973222 19.649027
7.1787815 -5.4983616 18.760803
8.4611578 -6.4595556 17.482218
9.4115181 -7.1669531 15.739155
10.820983 -8.225399 14.813304
11.126445 -8.3995333 13.779523
12.653997 -9.5423346 12.861512
13.661874 -10.29117 11.298642
14.763151 -11.112676 9.7590284
16.331621 -12.284396 8.3449802
18.763119 -14.103093 6.9893303
22.199575 -16.673956 5.3626413
11.72555 -8.8775482 13.180113
12.884563 -9.7444611 11.84631
14.47333 -10.938105 10.746287
15.859071 -11.972341 9.2732496
17.318939 -13.064951 7.6396203
20.536386 -15.480878 6.2934847
9.5821428 -7.2154164 0.57754111
2.3068492 -1.8403547 18.759727
2.6827829 -2.1122661 16.439434
4.6145349 -3.5830114 18.724096
6.4699244 -4.9877195 19.305206
7.5958381 -5.8304491 17.615473
10.195891 -7.7867947 15.436612
0.90984684 -0.8671267 21.573376
1.7470989 -1.5404215 21.680538
3.3094933 -2.5927956 16.224072
5.6928806 -4.4172206 19.649027
7.1061139 -5.4821639 18.621267
8.4530306 -6.5001802 17.512079
9.3673153 -7.1850901 15.707234
10.724911 -8.2115965 14.721425
11.125444 -8.4599066 13.814568
12.589616 -9.5629025 12.830127
13.679164 -10.379235 11.342505
14.621905 -11.086525 9.691783
16.103886 -12.201347 8.2513285
18.511074 -14.015036 6.9145985
22.058971 -16.689106 5.3430562
11.69746 -8.9206886 13.183439
12.837608 -9.7795782 11.834538
14.380179 -10.946782 10.705756
15.708804 -11.945213 9.2103081
17.209311 -13.076756 7.6116805
20.536419 -15.593621 6.3098974
9.5330162 -7.2307053 0.57633197
2.2998052 -1.847909 18.754787
2.6745956 -2.120985 16.43454
4.599648 -3.5972576 18.714552
6.4478455 -5.0066791 19.291399
7.6038599 -5.878902 17.681311
10.168648 -7.8223372 15.436612
0.90806264 -0.87149853 21.603327
1.741711 -1.5465106 21.680538
3.3023961 -2.6058896 16.233749
5.6774268 -4.4370661 19.649027
6.9408226 -5.3933949 18.238663
8.4447212 -6.5408258 17.541941
9.3207188 -7.2011642 15.671326
11.124159 -8.5203762 13.849614
12.522155 -9.5807734 12.795603
13.676072 -10.452313 11.36992
14.586637 -11.140186 9.6941013
15.972749 -12.189984 8.2063751
18.431524 -14.056293 6.9033179
21.906813 -16.694546 5.320673
11.701781 -8.98876 13.223345
12.77774 -9.8046465 11.810991
14.246095 -10.923466 10.634828
15.591347 -11.942019 9.1662483
17.099812 -13.087957 7.5837412
20.489582 -15.671116 6.3122416
9.4838972 -7.245739 0.57512277
2.2969644 -1.8588588 18.784422
2.6671755 -2.1303082 16.43454
4.5847182 -3.6114442 18.705008
6.4134021 -5.0159159 19.24077
7.6040783 -5.9215956 17.729589
10.115944 -7.8381519 15.398236
0.90003932 -0.86984116 21.483526
1.7363021 -1.5525808 21.680538
3.3011518 -2.6236582 16.272467
5.6605482 -4.4557896 19.644335
6.8516684 -5.3625789 18.054113
8.4403448 -6.584702 17.580334
9.2764997 -7.2188511 15.639404
10.308563 -8.0075865 14.228952
11.122585 -8.5809383 13.884659
12.457806 -9.6006651 12.764219
13.695831 -10.54335 11.416525
14.51255 -11.164025 9.6709137
15.878646 -12.20611 8.1801529
18.093225 -13.898455 6.7961559
21.786058 -16.723055 5.3057513
11.785501 -9.11866 13.353039
13.005683 -10.051875 12.05233
13.767766 -10.633215 10.308047
15.391457 -11.874389 9.0739346
16.990444 -13.098552 7.5558009
20.373148 -15.695082 6.2934847
9.5218954 -7.3275495 0.57834727
2.2862465 -1.8634287 18.749847
2.6589296 -2.138967 16.429644
4.5697451 -3.6255701 18.695463
6.4065967 -5.0467353 19.272987
7.5984373 -5.9599271 17.764702
10.078415 -7.8655286 15.382888
0.89741075 -0.87338084 21.493509
1.731268 -1.558989 21.685513
3.2978609 -2.639879 16.301502
5.6381993 -4.470161 19.620871
6.8260698 -5.3810725 18.03611
8.4193592 -6.615736 17.5846
9.2346449 -7.2381763 15.611474
10.2672 -8.0330772 14.210577
11.106644 -8.6306515 13.902182
12.384245 -9.6130667 12.723419
13.678772 -10.606467 11.432974
14.445478 -11.192909 9.6523628
15.773628 -12.213214 8.1483116
18.033216 -13.95272 6.7919259
21.649828 -16.738909 5.2870989
11.759491 -9.1643353 13.35969
13.764589 -10.707678 10.333379
15.446674 -12.003233 9.1305819
16.877483 -13.105649 7.5262179
20.275999 -15.733324 6.2805896
9.4962597 -7.360743 0.57834727
0.072978921 -0.1488363 17.588602
2.2767253 -1.8689322 18.725151
2.6506562 -2.1475945 16.424747
4.5547295 -3.6396356 18.685919
6.3690457 -5.0532818 19.213156
7.5794668 -5.9878993 17.769093
10.030739 -7.8848133 15.352187
1.7258155 -1.5650228 21.685513
3.295475 -2.6568973 16.335377
5.5780616 -4.4542785 19.466009
6.7884908 -5.389976 17.986595
8.3839455 -6.6353736 17.559004
9.1833057 -7.2498279 15.567584
10.255073 -8.0814562 14.232627
11.098917 -8.6869545 13.930219
12.307685 -9.622673 12.679481
13.677914 -10.682461 11.463129
14.385366 -11.226913 9.6384506
15.676064 -12.225435 8.1202154
18.007105 -14.033276 6.8003855
21.525379 -16.763069 5.2712445
11.680437 -9.1684399 13.306482
12.846129 -10.072593 11.969922
13.750881 -10.77427 10.35111
15.343923 -12.009525 9.0949144
16.768402 -13.115026 7.4982786
20.186487 -15.777066 6.2700386
9.3878126 -7.3292832 0.5741151
0.072476327 -0.14913015 17.593603
2.0091214 -1.6609721 16.571636
2.6423545 -2.1561899 16.419851
4.5396709 -3.6536405 18.676374
6.3422112 -5.0681653 19.185541
7.5397773 -5.9994073 17.725201
9.9830503 -7.9038625 15.321487
0.89129156 -0.87962461 21.493509
1.7199486 -1.5706779 21.680538
3.2920353 -2.6731391 16.364414
5.5624795 -4.473722 19.466009
6.7900367 -5.429955 18.040609
8.2302122 -6.560555 17.285984
9.1461515 -7.2724633 15.547634
10.240078 -8.1277428 14.251004
11.08813 -8.7410984 13.95475
12.240383 -9.6390867 12.644958
13.653687 -10.740482 11.474095
14.293852 -11.235995 9.6036682
15.578609 -12.237124 8.0921202
