# .PCD v0.7 - Point Cloud Data file format
VERSION 0.7
FIELDS x y z
SIZE 4 4 4
TYPE F F F
COUNT 1 1 1
WIDTH 1387
HEIGHT 1
VIEWPOINT 0 0 0 1 0 0 0
POINTS 1387
DATA ascii
-1.4643825 -0.20353863 13.746019
-1.0981567 -0.21809094 4.348124
-1.0053768 -0.20454195 2.8442309
-0.93120021 -0.1921289 2.0297918
-0.90556103 -0.18829979 1.583081
-0.88154459 -0.18441157 1.2673371
-0.87370777 -0.18355313 1.0461376
-0.87235987 -0.1862848 0.95638841
-0.8517397 -0.18233885 0.78473049
-0.848423 -0.18208316 0.65352911
-0.84159631 -0.18091781 0.53716075
-0.82110387 -0.17680539 0.42766985
-0.81625772 -0.17605232 0.33538559
-0.82104617 -0.17737968 0.25095019
-0.8126362 -0.17585194 0.16759096
-0.86910284 -0.18431583 0.872437
-0.84467065 -0.17958766 0.71233368
-0.84500742 -0.17995965 0.59330624
-0.84884042 -0.18123257 0.48870388
-0.82712787 -0.17689165 0.38352761
-0.80812013 -0.17311426 0.29004702
-0.80365425 -0.17229912 0.20685086
-0.80570263 -0.17302455 0.126918
-1.3750247 -0.25550717 8.8910885
-1.2052921 -0.23198059 5.9244857
-1.0669643 -0.21282938 3.5253265
-0.96215123 -0.19538213 2.3725195
-0.91533029 -0.18784462 1.7796764
-0.89903563 -0.18578765 1.4209466
-0.8774398 -0.18226707 1.1495837
-1.4656124 -0.19849689 13.750991
-1.0976776 -0.21401608 4.3432846
-1.0043925 -0.20069347 2.8395383
-0.93186522 -0.18887724 2.0297918
-0.90365744 -0.18461591 1.5788151
-0.87923133 -0.18072687 1.263347
-0.87434316 -0.18050221 1.0461376
-0.87300485 -0.18323855 0.95638841
-0.85237098 -0.17936461 0.78473049
-0.84905344 -0.1791205 0.65352911
-0.84222269 -0.17797899 0.53716075
-0.82171601 -0.17393813 0.42766985
-0.81686729 -0.17320198 0.33538559
-0.82646543 -0.17553309 0.25188279
-0.80837411 -0.171978 0.16714388
-0.86608571 -0.18051934 0.86911154
-0.84529239 -0.17663811 0.71233368
-0.84563041 -0.17700894 0.59330624
-0.84502608 -0.17733647 0.48660582
-0.82774037 -0.17400335 0.38352761
-0.80871952 -0.17029233 0.29004702
-0.80425078 -0.1694928 0.20685086
-0.80630171 -0.17021108 0.126918
-1.3743793 -0.25042775 8.8812094
-1.2040933 -0.22739452 5.9146948
-1.0677007 -0.20910367 3.5253265
-0.96091151 -0.19164063 2.3679171
-0.91598046 -0.18464838 1.7796764
-0.89967865 -0.18264829 1.4209466
-0.87807071 -0.17920312 1.1495837
-1.4657677 -0.19331042 13.746019
-1.0971832 -0.20994717 4.3384452
-1.0050869 -0.19718626 2.8395383
-0.93251884 -0.18562327 2.0297918
-0.9042964 -0.18146043 1.5788151
-0.87985682 -0.17765668 1.263347
-0.87164527 -0.1767755 1.0424625
-0.87014639 -0.17946994 0.95288384
-0.85299188 -0.17638819 0.78473049
-0.84557909 -0.17530699 0.65078765
-0.84283882 -0.17503801 0.53716075
-0.82231814 -0.17106874 0.42766985
-0.81746691 -0.17034952 0.33538559
-0.8270731 -0.17264712 0.25188279
-0.8089695 -0.1691552 0.16714388
-0.86671048 -0.17749503 0.86911154
-0.84590381 -0.17368641 0.71233368
-0.84624314 -0.17405605 0.59330624
-0.84563994 -0.1743857 0.48660582
-0.82371813 -0.17015776 0.3818841
-0.80454916 -0.16648349 0.28887469
-0.80483752 -0.1666844 0.20685086
-0.8068909 -0.16739552 0.126918
-1.3737153 -0.24535598 8.8713322
-1.2038788 -0.22300489 5.9098001
-1.0669582 -0.20509394 3.5205543
-0.96157455 -0.18828525 2.3679171
-0.91661942 -0.18144989 1.7796764
-0.89755094 -0.17895676 1.4168135
-0.87869084 -0.17613699 1.1495837
-1.4648474 -0.18799041 13.731106
-1.0966741 -0.20588437 4.3336058
-1.0040746 -0.19335063 2.8348453
-0.93102455 -0.18194981 2.0252907
-0.90236545 -0.17779885 1.5745492
-0.88047159 -0.17458431 1.263347
-0.87225705 -0.17373182 1.0424625
-0.87076759 -0.17643148 0.95288384
-0.85360241 -0.17340963 0.78473049
-0.84618586 -0.17235431 0.65078765
-0.84344471 -0.17209488 0.53716075
-0.82291031 -0.16819727 0.42766985
-0.81805652 -0.16749498 0.33538559
-0.82767075 -0.16975904 0.25188279
-0.80467695 -0.16532812 0.1666968
-0.86366433 -0.17373247 0.86578602
-0.84650499 -0.1707326 0.71233368
-0.84262002 -0.17024751 0.59077305
-0.8462435 -0.17143281 0.48660582
-0.82430708 -0.1672814 0.3818841
-0.80512542 -0.16367407 0.28887469
-0.8054145 -0.16387399 0.20685086
-0.80747032 -0.16457792 0.126918
-1.3718458 -0.24255285 8.856514
-1.2022244 -0.22074628 5.9000092
-1.0658127 -0.2031385 3.5157826
-0.95991874 -0.18657002 2.3633144
-0.91452175 -0.17970838 1.7752873
-0.89776886 -0.17786005 1.4168135
-0.87890542 -0.17506333 1.1495837
-1.4623667 -0.18637705 13.706247
-1.0955819 -0.2048879 4.3287663
-1.0042093 -0.1926496 2.8348453
-0.93111974 -0.1814623 2.0252907
-0.90245843 -0.17732635 1.5745492
-0.8805325 -0.17427698 1.263347
-0.87231761 -0.17342731 1.0424625
-0.8710742 -0.17491144 0.95288384
-0.85387373 -0.17206857 0.78473049
-0.84645557 -0.1710249 0.65078765
-0.84802574 -0.17179641 0.53947955
-0.82314432 -0.16704811 0.42766985
-0.81826055 -0.16649541 0.33538559
-0.82787752 -0.16874772 0.25188279
-0.80487835 -0.16434491 0.1666968
-0.86381561 -0.17297873 0.86578602
-0.84662396 -0.17014159 0.71233368
-0.84273875 -0.16965921 0.59077305
-0.84191418 -0.16994412 0.48450777
-0.82439458 -0.16684978 0.3818841
-0.80521101 -0.16325249 0.28887469
-0.80547166 -0.16359283 0.20685086
-0.80263209 -0.16330004 0.12671648
-1.3703871 -0.23736554 8.8416958
-1.2020233 -0.21615846 5.8951139
-1.06655 -0.19923075 3.5157826
-0.96062797 -0.18288282 2.3633144
-0.91520506 -0.17619555 1.7752873
-0.89571303 -0.17371927 1.4126806
-0.87645507 -0.17092054 1.1457462
-1.463166 -0.17999451 13.706247
-1.0952636 -0.19968905 4.3239269
-1.0033768 -0.18777354 2.8301528
-0.93196446 -0.17707251 2.0252907
-0.9007225 -0.17258118 1.5702833
-0.88137364 -0.16997182 1.263347
-0.86982644 -0.16851778 1.0387872
-0.87167943 -0.17186975 0.95288384
-0.85449868 -0.16893782 0.78473049
-0.84707671 -0.16792133 0.65078765
-0.84867913 -0.16853896 0.53947955
-0.8237797 -0.16388623 0.42766985
-0.81892234 -0.16320938 0.33538559
-0.82373101 -0.16446137 0.25095019
-0.80064833 -0.16013594 0.16624972
-0.86456215 -0.16920798 0.86578602
-0.84342098 -0.16551983 0.70939052
-0.83927006 -0.16500185 0.58823985
-0.8426767 -0.16612191 0.48450777
-0.82053894 -0.1620483 0.38024059
-0.80120319 -0.15851296 0.28770238
-0.80626148 -0.15965462 0.20685086
-0.8034206 -0.1593757 0.12671648
-1.3698372 -0.23136488 8.8318176
-1.2019153 -0.2109458 5.8902192
-1.0659066 -0.19449379 3.5110104
-0.95946497 -0.17850034 2.358712
-0.91593504 -0.17236042 1.7752873
-0.89643288 -0.16996579 1.4126806
-0.87716335 -0.16724776 1.1457462
-1.4639375 -0.17360856 13.706247
-1.0948869 -0.19468836 4.3190875
-1.0041866 -0.18339372 2.8301528
-0.93272823 -0.17300436 2.0252907
-0.90146697 -0.16864942 1.5702833
-0.88210696 -0.16612449 1.263347
-0.87055343 -0.16472085 1.0387872
-0.86886066 -0.16769364 0.94937932
-0.85134846 -0.16476694 0.78159201
-0.84363914 -0.16372319 0.64804614
-0.84934884 -0.16513079 0.53947955
-0.82443094 -0.16057807 0.42766985
-0.81486261 -0.1590021 0.33397555
-0.8244127 -0.16100949 0.25095019
-0.80131209 -0.15678079 0.16624972
-0.86526334 -0.16558504 0.86578602
-0.84410691 -0.16198547 0.70939052
-0.8399539 -0.1614849 0.58823985
-0.84785008 -0.16330168 0.48660582
-0.82126582 -0.15832315 0.38024059
-0.80191427 -0.15487561 0.28770238
-0.80697769 -0.15599428 0.20685086
-0.80413556 -0.15572827 0.12671648
-1.3663114 -0.22415373 8.8021812
-1.202896 -0.2052796 5.8902192
-1.0653415 -0.18920794 3.5062382
-0.96029544 -0.173977 2.358712
-0.91676641 -0.16788228 1.7752873
-0.8972528 -0.16558298 1.4126806
-0.87797016 -0.16295916 1.1457462
-1.467446 -0.16649519 13.731106
-1.0946198 -0.18893068 4.3142481
-1.005102 -0.17830874 2.8301528
-0.93147868 -0.16773275 2.0207894
-0.90233767 -0.16392705 1.5702833
-0.88296467 -0.16150354 1.263347
-0.87140399 -0.16016041 1.0387872
-0.86964124 -0.16359739 0.94937932
-0.85211545 -0.16075324 0.78159201
-0.84442914 -0.15959845 0.64804614
-0.8501457 -0.16097814 0.53947955
-0.8252058 -0.15654723 0.42766985
-0.8156299 -0.15501803 0.33397555
-0.82039118 -0.15591761 0.25001755
-0.80698746 -0.15365444 0.1666968
-0.86609036 -0.16120344 0.86578602
-0.84494346 -0.15756354 0.70939052
-0.84078789 -0.1570847 0.58823985
-0.84869349 -0.15886013 0.48660582
-0.82205665 -0.15416433 0.38024059
-0.80271417 -0.15067469 0.28770238
-0.80778342 -0.15176684 0.20685086
-0.80493993 -0.15151571 0.12671648
-1.370116 -0.22011374 8.8219395
-1.2025658 -0.20112184 5.885324
-1.0659631 -0.1856741 3.5062382
-0.95894349 -0.17044997 2.3541093
-0.91493201 -0.16457762 1.7708982
-0.8977685 -0.16276337 1.4126806
-0.87847781 -0.16020013 1.1457462
-1.4747934 -0.16315348 13.795734
-1.0951431 -0.1858732 4.3142481
-1.005596 -0.17550127 2.8301528
-0.93191469 -0.16529357 2.0207894
-0.90276372 -0.16156417 1.5702833
-0.88338441 -0.1591914 1.263347
-0.86848438 -0.15727469 1.0351121
-0.87020701 -0.16056077 0.94937932
-0.85267144 -0.15777782 0.78159201
-0.84495372 -0.15679735 0.64804614
-0.84631968 -0.15734854 0.53716075
-0.82572037 -0.15380989 0.42766985
-0.81613946 -0.15231246 0.33397555
-0.82085019 -0.15348279 0.25001755
-0.8074398 -0.15125939 0.1666968
-0.86656481 -0.15863301 0.86578602
-0.84538019 -0.1552034 0.70939052
-0.8412233 -0.15473618 0.58823985
-0.85356981 -0.1574609 0.48870388
-0.82245743 -0.15201168 0.38024059
-0.8078593 -0.14959778 0.28887469
-0.80815184 -0.1497926 0.20685086
-0.80530775 -0.14954841 0.12671648
-1.3716437 -0.21545014 8.8268785
-1.2022556 -0.19675866 5.8804283
-1.0651333 -0.18170133 3.5014665
-0.95953262 -0.16710161 2.3541093
-0.91550094 -0.16138291 1.7708982
-0.89833122 -0.15962858 1.4126806
-0.87903166 -0.1571327 1.1457462
-1.4817148 -0.15868092 13.855393
-1.0945451 -0.18184355 4.3094087
-1.0062025 -0.17199002 2.8301528
-0.93248594 -0.16203958 2.0207894
-0.90332222 -0.15841195 1.5702833
-0.88393474 -0.15610683 1.263347
-0.86902803 -0.15424217 1.0351121
-0.87076217 -0.15752222 0.94937932
-0.85321701 -0.15480047 0.78159201
-0.84549588 -0.15384696 0.64804614
-0.84686381 -0.15439336 0.53716075
-0.82625228 -0.15092665 0.42766985
-0.81666619 -0.14946268 0.33397555
-0.82138091 -0.15061656 0.25001755
-0.81286085 -0.14933982 0.16714388
-0.86711329 -0.15560716 0.86578602
-0.84591675 -0.15225153 0.70939052
-0.84175825 -0.15179883 0.58823985
-0.85411423 -0.15448043 0.48870388
-0.82298303 -0.14913984 0.38024059
-0.80837655 -0.14677691 0.28887469
-0.80866981 -0.14697072 0.20685086
-0.80582482 -0.14673646 0.12671648
-1.3723874 -0.2106609 8.8268785
-1.2019297 -0.19240011 5.8755331
-1.0657611 -0.17798221 3.5014665
-0.95818424 -0.16342303 2.3495069
-0.91605872 -0.15818624 1.7708982
-0.89888293 -0.15649186 1.4126806
-0.87957478 -0.15406334 1.1457462
-1.4822598 -0.1535078 13.855393
-1.0939324 -0.17782038 4.3045692
-1.0067967 -0.16847666 2.8301528
-0.93304586 -0.15878361 2.0207894
-0.90386963 -0.15525782 1.5702833
-0.88447428 -0.15302037 1.263347
-0.86956114 -0.15120775 1.0351121
-0.87130672 -0.15448172 0.94937932
-0.85375214 -0.15182124 0.78159201
-0.84191132 -0.15016069 0.64530468
-0.84739757 -0.15143631 0.53716075
-0.82677406 -0.14804158 0.42766985
-0.8171829 -0.14661108 0.33397555
-0.82190168 -0.14774849 0.25001755
-0.8133772 -0.1465015 0.16714388
-0.86765116 -0.15257941 0.86578602
-0.84644306 -0.1492978 0.70939052
-0.84228301 -0.14885961 0.58823985
-0.85911715 -0.15229008 0.49080193
-0.82349867 -0.14626618 0.38024059
-0.80888402 -0.14395426 0.28887469
-0.80917788 -0.14414702 0.20685086
-0.80141383 -0.14304486 0.12651494
-1.376188 -0.206329 8.8466349
-1.2015879 -0.18804628 5.8706384
-1.0663759 -0.17426093 3.5014665
-0.95874882 -0.16007735 2.3495069
-0.91424382 -0.15458864 1.7665092
-0.89942372 -0.15335321 1.4126806
-0.88010716 -0.15099211 1.1457462
-1.4780124 -0.14785883 13.810649
-1.0945464 -0.17400075 4.3045692
-1.0073787 -0.16496126 2.8301528
-0.93144715 -0.15516829 2.0162883
-0.90183407 -0.1516695 1.5660173
-0.88500303 -0.14993204 1.263347
-0.87008369 -0.14817148 1.0351121
-0.87184066 -0.15143935 0.94937932
-0.8542769 -0.14884017 0.78159201
-0.84243035 -0.14722095 0.64530468
-0.84355754 -0.14771353 0.53484195
-0.82728577 -0.14515468 0.42766985
-0.81768972 -0.14375767 0.33397555
-0.82725018 -0.14573076 0.25095019
-0.8138836 -0.14366139 0.16714388
-0.86817849 -0.14954983 0.86578602
-0.84695905 -0.14634226 0.70939052
-0.84279746 -0.14591858 0.58823985
-0.85964352 -0.14929026 0.49080193
-0.82400417 -0.14339074 0.38024059
-0.80938154 -0.14112985 0.28887469
-0.80967611 -0.1413216 0.20685086
-0.80190831 -0.14024653 0.12651494
-1.3722869 -0.20085017 8.8169994
-1.2012304 -0.18369712 5.8657427
-1.0669777 -0.17053752 3.5014665
-0.95737356 -0.15641502 2.3449044
-0.91477787 -0.15139639 1.7665092
-0.89717782 -0.1497497 1.4085476
-0.88062888 -0.14791904 1.1457462
-1.4673764 -0.14163162 13.706247
-1.0939051 -0.16998629 4.2997298
-1.0079483 -0.16144384 2.8301528
-0.93198305 -0.15191598 2.0162883
-0.90235794 -0.1485206 1.5660173
-0.88254833 -0.14634924 1.2593571
-0.87059563 -0.14513344 1.0351121
-0.86884809 -0.14779732 0.94587469
-0.85095435 -0.14520282 0.77845359
-0.84293908 -0.14427944 0.64530468
-0.84406799 -0.14476806 0.53484195
-0.82778746 -0.14226604 0.42766985
-0.81818658 -0.14090253 0.33397555
-0.82775384 -0.14284225 0.25095019
-0.81438011 -0.14081953 0.16714388
-0.86501348 -0.14589766 0.86246049
-0.84746474 -0.14338493 0.70939052
-0.84330171 -0.14297578 0.58823985
-0.86463362 -0.14704943 0.49289995
-0.82449973 -0.14051355 0.38024059
-0.80986929 -0.13830371 0.28887469
-0.81016451 -0.13849443 0.20685086
-0.80239296 -0.13744649 0.12651494
-1.3722105 -0.19594917 8.8120604
-1.2008573 -0.17935278 5.8608475
-1.0675665 -0.16681203 3.5014665
-0.9579137 -0.15307219 2.3449044
-0.91530073 -0.1482023 1.7665092
-0.89769512 -0.14661705 1.4085476
-0.87797701 -0.14432454 1.1419086
-1.480601 -0.1376837 13.825563
-1.0944917 -0.16616681 4.2997298
-1.0085058 -0.15792447 2.8301528
-0.93250769 -0.14866184 2.0162883
-0.90029603 -0.14495561 1.5617512
-0.88305378 -0.14326768 1.2593571
-0.87109691 -0.14209361 1.0351121
-0.86935872 -0.14476357 0.94587469
-0.85145605 -0.14223154 0.77845359
-0.84343761 -0.14133616 0.64530468
-0.84019953 -0.14108741 0.53252316
-0.82370734 -0.13860652 0.42579681
-0.81867343 -0.13804567 0.33397555
-0.82824743 -0.13995197 0.25095019
-0.81486672 -0.13797596 0.16714388
-0.8655175 -0.1428773 0.86246049
-0.84796005 -0.14042585 0.70939052
-0.83954304 -0.13932569 0.58570671
-0.86066484 -0.14328523 0.49080193
-0.82498515 -0.13763466 0.38024059
-0.81034708 -0.1354759 0.28887469
-0.81064296 -0.1356656 0.20685086
-0.80286783 -0.13464478 0.12651494
-1.3705772 -0.19083726 8.7972422
-1.2004683 -0.17501326 5.8559523
-1.0681423 -0.16308452 3.5014665
-0.95651197 -0.14942628 2.340302
-0.91581249 -0.1450064 1.7665092
-0.89542264 -0.14303902 1.4044147
-0.87847543 -0.14125896 1.1419086
-1.4794798 -0.13237329 13.810649
-1.0938216 -0.16216125 4.2948899
-1.0090508 -0.15440316 2.8301528
-0.93302095 -0.14540586 2.0162883
-0.90079653 -0.1418121 1.5617512
-0.8835485 -0.14018437 1.2593571
-0.87158763 -0.13905205 1.0351121
-0.86985874 -0.14172806 0.94587469
-0.85194731 -0.13925853 0.77845359
-0.84392583 -0.13839114 0.64530468
-0.84068686 -0.13815372 0.53252316
-0.82418615 -0.1357304 0.42579681
-0.82388335 -0.13596812 0.33538559
-0.82873088 -0.13706 0.25095019
-0.81043047 -0.13431647 0.1666968
-0.8660109 -0.13985522 0.86246049
-0.84844512 -0.13746506 0.70939052
-0.84002423 -0.13639429 0.58570671
-0.86115968 -0.14028007 0.49080193
-0.82546055 -0.13475409 0.38024059
-0.81081504 -0.13264644 0.28887469
-0.81111157 -0.13283509 0.20685086
-0.80333298 -0.13184142 0.12651494
-1.3696952 -0.18584342 8.787364
-1.2000639 -0.17067868 5.8510571
-1.0672286 -0.15913515 3.4966943
-0.95702773 -0.14608653 2.340302
-0.91631311 -0.14180873 1.7665092
-0.89591646 -0.13991253 1.4044147
-0.87896323 -0.13819164 1.1419086
-1.4836507 -0.12752491 13.845449
-1.094381 -0.15834209 4.2948899
-1.0112904 -0.15113476 2.8348453
-0.93137062 -0.14182071 2.0117872
-0.90128607 -0.13866688 1.5617512
-0.88105476 -0.13663785 1.255367
-0.87206769 -0.13600878 1.0351121
-0.8668263 -0.13812986 0.94237012
-0.85242826 -0.13628383 0.77845359
-0.84440374 -0.13544445 0.64530468
-0.84116399 -0.13521832 0.53252316
-0.82465494 -0.13285263 0.42579681
-0.82435292 -0.13309142 0.33538559
-0.82920426 -0.13416635 0.25095019
-0.81089437 -0.13148673 0.1666968
-0.86649382 -0.13683142 0.86246049
-0.84492749 -0.13387029 0.70644736
-0.84049517 -0.13346124 0.58570671
-0.85716212 -0.13655932 0.48870388
-0.82592595 -0.13187186 0.38024059
-0.8112731 -0.12981535 0.28887469
-0.80668062 -0.12921977 0.20616017
-0.80378824 -0.12903647 0.12651494
-1.3687949 -0.18085806 8.7774858
-1.2006524 -0.16648863 5.8510571
-1.0677775 -0.15540886 3.4966943
-0.95559943 -0.14245722 2.3356993
-0.91443443 -0.13825162 1.7621201
-0.89639938 -0.13678436 1.4044147
-0.87944019 -0.13512266 1.1419086
-1.4851494 -0.12243202 13.855393
-1.0936825 -0.15434569 4.290051
-1.0118119 -0.14760377 2.8348453
-0.93185991 -0.13856876 2.0117872
-0.90176457 -0.13551995 1.5617512
-0.88152629 -0.13356157 1.255367
-0.87253714 -0.13296387 1.0351121
-0.86730319 -0.13510323 0.94237012
-0.85289878 -0.13330749 0.77845359
-0.8448714 -0.1324961 0.64530468
-0.84163094 -0.13228129 0.53252316
-0.82511359 -0.12997323 0.42579681
-0.82481247 -0.13021307 0.33538559
-0.82481563 -0.13050348 0.25001755
-0.81134838 -0.12865539 0.1666968
-0.86696619 -0.13380596 0.86246049
-0.84538966 -0.13092011 0.70644736
-0.84095597 -0.13052654 0.58570671
-0.85314906 -0.13286819 0.48660582
-0.82638121 -0.12898804 0.38024059
-0.81172138 -0.1269827 0.28887469
-0.80712676 -0.12640314 0.20616017
-0.80423379 -0.12622993 0.12651494
-1.368647 -0.17598011 8.7725468
-1.2012262 -0.16229655 5.8510571
-1.0668355 -0.15147111 3.4919224
-0.95609087 -0.13912068 2.3356993
-0.91491145 -0.13505881 1.7621201
-0.89687139 -0.13365451 1.4044147
-0.87990654 -0.132052 1.1419086
-1.4845048 -0.11716405 13.845449
-1.0942147 -0.15052707 4.290051
-1.0140294 -0.14431384 2.8395383
-0.93018359 -0.13500275 2.0072861
-0.89965171 -0.13199309 1.5574853
-0.88198715 -0.13048364 1.255367
-0.86964262 -0.12941857 1.0314369
-0.86776948 -0.13207497 0.94237012
-0.85335886 -0.13032949 0.77845359
-0.84532875 -0.12954614 0.64530468
-0.84208751 -0.12934265 0.53252316
-0.82098031 -0.12638701 0.42392379
-0.82526195 -0.12733315 0.33538559
-0.82526618 -0.12762353 0.25001755
-0.81179255 -0.12582247 0.1666968
-0.86373585 -0.13022247 0.85913503
-0.84584147 -0.12796836 0.70644736
-0.8414064 -0.12759027 0.58570671
-0.85360765 -0.12988934 0.48660582
-0.82682639 -0.12610266 0.38024059
-0.81696451 -0.12488287 0.29004702
-0.80266804 -0.12283592 0.20546949
-0.8046695 -0.12342188 0.12651494
-1.3677109 -0.17100921 8.7626677
-1.2007759 -0.15796995 5.8461618
-1.0658791 -0.14754184 3.4871504
-0.95463634 -0.13550819 2.3310966
-0.91300672 -0.13152316 1.757731
-0.89733249 -0.13052303 1.4044147
-0.88036209 -0.12897976 1.1419086
-1.4854363 -0.11202113 13.850421
-1.0934875 -0.14653996 4.2852116
-1.0111083 -0.14029956 2.8301528
-0.93064916 -0.13175498 2.0072861
-0.90010697 -0.12885191 1.5574853
-0.88243729 -0.12740415 1.255367
-0.87008905 -0.12638217 1.0314369
-0.86822522 -0.12904507 0.94237012
-0.85380864 -0.12734991 0.77845359
-0.84577584 -0.1265946 0.64530468
-0.84253389 -0.12640242 0.53252316
-0.8214165 -0.1235205 0.42392379
-0.82095796 -0.12373682 0.33397555
-0.82570666 -0.12474203 0.25001755
-0.80730295 -0.12224247 0.16624972
-0.86418509 -0.12720667 0.85913503
-0.84628302 -0.12501505 0.70644736
-0.8418467 -0.12465243 0.58570671
-0.84956664 -0.12624198 0.48450777
-0.82259089 -0.12252019 0.37859708
-0.81739545 -0.12203038 0.29004702
-0.80309194 -0.12003334 0.20546949
-0.80509543 -0.1206123 0.12651494
-1.3667568 -0.16604699 8.7527885
-1.2013199 -0.15377751 5.8461618
-1.0663877 -0.14382033 3.4871504
-0.95510352 -0.13217507 2.3310966
-0.91346025 -0.12833537 1.757731
-0.8949964 -0.12699491 1.4002818
-0.88080698 -0.12590593 1.1419086
-1.4858183 -0.10683531 13.850421
-1.0939924 -0.14272207 4.2852116
-1.0081716 -0.13630745 2.8207672
-0.92894685 -0.12820828 2.0027847
-0.90055126 -0.12570918 1.5574853
-0.88287657 -0.12432309 1.255367
-0.87052494 -0.12334422 1.0314369
-0.8686704 -0.12601361 0.94237012
-0.85424793 -0.12436879 0.77845359
-0.84621257 -0.12364153 0.64530468
-0.84296995 -0.12346067 0.53252316
-0.82184267 -0.12065247 0.42392379
-0.82138485 -0.12087039 0.33397555
-0.82127738 -0.12114228 0.24908495
-0.80772471 -0.11942371 0.16624972
-0.8646239 -0.12418932 0.85913503
-0.84671426 -0.1220602 0.70644736
-0.84227669 -0.12171307 0.58570671
-0.85000211 -0.12327567 0.48450777
-0.82301354 -0.11964806 0.37859708
-0.81300658 -0.11847556 0.28887469
-0.80350602 -0.1172293 0.20546949
-0.80551153 -0.11780126 0.12651494
-1.3662732 -0.16356918 8.7478504
-1.2005498 -0.15176284 5.8412666
-1.0651326 -0.14194818 3.4823785
-0.95335162 -0.13057657 2.3264942
-0.91126633 -0.12673022 1.7533419
-0.8951509 -0.12590137 1.4002818
-0.87778658 -0.12438031 1.1380712
-1.4875063 -0.10565076 13.865335
-1.0928451 -0.14179684 4.2803721
-1.0065562 -0.13537385 2.8160744
-0.92901385 -0.12772186 2.0027847
-0.90061694 -0.12523763 1.5574853
-0.88291991 -0.1240149 1.255367
-0.87056798 -0.12304035 1.0314369
-0.86888897 -0.12449731 0.94237012
-0.85058957 -0.12247229 0.77531505
-0.85054415 -0.12290997 0.64804614
-0.84314156 -0.12228353 0.53252316
-0.82201034 -0.11950485 0.42392379
-0.81678516 -0.11917431 0.33256555
-0.82142478 -0.12013882 0.24908495
-0.80787003 -0.11843681 0.16624972
-0.86473197 -0.12343475 0.85913503
-0.84279823 -0.12089534 0.7035042
-0.84236145 -0.12112503 0.58570671
-0.85457999 -0.12333033 0.48660582
-0.82307607 -0.11921712 0.37859708
-0.81306845 -0.11804986 0.28887469
-0.80354685 -0.11694881 0.20546949
-0.80555266 -0.11752007 0.12651494
-1.3652921 -0.15862012 8.7379713
-1.2000874 -0.14723787 5.8363714
-1.0641654 -0.13785183 3.4776065
-0.95384592 -0.12691501 2.3264942
-0.9117462 -0.12323029 1.7533419
-0.89564908 -0.122307 1.4002818
-0.87827879 -0.12085567 1.1380712
-1.4884849 -0.099194355 13.870307
-1.0934774 -0.13683623 4.2803721
-1.0071602 -0.13080487 2.8160744
-0.92960536 -0.12334258 2.0027847
-0.89861226 -0.12064547 1.5532194
-0.8805294 -0.11929442 1.251377
-0.87115884 -0.11878449 1.0314369
-0.86931825 -0.12146356 0.94237012
-0.85103267 -0.11935391 0.77531505
-0.85098892 -0.11979175 0.64804614
-0.84360486 -0.11904521 0.53252316
-0.82705337 -0.11699688 0.42579681
-0.81725693 -0.11589457 0.33256555
-0.82190043 -0.11684044 0.24908495
-0.80833894 -0.11519286 0.16624972
-0.86156374 -0.11914924 0.85580951
-0.84333813 -0.11706962 0.7035042
-0.83863276 -0.11670729 0.58317351
-0.85513079 -0.11945111 0.48660582
-0.82362872 -0.11533716 0.37859708
-0.81361574 -0.11421707 0.28887469
-0.79920489 -0.11233135 0.20477881
-0.81106442 -0.11427905 0.12671648
-1.3650652 -0.15376665 8.7330322
-1.2005939 -0.14304787 5.8363714
-1.063159 -0.13395005 3.4728346
-0.95428312 -0.12358469 2.3264942
-0.91217083 -0.12004694 1.7533419
-0.8960706 -0.11917986 1.4002818
-0.87869531 -0.11778917 1.1380712
-1.4909502 -0.09413074 13.890193
-1.0927005 -0.13286699 4.2755322
-1.0076106 -0.12728843 2.8160744
-0.93003023 -0.12009691 2.0027847
-0.89902794 -0.11750799 1.5532194
-0.8809405 -0.11622006 1.251377
-0.87156814 -0.11574285 1.0314369
-0.86973697 -0.11842833 0.94237012
-0.85144413 -0.11638252 0.77531505
-0.85140193 -0.11682052 0.64804614
-0.84401524 -0.11609975 0.53252316
-0.82745671 -0.11410921 0.42579681
-0.81765652 -0.1130411 0.33256555
-0.82716894 -0.11464507 0.25001755
-0.80873609 -0.11237053 0.16624972
-0.86197442 -0.1161411 0.85580951
-0.84374166 -0.1141251 0.7035042
-0.83903503 -0.11377921 0.58317351
-0.85554254 -0.11646542 0.48660582
-0.82402629 -0.11246145 0.37859708
-0.80919379 -0.11071751 0.28770238
-0.79959208 -0.10954092 0.20477881
-0.81145841 -0.1114472 0.12671648
-1.3648213 -0.14891669 8.7280931
-1.2000744 -0.13873947 5.8314762
-1.0621383 -0.13005698 3.4680624
-0.95277023 -0.12000901 2.3218915
-0.9125843 -0.11686214 1.7533419
-0.8964811 -0.11605126 1.4002818
-0.8791011 -0.11472123 1.1380712
-1.4939305 -0.089082457 13.915051
-1.0931575 -0.12905194 4.2755322
-1.0080488 -0.12377043 2.8160744
-0.93044382 -0.11684977 2.0027847
-0.8994326 -0.11436908 1.5532194
-0.8813408 -0.11314431 1.251377
-0.8719669 -0.11269981 1.0314369
-0.86660969 -0.11492309 0.9388656
-0.84798694 -0.11289628 0.77217656
-0.85180449 -0.11384785 0.64804614
-0.84002483 -0.11256472 0.53020442
-0.82784998 -0.11122015 0.42579681
-0.81804615 -0.11018626 0.33256555
-0.82756412 -0.11175702 0.25001755
-0.80418843 -0.10887871 0.16580264
-0.86237454 -0.11313153 0.85580951
-0.84413487 -0.1111792 0.7035042
-0.8351534 -0.11028557 0.58064032
-0.85594386 -0.11347831 0.48660582
-0.8244139 -0.10958438 0.37859708
-0.80957532 -0.10789222 0.28770238
-0.79996961 -0.10674917 0.20477881
-0.8118425 -0.10861401 0.12671648
-1.3653327 -0.14415167 8.7280931
-1.2005514 -0.13454957 5.8314762
-1.0611037 -0.12617268 3.4632907
-0.95318335 -0.1166825 2.3218915
-0.9129867 -0.11367591 1.7533419
-0.89408875 -0.11257003 1.3961488
-0.87949616 -0.11165189 1.1380712
-1.4984902 -0.084102936 13.954823
-1.0936015 -0.12523532 4.2755322
-1.0084747 -0.12025093 2.8160744
-0.93084604 -0.11360119 2.0027847
-0.89982641 -0.11122878 1.5532194
-0.87874031 -0.1096942 1.2473869
-0.86899126 -0.10923284 1.0277618
-0.86700559 -0.11189736 0.9388656
-0.8483758 -0.10993557 0.77217656
-0.84805024 -0.11033455 0.64530468
-0.84041262 -0.1096318 0.53020442
-0.82823318 -0.10832974 0.42579681
-0.82318211 -0.10795373 0.33397555
-0.82794917 -0.10886759 0.25001755
-0.80456358 -0.10607091 0.16580264
-0.86276418 -0.1101206 0.85580951
-0.84451783 -0.10823194 0.7035042
-0.83553326 -0.10736967 0.58064032
-0.85183358 -0.10990922 0.48450777
-0.82479137 -0.10670596 0.37859708
-0.80994701 -0.10506561 0.28770238
-0.80033737 -0.1039561 0.20477881
-0.8122167 -0.10577948 0.12671648
-1.3650546 -0.13930623 8.7231531
-1.2000015 -0.13024844 5.826581
-1.0600548 -0.12229718 3.4585185
-0.95358491 -0.11335456 2.3218915
-0.91337794 -0.11048831 1.7533419
-0.89447623 -0.10944839 1.3961488
-0.87988055 -0.1085812 1.1380712
-1.4961129 -0.078733623 13.929965
-1.0927827 -0.12127883 4.2706933
-1.0088884 -0.11672997 2.8160744
-0.92907512 -0.11009537 1.9982835
-0.90020913 -0.10808711 1.5532194
-0.87911785 -0.10662615 1.2473869
-0.86936724 -0.10619883 1.0277618
-0.86739087 -0.10887026 0.9388656
-0.84875441 -0.10697351 0.77217656
-0.84843016 -0.10737363 0.64530468
-0.84079021 -0.10669754 0.53020442
-0.82400739 -0.10485295 0.42392379
-0.82355392 -0.10507964 0.33397555
-0.82832414 -0.10597685 0.25001755
-0.80492896 -0.10326181 0.16580264
-0.86314332 -0.10710832 0.85580951
-0.84087944 -0.10478376 0.70056105
-0.83590293 -0.10445246 0.58064032
-0.85221207 -0.10693509 0.48450777
-0.82515877 -0.10382625 0.37859708
-0.81030881 -0.10223773 0.28770238
-0.8006953 -0.10116176 0.20477881
-0.81258094 -0.10294369 0.12671648
-1.3655325 -0.13454047 8.7231531
-1.2004489 -0.12605886 5.826581
-1.0589918 -0.11843054 3.4537466
-0.95397472 -0.11002523 2.3218915
-0.91375804 -0.10729936 1.7533419
-0.89485288 -0.10632542 1.3961488
-0.88025421 -0.10550918 1.1380712
-1.4953138 -0.073459215 13.920022
-1.0931994 -0.11746357 4.2706933
-1.0092896 -0.11320758 2.8160744
-0.92945379 -0.10685164 1.9982835
-0.90058094 -0.10494414 1.5532194
-0.87948465 -0.10355681 1.2473869
-0.86636609 -0.10276447 1.0240866
-0.86776567 -0.10584184 0.9388656
-0.84912264 -0.10401016 0.77217656
-0.84464967 -0.10390108 0.64256322
-0.836761 -0.10321983 0.52788562
-0.82436836 -0.10197599 0.42392379
-0.82391572 -0.10220425 0.33397555
-0.82868904 -0.10308481 0.25001755
-0.8102262 -0.10106786 0.16624972
-0.86351192 -0.10409473 0.85580951
-0.84124011 -0.10184791 0.70056105
-0.83626246 -0.10153398 0.58064032
-0.85258013 -0.10395966 0.48450777
-0.82551616 -0.10094529 0.37859708
-0.81066078 -0.099408604 0.28770238
-0.80104357 -0.098366201 0.20477881
-0.80797678 -0.099496029 0.12651494
-1.3659939 -0.12977304 8.7231531
-1.1998686 -0.12176521 5.8216858
-1.0579146 -0.11457281 3.4489746
-0.95435297 -0.10669457 2.3218915
-0.9117474 -0.10383838 1.7489529
-0.89242297 -0.10287917 1.3920158
-0.88061714 -0.10243588 1.1380712
-1.494496 -0.068191342 13.910079
-1.0923524 -0.11351722 4.2658539
-1.0079629 -0.10949774 2.8113818
-0.92765754 -0.10336581 1.9937823
-0.90094179 -0.10179989 1.5532194
-0.87984085 -0.1004862 1.2473869
-0.86671948 -0.099739671 1.0240866
-0.86812979 -0.10281212 0.9388656
-0.84948051 -0.10104553 0.77217656
-0.84500718 -0.10095207 0.64256322
-0.83711618 -0.10029835 0.52788562
-0.82471937 -0.099097788 0.42392379
-0.82426739 -0.099327624 0.33397555
-0.82904387 -0.10019153 0.25001755
-0.81057405 -0.098239027 0.16624972
-0.86387002 -0.10107987 0.85580951
-0.84159046 -0.098910809 0.70056105
-0.84089297 -0.099118695 0.58317351
-0.84843069 -0.10044951 0.48240969
-0.82586354 -0.098063082 0.37859708
-0.81582928 -0.097152933 0.28887469
-0.80138206 -0.095569439 0.20477881
-0.80831921 -0.096675053 0.12651494
-1.3664385 -0.12500404 8.7231531
-1.2002863 -0.11757614 5.8216858
-1.058308 -0.1108793 3.4489746
-0.9547196 -0.1033626 2.3218915
-0.91210431 -0.10065516 1.7489529
-0.89277667 -0.099763416 1.3920158
-0.87778425 -0.099002376 1.1342337
-1.4947249 -0.062974162 13.910079
-1.092742 -0.10970351 4.2658539
-1.0066228 -0.10579854 2.8066888
-0.92801267 -0.10012705 1.9937823
-0.90129161 -0.098654397 1.5532194
-0.8801862 -0.097414382 1.2473869
-0.86706239 -0.096713647 1.0240866
-0.86848342 -0.099781163 0.9388656
-0.84982806 -0.098079674 0.77217656
-0.84120077 -0.0975205 0.63982177
-0.84186143 -0.097887121 0.53020442
-0.82045549 -0.095681518 0.42205074
-0.8246091 -0.096449785 0.33397555
-0.8293885 -0.097297013 0.25001755
-0.81091201 -0.095408991 0.16624972
-0.86421764 -0.098063797 0.85580951
-0.84594673 -0.096430078 0.7035042
-0.84123385 -0.096182831 0.58317351
-0.84877616 -0.09748733 0.48240969
-0.82620084 -0.095179684 0.37859708
-0.81616348 -0.094304569 0.28887469
-0.80663007 -0.093340695 0.20546949
-0.80865175 -0.093852907 0.12651494
-1.3668666 -0.12023352 8.7231531
-1.1996756 -0.11329017 5.8167906
-1.0572035 -0.10703436 3.4442027
-0.95313156 -0.099826194 2.3172891
-0.91006863 -0.097216621 1.7445638
-0.89311945 -0.096646428 1.3920158
-0.87812454 -0.095937729 1.1342337
-1.4944029 -0.057736024 13.905107
-1.0918672 -0.10576755 4.2610145
-1.0069859 -0.10228412 2.8066888
-0.92619133 -0.096661404 1.9892812
-0.90163052 -0.095507704 1.5532194
-0.88052088 -0.09434136 1.2473869
-0.86739469 -0.093686439 1.0240866
-0.86528212 -0.096354552 0.93536103
-0.85016525 -0.095112622 0.77217656
-0.84153605 -0.094583571 0.63982177
-0.84219795 -0.094947882 0.53020442
-0.82078451 -0.092817008 0.42205074
-0.8249408 -0.093570776 0.33397555
-0.82972312 -0.094401307 0.25001755
-0.8112402 -0.0925778 0.16624972
-0.86455464 -0.095046513 0.85580951
-0.84627813 -0.093476593 0.7035042
-0.84156448 -0.093245789 0.58317351
-0.84460062 -0.094021983 0.48031163
-0.82183498 -0.091771208 0.37695354
-0.82131809 -0.091996014 0.29004702
-0.80695099 -0.090524465 0.20546949
-0.8040098 -0.090470985 0.12631342
-1.3657293 -0.11533122 8.713275
-1.1990497 -0.1090099 5.8118949
-1.0575707 -0.10334339 3.4442027
-0.95347422 -0.096498534 2.3172891
-0.91040248 -0.094039299 1.7445638
-0.89625013 -0.093820959 1.3961488
-0.87845403 -0.092871919 1.1342337
-1.4956609 -0.052555889 13.915051
-1.0922297 -0.10195557 4.2610145
-1.0073369 -0.098768458 2.8066888
-0.92652309 -0.093427807 1.9892812
-0.89936399 -0.092094474 1.5489535
-0.88084489 -0.091267191 1.2473869
-0.86771649 -0.090658098 1.0240866
-0.86561316 -0.093333565 0.93536103
-0.85049212 -0.092144415 0.77217656
-0.84186107 -0.091645479 0.63982177
-0.84252429 -0.092007481 0.53020442
-0.82110345 -0.089951374 0.42205074
-0.820494 -0.090166725 0.33256555
-0.83004755 -0.091504462 0.25001755
-0.81155837 -0.089745484 0.16624972
-0.86488122 -0.092028074 0.85580951
-0.8506183 -0.090951473 0.70644736
-0.84188479 -0.090307616 0.58317351
-0.84492362 -0.091073208 0.48031163
-0.82215035 -0.0889019 0.37695354
-0.82163423 -0.089128524 0.29004702
-0.81218511 -0.088241942 0.20616017
-0.80432069 -0.087663919 0.12631342
-1.3653493 -0.1105008 8.7083368
-1.1984086 -0.1047354 5.8070002
-1.0594112 -0.099790849 3.4489746
-0.95186079 -0.092980072 2.3126867
-0.91072518 -0.090860829 1.7445638
-0.89657217 -0.090691887 1.3961488
-0.87877285 -0.089804977 1.1342337
-1.4947696 -0.047301803 13.905107
-1.0913268 -0.098030172 4.2561746
-1.0076754 -0.095251597 2.8066888
-0.92684352 -0.09019307 1.9892812
-0.89967996 -0.088954546 1.5489535
-0.88115805 -0.088191919 1.2473869
-0.86802763 -0.087628648 1.0240866
-0.86593372 -0.090311445 0.93536103
-0.85080856 -0.089175083 0.77217656
-0.84217584 -0.088706285 0.63982177
-0.84284031 -0.089065962 0.53020442
-0.82141244 -0.087084636 0.42205074
-0.82080376 -0.087302119 0.33256555
-0.8303619 -0.088606492 0.25001755
-0.8118667 -0.086912066 0.16624972
-0.86519718 -0.089008518 0.85580951
-0.85093063 -0.087981708 0.70644736
-0.84219491 -0.087368339 0.58317351
-0.84523642 -0.088123314 0.48031163
-0.82245564 -0.086031526 0.37695354
-0.8219403 -0.086259939 0.29004702
-0.81248826 -0.085406348 0.20616017
-0.80462182 -0.08485578 0.12631342
-1.3641771 -0.10561466 8.6984577
-1.1977524 -0.10046668 5.8021049
-1.0597531 -0.096092202 3.4489746
-0.95217949 -0.089656889 2.3126867
-0.91103673 -0.087681249 1.7445638
-0.89688331 -0.087561719 1.3961488
-0.87908101 -0.08673694 1.1342337
-1.49386 -0.04205459 13.895165
-1.0916624 -0.094220132 4.2561746
-1.0080018 -0.091733575 2.8066888
-0.92715269 -0.086957231 1.9892812
-0.89998502 -0.085813537 1.5489535
-0.88146055 -0.085115567 1.2473869
-0.86832821 -0.084598139 1.0240866
-0.86624366 -0.087288223 0.93536103
-0.85111463 -0.086204663 0.77217656
-0.84248036 -0.085766003 0.63982177
-0.83873916 -0.085673384 0.52788562
-0.82171148 -0.084216848 0.42205074
-0.82110351 -0.084436446 0.33256555
-0.83066618 -0.085707448 0.25001755
-0.81216514 -0.084077597 0.16624972
-0.86178708 -0.08561898 0.85248405
-0.85525459 -0.085412323 0.70939052
-0.8382054 -0.083998352 0.58064032
-0.85005456 -0.085627057 0.48240969
-0.81805271 -0.082685344 0.37531003
-0.82223642 -0.08339031 0.29004702
-0.81278133 -0.082569718 0.20616017
-0.79994291 -0.081540003 0.12611188
-1.3629878 -0.10073807 8.6885786
-1.1970806 -0.096203826 5.7972097
-1.060082 -0.092392385 3.4489746
-0.95054102 -0.086156569 2.3080842
-0.91133726 -0.084500603 1.7445638
-0.89438176 -0.084167115 1.3920158
-0.87937844 -0.083667852 1.1342337
-1.0919846 -0.090408951 4.2561746
-1.0083159 -0.088214427 2.8066888
-0.92528248 -0.08352492 1.9847798
-0.89768189 -0.082433291 1.5446876
-0.88175231 -0.082038179 1.2473869
-0.86524284 -0.0812499 1.0204115
-0.86654305 -0.084263936 0.93536103
-0.85141033 -0.083233193 0.77217656
-0.84277463 -0.082824677 0.63982177
-0.83903313 -0.08274512 0.52788562
-0.82200038 -0.081348024 0.42205074
-0.82139319 -0.081569746 0.33256555
-0.82607228 -0.082320333 0.24908495
-0.81245369 -0.081242099 0.16624972
-0.86208069 -0.082610264 0.85248405
-0.85554755 -0.082426406 0.70939052
-0.83849353 -0.081071958 0.58064032
-0.85486561 -0.08309824 0.48450777
-0.81833631 -0.079829305 0.37531003
-0.81768495 -0.080046184 0.28887469
-0.80813628 -0.079248838 0.20546949
-0.80022264 -0.078747183 0.12611188
-1.3602306 -0.095762394 8.6688213
-1.196394 -0.091946878 5.7923141
-1.0603981 -0.088691451 3.4489746
-0.950836 -0.082838036 2.3080842
-0.9116267 -0.08131893 1.7445638
-0.89467013 -0.081044622 1.3920158
-0.87966514 -0.080597728 1.1342337
-1.0922936 -0.08659666 4.2561746
-1.0068982 -0.08455012 2.8019962
-0.9255684 -0.080294579 1.9847798
-0.89796418 -0.079299293 1.5446876
-0.88203323 -0.078959785 1.2473869
-0.86552119 -0.078229144 1.0204115
-0.8668319 -0.08123862 0.93536103
-0.85169572 -0.080260709 0.77217656
-0.84305859 -0.079882331 0.63982177
-0.83490688 -0.079396658 0.52556682
-0.81766444 -0.07803791 0.42017773
-0.82167298 -0.078702047 0.33256555
-0.82146484 -0.078966334 0.24815233
-0.81273234 -0.078405611 0.16624972
-0.86236376 -0.079600535 0.85248405
-0.85180533 -0.07906612 0.70644736
-0.8387714 -0.078144573 0.58064032
-0.85515046 -0.080113694 0.48450777
-0.81860995 -0.076972291 0.37531003
-0.81312031 -0.076734863 0.28770238
-0.80840796 -0.076427437 0.20546949
-0.8004927 -0.075953402 0.12611188
-1.3605566 -0.091013715 8.6688213
-1.1956922 -0.087695919 5.7874193
-1.0621892 -0.085108362 3.4537466
-0.95111936 -0.079518504 2.3080842
-0.91190499 -0.078136265 1.7445638
-0.8921442 -0.077677362 1.3878829
-0.87994111 -0.077526636 1.1342337
-1.0925893 -0.082783319 4.2561746
-1.0071871 -0.081034869 2.8019962
-0.92584306 -0.077063255 1.9847798
-0.8982355 -0.076164328 1.5446876
-0.88230354 -0.075880431 1.2473869
-0.865789 -0.075207435 1.0204115
-0.86711019 -0.078212313 0.93536103
-0.84809428 -0.076935828 0.76903814
-0.84333229 -0.076939024 0.63982177
-0.83517897 -0.076481797 0.52556682
-0.81793183 -0.07518325 0.42017773
-0.82194269 -0.075833395 0.33256555
-0.8217355 -0.076098412 0.24815233
-0.8130011 -0.075568169 0.16624972
-0.8663556 -0.076919802 0.85580951
-0.85207611 -0.076092288 0.70644736
-0.83903909 -0.075216241 0.58064032
-0.85542488 -0.077128172 0.48450777
-0.81887364 -0.074114338 0.37531003
-0.81338322 -0.07389608 0.28770238
-0.80866987 -0.073605098 0.20546949
-0.80075294 -0.073158696 0.12611188
-1.3616415 -0.08631286 8.6737604
-1.1949753 -0.083450958 5.7825241
-1.0624799 -0.081400111 3.4537466
-0.95139116 -0.076197989 2.3080842
-0.91217214 -0.074952647 1.7445638
-0.89240992 -0.074562728 1.3878829
-0.88020635 -0.074454598 1.1342337
-1.5022967 -0.021300403 13.969737
-1.0928715 -0.078968965 4.2561746
-1.0057431 -0.077386543 2.7973032
-0.92610639 -0.073830992 1.9847798
-0.89849585 -0.073028438 1.5446876
-0.87955993 -0.072552726 1.243397
-0.86266786 -0.071903482 1.0167363
-0.86737794 -0.075185061 0.93536103
-0.84835768 -0.07397496 0.76903814
-0.84359574 -0.073994778 0.63982177
-0.83544087 -0.073566012 0.52556682
-0.81818932 -0.072327681 0.42017773
-0.82220238 -0.072963819 0.33256555
-0.81710327 -0.072793737 0.24721971
-0.8082996 -0.072286241 0.16580264
-0.86661875 -0.073895186 0.85580951
-0.84830934 -0.072772264 0.7035042
-0.83929652 -0.072286986 0.58064032
-0.85568893 -0.074141718 0.48450777
-0.81912744 -0.071255483 0.37531003
-0.80879396 -0.070633605 0.28653008
-0.80892187 -0.070781872 0.20546949
-0.8010034 -0.070363104 0.12611188
-1.3642614 -0.081697971 8.6885786
-1.1952592 -0.079279214 5.7825241
-1.0627575 -0.077690877 3.4537466
-0.95165133 -0.07287655 2.3080842
-0.91242826 -0.071768112 1.7445638
-0.89266473 -0.071447179 1.3878829
-0.88046092 -0.071381651 1.1342337
-1.0931405 -0.075153656 4.2561746
-1.0060072 -0.073875375 2.7973032
-0.92635846 -0.07059782 1.9847798
-0.89874536 -0.069891661 1.5446876
-0.87980783 -0.069482051 1.243397
-0.86291355 -0.068891779 1.0167363
-0.86763513 -0.072156891 0.93536103
-0.84861076 -0.07101319 0.76903814
-0.84384888 -0.071049623 0.63982177
-0.83569252 -0.070649333 0.52556682
-0.8184368 -0.069471225 0.42017773
-0.81767225 -0.0696861 0.33115551
-0.81735235 -0.069941074 0.24721971
-0.80854708 -0.069464304 0.16580264
-0.86687142 -0.070869669 0.85580951
-0.84452975 -0.06947948 0.70056105
-0.83954376 -0.069356859 0.58064032
-0.85594255 -0.071154356 0.48450777
-0.81937116 -0.068395764 0.37531003
-0.80903566 -0.067809962 0.28653008
-0.80916399 -0.067957774 0.20546949
-0.80124414 -0.067566656 0.12611188
-1.3668656 -0.07706584 8.7033968
-1.1945125 -0.075042918 5.7776289
-1.061533 -0.073877335 3.4489746
-0.95189989 -0.069554225 2.3080842
-0.91267323 -0.068582706 1.7445638
-0.89290869 -0.068330765 1.3878829
-0.8807047 -0.068307839 1.1342337
-1.5125364 -0.010877362 14.064196
-1.0933962 -0.071337424 4.2561746
-1.0045375 -0.070243232 2.7926106
-0.92659926 -0.067363799 1.9847798
-0.89898378 -0.066754028 1.5446876
-0.880045 -0.066410527 1.243397
-0.86314881 -0.065879226 1.0167363
-0.86788166 -0.069127843 0.93536103
-0.85273331 -0.068361357 0.77217656
-0.84825963 -0.068439685 0.64256322
-0.8359341 -0.06773179 0.52556682
-0.82329494 -0.06698975 0.42205074
-0.81791055 -0.066831462 0.33115551
-0.82248729 -0.067489207 0.24815233
-0.8087846 -0.066641524 0.16580264
-0.86711353 -0.067843296 0.85580951
-0.84476709 -0.066531092 0.70056105
-0.83978075 -0.066425875 0.58064032
-0.85618567 -0.068166122 0.48450777
-0.82431209 -0.065911457 0.37695354
-0.8092674 -0.064985484 0.28653008
-0.80939627 -0.065132856 0.20546949
-0.80147511 -0.06476938 0.12611188
-1.369454 -0.072416522 8.718214
-1.1947671 -0.070872836 5.7776289
-1.060295 -0.070073299 3.4442027
-0.95213687 -0.06623105 2.3080842
-0.912907 -0.065396465 1.7445638
-0.89314175 -0.065213516 1.3878829
-0.88093781 -0.065233186 1.1342337
-1.5141644 -0.0056023044 14.07911
-1.0923841 -0.067443155 4.2513356
-1.0047765 -0.066736311 2.7926106
-0.92682874 -0.06412895 1.9847798
-0.89921135 -0.063615583 1.5446876
-0.883277 -0.063554153 1.2473869
-0.86675465 -0.063111797 1.0204115
-0.86811769 -0.066097945 0.93536103
-0.85296679 -0.065384343 0.77217656
-0.8484934 -0.065478295 0.64256322
-0.83174884 -0.064471267 0.52324796
-0.82352376 -0.064115509 0.42205074
-0.81813884 -0.06397602 0.33115551
-0.82271791 -0.064617775 0.24815233
-0.80901229 -0.063817941 0.16580264
-0.86362171 -0.064538091 0.85248405
-0.84499419 -0.063581906 0.70056105
-0.84000748 -0.063494094 0.58064032
-0.85189289 -0.064832814 0.48240969
-0.8245371 -0.06303367 0.37695354
-0.8143357 -0.062532276 0.28770238
-0.80961871 -0.062307134 0.20546949
-0.8016963 -0.061971314 0.12611188
-1.3650421 -0.067407243 8.6885786
-1.1939906 -0.066645399 5.7727332
-1.060533 -0.066371746 3.4442027
-0.9523623 -0.06290707 2.3080842
-0.91312975 -0.062209427 1.7445638
-0.89336395 -0.062095467 1.3878829
-0.88116008 -0.062157739 1.1342337
-1.0926129 -0.063629612 4.2513356
-1.0050035 -0.063228585 2.7926106
-0.92704701 -0.060893327 1.9847798
-0.89942789 -0.060476359 1.5446876
-0.88349342 -0.060470555 1.2473869
-0.8669697 -0.060085878 1.0204115
-0.86834311 -0.063067243 0.93536103
-0.85318977 -0.062406536 0.77217656
-0.8487168 -0.062516101 0.64256322
-0.83196884 -0.061567526 0.52324796
-0.82374257 -0.061240479 0.42205074
-0.81357348 -0.060762621 0.32974547
-0.82293844 -0.061745562 0.24815233
-0.80426425 -0.06061931 0.16535556
-0.86384171 -0.061523091 0.85248405
-0.84521103 -0.060631935 0.70056105
-0.84022403 -0.060561534 0.58064032
-0.85211396 -0.061858755 0.48240969
-0.82946175 -0.060498495 0.37859708
-0.81454903 -0.059689332 0.28770238
-0.80489242 -0.059117973 0.20477881
-0.80190772 -0.059172492 0.12611188
-1.3652691 -0.062641941 8.6885786
-1.1942159 -0.06247719 5.7727332
-1.0592681 -0.062581643 3.4394307
-0.95257604 -0.059582323 2.3080842
-0.91095138 -0.058867492 1.7401747
-0.89357525 -0.058976673 1.3878829
-0.88137168 -0.05908154 1.1342337
-1.0928284 -0.059815295 4.2513356
-1.0034953 -0.059618037 2.7879179
-0.9272539 -0.057656959 1.9847798
-0.89963353 -0.057336405 1.5446876
-0.88369918 -0.057386216 1.2473869
-0.86717415 -0.057059225 1.0204115
-0.86855799 -0.060035776 0.93536103
-0.85340244 -0.059427965 0.77217656
-0.84475863 -0.059260733 0.63982177
-0.83217865 -0.058663033 0.52324796
-0.8239513 -0.058364712 0.42205074
-0.81378061 -0.057922348 0.32974547
-0.82314897 -0.058872592 0.24815233
-0.80447096 -0.057811536 0.16535556
-0.86405122 -0.058507346 0.85248405
-0.84541756 -0.057681225 0.70056105
-0.83612955 -0.057333536 0.57810718
-0.85232472 -0.058883946 0.48240969
-0.82495707 -0.057275824 0.37695354
-0.8147524 -0.056845661 0.28770238
-0.80509388 -0.056308016 0.20477881
-0.80210942 -0.056372955 0.12611188
-1.3608216 -0.057679851 8.6589432
-1.1934098 -0.058258835 5.7678385
-1.0594801 -0.058883727 3.4394307
-0.95277828 -0.056256849 2.3080842
-0.91115129 -0.055687319 1.7401747
-0.89377564 -0.055857152 1.3878829
-0.87837374 -0.055801682 1.1303962
-1.0930305 -0.056000248 4.2513356
-1.0036973 -0.056114823 2.7879179
-0.92744946 -0.054419886 1.9847798
-0.8998282 -0.054195743 1.5446876
-0.8808865 -0.054116704 1.243397
-0.86736804 -0.054031875 1.0204115
-0.86876231 -0.057003584 0.93536103
-0.85360467 -0.056448676 0.77217656
-0.84496033 -0.056311611 0.63982177
-0.83679825 -0.056053728 0.52556682
-0.82414997 -0.055488229 0.42205074
-0.81397784 -0.055081371 0.32974547
-0.82334942 -0.05599891 0.24815233
-0.80466783 -0.055003054 0.16535556
-0.86425012 -0.055490889 0.85248405
-0.84561372 -0.054729816 0.70056105
-0.83632463 -0.054414552 0.57810718
-0.85252512 -0.055908423 0.48240969
-0.82515198 -0.054395843 0.37695354
-0.81009585 -0.05368001 0.28653008
-0.80034435 -0.053169176 0.20408812
-0.80230135 -0.053572726 0.12611188
-1.3641202 -0.053049196 8.6787004
-1.1936059 -0.054092702 5.7678385
-1.0596793 -0.055185091 3.4394307
-0.9549194 -0.053038716 2.3126867
-0.91134012 -0.052506473 1.7401747
-0.89396524 -0.052736953 1.3878829
-0.87856323 -0.05273525 1.1303962
-1.5194254 0.015597889 14.128825
-1.0932193 -0.052184518 4.2513356
-1.0038871 -0.052610923 2.7879179
-0.92763376 -0.051182151 1.9847798
-0.89740807 -0.050907027 1.5404216
-0.88107002 -0.051041506 1.243397
-0.86755139 -0.051003866 1.0204115
-0.86895597 -0.053970687 0.93536103
-0.85379654 -0.053468693 0.77217656
-0.84515178 -0.053361807 0.63982177
-0.83698887 -0.053132415 0.52556682
-0.82433867 -0.052611072 0.42205074
-0.81416512 -0.052239724 0.32974547
-0.82353991 -0.05312454 0.24815233
-0.80485493 -0.052193902 0.16535556
-0.86443859 -0.052473754 0.85248405
-0.84579962 -0.051777739 0.70056105
-0.83650947 -0.0514949 0.57810718
-0.85271508 -0.052932214 0.48240969
-0.82533681 -0.051515192 0.37695354
-0.81027836 -0.050851926 0.28653008
-0.80052507 -0.050375126 0.20408812
-0.80248344 -0.050771844 0.12611188
-1.3658501 -0.048341706 8.6885786
-1.1937875 -0.049925912 5.7678385
-1.0598654 -0.051485784 3.4394307
-0.95509875 -0.049705103 2.3126867
-0.9115178 -0.049324982 1.7401747
-0.89414382 -0.04961611 1.3878829
-0.87874192 -0.049668171 1.1303962
-1.5177627 0.020878414 14.113911
-1.0933948 -0.048368152 4.2513356
-1.0040646 -0.049106386 2.7879179
-0.92780679 -0.047943793 1.9847798
-0.89758027 -0.047774181 1.5404216
-0.87823403 -0.047802206 1.2394069
-0.86772412 -0.047975235 1.0204115
-0.86557889 -0.050728742 0.93185651
-0.85397792 -0.050488062 0.77217656
-0.84533286 -0.050411355 0.63982177
-0.83716923 -0.050210457 0.52556682
-0.82451725 -0.04973327 0.42205074
-0.81434256 -0.049397435 0.32974547
-0.82372034 -0.050249524 0.24815233
-0.80503219 -0.049384117 0.16535556
-0.86461651 -0.049455982 0.85248405
-0.84193993 -0.048592359 0.69761789
-0.83668411 -0.048574623 0.57810718
-0.8528946 -0.049955361 0.48240969
-0.82079762 -0.048356328 0.37531003
-0.81045091 -0.048023213 0.28653008
-0.80069602 -0.047580466 0.20408812
-0.80265576 -0.047970347 0.12611188
-1.3675638 -0.043622792 8.6984577
-1.1939545 -0.045758512 5.7678385
-1.0600387 -0.047785852 3.4394307
-0.95526642 -0.046370883 2.3126867
-0.91168445 -0.046142887 1.7401747
-0.89431161 -0.046494663 1.3878829
-0.87890995 -0.046600487 1.1303962
-1.5123507 0.026080443 14.064196
-1.093557 -0.044551197 4.2513356
-1.0042299 -0.045601245 2.7879179
-0.9279685 -0.044704851 1.9847798
-0.89774162 -0.04464075 1.5404216
-0.8783955 -0.044736307 1.2394069
-0.8678863 -0.044946019 1.0204115
-0.86575067 -0.047706995 0.93185651
-0.85026264 -0.047290899 0.76903814
-0.84550375 -0.047460284 0.63982177
-0.8373394 -0.047287885 0.52556682
-0.82468587 -0.046854865 0.42205074
-0.81451005 -0.046554551 0.32974547
-0.82389075 -0.047373898 0.24815233
-0.80519968 -0.046573732 0.16535556
-0.86478382 -0.046437606 0.85248405
-0.84210438 -0.045653146 0.69761789
-0.83684862 -0.045653753 0.57810718
-0.85306376 -0.046977896 0.48240969
-0.82567632 -0.045752045 0.37695354
-0.80576044 -0.04492344 0.28535774
-0.79591286 -0.044508792 0.20339744
-0.80780637 -0.045448884 0.12631342
-1.3692613 -0.0388925 8.7083368
-1.1941068 -0.041590557 5.7678385
-1.060199 -0.044085335 3.4394307
-0.95737422 -0.043123707 2.3172891
-0.91183996 -0.042960234 1.7401747
-0.89446843 -0.04337265 1.3878829
-0.87906724 -0.043532234 1.1303962
-1.0924498 -0.040687203 4.2464962
-1.004383 -0.042095549 2.7879179
-0.92811894 -0.041465364 1.9847798
-0.897892 -0.041506771 1.5404216
-0.8785463 -0.041669864 1.2394069
-0.86803788 -0.041916255 1.0204115
-0.86591196 -0.044684671 0.93185651
-0.85042256 -0.044322643 0.76903814
-0.8456642 -0.044508636 0.63982177
-0.83749932 -0.044364739 0.52556682
-0.82484442 -0.043975886 0.42205074
-0.81945771 -0.043968011 0.33115551
-0.82405102 -0.044497695 0.24815233
-0.8053574 -0.043762773 0.16535556
