# .PCD v0.7 - Point Cloud Data file format
VERSION 0.7
FIELDS x y z
SIZE 4 4 4
TYPE F F F
COUNT 1 1 1
WIDTH 1537
HEIGHT 1
VIEWPOINT 0 0 0 1 0 0 0
POINTS 1537
DATA ascii
3.4251816 -0.37904346 16.591187
5.1621876 -0.53598535 16.638737
8.2315121 -0.82581484 19.549141
10.602268 -1.0413109 19.590559
13.274263 -1.2850858 19.659649
16.353956 -1.5659875 19.74613
0.9455232 -0.1958005 16.536793
1.7563107 -0.29372597 16.564863
4.2760229 -0.46276629 16.596706
6.101377 -0.6314165 16.734819
9.3717375 -0.94355249 19.539515
11.893412 -1.178629 19.619452
14.730396 -1.4416471 19.673319
18.209009 -1.7660894 19.910757
20.367378 -1.9072909 20.182329
0.13379739 -0.081144281 16.523645
2.5895643 -0.31250402 16.581514
3.4228258 -0.3908816 16.58629
5.1558332 -0.5535233 16.624422
8.2246923 -0.85413939 19.539936
10.589037 -1.0773436 19.573002
13.252895 -1.329728 19.634851
16.306925 -1.618947 19.696241
0.94483393 -0.19909979 16.536793
1.7547493 -0.29976475 16.559891
4.2731323 -0.47754991 16.591867
7.113214 -0.76126313 19.508244
9.3618898 -0.97558314 19.526011
11.876253 -1.2188063 19.59812
14.710284 -1.4915371 19.65337
18.317421 -1.8411682 20.035713
21.294123 -2.0690854 21.104023
0.13347715 -0.081586406 16.518644
2.5884576 -0.3215414 16.581514
3.4204295 -0.40270796 16.581396
5.15832 -0.57201087 16.638737
8.2158327 -0.88221782 19.526127
10.575686 -1.1132966 19.555447
13.234179 -1.3745276 19.614187
16.323492 -1.6781536 19.723104
0.94413322 -0.20239668 16.536793
1.7531673 -0.30579624 16.55492
4.2701907 -0.49231899 16.587029
7.1053681 -0.7855193 19.494165
9.3540974 -1.0077897 19.517008
11.861553 -1.2591534 19.581059
14.687006 -1.5409896 19.629429
19.690012 -2.048589 21.538855
21.261934 -2.140902 21.079493
0.13322763 -0.082076378 16.523645
2.5865486 -0.33047619 16.576574
3.4179919 -0.41452235 16.5765
5.1696391 -0.59154105 16.681684
8.2068777 -0.91024488 19.51232
10.562211 -1.1491696 19.537891
13.218108 -1.419513 19.597654
0.94342095 -0.20569108 16.536793
1.7520893 -0.31191406 16.55492
4.2671976 -0.50707334 16.58219
7.1060123 -0.81070817 19.503551
9.3418694 -1.0394726 19.499004
11.846716 -1.2994127 19.563993
14.654577 -1.5893233 19.593519
19.726561 -2.1220214 21.586632
21.162109 -2.2054954 20.988375
0.13294032 -0.082540922 16.523645
2.5853794 -0.33950296 16.576574
3.4155138 -0.42632464 16.571606
5.1690254 -0.60975784 16.686459
8.1978273 -0.93822014 19.498512
10.548615 -1.1849622 19.520334
13.199088 -1.4640929 19.57699
16.50573 -1.8134247 19.957191
0.94269717 -0.20898299 16.536793
1.7504652 -0.31793246 16.549948
4.2616591 -0.52150732 16.567671
7.0979972 -0.83490294 19.489473
9.3316956 -1.0713304 19.485498
11.831741 -1.3395839 19.54693
14.645947 -1.6401324 19.589529
19.631428 -2.1811335 21.491077
21.069183 -2.2701819 20.904264
0.1326514 -0.083004467 16.523645
2.5834086 -0.34842157 16.571636
3.4129949 -0.43811464 16.56671
5.1816835 -0.62959844 16.734177
8.1886816 -0.96614331 19.484703
10.537278 -1.2209494 19.507168
13.185511 -1.5091974 19.564592
0.94168049 -0.21220839 16.531801
1.7493447 -0.3240408 16.549948
4.2623067 -0.53669429 16.577349
7.0864735 -0.85863644 19.466009
9.319253 -1.1028742 19.467495
11.81663 -1.3796662 19.529865
14.717957 -1.7002373 19.69327
19.374456 -2.2210732 21.219116
20.968977 -2.3334582 20.813147
0.13236085 -0.083467007 16.523645
2.5821767 -0.35743722 16.571636
3.4114447 -0.45002559 16.56671
5.2090774 -0.65138757 16.829617
8.1794424 -0.99401414 19.470898
10.523439 -1.2565879 19.489611
13.166188 -1.5535653 19.543926
17.657846 -2.0648699 21.361719
0.94065267 -0.21542922 16.52681
1.7482029 -0.33014518 16.549948
4.2604074 -0.55156922 16.577349
7.0782967 -0.88272685 19.451931
9.3088627 -1.1346074 19.453991
11.803975 -1.4199711 19.517069
19.023178 -2.248105 20.84425
20.865044 -2.3956556 20.718525
0.13203293 -0.083903484 16.518644
2.5801437 -0.36633915 16.566694
3.4088445 -0.46179423 16.561813
5.2141747 -0.67051888 16.853477
8.1701069 -1.0218322 19.45709
10.50948 -1.2921448 19.472054
13.146718 -1.5978166 19.523262
17.415045 -2.0981228 21.077744
0.93989497 -0.21871139 16.52681
1.7470399 -0.33624557 16.549948
4.2671785 -0.56759822 16.611227
7.0700369 -0.90677059 19.437851
9.2962046 -1.1660106 19.435986
11.788594 -1.4598838 19.500004
14.876208 -1.8238478 19.9207
18.958004 -2.3075309 20.781771
20.764475 -2.4575753 20.627407
0.13173926 -0.084363855 16.518644
2.5780804 -0.3752313 16.561756
3.4062033 -0.47355026 16.556919
5.2266006 -0.69067186 16.901196
8.1606779 -1.0495973 19.443283
10.497778 -1.32792 19.458887
13.152229 -1.6450946 19.539793
17.350361 -2.151799 21.008669
0.93912578 -0.22199091 16.52681
1.7453326 -0.3422389 16.544977
4.2651711 -0.58248991 16.611227
7.0634069 -0.93099308 19.428469
9.2856016 -1.1976179 19.422482
11.773078 -1.4997064 19.482941
15.954962 -2.0126657 21.36908
19.091118 -2.3913906 20.936129
20.660189 -2.5183907 20.532784
0.13140842 -0.084797919 16.513645
2.575218 -0.38399878 16.551878
3.4035213 -0.48529339 16.552023
5.231554 -0.70991582 16.925058
8.1530905 -1.077565 19.434078
10.483579 -1.3633205 19.44133
13.246885 -1.7039194 19.68858
17.339563 -2.2119441 21.004831
0.93806463 -0.22519985 16.521818
1.7441273 -0.34832919 16.544977
4.2743139 -0.59894502 16.654779
7.0566945 -0.95518017 19.419083
9.2748899 -1.2291652 19.408979
11.754841 -1.5390999 19.461611
15.959792 -2.0698972 21.38504
19.082655 -2.4580162 20.936129
20.555733 -2.5785081 20.438162
0.13111162 -0.0852561 16.513645
2.5730937 -0.39286819 16.546938
3.400799 -0.49702358 16.547129
8.1434717 -1.1052296 19.420269
10.471635 -1.3989553 19.428164
13.29944 -1.7578933 19.775372
17.331738 -2.2724571 21.004831
0.93727279 -0.22847292 16.521818
1.7423785 -0.35430863 16.540005
4.2858834 -0.61582887 16.708014
7.0498986 -0.97933197 19.409697
9.2640715 -1.2606525 19.395475
11.739058 -1.5787321 19.444548
15.886758 -2.1168385 21.297258
18.778204 -2.4854653 20.612713
20.454645 -2.6383832 20.347042
0.13081323 -0.085713252 16.513645
2.5701716 -0.40160745 16.53706
3.3980365 -0.50874072 16.542233
5.9948759 -0.85619211 19.406488
8.1356936 -1.1331098 19.411064
10.459569 -1.4345232 19.414997
13.335051 -1.8099841 19.837366
17.336405 -2.3346534 21.020182
0.93646955 -0.23174322 16.521818
1.7406092 -0.36028016 16.535034
4.2948999 -0.63243437 16.751568
7.0430202 -1.0034478 19.400311
9.2531471 -1.2920791 19.381971
11.754144 -1.6225528 19.478674
18.692148 -2.5404971 20.528185
20.346319 -2.6966467 20.248915
0.13051324 -0.086169355 16.513645
2.5679867 -0.41045386 16.53212
3.3972464 -0.52075332 16.547129
5.9918504 -0.87711287 19.406488
8.1258869 -1.1606729 19.397257
10.445012 -1.4696902 19.39744
14.301354 -1.9920138 21.279764
17.350374 -2.3982267 21.047043
0.93565494 -0.23501071 16.521818
1.7393409 -0.36635381 16.535034
4.3050957 -0.64929783 16.799963
7.0343518 -1.0272782 19.386232
9.242116 -1.323445 19.368469
11.810384 -1.6723486 19.581059
15.421009 -2.1644511 20.694765
19.12302 -2.6670771 21.009632
20.251976 -2.7561109 20.164806
0.13021165 -0.086624399 16.513645
2.5650043 -0.41916439 16.522242
3.394402 -0.53245091 16.542233
5.9754663 -0.89603031 19.363541
8.1179199 -1.1884644 19.388052
10.427965 -1.504431 19.375496
14.274814 -2.0391369 21.250834
17.332378 -2.4574265 21.035532
0.93454915 -0.2382035 16.516827
1.7380515 -0.37242302 16.535034
4.3114982 -0.66566449 16.833839
7.0256028 -1.0510602 19.372154
9.230978 -1.3547496 19.354965
11.861255 -1.7218072 19.674908
15.40143 -2.2165504 20.678806
19.113594 -2.7338126 21.009632
20.160995 -2.8154416 20.084202
0.12990847 -0.087078393 16.513645
2.5627596 -0.42798728 16.517303
3.4015706 -0.54574883 16.58629
5.9708271 -0.91665661 19.358768
8.1079254 -1.2159246 19.374245
10.415543 -1.5397716 19.362328
14.220275 -2.0820222 21.180574
17.253914 -2.5077701 20.951105
0.93371201 -0.24146423 16.516827
1.73622 -0.3783738 16.53006
4.3190808 -0.68227988 16.872553
7.0167742 -1.0747938 19.358076
9.2197342 -1.3859924 19.341461
11.914504 -1.7720251 19.773024
15.378694 -2.2680995 20.658854
19.03014 -2.7896967 20.928778
20.073381 -2.8746769 20.007101
0.12960373 -0.087531336 16.513645
2.5604839 -0.43679956 16.512363
3.4036641 -0.55827874 16.605871
5.9631672 -0.93679804 19.344454
8.0978384 -1.2433296 19.360437
10.407737 -1.5757607 19.357939
14.137783 -2.120378 21.068985
17.073858 -2.5424883 20.743879
0.9325844 -0.24464829 16.511835
1.7348887 -0.38443208 16.53006
4.3203959 -0.69795382 16.887074
7.0061598 -1.0982113 19.339304
9.2083855 -1.4171734 19.327957
12.766818 -1.9443704 21.193581
19.989128 -2.9338531 19.933506
21.63592 -3.206434 19.561747
0.12929739 -0.087983206 16.513645
2.5589435 -0.44573465 16.512363
3.4077199 -0.57116687 16.635242
5.9583869 -0.9573707 19.33968
8.0895901 -1.2709824 19.351233
10.447141 -1.6190501 19.44133
14.071884 -2.1607459 20.982193
16.637117 -2.536844 20.225817
0.93172473 -0.24790214 16.511835
1.7330163 -0.39036816 16.525089
4.938014 -0.81546193 19.306786
6.9971724 -1.121841 19.325226
9.1947803 -1.4479533 19.309952
12.770261 -1.9905299 21.210644
15.291016 -2.3643556 20.563095
19.918812 -2.994597 19.873928
21.613523 -3.2802572 19.551771
0.12898949 -0.088433996 16.513645
2.5566072 -0.45452821 16.507425
3.4107232 -0.58391804 16.659719
5.9520631 -0.97767949 19.330135
8.0793161 -1.2982823 19.337423
10.460349 -1.6585083 19.476444
14.028118 -2.2041743 20.928465
16.58699 -2.5884783 20.17593
0.93057513 -0.25107726 16.506844
1.7316431 -0.39641514 16.525089
4.942574 -0.83394897 19.335821
6.9898081 -1.1457005 19.31584
9.1832228 -1.4790016 19.29645
12.745207 -2.0322194 21.180782
15.261836 -2.4144208 20.535164
19.883564 -3.0603106 19.849398
21.513393 -3.3419275 19.47196
0.12868001 -0.08888372 16.513645
2.5550051 -0.46344969 16.507425
3.4156849 -0.59704798 16.693985
5.9471416 -0.9982031 19.325365
8.0689526 -1.3255264 19.323616
10.553788 -1.7111113 19.660784
14.020338 -2.2531278 20.928465
16.565193 -2.6443408 20.16058
0.92941469 -0.25424737 16.501852
1.7297299 -0.40233624 16.520119
4.9371552 -0.8507697 19.326141
6.9806604 -1.1692371 19.301764
9.1715603 -1.5099871 19.282944
12.69685 -2.0699813 21.112528
15.110536 -2.4445803 20.343643
19.879807 -3.1308084 19.856407
21.39097 -3.3994217 19.372194
0.12836897 -0.08933235 16.513645
2.5533717 -0.4723655 16.507425
3.419594 -0.61004072 16.723356
5.9406786 -1.0184518 19.315821
8.0604229 -1.3530374 19.314411
10.56429 -1.7506814 19.691507
14.015164 -2.3025103 20.932598
16.502085 -2.6933703 20.095343
0.92852151 -0.2574901 16.501852
1.7283149 -0.40837169 16.520119
4.9304419 -0.86734486 19.311625
6.9731345 -1.193015 19.292377
9.1619406 -1.5412704 19.273943
12.614943 -2.1018581 20.988815
15.075154 -2.4928863 20.307734
19.896923 -3.2047193 19.884441
21.30158 -3.4614928 19.302359
0.12802178 -0.089753263 16.508644
2.5517075 -0.48127553 16.507425
3.4234545 -0.62306809 16.752728
5.935617 -1.0389251 19.31105
8.0498743 -1.3801746 19.300604
11.327927 -1.917889 21.122349
14.012592 -2.3523505 20.940863
16.495743 -2.7514839 20.09918
0.92761707 -0.26072967 16.501852
1.7263604 -0.41427737 16.515146
4.926147 -0.88432789 19.306786
6.9655275 -1.2167544 19.282991
9.18225 -1.5776662 19.327957
12.401845 -2.1108692 20.647541
15.06339 -2.5449913 20.303741
17.904383 -3.0089471 19.760075
19.875059 -3.2724149 19.873928
21.18255 -3.5180871 19.205919
0.12767324 -0.090172842 16.503645
2.5492487 -0.49003288 16.502483
3.4282665 -0.6363157 16.786995
5.9304848 -1.0593753 19.306276
8.0411577 -1.4075918 19.291399
11.321163 -1.9574192 21.122349
13.971014 -2.3955421 20.891268
16.536594 -2.8176627 20.16058
0.92670131 -0.26396608 16.501852
1.7249039 -0.42030099 16.515146
4.9205575 -0.90106499 19.297106
6.9561415 -1.2401526 19.268913
9.1723976 -1.608956 19.318954
12.319886 -2.1411953 20.523829
17.870382 -3.0674119 19.734348
19.817795 -3.33408 19.828369
21.074432 -3.5757673 19.119455
0.12735769 -0.090617962 16.503645
2.5482852 -0.49907795 16.507425
3.4320269 -0.64941514 16.816366
5.9238138 -1.0795348 19.296732
8.0285034 -1.4342775 19.272987
11.297751 -1.9940113 21.091625
13.920987 -2.4370165 20.829273
16.542448 -2.8781164 20.179768
0.92577428 -0.26719925 16.501852
1.722909 -0.42619115 16.510176
4.9161463 -0.91800457 19.292267
6.9483743 -1.2638087 19.259527
12.32261 -2.1860092 20.540894
15.69812 -2.7650909 21.181547
19.528374 -3.3555257 19.551512
20.96249 -3.6320977 19.029667
0.12704059 -0.091061972 16.503645
2.5442417 -0.5075137 16.492607
3.4337382 -0.66216272 16.835947
5.9170742 -1.0996606 19.287188
8.0215263 -1.4619433 19.268387
11.267152 -2.0291905 21.047733
13.859764 -2.476191 20.750748
16.554392 -2.9397657 20.206631
0.92483592 -0.27042919 16.501852
1.7208937 -0.43207249 16.505203
4.9116774 -0.9349246 19.287428
6.9388299 -1.2871109 19.245449
9.2808676 -1.694854 19.571024
15.735825 -2.8284001 21.245388
19.657043 -3.4483199 19.691692
20.857767 -3.6889911 18.946529
0.12672196 -0.091504872 16.503645
2.5462618 -0.5171656 16.517303
3.431406 -0.67414469 16.835947
5.9102669 -1.1197526 19.277645
7.9971666 -1.4863645 19.222361
11.224666 -2.0620165 20.981897
13.690468 -2.4952886 20.511036
16.566105 -3.0015335 20.233492
0.92360967 -0.27357334 16.496861
1.7188586 -0.43794498 16.500233
4.9083838 -0.9520638 19.287428
6.9292083 -1.3103622 19.231371
15.702145 -2.8789637 21.213469
19.7502 -3.5357687 19.796829
20.749228 -3.744535 18.860067
0.12643588 -0.091973886 16.508644
2.5429194 -0.52573568 16.507425
5.9019251 -1.1395273 19.263329
7.9880905 -1.5135432 19.213156
13.385644 -2.4880359 20.068811
16.555527 -3.0593417 20.233492
0.9223727 -0.27671224 16.491867
1.7162874 -0.44367474 16.49029
4.9037971 -0.96894765 19.282587
6.9212027 -1.3338883 19.221985
9.9339561 -1.885887 20.9709
15.650532 -2.9260039 21.157608
17.45252 -3.2471673 19.322731
19.730722 -3.6034069 19.78982
20.64423 -3.8000419 18.77693
0.12611406 -0.092414662 16.508644
2.5471511 -0.53588957 16.546938
5.8935175 -1.1592574 19.249014
7.9961863 -1.5440108 19.245375
10.89241 -2.0796883 20.389372
13.304993 -2.5211236 19.961355
16.538446 -3.1159256 20.225817
0.92084897 -0.2797614 16.481884
1.7142127 -0.44952744 16.485317
4.8991528 -0.98581117 19.277748
6.9131179 -1.3573747 19.212599
9.9550982 -1.9259272 21.029415
15.586945 -2.9704628 21.085789
17.424425 -3.3049095 19.304356
19.595316 -3.6494045 19.66716
20.535425 -3.8541729 18.690466
6.0913668 -1.1267663 0.34356374
0.1257907 -0.092854321 16.508644
2.5483041 -0.54542851 16.566694
3.697331 -0.76671147 18.177238
5.8865075 -1.1792361 19.23947
8.0156679 -1.5768157 19.305206
10.868629 -2.1144955 20.358648
13.290585 -2.5664842 19.953089
16.543207 -3.1766586 20.245005
0.91959107 -0.28288868 16.476894
1.712633 -0.45550844 16.485317
4.8944507 -1.0026541 19.272907
6.9066458 -1.3811593 19.207907
9.9461794 -1.9602443 21.024916
12.111088 -2.3672142 20.255074
15.538026 -3.0173855 21.033918
17.429426 -3.3689289 19.322731
19.512384 -3.704479 19.597069
20.426498 -3.9075909 18.604004
6.1119437 -1.1526517 0.34457141
0.125432 -0.093265265 16.503645
2.5501807 -0.55514741 16.591391
3.6956289 -0.77982324 18.182135
5.8779678 -1.1988816 19.225153
8.0484257 -1.6124624 19.397257
10.821244 -2.1445062 20.284035
13.273263 -2.6112318 19.940691
16.519436 -3.2319243 20.229654
0.91749609 -0.28575164 16.456926
1.710518 -0.46134475 16.480347
4.8884602 -1.0192196 19.263231
6.8984008 -1.4045709 19.198521
9.9286041 -1.9928088 21.002409
12.051595 -2.3992903 20.169756
15.480103 -3.0622489 20.970078
17.420887 -3.430403 19.326405
19.429308 -3.7590187 19.526978
20.31745 -3.9602954 18.51754
6.1275077 -1.1777513 0.34537753
0.12507197 -0.093674839 16.498644
2.5512619 -0.56471795 16.611149
3.6998527 -0.79421508 18.216402
5.8708243 -1.2187853 19.215609
8.0829468 -1.6487471 19.49391
10.790215 -2.1775281 20.240143
13.241992 -2.6531253 19.907625
0.91704345 -0.28912714 16.466909
1.7088972 -0.46731275 16.480347
4.8836427 -1.0360165 19.25839
6.8917661 -1.428292 19.193829
9.8959913 -2.0222235 20.948393
12.081488 -2.4491165 20.233746
14.411819 -2.9032283 19.541647
17.435398 -3.4965255 19.355808
19.349586 -3.8137138 19.460392
5.9737148 -1.1600853 0.63925934
20.211945 -4.0130143 18.434402
6.1233592 -1.199133 0.34537753
0.12471061 -0.094083034 16.493645
2.5530651 -0.5744735 16.635845
3.7070053 -0.80929774 18.265352
5.8636131 -1.2386537 19.206066
8.1058359 -1.6829096 19.562948
10.766126 -2.2118056 20.209419
13.221622 -2.6970823 19.891094
15.792838 -3.2043998 19.370054
0.91685319 -0.29259118 16.481884
1.7072557 -0.4732751 16.480347
4.8775392 -1.0525267 19.248711
6.8850503 -1.4519839 19.189137
14.419308 -2.9571495 19.565588
17.429731 -3.5587215 19.363157
19.266228 -3.8671963 19.390301
5.9891701 -1.1847962 0.64104766
20.139259 -4.0717034 18.381195
6.1583309 -1.2283181 0.34698978
0.12434793 -0.094489843 16.488646
2.554074 -0.58407521 16.655602
3.7121098 -0.82399851 18.304516
5.8577948 -1.2588005 19.201294
10.763028 -2.2503533 20.218197
13.256211 -2.7523715 19.95722
15.750165 -3.2530241 19.331678
0.91610086 -0.29587907 16.486877
1.7050802 -0.47908711 16.475376
4.8726077 -1.0692767 19.243872
6.876565 -1.4752843 19.17975
9.6239319 -2.0367196 20.403748
12.485233 -2.6218414 20.937624
14.317458 -2.9883783 19.441896
17.413881 -3.6188512 19.359482
19.172247 -3.9180014 19.309696
21.71554 -4.4259186 17.952087
5.9557071 -1.1997942 0.63836521
20.04081 -4.1246662 18.304708
6.0805659 -1.2348922 0.34396681
0.12401734 -0.094923325 16.488646
2.5558038 -0.59386694 16.680298
3.7181499 -0.83896893 18.348574
5.8504486 -1.2786027 19.19175
8.6745405 -1.8642564 20.962116
10.766821 -2.2904017 20.240143
13.254784 -2.8003728 19.969622
15.682255 -3.2961154 19.262604
0.91561097 -0.2992554 16.496861
1.7033975 -0.48503605 16.475376
4.8663921 -1.0857313 19.234194
6.8663158 -1.4981754 19.165672
9.6146364 -2.0698428 20.399246
12.486206 -2.6675866 20.954687
14.29515 -3.0358334 19.425938
17.397827 -3.6789136 19.355808
19.053709 -3.963114 19.204561
21.642792 -4.4898334 17.905012
5.9661179 -1.2235777 0.63970643
19.982435 -4.185411 18.264803
6.0175085 -1.243973 0.34154844
0.12368524 -0.095355645 16.488646
2.5582523 -0.60385644 16.709934
3.7231381 -0.85376388 18.387733
5.844492 -1.2986929 19.186977
8.6813402 -1.8974451 20.994333
10.768123 -2.3299968 20.2577
13.264185 -2.8507626 19.998552
0.91428685 -0.30235851 16.491867
1.701694 -0.49097905 16.475376
4.8613467 -1.1024334 19.229355
6.8576746 -1.5213865 19.156286
12.408008 -2.6962025 20.839506
14.190214 -3.0653536 19.298256
18.868799 -3.993417 19.032837
21.527969 -4.5444508 17.82341
5.9423108 -1.2403257 0.63791811
19.978659 -4.2574716 18.274778
6.0131297 -1.2649705 0.34154844
0.12335163 -0.09578681 16.488646
2.5591512 -0.61350781 16.729691
3.7290599 -0.86883491 18.431791
5.8370109 -1.3184282 19.177433
8.6670361 -1.9260418 20.975922
10.769281 -2.3696294 20.275255
13.273396 -2.901252 20.027481
0.91322583 -0.3055481 16.491867
1.6994581 -0.49676618 16.470404
4.8550191 -1.1188313 19.219675
6.8826232 -1.5521492 19.240757
12.362868 -2.7316201 20.779783
14.129396 -3.1038773 19.230427
18.488676 -3.9804444 18.66486
21.401611 -4.5958695 17.732395
5.9428163 -1.2620953 0.63836521
19.98192 -4.3311386 18.291407
6.0379896 -1.2922257 0.34275761
0.12304964 -0.096245207 16.493645
2.5630333 -0.62390822 16.769205
3.7339311 -0.8837232 18.470953
5.8294635 -1.3381271 19.167889
8.6507311 -1.9541311 20.952909
10.772629 -2.4098208 20.297201
13.263188 -2.9475675 20.027481
0.91188043 -0.30864099 16.486877
1.6977139 -0.50269538 16.470404
4.8486366 -1.1351985 19.209997
6.8855729 -1.5780922 19.264219
9.7559242 -2.2074058 20.745838
12.355803 -2.7753298 20.784052
14.115536 -3.1525223 19.226437
16.706419 -3.7158911 18.6318
18.314417 -4.009871 18.503651
21.297979 -4.6514463 17.660212
5.9091682 -1.2765225 0.6356827
19.984913 -4.4048815 18.308035
6.1359563 -1.3356086 0.34698978
0.12271293 -0.096674144 16.493645
2.5585771 -0.63229156 16.754387
3.7377536 -0.89841795 18.50522
5.8218503 -1.3577896 19.158346
8.6305285 -1.9812559 20.920692
10.771157 -2.4490027 20.310368
13.261053 -2.9957068 20.039881
15.837972 -3.5604489 19.512041
0.91052449 -0.31172815 16.481884
1.6959487 -0.50861847 16.470404
4.843421 -1.1518255 19.205156
6.9237208 -1.6122948 19.386232
14.119137 -3.2051108 19.246387
16.66028 -3.7667089 18.595049
18.223726 -4.0567279 18.42655
21.186617 -4.7046671 17.581749
5.9095402 -1.2982103 0.6361298
19.969416 -4.4746151 18.308035
6.1312571 -1.3570189 0.34698978
0.12237474 -0.097101904 16.493645
2.5578616 -0.64159709 16.764267
3.7425075 -0.91339159 18.54438
5.8141704 -1.3774151 19.148802
8.591217 -2.0038254 20.842449
10.776545 -2.4898212 20.336702
13.258743 -3.0438673 20.052279
15.781699 -3.6057167 19.458317
0.9094308 -0.31490457 16.481884
1.694163 -0.51453531 16.470404
4.8369274 -1.1681349 19.195477
6.946599 -1.643207 19.466009
11.690822 -2.7118287 19.700502
14.113736 -3.2557311 19.254368
16.64703 -3.824841 18.595049
18.150324 -4.1069355 18.366974
21.075146 -4.7571673 17.503288
5.9924574 -1.3383695 0.64417726
19.899065 -4.531857 18.258152
0.12203504 -0.097528473 16.493645
2.9245565 -0.74449742 19.184502
3.7462146 -0.92816442 18.578648
5.8049722 -1.396654 19.134485
10.767788 -2.5274231 20.336702
13.25626 -3.0920482 20.064678
15.71594 -3.6484611 19.393078
0.90805382 -0.31798127 16.476894
1.6928661 -0.52060294 16.475376
4.8303795 -1.1844132 19.185801
6.9626341 -1.6726861 19.527016
9.6835575 -2.2978857 20.642311
11.6889 -2.7544155 19.713301
14.111086 -3.30704 19.266336
16.620373 -3.8798437 18.580347
18.205387 -4.1862507 18.437065
20.959776 -4.8080773 17.421688
6.0363126 -1.3703034 0.64864802
19.70488 -4.5600405 18.095201
6.1070228 -1.3964489 0.34638518
0.12169386 -0.097953863 16.493645
2.9204352 -0.75431263 19.174623
3.7508519 -0.9432227 18.617809
5.7971616 -1.4162 19.124941
8.3566828 -2.0107343 20.308556
10.768219 -2.5672162 20.354259
13.256339 -3.1408978 20.081211
15.659434 -3.6929975 19.339354
0.90666622 -0.32105219 16.471901
1.6910385 -0.52650899 16.475376
4.8249955 -1.2009634 19.18096
9.6775942 -2.3321838 20.646812
12.110401 -2.898401 20.438509
14.10825 -3.3583698 19.278307
16.557247 -3.9261031 18.525219
18.232338 -4.25951 18.47912
20.848097 -4.8591232 17.343227
6.0509028 -1.3958434 0.65043634
19.619783 -4.6125603 18.032017
6.1118441 -1.4200191 0.34678823
0.12131857 -0.098349087 16.488646
2.9230459 -0.76588166 19.2092
3.7554288 -0.95832449 18.656971
5.7892861 -1.4357089 19.115398
8.3496132 -2.0398924 20.308556
10.759192 -2.6047888 20.354259
13.256237 -3.189785 20.097742
15.599692 -3.7364376 19.281792
0.90554005 -0.32421505 16.471901
1.6891904 -0.5324086 16.475376
4.8183365 -1.2171826 19.17128
7.4566569 -1.8465371 20.944231
9.6588221 -2.3633635 20.624308
12.128087 -2.9474318 20.485435
14.105229 -3.4097209 19.290277
16.434675 -3.9576819 18.40394
18.217358 -4.3231268 18.47912
20.736319 -4.9094486 17.264767
19.494614 -4.6550021 17.932253
6.1068497 -1.4413449 0.34678823
0.12097453 -0.098771967 16.488646
2.9203546 -0.77608025 19.2092
3.7599466 -0.97346997 18.696133
5.7813439 -1.4551797 19.105854
8.4069128 -2.0850163 20.465042
10.726776 -2.6366122 20.310368
13.264157 -3.2407138 20.126673
15.542953 -3.7802629 19.228067
0.90413159 -0.32727531 16.466909
1.6878293 -0.53846401 16.480347
4.8116231 -1.2333699 19.161602
7.4451447 -1.8712922 20.930151
9.6589632 -2.3991637 20.642311
12.041762 -2.9710062 20.357458
14.099092 -3.4603727 19.298256
16.381245 -4.0053635 18.359838
20.620657 -4.9581423 17.183165
19.391159 -4.7019053 17.85244
6.1260729 -1.4684758 0.3477959
0.12062901 -0.09919364 16.488646
2.9176278 -0.78626943 19.2092
3.7644036 -0.98865837 18.735294
5.7762289 -1.4753515 19.105854
10.703566 -2.6705611 20.284035
13.222721 -3.2795429 20.081211
15.479873 -3.8222013 19.166668
0.90298367 -0.33042935 16.466909
1.6864465 -0.54451644 16.485317
4.8048553 -1.2495252 19.151922
7.4302068 -1.8951366 20.906689
9.6631956 -2.4360585 20.669319
11.955421 -2.994014 20.229481
14.104471 -3.5139375 19.322197
16.284904 -4.0421023 18.26796
17.549347 -4.2942343 17.834284
20.508694 -5.0070128 17.104704
19.298492 -4.7508216 17.782604
6.1354723 -1.4933956 0.34840047
0.12028203 -0.099614114 16.488646
2.9148655 -0.79644912 19.2092
3.7697842 -1.0041519 18.779352
5.7681541 -1.4947562 19.09631
10.673284 -2.702616 20.244534
15.398037 -3.8590701 19.082241
0.90182477 -0.33357933 16.466909
1.685042 -0.55056584 16.49029
4.7992496 -1.265969 19.147083
7.4135227 -1.9184672 20.878532
9.6609612 -2.4713931 20.682821
11.497499 -2.9220204 19.474409
14.09504 -3.5638888 19.326187
16.287132 -4.1030636 18.286335
17.516947 -4.3511686 17.816761
20.400421 -5.0560985 17.029383
19.198477 -4.797338 17.70612
6.120522 -1.5124062 0.34799743
0.11993358 -0.10003337 16.488646
2.9120677 -0.80661905 19.2092
3.7741203 -1.0194297 18.818514
5.7961049 -1.5236111 19.206066
10.642907 -2.7344921 20.20503
12.572414 -3.2115817 19.13063
15.356516 -3.9056852 19.047705
0.90065491 -0.33672523 16.466909
1.6841221 -0.55677968 16.500233
4.7923727 -1.2820642 19.137405
7.4067812 -1.9443336 20.878532
9.6543827 -2.5056484 20.687325
11.456924 -2.9543214 19.423218
14.053327 -3.6055789 19.286287
16.32198 -4.1724858 18.341461
17.494734 -4.4105434 17.809752
20.299603 -5.1063881 16.960335
6.0014591 -1.4952139 0.64820093
19.094751 -4.8422961 17.626307
21.820761 -5.5214539 16.472958
6.1975846 -1.5544233 0.35142344
0.11958367 -0.1004514 16.488646
2.9084861 -0.81656897 19.204258
3.7783947 -1.0347497 18.857676
5.7893095 -1.5434496 19.201294
8.4601183 -2.2240486 20.667555
10.614756 -2.766793 20.169918
12.544784 -3.2512121 19.105835
15.246577 -3.9344373 18.928741
0.89947397 -0.33986706 16.466909
1.6831791 -0.56299376 16.510176
4.7854419 -1.2981263 19.127726
7.3949456 -1.9688441 20.864452
9.6476822 -2.5398872 20.691824
11.391034 -2.9797747 19.329367
14.014412 -3.6477814 19.250376
16.343414 -4.2387972 18.381887
17.441227 -4.4618621 17.7712
20.210001 -5.1589246 16.900705
5.9672351 -1.5088292 0.64551848
18.994566 -4.8875194 17.54982
21.726969 -5.5784893 16.417038
6.192121 -1.5760474 0.35142344
0.1192323 -0.10086823 16.488646
2.905618 -0.82671648 19.204258
3.7826085 -1.0501121 18.896837
5.817028 -1.5726095 19.31105
8.4013348 -2.2399766 20.543285
10.574934 -2.7958703 20.11286
12.522472 -3.2921195 19.089302
15.0188 -3.9316244 18.663954
0.89828217 -0.34300473 16.466909
1.682718 -0.56937921 16.525089
4.7796698 -1.3144896 19.122887
7.384696 -1.9937457 20.855068
11.408293 -3.0268762 19.376293
13.885056 -3.6659098 19.090776
16.384253 -4.3104844 18.444366
17.370316 -4.5083814 17.715128
20.090132 -5.2030911 16.815968
5.8365149 -1.4974712 0.63389438
18.897911 -4.9330463 17.47666
21.613489 -5.6298442 16.346401
6.0898366 -1.5726683 0.34739283
0.11891138 -0.10131356 16.493645
2.9019678 -0.83663863 19.19932
3.7857809 -1.0652405 18.931105
5.8258991 -1.5968515 19.358768
8.4010086 -2.2713287 20.561695
10.53735 -2.8253233 20.06019
14.775739 -3.923157 18.379978
0.89707941 -0.34613824 16.466909
1.6822331 -0.57576829 16.540005
4.7726302 -1.3304905 19.113209
7.3710341 -2.0176883 20.836298
9.2115612 -2.4939599 19.796083
11.387582 -3.0639691 19.359228
13.514156 -3.6184914 18.600002
16.306871 -4.3510432 18.374538
17.316538 -4.559 17.676579
20.041731 -5.265274 16.790859
5.8649879 -1.5266166 0.63702393
18.840872 -4.9884696 17.440079
21.507732 -5.6825399 16.281652
6.0456471 -1.5837878 0.34578058
0.11855701 -0.10172803 16.493645
2.898284 -0.84654534 19.19438
3.7888935 -1.0804039 18.96537
5.8361101 -1.6215744 19.411261
8.3459253 -2.2877271 20.446632
10.474269 -2.8476362 19.959242
14.70315 -3.9588766 18.307066
0.89586568 -0.34926751 16.466909
1.681724 -0.58216101 16.55492
4.766748 -1.3468002 19.10837
7.3589578 -2.0420213 20.822218
9.1734085 -2.5180311 19.733065
11.346624 -3.0954633 19.308037
13.393848 -3.6364298 18.452372
16.203226 -4.3840313 18.275309
17.235052 -4.6019382 17.609993
19.996901 -5.328186 16.768888
5.8981433 -1.55725 0.64060056
18.819736 -5.0532374 17.436752
21.382349 -5.7293353 16.202187
6.0014548 -1.594618 0.34416834
0.11820118 -0.10214125 16.493645
2.8945663 -0.85643649 19.189442
3.7909682 -1.0953193 18.994743
5.8433452 -1.6455783 19.454208
8.272007 -2.2985382 20.285543
10.295716 -2.8377233 19.63884
14.615031 -3.9899163 18.214964
0.89437264 -0.35228628 16.46192
1.6811905 -0.58855712 16.569834
4.7608085 -1.3630849 19.103529
7.34514 -2.0658274 20.803446
9.1603699 -2.5488698 19.724064
11.308101 -3.1274042 19.261112
13.349115 -3.6743643 18.408482
15.991662 -4.3867536 18.054798
17.163807 -4.6471591 17.553919
19.993212 -5.4020166 16.781443
5.854187 -1.5675243 0.63702393
18.989321 -5.1699038 17.609678
21.264704 -5.7774444 16.128609
5.9620848 -1.6064588 0.34275761
0.11784392 -0.10255322 16.493645
2.8908148 -0.86631203 19.184502
3.7929845 -1.1102622 19.024113
8.1379414 -2.2919128 19.977175
10.110442 -2.8246655 19.305269
12.616274 -3.5058186 19.304216
14.567035 -4.0315032 18.172754
0.89313745 -0.35540611 16.46192
1.6811354 -0.59513479 16.58972
4.7536077 -1.3789945 19.093849
7.3312459 -2.0895619 20.784678
9.1409397 -2.5778754 19.701557
11.261957 -3.1570017 19.201387
13.356524 -3.7266078 18.436411
15.901129 -4.4216585 17.97027
17.068384 -4.6853309 17.473314
20.008018 -5.4810286 16.80969
5.7765903 -1.5683769 0.63031775
19.241098 -5.3106637 17.859091
21.146986 -5.8248019 16.055029
5.9564409 -1.6272606 0.34275761
0.11748523 -0.10296395 16.493645
2.8870296 -0.87617183 19.179564
3.7949433 -1.1252327 19.053486
6.2475581 -1.8065951 20.838083
8.1317701 -2.3208416 19.981777
10.052128 -2.8462374 19.213099
12.595834 -3.5475473 19.291817
14.55596 -4.0831928 18.17659
0.89162374 -0.35841337 16.456926
1.680553 -0.60153925 16.604633
4.7463527 -1.3948703 19.084171
7.315618 -2.1127458 20.761213
9.1088619 -2.6031873 19.652046
11.180625 -3.1763377 19.081942
13.355033 -3.7764881 18.452372
15.849704 -4.46702 17.929844
16.959162 -4.719069 17.378693
20.018768 -5.5591683 16.834797
5.8046899 -1.5977826 0.63344729
19.344696 -5.4119973 17.972158
21.029198 -5.8714094 15.98145
5.9362807 -1.6440423 0.34215304
0.1171251 -0.10337342 16.493645
2.8839538 -0.88624412 19.179564
3.7958679 -1.1399373 19.077961
6.2440786 -1.8292315 20.847628
8.1555233 -2.3584394 20.060019
10.021412 -2.8753636 19.173595
12.553608 -3.5829976 19.246355
14.526202 -4.1295958 18.157404
0.89009994 -0.36141449 16.451935
1.6799463 -0.60794687 16.619549
4.7402506 -1.4110711 19.079332
7.2966046 -2.1348767 20.728363
9.0558071 -2.622251 19.557518
11.124357 -3.2023592 19.005156
13.344666 -3.8239129 18.456362
15.785118 -4.5083537 17.874716
16.839613 -4.7491984 17.273556
20.029215 -5.6374493 16.859905
5.8374515 -1.6287421 0.63702393
19.05987 -5.4041209 17.726072
20.911341 -5.9172649 15.907871
5.8872156 -1.6526018 0.34033924
0.11673228 -0.10375121 16.488646
2.8801007 -0.89607465 19.174623
3.7947881 -1.1540694 19.092646
6.2319317 -1.8493177 20.828541
8.1978617 -2.4017246 20.184288
10.009014 -2.9096589 19.169209
12.522101 -3.6213236 19.217424
0.88856608 -0.3644093 16.446943
1.6783146 -0.61399078 16.624521
4.7304826 -1.4261574 19.059975
7.2775264 -2.1569006 20.695513
9.0277977 -2.6483302 19.517008
11.070547 -3.2287569 18.932636
13.299406 -3.8612292 18.412472
15.723692 -4.5502324 17.823263
16.73378 -4.7824702 17.182438
20.009413 -5.7073302 16.859905
5.8940272 -1.6667253 0.64283597
18.100676 -5.2004848 16.85479
20.797308 -5.9634843 15.837235
5.9871264 -1.703216 0.34477293
0.1163694 -0.10415805 16.488646
2.8762143 -0.90588915 19.169683
3.7936561 -1.1682079 19.107332
6.2168612 -1.8684818 20.799908
8.2268867 -2.441443 20.276339
9.9987974 -2.9445791 19.169209
12.48508 -3.6578908 19.180227
14.244715 -4.1572709 17.842728
0.88675553 -0.36728686 16.43696
1.6776606 -0.62040102 16.639435
4.7266774 -1.4430283 19.064814
7.2583833 -2.1788177 20.662664
10.981673 -3.244472 18.80039
13.222249 -3.8889236 18.32469
15.636143 -4.5841074 17.742411
16.720409 -4.8418446 17.185942
19.914583 -5.7555265 16.797136
5.8355131 -1.6721989 0.63791811
18.010714 -5.2427649 16.78828
20.68321 -6.0089798 15.7666
6.0723538 -1.7503963 0.34860203
0.11597405 -0.10453297 16.483644
2.8722947 -0.91568744 19.164745
3.7885828 -1.1811399 19.102436
6.1660328 -1.8766961 20.651976
8.2351522 -2.4752066 20.31776
9.9953432 -2.9815173 19.182375
12.431769 -3.6894403 19.118233
14.202454 -4.1987901 17.808189
0.88546807 -0.37037995 16.43696
1.6739873 -0.62569255 16.624521
4.7216115 -1.4595187 19.064814
7.2408276 -2.2011294 20.634508
10.947795 -3.2760565 18.761997
13.12196 -3.9092436 18.20499
15.535549 -4.6135669 17.646856
16.710249 -4.9021878 17.192951
19.838341 -5.8086004 16.750059
5.8248577 -1.69117 0.63747102
17.906351 -5.2802563 16.708469
20.572926 -6.0548925 15.698907
6.0662069 -1.7715819 0.34860203
0.11560845 -0.10493717 16.483644
2.868341 -0.92546922 19.159805
3.7824948 -1.1937443 19.092646
6.1366205 -1.8911735 20.575624
8.2152491 -2.5005243 20.290146
9.98946 -3.0177748 19.191153
12.38378 -3.7222819 19.064505
14.181569 -4.246501 17.800514
0.8839041 -0.37335578 16.431969
1.6767783 -0.63341886 16.674234
4.7188869 -1.4767421 19.074492
7.2215552 -2.2228372 20.60166
10.908836 -3.3059309 18.715073
13.07073 -3.9437084 18.15312
15.509611 -4.6648388 17.63583
16.716967 -4.9675994 17.217484
19.761971 -5.8612127 16.702982
5.799809 -1.7058713 0.6356827
17.798372 -5.3160148 16.625332
20.454826 -6.0978003 15.625328
6.0216603 -1.7814081 0.34698978
0.11524145 -0.10534006 16.483644
2.8643546 -0.93523479 19.154867
3.7773352 -1.2066306 19.087751
6.071559 -1.8943526 20.379972
8.2064705 -2.5291855 20.290146
9.9834461 -3.0540276 19.199932
12.333024 -3.7540145 19.006643
14.15439 -4.2922578 17.785164
0.88259542 -0.37643892 16.431969
1.6765486 -0.64002979 16.69412
4.7244878 -1.496622 19.118046
7.202219 -2.2444372 20.568808
10.869805 -3.3355737 18.668148
13.039595 -3.9840271 18.129181
15.535392 -4.7317896 17.683607
16.713184 -5.0300326 17.231501
19.659378 -5.9055233 16.633936
21.834877 -6.5465798 15.029778
5.7842736 -1.7232623 0.63478857
17.658197 -5.3413548 16.512264
20.359894 -6.1469665 15.569407
5.9627624 -1.7866433 0.34477293
0.11487304 -0.10574169 16.483644
2.8595972 -0.94473988 19.144989
3.7711625 -1.219182 19.077961
6.0834136 -1.9213798 20.442009
8.193862 -2.5566523 20.280943
9.9772997 -3.0902748 19.20871
12.287575 -3.7870955 18.957048
14.099488 -4.3294082 17.735277
0.88127607 -0.37951747 16.431969
1.6777848 -0.64722323 16.728922
4.722826 -1.5142559 19.132566
7.1844668 -2.266449 20.540653
10.855605 -3.3727221 18.663881
12.999701 -4.0215044 18.093269
15.528501 -4.7889872 17.694633
16.756929 -5.1070566 17.294582
19.560446 -5.9503226 16.568027
21.795887 -6.6178989 15.018811
5.778223 -1.7434427 0.63478857
17.571613 -5.382184 16.44908
20.230082 -6.1849084 15.487
6.0951295 -1.8495153 0.35061732
0.11450323 -0.10614203 16.483644
2.8555448 -0.95446944 19.140047
3.7659161 -1.2320217 19.073067
6.0510774 -1.9344206 20.356113
8.1942024 -2.5881808 20.303955
9.9778786 -3.1286662 19.230654
12.233986 -3.8173907 18.895054
14.059805 -4.370986 17.704576
0.88021046 -0.38270691 16.43696
1.6770049 -0.6536575 16.743835
4.7354445 -1.5365524 19.205156
7.1666479 -2.2883637 20.512495
10.868643 -3.4184191 18.706539
12.991335 -4.0686584 18.101248
15.718798 -4.9078283 17.929844
16.820784 -5.1907563 17.378693
19.45772 -5.9933577 16.498983
21.656748 -6.6583047 14.939309
5.7863898 -1.7679673 0.6361298
17.552719 -5.4434872 16.44908
20.135006 -6.2327771 15.43108
6.0886364 -1.8707801 0.35061732
0.11413202 -0.10654107 16.483644
2.8514597 -0.96418238 19.135109
3.7606258 -1.2448395 19.068171
6.018724 -1.9472594 20.270218
8.1330137 -2.6001093 20.175083
9.9577646 -3.160578 19.213099
12.212536 -3.8575294 18.882654
14.01083 -4.4094529 17.662365
0.87886918 -0.38577712 16.43696
1.6742172 -0.65931171 16.738865
4.7455778 -1.5581713 19.26807
7.1487646 -2.3101821 20.484341
10.864101 -3.4587109 18.719339
13.017266 -4.1267304 18.15711
15.70157 -4.9626675 17.929844
16.611938 -5.1898851 17.182438
19.354933 -6.0357485 16.429937
21.553524 -6.7090049 14.88448
5.7611532 -1.7822677 0.63434148
17.569233 -5.5159082 16.482334
20.093842 -6.2969799 15.416363
6.0629873 -1.886086 0.3498112
0.11378986 -0.10697012 16.488646
2.8473418 -0.9738785 19.130171
3.7552927 -1.2576357 19.063276
5.997704 -1.9636118 20.222498
7.9658928 -2.5773606 19.783869
9.855464 -3.1660166 19.037537
12.14807 -3.8838532 18.804129
13.946488 -4.4427662 17.600965
0.87751722 -0.38884258 16.43696
1.6724007 -0.66534913 16.743835
4.7496524 -1.5778978 19.306786
7.1242547 -2.3297577 20.437412
8.8343582 -2.861798 19.26494
10.866856 -3.5014119 18.744934
13.042951 -4.1850333 18.212971
16.416908 -5.1919212 17.0002
19.151867 -6.045857 16.276152
21.438248 -6.7552967 14.821425
17.578339 -5.5862503 16.50894
20.079445 -6.3695264 15.42225
6.4471159 -2.0302911 0.36633673
0.11341576 -0.10736667 16.488646
2.8431904 -0.9835574 19.125231
3.7499151 -1.2704096 19.05838
5.9879794 -1.9835968 20.212954
7.9011469 -2.5869131 19.645794
9.7919674 -3.183368 18.936586
11.992538 -3.8803198 18.585083
13.888186 -4.4776516 17.547239
0.87589121 -0.39178497 16.431969
1.9118708 -0.76853406 19.1749
4.7548389 -1.5980723 19.35034
7.0996962 -2.3491905 20.390484
8.811903 -2.8885496 19.237932
10.864486 -3.542557 18.761997
13.059788 -4.2407732 18.256861
16.174517 -5.1774383 16.7689
18.700562 -5.9752493 15.91209
21.310961 -6.7970533 14.750148
17.576506 -5.6532922 16.525566
20.076332 -6.445756 15.436965
6.4399896 -2.0527835 0.36633673
0.11301009 -0.1077304 16.483644
2.8390067 -0.99321944 19.120293
3.7444947 -1.2831613 19.053486
5.98668 -2.0063844 20.232042
7.8586874 -2.6034181 19.562948
9.8194704 -3.2302523 19.0112
11.759625 -3.8503542 18.24618
13.829812 -4.5121846 17.493515
0.87451833 -0.39484003 16.431969
1.9081893 -0.77480161 19.164959
4.7587519 -1.6178973 19.389055
7.070179 -2.3668368 20.329477
8.7852364 -2.9138086 19.201923
10.86196 -3.5837283 18.779062
13.053494 -4.2891564 18.268831
16.0851 -5.2107863 16.695305
18.509232 -5.9854002 15.767722
21.187622 -6.8392882 14.681611
17.560213 -5.7157664 16.528891
20.076775 -6.5232906 15.454624
6.3329372 -2.0430393 0.36210459
0.11263335 -0.10812423 16.483644
2.8355224 -1.0031234 19.120293
3.7380686 -1.2955573 19.043694
5.988122 -2.0301454 20.260674
7.8310285 -2.6246257 19.516924
9.9876566 -3.3242626 19.357939
11.668648 -3.865715 18.126324
13.743973 -4.5373211 17.405252
0.87287217 -0.39777005 16.426975
1.9094174 -0.78307778 19.204731
7.0373569 -2.3831983 20.259087
10.077295 -3.3814592 22.042189
10.861753 -3.6257508 18.80039
12.972676 -4.3128309 18.177061
16.005814 -5.2469053 16.632223
18.558508 -6.0729723 15.827353
21.060274 -6.879447 14.610332
17.529516 -5.7735243 16.518915
20.053881 -6.5933318 15.454624
6.4112535 -2.0930412 0.36573213
0.11222528 -0.10848504 16.478645
2.8312719 -1.0127532 19.115353
3.7325625 -1.3082608 19.038799
5.980999 -2.0510354 20.260674
7.8329206 -2.655709 19.544537
9.98734 -3.3629272 19.379883
11.649748 -3.9046345 18.118059
13.691569 -4.5730839 17.359201
0.87121642 -0.40069345 16.421986
1.902241 -0.78789991 19.159986
6.9343085 -2.3753116 19.986906
10.160254 -3.4488032 22.249245
10.853973 -3.6653121 18.808924
12.866149 -4.3273487 18.049379
15.936627 -5.285903 16.579655
18.600016 -6.1585164 15.880707
20.92894 -6.9174895 14.536314
17.388819 -5.7945442 16.405848
6.4039087 -2.1154079 0.36573213
0.11181604 -0.10884429 16.473646
2.8269889 -1.0223657 19.110415
3.7270133 -1.3209417 19.033903
5.9329052 -2.0577145 20.122286
7.8328419 -2.6862035 19.567549
9.9846096 -3.4008579 19.39744
11.588078 -3.9290111 18.043667
13.623901 -4.603405 17.293964
0.86981243 -0.40373212 16.421986
1.901446 -0.79535913 19.179873
5.0854154 -1.7886009 20.792488
6.8362937 -2.3684301 19.728804
8.8324814 -3.0325096 19.372969
10.863325 -3.7107651 18.847317
12.722596 -4.3285575 17.869827
15.901174 -5.3358274 16.562132
18.55995 -6.2172227 15.865015
20.801559 -6.9560237 14.465035
19.965221 -6.7189908 15.42225
0.11140567 -0.10920203 16.468647
2.8226731 -1.0319606 19.105473
3.7214215 -1.3335998 19.029009
5.9256864 -2.0784116 20.122286
7.8049598 -2.7071269 19.521524
9.9704123 -3.4349096 19.393049
11.563643 -3.965785 18.027134
13.504628 -4.6156874 17.163488
0.86813664 -0.40664297 16.416994
1.898658 -0.80199152 19.179873
5.0744038 -1.8046563 20.77313
6.7905269 -2.3791542 19.620871
8.8465204 -3.071892 19.426985
10.850307 -3.7486625 18.847317
12.66182 -4.3572531 17.805988
15.956746 -5.4165196 16.639233
18.493896 -6.2669802 15.827353
20.650402 -6.9857154 14.377308
16.810783 -5.7326212 15.900372
19.93017 -6.7847338 15.413421
5.6412077 -1.9072464 0.33389026
0.11102381 -0.10959024 16.468647
2.818325 -1.0415379 19.100534
3.7157862 -1.3462348 19.024113
5.9043269 -2.0940933 20.074566
7.7567496 -2.7207747 19.424871
9.8950357 -3.4476275 19.270157
11.557705 -4.0088921 18.039534
13.439965 -4.6460438 17.102089
0.86645103 -0.409547 16.412001
1.896337 -0.80882353 19.184843
5.0668907 -1.8219328 20.76829
6.761035 -2.3953507 19.559864
8.846014 -3.10636 19.44949
10.829769 -3.7839336 18.834518
12.618076 -4.39152 17.766088
15.964724 -5.481451 16.667269
18.177347 -6.2305322 15.576276
20.594244 -7.0469265 14.355377
16.801258 -5.7949195 15.910348
19.325451 -6.6542373 14.96606
21.969604 -7.5561233 13.737972
5.5872445 -1.91076 0.33187497
0.11064059 -0.10997711 16.468647
2.8146722 -1.0513693 19.100534
3.7101083 -1.3588469 19.019218
5.881525 -2.1091475 20.022074
7.7140613 -2.7360778 19.342026
9.8242111 -3.461453 19.156042
11.543641 -4.0492115 18.039534
13.426691 -4.6939874 17.105927
0.86475587 -0.41244429 16.407011
1.8935022 -0.81543809 19.184843
5.053412 -1.8370315 20.739254
6.749383 -2.4177723 19.550478
8.8084478 -3.127749 19.390974
10.794362 -3.8138936 18.796125
12.585616 -4.4295359 17.742147
15.982552 -5.550014 16.705818
17.949545 -6.2225504 15.400523
20.470732 -7.0845814 14.28684
16.780928 -5.8535318 15.910348
19.241032 -6.7003865 14.918969
21.869808 -7.6072731 13.692374
5.5097184 -1.9057547 0.32885197
0.11025603 -0.11036266 16.468647
2.8102579 -1.0609133 19.095594
3.7043877 -1.3714358 19.014322
5.8685141 -2.1276298 20.002985
7.6713624 -2.7511168 19.259182
9.8098116 -3.4949205 19.151651
11.561263 -4.100771 18.08913
13.413246 -4.7418952 17.109764
0.86331093 -0.41546032 16.407011
1.8906442 -0.82204264 19.184843
5.012754 -1.8420851 20.598911
6.7262993 -2.4360285 19.508244
8.7380581 -3.1371441 19.260439
10.753967 -3.841898 18.749201
12.527493 -4.4582863 17.682297
14.323914 -5.0835466 16.55533
16.000093 -5.6187673 16.74437
17.821194 -6.2478232 15.309507
20.355103 -7.1242237 14.223785
16.756874 -5.9108305 15.907023
19.091711 -6.7232041 14.821844
21.684525 -7.6277785 13.593579
5.4841695 -1.9183773 0.32804585
0.10987011 -0.11074685 16.468647
2.8058119 -1.0704395 19.090656
3.6986244 -1.3840013 19.009428
5.8512406 -2.1445055 19.969582
7.6268167 -2.7652254 19.171734
9.7637539 -3.5169668 19.085815
11.589259 -4.156302 18.155256
13.429812 -4.8005552 17.151978
0.86159593 -0.41834477 16.402018
1.8877631 -0.82863724 19.184843
4.9791932 -1.8495039 20.487604
6.704792 -2.4547462 19.470703
8.7188702 -3.1646557 19.242435
10.691433 -3.8616927 18.663881
12.477833 -4.4897461 17.634417
14.280555 -5.1243558 16.52593
15.950137 -5.6638432 16.712828
17.667206 -6.2631726 15.196523
20.255217 -7.1687264 14.171699
16.672836 -5.9467082 15.847164
19.018627 -6.7721796 14.783585
21.572474 -7.6730876 13.540383
5.4491801 -1.9275129 0.32683668
0.10948287 -0.11112969 16.468647
2.8013334 -1.0799475 19.085718
3.6928182 -1.396543 19.004532
5.8353209 -2.1618056 19.94095
7.6061115 -2.7877967 19.144117
9.7334137 -3.5444708 19.050703
11.593199 -4.2034454 18.184187
13.419002 -4.8495836 17.159651
0.86013043 -0.42134973 16.402018
1.8843721 -0.83500552 19.179873
4.9479952 -1.8575945 20.385977
6.6913266 -2.4763381 19.456623
8.5401859 -3.1335783 18.873333
12.430935 -4.5219431 17.590527
14.243458 -5.1672354 16.50388
15.879924 -5.7014093 16.660261
17.623251 -6.3169236 15.177691
20.178888 -7.2210708 14.136059
16.51148 -5.9542065 15.714144
18.907404 -6.8070345 14.715892
21.460373 -7.7177076 13.487186
5.4330111 -1.9431574 0.3264336
0.10909428 -0.11151118 16.468647
2.7968223 -1.0894372 19.080778
3.6869698 -1.4090614 18.999638
5.8179541 -2.1784971 19.907547
7.5615268 -2.801434 19.056671
9.7052498 -3.572634 19.019979
11.610161 -4.2555084 18.233782
13.429087 -4.9062943 17.194189
0.858913 -0.42447796 16.407011
1.8809593 -0.84136009 19.1749
4.9332547 -1.8717333 20.3521
6.6729445 -2.4960527 19.428469
8.5271559 -3.1626129 18.868834
10.338806 -3.8161247 18.096512
12.375482 -4.5507479 17.534666
14.228518 -5.2180905 16.507555
15.802938 -5.7361202 16.600683
17.623051 -6.3863592 15.196523
20.185017 -7.3028455 14.157991
16.67301 -6.0783072 15.88707
18.95949 -6.9006405 14.774754
21.344173 -7.7601662 13.431457
0.10870437 -0.11189131 16.468647
2.7922797 -1.0989088 19.075838
3.6839285 -1.4226565 19.009428
5.8019376 -2.195622 19.878916
7.5462132 -2.8257558 19.042862
9.6747637 -3.5998082 18.984867
11.576764 -4.289166 18.204851
13.466001 -4.9731283 17.263264
0.85742605 -0.42747355 16.407011
1.8770398 -0.84748173 19.164959
4.9536843 -1.8992932 20.463408
6.6641912 -2.5193303 19.428469
10.303432 -3.843986 18.058119
12.33975 -4.5865703 17.506737
14.178429 -5.2559414 16.470802
15.729251 -5.7715921 16.544609
17.626234 -6.4572077 15.218493
20.202599 -7.3890595 14.188148
11.212941 -4.0789552 1.1641302
16.669209 -6.1429257 15.903697
21.22794 -7.801908 13.375728
0.10831314 -0.11227007 16.468647
2.7877045 -1.1083617 19.070898
3.6798885 -1.4358773 19.014322
5.7830844 -2.2115951 19.840738
7.5216866 -2.8465478 19.006042
9.6442051 -3.6268129 18.949755
11.498475 -4.3058653 18.105659
13.520628 -5.0470057 17.355364
0.85592866 -0.43046388 16.407011
1.8735849 -0.85380721 19.159986
4.9247551 -1.9079444 20.371458
6.6553564 -2.5425775 19.428469
8.6799412 -3.2883954 19.255938
10.243584 -3.8624444 17.977066
12.27289 -4.6105409 17.434916
14.166345 -5.3077803 16.478153
15.655509 -5.8066192 16.488537
17.607237 -6.5200477 15.221631
20.188448 -7.4638844 14.196372
10.890152 -4.004632 1.1346229
16.689651 -6.2167139 15.943604
21.107634 -7.8414316 13.317463
8.941102 -3.3038638 0.4781864
0.10789185 -0.11261465 16.463646
2.7830977 -1.1177962 19.06596
3.6776958 -1.4498343 19.029009
5.771152 -2.2301543 19.826424
7.5062299 -2.8706923 18.992233
9.613575 -3.6536484 18.91464
11.412313 -4.3190827 17.99407
13.562907 -5.1167989 17.432116
0.85467803 -0.43358007 16.412001
1.8701091 -0.8601191 19.155016
4.8946562 -1.915959 20.27467
6.638391 -2.5626857 19.405003
8.6704426 -3.319452 19.260439
10.176423 -3.8777471 17.883217
12.251088 -4.6512141 17.426935
14.188948 -5.3728056 16.52593
15.581715 -5.8412018 16.432465
17.624468 -6.5964766 15.256153
20.166187 -7.5357728 14.199113
9.0135984 -3.3503311 0.95623839
16.702791 -6.2880888 15.976858
20.987314 -7.8802114 13.2592
10.450569 -3.9031475 0.54368395
0.10749809 -0.11299057 16.463646
2.7791791 -1.1275042 19.06596
3.6820717 -1.4664311 19.077961
5.7591615 -2.248657 19.812107
7.5089197 -2.9018064 19.024452
9.5806427 -3.679456 18.875141
11.131705 -4.2573628 17.576643
13.4641 -5.1332808 17.328503
0.85315937 -0.43656081 16.412001
1.866612 -0.86641705 19.150043
4.866899 -1.9247112 20.187561
6.6470895 -2.5927408 19.456623
8.6689548 -3.3536248 19.282944
10.128752 -3.900125 17.823492
12.226338 -4.6907125 17.414965
14.195436 -5.431994 16.55533
15.507872 -5.8753409 16.376392
17.608618 -6.6607118 15.26243
20.171055 -7.6179395 14.221045
9.2629128 -3.4798496 0.98127484
16.708658 -6.3569765 16.003464
18.438093 -7.0039253 14.44512
20.862949 -7.9167175 13.198404
9.0486917 -3.4156039 0.48382926
0.10710303 -0.11336511 16.463646
2.7745073 -1.1369038 19.06102
3.6835425 -1.4819359 19.112226
5.7471113 -2.267103 19.797792
7.5114837 -2.9329741 19.056671
9.5498781 -3.7059443 18.840027
11.024908 -4.2606897 17.43199
13.350389 -5.143374 17.205702
0.85163027 -0.43953624 16.412001
1.8635762 -0.87292743 19.150043
4.847311 -1.9365579 20.134327
6.6492372 -2.6203568 19.489473
8.6632786 -3.3862424 19.29645
10.098063 -3.9288375 17.793631
14.208009 -5.4937387 16.592083
15.443971 -5.9128609 16.330832
17.552538 -6.7096286 15.234184
20.097462 -7.6704111 14.188148
9.2507095 -3.512162 0.98127484
16.097387 -6.1888199 15.441453
18.296555 -7.0233397 14.353883
20.738586 -7.9524512 13.137608
10.339044 -3.9439592 0.54005635
0.10670666 -0.11373829 16.463646
2.7698042 -1.1462845 19.056082
3.6858935 -1.4978521 19.15139
5.744709 -2.2893608 19.816879
7.5084691 -2.962044 19.075079
9.5168161 -3.7313886 18.800526
10.978513 -4.2868648 17.382395
13.168075 -5.1259937 16.99464
0.84983498 -0.44237256 16.407011
1.8600359 -0.87919915 19.145073
4.8358593 -1.9515845 20.114969
