# .PCD v0.7 - Point Cloud Data file format
VERSION 0.7
FIELDS x y z
SIZE 4 4 4
TYPE F F F
COUNT 1 1 1
WIDTH 1409
HEIGHT 1
VIEWPOINT 0 0 0 1 0 0 0
POINTS 1409
DATA ascii
-0.92049557 -0.98547572 1.4049703
-0.89696348 -0.96127808 1.1425145
-0.87962824 -0.94367641 0.93041718
-0.87658995 -0.94106412 0.75976557
-0.86287451 -0.92697793 0.59998888
-0.85625005 -0.92049438 0.45946848
-0.84948903 -0.91385818 0.32835767
-0.83024007 -0.89376515 0.20246312
-0.91365463 -0.97541136 1.271497
-0.89104366 -0.95225787 1.0331382
-0.87861836 -0.9396258 0.8415578
-0.87441903 -0.93610591 0.67962664
-0.85750443 -0.91863018 0.52651286
-0.84887266 -0.91000867 0.39086631
-0.83409971 -0.89447767 0.26279593
-0.83087283 -0.89162976 0.14283895
-1.2499163 -1.2685126 11.321203
-0.49221733 -0.50624716 3.4181292
-0.72849381 -0.75916755 3.4107988
-0.742028 -0.77860957 2.5934405
-0.91695386 -0.96610183 2.5082636
-0.99861276 -1.0550349 2.2062068
-0.93670541 -0.9916901 1.7098594
-0.85311806 -0.72571671 19.207331
-0.73946112 -0.68076181 9.3313246
-0.588938 -0.60851634 3.2979689
-0.70176065 -0.73178625 2.8113818
-0.82750636 -0.8676402 2.5429304
-1.0093325 -1.0615394 2.4661293
-0.95987928 -1.0119787 1.9217011
-0.92385066 -0.97568053 1.5349344
-0.91904283 -0.97706151 1.3979613
-0.89764798 -0.9553048 1.139376
-0.88005513 -0.93755162 0.92767572
-0.8768388 -0.93476766 0.75744677
-0.86293447 -0.920578 0.59811586
-0.85617852 -0.91399902 0.45805845
-0.84931678 -0.90730119 0.32742503
-0.82995284 -0.88722485 0.20201604
-0.91192973 -0.96678418 1.2648461
-0.88881809 -0.94325835 1.0272518
-0.87893754 -0.93341476 0.83902454
-0.87457162 -0.92974222 0.67752856
-0.85747141 -0.91219068 0.52486938
-0.84871602 -0.90349734 0.38969401
-0.830437 -0.88434076 0.26141456
-0.83056152 -0.88508093 0.14263742
-1.252147 -1.2619361 11.301446
-0.49326879 -0.50379866 3.413234
-0.7311393 -0.75661999 3.4107988
-0.74474138 -0.77601469 2.5934405
-0.92032057 -0.96289521 2.5082636
-0.99646449 -1.0454323 2.1938081
-0.93574291 -0.98376971 1.7021843
-0.85763347 -0.72440785 19.252254
-0.74222672 -0.6785357 9.3362961
-0.58930337 -0.60465705 3.28829
-0.70071387 -0.72560877 2.7973032
-0.83203799 -0.86631626 2.5474315
-1.011228 -1.056126 2.4618633
-0.959243 -1.0042641 1.9137211
-0.92491114 -0.96999627 1.5312593
-0.91754258 -0.96866941 1.3909521
-0.89830178 -0.9493385 1.1362376
-0.88045001 -0.93143535 0.92493427
-0.87401247 -0.9252609 0.75280917
-0.86296022 -0.91418904 0.59624279
-0.85607195 -0.90751535 0.45664841
-0.84910917 -0.90075654 0.32649243
-0.82963002 -0.88069749 0.20156896
-0.91015565 -0.95818102 1.258195
-0.88932288 -0.93721807 1.0243087
-0.87625784 -0.92408502 0.83395821
-0.87469047 -0.92338884 0.67543054
-0.85740405 -0.90576267 0.52322584
-0.84852439 -0.89699835 0.3885217
-0.83011645 -0.87783861 0.26072389
-0.83021456 -0.87854522 0.14243589
-1.2548964 -1.2559091 11.286629
-0.49502435 -0.50207382 3.413234
-0.73377597 -0.75406325 3.4107988
-0.74744558 -0.77341032 2.5934405
-0.92367607 -0.95967686 2.5082636
-0.99426138 -1.0358574 2.1814091
-0.93695384 -0.97818261 1.6983467
-0.86148572 -0.72252083 19.282206
-0.74498582 -0.67629862 9.3412676
-0.59052968 -0.60169941 3.2834506
-0.69963259 -0.71944755 2.7832251
-0.8350569 -0.86340666 2.5474315
-1.013098 -1.0507123 2.4575975
-0.95647562 -0.9943949 1.9017509
-0.92359513 -0.96187139 1.523909
-0.91599512 -0.96029979 1.383943
-0.89623982 -0.94056153 1.1299607
-0.88081288 -0.92532766 0.92219275
-0.87418365 -0.91899484 0.75049037
-0.86295193 -0.90781116 0.59436977
-0.85593069 -0.90104371 0.4552384
-0.84886628 -0.89422452 0.32555979
-0.82927185 -0.8741833 0.20112188
-0.91091383 -0.95230013 1.2548696
-0.8897965 -0.93118596 1.0213655
-0.87650102 -0.91790307 0.83142501
-0.87477571 -0.91704601 0.67333251
-0.85730219 -0.89934629 0.52158237
-0.84829777 -0.89051163 0.38734937
-0.82976055 -0.87134945 0.26003322
-0.8298322 -0.87202275 0.14223436
-1.2576188 -1.2498782 11.271811
-0.49605617 -0.49962053 3.4083388
-0.73640364 -0.75149727 3.4107988
-0.75014073 -0.77079654 2.5934405
-0.92868733 -0.95816642 2.5126526
-0.99395943 -1.0283341 2.1731431
-0.93591201 -0.97029251 1.6906718
-0.86511314 -0.72043127 19.307163
-0.7477383 -0.67405045 9.3462381
-0.59174263 -0.5987407 3.2786112
-0.69851685 -0.71330279 2.7691467
-0.83958471 -0.86204576 2.5519328
-1.0149425 -1.0452986 2.4533315
-0.95365119 -0.98455739 1.889781
-0.92459023 -0.95620459 1.5202339
-0.91687101 -0.95452476 1.3804384
-0.89682245 -0.93461901 1.1268222
-0.88114387 -0.91922897 0.9194513
-0.87432182 -0.91273886 0.74817157
-0.86290973 -0.90144455 0.59249669
-0.85575467 -0.894584 0.45382836
-0.84858817 -0.88770521 0.32462719
-0.82887834 -0.86768222 0.2006748
-0.90905154 -0.94373649 1.2482185
-0.88743603 -0.92224926 1.0154792
-0.87671167 -0.91173071 0.82889187
-0.87168318 -0.90744102 0.6691364
-0.85389596 -0.88953519 0.51829535
-0.84803617 -0.88403744 0.38617706
-0.82936954 -0.86487353 0.25934252
-0.82941437 -0.86551374 0.14203283
-1.2603147 -1.2438437 11.256993
-0.49707693 -0.49716616 3.4034436
-0.74426574 -0.75423372 3.4346588
-0.75282675 -0.76817334 2.5934405
-0.93202633 -0.95491886 2.5126526
-0.99165428 -1.0188092 2.1607444
-0.93706 -0.96472067 1.6868343
-0.86539507 -0.71557081 19.257248
-0.75048417 -0.67179132 9.3512096
-0.592942 -0.59578073 3.2737718
-0.69857872 -0.70840317 2.7597613
-0.84258866 -0.85910982 2.5519328
-1.0149382 -1.0380201 2.4447997
-0.94866562 -0.97259486 1.8738209
-0.92319208 -0.94811374 1.5128835
-0.91523814 -0.94619203 1.3734293
-0.89466977 -0.92588478 1.1205453
-0.88144308 -0.91313928 0.91670984
-0.87442708 -0.90649331 0.74585277
-0.86283374 -0.89508945 0.59062368
-0.85554403 -0.88813657 0.45241833
-0.84827483 -0.88119876 0.32369456
-0.82844955 -0.86119473 0.20022772
-0.90714061 -0.93519765 1.2415675
-0.88783699 -0.91624326 1.012536
-0.87988883 -0.90866482 0.82889187
-0.8716898 -0.90113074 0.66703832
-0.85371363 -0.88315392 0.51665181
-0.84773982 -0.87757605 0.38500473
-0.82894349 -0.85841101 0.25865185
-0.82896131 -0.85901827 0.14183129
-1.2629837 -1.2378056 11.242175
-0.49808663 -0.49471083 3.3985484
-0.75005102 -0.75480705 3.4489746
-0.75550359 -0.76554084 2.5934405
-0.93535399 -0.95165968 2.5126526
-0.9912647 -1.0113225 2.1524785
-0.93818027 -0.95915264 1.6829967
-0.87101525 -0.71510553 19.327129
-0.75322336 -0.66952127 9.3561811
-0.59412801 -0.59281981 3.2689323
-0.69618249 -0.70106328 2.7409902
-0.84558237 -0.85616344 2.5519328
-1.0167255 -1.0326129 2.4405339
-0.94571978 -0.9628287 1.8618507
-0.92412233 -0.94246489 1.5092083
-0.91604692 -0.94043696 1.3699248
-0.8924672 -0.9171772 1.1142684
-0.88171047 -0.9070586 0.91396838
-0.87449938 -0.90025806 0.74353397
-0.86272377 -0.88874573 0.58875066
-0.85529882 -0.88170171 0.45100829
-0.8479265 -0.87470531 0.32276195
-0.82798564 -0.85472077 0.19978066
-0.90779042 -0.92935455 1.238242
-0.88538384 -0.90735292 1.0066497
-0.88004571 -0.90250176 0.82635868
-0.86849618 -0.89158052 0.66284221
-0.85349739 -0.87678492 0.51500833
-0.84740865 -0.87112743 0.38383242
-0.83193487 -0.85551226 0.25865185
-0.82847309 -0.85253656 0.14162977
-1.2661829 -1.2323058 11.232297
-0.49908516 -0.49225447 3.3936532
-0.76218575 -0.76167876 3.4919224
-0.7581712 -0.76289898 2.5934405
-0.94035506 -0.95009094 2.5170417
-0.98885804 -1.0018483 2.1400795
-0.9392733 -0.95358855 1.6791594
-0.8708176 -0.70987594 19.267231
-0.75555587 -0.66688794 9.3561811
-0.59530061 -0.58985782 3.2640929
-0.70350724 -0.70350891 2.7597613
-0.84856582 -0.85320657 2.5519328
-1.016651 -1.0253537 2.4320021
-0.94271761 -0.95309508 1.8498807
-0.92264235 -0.9344089 1.501858
-0.91682667 -0.93468791 1.3664203
-0.89293903 -0.91127634 1.11113
-0.87902123 -0.89799929 0.90848547
-0.87453878 -0.89403343 0.74121517
-0.86258012 -0.88241374 0.58687764
-0.85837138 -0.87871075 0.45100829
-0.84754324 -0.8682251 0.32182932
-0.82748669 -0.84826064 0.19933358
-0.90579212 -0.92085665 1.231591
-0.88571262 -0.9013738 1.0037066
-0.88017029 -0.89634854 0.82382548
-0.86842471 -0.88530362 0.66074419
-0.85324705 -0.8704282 0.51336479
-0.84704286 -0.86469191 0.38266009
-0.83145124 -0.84906489 0.25796115
-0.83144391 -0.84963948 0.14162977
-1.2688 -1.2262589 11.217479
-0.499345 -0.48908508 3.3838625
-0.76272041 -0.7569111 3.4823785
-0.76082969 -0.76024783 2.5934405
-0.9436658 -0.94680274 2.5170417
-0.98838121 -0.99439895 2.1318138
-0.94033891 -0.94802845 1.6753218
-0.8705942 -0.70465654 19.207331
-0.75787914 -0.6642465 9.3561811
-0.59735596 -0.58777624 3.2640929
-0.69493634 -0.69010717 2.7175262
-0.85307962 -0.85177737 2.5564339
-1.0146954 -1.0162624 2.419204
-0.93965894 -0.94339424 1.8379105
-0.92350793 -0.92877871 1.4981829
-0.91757751 -0.92894483 1.3629158
-0.89064658 -0.90261292 1.104853
-0.87921506 -0.89194763 0.90574402
-0.87454545 -0.88781953 0.73889637
-0.86240286 -0.87609369 0.58500457
-0.85806924 -0.87228942 0.44959825
-0.84712499 -0.86175817 0.32089669
-0.83044261 -0.84536707 0.19933358
-0.90637332 -0.91503662 1.2282655
-0.88601047 -0.89540356 1.0007634
-0.88026267 -0.89020562 0.82129234
-0.86832029 -0.87903816 0.65864611
-0.85296273 -0.86408395 0.51172131
-0.84664267 -0.85826969 0.38148779
-0.83093292 -0.8426314 0.25727049
-0.83089799 -0.84317356 0.14142823
-1.2725123 -1.2212846 11.21254
-0.50031894 -0.48662943 3.3789675
-0.7664212 -0.75529164 3.4871504
-0.76347876 -0.75758737 2.5934405
-0.94696504 -0.9435029 2.5170417
-0.98587394 -0.98497659 2.119415
-0.94137716 -0.94247276 1.6714844
-0.87575221 -0.70377928 19.267231
-0.76019317 -0.66159689 9.3561811
-0.59940404 -0.58568752 3.2640929
-0.6961121 -0.68646574 2.7128336
-0.85604769 -0.8487944 2.5564339
-1.0145379 -1.0090362 2.4106722
-0.93867821 -0.93585372 1.8299305
-0.92194659 -0.92075843 1.4908326
-0.9157843 -0.92067951 1.3559066
-0.89104819 -0.89673758 1.1017146
-0.87937731 -0.88590568 0.9030025
-0.87451947 -0.88161641 0.73657757
-0.85892814 -0.86649323 0.58125854
-0.85773289 -0.86588079 0.44818825
-0.84667206 -0.8553049 0.31996405
-0.82988614 -0.83892268 0.1988865
-0.90428799 -0.90658051 1.2216145
-0.8834244 -0.88657916 0.9948771
-0.88032287 -0.88407284 0.81875914
-0.86818254 -0.87278408 0.65654802
-0.85264462 -0.85775232 0.51007777
-0.8496334 -0.85530913 0.38148779
-0.83037978 -0.83621192 0.25657982
-0.83031702 -0.83672178 0.14122671
-1.2762051 -1.2162994 11.207601
-0.5005492 -0.48346594 3.3691771
-0.76905298 -0.7526117 3.4871504
-0.76611859 -0.75491774 2.5934405
-0.95195532 -0.94187593 2.5214307
-0.98531044 -0.97756553 2.1111491
-0.94011486 -0.93466151 1.6638092
-0.87910736 -0.70143694 19.287197
-0.76249796 -0.65893936 9.3561811
-0.60144478 -0.58359164 3.2640929
-1.1572381 -1.1331005 4.4585428
-0.85900533 -0.84580106 2.5564339
-1.0124869 -0.99999118 2.3978746
-0.93979776 -0.93045157 1.8259404
-0.92274773 -0.91514742 1.4871573
-0.91646862 -0.91495776 1.3524021
-0.89141971 -0.89087039 1.0985761
-0.87950808 -0.87987339 0.90026098
-0.87446082 -0.87542444 0.73425877
-0.85867232 -0.86020881 0.57938552
-0.8539744 -0.85608923 0.44536817
-0.84965247 -0.85234421 0.31996405
-0.82929486 -0.83249265 0.19843942
-0.90480089 -0.90078419 1.218289
-0.88365066 -0.88063687 0.99193394
-0.88035101 -0.87795061 0.81622595
-0.86801177 -0.86654186 0.65445
-0.85563362 -0.85477084 0.51007777
-0.84917623 -0.84890175 0.38031548
-0.82979202 -0.82980663 0.25588912
-0.82616991 -0.82675058 0.14082365
-1.2798783 -1.2113032 11.202662
-0.50076348 -0.4803068 3.3593867
-0.77274609 -0.75096273 3.4919224
-0.76874906 -0.75223887 2.5934405
-0.95523721 -0.93854725 2.5214307
-0.98270279 -0.9681958 2.0987501
-0.93880963 -0.92687064 1.6561341
-0.88223004 -0.6989007 19.302172
-0.7647934 -0.65627372 9.3561811
-0.60438365 -0.58236057 3.2689323
-1.156237 -1.1242428 4.4397717
-0.86195248 -0.8427974 2.5564339
-1.010385 -0.99097264 2.3850765
-0.93874228 -0.92294061 1.8179604
-0.9235211 -0.90954214 1.4834822
-0.91459137 -0.90673167 1.3453929
-0.88899839 -0.88226998 1.0922991
-0.87960744 -0.87385106 0.89751953
-0.87436968 -0.86924362 0.73193997
-0.85838312 -0.85393673 0.57751244
-0.85355777 -0.84971863 0.44395813
-0.84914243 -0.84590638 0.31903145
-0.82866889 -0.82607692 0.19799234
-0.90262896 -0.89237052 1.211638
-0.88384622 -0.87470382 0.98899078
-0.88034731 -0.87183899 0.81369281
-0.8678081 -0.86031145 0.65235192
-0.85525954 -0.84845316 0.5084343
-0.84868461 -0.84250796 0.37914312
-0.82916969 -0.82341564 0.25519845
-0.82550699 -0.8203401 0.14062211
-1.2829661 -1.2057643 11.192782
-0.50169933 -0.47785389 3.3544912
-0.77643704 -0.7492972 3.4966943
-0.77137017 -0.74955082 2.5934405
-0.9585076 -0.93520713 2.5214307
-0.98004156 -0.95885611 2.0863512
-0.93746156 -0.91910034 1.6484592
-0.88511866 -0.69617319 19.312155
-0.76707959 -0.6536001 9.3561811
-0.60641283 -0.58024734 3.2689323
-1.1601542 -1.1201999 4.4397717
-0.86488914 -0.83978343 2.5564339
-1.0101012 -0.98380065 2.3765447
-0.93764579 -0.91544837 1.8099804
-0.92426658 -0.90394264 1.479807
-0.91266811 -0.89853001 1.3383839
-0.88930023 -0.87642932 1.0891607
-0.87967569 -0.86783886 0.89477807
-0.87424612 -0.86307418 0.72962117
-0.85806072 -0.84767729 0.57563943
-0.85310715 -0.84336168 0.4425481
-0.84859771 -0.83948255 0.31809881
-0.83154738 -0.82317936 0.19799234
-0.90307397 -0.88659871 1.2083125
-0.88401115 -0.86878037 0.98604763
-0.87723798 -0.86271566 0.80862641
-0.86757153 -0.85409302 0.65025389
-0.85485202 -0.84214872 0.50679076
-0.84815884 -0.83612806 0.37797081
-0.82851285 -0.81703919 0.25450778
-0.82125348 -0.8104353 0.14021905
-1.2860309 -1.2002184 11.182904
-0.50188428 -0.47470105 3.3447008
-0.7801258 -0.74761492 3.5014665
-0.77398187 -0.74685371 2.5934405
-0.96176624 -0.93185562 2.5214307
-0.97732741 -0.94954693 2.0739524
-0.93607074 -0.91135085 1.6407841
-0.88799906 -0.693434 19.32214
-0.76976377 -0.6512624 9.3611526
-0.60934603 -0.57899255 3.2737718
-1.1653031 -1.1173375 4.4444642
-0.8678152 -0.83675933 2.5564339
-1.0079046 -0.97482973 2.3637469
-0.93650848 -0.9079752 1.8020003
-0.9249841 -0.89834899 1.4761319
-0.91324878 -0.89284581 1.3348794
-0.88957226 -0.87059748 1.0860223
-0.87971264 -0.86183679 0.89203662
-0.87409014 -0.85691619 0.72730237
-0.85770506 -0.84143049 0.57376641
-0.85262257 -0.83701807 0.44113809
-0.84801859 -0.83307284 0.31716621
-0.83086437 -0.81678057 0.19754526
-0.90081614 -0.87822831 1.2016616
-0.88414556 -0.86286628 0.98310447
-0.87715989 -0.8566364 0.80609328
-0.86730212 -0.84788686 0.64815581
-0.85441083 -0.83585751 0.50514728
-0.84759891 -0.8297621 0.37679848
-0.82782167 -0.81067741 0.25381708
-0.82050925 -0.80406696 0.14001752
-1.2896426 -1.195194 11.177964
-0.5027957 -0.47224954 3.3398056
-0.78381217 -0.74591601 3.5062382
-0.77658421 -0.74414742 2.5934405
-0.96501315 -0.92849278 2.5214307
-0.97658545 -0.94222224 2.0656865
-0.93463725 -0.90362233 1.6331092
-0.8913278 -0.69103622 19.342104
-0.77244091 -0.6489138 9.3661242
-0.61227787 -0.57772446 3.2786112
-1.160447 -1.1049341 4.4116149
-0.86915821 -0.8322196 2.5519328
-1.0075392 -0.96769267 2.3552151
-0.93750137 -0.90261084 1.7980103
-0.92567408 -0.89276153 1.4724567
-0.91124213 -0.88468438 1.3278702
-0.88981444 -0.86477435 1.0828838
-0.87971848 -0.85584503 0.88929516
-0.87072772 -0.84767991 0.72266477
-0.86063695 -0.83843136 0.57376641
-0.85553914 -0.83403677 0.44113809
-0.8474052 -0.82667744 0.31623358
-0.83371043 -0.81387532 0.19754526
-0.9011935 -0.87248158 1.198336
-0.8813467 -0.85414898 0.97721815
-0.87395543 -0.84756732 0.80102688
-0.8670001 -0.84169298 0.64605778
-0.8539362 -0.82957953 0.5035038
-0.84700495 -0.82341033 0.37562618
-0.8306464 -0.80778277 0.25381708
-0.81973052 -0.7977137 0.13981599
-1.2932349 -1.1901591 11.173026
-0.5036962 -0.46979743 3.3349104
-0.78858143 -0.74522561 3.5157826
-0.77917701 -0.74143213 2.5934405
-0.96824831 -0.92511857 2.5214307
-0.97377223 -0.93296754 2.0532877
-0.93316138 -0.89591497 1.6254343
-0.89419258 -0.68827218 19.352089
-0.77511108 -0.64655459 9.3710966
-0.61429077 -0.57558364 3.2786112
-1.1605349 -1.0973203 4.3975368
-0.87363571 -0.83068049 2.5564339
-1.0052487 -0.95877028 2.3424172
-0.93629014 -0.89516848 1.7900304
-0.92388767 -0.88483536 1.4651064
-0.91175711 -0.87902308 1.3243657
-0.88722593 -0.85625738 1.0766069
-0.87969321 -0.84986389 0.8865537
-0.87049645 -0.84155649 0.72034597
-0.86022639 -0.83219874 0.57189339
-0.85499865 -0.82770884 0.43972805
-0.84675747 -0.82029653 0.31530097
-0.83297062 -0.80749393 0.19709818
-0.90154189 -0.86674297 1.1950105
-0.88141042 -0.84826452 0.97427499
-0.87380356 -0.84152126 0.79849374
-0.86666536 -0.83551162 0.6439597
-0.85682678 -0.8265937 0.5035038
-0.84637702 -0.81707293 0.37445387
-0.82989895 -0.80143845 0.25312641
-0.81891751 -0.7913757 0.13961446
-1.2968078 -1.1851137 11.168087
-0.50458568 -0.46734479 3.3300149
-0.79226661 -0.74348968 3.5205543
-0.78176039 -0.73870778 2.5934405
-0.97320926 -0.92338145 2.5258198
-0.97294527 -0.9256838 2.0450218
-0.93164301 -0.88822901 1.6177592
-0.8975082 -0.68584645 19.372055
-0.77777416 -0.64418459 9.3760681
-0.61629623 -0.57343584 3.2786112
-1.1580672 -1.0873572 4.374073
-0.87653005 -0.82762587 2.5564339
-1.004802 -0.95166898 2.3338854
-0.93503845 -0.88774562 1.7820503
-0.924514 -0.87926883 1.4614313
-0.91224384 -0.87336904 1.3208612
-0.88739914 -0.85046214 1.0734684
-0.87963694 -0.84389329 0.88381225
-0.87023306 -0.83544499 0.71802717
-0.85978281 -0.82597929 0.57002032
-0.85442442 -0.8213948 0.43831801
-0.84961563 -0.81733578 0.31530097
-0.83219647 -0.80112767 0.1966511
-0.90186113 -0.86101252 1.1916851
-0.88144386 -0.84239018 0.97133183
-0.87362027 -0.83548665 0.79596055
-0.86629814 -0.82934284 0.64186168
-0.85629696 -0.82033116 0.50186026
-0.84922403 -0.81411356 0.37445387
-0.82911724 -0.79510915 0.25243574
-0.82167488 -0.78851229 0.13961446
-1.3009367 -1.1805797 11.168087
-0.5054642 -0.46489161 3.32512
-0.79594928 -0.74173707 3.5253265
-0.78433412 -0.73597443 2.5934405
-0.97642654 -0.91997868 2.5258198
-0.97003382 -0.91648465 2.0326231
-0.93008238 -0.88056439 1.6100842
-0.89897573 -0.68201274 19.352089
-0.78043014 -0.64180386 9.3810396
-0.61460024 -0.56787008 3.2592535
-1.1568066 -1.0786014 4.3553019
-0.8794136 -0.82456118 2.5564339
-1.0043179 -0.9445824 2.3253536
-0.93593895 -0.88240939 1.7780602
-0.92264789 -0.87138098 1.4540808
-0.91270226 -0.86772233 1.3173567
-0.88754278 -0.84467608 1.07033
-0.87954974 -0.83793354 0.88107073
-0.87314397 -0.83240229 0.71802717
-0.8593064 -0.81977314 0.5681473
-0.85728639 -0.8184073 0.43831801
-0.84891158 -0.81097198 0.31436834
-0.83138818 -0.79477668 0.19620402
-0.90215141 -0.85529041 1.1883595
-0.88144702 -0.83652586 0.96838868
-0.87340534 -0.8294636 0.79342741
-0.86589837 -0.82318687 0.63976365
-0.85915524 -0.81733716 0.50186026
-0.84854007 -0.80779284 0.37328154
-0.8318876 -0.79221016 0.25243574
-0.82442236 -0.78563935 0.13961446
-1.3050498 -1.1760314 11.168087
-0.50557965 -0.46175179 3.3153296
-0.79853362 -0.73895419 3.5253265
-0.78832799 -0.73456377 2.5980432
-0.98138088 -0.91820079 2.5302088
-0.96912229 -0.90924251 2.0243571
-0.92847967 -0.87292171 1.6024091
-0.89811891 -0.67644393 19.282206
-0.78307903 -0.63941246 9.3860111
-0.62862241 -0.57676506 3.3221662
-1.1542326 -1.0686954 4.3318381
-0.88228655 -0.82148641 2.5564339
-1.0018905 -0.93573093 2.3125558
-0.93461382 -0.87501842 1.7700801
-0.92073804 -0.86351699 1.4467305
-0.91313237 -0.86208302 1.3138521
-0.88765693 -0.83889943 1.0671915
-0.87943166 -0.83198476 0.87832928
-0.87282729 -0.82630396 0.71570832
-0.85879707 -0.81358039 0.56627429
-0.85665643 -0.81210941 0.43690795
-0.84817344 -0.80462307 0.31343573
-0.83054566 -0.78844112 0.19575694
-0.90241265 -0.84957683 1.185034
-0.88142002 -0.83067185 0.96544552
-0.87315917 -0.82345235 0.79089421
-0.8654663 -0.81704378 0.63766557
-0.85857034 -0.81109035 0.50021678
-0.84782243 -0.80148697 0.37210923
-0.83104986 -0.78589898 0.25174505
-0.82353097 -0.77932292 0.13941292
-1.3085678 -1.1709508 11.163147
-0.50869739 -0.46135151 3.32512
-0.80220741 -0.73717201 3.5300984
-0.7908873 -0.73180753 2.5980432
-0.98458004 -0.91476959 2.5302088
-0.96611309 -0.90009981 2.0119581
-0.92683512 -0.86530101 1.5947342
-0.90394676 -0.67589283 19.35708
-0.78572053 -0.63701028 9.3909817
-0.63713765 -0.58049119 3.3560419
-1.1528742 -1.0599884 4.313067
-0.8851487 -0.81840163 2.5564339
-1.0013261 -0.92868119 2.3040237
-0.9354555 -0.86969918 1.7660903
-0.91878468 -0.85567713 1.4393802
-0.91353416 -0.85645133 1.3103476
-0.88774151 -0.83313245 1.0640531
-0.87928289 -0.82604694 0.87558782
-0.87570626 -0.82325214 0.71570832
-0.85825509 -0.80740124 0.56440127
-0.85599315 -0.80582619 0.43549791
-0.84740132 -0.79828918 0.3125031
-0.82966906 -0.78212118 0.19530986
-0.90537274 -0.84642166 1.185034
-0.88136292 -0.82482821 0.96250236
-0.87602824 -0.82039946 0.79089421
-0.86831301 -0.81401777 0.63766557
-0.86139625 -0.80808842 0.50021678
-0.84707117 -0.79519588 0.3709369
-0.8301782 -0.77960336 0.25105438
-0.82260561 -0.77302223 0.1392114
-1.3120662 -1.1658599 11.158208
-0.51030475 -0.45957306 3.32512
-0.80477571 -0.73436731 3.5300984
-0.79487568 -0.73036391 2.6026456
-0.98952758 -0.91295105 2.5345981
-0.96511763 -0.89290017 2.0036924
-0.92749935 -0.85988152 1.5908966
-0.90978152 -0.67530906 19.431955
-0.78835493 -0.63459754 9.3959532
-0.64382178 -0.58247876 3.3802392
-1.1501945 -1.0501407 4.2896028
-0.88800007 -0.81530696 2.5564339
-0.99880612 -0.91988045 2.2912261
-0.93405735 -0.86234081 1.7581102
-0.91927689 -0.85016298 1.4357051
-0.91129744 -0.84839737 1.3033384
-0.8877967 -0.82737499 1.0609146
-0.87910336 -0.82012039 0.87284636
-0.87533647 -0.81716752 0.71338952
-0.85768062 -0.80123585 0.56252825
-0.85529643 -0.79955739 0.43408787
-0.85018271 -0.79532629 0.3125031
-0.82875854 -0.77581698 0.19486278
-0.90558535 -0.84071589 1.1817086
-0.88423669 -0.82174671 0.96250236
-0.87572986 -0.81440091 0.78836101
-0.86782724 -0.8078894 0.63556755
-0.86075658 -0.80185801 0.49857324
-0.84984177 -0.79223418 0.3709369
-0.82927269 -0.77332342 0.25036371
-0.82164639 -0.76673764 0.13900986
-1.3155451 -1.1607589 11.153269
-0.51114655 -0.45711049 3.3202245
-0.80733424 -0.73155367 3.5300984
-0.79742026 -0.72758484 2.6026456
-0.99270838 -0.90949136 2.5345981
-0.96201134 -0.88381481 1.9912934
-0.92577869 -0.85229719 1.5832217
-0.91213316 -0.67212927 19.431955
-0.79056531 -0.63184178 9.3959532
-0.64585114 -0.58022785 3.3802392
-1.1461818 -1.0391657 4.2614465
-0.89084059 -0.81220227 2.5564339
-0.99816161 -0.91286844 2.2826943
-0.93261939 -0.85500288 1.7501302
-0.91974187 -0.84465611 1.4320298
-0.91163456 -0.84279042 1.2998339
-0.88782251 -0.82162738 1.0577762
-0.87889326 -0.81420517 0.87010491
-0.87493491 -0.8110956 0.71107078
-0.85707349 -0.79508424 0.56065518
-0.8545664 -0.79330331 0.43267787
-0.84935474 -0.78901058 0.3115705
-0.83146155 -0.77291942 0.19486278
-0.90576917 -0.83501899 1.1783831
-0.88412917 -0.81591398 0.95955914
-0.87540019 -0.80841452 0.78582788
-0.86730933 -0.80177456 0.63346946
-0.86008394 -0.7956419 0.49692973
-0.84903502 -0.78596097 0.3697646
-0.82833356 -0.76705939 0.24967301
-0.82065326 -0.76046908 0.13880834
-1.3190044 -1.1556478 11.148329
-1.4046319 -1.2466265 9.0525351
-0.81099278 -0.72972935 3.5348704
-0.80140316 -0.72610849 2.6072483
-0.99410534 -0.90440905 2.5302088
-0.96093255 -0.87665862 1.9830275
-0.9263823 -0.84689784 1.5793842
-0.91564012 -0.6697917 19.456915
-0.79318398 -0.62940919 9.4009247
-0.64787257 -0.57796991 3.3802392
-1.143389 -1.0293862 4.2379827
-0.89528418 -0.81054854 2.5609353
-0.99748033 -0.90587217 2.2741623
-0.93336982 -0.84971386 1.74614
-0.91767448 -0.83687186 1.4246795
-0.90931654 -0.83477992 1.2928247
-0.88781905 -0.81588966 1.0546377
-0.87865251 -0.80830145 0.86736345
-0.87450159 -0.80503643 0.70875198
-0.85643381 -0.78894675 0.55878216
-0.85380328 -0.78706419 0.43126783
-0.84849304 -0.78271025 0.31063786
-0.83049524 -0.76663446 0.1944157
-0.90592426 -0.82933116 1.1750575
-0.88399184 -0.81009209 0.95661598
-0.87503952 -0.80244052 0.78329468
-0.8667593 -0.79567313 0.63137144
-0.85937828 -0.78944027 0.49528623
-0.8481949 -0.77970302 0.36859229
-0.82736081 -0.76081133 0.24898234
-0.81962645 -0.75421697 0.1386068
-1.322444 -1.1505265 11.14339
-1.3914027 -1.2262348 8.9399452
-0.81464833 -0.72788829 3.5396423
-0.80393291 -0.72330672 2.6072483
-0.99725622 -0.9009335 2.5302088
-0.95981556 -0.86952072 1.9747616
-0.92695963 -0.84150475 1.5755466
-0.79579532 -0.62696612 9.4058962
-0.64988607 -0.57570487 3.3802392
-1.1392553 -1.0184886 4.209826
-0.89810812 -0.80741853 2.5609353
-0.9948256 -0.89714539 2.2613645
-0.93185937 -0.84240943 1.73816
-0.91807705 -0.83138806 1.4210044
-0.90958929 -0.8291983 1.2893202
-0.88491124 -0.80753845 1.0483608
-0.87838137 -0.80240941 0.864622
-0.87403673 -0.79899019 0.70643318
-0.85918254 -0.78595245 0.55878216
-0.85654545 -0.78407907 0.43126783
-0.84759778 -0.77642566 0.30970526
-0.82949519 -0.76036572 0.19396862
-0.90328777 -0.821141 1.1684066
-0.88382453 -0.80428112 0.95367283
-0.87464786 -0.79647881 0.78076148
-0.8661772 -0.78958529 0.62927336
-0.8586399 -0.78325331 0.49364269
-0.84732151 -0.77346075 0.36741996
-0.82635462 -0.75457948 0.24829166
-0.82225418 -0.7513513 0.1386068
-1.3258637 -1.1453956 11.138451
-1.3864784 -1.2133254 8.8812027
-0.82053447 -0.72801167 3.5539584
-0.80645281 -0.72049606 2.6072483
-1.0003949 -0.89744693 2.5302088
-0.95866042 -0.86240131 1.9664958
-0.9275105 -0.83611792 1.5717092
-0.79839921 -0.62451243 9.4108686
-0.65189171 -0.5734328 3.3802392
-1.1428035 -1.0145056 4.209826
-0.90092099 -0.80427855 2.5609353
-0.99406517 -0.89018804 2.2528327
-0.93255186 -0.83713889 1.7341701
-0.91593164 -0.82364488 1.4136541
-0.90983421 -0.82362497 1.2858157
-0.88484037 -0.80183107 1.0452224
-0.87807983 -0.79652911 0.86188054
-0.87026024 -0.7899797 0.70179558
-0.85848922 -0.77983153 0.55690914
-0.85572737 -0.77785778 0.42985779
-0.84666902 -0.77015686 0.30877262
-0.83214432 -0.75746566 0.19396862
-0.90337694 -0.81548119 1.165081
-0.88362759 -0.79848129 0.95072967
-0.87422526 -0.79052967 0.77822834
-0.86556327 -0.78351128 0.62717533
-0.85786885 -0.77708119 0.49199918
-0.84641492 -0.76723397 0.36624765
-0.82898355 -0.75169039 0.24829166
-0.82117206 -0.74511939 0.13840528
-1.329264 -1.1402547 11.133512
-1.3822498 -1.2011334 8.8273554
-0.81186849 -0.71527737 3.5062382
-0.80896288 -0.71767658 2.6072483
-1.0017332 -0.89235663 2.5258198
-0.9574675 -0.85530066 1.9582298
-0.92803514 -0.83073759 1.5678717
-0.92730433 -0.66351944 19.556746
-0.80141699 -0.62237465 9.4208117
-0.65294248 -0.57032716 3.3753996
-1.1437486 -1.0082285 4.2004404
-0.903723 -0.80112886 2.5609353
-0.99326837 -0.88324684 2.2443008
-0.93321878 -0.8318736 1.7301799
-0.91627222 -0.81818479 1.4099789
-0.907399 -0.81567603 1.2788066
-0.88474047 -0.79613411 1.0420839
-0.87774795 -0.79066068 0.85913903
-0.86972213 -0.78397137 0.69947678
-0.85776359 -0.77372497 0.55503613
-0.85487646 -0.7716518 0.42844775
-0.84570682 -0.76390409 0.30784002
-0.8310889 -0.75121695 0.19352154
-0.90343767 -0.80983084 1.1617556
-0.88340092 -0.7926926 0.94778651
-0.87377179 -0.78459322 0.77569515
-0.86829299 -0.78048509 0.62717533
-0.8570652 -0.77092403 0.49035567
-0.8454752 -0.76102293 0.36507532
-0.82792234 -0.74547851 0.24760097
-0.82376796 -0.74224842 0.13840528
-1.3326446 -1.1351042 11.128572
-1.3717848 -1.183665 8.7343464
-0.8076185 -0.70654327 3.4776065
-0.81146312 -0.7148484 2.6072483
-1.0030478 -0.88726777 2.5214307
-0.95623654 -0.84821886 1.9499639
-0.92853349 -0.82536376 1.5640341
-0.92961484 -0.6602785 19.556746
-0.80442959 -0.62022346 9.4307537
-0.65492928 -0.56804454 3.3753996
-1.1459625 -1.0030935 4.1957479
-0.90651393 -0.7979694 2.5609353
-0.99048007 -0.87459606 2.231503
-0.93386042 -0.82661384 1.7261899
-0.91404927 -0.81048334 1.4026285
-0.90758002 -0.81012893 1.2753021
-0.88461155 -0.79044753 1.0389454
-0.87738585 -0.7848044 0.85639757
-0.86915261 -0.77797633 0.69715798
-0.85700595 -0.76763314 0.55316305
-0.85399264 -0.76546127 0.42703772
-0.84471136 -0.75766742 0.30690739
-0.83370602 -0.74831134 0.19352154
-0.9034698 -0.80418986 1.15843
-0.88314462 -0.78691524 0.94484335
-0.87328762 -0.7786696 0.77316189
-0.86762607 -0.77442729 0.62507725
-0.85622913 -0.76478201 0.48871216
-0.84450245 -0.75482792 0.36390302
-0.82682782 -0.73928326 0.2469103
-0.82635391 -0.73936844 0.13840528
-1.3360053 -1.1299437 11.123633
-1.3689483 -1.1729082 8.6902885
-0.80219036 -0.69686884 3.4442027
-0.81395346 -0.71201152 2.6072483
-1.0043395 -0.88218069 2.5170417
-0.95496798 -0.84115613 1.9416981
-0.9290058 -0.81999671 1.5601966
-0.93899983 -0.66200954 19.706497
-0.80786061 -0.61838228 9.4456682
-0.65595549 -0.56493497 3.3705604
-1.1455492 -0.99569148 4.1816697
-0.91093314 -0.79623276 2.5654364
-0.98960477 -0.8676948 2.222971
-0.93221331 -0.81937075 1.7182097
-0.91432828 -0.80504757 1.3989534
-0.90773356 -0.80459058 1.2717975
-0.88445371 -0.78477162 1.035807
-0.87699366 -0.77896029 0.85365611
-0.86855185 -0.77199489 0.69483918
-0.85621619 -0.76155597 0.55129004
-0.85307598 -0.75928634 0.42562771
-0.84368271 -0.75144714 0.30597478
-0.83259541 -0.74208313 0.19307446
-0.90347373 -0.79855871 1.1551045
-0.88285875 -0.78114933 0.94190019
-0.87277269 -0.77275896 0.77062875
-0.87032402 -0.77139395 0.62507725
-0.85536057 -0.75865519 0.48706865
-0.84713209 -0.75187546 0.36390302
-0.82570028 -0.73310488 0.24621962
-0.82892978 -0.7364794 0.13840528
-1.3393463 -1.1247739 11.118694
-1.3660535 -1.1621858 8.6462317
-0.79557413 -0.68626624 3.4060268
-0.81643385 -0.70916593 2.6072483
-1.0056076 -0.8770954 2.5126526
-0.95366168 -0.83411258 1.9334321
-0.92704135 -0.81252378 1.5525217
-0.94130498 -0.65872782 19.706497
-0.81128854 -0.61652476 9.4605837
-0.65601248 -0.56100845 3.3608816
-1.1464046 -0.98943192 4.1722836
-0.91370696 -0.7930482 2.5654364
-0.98672622 -0.85909802 2.2101734
-0.93279755 -0.8141306 1.7142198
-0.91458052 -0.79961985 1.3952782
-0.90785944 -0.79906106 1.268293
-0.88718766 -0.78167951 1.035807
-0.8765713 -0.77312845 0.85091466
-0.8679201 -0.76602715 0.69252038
-0.85539442 -0.7554937 0.54941696
-0.85212678 -0.75312722 0.42421767
-0.84262097 -0.74524319 0.30504215
-0.83145154 -0.73587185 0.19262739
-0.90064299 -0.79047436 1.1484535
-0.8825435 -0.7753951 0.93895704
-0.87222725 -0.76686138 0.76809555
-0.86960435 -0.7653529 0.62297922
-0.85445982 -0.75254381 0.48542514
-0.84610492 -0.74570006 0.36273071
-0.82825428 -0.73021817 0.24621962
-0.82774913 -0.73027623 0.13820374
-1.3426675 -1.1195943 11.113754
-1.3623226 -1.1508408 8.5972795
-0.79342932 -0.67960167 3.3869388
-0.82038391 -0.70758748 2.6118507
-1.0068525 -0.87201202 2.5082636
-0.95231807 -0.82708848 1.9251662
-0.92745394 -0.80717874 1.5486841
-0.94359863 -0.65543795 19.706497
-0.8147133 -0.61465073 9.4754972
-0.65605003 -0.55708843 3.3512027
-1.1459203 -0.98205584 4.1582055
-0.91646963 -0.78985393 2.5654364
-0.98577291 -0.85223746 2.2016416
-0.93335634 -0.80889618 1.7102298
-0.91480595 -0.79420006 1.3916031
-0.90527242 -0.79119378 1.2612839
-0.88698131 -0.7760151 1.0326686
-0.87611902 -0.76730913 0.8481732
-0.86725718 -0.76007324 0.69020158
-0.85802639 -0.75250322 0.54941696
-0.85114497 -0.74698389 0.42280763
-0.84152627 -0.73905587 0.30410954
-0.8302744 -0.72967762 0.19218032
-0.90058184 -0.78487271 1.145128
-0.88219893 -0.76965266 0.93601388
-0.87165135 -0.76097721 0.76556236
-0.86885327 -0.75932634 0.6208812
-0.85352683 -0.7464481 0.48378164
-0.84870273 -0.74274212 0.36273071
-0.83079821 -0.72732258 0.24621962
-0.83029324 -0.72738242 0.13820374
-1.3453703 -1.11391 11.103876
-1.3600897 -1.1408446 8.5581179
-0.79011053 -0.67199373 3.3630788
-0.82284886 -0.70471948 2.6118507
-1.0080743 -0.86693066 2.5038743
-0.94880587 -0.81824642 1.9127675
-0.92784065 -0.80184078 1.5448467
-0.94659454 -0.65263081 19.721472
-0.81856191 -0.61307955 9.4953842
-0.65606827 -0.55317509 3.3415239
-1.1453981 -0.97469521 4.1441274
-0.9192211 -0.78665006 2.5654364
-0.98478371 -0.84539402 2.1931098
-0.93389022 -0.80366796 1.7062398
-0.91500473 -0.78878856 1.3879279
-0.90533519 -0.78569162 1.2577794
-0.88674623 -0.77036166 1.02953
-0.87563688 -0.76150239 0.84543175
-0.86656332 -0.75413334 0.68788278
-0.85715187 -0.74645913 0.54754394
-0.85013068 -0.74085671 0.4213976
-0.84410095 -0.73611391 0.30410954
-0.82906425 -0.72350061 0.19173324
-0.90049261 -0.77928114 1.1418025
-0.88182491 -0.76392204 0.93307072
-0.87104493 -0.75510633 0.76302922
-0.86807072 -0.75331426 0.61878312
-0.8561272 -0.74346411 0.48378164
-0.84762132 -0.73658681 0.36155838
-0.82959455 -0.72116929 0.24552894
-0.82905787 -0.72120076 0.1380022
-1.34865 -1.1087136 11.098936
-1.3570212 -1.1302266 8.51406
-0.79245138 -0.66923165 3.3630788
-0.8267923 -0.70310837 2.6164534
-1.0074514 -0.86029637 2.4950962
-0.9473812 -0.81126916 1.9045017
-0.9282015 -0.79651004 1.5410092
-0.94862831 -0.64915985 19.716478
-0.82155323 -0.61085379 9.5053272
-0.65510315 -0.54846174 3.3270054
-1.1461569 -0.96846384 4.1347418
-0.92196143 -0.7834366 2.5654364
-0.98375887 -0.83856791 2.1845777
-0.93439883 -0.79844576 1.7022496
-0.91260141 -0.78118098 1.3805776
-0.90537053 -0.78019869 1.2542748
-0.8864826 -0.76471937 1.0263916
-0.87828958 -0.75844127 0.84543175
-0.86919045 -0.75110394 0.68788278
-0.85624552 -0.7404303 0.54567093
-0.85271156 -0.73788464 0.4213976
-0.84295189 -0.72994745 0.30317691
-0.82782108 -0.71734089 0.19128615
-0.89754349 -0.77126652 1.1351515
-0.88142174 -0.75820339 0.93012756
-0.8704083 -0.74924904 0.76049602
-0.8672567 -0.74731696 0.61668509
-0.85514086 -0.73738748 0.48213813
-0.8501873 -0.73362356 0.36155838
-0.83210689 -0.71826905 0.24552894
-0.83157033 -0.71830243 0.1380022
-1.3519099 -1.103508 11.093997
-1.3546799 -1.1202929 8.4748983
-0.79363859 -0.66550243 3.3583069
-0.82924157 -0.70021808 2.6164534
-1.0086215 -0.8552258 2.4907072
-0.94591939 -0.80431181 1.8962357
-0.9285363 -0.79118645 1.5371716
-0.95375723 -0.6477868 19.776381
-0.82368058 -0.60798228 9.5053272
-0.65411305 -0.54376191 3.3124871
-1.1455641 -0.96113008 4.1206636
-0.9246906 -0.78021353 2.5654364
-0.98269826 -0.83175927 2.1760459
-0.93488258 -0.79323 1.6982597
-0.9127394 -0.77579516 1.3769025
-0.90537864 -0.77471519 1.2507702
-0.88619035 -0.75908834 1.0232532
-0.87775731 -0.75264901 0.84269029
-0.8684451 -0.74518073 0.68556398
-0.85882485 -0.73743695 0.54567093
-0.85528213 -0.73490363 0.4213976
-0.84177005 -0.72379792 0.30224431
-0.82654506 -0.71119881 0.19083907
-0.89738977 -0.76570547 1.131826
-0.88098949 -0.75249702 0.9271844
-0.86974138 -0.74340534 0.75796282
-0.86641145 -0.74133462 0.61458701
-0.85412264 -0.73132682 0.48049462
-0.84905201 -0.72748893 0.36038607
-0.83460903 -0.71536005 0.24552894
-0.83028042 -0.71214271 0.13780068
-1.3551499 -1.0982932 11.089059
-1.3530731 -1.1110352 8.4406319
-0.79595679 -0.66272807 3.3583069
-0.83168066 -0.69731915 2.6164534
-1.0097684 -0.85015744 2.4863181
-0.94442058 -0.79737461 1.8879696
-0.92884541 -0.78587031 1.5333341
-0.95792943 -0.6457417 19.816313
-0.82579774 -0.60510337 9.5053272
-0.6521287 -0.53827584 3.2931294
-1.14626 -0.95491666 4.1112776
-0.92907721 -0.77837884 2.5699377
-0.98160225 -0.82496834 2.1675138
-0.93534112 -0.78802043 1.6942697
-0.91285098 -0.77041805 1.3732272
-0.90535957 -0.76924115 1.2472657
-0.88586962 -0.75346869 1.0201148
-0.87719542 -0.74686992 0.83994877
-0.86766911 -0.739272 0.68324518
-0.85786599 -0.73142689 0.54379785
-0.85419291 -0.72880024 0.41998756
-0.84055561 -0.71766561 0.30131167
-0.82523638 -0.70507437 0.19039199
-0.89720821 -0.76015478 1.1285006
-0.88052815 -0.74680293 0.92424124
-0.86904424 -0.73757547 0.75542969
-0.86553508 -0.73536724 0.61248899
-0.85307258 -0.72528225 0.47885111
-0.84788412 -0.72137111 0.35921374
-0.8333298 -0.70923281 0.24483825
-0.82895774 -0.70600086 0.13759914
-1.3583699 -1.0930692 11.084119
-1.3506289 -1.1011592 8.4014702
-0.79711461 -0.65899473 3.3535349
-0.83410972 -0.69441187 2.6164534
-1.0090547 -0.84355563 2.47754
-0.9450416 -0.79226542 1.8838367
-0.92667437 -0.77850008 1.5256591
-0.96209919 -0.64367551 19.856247
-0.82833624 -0.60253012 9.5102978
-0.65108645 -0.53360677 3.2786112
-1.1455969 -0.94761038 4.0971994
-0.93178856 -0.77513099 2.5699377
-0.98047084 -0.81819522 2.158982
-0.93346351 -0.78088421 1.6862897
-0.91033757 -0.76287222 1.3658769
-0.90531337 -0.76377666 1.2437612
-0.88552046 -0.74786049 1.0169762
-0.87660378 -0.74110383 0.83720732
-0.87024438 -0.73623878 0.68324518
-0.8568756 -0.72543252 0.54192483
-0.85673171 -0.72581404 0.41998756
-0.83930856 -0.71155059 0.30037907
-0.82769251 -0.70218951 0.19039199
-0.89699894 -0.75461483 1.125175
-0.88003778 -0.74112117 0.92129809
-0.86831719 -0.73175967 0.75289649
-0.86462772 -0.72941506 0.6103909
-0.8519907 -0.71925402 0.4772076
-0.84668386 -0.71527034 0.35804144
-0.83201796 -0.70312327 0.24414757
-0.82760239 -0.69987696 0.13739762
-1.3621771 -1.088321 11.084119
-1.3489238 -1.0919545 8.3672037
-0.79825616 -0.6552614 3.348763
-0.8365286 -0.69149607 2.6164534
-1.0101501 -0.83849871 2.473151
-0.94347548 -0.78536147 1.8755709
-0.92692465 -0.77320766 1.5218216
-0.96746963 -0.64238453 19.921137
-0.83086693 -0.59994662 9.5152693
-0.64904428 -0.52815849 3.2592535
-1.1462305 -0.94141561 4.0878143
-0.93448859 -0.77187377 2.5699377
-0.97930413 -0.81144011 2.1504502
-0.93386555 -0.77569586 1.6822997
-0.91038883 -0.75752163 1.3622017
-0.90524 -0.75832194 1.2402567
-0.88514304 -0.74226397 1.0138377
-0.8759827 -0.73535109 0.83446586
-0.86941701 -0.73034734 0.68092638
-0.85585392 -0.71945405 0.54005182
-0.85191798 -0.7166431 0.41716751
-0.83802927 -0.7054531 0.29944643
-0.82632983 -0.69608766 0.18994491
-0.89962757 -0.75147915 1.125175
-0.87641758 -0.73285925 0.91541177
-0.87086624 -0.72872424 0.75289649
-0.86368942 -0.72347832 0.60829288
-0.85449612 -0.71627557 0.4772076
-0.84545141 -0.70918679 0.35686913
-0.83446723 -0.70021462 0.24414757
-0.82621431 -0.69377118 0.13719608
-1.3659679 -1.0835594 11.084119
-1.3471709 -1.082775 8.3329372
-0.80169582 -0.65341383 3.3535349
-0.84044755 -0.68981099 2.6210558
-1.0093743 -0.8319214 2.4643729
-0.94404197 -0.78027076 1.8714379
-0.92468077 -0.76587862 1.5141466
-0.97139519 -0.64011306 19.956079
-0.8333897 -0.59735286 9.5202408
-0.64795011 -0.52352071 3.2447352
-1.1441597 -0.93304706 4.0690432
-0.9371773 -0.76860702 2.5699377
-0.98011661 -0.80636001 2.1461844
-0.93191797 -0.76859719 1.6743195
-0.9104138 -0.75217998 1.3585266
-0.90513963 -0.752877 1.236752
-0.88473737 -0.73667926 1.0106993
-0.87533218 -0.72961181 0.83172441
-0.86855924 -0.72447073 0.67860758
-0.85480094 -0.71349156 0.5381788
-0.85073262 -0.71058989 0.41575748
-0.83671755 -0.69937319 0.29851383
-0.82875454 -0.69319898 0.18994491
-0.89937121 -0.74595076 1.1218495
-0.87586057 -0.72721368 0.91246861
-0.87008882 -0.72292513 0.75036329
-0.86272013 -0.71755695 0.60619479
-0.85336167 -0.71026772 0.47556409
-0.84792185 -0.70623136 0.35686913
-0.83310175 -0.69412768 0.24345689
-0.82479388 -0.68768364 0.13699456
-1.3691313 -1.0783041 11.07918
-1.3445746 -1.0729862 8.2937756
-0.80745339 -0.65342778 3.3678508
-0.84285033 -0.68687314 2.6210558
-1.0104184 -0.82687628 2.4599836
-0.94458455 -0.7751857 1.867305
-0.92239714 -0.75857466 1.5064715
-0.97217256 -0.63577241 19.92613
-0.83633906 -0.59505719 9.5301838
-0.64683151 -0.518897 3.230217
-1.1420443 -0.92470425 4.0502715
-0.94154263 -0.76670539 2.5744388
-0.97888559 -0.79963434 2.1376524
-0.93226373 -0.76343048 1.6703296
-0.91041279 -0.74684751 1.3548514
-0.90776211 -0.74971294 1.236752
-0.88430351 -0.73110652 1.0075608
-0.87465227 -0.72388595 0.82898289
-0.86767107 -0.71860904 0.67628878
-0.85728627 -0.7105034 0.5381788
-0.84951538 -0.70455366 0.41434744
-0.83915371 -0.69644827 0.29851383
-0.82733822 -0.68712014 0.18949783
-0.89908719 -0.74043334 1.1185241
-0.87527478 -0.72158086 0.90952545
-0.87260705 -0.71988356 0.75036329
-0.86171997 -0.71165115 0.60409671
-0.85219568 -0.70427644 0.47392058
-0.84663618 -0.70016956 0.3556968
-0.83170402 -0.68805885 0.2427662
-0.82334095 -0.68161446 0.13679302
-1.3728869 -1.0735184 11.07918
-1.3427244 -1.063861 8.2595091
-0.81205702 -0.6524747 3.3773947
-0.84676182 -0.68515557 2.6256583
-1.0095809 -0.82032394 2.4512055
-0.94292134 -0.76832891 1.8590392
-0.92255658 -0.75332314 1.502634
-0.97414351 -0.63221818 19.921137
-0.83928269 -0.5927484 9.5401278
-0.64568853 -0.51428741 3.2156987
-1.14123 -0.91746897 4.0361934
-0.94421321 -0.76341414 2.5744388
-0.97761941 -0.79292709 2.1291206
-0.93024677 -0.75637007 1.6623495
-0.91038549 -0.74152416 1.3511763
-0.9076159 -0.74427843 1.2332475
-0.88384157 -0.72554576 1.0044224
-0.87394303 -0.71817368 0.82624143
-0.86675262 -0.71276236 0.67396998
-0.85618144 -0.70456088 0.53630573
-0.84826654 -0.69853473 0.4129374
-0.8377887 -0.69039088 0.2975812
-0.82588959 -0.68105972 0.18905075
-0.89877576 -0.734927 1.1151985
-0.87778825 -0.71852118 0.90952545
-0.87177974 -0.71410167 0.74783015
-0.86419886 -0.70863879 0.60409671
-0.85464889 -0.7012974 0.47392058
-0.84531856 -0.69412547 0.35452449
-0.83410072 -0.68515146 0.2427662
-0.82571518 -0.67873633 0.13679302
-1.3766259 -1.0687195 11.07918
-1.3408271 -1.0547618 8.2252417
-0.81666374 -0.65149742 3.3869388
-0.85067135 -0.68341899 2.6302607
-1.0087098 -0.81378764 2.4424274
-0.94340974 -0.76326305 1.8549061
-0.92020077 -0.74606133 1.494959
-0.97585869 -0.62850207 19.911156
-0.84222025 -0.59042609 9.5500708
-0.64550745 -0.51047164 3.2060199
-1.1376815 -0.90809786 4.0127296
-0.94857007 -0.76147616 2.5789402
-0.97631854 -0.78623855 2.1205888
-0.93053663 -0.75122565 1.6583595
-0.9103322 -0.73621011 1.347501
-0.90744269 -0.73885417 1.229743
-0.88335162 -0.71999717 1.0012839
-0.87320477 -0.71247536 0.82349998
-0.86580396 -0.70693094 0.67165118
-0.85863554 -0.70156801 0.53630573
-0.84698588 -0.69253296 0.4115274
-0.84019351 -0.68746227 0.2975812
-0.82440871 -0.67501777 0.18860367
-0.89843684 -0.72943193 1.111873
-0.87715417 -0.71290356 0.9065823
-0.87092257 -0.70833433 0.74529696
-0.86314756 -0.70275247 0.60199869
-0.85343075 -0.69532728 0.47227708
-0.84396917 -0.68809921 0.35335216
-0.83264965 -0.67910588 0.24207552
-0.82420892 -0.67269105 0.13659149
-1.3797324 -1.0634335 11.074241
-1.3388827 -1.0456889 8.1909752
-0.82127362 -0.65049595 3.3964829
-0.85305178 -0.68044543 2.6302607
-1.0078056 -0.80726731 2.4336493
-0.9438743 -0.75820321 1.8507732
-0.92030257 -0.74083501 1.4911215
-0.97804666 -0.62509185 19.911156
-0.84515184 -0.5880906 9.5600128
-0.6472854 -0.50821531 3.2060199
-1.135434 -0.89983439 3.9939587
-0.9512223 -0.75816041 2.5789402
-0.97498286 -0.77956867 2.112057
-0.92845058 -0.7442041 1.6503794
-0.91025299 -0.73090553 1.3438259
-0.90724277 -0.73344022 1.2262385
-0.88283378 -0.71446085 0.99814546
-0.8724373 -0.70679098 0.82075852
-0.86482519 -0.70111477 0.66933239
-0.85747898 -0.69564587 0.53443271
-0.84939814 -0.68957222 0.4115274
-0.83877528 -0.68142778 0.29664856
-0.82289582 -0.66899449 0.18815659
-0.89807051 -0.7239483 1.1085476
-0.87649167 -0.70729917 0.90363914
-0.87003601 -0.70258182 0.74276382
-0.8655954 -0.69973522 0.60199869
-0.85585266 -0.69234401 0.47227708
-0.84258801 -0.68209076 0.35217986
-0.83501512 -0.67619526 0.24207552
-0.82655203 -0.66980982 0.13659149
-1.3828188 -1.0581387 11.069302
-1.3368913 -1.0366424 8.1567087
-0.82236564 -0.64670271 3.3917108
-0.85695356 -0.67867625 2.6348634
-1.0068681 -0.80076331 2.424871
-0.94211489 -0.75139487 1.8425074
-0.92037898 -0.73561698 1.4872841
-0.98022264 -0.62167412 19.911156
-0.84851635 -0.58604431 9.5749283
-0.64905542 -0.50595278 3.2060199
-1.1344992 -0.89266479 3.9798803
-0.95386302 -0.75483537 2.5789402
-0.97361261 -0.77291787 2.1035249
-0.92868477 -0.73908246 1.6463894
-0.91014779 -0.72561055 1.3401507
-0.90423501 -0.72580451 1.2192293
-0.8822881 -0.70893693 0.99500704
-0.8716408 -0.70112056 0.81801701
-0.8638165 -0.69531429 0.66701359
-0.85629171 -0.68974048 0.53255969
-0.84806508 -0.68359262 0.41011736
-0.83732533 -0.67541176 0.29571593
-0.82522607 -0.66611797 0.18815659
-0.897677 -0.71847606 1.105222
-0.87895525 -0.70423532 0.90363914
-0.86911976 -0.69684404 0.74023062
-0.86449313 -0.6938687 0.5999006
-0.85458249 -0.68639535 0.47063357
-0.84496379 -0.6791454 0.35217986
-0.83351111 -0.67017335 0.24138485
-0.8249926 -0.6637888 0.13638996
-1.3858851 -1.0528355 11.064362
-1.3348532 -1.0276226 8.1224422
-0.82344133 -0.64290977 3.3869388
-0.85931736 -0.67568082 2.6348634
-1.0058976 -0.79427576 2.4160929
-0.94252574 -0.74635488 1.8383743
-0.92043036 -0.7304076 1.4834466
-0.98238671 -0.6182487 19.911156
-0.85143679 -0.58368069 9.5848713
-0.6518119 -0.50445306 3.2108593
-1.1321681 -0.88445044 3.9611094
-0.95820397 -0.75284588 2.5834413
-0.9722079 -0.76628613 2.0949931
-0.92653024 -0.73210025 1.6384094
-0.91001678 -0.72032511 1.3364756
-0.90397388 -0.72042114 1.2157247
-0.88171458 -0.70342559 0.99186856
-0.87408286 -0.69807374 0.81801701
-0.8662383 -0.69229472 0.66701359
-0.85507357 -0.6838519 0.53068668
-0.85044616 -0.68062818 0.41011736
-0.83967793 -0.67248476 0.29571593
-0.82366019 -0.660119 0.18770951
-0.8972562 -0.71301538 1.1018965
-0.87824494 -0.69864672 0.90069598
-0.8681742 -0.69112122 0.73769742
-0.86336046 -0.68801838 0.59780258
-0.8532812 -0.68046391 0.46899009
-0.84353012 -0.67316002 0.35100752
-0.83584535 -0.66725975 0.24138485
-0.82340133 -0.65778673 0.13618843
-1.3889313 -1.0475237 11.059422
-1.3319594 -1.0180116 8.0832806
-0.82450056 -0.63911724 3.3821669
-0.86167073 -0.67267716 2.6348634
-1.0030091 -0.78632718 2.4029255
-0.942913 -0.74132133 1.8342415
-0.92045641 -0.72520679 1.479609
-0.98429364 -0.61466312 19.906162
-0.8543511 -0.58130383 9.5948133
-0.6535688 -0.50217474 3.2108593
-1.1297935 -0.87626326 3.9423382
-0.96082604 -0.74949658 2.5834413
-0.97282267 -0.76128066 2.0907271
-0.92670918 -0.72700191 1.6344193
-0.90986001 -0.71504962 1.3328004
-0.90368634 -0.71504855 1.2122202
-0.88111341 -0.69792694 0.98873013
-0.87323785 -0.69242054 0.81527555
-0.86517948 -0.68651336 0.66469479
-0.85382485 -0.67798012 0.5288136
-0.84906107 -0.67467117 0.40870732
-0.8381753 -0.66649234 0.29478332
-0.82595938 -0.65723985 0.18770951
-0.89680827 -0.70756644 1.0985711
-0.87750614 -0.69307166 0.89775282
-0.87058139 -0.68808651 0.73769742
-0.86219764 -0.68218464 0.5957045
-0.85565132 -0.67748123 0.46899009
-0.84206492 -0.66719294 0.34983522
-0.83428854 -0.66126209 0.24069417
-0.82177818 -0.65180391 0.13598689
-1.3919573 -1.0422035 11.054483
-1.3314487 -1.0102794 8.0588045
-0.82554334 -0.63532519 3.3773947
-0.86401349 -0.66966522 2.6348634
-1.0019675 -0.77987951 2.3941474
-0.94105816 -0.73456275 1.8259755
-0.9204576 -0.72001469 1.4757715
-0.98618764 -0.61107188 19.901171
-0.85725915 -0.57891375 9.6047564
-0.65531772 -0.49989033 3.2108593
-1.1287432 -0.86915624 3.9282601
-0.96343642 -0.7461381 2.5834413
-0.9713549 -0.7546804 2.0821953
-0.92686385 -0.72191131 1.6304293
-0.90967751 -0.70978391 1.3291253
-0.90056777 -0.70748383 1.2052112
-0.88048464 -0.69244105 0.98559165
-0.87564945 -0.68936813 0.81527555
-0.86409074 -0.68074793 0.66237599
-0.85254556 -0.67212558 0.52694058
-0.84764475 -0.66873211 0.40729728
-0.84049666 -0.66356254 0.29478332
-0.82824862 -0.65435272 0.18770951
-0.89633322 -0.70212942 1.0952456
-0.87673926 -0.68751031 0.89480966
-0.86958659 -0.6823824 0.73516428
-0.86457366 -0.67917079 0.5957045
-0.85429847 -0.67157209 0.46734658
-0.84056836 -0.66124427 0.34866288
-0.83659166 -0.65834588 0.24069417
-0.8240484 -0.64893144 0.13598689
-1.3949633 -1.036875 11.049544
-1.3309001 -1.0025632 8.0343285
-0.82538337 -0.63062751 3.3678508
-0.86789429 -0.66783637 2.6394658
-1.0008932 -0.77344877 2.3853693
-0.94139206 -0.72954977 1.8218426
-0.92043364 -0.71483141 1.4719341
-0.98733008 -0.60702235 19.881205
-0.85971791 -0.57621413 9.6097279
-0.65705872 -0.49759981 3.2108593
-1.1276569 -0.86206716 3.9141815
-0.96776104 -0.74409729 2.5879426
-0.96985292 -0.74809968 2.0736635
-0.92699444 -0.71682853 1.6264393
-0.90678918 -0.70245224 1.321775
-0.9002198 -0.70214283 1.2017065
-0.87982833 -0.68696809 0.98245323
-0.87475586 -0.68373239 0.81253409
-0.86646175 -0.67772752 0.66237599
-0.85488653 -0.66914552 0.52694058
-0.84619731 -0.66281122 0.40588725
-0.83894163 -0.65759426 0.29385069
-0.82660931 -0.64838409 0.18726245
-0.89583117 -0.69670427 1.09192
-0.87594432 -0.68196273 0.89186651
-0.86856252 -0.67669356 0.73263109
-0.86336029 -0.67335767 0.59360647
-0.85291481 -0.66568065 0.46570307
-0.84287143 -0.65830612 0.34866288
-0.83498234 -0.65237278 0.24000348
-0.82237285 -0.64297384 0.13578537
