# .PCD v0.7 - Point Cloud Data file format
VERSION 0.7
FIELDS x y z
SIZE 4 4 4
TYPE F F F
COUNT 1 1 1
WIDTH 1502
HEIGHT 1
VIEWPOINT 0 0 0 1 0 0 0
POINTS 1502
DATA ascii
-0.8423112 2.7043145 0.48726696
-0.81944531 2.6276956 0.20470895
0.0027643561 0.05010232 4.3041096
-0.41126695 1.4606485 9.6467953
-0.55375594 1.9199345 9.6301727
-0.52406502 1.7718955 5.9542661
-1.1549207 3.8563569 9.543252
-1.3603525 4.5081377 8.6968651
-1.333845 4.39815 6.82271
-1.2896221 4.236403 5.3785133
-0.048539326 0.25016379 4.2473297
-0.23291391 1.0144261 9.6644154
-0.43234727 1.4853284 5.9935284
-0.99429214 3.3582096 9.5783501
-1.3092253 4.3772926 9.5108099
-1.3346975 4.4371529 7.6492391
-1.3097436 4.3350506 6.0713263
-1.1803194 3.8944216 4.4897671
-0.60876203 1.9847627 2.1198976
-0.72001749 2.3431876 2.0589437
-0.87782013 2.8514872 2.0407109
-0.9411869 3.0535712 1.7591683
-0.90523016 2.9332974 1.3285986
-0.8738699 2.828197 0.96003014
-0.85220152 2.7546759 0.63892013
-0.83244121 2.6875043 0.34552842
-0.65495181 2.1460748 2.0795937
-0.79022682 2.5845563 2.0514717
-0.95195687 3.109695 1.9966873
-0.92920059 3.0297129 1.5524164
-0.88732034 2.8895826 1.1411853
-0.85710382 2.7877371 0.7941435
-0.843059 2.74037 0.4921017
-0.81909204 2.6591871 0.20591813
0.0029392289 0.050092366 4.3041096
-0.40616581 1.4620752 9.6467953
-0.54649353 1.9198971 9.6203814
-0.51494932 1.7636837 5.9208622
-1.1414524 3.8603647 9.543252
-1.3603358 4.5656505 8.7978144
-1.3176773 4.4000835 6.8185778
-1.289589 4.2899919 5.4399133
-0.04771791 0.25061566 4.2523217
-0.22937149 1.0152329 9.6644154
-0.42750677 1.4880366 5.9983678
-0.98256373 3.36166 9.5783501
-1.2939378 4.3818359 9.5108099
-1.3236556 4.4567857 7.6748352
-1.298049 4.3511462 6.0872865
-1.1793531 3.9407394 4.5375443
-0.61320132 2.0244203 2.1584477
-0.71183383 2.3456867 2.0589437
-0.86786121 2.8545339 2.0407109
-0.94600189 3.1076918 1.7869939
-0.89904022 2.949743 1.3342178
-0.87379324 2.8633475 0.96990037
-0.85262847 2.790519 0.64544851
-0.83325291 2.7237284 0.348658
-0.64853388 2.1519229 2.0829191
-0.78003198 2.5834296 2.0485287
-0.94733322 3.1336308 2.0093532
-0.93177491 3.0763745 1.5733969
-0.88956195 2.9333332 1.1559769
-0.86007726 2.8325708 0.80469441
-0.84356529 2.776464 0.49693647
-0.81998265 2.6954877 0.20732884
0.0031228466 0.050124541 4.3091092
-0.40105975 1.4634842 9.6467953
-0.53951329 1.9208127 9.6154861
-0.50878984 1.7654704 5.9208622
-1.1285176 3.8662012 9.5478544
-1.3727742 4.6668735 8.9821558
-1.3039056 4.4100528 6.8268433
-1.279166 4.3098311 5.4591007
-0.046842806 0.2507807 4.2523217
-0.22582626 1.0160275 9.6644154
-0.42265263 1.4907293 6.0032072
-0.97082341 3.3650692 9.5783501
-1.2786344 4.3863258 9.5108099
-1.3220315 4.5089302 7.7558875
-1.2888114 4.3758841 6.1152163
-1.1819203 4.0001025 4.6000214
-0.62043655 2.0743825 2.2075114
-0.70364153 2.3481572 2.0589437
-0.8590939 2.8615506 2.0434523
-0.94917518 3.1576405 1.8125007
-0.90477079 3.006134 1.3566941
-0.87624973 2.9077175 0.98259062
-0.85423428 2.8311007 0.65290946
-0.83238143 2.7552235 0.35134044
-0.64101839 2.1541739 2.0829191
-0.77100939 2.5861366 2.0485287
-0.94748586 3.1740947 2.0321517
-0.93273437 3.1187427 1.5922794
-0.89286315 2.9816575 1.1724119
-0.86414385 2.8821142 0.81641757
-0.84382963 2.8125939 0.50177127
-0.81919253 2.7270424 0.20853803
0.0032977946 0.050113332 4.3091092
-0.3959488 1.4648751 9.6467953
-0.53280514 1.9226842 9.6154861
-0.50180763 1.764364 5.9113183
-1.1150153 3.8701167 9.5478544
-1.3831866 4.7636371 9.1577187
-1.2853502 4.4037728 6.8103118
-1.2650154 4.3173461 5.4629388
-0.046017267 0.25122699 4.2573133
-0.22239156 1.0173303 9.6693869
-0.41778487 1.4934059 6.0080466
-0.95907122 3.3684375 9.5783501
-1.2633156 4.3907623 9.5108099
-1.3207842 4.563622 7.8412066
-1.2735289 4.3803558 6.1152163
-1.1688993 4.0074587 4.6036968
-0.61723131 2.0902166 2.2215295
-0.69544065 2.3505993 2.0589437
-0.85028839 2.868541 2.0461938
-0.95831287 3.2288818 1.8496015
-0.90615696 3.049269 1.3735515
-0.87567109 2.9429436 0.99246091
-0.85416466 2.8670199 0.65943784
-0.83414721 2.7962897 0.35491708
-0.63454735 2.1599808 2.0862446
-0.76197731 2.5888121 2.0485287
-0.93640047 3.1773827 2.0321517
-0.93469429 3.1655066 1.6132599
-0.89449894 3.0255115 1.1872035
-0.86511552 2.9223988 0.82579607
-0.84385198 2.8487592 0.50660598
-0.82103324 2.7682028 0.21015027
0.0034817827 0.050144196 4.3141088
-0.39103296 1.4669994 9.6517344
-0.52609044 1.9245323 9.6154861
-0.49564585 1.7661048 5.9113183
-1.1014992 3.8739853 9.5478544
-1.3823838 4.8236923 9.2630558
-1.2699704 4.4082327 6.8103118
-1.2534993 4.3340516 5.4782887
-0.045140039 0.25138611 4.2573133
-0.21883906 1.0181004 9.6693869
-0.41290361 1.496067 6.012886
-0.94730729 3.3717647 9.5783501
-1.2479812 4.3951454 9.5108099
-1.3241848 4.6359138 7.956387
-1.2573999 4.3818789 6.1112266
-1.1680337 4.0571246 4.655149
-0.6872313 2.3530123 2.0589437
-0.84144443 2.8755047 2.0489352
-0.9520182 3.2492118 1.8588767
-0.91377789 3.1146915 1.3997738
-0.87891293 2.992008 1.0065612
-0.85662669 2.9123979 0.66783142
-0.83422947 2.8326242 0.35804665
-0.62700379 2.1621826 2.0862446
-0.75293607 2.5914562 2.0485287
-0.92530358 3.1806321 2.0321517
-0.93379909 3.2036078 1.6300443
-0.89451635 3.0648801 1.2003516
-0.86581641 2.9627247 0.83517462
-0.84502184 2.8897116 0.51213139
-0.82119238 2.8046141 0.21156099
0.0036567976 0.050131734 4.3141088
-0.3859098 1.4683553 9.6517344
-0.51936936 1.926357 9.6154861
-0.48947796 1.7678242 5.9113183
-1.0879698 3.8778067 9.5478544
-1.3850888 4.8976264 9.3947287
-1.2691958 4.4640675 6.8888383
-1.2383629 4.3384008 5.4782887
-0.044262264 0.25154212 4.2573133
-0.21539354 1.0193799 9.6743584
-0.40800881 1.4987121 6.0177255
-0.9359929 3.3767142 9.5830431
-1.2332189 4.4015713 9.5153112
-1.3256814 4.7032638 8.063035
-1.2412757 4.3833418 6.1072364
-1.1538646 4.0611773 4.655149
-0.67901355 2.355397 2.0589437
-0.83372241 2.8864589 2.0544181
-0.95297748 3.2950697 1.8820648
-0.91708452 3.1668451 1.4203773
-0.88182276 3.0411308 1.0206615
-0.85741246 2.9531097 0.67529237
-0.8368485 2.8785567 0.36207035
-0.62047976 2.1679478 2.08957
-0.74499971 2.597954 2.0514717
-0.91538525 3.1879859 2.0346851
-0.93515855 3.250464 1.6510248
-0.89819115 3.117898 1.2184302
-0.86759329 3.007761 0.84572548
-0.84316939 2.9211905 0.51627553
-0.82110733 2.8410602 0.2129717
0.0038411447 0.05016128 4.319109
-0.38078195 1.4696934 9.6517344
-0.51264203 1.9281583 9.6154861
-0.48330411 1.769522 5.9113183
-1.074427 3.8815806 9.5478544
-1.3705591 4.9116588 9.4122849
-1.2733669 4.5389156 6.996294
-1.2240806 4.3457823 5.4821262
-0.043431096 0.25197989 4.2623048
-0.21194175 1.0206474 9.6793289
-0.40310058 1.5013412 6.0225649
-0.92420024 3.3799608 9.5830431
-1.217847 4.405849 9.5153112
-1.3295187 4.7807302 8.1867466
-1.2292109 4.3992562 6.1231966
-1.1680495 4.1663733 4.7690792
-0.67078751 2.3577528 2.0589437
-0.82593423 2.8973942 2.0599012
-0.95362782 3.3409727 1.9052527
-0.92003793 3.2190588 1.4409807
-0.88572001 3.0949216 1.0361719
-0.85792434 2.9938622 0.68275332
-0.83640987 2.914968 0.36519989
-0.61290848 2.1701005 2.08957
-0.73592663 2.6005387 2.0514717
-0.90425146 3.1911619 2.0346851
-0.92752534 3.2668064 1.6573191
-0.90150648 3.1709781 1.2365088
-0.86906618 3.052845 0.85627639
-0.84246403 2.9574544 0.5211103
-0.82214803 2.8823438 0.21458395
0.0040162168 0.050147567 4.319109
-0.37584144 1.4717664 9.6566734
-0.50590831 1.9299359 9.6154861
-0.47751248 1.7726398 5.9160905
-1.0613858 3.887192 9.5524569
-1.3521347 4.9117951 9.4035063
-1.2770308 4.6138463 7.1037507
-1.2097615 4.3531165 5.4859633
-0.042551257 0.25212997 4.2623048
-0.20837773 1.021381 9.6793289
-0.39817896 1.5039542 6.0274043
-0.91284555 3.3848324 9.5877361
-1.2024603 4.4100733 9.5153112
-1.3418005 4.8909764 8.3659163
-1.2306617 4.4645243 6.2069874
-1.1806101 4.2684503 4.879334
-1.0247504 3.657686 3.8125935
-0.66255337 2.36008 2.0589437
-0.81921196 2.9123349 2.0681255
-0.95396924 3.3869202 1.9284407
-0.92137951 3.2668693 1.459711
-0.88794863 3.1441593 1.0502722
-0.8594988 3.0393806 0.69114685
-0.83708394 2.9562025 0.36877653
-0.60833627 2.1830168 2.0995464
-0.72684455 2.6030917 2.0514717
-0.89426744 3.1984506 2.0372181
-0.93937838 3.3530595 1.6971821
-0.90573758 3.2286656 1.256231
-0.87023461 3.0979755 0.86682719
-0.84017563 2.988981 0.52525437
-0.82291043 2.9236684 0.21619619
0.0041912403 0.050133243 4.319109
-0.37070173 1.4730693 9.6566734
-0.49916852 1.9316901 9.6154861
-0.48664469 1.8320043 6.1069694
-1.0478104 3.8908734 9.5524569
-1.333726 4.9118619 9.3947287
-1.2831515 4.6997166 7.2277398
-1.1928643 4.3511305 5.4782887
-0.0416709 0.25227696 4.2623048
-0.20491536 1.0226251 9.6843004
-0.39324403 1.5065513 6.0322437
-0.9010247 3.3879981 9.5877361
-1.1870589 4.4142437 9.5153112
-1.3458356 4.9736729 8.4981604
-1.2364149 4.5473003 6.3147178
-1.1817644 4.3314166 4.945487
-1.0281271 3.7196763 3.8721707
-0.65431112 2.3623784 2.0589437
-0.81239545 2.9272645 2.07635
-0.96230364 3.4627867 1.9678603
-0.92364115 3.3191941 1.4803143
-0.88984406 3.19345 1.0643725
-0.85944551 3.0802145 0.69860786
-0.83882034 3.0022731 0.37280026
-0.60467088 2.1995277 2.1128485
-0.71775365 2.605613 2.0514717
-0.88309735 3.2015526 2.0372181
-0.93250453 3.373816 1.7055743
-0.90831703 3.2818694 1.2743095
-0.87109858 3.1431513 0.87737805
-0.8403241 3.0300713 0.53077978
-0.82339418 2.9650333 0.21780844
0.0043662125 0.050118309 4.319109
-0.36555749 1.4743544 9.6566734
-0.49242261 1.9334208 9.6154861
-0.75923294 2.8993964 9.6286936
-1.0347238 3.8963954 9.5570602
-1.3159528 4.9141746 9.3903399
-1.2857614 4.774816 7.3351965
-1.1785053 4.3583622 5.4821262
-0.0408342 0.2527062 4.2672963
-0.20134449 1.0233341 9.6843004
-0.38798279 1.5079148 6.0322437
-0.88919288 3.3911226 9.5877361
-1.1716431 4.4183602 9.5153112
-1.3499819 5.0589767 8.6346703
-1.2283382 4.5806932 6.3546181
-1.2089192 4.4926538 5.1218948
-0.99074775 3.6337848 3.7810526
-0.64708662 2.3684027 2.0620823
-0.80548465 2.9421813 2.0845745
-0.95021045 3.4661245 1.9678603
-0.92432129 3.3671033 1.4990447
-0.89140618 3.2427919 1.0784729
-0.85911763 3.1210847 0.70606881
-0.83892167 3.0435905 0.37637687
-0.60871434 2.2448692 2.1527545
-0.70971376 2.6120031 2.054415
-0.87304819 3.2087753 2.0397513
-0.94459742 3.4646246 1.7475353
-0.91053605 3.3351302 1.2923881
-0.87165761 3.18837 0.88792896
-0.83366227 3.0473158 0.53285182
-0.82359916 3.0064368 0.2194207
0.0045511019 0.050145239 4.3241091
-0.36040881 1.4756213 9.6566734
-0.48567075 1.935128 9.6154861
-0.75097239 2.9092555 9.6525536
-1.0216113 3.9018741 9.5616627
-1.2975683 4.9141068 9.3815613
-1.2929175 4.8690271 7.4715838
-1.1715424 4.3934197 5.5205011
-0.039995015 0.25313264 4.2722883
-0.19787167 1.0245541 9.6892719
-0.38302562 1.5104784 6.0370831
-0.87735027 3.394206 9.5877361
-1.156213 4.4224234 9.5153112
-1.3581935 5.1620235 8.8010416
-1.2416099 4.695653 6.5062389
-1.2132266 4.5722127 5.2064238
-0.9215703 3.4271417 3.5672753
-0.63881546 2.370647 2.0620823
-0.79847962 2.9570858 2.0927987
-0.95544893 3.5335643 2.0026422
-0.92467809 3.4150574 1.5177749
-0.89388978 3.2968125 1.0939832
-0.85980177 3.1667302 0.7144624
-0.83874476 3.0849445 0.3799535
-0.62112868 2.3227284 2.22259
-0.7005918 2.6144645 2.054415
-0.86295927 3.2159669 2.0422845
-0.94781816 3.5248778 1.7748101
-0.91116625 3.3838861 1.3088232
-0.87317675 3.2383235 0.89965212
-0.84237057 3.1219234 0.54321206
-0.82482797 3.0527 0.22123447
0.0047261142 0.050129049 4.3241091
-0.35525572 1.4768705 9.6566734
-0.47915715 1.9377999 9.6203814
-0.74007684 2.9089663 9.6430101
-1.007985 3.9054163 9.5616627
-1.2798038 4.9162884 9.3771725
-1.3001438 4.9660687 7.6121039
-1.1765739 4.4749799 5.6164384
-0.039195515 0.25384188 4.2822714
-0.1942941 1.0252386 9.6892719
-0.37775072 1.5118062 6.0370831
-0.86549693 3.3972478 9.5877361
-1.1407689 4.4264321 9.5153112
-1.3696307 5.2803354 8.9930086
-1.2366123 4.7436953 6.5660892
-1.1972592 4.5764194 5.2064238
-0.82734245 3.120095 3.2518663
-0.63153601 2.3766241 2.0652206
-0.78815258 2.9598551 2.0927987
-0.94310868 3.5368779 2.0026422
-0.92590725 3.4675333 1.5383784
-0.89600694 3.3508894 1.1094936
-0.85382473 3.1886923 0.71819288
-0.83957893 3.131144 0.38397723
-0.61682463 2.339324 2.2358921
-0.69146144 2.616894 2.054415
-0.85283077 3.2231266 2.0448177
-0.95295596 3.5939689 1.8062809
-0.91267902 3.4372501 1.3269018
-0.87185949 3.2789307 0.90903062
-0.84420133 3.1727006 0.55011886
-0.82445741 3.0941808 0.22284672
0.0049113366 0.050154652 4.3291087
-0.35009831 1.4781016 9.6566734
-0.47239006 1.9394606 9.6203814
-0.73390985 2.9274588 9.6955013
-0.99434644 3.908911 9.5616627
-1.2614443 4.9160857 9.3683939
-1.2806915 4.9624023 7.5997052
-1.2019579 4.6372986 5.8121514
-0.038350381 0.25426289 4.2872629
-0.19071417 1.0259105 9.6892719
-0.37247124 1.5131155 6.0370831
-0.85321295 3.3985746 9.5830431
-1.1253108 4.4303875 9.5153112
-1.3731527 5.3709946 9.1380501
-1.2507912 4.8676395 6.7296801
-0.76901406 2.9818645 3.4166188
-0.8606419 3.2920291 3.423589
-0.62323618 2.378814 2.0652206
-0.7671982 2.9221444 2.0653841
-0.93638867 3.5615695 2.0142362
-0.92796141 3.5245419 1.5608548
-0.89775723 3.405021 1.1250039
-0.86149871 3.2628958 0.73218215
-0.83882767 3.1725719 0.38755387
-0.632137 2.4318051 2.3190296
-0.6823225 2.6192918 2.054415
-0.84266287 3.2302556 2.0473509
-0.95532686 3.6543562 1.8335555
-0.91143823 3.4815292 1.3416934
-0.87396729 3.3336735 0.92192614
-0.84820086 3.2331076 0.55840701
-0.82507682 3.1405277 0.2246605
0.0050863791 0.050137203 4.3291087
-0.34511292 1.4800715 9.6616125
-0.46632928 1.9440683 9.6350679
-0.72476017 2.9343505 9.7098179
-0.98069572 3.912358 9.5616627
-1.2431022 4.9158154 9.3596153
-1.2633617 4.9668422 7.5997052
-1.2032164 4.7097874 5.8965764
-0.037542962 0.254967 4.2972465
-0.18713191 1.02657 9.6892719
-0.3671872 1.5144066 6.0370831
-0.84134454 3.4015322 9.5830431
-1.109839 4.434288 9.5153112
-1.3461137 5.3428783 9.082593
-1.2434082 4.9099498 6.7815509
-0.75693053 2.9779594 3.4092684
-0.89631033 3.4780452 3.6093299
-0.61590201 2.3847439 2.0683591
-0.74756449 2.8883722 2.0407109
-0.92839622 3.581969 2.0235114
-0.92962867 3.5816064 1.5833311
-0.8991403 3.4592044 1.1405143
-0.86371523 3.3181756 0.742441
-0.83905339 3.2188509 0.39157754
-0.67317528 2.6216576 2.054415
-0.83245558 3.2373521 2.0498841
-0.95615524 3.7104077 1.8587321
-0.91225922 3.5349855 1.359772
-0.86840618 3.3602338 0.92778772
-0.84930903 3.2839921 0.56531376
-0.82412982 3.1820793 0.22627275
0.0052719219 0.050161477 4.3341084
-0.33994439 1.4812672 9.6616125
-0.46047589 1.949648 9.6546478
-0.4464075 1.834542 6.0831099
-0.96703309 3.9157577 9.5616627
-1.2241983 4.9131536 9.3464489
-1.248753 4.982141 7.6162362
-1.211808 4.8134232 6.0193768
-0.036731094 0.25566852 4.3072295
-0.18364058 1.0277418 9.6942434
-0.36189872 1.515679 6.0370831
-0.82987428 3.4061248 9.5877361
-1.0943537 4.4381356 9.5153112
-1.1970824 4.7973151 6.6219492
-0.74817812 2.9871607 3.4166188
-0.89908755 3.5399137 3.6689072
-0.60757393 2.3868792 2.0683591
-0.73747766 2.890964 2.0407109
-0.91698366 3.5894799 2.0258303
-0.93205774 3.6432161 1.6076806
-0.90134662 3.5180857 1.1574347
-0.86555618 3.3735099 0.75269985
-0.84020555 3.2699931 0.39604837
-0.66401988 2.6239915 2.054415
-0.82115 3.2402382 2.0498841
-0.95660371 3.7665093 1.8839087
-0.91388202 3.593066 1.3794941
-0.87706721 3.4433186 0.94771707
-0.85007221 3.334923 0.57222062
-0.8241384 3.2285032 0.22808653
0.0054469854 0.050142769 4.3341084
-0.33477175 1.4824448 9.6616125
-0.45458934 1.9552108 9.6742296
-0.44000101 1.8360891 6.0831099
-0.95289683 3.9172103 9.5570602
-1.2058989 4.9127445 9.3376703
-1.2300054 4.9810057 7.6079712
-1.2173754 4.9078417 6.1306643
-0.035914782 0.2563675 4.3172131
-0.18005198 1.0283766 9.6942434
-0.3566058 1.5169331 6.0370831
-0.81838214 3.4106789 9.5924292
-1.078855 4.4419284 9.5153112
-1.1630667 4.7312369 6.5261889
-0.60491997 2.4116378 2.0871899
-0.72738183 2.8935206 2.0407109
-0.9055298 3.5969546 2.0281491
-0.9318012 3.6958954 1.6282839
-0.90197819 3.5723724 1.172945
-0.86581689 3.4241343 0.76202601
-0.8397882 3.3163543 0.40007207
-0.7751959 3.115855 2.9408979
-0.65485644 2.6262934 2.054415
-0.80983448 3.2430849 2.0498841
-0.95777392 3.8270614 1.9111835
-0.90937018 3.6282976 1.3909987
-0.879242 3.5029318 0.9617849
-0.84928352 3.3810956 0.57843673
-0.82383281 3.274965 0.22990032
0.0056219837 0.050123449 4.3341084
-0.329595 1.4836043 9.6616125
-0.45025826 1.9677042 9.7280769
-0.42982015 1.8216323 6.0306177
-0.93921739 3.9205129 9.5570602
-1.1876173 4.9122677 9.3288918
-1.2106158 4.9770656 7.595572
-1.2200161 4.9930162 6.2304397
-0.03513122 0.25735015 4.3321881
-0.17655073 1.0295244 9.6992149
-0.35159171 1.5193932 6.0419226
-0.80647165 3.4135149 9.5924292
-1.0638494 4.4477839 9.5198116
-1.1685804 4.8521085 8.2336721
-1.1188916 4.6210513 6.3705783
-1.1716493 4.8206272 5.4563346
-1.1313143 4.5883369 4.7237759
-0.60303414 2.4401853 2.1091592
-0.71828222 2.9001007 2.0434523
-0.89403492 3.6043928 2.0304677
-0.93230563 3.7531157 1.6507603
-0.90339977 3.6313617 1.1898655
-0.8657347 3.4748011 0.77135223
-0.83905739 3.3627522 0.40409577
-0.77320218 3.1548066 2.974153
-0.64568496 2.6285632 2.054415
-0.79850906 3.2458918 2.0498841
-0.95635986 3.8788533 1.9342619
-0.91707551 3.7139704 1.4205818
-0.88217801 3.5673199 0.97702503
-0.84818274 3.4273031 0.58465284
-0.82441461 3.3263133 0.23191562
0.0057859081 0.0500613 4.3291087
-0.32441425 1.4847457 9.6616125
-0.44539845 1.9782044 9.7721348
-0.42008328 1.8085815 5.9828982
-0.92597508 3.9256692 9.5616627
-1.169354 4.9117241 9.3201151
-1.1906132 4.9703145 7.5790396
-1.2303253 5.1125469 6.3724265
-0.034305055 0.25804406 4.3421717
-0.17304362 1.0306602 9.7041874
-0.34628591 1.5206113 6.0419226
-0.79455137 3.4163091 9.5924292
-1.0483173 4.4514709 9.5198116
-1.1528398 4.8612332 8.2422047
-1.1013566 4.6190667 6.3625984
-1.180856 4.9334903 5.5776157
-1.1455885 4.7170162 4.8499393
-0.59543312 2.4460571 2.1122975
-0.70815462 2.9025903 2.0434523
-0.88144785 3.6074915 2.0304677
-0.93021816 3.8013778 1.6694907
-0.90327841 3.6857438 1.2053758
-0.86530918 3.5255084 0.78067839
-0.83920133 3.4140205 0.40856656
-0.75955689 3.1465979 2.9641767
-0.63650566 2.630801 2.054415
-0.78615886 3.2444701 2.0473509
-0.95995098 3.952733 1.9678308
-0.92307758 3.7951519 1.4485215
-0.8835246 3.6270478 0.99109286
-0.84676963 3.4735436 0.59086895
-0.82227796 3.3679979 0.23352787
0.0059606191 0.0500408 4.3291087
-0.31922957 1.4858692 9.6616125
-0.44047081 1.9886943 9.8161907
-0.4134351 1.8085816 5.978126
-0.91226637 3.9288778 9.5616627
-1.1511087 4.9111123 9.3113365
-1.1713185 4.9662237 7.5666413
-1.2353808 5.2134962 6.4913898
-0.033509649 0.25902185 4.3571463
-0.1694449 1.0312579 9.7041874
-0.34097588 1.5218108 6.0419226
-0.7822364 3.4173796 9.5877361
-1.0327724 4.4551029 9.5198116
-1.1358639 4.8652282 8.2422047
-1.0831604 4.6140819 6.3506279
-1.1916213 5.0563736 5.7099214
-1.1481946 4.8007603 4.9305434
-0.60413033 2.5200374 2.1719282
-0.69899529 2.9091105 2.0461938
-0.86884999 3.6105466 2.0304677
-0.93649423 3.885726 1.7032052
-0.90278834 3.7401693 1.2208862
-0.86684853 3.5858045 0.79186988
-0.8389976 3.4653304 0.41303736
-0.73993462 3.1129041 2.9309216
-0.62731856 2.6330068 2.054415
-0.7728278 3.2388082 2.0422845
-0.95564836 3.9957862 1.9867133
-0.91752404 3.8304965 1.460026
-0.88559872 3.6915548 1.006333
-0.84388787 3.5150003 0.59639442
-0.82219619 3.4194224 0.23554318
0.0061239568 0.049977545 4.3241091
-0.31404096 1.4869744 9.6616125
-0.24836557 1.1395699 5.6307716
-0.40580982 1.8041881 5.9590383
-0.8985464 3.9320383 9.5616627
-1.1339587 4.9151001 9.3113365
-1.1520669 4.9620585 7.5542421
-1.2448426 5.3363914 6.6372147
-0.032707836 0.25999722 4.3721213
-0.16592816 1.0323695 9.7091589
-0.33539134 1.5217642 6.0370831
-0.76916546 3.4150386 9.573658
-1.0176991 4.460803 9.524313
-1.1177061 4.8640795 8.2336721
-1.0670477 4.617835 6.3506279
-1.1992445 5.1694837 5.8312016
-1.148595 4.8776374 5.0041389
-0.62215316 2.6357777 2.266082
-0.68883628 2.9115326 2.0461938
-0.85522026 3.6092472 2.0281491
-0.94433337 3.9791839 1.7406659
-0.89860135 3.7806342 1.2321664
-0.87025243 3.6557105 0.80492657
-0.83960062 3.5215242 0.41795522
-0.72991478 3.1191039 2.9342473
-0.61904687 2.6391158 2.057358
-0.76053166 3.2372897 2.0397513
-0.94169462 3.9990978 1.9867133
-0.92907792 3.9393859 1.4978268
-0.88611573 3.751389 1.0204008
-0.84072679 3.5564785 0.60191983
-0.81601024 3.4465795 0.23655082
0.0062983744 0.049955864 4.3241091
-0.30884853 1.4880615 9.6616125
-0.24438621 1.1404299 5.6307716
-0.39886492 1.8026787 5.9494939
-0.88524407 3.9370568 9.5662651
-1.1157346 4.9143577 9.3025579
-1.1328589 4.9578204 7.5418439
-1.2462894 5.428175 6.7446651
-0.031866442 0.26068336 4.3821049
-0.1623235 1.0329424 9.7091589
-0.33007735 1.5229257 6.0370831
-0.7561205 3.4126484 9.5595798
-1.0021218 4.4643283 9.524313
-1.0966945 4.8501444 8.2038107
-1.0495858 4.6156549 6.342648
-1.2023196 5.2661819 5.9341063
-0.70396632 3.0368443 3.1432252
-0.6296854 2.7099683 2.3257127
-0.6796174 2.9179919 2.0489352
-0.84261644 3.6122105 2.0281491
-0.95364058 4.0817719 1.7818726
-0.9017936 3.8538115 1.253317
-0.86309069 3.6826389 0.80958962
-0.8398214 3.5777636 0.42287311
-0.72069865 3.1289096 2.9408979
-0.60892153 2.6373222 2.054415
-0.74825555 3.2357244 2.0372181
-0.93285352 4.024467 1.9972036
-0.93347526 4.0208025 1.5257665
-0.88622564 3.8112712 1.0344685
-0.83391917 3.5835073 0.6053732
-0.82325304 3.5321205 0.23997685
0.0064727138 0.049933571 4.3241091
-0.30365235 1.4891306 9.6616125
-0.24019428 1.1402797 5.6258769
-0.39034936 1.7938497 5.9160905
-0.87149578 3.9401228 9.5662651
-1.0980513 4.9158845 9.2981691
-1.1136942 4.9535079 7.5294447
-1.2287467 5.4387455 6.7523403
-0.031052833 0.26165369 4.3970795
-0.15871686 1.0335027 9.7091589
-0.32449755 1.5228391 6.0322437
-0.74310154 3.4102087 9.5455008
-0.9870016 4.4699249 9.5288143
-1.0786251 4.8488517 8.1952791
-1.0321521 4.6134095 6.3346677
-1.2002759 5.3431163 6.0149598
-0.69256836 3.0358059 3.1397207
-0.66942757 2.9203465 2.0489352
-0.82801986 3.6064947 2.0235114
-0.95185375 4.1392922 1.8043491
-0.9098689 3.9504292 1.2815176
-0.87341851 3.7861469 0.82917464
-0.84078074 3.6388991 0.42823803
-0.71142298 3.138689 2.9475491
-0.6059804 2.6670225 2.075017
-0.73695624 3.2383168 2.0372181
-0.92081863 4.0365491 2.0013998
-0.93731517 4.1022968 1.5537062
-0.88918108 3.8854136 1.0520535
-0.85125518 3.7167277 0.62402159
-0.82320613 3.5885367 0.24219368
0.0066469754 0.049910672 4.3241091
-0.29845247 1.4901814 9.6616125
-0.23621249 1.1411111 5.6258769
-0.38533384 1.8010402 5.9351783
-0.85773689 3.9431407 9.5662651
-1.0793433 4.9126701 9.2850008
-1.0957887 4.9546175 7.5253119
-0.030264016 0.26290849 4.4170461
-0.1551083 1.0340505 9.7091589
-0.31866494 1.5215019 6.0225649
-0.72938597 3.4043448 9.5220375
-0.97139263 4.4733434 9.5288143
-1.0477588 4.7888932 8.0886307
-1.0153946 4.6140418 6.330678
-1.2086816 5.4697556 6.1509409
-0.6819672 3.0382051 3.1397207
-0.76368588 3.3940299 2.8874962
-0.65922958 2.9226651 2.0489352
-0.81640196 3.6136839 2.0258303
-0.95376921 4.2149348 1.8343176
-0.91515976 4.0377922 1.3068981
-0.87542152 3.8562374 0.84223133
-0.84021914 3.6952281 0.43315592
-0.70046258 3.1411533 2.9475491
-0.60107577 2.6888449 2.0897326
-0.72564793 3.2408695 2.0372181
-0.90771663 4.0441666 2.0034976
-0.94059736 4.1838655 1.5816457
-0.88308734 3.9216871 1.0602596
-0.83827627 3.7196763 0.62402159
-0.82497525 3.6547415 0.24481359
0.0068211551 0.049887165 4.3241091
-0.29324895 1.4912142 9.6616125
-0.40569624 1.9960787 9.8161907
-0.37474614 1.7819233 5.8683701
-0.84396756 3.946111 9.5662651
-1.0495454 4.857883 9.1752739
-1.0784872 4.9584122 7.5253119
-1.042221 4.7676978 5.9196014
-0.029466815 0.26416096 4.4370127
-0.15149784 1.0345855 9.7091589
-0.31309879 1.5213739 6.0177255
-0.71749812 3.4068701 9.5220375
-0.95622629 4.4788356 9.5333157
-1.0266482 4.7721233 8.0545034
-0.99800771 4.6116676 6.3226976
-1.2133377 5.5832648 6.2722216
-0.67366427 3.0510144 3.1502345
-0.75435722 3.4080758 2.8969116
-0.64902353 2.9249487 2.0489352
-0.80858809 3.6381333 2.0374243
-0.9501313 4.2680149 1.8549209
-0.91880751 4.1205573 1.3308687
-0.88015795 3.9407701 0.85808587
-0.8403616 3.7564566 0.43852085
-0.69029349 3.1472266 2.9508748
-0.60470569 2.7501423 2.1338801
-0.71433079 3.2433827 2.0372181
-0.89359432 4.0473104 2.0034976
-0.94026226 4.2516742 1.6046548
-0.89357048 4.0338945 1.0872229
-0.85315442 3.8482816 0.64197928
-0.82520902 3.7161248 0.24723196
0.0069952528 0.049863052 4.3241091
-0.28804183 1.4922286 9.6616125
-0.39653537 1.9864988 9.7623434
-0.37758189 1.827076 6.0115299
-0.83018786 3.9490328 9.5662651
-1.0201435 4.8029485 9.065547
-1.0517577 4.9181175 7.4591846
-1.0208576 4.7493711 5.8927388
-0.028719587 0.26598552 4.4669633
-0.14788556 1.0351081 9.7091589
-0.30753744 1.5212253 6.012886
-0.70595121 3.4110436 9.5267305
-0.94058639 4.4821463 9.5333157
-1.0110632 4.7807813 8.063035
-0.98127687 4.6121755 6.3187079
-1.1655082 5.4548531 6.1252151
-0.66376674 3.0568321 3.1537387
-0.73997271 3.3992786 2.8874962
-0.63880962 2.9271963 2.0489352
-0.79966754 3.6582444 2.0466995
-0.95208365 4.3482924 1.8867624
-0.92188847 4.2033963 1.3548393
-0.88009876 4.0061908 0.87020993
-0.84115696 3.8225942 0.4443329
-0.68481332 3.1751659 2.974153
-0.60791487 2.8114972 2.1780276
-0.7030049 3.2458565 2.0372181
-0.88042414 4.0548406 2.0055957
-0.94347936 4.3379874 1.634238
-0.89914215 4.1272244 1.109497
-0.86186993 3.9528422 0.65648353
-0.82609022 3.7824342 0.24985187
0.0071692644 0.049838331 4.3241091
-0.28283122 1.4932251 9.6616125
-0.38783765 1.9788779 9.7182865
-0.37773222 1.8605666 6.1165137
-0.81639814 3.9519067 9.5662651
-0.99945694 4.787724 9.0304346
-1.0253227 4.8776975 7.3930573
-0.99963492 4.7309532 5.8658767
-0.027762778 0.26579684 4.4619713
-0.14419845 1.0350899 9.7041874
-0.30198088 1.5210567 6.0080466
-0.69541514 3.4202516 9.5455008
-0.9249351 4.4854021 9.5333157
-0.99383843 4.7817283 8.0587692
-0.96393794 4.609674 6.3107281
-1.038464 4.9446311 5.5555644
-0.65979296 3.0905197 3.1852796
-0.72158593 3.371392 2.8623886
-0.62946516 2.9334967 2.0516768
-0.79061639 3.6783371 2.0559747
-0.96617138 4.4875517 1.9429535
-0.92541343 4.2909956 1.3802199
-0.88270503 4.0860624 0.88513184
-0.84044743 3.8839149 0.44969785
-0.68998778 3.2542412 3.0439887
-0.61322403 2.8847682 2.2310045
-0.69256818 3.252507 2.0397513
-0.8662647 4.057889 2.0055957
-0.93721813 4.3828144 1.6490296
-0.90407276 4.2206411 1.131771
-0.85740906 3.9994049 0.66269964
-0.82337147 3.8341405 0.25186718
0.0073308623 0.049771145 4.319109
-0.27775893 1.4949672 9.6665516
-0.37804484 1.965221 9.6448584
-0.3735691 1.8735852 6.1546893
-0.80298692 3.9566469 9.5708675
-0.98755032 4.8146458 9.0743256
-1.0082902 4.881247 7.3930573
-0.98376632 4.7375517 5.8697138
-0.026726134 0.26474249 4.4420047
-0.14058444 1.035587 9.7041874
-0.29666957 1.5221015 6.0080466
-0.40914297 2.048528 5.7349749
-0.90927243 4.4886036 9.5333157
-0.97453225 4.7723913 8.0374393
-0.94662845 4.6071076 6.3027477
-1.0191422 4.9382653 5.544539
-0.65998608 3.1451578 3.237848
-0.706608 3.3586543 2.8498349
-0.61922145 2.9356761 2.0516768
-0.7814346 3.6984107 2.0652499
-0.97161901 4.5906773 1.9841602
-0.92734295 4.3739767 1.4041904
-0.88272333 4.1563897 0.89818859
-0.83931977 3.9452763 0.45506278
-0.68471718 3.2858717 3.0705926
-0.63290727 3.0293286 2.3369584
-0.68209362 3.2591243 2.0422845
-0.85302681 4.06533 2.0076938
-0.93648314 4.4553771 1.6736822
-0.90635914 4.3046288 1.1517003
-0.85671818 4.0653672 0.67167854
-0.8233974 3.900538 0.25448707
0.0075045507 0.049745254 4.319109
-0.27253881 1.4959277 9.6665516
-0.3721261 1.9715314 9.6693344
-0.36502054 1.8646234 6.1212859
-0.78917074 3.9594259 9.5708675
-0.97452182 4.8368459 9.1094379
-0.99180484 4.8874946 7.3971906
-0.96722317 4.7409568 5.8697138
-0.025723349 0.26397163 4.4270291
-0.13689941 1.035543 9.6992149
-0.29135466 1.5231278 6.0080466
-0.40232176 2.0516374 5.7396679
-0.89359879 4.4917498 9.5333157
-0.92875266 4.6015229 6.2907777
-0.9978568 4.9218574 5.5224881
-0.66268611 3.2138054 3.3044343
-0.69172788 3.3458536 2.837281
-0.61066765 2.9460087 2.0571597
-0.76311648 3.675092 2.051337
-0.98107833 4.7165875 2.0347321
-0.92870414 4.4570227 1.428161
-0.88426858 4.2363834 0.91311049
-0.8387931 4.0115514 0.46087483
-0.67474091 3.295558 3.0772438
-0.70848143 3.4512205 2.6489332
-0.67071301 3.2614853 2.0422845
-0.83883095 4.0682826 2.0076938
-0.95149088 4.6066046 1.7262745
-0.90806997 4.3886833 1.1716297
-0.85156018 4.1119757 0.67789465
-0.81485111 3.9278474 0.25549474
0.0076655289 0.049676985 4.3141088
-0.26731539 1.4968698 9.6665516
-0.36616793 1.9778243 9.6938105
-0.35344258 1.8394995 6.0353899
-0.77609521 3.965991 9.5800724
-0.96320963 4.868412 9.1621075
-0.97528827 4.8936868 7.4013238
-0.94940895 4.738019 5.8620391
-0.024751438 0.26348463 4.4170461
-0.13328385 1.0360144 9.6992149
-0.28603616 1.5241355 6.0080466
-0.39646178 2.0598075 5.7584391
-0.87833148 4.4969788 9.537817
-0.91151303 4.598825 6.2827973
-0.98067015 4.9253106 5.5224881
-0.65287966 3.2230895 3.3114433
-0.67849517 3.3406191 2.8310044
-0.60288352 2.9604144 2.0653841
-0.74762708 3.6647122 2.0443807
-0.97945994 4.7926559 2.0647006
-0.92949665 4.5401301 1.4521316
-0.88526601 4.3164382 0.9280324
-0.83180058 4.0486012 0.46400437
-0.66396922 3.3015532 3.080569
-0.70841414 3.5131068 2.6930807
-0.65932423 3.2638066 2.0422845
-0.82552588 4.075635 2.0097919
-0.9570027 4.7163386 1.7640753
-0.91017312 4.4775643 1.1927315
-0.8510235 4.1828604 0.68756419
-0.82208794 4.0334692 0.25972688
0.0078388881 0.049649924 4.3141088
-0.26208872 1.4977939 9.6665516
-0.3630777 2.0001297 9.7966099
-0.34480837 1.8289869 5.9972138
-0.76077288 3.9610016 9.5616627
-0.95123214 4.8976064 9.2103882
-0.95982105 4.9053459 7.413722
-0.93781418 4.7664638 5.8927388
-0.023783239 0.26299405 4.4070625
-0.12966667 1.0364734 9.6992149
-0.28094152 1.526361 6.012886
-0.65367514 3.4618464 9.6346636
-0.86262876 4.5000172 9.537817
-0.91509938 4.7336831 7.956387
-0.89315271 4.590148 6.2668376
-0.96412206 4.9320312 5.5261631
-0.64719099 3.2533307 3.3394799
-0.66683012 3.342967 2.8310044
-0.60320663 3.0158036 2.1010232
-0.73221946 3.6542692 2.0374243
-0.98279637 4.8960419 2.1059072
-0.92877436 4.6185937 1.4746921
-0.88668507 4.4013653 0.94388694
-0.84229279 4.1735191 0.47518134
-0.6502707 3.2928619 3.0705926
-0.7134189 3.6027887 2.7578304
-0.6479274 3.2660882 2.0422845
-0.81040877 4.0740395 2.0076938
-0.96914262 4.863215 1.8150239
-0.91166663 4.5665126 1.2138332
-0.85776478 4.2926388 0.70275909
-0.82075185 4.0999975 0.2623468
0.0080121504 0.04962226 4.3141088
-0.25685886 1.4986995 9.6665516
-0.35627195 2.0023875 9.801506
-0.33842191 1.8301793 5.9972138
-0.74585652 3.9578733 9.5478544
-0.93951088 4.9291286 9.2630558
-0.94428438 4.9169574 7.4261212
-0.92907101 4.8106208 5.9426265
-0.022865072 0.26307547 4.4070625
-0.12604792 1.0369197 9.6992149
-0.27561182 1.5273323 6.012886
-0.64158708 3.464107 9.6346636
-0.84691548 4.5030012 9.537817
-0.87712467 4.5932374 6.2668376
-0.9488163 4.9453545 5.5371885
-0.62967902 3.2240689 3.3079391
-0.66039306 3.3720126 2.8529735
-0.60717911 3.0917461 2.1503696
-0.71774894 3.6481097 2.0327866
-0.98542267 4.9995074 2.147114
-0.92565686 4.6876941 1.4944324
-0.88370883 4.4670792 0.956011
-0.84320951 4.2545929 0.48233458
-0.63735139 3.2877805 3.0639415
-0.71703488 3.6885798 2.8196368
-0.63652265 3.2683301 2.0422845
-0.79705274 4.0812984 2.0097919
-0.96485472 4.9314489 1.8380331
-0.90974504 4.6412144 1.2314179
-0.86088973 4.3879361 0.71588206
-0.82185185 4.181272 0.2655713
0.0081722606 0.049552355 4.3091092
-0.25162584 1.4995871 9.6665516
-0.34858131 1.9996064 9.7819242
-0.33815235 1.8651316 6.1069694
-0.7309714 3.9546893 9.5340471
-0.92185915 4.9300237 9.258667
-0.92815727 4.9257541 7.4343872
-0.9218213 4.8642216 6.0040264
-0.02194663 0.26315367 4.4070625
-0.12242763 1.0373534 9.6992149
-0.27049744 1.5295229 6.0177255
-0.63596457 3.5019815 9.7332115
-0.83158678 4.5080705 9.5423183
-0.86053109 4.5933094 6.2628474
-0.9277854 4.9286466 5.5151377
-0.65376127 3.4010539 2.8749425
-0.60746288 3.1513286 2.18875
-0.7058503 3.6549425 2.0351055
-0.98117417 5.0711889 2.1752095
-0.92206812 4.7568288 1.514173
-0.88403034 4.5521135 0.97186553
-0.84832567 4.3601646 0.49172324
-0.62517333 3.2863176 3.0606163
-0.71930283 3.7704682 2.8785
-0.62511021 3.2705319 2.0422845
-0.7862187 4.1018848 2.0181842
-0.95208734 4.957974 1.8462507
-0.91557765 4.7589164 1.2595536
-0.86523247 4.4930315 0.73038638
-0.82144773 4.2576971 0.26859424
0.0083451802 0.049523525 4.3091092
-0.24638976 1.5004563 9.6665516
-0.33954474 1.9887664 9.7231817
-0.33738178 1.8986342 6.2119532
-0.71576929 3.9495275 9.5156374
-0.90464455 4.9332118 9.258667
-0.91300291 4.9400325 7.4509187
-0.90659368 4.8768635 6.0155392
-0.021027917 0.26322868 4.4070625
-0.11874577 1.0372448 9.6942434
-0.26537117 1.5316963 6.0225649
-0.6201086 3.4837925 9.676899
-0.81584561 4.5109458 9.5423183
-0.84775901 4.6140671 6.2867875
-0.90872902 4.9218535 5.5041122
-0.90835333 4.8300896 4.9095163
-0.64693475 3.430089 2.8969116
-0.60889208 3.2191675 2.2326136
-0.69308788 3.6573842 2.0351055
-0.99200195 5.224884 2.2370195
-0.93772882 4.9296699 1.5649341
-0.87457234 4.5889487 0.97839385
-0.84430885 4.4217992 0.49708822
-0.61095858 3.2737982 3.0473142
-0.71282887 3.8087134 2.9049883
-0.61369008 3.2726941 2.0422845
-0.76602429 4.0733819 2.0034976
-0.97674233 5.1840119 1.9251391
-0.89896035 4.7620831 1.2595536
-0.86241561 4.5641479 0.7400558
-0.81773216 4.3194432 0.2710126
0.0085179992 0.049494095 4.3091092
-0.24115069 1.5013071 9.6665516
-0.33125901 1.9819052 9.68402
-0.33024052 1.8968592 6.2024093
-0.70163685 3.950078 9.511034
-0.88911378 4.9457684 9.2762241
-0.89675689 4.9487271 7.4591846
-0.891289 4.8894587 6.0270519
-0.020108949 0.26330048 4.4070625
-0.11512439 1.0376529 9.6942434
-0.26023299 1.5338526 6.0274043
-0.60438728 3.4655354 9.6205854
-0.79971462 4.5116229 9.537817
-0.83057952 4.6110673 6.2788076
-0.88792008 4.9049807 5.4820614
-0.89148766 4.8332305 4.9095163
-0.63920552 3.4552908 2.9157424
-0.60832953 3.2788312 2.2709942
-0.68112653 3.6641364 2.0374243
-0.98479217 5.2875628 2.261369
-0.93547469 5.0130796 1.5889047
-0.88743746 4.746489 1.0082378
-0.83620411 4.4638777 0.50066489
-0.59751081 3.2648923 3.0373375
-0.69952959 3.8111787 2.9049883
-0.60538113 3.2917752 2.0524173
-0.99381751 5.3882246 2.6203251
-0.95864081 5.1873899 1.9251391
-0.89826113 4.8512211 1.2806553
-0.86091763 4.6450367 0.75110674
-0.82089251 4.4205108 0.27504325
0.0086907139 0.049464058 4.3091092
-0.2359087 1.5021398 9.6665516
-0.32368204 1.9790299 9.6644392
-0.32236356 1.8906429 6.1785493
-0.68784428 3.9525032 9.511034
-0.86852062 4.9299726 9.2411108
-0.88242936 4.9684515 7.4839821
-0.8764711 4.9051604 6.0424018
-0.019189736 0.26336908 4.4070625
-0.11144523 1.0375183 9.6892719
-0.25549445 1.5384717 6.0419226
-0.58851069 3.4455104 9.5595798
-0.78358877 4.5122418 9.5333157
-0.81657386 4.6258082 6.2947679
-0.86723989 4.888021 5.4600101
-0.87334192 4.8292947 4.9025073
-0.62991887 3.4728205 2.9282963
-0.66833216 3.6664917 2.0374243
-0.99631321 5.4551458 2.3287981
-0.93783045 5.124845 1.6213355
-0.88769597 4.8413596 1.0259575
-0.84581262 4.6039138 0.51318306
-0.58874762 3.2816584 3.0506394
-0.68622184 3.8135972 2.9049883
-0.59541678 3.3023531 2.0574837
-1.0097299 5.5837026 2.7105412
-0.97504568 5.3812118 1.9925231
-0.91257894 5.026495 1.3228587
-0.85620886 4.7113528 0.76008552
-0.821567 4.5118213 0.27867079
0.0088633224 0.049433421 4.3091092
-0.23066381 1.5029541 9.6665516
-0.31661129 1.9791422 9.659544
-0.31625319 1.8947014 6.1880932
-0.67404324 3.9548802 9.511034
-0.84927028 4.9211736 9.2191648
-0.85934359 4.9081903 6.0424018
-0.018270291 0.26343447 4.4070625
-0.10782294 1.037901 9.6892719
-0.25012261 1.5393542 6.0419226
-0.57619554 3.4458416 9.5548868
-0.76746845 4.5128036 9.5288143
-0.8113516 4.7261047 7.9137273
-0.84668911 4.8709788 5.4379592
-0.85398984 4.8182673 4.8884892
-0.61438632 3.4558368 2.9126039
-0.76085097 4.2668424 2.9262044
-0.65630871 3.6731627 2.0397429
-0.99523848 5.5589843 2.3700049
-0.93348783 5.2036343 1.643896
-0.89164811 4.9604635 1.0483404
-0.832385 4.621541 0.51452428
-0.67220384 3.8119886 2.9020452
-0.59588641 3.3723319 2.0980146
-1.0155772 5.7301974 2.7776792
-0.97689772 5.5008183 2.0336108
-0.92653525 5.2067113 1.3662344
-0.85452121 4.7971935 0.7718271
-0.82073611 4.5982714 0.2820968
0.0090358229 0.049402181 4.3091092
-0.22541611 1.5037501 9.6665516
-0.30938652 1.9782234 9.6497536
-0.30963755 1.8957937 6.1880932
-0.66023403 3.9572089 9.511034
-0.83089006 4.9170237 9.2059984
-0.017333502 0.26320848 4.4020715
-0.10419933 1.0382711 9.6892719
-0.24514186 1.5427006 6.0516014
-0.5641638 3.4478319 9.5548868
-0.7506389 4.5090127 9.5153112
-0.82456112 4.8438253 5.4048829
-0.84204626 4.8493285 4.9165254
-0.60298741 3.4617951 2.9157424
-0.74523264 4.2653532 2.9234631
-0.64348304 3.6754313 2.0397429
-0.99825686 5.6902776 2.4224498
-0.95601398 5.4383674 1.7129875
-0.89051855 5.0554638 1.0660602
-0.84221631 4.7715435 0.5279367
-0.65889341 3.8143117 2.9020452
-0.59661001 3.4466014 2.1410785
-1.0134261 5.836555 2.8259342
-0.97954524 5.629806 2.0779855
-0.91419876 5.243433 1.3744407
-0.86331284 4.946497 0.79254752
-0.82361484 4.7093759 0.28653049
0.0092221387 0.049411692 4.3141088
-0.22027797 1.5052967 9.6714916
-0.30217201 1.9772781 9.6399632
-0.30301809 1.896863 6.1880932
-0.64641678 3.9594896 9.511034
-0.81489354 4.9269824 9.2191648
-0.016414627 0.26326737 4.4020715
-0.10057445 1.0386285 9.6892719
-0.24707916 1.5907471 6.2354994
-0.55267042 3.4531882 9.5642729
-0.73419511 4.5073085 9.5063086
-0.77749115 4.7265067 7.9051952
-0.93657905 5.6507711 7.6593556
-0.80820525 4.850018 5.4085579
-0.84125477 4.9471645 5.0111485
-0.72822356 4.2555642 2.9152386
-0.63064945 3.677655 2.0397429
-0.99016446 5.7622623 2.4505453
-0.93946683 5.4558539 1.7172177
-0.89374787 5.1795592 1.0893757
-0.84252524 4.8725972 0.53687823
-0.64624906 3.820574 2.9049883
-0.59538132 3.5124156 2.1790762
-0.97892427 5.7449126 2.1174297
-0.9302516 5.4478259 1.423678
-0.86606598 5.0666304 0.80912381
-0.81560576 4.7614641 0.28854579
0.0093945619 0.0493792 4.3141088
-0.21502216 1.5060564 9.6714916
-0.29496789 1.9763067 9.6301727
-0.29639497 1.8979092 6.1880932
-0.63259166 3.9617219 9.511034
-0.7992202 4.9392543 9.236722
-1.1633295 7.0803003 8.6672544
-0.015480443 0.26303476 4.3970795
-0.096948355 1.0389732 9.6892719
-0.24642318 1.6239117 6.3613248
-0.54087979 3.4568012 9.568965
-0.71777225 4.5055437 9.4973059
-0.76015925 4.7240424 7.8966632
-0.91974217 5.6718531 7.6832967
-0.79181606 4.8561554 5.4122329
-0.83920467 5.0415354 5.1022668
-0.71336442 4.2580805 2.9152386
-0.6185416 3.6842027 2.0420618
-1.0000407 5.9439783 2.5235934
-0.88466442 5.2359271 1.0996345
-0.84297019 4.978621 0.54626691
-0.80548108 4.8810267 4.4872556
-0.63290888 3.8228066 2.9049883
-0.6374445 3.841928 2.374131
-0.68204015 4.0974846 2.0076938
-0.97284991 5.8321357 2.1470129
-0.91122949 5.4510398 1.423678
-0.86880803 5.1917267 0.82639086
-0.82046372 4.8923874 0.2937856
0.0095668696 0.049346104 4.3141088
-0.20976375 1.5067978 9.6714916
-0.28806749 1.9773242 9.6301727
-0.28976822 1.8989322 6.1880932
-0.6187588 3.9639058 9.511034
-0.78309679 4.94911 9.2498884
-0.80578649 5.0470085 7.5790396
-1.1391162 7.0874829 8.671092
-0.014562186 0.26308718 4.3970795
-0.09332107 1.0393053 9.6892719
-0.24682704 1.6657951 6.5210257
-0.52933145 3.4620798 9.5783501
-0.70170575 4.5058713 9.4928045
-0.74609637 4.7421255 7.9222593
-0.90276945 5.6928854 7.7072363
-0.77486008 4.8588901 5.4122329
-0.83020002 5.0972323 5.1548347
-0.81275052 4.9737363 4.1460176
-0.69849658 4.2605443 2.9152386
-0.60495937 3.6819682 2.0397429
-0.99736249 6.0572176 2.5685465
-0.96461684 5.8456573 1.8314304
-0.89603597 5.4183011 1.1341414
-0.8467561 5.1092696 0.55789095
-0.7902233 4.8948669 4.497232
-0.62020707 3.8289821 2.9079313
-0.6723789 4.1419873 2.5514536
-0.67211038 4.126718 2.020282
-0.9851954 6.0358977 2.2176838
-0.86988693 5.3120155 0.84296721
-0.80661738 4.9149418 0.29459172
0.0097390609 0.049312413 4.3141088
-0.20460698 1.5082908 9.6764307
-0.28159294 1.9813422 9.6448584
-0.28313795 1.8999321 6.1880932
-0.60521293 3.9679732 9.5156374
-0.76654845 4.9565473 9.258667
-0.79510677 5.0942769 7.6451678
-1.1123792 7.0787501 8.6557417
-0.013643752 0.26313642 4.3970795
-0.089692645 1.0396247 9.6892719
-0.24137025 1.6691344 6.530704
-0.51749814 3.4656134 9.5830431
-0.68564558 4.5061402 9.4883032
-0.72914249 4.7421231 7.9179935
-0.88612264 5.716846 7.7351665
-0.75737256 4.8582158 5.4085579
-0.80959743 5.08249 5.1373119
-0.82056868 5.1341281 4.274694
-0.68295819 4.2588282 2.912497
-0.59280616 3.6884313 2.0420618
-1.0005405 6.2117004 2.6303566
-0.95720196 5.9294968 1.8554009
-0.89908385 5.5571728 1.1602548
-0.84963989 5.240005 0.56951505
-0.77429652 4.9049716 4.5038829
-0.60746998 3.8351161 2.9108746
-0.67751598 4.267776 2.6249156
-0.65912908 4.1380029 2.0244782
-0.99166322 6.2118354 2.2784936
-0.93765652 5.8604326 1.5221527
-0.8701362 5.432373 0.8595435
0.0098966341 0.049236961 4.3091092
-0.19934084 1.5089959 9.6764307
-0.27481464 1.9833217 9.6497536
-0.27628949 1.8994316 6.183321
-0.59164613 3.9719937 9.5202398
-0.74959999 4.9615612 9.2630558
-1.0862035 7.0730853 8.6442289
-0.012713062 0.262894 4.3920879
-0.086063132 1.0399314 9.6892719
-0.23536704 1.6687223 6.5258651
-0.50589538 3.470814 9.5924292
-0.66991204 4.5085063 9.4883032
-0.71219754 4.7420602 7.9137273
-0.74040961 4.8608298 5.4085579
-0.78307277 5.028904 5.0812392
-1.2454605 7.9712105 6.5877361
-0.66873562 4.265317 2.9152386
-0.59161723 3.7648716 2.0814815
-1.0040941 6.3754363 2.6959126
-0.9529531 6.0370469 1.8864217
-0.89963788 5.6864276 1.184503
-0.84616172 5.3363905 0.57800955
-0.75318527 4.8818135 4.4806046
-0.59469759 3.841208 2.9138179
-0.66261452 4.2701154 2.6249156
-0.64537907 4.144763 2.0265763
-0.99036133 6.3458982 2.3245118
-0.91569173 5.8540664 1.5198081
-0.87185401 5.5674734 0.87819183
-0.82263738 5.241262 0.30769125
0.010068443 0.049202114 4.3091092
-0.19407223 1.5096825 9.6764307
-0.26802593 1.9852778 9.6546478
-0.26965758 1.9003845 6.183321
-0.57805878 3.9759681 9.5248423
-0.73262578 4.9665165 9.2674456
-0.81174761 5.4504032 8.1659184
-1.0577037 7.051476 8.6135292
-0.011795313 0.2629368 4.3920879
-0.082391031 1.0396942 9.6843004
-0.23022479 1.6745148 6.5452228
-0.49329117 3.4691417 9.5830431
-0.65417039 4.5108175 9.4883032
-0.72244012 4.856678 5.4012074
-0.75478667 4.9610929 5.0111485
-1.2240897 8.0178337 6.6222596
-0.65067667 4.2469592 2.9015312
-0.59259105 3.8588622 2.1301763
-1.0149796 6.5942545 2.7839451
-0.95674163 6.201529 1.9343626
-0.90305346 5.8400245 1.2134142
-0.84659719 5.4623423 0.58918649
-0.73725277 4.8917971 4.4872556
-0.58189017 3.8472571 2.9167609
-0.66062713 4.3576441 2.6755793
-0.62954199 4.1380167 2.0223801
-0.98457611 6.4566851 2.3623126
-0.92976767 6.0830536 1.5749069
-0.87114102 5.6928596 0.89545882
-0.8088814 5.2737303 0.30890042
0.010240129 0.049166668 4.3091092
-0.18870512 1.5095797 9.6714916
-0.26175717 1.9912491 9.6791248
-0.26302233 1.9013141 6.183321
-0.56472504 3.9818304 9.5340471
-0.71562606 4.9714146 9.2718344
-0.79636008 5.4782662 8.2031155
-1.0293682 7.0297532 8.5828295
-0.010867344 0.26268783 4.3870959
-0.078761317 1.0399754 9.6843004
-0.22487827 1.6790457 6.559741
-0.48378435 3.4896452 9.6346636
-0.63872558 4.5152292 9.4928045
-0.70499569 4.8558154 5.3975325
-0.73379636 4.9390049 4.9866166
-1.2305335 8.2530432 6.8105669
-0.59751523 3.9835696 2.1951027
-0.99953681 6.6481862 2.8045485
-0.97154558 6.4467492 2.0062745
-0.89220077 5.9062843 1.2255383
-0.83199823 5.4948072 0.591869
-0.71962923 4.8906469 4.4839301
-0.56845719 3.8492646 2.9167609
-0.61509377 4.1401887 2.0223801
-0.99472231 6.6796041 2.4395573
-0.92359799 6.1872168 1.5995257
-0.87541854 5.8574891 0.91825128
-0.80305058 5.3605151 0.31232646
0.010426621 0.049171627 4.3141088
-0.18343455 1.5102292 9.6714916
-0.14913261 1.1649599 5.6699333
-0.25638393 1.9022207 6.183321
-0.55135739 3.9876478 9.543252
-0.69826829 4.9738822 9.2718344
-0.78078789 5.5060883 8.2403116
-1.0043702 7.0301304 8.5789919
-0.0099412603 0.26243562 4.3821049
-0.075130649 1.040244 9.6843004
-0.21917827 1.681067 6.5645804
-0.47321671 3.5032837 9.6675129
-0.62296057 4.5174313 9.4928045
-0.64330119 4.5709238 6.187037
-0.68709081 4.8515334 5.390182
-0.71348113 4.9203601 4.965589
-0.97750342 6.7165933 5.5551844
-0.76967889 5.2692304 3.575932
-0.59387457 4.0557604 2.2322037
-1.0254698 6.9864697 2.9412799
-0.97277802 6.6114645 2.0542154
-0.916017 6.2106628 1.2833607
-0.70255333 4.8931293 4.4839301
-0.55501723 3.8512256 2.9167609
-0.77749324 5.3818469 3.281009
-0.59998685 4.1378193 2.020282
-1.0006069 6.8839774 2.5102284
-0.93423277 6.4116554 1.6534522
-0.87712753 6.0124154 0.9396624
-0.8197571 5.6055098 0.32220146
0.010598199 0.049134929 4.3141088
-0.17816174 1.5108603 9.6714916
-0.14418674 1.1584003 5.6356673
-0.24974237 1.9031042 6.183321
-0.53769529 3.9914844 9.5478544
-0.68122655 4.978662 9.2762241
-0.76156324 5.50878 8.2403116
-0.98291999 7.0558167 8.605855
-0.0090251276 0.26246873 4.3821049
-0.071499065 1.0404999 9.6843004
-0.21330892 1.6818218 6.5645804
-0.46368447 3.5254457 9.7238264
-0.60747778 4.5217357 9.4973059
-0.62897962 4.585083 6.2029972
-0.66876078 4.8438277 5.3791566
-0.69779974 4.933414 4.9761028
-0.95076966 6.6968431 5.5363541
-0.74951154 5.2594662 3.5677075
-1.0267074 7.1689811 3.0143282
-0.97832578 6.8142519 2.1134369
-0.89573163 6.2235465 1.2852259
-0.84837568 5.8800092 0.62629408
-0.68546885 4.8955517 4.4839301
-0.54157054 3.8531394 2.9167609
-0.75870228 5.3845282 3.281009
-0.58617508 4.144382 2.0223801
-0.99513286 7.0183396 2.5562465
-0.95630807 6.727674 1.7296529
-0.87985855 6.1821313 0.96314549
-0.81853247 5.7369294 0.32744128
0.010769647 0.049097635 4.3141088
-0.17288676 1.5114731 9.6714916
-0.13977638 1.1558639 5.6209817
-0.2429089 1.9024837 6.1785493
-0.52401316 3.9952738 9.5524569
-0.66384363 4.98101 9.2762241
-0.7329399 5.4416838 8.1369877
-0.95957786 7.0687323 8.6173668
-0.0081018321 0.26221004 4.3771129
-0.067866609 1.0407431 9.6843004
-0.20881955 1.6937841 6.6081352
-0.45028061 3.5184839 9.7003622
-0.59197253 4.5259871 9.5018072
-0.61337 4.5902376 6.2069874
-0.65184861 4.8461323 5.3791566
-0.68739378 4.9852796 5.0251665
-0.9263202 6.6924095 5.530077
-0.73172343 5.2661915 3.5704489
-1.0356598 7.4158635 3.1135988
-0.96916664 6.9221411 2.1444576
-0.91974992 6.5525608 1.3477114
-0.83478487 5.9322491 0.63076484
-0.66837597 4.8979149 4.4839301
-0.52811736 3.8550065 2.9167609
-0.74224836 5.4042263 3.2911417
-1.0570649 7.6667643 3.6651554
-1.0113631 7.3164654 2.6597877
-0.94883168 6.8465214 1.7577884
-0.88481826 6.3764625 0.99008203
-0.81571168 5.8634591 0.33247954
0.010940964 0.049059741 4.3141088
-0.16769509 1.5128396 9.6764307
-0.13633302 1.1614013 5.6454577
-0.23608276 1.9018387 6.1737776
-0.51031107 3.9990165 9.5570602
-0.6467607 4.985672 9.2806129
-0.71320873 5.4386287 8.1287222
-0.93615764 7.0815716 8.6288795
-0.0071804528 0.26194808 4.3721213
-0.064233318 1.0409738 9.6843004
-0.29574925 2.4708049 9.6182575
-0.43629214 3.5063348 9.6628199
-0.57644504 4.5301857 9.5063086
-0.59850907 4.6013145 6.2189569
-0.63624895 4.8584623 5.390182
-0.67568469 5.0300627 5.0672212
-0.90191334 6.6878877 5.5237999
-0.71221453 5.2604265 3.5649662
-0.88801581 6.541853 3.5423255
-1.0404001 7.6445184 3.2053773
-0.99039632 7.2581935 2.24316
-0.92017531 6.7260742 1.3803532
-0.84858513 6.1867495 0.65356588
-0.65176684 4.9039192 4.4872556
-0.51465762 3.8568265 2.9167609
-0.73138225 5.4666023 3.326606
-1.0786304 8.0302572 3.8329995
-0.9977926 7.4088693 2.6910143
-0.95029336 7.0376515 1.8035089
-0.86122799 6.3696976 0.98870069
-0.81604397 6.0197411 0.338727
0.011096646 0.048980467 4.3091092
-0.16241327 1.5134157 9.6764307
-0.13216323 1.1608584 5.6405625
-0.22908556 1.8996871 6.1642332
-0.49658927 4.0027127 9.5616627
-0.62965322 4.9902754 9.2850008
-0.91306823 7.0975127 8.6442289
-0.0062610018 0.2616829 4.3671293
-0.060599249 1.0411917 9.6843004
-0.28712273 2.4718223 9.6182575
-0.42467114 3.5129759 9.676899
-0.56089544 4.5343308 9.5108099
-0.75172436 6.0001903 9.9613752
-0.58509117 4.6243019 6.2468877
-0.62014264 4.8673797 5.3975325
-0.65997189 5.046535 5.0812392
-0.87906951 6.6948543 5.5269384
