# .PCD v0.7 - Point Cloud Data file format
VERSION 0.7
FIELDS x y z
SIZE 4 4 4
TYPE F F F
COUNT 1 1 1
WIDTH 1438
HEIGHT 1
VIEWPOINT 0 0 0 1 0 0 0
POINTS 1438
DATA ascii
-1.1575503 -1.6406279 5.5144153
-1.053517 -1.5020156 3.8572848
-0.99765378 -1.4271007 2.9183185
-0.96150118 -1.3789408 2.3007534
-0.94380897 -1.3560638 1.8693745
-0.93292558 -1.3499396 1.6923431
-0.90613133 -1.3126224 1.3684834
-0.89138132 -1.2926861 1.1140954
-0.88052428 -1.2778826 0.89889359
-0.86806339 -1.2607274 0.70675176
-0.85943025 -1.2491091 0.53561026
-0.84602869 -1.2305421 0.37498868
-0.8402282 -1.223006 0.22615832
-0.9230268 -1.3316293 1.524235
-0.89194316 -1.288211 1.2244437
-0.88645673 -1.2812293 1.001148
-0.8779543 -1.2703485 0.80131364
-0.86170101 -1.2477493 0.61690587
-0.85038966 -1.232277 0.45182684
-0.84351975 -1.2227697 0.29940197
-0.83348131 -1.2091074 0.15291549
-0.068529226 -0.042632457 7.8239756
-0.71949321 -0.98411083 7.7501202
-0.69365048 -0.96159005 5.7237811
-1.2397398 -1.7429053 6.8848028
-1.0914063 -1.5457115 4.5172958
-1.0263287 -1.459982 3.3377995
-0.98076648 -1.3992858 2.5823052
-0.95263553 -1.3621565 2.0667472
-0.3025744 -0.34697843 7.8013906
-0.5454753 -0.67464721 8.0486765
-0.85589564 -1.1924058 5.6886444
-1.1552709 -1.6253253 5.4768729
-1.0499587 -1.4858845 3.8257763
-0.99662173 -1.4150807 2.9012547
-0.96111214 -1.3681796 2.2887833
-0.94269729 -1.3444339 1.8583488
-0.9315185 -1.3378949 1.6818293
-0.9040401 -1.2998651 1.3590679
-0.89111668 -1.2826986 1.1086124
-0.87992698 -1.2675234 0.89425594
-0.86717403 -1.2500715 0.70300567
-0.85831946 -1.2382168 0.53279018
-0.84752178 -1.2235432 0.37405604
-0.8388235 -1.211876 0.22526415
-0.92339373 -1.3222769 1.517584
-0.89180911 -1.2784595 1.2185574
-0.8859933 -1.2710544 0.99608171
-0.87719649 -1.2598271 0.79711759
-0.86335409 -1.2408576 0.61526239
-0.84913641 -1.2213196 0.4494822
-0.84213048 -1.2116851 0.29802063
-0.83199722 -1.1979839 0.15251243
-0.06863863 -0.042373385 7.8189754
-0.72246301 -0.98096782 7.7451806
-0.69700289 -0.95916289 5.7237811
-1.2362509 -1.7252213 6.8323112
-1.0899999 -1.5323411 4.4896808
-1.0244972 -1.4466187 3.3158541
-0.97915179 -1.3866593 2.5657735
-0.95184577 -1.3509625 2.0552347
-0.30378374 -0.34592012 7.8013906
-0.54782695 -0.67273909 8.0486765
-0.85931605 -1.1883925 5.6838055
-1.152899 -1.6100591 5.4393306
-1.0475633 -1.47157 3.798769
-0.99551809 -1.4030855 2.884191
-0.96065968 -1.3574375 2.2768133
-0.94151616 -1.3328285 1.8473235
-0.93003881 -1.3258766 1.6713158
-0.90410477 -1.2903262 1.3527911
-0.89079303 -1.2727289 1.1031295
-0.87926829 -1.2571841 0.88961834
-0.86622083 -1.2394372 0.69925964
-0.85714304 -1.2273473 0.52997011
-0.84616512 -1.2125207 0.3721908
-0.84020013 -1.2048558 0.22481708
-0.92370659 -1.3129383 1.510933
-0.89161813 -1.2687248 1.212671
-0.88546968 -1.2608985 0.99101532
-0.87637591 -1.2493265 0.79292148
-0.86225927 -1.230103 0.61197537
-0.85060585 -1.2143669 0.44830987
-0.84067404 -1.2006249 0.29663923
-0.83330977 -1.1909789 0.15231091
-0.068786122 -0.042133536 7.8189754
-0.72588283 -0.97843999 7.7451806
-0.70034665 -0.95672405 5.7237811
-1.2326535 -1.707583 6.779819
-1.0873754 -1.5174115 4.4574628
-1.022585 -1.433286 3.2939088
-0.97746092 -1.3740612 2.5492415
-0.95098972 -1.3397908 2.0437222
-0.3049894 -0.34485763 7.8013906
-0.55017191 -0.67082268 8.0486765
-0.86271876 -1.1843698 5.678966
-1.1504346 -1.5948293 5.4017887
-1.045081 -1.4572908 3.7717619
-0.99585956 -1.393237 2.871393
-0.96014404 -1.3467157 2.2648432
-0.94026554 -1.3212477 1.8362979
-0.93054479 -1.3167974 1.6643068
-0.90411389 -1.280803 1.3465142
-0.89041084 -1.2627772 1.0976466
-0.87854815 -1.246865 0.88498074
-0.86787295 -1.2326154 0.69738662
-0.85866165 -1.2204245 0.5285601
-0.84756714 -1.2055413 0.3712582
-0.83867514 -1.1937659 0.22392292
-0.92396569 -1.3036137 1.504282
-0.89136994 -1.259007 1.2067847
-0.88737583 -1.2542808 0.98848218
-0.87549269 -1.238847 0.78872538
-0.86382377 -1.2232282 0.61033183
-0.84923452 -1.2034476 0.44596523
-0.84200543 -1.1936368 0.29594857
-0.83170521 -1.1798961 0.15190785
-0.068932779 -0.041893169 7.8189754
-0.72929382 -0.97590029 7.7451806
-0.70428652 -0.95509285 5.7286763
-1.2298265 -1.6911982 6.7320995
-1.0858037 -1.5041031 4.4298482
-1.0219903 -1.421929 3.2763524
-0.97733337 -1.3637792 2.5368426
-0.9500671 -1.3286414 2.0322096
-0.30599847 -0.34357604 7.7963991
-0.55251014 -0.66889811 8.0486765
-0.86610395 -1.1803378 5.6741261
-1.1488926 -1.5810324 5.3689394
-1.0450617 -1.4465758 3.753757
-0.99462032 -1.3812869 2.8543293
-0.95956528 -1.3360139 2.2528732
-0.93894559 -1.3096921 1.8252726
-0.92893034 -1.3048257 1.653793
-0.90406752 -1.2712954 1.3402373
-0.88997018 -1.2528439 1.0921637
-0.87776679 -1.2365663 0.88034314
-0.86680591 -1.2220159 0.69364047
-0.85736835 -1.2095926 0.52574003
-0.84609163 -1.1945583 0.36939296
-0.83996004 -1.1867663 0.22347584
-0.92200118 -1.2912648 1.4943056
-0.89106482 -1.2493066 1.2008984
-0.88674456 -1.2441549 0.98341578
-0.87454718 -1.2283891 0.78452927
-0.86261344 -1.21251 0.60704482
-0.85061383 -1.1965145 0.44479293
-0.8404296 -1.1826172 0.2945672
-0.83003348 -1.168839 0.15150478
-0.069078594 -0.041652292 7.8189754
-0.73316336 -0.97396922 7.7501202
-0.70761615 -0.95262861 5.7286763
-1.2269 -1.674854 6.6843796
-1.0841525 -1.490824 4.4022326
-1.0213287 -1.4105937 3.2587962
-0.97549874 -1.3512334 2.5203109
-0.9490785 -1.3175153 2.0206971
-0.30719596 -0.34250581 7.7963991
-0.5548417 -0.66696543 8.0486765
-0.86947143 -1.1762967 5.6692867
-1.1462491 -1.5658734 5.3313971
-1.0436991 -1.4341185 3.731251
-0.99484146 -1.3714737 2.8415318
-0.96069008 -1.3277739 2.2448931
-0.93954152 -1.3009101 1.8179222
-0.92724383 -1.2928816 1.6432794
-0.90169883 -1.2586397 1.3308219
-0.88947093 -1.2429289 1.0866808
-0.87692422 -1.2262883 0.87570554
-0.86837089 -1.2152109 0.69176745
-0.85879773 -1.2026886 0.52433002
-0.84454966 -1.1836002 0.36752769
-0.83831513 -1.1757175 0.22258168
-0.92214209 -1.2819766 1.4876546
-0.8907029 -1.2396237 1.1950121
-0.88605344 -1.2340488 0.97834945
-0.87618452 -1.2216411 0.78243119
-0.86408979 -1.2056534 0.60540134
-0.84912497 -1.1856346 0.44244829
-0.83878714 -1.1716233 0.29318586
-0.82829481 -1.1578081 0.15110172
-0.069223568 -0.041410908 7.8189754
-0.73655874 -0.97140402 7.7501202
-0.71093708 -0.95015281 5.7286763
-1.2238746 -1.6585512 6.6366601
-1.0835764 -1.4791509 4.37922
-1.0206006 -1.3992805 3.2412398
-0.97524375 -1.3409928 2.5079119
-0.9480238 -1.3064121 2.0091846
-0.30838963 -0.34143141 7.7963991
-0.55716646 -0.66502458 8.0486765
-0.87357217 -1.1732545 5.6692867
-1.144538 -1.5521412 5.2985477
-1.0435499 -1.4234444 3.7132461
-0.99346727 -1.3595699 2.8244677
-0.95999414 -1.3171074 2.2329228
-0.93809301 -1.2893986 1.8068967
-0.92548525 -1.280965 1.6327658
-0.90153098 -1.2491723 1.3245449
-0.88891345 -1.2330328 1.0811977
-0.87602073 -1.2160314 0.87106794
-0.86989892 -1.2084099 0.68989444
-0.85738796 -1.1918951 0.52150995
-0.84580886 -1.1766562 0.36659506
-0.8366034 -1.1646947 0.22168753
-0.92003852 -1.2696798 1.4776781
-0.89028442 -1.2299587 1.1891258
-0.88530266 -1.2239628 0.97328311
-0.87512743 -1.2112176 0.77823514
-0.86276442 -1.1949728 0.60211432
-0.85041445 -1.1787215 0.44127598
-0.83997506 -1.1646718 0.29249516
-0.8294102 -1.1508566 0.15090019
-0.069367699 -0.041169021 7.8189754
-0.73994511 -0.96882701 7.7501202
-0.71424937 -0.94766539 5.7286763
-1.2216411 -1.6434877 6.5937119
-1.0840924 -1.4690721 4.3608098
-1.0183877 -1.3860596 3.2192943
-0.97326612 -1.3285006 2.4913802
-0.9487949 -1.2979199 2.0015097
-0.30957958 -0.34035286 7.7963991
-0.55948436 -0.66307569 8.0486765
-0.87690794 -1.1691926 5.6644473
-1.1417159 -1.5370548 5.2610059
-1.0433389 -1.4127886 3.6952412
-0.99202228 -1.3476928 2.807404
-0.95923543 -1.306462 2.220953
-0.93857974 -1.2806475 1.7995464
-0.92575359 -1.2719599 1.6257567
-0.90130806 -1.2397214 1.3182681
-0.88829768 -1.2231559 1.0757148
-0.87505633 -1.2057959 0.86643034
-0.8686685 -1.1978602 0.68614835
-0.85872841 -1.1850107 0.52009988
-0.84414881 -1.1657394 0.36472982
-0.83774447 -1.1577328 0.22124045
-0.92006183 -1.2604291 1.471027
-0.89219069 -1.2235775 1.1861825
-0.88449222 -1.213897 0.96821666
-0.87667906 -1.204486 0.77613705
-0.86415285 -1.188135 0.60047078
-0.84880835 -1.1678822 0.43893132
-0.8382138 -1.1537199 0.29111382
-0.82755214 -1.1398689 0.15049712
-0.069510981 -0.040926632 7.8189754
-0.74332237 -0.96623826 7.7501202
-0.71816885 -0.94597715 5.7335715
-1.2175276 -1.6260707 6.5412197
-1.0833858 -1.4574399 4.3377976
-1.01752 -1.3747964 3.2017381
-0.9712131 -1.3160387 2.4748485
-0.94761765 -1.2868576 1.9899971
-0.31076574 -0.33927011 7.7963991
-0.56179553 -0.66111869 8.0486765
-0.88098383 -1.1661245 5.6644473
-1.1398365 -1.5233886 5.2281561
-1.0417666 -1.4004053 3.672735
-0.99206007 -1.3379372 2.7946064
-0.95841426 -1.2958381 2.2089827
-0.93700337 -1.2691816 1.7885209
-0.92386156 -1.2600927 1.615243
-0.90103012 -1.2302874 1.3119911
-0.88762391 -1.2132983 1.0702319
-0.87403125 -1.1955819 0.86179274
-0.8701098 -1.1910774 0.68427533
-0.86003113 -1.1781315 0.51868987
-0.8453179 -1.1588172 0.36379722
-0.83591366 -1.146753 0.22034629
-0.91781998 -1.2481859 1.4610506
-0.89167053 -1.2139406 1.1802962
-0.88362247 -1.2038521 0.96315032
-0.87551093 -1.1940985 0.77194095
-0.8627131 -1.1774931 0.59718376
-0.85000849 -1.1609904 0.43775901
-0.83931124 -1.1467909 0.29042313
-0.8285768 -1.1329406 0.1502956
-0.069653414 -0.040683743 7.8189754
-0.74669063 -0.96363771 7.7501202
-0.7214666 -0.94346452 5.7335715
-1.2151058 -1.611086 6.4982724
-1.082611 -1.4458306 4.314785
-1.0151545 -1.3616363 3.1797926
-0.97076422 -1.3058658 2.4624498
-0.94637471 -1.2758192 1.9784846
-0.31214464 -0.33839479 7.8013906
-0.56409985 -0.65915364 8.0486765
-0.88428766 -1.162042 5.6596084
-1.1378758 -1.5097547 5.1953068
-1.0401207 -1.3880502 3.650229
-0.99048102 -1.3261086 2.7775426
-0.95753062 -1.2852359 2.1970129
-0.93535835 -1.2577423 1.7774954
-0.92401701 -1.251123 1.6082339
-0.90069741 -1.2208706 1.3057142
-0.8868922 -1.2034605 1.064749
-0.87557238 -1.1889569 0.85947394
-0.86876649 -1.1805652 0.6805293
-0.86129642 -1.1712576 0.51727986
-0.8464489 -1.151901 0.36286458
-0.83401644 -1.1358001 0.21945213
-0.91772622 -1.2389739 1.4543995
-0.89109403 -1.2043223 1.1744099
-0.88269341 -1.1938279 0.95808399
-0.87428093 -1.1837337 0.76774484
-0.86120951 -1.1668757 0.59389675
-0.84828579 -1.1501926 0.43541437
-0.84037048 -1.1398684 0.28973246
-0.82956314 -1.1260192 0.15009406
-0.069795005 -0.040440362 7.8189754
-0.75004983 -0.96102542 7.7501202
-0.72475553 -0.94094044 5.7335715
-1.2116909 -1.5949495 6.4505525
-1.0817684 -1.4342444 4.2917724
-1.014148 -1.3504244 3.1622362
-0.96856922 -1.2934598 2.4459178
-0.94698507 -1.2673728 1.9708096
-0.31352121 -0.33751392 7.8063827
-0.56639731 -0.65718055 8.0486765
-0.88757378 -1.1579508 5.6547685
-1.135834 -1.4961529 5.1624579
-1.0384015 -1.375724 3.627723
-0.99039972 -1.3163911 2.7647448
-0.95658463 -1.2746558 2.1850426
-0.93567759 -1.2490432 1.7701451
-0.92412102 -1.2421675 1.6012248
-0.90031004 -1.2114712 1.2994373
-0.88610268 -1.1936425 1.0592661
-0.87443876 -1.1787778 0.85483634
-0.87012136 -1.1738012 0.67865622
-0.85966879 -1.1605347 0.51445979
-0.84754199 -1.144991 0.36193198
-0.83501458 -1.1288781 0.21900505
-0.91534662 -1.2267855 1.4444231
-0.89046133 -1.194723 1.1685236
-0.88170516 -1.1838251 0.95301759
-0.87569833 -1.1770333 0.76564676
-0.86246008 -1.1600729 0.59225327
-0.84939677 -1.1433228 0.43424204
-0.8413918 -1.1329525 0.28904179
-0.83051145 -1.1191049 0.14989254
-0.069935746 -0.040196486 7.8189754
-0.75291944 -0.95779067 7.7451806
-0.72865999 -0.93920922 5.7384667
-1.2090856 -1.580042 6.4076047
-1.0796764 -1.4211264 4.2641568
-1.0116307 -1.3373265 3.140291
-0.96799421 -1.2833313 2.4335189
-0.94562036 -1.256377 1.9592969
-0.31489545 -0.3366276 7.8113742
-0.56868786 -0.65519941 8.0486765
-0.89084196 -1.1538506 5.649929
-1.133711 -1.482584 5.1296082
-1.0379266 -1.3651595 3.6097181
-0.98868728 -1.304612 2.7476809
-0.95557654 -1.2640979 2.1730726
-0.93390542 -1.2376512 1.7591195
-0.9220351 -1.230373 1.5907112
-0.90220058 -1.2052052 1.2962989
-0.88525558 -1.183845 1.0537832
-0.87589639 -1.1721698 0.8525176
-0.86866581 -1.1633278 0.67491019
-0.86084569 -1.1536822 0.51304972
-0.84566087 -1.1341497 0.36006674
-0.83299911 -1.1179699 0.21811089
-0.91513658 -1.2176135 1.437772
-0.88977236 -1.1851428 1.1626372
-0.88324505 -1.177292 0.95048445
-0.87435794 -1.166706 0.76145065
-0.86084282 -1.1494958 0.58896625
-0.85047024 -1.1364594 0.43306974
-0.84237504 -1.1260432 0.28835109
-0.83142149 -1.1121976 0.149691
-0.070075631 -0.039952118 7.8189754
-0.75625819 -0.95515668 7.7451806
-0.73193401 -0.93665999 5.7384667
-1.2063912 -1.5651723 6.3646564
-1.0775059 -1.4080408 4.2365417
-1.0104859 -1.3261673 3.1227345
-0.96736032 -1.2732228 2.4211199
-0.94419062 -1.2454063 1.9477845
-0.31626731 -0.33573574 7.8163657
-0.57097149 -0.65321034 8.0486765
-0.89409244 -1.1497419 5.6450896
-1.1304539 -1.4676812 5.0920658
-1.0373906 -1.3546152 3.5917132
-0.98848742 -1.294934 2.7348833
-0.95633215 -1.2559601 2.1650927
-0.93206525 -1.226287 1.7480941
-0.92202687 -1.2214545 1.5837022
-0.90171498 -1.1958331 1.290022
-0.88435078 -1.1740679 1.0483003
-0.87731862 -1.1655661 0.85019881
-0.86993456 -1.1565837 0.67303717
-0.85910302 -1.143001 0.51022971
-0.84666467 -1.1272631 0.35913411
-0.83390701 -1.1110724 0.21766382
-0.91487366 -1.2084581 1.4311211
-0.88902754 -1.1755819 1.1567509
-0.88215095 -1.1673235 0.94541812
-0.8756907 -1.1600246 0.75935262
-0.86200625 -1.1427141 0.58732271
-0.85150611 -1.1296024 0.43189743
-0.84034002 -1.1151861 0.28696972
-0.83229339 -1.1052977 0.14948948
-0.070214659 -0.039707266 7.8189754
-0.75958776 -0.95251101 7.7451806
-0.735829 -0.93489927 5.7433624
-1.2036077 -1.5503408 6.3217087
-1.0764502 -1.3965348 4.2135291
-1.0092757 -1.3150328 3.1051781
-0.96666789 -1.2631347 2.4087212
-0.94269568 -1.2344609 1.936272
-0.31743732 -0.33462974 7.8163657
-0.57289535 -0.65081364 8.043705
-0.8973251 -1.1456245 5.6402507
-1.1281649 -1.4541826 5.059217
-1.0381235 -1.3458149 3.5782096
-0.98664224 -1.283206 2.7178197
-0.95520866 -1.2454416 2.1531224
-0.93015712 -1.2149507 1.7370685
-0.92196769 -1.2125511 1.5766931
-0.90117502 -1.1864792 1.2837451
-0.88338864 -1.1643115 1.0428174
-0.8787055 -1.1589667 0.84788001
-0.86836725 -1.1461498 0.66929108
-0.86019194 -1.1361706 0.50881964
-0.84466672 -1.116466 0.35726887
-0.83177376 -1.1002098 0.21676967
-0.91455805 -1.1993194 1.4244701
-0.88822687 -1.1660409 1.1508646
-0.88360918 -1.160807 0.94288492
-0.87424022 -1.1497355 0.75515652
-0.86313283 -1.1359383 0.58567923
-0.84956533 -1.118881 0.42955279
-0.84123361 -1.1083015 0.28627905
-0.83312744 -1.0984051 0.14928794
-0.070392616 -0.039479882 7.8239756
-0.76242125 -0.94924814 7.7402415
-0.73972076 -0.93312281 5.7482576
-1.2007356 -1.5355479 6.2787614
-1.0753274 -1.3850534 4.1905165
-1.008 -1.3039229 3.0876219
-0.96591669 -1.2530667 2.3963223
-0.94113606 -1.2235413 1.9247596
-0.31880364 -0.33372763 7.8213573
-0.57516366 -0.64880991 8.043705
-0.90131861 -1.1424853 5.6402507
-1.126858 -1.4420778 5.0310602
-1.0388077 -1.3370261 3.5647061
-0.98472726 -1.2715067 2.7007556
-0.95402348 -1.2349463 2.1411526
-0.93025178 -1.2063273 1.7297182
-0.9218576 -1.2036631 1.569684
-0.90058082 -1.1771437 1.2774682
-0.88490832 -1.1578985 1.0400758
-0.87736821 -1.1488513 0.84324241
-0.86955017 -1.1394264 0.66741806
-0.85833472 -1.1255322 0.50599957
-0.84558135 -1.1096036 0.35633627
-0.83259207 -1.0933378 0.21632259
-0.91418982 -1.1901976 1.417819
-0.88737041 -1.1565198 1.1449783
-0.88240975 -1.1508738 0.93781859
-0.87548852 -1.1430737 0.75305843
-0.86422265 -1.1291687 0.58403569
-0.8505128 -1.1120478 0.42838046
-0.84208941 -1.1014243 0.28558838
-0.83392346 -1.0915204 0.14908642
-0.070529997 -0.039233923 7.8239756
-0.76573008 -0.94658101 7.7402415
-0.74297339 -0.93053508 5.7482576
-1.1968513 -1.5196215 6.231041
-1.072934 -1.3720582 4.1629014
-1.0051877 -1.2909484 3.0656767
-0.96683306 -1.2452422 2.3880565
-0.93951172 -1.2126477 1.913247
-0.31996661 -0.33261278 7.8213573
-0.57742494 -0.64679831 8.043705
-0.90451908 -1.1383481 5.6354108
-1.1244131 -1.4286438 4.9982109
-1.0394431 -1.328249 3.5512023
-0.98434705 -1.2618928 2.687958
-0.9546271 -1.2268524 2.1331723
-0.92821789 -1.1950411 1.7186928
-0.92169672 -1.1947906 1.5626749
-0.89993244 -1.167827 1.2711912
-0.88384324 -1.1481758 1.0345929
-0.87867212 -1.1422706 0.84092361
-0.86787152 -1.1290331 0.66367197
-0.85933608 -1.1187249 0.5045895
-0.84645838 -1.1027486 0.35540363
-0.83337253 -1.0864733 0.21587551
-0.91376913 -1.1810931 1.411168
-0.88645852 -1.147019 1.139092
-0.88378668 -1.1443748 0.93528539
-0.87392867 -1.1328239 0.74886233
-0.8623926 -1.1186655 0.58074868
-0.84845662 -1.1013712 0.42603585
-0.84290755 -1.0945547 0.28489769
-0.83163476 -1.0806842 0.14868335
-0.070666514 -0.038987488 7.8239756
-0.76902956 -0.94390231 7.7402415
-0.74685532 -0.92872918 5.7531524
-1.1928703 -1.503741 6.183321
-1.0716722 -1.3606312 4.1398888
-1.0037755 -1.279894 3.0481203
-0.96597302 -1.2352101 2.3756578
-0.93979484 -1.2043072 1.9055719
-0.32112569 -0.33149385 7.8213573
-0.58003604 -0.64517468 8.0486765
-0.90770149 -1.1342025 5.6305714
-1.1229603 -1.416597 4.9700541
-1.0386825 -1.3177743 3.5331974
-0.98230028 -1.2502464 2.6708941
-0.9533273 -1.2163981 2.1212022
-0.92820555 -1.1864536 1.7113425
-0.92148525 -1.1859341 1.5556659
-0.89923 -1.1585292 1.2649143
-0.8827213 -1.1384749 1.02911
-0.8772276 -1.1321932 0.83628595
-0.86896914 -1.1223313 0.66179895
-0.85736495 -1.1081306 0.50176948
-0.84729785 -1.0959011 0.35447103
-0.83411533 -1.0796169 0.21542843
-0.91100085 -1.1690611 1.4011915
-0.88549101 -1.1375388 1.1332057
-0.88248211 -1.1344779 0.93021905
-0.87509286 -1.1261827 0.7467643
-0.86339599 -1.1119187 0.5791052
-0.84931624 -1.0945626 0.42486352
-0.84368789 -1.0876929 0.28420702
-0.83234131 -1.0738261 0.14848182
-0.070802175 -0.038740579 7.8239756
-0.77231967 -0.94121218 7.7402415
-0.75009263 -0.92611653 5.7531524
-1.190657 -1.4902391 6.1451454
-1.0703435 -1.3492299 4.1168761
-1.0022982 -1.2688652 3.0305641
-0.96679604 -1.2274096 2.3673918
-0.93805051 -1.1934596 1.8940595
-0.32207853 -0.33016497 7.8163657
-0.58228457 -0.64314604 8.0486765
-0.91165507 -1.1310272 5.6305714
-1.1214373 -1.4045779 4.9418974
-1.0378612 -1.3073212 3.5151925
-0.98180282 -1.240675 2.6580963
-0.95196605 -1.2059678 2.1092322
-0.92814475 -1.1778809 1.7039921
-0.92122322 -1.1770936 1.5486567
-0.89847368 -1.1492504 1.2586373
-0.88411611 -1.1320913 1.0263685
-0.87844884 -1.125632 0.83396715
-0.86717957 -1.1119798 0.65805292
-0.85533029 -1.0975635 0.49894941
-0.84508169 -1.0851855 0.35260579
-0.83482033 -1.0727686 0.21498135
-0.9104653 -1.1599998 1.3945405
-0.88446826 -1.1280793 1.1273193
-0.8837781 -1.1279973 0.92768586
-0.8762213 -1.1195472 0.74466628
-0.86145359 -1.1014588 0.57581812
-0.8471455 -1.0839319 0.42251888
-0.84138197 -1.0769366 0.28282565
-0.82993561 -1.0630381 0.14807875
-0.070896953 -0.038475804 7.8189754
-0.77560043 -0.93851054 7.7402415
-0.75332081 -0.92349255 5.7531524
-1.1902361 -1.4790971 6.1165137
-1.0677288 -1.3363284 4.0892611
-1.0007563 -1.2578626 3.0130074
-0.96582735 -1.2174141 2.3549929
-0.93823159 -1.1851522 1.8863846
-0.32322904 -0.32903871 7.8163657
-0.58452606 -0.64110959 8.0486765
-0.91480511 -1.1268622 5.6257319
-1.1198441 -1.3925865 4.9137406
-1.0356201 -1.2951896 3.4926865
-0.97962493 -1.2290827 2.6410327
-0.95241904 -1.1979203 2.1012521
-0.92803526 -1.1693231 1.6966418
-0.92091072 -1.1682695 1.5416477
-0.89766359 -1.1399913 1.2523605
-0.88289201 -1.1224253 1.0208856
-0.8796351 -1.1190761 0.83164835
-0.86819208 -1.1053004 0.65617985
-0.85619438 -1.0907978 0.49753937
-0.84583288 -1.0783639 0.35167316
-0.83548778 -1.0659286 0.21453427
-0.9098776 -1.1509567 1.3878895
-0.88339031 -1.1186409 1.121433
-0.88236904 -1.1181376 0.92261952
-0.87450439 -1.1093534 0.74047017
-0.85944885 -1.0910262 0.5725311
-0.8479175 -1.077149 0.42134658
-0.84207362 -1.0701014 0.28213498
-0.83055317 -1.0562074 0.14787722
-0.071030833 -0.038228091 7.8189754
-0.77887172 -0.93579745 7.7402415
-0.75653982 -0.92085737 5.7531524
-1.1878718 -1.4656569 6.0783377
-1.0662622 -1.3249837 4.0662484
-0.99765211 -1.2450173 2.9910622
-0.96480078 -1.2074405 2.3425941
-0.93836606 -1.1768578 1.8787096
-0.32417187 -0.32770395 7.8113742
-0.58676034 -0.63906533 8.0486765
-0.91793734 -1.1226891 5.620893
-1.1170946 -1.3792827 4.8808918
-1.0346726 -1.2847853 3.4746816
-0.97737807 -1.2175211 2.6239688
-0.95094407 -1.1875327 2.0892823
-0.92787743 -1.1607805 1.6892914
-0.92054796 -1.159462 1.5346385
-0.89679998 -1.1307517 1.2460835
-0.8842079 -1.1160592 1.018144
-0.8807863 -1.1125258 0.82932955
-0.86629218 -1.0949918 0.65243381
-0.85404652 -1.0802763 0.4947193
-0.84654671 -1.0715504 0.35074055
-0.83611763 -1.0590969 0.21408717
-0.90923798 -1.141932 1.3812386
-0.88225734 -1.109224 1.1155467
-0.88090193 -1.1083014 0.91755313
-0.87554926 -1.1027398 0.73837209
-0.85738182 -1.0806212 0.56924409
-0.84563249 -1.0665653 0.41900194
-0.839652 -1.0593938 0.28075361
-0.83113313 -1.0493855 0.14767569
-0.071163833 -0.037979916 7.8189754
-0.78213358 -0.93307304 7.7402415
-0.75974959 -0.91821092 5.7531524
-1.1873164 -1.4545639 6.0497055
-1.0659597 -1.3151832 4.0478387
-0.99747902 -1.2359364 2.977895
-0.96371633 -1.1974889 2.3301952
-0.93845415 -1.1685772 1.8710346
-0.32531381 -0.32657039 7.8113742
-0.58862519 -0.63662231 8.043705
-0.92105138 -1.118508 5.6160531
-1.1153569 -1.3673522 4.852735
-1.0322938 -1.2727127 3.4521756
-0.97506255 -1.2059901 2.6069052
-0.95129991 -1.1795154 2.0813022
-0.92554528 -1.1496127 1.6782659
-0.92013484 -1.1506711 1.5276293
-0.89588273 -1.1215323 1.2398067
-0.88288212 -1.1064293 1.0126611
-0.87914068 -1.1025177 0.82469195
-0.86433101 -1.0847101 0.64868772
-0.85482401 -1.0735359 0.49330926
-0.84722328 -1.0647449 0.34980792
-0.83671004 -1.0522739 0.21364009
-0.90854651 -1.1329259 1.3745875
-0.8835966 -1.102983 1.1126035
-0.8820712 -1.1018547 0.91501999
-0.87372404 -1.0925879 0.73417598
-0.85820061 -1.0739328 0.56760061
-0.84631723 -1.0598087 0.41782963
-0.83716577 -1.0487159 0.27937225
-0.82856017 -1.038667 0.14727263
-0.071295977 -0.037731275 7.8189754
-0.78538585 -0.93033713 7.7402415
-0.7636022 -0.91633534 5.7580476
-1.1838539 -1.4400337 6.0067577
-1.0643662 -1.3038876 4.0248256
-0.99574399 -1.2250135 2.9603386
-0.96434635 -1.1897455 2.3219295
-0.93849587 -1.1603103 1.8633596
-0.32645178 -0.32543284 7.8113742
-0.5908438 -0.63456374 8.043705
-0.92495012 -1.1152861 5.6160531
-1.1124542 -1.3541175 4.8198857
-1.0312206 -1.2623583 3.4341707
-0.97432554 -1.1965125 2.5941074
-0.94971138 -1.1691711 2.0693319
-0.92528188 -1.1411088 1.6709156
-0.91743469 -1.1391202 1.5171157
-0.89491218 -1.1123332 1.2335297
-0.88411933 -1.1000816 1.0099196
-0.88020992 -1.0959885 0.82237315
-0.86230856 -1.0744554 0.64494163
-0.85556489 -1.0668032 0.49189925
-0.84479088 -1.0541149 0.34794268
-0.83726501 -1.0454599 0.21319301
-0.90780312 -1.1239383 1.3679365
-0.88236487 -1.0936006 1.1067171
-0.88050038 -1.0920573 0.90995359
-0.87468565 -1.0859969 0.73207796
-0.85602242 -1.0635734 0.56431359
-0.84391892 -1.0492731 0.41548499
-0.83461541 -1.0380688 0.27799088
-0.82905155 -1.0318738 0.14707109
-0.071427248 -0.037482176 7.8189754
-0.78862852 -0.92759001 7.7402415
-0.76679605 -0.91366422 5.7580476
-1.1803046 -1.4255457 5.9638104
-1.0627069 -1.2926192 4.0018129
-0.9954623 -1.2159711 2.9471714
-0.96315438 -1.1798328 2.3095305
-0.93646681 -1.1495724 1.8518469
-0.32758576 -0.32429135 7.8113742
-0.59305525 -0.63249749 8.043705
-0.92803162 -1.111086 5.6112137
-1.1105729 -1.3422494 4.7917295
-1.0287046 -1.2503461 3.4116647
-0.97353429 -1.1870548 2.5813096
-0.94806248 -1.1588526 2.0573621
-0.92497057 -1.1326206 1.6635653
-0.91691196 -1.1303717 1.5101067
-0.89388841 -1.1031545 1.2272528
-0.88269222 -1.0904887 1.0044367
-0.8812443 -1.0894653 0.82005435
-0.86313945 -1.0678334 0.64306861
-0.85626912 -1.0600785 0.49048921
-0.84537989 -1.0473373 0.34701008
-0.83465612 -1.0347785 0.21229887
-0.90700823 -1.11497 1.3612856
-0.88362771 -1.0873771 1.103774
-0.88158935 -1.0856308 0.90742046
-0.8756119 -1.0794123 0.72997987
-0.85675609 -1.0569105 0.56267005
-0.84451687 -1.042544 0.41431266
-0.83511734 -1.0313005 0.27730021
-0.8295058 -1.02509 0.14686957
-0.071597971 -0.037249312 7.8239756
-0.79186165 -0.92483151 7.7402415
-0.77063829 -0.91175967 5.7629433
-1.1757126 -1.4099537 5.9160905
-1.0622281 -1.2828832 3.983403
-0.99512959 -1.2069455 2.9340041
-0.96190506 -1.169943 2.2971318
-0.93640763 -1.1413407 1.844172
-0.32871574 -0.32314587 7.8113742
-0.59489298 -0.63003629 8.0387335
-0.93190438 -1.1078399 5.6112137
-1.1086223 -1.3304108 4.7635722
-1.0275065 -1.2400429 3.3936598
-0.97268891 -1.1776172 2.5685117
-0.94635296 -1.1485598 2.0453918
-0.92461103 -1.1241485 1.656215
-0.91633934 -1.1216409 1.5030977
-0.89281148 -1.0939965 1.2209759
-0.88385105 -1.0841599 1.0016953
-0.87944591 -1.0795138 0.81541675
-0.86100787 -1.0576237 0.63932252
-0.85390961 -1.0496409 0.48766914
-0.84283322 -1.0367568 0.34514484
-0.83512306 -1.0279934 0.21185179
-0.90852827 -1.108909 1.3579601
-0.88229764 -1.0780302 1.0978878
-0.88264436 -1.0792099 0.9048872
-0.87363124 -1.0693201 0.72578382
-0.85745376 -1.0502557 0.56102657
-0.84507811 -1.0358236 0.41314036
-0.83245248 -1.020704 0.27591884
-0.82992268 -1.0183154 0.14666803
-0.071727559 -0.036999162 7.8239756
-0.79559261 -0.92264998 7.7451806
-0.77447635 -0.90983921 5.7678385
-1.1719862 -1.3955544 5.8731422
-1.060443 -1.2716658 3.9603903
-0.99474609 -1.1979371 2.9208369
-0.96239328 -1.1622435 2.2888658
-0.93426043 -1.1306528 1.8326594
-0.3296344 -0.32179555 7.8063827
-0.59708858 -0.62795591 8.0387335
-0.93495309 -1.1036211 5.6063743
-1.1066027 -1.3186024 4.7354155
-1.0262489 -1.2297635 3.3756549
-0.9717896 -1.1682001 2.5557141
-0.94458336 -1.1382931 2.0334218
-0.92420387 -1.115693 1.6488646
-0.91571701 -1.1129279 1.4960885
-0.89168155 -1.0848597 1.214699
-0.88232309 -1.074605 0.99621236
-0.88039887 -1.0730128 0.81309795
-0.86175495 -1.0510269 0.6374495
-0.85452807 -1.0429432 0.4862591
-0.84333497 -1.0300075 0.34421217
-0.83239925 -1.0173635 0.21095763
-0.9076407 -1.0999713 1.3513091
-0.8834843 -1.071825 1.0949446
-0.8809244 -1.0694679 0.89982086
-0.87447476 -1.0627595 0.72368574
-0.85811538 -1.0436088 0.55938309
-0.84560287 -1.0291119 0.41196805
-0.83286709 -1.0139654 0.27522817
-0.83030248 -1.0115507 0.14646651
-0.071856275 -0.036748562 7.8239756
-0.7988084 -0.91986728 7.7451806
-0.77831048 -0.90790302 5.7727332
-1.1729941 -1.3868965 5.8540545
-1.0585927 -1.2604768 3.9373775
-0.99277526 -1.1871092 2.9032805
-0.96103716 -1.1523939 2.2764668
-0.93410069 -1.1224575 1.8249844
-0.33075565 -0.32064295 7.8063827
-0.59890777 -0.62548327 8.033761
-0.9387998 -1.1003507 5.6063743
-1.1045142 -1.3068244 4.7072592
-1.0249323 -1.2195082 3.3576503
-0.97251147 -1.1608028 2.5471821
-0.94468611 -1.130365 2.0254416
-0.92374903 -1.1072539 1.6415143
-0.91504496 -1.1042329 1.4890795
-0.89298093 -1.0787424 1.2115605
-0.88073921 -1.0650738 0.99072945
-0.87849528 -1.0631038 0.80846035
-0.86246651 -1.0444378 0.63557649
-0.85205692 -1.032554 0.48343906
-0.84379995 -1.0232676 0.34327957
-0.83277839 -1.0106086 0.21051055
-0.90670162 -1.0910532 1.344658
-0.88463837 -1.0656246 1.0920014
-0.88189971 -1.0630686 0.89728767
-0.87528318 -1.0562061 0.72158772
-0.8557291 -1.0333331 0.55609608
-0.84609097 -1.0224093 0.41079572
-0.83324492 -1.0072364 0.2745375
-0.82746202 -1.0009451 0.14606345
-0.071984112 -0.036497511 7.8239756
-0.80201447 -0.91707331 7.7451806
-0.78147489 -0.90518075 5.7727332
-1.1720198 -1.375976 5.8254223
-1.0566772 -1.2493165 3.9143653
-0.99228394 -1.1781415 2.8901134
-0.95962417 -1.1425682 2.2640681
-0.93183607 -1.1118208 1.8134719
-0.33166417 -0.31928697 7.8013906
-0.60071695 -0.62300569 8.0287905
-0.94181579 -1.0961139 5.6015353
-1.1023571 -1.2950771 4.6791024
-1.0235567 -1.209277 3.3396454
-0.97151148 -1.1514214 2.5343843
-0.94280457 -1.1201448 2.0134716
-0.9232465 -1.0988317 1.634164
-0.91660869 -1.0982941 1.4855748
-0.89175582 -1.0696397 1.2052836
-0.88177556 -1.05878 0.987988
-0.87936711 -1.056626 0.80614156
-0.86314279 -1.0378567 0.63370347
-0.85258991 -1.0258844 0.48202902
-0.84108979 -1.012758 0.34141433
-0.8331207 -1.0038633 0.21006347
-0.90571159 -1.0821552 1.3380071
-0.88316721 -1.0563284 1.0861151
-0.88007718 -1.0533677 0.89222133
-0.87314826 -1.0461757 0.71739161
-0.85630637 -1.0267134 0.55445254
-0.84654284 -1.015716 0.40962341
-0.83041602 -0.99671245 0.27315614
-0.82775432 -0.9942112 0.14586191
-0.072111078 -0.03624602 7.8239756
-0.8046971 -0.9136852 7.7402415
-0.78529811 -0.90321559 5.7776289
-1.1709838 -1.3650794 5.7967906
-1.0546968 -1.2381847 3.8913527
-0.99019289 -1.1673653 2.8725572
-0.95997161 -1.1349148 2.2558022
-0.93157625 -1.1036628 1.805797
-0.3327767 -0.3181273 7.8013906
-0.60251617 -0.62052304 8.023819
-0.94563615 -1.0928197 5.6015353
-1.1012548 -1.2846711 4.6556387
-1.0221221 -1.1990703 3.3216405
-0.97045803 -1.1420614 2.5215867
-0.94281173 -1.1122502 2.0054917
-0.92269653 -1.0904264 1.6268137
-0.91584742 -1.0896282 1.4785657
-0.89298111 -1.0635394 1.2021452
-0.88009173 -1.0492884 0.98250502
-0.88020438 -1.0501549 0.80382276
-0.86378342 -1.0312835 0.63183039
-0.85308671 -1.0192235 0.48061898
-0.84146827 -1.0060481 0.3404817
-0.833426 -0.99712801 0.20961639
-0.90707707 -1.0761324 1.3346816
-0.88424563 -1.0501474 1.083172
-0.87819767 -1.0436925 0.887155
-0.87387443 -1.0396473 0.71529353
-0.85684782 -1.0201024 0.55280906
-0.8469581 -1.0090318 0.40845108
-0.83070707 -0.99001426 0.27246544
-0.82479978 -0.98365927 0.14545885
-0.072237156 -0.035994083 7.8239756
-0.80788153 -0.91087079 7.7402415
-0.78844613 -0.90046895 5.7776289
-1.1698859 -1.3542067 5.7681584
-1.0539238 -1.2285649 3.8729424
-0.98959452 -1.1584392 2.8593898
-0.95845252 -1.1251308 2.2434032
-0.93127096 -1.0955204 1.7981219
-0.33367503 -0.31676576 7.7963991
-0.6039322 -0.61765474 8.013875
-0.94861901 -1.0885646 5.5966954
-1.0989655 -1.2729824 4.6274824
-1.0206288 -1.1888885 3.3036354
-0.96935105 -1.1327227 2.5087888
-0.94081885 -1.1020775 1.9935215
-0.92209917 -1.0820388 1.6194633
-0.91503686 -1.0809809 1.4715567
-0.89166147 -1.0544719 1.1958683
-0.88105065 -1.0430156 0.97976357
-0.87814975 -1.0403062 0.79918516
-0.86438888 -1.0247185 0.62995738
-0.85354745 -1.0125717 0.47920895
-0.84181011 -0.99934769 0.33954909
-0.83369452 -0.99040294 0.20916931
-0.90599489 -1.0672667 1.3280305
-0.88529158 -1.0439717 1.0802288
-0.87904841 -1.0373319 0.8846218
-0.87163329 -1.0296627 0.71109742
-0.85735351 -1.0135 0.55116552
-0.84733713 -1.0023571 0.40727875
-0.83096141 -0.98332614 0.27177477
-0.82500505 -0.9769572 0.14525732
-0.072362363 -0.035741709 7.8239756
-0.8110562 -0.90804517 7.7402415
-0.79158455 -0.89771122 5.7776289
-1.1677467 -1.3422326 5.734755
-1.0518192 -1.2174872 3.8499298
-0.98738384 -1.1477158 2.8418336
-0.9587093 -1.117507 2.2351375
-0.93092012 -1.0873934 1.790447
-0.33477873 -0.31559908 7.7963991
-0.6049611 -0.61440486 7.998961
-0.9515838 -1.0843022 5.591856
-1.0966082 -1.2613254 4.5993257
-1.020501 -1.1803787 3.2901318
-0.96819079 -1.1234057 2.4959908
-0.94073099 -1.0942171 1.9855415
-0.92366236 -1.0762408 1.6157881
-0.91417718 -1.0723525 1.4645475
-0.89281309 -1.0483897 1.1927298
-0.8792671 -1.0335643 0.97428066
-0.87890649 -1.0338596 0.79686636
-0.86495894 -1.0181619 0.62808436
-0.85397214 -1.0059291 0.47779894
-0.84211546 -0.99265724 0.33861646
-0.83070594 -0.97988951 0.20827515
-0.90486217 -1.058422 1.3213795
-0.88368016 -1.0347279 1.0743425
-0.87706709 -1.0276992 0.87955546
-0.86933309 -1.0197064 0.70690131
-0.85782367 -1.0069066 0.54952204
-0.84767991 -0.99569225 0.40610644
-0.83117926 -0.97664827 0.2710841
-0.82193696 -0.96646005 0.14485426
-0.072486676 -0.0354889 7.8239756
-0.81370103 -0.90463102 7.735302
-0.79471338 -0.89494264 5.7776289
-1.1645542 -1.3291672 5.696579
-1.0509326 -1.2079132 3.8315196
-0.98667896 -1.1388323 2.8286664
-0.95708472 -1.1077659 2.2227387
-0.93052393 -1.0792824 1.7827719
-0.33587831 -0.3144286 7.7963991
-0.60635048 -0.61153328 7.9890184
-0.95536286 -1.0809739 5.591856
-1.0953199 -1.2509987 4.5758619
-1.0188965 -1.1702423 3.2721272
-0.96697742 -1.1141108 2.4831932
-0.94059974 -1.0863707 1.9775614
-0.92297965 -1.0678805 1.6084378
-0.91326845 -1.0637436 1.4575385
-0.89139915 -1.0393579 1.1864529
-0.88014889 -1.0273135 0.97153914
-0.87674797 -1.0240555 0.79222876
-0.86549383 -1.0116138 0.62621135
-0.854361 -0.99929601 0.4763889
-0.84557539 -0.98971164 0.33861646
-0.83088773 -0.97319645 0.20782807
-0.90367866 -1.0495981 1.3147285
-0.88465089 -1.0285727 1.0713993
-0.87783915 -1.0213623 0.87702227
-0.86993068 -1.0132223 0.70480323
-0.85825831 -1.0003223 0.5478785
-0.8448227 -0.98534733 0.4037618
-0.83136064 -0.96998101 0.2703934
-0.8220557 -0.95979071 0.14465272
-0.072610117 -0.035235658 7.8239756
-0.81685382 -0.90178514 7.735302
-0.79783243 -0.8921631 5.7776289
-1.1612849 -1.3161407 5.6584034
-1.0487046 -1.196891 3.808507
-0.98592389 -1.1299677 2.8154991
-0.95725125 -1.1001728 2.2144728
-0.9300825 -1.0711875 1.775097
-0.33718598 -0.31345001 7.8013906
-0.60735011 -0.6082828 7.9741035
-0.95913035 -1.0776324 5.591856
-1.0928314 -1.2394023 4.5477052
-1.0186691 -1.1617684 3.2586234
-0.96742743 -1.1068016 2.4746614
-0.94042528 -1.0785388 1.9695814
-0.92224973 -1.0595381 1.6010875
-0.91231084 -1.055154 1.4505293
-0.89247745 -1.0332944 1.1833144
-0.88099778 -1.021069 0.96879768
-0.87742448 -1.0176339 0.78990996
-0.86599368 -1.0050746 0.62433827
-0.85471386 -0.99267244 0.47497886
-0.84582108 -0.98303038 0.33768386
-0.82778621 -0.9627381 0.20693392
-0.90244466 -1.0407954 1.3080776
-0.88294291 -1.0193679 1.065513
-0.87575632 -1.0117732 0.87195593
-0.86752504 -1.0033134 0.70060712
-0.85865736 -0.99374723 0.54623502
-0.84508044 -0.97871351 0.40258947
-0.83150566 -0.96332443 0.26970273
-0.82213777 -0.95313227 0.1444512
-0.072732672 -0.034981985 7.8239756
-0.81999671 -0.89892834 7.735302
-0.80094182 -0.88937271 5.7776289
-1.1579391 -1.3031533 5.6202273
-1.0477051 -1.1873639 3.790097
-0.9867003 -1.1229213 2.806721
-0.95552164 -1.0904756 2.2020738
-0.92959607 -1.0631088 1.767422
-0.33827808 -0.31227112 7.8013906
-0.60833436 -0.6050328 7.9591889
-0.96288621 -1.0742779 5.591856
-1.0914212 -1.2291286 4.5242414
-1.0169539 -1.1516788 3.2406185
-0.966115 -1.0975454 2.4618633
-0.94020766 -1.0707214 1.9616013
-0.92147291 -1.0512139 1.5937371
-0.91130441 -1.046584 1.4435203
-0.89096957 -1.0242994 1.1770375
-0.88181388 -1.0148313 0.96605617
-0.87516236 -1.0078756 0.78527236
-0.86341995 -0.99504274 0.62059224
-0.85503107 -0.98605871 0.47356883
-0.84603053 -0.97635967 0.33675122
-0.82788187 -0.95607799 0.20648684
-0.90361625 -1.0348266 1.304752
-0.88383871 -1.0132338 1.0625699
-0.87645012 -1.0054606 0.86942273
-0.86804157 -0.99685645 0.6985091
-0.85902113 -0.98718172 0.54459149
-0.84530216 -0.97208983 0.40141717
-0.83161438 -0.95667869 0.26901206
-0.82218355 -0.94648504 0.14424966
-0.07285434 -0.03472789 7.8239756
-0.82312953 -0.89606047 7.735302
-0.80472565 -0.88732553 5.7825241
-1.1555122 -1.2913175 5.586823
-1.046652 -1.1778585 3.7716868
-0.98585218 -1.11409 2.7935538
-0.95559818 -1.0829139 2.1938081
-0.92906439 -1.0550466 1.7597468
-0.33936605 -0.31108838 7.8013906
-0.60930341 -0.60178339 7.9442744
-0.96663028 -1.0709102 5.591856
-1.0888025 -1.217594 4.4960847
-1.0166277 -1.143242 3.2271149
-0.96647978 -1.0902634 2.4533315
-0.93994695 -1.0629187 1.9536213
-0.92064923 -1.0429081 1.5863868
-0.91024941 -1.0380341 1.4365112
-0.89197475 -1.0182554 1.1738991
-0.87984347 -1.0054537 0.96057326
-0.87575907 -1.0014799 0.78295356
-0.86383748 -0.98853201 0.61871922
-0.85531235 -0.97945476 0.47215876
-0.84620363 -0.96969938 0.33581862
-0.82794106 -0.94942904 0.20603976
-0.90229148 -1.0260587 1.2981011
-0.88203478 -1.0040693 1.0566835
-0.87711054 -0.99915564 0.86688954
-0.86852348 -0.99040806 0.69641101
-0.85934949 -0.98062575 0.54294801
-0.84869027 -0.9691332 0.40141717
-0.83168691 -0.95004398 0.26832137
-0.82219297 -0.93984914 0.14404814
-0.072975121 -0.034473367 7.8239756
-0.82625234 -0.89318174 7.735302
-0.807818 -0.88451111 5.7825241
-1.1530169 -1.2795147 5.5534196
-1.0455453 -1.1683749 3.7532768
-0.98495442 -1.1052781 2.7803864
-0.95563358 -1.0753648 2.1855421
-0.92848796 -1.047001 1.7520717
-0.34066409 -0.31009543 7.8063827
-0.61025709 -0.59853458 7.9293599
-0.97036248 -1.0675296 5.591856
-1.0872715 -1.2073748 4.472621
-1.0148025 -1.1332 3.20911
-0.96506882 -1.0810468 2.4405339
-0.93964326 -1.0551307 1.9456413
-0.919779 -1.034621 1.5790365
-0.91150647 -1.0321774 1.4330066
-0.89294869 -1.0122168 1.1707606
-0.88058323 -0.99923939 0.9578318
-0.87632173 -0.99509245 0.78063476
-0.86115736 -0.97855031 0.61497313
-0.85555822 -0.97286105 0.47074872
-0.84634066 -0.96304983 0.33488598
-0.82796401 -0.9427914 0.20559268
-0.90339208 -1.0201077 1.2947755
-0.88285589 -0.99795699 1.0537404
-0.87773752 -0.99285817 0.8643564
-0.86897093 -0.98396856 0.69431299
-0.85964257 -0.97407961 0.54130447
-0.84885299 -0.96251935 0.40024486
-0.83172327 -0.94342053 0.2676307
-0.82216603 -0.93322474 0.1438466
-0.073095009 -0.034218427 7.8239756
-0.82936507 -0.89029217 7.735302
-0.81159014 -0.8824352 5.7874193
-1.1504534 -1.2677453 5.5200157
-1.0443854 -1.1589135 3.7348666
-0.98240757 -1.0947038 2.76283
-0.95375133 -1.0657321 2.1731431
-0.9278667 -1.0389726 1.7443968
-0.34174445 -0.30890441 7.8063827
-0.61081326 -0.59491497 7.9094739
-0.97493184 -1.0650628 5.5966954
-1.0856824 -1.1971812 4.4491572
-1.0129197 -1.1231847 3.1911051
-0.96534896 -1.0737927 2.4320021
-0.93929672 -1.0473582 1.9376612
-0.91660053 -1.0238268 1.5680109
-0.91036379 -1.0236598 1.4259976
-0.8913061 -1.0032742 1.1644837
-0.88129014 -0.9930321 0.95509034
-0.87685061 -0.98871326 0.77831602
-0.86149299 -0.97206897 0.61310011
-0.85576838 -0.96627748 0.46933872
-0.84644151 -0.95641118 0.33395338
-0.82795078 -0.93616515 0.2051456
-0.90197688 -1.0113751 1.2881246
-0.88095629 -0.98883337 1.0478541
-0.87833136 -0.98656875 0.8618232
-0.86938417 -0.97753799 0.69221497
-0.85990053 -0.96754342 0.53966099
-0.84897983 -0.95591623 0.39907253
-0.83172357 -0.93680841 0.26694003
-0.82210296 -0.92661208 0.14364508
-0.073214009 -0.033963069 7.8239756
-0.83246773 -0.88739175 7.735302
-0.81466544 -0.87959683 5.7874193
-1.148829 -1.257111 5.4913836
-1.0431721 -1.1494745 3.7164567
-0.98140478 -1.0859376 2.7496629
-0.9536975 -1.0582159 2.1648772
-0.92720079 -1.0309612 1.7367218
-0.34282064 -0.3077096 7.8063827
-0.61135161 -0.59129888 7.8895879
-0.97864366 -1.0616531 5.5966954
-1.0851992 -1.1882877 4.4303861
-1.0124431 -1.114808 3.1776016
-0.9655903 -1.06655 2.42347
-0.93890744 -1.0396007 1.9296812
-0.91562843 -1.0155855 1.5606607
-0.90917277 -1.0151628 1.4189885
-0.89220738 -0.9972561 1.1613452
-0.87917817 -0.98371452 0.94960743
-0.87734562 -0.9823426 0.77599716
-0.86179394 -0.96559721 0.6112271
-0.85594302 -0.9597044 0.46792868
-0.84323806 -0.94611657 0.33208814
-0.82790136 -0.92955053 0.20469853
-0.90051174 -1.0026649 1.2814735
-0.88170326 -0.98274374 1.0449109
-0.878892 -0.98028713 0.85929
-0.86976308 -0.9711166 0.69011688
-0.86012334 -0.96101725 0.53801745
-0.84907103 -0.94932407 0.39790022
-0.83168787 -0.93020773 0.26624933
-0.82200372 -0.92001122 0.14344354
-0.073332116 -0.033707298 7.8239756
-0.83609402 -0.88504517 7.7402415
-0.81842548 -0.87749207 5.7923141
-1.1461334 -1.2454056 5.4579797
-1.0419058 -1.1400582 3.6980464
-0.98035294 -1.0771919 2.7364957
-0.95171165 -1.0486295 2.1524785
-0.92649037 -1.0229672 1.7290468
-0.34410891 -0.30670238 7.8113742
-0.61148727 -0.58731753 7.8647308
-0.98234361 -1.0582306 5.5966954
-1.0834992 -1.1781421 4.4069219
-1.010451 -1.1048419 3.1595967
-0.96579283 -1.0593187 2.4149382
-0.93847543 -1.0318589 1.9217011
-0.91460997 -1.0073636 1.5533104
-0.91032219 -1.0093349 1.415484
-0.89047211 -0.98835236 1.1550683
-0.8798092 -0.97753167 0.94686598
-0.8778069 -0.97598058 0.77367836
-0.86206025 -0.95913523 0.60935402
-0.85608232 -0.95314199 0.46651864
-0.84325427 -0.9395116 0.33115551
-0.82781595 -0.92294776 0.20425145
-0.90150148 -0.9967463 1.2781481
-0.88241845 -0.97666097 1.0419677
-0.87653065 -0.97081423 0.85422367
-0.87010777 -0.96470445 0.68801886
-0.86031109 -0.95450139 0.53637397
-0.84912658 -0.94274282 0.39672789
-0.83161622 -0.92361885 0.26555866
-0.82186842 -0.91342235 0.14324202
-0.073449329 -0.033451118 7.8239756
-0.83917832 -0.88212121 7.7402415
-0.82148343 -0.87462991 5.7923141
-1.1433704 -1.2337343 5.4245763
-1.0405864 -1.1306647 3.6796365
-0.9792521 -1.0684668 2.7233284
-0.95156902 -1.041147 2.1442127
-0.92573541 -1.0149908 1.7213718
-0.34517741 -0.30549935 7.8113742
-0.61083013 -0.58260763 7.8299298
-0.98603147 -1.0547953 5.5966954
-1.0817415 -1.168023 4.3834581
-1.0098766 -1.0965046 3.1460929
-0.96419275 -1.0501779 2.4021404
-0.93800086 -1.0241328 1.9137211
-0.91354519 -0.99916095 1.5459599
-0.90904433 -1.0008717 1.4084748
-0.89130116 -0.98235554 1.1519299
-0.87759966 -0.96825844 0.941383
-0.87526065 -0.96634412 0.76904076
-0.86229187 -0.95268321 0.607481
-0.85618627 -0.94659019 0.4651086
-0.84323466 -0.93291819 0.3302229
-0.82769454 -0.91635686 0.20380437
-0.89994663 -0.98807281 1.271497
-0.88038158 -0.96759558 1.0360813
-0.87701386 -0.96455926 0.85169047
-0.87041843 -0.9583019 0.68592077
-0.85728997 -0.94449937 0.5330869
-0.84914666 -0.93617296 0.39555559
-0.83150882 -0.91704184 0.26486799
-0.82169735 -0.90684569 0.14304048
-0.073565647 -0.033194527 7.8239756
-0.84225237 -0.87918651 7.7402415
-0.82523137 -0.87249666 5.7972097
-1.1415583 -1.2231885 5.3959441
-1.0392143 -1.1212945 3.6612263
-0.97972667 -1.0615225 2.7145503
-0.94947994 -1.0316077 2.1318138
-0.92493612 -1.0070323 1.7136967
-0.34602413 -0.30410281 7.8063827
-0.61247265 -0.58010584 7.8249583
-0.99056917 -1.0522621 5.6015353
-1.0787493 -1.1566685 4.3553019
-1.007776 -1.0865887 3.1280882
-0.9643113 -1.0429763 2.3936086
-0.93748385 -1.0164226 1.905741
-0.91243452 -0.9909783 1.5386096
-0.91012537 -0.99506092 1.4049703
-0.88947356 -0.97349161 1.1456529
-0.87815511 -0.96210086 0.93864155
-0.87564319 -0.96001023 0.76672196
-0.85936612 -0.94281524 0.60373497
-0.85625488 -0.94004941 0.46369857
-0.84317935 -0.92633635 0.32929027
-0.82418621 -0.90609419 0.2029102
-0.90086627 -0.98217392 1.2681715
-0.88102299 -0.96153647 1.0331382
-0.87455308 -0.95513344 0.84662414
-0.87069494 -0.95190895 0.68382275
-0.85739571 -0.9380157 0.53144342
-0.84913117 -0.92961442 0.39438328
-0.83136559 -0.9104768 0.26417729
-0.82149041 -0.90028161 0.14283895
-0.073639832 -0.032923263 7.8189754
-0.84585583 -0.87680024 7.7451806
-0.82827199 -0.86961079 5.7972097
-1.1396867 -1.2126708 5.3673124
-1.0364562 -1.1105195 3.6382136
-0.97853434 -1.0528337 2.7013831
-0.94924909 -1.0241598 2.1235478
-0.92409259 -0.99909163 1.7060218
-0.34730175 -0.30308214 7.8113742
-0.61449385 -0.57796437 7.8249583
-0.99423623 -1.048798 5.6015353
-1.0768726 -1.1466073 4.3318381
-1.0056186 -1.076701 3.1100833
-0.96261406 -1.033878 2.3808105
-0.9348737 -1.0065209 1.8937708
-0.91358286 -0.98530143 1.5349344
-0.90876085 -0.98663193 1.3979613
-0.89023066 -0.9675166 1.1425145
-0.87867838 -0.95595121 0.93590009
-0.87599212 -0.95368546 0.76440316
-0.85951698 -0.93639451 0.60186189
-0.85628837 -0.93351978 0.46228856
-0.84308845 -0.91976637 0.32835767
-0.82398027 -0.89953953 0.20246312
-0.8992222 -0.97353798 1.2615205
-0.88163292 -0.95548469 1.030195
-0.87495953 -0.94890583 0.844091
-0.87093747 -0.94552577 0.68172467
-0.85746652 -0.93154281 0.52979988
-0.84578961 -0.91949004 0.39203864
-0.83118677 -0.90392405 0.26348662
-0.82462794 -0.8974086 0.14283895
-0.073754303 -0.032666009 7.8189754
-0.84891123 -0.8738423 7.7451806
-0.8313024 -0.8667143 5.7972097
-1.1387819 -1.203265 5.3434525
-1.0349739 -1.1012011 3.6198037
-0.97729325 -1.0441662 2.6882157
-0.94897777 -1.0167259 2.1152818
-0.92538983 -0.99351466 1.7021843
-0.34835759 -0.30186796 7.8113742
-0.61611754 -0.57545251 7.8199873
-0.99875915 -1.04623 5.6063743
-1.0761248 -1.1378268 4.313067
-1.004896 -1.0684274 3.0965798
-0.96264911 -1.0267067 2.3722787
-0.93426442 -0.99885035 1.8857908
-0.9123891 -0.97715092 1.5275841
-0.90977395 -0.98083919 1.3944566
-0.88831127 -0.95869327 1.1362376
-0.8791694 -0.94980973 0.93315864
-0.87630779 -0.94737011 0.76208436
-0.85963351 -0.92998427 0.59998888
-0.85628676 -0.9270013 0.46087852
-0.84296197 -0.91320837 0.32742503
-0.82373863 -0.89299738 0.20201604
-0.90007192 -0.96765947 1.258195
-0.88221121 -0.94944048 1.0272518
-0.87533313 -0.94268703 0.8415578
-0.87114614 -0.93915254 0.67962664
-0.85750282 -0.9250809 0.5281564
-0.84569091 -0.91296625 0.39086631
-0.83097231 -0.89738375 0.26279593
-0.82436228 -0.8908577 0.14263742
-0.07386788 -0.032408357 7.8189754
-0.85195637 -0.87087375 7.7451806
-0.83432275 -0.8638072 5.7972097
-1.1367953 -1.1927999 5.3148203
-1.0334393 -1.0919065 3.6013935
-0.97764641 -1.0372629 2.6794376
-0.94866627 -1.0093066 2.1070161
-0.92446637 -0.98560303 1.6945094
-0.34940919 -0.30065015 7.8113742
-0.61773121 -0.57293642 7.8150153
-1.0032765 -1.0436432 5.6112137
-1.0741386 -1.1278161 4.2896028
-1.004128 -1.060172 3.083076
-0.96085536 -1.0176516 2.3594811
-0.93361306 -0.99119639 1.8778108
-0.91347194 -0.97149038 1.523909
-0.90832323 -0.97244537 1.3874475
-0.88899684 -0.95274091 1.1330991
-0.87962824 -0.94367641 0.93041718
-0.87658995 -0.94106412 0.75976557
-0.85971576 -0.92358464 0.59811586
-0.85625005 -0.92049438 0.45946848
-0.8394556 -0.90306473 0.32555979
-0.82346141 -0.88646787 0.20156896
-0.9008916 -0.96178681 1.2548696
-0.87999654 -0.94045264 1.0213655
-0.87567395 -0.93647718 0.83902454
-0.8713209 -0.93278933 0.67752856
-0.85750443 -0.91863018 0.52651286
-0.84555709 -0.90645438 0.38969401
-0.82734501 -0.88723415 0.26141456
-0.82406098 -0.88431978 0.14243589
-0.073980555 -0.032150313 7.8189754
-0.85499114 -0.86789453 7.7451806
-0.83804309 -0.86161935 5.8021049
-1.1357833 -1.1834403 5.2909603
-1.0318522 -1.0826362 3.5829835
-0.97631443 -1.028633 2.6662703
-0.94831455 -1.0019017 2.0987501
-0.92349905 -0.97771007 1.6868343
-0.35045654 -0.29942867 7.8113742
-0.61933476 -0.57041597 7.8100438
-1.0077877 -1.0410378 5.6160531
-1.0732903 -1.1190785 4.2708321
-1.0033147 -1.0519348 3.0695722
-0.96080732 -1.0105116 2.3509493
-0.93291974 -0.98355931 1.8698307
-0.91219538 -0.96337271 1.5165586
-0.90926862 -0.96667123 1.383943
-0.88698614 -0.94395906 1.1268222
-0.87719333 -0.93450302 0.92493427
-0.8768388 -0.93476766 0.75744677
-0.8597638 -0.91719574 0.59624279
-0.85289896 -0.91049802 0.45664841
-0.84260279 -0.90012896 0.32555979
-0.82655078 -0.88358808 0.20156896
-0.89911914 -0.95320415 1.2482185
-0.88050187 -0.9344334 1.0184224
-0.87598217 -0.93027639 0.83649141
-0.87146187 -0.92643642 0.67543054
-0.85747141 -0.91219068 0.52486938
-0.84538811 -0.89995474 0.3885217
-0.82704717 -0.88073093 0.26072389
-0.82372415 -0.8777948 0.14223436
-0.074092329 -0.031891879 7.8189754
-0.85801542 -0.86490476 7.7451806
-0.84104562 -0.85868883 5.8021049
-1.13472 -1.1741024 5.2671008
-1.0315663 -1.0747997 3.5691757
-0.97493428 -1.0200253 2.6531031
-0.94792265 -0.99451178 2.0904841
-0.92248785 -0.96983594 1.6791594
-0.35127875 -0.29801753 7.8063827
-0.62092829 -0.56789142 7.8050723
-1.012293 -1.0384135 5.620893
-1.0723943 -1.1103607 4.2520609
-1.0024562 -1.0437165 3.0560689
-0.95891732 -1.0015007 2.3381512
-0.93426597 -0.978118 1.8658408
-0.91321307 -0.95772922 1.5128835
-0.90773225 -0.95831335 1.3769339
-0.88760042 -0.93803 1.1236838
-0.87757748 -0.9283967 0.92219275
-0.87705445 -0.9284811 0.75512797
-0.85977787 -0.91081792 0.59436977
-0.85278028 -0.90402591 0.4552384
-0.84237015 -0.8936078 0.32462719
-0.82621533 -0.87707257 0.20112188
-0.89986932 -0.94735283 1.2448931
-0.8809759 -0.92842221 1.0154792
-0.87625784 -0.92408502 0.83395821
-0.87156922 -0.92009395 0.67333251
-0.85740405 -0.90576267 0.52322584
-0.84852439 -0.89699835 0.3885217
-0.82671398 -0.87424058 0.26003322
-0.8233518 -0.87128299 0.14203283
-0.074225269 -0.031581242 7.8189754
-0.86178112 -0.86115277 7.7451806
-0.84550011 -0.85573494 5.8070002
-1.1335793 -1.1627281 5.2384686
-1.0321689 -1.0660779 3.5553682
-0.97605067 -1.0123136 2.644325
-0.94835198 -0.98630959 2.0822184
-0.92227221 -0.96117634 1.6714844
-0.35262746 -0.2964204 7.8063827
