# .PCD v0.7 - Point Cloud Data file format
VERSION 0.7
FIELDS x y z
SIZE 4 4 4
TYPE F F F
COUNT 1 1 1
WIDTH 1540
HEIGHT 1
VIEWPOINT 0 0 0 1 0 0 0
POINTS 1540
DATA ascii
1.1519623 -0.4694339 7.9081759
1.5072979 -0.60315424 7.8287287
2.2814605 -0.89525199 7.8821478
3.1332767 -1.2170429 7.978394
4.0689754 -1.5707762 8.0604486
5.1513925 -1.9804276 8.178318
6.4576025 -2.4748802 8.3564167
1.074813 -0.55284715 20.739771
1.5873749 -0.73999256 16.29143
1.8838296 -0.74863964 7.8421888
2.7048097 -1.0603601 7.9546537
3.5928013 -1.3970233 8.0344114
4.6276269 -1.7911093 8.1867466
5.8390284 -2.2518318 8.3615999
7.0951071 -2.7291667 8.3192883
8.0223074 -3.0553365 8.5156946
10.098738 -3.8401299 8.7940712
9.0531397 -3.4624298 8.7139664
0.19574542 -0.21687485 32.078049
1.1452875 -0.47138035 7.8736014
1.5051832 -0.60841203 7.8287287
2.2783217 -0.90321034 7.8821478
3.1308279 -1.2286865 7.9829965
4.0634675 -1.58497 8.0604486
5.1392021 -1.9963592 8.1700516
6.4758248 -2.5078239 8.390954
1.0728767 -0.55659556 20.739771
1.586711 -0.74643797 16.311316
1.881205 -0.75521088 7.8421888
2.7010918 -1.0697953 7.9546537
3.5838506 -1.4079638 8.0254087
4.6383486 -1.8139013 8.216608
5.7834029 -2.2536006 8.2937698
7.0855374 -2.7539167 8.3192883
8.0215788 -3.0871634 8.5262079
10.085272 -3.8753576 8.7940712
9.0479641 -3.4967022 8.7206173
0.19498719 -0.2175568 32.078049
1.1400481 -0.47388291 7.8489051
1.5030503 -0.61366236 7.8287287
2.2751551 -0.91115761 7.8821478
3.1283362 -1.2403278 7.9875989
4.0579104 -1.5991445 8.0604486
5.1295829 -2.0132582 8.1659184
6.4998651 -2.5432613 8.4331665
1.0709273 -0.56033719 20.739771
1.5860214 -0.75288761 16.331202
1.8785572 -0.76177287 7.8421888
2.6973412 -1.0792173 7.9546537
3.5768905 -1.4196621 8.0209074
4.6465421 -1.8358314 8.2422047
5.7474632 -2.2627361 8.2538691
7.0758815 -2.7786329 8.3192883
8.0041056 -3.11256 8.5191994
10.068054 -3.9091294 8.7909327
9.0357027 -3.528264 8.7206173
0.19425483 -0.21826942 32.08305
1.134089 -0.47605368 7.8192692
1.5008991 -0.61890525 7.8287287
2.2719605 -0.91909385 7.8821478
3.1276147 -1.2526932 7.9968042
4.0523038 -1.6132994 8.0604486
5.1199083 -2.0301144 8.1617861
6.4939289 -2.5671129 8.4370041
1.0689648 -0.56407207 20.739771
1.5853062 -0.75934166 16.351088
1.8758868 -0.76832563 7.8421888
2.6935575 -1.0886261 7.9546537
3.5719132 -1.432139 8.0209074
4.6401052 -1.8520396 8.2422047
5.7059312 -2.2694211 8.2059898
7.0818949 -2.8095665 8.3376646
7.953362 -3.1248314 8.4771452
10.054348 -3.9442496 8.7909327
9.016386 -3.5570426 8.7139664
0.19349174 -0.21894616 32.08305
1.1309899 -0.4794026 7.809391
1.4987296 -0.62414062 7.8287287
2.2687385 -0.92701888 7.8821478
3.1250339 -1.2643358 8.0014067
4.0466475 -1.6274347 8.0604486
5.1127906 -2.0479736 8.1617861
6.4819512 -2.5885763 8.4331665
1.0669893 -0.56779999 20.739771
1.5845649 -0.7657997 16.370974
1.8731934 -0.77486902 7.8421888
2.6897409 -1.0980219 7.9546537
3.5648749 -1.4437815 8.016407
4.6457067 -1.8731017 8.2635336
5.6951785 -2.2882011 8.2019997
7.0972195 -2.8443596 8.3670654
7.9092588 -3.1394176 8.4420996
10.040519 -3.9793217 8.7909327
9.0108509 -3.5912585 8.7206173
0.1927263 -0.21962023 32.08305
1.1300238 -0.48365355 7.8143306
1.4965419 -0.62936836 7.8287287
2.2641089 -0.93436301 7.8773756
3.1242182 -1.2767146 8.0106115
4.0409417 -1.6415503 8.0604486
5.1030021 -2.0647528 8.1576529
6.4401789 -2.5979962 8.390954
1.065255 -0.57165784 20.744761
1.5833193 -0.77202803 16.385889
1.8704772 -0.78140301 7.8421888
2.6858916 -1.107404 7.9546537
3.5598135 -1.4562165 8.016407
4.6270628 -1.8843883 8.2422047
5.6899486 -2.3092003 8.2059898
7.106102 -2.876749 8.3891163
7.8519111 -3.1484249 8.3930359
10.026567 -4.0143456 8.7909327
9.0017242 -3.6240847 8.7239428
0.19198637 -0.22032522 32.088051
1.1283287 -0.48759511 7.8143306
1.4943358 -0.63458842 7.8287287
2.2608337 -0.94226056 7.8773756
3.1233544 -1.2891033 8.0198164
4.0329714 -1.6547366 8.0560598
5.1009731 -2.0846822 8.1659184
6.3984203 -2.6071563 8.3487425
1.063253 -0.57537282 20.744761
1.5825273 -0.77849251 16.405773
1.8677381 -0.78792739 7.8421888
2.6836033 -1.1174363 7.9593468
3.5547087 -1.4686337 8.016407
4.6108088 -1.8965596 8.2251406
5.6818533 -2.3290477 8.2059898
7.1211205 -2.9118016 8.4185181
7.8276515 -3.1704586 8.3790169
10.012493 -4.0493202 8.7909327
8.9890184 -3.6554847 8.7239428
0.19160153 -0.22065996 32.088051
1.1274759 -0.48956364 7.8143306
1.4924006 -0.63653529 7.8238339
2.2593508 -0.94581068 7.8773756
3.1251612 -1.2949589 8.0290222
4.0306568 -1.6603661 8.0560598
5.1036296 -2.0930483 8.1741848
6.3596287 -2.6004138 8.3026915
1.0627505 -0.57630044 20.744761
1.5832813 -0.78058136 16.420689
1.8671876 -0.78923118 7.8421888
2.6828225 -1.1193095 7.9593468
3.5519278 -1.4696623 8.0119057
4.5977583 -1.8940065 8.2038107
5.6838279 -2.3321748 8.20998
7.1357908 -2.9207079 8.4368935
7.8287125 -3.186805 8.3860264
10.00612 -4.065043 8.7909327
8.9858255 -3.6633275 8.7239428
0.19080243 -0.2212937 32.08305
1.1257602 -0.4934963 7.8143306
1.4900576 -0.64200097 7.8238339
2.2558689 -0.95408529 7.8773756
3.1219678 -1.307704 8.0336246
4.0242519 -1.6758304 8.0560598
5.1003852 -2.1156752 8.1824503
6.3254433 -2.6161213 8.2719917
1.0602258 -0.58093208 20.744761
1.581291 -0.7881965 16.435602
1.8635869 -0.79769599 7.8421888
2.6777155 -1.1314722 7.9593468
3.5449626 -1.4863839 8.0119057
4.579155 -1.9116327 8.1867466
5.6723628 -2.3599234 8.20998
7.099514 -2.9464483 8.4111671
7.8175406 -3.2141128 8.3860264
9.9911537 -4.1016903 8.7909327
8.9697552 -3.7025006 8.7239428
0.1900288 -0.22195838 32.08305
1.1240307 -0.49742293 7.8143306
1.4878075 -0.64719832 7.8238339
2.2525249 -0.96195388 7.8773756
3.1191833 -1.3193549 8.0382271
4.0183778 -1.6898675 8.0560598
5.0981603 -2.1356404 8.1907167
6.3162727 -2.6381855 8.2719917
1.0581915 -0.58462942 20.744761
1.5799583 -0.79443073 16.450518
1.8607912 -0.80419624 7.8421888
2.6737497 -1.1408123 7.9593468
3.5397527 -1.4987493 8.0119057
4.5604386 -1.9225395 8.1654177
5.6640906 -2.3797092 8.20998
7.0891862 -2.9712124 8.4111671
7.8029804 -3.2400141 8.3825216
9.9767752 -4.1365404 8.7909327
8.9567766 -3.7337885 8.7239428
0.18922541 -0.22258642 32.078049
1.1222875 -0.50134349 7.8143306
1.4855393 -0.6523878 7.8238339
2.250524 -0.97040206 7.8821478
3.1163554 -1.3310022 8.0428295
4.0124545 -1.7038839 8.0560598
5.0880828 -2.1523271 8.1865835
6.3011189 -2.657726 8.2643166
1.0561444 -0.5883196 20.744761
1.5786015 -0.80066526 16.465433
1.8579726 -0.81068677 7.8421888
2.6697512 -1.1501385 7.9593468
3.5344994 -1.5110961 8.0119057
4.5441012 -1.9343603 8.1483536
5.6557493 -2.399466 8.20998
7.0444288 -2.981405 8.3707399
7.850821 -3.2920554 8.4456034
9.9622755 -4.1713409 8.7909327
8.9436884 -3.7650309 8.7239428
0.18844728 -0.22324559 32.078049
1.1205306 -0.50525796 7.8143306
1.4832531 -0.65756929 7.8238339
2.2484915 -0.9788478 7.8869195
3.1134841 -1.3426459 8.0474319
4.004281 -1.7169356 8.0516701
5.0753622 -2.1678636 8.178318
6.2947521 -2.6809609 8.2681541
1.0543358 -0.59214437 20.749752
1.5767459 -0.8066569 16.475376
1.8551315 -0.81716734 7.8421888
2.6657202 -1.1594508 7.9593468
3.5292032 -1.5234246 8.0119057
4.5277376 -1.9460909 8.1312904
5.6445694 -2.4180071 8.2059898
7.0028052 -2.9926541 8.3339891
7.8983936 -3.3444705 8.5086861
9.9476538 -4.2060905 8.7909327
8.9270554 -3.7947662 8.7206173
0.18766685 -0.22390203 32.078049
1.1180531 -0.5088442 7.809391
1.4800193 -0.66232675 7.8189383
2.2477942 -0.98789203 7.8964639
3.1051962 -1.351946 8.0382271
4.0026593 -1.732806 8.0604486
5.0625963 -2.1833379 8.1700516
6.2853556 -2.7029171 8.2681541
1.0522624 -0.59582108 20.749752
1.5748675 -0.81264526 16.485317
1.8511194 -0.82312715 7.8373494
2.6600764 -1.1680547 7.9546537
3.5258596 -1.5366043 8.016407
4.5137391 -1.9587687 8.1184921
5.6360946 -2.4376957 8.2059898
6.9860907 -3.0143936 8.3266382
7.9522529 -3.4000614 8.5787764
9.9329109 -4.2407885 8.7909327
8.9137545 -3.8259044 8.7206173
0.18691126 -0.22458997 32.08305
1.1162701 -0.51274377 7.809391
1.4776984 -0.66748893 7.8189383
2.2470608 -0.99694312 7.9060073
3.0986695 -1.3619907 8.0336246
4.00317 -1.7496449 8.073616
5.0497847 -2.1987495 8.1617861
6.2758822 -2.7248409 8.2681541
1.0499257 -0.59934711 20.744761
1.5729666 -0.8186304 16.49526
1.8482348 -0.82958376 7.8373494
2.655983 -1.1773331 7.9546537
3.5204744 -1.5489025 8.016407
4.5020967 -1.9724195 8.1099596
5.6275511 -2.4573543 8.2059898
6.9568777 -3.0306375 8.3045874
7.992722 -3.4504144 8.6348486
9.9180479 -4.275435 8.7909327
8.8969202 -3.8555114 8.7172918
0.18615313 -0.22527532 32.088051
1.1144735 -0.51663721 7.809391
1.4744329 -0.67222041 7.814043
2.2462916 -1.0060012 7.9155512
3.0903249 -1.3712138 8.0244188
4.0189495 -1.7732766 8.117506
5.0395026 -2.2152309 8.1576529
6.2663326 -2.746731 8.2681541
1.0475773 -0.60286409 20.739771
1.5705714 -0.82436419 16.500233
1.8453277 -0.83603024 7.8373494
2.6518571 -1.186597 7.9546537
3.5130568 -1.5602981 8.0119057
4.4951839 -1.9881227 8.1099596
5.6161819 -2.4757679 8.2019997
6.9462566 -3.0549033 8.3045874
7.9806294 -3.4782932 8.6348486
9.9030638 -4.3100295 8.7909327
8.8834076 -3.886544 8.7172918
0.18539248 -0.22595814 32.093052
1.1126633 -0.52052426 7.809391
1.4720775 -0.67736304 7.814043
2.2468469 -1.0156811 7.9298677
3.0819538 -1.3803954 8.015214
4.0346127 -1.7970397 8.161397
5.0291672 -2.231667 8.1535206
6.2537751 -2.7672908 8.2643166
1.0454664 -0.60651708 20.739771
1.5686262 -0.83034086 16.510176
1.8423983 -0.84246653 7.8373494
2.6476989 -1.1958464 7.9546537
3.5095754 -1.5734422 8.016407
4.4858356 -2.0027387 8.1056938
5.6075058 -2.4953568 8.2019997
6.9355507 -3.0791316 8.3045874
7.9684391 -3.5061297 8.6348486
9.8879576 -4.3445711 8.7909327
8.8663721 -3.9160206 8.7139664
0.18462935 -0.22663839 32.098053
1.1108395 -0.524405 7.809391
1.4697042 -0.68249738 7.814043
2.2446458 -1.0241376 7.9346399
3.0735564 -1.3895353 8.0060101
4.0348687 -1.8140587 8.1745644
5.0213466 -2.2492085 8.1535206
6.2440777 -2.7891037 8.2643166
1.0433429 -0.61016279 20.739771
1.5661882 -0.83606261 16.515146
1.8394462 -0.84889263 7.8373494
2.6435084 -1.2050813 7.9546537
3.5020783 -1.5847857 8.0119057
4.4788175 -2.0183849 8.1056938
5.5987611 -2.5149155 8.2019997
6.9247603 -3.1033225 8.3045874
7.956152 -3.5339231 8.6348486
9.8727331 -4.3790603 8.7909327
8.8526478 -3.9469461 8.7139664
0.18383712 -0.22728148 32.098053
1.1090022 -0.52827936 7.809391
1.4682348 -0.68805575 7.8189383
2.2397013 -1.0313423 7.9298677
3.06691 -1.3994445 8.0014067
4.028512 -1.8281319 8.1745644
5.0134649 -2.2667227 8.1535206
6.234304 -2.8108826 8.2643166
1.0412067 -0.613801 20.739771
1.5641987 -0.84203041 16.525089
1.8364719 -0.85530823 7.8373494
2.6408539 -1.215023 7.9593468
3.496525 -1.5970006 8.0119057
4.4717445 -2.0340066 8.1056938
5.5872035 -2.5331991 8.1980095
6.9138856 -3.1274753 8.3045874
7.9437675 -3.5616741 8.6348486
9.8538342 -4.4119048 8.7877941
8.835412 -3.9762912 8.7106409
0.18304265 -0.22792181 32.098053
1.1071514 -0.53214735 7.809391
1.4658241 -0.69317663 7.8189383
2.2360878 -1.0391539 7.9298677
3.0602319 -1.4093242 7.9968042
4.0308151 -1.8461722 8.1921206
5.0055218 -2.284209 8.1535206
6.2273717 -2.833955 8.2681541
1.0393057 -0.61757958 20.744761
1.5617182 -0.84773993 16.53006
1.8323376 -0.86117876 7.8325095
2.6365964 -1.224234 7.9593468
3.4909291 -1.6091959 8.0119057
4.4646173 -2.0496035 8.1056938
5.5783272 -2.5526865 8.1980095
6.9029264 -3.1515903 8.3045874
7.9312868 -3.5893812 8.6348486
9.8383732 -4.4462743 8.7877941
8.8214788 -4.0071087 8.7106409
0.18224593 -0.22855935 32.098053
1.1052871 -0.53600872 7.809391
1.4633955 -0.69828916 7.8189383
2.2310953 -1.046319 7.9250956
3.0535221 -1.4191742 7.9922018
4.0286946 -1.8622411 8.2008991
5.0000739 -2.302845 8.1576529
6.2174411 -2.8556752 8.2681541
1.0371436 -0.6212036 20.744761
1.5592171 -0.85344249 16.535034
1.8293202 -0.86756957 7.8325095
2.6323071 -1.2334299 7.9593468
3.4852908 -1.6213717 8.0119057
4.4574356 -2.0651753 8.1056938
5.5693827 -2.5721431 8.1980095
6.8918834 -3.1756668 8.3045874
7.9187093 -3.6170447 8.6348486
9.822793 -4.4805894 8.7877941
8.8040438 -4.0363207 8.7073154
0.181447 -0.22919412 32.098053
1.1027116 -0.53952193 7.8044519
1.4609491 -0.7033931 7.8189383
2.2274294 -1.0541008 7.9250956
3.0467811 -1.4289947 7.9875989
4.0156584 -1.873255 8.1877327
4.9945569 -2.3214705 8.1617861
6.2074351 -2.8773606 8.2681541
1.0352159 -0.62496972 20.749752
1.5571616 -0.85939568 16.544977
1.8262808 -0.87394983 7.8325095
2.6279857 -1.2426108 7.9593468
3.4776392 -1.6326027 8.0074043
4.4501996 -2.0807223 8.1056938
5.5549083 -2.5890224 8.1900291
6.8807559 -3.1997046 8.3045874
7.9092741 -3.6461573 8.6383533
9.8070927 -4.5148501 8.7877941
8.7898998 -4.067028 8.7073154
0.18061973 -0.22979115 32.093052
1.1008216 -0.5433678 7.8044519
1.457569 -0.70804334 7.814043
2.2223892 -1.0612261 7.9203234
3.0400083 -1.4387853 7.9829965
4.0112615 -1.8882809 8.1921206
4.9889703 -2.3400855 8.1659184
6.1944499 -2.8976529 8.2643166
1.033028 -0.6285795 20.749752
1.5550836 -0.86534494 16.55492
1.8232191 -0.88031942 7.8325095
2.6220744 -1.2510334 7.9546537
3.4699519 -1.6437999 8.002903
4.4429097 -2.0962436 8.1056938
5.5458369 -2.6083968 8.1900291
6.8664761 -3.2222631 8.3009129
7.8964987 -3.6737437 8.6383533
9.7912731 -4.5490556 8.7877941
8.77565 -4.0976858 8.7073154
0.1798165 -0.23042025 32.093052
1.0989181 -0.54720712 7.8044519
1.4550886 -0.7131269 7.814043
2.220016 -1.0696253 7.9250956
3.0349674 -1.4493883 7.9829965
3.9916658 -1.8961052 8.1657867
4.983315 -2.35869 8.1700516
6.1842976 -2.9192581 8.2643166
1.0305817 -0.63203031 20.744761
1.5539123 -0.87181234 16.574804
1.819005 -0.88612759 7.8276701
2.6176915 -1.2601786 7.9546537
3.4641929 -1.6559023 8.002903
4.435565 -2.1117394 8.1056938
5.558475 -2.6380754 8.2219496
6.8643775 -3.2505646 8.3119373
7.8836269 -3.7012854 8.6383533
9.7788591 -4.5848584 8.7909327
8.7612934 -4.1282935 8.7073154
0.17898521 -0.23101138 32.088051
1.0970013 -0.5510397 7.8044519
1.4525905 -0.71820176 7.814043
2.2162688 -1.077368 7.9250956
3.0298896 -1.4599733 7.9829965
3.978544 -1.9069215 8.1526184
4.9775906 -2.3772836 8.1741848
6.1682825 -2.9380708 8.2566423
1.0283692 -0.63562387 20.744761
1.5503958 -0.8769685 16.569834
1.8159008 -0.89247179 7.8276701
2.6117244 -1.2685543 7.9499607
3.4583914 -1.6679845 8.002903
4.4281669 -2.1272097 8.1056938
5.5764098 -2.6704772 8.2618494
6.87746 -3.2861989 8.3413391
7.8674359 -3.7272546 8.6348486
9.7627954 -4.6189651 8.7909327
8.746829 -4.1588511 8.7073154
0.17815197 -0.23159952 32.08305
1.0950711 -0.5548656 7.8044519
1.4500747 -0.72326785 7.814043
2.2138348 -1.0857551 7.9298677
3.0247748 -1.4705408 7.9829965
3.9610829 -1.9155838 8.1306734
4.971797 -2.3958657 8.178318
6.1724334 -2.9665265 8.2758293
1.0261441 -0.63920969 20.744761
1.5487138 -0.88316804 16.584747
1.8127745 -0.89880496 7.8276701
2.6072805 -1.2776631 7.9499607
3.452548 -1.6800463 8.002903
4.4207149 -2.1426539 8.1056938
5.5968986 -2.7043471 8.3057404
6.9453454 -3.3484659 8.4368935
7.8543773 -3.7546945 8.6348486
9.7466125 -4.6530156 8.7909327
8.7356253 -4.1909728 8.7106409
0.17734244 -0.23221999 32.08305
1.0931276 -0.55868477 7.8044519
1.4475412 -0.72832519 7.814043
2.2113693 -1.0941383 7.9346399
3.0213776 -1.4819508 7.9875989
3.9457629 -1.9251981 8.1131182
4.9634037 -2.4132059 8.178318
6.1908813 -3.0020399 8.3142042
1.0239067 -0.64278764 20.744761
1.5474695 -0.88963258 16.604633
1.809626 -0.90512729 7.8276701
2.6028047 -1.2867565 7.9499607
3.4466627 -1.6920877 8.002903
4.4132085 -2.158072 8.1056938
5.5982585 -2.7291493 8.3217001
7.0037332 -3.4067974 8.5214224
7.8412228 -3.7820885 8.6348486
9.7303114 -4.6870093 8.7909327
8.7209425 -4.2214403 8.7106409
0.17653076 -0.23283762 32.08305
1.0904803 -0.56214082 7.7995124
1.4458979 -0.73383462 7.8189383
2.2075365 -1.1018507 7.9346399
3.0179369 -1.4933548 7.9922018
3.9282746 -1.9336705 8.0911722
4.9524236 -2.4292774 8.1741848
6.2120347 -3.0391262 8.3564167
1.0219004 -0.64651257 20.749752
0.79794055 -0.46182543 8.5557699
1.8064555 -0.91143852 7.8276701
2.5982971 -1.2958341 7.9499607
3.4407351 -1.7041085 8.002903
4.4056482 -2.1734638 8.1056938
5.5751786 -2.7420249 8.3017502
7.0344062 -3.4521344 8.572875
7.8247666 -3.8078761 8.6313438
9.7103901 -4.7192445 8.7877941
8.7061539 -4.2518563 8.7106409
0.17571694 -0.23345241 32.08305
1.0885113 -0.56594384 7.7995124
1.4433275 -0.7388773 7.8189383
2.2036769 -1.1095498 7.9346399
3.0162017 -1.5056256 8.0014067
3.9129212 -1.9431101 8.073616
4.941391 -2.4453015 8.1700516
6.2071371 -3.0636292 8.3640919
1.0201238 -0.65038681 20.759735
0.79586357 -0.46433875 8.5507984
1.8032629 -0.91773868 7.8276701
2.5937581 -1.3048959 7.9499607
3.4347658 -1.7161084 8.002903
4.398035 -2.1888292 8.1056938
5.5628738 -2.7601299 8.29776
7.0192747 -3.4751637 8.5691996
7.8114271 -3.8351662 8.6313438
9.6938572 -4.7531109 8.7877941
8.6912594 -4.2822208 8.7106409
0.17490098 -0.23406436 32.08305
1.0865293 -0.56974006 7.7995124
1.4407395 -0.74391091 7.8189383
2.1984594 -1.1165593 7.9298677
3.0126727 -1.5170236 8.0060101
3.8954077 -1.951393 8.0516701
4.9303079 -2.4612784 8.1659184
6.2164898 -3.0952783 8.390954
1.0180901 -0.65410006 20.764729
0.79240113 -0.46603081 8.5309114
1.8000485 -0.92402768 7.8276701
2.5907261 -1.3147229 7.9546537
3.4287546 -1.7280875 8.002903
4.3903675 -2.2041678 8.1056938
5.5451217 -2.7754846 8.2857895
7.0101347 -3.5011592 8.572875
7.7979927 -3.8624098 8.6313438
9.677207 -4.7869201 8.7877941
8.676259 -4.3125324 8.7106409
0.17410801 -0.2347091 32.088051
1.0845339 -0.57352924 7.7995124
1.4381341 -0.74893552 7.8189383
2.1945486 -1.1242265 7.9298677
3.0108423 -1.5293001 8.015214
3.8928478 -1.9671392 8.0604486
4.9191732 -2.4772079 8.1617861
6.205647 -3.1169589 8.390954
1.0165269 -0.65812165 20.779703
0.78847861 -0.46743208 8.5060549
1.7968121 -0.93030536 7.8276701
2.5861211 -1.3237582 7.9546537
3.4246418 -1.7410324 8.0074043
4.3826466 -2.2194796 8.1056938
5.5165706 -2.7853169 8.2578592
6.994843 -3.5240824 8.5691996
7.7844629 -3.8896062 8.6313438
9.6604385 -4.8206706 8.7877941
8.6611519 -4.342792 8.7106409
0.17328766 -0.23531543 32.088051
1.0825253 -0.57731152 7.7995124
1.4355111 -0.75395101 7.8189383
2.1892848 -1.1311947 7.9250956
3.0089631 -1.5415823 8.0244188
3.8859572 -1.9807158 8.0604486
4.9079876 -2.4930894 8.1576529
6.1775742 -3.1299095 8.3679295
1.0134988 -0.6611917 20.764729
0.78318411 -0.46798962 8.4662828
1.7946678 -0.9371537 7.8325095
2.5814846 -1.3327775 7.9546537
3.4185436 -1.7529759 8.0074043
4.3771949 -2.2359507 8.1099596
5.4933896 -2.797719 8.2379093
6.9824991 -3.5484774 8.5691996
7.7708383 -3.9167554 8.6313438
9.6435528 -4.8543625 8.7877941
8.6426086 -4.3713136 8.7073154
0.17246521 -0.23591886 32.088051
1.0811877 -0.58145493 7.8044519
1.4328705 -0.75895727 7.8189383
2.185323 -1.1388298 7.9250956
3.007035 -1.5538702 8.0336246
3.8790197 -1.9942682 8.0604486
4.8967505 -2.5089231 8.1535206
6.1580486 -3.1470783 8.3564167
1.0102205 -0.6640898 20.744761
0.77835166 -0.46879154 8.4314823
1.7913857 -0.94341254 7.8325095
2.5752861 -1.3409833 7.9499607
3.4162712 -1.7668985 8.016407
4.3693633 -2.2512164 8.1099596
5.4594679 -2.8044853 8.2019997
6.9670529 -3.5712829 8.5655241
7.7571187 -3.943857 8.6313438
9.6265488 -4.8879952 8.7877941
8.6272974 -4.4014554 8.7073154
0.17164065 -0.23651946 32.088051
1.0791515 -0.58522546 7.8044519
1.4302126 -0.76395428 7.8189383
2.1813345 -1.1464511 7.9250956
3.0050576 -1.5661633 8.0428295
3.8720348 -2.0077963 8.0604486
4.8879628 -2.5260005 8.1535206
6.118536 -3.1538692 8.3180418
1.007656 -0.66745234 20.739771
0.77352321 -0.46956542 8.3966808
1.7891916 -0.95024961 7.8373494
2.5705895 -1.3499645 7.9499607
3.4178028 -1.7828401 8.0344114
4.3614783 -2.2664547 8.1099596
5.446969 -2.822139 8.1980095
6.9545445 -3.5955806 8.5655241
7.7433043 -3.9709103 8.6313438
9.6094284 -4.9215684 8.7877941
8.6085596 -4.4298344 8.70399
0.17078936 -0.23708114 32.08305
1.0771021 -0.58898884 7.8044519
1.4275372 -0.768942 7.8189383
2.177319 -1.1540585 7.9250956
2.9995725 -1.5766433 8.0428295
3.8628802 -2.02019 8.0560598
4.8816113 -2.5443482 8.1576529
6.0904264 -3.1663361 8.2950163
1.0034007 -0.66968089 20.699837
0.76869887 -0.47031134 8.3618803
1.7858638 -0.95648926 7.8373494
2.5673866 -1.359737 7.9546537
3.4173386 -1.7978005 8.0479155
4.3535404 -2.2816651 8.1099596
5.4370847 -2.8411353 8.1980095
6.9419508 -3.6198347 8.5655241
7.7293968 -3.9979153 8.6313438
9.5887318 -4.9532952 8.7846556
8.5930443 -4.459857 8.70399
0.16996075 -0.23767588 32.08305
1.0750395 -0.59274501 7.8044519
1.4248443 -0.77392036 7.8189383
2.1732774 -1.1616516 7.9250956
3.0164895 -1.5990002 8.1026621
3.8558049 -2.0336618 8.0560598
4.8751907 -2.5626819 8.1617861
6.0566273 -3.175669 8.2643166
1.0020144 -0.67382503 20.719803
0.76433229 -0.47130969 8.3320522
1.7825141 -0.96271729 7.8373494
2.5626247 -1.3686907 7.9546537
3.416811 -1.8127793 8.0614185
4.3593845 -2.3041608 8.1355562
5.424469 -2.8586922 8.1940193
6.9292731 -3.6440444 8.5655241
7.715394 -4.0248713 8.6313438
9.5713835 -4.9867358 8.7846556
8.577424 -4.4898252 8.70399
0.16910566 -0.23823148 32.078049
1.072964 -0.59649402 7.8044519
1.4221342 -0.77888924 7.8189383
2.1692092 -1.1692307 7.9250956
3.0332873 -1.6214942 8.1624947
3.8486826 -2.0471087 8.0560598
4.8736739 -2.5836382 8.1741848
6.045505 -3.1967912 8.2643166
1.00085 -0.67812991 20.744761
0.75951558 -0.47200143 8.2972517
1.7791427 -0.96893358 7.8373494
2.5578313 -1.3776275 7.9546537
3.4162209 -1.8277763 8.0749226
4.3628216 -2.3254976 8.1568851
5.4144568 -2.8776097 8.1940193
6.9165111 -3.66821 8.5655241
7.7012978 -4.0517788 8.6313438
9.5539179 -5.0201159 8.7846556
8.5616999 -4.5197387 8.70399
0.16827305 -0.23882033 32.078049
1.0701976 -0.59985554 7.7995124
1.4202979 -0.7843411 7.8238339
2.1651149 -1.1767956 7.9250956
3.0654416 -1.6524688 8.263751
3.8415136 -2.0605304 8.0560598
4.8695893 -2.6032882 8.1824503
6.025825 -3.2133501 8.2528048
0.99942964 -0.68227178 20.764729
0.75515497 -0.47294873 8.2674227
1.7768513 -0.97574317 7.8421888
2.5545235 -1.3873714 7.9593468
3.4174836 -1.8438251 8.0929279
4.3661637 -2.3468869 8.178215
5.4017234 -2.8950689 8.1900291
6.9036646 -3.6923306 8.5655241
7.6871071 -4.0786366 8.6313438
9.5328979 -5.0516124 8.781518
8.5458708 -4.5495973 8.70399
0.16746254 -0.23944263 32.08305
1.0680971 -0.60358763 7.7995124
1.4175513 -0.78929406 7.8238339
2.1609938 -1.1843461 7.9250956
3.0630875 -1.6650254 8.2729559
3.8321908 -2.0727878 8.0516701
4.8629498 -2.6216059 8.1865835
6.0202169 -3.2374003 8.260479
0.99727958 -0.6859203 20.769718
0.75034636 -0.47358626 8.2326212
1.7745341 -0.98254859 7.8470283
2.5481513 -1.3954508 7.9546537
3.4148507 -1.8578237 8.1019297
4.3671165 -2.3670845 8.1952791
5.3915854 -2.9139066 8.1900291
6.8907337 -3.7164066 8.5655241
7.672823 -4.1054449 8.6313438
9.5152063 -5.0848579 8.781518
8.5299377 -4.5794001 8.70399
0.16664971 -0.24006215 32.088051
1.0659838 -0.60731232 7.7995124
1.4147875 -0.79423743 7.8238339
2.1581528 -1.1926042 7.9298677
3.0349858 -1.6634992 8.2131224
3.8249319 -2.0861521 8.0516701
4.888381 -2.6573811 8.2444448
6.0032449 -3.2553394 8.2528048
0.99464214 -0.68923253 20.764729
0.74599224 -0.47448272 8.2027922
1.772191 -0.98934966 7.8518667
2.5432649 -1.404337 7.9546537
3.4045281 -1.8676386 8.0929279
4.367981 -2.3873174 8.2123423
5.381381 -2.932709 8.1900291
6.8777189 -3.740437 8.5655241
7.6553078 -4.1305099 8.62784
9.4973993 -5.118041 8.781518
8.5139008 -4.6091471 8.70399
0.16583461 -0.24067892 32.093052
1.0638573 -0.61102957 7.7995124
1.4120065 -0.79917115 7.8238339
2.1539769 -1.2001302 7.9298677
3.0137718 -1.6655774 8.1716995
3.8176267 -2.0994906 8.0516701
4.9012833 -2.6866024 8.281641
6.0115309 -3.2870393 8.2796669
0.99199367 -0.69253463 20.759735
0.74119246 -0.47506627 8.1679926
1.7698219 -0.99614644 7.8567066
2.5368395 -1.4123666 7.9499607
3.3884633 -1.8742423 8.0704212
4.3619051 -2.4038088 8.216608
5.3737516 -2.9529266 8.1940193
6.8616476 -3.7627919 8.5618486
7.6408429 -4.1572065 8.62784
9.479475 -5.1511617 8.781518
8.494482 -4.6370492 8.7006645
0.16501723 -0.24129292 32.098053
1.061718 -0.61473936 7.7995124
1.4092083 -0.80409509 7.8238339
2.1497746 -1.2076417 7.9298677
2.9874611 -1.6646752 8.1164703
3.8102748 -2.1128039 8.0516701
4.9288187 -2.7241135 8.3436356
6.0617719 -3.3420496 8.3640919
0.9893344 -0.69582671 20.754745
0.73639774 -0.47562221 8.1331921
1.7674271 -1.0029386 7.861546
2.531894 -1.4212133 7.9499607
3.3742955 -1.8818173 8.0524168
4.3398099 -2.4114196 8.1910133
5.3634109 -2.9716668 8.1940193
6.8484712 -3.7867205 8.5618486
7.623158 -4.1821375 8.6243353
9.4614363 -5.1842198 8.781518
8.4749737 -4.6648717 8.6973391
0.16417396 -0.24186747 32.098053
1.0595657 -0.6184417 7.7995124
1.4055104 -0.80850136 7.8189383
2.145546 -1.2151386 7.9298677
2.9628966 -1.6645665 8.0658417
3.8028767 -2.1260915 8.0516701
4.8701181 -2.7139049 8.2609768
6.0976939 -3.3896639 8.4293289
0.98689944 -0.69927591 20.754745
0.73160827 -0.47615048 8.0983915
1.7650064 -1.0097263 7.8663855
2.5269175 -1.4300425 7.9499607
3.360116 -1.8893162 8.0344114
4.3290906 -2.4252789 8.1867466
5.3530054 -2.9903703 8.1940193
6.8352118 -3.8106031 8.5618486
7.6085129 -4.2087216 8.6243353
9.4432831 -5.2172151 8.781518
8.4586382 -4.6944265 8.6973391
0.16330518 -0.2424023 32.093052
1.0567307 -0.62174219 7.7945728
1.4026797 -0.81340259 7.8189383
2.1412911 -1.2226205 7.9298677
2.9366693 -1.6633437 8.0106115
3.7954321 -2.139353 8.0516701
4.8606153 -2.7308884 8.2609768
6.1361527 -3.4391363 8.4984045
0.98421776 -0.70254856 20.749752
0.72637874 -0.47635826 8.0586195
1.761471 -1.0158812 7.8663855
2.5219104 -1.4388545 7.9499607
3.3591821 -1.9042548 8.0479155
4.3115153 -2.4352448 8.1696835
5.3399091 -3.0075591 8.1900291
6.818913 -3.8327777 8.5581732
7.5937753 -4.2352543 8.6243353
9.4250135 -5.2501464 8.781518
8.438942 -4.7221012 8.6940126
0.16245805 -0.24297088 32.093052
1.054554 -0.62542713 7.7945728
1.3989528 -0.8177799 7.814043
2.1357167 -1.2293427 7.9250956
2.9206662 -1.6677715 7.9829965
3.7879412 -2.1525884 8.0516701
4.8069806 -2.722873 8.1865835
6.1269011 -3.4621115 8.5022421
0.98199362 -0.70614868 20.754745
0.7211566 -0.47653529 8.0188475
1.759001 -1.0226557 7.8712249
2.5168726 -1.4476488 7.9499607
3.3525145 -1.9159689 8.0479155
4.2961893 -2.4464083 8.1568851
5.3293781 -3.0261803 8.1900291
6.8054924 -3.8565571 8.5581732
7.5789456 -4.2617359 8.6243353
9.4066305 -5.2830138 8.781518
8.4224072 -4.7515292 8.6940126
10.443392 -5.8844957 8.8119116
0.16158569 -0.24349955 32.088051
1.0523645 -0.62910444 7.7945728
1.3960897 -0.82265812 7.814043
2.1314125 -1.2367903 7.9250956
2.9131339 -1.6769816 7.978394
3.7804041 -2.1657977 8.0516701
4.7778974 -2.7284715 8.1535206
6.114779 -3.4834774 8.5022421
0.97835499 -0.70872378 20.729786
0.7159422 -0.47668174 7.979075
1.7554206 -1.0287895 7.8712249
2.5118041 -1.4564255 7.9499607
3.3476925 -1.9287466 8.0524168
4.280838 -2.4574943 8.1440878
5.3161674 -3.0432677 8.186039
6.7890458 -3.8786073 8.5544987
7.5640235 -4.2881656 8.6243353
9.3881321 -5.3158169 8.781518
8.4057703 -4.7809 8.6940126
10.440361 -5.9308972 8.8266277
0.16073473 -0.2440621 32.088051
1.0508275 -0.63317531 7.7995124
1.3932097 -0.82752639 7.814043
2.1270823 -1.2442228 7.9250956
2.9072626 -1.6871401 7.978394
3.7728209 -2.1789808 8.0516701
4.7659054 -2.7437289 8.1493874
6.1053615 -3.506397 8.5060797
0.97820467 -0.71383953 20.779703
0.71117795 -0.47709516 7.9442744
1.7518187 -1.0349108 7.8712249
2.5067048 -1.4651845 7.9499607
3.3428218 -1.9415138 8.0569181
4.2632046 -2.4671965 8.1270237
5.3055115 -3.0618062 8.186039
6.7754655 -3.902282 8.5544987
7.5490084 -4.3145428 8.6243353
9.3661385 -5.3466258 8.7783794
8.3890305 -4.8102126 8.6940126
10.437133 -5.9773488 8.8413429
0.15985882 -0.24458461 32.08305
1.0486109 -0.63683951 7.7995124
1.3903126 -0.83238453 7.814043
2.1214404 -1.2508818 7.9203234
2.9030418 -1.6982645 7.9829965
3.765192 -2.192137 8.0516701
4.7538652 -2.7589357 8.1452541
6.0903106 -3.5260813 8.5022421
0.9750098 -0.71673584 20.764729
0.70509577 -0.4765839 7.8945594
1.7481955 -1.0410196 7.8712249
2.5000882 -1.4730494 7.9452682
3.3247526 -1.9465705 8.0299101
4.2478089 -2.4781203 8.1142263
5.2947917 -3.080307 8.186039
6.7618027 -3.9259088 8.5544987
7.5339022 -4.3408675 8.6243353
9.3474188 -5.3792872 8.7783794
8.3721886 -4.8394666 8.6940126
10.430206 -6.0218287 8.853116
0.15900409 -0.24514113 32.08305
1.0463816 -0.64049596 7.7995124
1.3873985 -0.83723253 7.814043
2.1170611 -1.2582794 7.9203234
2.8970959 -1.7083876 7.9829965
3.7575169 -2.2052667 8.0516701
4.7442055 -2.7755129 8.1452541
6.0779653 -3.5473189 8.5022421
0.97203851 -0.71979058 20.754745
0.70254749 -0.47844103 7.8846169
1.7445509 -1.0471154 7.8712249
2.4949312 -1.4817674 7.9452682
3.3123133 -1.9548448 8.016407
4.2278924 -2.4863222 8.0928965
5.2840071 -3.0987706 8.186039
6.7480574 -3.9494879 8.5544987
7.5217876 -4.3689303 8.62784
9.3252172 -5.4099298 8.7752409
8.3552446 -4.8686614 8.6940126
10.416109 -6.0622663 8.8590021
0.15807922 -0.24558289 32.06805
1.0441395 -0.64414465 7.7995124
1.3853375 -0.84259975 7.8189383
2.1126561 -1.2656617 7.9203234
2.891115 -1.71849 7.9829965
3.7497964 -2.2183695 8.0516701
4.7344885 -2.7920563 8.1452541
6.0655456 -3.5685132 8.5022421
0.97414339 -0.72663796 20.854578
0.69867742 -0.47937965 7.8597589
1.7408853 -1.0531987 7.8712249
2.4897437 -1.4904673 7.9452682
3.2998569 -1.9630558 8.002903
4.2191877 -2.5010653 8.0928965
5.2731581 -3.1171963 8.186039
6.7342296 -3.9730194 8.5544987
7.5064921 -4.3951597 8.62784
9.3062763 -5.4424477 8.7752409
8.3381996 -4.8977971 8.6940126
10.39837 -6.1006341 8.8619452
0.15717585 -0.24605857 32.058052
1.0418847 -0.64778543 7.7995124
1.3823879 -0.84743035 7.8189383
2.1082251 -1.2730285 7.9203234
2.8834229 -1.7275673 7.978394
3.7420299 -2.2314451 8.0516701
4.7247138 -2.8085659 8.1452541
6.0502954 -3.5880294 8.4984045
0.97160107 -0.73003393 20.854578
0.69524747 -0.4806008 7.8398728
1.7371984 -1.0592692 7.8712249
2.4845257 -1.4991491 7.9452682
3.2873833 -1.9712038 7.989399
4.2126708 -2.5171158 8.0971622
5.2596569 -3.1340418 8.1820498
6.7203207 -3.9965019 8.5544987
7.4911036 -4.4213357 8.62784
9.2838688 -5.4729228 8.7721024
8.3178377 -4.9249706 8.6906872
10.380491 -6.1389518 8.8648882
0.15620364 -0.2464187 32.033051
1.0396171 -0.65141833 7.7995124
1.3794214 -0.85225058 7.8189383
2.1050436 -1.2811559 7.9250956
2.8773749 -1.7376218 7.978394
3.7342181 -2.2444937 8.0516701
4.7148809 -2.8250411 8.1452541
6.037734 -3.6091268 8.4984045
0.69138044 -0.48149869 7.8150153
1.7334902 -1.0653267 7.8712249
2.480752 -1.5087093 7.9499607
3.2804825 -1.9826669 7.989399
4.2038584 -2.5318055 8.0971622
5.2486854 -3.1523826 8.1820498
6.7063293 -4.0199356 8.5544987
7.4725599 -4.4456339 8.6243353
9.2647085 -5.5052967 8.7721024
8.3005962 -4.9539752 8.6906872
10.362471 -6.1772184 8.8678312
0.15534253 -0.24696244 32.033051
1.0373368 -0.6550433 7.7995124
1.3764379 -0.85706043 7.8189383
2.1005588 -1.2884961 7.9250956
2.8696232 -1.7466391 7.9737911
3.7263606 -2.2575147 8.0516701
4.7049909 -2.8414819 8.1452541
6.0250988 -3.6301806 8.4984045
0.68838763 -0.48298889 7.8001013
1.729761 -1.0713711 7.8712249
2.4754705 -1.5173596 7.9499607
3.2716825 -1.9929732 7.9848976
4.1949954 -2.5464642 8.0971622
5.2376494 -3.1706846 8.1820498
6.6893549 -4.0415678 8.5508242
7.456996 -4.4716911 8.6243353
9.2454348 -5.5376029 8.7721024
8.2832537 -4.9829187 8.6906872
10.340845 -6.2133522 8.8678312
0.15463495 -0.24776609 32.06805
1.0350441 -0.65866035 7.7995124
1.3734379 -0.86185992 7.8189383
2.0960484 -1.2958206 7.9250956
2.8635087 -1.7566454 7.9737911
3.7184575 -2.2705083 8.0516701
4.6974478 -2.8593514 8.1493874
6.0096507 -3.6495264 8.4945669
1.0682025 -0.82048976 23.130774
0.68626261 -0.48508063 7.7951293
1.7260107 -1.0774026 7.8712249
2.4701588 -1.5259913 7.9499607
3.2647059 -2.0043814 7.9848976
4.183856 -2.5597305 8.0928965
5.2239776 -3.1873784 8.1780596
6.6752067 -4.0648937 8.5508242
7.4413414 -4.4976935 8.6243353
9.2227163 -5.5678296 8.7689638
8.2658091 -5.0118032 8.6906872
10.319094 -6.2494106 8.8678312
0.15381327 -0.24837962 32.078049
1.0327386 -0.66226923 7.7995124
1.3704211 -0.86664885 7.8189383
2.0915122 -1.3031293 7.9250956
2.8590212 -1.7676578 7.978394
3.7227476 -2.2910063 8.0780058
4.689836 -2.8772025 8.1535206
5.9968753 -3.6704817 8.4945669
1.0667007 -0.82527518 23.160725
0.68413132 -0.48716336 7.7901578
1.7222393 -1.083421 7.8712249
2.4633522 -1.5336924 7.9452682
3.2595406 -2.0169106 7.989399
4.1748953 -2.5743194 8.0928965
5.2128196 -3.2055943 8.1780596
6.6609769 -4.0881696 8.5508242
7.4255962 -4.5236411 8.6243353
9.2032242 -5.5999889 8.7689638
8.2482643 -5.0406256 8.6906872
10.297215 -6.2853932 8.8678312
0.15303312 -0.24906591 32.098053
1.0304205 -0.66587013 7.7995124
1.3673875 -0.87142724 7.8189383
2.0869508 -1.3104221 7.9250956
2.8528335 -1.777627 7.978394
3.7289746 -2.3128242 8.1087284
4.6845512 -2.8965156 8.1617861
5.9840264 -3.6913922 8.4945669
1.0588086 -0.82508343 23.050907
0.6819939 -0.48923716 7.7851863
1.718447 -1.089426 7.8712249
2.4638307 -1.5459509 7.9640393
3.2524803 -2.0282762 7.989399
4.1658835 -2.5888767 8.0928965
5.1990366 -3.2221832 8.1740694
6.646666 -4.1113958 8.5508242
7.4067221 -4.547668 8.6208315
9.1836214 -5.6320801 8.7689638
8.2306185 -5.0693865 8.6906872
10.275213 -6.3212991 8.8678312
0.15222821 -0.24971195 32.113052
1.0280899 -0.66946292 7.7995124
1.3643374 -0.87619501 7.8189383
2.0811024 -1.3169007 7.9203234
2.8482656 -1.7886133 7.9829965
3.7350945 -2.3347132 8.139452
4.6791883 -2.9158266 8.1700516
5.9711046 -3.7122579 8.4945669
1.059552 -0.83163077 23.130774
0.67985046 -0.49130204 7.7802153
1.7146336 -1.0954179 7.8712249
2.4686286 -1.5609986 7.9968886
3.2453806 -2.0396173 7.989399
4.1546116 -2.6020184 8.0886307
5.1954246 -3.2451005 8.186039
6.6293974 -4.1327786 8.5471487
7.3908024 -4.5734944 8.6208315
9.1639051 -5.6641026 8.7689638
8.2128735 -5.0980859 8.6906872
10.24965 -6.3549976 8.8648882
0.1514857 -0.250469 32.143047
1.0257468 -0.6730476 7.7995124
1.3612705 -0.88095206 7.8189383
2.076493 -1.324157 7.9203234
2.8436556 -1.7995896 7.9875989
3.7350276 -2.352843 8.1570082
4.6785145 -2.9381289 8.1865835
5.9581099 -3.7330785 8.4945669
1.0550588 -0.83406895 23.095833
0.67770076 -0.49335787 7.7752433
1.7107995 -1.1013964 7.8712249
2.4733512 -1.5760982 8.0297375
3.2382412 -2.0509334 7.989399
4.1455035 -2.6165049 8.0886307
5.1917157 -3.2680318 8.1980095
6.6149306 -4.1558938 8.5471487
7.3747931 -4.5992656 8.6208315
9.1440783 -5.6960559 8.7689638
8.1950274 -5.1267228 8.6906872
10.227405 -6.3907371 8.8648882
0.15061048 -0.25099626 32.143047
1.0233912 -0.676624 7.7995124
1.3573344 -0.88514209 7.814043
2.0718582 -1.3313972 7.9203234
2.840651 -1.811606 7.9968042
3.7369018 -2.3722849 8.1789541
4.6658516 -2.9529371 8.1824503
5.9450431 -3.7538533 8.4945669
1.0532691 -0.83864737 23.12079
0.67597449 -0.49572045 7.7752433
1.7069445 -1.1073616 7.8712249
2.4779987 -1.5912498 8.0625868
3.2328975 -2.0633957 7.9939003
4.1363449 -2.6309595 8.0886307
5.1853652 -3.2893629 8.2059898
6.6003833 -4.1789594 8.5471487
7.3586936 -4.6249804 8.6208315
9.1241398 -5.7279401 8.7689638
8.1770821 -5.1552978 8.6906872
10.205034 -6.4263983 8.8648882
0.14966917 -0.25140637 32.128048
1.0203766 -0.67976105 7.7945728
1.3542364 -0.88987458 7.814043
2.067198 -1.3386213 7.9203234
2.8359535 -1.8225669 8.0014067
3.7346501 -2.3891864 8.1921206
4.6555157 -2.9692059 8.1824503
5.9319034 -3.7745824 8.4945669
1.0480855 -0.84050983 23.070873
0.67381161 -0.49775973 7.7702718
1.7030687 -1.1133131 7.8712249
2.507199 -1.6223923 8.1752138
3.2256751 -2.0746679 7.9939003
4.1271362 -2.6453819 8.0886307
5.2398605 -3.3496418 8.3097305
6.5857558 -4.2019734 8.5471487
7.3425045 -4.6506391 8.6208315
9.1040897 -5.7597542 8.7689638
8.1590366 -5.1838093 8.6906872
10.18254 -6.4619813 8.8648882
0.14874813 -0.25185111 32.11805
1.0186425 -0.68375206 7.7995124
1.3502729 -0.89403415 7.8091478
2.0625129 -1.345829 7.9203234
2.8328533 -1.834579 8.0106115
3.7202492 -2.3983154 8.1789541
4.635654 -2.9793522 8.1659184
5.9186912 -3.7952657 8.4945669
1.0464913 -0.84525341 23.100824
0.67207009 -0.50010878 7.7702718
1.6991721 -1.1192511 7.8712249
2.5232024 -1.6452737 8.2456045
3.2184136 -2.0859151 7.9939003
4.117877 -2.6597722 8.0886307
5.281332 -3.4021807 8.3935204
6.5681963 -4.223103 8.5434732
7.3262262 -4.6762404 8.6208315
9.0806475 -5.7894063 8.7658253
8.140892 -5.2122583 8.6906872
10.156516 -6.4953079 8.8619452
0.14782581 -0.25229248 32.108051
1.0162497 -0.6873036 7.7995124
1.347144 -0.89874202 7.8091478
2.0578024 -1.3530203 7.9203234
2.8280685 -1.8455242 8.015214
3.7098463 -2.409982 8.1745644
4.620502 -2.9924564 8.1576529
5.9054074 -3.8159027 8.4945669
1.0451003 -0.8501783 23.135767
0.67032021 -0.50245166 7.7702718
1.6952549 -1.1251756 7.8712249
2.5275393 -1.6607052 8.2784548
3.2111127 -2.0971367 7.9939003
4.1085672 -2.67413 8.0886307
5.3048077 -3.4435651 8.4493799
6.5534148 -4.2460046 8.5434732
7.3068585 -4.6998558 8.6173267
9.0603828 -5.8210683 8.7658253
8.1226482 -5.2406435 8.6906872
10.133781 -6.5307207 8.8619452
0.1469022 -0.25273049 32.098053
1.0138443 -0.6908468 7.7995124
1.3439986 -0.90343893 7.8091478
2.053067 -1.3601952 7.9203234
2.8281386 -1.8596786 8.0336246
3.6913919 -2.416358 8.1526184
4.6029587 -3.0039527 8.1452541
5.8920512 -3.836493 8.4945669
1.0434648 -0.85492069 23.165714
0.66856223 -0.50478846 7.7702718
1.691317 -1.1310862 7.8712249
2.5159714 -1.665707 8.2596836
3.2037728 -2.1083329 7.9939003
4.0992079 -2.6884553 8.0886307
5.2902341 -3.460412 8.4453907
6.5385537 -4.2688541 8.5434732
7.2904086 -4.7253327 8.6173267
9.0400085 -5.8526592 8.7658253
8.1011763 -5.2669306 8.6873627
10.110923 -6.5660548 8.8619452
0.14599824 -0.25320342 32.093052
1.0114266 -0.69438154 7.7995124
1.3408368 -0.90812486 7.8091478
2.0507894 -1.3690112 7.9298677
2.8167441 -1.8663019 8.0198164
3.6749382 -2.423954 8.1350632
4.5900931 -3.0184553 8.1411209
5.8786235 -3.8570368 8.4945669
1.041364 -0.85929394 23.185682
0.66679615 -0.50711912 7.7702718
1.6873585 -1.1369832 7.8712249
2.5130126 -1.6763948 8.2690687
3.196394 -2.1195033 7.9939003
4.0897985 -2.7027481 8.0886307
5.283154 -3.4821734 8.4533701
6.523613 -4.2916522 8.5434732
7.2738695 -4.7507524 8.6173267
9.016263 -5.8820524 8.7626867
8.0827417 -5.295177 8.6873627
10.084559 -6.5990949 8.8590021
0.14507201 -0.25363472 32.08305
1.0089966 -0.69790792 7.7995124
1.3376588 -0.91279972 7.8091478
2.0472367 -1.3769946 7.9346399
2.8053379 -1.8728684 8.0060101
3.6584761 -2.431464 8.117506
4.5748372 -3.0313506 8.1328554
5.8651237 -3.8775334 8.4945669
1.0396889 -0.86403251 23.215633
0.6650219 -0.50944358 7.7702718
1.6833793 -1.1428663 7.8712249
2.5057135 -1.6841938 8.2643766
3.1889758 -2.1306479 7.9939003
4.080339 -2.7170076 8.0886307
5.2684565 -3.4989269 8.4493799
6.5085926 -4.3143978 8.5434732
7.2542634 -4.7741537 8.613822
8.995676 -5.9134889 8.7626867
8.0610933 -5.3213019 8.6840372
10.061462 -6.6342568 8.8590021
0.14416516 -0.25410113 32.078049
1.0065542 -0.70142567 7.7995124
1.3336253 -0.91688645 7.8042531
2.0461245 -1.3866448 7.9489551
2.7955415 -1.8804685 7.9968042
3.6420069 -2.4388893 8.0999508
4.5642281 -3.0473013 8.1328554
5.851553 -3.8979831 8.4945669
1.036003 -0.86709964 23.200657
0.66323954 -0.51176178 7.7702718
1.6793797 -1.1487354 7.8712249
2.4998193 -1.6929302 8.2643766
3.181519 -2.1417665 7.9939003
4.0708303 -2.7312341 8.0886307
5.2587152 -3.5189717 8.4533701
6.4934926 -4.3370905 8.5434732
7.2375546 -4.7994466 8.613822
8.9749794 -5.9448538 8.7626867
8.042469 -5.3494077 8.6840372
10.038244 -6.6693373 8.8590021
0.1432773 -0.25460279 32.078049
1.0040997 -0.7049349 7.7995124
1.3304168 -0.92153615 7.8042531
2.0449698 -1.3963044 7.9632711
2.7824914 -1.8858306 7.978394
3.6235449 -2.4448893 8.0780058
4.5512285 -3.0616443 8.1287222
5.8379111 -3.9183848 8.4945669
1.0364982 -0.87369227 23.280525
0.66144913 -0.51407385 7.7702718
1.6753596 -1.1545905 7.8712249
2.4910438 -1.6997005 8.2549906
3.1740236 -2.152859 7.9939003
4.0612712 -2.7454271 8.0886307
5.2463994 -3.5373065 8.4533701
6.4783139 -4.3597302 8.5434732
7.220757 -4.8246813 8.613822
8.9541731 -5.9761462 8.7626867
8.0237474 -5.3774486 8.6840372
10.014902 -6.7043371 8.8590021
0.14236738 -0.25506279 32.073051
1.0016329 -0.7084356 7.7995124
1.3271919 -0.92617452 7.8042531
2.046232 -1.4076647 7.9871311
2.7791185 -1.8977356 7.9875989
3.6070657 -2.452137 8.0604486
4.5405135 -3.0775123 8.1287222
5.8241978 -3.9387393 8.4945669
1.0356405 -0.8791759 23.330441
0.65965068 -0.51637959 7.7702718
1.6713191 -1.1604315 7.8712249
2.4836733 -1.7074077 8.2502975
3.1664894 -2.1639252 7.9939003
4.0516634 -2.759587 8.0886307
5.2340198 -3.5555985 8.4533701
6.4630561 -4.3823175 8.5434732
7.200913 -4.8478651 8.6103172
8.9332581 -6.0073657 8.7626867
8.001832 -5.4033337 8.6807117
9.9880877 -6.7369938 8.8560581
0.14147617 -0.25555819 32.073051
0.99915391 -0.71192765 7.7995124
1.3239508 -0.93080169 7.8042531
2.0388525 -1.413098 7.9775877
2.7756965 -1.9096397 7.9968042
3.5905802 -2.4592986 8.0428915
4.5297432 -3.093343 8.1287222
5.8077645 -3.9572406 8.4907293
1.035634 -0.88541585 23.400324
0.65784419 -0.51867908 7.7702718
1.6672583 -1.1662586 7.8712249
2.4734428 -1.7131191 8.2362194
3.1589165 -2.1749651 7.9939003
4.042006 -2.7737131 8.0886307
5.2215767 -3.5738468 8.4533701
6.4477196 -4.4048514 8.5434732
7.1839471 -4.8729711 8.6103172
8.9122343 -6.0385118 8.7626867
7.9829226 -5.4312325 8.6807117
9.96451 -6.7718177 8.8560581
0.1406033 -0.25608921 32.078049
0.99603152 -0.71495765 7.7945728
1.3206937 -0.93541741 7.8042531
2.0277882 -1.4159328 7.9537272
2.7706192 -1.9204301 8.0014067
3.583945 -2.4731777 8.0472813
4.518918 -3.1091359 8.1287222
5.7939162 -3.9774895 8.4907293
1.0325371 -0.88902551 23.400324
0.65602964 -0.52097219 7.7702718
1.6631773 -1.1720712 7.8712249
2.4646177 -1.7197673 8.2268343
3.1513052 -2.1859787 7.9939003
4.0280085 -2.7848387 8.0800982
5.2090697 -3.592052 8.4533701
6.429512 -4.4254088 8.5397978
7.1668935 -4.8980184 8.6103172
8.8911018 -6.0695844 8.7626867
7.9639158 -5.459065 8.6807117
9.9408112 -6.8065586 8.8560581
0.13972847 -0.25661728 32.08305
0.99352986 -0.71843004 7.7945728
1.3174204 -0.94002181 7.8042531
2.0179503 -1.4195668 7.9346399
2.7655003 -1.9312083 8.0060101
3.5733237 -2.4843056 8.0428915
4.508038 -3.1248908 8.1287222
5.7773604 -3.9958665 8.4868917
1.0344387 -0.89698052 23.515131
0.65379119 -0.52292544 7.7653003
1.6590757 -1.1778697 7.8712249
2.4614229 -1.7303451 8.2362194
3.1436555 -2.1969655 7.9939003
4.0418034 -2.8152797 8.1270237
5.1964998 -3.610213 8.4533701
6.4140253 -4.4478254 8.5397978
7.1497521 -4.9230056 8.6103172
8.8666534 -6.0983777 8.7595482
7.9417396 -5.4847097 8.6773863
9.9169912 -6.8412175 8.8560581
0.13885167 -0.25714234 32.088051
0.99038821 -0.72143614 7.7896342
1.3141311 -0.94461477 7.8042531
2.0068936 -1.4222859 7.9107795
2.7571447 -1.9397258 8.0014067
3.562669 -2.4953902 8.0385036
4.4971023 -3.1406078 8.1287222
5.7633767 -4.0160089 8.4868917
1.0286947 -0.89830399 23.455233
0.65196186 -0.52520448 7.7653003
1.6549542 -1.1836537 7.8712249
2.4595921 -1.7419188 8.2502975
3.1359675 -2.2079253 7.9939003
4.0511646 -2.8428543 8.1654177
5.183866 -3.6283302 8.4533701
6.3956819 -4.468246 8.5361223
7.132524 -4.9479332 8.6103172
8.8453131 -6.1292915 8.7595482
7.9225454 -5.5123982 8.6773863
9.8930502 -6.875793 8.8560581
0.13797289 -0.25766438 32.093052
0.98786384 -0.72488886 7.7896342
1.3108258 -0.94919616 7.8042531
2.0019166 -1.4292825 7.9107795
2.7487631 -1.9482083 7.9968042
3.5539367 -2.5078111 8.0385036
4.4861121 -3.1562865 8.1287222
5.7493234 -4.0361023 8.4868917
1.0253363 -0.90169841 23.450239
0.65012461 -0.52747703 7.7653003
1.6508123 -1.1894234 7.8712249
2.414165 -1.7224281 8.1189003
3.1282413 -2.2188585 7.9939003
4.0710306 -2.8780563 8.2251406
5.1711688 -3.6464031 8.4533701
6.3800454 -4.4905438 8.5361223
7.1152091 -4.9728003 8.6103172
8.820672 -6.1579013 8.7564096
7.9032555 -5.540019 8.6773863
9.8656788 -6.9079666 8.853116
0.13711169 -0.25822246 32.10305
0.98470289 -0.72787064 7.7846947
1.308327 -0.95436621 7.8091478
1.9981271 -1.4371336 7.9155512
2.738766 -1.9555207 7.9875989
3.5451615 -2.5202012 8.0385036
4.4750676 -3.1719267 8.1287222
5.732583 -4.0542955 8.4830542
1.0221825 -0.90527201 23.450239
0.64827943 -0.52974313 7.7653003
1.645633 -1.1944399 7.8663855
2.3759098 -1.707678 8.0109663
3.120477 -2.2297645 7.9939003
4.0630841 -2.8937626 8.2294064
5.1559529 -3.6626866 8.4493799
6.3643317 -4.5127869 8.5361223
7.0948915 -4.995553 8.6068125
8.7991228 -6.1886539 8.7564096
7.8808193 -5.5654192 8.6740599
9.841506 -6.9423614 8.853116
0.13624828 -0.25877768 32.113052
0.9821561 -0.73130345 7.7846947
1.3049875 -0.95892727 7.8091478
1.9930984 -1.4440995 7.9155512
2.7303371 -1.9639279 7.9829965
3.5363424 -2.5325606 8.0385036
4.461678 -3.1858931 8.1245899
5.7183957 -4.0742817 8.4830542
1.0168642 -0.90691036 23.400324
0.64642632 -0.53200281 7.7653003
1.6414536 -1.200177 7.8663855
2.3573551 -1.7068517 7.9687314
3.1126747 -2.2406435 7.9939003
4.0571961 -2.9109688 8.2379389
5.1431365 -3.6806622 8.4493799
6.3485403 -4.5349751 8.5361223
7.0774102 -5.020288 8.6068125
8.774292 -6.2170811 8.7532721
7.8613443 -5.5928941 8.6740599
9.8139172 -6.9743309 8.850173
0.13538265 -0.25933 32.123051
0.97959739 -0.73472738 7.7846947
1.3024507 -0.9640826 7.814043
1.9880453 -1.451048 7.9155512
2.7234652 -1.9734466 7.9829965
3.5274808 -2.5448895 8.0385036
4.4528141 -3.2030909 8.1287222
5.7041392 -4.0942178 8.4830542
1.0207721 -0.91682917 23.565048
0.64456534 -0.53425604 7.7653003
1.6372542 -1.2058994 7.8663855
2.3416235 -1.7079509 7.9358821
3.1065969 -2.252773 7.9984016
4.0575781 -2.9327517 8.2592678
5.1278133 -3.6968305 8.4453907
6.3326716 -4.5571074 8.5361223
7.056942 -5.0428891 8.6033077
8.7493677 -6.2454095 8.7501335
7.841774 -5.6203017 8.6740599
9.7895126 -7.0085459 8.850173
0.13453396 -0.25991863 32.138046
0.97702676 -0.73814231 7.7846947
1.2998936 -0.96923202 7.8189383
1.9829682 -1.4579787 7.9155512
2.714982 -1.9817894 7.978394
3.5185761 -2.5571873 8.0385036
4.4416065 -3.2186148 8.1287222
5.6872158 -4.112226 8.4792175
1.0233397 -0.9256224 23.699821
0.6426965 -0.53650278 7.7653003
1.6330348 -1.2116071 7.8663855
2.337038 -1.7171364 7.9405751
3.0951984 -2.261035 7.989399
4.0430999 -2.9438272 8.2507362
5.1124392 -3.7129366 8.4414005
6.3167257 -4.579185 8.5361223
7.0392962 -5.067492 8.6033077
8.7275143 -6.2759123 8.7501335
7.8221073 -5.6476402 8.6740599
9.7617102 -7.0403104 8.847229
0.13353094 -0.26019025 32.113052
0.97506237 -0.74201906 7.7896342
1.2973164 -0.97437513 7.8238339
1.9778668 -1.4648917 7.9155512
2.7080479 -1.9912543 7.978394
3.5096283 -2.5694537 8.0385036
4.4348898 -3.2374177 8.1369877
5.6728268 -4.1320529 8.4792175
1.0201025 -0.92918897 23.699821
0.64081985 -0.5387429 7.7653003
1.6287956 -1.2173001 7.8663855
2.3310299 -1.7252836 7.9405751
3.0943005 -2.2769871 8.0074043
4.0327992 -2.9579222 8.2507362
5.0994477 -3.7307599 8.4414005
6.300703 -4.6012068 8.5361223
7.0186772 -5.0899386 8.599803
8.7024021 -6.3040557 8.746995
7.8023458 -5.6749096 8.6740599
9.7370758 -7.0743423 8.847229
0.13260305 -0.26061544 32.108051
0.97246629 -0.74541813 7.7896342
1.2955312 -0.98012668 7.8336239
1.971545 -1.4708941 7.9107795
2.6995103 -1.999532 7.9737911
3.5006378 -2.5816889 8.0385036
4.4167614 -3.2478774 8.1245899
5.6583691 -4.1518297 8.4792175
1.0168529 -0.93274409 23.699821
0.63893539 -0.54097652 7.7653003
1.6245365 -1.2229784 7.8663855
2.3249934 -1.73341 7.9405751
3.1055706 -2.3020351 8.0569181
4.0035715 -2.9580326 8.2123423
5.0839682 -3.7467499 8.4374104
6.2846036 -4.6231723 8.5361223
7.0008669 -5.1144075 8.599803
8.6771994 -6.3320999 8.7438564
7.7794776 -5.699904 8.6707344
9.7090607 -7.1059003 8.844286
0.13158026 -0.26084018 32.078049
0.96985841 -0.74880815 7.7896342
1.2929116 -0.98526025 7.8385196
1.9663985 -1.4777671 7.9107795
2.6925144 -2.0089428 7.9737911
3.489682 -2.5924644 8.0341148
4.4144416 -3.2699747 8.1411209
5.6438417 -4.1715555 8.4792175
1.0135908 -0.93628788 23.699821
0.63704312 -0.54320347 7.7653003
1.6202577 -1.2286415 7.8663855
2.3189285 -1.741515 7.9405751
3.109726 -2.321979 8.0884266
3.9827614 -2.9642043 8.1910133
5.0708585 -3.7644732 8.4374104
6.2684269 -4.6450815 8.5361223
6.9829717 -5.1388144 8.599803
8.6550436 -6.36235 8.7438564
7.7595334 -5.727025 8.6707344
9.6841965 -7.1397481 8.844286
0.13068755 -0.2613374 32.08305
0.96723866 -0.75218904 7.7896342
1.2894647 -0.98976731 7.8385196
1.9612281 -1.4846222 7.9107795
2.6854854 -2.0183294 7.9737911
3.4806113 -2.60463 8.0341148
