# .PCD v0.7 - Point Cloud Data file format
VERSION 0.7
FIELDS x y z
SIZE 4 4 4
TYPE F F F
COUNT 1 1 1
WIDTH 1460
HEIGHT 1
VIEWPOINT 0 0 0 1 0 0 0
POINTS 1460
DATA ascii
-0.0066296216 -1.0312052 9.5749283
0.12688361 -2.4826882 9.6085787
0.13524264 -2.4234476 6.654757
0.16356613 -2.7920732 5.8468213
0.13713554 -2.279592 3.8056326
0.28729922 -4.6824961 6.2867875
0.22685863 -3.6453159 4.0377216
0.27578658 -4.2067447 4.2226253
0.65920925 -9.9767542 8.1444111
0.79844379 -11.988878 7.9622774
1.0194873 -15.228027 8.0755787
2.6742632 -39.738121 16.179876
2.8738036 -42.481968 12.605491
0.33535755 -5.22753 4.7466445
0.69117951 -10.68755 7.8818727
0.87361974 -13.436057 7.997788
1.1476625 -17.509466 8.1990461
2.7044244 -41.041649 14.404304
2.9134488 -43.979897 10.721328
3.0321765 -45.651428 6.4733911
3.0591216 -45.81538 1.9459361
-0.033408087 -0.089414701 9.5189114
0.017633015 -0.44638878 2.8404975
0.089888997 -1.988021 9.591011
0.12502462 -2.405782 7.7485318
0.13406472 -2.4179192 5.7645798
0.22953963 -3.9910052 7.3933082
0.14867984 -2.523277 3.7849929
0.19387537 -3.2333934 3.9547992
-0.02665429 -0.55962747 9.5285044
-0.010229158 -1.0311757 9.5749283
0.11815699 -2.4818602 9.6037388
0.12714246 -2.4307983 6.6735282
0.15812542 -2.8708785 6.0088649
0.26677701 -4.6112733 6.1910272
0.20777448 -3.5377872 3.9201162
0.26375049 -4.2503948 4.2646799
0.62413687 -9.9751091 8.1412725
0.75527346 -11.970727 7.9485703
0.9663254 -15.231494 8.0755787
2.5349448 -39.737961 16.17613
1.7475129 -27.244431 8.1145363
2.9561901 -45.590309 4.1944318
0.31710804 -5.2286687 4.7466445
0.6528818 -10.673759 7.8701
0.8264491 -13.434722 7.9952545
1.085693 -17.499775 8.1927519
2.5614398 -41.05555 14.405948
2.7577817 -43.955841 10.713121
2.8690729 -45.602421 6.4651027
-0.033720002 -0.089297548 9.5189114
0.016074721 -0.44644761 2.8404975
0.08294896 -1.9883227 9.591011
0.11597688 -2.3927851 7.705584
0.12562379 -2.4183724 5.7645798
0.21586522 -3.9965651 7.4020867
0.13987106 -2.5237806 3.7849929
0.19811888 -3.5092635 4.2848248
-0.028607592 -0.55953103 9.5285044
-0.013820848 -1.0306007 9.5699558
0.10949296 -2.4822574 9.6037388
0.11798463 -2.4174383 6.6359863
0.14552641 -2.8214097 5.9053373
0.15358275 -2.8899133 4.8038611
0.24822684 -4.5670443 6.1311769
0.19243392 -3.4843307 3.8613136
0.2459947 -4.201447 4.2156162
0.58908397 -9.9733419 8.138134
0.71273708 -11.960768 7.9403458
0.91341674 -15.239197 8.077898
2.3973339 -39.765079 16.183622
1.6564665 -27.317404 8.1342773
2.7143099 -44.505814 8.5568647
2.7881904 -45.4562 4.1814666
0.29885465 -5.229744 4.7466445
0.61492145 -10.663867 7.8612704
0.77904886 -13.428918 7.9901886
1.0232747 -17.480804 8.1822624
2.4172807 -41.050095 14.401016
2.6040435 -43.96035 10.711949
2.7078176 -45.577557 6.460268
-0.034050018 -0.089218803 9.5239105
0.01451623 -0.44650099 2.8404975
0.076007918 -1.9886001 9.591011
0.13406226 -2.9822011 9.590518
0.11718133 -2.4187961 5.7645798
0.12789214 -2.5310314 4.7115812
0.13018575 -2.5073922 3.7601955
0.23415427 -4.4221497 5.3785133
-0.030577166 -0.55971599 9.5334969
-0.017418232 -1.0305461 9.5699558
0.1008276 -2.4826245 9.6037388
0.19922343 -4.400331 12.032667
0.13170803 -2.7392721 5.7342911
0.14426947 -2.9060609 4.8294568
0.2302947 -4.5287614 6.0793066
0.1816707 -3.5120664 3.8907149
0.22995564 -4.1773539 4.1910844
0.55405098 -9.9714499 8.1349955
0.67004538 -11.946485 7.9293804
0.85996681 -15.237869 8.0755787
2.2569363 -39.745434 16.172384
1.5608271 -27.31823 8.1328669
2.558939 -44.515018 8.5568647
2.6251886 -45.391079 4.1747603
0.28039765 -5.2270269 4.743319
0.57747525 -10.661912 7.8583274
0.73146462 -13.418642 7.9825892
0.96274787 -17.493332 8.1864586
2.2758021 -41.091286 14.41252
2.4511182 -43.978878 10.714293
2.5423477 -45.473007 6.4443822
-0.034267917 -0.089135334 9.5239105
0.01342518 -0.44653514 2.8404975
0.071112379 -1.9877622 9.5861149
0.12735909 -2.983989 9.5952902
0.11169296 -2.4190559 5.7645798
0.1226104 -2.540884 4.7291374
0.12395459 -2.4879856 3.7312651
0.23400444 -4.6018925 5.5934138
-0.031651687 -0.55965626 9.5334969
-0.019396704 -1.0305108 9.5699558
0.09606111 -2.4828136 9.6037388
0.19139315 -4.3972239 12.023282
0.092605121 -1.9979547 4.1993771
0.13857384 -2.8932829 4.8081274
0.22214289 -4.5080495 6.0513759
0.17819068 -3.552978 3.9348168
0.21244445 -4.039012 4.0544076
0.53121799 -9.9687958 8.1318569
0.64248854 -11.939622 7.9238973
0.8251515 -15.235358 8.0732603
2.1729295 -39.736183 16.166765
1.5075628 -27.393286 8.1540174
2.4633467 -44.618801 8.5755177
0.27036199 -5.2275553 4.743319
0.55844271 -10.65483 7.8524408
0.70781642 -13.415594 7.9800558
0.93036479 -17.517811 8.196949
2.2005403 -41.029182 14.389512
2.3641384 -43.793797 10.668573
-0.034497973 -0.088999882 9.5189114
0.012178168 -0.44657087 2.8404975
0.065561228 -1.9879531 9.5861149
0.11738149 -2.9560144 9.5046215
0.10485272 -2.4174066 5.7599773
0.11562308 -2.5436091 4.7335267
0.11683519 -2.4939642 3.7395308
0.22387347 -4.6762023 5.6816764
-0.033312079 -0.55955988 9.5334969
-0.022442015 -1.0299157 9.5649843
0.088694043 -2.4830878 9.6037388
0.17653461 -4.3719392 11.95289
0.087053463 -2.0069203 4.217382
0.13033952 -2.9014976 4.8209252
0.20464838 -4.4364839 5.9556155
0.17084198 -3.6212192 4.0083203
0.19974601 -4.0110941 4.0263705
0.5016377 -9.9703283 8.1318569
0.60935742 -11.945546 7.9266386
0.78237593 -15.233178 8.070941
2.0543022 -39.728565 16.161146
2.3351388 -44.556828 8.5624609
0.25466856 -5.2246051 4.7399936
0.52662724 -10.652404 7.8494973
0.66800851 -13.417635 7.9800558
0.88042957 -17.561289 8.2158308
2.0704424 -41.012314 14.381295
2.2307229 -43.732658 10.652161
-0.034808435 -0.088878922 9.5189114
0.010541322 -0.44661254 2.8404975
0.058274578 -1.98818 9.5861149
0.094994418 -2.4139037 5.7507725
0.10481725 -2.5296953 4.7071924
0.10578851 -2.4803743 3.7188659
0.20316543 -4.6514816 5.6509762
-0.035948563 -0.55939668 9.5334969
-0.027474843 -1.0297937 9.5649843
0.076558381 -2.4834914 9.6037388
0.14936011 -4.2089143 11.507077
0.10536154 -2.7643757 5.7838044
0.1151456 -2.9021401 4.8209252
0.1755109 -4.2929792 5.7640944
0.14892532 -3.58147 3.9642181
0.18458927 -3.98683 4.0018392
0.46490988 -9.9682112 8.1287184
0.56328845 -11.943621 7.9238973
0.72345877 -15.227221 8.0663042
1.8945845 -39.731865 16.159273
2.0389705 -42.44857 12.58152
2.1418569 -44.428837 8.5363474
0.23004547 -5.2257471 4.7399936
0.47438386 -10.650812 7.8465548
0.60201293 -13.463909 8.0053873
0.7909202 -17.55192 8.2095375
1.8604785 -40.970375 14.363216
1.9905337 -43.666401 10.633405
-0.035273321 -0.088695444 9.5189114
0.0082027307 -0.44666159 2.8404975
0.047863737 -1.9884579 9.5861149
0.074685499 -2.4377389 7.8439717
0.082287528 -2.4124155 5.7461696
0.16131182 -4.3143587 6.4135489
-0.038877048 -0.55920082 9.5334969
-0.032866433 -1.0296358 9.5649843
0.063585892 -2.4851151 9.6085787
0.1300815 -4.3010578 11.755795
0.092171445 -2.8040533 5.8648262
0.14603077 -4.2424369 7.0136151
0.15506861 -4.3510547 5.8399048
0.12820211 -3.5279939 3.9054155
0.162542 -3.9592359 3.9738026
0.41271031 -9.9705086 8.1287184
0.50179493 -11.971473 7.9403458
0.64465487 -15.25293 8.077898
1.686131 -39.731976 16.155527
1.8125821 -42.362812 12.55332
1.9068804 -44.38546 8.5260887
0.20253588 -5.2231498 4.7366681
0.41845143 -10.649112 7.8436117
0.53320807 -13.509951 8.0307198
0.6968413 -17.501398 8.1843596
1.644986 -40.955967 14.354998
1.7409077 -43.156555 10.507966
-0.03556351 -0.088532597 9.5139112
0.0067215022 -0.44668633 2.8404975
0.041269515 -1.9886056 9.5861149
0.066904068 -2.4334848 7.8296556
0.074587613 -2.4087565 5.7369647
0.080777496 -2.4443116 4.5491853
0.14802648 -4.3007569 6.3928838
0.41501465 -11.7065 14.101161
-0.040340897 -0.55909711 9.5334969
-0.035382204 -1.0295525 9.5649843
0.057513423 -2.4852631 9.6085787
0.11655504 -4.1926866 11.46015
0.084479406 -2.7607369 5.7748022
0.13606967 -4.2323308 6.9965515
0.14921322 -4.4718585 5.9995055
0.12081281 -3.5282545 3.9054155
0.15139651 -4.0310535 4.0438933
0.37964463 -9.9718227 8.1287184
0.46080339 -11.939645 7.9184141
0.59389836 -15.250556 8.0755787
1.5603911 -39.713913 16.146162
1.6644763 -41.989624 12.441927
1.7855808 -44.651062 8.5755177
0.18886103 -5.2236619 4.7366681
0.3905707 -10.65017 7.8436117
0.50131178 -13.541369 8.0484514
0.65695995 -17.4984 8.1822624
1.5474068 -40.836903 14.312266
1.659247 -43.388393 10.563065
1.6333373 -42.516666 6.0265212
-0.035872333 -0.088407919 9.5139112
0.0051622349 -0.44670707 2.8404975
0.034327734 -1.9887376 9.5861149
0.058373518 -2.4322112 7.8248835
0.066125505 -2.4070494 5.7323623
0.11575448 -3.9192517 7.2528582
0.13301314 -4.3012471 6.3928838
0.37425116 -11.71108 14.104998
-0.042292267 -0.55895287 9.5334969
-0.038955059 -1.02889 9.5600128
0.048837889 -2.4854486 9.6085787
0.099240027 -4.0826578 11.159813
0.053761363 -1.9819553 4.1633673
0.1204742 -4.2041035 6.949626
0.1336026 -4.4723525 5.9995055
0.10932915 -3.5557632 3.9348168
0.13914485 -4.0850205 4.0964618
0.34483418 -9.9730864 8.1287184
0.41868353 -11.928644 7.9101901
0.54222959 -15.296808 8.0987673
1.4176083 -39.603294 16.099335
1.5229199 -42.134205 12.482819
1.6293502 -44.647205 8.5736523
0.1706259 -5.2242894 4.7366681
0.35325828 -10.647429 7.8406682
0.45057419 -13.439635 7.9876556
0.59494853 -17.473372 8.1696739
1.407285 -40.912846 14.33692
1.5093023 -43.437641 10.573616
1.4774851 -42.309299 5.9968219
1.487147 -42.164207 1.795594
-0.036180712 -0.088282168 9.5139112
0.003602905 -0.44672236 2.8404975
0.027399395 -1.9898635 9.591011
0.049974605 -2.4368775 7.8391995
0.057629507 -2.4033592 5.7231569
0.10194848 -3.9148433 7.2440796
0.11830656 -4.3129368 6.4094157
0.33336955 -11.712315 14.104998
-0.04424312 -0.55880189 9.5334969
-0.042546317 -1.0287478 9.5600128
0.040141571 -2.4843469 9.6037388
0.047070958 -2.257612 6.1948662
0.046688858 -1.9756019 4.1498637
0.10710922 -4.2566428 7.034945
0.11862562 -4.4968896 6.0314264
0.097378016 -3.5730679 3.9531927
0.12521134 -4.0961752 4.1069756
0.31001949 -9.9742289 8.1287184
0.37664598 -11.917495 7.9019656
0.48840606 -15.285323 8.0918102
1.2832495 -39.728474 16.148035
1.3775568 -42.192005 12.498329
1.4754367 -44.71154 8.5848436
0.15238869 -5.224853 4.7366681
0.31596974 -10.644557 7.8377252
0.40378776 -13.445435 7.9901886
0.53436726 -17.488953 8.1759682
1.2667977 -40.993027 14.363216
1.3587302 -43.47665 10.581822
1.3161008 -41.878632 5.9360423
1.3291677 -41.82959 1.7818899
-0.036488656 -0.088155329 9.5139112
0.0020435308 -0.44673222 2.8404975
0.020453308 -1.989947 9.591011
0.041341666 -2.4295747 7.81534
0.048880845 -2.3859665 5.6817341
0.10345272 -4.321763 6.4218144
0.29232398 -11.706999 14.097322
-0.046193428 -0.558644 9.5334969
-0.046137057 -1.0285929 9.5600128
0.031469338 -2.4844718 9.6037388
0.039249767 -2.2612133 6.2042518
0.057050437 -2.8354714 5.9278436
0.089766793 -4.1422644 6.8472438
0.10285892 -4.4942632 6.0274363
0.085629255 -3.603889 3.9862692
0.11004408 -4.0645027 4.0754347
0.27520105 -9.9752502 8.1287184
0.33504388 -11.918737 7.9019656
0.43227518 -15.18952 8.0407972
1.1477672 -39.843929 16.192987
1.2313893 -42.234917 12.509608
1.321818 -44.799881 8.6006985
0.13405383 -5.2216206 4.7333426
0.27870557 -10.641554 7.8347821
0.35547978 -13.395051 7.9597902
0.47172022 -17.43173 8.1486931
1.126544 -41.101051 14.399373
1.2077693 -43.510281 10.588856
1.1624424 -41.615662 5.8987455
1.1742491 -41.519356 1.7691935
-0.0368159 -0.088066332 9.5189114
0.00048413192 -0.44673663 2.8404975
0.013513726 -1.9910245 9.5959063
0.032800432 -2.4252264 7.801024
0.04032046 -2.3724492 5.6495166
0.04964865 -2.6032419 4.8388643
0.088940926 -4.3502326 6.4631438
0.25138834 -11.704744 14.093486
-0.048117518 -0.55819178 9.5285044
-0.049700916 -1.0278933 9.5550413
0.022796718 -2.4845667 9.6037388
0.031308837 -2.2578855 6.1948662
0.047116358 -2.8334765 5.9233422
0.07663247 -4.2155647 6.9666896
0.086878531 -4.4795318 6.0074859
0.073048823 -3.604166 3.9862692
0.094343282 -4.0006876 4.0123525
0.24037926 -9.9761505 8.1287184
0.2942608 -11.953275 7.9238973
0.3791407 -15.186507 8.0384779
1.0114943 -39.958916 16.23794
1.085431 -42.296501 12.526529
1.1667064 -44.853329 8.6100245
0.11582616 -5.2220569 4.7333426
0.24155791 -10.642462 7.8347821
0.30872014 -13.39621 7.9597902
0.41022769 -17.406048 8.1361046
0.98385787 -41.137779 14.410878
1.0558827 -43.514233 10.588856
1.0132979 -41.461048 5.8766437
1.0229983 -41.26849 1.7589154
-0.037123084 -0.087937288 9.5189114
-0.0010752729 -0.44673562 2.8404975
0.0065636714 -1.9910594 9.5959063
0.024319761 -2.4238336 7.7962518
0.031881288 -2.3608544 5.6219015
0.040412538 -2.5938208 4.8213081
0.074326895 -4.3842797 6.5127392
0.21041439 -11.699141 14.085811
-0.050065674 -0.55802041 9.5285044
-0.053288627 -1.0277134 9.5550413
0.014123824 -2.4846311 9.6037388
0.023427155 -2.2579811 6.1948662
0.036712471 -2.7944419 5.84232
0.06195518 -4.2184143 6.9709554
0.07109794 -4.4707689 5.9955158
0.060013082 -3.5772815 3.9568682
0.080592431 -4.0116892 4.0228662
0.20555454 -9.9769287 8.1287184
0.25297579 -11.975132 7.9376044
0.24178284 -11.259408 5.9817028
0.87139875 -39.934395 16.226702
0.93810111 -42.314423 12.530759
0.09759707 -5.2224288 4.7333426
0.20432971 -10.639199 7.8318386
0.26204106 -13.401517 7.9623237
0.90398318 -43.517654 10.588856
0.86203206 -41.15242 5.8331304
0.87223685 -40.957138 1.746219
-0.037449833 -0.087845929 9.5239105
-0.0026346645 -0.44672912 2.8404975
-0.00038646287 -1.9910703 9.5959063
0.015858855 -2.4239035 7.7962518
0.023445822 -2.3414159 5.5758762
0.031358168 -2.593946 4.8213081
0.059022449 -4.3845124 6.5127392
0.16952905 -11.696599 14.081974
-0.051985558 -0.5575549 9.5235128
-0.056875695 -1.0275213 9.5550413
0.0054507577 -2.4846652 9.6037388
0.015498203 -2.2511466 6.176095
0.026393609 -2.7357786 5.7207875
0.047288049 -4.2238207 6.9794874
0.055379599 -4.4619508 5.9835458
0.04739077 -3.5672994 3.9458423
0.17072731 -9.9775858 8.1287184
0.21161549 -12.001027 7.9540534
0.20279723 -11.2779 5.9909782
0.78976339 -42.283863 12.520888
0.079366796 -5.2227378 4.7333426
0.16712724 -10.635806 7.8288956
0.21525945 -13.402349 7.9623237
0.75207275 -43.520542 10.588856
0.71189606 -40.783829 5.7813296
0.72410619 -40.670216 1.7345302
-0.037776396 -0.08775337 9.5289097
-0.004194024 -0.44671723 2.8404975
-0.0073365928 -1.9910568 9.5959063
0.0073977569 -2.4239442 7.7962518
0.015335696 -2.3512516 5.5988894
0.022323897 -2.5964344 4.8256974
0.043633301 -4.3762503 6.5003405
0.12869927 -11.69712 14.081974
-0.053931471 -0.55737007 9.5235128
-0.060462069 -1.0273165 9.5550413
-0.0032223754 -2.4846692 9.6037388
0.0076058051 -2.240833 6.1479383
0.016325172 -2.650955 5.5452399
0.03260396 -4.2317839 6.9922857
0.039696865 -4.4500642 5.9675856
0.034739479 -3.5471034 3.9237914
0.0555714 -4.2403746 4.2471571
0.13589799 -9.9781208 8.1287184
0.1697228 -12.001693 7.9540534
0.16342878 -11.278539 5.9909782
0.64216036 -42.286362 12.520888
0.061091896 -5.2192497 4.7300172
0.12995096 -10.632283 7.8259525
0.16842103 -13.398707 7.9597902
0.59968406 -43.48888 10.580649
0.56745535 -40.63752 5.7606091
0.57784635 -40.372772 1.7224383
-0.038082484 -0.087620974 9.5289097
-0.0057533327 -0.44669986 2.8404975
-0.01427917 -1.9900008 9.591011
0.0071977619 -2.3747344 5.6541195
0.013321125 -2.6084714 4.8476429
0.028357072 -4.3763762 6.5003405
0.087843865 -11.694293 14.078135
-0.055876728 -0.55717844 9.5235128
-0.064047702 -1.0270991 9.5550413
-0.011889326 -2.4833858 9.5988998
-0.00020928174 -2.2011554 6.0400052
0.0070031211 -2.6248727 5.4912257
0.017843006 -4.2344804 6.9965515
0.024114087 -4.4411359 5.9556155
0.022208456 -3.5234721 3.8980651
0.04087209 -4.2512412 4.2576709
0.10102763 -9.9746437 8.1255808
0.12724932 -11.947856 7.9184141
0.12430189 -11.301188 6.0025721
0.49443731 -42.278755 12.518069
0.53927773 -44.776836 8.5932369
0.042872947 -5.2194314 4.7300172
0.092801303 -10.628631 7.8230095
0.1215324 -13.386282 7.9521909
0.44792593 -43.495567 10.581822
0.42326695 -40.41642 5.7295284
0.43372598 -40.079792 1.7105479
-0.038388107 -0.087487504 9.5289097
-0.0073125712 -0.44667706 2.8404975
-0.021225482 -1.989939 9.591011
-0.011837534 -3.0001163 9.638238
-0.0011080175 -2.4060037 5.7277598
0.013047098 -4.3651919 6.483809
0.047022633 -11.694528 14.078135
-0.0578213 -0.55698001 9.5235128
-0.067632556 -1.0268693 9.5550413
-0.020557888 -2.4833291 9.5988998
-0.0077409502 -2.1597252 5.9273782
-0.0021328412 -2.5944037 5.4282084
0.0030636247 -4.2371244 7.0008178
0.0085883429 -4.4291401 5.9396553
0.0098239053 -3.4930172 3.864989
0.066209018 -9.9749355 8.1255808
0.085153759 -11.89387 7.8827753
0.084719628 -11.283834 5.9932966
0.34673589 -42.265835 12.513839
0.30731443 -35.931801 6.913588
0.02465347 -5.2195492 4.7300172
0.055678729 -10.624847 7.8200665
0.074804828 -13.386624 7.9521909
0.28062898 -40.194813 5.6984482
0.29162145 -39.781315 1.698456
-0.038672704 -0.087314487 9.5239105
-0.0088717202 -0.44664881 2.8404975
-0.028171536 -1.9898528 9.591011
-0.022287417 -2.9970715 9.6286936
-0.0096555352 -2.4431043 5.8152075
-0.0021991846 -4.3820953 6.5086064
0.0062008258 -11.694621 14.078135
-0.059765175 -0.55677474 9.5235128
-0.071216583 -1.0266269 9.5550413
-0.029226199 -2.4832423 9.5988998
-0.015193311 -2.1476057 5.8945289
-0.011188988 -2.5943804 5.4282084
-0.011734 -4.239717 7.0050831
-0.0068675606 -4.4261298 5.9356656
-0.0023666928 -3.4896398 3.8613136
0.03138959 -9.9751062 8.1255808
0.043620557 -11.889914 7.880034
0.045331184 -11.28406 5.9932966
0.044288408 -10.144117 4.1868467
0.19919848 -42.266788 12.513839
0.0064382558 -5.2233367 4.7333426
0.018583696 -10.620934 7.8171229
0.028031187 -13.365251 7.9395251
0.05131945 -17.288347 6.106226
0.13892102 -39.794437 5.6425033
0.1514909 -39.452362 1.685155
-0.03895656 -0.087140553 9.5189114
-0.010430762 -0.4466151 2.8404975
-0.035117242 -1.9897423 9.591011
-0.032732598 -2.9954827 9.6239214
-0.018271472 -2.4547772 5.842823
-0.016055277 -2.9892659 5.5455065
-0.017529426 -4.3905029 6.5210052
-0.034621056 -11.694571 14.078135
-0.061708316 -0.55656272 9.5235128
-0.074839078 -1.0269037 9.5600128
-0.037894156 -2.4831252 9.5988998
-0.022395808 -2.1199305 5.8194447
-0.026549691 -4.2422585 7.0093489
-0.022302344 -4.4230661 5.9316754
-0.014746601 -3.5370719 3.9127657
-0.0034302182 -9.9751549 8.1255808
0.0021174767 -11.894175 7.8827753
0.0059421849 -11.28415 5.9932966
0.0088826055 -10.148846 4.1887197
0.051588327 -42.209656 12.496919
0.025530703 -16.244791 3.175647
-0.011811574 -5.2307949 4.7399936
-0.018476291 -10.612851 7.8112369
-0.018634452 -13.373889 7.9445915
-0.0090284524 -17.288422 6.106226
1.1672326e-05 -39.556976 5.6093502
0.013719719 -39.292782 1.678706
-0.039260499 -0.087004036 9.5189114
-0.012011235 -0.44735265 2.8454366
-0.042062528 -1.9896076 9.591011
-0.043188583 -2.9953501 9.6239214
-0.026840132 -2.4546986 5.842823
-0.02663889 -3.0059559 5.57623
-0.032939509 -4.4016709 6.5375371
-0.075463213 -11.697584 14.081974
-0.063650705 -0.55634397 9.5235128
-0.078423172 -1.0266362 9.5600128
-0.046561647 -2.4829779 9.5988998
-0.030478679 -2.1681533 5.9508424
-0.031128263 -2.7553225 5.7612987
-0.041587181 -4.2656107 7.0477424
-0.037715822 -4.4199481 5.9276857
-0.026832856 -3.5030985 3.8760142
-0.051461264 -11.808214 11.683805
-0.038249984 -9.9750814 8.1255808
-0.039400954 -11.89411 7.8827753
-0.026543528 -10.148814 4.1887197
-0.085324295 -37.614006 11.146107
-0.031174354 -16.244781 3.175647
-0.019831991 -12.628983 1.2267213
-0.030113393 -5.2381892 4.7466445
-0.055521943 -10.612722 7.8112369
-0.044391721 -10.180921 4.7939076
-0.11334138 -30.928095 7.550209
-0.13713452 -39.28933 5.5720534
-0.1229983 -39.152706 1.6730632
-0.039563961 -0.086866461 9.5189114
-0.013572713 -0.447308 2.8454366
-0.049007297 -1.9894487 9.591011
-0.053644042 -2.9951811 9.6239214
-0.035266966 -2.4448225 5.8198099
-0.037339214 -3.0226083 5.6069531
-0.04839683 -4.4099708 6.5499358
-0.11629494 -11.697249 14.081974
-0.065592326 -0.55611837 9.5235128
-0.082006328 -1.0263562 9.5600128
-0.055228576 -2.4828002 9.5988998
-0.039080981 -2.2266974 6.1103964
-0.040616766 -2.7464902 5.7432938
-0.056788024 -4.2889099 7.0861359
-0.053107798 -4.4167762 5.9236956
-0.046785757 -4.1945319 4.6257477
-0.092679307 -11.807962 11.683805
-0.07309781 -9.9787788 8.1287184
-0.080805056 -11.877174 7.871809
-0.065169126 -10.096755 5.3718586
-0.061912708 -10.139389 4.1849737
-0.21482529 -37.301674 11.054455
-0.087480366 -16.170889 3.1616576
-0.063940451 -12.633818 1.2271683
-0.048466973 -5.2455192 4.7532954
-0.092461094 -10.600338 7.8024073
-0.084554322 -10.097339 6.0193753
-0.07989385 -10.176166 4.7918096
-0.092330337 -12.904776 3.2032559
-0.27220476 -38.991493 5.5306129
-0.25827438 -38.942211 1.6645989
-0.039866943 -0.086727828 9.5189114
-0.015134026 -0.44725791 2.8454366
-0.055951472 -1.9892654 9.591011
-0.06409885 -2.9949756 9.6239214
-0.043730538 -2.440778 5.810605
-0.063912489 -4.4182158 6.5623345
-0.15716833 -11.699977 14.085811
-0.067533135 -0.55588603 9.5235128
-0.085588478 -1.0260638 9.5600128
-0.063894823 -2.4825921 9.5988998
-0.047545742 -2.2593281 6.1995587
-0.050203562 -2.7463317 5.7432938
-0.071846172 -4.2939014 7.0946679
-0.068431295 -4.4105382 5.9157152
-0.061377425 -4.1909537 4.6220727
-0.1340985 -11.825397 11.701327
-0.1079298 -9.9784632 8.1287184
-0.10041298 -10.096466 5.3718586
-0.097438894 -10.153017 4.1905928
-0.14305228 -16.072245 3.1430051
-0.10804032 -12.633517 1.2271683
-0.066824533 -5.249052 4.7566209
-0.12946261 -10.599951 7.8024073
-0.11964662 -10.08405 6.0117755
-0.11515737 -10.153132 4.7813191
-0.40597522 -38.767471 5.4995317
-0.39056528 -38.581383 1.6500887
-0.040169436 -0.086588137 9.5189114
-0.016695157 -0.44720235 2.8454366
-0.062862627 -1.9880403 9.5861149
-0.074552879 -2.9947338 9.6239214
-0.052166302 -2.4367039 5.8014002
-0.079435728 -4.4235935 6.570601
-0.19800791 -11.699358 14.085811
-0.069509812 -0.55593324 9.5285044
-0.089169592 -1.0257587 9.5600128
-0.072560303 -2.4823539 9.5988998
-0.055262126 -2.2522478 6.1807876
-0.059599776 -2.7374337 5.7252884
-0.086834244 -4.2936244 7.0946679
-0.083769217 -4.4072599 5.9117255
-0.076436937 -4.2144408 4.6477985
-0.17537601 -11.824857 11.701327
-0.14276047 -9.9780254 8.1287184
-0.13823853 -10.028303 6.6600814
-0.13559607 -10.091623 5.3695397
-0.13269691 -10.13871 4.1849737
-0.19891053 -16.052 3.1392746
-0.15219884 -12.638042 1.2276155
-0.085207336 -5.2525201 4.7599468
-0.1657642 -10.554977 7.7700329
-0.15504442 -10.096502 6.0193753
-0.15039574 -10.139055 4.7750249
-0.17774722 -12.573328 3.1235385
-0.53818512 -38.542999 5.4684515
-0.040471442 -0.086447395 9.5189114
-0.018256083 -0.44714135 2.8454366
-0.0698018 -1.9878086 9.5861149
-0.085005991 -2.9944551 9.6239214
-0.060184121 -2.4169767 5.7553749
-0.087769821 -3.8433189 7.1124077
-0.094997272 -4.4289155 6.5788665
-0.23884508 -11.698595 14.085811
-0.071449958 -0.55568725 9.5285044
-0.092749611 -1.0254412 9.5600128
-0.081224889 -2.4820855 9.5988998
-0.063172087 -2.2537661 6.1854806
-0.067557335 -2.6740983 5.5947533
-0.10200696 -4.3011169 7.1074662
-0.098949403 -4.397903 5.899755
-0.091220982 -4.2175379 4.651474
-0.21652071 -11.817041 11.694318
-0.1775894 -9.9774666 8.1287184
-0.17345975 -10.040303 6.6683059
-0.17082158 -10.091089 5.3695397
-0.16847111 -10.161361 4.1943388
-0.25517532 -16.065943 3.1420727
-0.19608085 -12.622497 1.2262741
-0.1034679 -5.2484574 4.7566209
-0.19004308 -10.08297 6.0117755
-0.18570356 -10.133931 4.7729268
-0.22103548 -12.53861 3.1153319
-0.66822791 -38.283421 5.4325361
-0.040772952 -0.086305596 9.5189114
-0.019816786 -0.44707492 2.8454366
-0.076740116 -1.9875529 9.5861149
-0.095458075 -2.9941401 9.6239214
-0.068342723 -2.4069874 5.7323623
-0.10112186 -3.840595 7.1080184
-0.11066717 -4.4369965 6.5912652
-0.27967936 -11.69769 14.085811
-0.073389225 -0.55543441 9.5285044
-0.096328512 -1.0251112 9.5600128
-0.089888498 -2.481787 9.5988998
-0.070820786 -2.2466326 6.1667094
-0.078897111 -2.7434795 5.7387924
-0.31198668 -11.459723 18.82172
-0.11414362 -4.3915062 5.8917751
-0.10543121 -4.1968594 4.6294231
-0.25769076 -11.812648 11.690814
-0.21241617 -9.9767857 8.1287184
-0.20867959 -10.047998 6.673789
-0.20622592 -10.099289 5.374177
-0.20375375 -10.151441 4.1905928
-0.3106834 -16.035486 3.136477
-0.24014039 -12.621735 1.2262741
-0.12178781 -5.2480645 4.7566209
-0.2271591 -10.012074 7.375649
-0.2250455 -10.073627 6.0067096
-0.22107644 -10.133221 4.7729268
-0.26490471 -12.542624 3.1165044
-0.041073967 -0.086162746 9.5189114
-0.021339428 -0.44622695 2.8404975
-0.0836775 -1.9872729 9.5861149
-0.10590899 -2.9937887 9.6239214
-0.076120377 -2.3872077 5.686337
-0.11488476 -3.8521883 7.1299634
-0.1261545 -4.436583 6.5912652
-0.32051021 -11.696643 14.085811
-0.075327612 -0.55517483 9.5285044
-0.099906228 -1.0247687 9.5600128
-0.098551005 -2.4814579 9.5988998
-0.078359939 -2.2377486 6.1432457
-0.089386784 -2.7714727 5.797308
-0.12920557 -4.3820457 5.8798051
-0.33595973 -11.736476 12.806664
-0.29883277 -11.808111 11.687308
-0.24724036 -9.9759836 8.1287184
-0.24375238 -10.047208 6.673789
-0.24243096 -10.138364 5.3950462
-0.36699271 -16.049036 3.1392746
-0.28408489 -12.615841 1.2258271
-0.14010623 -5.2476072 4.7566209
-0.26178896 -9.9990988 7.3668194
-0.2598736 -10.059851 5.9991097
-0.25644663 -10.132387 4.7729268
-0.42328823 -16.95731 5.9928241
-0.3089242 -12.55134 3.118849
-0.041374478 -0.086018845 9.5189114
-0.022896921 -0.44614974 2.8404975
-0.090613872 -1.9869688 9.5861149
-0.11635862 -2.9934008 9.6239214
-0.083829977 -2.3693554 5.6449142
-0.12761229 -3.8302209 7.0904622
-0.1419099 -4.4445534 6.6036644
-0.36143613 -11.698655 14.089647
-0.077265069 -0.55490851 9.5285044
-0.10348272 -1.0244138 9.5600128
-0.1072123 -2.4810989 9.5988998
-0.086436853 -2.244359 6.1620164
-0.10085156 -2.8211813 5.900836
-0.39189321 -11.454659 18.817455
-0.1443022 -4.3755445 5.8718252
-0.33994627 -11.803432 11.683805
-0.28206155 -9.9750586 8.1287184
-0.2789382 -10.050475 6.6765304
-0.27866855 -10.168453 5.4112782
-0.75747472 -28.36005 8.4289732
-0.42301205 -16.047657 3.1392746
-0.32812065 -12.614772 1.2258271
-0.15842293 -5.2470865 4.7566209
-0.29705045 -10.010244 7.375649
-0.29663041 -10.114898 6.0320411
-0.29194438 -10.135967 4.7750249
-0.48261204 -16.960449 5.9944673
-0.35273466 -12.550185 3.118849
-0.041674487 -0.085873902 9.5189114
-0.024454134 -0.44606709 2.8404975
-0.09754914 -1.9866403 9.5861149
-0.12680683 -2.9929764 9.6239214
-0.092632212 -2.3827138 5.6771321
-0.10817888 -2.9394193 5.4577246
-0.15742341 -4.4440312 6.6036644
-0.40226987 -11.697322 14.089647
-0.079159923 -0.55434978 9.5235128
-0.10705797 -1.0240463 9.5600128
-0.11587229 -2.4807096 9.5988998
-0.094415724 -2.2474921 6.1714025
-0.11061323 -2.8186367 5.8963346
-0.43177673 -11.450614 18.813189
-0.15880559 -4.3539352 5.843895
-0.41752487 -11.723679 12.795638
-0.38114586 -11.802173 11.683805
-0.31687927 -9.9740143 8.1287184
-0.3141498 -10.053619 6.6792712
-0.31703472 -10.260401 5.4599729
-0.31018785 -10.153383 4.1924658
-0.8512516 -28.18462 8.3782129
-0.47917286 -16.050995 3.1402075
-0.37215245 -12.61355 1.2258271
-0.17686348 -5.2502327 4.7599468
-0.33199093 -10.009147 7.375649
-0.33448175 -10.191354 6.0776381
-0.32747024 -10.139422 4.777123
-0.54166132 -16.953941 5.9928241
-0.39669436 -12.553736 3.1200213
-0.041973989 -0.0857279 9.5189114
-0.026056994 -0.44675463 2.8454366
-0.10453685 -1.9873046 9.591011
-0.13725349 -2.9925156 9.6239214
-0.10210851 -2.4097023 5.7415671
-0.11872832 -2.946203 5.470892
-0.44309866 -11.695848 14.089647
-0.081094481 -0.55407012 9.5235128
-0.11063191 -1.0236664 9.5600128
-0.12446774 -2.4790347 9.5940599
-0.1021032 -2.243701 6.1620164
-0.12110285 -2.8334584 5.9278436
-0.47152945 -11.443827 18.804657
-0.17448428 -4.3653975 5.8598552
-0.45857814 -11.725538 12.799314
-0.42246839 -11.804334 11.687308
-0.35183039 -9.976737 8.1318569
-0.34953195 -10.06082 6.6847544
-0.35254368 -10.250376 5.4553351
-0.34547013 -10.147606 4.1905928
-0.9436515 -28.004086 8.3260412
-0.53536206 -16.054132 3.14114
-0.41617969 -12.612174 1.2258271
-0.19518913 -5.2495832 4.7599468
-0.36677924 -10.003887 7.3727059
-0.37161881 -10.233204 6.1029701
-0.36286145 -10.138217 4.777123
-0.60117286 -16.961388 5.9961114
-0.44068316 -12.557132 3.1211936
-0.70821822 -20.485832 0.92054677
-0.042272981 -0.085580863 9.5189114
-0.027616302 -0.44666097 2.8454366
-0.1114732 -1.9869275 9.591011
-0.14762478 -2.9905274 9.6191492
-0.10836783 -2.362493 5.6311069
-0.12901177 -2.9457707 5.470892
-0.48405468 -11.697433 14.093486
-0.08298438 -0.55349827 9.5185213
-0.1142045 -1.0232739 9.5600128
-0.13312042 -2.478585 9.5940599
-0.11035755 -2.2519488 6.1854806
-0.13179792 -2.8504155 5.9638529
-0.5118224 -11.449927 18.817455
-0.1894595 -4.3587413 5.8518748
-0.49719584 -11.669673 12.740511
-0.46367064 -11.802788 11.687308
-0.38665351 -9.9754486 8.1318569
-0.38480845 -10.063717 6.6874957
-0.3898316 -10.288923 5.4762044
-0.38088977 -10.146338 4.1905928
-0.59157908 -16.057076 3.1420727
-0.46020186 -12.610644 1.2258271
-0.21351239 -5.2488699 4.7599468
-0.40218371 -10.014663 7.3815355
-0.40750858 -10.236152 6.1055036
-0.39842641 -10.141424 4.7792211
-0.66019177 -16.954466 5.9944673
-0.4847005 -12.560375 3.122366
-0.71320862 -18.735924 0.85001093
-0.042549178 -0.085395277 9.5139112
-0.029175268 -0.44656184 2.8454366
-0.11834745 -1.9855099 9.5861149
-0.15806277 -2.9899938 9.6191492
-0.11593861 -2.3484416 5.5988894
-0.13952011 -2.9500868 5.47967
-0.52488339 -11.695671 14.093486
-0.084960617 -0.55349046 9.5235128
-0.11771414 -1.0223396 9.5550413
-0.14177148 -2.4781053 9.5940599
-0.21300134 -4.054112 11.094113
-0.14153044 -2.8455894 5.9548507
-0.55191261 -11.450675 18.82172
-0.20495602 -4.3640733 5.8598552
-0.50501966 -11.804661 11.690814
-0.42147198 -9.9740381 8.1318569
-0.42028376 -10.070668 6.6929789
-0.420432 -10.159145 5.4089594
-0.41649488 -10.149578 4.1924658
-0.6478231 -16.05982 3.1430051
-0.5042184 -12.608961 1.2258271
-0.23183309 -5.2480927 4.7599468
-0.44323692 -10.234667 6.1055036
-0.43382415 -10.139972 4.7792211
-0.71936983 -16.952059 5.9944673
-0.52874583 -12.563463 3.1235385
-0.71304584 -17.155966 0.78632718
-0.042847 -0.085246228 9.5139112
-0.03067982 -0.4456822 2.8404975
-0.12527746 -1.9850847 9.5861149
-0.16849884 -2.989424 9.6191492
-0.12165706 -2.3012002 5.4884281
-0.15030332 -2.9591494 5.4972262
-0.5704087 -11.540956 17.043493
-0.56586057 -11.696968 14.097322
-0.086892143 -0.55319053 9.5235128
-0.12128205 -1.0219223 9.5550413
-0.15042083 -2.4775953 9.5940599
-0.22647515 -4.0412836 11.061264
-0.15157837 -2.8472519 5.9593515
-0.59201425 -11.451283 18.825987
-0.59270608 -11.742435 15.643394
-0.54638743 -11.806389 11.694318
-0.4562853 -9.9725056 8.1318569
-0.45581234 -10.077495 6.698462
-0.45509693 -10.139915 5.399684
-0.45212728 -10.152696 4.1943388
-0.70366329 -16.052555 3.1420727
-0.54844517 -12.6121 1.2262741
-0.25015092 -5.2472515 4.7599468
-0.48960608 -10.383062 7.6523066
-0.47573486 -10.164161 6.0649729
-0.46984607 -10.151996 4.7855153
-0.77832252 -16.944727 5.9928241
-0.57281858 -12.566396 3.1247106
-0.7110827 -15.780883 0.73090619
-0.043144308 -0.085096143 9.5139112
-0.032235354 -0.44557238 2.8404975
-0.13213809 -1.9836193 9.5812197
-0.17893285 -2.9888175 9.6191492
-0.13255103 -2.351476 5.6080937
-0.16102159 -2.9657815 5.5103936
-0.61039323 -11.533276 17.035227
-0.60668713 -11.694922 14.097322
-0.088822603 -0.55288386 9.5235128
-0.12484849 -1.0214928 9.5550413
-0.15906833 -2.4770553 9.5940599
-0.24119635 -4.0508041 11.089421
-0.16052888 -2.8293178 5.9233422
-0.63212681 -11.451751 18.830252
-0.62946814 -11.662066 15.539654
-0.58777344 -11.807971 11.697823
-0.49128458 -9.97474 8.1349955
-0.4913936 -10.084194 6.7039447
-0.48877645 -10.102867 5.3811336
-0.48756403 -10.151055 4.1943388
-0.75946057 -16.045094 3.14114
-0.59246629 -12.610109 1.2262741
-0.26846573 -5.2463465 4.7599468
-0.52809614 -10.425694 7.6846809
-0.50991195 -10.136606 6.0497737
-0.50663429 -10.177492 4.7981038
-0.83746588 -16.941906 5.9928241
-0.61691827 -12.569174 3.1258829
-0.79779327 -16.31229 2.3700609
-0.7133407 -14.690471 0.68697244
-0.043463759 -0.084982298 9.5189114
-0.033790495 -0.44545713 2.8404975
-0.13906141 -1.983146 9.5812197
-0.18927015 -2.9866848 9.614377
-0.1415766 -2.36465 5.6403117
-0.17192625 -2.9747653 5.5279503
-0.65096527 -11.536694 17.043493
-0.64768362 -11.695934 14.101161
-0.090799637 -0.55285513 9.5285044
-0.12848049 -1.0215796 9.5600128
-0.1677139 -2.4764848 9.5940599
-0.25490019 -4.0430484 11.07065
-0.16935603 -2.8113563 5.8873324
-0.67209697 -11.449474 18.830252
-0.66619509 -11.590607 15.447884
-0.62898737 -11.805848 11.697823
-0.52609992 -9.9729643 8.1349955
-0.52593672 -10.06989 6.6957207
-0.52403903 -10.101099 5.3811336
-0.52323341 -10.153921 4.1962118
-0.63648015 -12.607964 1.2262741
-0.28677726 -5.2453775 4.7599468
-0.54204953 -10.0745 6.0143089
-0.89585024 -16.924734 5.9878936
-0.66078907 -12.566944 3.1258829
-0.79797053 -15.226391 2.218802
-0.72176093 -13.864677 0.65371984
-0.043760136 -0.084830061 9.5189114
-0.035345223 -0.44533646 2.8404975
-0.14590812 -1.9816331 9.5763245
-0.19969448 -2.986006 9.614377
-0.15205634 -2.3992364 5.7231569
-0.18289557 -2.9837089 5.5455065
-0.691737 -11.542779 17.055893
-0.68869448 -11.696801 14.104998
-0.092728898 -0.55253482 9.5285044
-0.13204569 -1.021125 9.5600128
-0.17635742 -2.4758842 9.5940599
-0.26924083 -4.045578 11.080036
-0.17653532 -2.7694697 5.8018093
-0.71238291 -11.452265 18.838785
-0.70830071 -11.615279 15.483793
-0.67039579 -11.80714 11.701327
-0.56112748 -9.9749537 8.138134
-0.56061858 -10.059644 6.6902375
-0.55880535 -10.090363 5.3764958
-0.55867404 -10.152033 4.1962118
-0.84480661 -15.548899 3.047878
-0.68102318 -12.615611 1.2271683
-0.3053022 -5.2480721 4.7632723
-0.57783312 -10.022259 7.3933077
-0.57721281 -10.072546 6.0143089
-0.95465714 -16.916788 5.9862499
-0.70492411 -12.569414 3.1270552
-0.79417068 -14.204977 2.0765216
-0.72276247 -13.009082 0.61925805
-0.04405598 -0.084676795 9.5189114
-0.036899526 -0.4452104 2.8404975
-0.15282442 -1.9811116 9.5763245
-0.21001147 -2.9838018 9.6096048
-0.16082181 -2.4045389 5.7369647
-0.19408438 -2.995002 5.5674515
-0.73220271 -11.543101 17.060024
-0.7297194 -11.697526 14.108836
-0.094607413 -0.55192339 9.5235128
-0.13560928 -1.0206578 9.5600128
-0.1849988 -2.4752538 9.5940599
-0.28336093 -4.0446134 11.080036
-0.17801601 -2.6472034 5.5497413
-0.75201243 -11.444504 18.830252
-0.75039262 -11.636791 15.515713
-0.71160626 -11.804729 11.701327
-0.59594315 -9.9729347 8.138134
-0.59548265 -10.053451 6.6874957
-0.59402388 -10.08835 5.3764958
-0.59437877 -10.154649 4.1980848
-0.97080278 -16.685083 5.002594
-0.83753073 -14.481676 2.8454995
-0.72305512 -12.578354 1.2240387
-0.32361951 -5.2469745 4.7632723
-0.61207354 -10.008078 7.3844781
-0.61210734 -10.066167 6.0117755
-1.000706 -16.696524 5.9106488
-0.74908435 -12.571729 3.1282275
-0.79587919 -13.396352 1.963941
-0.73223317 -12.398037 0.59467125
-0.044351287 -0.084522493 9.5189114
-0.03845337 -0.44507888 2.8404975
-0.15973885 -1.9805661 9.5763245
-0.22042561 -2.9830506 9.6096048
-0.16962615 -2.4098096 5.7507725
-0.20486434 -2.9990849 5.57623
-0.7728672 -11.546091 17.068291
-0.77075762 -11.698105 14.112673
-0.09653341 -0.55158979 9.5235128
-0.13917121 -1.0201782 9.5600128
-0.19353974 -2.4733398 9.58922
-0.29773089 -4.0470419 11.089421
-0.17849159 -2.5227902 5.2931724
-0.79177654 -11.439208 18.825987
-0.79059923 -11.628089 15.507733
-0.75303525 -11.805732 11.704832
-0.6309973 -9.9746771 8.1412725
-0.63031024 -10.047137 6.6847544
-0.629511 -10.090636 5.3788147
-0.62982148 -10.152512 4.1980848
-0.95460802 -15.47503 4.6472659
-0.83243889 -13.571601 2.6729648
-0.76726049 -12.580725 1.2244858
-0.34217578 -5.2495389 4.7665977
-0.64700449 -10.00588 7.3844781
-0.64724106 -10.063969 6.0117755
-1.0332696 -16.287638 5.7693067
-0.79296333 -12.569037 3.1282275
-0.79817152 -12.686745 1.8651737
-0.73807108 -11.797062 0.57048756
-0.044646055 -0.084367171 9.5189114
-0.040006753 -0.44494194 2.8404975
-0.1667369 -1.981011 9.5812197
-0.23083705 -2.9822628 9.6096048
-0.17501077 -2.3682878 5.6541195
-0.21584682 -3.0055182 5.589397
-0.81336355 -11.54613 17.072422
-0.81180888 -11.698542 14.116511
-0.09845823 -0.55124944 9.5235128
-0.14273146 -1.0196862 9.5600128
-0.20217213 -2.4726491 9.58922
-0.31212127 -4.0494189 11.098806
-0.18439274 -2.4830744 5.2121501
-0.83132362 -11.431172 18.817455
-0.8313989 -11.628264 15.511724
-0.79424036 -11.803031 11.704832
-0.66607094 -9.9762983 8.1444111
-0.66565382 -10.049048 6.6874957
-0.66473001 -10.088378 5.3788147
-0.66525656 -10.150251 4.1980848
-0.94901431 -14.557304 4.3779497
-0.83975786 -12.950967 2.5554545
-0.76565951 -11.872279 1.1610006
-0.36049801 -5.2483125 4.7665977
-0.68192762 -10.003561 7.3844781
-0.68295038 -10.070251 6.0168419
-0.69149262 -10.275779 4.8484569
-1.0074769 -15.049485 5.3387074
-0.83683258 -12.566193 3.1282275
-0.80405307 -12.105762 1.7843641
-0.74729812 -11.310863 0.55093908
-0.044940282 -0.084210813 9.5189114
-0.041559648 -0.44479954 2.8404975
-0.17365091 -1.9804169 9.5812197
-0.24124569 -2.9814389 9.6096048
-0.18086213 -2.3364973 5.5804791
-0.84694284 -11.239326 20.722942
-0.85386974 -11.546026 17.076557
-0.85263956 -11.695637 14.116511
-0.10032924 -0.55061853 9.5185213
-0.14628996 -1.0191818 9.5600128
-0.21069512 -2.4706759 9.5843811
-0.32653186 -4.0517449 11.108192
-0.19289026 -2.4802451 5.2076488
-0.86963457 -11.407395 18.783327
-0.87220943 -11.628295 15.515713
-0.83568764 -11.803743 11.708336
-0.70089066 -9.9739122 8.1444111
-0.70101851 -10.050836 6.6902375
-0.7002477 -10.090415 5.3811336
-0.70068341 -10.147868 4.1980848
-0.93636858 -13.630246 4.105813
-0.84141487 -12.310849 2.4342141
-0.77770424 -11.437275 1.1221048
-0.37908477 -5.2507458 4.7699232
-0.71742034 -10.009182 7.3903646
-0.71871138 -10.076406 6.0219088
-0.72735757 -10.273303 4.8484569
-0.99827576 -14.169725 5.0330148
-0.88035178 -12.558346 3.1270552
-0.81003428 -11.584183 1.7118428
-0.75591433 -10.86462 0.53300285
-0.045233957 -0.084053427 9.5189114
-0.043112032 -0.44465181 2.8404975
-0.18056278 -1.9797987 9.5812197
-0.25165138 -2.9805787 9.6096048
-0.18933234 -2.3397462 5.589684
-0.89460236 -11.548587 17.084824
-0.89370382 -11.695785 14.120348
-0.10225064 -0.55026495 9.5185213
-0.14984666 -1.018665 9.5600128
-0.21931811 -2.4699254 9.5843811
-0.34110722 -4.0557394 11.122271
-0.20119379 -2.4752173 5.1986465
-0.9129734 -11.448487 18.855848
-0.91303045 -11.628185 15.519704
-0.87688524 -11.800755 11.708336
-0.73598826 -9.9752865 8.1475496
-0.7364037 -10.052497 6.6929789
-0.73578769 -10.092328 5.3834524
-0.73643732 -10.149983 4.1999583
-0.93246448 -12.913988 3.8957183
-0.85199231 -11.857073 2.348413
-0.78103858 -10.92286 1.0760555
-0.39741096 -5.2493906 4.7699232
-0.75296062 -10.014678 7.3962512
-0.75420195 -10.078135 6.0244417
-0.75345963 -10.139445 4.7876134
-0.98677731 -13.342026 4.7454009
-0.89135498 -12.109226 3.019202
-0.8167364 -11.121978 1.6476095
-0.76251704 -10.433407 0.51567113
-0.045527086 -0.083895013 9.5189114
-0.044663895 -0.4444986 2.8404975
-0.18747246 -1.9791564 9.5812197
-0.262054 -2.9796822 9.6096048
-0.19782741 -2.3429649 5.5988894
-0.92538685 -11.233139 20.722942
-0.93513614 -11.548199 17.088955
-0.9347797 -11.695788 14.124186
-0.1042254 -0.55018824 9.5235128
-0.15340155 -1.0181357 9.5600128
-0.22793841 -2.4691446 9.5843811
-0.35526231 -4.0545239 11.122271
-0.20983268 -2.4744999 5.1986465
-0.95487833 -11.468623 18.894241
-0.95386118 -11.62793 15.523693
-0.91807228 -11.797622 11.708336
-0.77110404 -9.9765377 8.1506882
-0.77180904 -10.054035 6.6957207
-0.77134955 -10.094114 5.3857713
-0.77221459 -10.151975 4.2018313
-0.92393404 -12.202716 3.6870334
-0.85165989 -11.300511 2.2430267
-0.78637958 -10.483057 1.0367126
-0.41602728 -5.2516937 4.7732487
-0.78823102 -10.016019 7.3991942
-0.78971332 -10.079738 6.0269752
-0.78884834 -10.136754 4.7876134
-0.97389007 -12.571086 4.477509
-0.88876885 -11.524493 2.8785241
-0.81452328 -10.585814 1.573016
-0.75543576 -9.8628092 0.49269664
-0.045819655 -0.083735593 9.5189114
-0.046215214 -0.44433999 2.8404975
-0.19437988 -1.97849 9.5812197
-0.27245343 -2.978749 9.6096048
-0.96438712 -11.227453 20.718552
-0.97567803 -11.547668 17.093088
-0.97559994 -11.692454 14.124186
-0.10614528 -0.54982102 9.5235128
-0.15695457 -1.017594 9.5600128
-0.23655595 -2.468334 9.5843811
-0.37050998 -4.065289 11.15512
-0.21808577 -2.4694152 5.1896443
-0.99558192 -11.473013 18.90704
-0.99444437 -11.624529 15.523693
-0.95953709 -11.797899 11.71184
-0.80623746 -9.9776649 8.1538267
-0.80689949 -10.051279 6.6957207
-0.80693281 -10.095777 5.3880901
-0.80801457 -10.153837 4.2037039
-0.91613328 -11.563401 3.4994991
-0.85092926 -10.788177 2.1460345
-0.77813381 -9.9093094 0.98529857
-0.43466443 -5.2539306 4.7765741
-0.82318866 -10.013206 7.3991942
-0.82524514 -10.081217 6.0295081
-0.82459533 -10.138462 4.7897115
-0.969356 -11.969852 4.2687831
-0.88836253 -11.017451 2.756603
-0.80778307 -10.039932 1.4970412
-0.76113576 -9.5015526 0.4781864
-0.046111669 -0.083575137 9.5189114
-0.04776597 -0.44417596 2.8404975
-0.20118167 -1.9767865 9.5763245
-0.28284955 -2.9777799 9.6096048
-1.0046389 -11.235945 20.740498
-1.0162278 -11.546996 17.097221
-1.016686 -11.692171 14.128023
-0.10806387 -0.54944718 9.5235128
-0.1605057 -1.0170399 9.5600128
-0.24517059 -2.4674933 9.5843811
-0.38469821 -4.0639706 11.15512
-0.22789946 -2.4816458 5.2166514
-1.0352829 -11.623989 15.527684
-1.0010152 -11.798033 11.715345
-0.84138811 -9.9786682 8.1569643
-0.84232932 -10.052569 6.698462
-0.84253716 -10.097313 5.390409
-0.84345317 -10.150955 4.2037039
-0.9161436 -11.072498 3.3556757
-0.85429651 -10.36901 2.0667617
-0.7948029 -9.6881475 0.96562707
-0.45300141 -5.2523813 4.7765741
-0.85848141 -10.014299 7.4021378
-0.86043006 -10.078275 6.0295081
-0.85998017 -10.135522 4.7897115
-0.96699852 -11.444096 4.0863533
-0.88687325 -10.539619 2.6417158
-0.8216908 -9.7853823 1.4618164
-0.76265806 -9.1204662 0.46287003
-0.046427079 -0.083450131 9.5239105
-0.049316142 -0.4440065 2.8404975
-0.20808071 -1.9760722 9.5763245
-0.29324222 -2.9767747 9.6096048
-1.0434103 -11.227601 20.73172
-1.0567846 -11.546179 17.101353
-1.0580707 -11.694936 14.135698
-0.10998113 -0.5490666 9.5235128
-0.16396934 -1.0159472 9.5550413
-0.25378227 -2.4666224 9.5843811
-0.40056878 -4.0797772 11.202048
-0.2371809 -2.4873366 5.230155
-0.50947106 -5.431231 8.9930086
-1.0761297 -11.623304 15.531673
-1.0421919 -11.794466 11.715345
-0.87621504 -9.9756699 8.1569643
-0.87741417 -10.049567 6.698462
-0.87777817 -10.09431 5.390409
-0.87888145 -10.147949 4.2037039
-0.91851002 -10.648654 3.2315929
-0.8429758 -9.8129177 1.9613756
-0.78192008 -9.1395102 0.91644835
-0.47166675 -5.2544866 4.7798996
-0.89379203 -10.015268 7.4050808
-0.89560461 -10.07521 6.0295081
-0.89655304 -10.146021 4.7960057
-0.87059844 -9.9312029 2.4951761
-0.81872547 -9.3581963 1.402418
-0.76630014 -8.794239 0.44977054
-0.046718091 -0.083287567 9.5239105
-0.050865714 -0.44383165 2.8404975
-0.21497722 -1.9753338 9.5763245
-0.30347973 -2.9742484 9.6048346
-0.46645612 -4.7333231 11.264596
-1.0830555 -11.228658 20.740498
-1.0973482 -11.545221 17.105488
-1.0991873 -11.694362 14.139536
-0.1119556 -0.54896206 9.5285044
-0.16751465 -1.0153687 9.5550413
-0.2622577 -2.4644716 9.5795422
-0.21181807 -2.0834239 5.7490535
-0.24650486 -2.4929926 5.2436585
-0.52716309 -5.416441 8.9716787
-1.1169842 -11.622477 15.535665
-1.0836822 -11.794307 11.718849
-0.9113853 -9.9764271 8.1601028
-0.9124884 -10.046444 6.698462
-0.91380686 -10.100008 5.3950462
-0.91471517 -10.149436 4.2055769
-0.91406864 -10.181931 3.0948195
-0.84265965 -9.4233894 1.8876985
-0.78951788 -8.8639078 0.89185905
-0.48896492 -5.2416553 4.7699232
-0.92874634 -10.012087 7.4050808
-0.9303714 -10.067728 6.0269752
-0.93154842 -10.138309 4.7939076
-0.55573207 -6.0715027 2.2111099
-0.88098389 -9.6618738 2.4306989
-0.8145836 -8.9508839 1.3457822
-0.76406586 -8.4282961 0.43505877
-0.047008533 -0.083123982 9.5239105
-0.052414663 -0.44365138 2.8404975
-0.22187111 -1.9745712 9.5763245
-0.31385994 -2.9731708 9.6048346
-0.48357102 -4.7374969 11.278404
-1.1222442 -11.224809 20.740498
-1.138194 -11.546923 17.113754
-1.1409347 -11.700025 14.151049
-0.11387116 -0.54856789 9.5285044
-0.17105792 -1.0147778 9.5550413
-0.27085871 -2.4635413 9.5795422
-0.44873527 -4.2639456 11.71356
-0.25542742 -2.4942827 5.2481599
-1.158145 -11.624503 15.543643
-1.1248454 -11.790453 11.718849
-0.94657171 -9.9770603 8.1632414
-0.94794416 -10.047359 6.7012033
-0.94864237 -10.092346 5.3927279
-0.59309882 -6.3335943 2.658452
-0.90949988 -9.7488098 2.9679167
-0.84554458 -9.0975733 1.8261456
-0.79290557 -8.5635719 0.86503428
-0.50689894 -5.2362003 4.7665977
-0.96407682 -10.012807 7.4080238
-0.96633196 -10.073001 6.0320411
-0.96736312 -10.139515 4.7960057
-0.57692224 -6.0695262 2.2111099
-0.8794179 -9.2861385 2.3404303
-0.81925935 -8.6669712 1.3064134
-0.77661824 -8.2465172 0.42780367
-0.047298405 -0.082959376 9.5239105
-0.053962976 -0.44346574 2.8404975
-0.2287623 -1.9737848 9.5763245
-0.32423633 -2.9720571 9.6048346
-0.50031024 -4.7377229 11.283007
-1.1616659 -11.223206 20.744888
-1.1787791 -11.545678 17.117886
-1.181124 -11.689592 14.143373
-0.11578532 -0.54816705 9.5285044
-0.17459913 -1.0141745 9.5550413
-0.27945644 -2.4625807 9.5795422
-0.22542448 -2.0733166 5.7255898
-0.2645914 -2.4977052 5.2571621
-1.1990242 -11.623388 15.547634
-1.1673994 -11.800651 11.732868
-0.98177356 -9.9775686 8.1663799
-0.98219562 -10.035666 6.6957207
-0.98429537 -10.093382 5.3950462
-0.60802984 -6.2576585 2.6284835
-0.91671193 -9.4686413 2.8861349
-0.84852391 -8.7963028 1.7692558
-0.79658878 -8.2881098 0.84044498
-0.5251736 -5.2343993 4.7665977
-0.99942356 -10.013403 7.4109669
-1.0014874 -10.069567 6.0320411
-0.59208292 -6.0063834 2.1897442
-0.87951654 -8.954073 2.2607126
-0.81761408 -8.3387823 1.2608286
-0.76313615 -7.8111691 0.41027048
-0.047563229 -0.082757652 9.5189114
-0.055510633 -0.44327465 2.8404975
-0.2356507 -1.9729742 9.5763245
-0.33460879 -2.9709072 9.6048346
-0.51536083 -4.722353 11.250789
-1.2010901 -11.221463 20.749275
-1.2196652 -11.547091 17.126152
-1.223588 -11.701338 14.162561
-0.11769808 -0.54775959 9.5285044
-0.1781382 -1.0135589 9.5550413
-0.28805074 -2.4615903 9.5795422
-0.23285297 -2.0742319 5.7302818
-0.27330843 -2.4967666 5.2571621
-0.58469355 -5.4184027 8.984477
-1.2405491 -11.628119 15.559604
-1.0481018 -9.9061575 10.877203
-1.2107652 -11.81779 11.753896
-1.0169905 -9.9779539 8.1695185
-1.0193298 -10.052977 6.7094278
-1.0190765 -10.085478 5.3927279
-0.59735698 -5.9326162 2.4973712
-0.91958475 -9.1646786 2.797303
-0.84989941 -8.5000143 1.7132984
-0.78848398 -7.9136214 0.80691397
-1.2350886 -11.891362 10.729219
-1.0347862 -10.013873 7.4139099
-1.0379555 -10.078875 6.0396409
-0.63475108 -6.1955342 2.9665039
-0.61304545 -6.0042801 2.1897442
-0.87779999 -8.6269588 2.1821673
-0.82469767 -8.1191025 1.2304386
-0.77731609 -7.6792231 0.40503067
-0.04785182 -0.082591116 9.5189114
-0.057057608 -0.44307819 2.8404975
-0.24253623 -1.9721397 9.5763245
-0.34497717 -2.9697211 9.6048346
-0.52965391 -4.7011113 11.204763
-1.2407795 -11.221964 20.758055
-1.2605753 -11.548357 17.134418
-1.2637368 -11.690621 14.154886
-0.11960939 -0.5473454 9.5285044
-0.18167508 -1.0129309 9.5550413
-0.29664153 -2.4605699 9.5795422
-0.48422414 -4.1801591 11.497692
-0.28300029 -2.5044498 5.275167
-0.60100359 -5.3930011 8.9460831
-1.2811313 -11.623718 15.559604
-1.0808319 -9.8855886 10.858827
-1.2520096 -11.813492 11.753896
-1.0526303 -9.9820852 8.1757956
-1.0539787 -10.045199 6.706686
-0.59980071 -5.7552791 2.4261959
-0.91043502 -8.7653875 2.6802702
-0.85022867 -8.2136002 1.6592065
-0.79617232 -7.717627 0.78947788
-1.2438955 -11.58256 10.456529
-1.0697348 -10.010201 7.4139099
-0.65828705 -6.2113338 2.974896
-0.6340006 -6.0021033 2.1897442
-0.87177527 -8.2806349 2.098933
-0.81731701 -7.7763534 1.1827817
-0.78433847 -7.4876509 0.39737251
-0.048115108 -0.082387626 9.5139112
-0.058603898 -0.44287631 2.8404975
-0.24929084 -1.9702709 9.5714293
-0.35534129 -2.9684987 9.6048346
-0.54267716 -4.670125 11.135726
-1.2802155 -11.219944 20.762444
-1.3015093 -11.549479 17.142683
-0.12151925 -0.54692453 9.5285044
-0.18520977 -1.0122905 9.5550413
-0.3050738 -2.458272 9.5747023
-0.49144614 -4.1167574 11.328752
-0.29375753 -2.5207453 5.3111773
-0.62220865 -5.4115977 8.9802113
-1.3220385 -11.62217 15.563595
-1.0878896 -9.9822187 8.1789341
-1.0890366 -10.041459 6.706686
-0.67048436 -6.2024708 3.3521838
