# .PCD v0.7 - Point Cloud Data file format
VERSION 0.7
FIELDS x y z
SIZE 4 4 4
TYPE F F F
COUNT 1 1 1
WIDTH 1610
HEIGHT 1
VIEWPOINT 0 0 0 1 0 0 0
POINTS 1610
DATA ascii
1.1818337 4.7227721 4.8639574
1.385888 5.5504537 4.6952472
1.5087081 6.0557733 4.1763129
3.1629925 12.733511 5.3893337
2.1133964 8.5207825 2.6703999
3.8886642 15.701673 3.16259
6.6695533 26.970633 2.5871828
1.2504708 4.967557 4.6435542
1.4047612 5.5927815 4.2823873
4.0956354 16.329697 9.978734
3.39712 13.57476 6.5562716
2.1569068 8.6317244 3.1857107
3.6407745 14.59157 3.7179034
3.9929354 16.014839 2.3942347
0.99107635 3.5535429 23.452021
1.0097091 3.7124031 18.519905
0.85250998 3.2205985 10.697618
1.2026482 4.6077495 11.278404
1.4179231 5.4792314 10.439329
1.0456303 4.0640106 6.2358317
1.1276008 4.4015942 5.5166636
0.81820577 3.0375695 12.149277
1.0000558 3.7830718 10.69523
1.509609 5.8125319 9.8931208
1.0764734 4.1657534 5.7720742
1.1609442 4.5087905 5.1255703
1.2000679 4.7255311 4.8709664
1.3823072 5.4550295 4.6199245
1.5236875 6.0261474 4.1598644
3.3836935 13.401873 7.3219695
3.2198877 12.77184 5.4099374
2.1548371 8.5598717 2.6845002
3.9542274 15.730879 3.1709838
6.7733564 26.98583 2.5907595
1.2678031 4.9631624 4.6435542
1.4222785 5.5800109 4.2765012
4.1409154 16.269348 9.9508696
3.459007 13.620005 6.5835462
2.1893456 8.633297 3.1889977
3.7024248 14.62118 3.7284541
4.0488133 16.000805 2.3942347
0.9996689 3.5366039 23.363115
1.0188714 3.6951141 18.451372
0.86374676 3.217603 10.697618
1.2167249 4.5959692 11.259995
1.4431223 5.4974136 10.48322
1.0718927 4.1066232 6.3060918
1.1389267 4.3821201 5.4974761
0.82516009 3.0213571 12.096043
1.0141488 3.7828913 10.704614
1.2628888 4.7635217 10.25351
1.5298893 5.8072267 9.8931208
1.097121 4.1852884 5.8039947
1.1741052 4.4948702 5.1145449
1.2192254 4.7316737 4.8814802
1.4061867 5.4690189 4.6356168
1.5405566 6.0045905 4.1488986
3.4348519 13.407145 7.3312445
3.2621524 12.75154 5.4061909
2.1930149 8.5848341 2.6943705
6.8736596 26.986153 2.5929949
1.286057 4.9623213 4.6468797
1.4407356 5.5710988 4.2735577
4.197681 16.254793 9.9508696
4.516736 17.528141 8.4550085
2.2288821 8.6621876 3.2021458
3.7389243 14.551673 3.7143862
4.1021795 15.976982 2.3928533
1.0120078 3.5330927 23.363115
1.030941 3.6885931 18.436686
1.2241477 4.559618 11.181751
1.4635354 5.4969716 10.491998
1.0927033 4.1273389 6.3432884
1.1542162 4.3781176 5.4974761
0.83268213 3.007556 12.052487
1.0273474 3.7793281 10.704614
1.280074 4.7611866 10.258011
1.550151 5.8018508 9.8931208
1.1186924 4.2076421 5.8399048
1.1958662 4.5136838 5.1402707
1.2330288 4.7170382 4.8709664
1.3849883 5.3096595 4.5069399
1.5678269 6.0234556 4.1653471
3.3043144 12.731102 5.4024453
2.2337999 8.6189194 2.7070606
4.5008721 17.391119 3.5020642
1.3043201 4.9614124 4.6502051
1.448891 5.5230289 4.2411833
4.2587652 16.256723 9.9610023
4.5710068 17.485926 8.442421
2.2614908 8.6634941 3.2054329
3.7909226 14.543237 3.7155588
4.1579247 15.962565 2.3928533
1.0254177 3.5332696 23.387812
1.0421449 3.6790943 18.407314
0.89095443 3.2287614 10.754882
1.2400563 4.5553174 11.181751
1.4833386 5.4941411 10.496387
1.1114824 4.1398063 6.3680859
1.1595563 4.336905 5.451426
1.1296805 3.2786627 32.299671
0.83943862 2.9913192 11.999254
1.0487875 3.8056643 10.789084
1.3024119 4.7776923 10.303023
1.5710758 5.7989216 9.8973866
1.1412176 4.2328053 5.8798051
1.2186524 4.5356741 5.169672
1.2622827 4.7609653 4.9200301
1.3816111 5.2220106 4.4378939
1.6048546 6.0785899 4.2064691
3.1805327 12.063541 6.617054
3.3310292 12.652242 5.3743496
3.599467 13.691218 4.2510467
4.5515723 17.337292 3.4946032
7.9458957 30.309538 2.9059501
1.3216307 4.9568295 4.6502051
1.4743971 5.5413742 4.258842
4.3188066 16.254257 9.9686012
4.6343422 17.478634 8.4466162
4.1675396 15.740227 5.7561588
3.9112418 14.793068 3.7812083
4.2250037 15.991044 2.3990693
1.0348945 3.519978 23.323601
1.0555431 3.6773915 18.417107
0.90624118 3.2400067 10.802601
1.5037725 5.4935503 10.505166
1.128883 4.1467614 6.3846178
1.1730103 4.3266435 5.4437509
1.1402404 3.2721827 32.274815
0.85056293 2.9907885 12.008932
1.0583504 3.7886839 10.751542
1.3144418 4.7563305 10.267014
1.5913084 5.7934022 9.8973866
1.1647265 4.2607679 5.9236956
1.2398242 4.5510182 5.1917233
1.287228 4.7875252 4.951571
1.3998311 5.2171559 4.4378939
1.6509382 6.1658506 4.2695227
3.1985934 11.962498 6.5683594
3.3943088 12.712202 5.4043179
8.0823593 30.397121 2.9166799
1.3398997 4.95579 4.6535306
1.5084726 5.5908279 4.3000464
4.3833685 16.268217 9.9863338
4.0220208 14.99998 3.8363075
4.2795153 15.971416 2.3983788
1.0458442 3.5118761 23.293964
1.0737768 3.6922603 18.510115
0.9269107 3.2698543 10.912357
1.5299844 5.5136528 10.553446
1.1545815 4.183485 6.4466124
1.1991502 4.3627005 5.4936385
0.85960501 2.9829702 11.989575
1.068748 3.7750041 10.723386
1.6122211 5.7903252 9.9016523
1.1892493 4.291522 5.9715757
1.2629232 4.5728054 5.2211246
1.3095599 4.8036475 4.9725986
1.4210992 5.223505 4.4473095
1.6823115 6.1963687 4.2941961
3.2785845 12.092349 6.6448798
3.456836 12.767398 5.4324136
3.7112377 13.725956 4.2693768
6.5817099 24.376045 4.8851395
8.215642 30.469698 2.9260688
1.3581777 4.9546833 4.6568561
1.533312 5.6050224 4.3147621
3.1461654 11.516387 7.1010427
5.6479998 20.716749 10.013862
4.2798057 15.71986 5.7594457
4.1100626 15.11718 3.8691325
1.0560765 3.5015092 23.24951
1.0886735 3.6953266 18.54438
0.9379068 3.2651639 10.907585
1.553112 5.5221119 10.57978
1.1744848 4.1983991 6.475543
1.2143714 4.3584881 5.4936385
1.0819188 3.7712505 10.723386
1.3904237 4.897819 10.591101
1.6331316 5.7871723 9.9059191
1.2115563 4.3134537 6.0074859
1.2797916 4.5716333 5.2247996
1.3177695 4.7681103 4.9410577
1.4476035 5.2485304 4.4724169
1.7028209 6.1864271 4.2914543
3.3301678 12.115002 6.6634302
3.5222435 12.831253 5.4642553
3.7565918 13.703666 4.2665572
6.6057968 24.130239 4.8413062
1.3754644 4.9499125 4.6568561
1.560429 5.6269011 4.3353643
3.1725388 11.455482 7.0706444
5.7335796 20.745028 10.036941
4.3396773 15.723032 5.7660198
4.1615143 15.098053 3.8679597
1.0667032 3.4925997 23.214935
1.0998185 3.6856494 18.515009
0.94929862 3.2618699 10.907585
1.2619972 4.3929768 10.827356
1.5848527 5.5604186 10.663173
1.1899004 4.1969814 6.4796758
1.2339337 4.3696456 5.512826
0.78448963 2.6526625 10.68777
1.4129286 4.9117641 10.631612
1.6540397 5.7839437 9.9101849
1.2356806 4.3410773 6.0513759
1.2994431 4.5801845 5.2395005
1.3344053 4.7634816 4.9410577
1.4690595 5.2546906 4.481832
4.0404873 14.481316 9.9416161
3.301095 11.847269 6.524302
3.5670118 12.81888 5.4642553
3.8172472 13.736688 4.2806573
1.3977958 4.9630513 4.6734834
1.5877174 5.6486578 4.3559661
3.1752248 11.311525 6.989583
4.4136186 15.776002 5.7906728
4.2272706 15.13025 3.8796833
1.0818735 3.4985051 23.279146
1.1138557 3.6856868 18.53459
0.95856786 3.2513776 10.883725
1.2806 4.3997993 10.854972
1.6002649 5.5410466 10.636838
1.1858938 4.1278915 6.3804851
1.2518246 4.3745561 5.5243387
0.79302269 2.6474993 10.678091
1.0697066 3.6328306 10.352656
1.428847 4.9026227 10.622609
1.6749452 5.7806396 9.9144497
1.2466508 4.3222623 6.0314264
1.3182331 4.5853949 5.250526
1.3461547 4.741641 4.9235349
1.4926983 5.2682552 4.4975247
4.0762205 14.414818 9.9059772
3.3340023 11.805832 6.5080705
3.6343868 12.886663 5.4979696
3.8638735 13.718662 4.2792473
8.5935202 30.592949 2.9457402
1.4212602 4.9796839 4.6934366
1.6162839 5.67418 4.3795114
3.2146902 11.300373 6.989583
3.4301362 12.081711 5.8932872
4.4738126 15.778672 5.7972469
5.3633094 18.940981 4.8386388
1.0912924 3.4858093 23.219875
1.1225418 3.6681457 18.466057
0.96478516 3.2308488 10.826462
1.2987133 4.4046721 10.877985
1.6142162 5.5170379 10.601725
1.2120932 4.1642551 6.4424791
1.2706574 4.3824735 5.5396886
0.80225939 2.6447151 10.678091
1.0828742 3.6307285 10.357349
1.4422528 4.8850775 10.595602
1.6951132 5.7747574 9.9144497
1.2422906 4.2513609 5.9396553
1.3370754 4.5905299 5.2615514
1.3656558 4.7471948 4.9340482
1.5143014 5.2742357 4.5069399
4.1080832 14.336186 9.862114
3.3727546 11.785605 6.5034328
3.6831691 12.887271 5.5035887
3.9183202 13.728155 4.2862973
6.9025593 24.215637 4.8720832
8.7384338 30.696877 2.9582584
1.4438205 4.9926262 4.7100644
1.6472898 5.7073383 4.4089432
3.2732203 11.355357 7.0301137
3.4735432 12.074025 5.8953853
4.5053921 15.681265 5.7676635
5.3918571 18.791325 4.8058138
1.1046275 3.4856822 23.244572
1.1347363 3.6622598 18.456266
0.96957421 3.2060297 10.754882
1.3045756 4.368289 10.799742
1.6246165 5.4815187 10.544667
1.257663 4.2652645 6.6036644
1.2886574 4.3872371 5.5512009
0.8114863 2.6418986 10.678091
1.1120104 3.6814401 10.512211
1.4474449 4.8403859 10.510079
1.7160038 5.7713051 9.9187164
1.2519914 4.2296629 5.9157152
1.3559697 4.5955896 5.2725768
1.387208 4.7595177 4.951571
1.5359645 5.2801304 4.5163555
4.1476078 14.285619 9.8374414
3.4262099 11.816306 6.5266209
4.158823 14.361628 6.1291814
3.9795437 13.760477 4.3003979
6.9747777 24.14892 4.8636894
8.857955 30.709251 2.9622822
1.4675381 5.0090547 4.7300172
1.6751432 5.7287102 4.4295454
3.3297563 11.401793 7.065578
3.4953482 11.992111 5.8618164
4.5574627 15.656376 5.7643766
5.0517101 17.376842 4.4552913
1.119162 3.4892035 23.293964
0.98075944 3.2026258 10.754882
1.3141593 4.3450089 10.753716
1.6478726 5.4895778 10.571002
1.279792 4.2851152 6.6408606
1.3076203 4.3950005 5.5665512
0.82107675 2.6402504 10.68293
1.0955743 3.5818255 10.24003
1.4687493 4.8498888 10.541587
1.7361389 5.7652798 9.9187164
1.2728057 4.2454715 5.9436455
1.3749154 4.6005731 5.2836022
1.4078529 4.7683272 4.965589
1.5565865 5.2822037 4.5226321
4.1903691 14.246985 9.8209915
3.5573266 12.11029 6.6935744
4.5299668 15.441341 6.5899482
4.0504818 13.824761 4.3243685
8.9860487 30.749844 2.9689882
1.4903256 5.0217991 4.7466445
1.6997219 5.7383304 4.441318
3.3695357 11.390101 7.065578
5.438014 18.417549 8.9648361
5.1054702 17.335789 4.449429
1.1342145 3.494144 23.353237
0.87302011 2.7497988 13.893915
0.99104834 3.1963313 10.745338
1.3230243 4.3198466 10.703088
1.6767776 5.5158725 10.632449
1.2971863 4.288702 6.6532598
1.326653 4.4026852 5.5819011
0.82877767 2.6325727 10.663573
1.1381949 3.6752355 10.516904
1.484393 4.8405695 10.532585
1.756253 5.7591848 9.9187164
1.3939123 4.6054797 5.2946277
1.4275544 4.7736344 4.9761028
1.5816952 5.2991161 4.5414629
4.2066464 14.120066 9.7442312
3.6248441 12.182715 6.7399507
4.4544253 14.989937 6.4063911
4.0987144 13.810538 4.3243685
9.1145344 30.789917 2.9756944
1.5142947 5.0380206 4.7665977
1.7139344 5.7130046 4.4266019
3.4154606 11.398916 7.0782442
5.4593577 18.254965 8.8956003
4.3423076 14.53826 5.3699341
5.1715093 17.336493 4.4541187
4.6035414 15.442314 2.3396709
1.1464045 3.4901636 23.353237
0.88541776 2.7554588 13.937972
0.99996394 3.1857316 10.721478
1.3357805 4.3077383 10.684679
1.7044767 5.5374532 10.685118
1.9673479 6.423202 9.9389544
1.3392066 4.3888302 5.5703888
0.8375802 2.6284659 10.658733
1.1535988 3.6794734 10.540368
1.5025721 4.8395166 10.541587
1.7763456 5.7530193 9.9187164
1.3546588 4.406414 6.1790571
1.4139538 4.6135516 5.3093286
1.4535124 4.7993407 5.0076437
1.6103196 5.327095 4.5697088
4.2498693 14.085279 9.7305231
3.7772372 12.55048 5.3837147
4.1510396 13.809929 4.3285985
9.2434092 30.829466 2.9824007
1.5394825 5.0577078 4.7898765
1.6974406 5.5870967 4.3353643
3.4552295 11.386925 7.0782442
5.508574 18.188015 8.8725214
4.3943963 14.527534 5.3715777
4.6531229 15.411929 2.3375988
1.1585804 3.4861405 23.353237
0.89786553 2.7610657 13.982029
1.0097219 3.177954 10.707162
1.347298 4.2918658 10.657063
1.7366227 5.5726275 10.764121
1.9864228 6.4055448 9.9224215
1.362088 4.408628 5.6010885
0.84366292 2.6159561 10.620018
1.1815755 3.7231233 10.676457
1.5161917 4.8238583 10.519082
1.7971947 5.7492728 9.9229822
1.3709275 4.4045353 6.1830468
1.4320589 4.6150637 5.316679
1.4807129 4.8283329 5.0426893
1.6402979 5.3586602 4.6010938
3.0429652 9.9594526 6.9122963
3.7149782 12.17406 6.7492256
3.9304986 12.896415 5.5354304
4.1656938 13.685215 4.2947574
4.7393894 15.589434 3.1849732
9.378459 30.887554 2.9908953
1.5637263 5.0737114 4.8098292
1.7145559 5.57341 4.3294778
5.6146121 18.307526 8.9396591
4.4298673 14.46244 5.3534994
4.7315054 15.476099 2.3493402
1.1695037 3.4783926 23.328539
0.90622461 2.7540462 13.962449
1.0176095 3.1644628 10.673759
1.3528039 4.2573462 10.583423
1.7560642 5.5665317 10.764121
2.0079272 6.3958869 9.9182892
1.3966067 4.4650283 5.6778388
0.8508386 2.6070206 10.59582
1.2061765 3.7551215 10.779698
1.5343412 4.8226852 10.528084
1.8172525 5.7429643 9.9229822
1.3736154 4.359488 6.1271868
1.4613684 4.6520824 5.3644562
1.5102485 4.8640051 5.084744
1.6682113 5.3826442 4.6262012
3.0838904 9.9687433 6.9260039
3.7574511 12.161018 6.7492256
3.9071407 12.661127 5.4417787
4.213439 13.67059 4.2947574
4.772099 15.502372 3.1709838
9.5008535 30.902225 2.9953659
1.5892127 5.0931726 4.8331079
3.715189 11.942915 7.4354224
5.7390471 18.482862 9.0340719
4.4887156 14.473948 5.3633599
4.5085845 14.555947 3.7659683
4.7840343 15.454759 2.3486497
1.1803871 3.4706111 23.303843
0.91711938 2.7547302 13.982029
1.0281873 3.159472 10.668986
1.377826 4.284215 10.661666
1.7783985 5.5694942 10.781678
2.0293889 6.3861575 9.9141569
1.4325029 4.5242958 5.7584262
0.85914516 2.6016479 10.586143
1.2198105 3.7525291 10.784391
1.5464951 4.8027949 10.496575
1.8380836 5.7390695 9.927248
1.3897401 4.3575373 6.1311769
1.4899265 4.6857224 5.4085579
1.5336342 4.8791161 5.1057711
1.6986427 5.4139266 4.6575861
3.1036725 9.9100332 6.893106
3.7985556 12.1436 6.7469068
4.0702047 13.027961 5.6028595
4.2768507 13.706172 4.3102679
9.744463 31.266701 6.3092508
9.6190252 30.902157 2.9984956
1.6137291 5.1089563 4.8530607
1.9564043 6.2050781 4.8209858
3.7956998 12.053225 7.5114174
5.9069633 18.791769 9.1935234
4.6742592 14.906519 3.8585815
4.8586841 15.504121 2.3583193
1.1924945 3.4664695 23.303843
0.92737985 2.753442 13.99182
1.0434123 3.1686239 10.711934
1.4048661 4.316534 10.753716
1.8000382 5.5700884 10.794845
2.0525296 6.3817124 9.9182892
1.453178 4.5345297 5.7776136
1.1777982 3.5249352 14.346375
1.543015 4.7352734 10.361539
1.8581055 5.7326188 9.927248
1.4169755 4.3899379 6.1830468
1.5197754 4.7224455 5.4563346
1.5539001 4.8839278 5.1162848
1.725778 5.4339323 4.6795549
3.1395099 9.9031248 6.8958473
3.8395844 12.126045 6.7445884
5.0536499 15.979586 6.8596644
4.3246679 13.691159 4.3102679
4.7191114 14.958054 3.0693283
9.7537756 30.95389 3.0065429
1.6406493 5.1317434 4.8796644
2.0100036 6.2983284 4.8975077
3.8010933 11.924901 7.4404888
5.0101314 15.765371 5.8465519
4.7233229 14.880847 3.8562369
4.9427214 15.581472 2.3721328
1.2058645 3.4659553 23.328539
0.93764251 2.7521157 14.001611
1.0549384 3.1663785 10.716706
1.3899778 4.2206793 10.528193
1.821704 5.5706005 10.808012
2.0756645 6.3771853 9.9224215
1.4680089 4.526381 5.7737761
0.91862923 2.2732229 22.823984
1.1860694 3.5088949 14.29798
1.5588529 4.7277908 10.357038
1.8789177 5.7285757 9.9315138
1.4435184 4.4193368 6.2309275
1.5509489 4.7622409 5.5077872
1.5720321 4.8818693 5.1197896
1.7542647 5.4575195 4.7046628
3.1727815 9.8881245 6.893106
5.0811324 15.873544 6.8222036
4.3855805 13.717104 4.3229585
4.7563529 14.894695 3.0600021
1.6574031 5.1224332 4.8763394
2.0431578 6.325891 4.9239964
3.8003435 11.780277 7.3594275
3.8510838 11.958961 5.8953853
5.0680237 15.756778 5.8498392
4.7663183 14.836502 3.8492029
4.9970813 15.564125 2.3721328
1.2187296 3.4639237 23.343357
0.94823891 2.7517135 14.016295
1.0674152 3.1669202 10.731022
1.3892614 4.1694655 10.41313
1.8433951 5.5710287 10.821179
2.0979125 6.3699012 9.9224215
1.4887974 4.5364556 5.792964
0.88552845 2.5901296 10.576464
1.3559632 4.0273876 11.610318
1.5657011 4.6934099 10.294021
1.8989027 5.7219825 9.9315138
1.4683924 4.4428811 6.2708273
1.5802959 4.7954359 5.5518894
1.5912732 4.8831334 5.1267982
1.7985901 5.5290918 4.7705703
3.2201924 9.9167595 6.9205208
5.9099293 18.221464 10.113804
5.130796 15.838069 6.814712
4.4925075 13.884274 4.3793597
4.8143587 14.896699 3.0637326
1.6799212 5.1308103 4.8896413
4.2653103 13.049887 10.080414
3.8928049 11.945445 5.8953853
5.1346869 15.774913 5.8629866
4.8240895 14.838264 3.8538921
1.2313346 3.4611125 23.353237
0.9575032 2.7474256 14.011401
1.079427 3.1660006 10.740566
1.3981901 4.1479297 10.371707
1.8651112 5.5713735 10.834347
2.1210244 6.3652086 9.9265547
1.5036134 4.5281892 5.7891264
0.93366325 2.2647834 22.8041
0.89497524 2.5882108 10.581303
1.3694569 4.0209966 11.605625
1.5806824 4.6837907 10.285018
1.9188645 5.7153192 9.9315138
1.5163831 4.5348907 6.4064884
1.6066766 4.8188348 5.5849657
1.6127762 4.8910961 5.1408167
1.8397851 5.5893288 4.8270626
3.2626209 9.9292927 6.9369693
5.9928374 18.259649 10.146267
4.5394526 13.86395 4.3779497
5.6603351 17.307634 3.5486951
1.6954722 5.117826 4.8829904
4.2689543 12.908278 9.9832888
3.9202652 11.888681 5.8744044
5.1867657 15.747923 5.8596997
4.8697791 14.802865 3.8492029
4.9756932 15.133696 2.3141158
1.2434087 3.4567933 23.353237
0.96742624 2.7450268 14.016295
1.093392 3.17068 10.769197
1.4120299 4.1411743 10.367105
1.8868526 5.5716348 10.847514
2.1432302 6.3577662 9.9265547
1.2774929 3.8028219 4.8796377
0.94033247 2.2585583 22.774271
0.90566438 2.5898168 10.60066
1.3795496 4.0047708 11.572776
1.6244529 4.7585917 10.460566
1.938803 5.7085862 9.9315138
1.5688959 4.6380348 6.5581088
1.6321563 4.8388963 5.614367
1.6366112 4.9057345 5.1618438
1.8789626 5.6419587 4.8772779
3.310452 9.9575224 6.9643841
3.7600172 11.322929 6.3318419
4.1072211 12.382917 5.3593655
4.6707931 14.09847 4.4555011
5.7268882 17.306423 3.5524254
1.7168863 5.1224976 4.8929667
3.4649408 10.355765 8.0349169
3.6406484 10.893513 6.8350587
3.9574313 11.862008 5.8681102
5.2431974 15.734201 5.8613434
5.0284896 15.116235 2.3141158
1.2528112 3.4451299 23.303843
0.97802794 2.7445104 14.030982
1.1044531 3.1668441 10.769197
1.4220177 4.123292 10.334887
1.9086182 5.5718112 10.860681
2.1663182 6.35291 9.9306879
1.2917908 3.8013742 4.8834753
0.94945151 2.2582099 22.8041
0.91930985 2.5996747 10.653894
1.3935204 3.9999309 11.572776
1.6545539 4.7919893 10.546088
1.9595653 5.7042499 9.9357805
2.4191699 7.0701075 9.9695807
1.6479424 4.8299608 5.6106915
1.6617086 4.923645 5.1863756
1.9172869 5.6906943 4.9243546
3.3438573 9.9419432 6.9616427
3.8150368 11.355927 6.3573489
4.1489458 12.36411 5.357492
6.389318 19.062546 5.9994869
5.7857041 17.281672 3.5514929
1.7551385 5.1765852 4.9495001
3.5101395 10.370409 8.0555191
3.6800325 10.884822 6.8375921
3.9973624 11.843822 5.8660126
5.2950716 15.706856 5.8580565
5.1793056 15.381169 4.0051212
5.1033373 15.164298 2.3237851
13.860127 41.232166 1.8483951
1.2632203 3.4363604 23.274208
1.3286996 3.6874778 18.867466
1.1120249 3.1531157 10.735794
1.4293238 4.098012 10.284259
1.9304082 5.5719042 10.873848
2.1884806 6.3453093 9.9306879
1.3050522 3.7968419 4.8834753
0.95816249 2.2568443 22.823984
1.25771 3.5172493 14.418965
1.6863431 4.8293443 10.640615
1.9794649 5.6973753 9.9357805
2.4389069 7.0473824 9.9496298
1.6692158 4.8369975 5.6253924
1.6846462 4.9346895 5.2038984
1.9509517 5.7244935 4.9588776
3.3408291 9.8193693 6.8848815
3.8518023 11.334152 6.3527112
4.19804 12.367112 5.3649845
6.3248873 18.653971 5.8796344
5.8444176 17.256716 3.55056
1.7913669 5.2234049 4.999383
3.5332246 10.319852 8.0260878
3.7207952 10.880067 6.8426585
5.3696799 15.74638 5.8794222
5.220427 15.326188 3.9957426
5.154644 15.141705 2.3230946
14.071522 41.382191 1.8568594
1.2738541 3.428288 23.24951
1.3377287 3.6722937 18.813618
1.1190128 3.1379671 10.697618
1.4481692 4.1058946 10.316476
1.9522219 5.5719128 10.887016
2.2115433 6.3402882 9.9348211
1.3172451 3.7892358 4.8796377
0.96561408 2.2525063 22.814043
1.2682701 3.5081096 14.399609
1.7017406 4.8193231 10.631612
1.9993403 5.6904311 9.9357805
1.5865203 4.5331855 6.4344182
1.6838558 4.8247399 5.6180425
1.7053531 4.9388914 5.2144122
2.0229304 5.8685207 5.0875545
3.3941338 9.8630028 6.9232621
3.8884623 11.312259 6.3480735
4.2712932 12.440076 5.4024453
6.2654657 18.26877 5.7668319
5.9380512 17.333801 3.5701454
8.8368158 25.824959 2.5433691
1.8658749 5.3793888 5.1523557
3.5229347 10.173774 7.9230766
3.7629786 10.879235 6.8502584
4.189569 12.133084 6.0212684
5.4461689 15.790037 5.9024315
5.2517276 15.243534 3.9793301
5.2106915 15.132983 2.324476
1.2825344 3.4150925 23.190241
1.3498353 3.6656907 18.803827
1.1274277 3.1270211 10.673759
1.4539605 4.0768929 10.256643
1.9748589 5.5740938 10.904572
2.2336619 6.33253 9.9348211
1.3304639 3.7846148 4.8796377
0.97368282 2.2496109 22.819014
1.2809396 3.5048416 14.404449
2.0552542 5.7060809 16.547108
1.7251413 4.8318052 10.672123
2.0200646 5.6858749 9.9400463
1.601329 4.5247793 6.4304285
1.715355 4.8603926 5.6658196
1.736692 4.9733109 5.2564664
3.2657952 9.3677168 8.0816422
3.4367881 9.8747892 6.9397106
3.9511998 11.365563 6.3851743
4.2812343 12.328744 5.3612385
4.9237781 14.19504 4.5062623
5.9985213 17.312967 3.5701454
8.8845615 25.671598 2.531745
1.9303697 5.5032048 5.2753992
3.5584264 10.161414 7.9230766
3.8180113 10.914862 6.8806562
4.2303996 12.114102 6.0191703
5.5012531 15.77093 5.9024315
5.3208981 15.271008 3.9910531
1.2916895 3.4033308 23.140848
1.0240675 2.7515805 14.138677
1.4681827 4.0717931 10.256643
1.9967273 5.5739303 10.917739
2.2566981 6.3273449 9.9389544
1.3436667 3.7799475 4.8796377
0.98131591 2.2457101 22.814043
1.2905519 3.4932747 14.375412
2.0739787 5.6956296 16.537724
1.7479105 4.8421345 10.708133
2.0398998 5.6787887 9.9400463
2.5196786 7.0413151 9.97756
1.7664945 4.9501629 5.7760744
1.7849168 5.0546498 5.3475847
3.3010635 9.3636026 8.0879192
3.4754016 9.8745651 6.9479356
3.9967258 11.368419 6.3944492
4.3104191 12.274358 5.3443809
4.9907641 14.227559 4.5217729
8.358839 23.882484 2.3645375
1.963298 5.5351415 5.3119798
3.5857792 10.126071 7.9054179
3.8560879 10.901467 6.8806562
4.2787046 12.116379 6.0275621
5.5374198 15.698191 5.8827085
5.3725562 15.247758 3.989881
1.3004999 3.3908212 23.086515
1.0343833 2.7498949 14.148467
1.2999501 3.5280561 12.067178
1.5044688 4.127214 10.408527
2.019434 5.5759339 10.935295
2.2787712 6.3194294 9.9389544
1.3579371 3.7782505 4.8834753
0.98957962 2.2432463 22.823984
1.3014185 3.4852159 14.360893
2.0986168 5.7013106 16.575266
1.767041 4.8421383 10.721636
2.0606005 5.6740856 9.9443121
2.5380909 7.0154762 9.95362
1.8171304 5.0364456 5.8826542
1.844523 5.1659379 5.4702439
3.3219657 9.319025 8.0596724
3.5084469 9.8584347 6.9451938
4.0660605 11.437876 6.440825
4.2679157 12.018961 5.2413645
5.0420012 14.214573 4.5231829
6.3439965 17.905006 3.6979144
8.5933523 24.280371 2.4052215
1.9775654 5.5141964 5.2986774
3.8883109 10.871706 6.8705235
4.3301301 12.127016 6.0401506
5.5747333 15.629842 5.8646307
1.308677 3.376843 23.022305
1.387062 3.6484995 18.789143
1.3122574 3.5234971 12.067178
1.5188663 4.1219373 10.408527
2.0413561 5.5755978 10.948462
2.30178 6.3140802 9.9430866
1.3711175 3.7734873 4.8834753
0.99653572 2.2378309 22.8041
1.3082495 3.4665401 14.302819
2.1197088 5.6971855 16.58465
1.8027694 4.8870006 10.834167
2.0803943 5.6668577 9.9443121
2.558424 6.9952545 9.9376602
1.8498023 5.0714755 5.9304314
1.8891852 5.233264 5.5473437
3.3359985 9.2561083 8.0157347
3.5485008 9.8618641 6.9561596
4.2108464 11.715423 6.6031413
4.3208098 12.034533 5.2544756
5.1401711 14.332349 4.565484
6.3998313 17.864254 3.6941836
1.9904376 5.4897089 5.2820501
3.5476949 9.800539 7.6729083
3.9262369 10.858068 6.8705235
5.6180444 15.579193 5.853126
5.358623 14.876052 3.9043019
1.3187562 3.3679135 22.99267
1.3986934 3.640784 18.774458
1.3282301 3.5286739 12.100581
1.5475661 4.1550565 10.505179
2.0641313 5.5774226 10.966019
2.3238063 6.3060069 9.9430866
1.3853861 3.771687 4.8873129
1.00631 2.2387135 22.848845
1.31631 3.4513826 14.259265
1.3735946 3.6529515 10.667072
1.8220989 4.8867974 10.84767
2.1010697 5.6620064 9.9485779
2.5880508 7.0004125 9.9576101
1.8721851 5.0777111 5.9451323
1.9221131 5.266839 5.5893984
3.3696208 9.248065 8.0188732
3.5871918 9.861207 6.9643841
4.2456636 11.683998 6.5938659
4.3722825 12.045523 5.2657137
5.181993 14.291771 4.558434
6.4186563 17.721722 3.6699357
2.0057333 5.4722104 5.2720737
3.5818837 9.7880955 7.6729083
3.9655945 10.848344 6.8730569
5.7306175 15.719201 5.912292
5.4105177 14.857257 3.9043019
7.5161462 20.672907 0.98100603
1.3256438 3.351007 22.908703
1.4150791 3.6453714 18.823408
1.3405395 3.5240159 12.100581
1.552424 4.124032 10.440744
2.0861049 5.5769129 10.979186
2.3467863 6.3004942 9.9472198
1.3996592 3.7698328 4.8911505
1.0112524 2.228878 22.784214
1.3242806 3.4362109 14.21571
1.3930813 3.6658785 10.718693
1.8759964 4.9781866 11.063728
2.1208212 5.6546378 9.9485779
2.6114166 6.9885135 9.95362
1.891082 5.0743217 5.9488068
1.9441892 5.2701354 5.5999122
3.4032271 9.2398987 8.0220118
3.6230352 9.8525505 6.9671254
4.3246078 11.77306 6.6518359
4.4143023 12.030187 5.2657137
5.2252455 14.255579 4.5527935
6.3656297 17.38554 3.6065176
2.0274169 5.472178 5.2787247
3.6160285 9.7755327 7.6729083
3.9959669 10.814218 6.8603907
5.8017817 15.743411 5.9287271
5.4606662 14.833716 3.9031293
7.596879 20.669989 0.9820137
1.3396405 3.3521314 22.948217
1.4270514 3.6385138 18.813618
1.2242723 3.1849279 10.955305
1.559863 4.100328 10.394719
2.108947 5.578558 10.996743
2.3687649 6.292264 9.9472198
1.415062 3.7709255 4.8988252
1.0188043 2.2248497 22.779242
1.3326178 3.4221973 14.176994
1.8296833 4.7644916 13.933238
1.8809649 4.9390578 10.991709
2.1405466 5.6472001 9.9485779
2.6368597 6.9821739 9.9576101
1.9613274 5.2599754 5.5964074
3.4422498 9.2462015 8.0377035
5.3050976 14.272724 10.067724
4.3194199 11.633309 6.5822721
4.4336987 11.953854 5.2394915
5.2749748 14.237252 4.5527935
6.3717165 17.215796 3.5766737
3.6204033 9.6833439 7.6111016
4.0291667 10.788088 6.8527913
5.8183403 15.603448 7.7857304
5.5107174 14.810011 3.901957
1.3519152 3.3488755 22.958094
1.4423697 3.6401365 18.847885
1.2353822 3.180635 10.955305
1.5447208 4.01827 10.201413
2.1309712 5.5778742 11.00991
2.3917153 6.2865872 9.9513531
1.429353 3.7689602 4.9026628
1.3413334 3.4093373 14.143119
1.8469275 4.7596846 13.937931
1.898194 4.9324617 10.991709
2.1602459 5.6396942 9.9485779
2.6612158 6.9729266 9.9576101
3.2531497 8.5461969 9.9914885
1.9721302 5.2330737 5.5753803
3.4772456 9.241415 8.0439806
5.3534155 14.250204 10.064982
4.3600011 11.618161 6.5822721
4.4900441 11.977372 5.2563486
6.469636 17.294668 3.5971911
3.6613264 9.6895533 7.6258178
6.0093203 15.920123 10.085127
5.8903775 15.62976 7.8088093
5.0780005 13.488424 5.105329
5.5418496 14.736091 3.8878894
9.8912249 26.315216 4.0131884
1.168448 2.8656998 19.673489
1.4573381 3.6407509 18.877256
1.2481133 3.1804717 10.969621
2.1530163 5.5771046 11.023077
2.413645 6.2782001 9.9513531
1.4425005 3.763948 4.9026628
1.3471894 3.3894496 14.080207
1.8742397 4.7805204 14.017708
1.9169779 4.9298639 11.000711
2.1808603 5.634551 9.9528437
2.6866241 6.9664068 9.9616003
3.2817442 8.5316257 9.987813
3.5122497 9.2364969 8.0502577
5.4046097 14.235341 10.067724
4.3958168 11.590446 6.5753155
4.5482507 12.004979 5.2750788
5.472724 14.460297 4.6345758
6.5716581 17.382256 3.6195741
3.8732405 10.127262 9.7382202
3.6662881 9.6011925 7.5669546
6.0679278 15.907104 10.090194
5.1250529 13.470616 5.105329
5.5932541 14.716657 3.8878894
9.9795046 26.271269 4.011807
1.178148 2.8608851 19.668549
1.4711831 3.6384735 18.891941
1.2542555 3.1636071 10.926673
1.7540399 4.4693098 11.370455
2.1750822 5.5762491 11.036244
2.436564 6.2723594 9.9554853
1.4567878 3.7618787 4.9065003
1.3543284 3.3730621 14.031812
1.4568402 3.6781583 10.812549
1.9341747 4.9231424 11.000711
2.2005153 5.626904 9.9528437
2.7109251 6.9569864 9.9616003
3.3102772 8.5169582 9.9841375
2.1085286 5.4787831 5.8487349
3.5528467 9.2459803 8.069088
5.4542675 14.216388 10.067724
4.4505162 11.612258 6.5961847
4.6348829 12.105925 5.3256512
5.811058 15.193836 4.8714614
5.4576573 14.284752 2.9947186
3.9126053 10.124128 9.7481966
3.7172415 9.6335888 7.6022725
6.1249676 15.889849 10.092727
5.0620089 13.152755 6.6024284
5.2737184 13.717104 5.2039399
5.6550469 14.724267 3.894923
10.092443 26.291754 4.0200953
1.1896197 2.8603423 19.693247
1.4823346 3.6295457 18.872362
1.2625157 3.1522815 10.902813
1.7660291 4.4540792 11.347442
2.1980464 5.5775356 11.053801
2.4584439 6.2638159 9.9554853
1.4699103 3.7567706 4.9065003
1.359952 3.3531721 13.9689
1.472235 3.6794591 10.831319
1.9312693 4.865777 10.888181
2.2211018 5.621614 9.9571095
2.7351928 6.9474812 9.9616003
3.3412259 8.5085068 9.987813
2.1289327 5.4747138 5.8522396
3.5907347 9.2480364 8.0816422
5.5083928 14.208958 10.075949
4.5022221 11.625568 6.6124163
4.6787848 12.093995 5.3275237
5.6928611 14.73048 4.7318678
5.5552559 14.389344 3.0198994
9.0618744 23.496628 2.3538074
3.958786 10.138233 9.7748003
3.7523143 9.62432 7.6052151
6.1866546 15.88444 10.102859
5.1292739 13.189995 6.6297035
5.3130178 13.676602 5.1957221
5.7538891 14.826783 3.9265757
10.211019 26.325617 4.0304556
1.2001988 2.857605 19.703125
1.4942185 3.622467 18.862572
1.2679125 3.1340182 10.855093
1.7437896 4.3535829 11.10811
2.2237036 5.5854044 11.084524
2.4802935 6.2551961 9.9554853
1.4841933 3.7545977 4.9103379
1.3630704 3.3274682 13.88179
1.4863632 3.6774976 10.840705
1.9531033 4.871129 10.915188
2.2407112 5.6138268 9.9571095
2.760541 6.940691 9.9655905
3.3709056 8.4967918 9.987813
3.6960435 9.4071903 10.012136
3.6187301 9.224575 8.0722265
5.5594821 14.193535 10.07869
4.5508461 11.630408 6.6240106
5.1192861 13.096583 5.7695594
5.1387725 13.159961 4.2425866
5.6054502 14.369865 3.0198994
9.1438379 23.464851 2.3538074
3.9941514 10.124352 9.7748003
3.793294 9.6299667 7.6199312
6.2483773 15.878794 10.112992
5.1636662 13.142441 6.6150169
5.0294657 12.813998 4.8801684
5.9085202 15.069072 3.9945703
10.447402 26.658663 4.08571
1.2101665 2.8533981 19.703125
1.5060707 3.6153491 18.852781
1.2811035 3.1351004 10.874182
1.6094843 3.9780219 10.169195
2.2324626 5.5509448 11.031856
2.5031598 6.2491131 9.9596186
1.4972903 3.7493939 4.9103379
1.3775607 3.3296585 13.910827
1.5057139 3.6882632 10.887632
1.9545671 4.8259454 10.829665
2.2612689 5.6083899 9.9613752
2.7847519 6.9310126 9.9655905
3.4018056 8.4881201 9.9914885
3.7301741 9.3975458 10.01564
5.6120706 14.18182 10.084172
4.6223588 11.692723 6.6680675
6.8558841 17.360308 7.6294813
5.1864386 13.146405 4.2439961
5.6321616 14.2908 3.0077753
9.2585278 23.516199 2.3618548
4.0405264 10.138096 9.801405
3.8881607 9.7706451 7.7406011
4.3577242 10.961722 7.0174479
6.2978849 15.866263 7.9787507
5.7495346 14.499549 5.5178499
6.0040474 15.156809 4.0227056
10.558625 26.668079 4.092617
1.2204252 2.8498707 19.708063
1.5194714 3.6119471 18.862572
1.2931782 3.1333687 10.883725
1.6240996 3.9741881 10.173799
2.2500224 5.5386801 11.023077
2.5249579 6.2403369 9.9596186
1.5115681 3.747117 4.9141755
1.5049216 3.0839796 31.961609
1.3877209 3.3213503 13.896308
1.5205529 3.6877706 10.901711
1.9664549 4.807004 10.802658
2.2808321 5.6004624 9.9613752
2.8100619 6.9240422 9.9695807
3.4326861 8.4793358 9.995163
3.7616274 9.3811588 10.012136
5.6630926 14.166027 10.086914
4.6237154 11.577785 6.6124163
6.94908 17.418081 7.6650686
5.2269683 13.114852 4.2397666
5.6820116 14.271053 3.0077753
4.0814681 10.137785 9.8147068
3.9523957 9.8320208 7.7994642
6.5863309 16.425507 8.2682819
5.8071365 14.496926 5.5244241
6.0045476 15.004889 3.9887085
1.2309825 2.8470197 19.717941
1.5308756 3.6038094 18.847885
1.3081285 3.1384804 10.91713
1.6387076 3.9703007 10.178401
2.256614 5.4997725 10.96163
2.5467253 6.2314849 9.9596186
1.5258484 3.7447863 4.9180131
1.5152063 3.0777516 31.951668
1.3978401 3.3130121 13.88179
1.6136934 3.8751988 11.469536
1.9474756 4.7135963 10.609105
2.3013597 5.5948787 9.965642
2.8342142 6.9141912 9.9695807
3.4635465 8.4704399 9.9988384
3.7956898 9.3712759 10.01564
4.631598 11.452237 10.043178
5.7140722 14.150049 10.089655
4.727078 11.717683 6.700531
7.0670242 17.535616 7.7268791
5.2745075 13.100977 4.2411766
5.7006307 14.173656 2.9919209
4.114018 10.116559 9.8080559
4.0657678 10.012905 7.9525084
4.2964082 10.591488 6.8021278
4.8733463 12.031801 6.0884061
5.0624146 12.511117 4.7864885
1.2415349 2.8441293 19.727821
1.5430444 3.5975082 18.842991
1.3138633 3.1215131 10.874182
1.648798 3.9555397 10.155388
2.2987208 5.5471749 11.071357
2.5695355 6.2251587 9.9637518
1.5401306 3.7424014 4.9218507
1.5264149 3.0733984 31.961609
1.4074252 3.3034868 13.862432
1.5629861 3.7168336 11.01903
1.943797 4.6585526 10.501077
2.3208754 5.5868111 9.965642
2.8594844 6.9070396 9.9735699
3.4943869 8.4614315 10.002513
3.8283784 9.3579693 10.01564
4.674489 11.443207 10.049455
5.7650094 14.133889 10.092397
7.1834316 17.628937 10.051197
6.9778728 17.141575 7.5657983
5.3671908 13.198021 4.2778373
5.7278848 14.099057 2.9807293
4.14505 10.091775 9.7980795
4.1359711 10.084665 8.0202017
4.3317189 10.572437 6.7995944
5.100914 12.46838 6.3149958
5.1024823 12.484628 4.7832012
1.2520821 2.8412004 19.7377
1.5580209 3.5977061 18.872362
1.3229995 3.1127865 10.859865
1.6633533 3.951561 10.15999
2.3217683 5.5479541 11.088913
2.5912497 6.2161512 9.9637518
1.554415 3.7399623 4.9256883
1.5306827 3.0551856 31.827379
1.4139801 3.2870078 13.814037
1.5759509 3.711355 11.01903
2.3810306 5.6507792 12.742681
2.34339 5.5858908 9.9784393
2.8835771 6.897016 9.9735699
3.5252066 8.4523115 10.006188
3.8623824 9.3478451 10.019145
4.7129207 11.423222 10.046316
5.8174963 14.121411 10.097879
7.3258481 17.800383 10.162498
7.0394282 17.121399 7.5676708
5.3968248 13.139271 4.2651472
5.7751999 14.074433 2.9797966
4.1773906 10.070347 9.7914286
4.1525865 10.025354 7.9848833
4.3685975 10.557253 6.7995944
5.1894679 12.559557 6.369545
5.1460309 12.466741 4.7832012
7.2379537 17.551941 4.6698251
1.2626239 2.8382323 19.747578
1.1719885 2.6807961 14.089725
1.3309133 3.1012909 10.836006
1.6771367 3.9457307 10.15999
2.3504436 5.5618768 11.132804
2.6140242 6.209662 9.9678841
1.5687008 3.7374687 4.9295254
1.5468714 3.0607641 31.941723
1.4264468 3.2843578 13.823717
2.3777277 5.5883489 12.621149
2.365926 5.5848808 9.9912367
2.9088066 6.8896837 9.97756
3.5546894 8.4399548 10.006188
3.894989 9.3343058 10.019145
4.7587543 11.421072 10.05887
5.8683605 14.10488 10.100621
7.3930397 17.786974 10.169456
7.0831499 17.058189 7.5508137
7.2347798 17.440521 5.6399288
4.2096319 10.048817 9.7847776
4.1064448 9.8168955 7.8318386
4.4054222 10.54194 6.7995944
4.9815955 11.938225 6.0674253
5.1568108 12.370246 4.7536182
7.2132168 17.320164 4.6158986
1.2731602 2.8352249 19.757456
1.1801054 2.6738944 14.075039
1.3411373 3.0952566 10.831234
1.6901292 3.9380569 10.155388
2.3745439 5.5646524 11.154749
2.635684 6.2004995 9.9678841
1.5829883 3.7349212 4.933363
1.5582728 3.0567703 31.956636
1.4384075 3.2805095 13.828556
1.7156358 3.9631438 11.798029
2.3765962 5.532011 12.51312
2.3895094 5.5861797 10.008301
2.9328382 6.879488 9.97756
3.5854557 8.4306154 10.009864
3.9289329 9.3239393 10.02265
4.7985926 11.404392 10.05887
5.919179 14.088163 10.103362
7.4602265 17.773314 10.176412
6.8898721 16.430552 7.286716
4.2388639 10.020306 9.7714748
4.1438332 9.809948 7.8377252
4.4354897 10.510611 6.7894621
5.0232377 11.920763 6.0674253
5.2127848 12.382637 4.7651229
7.1869516 17.088779 4.5619721
1.2830492 2.8307636 19.757456
1.1865306 2.6632483 14.040772
1.3513352 3.0891888 10.826462
1.7085263 3.942889 10.183003
2.4072218 5.5871224 11.216197
2.6584218 6.1938472 9.9720173
1.597277 3.7323196 4.9372005
1.5711287 3.0555782 32.001381
1.4508677 3.2777677 13.838235
1.7287682 3.9555504 11.793337
2.4279454 5.5975757 12.679664
2.4120963 5.5849872 10.021098
2.9580257 6.8719769 9.9815502
3.614862 8.4180479 10.009864
3.9614556 9.3101673 10.02265
4.8414164 11.394736 10.065146
5.9715867 14.075115 10.108846
5.1054611 12.045334 6.9347301
6.9526067 16.419209 7.2923355
7.708322 18.239311 3.8508639
4.2708826 9.9985809 9.7648249
4.1939087 9.8326025 7.867157
4.4721513 10.495064 6.7894621
5.0665951 11.907331 6.0695233
5.3187876 12.512123 4.8210025
7.286458 17.157537 4.5865908
10.481435 24.692747 3.833612
1.2929226 2.8262675 19.757456
1.1958199 2.6590903 14.040772
1.3615072 3.0830874 10.82169
2.4732542 5.6533651 14.596825
2.4305313 5.5874705 11.233752
2.6800261 6.1845298 9.9720173
1.6128384 3.7326059 4.9448752
1.5842407 3.0548067 32.051098
1.4633261 3.2749782 13.847915
1.7397784 3.943176 11.774565
2.4553292 5.6070137 12.720175
2.4357469 5.5860963 10.038162
2.9819953 6.8616095 9.9815502
3.6455727 8.4084883 10.013539
3.9953377 9.2995596 10.026155
4.8826962 11.381345 10.068285
6.0206814 14.054185 10.108846
5.1649055 12.068164 6.9579177
5.4169574 12.669301 5.6553044
7.3944044 17.310867 5.6230087
7.7642298 18.194221 3.8471334
4.2924504 9.9527559 9.7348948
4.2186127 9.7956285 7.8494973
4.5070553 10.47543 6.7869287
5.4071312 12.597624 4.8604465
7.3865314 17.225809 4.6112089
10.587072 24.701525 3.8405185
1.3011513 2.8182101 19.732759
1.2017269 2.6474831 14.001611
1.371653 3.0769527 10.816917
2.5158632 5.6965232 14.730297
2.4529095 5.5855312 11.246921
2.7015977 6.175137 9.9720173
1.6271396 3.7298913 4.9487128
1.5924221 3.0445354 32.001381
1.4716477 3.2629755 13.818877
1.7591493 3.9496899 11.812107
2.4792874 5.6083636 12.742681
2.4583836 5.5847211 10.050961
3.0071394 6.8539181 9.9855394
3.6762612 8.3988171 10.017215
4.0291939 9.2888279 10.029658
4.9239421 11.367804 10.071424
6.0746822 14.044596 10.117069
6.122479 14.168653 8.1660118
5.6338673 13.050402 5.8313694
7.8296366 18.17152 3.8480661
4.3197122 9.9205952 9.7182674
4.2463331 9.766017 7.8377252
4.5418763 10.455679 6.7843957
5.3518829 12.338001 6.3045049
6.7691956 15.620306 6.0141897
7.4697905 17.253448 4.625277
1.315248 2.8228066 19.79697
1.2033257 2.6266105 13.913496
1.3811599 3.0694237 10.807373
1.8865575 4.2316871 10.974637
2.4743333 5.5813136 11.255698
2.7242737 6.1682434 9.9761505
1.6427333 3.7300556 4.956388
1.6008 3.0347154 31.956636
1.4840704 3.2601063 13.828556
2.5612671 5.6968465 17.03985
2.5032854 5.6096153 12.765187
2.4810402 5.5832553 10.063758
3.0322659 6.8461342 9.9895296
3.7055562 8.3859339 10.017215
4.0630236 9.2779732 10.033163
4.9651523 11.354113 10.074562
6.1253438 14.027138 10.119812
7.7058816 17.663359 10.174092
5.3422728 12.257193 5.4904776
7.894978 18.148582 3.8489985
4.3558178 9.9088736 9.7215929
4.2738981 9.73633 7.8259525
5.3949175 12.319244 6.3045049
6.8672128 15.696084 6.0519905
7.5630646 17.302982 4.6452065
1.3277391 2.823823 19.836483
1.2120595 2.6214697 13.908601
1.3912485 3.0632246 10.802601
2.5483546 5.6627865 14.688874
2.4967353 5.5792007 11.268866
2.7457881 6.1586962 9.9761505
1.6570456 3.727227 4.9602251
1.608628 3.0239334 31.901953
1.5043637 3.2743227 13.910827
2.5761452 5.6768713 17.007
2.5273216 5.6107674 12.787693
2.5047841 5.5840793 10.080822
3.057375 6.8382587 9.9935198
3.7361867 8.3760443 10.020889
4.0982695 9.2702589 10.040172
5.0063276 11.340272 10.077701
7.8085585 17.729597 10.227426
5.3868933 12.242713 5.4923506
7.036674 16.007263 5.229609
7.95433 18.111917 3.8471334
4.4282417 9.9789295 9.8047304
4.2996707 9.7028761 7.8112369
4.7770543 10.790302 7.0199814
5.2158375 11.798072 6.0506411
7.6312666 17.294266 4.6498957
1.3385875 2.8212771 19.851303
1.2164658 2.6070738 13.854753
1.4000664 3.0542789 10.788286
2.5745699 5.6680861 14.725695
2.518167 5.5748162 11.277643
2.7672691 6.1490746 9.9761505
1.6713583 3.7243445 4.9640627
1.6214432 3.022527 31.946695
1.5374659 3.3158042 14.109242
2.5513968 5.6118197 12.8102
2.527488 5.5824289 10.093619
3.0812263 6.8275452 9.9935198
3.7654018 8.3629513 10.020889
4.1320572 9.2591524 10.043676
5.0474663 11.326283 10.080839
4.5247478 10.16763 7.3810868
7.8883948 17.742708 10.250613
7.8930039 17.769764 7.9441509
7.0691576 15.929987 5.2126889
8.0095406 18.06608 3.8434031
4.5179982 10.086082 9.924448
4.3351641 9.6914968 7.8141799
4.8146906 10.773561 7.0199814
5.2458916 11.754926 6.0380526
5.934392 13.310163 5.1612086
7.6955433 17.276402 4.6522403
1.5175741 3.1697819 22.340687
1.4100925 3.0480187 10.783514
1.9918324 4.344893 11.319826
2.5386052 5.568172 11.282033
2.7887168 6.1393771 9.9761505
1.6856711 3.7214074 4.9679003
1.6342677 3.0210674 31.991438
1.5703434 3.3559556 14.302819
1.5252044 3.2997499 9.9396935
2.5755098 5.6127725 12.832705
2.551295 5.5830607 10.110683
3.1062891 6.8194904 9.99751
3.795974 8.3528433 10.024564
4.1658173 9.2479248 10.047181
5.0885687 11.312144 10.083978
4.5739193 10.182288 7.403019
5.6341057 12.554115 7.289506
8.0460243 17.94515 8.0340567
7.1149158 15.883325 5.2056389
4.6131706 10.202933 10.054143
4.3623137 9.6615696 7.8024073
4.8504949 10.752759 7.0174479
5.2906194 11.744819 6.0422487
5.9381814 13.194632 5.125051
7.7119517 17.151905 4.6264496
1.5296437 3.1665642 22.355507
1.1970491 2.5194294 13.433764
1.4213549 3.0444305 10.788286
2.0168314 4.3591905 11.375057
2.568038 5.5810337 11.325924
2.8101301 6.1296053 9.9761505
1.6986511 3.7155006 4.9679003
1.6448033 3.0153444 31.991438
1.5933206 3.3743222 14.404449
1.5337951 3.2881503 9.9209223
2.5987458 5.6116495 12.850711
2.5751369 5.5835943 10.127747
3.1300747 6.8086057 9.99751
3.8251078 8.3395424 10.024564
4.1980734 9.2333269 10.047181
5.1296339 11.297858 10.087116
4.6094341 10.16626 7.403019
5.6248856 12.417355 7.222261
7.2315822 15.993894 5.2493496
4.6503077 10.190166 10.057468
5.7067947 12.522533 10.103958
4.8969312 10.755378 7.0301137
5.3315845 11.726279 6.0422487
5.8279634 12.829873 4.9935708
7.7476707 17.071768 4.6123819
1.5345589 3.148634 22.2666
1.2062765 2.5161541 13.43866
1.4230655 3.0205457 10.721478
2.694124 5.7700391 15.061679
2.5935564 5.5850687 11.352258
2.8326912 6.122313 9.9802837
1.7129531 3.7124588 4.9717379
1.6537765 3.0067828 31.961609
1.604008 3.3664703 14.394769
1.5445286 3.2812152 9.9162302
2.622927 5.6124048 12.873217
2.5990138 5.5840292 10.144811
3.1550906 6.8003721 10.0015
3.8556187 8.329215 10.028239
4.2317653 9.221858 10.050686
5.1706605 11.283422 10.090254
4.6327133 10.123493 7.3838286
5.7013507 12.47016 7.2639995
5.6632419 12.398232 5.5953674
7.2913499 15.977282 5.2521696
4.6889739 10.180654 10.064119
5.7504716 12.502537 10.103958
5.0208435 10.926237 7.1517062
5.364913 11.691098 6.0338564
5.8176084 12.68926 4.9475522
7.7728052 16.969494 4.592452
1.5431398 3.1383777 22.232025
1.2163825 2.5146773 13.453344
1.4284726 3.0047753 10.683302
2.7192452 5.7712026 15.089293
2.6191337 5.5889931 11.378592
2.8540447 6.1123881 9.9802837
1.7259016 3.7064571 4.9717379
1.661158 2.9953985 31.901953
1.6124812 3.3540542 14.365733
1.5567131 3.2773623 9.9209223
2.6443594 5.6071529 12.882219
2.6229253 5.5843658 10.161875
3.1788092 6.7893171 10.0015
3.8846693 8.3157053 10.028239
4.2639298 9.2070303 10.050686
5.2116494 11.268836 10.093392
4.6925678 10.160405 7.4222088
5.7244287 12.405938 7.2384925
5.7123079 12.391019 5.6009865
7.4514313 16.178303 5.3254914
4.7260561 10.16761 10.067445
5.8008857 12.497052 10.115731
5.0571384 10.904733 7.1491728
5.4133186 11.688772 6.0422487
5.8797135 12.707446 4.9623437
7.862586 17.00844 4.6100368
1.5495957 3.1239233 22.167814
1.2273865 2.5149913 13.477821
1.432496 2.9863129 10.635583
2.7385349 5.7599115 15.084692
2.6447704 5.5928068 11.404926
2.8765631 6.1049333 9.984417
1.7415555 3.7062118 4.979413
1.6637949 2.9756267 31.752808
1.625825 3.3517976 14.38025
1.5651602 3.2656839 9.9021511
2.670464 5.6116476 12.913728
2.6479876 5.5869589 10.183205
3.2037761 6.7809038 10.00549
3.9151187 8.3051615 10.031915
4.2975526 9.1953211 10.054191
5.2509532 11.250575 10.093392
4.7562695 10.204603 7.4660726
5.7228189 12.289503 7.1828413
5.7633481 12.387816 5.6084785
7.6352453 16.426249 5.4143238
4.7646904 10.157813 10.074096
5.8427591 12.473068 10.112789
5.1043091 10.906536 7.161839
5.4656172 11.694476 6.0548372
7.7307973 16.571238 4.5010114
1.5639687 3.1254435 22.217205
1.2352582 2.5088646 13.468031
1.4383588 2.9718893 10.602179
2.763695 5.7608862 15.112308
2.6694341 5.5943484 11.426872
2.8990638 6.0973964 9.9885492
1.7613486 3.7145905 4.9986005
1.6820291 2.9837286 31.901953
1.6375151 3.346102 14.38025
1.5773014 3.2617543 9.9068441
2.6966324 5.6160293 12.945235
2.6719742 5.5870924 10.200268
3.2274263 6.7696791 10.00549
3.9440854 8.2914438 10.031915
4.3296237 9.1802635 10.054191
5.2918515 11.2357 10.096531
5.7506104 12.237378 7.1642909
5.8597503 12.480927 5.6590505
7.5845666 16.169319 5.339592
4.8017159 10.144492 10.077421
5.8897171 12.459905 10.118674
5.0779181 10.752224 7.0731778
5.5586767 11.786158 6.1114845
5.805244 12.320081 4.8292198
7.5546489 16.047216 4.3685393
1.5699661 3.1102548 22.148056
1.2358533 2.4881239 13.379916
1.4447933 2.9588025 10.573546
2.803365 5.7916484 15.218165
2.6941409 5.5957861 11.448817
2.9215474 6.0897765 9.9926815
1.7756876 3.7113111 5.0024381
1.6924341 2.977839 31.901953
1.6497416 3.3414927 14.38509
1.8717037 3.836262 11.661939
2.7162197 5.6065817 12.945235
2.6971281 5.5894761 10.221598
3.2523434 6.7610874 10.00948
3.9744709 8.2806826 10.03559
4.3631749 9.168314 10.057695
5.3310394 11.217159 10.096531
5.0855727 10.715117 7.8608437
5.4155893 11.420714 6.7028499
5.9072514 12.468776 5.6627965
6.2720561 13.250722 4.3990998
4.8387065 10.131039 10.080747
5.9349146 12.442918 10.121618
5.0616388 10.621579 6.9997158
5.5978341 11.762584 6.1093864
5.8461862 12.295478 4.8275762
7.8900957 16.609062 4.52563
1.5804607 3.1040633 22.143118
1.2372314 2.4692304 13.301593
1.4498348 2.9430292 10.535371
2.8287084 5.7923603 15.245779
2.71889 5.5971193 11.470763
2.9427869 6.0795412 9.9926815
3.6238823 7.5065684 10.056431
1.698841 2.9649768 31.827379
1.6625167 3.3379641 14.394769
2.282171 4.6363382 14.10687
2.7223308 5.5917521 10.242928
3.2759242 6.7496939 10.00948
4.0033517 8.2667589 10.03559
4.3951516 9.1530285 10.057695
5.3718448 11.201992 10.099669
5.1319747 10.716155 7.8745508
5.4496856 11.389752 6.6958933
7.8109736 16.354052 5.4171438
4.8756623 10.117451 10.084072
5.9800649 12.425768 10.12456
5.132309 10.673776 7.0453124
5.6997619 11.869802 6.1744261
7.9102063 16.502522 4.504528
1.589511 3.095072 22.118422
1.243546 2.4603531 13.277117
1.4587702 2.935277 10.525826
2.8299143 5.7438965 15.144525
2.743681 5.5983472 11.492708
2.9652252 6.0717611 9.9968147
3.6430449 7.4794645 10.037244
1.6758515 3.33551 14.409287
2.3021791 4.6360722 14.130334
2.7464323 5.5915785 10.259992
3.3007901 6.7409234 10.01347
4.0336719 8.2557812 10.039266
4.4286299 9.1408396 10.061199
5.4109144 11.183172 10.099669
5.1511574 10.660527 7.847136
5.4971142 11.386619 6.7051687
6.0565901 12.556674 5.7208605
6.2498698 12.968933 4.3215485
6.9961071 14.530379 3.153264
4.9125819 10.103728 10.087398
6.0251684 12.408454 10.127504
5.1695361 10.655796 7.0453124
5.7411604 11.849833 6.1744261
5.954514 12.301119 4.845655
7.6609054 15.840328 4.3345423
1.6038797 3.0964036 22.167814
1.2558273 2.463254 13.316278
1.4583021 2.9088171 10.449474
2.8429902 5.7199879 15.107704
2.7674525 5.5973234 11.510265
2.9864018 6.0613732 9.9968147
3.6719584 7.472456 10.044919
1.6749816 3.3049741 14.302819
2.3044348 4.6002359 14.045864
2.7717237 5.5936418 10.281321
3.3243003 6.7293606 10.01347
4.0639644 8.2446909 10.04294
4.4605103 9.1253252 10.061199
5.4516258 11.167715 10.102808
5.2029967 10.672549 7.8690677
5.4922109 11.275762 6.6518359
6.0902414 12.514614 5.7114954
6.2888088 12.934095 4.317318
4.9494648 10.08987 10.090723
6.0720015 12.394607 10.13339
5.8083992 11.882728 6.2017007
5.9849825 12.254799 4.8357935
7.775835 15.935804 4.3673673
1.6189966 3.0990496 22.227085
1.2639521 2.4579499 13.311383
1.4623834 2.8917208 10.406527
2.8594365 5.703043 15.089293
2.7923191 5.5983448 11.53221
3.0075417 6.0509124 9.9968147
3.6965961 7.4567208 10.041081
1.6836467 3.2935112 14.278623
1.7297217 3.423171 10.484055
2.795897 5.5932636 10.298385
3.3491137 6.7204123 10.01746
4.0942283 8.2334909 10.046616
4.4939141 9.1128988 10.064704
5.4922948 11.152108 10.105947
5.2402196 10.654323 7.8690677
5.5334916 11.260498 6.6541548
6.2156143 12.659735 5.786417
6.2811022 12.804395 4.2820673
6.9655027 14.212115 3.0963743
4.9863105 10.075878 10.094049
6.1170211 12.376959 10.136333
5.5949912 11.33065 7.5114174
5.7213726 11.601871 6.0674253
6.0986843 12.377854 4.8916731
7.9602184 16.170214 4.437706
1.6464686 3.124999 22.454292
1.2748688 2.4580419 13.335859
1.4670416 2.8759615 10.368351
2.8793263 5.693027 15.089293
2.8183024 5.6013999 11.558544
3.0299063 6.042892 10.000948
3.724036 7.4466386 10.044919
1.6887958 3.2753253 14.225389
1.7432278 3.4201875 10.493441
2.820101 5.5927849 10.315448
3.3725522 6.7086806 10.01746
4.124464 8.2221794 10.050291
4.5272851 9.1003485 10.068209
5.5329213 11.136354 10.109085
5.2885299 10.65844 7.8855166
5.5727644 11.241114 6.6541548
