# .PCD v0.7 - Point Cloud Data file format
VERSION 0.7
FIELDS x y z
SIZE 4 4 4
TYPE F F F
COUNT 1 1 1
WIDTH 1504
HEIGHT 1
VIEWPOINT 0 0 0 1 0 0 0
POINTS 1504
DATA ascii
0.13796987 -0.46829236 2.3705506
0.94766015 -3.1440389 10.544914
0.35916927 -1.1678209 2.306366
0.37411055 -1.2104775 1.9334321
0.36426628 -1.1743162 1.5486841
0.12398206 -0.63487631 11.026002
0.2644558 -1.1253045 10.73826
0.2199482 -0.74071401 3.0124428
0.3423954 -1.1341788 3.2759655
1.4920603 -4.8951354 10.645115
0.3903656 -1.2732877 2.2485666
0.36611536 -1.1890495 1.7221999
0.47752365 -1.5462154 1.8326229
0.39475039 -1.2633059 1.3804384
0.50206888 -1.6038935 1.4375293
5.1262994 -16.327963 9.044837
6.912291 -21.989794 9.40137
8.8423872 -28.095695 8.7476416
5.5318007 -17.555267 3.5859997
5.8869014 -18.659491 1.8495023
0.41677526 -1.3403925 1.331356
0.61503583 -1.974497 1.5893955
4.9312434 -15.812827 9.8191433
0.71902943 -2.3013582 1.2020416
7.853972 -25.10804 9.2453289
8.6291895 -27.552574 7.0543189
5.6731849 -18.103117 2.7381933
7.4467816 -23.733664 1.0970879
-0.014666367 -0.11116145 11.433838
0.10453293 -0.3676748 2.4305391
0.61782408 -2.128231 10.677751
0.93710542 -3.1487584 10.549686
0.36402884 -1.2074815 3.0306804
0.3564823 -1.1736509 2.3151441
0.37070429 -1.2144676 1.9375652
0.36016491 -1.1755805 1.5486841
0.12176517 -0.63530523 11.026002
0.26052615 -1.1262207 10.73826
0.21736129 -0.74147731 3.0124428
1.1026365 -3.7004673 10.554446
1.4749641 -4.9003134 10.645115
0.34738582 -1.1473371 2.0310042
0.36459199 -1.1989692 1.7341701
0.4612453 -1.512203 1.792196
0.39349303 -1.2748992 1.3909521
0.49991632 -1.6167923 1.4469448
5.1571865 -16.629234 9.2001972
6.8382397 -22.022642 9.4051161
8.6815996 -27.924833 8.6856003
5.450048 -17.508808 3.5729432
5.8187685 -18.670418 1.8486081
0.41099784 -1.3382698 1.3280305
4.8633265 -15.788746 9.7938128
0.70965362 -2.2995176 1.1999437
7.7662811 -25.135302 9.2453289
8.5343971 -27.587172 7.055491
5.5865288 -18.047121 2.7271423
7.3062096 -23.573406 1.0892282
-0.015054304 -0.11110958 11.433838
0.10157622 -0.36205077 2.3910251
0.60870945 -2.1245017 10.648379
0.92821199 -3.1591711 10.573546
0.3620404 -1.216235 3.0490906
0.35307109 -1.1771821 2.3195331
0.36808661 -1.2211429 1.9458311
0.36069933 -1.1921704 1.5678717
0.11959942 -0.63601029 11.030994
0.25647548 -1.1266032 10.733288
0.21512073 -0.74343908 3.0172825
1.0882521 -3.6993272 10.540368
1.4566097 -4.9012594 10.636113
0.34188509 -1.1435449 2.0224721
0.36300373 -1.2088925 1.74614
0.42174804 -1.4001887 1.6635653
0.39111978 -1.2830877 1.3979613
0.4954063 -1.6222501 1.4500831
5.1042972 -16.664078 9.2094717
6.7803545 -22.108429 9.4313383
8.4179115 -27.413853 8.5192156
5.3888974 -17.527725 3.5729432
0.41065809 -1.3539888 1.3413326
0.84916562 -2.7947738 2.2104025
5.0001373 -16.436626 10.181389
0.70029926 -2.2976394 1.1978456
7.6716037 -25.139673 9.2371111
8.3954391 -27.477339 7.0203214
5.3280392 -17.427195 2.6339006
7.1332135 -23.302584 1.0767332
-0.015442057 -0.11105635 11.433838
0.097834185 -0.35341427 2.3317537
0.6023975 -2.130533 10.667961
0.91759437 -3.1638258 10.578319
0.36219767 -1.232487 3.0859108
0.35099927 -1.1852969 2.3327003
0.36542684 -1.2278147 1.9540969
0.35928756 -1.2026356 1.5793842
0.1173786 -0.63642389 11.030994
0.25254133 -1.1274917 10.733288
0.21286911 -0.74539417 3.0221217
0.33386785 -1.1493026 3.308815
0.33862934 -1.1472327 2.0267382
0.36135069 -1.2188194 1.7581102
0.42652044 -1.4341476 1.7003169
0.38972196 -1.29469 1.4084748
0.49535906 -1.6426024 1.4657755
4.5898328 -15.192533 10.489909
5.1140747 -16.906517 9.3323689
6.6802964 -22.056536 9.399497
8.3931656 -27.677191 8.5911274
0.40914252 -1.3661445 1.3513091
0.83940488 -2.7977209 2.2104025
6.1271191 -20.396746 12.600574
0.69227475 -2.3000698 1.1978456
5.360219 -17.787476 6.554904
8.4370718 -27.962513 7.1352086
5.2700377 -17.45517 2.635282
7.0648398 -23.37038 1.078547
-0.015829623 -0.11100177 11.433838
0.094969124 -0.34775537 2.2922397
0.59358948 -2.1277184 10.643484
0.90859854 -3.174185 10.602179
0.35789323 -1.2337438 3.0859108
0.34618789 -1.184216 2.3283112
0.36193183 -1.2317827 1.9582298
0.35962033 -1.2192544 1.5985717
0.11520699 -0.63711399 11.035986
0.2484899 -1.1278456 10.728316
0.21128757 -0.74976259 3.0366402
0.32985398 -1.1504611 3.308815
0.33972827 -1.1659356 2.0565996
0.35963267 -1.2287492 1.7700801
0.42533144 -1.4486394 1.7150176
0.38723195 -1.3028795 1.415484
4.5415545 -15.224489 10.500875
4.8331695 -16.181475 8.9265795
6.5913095 -22.039745 9.3826399
8.3887014 -28.014215 8.6856003
0.40648845 -1.3747255 1.3579601
0.82848585 -2.7967582 2.2074592
6.0595608 -20.430407 12.608173
0.68941301 -2.319874 1.2062378
5.2671232 -17.701979 6.5171032
5.3420615 -17.919552 2.7002058
6.8631864 -22.992771 1.0616184
-0.016216995 -0.11094584 11.433838
0.090333685 -0.33532643 2.2082722
0.58750904 -2.1346865 10.667961
0.25856352 -0.91481686 3.0863039
0.35412201 -1.2368637 3.0905132
0.35001731 -1.2130314 2.3809803
0.3591972 -1.2384439 1.9664958
0.35267457 -1.2112696 1.5870591
0.11298234 -0.63751227 11.035986
0.24455148 -1.1287062 10.728316
0.20967813 -0.75412887 3.0511582
0.32583615 -1.1516055 3.308815
0.33493572 -1.1646079 2.0523336
0.35701358 -1.2357869 1.7780602
0.39857045 -1.3752224 1.6304888
0.38569343 -1.3144894 1.4259976
0.55303204 -1.8812836 1.6634983
4.4883833 -15.24025 10.500875
4.7691383 -16.172752 8.9126663
8.3819838 -28.35154 8.7800722
8.0243969 -27.107235 5.4587011
0.40796369 -1.3976415 1.377913
0.81758386 -2.7957537 2.2045162
5.9700389 -20.389378 12.570176
0.68386614 -2.3309765 1.2104338
5.1653733 -17.584335 6.4677982
4.8827467 -16.60079 4.2642031
5.2808757 -17.942839 2.7008965
6.7857099 -23.026173 1.0620215
-0.016613321 -0.11093122 11.438837
0.088169567 -0.33188379 2.1835761
0.58005399 -2.1367242 10.667961
0.25496799 -0.91427583 3.0815318
0.34874046 -1.2343321 3.0813081
0.34578088 -1.2142458 2.3809803
0.35564628 -1.2423956 1.9706287
0.33605298 -1.1693649 1.5333341
0.11075632 -0.63790274 11.035986
0.24061006 -1.129553 10.728316
0.20804076 -0.75849319 3.0656767
0.31578517 -1.1311274 3.2478089
0.32085207 -1.1371725 2.5069206
0.34439385 -1.2134407 2.1333864
0.35517573 -1.2457191 1.7900304
0.38071716 -1.3309728 1.5790365
0.38407856 -1.3261043 1.4365112
0.54863101 -1.8906789 1.6697752
4.4118118 -15.17552 10.446046
5.0234199 -17.256872 9.4946852
4.6185179 -15.845324 6.7566481
8.4630585 -28.99769 8.9690161
8.1184969 -27.781042 5.5864701
0.41135091 -1.42776 1.4045171
4.2983255 -14.891728 11.369517
5.9012237 -20.418375 12.575243
0.68329984 -2.3595064 1.2230222
5.0829191 -17.529692 6.4415021
4.824769 -16.617733 4.2642031
5.2140675 -17.946898 2.6988244
6.8266997 -23.467066 1.0795547
-0.017009744 -0.11091518 11.443837
0.086814538 -0.33143765 2.1786368
0.57285506 -2.1397195 10.672855
0.25217065 -0.91659963 3.0863039
0.35072246 -1.2581254 3.1365385
0.35207212 -1.2463377 1.9747616
0.321477 -1.1335266 1.4872841
0.10852894 -0.63828546 11.035986
0.23666573 -1.130386 10.728316
0.20670334 -0.76406848 3.0850341
0.31183487 -1.1322228 3.2478089
0.31688064 -1.1382855 2.5069206
0.35210887 -1.2573304 2.2059073
0.35245699 -1.2527527 1.7980103
0.35949451 -1.2735647 1.5128835
0.38238725 -1.3377236 1.4470248
0.54417104 -1.9000663 1.6760521
4.3461266 -15.146616 10.41589
5.8243189 -20.271624 11.12712
4.5477986 -15.807885 6.7341719
8.3710814 -29.05932 8.9788866
8.1017962 -28.087681 5.6414948
0.41351172 -1.4543272 1.4277955
4.241888 -14.891093 11.357745
5.8322787 -20.44714 12.580308
0.66258758 -2.3182387 1.2020416
4.9684296 -17.361191 6.3741183
4.8162742 -16.807358 4.307579
5.1486592 -17.955469 2.697443
6.7626667 -23.553177 1.0821745
-0.017396808 -0.11085512 11.443837
0.08527036 -0.33023357 2.1687584
0.56564236 -2.1426907 10.677751
0.25053206 -0.92323709 3.1053917
0.36704138 -1.3346933 3.3206394
0.34923011 -1.2529804 1.9830275
0.31233689 -1.1161215 1.464259
0.10625359 -0.63837546 11.030994
0.23261158 -1.1306829 10.723345
0.20468223 -0.7672146 3.094713
0.30742866 -1.1316392 3.2431161
0.30483761 -1.1099948 2.4439037
0.35049516 -1.2686075 2.222971
0.34969345 -1.2597823 1.8059905
0.35504675 -1.2748117 1.5128835
0.38061947 -1.3493474 1.4575385
0.53859371 -1.9056997 1.6791905
4.2932286 -15.161694 10.41589
5.743855 -20.257738 11.10857
4.4444766 -15.654197 6.6629963
8.2551651 -29.037609 8.963376
5.0179529 -17.627289 3.5710778
0.4296107 -1.5312569 1.497631
4.1997266 -14.940831 11.384234
4.5368543 -16.118629 9.9255371
0.64463592 -2.2855926 1.1852573
4.5612869 -16.151434 5.9303708
4.7588992 -16.828745 4.3087516
5.1601105 -18.235405 2.7354305
6.7212691 -23.720839 1.0882205
-0.017793257 -0.11083628 11.448837
0.084117107 -0.33052921 2.1687584
0.55790317 -2.1436665 10.672855
0.25424835 -0.95006269 3.1912875
0.36493638 -1.3453943 3.3436522
0.34560013 -1.2569052 1.9871606
0.30758622 -1.1141154 1.4604216
0.1040246 -0.63874251 11.030994
0.22866334 -1.131488 10.723345
0.20264168 -0.77035582 3.1043918
0.29142529 -1.0876977 3.1164114
0.30323687 -1.1194572 2.4619086
0.3481214 -1.2773721 2.235769
0.34688511 -1.266808 1.8139704
0.35059467 -1.2760434 1.5128835
0.38164327 -1.371282 1.4785657
0.53611994 -1.9225652 1.6917443
4.2605314 -15.249079 10.465236
4.8555622 -17.355455 9.5201912
4.3860545 -15.656224 6.6573772
8.1498671 -29.052391 8.9591465
5.1118183 -18.198015 3.6801946
0.43621409 -1.575929 1.537537
4.1648307 -15.017719 11.431325
0.63665378 -2.2878289 1.1852573
4.5175557 -16.212746 5.946806
4.6674695 -16.728209 4.2794437
5.1164017 -18.32485 2.7457907
6.5657859 -23.484339 1.0773379
-0.01818979 -0.11081603 11.453837
0.079953149 -0.31875861 2.0897303
0.55041695 -2.1456008 10.672855
0.25093049 -0.95094442 3.1912875
0.36528441 -1.3655335 3.3896773
0.34268337 -1.263536 1.9954264
0.30201137 -1.1089969 1.4527465
0.10183901 -0.63938695 11.035986
0.22471231 -1.1322793 10.723345
0.20058171 -0.77349216 3.1140707
0.27485153 -1.0403219 2.9803214
0.30101222 -1.1268187 2.4754121
0.34907454 -1.2987291 2.2698965
0.34403196 -1.2738293 1.8219506
0.3550041 -1.3099812 1.5496351
0.38157451 -1.3898011 1.4960885
5.6868625 -20.674013 17.371473
4.2706094 -15.49363 10.621499
3.9510751 -14.31488 7.8599305
4.331378 -15.67144 6.6573772
8.0484066 -29.080662 8.9591465
7.9725251 -28.767443 5.7590046
0.44644412 -1.6350735 1.5907451
4.1113167 -15.028266 11.428381
4.3536005 -15.892138 9.7684803
0.63226813 -2.3031673 1.1915514
4.4734507 -16.273949 5.9632411
4.5948591 -16.69285 4.2665482
5.0353088 -18.280533 2.7368119
6.4425902 -23.357817 1.0710903
-0.018596293 -0.11083686 11.463837
0.080509245 -0.32582664 2.1341836
0.54267466 -2.1465223 10.667961
0.24535649 -0.94314641 3.1626556
0.36001754 -1.3649111 3.3850746
1.7190942 -6.464911 12.326633
0.33899763 -1.2674429 1.9995594
0.29896957 -1.1131399 1.4565841
0.099606507 -0.63973856 11.035986
0.22075856 -1.1330568 10.723345
0.19850229 -0.77662343 3.1237495
0.27121848 -1.0412751 2.9803214
0.29763129 -1.1299677 2.4799132
0.34587494 -1.3049817 2.2784283
0.34113398 -1.280846 1.8299305
0.3583056 -1.3406897 1.5827116
0.38231301 -1.4117785 1.5171157
5.6024313 -20.648661 17.333813
4.2373443 -15.585108 10.673588
3.8836274 -14.264472 7.8251491
4.27177 -15.668571 6.6498852
7.9342132 -29.062305 8.9450464
7.8552194 -28.733496 5.7468805
0.45432478 -1.687097 1.637302
4.0546217 -15.026916 11.416608
4.2947268 -15.894753 9.7608805
0.62659699 -2.314122 1.1957476
7.0091476 -25.851349 9.4113226
4.5582128 -16.788532 4.2864771
4.9727659 -18.302776 2.7375026
6.4095459 -23.558531 1.078547
-0.019003164 -0.11085619 11.473837
0.088147603 -0.36235446 2.371268
0.53493261 -2.1474154 10.663066
0.24169235 -0.94255108 3.1578836
0.35770822 -1.3756136 3.4080875
1.70502 -6.5033069 12.388081
0.33600622 -1.2740607 2.0078254
0.29672295 -1.1203736 1.464259
0.0973728 -0.64008236 11.035986
0.21680211 -1.1338204 10.723345
0.19671009 -0.78096855 3.138268
0.26458001 -1.0305147 2.9474719
0.34197676 -1.3087044 2.2826943
0.33819121 -1.287858 1.8379105
0.3639881 -1.3812717 1.6268137
0.38198274 -1.4303321 1.5346385
5.5433998 -20.716972 17.374611
4.1872478 -15.615957 10.684553
4.2026057 -15.629665 6.627409
7.838954 -29.112984 8.952096
7.8021898 -28.93623 5.7813878
0.46184751 -1.7391948 1.683859
5.4769559 -20.583731 15.592954
4.2347779 -15.892986 9.7507477
0.61851543 -2.3162949 1.1957476
6.9066691 -25.830038 9.3948879
7.8651147 -29.373451 7.4247713
4.9088469 -18.320024 2.7375026
-0.019420587 -0.11091646 11.488835
0.088684216 -0.37021807 2.4206605
0.52719098 -2.1482806 10.658171
0.23766991 -0.94049442 3.1483395
0.35484371 -1.384424 3.4264975
1.6841065 -6.5161753 12.401248
0.33297265 -1.2806729 2.0160913
0.29604858 -1.1338078 1.479609
0.095179573 -0.64070398 11.040977
0.21284302 -1.1345704 10.723345
0.1957971 -0.78897077 3.1673045
0.26394245 -1.0431432 2.9803214
0.33870718 -1.3149415 2.2912261
0.33520362 -1.294865 1.8458906
0.36172113 -1.3923775 1.6378391
0.38243544 -1.4523489 1.5556659
5.4660854 -20.717377 17.358919
4.1476765 -15.687076 10.722935
4.1230702 -15.550136 6.5880747
0.4718487 -1.8022012 1.7403926
5.3989177 -20.579264 15.575294
4.1825614 -15.920179 9.7583466
0.60464865 -2.296495 1.1852573
7.851872 -29.739094 7.5091782
4.8296881 -18.279594 2.7292144
-0.019849006 -0.11101755 11.508835
0.086148441 -0.36523029 2.3860857
0.51944977 -2.1491179 10.653275
0.23366481 -0.93842119 3.1387956
0.35192204 -1.3932312 3.4449077
1.6560301 -6.5011253 12.361746
0.32989702 -1.2872792 2.0243571
0.29847896 -1.1596673 1.5103091
0.092942521 -0.64103234 11.040977
0.20897728 -1.1358308 10.728316
0.65930849 -2.6994541 10.736164
0.26614016 -1.0675008 3.04602
1.1915489 -4.7257581 10.14098
0.33539817 -1.3211715 2.299758
0.33291605 -1.3047866 1.8578608
0.35517702 -1.3870633 1.6304888
0.38184312 -1.4709345 1.5731884
5.33324 -20.459818 13.946898
4.0687652 -15.564432 6.5880747
8.1032486 -30.90967 6.1581659
0.47954953 -1.8580673 1.7902751
5.3250256 -20.590158 15.569407
0.59548861 -2.2941988 1.1831592
7.7700548 -29.850994 7.5302796
4.7458787 -18.219667 2.7181635
-0.020236408 -0.11094759 11.508835
0.084873028 -0.36552879 2.3860857
0.51170915 -2.1499274 10.648379
0.23358539 -0.95227933 3.1817434
0.34941483 -1.4039304 3.4679203
1.6339099 -6.5091896 12.366135
0.32677931 -1.2938799 2.0326231
0.29836863 -1.1762366 1.5294967
0.090664648 -0.64106691 11.035986
0.20501122 -1.1365534 10.728316
0.6492939 -2.699295 10.726485
0.26817098 -1.0918864 3.1117187
1.1739961 -4.7256632 10.131977
0.33141705 -1.3248643 2.3040237
0.33056319 -1.3147076 1.8698307
0.35199177 -1.3948689 1.6378391
0.38377729 -1.4998983 1.6012248
0.55663896 -2.1709042 1.8894671
5.2659516 -20.494509 13.957865
3.9623535 -15.376524 6.503788
8.028491 -31.066181 6.1833472
6.4170117 -24.794868 2.3922563
0.47674209 -1.8742042 1.8035771
5.2471294 -20.585119 15.551749
0.57960272 -2.265485 1.1684729
4.8497357 -18.92952 6.8901801
7.6174893 -29.689608 7.483387
4.647769 -18.101822 2.6988244
-0.020612927 -0.11083396 11.503836
0.080667891 -0.35294256 2.3021183
0.50396919 -2.1507092 10.643484
0.23061013 -0.95453995 3.1865156
0.34451208 -1.4051416 3.4679203
1.3053113 -5.2779756 10.031145
0.32294017 -1.2977433 2.0367558
0.30280846 -1.2114767 1.5717092
0.088387676 -0.64109337 11.030994
0.20095037 -1.136737 10.723345
0.63957804 -2.7003217 10.721645
0.26516894 -1.0961705 3.1211042
1.1616327 -4.7466488 10.167987
0.32803816 -1.3310778 2.3125558
0.32814515 -1.3246282 1.8818009
0.34793848 -1.3993793 1.6415143
0.38987288 -1.5461835 1.6467839
0.54905772 -2.1728342 1.8894671
0.6462093 -2.5517535 1.8104278
3.8926795 -15.327355 6.4775658
7.9321251 -31.141619 6.1926732
6.3562717 -24.918453 2.4016449
0.47201243 -1.8831003 1.810228
0.60331148 -2.4016933 1.8866546
4.3826399 -17.422119 10.642426
0.57058161 -2.2630932 1.1663748
4.7778497 -18.923441 6.8819623
4.6355739 -18.319565 2.727833
8.0137568 -31.623621 1.4096622
-0.020978114 -0.11067677 11.493835
0.076212436 -0.33881506 2.2082722
0.49645877 -2.1524551 10.643484
0.23314467 -0.98002732 3.2676392
0.34098026 -1.4120328 3.4817278
1.2885804 -5.2894812 10.044312
0.31974787 -1.304329 2.0450218
0.29857779 -1.2125264 1.5717092
0.086073942 -0.64082557 11.02101
0.19698119 -1.1374315 10.723345
0.62815106 -2.6939688 10.68777
0.25774431 -1.0819806 3.0788693
1.1450567 -4.7506747 10.167987
0.32338983 -1.3322147 2.3125558
0.32494766 -1.3316205 1.889781
0.34466437 -1.4071709 1.6488646
0.39307064 -1.5821457 1.6818293
0.54241008 -2.1785147 1.8926057
0.63831043 -2.5580509 1.8131692
3.8369021 -15.331855 6.4738197
7.3354998 -29.268623 8.9591465
7.8532691 -31.288229 6.2159886
0.46633139 -1.8883615 1.8135536
0.59589535 -2.4077084 1.8895979
4.3321691 -17.479155 10.667758
0.58565509 -2.3575692 1.2104338
4.6513462 -18.697132 6.7948565
4.5656085 -18.311611 2.7243795
-0.021342454 -0.11051838 11.483835
0.076365143 -0.34514987 2.2477865
0.48871705 -2.1531823 10.638589
0.22802183 -0.97356796 3.2437794
0.32475525 -1.3656968 3.3666646
1.2701088 -5.2939467 10.044312
0.31585324 -1.3081727 2.0491548
0.28527966 -1.1761817 1.5256591
0.083763152 -0.64054936 11.011027
0.19300961 -1.1381122 10.723345
0.61986774 -2.7010458 10.707129
0.25042206 -1.0677524 3.0366344
1.1309801 -4.765234 10.190494
0.31813142 -1.330799 2.30829
0.32240924 -1.341536 1.9017509
0.34134004 -1.4149567 1.656215
0.39856493 -1.6285408 1.7273885
0.54407358 -2.2181973 1.9239902
0.63336974 -2.5765057 1.8241352
3.7722633 -15.300144 6.4550896
7.3022852 -29.573481 9.0437479
7.653204 -30.948267 6.1441765
0.46150172 -1.8972338 1.8202046
0.59131646 -2.425482 1.9013705
0.57742208 -2.3595994 1.2104338
4.5703163 -18.649042 6.7718472
8.4126301 -34.275848 8.6029501
4.4331493 -18.048506 2.6843202
-0.021717027 -0.11040101 11.478836
0.076638862 -0.35224909 2.2922397
0.48119807 -2.154875 10.638589
0.2155764 -0.93508315 3.1149359
0.3199861 -1.3668221 3.3666646
1.2620823 -5.3426337 10.127705
0.31193563 -1.3120049 2.0532877
0.27670562 -1.1584647 1.502634
0.081419662 -0.63997847 10.996053
0.18894891 -1.1382531 10.718373
0.61292642 -2.7142282 10.750683
0.24514177 -1.0618939 3.0178635
1.1158252 -4.7755117 10.203997
0.31228948 -1.3268238 2.299758
0.31911188 -1.3485179 1.9097309
0.33953229 -1.4293332 1.6709156
0.39789116 -1.6507241 1.7484158
0.54181087 -2.242784 1.9428209
0.62634009 -2.5868289 1.8296181
3.6863403 -15.202527 8.2749958
0.59039503 -2.4589739 1.9249158
0.65653539 -2.7303021 1.73577
0.57449877 -2.3836615 1.2209241
4.3799901 -18.146175 6.5861311
8.2643805 -34.18689 8.5736427
4.4108768 -18.232334 2.7084939
-0.022068588 -0.11019804 11.463837
0.07330697 -0.34263453 2.2280293
0.47367322 -2.1565416 10.638589
0.2113212 -0.93146265 3.1006198
0.26741871 -1.1604152 2.8649898
0.33758244 -1.4512995 2.7979426
0.30735397 -1.3130858 2.0532877
0.26899239 -1.1438227 1.4834466
0.079011805 -0.63882571 10.971093
0.18497451 -1.1389056 10.718373
0.60126835 -2.7065341 10.711967
0.23952344 -1.0543289 2.9943995
1.0991488 -4.7793775 10.203997
0.30647919 -1.3228244 2.2912261
0.31576967 -1.3554931 1.917711
0.33917195 -1.4503164 1.6929666
0.39459696 -1.6625125 1.7589295
0.54388666 -2.2863147 1.977344
0.62215525 -2.6093364 1.8433253
3.6250205 -15.180834 8.2564459
3.6049724 -15.073615 6.3501992
2.4785111 -10.347528 3.2174926
0.58180803 -2.4610198 1.9249158
0.64799398 -2.7367721 1.7383031
4.3384604 -18.253237 6.6190014
8.1483727 -34.229717 8.5771599
4.3724551 -18.3536 2.7236891
-0.022487236 -0.1102467 11.478836
0.071156353 -0.33832502 2.1983938
0.46592775 -2.1571865 10.633694
0.20741877 -0.92928076 3.0910757
0.26163918 -1.1537203 2.8465796
0.33251441 -1.452469 2.7979426
0.30340016 -1.316893 2.0574207
0.26355273 -1.1385093 1.4757715
0.076983504 -0.640818 11.001044
0.18099786 -1.1395444 10.718373
0.59262174 -2.7123008 10.726485
0.23546557 -1.0534745 2.989707
1.0829394 -4.7853088 10.208498
0.30128023 -1.3213432 2.2869601
0.31238264 -1.3624612 1.925691
0.33790892 -1.4680107 1.7113425
0.38879132 -1.6638798 1.7589295
0.53590262 -2.2881994 1.977344
0.6168654 -2.6277757 1.8542913
2.4445784 -10.365455 3.2203128
7.3061166 -30.931099 6.1255245
0.57504612 -2.4709091 1.9308021
0.64039397 -2.7474139 1.7433695
4.2026324 -17.960205 6.5088859
8.0199661 -34.220093 8.5677805
4.3196707 -18.416962 2.7305956
-0.02298714 -0.11058838 11.528834
0.0680985 -0.32943812 2.1391227
0.45839491 -2.1587999 10.633694
0.19458053 -0.88625759 2.9479165
0.25633481 -1.148906 2.8327718
0.31691986 -1.4068911 2.7101612
0.29880148 -1.3179439 2.0574207
0.26384753 -1.1581736 1.4987966
0.074778832 -0.64136964 11.006035
0.17701901 -1.1401694 10.718373
0.17408527 -0.809479 3.2253776
0.22882465 -1.0408061 2.9521646
1.066229 -4.7890601 10.208498
0.29894879 -1.332566 2.3040237
0.30961376 -1.3723618 1.9376612
0.33577767 -1.482407 1.7260431
0.39177209 -1.7034577 1.7974794
0.53053486 -2.3014348 1.9867593
0.6086303 -2.6339867 1.8570327
3.8409071 -16.570692 6.9608088
2.4148901 -10.40196 3.2287729
7.2537289 -31.195642 6.1721554
0.56822234 -2.4807813 1.9366884
0.63079977 -2.7496326 1.7433695
4.1144776 -17.864326 6.4694419
7.9004664 -34.247875 8.5677805
4.2041144 -18.209972 2.6988244
-0.023373026 -0.11050747 11.528834
0.065718427 -0.32358068 2.0996087
0.45085654 -2.1603868 10.633694
0.19305913 -0.89422721 2.9717762
0.25399688 -1.157427 2.851182
0.3073453 -1.3869439 2.6706595
0.29481161 -1.3217255 2.0615535
0.26470903 -1.1809814 1.5256591
0.072634622 -0.64248765 11.02101
0.17295857 -1.1402532 10.713402
0.17151824 -0.81131166 3.230217
0.22154634 -1.0247308 2.905237
1.0518335 -4.8033848 10.231004
0.2965427 -1.3437887 2.3210876
0.30677953 -1.3822592 1.9496313
0.33428717 -1.500115 1.7444189
0.39526832 -1.7465549 1.839534
0.52422011 -2.3108644 1.9930362
0.60035938 -2.6401727 1.8597742
3.7851036 -16.59304 6.9645548
2.3753603 -10.396297 3.2245426
0.47581914 -2.1162846 2.0130837
0.56044799 -2.4866929 1.9396317
0.62309623 -2.7602274 1.7484357
3.6392343 -16.08296 7.7102003
4.0124307 -17.703575 6.4069886
7.7754908 -34.251545 8.5619183
3.9957039 -17.587107 2.6076548
-0.0013939702 -0.030913671 2.0641949
0.064890623 -0.32533243 2.1094873
0.44331262 -2.1619473 10.633694
0.18993652 -0.89489561 2.9717762
0.24871962 -1.1525774 2.8373744
0.29230615 -1.3412064 2.5828779
0.29140177 -1.328244 2.0698195
0.28335226 -1.2851917 1.6522968
0.070422158 -0.64302427 11.026002
0.16897728 -1.1408499 10.713402
0.1689405 -0.81313616 3.2350564
0.21294911 -1.0018656 2.8395383
1.0327693 -4.7963867 10.208498
0.29350901 -1.3524619 2.3338854
0.30452242 -1.3950975 1.9655914
0.33122578 -1.5112076 1.7554444
0.40234289 -1.8071017 1.8991114
0.5195415 -2.3278756 2.00559
0.5920527 -2.6463327 1.8625156
3.4117408 -15.225644 8.2541265
3.7271602 -16.606152 6.9645548
2.3401082 -10.409205 3.2259526
0.468429 -2.1179326 2.0130837
0.55613858 -2.5083649 1.9543474
0.61439204 -2.7665942 1.7509691
3.5771549 -16.068985 7.6976118
3.94136 -17.675991 6.3921971
7.6537642 -34.268993 8.5595741
4.083365 -18.267876 2.7029686
-0.0015018706 -0.030908616 2.0641949
0.43576333 -2.1634817 10.633694
0.18924747 -0.90724373 3.0099521
0.24307409 -1.1457938 2.8189645
0.27357715 -1.2766461 2.4599836
0.28735682 -1.3320038 2.0739524
0.28769124 -1.3268955 1.7021843
0.068058454 -0.6421175 11.006035
0.16499394 -1.1414328 10.713402
0.16660316 -0.81618422 3.2447352
0.20874545 -0.99922436 2.8301528
0.29041827 -1.36113 2.3466833
0.30217937 -1.4079368 1.9815515
0.32951921 -1.5289249 1.77382
0.39679521 -1.8119787 1.9026158
0.51224703 -2.333477 2.0087285
0.58191299 -2.6442997 1.8597742
3.3547585 -15.220156 8.2448511
3.646184 -16.514942 6.9214749
2.3016872 -10.407943 3.2231326
6.7874866 -30.641617 6.0499821
0.45944622 -2.112258 2.0064325
0.54565728 -2.5023928 1.9484611
0.60565084 -2.7729335 1.7535021
3.5598707 -16.258713 7.7815342
3.8806465 -17.694254 6.3938403
7.5309677 -34.281258 8.5560579
4.0482845 -18.412605 2.721617
-0.0016581827 -0.031070866 2.0841942
0.073838919 -0.38454491 2.4898102
0.42820871 -2.1649895 10.633694
0.1893727 -0.92398494 3.062444
0.23708045 -1.1370723 2.7959518
0.26665187 -1.2658751 2.4380381
0.28387278 -1.3385046 2.0822184
0.28238967 -1.3247566 1.6983467
0.065816633 -0.64235115 11.006035
0.16100858 -1.1420017 10.713402
0.16325967 -0.81429571 3.2350564
0.20560294 -1.0016375 2.8348453
0.26690102 -1.2825321 2.7724922
0.2867355 -1.3672407 2.3552151
0.30037218 -1.423725 2.0015016
0.32699046 -1.5433323 1.7885209
0.3934702 -1.8272983 1.916634
0.50409859 -2.3352509 2.0087285
0.57356352 -2.6504016 1.8625156
3.3016098 -15.231773 8.2448511
3.5855627 -16.513977 6.9158554
2.261265 -10.397164 3.2174926
0.45441249 -2.1248024 2.0164089
0.53352982 -2.4884729 1.9366884
0.59777802 -2.7834601 1.7585685
3.5088272 -16.297663 7.7941227
7.4112582 -34.307335 8.5560579
3.9850345 -18.431463 2.7223077
5.4015045 -24.940779 1.1230854
-0.0017666296 -0.031064888 2.0841942
0.071923904 -0.38174546 2.4700532
0.42064884 -2.1664712 10.633694
0.18438058 -0.91585988 3.033812
0.23193441 -1.1321511 2.7821441
0.26320207 -1.2714889 2.4468162
0.28034681 -1.3449969 2.0904841
0.28302047 -1.3508315 1.7290468
0.063269645 -0.63941604 10.951127
0.15709336 -1.143085 10.718373
0.16041626 -0.81486064 3.2350564
0.20176452 -1.0006573 2.8301528
0.2624225 -1.2834558 2.7724922
0.28459221 -1.3810052 2.3765447
0.29784688 -1.4365669 2.0174615
0.32574695 -1.5643783 1.8105719
0.38782775 -1.8321496 1.9201386
0.49998361 -2.356034 2.024421
3.2364185 -15.186884 8.2147074
3.5288644 -16.530926 6.9177289
2.2229521 -10.395612 3.2146726
0.45083287 -2.1446455 2.0330365
4.3205018 -20.50202 15.339841
0.58983904 -2.7939653 1.7636348
3.4660118 -16.376411 7.825593
3.6865091 -17.388313 6.2755079
7.2793407 -34.275944 8.5419893
3.9412644 -18.542139 2.7361212
5.3206544 -24.9888 1.1242945
-0.0018874555 -0.031100366 2.0891941
0.070590928 -0.38199419 2.4700532
0.41308391 -2.1679263 10.633694
0.1811825 -0.91649789 3.033812
0.22451468 -1.115716 2.7407215
0.276779 -1.3514811 2.0987501
0.27830347 -1.3518112 1.7290468
0.061303947 -0.64250761 11.001044
0.15310229 -1.1436265 10.718373
0.15757088 -0.81541568 3.2350564
0.20128436 -1.0165913 2.8723876
0.25494182 -1.2694235 2.7409837
0.2839081 -1.4024398 2.4106722
0.29583684 -1.4523611 2.0374117
0.32436049 -1.5854341 1.8326229
0.38651365 -1.8579327 1.9446703
3.1833866 -15.198089 8.2147074
2.1836913 -10.389226 3.2104425
7.6382399 -36.277359 7.1299562
0.45542786 -2.2047114 2.0862446
4.24891 -20.516979 15.339841
0.58183396 -2.8044491 1.7687012
3.4300842 -16.49061 7.8738484
3.6257901 -17.401075 6.2755079
7.1497197 -34.253563 8.5302668
3.8734779 -18.541241 2.7340491
-0.0020336411 -0.031218957 2.1041934
0.068017527 -0.37535596 2.4255998
0.40551391 -2.1693549 10.633694
0.17769818 -0.91565937 3.0290401
0.22213259 -1.1241595 2.7591317
0.27541864 -1.3789845 2.644325
0.27316928 -1.3579565 2.1070161
0.28311086 -1.3998996 1.7866094
0.059086457 -0.64300513 11.006035
0.14910935 -1.1441538 10.718373
0.15472358 -0.81596071 3.2350564
0.19905047 -1.0240638 2.8911588
0.24756236 -1.2553548 2.7094753
0.28155273 -1.4162123 2.4320021
0.29372013 -1.4681588 2.0573621
0.32349867 -1.6098228 1.8583488
0.38716638 -1.8942112 1.9797159
0.561656 -2.7407753 2.3382664
4.5901041 -22.262463 9.272131
2.1445017 -10.38269 3.2062123
7.515543 -36.323044 7.1336865
0.4477292 -2.2062876 2.0862446
4.1772666 -20.531685 15.339841
0.57376289 -2.8149109 1.7737676
3.3779523 -16.529163 7.8864369
3.5422966 -17.302595 6.2360635
7.0271797 -34.264027 8.5267496
3.8157039 -18.588606 2.738884
-0.0020410717 -0.030877698 2.0641949
0.064275831 -0.36181805 2.336693
0.39775556 -2.1697559 10.628799
0.1742219 -0.91480762 3.0242682
0.21969429 -1.1325998 2.7775416
0.26897261 -1.3616625 2.1111491
0.28696159 -1.4448935 1.8403344
0.05691557 -0.64407045 11.02101
0.1451146 -1.1446674 10.718373
0.15187442 -0.81649584 3.2350564
0.19547462 -1.0247525 2.8911588
0.24235182 -1.2519367 2.7004728
0.29159015 -1.4939793 2.5599799
0.2920773 -1.4869158 2.0813022
0.3211582 -1.6275724 1.8767248
0.3995018 -1.9899569 2.0743387
0.5543896 -2.7541668 2.3476818
3.1105657 -15.384935 8.3028212
4.5142064 -22.287437 9.275877
2.1063383 -10.38071 3.2033923
7.3388033 -36.103554 7.0861235
0.4407548 -2.211499 2.08957
4.0992355 -20.514431 15.316296
0.56647199 -2.8295774 1.7813672
3.3372047 -16.625399 7.9262996
3.496773 -17.388927 6.2623596
6.9008136 -34.254993 8.5185432
3.7488368 -18.592102 2.7375026
-0.0020846566 -0.030661877 2.0391958
0.060894277 -0.34978995 2.2576652
0.39017928 -2.1711311 10.628799
0.17102756 -0.91541016 3.0242682
0.21610451 -1.1352791 2.7821441
0.34361002 -1.785394 3.3992465
0.26528889 -1.3681184 2.119415
0.28436914 -1.4584703 1.8556844
0.054690652 -0.64455289 11.026002
0.14118275 -1.145696 10.723345
0.14902338 -0.81702101 3.2350564
0.19253066 -1.0288211 2.9005444
0.23676209 -1.2463588 2.6869693
0.29569262 -1.5436565 2.6410327
0.29030707 -1.505679 2.1052423
0.31740862 -1.6386687 1.8877504
0.4015184 -2.0368254 2.1198976
0.55005521 -2.7828143 2.3696511
4.0413589 -20.39146 13.713874
0.57659388 -2.9038587 1.6362718
4.4210057 -22.225761 9.2440357
2.0682149 -10.37859 3.200572
7.2579327 -36.355354 7.1299562
3.7860422 -19.350948 17.642935
0.58884692 -3.0011373 2.3104699
0.5582543 -2.8399973 1.7864335
3.3379538 -16.935287 8.0668697
5.0067334 -25.355396 9.0842648
3.6848769 -18.609932 2.7381933
-0.0022451726 -0.030650539 2.0391958
0.057333697 -0.34015182 2.1934547
0.37842667 -2.1732104 10.628799
0.1659123 -0.91635108 3.0242682
0.33319387 -1.7849308 3.3948576
0.25844386 -1.3751549 2.1276808
0.28013003 -1.4821306 1.882547
0.050752304 -0.64487493 11.026002
0.13398139 -1.1465605 10.723345
0.14388698 -0.81794119 3.2350564
0.22713967 -1.2392964 2.6689644
0.30704501 -1.660941 2.8329997
0.28443614 -1.528259 2.1331723
0.30902347 -1.6540678 1.902451
0.40561691 -2.1159549 2.1969979
0.52398038 -2.7284122 2.3225741
3.9333439 -20.425344 13.722098
0.56171328 -2.9112854 1.6385907
2.0093071 -10.38527 3.1991622
7.0624313 -36.468895 7.1439457
3.6698477 -19.38472 17.65291
0.57050318 -3.004678 2.3104699
0.54361838 -2.860389 1.7965661
3.2607787 -17.12591 8.146595
4.8393531 -25.368649 9.0776911
0.9773035 -5.1182675 1.3474773
3.5650897 -18.653419 2.7409561
-0.002259746 -0.030351402 2.0041971
0.055576898 -0.33650625 2.1687584
0.37087554 -2.1724458 10.619009
0.1630327 -0.91686785 3.0242682
0.78612792 -4.3378429 10.445347
0.33622327 -1.833083 3.4826391
0.25538531 -1.3814501 2.1359468
0.27807426 -1.4955603 1.897897
0.049148429 -0.64615726 11.045968
0.13117942 -1.1468844 10.723345
0.14188795 -0.81829035 3.2350564
0.67362052 -3.7845123 10.507518
0.22471458 -1.2419509 2.6734657
0.30327564 -1.6616334 2.8329997
0.28151241 -1.5318643 2.1371624
0.30802044 -1.6680466 1.9171517
0.39559206 -2.1033385 2.1829796
0.44351742 -2.3514709 2.0118668
3.8617043 -20.417734 13.708391
0.55205607 -2.9131322 1.6385907
0.86229497 -4.5416999 1.9560646
1.9739815 -10.377393 3.1949322
3.6149764 -19.372238 17.632957
0.562635 -3.0061615 2.3104699
0.53662753 -2.8617086 1.7965661
3.2713997 -17.396423 8.27038
4.7468081 -25.193941 9.0119505
0.94674593 -5.0152249 1.3216864
3.5287724 -18.675442 2.7430279
-0.0024457523 -0.030592578 2.0341961
0.052556586 -0.32519019 2.0946693
0.36379313 -2.1767399 10.633694
0.15931949 -0.9144901 3.014724
0.77200603 -4.3463316 10.459154
0.32643294 -1.8153878 3.4475265
0.25156498 -1.3878709 2.1442127
0.27342686 -1.4996752 1.9017346
0.046832208 -0.64546096 11.030994
0.12717524 -1.1473353 10.723345
0.13777038 -0.81134486 3.2060199
0.65981328 -3.7834408 10.498133
0.21999809 -1.2405841 2.6689644
0.29885107 -1.6703836 2.8457975
0.27723172 -1.5387686 2.1451426
0.30461136 -1.6824555 1.9318523
0.38177922 -2.0696354 2.147934
3.8159184 -20.628752 16.997997
3.7888839 -20.422865 13.702908
0.54026484 -2.9063311 1.6339531
0.83030891 -4.4580894 1.920477
1.9386257 -10.388937 3.1963422
5.8833818 -31.467871 6.1693578
3.5453165 -19.37372 17.622982
3.7655585 -20.516655 15.272149
0.52819437 -2.8720441 1.8016325
3.2781568 -17.773726 8.442421
4.6648426 -25.242863 9.0234547
0.93011874 -5.0232792 1.3228587
3.4671714 -18.707123 2.7457907
-0.0025525251 -0.030583855 2.0341961
0.053226307 -0.33688605 2.1687584
0.35668525 -2.1810112 10.648379
0.15587562 -0.91356915 3.0099521
0.75783443 -4.354774 10.472962
0.31593934 -1.7929296 3.4036357
0.24770297 -1.394282 2.1524785
0.26988158 -1.5100863 1.913247
0.044846702 -0.64965332 11.100877
0.12316953 -1.1477723 10.723345
0.13432024 -0.80810082 3.1915014
0.64660263 -3.7857208 10.498133
0.85248399 -4.9090395 10.36604
0.27050906 -1.5429727 2.6325009
0.2723825 -1.5426944 2.1491325
0.30228978 -1.7035366 1.9539032
0.36693743 -2.0288434 2.1058795
3.7480552 -20.664927 17.016829
3.71383 -20.415398 13.6892
0.53170526 -2.9169152 1.6385907
0.81474227 -4.4609604 1.920477
1.8997591 -10.381483 3.192112
5.742496 -31.319109 6.1367164
3.478327 -19.389654 17.626307
3.6939192 -20.529675 15.272149
2.9833033 -16.54714 9.9660673
4.6002736 -25.389095 9.0694733
0.91518337 -5.040843 1.3263757
3.4062774 -18.743473 2.7492442
-0.0026865383 -0.030657655 2.0441957
0.053226668 -0.34475017 2.2181509
0.34906992 -2.1822431 10.648379
0.15244012 -0.91263533 3.0051801
0.74131626 -4.3496895 10.454553
0.24428156 -1.4034551 2.1648772
0.2657142 -1.5173335 1.920922
0.042796239 -0.65326339 11.160777
0.11916231 -1.1481953 10.723345
0.13029023 -0.80112034 3.1624649
0.63281488 -3.7845507 10.488748
0.83461314 -4.9076924 10.357038
0.26423898 -1.5387667 2.6239688
0.26750922 -1.546605 2.1531224
0.29924414 -1.7212818 1.972279
0.35549685 -2.0055313 2.0813477
3.6718109 -20.654888 16.997997
3.6396084 -20.411772 13.678235
0.52152008 -2.9187534 1.6385907
1.8685913 -10.416382 3.200572
1.0263492 -5.7098527 1.1928965
3.4248452 -19.482578 17.699467
3.6243401 -20.554384 15.280978
2.9420259 -16.650843 10.021798
0.85875952 -4.8453593 2.3622646
4.5074925 -25.38175 9.0612555
0.98614389 -5.5416937 1.4482967
3.3416982 -18.760124 2.7499349
-0.0027935372 -0.030648092 2.0441957
0.052827816 -0.35031301 2.2527258
0.34333649 -2.1955204 10.707123
0.14901303 -0.91168863 3.0004079
0.72644985 -4.3541775 10.459154
0.23239315 -1.3747406 2.6223795
0.24032648 -1.4098474 2.1731431
0.26204121 -1.5277293 1.9324346
0.041029301 -0.66205418 11.310527
0.11515363 -1.1486042 10.723345
0.1263106 -0.79412174 3.1334283
0.61987913 -3.7884395 10.493441
0.81783456 -4.912724 10.361539
0.2519502 -1.4985285 2.5557141
0.26261199 -1.5505004 2.1571126
0.29664719 -1.7423685 1.9943302
0.34727395 -1.9997327 2.0743387
3.5883355 -20.602392 16.944643
3.5647378 -20.403757 13.664528
0.51209247 -2.9249194 1.6409096
0.77957404 -4.4437079 1.9111118
0.99022079 -5.6214833 1.1751767
3.3935659 -19.707834 17.892347
3.5415618 -20.503181 15.233888
0.84184086 -4.8483272 2.3622646
4.4285793 -25.453157 9.0809774
0.97263771 -5.5786204 1.4565029
3.2855582 -18.825336 2.7575321
-0.0029144257 -0.030679503 2.0491955
0.053176861 -0.36125907 2.3218753
0.33228996 -2.1745613 10.599427
0.14582974 -0.91220325 3.0004079
0.71093184 -4.3547587 10.454553
0.22563924 -1.3637289 2.6004343
0.2363297 -1.416229 2.1814091
0.25829884 -1.5381176 1.943947
0.0095495302 -0.14047654 2.2756248
0.11114355 -1.1489992 10.723345
0.12199598 -0.78462094 3.094713
0.60665125 -3.7905803 10.493441
0.80243051 -4.9262915 10.384045
0.2479876 -1.5071192 2.5685117
0.2571981 -1.5514077 2.1571126
0.29279217 -1.7567697 2.0090308
0.338498 -1.9903852 2.0638249
3.5196705 -20.633976 16.960335
3.4906723 -20.399588 13.653562
0.50187945 -2.9266891 1.6409096
0.76405787 -4.4464021 1.9111118
0.84259677 -4.8932829 1.5494238
0.97059208 -5.6249051 1.1751767
3.4948373 -20.728374 18.803534
3.4699709 -20.515419 15.233888
2.8206677 -16.641226 10.004066
0.83694154 -4.9116549 1.8232415
3.2198255 -18.836691 2.7575321
-0.0030355679 -0.030710446 2.0541952
0.053340495 -0.3714425 2.3860857
0.32604864 -2.1847715 10.643484
0.14264467 -0.91270673 3.0004079
0.69572657 -4.357214 10.454553
0.21858256 -1.3503227 2.5740998
0.23274462 -1.4253772 2.1938081
0.25448716 -1.5484985 1.9554596
0.0090893349 -0.14108559 2.2856081
0.1070342 -1.1483185 10.713402
0.11982159 -0.78877038 3.1092315
0.59341598 -3.792675 10.493441
0.78591454 -4.9333625 10.393047
0.2418967 -1.5028257 2.5599799
0.2522634 -1.5552704 2.1611025
0.2904768 -1.7812027 2.0347569
3.4450586 -20.630779 16.947781
3.4159889 -20.391029 13.639854
0.49459404 -2.9458978 1.6501848
3.0290246 -18.004047 7.464654
0.82232082 -4.8772726 1.5437837
0.94931477 -5.6185713 1.1733115
3.4309709 -20.792023 18.85009
3.3970175 -20.51943 15.228001
3.3813295 -20.380564 12.225664
0.89590245 -5.3823638 2.6098349
0.83066875 -4.9797554 1.8462507
1.0154107 -6.0742731 1.5760792
3.1597745 -18.882002 2.762367
-0.0031569614 -0.030740917 2.059195
0.053219814 -0.38009208 2.4404175
0.31900692 -2.1899269 10.663066
0.14103298 -0.92352867 3.033812
0.68081397 -4.361546 10.459154
0.21461622 -1.3558087 2.5828779
0.2282113 -1.4289597 2.1979408
0.25060615 -1.5588713 1.9669722
0.0086109033 -0.14140484 2.2905998
0.10311938 -1.1497471 10.723345
0.1176197 -0.79291403 3.1237495
0.58017343 -3.7947233 10.493441
0.7686891 -4.9360757 10.393047
0.23745999 -1.5088137 2.5685117
0.24683297 -1.5561414 2.1611025
0.2842575 -1.7822058 2.0347569
0.45070907 -2.7670729 2.834825
3.3717678 -20.634998 16.941505
3.3420846 -20.386324 13.628888
0.48215345 -2.9344928 1.6432283
2.9676666 -18.023659 7.4684005
0.91927761 -5.5588474 1.1611874
3.3559921 -20.789127 18.83679
3.3195543 -20.495253 15.201512
3.2915184 -20.277353 12.157268
0.89826548 -5.5153637 2.6706784
0.81328106 -4.9826245 1.8462507
0.99420136 -6.0777802 1.5760792
3.0682364 -18.736534 2.7402651
-0.0032929617 -0.030812116 2.0691948
0.051892724 -0.38027558 2.4404175
0.31093135 -2.1880028 10.648379
0.1378084 -0.92401534 3.033812
0.66558522 -4.3638959 10.459154
0.21244414 -1.3731176 2.6136014
0.22669315 -1.4519907 2.2310045
0.24615821 -1.5660694 1.9746472
0.008077967 -0.14056884 2.2756248
0.099195905 -1.1511624 10.733288
0.11485119 -0.79331976 3.1237495
0.56692386 -3.7967253 10.493441
0.74948984 -4.9258161 10.36604
0.22585109 -1.4683895 2.5002568
0.241861 -1.5599713 2.1650927
0.28638917 -1.8367826 2.0935595
0.44048649 -2.7651076 2.8313205
3.2978745 -20.635111 16.932089
3.2682543 -20.381351 13.617922
0.8001613 -4.9786677 2.7261078
0.7078706 -4.3946595 1.8867624
0.79971838 -4.9539309 1.5649341
0.86613333 -5.353507 1.1210848
3.2804933 -20.782274 18.82016
3.2454629 -20.490747 15.189739
2.9868753 -18.815626 11.280788
0.89614123 -5.6260343 2.7210317
0.80332762 -5.0320649 1.8626858
0.97374785 -6.0860138 1.5772516
3.0302272 -18.918272 2.7644391
-0.003414996 -0.030841587 2.0741944
0.049346354 -0.37121034 2.3811467
0.090129994 -0.64895123 3.173368
0.4746795 -3.2643492 10.592634
0.65034831 -4.3661923 10.459154
0.20836523 -1.378587 2.6223795
0.22374435 -1.4666824 2.2516692
0.24409549 -1.5890957 2.0015097
0.007587241 -0.14059618 2.2756248
0.095437378 -1.1546893 10.763117
0.1108537 -0.78500313 3.0898738
0.55341852 -3.7969732 10.488748
0.73293084 -4.9327087 10.375043
0.21646388 -1.4407986 2.4533315
0.23686533 -1.5637853 2.1690826
0.28508043 -1.871286 2.1303113
3.2624736 -20.95293 20.918283
3.2228203 -20.62727 16.916397
3.1944995 -20.37611 13.606956
0.79102916 -5.0339437 2.7539334
3.1576617 -20.049747 8.2887888
0.79214442 -5.0182915 1.5832646
0.84129995 -5.3176818 1.1136237
3.2050834 -20.77515 18.803534
0.47597036 -3.0742784 2.348731
2.9324148 -18.898354 11.323852
0.78575754 -5.0348382 1.8626858
0.95400012 -6.0989804 1.5795963
2.9618731 -18.914057 2.762367
-0.0035226319 -0.030829478 2.0741944
0.046270736 -0.35750797 2.2922397
0.088952772 -0.65733457 3.2125297
0.46244371 -3.2600744 10.573546
0.63510346 -4.3684359 10.459154
0.20634742 -1.3982608 2.6574922
0.22235364 -1.4925046 2.2888658
0.24139959 -1.6089568 2.0245347
0.007085341 -0.14033334 2.2706332
0.022649463 -0.27549136 2.5352783
0.10896797 -0.79161173 3.1140707
0.54016125 -3.7988818 10.488748
0.71289665 -4.9158478 10.334532
0.20802867 -1.4183215 2.4149382
0.23184596 -1.5675836 2.1730726
0.28503051 -1.9158623 2.1780884
3.1844871 -20.932461 20.886742
3.1472733 -20.615305 16.897566
3.121455 -20.374739 13.598732
0.77479726 -5.0454311 2.7585711
3.0784876 -20.001081 8.2644396
0.79217613 -5.13481 1.6171055
0.8339926 -5.3934054 1.1276132
3.1303194 -20.771442 18.790232
0.46704951 -3.0879109 2.3575604
2.8593223 -18.861593 11.295986
0.70394349 -4.627089 2.2510679
0.77529621 -5.0842319 1.8791208
0.81446904 -5.3286958 1.390853
-0.0036450131 -0.030858044 2.0791943
0.042810537 -0.33993372 2.1786368
0.083211385 -0.63139284 3.0852537
0.45024359 -3.2557542 10.554459
0.62039953 -4.374495 10.468359
0.20453596 -1.4203078 2.6969938
0.21795201 -1.4988412 2.2971318
0.24181844 -1.6510181 2.0744221
0.0065954435 -0.14035723 2.2706332
0.021886129 -0.27822661 2.5601358
0.52666044 -3.7990348 10.484055
0.69451332 -4.9096837 10.316526
0.2019687 -1.4112937 2.4021404
0.22723328 -1.574348 2.1810527
0.27931526 -1.9235556 2.1854386
3.1051116 -20.901117 20.844688
3.0724237 -20.606916 16.881874
3.0478394 -20.368967 13.587766
0.76243728 -5.0831518 2.7771215
0.78568506 -5.2134399 1.639666
0.79755205 -5.2797122 1.1052303
3.0534468 -20.752693 18.763628
0.45626783 -3.0895226 2.3575604
0.6751163 -4.5442219 2.211205
0.75615317 -5.0775666 1.8758339
0.79586351 -5.3315063 1.390853
2.8012106 -18.743265 2.7354305
-0.0036332612 -0.03051714 2.0391958
0.041530211 -0.33930975 2.1736977
0.080748864 -0.62965947 3.0754633
0.43807918 -3.2513885 10.535371
0.60592842 -4.3824396 10.482167
0.20323886 -1.4471021 2.7452738
0.21390386 -1.5079511 2.3095305
0.24013339 -1.6804096 2.1089599
0.0060963961 -0.14009081 2.2656415
0.020914802 -0.2783013 2.5601358
0.072596699 -0.55552894 2.1945801
0.51339614 -3.8008502 10.484055
0.19992322 -1.4326543 2.4362679
0.22215626 -1.5781153 2.1850426
0.27022243 -1.9077355 2.1670628
0.40797737 -2.8133402 2.8733752
2.9982312 -20.60211 16.86932
2.9749072 -20.367071 13.579542
0.4302243 -2.9380774 1.6409096
0.66461968 -4.5279579 1.9373344
0.77306825 -5.2541184 1.6509463
2.9820487 -20.770615 18.770279
0.44432759 -3.0830946 2.3516741
2.9192548 -20.207981 12.083805
0.67162347 -4.6318903 2.2510679
0.73774523 -5.0755019 1.8741903
2.7357674 -18.752928 2.7354305
-0.0038754265 -0.030872794 2.0841942
0.039982393 -0.33636597 2.1539407
0.076416954 -0.61275995 2.9922445
0.42789143 -3.2617781 10.564002
0.59140939 -4.390337 10.495975
0.25791705 -1.8844146 3.5528643
0.20709759 -1.4975386 2.2929986
0.24089929 -1.7288563 2.1665225
0.0056073507 -0.14011125 2.2656415
0.019979201 -0.27890447 2.5651073
0.070815079 -0.55702603 2.1994195
0.50035053 -3.8043299 10.488748
0.20159476 -1.4824445 2.5173206
0.21746519 -1.5848519 2.1930227
0.2621707 -1.898592 2.1560371
0.39715567 -2.8076849 2.8663661
2.9241099 -20.597036 16.856768
2.9020247 -20.364912 13.571318
0.41996583 -2.9395614 1.6409096
0.64223796 -4.4843588 1.918604
0.76085871 -5.29952 1.6636366
2.9188461 -20.847456 18.830137
0.43412542 -3.0886297 2.3546171
2.8517053 -20.239389 12.096471
0.72002399 -5.0780458 1.8741903
0.72236997 -5.0818834 1.3287203
2.6591268 -18.683922 2.7243795
-0.00405925 -0.031063544 2.1091931
0.038455639 -0.33341551 2.1341836
0.41706979 -3.2676942 10.578319
0.18544541 -1.4131527 3.4172924
0.25228664 -1.8924253 3.5660317
0.20149335 -1.4954636 2.2888658
0.234863 -1.7296867 2.1665225
0.0051111835 -0.13984136 2.2606497
0.48706791 -3.8060534 10.488748
0.18805201 -1.4370818 3.06057
0.19641881 -1.4831393 2.5173206
0.21153265 -1.5826147 2.1890328
0.25328234 -1.8826962 2.1376615
0.38881382 -2.8196528 2.8768797
2.850594 -20.595551 16.847351
2.8291941 -20.362492 13.563092
0.74705708 -5.3628783 2.920887
0.62145132 -4.4498429 1.9036198
0.76164412 -5.4399152 1.7045275
2.9964859 -21.959965 19.821136
0.42279285 -3.0861213 2.3516741
2.4865994 -18.105326 10.824816
0.70435721 -5.1085453 2.4713635
0.70100075 -5.0711732 1.8709033
0.69728702 -5.0314136 1.3158249
0.75549728 -5.4444995 0.8588528
-0.0042751702 -0.031335067 2.144192
0.051765196 -0.4393355 2.1502655
0.40621206 -3.2735744 10.592634
0.18125314 -1.4196054 3.4311001
0.19731547 -1.520404 2.876946
0.19627199 -1.4961579 2.2888658
0.22756372 -1.7209632 2.1550097
0.0046230154 -0.13985834 2.2606497
0.070653714 -1.1468573 10.67363
0.093046121 -0.77591985 3.046319
0.47399235 -3.8094432 10.493441
0.18358397 -1.4420485 3.0695722
0.18924135 -1.4682959 2.491725
0.20484115 -1.5743791 2.1770625
0.24846958 -1.8970146 2.1523621
0.38086805 -2.8351309 2.890898
2.7771244 -20.593805 16.837936
2.7564154 -20.359814 13.554869
0.71284091 -5.2513247 2.8605981
0.60091341 -4.415236 1.8886355
0.74265069 -5.4425402 1.7045275
2.9950705 -22.536581 20.329939
0.4125523 -3.0915852 2.3546171
2.4462497 -18.284805 10.926143
0.6847083 -5.0974784 2.4650693
0.68581575 -5.0923085 1.8774773
0.67906946 -5.0289998 1.3146524
0.73648787 -5.4471035 0.8588528
-0.0043845242 -0.031319954 2.144192
0.04274321 -0.39548275 2.5293241
0.04965676 -0.43445504 2.1257894
0.39478266 -3.2749722 10.592634
0.1762967 -1.4202294 3.4311001
0.19020852 -1.5068265 2.8506117
0.19247262 -1.5079994 2.3053975
0.21951036 -1.7058518 2.1358223
0.0041398285 -0.14016229 2.2656415
0.066893257 -1.1513546 10.713402
0.092365809 -0.79372013 3.1140707
0.46048498 -3.809361 10.488748
0.18041947 -1.4578041 3.1010809
0.18508738 -1.476711 2.5045228
0.19820976 -1.5661162 2.1650927
2.7037017 -20.591795 16.82852
2.6836903 -20.356876 13.546644
0.39032137 -2.9525814 1.6455472
0.59707093 -4.5046253 1.9242231
0.72617596 -5.4641204 1.7101676
0.67608958 -5.0737123 1.0632623
2.9163847 -22.546898 20.329939
0.40175813 -3.0930064 2.3546171
2.3712747 -18.207735 10.875479
0.70810336 -5.4148517 2.611933
0.66987789 -5.1087179 1.8824079
0.66531235 -5.0602541 1.3216864
0.71746945 -5.4496412 0.8588528
-0.0044781803 -0.031263724 2.1391919
0.042242508 -0.40413114 2.5836561
0.049476471 -0.44677085 2.1845319
0.38352185 -3.277813 10.597406
0.17250654 -1.4305342 3.4541125
0.18349028 -1.4955955 2.8286664
0.18824664 -1.5170401 2.3177965
0.21076964 -1.6843444 2.1089599
0.0036505456 -0.14017588 2.2656415
0.06310226 -1.1558393 10.753174
0.090437934 -0.80153221 3.1431072
0.44839123 -3.8212287 10.516904
0.17714722 -1.4735548 3.1325896
0.17930129 -1.4721701 2.4959908
0.19200629 -1.5608171 2.1571126
2.9160426 -22.921471 22.786207
2.6303267 -20.589523 16.819105
2.6110187 -20.353676 13.53842
0.55578113 -4.3203363 2.366694
0.58134317 -4.5066824 1.9242231
0.63942015 -4.9298983 1.0352838
2.8199546 -22.416166 20.203569
0.39095908 -3.0943899 2.3546171
2.3120379 -18.250118 10.895744
0.69034326 -5.4262948 2.6161289
0.65443128 -5.1297617 1.8889819
0.65689635 -5.1348662 1.3392712
0.69718385 -5.4422889 0.85747147
-0.0045872838 -0.031247903 2.1391919
0.04083157 -0.40427613 2.5836561
0.047808804 -0.44592834 2.1796367
0.37224603 -3.2806151 10.602179
0.16592357 -1.4175447 3.421895
0.18194963 -1.5271432 2.8857243
0.18395983 -1.5260692 2.3301952
0.2048889 -1.6850699 2.1089599
0.0031612185 -0.14018777 2.2656415
0.05896049 -1.153923 10.733288
0.089137591 -0.81558836 3.196341
0.43504989 -3.8227706 10.516904
0.17200246 -1.4741642 3.1325896
0.17507964 -1.4805571 2.5087888
0.18548495 -1.5525019 2.1451426
2.5570004 -20.586992 16.80969
2.5384028 -20.350218 13.530195
0.52365208 -4.1859875 2.294811
0.58118796 -4.6328807 1.974795
0.78620499 -6.2496228 1.9414129
0.62220776 -4.9320998 1.0352838
2.7394247 -22.407341 20.186941
0.3801553 -3.0957358 2.3546171
0.61192864 -4.9691005 3.0276911
0.65858585 -5.3250751 2.567874
0.63768351 -5.1413875 1.8922689
0.66296583 -5.3300657 1.3861638
0.67757034 -5.439775 0.85678077
-0.004696331 -0.0312317 2.1391919
0.038301028 -0.39281502 2.5095673
0.045730382 -0.4410283 2.1551607
0.36046621 -3.2789266 10.592634
0.16009383 -1.4103504 3.4034851
0.17771724 -1.5372858 2.9032805
0.17895859 -1.5294973 2.3343282
0.2012594 -1.7048737 2.1319847
0.0026718525 -0.14019795 2.2656415
0.055180505 -1.1594466 10.783004
0.085894637 -0.81214434 3.1818225
0.42113614 -3.8191204 10.502826
0.16685563 -1.4747556 3.1325896
0.17109866 -1.4915235 2.5258524
0.17937087 -1.5471535 2.1371624
2.7078862 -22.541161 22.390194
2.4837241 -20.5842 16.800274
2.4658425 -20.346502 13.521971
0.35670874 -2.9345195 1.6339531
0.57735384 -4.7361221 2.0160017
0.75798166 -6.1999516 1.9259026
0.61275911 -4.9976263 1.0474077
2.658551 -22.394522 20.166988
0.36886823 -3.0930302 2.3516741
0.56386489 -4.7143884 2.8757002
0.6329568 -5.2687616 2.5405991
0.62142736 -5.1576467 1.8971994
0.65738797 -5.4322743 0.85539943
-0.0048053218 -0.031215116 2.1391919
0.0367858 -0.391399 2.4996886
0.04408985 -0.44017199 2.1502655
0.34901842 -3.2801652 10.592634
0.15431634 -1.4031327 3.3850746
0.17288314 -1.542657 2.9120588
0.17393565 -1.5329086 2.3384612
