# .PCD v0.7 - Point Cloud Data file format
VERSION 0.7
FIELDS x y z
SIZE 4 4 4
TYPE F F F
COUNT 1 1 1
WIDTH 1499
HEIGHT 1
VIEWPOINT 0 0 0 1 0 0 0
POINTS 1499
DATA ascii
-0.82604426 1.3442479 0.63827151
-0.81741339 1.3291765 0.46706694
-0.80173993 1.3031898 0.30561811
-0.79613 1.2930739 0.1549308
-0.64582652 1.1173413 8.2045317
-0.85221809 1.4531227 8.1224422
-1.1440347 1.9210205 7.1949821
-1.0150504 1.691038 4.7059994
-0.95257306 1.5794923 3.4475265
-0.91217959 1.5077848 2.6608312
-0.89346164 1.4733897 2.1396599
-0.20667291 0.44121751 8.2656145
-0.30173415 0.58543801 6.0998468
-1.0583963 1.7948806 8.0599623
-1.0739046 1.801865 5.7584391
-0.98060167 1.6349707 4.0058246
-0.92886919 1.5432514 3.0164349
-0.90289927 1.4959981 2.3885341
-0.88651937 1.4659919 1.9355273
-0.88160712 1.4470237 1.7449113
-0.86503857 1.4181747 1.4218372
-0.8575955 1.4043363 1.1634418
-0.84622157 1.3846382 0.93599433
-0.83252198 1.3611678 0.73297417
-0.82411236 1.3463763 0.55394071
-0.81340218 1.3278469 0.38711271
-0.80415046 1.3117303 0.23107618
-0.87402266 1.4391025 1.5807685
-0.8581512 1.4113214 1.2862499
-0.85024166 1.3972285 1.0467453
-0.84592718 1.388515 0.83907861
-0.82626319 1.3551868 0.64155853
-0.81783211 1.3403202 0.46941158
-0.80234617 1.3144341 0.30699944
-0.79682028 1.3043718 0.15533386
-0.6419223 1.1195889 8.2045317
-0.84714061 1.4560887 8.1224422
-1.1464324 1.940425 7.2522459
-1.0161378 1.7063214 4.7382174
-0.95443118 1.5951395 3.473861
-0.9127031 1.5206112 2.6773629
-0.89326984 1.4847391 2.1511722
-0.20501088 0.4416739 8.260623
-0.300414 0.58791292 6.1147609
-1.0514898 1.7974789 8.0551224
-1.0772685 1.8219432 5.8100591
-0.98713231 1.6589634 4.0553384
-0.92882454 1.5554414 3.0334985
-0.90231526 1.5068966 2.4005039
-0.88662881 1.4777989 1.946553
-0.88208497 1.4592484 1.7554249
-0.86612844 1.4311756 1.4312525
-0.85702157 1.4144739 1.1689247
-0.84597659 1.3951595 0.94063193
-0.83257544 1.371992 0.73672026
-0.82687765 1.3615454 0.5581708
-0.81386471 1.3390737 0.38897794
-0.80215478 1.318784 0.23152326
-0.87477481 1.4517392 1.5907451
-0.85739523 1.4212304 1.2921362
-0.85204321 1.4112591 1.0543448
-0.84811831 1.4031118 0.8453728
-0.82885998 1.3701842 0.64648902
-0.81566584 1.347325 0.47058392
-0.80031836 1.3214626 0.30769014
-0.79744136 1.3156903 0.15573692
-0.63801032 1.1218228 8.2045317
-0.84256148 1.4599189 8.1273375
-1.1479534 1.9585816 7.3047376
-1.0181243 1.7233148 4.7750373
-0.95619166 1.6108186 3.5001953
-0.91314816 1.5334593 2.6938949
-0.89300966 1.4961052 2.1626849
-0.20346789 0.44238684 8.260623
-0.29884017 0.58990985 6.1247044
-1.0452091 1.8011384 8.0551224
-1.0796319 1.8405782 5.856987
-0.99129403 1.6792716 4.095849
-0.93003523 1.5698937 3.0548284
-0.90320516 1.5203997 2.4164641
-0.88666642 1.4896245 1.9575783
-0.88248813 1.4714941 1.7659385
-0.86713803 1.4442016 1.4406679
-0.85854155 1.4282082 1.1771491
-0.84566844 1.4056958 0.94526953
-0.83256358 1.3828332 0.7404663
-0.82707131 1.3726412 0.56099087
-0.81425869 1.3503197 0.39084318
-0.80269259 1.3301035 0.23241742
-0.8754493 1.4643983 1.6007215
-0.85658044 1.431151 1.2980225
-0.85154182 1.421621 1.0594112
-0.84788358 1.4138484 0.8495689
-0.82893199 1.3811671 0.64977604
-0.81596315 1.3584975 0.47292855
-0.80080175 1.3327377 0.30907148
-0.79799312 1.3270288 0.15613998
-0.63447207 1.1247199 8.2094707
-0.83746034 1.462851 8.1273375
-1.1553632 1.9870961 7.3954048
-1.0200045 1.7403429 4.8118572
-0.95785415 1.6265295 3.5265298
-0.91494578 1.5487518 2.7145593
-0.89431405 1.5102453 2.1780348
-0.20192243 0.44309437 8.260623
-0.29725602 0.59190291 6.1346469
-1.0389155 1.8047758 8.0551224
-1.0827463 1.8607433 5.908607
-0.99532592 1.6996292 4.1363602
-0.92983484 1.5821248 3.071892
-0.90248191 1.5313314 2.4284341
-0.88663232 1.5014683 1.9686038
-0.88281649 1.4837601 1.7764521
-0.86806703 1.4572517 1.4500831
-0.8578344 1.4383792 1.1826321
-0.8475672 1.4200506 0.95222592
-0.83248609 1.3936912 0.74421245
-0.82719755 1.3837547 0.56381088
-0.81458408 1.3615848 0.39270842
-0.80060285 1.33717 0.2328645
-0.8741414 1.4738681 1.6073725
-0.85777038 1.444559 1.3068521
-0.85318071 1.4357024 1.0670106
-0.84758419 1.4246002 0.85376495
-0.82893747 1.3921669 0.65306306
-0.81619239 1.3696885 0.47527319
-0.80121607 1.344032 0.31045285
-0.79847527 1.338387 0.15654305
-0.63054222 1.1269277 8.2094707
-0.83234888 1.4657654 8.1273375
-1.1596051 2.0105138 7.4669852
-1.0217781 1.7574048 4.8486776
-0.95941859 1.6422713 3.5528643
-0.91522491 1.5616478 2.7310913
-0.89390719 1.521649 2.1895473
-0.20037453 0.44379655 8.260623
-0.29589835 0.59436965 6.1495614
-1.0326093 1.8083913 8.0551224
-1.0857328 1.8809524 5.960228
-0.99813432 1.7181525 4.1723695
-0.93087387 1.5966265 3.0932217
-0.90169311 1.5422764 2.4404042
-0.88652647 1.5133299 1.9796295
-0.88125718 1.492975 1.7834612
-0.86693537 1.4669747 1.4563601
-0.85706657 1.4485623 1.188115
-0.84711909 1.430624 0.95686358
-0.83470613 1.4085534 0.7498315
-0.82725626 1.3948859 0.56663096
-0.81233352 1.3686442 0.39364108
-0.80101693 1.3485197 0.23375866
-0.87467134 1.4865649 1.617349
-0.85682571 1.45451 1.3127384
-0.85254246 1.446099 1.072077
-0.84722 1.4353672 0.85796106
-0.8288762 1.4031837 0.65635008
-0.81635338 1.3808975 0.47761783
-0.80156124 1.3553456 0.31183422
-0.79634321 1.3454654 0.15674458
-0.6269815 1.1298014 8.2144108
-0.82722735 1.468662 8.1273375
-1.165921 2.0378718 7.5528808
-1.024421 1.7761927 4.8901005
-0.96088469 1.6580437 3.5791988
-0.91683936 1.576997 2.751756
-0.89504516 1.5358375 2.2048974
-0.19894114 0.44475722 8.2656145
-0.29358676 0.59492058 6.1445904
-1.0262907 1.8119848 8.0551224
-1.0894487 1.9027025 6.016541
-0.99973851 1.7348299 4.2038784
-0.9318229 1.6111547 3.1145513
-0.90235084 1.5558413 2.4563644
-0.88634831 1.5252087 1.9906548
-0.8814463 1.5052748 1.7939749
-0.86771476 1.4800656 1.4657755
-0.85623813 1.4587575 1.1935979
-0.84885108 1.4450312 0.96381998
-0.83448315 1.4194514 0.75357759
-0.82724714 1.4060341 0.56945103
-0.81253594 1.3799373 0.39550632
-0.80136138 1.3598884 0.23465282
-0.87512332 1.4992832 1.6273257
-0.85786122 1.4679615 1.321568
-0.85401803 1.4602295 1.0796765
-0.84449774 1.4422325 0.86005914
-0.82874799 1.4142169 0.65963709
-0.81644595 1.3921243 0.47996244
-0.80183715 1.3666778 0.31321558
-0.79670101 1.3568532 0.15714765
-0.62340832 1.1326638 8.2193489
-0.8215993 1.4706516 8.1224422
-1.1720595 2.0652986 7.6387763
-1.0279149 1.7967159 4.9361253
-0.96225226 1.6738464 3.6055334
-0.91835773 1.5923767 2.7724209
-0.89449078 1.5472772 2.2164099
-0.19738743 0.44544894 8.2656145
-0.29127488 0.5954625 6.1396189
-1.0199593 1.8155562 8.0551224
-1.0921737 1.9230005 6.0681615
-1.0012385 1.7515392 4.2353868
-0.93268168 1.6257087 3.1358809
-0.90142184 1.5668173 2.4683344
-0.88779104 1.5400419 2.0053556
-0.88156021 1.5175937 1.8044887
-0.86645663 1.4898149 1.4720525
-0.85745275 1.472578 1.2018223
-0.84826231 1.4556401 0.96845758
-0.83419412 1.430365 0.75732362
-0.82717031 1.4171993 0.57227111
-0.81266934 1.3912485 0.39737156
-0.8016361 1.3712759 0.23554698
-0.87549692 1.5120226 1.637302
-0.85881311 1.4814378 1.3303974
-0.85324204 1.4706593 1.0847429
-0.84401739 1.4530205 0.86425525
-0.82855278 1.425266 0.66292417
-0.81402588 1.3991672 0.48113477
-0.80204368 1.3780283 0.31459692
-0.79698902 1.36826 0.15755071
-0.61982286 1.1355151 8.224288
-0.81646079 1.4735105 8.1224422
-1.1743605 2.0862882 7.7008123
-1.0303138 1.8155859 4.9775481
-0.96470731 1.6917589 3.6362567
-0.91977978 1.6077857 2.7930856
-0.8954618 1.5615125 2.2317598
-0.19594643 0.44639999 8.270606
-0.28919452 0.5964756 6.1396189
-1.0136156 1.8191055 8.0551224
-1.0956171 1.9448441 6.1244745
-1.0026337 1.76828 4.2668953
-0.93474007 1.6425552 3.1614769
-0.9019208 1.5804229 2.4842944
-0.88745821 1.5519607 2.016381
-0.88159865 1.5299317 1.8150022
-0.86708587 1.5029449 1.4814678
-0.85649002 1.4828038 1.2073052
-0.84760982 1.4662626 0.97309518
-0.83383918 1.4412938 0.76106972
-0.82702553 1.428381 0.57509118
-0.81273365 1.4025773 0.3992368
-0.8018412 1.3826817 0.23644114
-0.87579238 1.5247828 1.6472787
-0.85968143 1.4949386 1.339227
-0.8524037 1.4811012 1.0898093
-0.84347188 1.4638226 0.86845136
-0.82829058 1.4363312 0.66621119
-0.81399602 1.4104197 0.48347941
-0.80218065 1.3893968 0.31597832
-0.797207 1.379685 0.15795377
-0.6158554 1.1376718 8.224288
-0.81131232 1.4763515 8.1224422
-1.1867146 2.1255665 7.8296556
-1.0335517 1.8361967 5.0235734
-0.96587008 1.7076243 3.6625915
-0.92110538 1.6232243 2.8137503
-0.89475965 1.5729871 2.2432723
-0.19438702 0.44708127 8.270606
-0.28711069 0.59748143 6.1396189
-1.0072597 1.8226326 8.0551224
-1.0980794 1.9652284 6.176095
-1.0028572 1.7831541 4.2939029
-0.93541014 1.6571642 3.1828063
-0.9038198 1.5966733 2.5042446
-0.88705277 1.5638957 2.0274065
-0.88333136 1.5453845 1.8290204
-0.86763394 1.5160973 1.4908831
-0.85754484 1.4966688 1.2155296
-0.84909701 1.480741 0.98005158
-0.83341783 1.4522374 0.76481575
-0.82681268 1.4395787 0.5779112
-0.81517667 1.4181824 0.40203464
-0.8019762 1.3941056 0.23733529
-0.87600923 1.5375632 1.6572551
-0.86046576 1.5084634 1.3480563
-0.8536399 1.4952987 1.0974088
-0.8451134 1.4785792 0.87474555
-0.82796115 1.4474115 0.66949821
-0.81389755 1.4216892 0.48582402
-0.80470902 1.4050802 0.31805035
-0.79735488 1.3911283 0.15835683
-0.61261499 1.1411841 8.2341671
-0.80615395 1.4791746 8.1224422
-1.1857947 2.1414492 7.8726034
-1.0357059 1.8551464 5.0649962
-0.96810538 1.7256072 3.6933148
-0.92233425 1.6386912 2.834415
-0.89556319 1.5872673 2.2586224
-0.19293849 0.4480226 8.2755985
-0.28502333 0.59847999 6.1396189
-1.0008913 1.8261374 8.0551224
-1.1004127 1.9856534 6.2277155
-1.0040494 1.7999525 4.3254108
-0.93726349 1.6740736 3.2084019
-0.90414131 1.6103286 2.5202048
-0.88657498 1.5758468 2.0384321
-0.8832081 1.5577658 1.839534
-0.86810064 1.5292718 1.5002986
-0.85851336 1.5105593 1.223754
-0.8483032 1.4913969 0.98468918
-0.83522367 1.4672244 0.77043486
-0.82890636 1.4549605 0.58214134
-0.8150875 1.4295539 0.40389988
-0.80204129 1.4055474 0.23822945
-0.87614751 1.5503638 1.6672316
-0.85917574 1.5184938 1.3539426
-0.85266328 1.5057719 1.1024752
-0.84442359 1.4894165 0.87894166
-0.8298946 1.4626142 0.6744287
-0.81613028 1.4372016 0.48934099
-0.80469155 1.4164921 0.31943169
-0.79743248 1.4025893 0.15875989
-0.61264175 1.1508615 8.2884989
-0.80146968 1.4828753 8.1273375
-1.1819047 2.1521177 7.8964639
-1.0377401 1.8741331 5.1064186
-0.97022671 1.7436259 3.7240384
-0.92346644 1.6541865 2.8550797
-0.89627784 1.6015722 2.2739725
-0.19126108 0.44842744 8.270606
-0.28383937 0.60140103 6.1595049
-0.99451083 1.82962 8.0551224
-1.1034478 2.0076308 6.2840285
-1.0040827 1.8148756 4.3524184
-0.93901008 1.6910158 3.2339973
-0.90584421 1.6266379 2.5401547
-0.88602436 1.5878133 2.0494576
-0.8830089 1.5701646 1.8500476
-0.86657637 1.5390762 1.5065755
-0.85939533 1.5244747 1.2319785
-0.84962201 1.5059235 0.99164557
-0.83465564 1.4782047 0.77418089
-0.82854253 1.4661977 0.58496141
-0.81492865 1.4409418 0.40576512
-0.80203611 1.4170063 0.23912361
-0.87620687 1.5631838 1.6772081
-0.85980433 1.5320585 1.3627722
-0.85373473 1.5200148 1.1100746
-0.84589303 1.5042229 0.88523579
-0.82941604 1.4737326 0.67771572
-0.81587929 1.4485118 0.4916856
-0.80460411 1.4279211 0.32081306
-0.79743987 1.4140679 0.15916295
-0.60862076 1.152993 8.2884989
-0.79628861 1.4856639 8.1273375
-1.1829515 2.1719615 7.9537272
-1.0396544 1.8931565 5.1478415
-0.97223413 1.7616807 3.7547622
-0.92450154 1.6697096 2.8757446
-0.89534801 1.6130986 2.285485
-0.18969463 0.44909233 8.270606
-0.28038818 0.59948874 6.1296754
-0.98871458 1.8341872 8.0599623
-1.1046913 2.026623 6.3309565
-1.005071 1.8317295 4.3839269
-0.94190782 1.7102753 3.263859
-0.90744424 1.6429787 2.5601048
-0.88704252 1.6027614 2.0641582
-0.88273406 1.5825813 1.8605614
-0.8668918 1.5522866 1.5159907
-0.86019033 1.5384142 1.2402028
-0.84868646 1.5166116 0.99628317
-0.83628625 1.4932436 0.7798
-0.82811028 1.4774503 0.58778149
-0.81470037 1.4523463 0.40763035
-0.80196071 1.4284822 0.24001777
-0.87618756 1.5760231 1.6871846
-0.86034846 1.5456456 1.3716016
-0.85471714 1.5342834 1.1176742
-0.84726924 1.5190575 0.89152992
-0.83117151 1.4889886 0.68264627
-0.81792974 1.464081 0.49520257
-0.8044467 1.4393665 0.32219443
-0.79737657 1.4255631 0.15956602
-0.41193801 0.78675336 5.6459961
-0.79109782 1.4884344 8.1273375
-1.1824554 2.1892118 8.0014477
-1.0414484 1.9122158 5.1892643
-0.97527689 1.7818713 3.7898748
-0.92543936 1.6852598 2.8964093
-0.89589423 1.6274461 2.3008351
-0.18812583 0.44975176 8.270606
-0.27628386 0.59610778 6.0849323
-0.98230606 1.8376272 8.0599623
-1.1066358 2.0471661 6.3825769
-1.0049136 1.8467002 4.4109344
-0.94343227 1.7272863 3.2894547
-0.90749365 1.6567074 2.5760651
-0.88633591 1.614764 2.0751836
-0.88238311 1.5950147 1.8710749
-0.86712557 1.565518 1.5254062
-0.86089861 1.5523779 1.2484273
-0.84983623 1.5311846 1.0032395
-0.83782202 1.5083119 0.78541911
-0.8276096 1.4887174 0.59060156
-0.81440228 1.4637665 0.40949559
-0.80181491 1.4399747 0.24091193
-0.8778919 1.5921508 1.7004865
-0.86080825 1.5592554 1.3804312
-0.85561019 1.5485772 1.1252737
-0.84855217 1.5339199 0.89782411
-0.83054328 1.5001436 0.68593329
-0.81988138 1.479682 0.49871951
-0.80421907 1.4508281 0.32357576
-0.79724276 1.4370751 0.15996908
-0.40918922 0.78818649 5.6459961
-0.78589737 1.4911869 8.1273375
-1.1783299 2.1999056 8.0253067
-1.0421937 1.9295917 5.2260842
-0.97704798 1.7999995 3.8205981
-0.92627984 1.7008367 2.917074
-0.8963511 1.6418167 2.316185
-0.18644522 0.4501386 8.2656145
-0.27641782 0.60191643 6.1346469
-0.97588557 1.8410449 8.0599623
-1.1060047 2.0631843 6.4201188
-1.0056973 1.8636076 4.4424429
-0.94484943 1.7443286 3.3150501
-0.90889651 1.6731044 2.5960152
-0.88717693 1.6297584 2.0898843
-0.8819561 1.6074649 1.8815886
-0.86727738 1.5787698 1.5348215
-0.8595047 1.5627015 1.2539102
-0.85089451 1.545784 1.010196
-0.83926272 1.523409 0.79103822
-0.82935625 1.5041997 0.59483165
-0.81403428 1.4752022 0.41136083
-0.80159855 1.4514835 0.24180609
-0.87770283 1.6050334 1.7104629
-0.86118335 1.5728869 1.3892606
-0.8564139 1.5628959 1.1328733
-0.84974152 1.5488096 0.90411824
-0.83212 1.5154513 0.69086379
-0.8193931 1.4910547 0.50106418
-0.80392116 1.4623055 0.32495713
-0.79703832 1.4486035 0.16037214
-0.40643546 0.78961003 5.6459961
-0.78068739 1.493921 8.1273375
-1.1699436 2.2026868 8.0205345
-1.0437524 1.9487182 5.2675071
-0.97870433 1.8181615 3.8513215
-0.92702276 1.7164398 2.9377387
-0.8967185 1.6562103 2.3315351
-0.18487281 0.45078665 8.2656145
-0.27167562 0.59705096 6.0749888
-0.96945322 1.8444401 8.0599623
-1.114184 2.0959852 6.5092816
-1.0063752 1.8805429 4.4739509
-0.94615901 1.7614018 3.3406458
-0.91019577 1.6895311 2.6159654
-0.88792408 1.6447785 2.1045849
-0.88315713 1.6230642 1.8956068
-0.8673473 1.5920417 1.5442369
-0.86005133 1.5767046 1.2621346
-0.85186124 1.5604093 1.0171524
-0.83838534 1.5344658 0.79478431
-0.82870358 1.5155034 0.59765172
-0.81595463 1.4909623 0.4141587
-0.80131155 1.4630082 0.24270025
-0.87743455 1.6179341 1.7204396
-0.86147374 1.58654 1.39809
-0.8571279 1.5772388 1.1404729
-0.85083723 1.5637264 0.91041237
-0.83134162 1.526641 0.69415081
-0.82116133 1.5067096 0.50458109
-0.8059234 1.4781463 0.32702917
-0.79676294 1.460148 0.1607752
-0.40544111 0.79448527 5.6706924
-0.77546787 1.4966371 8.1273375
-1.1629431 2.2080781 8.0253067
-1.0433577 1.9644277 5.2997246
-0.98024583 1.8363571 3.8820455
-0.92766798 1.7320689 2.9584033
-0.89699632 1.6706263 2.346885
-0.18329814 0.45142925 8.2656145
-0.27068117 0.60042721 6.0998468
-0.963009 1.847813 8.0599623
-1.1173202 2.1197076 6.5702872
-1.0079675 1.8994285 4.5099607
-0.94736081 1.7785051 3.3662415
-0.91139144 1.7059872 2.6359155
-0.8885771 1.6598234 2.1192856
-0.88256669 1.6355528 1.9061204
-0.86733502 1.6053333 1.5536524
-0.86051071 1.5907307 1.2703589
-0.85062712 1.5711645 1.02179
-0.83964956 1.5496111 0.80040342
-0.83026868 1.5310378 0.6018818
-0.81543159 1.5024362 0.41602394
-0.80095375 1.4745483 0.24359439
-0.87885523 1.634141 1.7337415
-0.86167926 1.6002141 1.4069196
-0.85570723 1.587811 1.1455393
-0.84968388 1.5746752 0.91460848
-0.83049512 1.5378436 0.69743782
-0.82051915 1.5181189 0.50692576
-0.80546945 1.4896626 0.32841054
-0.7964167 1.4717079 0.16117826
-0.4023149 0.7952022 5.6657529
-0.77023894 1.4993348 8.1273375
-1.1552284 2.2121241 8.0253067
-1.0501481 1.9939874 5.368763
-0.98279226 1.856702 3.9171581
-0.92953515 1.7502085 2.983201
-0.89567804 1.6822352 2.3583977
-0.18172124 0.4520663 8.2656145
-0.27269822 0.610623 6.1943049
-0.95655304 1.8511633 8.0599623
-1.1219027 2.1465366 6.6406789
-1.0094401 1.9183478 4.5459704
-0.94967258 1.7979443 3.3961029
-0.9124831 1.722472 2.6558657
-0.88913572 1.6748927 2.1339862
-0.88358212 1.6512011 1.9201386
-0.86724043 1.6186439 1.5630677
-0.86088246 1.604779 1.2785833
-0.85142356 1.5858327 1.0287464
-0.84081805 1.5647838 0.80602247
-0.8294633 1.5423764 0.60470188
-0.81716639 1.51825 0.41882181
-0.80052519 1.486104 0.24448855
-0.87841648 1.6470826 1.7437181
-0.86179966 1.6139088 1.415749
-0.85625476 1.6021941 1.1531388
-0.85060561 1.5896367 0.92090267
-0.83180988 1.5532218 0.70236832
-0.81980723 1.529542 0.50927037
-0.80728495 1.505558 0.33048257
-0.79599935 1.4832833 0.16158132
-0.3998847 0.7972964 5.6706924
-0.76500058 1.5020144 8.1273375
-1.1474996 2.2161431 8.0253067
-1.054032 2.0184228 5.4239931
-0.98520857 1.8770869 3.9522705
-0.92997569 1.7658921 3.003866
-0.89578593 1.6966894 2.3737476
-0.18024795 0.45296651 8.270606
-0.27056509 0.61157119 6.1943049
-0.95008546 1.8544909 8.0599623
-1.1255175 2.1718905 6.706378
-1.0107927 1.9373006 4.5819802
-0.95065033 1.8151108 3.4216986
-0.9134708 1.7389849 2.6758156
-0.88959992 1.689986 2.1486869
-0.88449901 1.6668766 1.9341568
-0.86888957 1.6354105 1.5756215
-0.86116666 1.6188493 1.2868078
-0.85212797 1.6005259 1.0357027
-0.84189081 1.5799835 0.81164157
-0.83084613 1.5579607 0.60893196
-0.81648773 1.5297605 0.42068705
-0.80237204 1.502067 0.24582979
-0.87964338 1.6633414 1.7570201
-0.861835 1.6276238 1.4245785
-0.85671228 1.6166004 1.1607383
-0.84930599 1.6006144 0.92509878
-0.83081257 1.5644572 0.7056554
-0.8190254 1.5409783 0.51161504
-0.8066743 1.5171115 0.33186394
-0.79785782 1.4992837 0.16218592
-0.39709917 0.7986874 5.6706924
-0.75929415 1.5037665 8.1224422
-1.1397568 2.2201352 8.0253067
-1.0586561 2.0446441 5.4838262
-0.98749435 1.897511 3.9873831
-0.930318 1.7816 3.0245306
-0.89729017 1.7140044 2.392935
-0.1786657 0.4535929 8.270606
-0.26800236 0.61153477 6.1843624
-0.94360626 1.8577961 8.0599623
-1.1305459 2.2003658 6.7814622
-1.0120254 1.956286 4.61799
-0.95272142 1.8346205 3.4515603
-0.91435421 1.7555257 2.6957657
-0.88996959 1.7051029 2.1633875
-0.88531709 1.6825781 1.948175
-0.86861801 1.6487648 1.5850369
-0.86136305 1.6329409 1.2950323
-0.85274005 1.6152427 1.042659
-0.84070194 1.5911103 0.81538767
-0.82988769 1.5693327 0.61175203
-0.81803638 1.5456263 0.42348492
-0.80178601 1.5136601 0.24672395
-0.88076741 1.679629 1.7703221
-0.86178493 1.6413585 1.4334079
-0.85707957 1.631029 1.1683378
-0.84794009 1.6116023 0.92929488
-0.83194697 1.5798825 0.71058589
-0.82043999 1.556728 0.51513195
-0.80830252 1.5330597 0.33393598
-0.79728264 1.5108966 0.16258898
-0.39396563 0.79937154 5.6657529
-0.75404042 1.5064079 8.1224422
-1.1326772 2.2254305 8.0300789
-1.0622178 2.0691841 5.5390563
-0.98964959 1.9179739 4.0224957
-0.93185556 1.7998304 3.0493283
-0.89720786 1.7285056 2.4082851
-0.17708126 0.4542138 8.270606
-0.26565462 0.61197722 6.1793909
-0.93711567 1.8610786 8.0599623
-1.1330395 2.2242892 6.8424683
-1.0131375 1.9753033 4.6539998
-0.95466781 1.8541664 3.4814217
-0.91513318 1.7720937 2.7157159
-0.89024448 1.7202429 2.1780884
-0.88603628 1.6983056 1.9621931
-0.87006575 1.6655867 1.5975907
-0.86147135 1.6470534 1.3032565
-0.85120541 1.6260589 1.0472968
-0.84159702 1.6063548 0.82100672
-0.83108759 1.5849655 0.61598212
-0.81720144 1.5571717 0.42535016
-0.8011288 1.5252672 0.24761811
-0.88006598 1.6926315 1.7802985
-0.86164945 1.6551127 1.4422375
-0.85735661 1.6454802 1.1759374
-0.84860682 1.626624 0.93558902
-0.83516943 1.5995208 0.71715993
-0.81950325 1.5681981 0.51747662
-0.80753475 1.544649 0.33531734
-0.79895222 1.5269502 0.16319357
-0.39117292 0.80074185 5.6657529
-0.74877745 1.5090308 8.1224422
-1.1242297 2.2280381 8.0253067
-1.0647348 2.0920324 5.589684
-0.99167383 1.9384748 4.0576086
-0.93327725 1.8180935 3.074126
-0.89850181 1.7458771 2.4274726
-0.17549469 0.45482919 8.270606
-0.26330706 0.61241066 6.1744189
-0.93117476 1.865463 8.0648022
-1.1416019 2.2605798 6.9410157
-1.0151157 1.9962924 4.6945105
-0.95648926 1.8737481 3.5112834
-0.91580755 1.7886883 2.735666
-0.89042437 1.7354052 2.1927891
-0.88501793 1.7108909 1.9727067
-0.86961657 1.6789825 1.607006
-0.86149168 1.6611866 1.311481
-0.85164613 1.6408155 1.0542531
-0.84025866 1.6175106 0.82475281
-0.83218843 1.6006255 0.62021226
-0.81629586 1.56873 0.4272154
-0.80270058 1.5413051 0.24895935
-0.88099527 1.7089683 1.7936004
-0.86142844 1.6688858 1.4510671
-0.85754293 1.6599526 1.1835369
-0.84709394 1.6376387 0.93978512
-0.83609378 1.6150069 0.72209048
-0.82073259 1.5839963 0.52099353
-0.80669588 1.5562515 0.33669871
-0.79821867 1.5385993 0.16359663
-0.38837543 0.80210239 5.6657529
-0.74350542 1.5116353 8.1224422
-1.1164455 2.2319486 8.0253067
-1.0697449 2.1201558 5.6541195
-0.99356687 1.9590127 4.092721
-0.93458259 1.8363881 3.0989237
-0.89968526 1.7632785 2.44666
-0.17390597 0.455439 8.270606
-0.26095971 0.61283529 6.1694474
-0.9246574 1.8687021 8.0648022
-1.1375662 2.2722669 6.9644794
-1.0159799 2.0153756 4.7305207
-0.95818549 1.893365 3.5411448
-0.91637713 1.8053089 2.7556162
-0.89204615 1.7536114 2.2111647
-0.8855499 1.7266631 1.986725
-0.87086231 1.6958578 1.6195598
-0.86333579 1.6790584 1.3224468
-0.85199416 1.6555949 1.0612096
-0.8409754 1.6327981 0.83037192
-0.83099204 1.6120484 0.62303233
-0.8175717 1.5846663 0.43001324
-0.80188519 1.5529474 0.24985351
-0.88182116 1.7253321 1.8069026
-0.86112159 1.6826773 1.4598964
-0.85763872 1.6744465 1.1911365
-0.84758544 1.652701 0.94607931
-0.83907646 1.63472 0.72866452
-0.81964046 1.5954987 0.5233382
-0.80804932 1.5722711 0.33877075
-0.79969871 1.5547042 0.16420123
-0.38557321 0.80345321 5.6657529
-0.73867029 1.5151366 8.1273375
-1.1086478 2.2358322 8.0253067
-1.0719501 2.1430976 5.7047472
-0.99532855 1.9795874 4.1278338
-0.93577147 1.8547137 3.1237214
-0.90220487 1.7835695 2.4696853
-0.17231514 0.45604327 8.270606
-0.25923157 0.61472553 6.1793909
-0.91812879 1.8719184 8.0648022
-1.1388319 2.2947738 7.020793
-1.0176961 2.0364358 4.7710309
-0.96092576 1.9153475 3.5752723
-0.91819608 1.8246471 2.7795563
-0.89202529 1.7688229 2.2258654
-0.8843661 1.7392805 1.9972385
-0.87023497 1.7092935 1.6289753
-0.86316639 1.6932378 1.3306712
-0.85224932 1.6703967 1.0681659
-0.84159559 1.6481102 0.83599097
-0.83190894 1.6277539 0.62726241
-0.81650919 1.5962571 0.43187848
-0.80326766 1.5690356 0.25119475
-0.88085586 1.7383918 1.816879
-0.86255771 1.7000914 1.4716691
-0.85959542 1.6928048 1.2012691
-0.85003889 1.6718321 0.95447153
-0.83978993 1.6502647 0.73359501
-0.8206839 1.6113436 0.52685511
-0.80705255 1.5839068 0.34015211
-0.79880613 1.5663874 0.16460429
-0.38276628 0.80479419 5.6657529
-0.73337698 1.5177059 8.1273375
-1.1008365 2.2396884 8.0253067
-1.0800823 2.1783333 5.7875924
-0.99802685 2.0023417 4.1673355
-0.93684369 1.8730698 3.148519
-0.90315694 1.801034 2.4888728
-0.1707222 0.456642 8.270606
-0.25728881 0.61611891 6.1843624
-0.91158897 1.8751117 8.0648022
-1.1384311 2.3142204 7.0677209
-1.0192777 2.0575328 4.811542
-0.96236277 1.9350363 3.6051338
-0.91854626 1.8413234 2.7995064
-0.89190882 1.7840554 2.240566
-0.88310498 1.7519108 2.0077522
-0.87127811 1.72622 1.6415291
-0.86290854 1.7074364 1.3388957
-0.85241151 1.6852204 1.0751224
-0.84211898 1.6634462 0.84161013
-0.83055818 1.6392061 0.63008249
-0.81537569 1.6078598 0.43374372
-0.80229354 1.5807115 0.2520889
-0.881486 1.754802 1.830181
-0.86206651 1.713925 1.4804987
-0.85949606 1.7073464 1.2088687
-0.85032636 1.6869477 0.96076572
-0.84253198 1.6700503 0.74016905
-0.82162666 1.6272154 0.53037208
-0.80598438 1.5955546 0.34153345
-0.80009592 1.5825417 0.16520888
-0.38028565 0.80682844 5.6706924
-0.72807473 1.5202566 8.1273375
-1.0930119 2.2435174 8.0253067
-1.0759184 2.1891036 5.8060026
-0.99951744 2.0229912 4.2024479
-0.93779922 1.891456 3.1733167
-0.90542459 1.8213968 2.5118976
-0.16912718 0.45723516 8.270606
-0.25594807 0.618985 6.2042484
-0.90503806 1.8782824 8.0648022
-1.1197588 2.296464 7.0020218
-1.0216837 2.0806193 4.8565545
-0.96482712 1.9570981 3.639261
-0.918791 1.8580238 2.8194566
-0.89169699 1.7993084 2.2552667
-0.88336051 1.7677435 2.0217705
-0.87047201 1.7396936 1.6509445
-0.8644349 1.7253921 1.3498615
-0.85446602 1.704025 1.0843976
-0.84462488 1.6829492 0.8491022
-0.83129078 1.6549554 0.63431257
-0.81637746 1.6238627 0.43654159
-0.80348605 1.596848 0.25343013
-0.88034803 1.7678953 1.8401576
-0.86329263 1.731393 1.4922713
-0.85930544 1.7219077 1.2164682
-0.85254711 1.7061452 0.96915793
-0.84092164 1.681428 0.74345607
-0.82029283 1.6387665 0.53271675
-0.80706191 1.611642 0.34360549
-0.79904401 1.5942577 0.16561194
-0.37779549 0.80885512 5.6756315
-0.7227636 1.5227889 8.1273375
-1.0845249 2.2459748 8.0205345
-1.0759701 2.2086535 5.8474255
-1.0008759 2.0436757 4.2375607
-0.93863755 1.9098712 3.1981144
-0.90614444 1.8389223 2.5310853
-0.1675301 0.45782271 8.270606
-0.25338355 0.61888736 6.1943049
-0.89847612 1.88143 8.0648022
-1.1072313 2.2910359 6.9738655
-1.0239407 2.1037476 4.9015665
-0.96714908 1.9792002 3.6733885
-0.91893035 1.8747485 2.8394065
-0.89288414 1.8176246 2.2736425
-0.88351607 1.7835989 2.0357885
-0.87131184 1.7566696 1.6634983
-0.86398655 1.7396343 1.358086
-0.85442781 1.7188976 1.0913539
-0.84493989 1.6983392 0.85472137
-0.83192337 1.6707296 0.63854265
-0.81508625 1.6354957 0.43840683
-0.80457562 1.6130121 0.25477138
-0.88078189 1.7843502 1.8534596
-0.8644073 1.7488904 1.5040439
-0.85902369 1.7364886 1.2240678
-0.8526296 1.7213115 0.97545201
-0.84133953 1.6970457 0.74838662
-0.82104886 1.6546822 0.53623366
-0.80583507 1.6233207 0.34498686
-0.79792005 1.6059854 0.166015
-0.37529576 0.81087416 5.6805706
-0.71744365 1.5253024 8.1273375
-1.0766783 2.2497468 8.0205345
-1.0818436 2.2405453 5.9210658
-1.0021021 2.0643938 4.2726731
-0.94059098 1.9308451 3.2270451
-0.90815949 1.8593549 2.5541103
-0.16583365 0.45813292 8.2656145
-0.25042394 0.6177907 6.1744189
-0.8924408 1.8856912 8.0696411
-0.98518616 2.0567582 6.2558722
-1.0269945 2.1288774 4.9510798
-0.96932846 2.0013425 3.7075164
-0.92028064 1.894207 2.8633468
-0.89395416 1.8359709 2.2920184
-0.8851434 1.8026782 2.0533113
-0.87032634 1.7701793 1.6729136
-0.86529589 1.7576455 1.3690518
-0.85429615 1.7337906 1.0983104
-0.84515768 1.7137517 0.86034042
-0.83245599 1.6865282 0.64277273
-0.81589949 1.6515434 0.4412047
-0.8033548 1.6247389 0.25566554
-0.88111144 1.8008293 1.8667616
-0.8636319 1.7627864 1.5128733
-0.85865045 1.7510883 1.2316673
-0.85461682 1.740573 0.98384422
-0.83957595 1.7084483 0.75167364
-0.82170361 1.6706228 0.53975064
-0.80672276 1.6394534 0.34705889
-0.79893106 1.6222064 0.1666196
-0.37246299 0.81217927 5.6805706
-0.71211499 1.5277975 8.1273375
-1.0688187 2.2534916 8.0205345
-1.0740161 2.244308 5.9210658
-1.0042341 2.0873034 4.3121748
-0.94118583 1.9493216 3.2518427
-0.90864629 1.8769386 2.5732977
-0.16423348 0.45870897 8.2656145
-0.24747513 0.61668092 6.1545329
-0.88585305 1.8887948 8.0696411
-0.97208118 2.0477123 6.2183299
-1.0298849 2.1540539 5.0005932
-0.97249329 2.0258749 3.7459095
-0.92150623 1.9136975 2.8872871
-0.8949067 1.8543463 2.310394
-0.88508767 1.8185837 2.0673294
-0.8709622 1.7872024 1.6854674
-0.86465633 1.7719289 1.3772761
-0.85601485 1.752684 1.1075855
-0.847314 1.7333513 0.8678326
-0.83078009 1.6980418 0.64559281
-0.81661046 1.6676165 0.44400257
-0.80425352 1.6409485 0.25700676
-0.8797074 1.8139726 1.876738
-0.86453557 1.7803342 1.5246459
-0.85818577 1.7657062 1.2392669
-0.85449398 1.7557887 0.99013841
-0.83981067 1.7241044 0.75660414
-0.82225704 1.6865883 0.54326761
-0.80967849 1.660063 0.3498216
-0.79764694 1.6339645 0.16702266
-0.36994681 0.81418198 5.6855102
-0.70677769 1.5302739 8.1273375
-1.060946 2.2572086 8.0205345
-1.0645013 2.2445128 5.9118605
-1.0051875 2.1080911 4.3472877
-0.94287777 1.9703642 3.2807736
-0.91040766 1.8974382 2.5963228
-0.16263127 0.45927948 8.2656145
-0.2447331 0.61605382 6.1396189
-0.87925458 1.8918755 8.0696411
-0.96125507 2.0432856 6.1948662
-1.0326122 2.1792762 5.0501065
-0.9754985 2.0504532 3.7843029
-0.92260683 1.9332194 2.9112272
-0.89574188 1.8727508 2.3287699
-0.88493168 1.8345108 2.0813477
-0.87318254 1.8077564 1.7011597
-0.86574805 1.7899935 1.388242
-0.85568184 1.7676231 1.114542
-0.84732234 1.7488146 0.87345165
-0.83112705 1.7138803 0.64982289
-0.8172192 1.6837145 0.44680041
-0.80504876 1.6571841 0.25834802
-0.87983984 1.8304936 1.8900402
-0.86532724 1.7979101 1.5364187
-0.85762936 1.7803422 1.2468663
-0.85624683 1.7751119 0.99853063
-0.83994633 1.7397832 0.76153469
-0.82270885 1.7025775 0.54678452
-0.81034476 1.6762546 0.35189366
-0.79846632 1.6502304 0.16762725
-0.3671025 0.81546837 5.6855102
-0.70143169 1.5327318 8.1273375
-1.0530604 2.2608981 8.0205345
-1.0583218 2.2517512 5.9210658
-1.0060078 2.1289105 4.3824
-0.94563985 1.9939846 3.3138371
-0.91203696 1.9179727 2.6193478
-0.1610271 0.45984435 8.2656145
-0.24160998 0.61442232 6.1147609
-0.87264526 1.8949332 8.0696411
-0.95922005 2.0575774 6.2277155
-1.0333253 2.2006023 5.0906172
-0.97834402 2.0750771 3.8226964
-0.92358232 1.9527723 2.9351673
-0.89791143 1.8942467 2.350821
-0.88621318 1.8536761 2.0988705
-0.87358934 1.8248365 1.7137135
-0.86491674 1.8043166 1.3964664
-0.85525489 1.7825811 1.1214983
-0.847233 1.764299 0.87907082
-0.83137357 1.7297421 0.65405303
-0.8198548 1.7042636 0.45053089
-0.80574036 1.673445 0.25968924
-0.88147324 1.850408 1.9066676
-0.86426646 1.8118645 1.545248
-0.85883838 1.7988857 1.256999
-0.85591763 1.790374 1.0048248
-0.83998269 1.7554835 0.76646519
-0.82305914 1.7185905 0.55030149
-0.81090772 1.6924707 0.3539657
-0.79918188 1.6665218 0.16823184
-0.36393762 0.81603509 5.6805706
-0.6956569 1.5342435 8.1224422
-1.0451621 2.2645605 8.0205345
-1.0504553 2.2554319 5.9210658
-1.0066952 2.1497614 4.4175129
-0.94824821 2.0176477 3.3469007
-0.91353387 1.9385413 2.6423728
-0.15942095 0.46040365 8.2656145
-0.24061882 0.61824447 6.1445904
-0.86602545 1.8979678 8.0696411
-0.94841409 2.0530798 6.2042518
-1.0357388 2.2259078 5.140131
-0.98102939 2.0997458 3.8610899
-0.92571115 1.9750837 2.9630976
-0.89850044 1.9127122 2.3691969
-0.88737166 1.8728725 2.1163931
-0.87388736 1.8419414 1.7262673
-0.86579013 1.8224323 1.4074323
-0.85473388 1.7975575 1.1284548
-0.84704566 1.7798036 0.88468987
-0.83151937 1.745626 0.65828311
-0.82024282 1.7204173 0.45332876
-0.80632824 1.6897309 0.2610305
-0.88138425 1.8669796 1.9199696
-0.86484617 1.8294876 1.5570207
-0.85992843 1.8174596 1.2671319
-0.85549235 1.8056554 1.0111189
-0.83991969 1.7712053 0.77139574
-0.82330745 1.7346263 0.55381846
-0.81136733 1.7087113 0.35603774
-0.79979324 1.6828381 0.16883643
-0.36108688 0.81730044 5.6805706
-0.69029713 1.5366623 8.1224422
-1.0372509 2.2681949 8.0205345
-1.0425761 2.2590849 5.9210658
-1.0072488 2.1706424 4.4526253
-0.9495151 2.0388026 3.3758314
-0.91489816 1.9591435 2.6653979
-0.15781288 0.46095735 8.2656145
-0.23865002 0.6195783 6.1495614
-0.85939503 1.9009792 8.0696411
-0.94124168 2.0563779 6.2042518
-1.0325196 2.2393944 5.1626368
-0.98245871 2.1220915 3.8952174
-0.92642611 1.9947007 2.9870377
-0.90040195 1.9342779 2.3912477
-0.88840675 1.8920993 2.1339159
-0.8740766 1.8590703 1.7388211
-0.86476636 1.8367928 1.4156566
-0.85600692 1.816559 1.13773
-0.84676057 1.7953286 0.89030898
-0.83361208 1.76587 0.66392326
-0.82052797 1.7365943 0.4561266
-0.80681211 1.706041 0.26237172
-0.88277239 1.8869549 1.9365971
-0.86531323 1.8471364 1.5687933
-0.86089897 1.8360626 1.2772646
-0.8568995 1.8250636 1.0195111
-0.83975703 1.7869477 0.7763263
-0.82552266 1.7550833 0.55850768
-0.81383181 1.7294561 0.35880047
-0.80030042 1.6991788 0.16944103
-0.35823178 0.81855589 5.6805706
-0.68492901 1.5390626 8.1224422
-1.029327 2.2718017 8.0205345
-1.0346839 2.2627103 5.9210658
-1.0076691 2.1915538 4.4877386
-0.95182461 2.0625455 3.4088948
-0.91612977 1.9797789 2.6884229
-0.15620288 0.46150538 8.2656145
-0.23705295 0.62190282 6.1644764
-0.85275418 1.9039674 8.0696411
-0.93334526 2.0580792 6.1995587
-1.0400727 2.2766473 5.2391572
-0.98483115 2.146843 3.9336109
-0.92827499 2.0170836 3.0149677
-0.90074378 1.9528015 2.4096236
-0.88931841 1.9113561 2.1514387
-0.87415683 1.8762228 1.7513751
-0.86542076 1.8549577 1.4266225
-0.85715765 1.8355911 1.1470052
-0.84834009 1.8150728 0.8978011
-0.8335408 1.7818043 0.66815329
-0.82071018 1.7527943 0.45892447
-0.80719185 1.7223749 0.26371297
-0.88246143 1.9035748 1.9498991
-0.86566752 1.8648108 1.5805659
-0.85993379 1.8507848 1.2848641
-0.85626704 1.8403887 1.0258054
-0.83949453 1.8027104 0.78125679
-0.82555151 1.771171 0.56202465
-0.81406844 1.7457505 0.36087251
-0.80070323 1.7155434 0.17004563
-0.35537231 0.81980139 5.6805706
-0.6795525 1.5414442 8.1224422
-1.0213908 2.2753808 8.0205345
-1.0267794 2.2663083 5.9210658
-1.0089482 2.2146733 4.5272398
-0.95397979 2.0863292 3.4419582
-0.91722822 2.0004463 2.711448
-0.15459098 0.46204785 8.2656145
-0.23525521 0.62372464 6.1744189
-0.84610283 1.9069325 8.0696411
-0.92544848 2.0597506 6.1948662
-1.0428903 2.3040636 5.2931724
-0.98596364 2.1692624 3.9677382
-0.9287287 2.036762 3.0389078
-0.90237635 1.9744344 2.4316745
-0.89159948 1.9338809 2.1724658
-0.87412786 1.8933985 1.7639289
-0.86420423 1.8693539 1.4348469
-0.85632551 1.8506325 1.1539615
-0.84784371 1.8306428 0.90342015
-0.83538604 1.8021121 0.67379349
-0.82285655 1.7734722 0.46265495
-0.80746728 1.7387321 0.2650542
-0.88360357 1.9236085 1.9665265
-0.86590892 1.8825097 1.5923386
-0.86067897 1.8694384 1.2949967
-0.85553801 1.8557312 1.0320994
-0.84111071 1.8227806 0.78783083
-0.82751602 1.7916927 0.56671393
-0.81420106 1.7620677 0.36294454
-0.79890424 1.7273968 0.17044869
-0.35250852 0.82103688 5.6805706
-0.67416769 1.5438068 8.1224422
-1.0134419 2.2789323 8.0205345
-1.0180624 2.2680962 5.9164629
-1.0100782 2.2378285 4.5667415
-0.95598054 2.1101527 3.4750218
-0.91819358 2.0211456 2.734473
-0.15297718 0.46258464 8.2656145
-0.23363324 0.62604123 6.1893334
-0.83893561 1.9087236 8.0648022
-0.91755134 2.0613918 6.1901736
-1.0473102 2.3354995 5.3561888
-0.98802233 2.1940937 4.0061316
-0.93029684 2.0592141 3.066838
-0.90386891 1.9961025 2.4537256
-0.89225221 1.9532007 2.1899886
-0.87560868 1.9141363 1.7796211
-0.86463898 1.8875656 1.4458128
-0.85909116 1.8737444 1.1655556
-0.84724903 1.8462317 0.90903932
-0.83709943 1.8224541 0.67943364
-0.82281667 1.7897234 0.46545282
-0.80555665 1.7505879 0.26594836
-0.88461649 1.9436731 1.9831541
-0.86603737 1.9002335 1.6041114
-0.86130428 1.8881195 1.3051294
-0.85659778 1.8752191 1.0404916
-0.84063345 1.8385895 0.79276139
-0.82732463 1.8078299 0.5702309
-0.81422973 1.7784069 0.36501658
-0.79911351 1.7438003 0.17105328
-0.34994414 0.82297754 5.6855102
-0.66917878 1.5470853 8.1273375
-1.0054808 2.2824559 8.0205345
-1.010139 2.2716362 5.9164629
-1.0110587 2.2610183 4.6062431
-0.95782655 2.1340158 3.5080857
-0.91902554 2.0418758 2.757498
-0.15136153 0.46311581 8.2656145
-0.23218173 0.62885445 6.2092199
-0.83226782 1.9116404 8.0648022
-0.91035014 2.0645821 6.1901736
-1.0497559 2.3630152 5.4102035
-0.99204433 2.2237289 4.0530567
-0.93171936 2.0817018 3.0947683
-0.90522093 2.0178046 2.4757767
-0.89425117 1.9757972 2.2110159
-0.87534863 1.9313622 1.7921749
-0.86495697 1.9058027 1.4567786
-0.85987371 1.8928646 1.1748308
-0.8484745 1.8660586 0.91653144
-0.83868086 1.8428297 0.68507373
-0.82267326 1.8059955 0.46825066
-0.80770481 1.7715142 0.26773667
-0.88396525 1.9603642 1.996456
-0.86605233 1.9179804 1.6158841
-0.86003435 1.9028994 1.312729
-0.8556608 1.8906024 1.0467858
-0.84200448 1.8587184 0.79933542
-0.8270306 1.8239871 0.57374781
-0.8121084 1.7902578 0.36639795
-0.79921794 1.760226 0.17165788
-0.34706926 0.82419407 5.6855102
-0.66377437 1.5494118 8.1273375
-0.99750745 2.2859521 8.0205345
-1.0022033 2.2751484 5.9164629
-1.0118895 2.2842422 4.6457453
-0.96066046 2.1604881 3.5452821
-0.91841847 2.0597086 2.7766855
-0.14974403 0.46364135 8.2656145
-0.23071343 0.63166511 6.2291059
-0.8255899 1.9145339 8.0648022
-0.90244728 2.0661659 6.1854806
-1.0537757 2.3945613 5.4732208
-0.99481726 2.2510333 4.0957165
-0.93299609 2.1042237 3.1226983
-0.90643239 2.0395403 2.4978275
-0.89464414 1.9951774 2.2285385
-0.87657315 1.95216 1.8078673
-0.86515814 1.9240651 1.4677445
-0.85871518 1.9079733 1.1817871
-0.84766781 1.8816895 0.92215055
-0.83815825 1.8588651 0.68930382
-0.82242626 1.8222885 0.47104853
-0.80766654 1.787938 0.2690779
-0.88473105 1.9804834 2.0130837
-0.86760449 1.9394403 1.6305997
-0.86043316 1.9216275 1.3228618
-0.85462654 1.9060013 1.05308
-0.84131157 1.8745706 0.80426592
-0.82663387 1.8401645 0.57726479
-0.81194419 1.8066323 0.36846998
-0.79921734 1.7766736 0.17226246
-0.34389147 0.82468325 5.6805706
-0.65836185 1.5517192 8.1273375
-0.99011403 2.2907903 8.0253067
-0.99425548 2.2786329 5.9164629
-1.0135325 2.3096919 4.6896358
-0.96218699 2.1844308 3.5783455
-0.91899312 2.0804935 2.7997105
-0.14812469 0.46416122 8.2656145
-0.2283268 0.63196498 6.2241344
-0.8189019 1.9174042 8.0648022
-0.89522946 2.0693035 6.1854806
-1.0506295 2.4101987 5.5002279
-0.99741149 2.2783837 4.1383753
-0.93412691 2.1267803 3.1506286
-0.90750307 2.0613086 2.5198786
-0.89491272 2.0145841 2.2460613
-0.87608111 1.9694334 1.8204211
-0.86694366 1.9461715 1.4814519
-0.85926539 1.9271427 1.1910623
-0.84865147 1.901571 0.92964268
-0.83949047 1.8792992 0.69494396
-0.82207531 1.8386012 0.47384638
-0.80548906 1.7998375 0.26997206
-0.8853671 2.0006318 2.029711
-0.86737955 1.9572384 1.6423724
-0.86071157 1.9403815 1.3329945
-0.85533768 1.9255641 1.0614722
-0.84243661 1.8947557 0.81084001
-0.82811034 1.8608018 0.58195406
-0.81167555 1.8230274 0.37054202
-0.7991116 1.7931426 0.17286706
-0.34071445 0.82516038 5.6756315
-0.65294135 1.5540079 8.1273375
-0.98211163 2.2942324 8.0253067
-0.98629552 2.2820897 5.9164629
-1.0150102 2.335181 4.7335267
-0.96580851 2.2135687 3.6196752
-0.91943377 2.1013079 2.8227355
-0.14650358 0.46467546 8.2656145
-0.22594087 0.63225579 6.2191625
-0.81269342 1.9214087 8.0696411
-0.88732129 2.0708294 6.1807876
-1.061192 2.4578218 5.5992546
-0.99982685 2.3057797 4.181035
-0.9351114 2.1493697 3.1785588
-0.90843266 2.0831091 2.5419295
-0.89649272 2.037281 2.2670887
-0.87704855 1.9902886 1.8361133
-0.86689723 1.964488 1.4924177
-0.8596921 1.9463388 1.2003375
-0.84763211 1.9172418 0.93526173
-0.83874905 1.8953786 0.69917405
-0.82162052 1.854934 0.47664425
-0.80727518 1.8208487 0.27176037
-0.8858732 2.0208085 2.0463386
-0.86704093 1.9750587 1.654145
-0.86086947 1.9591607 1.3431271
-0.85409456 1.9410005 1.0677663
-0.84152752 1.9106494 0.81577051
-0.827492 1.8770241 0.58547103
-0.81330049 1.8439732 0.37330475
-0.79890054 1.8096322 0.17347164
-0.34076914 0.83353817 5.7250242
-0.64751285 1.5562776 8.1273375
-0.97409731 2.2976465 8.0253067
-0.97832352 2.2855184 5.9164629
-1.017269 2.3629079 4.7818065
-0.96812195 2.2401752 3.6568718
-0.91974026 2.1221504 2.8457606
-0.14488067 0.465184 8.2656145
-0.2237325 0.63304061 6.2191625
-0.80598152 1.9242337 8.0696411
-0.88008732 2.0739141 6.1807876
-1.0688671 2.4995425 5.6847777
-1.0020629 2.3332198 4.2236938
-0.9371419 2.1747591 3.210479
-0.90922105 2.1049411 2.5639806
-0.89650035 2.0567441 2.2846115
-0.87632388 2.007607 1.8486671
-0.86673349 1.9828278 1.5033835
-0.85821968 1.961503 1.2072939
-0.84837329 1.9371752 0.94275385
-0.83790535 1.9114751 0.70340413
-0.82303536 1.8757838 0.48037472
-0.80692178 1.8373344 0.27310163
-0.88773608 2.0444374 2.0662916
-0.86820012 1.9966071 1.6688609
-0.86090672 1.9779642 1.3532599
-0.85456741 1.9606118 1.0761585
-0.84240603 1.9308882 0.82234448
-0.82871562 1.8977189 0.59016031
-0.81280649 1.8604145 0.37537676
-0.79858404 1.8261418 0.17407624
-0.34135178 0.84336698 5.7842951
-0.64168882 1.5575869 8.1224422
-0.96607101 2.301033 8.0253067
-0.9703396 2.2889194 5.9164629
-1.0193467 2.3906791 4.8300862
-0.97026122 2.2668242 3.6940684
-0.92117655 2.1459656 2.8726232
-0.14325599 0.46568692 8.2656145
-0.22082125 0.63180375 6.1992764
-0.79925978 1.9270355 8.0696411
-0.87217414 2.0753827 6.176095
-1.0762637 2.5413461 5.7703009
-1.0030986 2.3583031 4.2620873
-0.93900645 2.2001889 3.2423992
-0.909868 2.1268039 2.5860314
-0.89779633 2.0795062 2.3056388
-0.87703365 2.0285175 1.8643595
-0.8681134 2.0050275 1.5170909
-0.8584131 1.9807448 1.2165691
-0.84714061 1.9528837 0.94837296
-0.83887011 1.9319892 0.70904434
-0.82235658 1.892161 0.48317263
-0.80646288 1.8538393 0.27444285
-0.88796967 2.0646741 2.0829191
-0.86762065 2.0144751 1.6806335
-0.86082304 1.9967918 1.3633926
-0.85491371 1.9802504 1.0845507
-0.84315336 1.951156 0.82891852
-0.82980466 1.9184448 0.59484959
-0.8122077 1.8768748 0.37744883
-0.80014765 1.8472558 0.17488237
-0.33696243 0.8409465 5.7595987
-0.63624793 1.5598173 8.1224422
-0.95860606 2.3057694 8.0300789
-0.96158767 2.2904913 5.9118605
-1.020311 2.4162865 4.8739772
-0.9733243 2.2961061 3.7353976
-0.92245758 2.1698165 2.8994856
-0.14162956 0.46618411 8.2656145
-0.21930763 0.63458717 6.2191625
-0.79300565 1.9309764 8.074481
-0.86492443 2.0784144 6.176095
-1.085065 2.5872467 5.8648262
-1.0039716 2.3834219 4.3004808
-0.94070476 2.2256577 3.2743194
-0.91037327 2.1486962 2.6080825
-0.89894426 2.1023018 2.3266659
-0.8760758 2.0458791 1.8769133
-0.86770093 2.0234177 1.5280569
-0.85848278 2.0000122 1.2258444
-0.84763867 1.9728668 0.95586509
-0.83780652 1.9481261 0.71327436
-0.82351565 1.9130679 0.4869031
-0.80589873 1.8703637 0.27578411
-0.88953584 2.0883722 2.1028721
-0.86851269 2.0360808 1.6953493
-0.86231118 2.0196075 1.3760586
-0.85513324 1.9999148 1.092943
-0.84376943 1.9714525 0.83549255
-0.82884508 1.9347333 0.5983665
-0.81345451 1.897905 0.38021153
-0.79960382 1.8638113 0.17548695
-0.33288029 0.83922803 5.7398415
-0.63079923 1.5620288 8.1224422
-0.95055151 2.3091016 8.0300789
-0.95358658 2.2938337 5.9118605
-1.021109 2.4419298 4.9178681
-0.97510552 2.3228421 3.7725942
-0.92482692 2.1966562 2.9301858
-0.14000142 0.46667564 8.2656145
-0.21760574 0.63686293 6.234077
-0.78626049 1.9337327 8.074481
-0.85766411 2.0814209 6.176095
-1.0868801 2.6171551 5.9233422
-1.0056851 2.4109826 4.3431406
-0.94223666 2.2511652 3.3062396
-0.91204828 2.1737444 2.6338086
-0.9013344 2.1284146 2.3511977
-0.87652707 2.0668416 1.8926057
-0.86880499 2.0456777 1.541764
-0.85842824 2.0193038 1.2351196
-0.84800738 1.9928769 0.96335721
-0.83852017 1.9686924 0.71891451
-0.82261211 1.929487 0.48970091
-0.80718356 1.8914868 0.27757239
-0.89094722 2.1121061 2.1228251
-0.8692643 2.0577173 1.710065
-0.86197144 2.0384872 1.3861912
-0.85522574 2.0196044 1.1013352
-0.8442539 1.9917767 0.84206659
-0.82968014 1.9555128 0.60305578
-0.81262946 1.9144082 0.3822836
-0.79895407 1.8803855 0.17609155
-0.32966518 0.83966154 5.7349029
-0.62572068 1.5651667 8.1273375
-0.94248551 2.3124056 8.0300789
-0.9448303 2.295342 5.9072585
-1.019908 2.4631817 4.9529805
-0.97671193 2.3496182 3.8097908
-0.92701995 2.2235389 2.9608858
-0.13837156 0.46716151 8.2656145
-0.21589065 0.63913459 6.248992
-0.77950567 1.9364655 8.074481
-0.8497417 2.0828042 6.1714025
-1.0918107 2.6551609 5.9998627
-1.0072182 2.4385839 4.3857994
-0.94475526 2.2794931 3.3421495
-0.91355944 2.1988299 2.6595349
-0.90217406 2.1512809 2.372225
-0.87684238 2.0878322 1.9082979
-0.86814308 2.0641155 1.55273
-0.85824925 2.0386188 1.2443948
-0.85004693 2.0171854 0.97272241
-0.83910036 1.9892871 0.72455466
-0.82351458 1.9504482 0.49343142
-0.8083306 1.9126414 0.27936071
-0.89220357 2.1358747 2.1427782
-0.86987543 2.0793836 1.7247809
-0.86151034 2.0573885 1.3963239
-0.85694647 2.043505 1.1118255
-0.8464343 2.0164824 0.85028416
-0.82849741 1.9718405 0.60657275
-0.81361789 1.9354936 0.3850463
-0.80013585 1.9015825 0.17689767
-0.32617 0.83935845 5.7250242
-0.62062794 1.5682881 8.1322336
-0.93440795 2.3156815 8.0300789
-0.93607503 2.2968168 5.9026556
-1.023113 2.4955356 5.0100389
-0.97921413 2.3790362 3.8511205
-0.92903656 2.2504632 2.9915857
-0.13674003 0.46764168 8.2656145
-0.21433029 0.64190781 6.268878
-0.77227622 1.938007 8.0696411
-0.84246612 2.0857577 6.1714025
-1.0956683 2.6912165 6.0718822
-1.008571 2.4662249 4.4284592
-0.94594377 2.305079 3.3740702
-0.91490632 2.2239521 2.685261
-0.90286493 2.1741786 2.3932524
-0.87851638 2.1124437 1.9271286
-0.86897063 2.0864336 1.5664372
-0.85794586 2.0579574 1.25367
-0.85014164 2.0372536 0.98021454
-0.83954698 2.0099099 0.73019475
-0.8242808 1.9714392 0.4971619
-0.80933976 1.9338269 0.28114903
-0.89330488 2.159678 2.1627309
-0.87034565 2.101079 1.7394966
-0.86257881 2.0802939 1.4089899
-0.85676986 2.0632498 1.1202177
-0.84664005 2.0368667 0.85685819
-0.8290779 1.9926714 0.61126196
-0.81446904 1.956609 0.38780904
-0.79925781 1.9181987 0.17750227
-0.32323807 0.84049189 5.7250242
-0.61552101 1.5713933 8.1371288
-0.92631894 2.318929 8.0300789
-0.92732108 2.2982585 5.8980532
-1.029707 2.5368178 5.0846529
-0.98258454 2.4111054 3.8965828
-0.93087626 2.2774284 3.0222857
-0.13510682 0.46811613 8.2656145
-0.2120883 0.64265203 6.268878
-0.76550663 1.940691 8.0696411
-0.83453977 2.0870833 6.1667094
-1.100101 2.7293501 6.1484027
-1.0097429 2.4939051 4.4711185
-0.94809896 2.3334916 3.4099801
-0.916089 2.2491105 2.7109871
-0.9034068 2.1971068 2.4142797
-0.87854719 2.1334934 1.9428209
-0.86965275 2.1087825 1.5801446
-0.85920811 2.0814128 1.2652639
-0.8518768 2.0616317 0.98957968
-0.83985972 2.0305595 0.7358349
-0.8249104 1.9924593 0.5008924
-0.8102107 1.9550425 0.28293735
-0.89425069 2.1835146 2.1826839
-0.87067515 2.122803 1.7542125
-0.86186063 2.0992436 1.4191226
-0.85646594 2.0830183 1.1286099
-0.84671372 2.057277 0.86343223
-0.82952297 2.01353 0.61595124
-0.81329548 1.9731753 0.38988104
-0.80017883 1.9394501 0.1783084
-0.32030225 0.84161508 5.7250242
-0.61039996 1.5744816 8.142024
-0.91821873 2.3221483 8.0300789
-0.91929293 2.3014815 5.8980532
-1.0333463 2.5715089 5.1461
-0.9867956 2.4458365 3.9461782
-0.93253893 2.3044336 3.0529859
-0.13347195 0.4685849 8.2656145
-0.20935035 0.64186728 6.253963
-0.75872773 1.9433511 8.0696411
-0.82661444 2.0883791 6.1620164
-1.1050874 2.7695689 6.229425
-1.0097634 2.5192018 4.5095115
-0.94894302 2.3591518 3.4419003
-0.91837484 2.2774479 2.7403884
-0.90514416 2.2233684 2.4388115
-0.87991118 2.1581728 1.9616517
-0.86860883 2.1272902 1.5911106
-0.85864103 2.1008015 1.2745391
-0.85169673 2.0817556 0.9970718
-0.84185642 2.0556753 0.74288505
-0.82540315 2.0135076 0.50462288
-0.80905288 1.9716803 0.2842786
-0.89504081 2.2073839 2.202637
-0.87086338 2.1445544 1.7689284
-0.86264366 2.1222064 1.4317884
-0.85774547 2.107013 1.1391002
-0.84665501 2.0777118 0.87000626
-0.82983243 2.0344157 0.62064052
-0.81388724 1.9943421 0.39264378
-0.79907185 1.9561062 0.17891298
-0.31736252 0.84272802 5.7250242
-0.60526484 1.5775533 8.1469183
-0.91010737 2.3253393 8.0300789
-0.91053545 2.3028595 5.8934503
-1.0376412 2.6084819 5.2119365
-0.99077606 2.4806263 3.9957736
-0.93402439 2.3314779 3.0836859
-0.13183548 0.46904796 8.2656145
-0.20694588 0.64208657 6.248992
-0.7514866 1.9448153 8.0648022
-0.81869024 2.0896449 6.1573243
-1.1034092 2.7936571 6.2744365
-1.0105813 2.5469534 4.5521712
-0.95184863 2.3904452 3.4818006
-0.91921711 2.30268 2.7661147
-0.90670896 2.2496684 2.4633431
-0.88111329 2.1828876 1.9804823
-0.86901325 2.1496925 1.6048177
-0.8596105 2.1243179 1.2861332
-0.85312682 2.1062002 1.0064369
-0.84188533 2.0763834 0.7485252
-0.82575899 2.0345831 0.50835335
-0.80966306 1.9929475 0.28606692
-0.89706612 2.2347503 2.2259157
-0.87091017 2.1663325 1.7836441
-0.86327696 2.1452007 1.4444543
-0.85717142 2.1268325 1.1474924
-0.84646392 2.0981717 0.8765803
-0.83000606 2.0553281 0.62532979
-0.81434113 2.015537 0.39540651
-0.79973143 1.9774096 0.17971911
-0.31468987 0.84455889 5.7299633
-0.60011566 1.5806085 8.1518135
-0.90198487 2.3285022 8.0300789
-0.90249145 2.3060241 5.8934503
-1.0381807 2.6366012 5.2602162
-0.99349099 2.5128562 4.0412364
-0.93533224 2.3585603 3.1143858
