# .PCD v0.7 - Point Cloud Data file format
VERSION 0.7
FIELDS x y z
SIZE 4 4 4
TYPE F F F
COUNT 1 1 1
WIDTH 1596
HEIGHT 1
VIEWPOINT 0 0 0 1 0 0 0
POINTS 1596
DATA ascii
9.1059837 9.9132118 16.1926
1.7318006 1.5129931 39.603249
3.0506012 2.8833132 39.105663
7.1398935 7.582334 40.135666
5.9876866 6.4753323 14.496063
7.7838497 8.4383583 15.276312
7.8385491 8.5125275 12.622906
7.8014507 8.5288134 11.438486
6.8443284 7.4903216 8.2636719
7.9764214 8.7384205 7.8416533
9.2733316 10.166331 7.289506
6.4156752 6.9942107 8.5343895
7.4238725 8.1018066 8.0849504
8.6125889 9.4056396 7.5798135
10.039028 10.974937 6.9632936
0.33200774 0.12234072 39.147781
4.2132864 4.3650956 38.566151
5.4608245 5.7308726 38.081234
9.7278194 10.348515 45.451977
6.0024953 6.4573693 16.224136
7.1188197 7.6796985 15.452308
9.0904703 9.8272476 16.104338
1.7372895 1.5071276 39.608238
3.0610356 2.8730114 39.11063
7.1637225 7.5546284 40.121151
6.4830251 6.9620876 15.630802
7.9527116 8.5612602 15.547634
7.9004874 8.5199165 12.674358
7.8480873 8.5198889 11.463017
6.8783398 7.4749775 8.2730875
8.0181942 8.7228384 7.8526192
9.3237457 10.150211 7.3011003
6.4451175 6.9772582 8.5410404
7.4493675 8.0728722 8.0820074
8.6570578 9.388196 7.5899463
10.095727 10.959856 6.9758821
0.33243278 0.12118104 39.147781
4.2290397 4.3509192 38.571091
5.4815006 5.7125101 38.086128
9.7546473 10.304739 45.409027
6.070828 6.4853339 16.347031
7.1628652 7.6733155 15.489504
9.0919485 9.7602768 16.046776
1.7429777 1.5014309 39.618221
3.0714359 2.8626723 39.115604
7.4349627 7.9286718 17.849089
8.0690041 8.6258698 15.715215
7.9787698 8.5443192 12.751536
7.877779 8.4924431 11.463017
6.9123278 7.4594879 8.2825031
8.0599556 8.7070704 7.863585
9.3741598 10.133862 7.3126941
6.4770627 6.9629197 8.5510168
7.47475 8.0438585 8.0790644
8.704442 9.3737144 7.602612
10.155528 10.947842 6.9905682
0.33289504 0.12003388 39.152779
4.2447443 4.3366857 38.576027
5.5028224 5.6948056 38.095917
9.7905579 10.270627 45.409027
6.1049285 6.4763021 16.377752
7.191534 7.6503158 15.493636
1.7484275 1.495525 39.623211
3.0818012 2.8522954 39.120575
6.832931 7.1057863 37.991802
7.455431 7.8950858 17.832024
8.1321239 8.6327438 15.779055
8.0364151 8.546052 12.795638
7.9219823 8.4805288 11.484045
6.943635 7.4410048 8.2887802
8.0988541 8.6880589 7.871809
9.4245729 10.117285 7.3242879
6.506434 6.9457183 8.5576677
7.5027823 8.0177183 8.0790644
8.7488861 9.3558664 7.6127448
10.212271 10.932225 7.0031571
0.3333534 0.11888496 39.15778
4.2609477 4.3229489 38.585907
5.5240884 5.6770225 38.105709
9.7922373 10.200853 45.251553
6.1390405 6.4671111 16.408476
1.7538574 1.4895993 39.628204
3.0921314 2.8418813 39.125546
6.8585677 7.0827942 37.996643
7.4613786 7.8463354 17.780832
8.149766 8.5911884 15.755116
9.0102749 9.5148869 14.284081
7.9613118 8.4632149 11.498064
6.9775639 7.4252315 8.2981958
8.1405783 8.6719303 7.8827753
9.4749861 10.100479 7.3358822
6.5357633 6.9283957 8.5643187
7.5307236 7.9914794 8.0790644
8.793313 9.3378248 7.6228776
10.269027 10.916344 7.0157447
0.33376634 0.11772061 39.15778
4.2771063 4.3091521 38.595787
5.5452962 5.6591592 38.115498
9.7686491 10.105436 44.979549
6.1847472 6.4698796 16.469923
7.4602933 7.8260112 15.952394
1.759488 1.4838402 39.638191
3.103214 2.8321483 39.140461
6.8841271 7.05971 38.001484
7.4652715 7.7957549 17.725376
9.0527906 9.4931898 14.29878
8.0006142 8.4457283 11.512081
7.0114655 7.4093113 8.3076115
8.1794167 8.6525774 7.8909993
9.5253954 10.083445 7.347476
6.5650511 6.910954 8.5709696
7.5669208 7.9739399 8.0878944
8.834753 9.3164568 7.6304774
10.325796 10.900201 7.0283332
0.33417523 0.11655484 39.15778
4.2932205 4.2952948 38.605667
5.567162 5.641942 38.130184
9.7413902 10.0071 44.69323
6.2239027 6.4655051 16.513815
7.4914637 7.8039818 15.96066
1.7648782 1.4778745 39.643181
3.113476 2.8216562 39.145432
6.9148932 7.0419149 38.035358
7.4960599 7.7734036 17.733908
9.0623913 9.4370804 14.26203
8.0374327 8.4254923 11.522595
7.048027 7.3960624 8.3201647
8.2211027 8.6360874 7.9019656
9.5758009 10.066181 7.3590703
6.5942969 6.8933916 8.5776215
7.6058788 7.9591665 8.0996666
8.8791285 9.2980318 7.6406097
10.379447 10.880511 7.0388236
0.33458006 0.11538764 39.15778
4.3092904 4.2813778 38.615543
5.5882578 5.6239195 38.139977
9.7637224 9.9602432 44.635967
6.268105 6.4660964 16.570873
7.4971447 7.7555285 15.915197
1.7702483 1.4718893 39.64817
3.1240995 2.8114846 39.155376
6.9411993 7.0195217 38.045036
7.5849233 7.8108034 17.87895
9.1353416 9.4468184 14.324507
8.0766754 8.407671 11.536613
7.0899706 7.3882647 8.338995
8.2598791 8.616394 7.9101901
9.6262016 10.048688 7.3706641
6.6260905 6.8783979 8.5875969
7.6448259 7.9442182 8.1114388
8.9234829 9.2794094 7.6507425
10.433084 10.860578 7.0493135
0.33493921 0.11420578 39.152779
4.3253145 4.2674007 38.62542
5.6092949 5.6058178 38.149765
9.7585812 9.8857336 44.454632
6.3174057 6.4715972 16.641098
7.5104303 7.7151971 15.886267
1.7755984 1.4658848 39.653164
3.1334968 2.8002071 39.150402
6.9647727 6.9943595 38.040195
7.6012006 7.7730913 17.853354
9.1895475 9.4367313 14.357583
8.1134138 8.3871174 11.547128
7.1292419 7.3774672 8.3546877
8.3015223 8.5995426 7.9211555
9.6765966 10.030966 7.3822579
6.6578598 6.8632669 8.5975742
7.6809487 7.9261923 8.1202688
8.9678154 9.2605906 7.6608753
10.477242 10.830618 7.0535097
0.33529425 0.11302282 39.147781
4.3407397 4.25282 38.63036
5.6309972 5.5883555 38.164452
9.790925 9.8494921 44.445087
6.361784 6.4717093 16.698156
7.6042933 7.757257 16.026787
1.7807045 1.4596778 39.653164
3.1432521 2.7892518 39.150402
6.986475 6.9673429 38.025677
7.6429276 7.7613773 17.887482
8.7081194 8.8646641 16.529181
9.2319269 9.414279 14.372284
8.1476183 8.3638544 11.554136
7.1685233 7.3664832 8.3703794
8.3431482 8.5825052 7.9321218
9.7238998 10.009837 7.3915334
6.6896033 6.8479972 8.6075497
7.7226849 7.9137969 8.134984
9.0151348 9.2446623 7.6735415
10.562489 10.842745 7.084981
0.33564505 0.11183876 39.14278
4.3561153 4.2381845 38.6353
5.6519208 5.5700951 38.174244
9.7724438 9.7625084 44.206486
7.6253939 7.724658 16.014389
1.7857889 1.4534532 39.653164
3.1525691 2.7779105 39.145432
7.0027151 6.9349527 37.982124
7.6828284 7.7476144 17.917343
8.7474871 8.842782 16.545139
9.229002 9.3458128 14.317157
8.1917477 8.3506374 11.575163
7.2078152 7.3553162 8.3860722
8.3847561 8.5652819 7.9430876
9.7742701 9.9916658 7.4031272
6.7213225 6.8325896 8.617527
7.7502618 7.8867912 8.134984
9.0624514 9.2285166 7.6862073
10.616163 10.822007 7.0954709
0.33599168 0.11065364 39.137779
4.3714423 4.2234926 38.64024
5.6727848 5.5517564 38.184032
7.7157969 7.7618561 16.146643
1.7908515 1.4472107 39.653164
3.1626482 2.7672403 39.150402
7.0259838 6.9095855 37.977283
7.7356253 7.7465849 17.977066
8.7995663 8.8335419 16.585039
9.2352734 9.2870979 14.276731
8.2308722 8.3321409 11.589182
7.2443819 7.3411927 8.3986263
8.4263458 8.5478735 7.9540534
9.8246317 9.9732656 7.4147215
6.7503872 6.8143916 8.6241779
7.7777443 7.8596902 8.134984
9.1097651 9.2121515 7.6988726
0.33637589 0.10948014 39.137779
4.387279 4.2092834 38.650116
5.6928596 5.5326304 38.188927
7.7627516 7.7547626 16.187973
1.7958922 1.4409508 39.653164
3.1726909 2.7565331 39.155376
7.032074 6.8674541 37.880497
7.7681675 7.7250528 17.989864
8.8260794 8.7985163 16.577059
9.2388477 9.226058 14.232627
8.2976341 8.3412838 11.64175
7.278194 7.3241434 8.408042
8.4679146 8.5302773 7.9650192
9.8749838 9.9546347 7.4263153
6.8031392 6.8198647 8.660759
7.8079858 7.8353562 8.137928
9.1570749 9.19557 7.7115388
0.33683962 0.10833036 39.147781
4.4030709 4.1950154 38.66
5.7136025 5.5141387 38.198719
9.7909098 9.5782194 43.834274
7.8317266 7.7692366 16.274763
1.800685 1.4344932 39.64817
3.1835043 2.7464857 39.170292
7.0406618 6.8279891 37.798225
7.7895174 7.6923919 17.977066
9.2421093 9.1651058 14.188525
8.3746538 8.3601389 11.708336
7.3147283 7.3096981 8.4205952
8.5094643 8.512496 7.9759851
9.9253254 9.9357748 7.4379096
6.8745337 6.8434901 8.7206173
7.8295627 7.8023472 8.132041
9.2043791 9.1787691 7.7242045
0.33729935 0.10717868 39.15778
4.4193811 4.181222 38.674816
5.7342863 5.4955702 38.208511
9.8178596 9.5377445 43.805641
7.8768415 7.759625 16.31196
1.8059081 1.428378 39.653164
3.1942868 2.7363966 39.185204
7.0572109 6.7963967 37.75951
7.8200459 7.668807 17.985598
9.24506 9.1042442 14.144424
8.4595041 8.3860903 11.785437
7.3484883 7.292346 8.4300108
8.550993 8.4945278 7.9869509
9.978797 9.9198055 7.4518223
6.9408655 6.8614507 8.7738247
7.8653693 7.7834983 8.140871
9.2486172 9.1587172 7.7343378
0.3377552 0.10602511 39.167782
4.4350815 4.1668339 38.684692
5.7541714 5.476222 38.213402
9.8768759 9.5282869 43.92017
7.9783082 7.8048925 16.46488
1.8117918 1.422778 39.67313
3.2050374 2.7262654 39.200119
7.0799832 6.7708521 37.754673
9.2428493 9.0387344 14.092972
8.5497198 8.4165545 11.869545
7.3849878 7.2775779 8.442564
8.5924988 8.4763737 7.9979167
10.029125 9.9004736 7.4634161
7.0074062 6.8790312 8.827034
7.9097886 7.7729945 8.1585293
9.2958975 9.14149 7.7470031
0.33816516 0.10485757 39.172779
4.451304 4.1529174 38.699509
5.7747326 5.4575019 38.223194
9.9230108 9.5061445 43.977432
8.0014668 7.7730742 16.456614
1.819025 1.4182183 39.723049
3.2153494 2.7157493 39.210064
7.1053972 6.7478275 37.764347
9.2500229 8.9827967 14.056219
8.6402521 8.4464893 11.953654
7.4186921 7.2599225 8.4519796
8.6309958 8.4551058 8.0061407
10.07944 9.8809099 7.4750104
7.0634589 6.8858047 8.8669395
7.9513369 7.7594514 8.1732454
9.3400879 9.1210337 7.7571363
0.33848715 0.10366457 39.167782
4.4657731 4.1373539 38.699509
5.7952328 5.438704 38.232983
9.9485626 9.4642458 43.944031
7.9799442 7.6982059 16.357424
1.8230509 1.411154 39.703079
3.2244012 2.7041664 39.20509
7.1307378 6.7247095 37.774029
9.2325163 8.903389 13.982718
8.7464485 8.490799 12.058791
7.4523635 7.2421207 8.4613953
8.6724463 8.4365902 8.017107
10.126566 9.8580256 7.4842854
7.0928173 6.8663011 8.8735905
7.9899855 7.7429008 8.1850185
9.3873425 9.1033802 7.7698021
0.33880496 0.10247061 39.162781
4.4807601 4.1222663 38.704449
5.8164163 5.4205246 38.247669
9.9999857 9.446888 44.025154
7.9397097 7.6060653 16.221037
1.8277366 1.404606 39.69809
3.2338209 2.6928947 39.20509
7.1560025 6.7014952 37.783707
9.2439508 8.8523483 13.953316
8.8530588 8.5344687 12.163927
7.4888005 7.2268739 8.4739485
8.713872 8.4178867 8.0280724
10.17684 9.8380117 7.4958797
8.0373516 7.7345829 8.2056198
9.4314823 9.0825176 7.7799349
0.33907646 0.10126401 39.152779
4.4951224 4.1066003 38.704449
5.8367968 5.4015713 38.257462
10.014392 9.3945627 43.944031
7.9764056 7.5880013 16.241701
1.8323989 1.3980426 39.6931
3.2432008 2.6815903 39.20509
7.1811929 6.6781878 37.793388
8.9523516 8.5700989 12.25855
7.5224123 7.2087679 8.4833641
8.7552729 8.3989973 8.0390387
10.227098 9.8177671 7.5074735
7.8616786 7.5049915 9.7614994
8.0643024 7.70648 8.2056198
9.4787064 9.064436 7.7926006
0.33938581 0.1000683 39.147781
4.5094295 4.0908847 38.704449
5.8571157 5.3825421 38.26725
10.026373 9.3402166 43.853359
8.0171633 7.5736394 16.270632
1.8372679 1.3916378 39.6931
3.2533658 2.670929 39.215031
7.2063069 6.6547852 37.803066
9.0752611 8.6272535 12.384714
7.5559888 7.1905165 8.4927797
8.799675 8.3828058 8.0527458
10.277337 9.7972908 7.5190673
7.8986664 7.4877782 9.7748003
8.0970163 7.6838474 8.2115068
9.525919 9.0461369 7.8052664
0.33960667 0.098848939 39.132786
4.5242591 4.0756388 38.709389
5.8781252 5.3641233 38.281937
10.013988 9.2636032 43.657711
8.0620222 7.5629358 16.307829
1.842576 1.3855627 39.703079
3.2630823 2.659893 39.220005
7.2313447 6.6312881 37.81274
9.1494074 8.6371393 12.44429
7.589529 7.1721163 8.5021954
8.8410339 8.3635311 8.0637121
10.324341 9.7735376 7.5283422
8.5147085 8.015521 10.496434
8.1296711 7.6610804 8.2173929
9.5699825 9.0246601 7.8153992
0.33994964 0.097662888 39.132786
4.5384583 4.0598211 38.709389
5.8983226 5.3449397 38.291729
9.9934969 9.1801205 43.428654
8.1295538 7.5731091 16.390488
1.8476328 1.379295 39.708073
3.2731762 2.649157 39.22995
7.2563076 6.6076994 37.822422
14.42416 13.259291 53.333702
9.2341385 8.6563683 12.517887
7.6230335 7.1535711 8.511611
8.8823643 8.3440714 8.0746775
10.37776 9.7556438 7.5422554
8.7826643 8.2101307 10.789079
8.1534138 7.6298952 8.2144499
9.6171598 9.0059328 7.8280649
0.34049946 0.096530959 39.15778
4.5537639 4.0449867 38.719265
5.918458 5.3256798 38.301517
9.9791613 9.1029301 43.228233
8.1642017 7.5523286 16.407019
1.8531322 1.3733522 39.723049
3.2832348 2.6383832 39.239891
7.2811928 6.5840149 37.8321
14.46016 13.199553 53.296162
9.3086739 8.66539 12.577463
7.6593475 7.1375327 8.5241642
8.923667 8.3244247 8.0856438
10.424704 9.731451 7.5515304
9.1177549 8.4639282 11.161534
8.2155285 7.6344056 8.2497673
9.6643219 8.9869852 7.8407311
0.34100336 0.095385477 39.17778
4.5701866 4.0311222 38.739025
5.9385304 5.306345 38.31131
9.9456024 9.0089169 42.946682
8.2091665 7.5409174 16.444214
1.8576822 1.3667043 39.718056
3.2928412 2.627239 39.244862
7.3060021 6.5602388 37.841782
14.51254 13.154793 53.319626
9.3362474 8.6304235 12.573959
7.6956429 7.1213269 8.5367184
8.9649401 8.3045902 8.0966091
10.484598 9.7190943 7.5700803
9.1774435 8.4598866 11.198115
8.2599497 7.6221275 8.2674265
9.7114677 8.9678183 7.8533969
0.34171477 0.094291501 39.222778
4.5865684 4.0171924 38.758781
5.95854 5.2869349 38.321098
9.9725494 8.9701529 42.927593
8.2354393 7.5122166 16.444214
1.8619752 1.3598713 39.708073
3.3024096 2.6160593 39.249832
7.3307333 6.5363693 37.85146
14.562218 13.107517 53.333702
9.3505516 8.5833111 12.552932
7.7290525 7.1023216 8.546134
9.0092611 8.2874012 8.1103172
10.538015 9.7004385 7.5839934
9.223443 8.4429264 11.218068
8.3073683 7.6123643 8.2880287
9.7554216 8.9455175 7.8635297
0.3417879 0.093034387 39.19278
4.6023216 4.002687 38.773598
5.9792504 5.2681227 38.335781
9.9559278 8.8925295 42.722401
8.2782965 7.4985371 16.47728
1.8664767 1.3531942 39.703079
3.3119402 2.6048453 39.254807
7.356328 6.5132403 37.865974
14.632329 13.078456 53.422867
9.3593712 8.5313997 12.524895
7.7652979 7.085793 8.5586872
9.0504837 8.2671814 8.1212826
10.562003 9.6546288 7.5770373
9.2445688 8.4031448 11.208091
8.3518257 7.5996413 8.3056879
9.8025246 8.9259224 7.8761954
0.34249181 0.091935031 39.237778
4.6186185 3.9886289 38.793358
5.9991364 5.2485604 38.345577
9.9556398 8.8299894 42.588783
8.2981443 7.4639492 16.46488
1.8695478 1.3454915 39.66814
3.3214335 2.5935967 39.259777
7.3809066 6.4891815 37.875656
14.723065 13.067391 53.587112
9.3520784 8.4651728 12.475831
7.7986374 7.0664854 8.5681028
9.0947723 8.2495871 8.1349907
9.237813 8.3383017 11.164861
8.3902988 7.5812812 8.3174601
9.8496094 8.906106 7.8888612
0.34281063 0.090738952 39.237778
4.6342831 3.9739997 38.808174
6.0197268 5.2295904 38.36026
9.9494352 8.7626286 42.431313
8.2821732 7.3974476 16.382221
1.8756433 1.3399633 39.69809
3.3313088 2.5826397 39.269718
7.4063544 6.465858 37.890175
14.82426 13.064981 53.788902
9.3523951 8.4062529 12.437281
7.8348308 7.049633 8.5806561
9.1359406 8.2289829 8.145956
9.2501802 8.2910519 11.144907
8.4317551 7.5654454 8.3321762
9.8966761 8.8860712 7.9015274
0.34278584 0.089460336 39.197781
4.6516757 3.9608209 38.837807
6.0394864 5.2098756 38.370049
9.9451284 8.6973829 42.283379
8.3037329 7.3647566 16.373955
1.8805447 1.3335747 39.703079
3.3411489 2.5716457 39.279663
7.4307785 6.4416122 37.899853
14.895746 13.035884 53.882755
9.3524151 8.347435 12.398732
7.8680978 7.0300217 8.5900717
9.1801939 8.2109814 8.1596632
9.2539635 8.236371 11.114978
8.4701834 7.5467219 8.3439484
9.9405041 8.8629465 7.9116597
0.34267139 0.088162951 39.147781
4.6625066 3.9420516 38.813114
6.0591826 5.1900873 38.379841
9.9404879 8.6322746 42.135448
8.3272791 7.3338671 16.369822
1.8856605 1.3273342 39.713062
3.350529 2.5602908 39.284637
7.4560771 6.4180956 37.914371
14.959395 12.999657 53.948456
9.3441305 8.281621 12.349668
7.9013238 7.0102634 8.5994873
9.2213039 8.1899929 8.1706295
9.2714663 8.1941271 11.101675
8.508584 7.527822 8.3557215
9.9875193 8.8424816 7.9243259
0.34327453 0.087035432 39.182781
4.6768336 3.9262519 38.818054
6.0788131 5.1702242 38.389629
9.943428 8.5741291 42.02092
1.8905191 1.3209091 39.718056
3.3602951 2.5492239 39.294579
7.4813023 6.3944793 37.92889
15.030811 12.969906 54.042313
9.3542414 8.232461 12.325136
7.9345078 6.9903588 8.6089029
9.2561092 8.1632862 8.1761122
9.2607241 8.1272345 11.055119
8.5469542 7.5087466 8.3674936
10.034512 8.8217955 7.9369917
0.34357625 0.085836649 39.182781
4.6875257 3.9074154 38.793358
6.0991573 5.1509442 38.404316
9.8939247 8.4714098 41.686878
1.8953558 1.3144662 39.723049
3.3695991 2.5377994 39.299549
7.5064521 6.3707657 37.943409
9.3345852 8.1575174 12.262053
7.9676495 6.9703088 8.6183186
9.287693 8.1336813 8.178854
9.2580729 8.0678768 11.018538
8.5883427 7.4921527 8.3822098
10.084729 8.8037243 7.9521909
0.3438738 0.08463683 39.182781
4.7047281 3.8940015 38.82299
6.1186614 5.1309319 38.414108
9.9075136 8.4232864 41.620071
1.9001708 1.3080059 39.728039
3.378437 2.526022 39.299549
7.5315275 6.3469539 37.957928
9.3495359 8.1131983 12.244532
8.003686 6.9526639 8.6308718
9.32234 8.1066999 8.1843367
9.2946491 8.04284 11.028515
8.6266642 7.4727139 8.3939819
10.131685 8.7825871 7.9648566
0.34416711 0.083435968 39.182781
4.7200933 3.8790348 38.837807
6.1380992 5.1108451 38.423897
9.8912306 8.3501358 41.429192
1.9049633 1.3015276 39.733028
3.3876619 2.5145307 39.30452
7.5565286 6.3230453 37.972443
8.0367479 6.9323101 8.6402874
9.3379211 8.0631781 8.1733704
9.3509874 8.0346794 11.061769
8.6680183 7.4557343 8.4086981
10.181884 8.7640409 7.9800558
0.38650444 0.33352444 0.21384639
0.34454155 0.082252666 39.19278
4.7354116 3.8640089 38.852631
6.1574717 5.0906858 38.433689
9.8848553 8.2858324 41.281261
1.909734 1.295032 39.738022
3.3968477 2.5030067 39.30949
7.5804887 6.2982364 37.982124
13.925321 11.680821 49.480942
8.0727224 6.9143429 8.6528406
9.4136257 8.0713587 8.2144928
9.4187431 8.0359173 11.108326
8.7062845 7.4359326 8.4204712
10.228799 8.7424488 7.9927216
0.37659305 0.32268569 0.21032943
0.34486923 0.081058629 39.197781
4.7500777 3.8484335 38.862507
6.1767778 5.0704527 38.443478
9.8804464 8.2235861 41.142876
1.9144825 1.288519 39.743015
3.4059947 2.4914486 39.314465
7.6053362 6.274137 37.996643
13.93551 11.606739 49.373009
8.1086693 6.8962088 8.6653948
9.4576607 8.0520039 8.2282
9.4324913 7.9909234 11.091699
8.7506838 7.4211822 8.4381294
10.2724 8.7178478 8.0028543
0.39622766 0.33711728 0.21619101
0.34527814 0.079881281 39.21278
4.7652984 3.8332901 38.877323
6.1968069 5.0507908 38.458164
9.8722696 8.1586189 40.99017
1.9192086 1.2819884 39.748005
3.4155333 2.4801707 39.324406
7.6301079 6.2499404 38.011162
13.967961 11.551427 49.344852
8.141613 6.8753958 8.6748104
9.5112572 8.0405369 8.2501316
9.4546137 7.9531426 11.085048
8.791995 7.4036093 8.4528456
10.319251 8.6958275 8.0155201
0.39740199 0.33573213 0.21619101
0.34555489 0.078675546 39.21278
4.7792573 3.8171179 38.882263
6.2159834 5.0304108 38.467957
9.8741484 8.1023302 40.880417
1.9239126 1.2754407 39.752995
3.4246025 2.4685447 39.329376
7.6538272 6.2248535 38.020836
14.014868 11.508076 49.368317
8.1804762 6.8594384 8.6905022
9.5616837 8.0261059 8.2693224
9.4450626 7.8889747 11.041816
8.8363895 7.3884311 8.4705048
10.359461 8.6680517 8.0231199
0.36133152 0.30310589 0.20446785
0.34557086 0.077416718 39.182781
4.7931614 3.8008947 38.887203
6.2350922 5.0099573 38.477745
9.8549223 8.0291576 40.684765
1.9285944 1.2688756 39.757988
3.4336324 2.4568856 39.334351
7.6784439 6.200469 38.035358
14.061639 11.464535 49.391777
8.2043705 6.8308415 8.6905022
9.6024904 8.0033884 8.2802877
9.4553003 7.8416572 11.021864
8.8838959 7.3756142 8.491107
10.406234 8.6456108 8.0357857
0.35491756 0.29562137 0.20212321
0.34566784 0.076175809 39.162781
4.807621 3.7851014 38.897079
6.2541342 4.9894323 38.487537
9.8445921 7.9637284 40.527287
1.9332539 1.2622937 39.762981
3.4430568 2.4455023 39.344292
7.7029829 6.1759868 38.049877
14.133764 11.441441 49.504406
8.2521639 6.8220019 8.7156105
9.6464758 7.983151 8.2939949
9.4537907 7.7848682 10.988608
8.9283009 7.3599854 8.5087662
10.443 8.6147213 8.0408516
0.3458032 0.074943565 39.147781
4.8214159 3.7687747 38.90202
6.2739072 4.9694676 38.502224
9.8292694 7.8947315 40.350727
1.9378906 1.2556944 39.767971
3.452008 2.4337759 39.349266
7.7274442 6.1514091 38.064396
14.21666 11.42663 49.654575
8.3210545 6.8301964 8.7626867
9.6904373 7.9627028 8.3077021
9.4577837 7.7329149 10.962005
8.9727049 7.3441353 8.5264244
10.509691 8.608263 8.068717
0.34606269 0.073736027 39.147781
4.8357701 3.7528749 38.911896
6.2928157 4.9487958 38.512012
9.8217554 7.8324533 40.207565
1.9425049 1.2490782 39.772964
3.4609191 2.4220169 39.354237
7.7518282 6.1267362 38.078911
14.31176 11.421065 49.846977
8.4082069 6.8527493 8.8285952
9.7343731 7.9420457 8.3214102
9.4557304 7.6763206 10.928749
9.017107 7.3280654 8.5440836
10.546365 8.5769644 8.0737839
0.34653234 0.072568059 39.172779
4.8500714 3.7369206 38.92178
6.3124599 4.9286795 38.526695
9.8174381 7.7731032 40.078724
1.9473399 1.2426001 39.782944
3.470228 2.4105291 39.364178
7.7761335 6.1019678 38.09343
14.389412 11.401045 49.978374
8.4774628 6.8600836 8.8756714
9.775033 7.9185457 8.3323755
9.4592123 7.6245227 10.902145
9.0583601 7.309236 8.5587997
0.34682643 0.071365938 39.17778
4.8643208 3.7209117 38.931656
6.3312359 4.9078627 38.536488
9.8081312 7.7101893 39.93079
1.9519097 1.2359494 39.787937
3.4790602 2.3987036 39.369152
7.7993703 6.0763321 38.103111
14.449466 11.366751 50.048767
8.5681114 6.8840828 8.9447174
9.8156471 7.8948588 8.3433418
9.4507875 7.5634618 10.86224
9.0995913 7.2902083 8.5735149
0.3471593 0.07017044 39.187778
4.8785176 3.7048495 38.941536
6.3499422 4.8869739 38.546276
9.8126268 7.6584558 39.840126
1.9576795 1.230049 39.81789
3.4878521 2.3868456 39.374119
7.8235159 6.0513773 38.117626
14.489056 11.316244 50.048767
9.8562145 7.870985 8.3543072
9.4771309 7.5304265 10.86224
9.1407995 7.2709813 8.5882311
0.34740213 0.068958193 39.187778
4.8926606 3.6887331 38.951412
6.3677716 4.865397 38.551174
9.7826624 7.5802722 39.611069
1.9602454 1.22214 39.782944
3.4966035 2.3749557 39.379093
7.8475814 6.0263271 38.132145
14.524378 11.262426 50.034687
9.4123316 7.4548416 9.763855
9.900013 7.8495216 8.3680143
0.38447687 0.30573365 0.18473415
9.178812 7.2490501 8.6000042
0.34764072 0.067745119 39.187778
4.9067512 3.6725628 38.961288
6.3863392 4.8443708 38.560966
9.7854004 7.5278759 39.515629
1.9642541 1.2151383 39.777958
3.5053146 2.3630335 39.384064
7.8705683 6.0004215 38.141823
14.548561 11.200079 49.983067
9.4841909 7.4580302 9.8109312
9.9404945 7.8252621 8.3789806
0.3739751 0.29525822 0.18193629
9.2167835 7.2269421 8.6117764
0.34235659 0.26942122 0.15297781
0.34787509 0.066531211 39.187778
4.9201646 3.6558762 38.966228
6.4040232 4.8226614 38.565861
9.7641659 7.4574313 39.324749
1.9670067 1.2073692 39.748005
3.5139849 2.3510797 39.389038
7.8944736 5.9751878 38.156345
9.4948263 7.4129028 9.7952394
9.9809275 7.8008151 8.3899469
0.37113732 0.29092064 0.18100367
9.2547121 7.2046576 8.6235495
0.33549038 0.26212692 0.15159644
0.34810519 0.065316498 39.187778
4.9341469 3.6396017 38.976109
6.4224496 4.801497 38.575653
9.6652441 7.3286066 38.823689
1.972196 1.2010957 39.767971
3.522614 2.3390937 39.394005
7.9172926 5.9491043 38.166023
9.5052624 7.3677917 9.7795467
10.024614 7.7787442 8.4036541
0.37602726 0.29264021 0.18193629
0.32201597 0.25077945 0.12958924
9.2925968 7.1821957 8.6353216
0.34422913 0.26702458 0.15297781
0.34833106 0.064100988 39.187778
4.9474483 3.6228151 38.981049
6.4408064 4.7802629 38.585442
9.5953598 7.2230072 38.441933
1.9766239 1.1943533 39.772964
3.5316484 2.3273699 39.40395
7.9410329 5.9236865 38.180538
9.5062456 7.3155766 9.7544394
10.068268 7.7564645 8.4173613
0.37315926 0.28832257 0.18100367
0.32288939 0.24965388 0.12958924
9.3304386 7.1595578 8.6470947
0.33731219 0.25977841 0.15159644
0.3485527 0.062884696 39.187778
4.9600639 3.6055233 38.981049
6.4599113 4.759562 38.600124
9.561923 7.1456861 38.208103
1.9810287 1.1875945 39.777958
3.540643 2.3156111 39.413891
7.9646921 5.8981743 38.195057
9.5162592 7.2705336 9.7387466
10.11189 7.7339735 8.4310684
0.35857272 0.27505937 0.1772732
0.33560991 0.25762218 0.13093048
9.3682337 7.1367421 8.6588669
0.34608489 0.26461491 0.15297781
0.34877008 0.061667636 39.187778
4.9719896 3.587733 38.976109
6.4789519 4.7387872 38.614811
9.5844107 7.110486 38.198563
1.9856583 1.180967 39.787937
3.5495989 2.3038182 39.42384
7.9882703 5.87257 38.209576
9.5229731 7.2231584 9.7199163
10.152145 7.708744 8.4420338
0.33999023 0.25892565 0.17261009
0.32462439 0.24739361 0.12958924
9.4027605 7.1113114 8.667696
0.35095093 0.26639923 0.15366848
0.34898323 0.060449824 39.187778
4.983851 3.5699031 38.971169
6.4979262 4.7179375 38.629501
9.627202 7.0902648 38.270142
1.9902663 1.1743218 39.797924
3.5580673 2.2917023 39.428806
8.0117674 5.8468733 38.224094
13.676932 10.08004 46.257011
9.5232544 7.1711426 9.694809
10.195687 7.6858449 8.4557419
0.325486 0.24625896 0.12958924
9.4404564 7.0881548 8.6794691
0.3518787 0.26517257 0.15366848
0.34919211 0.059231278 39.187778
4.9962816 3.5524845 38.971169
6.5160074 4.6964178 38.63929
9.6398439 7.0478067 38.222424
1.9946026 1.1675129 39.802914
3.5664945 2.2795553 39.433781
8.035181 5.8210835 38.238613
13.647968 9.985364 46.041145
9.5170527 7.1145511 9.6634245
10.239192 7.662735 8.469449
0.33032551 0.24811207 0.13003632
9.4748631 7.0624051 8.6882982
0.35676748 0.26690909 0.15435916
0.34943992 0.058018301 39.19278
5.0130954 3.5381584 39.005745
6.5348454 4.6754208 38.653973
9.657136 7.0088534 38.193787
1.999415 1.1609776 39.81789
3.5748801 2.2673774 39.438751
8.0585136 5.7952013 38.253132
13.600363 9.8778343 45.764271
9.5262003 7.0696888 9.6477318
10.28266 7.6394153 8.4831562
0.34715876 0.25886488 0.13182464
9.5157042 7.0413098 8.7030144
0.35769701 0.2656621 0.15435916
0.34964031 0.056798175 39.19278
5.0279617 3.5224214 39.025501
6.5527873 4.6537614 38.663765
9.6803322 6.9742293 38.189018
2.0044565 1.1545669 39.837852
3.5832243 2.2551689 39.443726
8.0817623 5.7692275 38.267651
13.580166 9.7909403 45.581253
9.5069485 7.0040717 9.6037931
10.32609 7.6158848 8.4968634
9.5532551 7.0176225 8.7147865
0.35862216 0.2644119 0.15435916
0.34987965 0.055583347 39.197781
5.042778 3.5066233 39.045261
6.5706558 4.6320324 38.673553
9.674264 6.9186883 38.069717
2.0097282 1.1482781 39.862812
3.5915263 2.2429295 39.448692
8.104928 5.7431617 38.282166
13.534272 9.6862316 45.313766
9.5124893 6.9570575 9.5849628
10.36948 7.592144 8.5105705
9.5972881 6.9985218 8.7324457
0.36353907 0.26608321 0.15504985
0.35002831 0.05435586 39.19278
5.0569062 3.4903231 39.060078
6.5884528 4.6102357 38.683346
9.6752291 6.8684592 37.97905
2.0122168 1.140403 39.832863
3.5997872 2.23066 39.453667
8.1269836 5.7162819 38.291847
13.500474 9.5909586 45.088512
10.409448 7.5657363 8.5215368
0.341804 0.24934559 0.13093048
0.36847195 0.26772332 0.15574053
0.35017264 0.053128015 39.187778
5.0697002 3.4730892 39.065018
6.6061778 4.5883708 38.693134
9.6832819 6.8234673 37.917011
2.0159333 1.1332308 39.827873
3.6084599 2.2186384 39.463608
8.1499796 5.6900373 38.306366
13.439379 9.4771423 44.774097
10.459532 7.5464802 8.5407267
0.32653838 0.23646766 0.12914217
7.3219409 5.2614064 6.6486883
0.38547003 0.2780225 0.15850325
0.35031268 0.051899824 39.182781
5.0830774 3.4562452 39.074894
6.6238303 4.5664387 38.702927
9.7070408 6.7896242 37.917011
2.0196245 1.1260465 39.82288
3.6170926 2.2065842 39.473553
8.1728897 5.6637006 38.320885
13.408759 9.385643 44.562923
5.2457032 3.7225044 7.0513568
10.492608 7.5147924 8.5462103
0.33544913 0.24113981 0.13003632
7.3468437 5.2405109 6.6545744
0.3824116 0.27379254 0.15781257
0.35044843 0.050671302 39.17778
5.0957556 3.4389153 39.079834
6.6422515 4.5450144 38.717613
9.7392664 6.7616587 37.95042
2.0227847 1.1185714 39.807903
3.6256852 2.1944966 39.483494
8.1957178 5.6372747 38.3354
13.41593 9.3210573 44.478451
5.2448072 3.6944096 7.0329804
10.505143 7.4684296 8.535244
0.33223504 0.23707482 0.12958924
7.3518963 5.2054911 6.6428022
0.38740158 0.27532464 0.15850325
0.35062316 0.0494477 39.17778
5.1090193 3.4219716 39.08971
6.6597605 4.5229454 38.727402
9.7664976 6.7301621 37.964733
2.0287027 1.1126127 39.847839
3.6337805 2.1821015 39.488464
8.2184591 5.6107578 38.349918
13.360306 9.2134314 44.187504
5.268785 3.6838496 7.0476813
0.3452521 0.24454898 0.13093048
7.3766356 5.184444 6.6486883
0.38431367 0.27111614 0.15781257
0.35079363 0.048223495 39.17778
5.1222277 3.4049771 39.09959
6.678041 4.5013781 38.742088
9.7936258 6.6985574 37.97905
16.829451 11.597048 48.209061
2.0346038 1.1066265 39.887772
3.6418335 2.1696768 39.493439
8.2411175 5.5841517 38.364441
5.2788267 3.6635025 7.0440063
7.3946877 5.1586637 6.6486883
0.3510032 0.047003634 39.182781
5.1353793 3.3879323 39.10947
6.6954064 4.4791722 38.751881
9.8206539 6.6668453 37.993366
16.861767 11.532717 48.186047
2.0376916 1.099107 39.872795
3.6498435 2.157222 39.498405
8.2636881 5.5574551 38.378956
5.2497039 3.6162066 6.9888787
7.3428645 5.0844979 6.5868821
0.35120848 0.045782898 39.187778
5.1484737 3.3708365 39.119347
6.712697 4.4569001 38.761669
9.847579 6.6350265 38.007679
16.885757 11.462814 48.140022
2.0412614 1.0918516 39.867805
3.6578112 2.1447382 39.50338
8.2861738 5.5306687 38.393475
12.872281 8.6794081 42.272854
5.2035236 3.5576789 6.9117002
7.2373166 4.9741278 6.4779849
0.35140952 0.044561304 39.19278
5.1608605 3.3532679 39.124287
6.7299142 4.4345613 38.771458
9.8756437 6.6039305 38.026768
16.917564 11.398344 48.117008
2.0448048 1.0845845 39.862812
3.6657364 2.1322248 39.508354
8.3085728 5.5037937 38.407993
12.883856 8.6219463 42.211849
5.2411585 3.5566261 6.9447765
7.1377673 4.869112 6.3749747
0.35160634 0.043338861 39.197781
5.1738405 3.3360753 39.134167
6.747057 4.4121571 38.78125
9.9023666 6.5718942 38.041084
16.942635 11.329448 48.075584
2.0483227 1.0773059 39.857822
3.673619 2.1196826 39.513325
8.329834 5.4761381 38.417671
12.852061 8.5358677 42.010059
5.2900963 3.5629287 6.9925542
7.9585724 5.4107223 6.3941593
0.35358095 0.2412933 0.13137756
7.0275335 4.7580547 6.263134
0.35179892 0.042115591 39.202782
5.1867628 3.3188319 39.144043
6.7649794 4.3902411 38.795937
9.930233 6.5405726 38.060173
16.969055 11.261596 48.038765
2.0523267 1.0702827 39.862812
3.6814582 2.1071107 39.518295
8.3520584 5.4490895 38.43219
12.822703 8.4520159 41.817654
5.3165932 3.5538609 7.0109296
6.6385131 4.4744263 6.5375209
7.9982076 5.3969412 6.4106078
0.3791604 0.2568137 0.13406004
6.2311316 4.1824813 6.765223
7.0239701 4.7199693 6.2454753
0.35203063 0.040895671 39.21278
5.1996288 3.3015397 39.153923
6.7819753 4.367703 38.805729
9.9567518 6.5083194 38.07449
16.996841 11.194772 48.006546
2.0560501 1.0631123 39.862812
3.6887908 2.0942473 39.518295
8.3741922 5.4219508 38.446709
12.787143 8.3646955 41.60648
5.2781153 3.5015466 6.9447765
6.660562 4.4555545 6.543798
8.0830097 5.413198 6.4626956
0.37178865 0.24993207 0.13316588
6.2643371 4.1731253 6.7851758
6.9933243 4.6640248 6.2042713
0.35212779 0.039662581 39.207779
5.2124357 3.2841976 39.163799
6.7997541 4.3456478 38.820412
9.9844189 6.4767737 38.093578
17.030909 11.132167 47.992741
2.0602627 1.0561918 39.872795
3.6965435 2.0816197 39.523266
8.3962402 5.3947248 38.461227
12.794551 8.3059149 41.536087
5.2450008 3.4532733 6.8859739
6.6598606 4.421514 6.5281062
8.0252438 5.3340287 6.4023838
0.34780309 0.23204979 0.1304834
6.3224711 4.1800623 6.8317332
7.0028205 4.6351228 6.1983848
0.35222065 0.038429316 39.202782
5.2258444 3.2672184 39.178619
6.8166013 4.3229761 38.8302
10.010731 6.4443064 38.107891
17.0418 11.054576 47.914494
2.0644519 1.049255 39.882782
3.7047181 2.0692234 39.533211
8.41714 5.366735 38.470905
12.822014 8.2602682 41.531395
5.2485085 3.4293807 6.874948
6.7630115 4.4560604 6.6128445
8.1101322 5.3497291 6.4544711
6.3276582 4.1518226 6.8217568
7.0561194 4.6350608 6.2307596
0.35226569 0.037192162 39.19278
5.2385383 3.2497764 39.188499
6.8342352 4.3007822 38.844887
10.038198 6.4125376 38.12698
17.054001 10.978103 47.840855
2.0688756 1.0424315 39.897755
3.7123849 2.0565372 39.538181
8.4390097 5.3393373 38.485424
12.862402 8.2228966 41.568939
5.2945819 3.4331725 6.9190507
6.7882967 4.4388161 6.6222596
8.1637421 5.3442883 6.4818859
6.2889204 4.0950737 6.765223
7.1332049 4.6501341 6.2837362
0.3523064 0.035955165 39.182781
5.251173 3.2322845 39.198376
6.8509336 4.2779794 38.854679
10.064301 6.3798556 38.141296
2.0732768 1.0355898 39.912727
3.7200081 2.0438225 39.543152
8.4607887 5.3118525 38.499943
12.902685 8.1853437 41.60648
5.3549995 3.4458566 6.9815283
6.9572105 4.5146756 6.7697673
8.2244244 5.3430953 6.5147839
6.3031764 4.0730963 6.765223
7.322475 4.7371778 6.4338374
0.35225579 0.034711506 39.162781
5.2630873 3.21434 39.203316
6.8684216 4.2556477 38.869366
10.091564 6.3478656 38.160385
2.0773969 1.0286022 39.922714
3.7280557 2.0313344 39.553093
8.48248 5.2842798 38.514462
12.925337 8.1365767 41.587708
5.3698525 3.4289672 6.9852037
6.3529959 4.0864587 7.5028806
6.9991069 4.5072217 6.7948751
8.2887115 5.3438082 6.5504227
7.4137964 4.7596288 6.4985876
0.35263583 0.033501275 39.19278
5.27494 3.1963513 39.208252
6.8849692 4.2327127 38.879154
10.117459 6.314971 38.174698
2.0796783 1.0207094 39.897755
3.7360618 2.0188153 39.563038
8.5030117 5.2559595 38.524139
12.930242 8.0767822 41.512623
5.3846526 3.4120166 6.9888787
6.3101058 4.027801 7.4362941
7.0803933 4.5246811 6.8576436
8.3108368 5.3170962 6.553164
7.6417227 4.8683701 6.6810632
0.35275063 0.032270141 39.19278
5.2867312 3.1783195 39.213192
6.9014406 4.2097139 38.888947
10.14325 6.2819743 38.189018
2.0827091 1.0131917 39.887772
3.7435563 2.0060136 39.568012
8.5245209 5.2282181 38.538654
12.923153 8.0097799 41.399998
5.3649597 3.3733501 6.948452
6.3120761 3.9981174 7.422276
7.0435505 4.4665871 6.8074284
8.3258162 5.2858124 6.5504227
7.665503 4.8459864 6.6869493
0.35290465 0.031041576 39.197781
5.298461 3.160244 39.218132
6.9178352 4.1866522 38.898735
10.170202 6.2496548 38.208103
2.0854528 1.0055398 39.872795
3.7510064 1.9931839 39.572979
8.5470152 5.2010446 38.558014
12.898115 7.9320774 41.23106
5.3249297 3.3223014 6.8822989
6.3652458 4.00073 7.4678349
6.9701505 4.3860025 6.7226901
8.3406792 5.2544889 6.5476809
7.6823721 4.8191991 6.6869493
0.35301086 0.02980952 39.197781
5.3101287 3.1421251 39.223072
6.9350262 4.1640511 38.913422
10.195781 6.2164483 38.222424
2.0889499 0.99825412 39.872795
3.7584126 1.9803265 39.577953
8.5683451 5.1731262 38.572533
12.891844 7.866334 41.123127
5.3768492 3.3286757 6.9337506
6.8896728 4.3018641 6.6316752
8.3731518 5.2342086 6.5586472
6.3574476 3.9526136 6.7485962
7.747189 4.8222566 6.7281537
0.35315633 0.028579757 39.202782
5.3224044 3.1243567 39.232948
6.9512691 4.1408606 38.923214
10.221249 6.1831384 38.236736
5.268765 3.2452612 7.4853034
2.0934658 0.99144971 39.892761
3.765775 1.9674419 39.582924
8.5895863 5.1451235 38.587051
12.874936 7.7944741 40.982342
5.3913245 3.3116612 6.9374261
6.9046469 4.2777882 6.6316752
8.4126921 5.218173 6.5750957
6.3489618 3.9166753 6.725317
7.8843393 4.8695226 6.8311644
0.35347173 0.027359355 39.227779
5.3346205 3.1065409 39.242828
6.9674339 4.1176062 38.933002
10.24789 6.1504941 38.255825
5.2745905 3.2235074 7.4776282
2.0974367 0.98438108 39.902748
3.7726197 1.9542849 39.582924
8.6107349 5.1170354 38.60157
12.859164 7.7237177 40.846252
5.3825874 3.2804716 6.9117002
6.4159093 3.9394531 7.4783487
6.9328003 4.2618136 6.6442285
8.4450998 5.1975417 6.586062
6.3817019 3.9061849 6.7452703
7.9460912 4.8694267 6.8694253
0.35395724 0.026146512 39.272778
5.3467779 3.0886781 39.252708
6.9844003 4.0948052 38.947685
10.274426 6.1177392 38.27491
5.2885513 3.206738 7.4814658
2.1016457 0.97741836 39.917721
3.7798922 1.9413474 39.587894
8.6307106 5.0882239 38.611248
12.073672 7.1947026 38.274616
5.4317193 3.2844675 6.9594774
6.417439 3.9096119 7.4643302
6.9110818 4.2152934 6.6097059
8.3311501 5.0874014 6.4846272
6.3601933 3.8625658 6.7086897
0.35404634 0.024910811 39.272778
5.3595495 3.0711541 39.267525
7.000412 4.0714245 38.957478
10.299575 6.084115 38.28923
5.2969666 3.1866057 7.4776282
2.1055691 0.97031742 39.927704
3.7871213 1.9283832 39.592869
8.6516743 5.0599699 38.625767
12.11951 7.1648088 38.340317
5.4576869 3.2742074 6.9778533
6.4218912 3.8816528 7.4538174
8.3166714 5.0387883 6.4599543
7.422667 4.477694 6.3955765
0.35373884 0.023656376 39.227779
5.370913 3.0528111 39.272465
7.0163445 4.0479808 38.967266
10.324613 6.0503902 38.303547
2.1092062 0.96308148 39.932697
3.7947817 1.9156322 39.602814
8.6725464 5.0316315 38.640285
12.163797 7.1338086 38.401321
5.4894753 3.2672737 7.0035791
6.4445763 3.8647149 7.4643302
6.7367806 4.0447273 6.4182601
8.3270416 5.0054193 6.4544711
7.3619475 4.4060898 6.3308268
0.35377568 0.022419557 39.222778
5.3828897 3.0348074 39.282341
7.0321994 4.0244761 38.977058
10.350832 6.0173144 38.322632
2.1130817 0.95595086 39.94268
3.8019216 1.9026124 39.60778
8.693326 5.0032086 38.654804
12.187133 7.0904374 38.396626
5.5154433 3.2567103 7.0219555
6.4518981 3.8385487 7.4573216
6.7441702 4.0172033 6.411983
8.4055147 5.0127306 6.5010762
7.2035069 4.277185 6.1836686
0.35372099 0.021179283 39.207779
5.3941288 3.0163784 39.287281
7.048861 4.0014124 38.991745
10.375651 5.9833832 38.336948
2.1164055 0.948569 39.94268
3.8090174 1.8895665 39.612755
8.7151031 4.9753256 38.674164
12.201346 7.0418158 38.363777
5.5443292 3.2477188 7.0440063
6.468329 3.8178167 7.4608264
6.885489 4.0688844 6.5312448
8.4373569 4.9918761 6.512042
7.1974969 4.2397051 6.1660099
0.35379276 0.019944437 39.207779
5.4059839 2.9982848 39.297157
7.0645599 3.9777818 39.001534
10.401657 5.9500937 38.356037
2.1199675 0.94129246 39.94767
3.8155901 1.8762591 39.612755
8.7356987 4.946732 38.688679
12.218365 6.9948955 38.340317
5.5673561 3.2351587 7.0587063
6.481616 3.7952149 7.4608264
6.9130812 4.0526981 6.543798
7.2297025 4.2247519 6.1807261
0.35381666 0.018707911 39.202782
5.417779 2.980145 39.307041
7.0810685 3.954587 39.01622
10.427557 5.9166951 38.375126
2.1232402 0.93388665 39.94767
3.8221161 1.8629287 39.612755
8.7562008 4.9180551 38.703197
12.185683 6.9198217 38.161987
5.5933013 3.2241707 7.0770826
6.4948244 3.7725668 7.4608264
6.9541035 4.0441966 6.5689058
7.2304168 4.191381 6.1689529
0.35383615 0.017471459 39.197781
5.4295125 2.9619594 39.316917
7.096612 3.9308324 39.026012
10.453349 5.8831882 38.394211
2.1267521 0.9265846 39.952663
3.8319564 1.8511982 39.647552
8.7766085 4.8892951 38.717716
12.191721 6.8670816 38.105679
5.6162934 3.2113576 7.091783
6.5141335 3.7534335 7.4678349
7.0558372 4.070467 6.6505055
7.2450037 4.1661167 6.1689529
0.35389498 0.016236233 39.197781
5.4411855 2.9437282 39.326797
7.112967 3.9075072 39.040695
10.479035 5.8495736 38.4133
2.1302385 0.91926944 39.957657
3.8398371 1.8385009 39.662468
8.7969227 4.8604531 38.732235
12.209592 6.821116 38.086906
5.6422138 3.2000961 7.1101594
6.5271955 3.7306719 7.4678349
6.9686542 3.9878166 6.5563521
6.7478118 3.844269 6.9980083
7.2208805 4.118772 6.1365781
0.35390589 0.014999828 39.19278
5.4527974 2.9254515 39.336674
7.1292458 3.8841159 39.055382
10.503309 5.8151293 38.427616
2.1342311 0.91216761 39.97263
3.8491213 1.8264567 39.692299
8.81604 4.830924 38.741913
12.242383 6.783473 38.115063
5.6651683 3.1870303 7.1248593
6.5432806 3.7096238 7.4713397
6.9825315 3.9634671 6.5563521
6.7611895 3.8206911 6.9980083
7.2387323 4.0955324 6.1395216
0.35395607 0.013764374 39.19278
5.4643483 2.90713 39.346554
7.1454482 3.8606584 39.070068
10.528777 5.7813039 38.446701
2.1382 0.90504926 39.987606
3.856921 1.8136897 39.707214
8.8361626 4.8019214 38.756432
12.2796 6.748178 38.157299
5.6940217 3.1771467 7.1469102
6.562407 3.6902568 7.4783487
7.0539837 3.9715323 6.6097059
6.8037987 3.8134968 7.0279379
0.35400197 0.012528754 39.19278
5.4758368 2.888763 39.35643
7.1615734 3.8371351 39.084755
10.554137 5.7473717 38.46579
2.1400144 0.8970229 39.962646
3.8617785 1.7995404 39.692299
8.8561897 4.7728372 38.77095
12.304594 6.7060981 38.161987
5.7228751 3.1671009 7.168962
7.0949903 3.9620667 6.6348138
6.8268585 3.7951663 7.0379143
0.35430533 0.011296132 39.222778
5.4865761 2.8699913 39.36137
7.1776214 3.8135464 39.099442
10.579389 5.7133327 38.484879
2.1431327 0.88954741 39.962646
3.8685203 1.7862725 39.697269
8.8761225 4.7436714 38.785469
12.33552 6.6672091 38.185455
5.7517271 3.1568918 7.1910124
7.1394224 3.9542494 6.6630597
6.8237166 3.7622991 7.021287
8.257885 4.5586519 6.9518337
0.3545171 0.010060799 39.242775
5.4972501 2.8511794 39.36631
7.1926904 3.7894175 39.10923
10.604531 5.6791878 38.503967
2.1446221 0.8814038 39.932697
3.8747318 1.7727579 39.697269
8.897069 4.7150135 38.804825
12.364801 6.6273704 38.204224
5.783555 3.1481404 7.2167387
5.9753652 3.2782691 6.7774396
7.170239 3.9386733 6.6787519
6.8531876 3.7474139 7.0379143
8.3730202 4.5841489 7.0342426
0.35472462 0.0088241259 39.262775
5.5085511 2.8326838 39.37619
7.2076797 3.7652302 39.119022
10.628245 5.6442366 38.518284
15.597522 8.3529806 41.742512
2.1487556 0.87434685 39.952663
3.8808963 1.7592218 39.697269
8.9168119 4.6856823 38.819344
12.393956 6.5874085 38.222996
6.7830091 3.6538992 10.276812
5.8153915 3.1392055 7.2424645
5.9836392 3.2556865 6.7739348
7.1839433 3.9136205 6.6787519
6.8530984 3.7163496 7.0246124
8.3498955 4.5336776 7.0018678
0.35475326 0.0075858524 39.262775
5.5197902 2.8141439 39.386066
7.2225876 3.7409844 39.128811
10.653166 5.6098847 38.537373
15.621408 8.2957354 41.728706
2.1525981 0.8671639 39.967636
3.8874998 1.7458825 39.70224
8.9364576 4.6562705 38.833862
12.422981 6.5473237 38.241768
6.7904077 3.6273606 10.268832
5.8322926 3.122087 7.249815
5.9886899 3.2313929 6.7669258
7.2181082 3.8996203 6.6975822
7.2288628 3.91031 5.4730263
6.8857594 3.7030153 7.0445652
8.3372002 4.4891734 6.9783225
0.35451579 0.0063479408 39.23278
5.5316606 2.7959106 39.400887
7.2374129 3.71668 39.138599
10.677977 5.5754275 38.556461
15.669285 8.2511683 41.779331
2.1561487 0.85985827 39.977623
3.8935704 1.732302 39.70224
8.956007 4.6267791 38.848381
12.451878 6.5071168 38.26054
6.7950392 3.5994036 10.256862
5.8341713 3.0969408 7.2387896
6.0188003 3.2205639 6.7879534
7.2042284 3.8596959 6.6724749
7.2424679 3.8850527 5.4730263
8.2922049 4.4276791 6.9282885
0.3544049 0.0051111192 39.217781
5.5434699 2.7776284 39.415703
7.2512503 3.6918561 39.143497
10.702675 5.5408654 38.575546
15.713577 8.2045593 41.820755
2.1594055 0.85243243 39.982613
3.9000821 1.7189153 39.707214
8.9754601 4.5972075 38.8629
12.480644 6.4667873 38.279308
6.7195292 3.5294249 10.125191
5.8389463 3.0733991 7.2314396
6.4237895 3.408473 7.2260218
7.2176576 3.8345249 6.6724749
7.3002858 3.8833129 5.5059242
8.2540274 4.3703361 6.8841414
0.35428968 0.0038751494 39.202782
5.5552201 2.7592981 39.430523
7.26682 3.6678984 39.15818
10.727263 5.5061994 38.594635
15.752533 8.1550493 41.84837
2.1623678 0.84488946 39.982613
3.9060583 1.705291 39.707214
8.9948139 4.5675564 38.877419
12.509281 6.4263358 38.29808
6.7318082 3.5059478 10.125191
5.8346114 3.0451558 7.2130632
6.5902967 3.4673936 7.3977447
7.2103362 3.7984226 6.6536441
7.3766699 3.8909702 5.5525289
7.0465093 3.69486 7.1676092
8.2227077 4.3170719 6.84588
0.35456282 0.0026351798 39.23278
5.5662117 2.740576 39.440399
7.2814007 3.6434216 39.167973
10.75041 5.4707518 38.608952
2.1653039 0.8373363 39.982613
3.9129653 1.6920687 39.717155
9.0140715 4.5378265 38.891933
12.537787 6.3857641 38.316849
6.7600694 3.4907229 10.149131
5.8572493 3.0310028 7.2277646
7.2373509 3.7804387 6.6661978
7.3753862 3.8574457 5.541563
7.1488094 3.7167432 7.2573972
8.2377272 4.288343 6.84588
0.35483161 0.0013933508 39.262775
5.5778389 2.7221518 39.455215
7.2968102 3.6193395 39.182659
10.774772 5.4358816 38.62804
2.1684833 0.82987583 39.987606
3.9193382 1.6786094 39.722126
9.0332308 4.5080175 38.906452
12.567704 6.3458495 38.340317
6.8043995 3.4835825 10.197012
5.873827 3.013634 7.2351151
6.0093303 3.1083612 6.7283764
7.3368382 3.8047278 5.5031824
7.0422635 3.6301796 7.1376796
8.3101149 4.2892237 6.892971
0.35483432 0.0001547498 39.262775
5.5887065 2.7033417 39.465096
7.3121405 3.5951943 39.197346
10.797686 5.4002404 38.642357
2.1716371 0.82240343 39.992596
3.9261553 1.6653342 39.732067
9.0522919 4.4781299 38.920971
12.595952 6.3050308 38.359089
6.8487616 3.4761744 10.244891
5.8903537 2.9961858 7.2424645
6.0201435 3.0873659 6.7283764
7.6409802 3.9236186 7.0082898
7.3463559 3.7771826 5.5004411
7.0881391 3.6225667 7.1709342
8.3682156 4.2822857 6.9282885
0.35461462 -0.0010788676 39.237778
5.5988097 2.6841531 39.470036
7.3273916 3.5709865 39.212029
10.820483 5.3645058 38.65667
2.1747646 0.81491899 39.997585
3.9329276 1.6520318 39.742012
9.0735102 4.4492712 38.945168
12.624066 6.2640924 38.377857
6.8581629 3.4508924 10.240902
5.9098573 2.9801857 7.2534904
6.018168 3.0598676 6.7143579
7.7170663 3.9287081 7.0647821
7.3259678 3.7344251 5.4757676
7.2372975 3.6669917 7.3072796
8.4011354 4.2621927 6.9430041
0.35447779 -0.0023132465 39.222778
5.6095481 2.6652598 39.479912
7.3425627 3.5467157 39.226715
10.843161 5.3286772 38.670986
2.1778667 0.80742288 40.002579
3.9391623 1.6384978 39.746983
9.0867243 4.4164724 38.93549
12.653598 6.2237959 38.401321
6.8620772 3.4228971 10.228931
5.9293218 2.9640861 7.2645164
6.019258 3.0340259 6.7038441
7.69946 3.885963 7.0365357
7.3128352 3.6956282 5.4565778
7.2567267 3.6450584 7.3139305
8.4195738 4.2346578 6.9459472
0.35407507 -0.0035388735 39.17778
5.6195207 2.6459937 39.484852
7.3567357 3.5219433 39.236507
10.865721 5.2927556 38.685303
2.1806719 0.79981577 40.002579
3.9458437 1.6251433 39.756927
9.110014 4.388546 38.969368
12.681451 6.1826138 38.420094
6.8847876 3.4042652 10.244891
5.9487448 2.9478865 7.2755413
5.9947209 2.9954624 6.6652942
7.3069978 3.6607144 5.4428706
8.2896109 4.1331005 6.8282208
0.35445303 -0.0047878916 39.222778
5.629427 2.6266901 39.489788
7.3708243 3.4971147 39.246296
10.889507 5.257391 38.704391
14.68775 7.1543474 38.548359
2.183722 0.79229724 40.007572
3.9519866 1.6115613 39.761902
9.1275454 4.3578024 38.979046
12.70917 6.1413126 38.438862
6.9020405 3.3828642 10.252872
5.9681277 2.9315877 7.2865667
6.0083365 2.9761014 6.6687989
7.1545343 3.5484881 6.5218291
7.2785363 3.6147273 5.4127145
7.0241904 3.4670603 7.0578671
8.3583412 4.1310024 6.8723683
0.35408533 -0.0060122842 39.182781
5.6399717 2.6076758 39.499672
7.3848305 3.4722311 39.256088
10.911832 5.2212801 38.718704
14.730227 7.1115284 38.594387
2.1864743 0.78466976 40.007572
3.958082 1.5979557 39.766869
3.9513314 1.8697472 16.867716
12.738311 6.1006384 38.462326
6.9110966 3.3574345 10.248881
5.9844203 2.9137051 7.2939177
6.1467366 3.0179791 6.8089805
7.104003 3.4925816 6.4653368
7.2986121 3.5929921 5.4181972
7.0597277 3.4540064 7.0811458
8.3763399 4.1035795 6.8753114
0.35436738 -0.0072605475 39.217781
5.6497469 2.5882964 39.504612
7.3996744 3.4477222 39.270775
10.935386 5.1857176 38.737793
14.744387 7.0550065 38.566769
2.1897442 0.77722555 40.017555
3.9636357 1.5841297 39.766869
3.9521434 1.8532751 16.843519
12.765764 6.0590959 38.481098
6.9037695 3.3241394 10.220951
5.9762349 2.8839571 7.2718658
6.1604409 2.9980655 6.8124852
7.1056547 3.4626479 6.4559216
7.31111 3.5674932 5.4181972
6.8768845 3.334851 6.888267
8.3615246 4.0601912 6.8517661
0.35447064 -0.0085032079 39.23278
5.6594543 2.5688806 39.509548
7.4144363 3.4231515 39.285458
10.958825 5.1500535 38.756882
14.730088 6.9850812 38.465511
2.1927166 0.76967257 40.022545
3.969141 1.5702842 39.766869
3.9528887 1.83682 16.819321
12.794645 6.0181708 38.504562
6.9452453 3.3142953 10.264842
6.0596671 2.8981841 7.3600707
6.15802 2.9703457 6.7984667
7.34234 3.551054 5.4319043
8.4703436 4.0765533 6.9282885
0.35439521 -0.0097384248 39.227779
5.6698046 2.5497468 39.519428
7.4281931 3.3980966 39.29525
10.982148 5.1142898 38.77597
14.696032 6.9062014 38.313633
2.1956627 0.76210839 40.027538
3.9745982 1.5564198 39.766869
3.945575 1.8167031 16.761248
12.821832 5.9763889 38.523335
7.0139761 3.3170841 10.348632
6.0820003 2.882822 7.3747706
6.158699 2.9442179 6.7879534
7.5193534 3.5995018 6.8042898
7.3848557 3.5398617 5.453836
6.8831439 3.2787321 6.8716393
8.5793762 4.092205 7.0048108
0.35422832 -0.01096879 39.21278
5.6793799 2.5302563 39.524368
7.4427915 3.3734076 39.309937
11.004 5.0777998 38.790287
14.705882 6.8482633 38.27681
2.1988556 0.75462639 40.037521
3.9795103 1.5423441 39.761902
3.9415996 1.7982242 16.717693
