# .PCD v0.7 - Point Cloud Data file format
VERSION 0.7
FIELDS x y z
SIZE 4 4 4
TYPE F F F
COUNT 1 1 1
WIDTH 1592
HEIGHT 1
VIEWPOINT 0 0 0 1 0 0 0
POINTS 1592
DATA ascii
2.4778428 7.2913685 9.2966051
0.23171981 0.49866006 9.3488045
0.37902904 0.90321451 9.0926924
1.603816 4.5348077 18.556673
1.6172338 4.6419873 13.421726
1.4627086 4.2364054 9.330761
0.9325546 2.7148154 4.7654681
2.2552779 6.591145 9.2992563
0.77978897 2.2855995 2.6962864
0.8052395 2.3860252 2.5544615
1.0113029 3.0017219 2.6364198
1.3749954 4.0882068 2.912497
1.5409423 4.5868673 2.6194429
1.6535263 4.9276576 2.1883206
9.9475279 29.678442 9.2905045
6.8773489 20.542364 4.2043271
8.7842369 26.268578 2.5795825
0.92906433 2.7402544 2.6582305
4.1879048 12.372781 9.5947914
1.4902853 4.4080462 2.8199706
1.6098812 4.76999 2.414716
4.6298132 13.733498 5.1332688
9.9506264 29.550688 7.6111693
5.3007755 15.750974 2.4101202
9.4952831 28.247295 1.2957973
0.066590972 0.071451686 9.773901
0.50617772 1.3776693 9.3306818
0.65513581 1.818629 9.3168783
1.5321113 4.3440251 14.772893
1.6497079 4.7617474 9.3025579
2.0480955 5.9382935 9.2983465
2.5043211 7.2857065 9.3004427
0.23345904 0.49784818 9.3488045
0.38217953 0.90188593 9.0926924
1.6192124 4.5279984 18.551834
1.6248251 4.6118999 13.351335
1.4774876 4.2312737 9.330761
0.94202542 2.7115436 4.7654681
2.2782714 6.5832329 9.2992563
0.78997427 2.289273 2.7036369
0.81586784 2.3899498 2.5614705
1.0205193 2.9944894 2.6332815
1.4283159 4.1981807 2.9919996
1.5441159 4.5437126 2.5985739
1.6573055 4.8823466 2.1714635
10.054145 29.652622 9.2933235
6.9348321 20.476358 4.1959333
8.8024702 26.020756 2.5590167
0.93983531 2.7405264 2.661556
1.493109 4.3661075 2.7971718
1.6118582 4.7213902 2.3937356
4.6868687 13.74407 5.1431298
9.9596853 29.239712 7.5408306
5.3748751 15.78863 2.4184084
9.5584421 28.109919 1.2913636
0.066839986 0.071218804 9.773901
0.51098359 1.375894 9.3306818
0.66148001 1.8163311 9.3168783
1.567324 4.3948889 14.963772
1.6671115 4.7582202 9.3069468
2.0697384 5.9337654 9.3024797
2.5297377 7.2769203 9.3004427
0.23519544 0.49703023 9.3488045
0.38532537 0.90054637 9.0926924
1.6362906 4.5258646 18.566353
1.8129252 5.0889978 14.745087
1.4922485 4.2260904 9.330761
0.95234925 2.7106996 4.7697339
2.3022327 6.578084 9.3032465
0.80131197 2.296104 2.7146623
0.82653332 2.3938293 2.5684795
1.0309658 2.9909091 2.6332815
1.3150605 3.8215075 2.734302
1.5470068 4.5005922 2.5777047
1.6653051 4.850224 2.1602252
10.156034 29.612808 9.291913
7.0126338 20.470615 4.1996641
8.9109812 26.0417 2.5639346
0.94939578 2.7372293 2.661556
1.495658 4.324203 2.7743733
1.614997 4.6771255 2.3748531
4.7440538 13.75441 5.1529908
10.110771 29.347229 7.5771723
5.4493017 15.825959 2.4266965
9.6337585 28.010242 1.2885422
0.067120351 0.071014524 9.7789001
0.51578325 1.374102 9.3306818
0.66781616 1.8140111 9.3168783
1.6125313 4.4722381 15.245319
1.6837106 4.7523718 9.3069468
2.0904386 5.9265041 9.3024797
2.5561864 7.2710695 9.3042803
0.23692897 0.49620622 9.3488045
0.38846654 0.89919585 9.0926924
1.6516472 4.5189447 18.561514
1.8476384 5.1297212 14.881177
1.5069911 4.2208562 9.330761
0.96180558 2.7073586 4.7697339
2.3251803 6.5700078 9.3032465
0.80029547 2.2677176 2.685261
0.83606011 2.3942964 2.5719841
1.038837 2.9799411 2.6270044
1.2912819 3.7102683 2.6602821
1.5481611 4.4533229 2.5545166
1.67158 4.8137255 2.147114
10.275062 29.622501 9.306015
4.8974695 14.151056 1.4372954
0.96018058 2.7374218 2.6648817
1.1711007 3.34428 2.6636491
1.4950861 4.2741961 2.7465081
1.6178466 4.6328964 2.3559706
4.8013687 13.764519 5.1628523
10.174767 29.201599 7.549037
5.5273113 15.872313 2.4363661
9.7068529 27.905663 1.2855192
0.067400113 0.070809163 9.7839003
0.5205766 1.3722932 9.3306818
0.67414415 1.8116689 9.3168783
1.6557411 4.5423131 15.503007
1.7010969 4.7487202 9.3113365
2.1120586 5.9218221 9.306613
2.5826256 7.2651229 9.3081179
0.23878571 0.49563587 9.353796
0.39160293 0.89783436 9.0926924
1.6669755 4.5119729 18.556673
1.8708476 5.1378341 14.923411
1.5217154 4.21557 9.330761
0.97213191 2.706439 4.7739997
2.3491151 6.5646877 9.3072367
0.80364865 2.2521386 2.6705604
0.84678763 2.3980889 2.5789931
1.051821 2.9836388 2.6332815
1.2722964 3.61502 2.5972285
1.5607584 4.4395342 2.5498791
1.6822287 4.7903652 2.139622
10.389515 29.618139 9.3158846
6.7330351 19.215824 3.9571826
4.9419012 14.119775 1.4359542
0.9697302 2.7340536 2.6648817
1.1719733 3.3096905 2.6401038
1.5085593 4.2648878 2.7439752
1.6219186 4.5929847 2.3391862
4.860383 13.778848 5.1743565
10.26856 29.142981 7.5431752
5.6040668 15.913646 2.4453449
0.067646869 0.070573464 9.7839003
0.52508539 1.3697424 9.3257437
0.68046397 1.8093046 9.3168783
1.6746836 4.544909 15.531637
1.8638027 5.1128697 12.880082
1.7176626 4.7427535 9.3113365
2.1327169 5.9144135 9.306613
2.6079698 7.2560635 9.3081179
0.24051435 0.49479932 9.353796
0.39451921 0.8959744 9.0877209
1.6827152 4.5061264 18.556673
1.8959244 5.1507053 14.979725
1.5364214 4.2102323 9.330761
0.98157322 2.7030292 4.7739997
2.3720157 6.556448 9.3072367
0.80575222 2.2333751 2.6521845
0.85635263 2.3984773 2.5824978
1.0648433 2.9872816 2.6395583
1.2863092 3.6144962 2.5999699
1.5717943 4.4215369 2.5429225
1.6787728 4.7276711 2.1152725
10.505668 29.617859 9.3271646
6.7885857 19.159792 3.9506543
4.9845114 14.083659 1.434166
0.9792679 2.7306521 2.6648817
1.1794316 3.2941632 2.6312745
1.519082 4.2474189 2.7363756
1.6257318 4.553102 2.3224018
4.9132094 13.775141 5.179287
10.269086 28.823082 7.4704914
5.6844983 15.963963 2.4557052
0.067892805 0.070336901 9.7839003
0.52986348 1.3679011 9.3257437
0.68677545 1.8069183 9.3168783
1.6926223 4.544631 15.550726
1.879612 5.1008334 12.866275
1.7342075 4.7367287 9.3113365
2.1543126 5.9095764 9.3107452
2.6343768 7.2499275 9.3119555
0.24224007 0.49395677 9.353796
0.39764434 0.89459175 9.0877209
1.6971025 4.4966974 18.542156
1.2188096 3.2760327 9.5595798
1.5511085 4.2048435 9.330761
0.9919014 2.7020347 4.7782655
2.3959227 6.5509586 9.3112259
0.80773455 2.2146244 2.6338086
0.86593056 2.3988276 2.5860023
1.0765841 2.9872081 2.6426969
1.327233 3.6886737 2.6547995
1.5827236 4.4035172 2.5359662
1.6717668 4.6563339 2.0871768
10.620325 29.612616 9.3370342
6.8521113 19.12673 3.9487889
5.0185413 14.023974 1.4301422
0.98752087 2.7237067 2.661556
1.1867958 3.2786243 2.6224449
1.5295014 4.2299285 2.728776
1.6308274 4.5175171 2.3077154
4.9740787 13.793444 5.1924353
9.9613485 27.69906 1.2810856
0.068137906 0.07009948 9.7839003
0.53491843 1.3667666 9.3306818
0.69307858 1.80451 9.3168783
1.7032164 4.5247254 15.503007
1.9096808 5.1271954 12.949121
1.7507312 4.7306461 9.3113365
2.1759009 5.9046612 9.3148785
2.6596675 7.2406878 9.3119555
0.24409163 0.49336654 9.3587885
0.40076461 0.89319831 9.0877209
1.7132367 4.4919205 18.546995
1.2314525 3.2749884 9.568965
1.5657766 4.1994038 9.330761
1.0013272 2.6985559 4.7782655
2.4187753 6.5425553 9.3112259
0.81663293 2.2149723 2.6374838
0.87552154 2.3991406 2.5895069
4.070529 11.171705 9.6697016
1.3758368 3.7822561 2.723336
1.598085 4.3979654 2.5359662
1.6658655 4.5894623 2.0609546
10.735074 29.606932 9.3469048
6.9171615 19.098078 3.9478564
5.0505209 13.959541 1.4256713
0.99573743 2.7167373 2.6582305
1.2037894 3.289645 2.6342175
1.5398172 4.2124176 2.7211766
1.6341387 4.4776888 2.2909307
5.0464578 13.842546 5.2170877
10.018713 27.556131 1.2764504
0.068349503 0.069832303 9.7789001
0.53968608 1.3648911 9.3306818
0.6993733 1.8020798 9.3168783
1.7672336 4.7245064 9.3113365
2.1964989 5.8970299 9.3148785
2.6860418 7.2343645 9.315793
0.2458123 0.49251148 9.3587885
0.40388003 0.89179391 9.0877209
1.7320707 4.494123 18.580872
1.2398114 3.2626047 9.5455008
1.5811933 4.1959491 9.3352623
1.0116569 2.6974864 4.7825317
2.4426529 6.5368943 9.3152161
0.82554358 2.2152848 2.6411591
0.88512504 2.3994153 2.5930114
4.1014285 11.135513 9.6508703
1.3890309 3.7774305 2.723336
1.613427 4.3923602 2.5359662
1.6898605 4.6053801 2.0703197
10.849913 29.600807 9.3567743
7.051342 19.258326 3.9851611
5.0752697 13.87635 1.4194123
1.0039173 2.709744 2.6549051
1.2138628 3.2816319 2.6312745
1.5425587 4.1746688 2.700911
1.6387628 4.4421515 2.2762444
5.1192393 13.891308 5.2417407
10.161373 27.6476 1.2818917
0.068592846 0.069593288 9.7789001
0.54444718 1.3629988 9.3306818
0.70565945 1.7996274 9.3168783
1.7837143 4.7183084 9.3113365
2.2180612 5.8919601 9.3190117
2.7112782 7.2249441 9.315793
0.24752998 0.49165046 9.3587885
0.40699053 0.89037865 9.0877209
1.7491161 4.4915633 18.59539
1.2505739 3.2566462 9.5408087
1.5958303 4.1904044 9.3352623
1.021991 2.6963773 4.7867975
2.4665208 6.531147 9.3192062
0.8344664 2.2155623 2.6448343
0.89474112 2.3996527 2.5965159
4.140274 11.121129 9.6508703
1.3788986 3.7098475 2.6794724
1.597911 4.3036461 2.4895904
8.1061964 21.855345 9.5062599
10.969839 29.607738 9.3708763
7.0946527 19.1691 3.9721045
5.1202221 13.849208 1.4185181
1.0120605 2.7027264 2.6515796
1.2253103 3.2773747 2.6312745
1.5450556 4.1369519 2.6806457
1.641573 4.4023843 2.2594602
5.1825328 13.91318 5.2565322
10.282178 27.677525 1.2847131
0.068802468 0.069324754 9.773901
0.54949254 1.3618106 9.3356218
0.71193701 1.7971534 9.3168783
1.8010283 4.7142911 9.3157253
2.2396154 5.8868117 9.3231449
2.737618 7.2184329 9.3196306
0.24911316 0.49052641 9.353796
0.41009605 0.88895261 9.0877209
1.2588124 3.2442172 9.5173445
1.6104479 4.1848083 9.3352623
1.031397 2.6927934 4.7867975
2.4893036 6.5224972 9.3192062
0.84460729 2.2189727 2.6521845
0.90436971 2.3998518 2.6000204
4.1653609 11.070179 9.6194859
1.385958 3.6893547 2.6685066
1.5958031 4.2524209 2.4640834
8.1743002 21.805214 9.4968948
11.07817 29.582745 9.3751059
7.1219368 19.038399 3.9506543
5.1598182 13.807926 1.4162828
1.0214887 2.6991773 2.6515796
1.5488302 4.1033015 2.6629133
1.6441259 4.3626518 2.2426758
5.2410498 13.921521 5.2663932
0.069044039 0.069084167 9.773901
0.55424279 1.3598843 9.3356218
0.71858442 1.7956026 9.3217735
1.8174732 4.7079754 9.3157253
2.2611604 5.8815846 9.3272781
2.7627985 7.2088332 9.3196306
0.25082392 0.48965386 9.353796
0.41319653 0.88751572 9.0877209
1.2732788 3.2478364 9.5408087
1.6258347 4.18119 9.3397627
1.0417317 2.6916089 4.7910638
2.5131407 6.5165801 9.3231964
0.85356486 2.2191751 2.6558597
0.9127413 2.3966804 2.6000204
4.1956768 11.033743 9.6006546
1.3854703 3.649312 2.6438336
1.6074953 4.2385406 2.459446
8.2684317 21.824232 9.517498
11.181365 29.543894 9.3751059
7.5653133 20.010502 4.1530328
5.2027068 13.775854 1.4149414
1.0309043 2.695595 2.6515796
1.4514736 3.8011649 3.0462599
1.5523891 4.0696769 2.6451812
1.6415755 4.3102317 2.2195971
5.294651 13.916382 5.2713237
0.069251686 0.0688143 9.7689018
0.5592823 1.3586597 9.3405609
0.72484785 1.7930833 9.3217735
1.9960166 5.0858111 12.93071
1.833896 4.7016029 9.3157253
2.281677 5.8736563 9.3272781
2.7891028 7.2021341 9.3234682
0.25253159 0.48877534 9.353796
0.41629204 0.88606793 9.0877209
1.2839726 3.2417672 9.5361156
1.6404198 4.1754894 9.3397627
1.0511208 2.6879561 4.7910638
2.5358725 6.5077677 9.3231964
0.86376232 2.2225015 2.6632099
0.91853982 2.3868232 2.5930114
4.2299781 11.00813 9.5912399
1.3922092 3.6288378 2.6328678
1.6143541 4.2122216 2.4478519
4.5917859 11.993359 5.2769523
11.27757 29.486759 9.3694658
7.6666737 20.066566 4.1698203
1.0403074 2.6919801 2.6515796
1.4676437 3.8036175 3.0521464
1.5541816 4.0320544 2.6249156
1.656611 4.3044753 2.2195971
5.3415017 13.893409 5.26968
0.069491476 0.068572141 9.7689018
0.56402147 1.3566991 9.3405609
0.73110247 1.7905422 9.3217735
2.0151975 5.0824456 12.939916
1.8502966 4.6951728 9.3157253
2.302166 5.8656559 9.3272781
2.8142257 7.1923542 9.3234682
0.25423619 0.48789087 9.353796
0.41938245 0.8846094 9.0877209
1.2984865 3.2452765 9.5595798
1.6549851 4.1697378 9.3397627
1.0614555 2.6866963 4.7953291
2.5585732 6.4988761 9.3231964
0.87275428 2.2226286 2.6668851
0.92428064 2.3769548 2.5860023
1.1689703 3.0108109 2.6866353
1.4109133 3.6395507 2.6438336
1.6210488 4.1859064 2.4362578
4.7239475 12.210733 5.3780956
11.397721 29.491959 9.3835659
1.0496978 2.6883326 2.6515796
1.4618244 3.7495146 3.0138853
1.5588597 4.0025034 2.6097164
1.6666914 4.2859764 2.2133029
5.417325 13.945106 5.2959762
0.069730416 0.068329155 9.7689018
0.56875378 1.354722 9.3405609
0.7373482 1.7879792 9.3217735
1.1357756 2.8074603 9.7289047
2.0336528 5.0771937 12.944518
1.8666745 4.6886854 9.3157253
2.3226268 5.857584 9.3272781
2.8404932 7.1854682 9.3273058
0.2559377 0.48700047 9.353796
0.42246777 0.88314009 9.0877209
1.7760968 4.3942537 12.943064
1.66953 4.1639357 9.3397627
1.0708274 2.6829746 4.7953291
2.5812428 6.4899058 9.3231964
0.88300782 2.2258711 2.6742356
0.9286598 2.3637564 2.5754888
1.1709439 2.984971 2.6678045
1.4236091 3.6346035 2.6438336
1.6259655 4.1554713 2.4223452
8.4239426 21.550785 9.4369574
11.507578 29.46987 9.3892059
10.834242 27.774117 5.751544
1.0604458 2.6881254 2.6549051
1.4749038 3.7443888 3.0138853
1.5649289 3.9769807 2.5970509
1.6783228 4.2716842 2.2091069
5.4642444 13.921716 5.294333
0.069968499 0.068085335 9.7689018
0.57347924 1.3527285 9.3405609
0.74358487 1.7853944 9.3217735
1.1455685 2.8034785 9.7289047
2.0528288 5.0736861 12.953722
1.8830297 4.6821408 9.3157253
2.3430595 5.8494411 9.3272781
2.8655577 7.175509 9.3273058
0.25777206 0.48635873 9.3587885
0.42554796 0.88166004 9.0877209
1.7901201 4.3848319 12.933679
1.6848719 4.1601 9.344264
1.0811614 2.6816392 4.7995954
2.6038814 6.4808559 9.3231964
0.89455563 2.2322154 2.685261
0.93427378 2.3538711 2.5684795
1.1756198 2.9663918 2.6552505
1.437826 3.6334999 2.6465747
1.6323181 4.1291723 2.4107511
8.3714056 21.197859 9.2964802
11.626222 29.469683 9.4018965
11.18869 28.389656 5.8849087
1.0684402 2.6809385 2.6515796
1.4670419 3.6866398 2.9726808
1.5596915 3.9234233 2.5666528
1.6865259 4.2489266 2.2007146
5.4849563 13.832322 5.2680368
0.070205733 0.06784068 9.7689018
0.57819766 1.3507184 9.3405609
0.7498126 1.7827882 9.3217735
2.0705266 5.0664892 12.953722
1.9002635 4.6777582 9.3201151
2.3645194 5.8438354 9.3314104
2.8905873 7.1654625 9.3273058
0.2594682 0.48545599 9.3587885
0.4286229 0.88016927 9.0877209
0.96557617 2.3111901 9.6811695
1.806731 4.3817472 12.943064
1.6993831 4.1541934 9.344264
1.0914992 2.6802642 4.8038611
2.626488 6.4717274 9.3231964
0.90488648 2.2353642 2.6926112
0.93983001 2.3439753 2.5614705
1.1801803 2.9478161 2.6426969
1.4505007 3.6284587 2.6465747
1.6368641 4.0987663 2.3968382
6.0987329 15.286669 6.7379174
11.745003 29.469023 9.414587
11.314976 28.418884 5.8988976
1.0777919 2.6771927 2.6515796
1.458795 3.6289916 2.9314766
1.5332154 3.8179481 2.5033233
1.7013471 4.2430139 2.2007146
5.4963317 13.721037 5.2335229
8.3289442 20.823883 3.2202878
0.070475683 0.067623064 9.773901
0.58321744 1.3494051 9.3455
0.75603104 1.7801598 9.3217735
1.6136886 3.8714595 13.455825
2.0874541 5.057425 12.949121
1.9165804 4.6710968 9.3201151
2.3849037 5.8355455 9.3314104
2.9155819 7.1553292 9.3273058
0.26116118 0.48454729 9.3587885
0.43169266 0.87866771 9.0877209
0.97168303 2.3031733 9.6618128
1.822015 4.3754139 12.943064
1.7138736 4.1482358 9.344264
1.1018407 2.6788499 4.8081274
2.6490624 6.4625196 9.3231964
0.91781628 2.2447438 2.7073119
0.94666749 2.3373749 2.557966
1.1919223 2.9472871 2.6458354
1.4647232 3.6272509 2.6493163
1.6395603 4.0642705 2.3806067
6.1624537 15.291086 6.7491555
11.856755 29.450096 9.4216375
1.0927567 2.6872494 2.6648817
1.4744951 3.6313677 2.9373631
1.5141245 3.7326801 2.4526594
1.7008132 4.1991897 2.1818323
5.6238999 13.89875 5.3074808
8.3848867 20.753359 3.2140718
0.070711307 0.067376651 9.773901
0.58792418 1.3473611 9.3455
0.76224041 1.77751 9.3217735
1.6335633 3.8809364 13.508316
2.1096053 5.0609274 12.976735
1.9328738 4.6643777 9.3201151
2.4063325 5.8297863 9.3355427
2.9417608 7.1480727 9.3311434
0.26285097 0.48363274 9.3587885
0.43475714 0.87715548 9.0877209
1.8372769 4.3690271 12.943064
1.7283432 4.1422281 9.344264
1.1121854 2.6773956 4.8123932
2.6727571 6.4560175 9.3271856
0.92823452 2.2477932 2.7146623
0.95347035 2.3307557 2.5544615
1.2036749 2.9467118 2.6489735
1.4773757 3.6221161 2.6493163
1.6437079 4.0339093 2.366694
5.5201306 13.560555 6.0036888
11.885391 29.226339 9.3638258
2.8867426 7.0282731 6.8483605
1.4856281 3.6224587 2.9344199
1.4797481 3.611692 2.3791974
1.6982757 4.1512213 2.1608515
5.6759543 13.887777 5.3107681
8.4385672 20.678114 3.207165
0.07094606 0.067129411 9.773901
0.59262377 1.3453006 9.3455
0.76844043 1.7748384 9.3217735
1.8999577 4.4700389 15.574585
2.1272585 5.0535326 12.976735
1.9491438 4.6576023 9.3201151
2.4266677 5.8213506 9.3355427
2.9666944 7.1377602 9.3311434
0.26453754 0.48271224 9.3587885
0.43781635 0.87563252 9.0877209
1.5207889 3.5352538 14.854515
1.8525165 4.3625875 12.943064
1.7427918 4.1361699 9.344264
1.1225334 2.6759021 4.816659
2.6952767 6.4466481 9.3271856
0.94129521 2.2570553 2.729363
0.96160036 2.3274131 2.5544615
1.215438 2.9460902 2.652112
1.4916031 3.6208031 2.6520579
1.6459771 3.9994717 2.3504622
5.5656691 13.536916 6.0018158
11.921725 29.024929 9.3130646
11.936423 29.089588 6.0611739
2.9155502 7.0284996 6.8583374
1.4982638 3.6172509 2.9344199
1.4989394 3.6224375 2.3893299
1.6954243 4.1033225 2.1398711
5.7694411 13.977003 5.3518558
0.071179956 0.066881351 9.773901
0.59731615 1.3432238 9.3455
0.77463108 1.7721453 9.3217735
1.9167271 4.4661231 15.584129
1.9663222 4.6529765 9.3245029
2.4469731 5.8128448 9.3355427
2.9928324 7.1303163 9.334981
0.26622093 0.48178589 9.3587885
0.44111079 0.8745746 9.0926924
1.5205996 3.5011013 14.733529
1.8677336 4.3560944 12.943064
1.7572191 4.1300611 9.344264
1.1318672 2.6719675 4.816659
2.7189355 6.4399767 9.3311758
0.94916809 2.2537558 2.729363
0.96971869 2.3240423 2.5544615
1.2242173 2.9382367 2.6489735
1.5058392 3.6194351 2.6547995
1.6463263 3.9609778 2.3319118
5.6253328 13.547376 6.0149269
12.037892 29.047743 6.0611739
2.9299679 6.9941735 6.8350592
1.5093215 3.6082699 2.9314766
1.5714134 3.7603724 2.4805245
1.6870159 4.0429292 2.1125965
5.8163781 13.95242 5.3502121
0.07144694 0.066659875 9.7789001
0.60168284 1.3404218 9.3405609
0.78081232 1.7694305 9.3217735
1.9323051 4.4594049 15.584129
1.9825521 4.6460843 9.3245029
2.4672487 5.8042679 9.3355427
3.0189543 7.1227775 9.3388186
0.26790106 0.48085371 9.3587885
0.44416094 0.87302953 9.0926924
1.5439178 3.5210969 14.839996
1.8836135 4.3511314 12.947757
1.7716249 4.1239023 9.344264
1.142213 2.670398 4.8209252
2.7413986 6.4304466 9.3311758
0.95835614 2.2535484 2.7330382
0.97782522 2.3206434 2.5544615
1.2389951 2.9447086 2.6583891
1.5184643 3.6141565 2.6547995
1.6481414 3.9266148 2.3156803
5.6851373 13.557585 6.028038
12.131628 28.987421 6.0574431
2.9470904 6.9667091 6.8184314
1.5046062 3.5620217 2.899102
1.624755 3.8501828 2.5413208
1.6870189 4.0035567 2.0958121
5.8192406 13.823226 5.3091245
0.071679197 0.066410072 9.7789001
0.60635811 1.3383133 9.3405609
0.78698403 1.7666942 9.3217735
1.9484576 4.454 15.588901
1.998758 4.6391354 9.3245029
2.4874945 5.79562 9.3355427
3.0463212 7.1180887 9.3464928
0.26972008 0.48016688 9.36378
0.44744956 0.87194771 9.0976629
1.5969071 3.6076355 15.22715
1.8980991 4.3429489 12.943064
1.7860093 4.1176929 9.344264
1.1525617 2.6687891 4.825191
2.7650197 6.4236059 9.335166
0.96755439 2.2533047 2.7367134
0.98591983 2.3172159 2.5544615
1.5327039 3.6126831 2.6575408
1.6497368 3.8922882 2.2994487
5.7559276 13.593153 6.0523877
2.9743242 6.9632468 6.8250823
1.5091016 3.5381584 2.8843861
1.6804323 3.9436316 2.6046503
1.6778828 3.9433529 2.0685375
5.9487414 13.994043 5.3814387
0.071910568 0.066159457 9.7789001
0.61102599 1.3361886 9.3405609
0.79314613 1.7639363 9.3217735
2.0158944 4.634326 9.3288918
2.5088289 5.789484 9.3396759
3.0711493 7.1074119 9.3464928
0.27139455 0.47922251 9.36378
0.4504905 0.87038052 9.0976629
1.6335949 3.6559756 15.454603
1.9160341 4.3426127 12.961836
1.8003718 4.1114335 9.344264
1.1629127 2.6671402 4.8294568
2.7874253 6.4139152 9.335166
0.97541404 2.2499135 2.7367134
0.99400234 2.3137603 2.5544615
1.4406044 3.3580761 3.0287268
1.5420121 3.5996239 2.6520579
1.6511124 3.8579977 2.283217
8.4551716 19.775106 8.7776508
8.8666592 20.797667 2.1226676
1.5086526 3.50317 2.8608408
1.6515945 3.8387463 2.5413208
4.7229447 10.993033 5.6184421
4.8073959 11.200357 4.3312364
0.072175324 0.065935083 9.7839003
0.61568642 1.3340477 9.3405609
0.79971951 1.762084 9.3266678
1.2130036 2.7211218 9.5714293
2.2190773 5.0245724 12.999748
2.0320592 4.6272612 9.3288918
2.5290227 5.7806911 9.3396759
3.1023486 7.1113377 9.3656807
0.27306569 0.47827223 9.36378
0.45352593 0.86880267 9.0976629
1.6561669 3.6720207 15.546552
1.8138323 4.1031332 9.3397627
1.1732666 2.6654518 4.8337226
2.809797 6.4041462 9.335166
0.98462111 2.2496006 2.7403884
1.0034921 2.3135481 2.557966
1.4569589 3.3637419 3.0381424
1.5512476 3.5865438 2.6465747
1.6557834 3.8318787 2.2716229
8.4396248 19.549681 8.6914902
1.5095896 3.4719355 2.8402388
1.6340684 3.7617884 2.4957235
4.7901869 11.043099 5.6520109
4.8464632 11.183508 4.3312364
0.07240504 0.065682739 9.7839003
0.62033939 1.3318903 9.3405609
0.80586541 1.7592818 9.3266678
1.2249452 2.722316 9.590518
2.2326252 5.007874 12.976735
2.0481989 4.6201396 9.3288918
2.5503228 5.7744026 9.3438091
3.1336126 7.1151319 9.3848677
0.27473348 0.47731611 9.36378
0.45680469 0.86768568 9.1026344
1.6710582 3.6707935 15.565909
1.4573063 3.2415674 9.7191343
1.8281438 4.0967765 9.3397627
1.1836227 2.6637235 4.8379889
2.8321347 6.394299 9.335166
0.99520814 2.2523515 2.7477388
1.0115618 2.3100312 2.557966
1.4562154 3.330106 3.0130348
1.560411 3.5734432 2.6410921
1.6602926 3.8057747 2.2600291
9.0235462 20.762665 2.1253502
1.1763785 2.6761985 2.6848347
1.5119516 3.444438 2.8225796
1.619488 3.6928957 2.4551926
8.0857954 18.4638 9.405426
4.9706469 11.361203 4.4051943
7.7893958 17.829254 2.8058798
0.07263387 0.065429598 9.7839003
0.6249848 1.3297168 9.3405609
0.81200159 1.7564579 9.3266678
1.2332057 2.7153053 9.5809736
2.2500923 5.0000505 12.976735
2.0643137 4.6129618 9.3288918
2.5704637 5.7654648 9.3438091
0.27639797 0.47635424 9.36378
0.45983073 0.86608583 9.1026344
1.6817619 3.6603692 15.546552
1.4557756 3.2081752 9.6346636
1.8424331 4.0903707 9.3397627
1.1950485 2.6643345 4.8465204
2.8556676 6.387125 9.3391562
1.0044453 2.2519603 2.7514141
1.0196191 2.3064861 2.557966
1.4678309 3.3250027 3.0130348
1.5695015 3.5603223 2.6356089
1.6628541 3.7756319 2.2461164
9.3432798 21.234287 9.4613075
9.6235008 21.891848 7.1190534
1.1796551 2.6584246 2.6715326
1.5141402 3.4169669 2.8049209
1.6096824 3.6359773 2.4222612
8.1667128 18.472822 9.4243088
5.0102744 11.343783 4.4051943
7.8076205 17.702276 2.7906852
0.07286182 0.06517566 9.7839003
0.62962258 1.3275272 9.3405609
0.81855839 1.7545354 9.331563
1.2408102 2.7069137 9.566658
2.2691479 4.9957228 12.985941
2.0804033 4.6057281 9.3288918
2.5917277 5.7590232 9.3479424
0.27820557 0.47563526 9.3687716
0.46285114 0.86447543 9.1026344
1.6961154 3.6578977 15.56107
1.9807913 4.3248501 12.989992
1.8566999 4.0839138 9.3397627
1.2054172 2.6625226 4.8507867
2.8779452 6.3771176 9.3391562
1.0150838 2.2546229 2.7587643
1.0291175 2.3061695 2.5614705
1.4683375 3.2949715 2.9910653
1.5785197 3.5471816 2.6301262
1.6706245 3.7576611 2.2391601
9.4211073 21.210018 9.4650536
9.6998587 21.858122 7.1190534
1.1889275 2.6542907 2.6715326
1.5161555 3.3895226 2.7872617
1.6188469 3.6224649 2.4171951
8.2366943 18.456635 9.430604
5.0113821 11.239966 4.372324
12.44444 27.976961 1.3288484
0.073088884 0.064920925 9.7839003
0.63425267 1.3253212 9.3405609
0.82467788 1.7516675 9.331563
1.2502514 2.7025659 9.566658
2.2825015 4.9788918 12.962928
2.0964677 4.5984378 9.3288918
2.6141424 5.7550654 9.3562078
0.27986416 0.4746612 9.3687716
0.46561211 0.86238581 9.0976629
1.7078077 3.6496775 15.551392
1.9922554 4.3100781 12.966528
1.8709441 4.0774083 9.3397627
1.2168717 2.6630428 4.8593187
2.9014373 6.3697758 9.3431463
1.025753 2.2572386 2.7661147
1.0459495 2.322073 2.5824978
1.473443 3.2756271 2.9785116
1.5874652 3.5340214 2.6246431
1.661966 3.7033093 2.2113345
9.5007763 21.189693 9.4706726
9.7486448 21.76284 7.0993133
1.1951089 2.6433198 2.6648817
1.5196612 3.3657899 2.7725458
1.6297091 3.6128623 2.4146619
8.2954769 18.415358 9.4243088
5.0641522 11.252548 4.3838286
12.499048 27.837643 1.3246163
0.073315054 0.064665407 9.7839003
0.63887501 1.3230993 9.3405609
0.8307873 1.7487781 9.331563
1.2584144 2.6954803 9.5571136
2.297406 4.9655752 12.949121
2.1125064 4.5910921 9.3288918
2.6353884 5.7484636 9.3603411
3.2952895 7.2076921 9.5652313
0.28151935 0.47368142 9.3687716
0.46861956 0.86075526 9.0976629
2.0058291 4.2999701 12.957143
1.8851656 4.0708528 9.3397627
1.2272524 2.6611471 4.863584
2.9236543 6.3596087 9.3431463
1.0364528 2.2598071 2.7734649
1.0599529 2.3313932 2.5965159
1.4768223 3.2527435 2.9628191
1.5946115 3.5170338 2.6164188
1.6620874 3.669239 2.1951027
9.5670395 21.139507 9.4631805
9.4233522 20.841358 6.813076
1.2043285 2.6391323 2.6648817
1.524696 3.3457527 2.7607732
1.6369517 3.595382 2.4070623
8.3747368 18.419342 9.4410934
5.078011 11.17891 4.362463
12.610579 27.825697 1.3260269
0.073540337 0.0644091 9.7839003
0.6434896 1.3208611 9.3405609
0.83732694 1.7467858 9.3364582
1.2690883 2.6937716 9.566658
2.1295283 4.5858622 9.3332815
2.6589832 5.746891 9.3727398
0.28317109 0.47269586 9.3687716
0.47136429 0.85864729 9.0926924
2.0222967 4.2960649 12.966528
1.9002856 4.0662193 9.344264
1.2376345 2.6592114 4.8678503
2.9458358 6.3493648 9.3431463
1.047183 2.2623286 2.7808154
1.0799837 2.3536093 2.6245522
1.4784384 3.2263381 2.9439886
1.5999186 3.4962373 2.605453
1.6454146 3.5989559 2.1580019
9.6388454 21.101765 9.4613075
9.4442635 20.694874 6.7764153
1.2135335 2.6349123 2.6648817
1.5279206 3.3220496 2.7460577
1.6458918 3.5818117 2.4019959
8.4465532 18.406496 9.4494858
5.1229062 11.173994 4.3673935
9.3630419 20.450687 3.2292669
12.724257 27.81785 1.3276392
0.073764719 0.064152002 9.7839003
0.64843929 1.3193041 9.3455
0.84341925 1.7438523 9.3364582
1.2804064 2.6933696 9.5809736
1.8648423 3.9579685 10.367105
2.1455228 4.5784011 9.3332815
2.6802177 5.7401242 9.376873
3.3793547 7.2571526 9.6611681
0.28481936 0.47170451 9.3687716
0.47435865 0.85699672 9.0926924
2.0372803 4.2889795 12.966528
1.9144678 4.0595613 9.344264
1.2480183 2.6572359 4.8721161
2.9692588 6.3417716 9.3471355
1.0565084 2.2617309 2.7844903
1.0881927 2.3498251 2.6245522
1.4815221 3.2034936 2.9282963
1.6068532 3.479243 2.5972285
1.6579672 3.5931902 2.1580019
9.7260313 21.09746 9.4744186
1.2211498 2.627274 2.661556
1.5327001 3.3020306 2.7342851
1.6511301 3.5604019 2.3918631
8.5202885 18.397491 9.4599762
10.059809 21.741579 8.4268618
9.5818491 20.737053 3.2783051
12.80453 27.73698 1.3260269
0.073988199 0.063894123 9.7839003
0.65338594 1.3177285 9.35044
0.84950131 1.7408975 9.3364582
1.2981942 2.7063797 9.6430101
1.83754 3.8649812 10.141581
2.1625154 4.5730491 9.3376703
2.7050364 5.7409153 9.393405
3.4196613 7.2772212 9.7033806
0.28631338 0.47046131 9.36378
0.47734725 0.85533565 9.0926924
2.0522394 4.2818418 12.966528
1.9286267 4.0528536 9.344264
1.2584033 2.65522 4.8763824
2.9913776 6.331368 9.3471355
1.0672882 2.2641623 2.7918408
1.0933685 2.3395507 2.6175432
1.4844643 3.1806672 2.9126039
1.6048565 3.4432933 2.5752969
1.6667597 3.5793498 2.1533644
9.8113499 21.088602 9.4856567
5.3544154 11.519349 3.8238065
1.2303132 2.6229956 2.661556
1.5373584 3.2820187 2.7225122
1.6525847 3.5311904 2.3766642
8.5748472 18.34708 9.4494858
6.5993299 14.133043 5.5178499
9.8027668 21.022131 3.3273432
0.074175693 0.063609518 9.7789001
0.65798169 1.3154398 9.35044
0.855573 1.7379216 9.3364582
1.3193399 2.7260156 9.7289047
1.8036964 3.7599034 9.8838396
2.1784651 4.5654726 9.3376703
2.7335179 5.749228 9.4223356
3.4491627 7.2739286 9.7148933
0.28795385 0.46945903 9.36378
0.48033002 0.85366416 9.0926924
2.0679243 4.2762051 12.97122
1.9437045 4.0480595 9.3487654
1.2687892 2.6531639 4.8806481
3.0147567 6.3236074 9.3511257
1.0766413 2.2634842 2.795516
1.0984859 2.3292687 2.6105342
1.4889238 3.161381 2.9000502
1.6115268 3.4263184 2.5670724
1.6717079 3.5574732 2.1440892
9.8868723 21.058422 9.4875298
5.3721838 11.452816 3.8082964
1.2378643 2.6153102 2.6582305
1.5418959 3.2620151 2.7107396
1.6556963 3.5059106 2.3639984
6.3330731 13.428113 6.9507055
7.6537442 16.265064 2.5993667
6.5722055 13.979321 0.71679902
0.074397281 0.063350208 9.7789001
0.6625694 1.313135 9.35044
0.8611812 1.7340126 9.331563
1.7854253 3.6562748 13.054978
2.1954274 4.5599985 9.3420601
1.4219222 2.9640179 4.9008894
3.4869835 7.2878671 9.7494307
0.28959078 0.46845099 9.36378
0.48330691 0.8519823 9.0926924
2.082082 4.2674103 12.966528
1.957823 4.0412502 9.3487654
1.2780428 2.6487186 4.8806481
3.0355055 6.3103304 9.3471355
1.0860027 2.2627685 2.799191
1.103545 2.3189797 2.6035252
1.4932669 3.1421025 2.8874962
1.6431991 3.4622257 2.5972285
1.6784215 3.5396082 2.1371326
9.9662752 21.03635 9.4931488
5.3751874 11.355948 3.7829158
1.5445726 3.2383721 2.6960239
1.6567971 3.4767604 2.3487992
6.3330998 13.30757 6.900352
6.7201409 14.133539 5.5359287
7.7104731 16.238247 2.5993667
13.030043 27.46596 1.3199811
0.074582711 0.063064426 9.773901
0.66714907 1.3108143 9.35044
0.86722875 1.7309959 9.331563
1.7955383 3.644664 13.03589
1.7741736 3.6331129 9.5846748
2.2113314 4.5523071 9.3420601
1.4310338 2.9565036 4.8967566
3.5193689 7.2900825 9.7686186
0.29122424 0.46743733 9.36378
0.48627797 0.85029006 9.0926924
1.115504 2.2398663 9.6714907
2.0984895 4.2632122 12.975913
1.9728736 4.0363469 9.3532667
1.2884223 2.6465864 4.8849139
3.0601456 6.3051181 9.3551159
1.0968499 2.2650664 2.8065414
1.1085454 2.3086839 2.5965159
1.4958106 3.1193228 2.871804
1.6751413 3.4979525 2.6273847
1.6812069 3.5137484 2.1255388
10.035646 20.993069 9.4894028
5.4168615 11.341445 3.7843258
1.444122 2.9967785 3.0439887
1.5488558 3.2183921 2.6842513
1.6595829 3.4515309 2.3361332
6.3303986 13.1831 6.8479009
10.27047 21.407412 8.3529034
7.7778063 16.233562 2.6028199
0.074802384 0.062803693 9.773901
0.67136556 1.3077863 9.3455
0.8732658 1.7279582 9.331563
1.8069206 3.6357009 13.026345
1.7825277 3.6181357 9.5616627
2.2282624 4.5467114 9.3464489
1.4413452 2.9514904 4.8967566
3.5504088 7.2892799 9.7839689
0.2928541 0.46641788 9.36378
0.48924309 0.84858745 9.0926924
1.1238801 2.2370818 9.6763306
2.1141257 4.2574067 12.980606
1.987914 4.0313888 9.3577681
1.2976528 2.6420729 4.8849139
3.0794857 6.2889848 9.3471355
1.1062381 2.2642701 2.8102167
1.1150426 2.3015909 2.5930114
1.4999089 3.1000676 2.8592501
1.6837028 3.4845543 2.621902
1.6896102 3.4998798 2.1209011
5.5349507 11.475204 5.235745
5.4793253 11.370003 3.7998362
13.03274 27.09215 2.791945
1.4545739 2.9917192 3.0439887
1.5530183 3.1984222 2.6724787
1.6603311 3.4224463 2.3209343
6.4871945 13.389648 6.9653921
10.345134 21.371431 8.3529034
7.855978 16.250898 2.6097267
0.074985728 0.062516756 9.7689018
0.67592645 1.3054348 9.3455
0.87929213 1.7248994 9.331563
1.8169243 3.6240337 13.007258
1.7925375 3.606643 9.5478544
2.2441201 4.5389056 9.3464489
1.4516391 2.9464412 4.8967566
3.594209 7.3142385 9.8338556
0.29448044 0.46539283 9.36378
0.49193385 0.84641397 9.0877209
1.1373652 2.2443566 9.7247248
2.1258824 4.2438302 12.961836
2.0019741 4.024425 9.3577681
1.3080255 2.639864 4.8891802
3.1040888 6.2836008 9.3551159
1.1156341 2.2634354 2.8138916
1.1199375 2.2912767 2.5860023
1.5021836 3.0773244 2.8435581
1.6720351 3.4297941 2.5862627
1.6901777 3.4700656 2.1069882
5.5952587 11.497498 5.2544756
5.5420547 11.398263 3.8153465
10.111227 20.83252 2.1718462
1.4600748 2.976567 3.0340123
1.5570605 3.178462 2.660706
1.662792 3.3972704 2.3082683
6.609632 13.521867 7.0451183
6.892643 14.11331 5.5556507
7.9473886 16.29459 2.6207776
6.8258362 14.007456 0.72224033
0.075203493 0.062254626 9.7689018
0.68047917 1.3030674 9.3455
0.8848421 1.7209142 9.3266678
1.828216 3.6150053 12.997714
1.8033648 3.5968709 9.5386505
2.261019 4.5331874 9.3508377
1.4631678 2.943876 4.9008894
3.6339552 7.3303652 9.8722305
0.29594719 0.46411908 9.3587885
0.49488539 0.84469163 9.0877209
1.1474813 2.2448494 9.7440815
1.5888431 3.1443994 9.6346636
2.0169861 4.0193577 9.3622694
1.3172324 2.6352818 4.8891802
1.1250376 2.2625628 2.8175669
1.1263515 2.2841551 2.5824978
1.5043178 3.0546029 2.8278658
1.6600062 3.375159 2.5506237
1.6905582 3.4402905 2.0930755
5.6353588 11.477897 5.2544756
5.6494136 11.516665 3.8604674
10.258348 20.949163 2.187047
1.4654878 2.9614129 3.0240355
1.5609822 3.1585128 2.6489332
1.6650971 3.3721189 2.2956023
6.7210264 13.628968 7.1122556
6.9585619 14.12305 5.5687985
9.5166149 19.331839 5.2876363
8.0763702 16.413378 2.6435702
6.9121604 14.059762 0.7256664
0.075420342 0.061991736 9.7689018
0.68502361 1.3006841 9.3455
0.89084387 1.7178149 9.3266678
1.8394668 3.6059422 12.98817
1.8159093 3.590554 9.5386505
2.276829 4.5252671 9.3508377
1.4746962 2.9412658 4.9050221
3.6752911 7.3491697 9.914444
0.29756546 0.46308321 9.3587885
0.49783087 0.84295899 9.0877209
1.6052954 3.1495965 9.6675129
2.031004 4.0122924 9.3622694
1.3275975 2.6329966 4.893446
1.1344486 2.2616522 2.8212419
1.1327293 2.2770164 2.5789931
1.5045799 3.0284183 2.8090348
1.6476163 3.3206499 2.5149846
5.8585224 11.827884 5.4211755
5.5597901 11.234612 3.7744553
1.4708129 2.9462576 3.0140591
1.5665874 3.1421928 2.6401038
1.6672474 3.3469934 2.2829363
5.507123 11.069834 5.8030705
7.0183277 14.119819 5.5770164
9.4262152 18.980709 5.2020574
8.1622381 16.442751 2.652549
0.075636283 0.061728094 9.7689018
0.6899243 1.2989712 9.35044
0.89683473 1.714695 9.3266678
1.8520427 3.5994992 12.98817
1.8204409 3.5685313 9.4972277
2.2936952 4.5194278 9.3552275
1.4862242 2.9386113 4.9091554
3.7153585 7.3649125 9.9528179
0.29918012 0.46204168 9.3587885
0.50077033 0.84121615 9.0877209
1.6147015 3.1409042 9.6581278
2.0440073 4.0032401 9.3577681
1.3379626 2.630671 4.8977118
1.143867 2.2607033 2.8249173
1.1406707 2.2730484 2.5789931
1.5064216 3.005749 2.7933426
1.6311231 3.2587907 2.4738624
5.9681544 11.944214 5.4829855
5.5689754 11.155049 3.754715
1.4760501 2.9311016 3.0040827
1.5702816 3.1222615 2.6283312
1.6692426 3.3218944 2.2702708
5.5660877 11.091106 5.8240514
7.0929723 14.145888 5.5967383
8.8653946 17.696108 4.8644295
8.2395401 16.45401 2.6587651
0.075887069 0.061488651 9.773901
0.69445437 1.296555 9.35044
0.90328979 1.7124544 9.331563
1.8639084 3.5916879 12.983398
1.824841 3.5465207 9.4558048
2.3094571 4.5113935 9.3552275
1.4977517 2.9359124 4.9132881
3.7424982 7.3547554 9.9566555
0.30079111 0.46099454 9.3587885
0.50370365 0.839463 9.0877209
1.8745296 3.5740151 15.575589
1.6216835 3.1275892 9.6346636
2.0579689 3.9960809 9.3577681
1.3483276 2.628305 4.9019775
1.1532927 2.2597165 2.8285925
1.1469876 2.2658715 2.5754888
1.5081238 2.9831047 2.7776506
1.6274111 3.2232163 2.4519308
8.5401964 16.928814 10.011778
5.9388666 11.782556 5.4193025
5.6143527 11.148396 3.7589452
10.550976 20.987423 2.2018006
1.4811995 2.9159446 2.9941063
1.5738558 3.1023424 2.6165586
1.6730319 3.3006673 2.260138
7.6197729 15.052006 7.8864369
7.1508322 14.137898 5.6033125
9.1266108 18.059824 4.9711103
8.319253 16.469349 2.6656718
0.076101243 0.06122338 9.773901
0.69934541 1.2948066 9.3553791
0.90926188 1.7092909 9.331563
1.8785111 3.5891271 12.997714
1.8291098 3.524523 9.414382
2.3251908 4.503305 9.3552275
1.5092784 2.9331684 4.9174213
3.7842484 7.3730145 9.9988689
0.30239844 0.45994177 9.3587885
0.50690722 0.83815539 9.0926924
1.8858181 3.565228 15.565909
2.2060218 4.2183156 12.999377
2.0719051 3.9888728 9.3577681
1.3598912 2.6282151 4.9105096
3.2892661 6.3757529 9.5745678
1.1658287 2.2647195 2.839618
1.1548898 2.2618539 2.5754888
1.5202957 2.9812894 2.7807887
1.6272664 3.1951599 2.435482
8.6092815 16.918638 10.023372
5.9925656 11.786549 5.4305406
8.4602289 16.654448 5.5807076
10.655704 21.012646 2.2080598
1.4845583 2.8974645 2.980804
1.5754688 3.0788383 2.6018426
1.674731 3.2756159 2.247472
7.6536913 14.988936 7.8675542
7.2087231 14.129676 5.6098862
8.3946762 16.475508 2.6711972
0.076350451 0.060982071 9.7789001
0.70386088 1.2923574 9.3553791
0.91522288 1.7061065 9.331563
1.8868469 3.5746279 12.969083
1.8314351 3.4990771 9.3637533
2.3408959 4.4951611 9.3552275
1.520804 2.9303799 4.9215541
3.8070147 7.3540673 9.9911938
0.30416229 0.45912358 9.36378
0.50982982 0.83638084 9.0926924
1.9000267 3.5619504 15.580428
2.2183175 4.2060099 12.985299
2.0858164 3.981616 9.3577681
1.3702638 2.6257646 4.9147758
3.3128922 6.3669052 9.578557
1.1737269 2.2606361 2.839618
1.1627783 2.2578089 2.5754888
1.5289129 2.9725034 2.7776506
1.6326777 3.1783023 2.4272578
8.6784 16.908188 10.034966
6.0104008 11.720181 5.4099374
8.682375 16.945009 5.68646
1.4895208 2.8823137 2.9708276
1.5787909 3.058953 2.59007
1.6782516 3.2544248 2.2373395
7.6477809 14.849155 7.8088093
7.266644 14.121222 5.6164603
8.4838266 16.507767 2.680867
0.076598905 0.060739771 9.7839003
0.70836771 1.2898927 9.3553791
0.92165738 1.7037971 9.3364582
1.9028207 3.5746076 12.992942
1.8427259 3.4909353 9.3591509
2.3565726 4.4869623 9.3552275
1.5310237 2.9250534 4.9215541
3.8489799 7.3719873 10.033406
0.3057631 0.45805907 9.36378
0.51302582 0.83504999 9.0976629
1.9124485 3.5552964 15.580428
2.2313647 4.1951933 12.975913
2.0997019 3.9743109 9.3577681
1.3806359 2.6232729 4.9190412
3.3364968 6.3579702 9.5825472
1.1847564 2.262532 2.8469682
1.1706524 2.2537363 2.5754888
1.5356946 2.960238 2.7713735
1.6360675 3.1577334 2.416292
8.7618055 16.924999 10.062791
5.9788604 11.559128 5.3462539
5.7219787 11.071945 3.753305
1.4926696 2.8638527 2.9575255
1.580127 3.0354967 2.5753541
1.6816448 3.2332489 2.2272067
7.6765532 14.778065 7.7857304
7.3245931 14.112536 5.6230345
8.5846977 16.561586 2.6939898
0.076810457 0.060472019 9.7839003
0.71286601 1.2874122 9.3553791
0.92759913 1.7005695 9.3364582
1.9138746 3.5653136 12.983398
1.8521463 3.4793084 9.3453445
2.3722208 4.4787087 9.3552275
1.5412247 2.9196911 4.9215541
3.8313813 7.2762609 9.9221182
0.30736014 0.45698896 9.36378
0.51593751 0.83325404 9.0976629
1.9242479 3.5474944 15.575589
2.2468107 4.1889 12.980606
2.1125381 3.9650359 9.3532667
1.3897843 2.6184378 4.9190412
3.3600798 6.3489485 9.5865374
1.1785122 2.2496362 2.5754888
1.5424095 2.9479623 2.7650967
1.6393335 3.1371789 2.4053259
8.8331337 16.917871 10.076704
6.1864223 11.858787 5.4923506
5.8426313 11.209298 3.8054764
1.4957079 2.8454053 2.9442236
1.5831977 3.0156476 2.5635815
1.686913 3.2159066 2.2196069
7.864994 15.012493 7.9221034
7.38695 14.111985 5.6328959
8.6860466 16.614901 2.7071126
0.077021077 0.060203534 9.7839003
0.71735555 1.284916 9.3553791
0.93352956 1.6973212 9.3364582
1.4309821 2.6436698 9.6573257
1.86428 3.472822 9.3453445
2.38784 4.4704008 9.3552275
1.5514071 2.9142935 4.9215541
3.7996316 7.1552696 9.7762938
0.30895349 0.45591331 9.36378
0.518843 0.83144802 9.0976629
1.938429 3.544064 15.590107
2.2638822 4.185585 12.994684
2.1263659 3.9576375 9.3532667
1.4001467 2.61587 4.9233074
3.3878963 6.3478141 9.6024981
3.2722955 6.1440907 7.6246819
1.1880236 2.2486615 2.5789931
1.5472406 2.9322329 2.755681
1.6424762 3.1166406 2.3943598
5.9255824 11.262738 5.2301264
1.4986355 2.8269713 2.9309216
1.5785836 2.9815254 2.5400362
1.690065 3.194757 2.2094743
5.7674589 10.915928 5.7946787
7.4515972 14.115346 5.6444006
8.7901812 16.672089 2.7209263
0.077230759 0.059934311 9.7839003
0.72221768 1.2830811 9.3603182
0.9394486 1.6940522 9.3364582
1.4387712 2.6360388 9.6477823
1.877321 3.4680111 9.349946
2.40343 4.4620385 9.3552275
1.5615704 2.9088602 4.9215541
3.7625458 7.0261145 9.6189556
0.31070653 0.45506996 9.3687716
0.52174211 0.82963187 9.0976629
1.1967866 2.1702769 9.5795422
2.2793052 4.1791725 12.999377
2.1391306 3.9482772 9.3487654
1.4092693 2.6109664 4.9233074
3.4100339 6.3359499 9.6024981
3.2664526 6.0818577 7.5622044
1.1958656 2.2445009 2.5789931
1.5501525 2.9130697 2.7431273
1.6435335 3.0924273 2.3806529
6.1843195 11.655598 5.4193025
7.3821101 13.948281 1.5097222
1.5014529 2.808552 2.9176195
1.5965968 2.9902592 2.5518088
1.6930902 3.1736245 2.1993415
5.8055272 10.895729 5.7946787
7.5096998 14.105921 5.6509738
8.9436436 16.820574 2.7492442
0.077439494 0.059664365 9.7839003
0.72669208 1.2805523 9.3603182
0.94535625 1.6907625 9.3364582
1.4472442 2.6296926 9.6430101
1.8894151 3.461437 9.349946
2.4201338 4.4557261 9.3596153
1.5717146 2.9033916 4.9215541
3.7931406 7.024219 9.634305
0.31229311 0.45398262 9.3687716
0.52492076 0.82825547 9.1026344
2.2955425 4.1742148 13.008762
2.1528997 3.9407861 9.3487654
1.4183747 2.6060312 4.9233074
3.4364414 6.3319521 9.6144676
3.2747462 6.0465708 7.5328031
1.2053813 2.2434547 2.5824978
1.5547901 2.897352 2.733712
1.6424662 3.0645585 2.3642039
6.7073298 12.524934 7.523705
6.2140312 11.613501 5.4099374
7.2970967 13.672006 1.4842387
1.5059319 2.7934341 2.9076431
1.6089413 2.9882269 2.5547521
1.6959883 3.1525102 2.1892087
5.8821921 10.94736 5.8324432
6.0578856 11.28377 4.5465364
7.4437962 13.882647 2.2892511
0.077647299 0.059393689 9.7839003
0.7311576 1.2780077 9.3603182
0.95125234 1.6874523 9.3364582
1.4687288 2.6468127 9.7241335
1.9014863 3.4548204 9.349946
2.4356725 4.4472513 9.3596153
1.5818398 2.8978877 4.9215541
3.8314321 7.0362701 9.6688433
0.31387591 0.45288974 9.3687716
0.52780867 0.82641816 9.1026344
1.213753 2.165158 9.5940599
2.3067517 4.1601396 12.989992
2.1676929 3.935154 9.3532667
1.4287177 2.6033506 4.9275737
4.1375399 7.5763426 9.4365387
1.213205 2.2392335 2.5824978
1.5574845 2.8782144 2.7211583
1.6412247 3.0367358 2.3477552
6.7425895 12.485853 7.51443
6.2479277 11.579499 5.4043179
7.4179425 13.782391 1.4980983
1.5103236 2.7783194 2.8976665
1.6232198 2.9896967 2.5606387
1.6987599 3.1314144 2.1790762
5.9376664 10.958684 5.8492279
6.0994835 11.266706 4.5481796
7.4827895 13.839154 2.2864885
7.2449441 13.410439 0.70853627
0.077817589 0.059098456 9.7789001
0.73561424 1.2754478 9.3603182
0.95713681 1.6841216 9.3364582
1.9765352 3.5326715 12.98817
1.9144824 3.4498701 9.3545485
2.4523392 4.4408188 9.3640051
1.5933026 2.8948135 4.9256868
3.9300179 7.1577129 9.8530436
0.3156209 0.45202759 9.3737631
0.53069025 0.82457072 9.1026344
1.2200663 2.1587195 9.5843811
1.8488139 3.3070667 10.357349
2.1814158 3.9275632 9.3532667
1.4390591 2.6006298 4.9318395
4.0861721 7.4053202 11.274318
4.1639609 7.5618539 9.4365387
1.2227238 2.2381144 2.5860023
1.5581998 2.8556764 2.7054658
1.6358069 3.001615 2.3258233
6.7924871 12.473912 7.5213861
7.5135155 13.84395 1.5070398
1.5146283 2.7632079 2.8876901
1.639469 2.9946489 2.569468
1.6993361 3.1065557 2.1664102
5.9824114 10.94984 5.8555222
6.1365128 11.241203 4.5465364
7.4599357 13.682515 2.2657681
7.3777499 13.543006 0.71579134
0.078023404 0.058826465 9.7789001
0.74006194 1.2728723 9.3603182
0.963516 1.6816536 9.3413544
1.9888544 3.5257504 12.98817
1.926513 3.4431665 9.3545485
2.4678257 4.4322314 9.3640051
1.6047634 2.891695 4.9298201
4.0667567 7.3458529 10.129344
0.31719685 0.45092312 9.3737631
0.53356528 0.82271326 9.1026344
1.2275943 2.1544476 9.5843811
1.8459407 3.2750375 10.277573
2.1961763 3.9218242 9.3577681
1.449399 2.597868 4.9361053
4.1295772 7.4226103 11.322198
4.1936226 7.5532002 9.4438877
1.2305288 2.2338326 2.5860023
1.5606531 2.8365791 2.6929121
1.6442609 2.9922225 2.323082
6.83812 12.454009 7.523705
7.5689664 13.830746 1.508381
1.5188459 2.7481008 2.8777137
1.6518658 2.9924464 2.5724113
1.6997597 3.081732 2.1537445
6.0424962 10.968643 5.8765025
6.2053161 11.273493 4.5679016
7.4742513 13.595637 2.2560985
7.4105477 13.490897 0.71458215
0.078228272 0.058553755 9.7789001
0.74450052 1.2702813 9.3603182
0.96938026 1.6782801 9.3413544
2.0018876 3.5200841 12.992942
1.9385201 3.4364207 9.3545485
2.4844544 4.4256783 9.3683939
1.6148475 2.886076 4.9298201
4.1298671 7.3987818 10.221444
0.31876892 0.44981313 9.3737631
0.53643382 0.82084572 9.1026344
1.234481 2.1490593 9.5795422
1.8215504 3.2055607 10.080476
2.2098527 3.9141343 9.3577681
1.4597372 2.5950658 4.940371
4.1657805 7.4265461 11.350128
4.218307 7.5355577 9.4402132
1.2435138 2.2388763 2.5965159
1.5648804 2.8209033 2.6834967
1.6526691 2.9828072 2.3203404
9.3747187 16.933418 10.21815
6.6067071 11.943439 5.6028595
6.1565247 11.138777 3.830857
7.6436644 13.852202 1.5132989
1.5229768 2.7329977 2.8677373
1.6505067 2.9654713 2.5547521
1.7000307 3.0569429 2.1410785
6.0763392 10.939548 5.8723063
6.2446299 11.251763 4.5679016
7.4808502 13.495836 2.2443571
7.4624352 13.473688 0.71498525
0.07843218 0.058280334 9.7789001
0.74853474 1.2670058 9.3553791
0.9757452 1.675766 9.3462496
2.0141628 3.5130749 12.992942
1.9505036 3.4296329 9.3545485
2.4998877 4.4169788 9.3683939
1.6262946 2.8828723 4.9339533
4.1682448 7.4066672 10.252144
0.32033712 0.44869769 9.3737631
0.53900218 0.81852335 9.0976629
1.241345 2.1436493 9.5747023
1.7726777 3.0943699 9.7519827
2.2245789 3.9082885 9.3622694
1.4700733 2.5922232 4.9446373
4.206512 7.4381876 11.390029
4.2462516 7.5237393 9.4438877
1.2513214 2.2345221 2.5965159
1.5671173 2.8018355 2.670943
1.6589922 2.9697192 2.3148575
9.4510422 16.931532 10.2367
6.6573896 11.9365 5.6103516
6.1836925 11.096267 3.8238065
7.6992345 13.838491 1.5146401
1.5233626 2.7113893 2.8511097
1.6470015 2.9350176 2.5341501
1.7001493 3.0321898 2.1284127
6.1743641 11.025187 5.9289541
7.8703361 14.065062 5.6986361
7.5061703 13.430735 2.2381408
7.3998108 13.25127 0.70591635
0.078635141 0.058006193 9.7789001
0.75295287 1.2643852 9.3553791
0.98158872 1.6723499 9.3462496
2.0264134 3.5060227 12.992942
1.9624634 3.4228036 9.3545485
2.5152907 4.408226 9.3683939
1.6363479 2.8771777 4.9339533
4.2067275 7.4143739 10.282844
0.32190141 0.44757679 9.3737631
0.54185605 0.81663692 9.0976629
1.2481865 2.1382179 9.5698633
1.7687956 3.0627599 9.6722059
2.2382078 3.9004993 9.3622694
1.481702 2.5916038 4.9531689
4.238421 7.4339299 11.405989
4.2724881 7.5088711 9.4438877
1.2696342 2.2487731 2.6175432
1.5711521 2.7861769 2.6615274
1.6672964 2.9602668 2.3121161
9.510087 16.898439 10.2367
6.6172142 11.767718 5.5429225
7.7621112 13.837592 1.5173227
1.5254567 2.6930599 2.8378077
1.6452942 2.9081423 2.5164909
1.7107234 3.0262365 2.1284127
8.4553957 14.975405 8.0374966
7.9124236 14.025166 5.6937056
7.5311279 13.365623 2.2319248
7.4019041 13.147 0.70228881
0.078837141 0.057731356 9.7789001
0.75736177 1.2617493 9.3553791
0.98742026 1.6689132 9.3462496
2.0386395 3.4989278 12.992942
1.9743993 3.4159324 9.3545485
2.5306628 4.3994188 9.3683939
1.6463811 2.8714485 4.9339533
4.2389483 7.4107733 10.298194
0.3234618 0.44645041 9.3737631
0.54440665 0.81429774 9.0926924
1.2537299 2.1305981 9.5553446
1.771661 3.0431452 9.6299715
2.2518094 3.8926628 9.3622694
1.4920418 2.5886757 4.9574347
4.2598391 7.4112525 11.394019
4.2969866 7.4909716 9.4402132
1.4574273 2.5604565 2.9750071
1.5750968 2.7705245 2.652112
1.6714251 2.9435203 2.3038917
9.6083641 16.93449 10.278439
6.6582508 11.744548 5.5429225
7.8250751 13.836422 1.5200051
1.5255897 2.6715071 2.8211801
1.6434199 2.8813159 2.4988322
1.714873 3.009011 2.1208131
8.5323143 14.989184 8.0605745
7.9753404 14.022089 5.703567
7.619319 13.412452 2.2436664
7.4773445 13.17322 0.70470715
0.07903818 0.057455812 9.7789001
0.76176155 1.2590979 9.3553791
0.99323988 1.6654564 9.3462496
2.0508406 3.4917903 12.992942
1.9863112 3.4090197 9.3545485
2.5460041 4.3905587 9.3683939
1.6563944 2.865684 4.9339533
4.2759991 7.4153681 10.325057
0.32501823 0.44531858 9.3737631
0.54724574 0.81239247 9.0926924
1.2637249 2.1305327 9.5747023
1.7761585 3.0265245 9.5971222
2.2653835 3.8847787 9.3622694
1.5023793 2.5857067 4.9617009
4.3214116 7.4729915 9.4365387
1.469906 2.5615396 2.9820161
1.577016 2.7515018 2.6395583
1.6754575 2.9267817 2.2956672
9.6828136 16.927763 10.29467
6.6670008 11.664886 5.5166998
6.6706638 11.680742 4.0437717
7.8733258 13.809023 1.5200051
1.5162764 2.6338074 2.787925
1.6454079 2.8615456 2.4870596
9.70576 16.892557 11.534106
8.6071749 14.998675 8.0815554
8.0453777 14.031032 5.7183576
0.079238258 0.057179566 9.7789001
0.76615191 1.2564312 9.3553791
0.9990474 1.6619792 9.3462496
2.0630167 3.4846103 12.992942
1.9981987 3.4020655 9.3545485
2.5625234 4.3837123 9.3727837
1.6663874 2.8598845 4.9339533
4.3115225 7.4170232 10.348082
0.32674244 0.44441342 9.3787556
0.55007821 0.81047726 9.0926924
1.271154 2.1261086 9.5747023
1.7858332 3.0188208 9.5924292
2.2789302 3.8768475 9.3622694
1.5140322 2.5849473 4.9702325
1.4734811 2.5471325 2.9715025
1.5807691 2.7358699 2.6301429
1.6793935 2.9100506 2.2874429
9.7573347 16.920725 10.310902
6.7516522 11.717863 5.5522876
6.622839 11.503567 3.9916005
7.9264436 13.790091 1.5208993
1.4711086 2.5348492 2.6914856
