# .PCD v0.7 - Point Cloud Data file format
VERSION 0.7
FIELDS x y z
SIZE 4 4 4
TYPE F F F
COUNT 1 1 1
WIDTH 1462
HEIGHT 1
VIEWPOINT 0 0 0 1 0 0 0
POINTS 1462
DATA ascii
-0.91137373 -6.8214459 1.398073
-0.89058959 -6.6835971 0.69827378
-0.4505955 -3.2770829 3.0273612
-0.48359144 -3.5306458 2.6783648
-1.2484224 -9.1377125 5.5051398
-1.1042104 -8.1138153 3.8728626
-0.44910768 -3.3087969 1.2513005
-0.4538641 -3.3525605 0.90668601
-0.91030622 -6.7328486 1.039811
-0.86391252 -6.4064975 0.35444641
-0.19539292 -1.197017 7.7106061
-0.14012247 -0.89475417 4.377594
-0.35756385 -2.3853633 7.7580757
-0.34162515 -2.3342497 5.6172991
-0.61315596 -4.2505827 7.9375539
-0.55594659 -3.8923495 5.8473349
-0.90011257 -6.3488984 7.7539282
-0.17505908 -0.81977719 7.7752433
-0.15741463 -1.0208067 4.0142035
-0.31381154 -2.0984399 5.8241377
-0.55239964 -3.7644701 7.9308834
-0.67681599 -4.6629233 7.7772179
-0.59395939 -4.1274915 5.5965137
-1.0014189 -7.0017858 7.7459626
-0.8089236 -5.792912 5.8277073
-0.45248964 -3.2529511 2.7305734
-1.2349156 -8.9112835 5.9829392
-1.1714214 -8.4748163 4.5649161
-0.93465197 -6.7793131 2.8532474
-0.45553473 -3.3127172 1.0728328
-0.92316425 -6.7306228 1.3812858
-0.8896144 -6.5028238 0.68217891
-0.4620319 -3.2754903 3.0273612
-0.49535021 -3.5249333 2.6754217
-1.235427 -8.8131199 5.3151512
-1.1281321 -8.0784473 3.8581762
-0.4606548 -3.3072093 1.2513005
-0.46489507 -3.3461418 0.9055137
-0.90657735 -6.5334272 1.0121838
-0.86024255 -6.2153897 0.34678823
-0.19957012 -1.1963276 7.7106061
-0.14340629 -0.89526498 4.3824892
-0.36566159 -2.3826253 7.753304
-0.34919155 -2.3291788 5.6080937
-0.6265884 -4.2389398 7.9199982
-0.56953001 -3.8903852 5.8473349
-0.92226893 -6.3457179 7.7539282
-0.1780334 -0.81968188 7.7802153
-0.16097695 -1.020251 4.0142035
-0.32087317 -2.0956256 5.8194447
-0.5616529 -3.7366858 7.8768687
-0.69308841 -4.660532 7.7772179
-0.60836339 -4.1253929 5.5965137
-1.0258536 -6.9982476 7.7459626
-0.82913977 -5.7900529 5.8277073
-0.46439162 -3.2552054 2.733712
-1.2471842 -8.7744446 5.8952122
-1.1587099 -8.1724319 4.407238
-0.95960891 -6.7851896 2.8569934
-0.46709549 -3.3111072 1.0728328
-0.92680222 -6.5862937 1.3542398
-0.87423605 -6.2284393 0.65758955
-0.4734627 -3.2738574 3.0273612
-0.50765151 -3.5231829 2.6754217
-1.2183415 -8.4759331 5.1175637
-1.1119294 -7.7644649 3.7134106
-0.47286406 -3.3102555 1.2529439
-0.47588676 -3.3396864 0.90434134
-0.90425861 -6.3537273 0.98731929
-0.85173815 -5.9996562 0.3381224
-0.20361407 -1.1948577 7.7056665
-0.14653046 -0.89475894 4.3824892
-0.37397626 -2.3813343 7.753304
-0.35702321 -2.3260145 5.6034913
-0.63958848 -4.2248864 7.8980522
-0.58352393 -3.891156 5.8514676
-0.94394189 -6.3392897 7.7500906
-0.18100917 -0.81957579 7.7851863
-0.16453731 -1.0196829 4.0142035
-0.32791904 -2.092788 5.8147521
-0.5720436 -3.7174897 7.8408589
-0.70895988 -4.6555061 7.7729516
-0.62276 -4.1232443 5.5965137
-1.0497724 -6.9912715 7.7422872
-0.8493458 -5.7871232 5.8277073
-0.47575161 -3.2535646 2.733712
-1.2741878 -8.7452116 5.8787637
-1.1502739 -7.9140811 4.2727475
-0.98395288 -6.786386 2.8588665
-0.4786506 -3.3094566 1.0728328
-0.92523533 -6.4128518 1.3215982
-0.88036472 -6.1169076 0.64775389
-0.48543507 -3.2758782 3.0306866
-0.51935619 -3.517391 2.6724787
-1.1926347 -8.0963278 4.8946438
-1.0876173 -7.4102836 3.5497622
-0.48441616 -3.3085847 1.2529439
-0.48754156 -3.3380051 0.90434134
-0.90141165 -6.1790252 0.96314549
-0.86044466 -5.912601 0.33469638
-0.20778367 -1.1941397 7.7056665
-0.14965287 -0.89424199 4.3824892
-0.38204956 -2.3785405 7.7485318
-0.36453381 -2.3208942 5.5942864
-0.65103096 -4.2013278 7.8585515
-0.59710306 -3.8890955 5.8514676
-0.96606433 -6.3359561 7.7500906
-0.18386893 -0.81893891 7.7851863
-0.16809566 -1.0191023 4.0142035
-0.33494902 -2.0899267 5.8100591
-0.58332324 -3.7047184 7.8183532
-0.72520626 -4.6530032 7.7729516
-0.63714904 -4.1210456 5.5965137
-1.0741701 -6.9875646 7.7422872
-0.86954141 -5.7841229 5.8277073
-0.48710576 -3.251884 2.733712
-1.2602584 -8.4429464 5.6813779
-1.1328715 -7.6076946 4.1127501
-1.0069547 -6.7783256 2.8569934
-0.4901998 -3.3077655 1.0728328
-0.91959536 -6.2200656 1.2852259
-0.87773252 -5.9512172 0.63300025
-0.49686706 -3.274164 3.0306866
-0.53163099 -3.5155566 2.6724787
-1.1829443 -7.8406243 4.7451863
-1.079065 -7.1775498 3.4427619
-0.49596232 -3.3068736 1.2529439
-0.49847105 -3.3314755 0.90316904
-0.89516044 -5.9897294 0.93689966
-0.8567664 -5.7464976 0.32804585
-0.2118146 -1.1926421 7.7007275
-0.15277344 -0.89371413 4.3824892
-0.39010787 -2.3757195 7.7437596
-0.37263304 -2.3196077 5.5942864
-0.66306674 -4.1824713 7.827827
-0.61067486 -3.8869874 5.8514676
-0.98768079 -6.3293781 7.746253
-0.1868457 -0.81881166 7.7901578
-0.17165197 -1.0185094 4.0142035
-0.34196305 -2.0870421 5.8053665
-0.5941745 -3.6897643 7.7913461
-0.74062252 -4.6452923 7.7644196
-0.65153033 -4.1187963 5.5965137
-1.0980278 -6.980423 7.7386122
-0.88972646 -5.7810526 5.8277073
-0.49904409 -3.2540114 2.7368505
-1.2429714 -8.1326218 5.4785094
-1.1327099 -7.4285269 4.0199986
-1.011784 -6.6510224 2.8064215
-0.50246286 -3.3107769 1.0742428
-0.91335648 -6.0322552 1.2497864
-0.87023556 -5.7610006 0.61601126
-0.50829303 -3.2724094 3.0306866
-0.54328096 -3.5096848 2.6695354
-1.1668777 -7.5552688 4.5779963
-1.0834002 -7.0391688 3.3798201
-0.50750244 -3.3051221 1.2529439
-0.51009703 -3.329715 0.90316904
-0.89284235 -5.8348207 0.91548854
-0.84515375 -5.536046 0.31958157
-0.21583758 -1.1911309 7.6957879
-0.15589216 -0.89317542 4.3824892
-0.39839828 -2.3743434 7.7437596
-0.380411 -2.316365 5.589684
-0.67306238 -4.151762 7.7751584
-0.62468576 -3.8876104 5.8556004
-1.0097685 -6.325892 7.746253
-0.18982385 -0.81867361 7.7951293
-0.17520618 -1.017904 4.0142035
-0.348961 -2.0841336 5.800674
-0.6045748 -3.672631 7.7598372
-0.75599378 -4.6375303 7.7558875
-0.66590363 -4.116497 5.5965137
-1.1223874 -6.9765477 7.7386122
-0.90990067 -5.7779117 5.8277073
-0.51039964 -3.2522495 2.7368505
-1.2280574 -7.8514433 5.2948313
-1.1128694 -7.1312804 3.8646388
-1.0285752 -6.6062236 2.7895641
-0.51401657 -3.3090029 1.0742428
-0.90957987 -5.8688388 1.2190099
-0.87131476 -5.634891 0.60483426
-0.51971275 -3.2706151 3.0306866
-0.55552876 -3.5077672 2.6695354
-1.1589271 -7.3339944 4.4488049
-1.0698372 -6.7932482 3.2665253
-0.51976943 -3.3079956 1.2545874
-0.52171677 -3.3279142 0.90316904
-0.89175248 -5.6946797 0.89614952
-0.85444748 -5.468894 0.31696168
-0.21985266 -1.1896063 7.6908488
-0.15900898 -0.89262587 4.3824892
-0.40668386 -2.3729382 7.7437596
-0.38849428 -2.3150232 5.589684
-0.68559271 -4.1375732 7.7532129
-0.63825226 -3.8854065 5.8556004
-1.0313276 -6.3191657 7.7424164
-0.19280329 -0.81852466 7.8001013
-0.17875826 -1.0172862 4.0142035
-0.35623384 -2.0829029 5.800674
-0.61558515 -3.6597648 7.7373314
-0.77131993 -4.6297188 7.7473564
-0.68076044 -4.1171203 5.6005034
-1.146183 -6.9692421 7.7349367
-0.93006378 -5.7747002 5.8277073
-0.52236593 -3.2542908 2.7399888
-1.2032686 -7.5209246 5.0782557
-1.0965545 -6.8692613 3.7278295
-1.0268357 -6.4469337 2.7258811
-0.52556407 -3.3071883 1.0742428
-0.90698165 -5.7200785 1.1910312
-0.86841166 -5.4891701 0.591869
-0.5311262 -3.2687812 3.0306866
-0.56776971 -3.5058064 2.6695354
-1.1515094 -7.1256351 4.3272119
-1.0581795 -6.5699143 3.1637208
-0.5313133 -3.3061612 1.2545874
-0.53256071 -3.3212738 0.90199673
-0.88812894 -5.5448403 0.87542909
-0.84830254 -5.3080115 0.31051266
-0.22342728 -1.1857775 7.6710916
-0.16212384 -0.89206535 4.3824892
-0.4152219 -2.3729744 7.7485318
-0.39624265 -2.311727 5.5850811
-0.70043123 -4.1375165 7.7576017
-0.65181094 -3.8831549 5.8556004
-1.0533793 -6.315527 7.7424164
-0.19565931 -0.81784666 7.8001013
-0.18208601 -1.0154189 4.0093646
-0.36350235 -2.0816467 5.800674
-0.62835634 -3.6575935 7.7373314
-0.78703827 -4.6244268 7.7430902
-0.69512773 -4.1147189 5.6005034
-1.1705031 -6.9651985 7.7349367
-0.95079499 -5.7749376 5.831212
-0.53372228 -3.2524476 2.7399888
-1.1957635 -7.310349 4.9411821
-1.0898421 -6.6773977 3.6281211
-1.0157999 -6.2374067 2.6415946
-0.53710508 -3.3053336 1.0742428
-0.89628029 -5.52777 1.1546592
-0.87086487 -5.3828683 0.58248031
-0.54314488 -3.2705905 3.0340123
-0.5800038 -3.5038033 2.6695354
-1.1447594 -6.9301805 4.2132192
-1.0435015 -6.3377914 3.05672
-0.54361629 -3.3089461 1.256231
-0.54415083 -3.3193946 0.90199673
-0.88026929 -5.3755493 0.851946
-0.85393554 -5.2261291 0.30728817
-0.22800544 -1.1872795 7.6859097
-0.16523676 -0.89149398 4.3824892
-0.42376515 -2.3729801 7.753304
-0.40430966 -2.3103299 5.5850811
-0.71323729 -4.1256065 7.740046
-0.6653617 -3.8808558 5.8556004
-1.0748798 -6.3086519 7.7385788
-0.19863945 -0.81767654 7.8050723
-0.1854029 -1.0135407 4.0045252
-0.37076643 -2.0803652 5.800674
-0.6411199 -3.6553781 7.7373314
-0.80228251 -4.6165123 7.7345581
-0.70948654 -4.112267 5.6005034
-1.1948092 -6.9610705 7.7349367
-0.9709475 -5.7715836 5.831212
-0.54571599 -3.2544036 2.7431273
-1.1812881 -7.066927 4.7821774
-1.080346 -6.4769282 3.5237751
-1.0124481 -6.0829134 2.5797846
-0.5486396 -3.3034387 1.0742428
-0.90753883 -5.4761462 1.1453329
-0.85552424 -5.173439 0.563703
-0.55455804 -3.2686749 3.0340123
-0.59155679 -3.497772 2.6665921
-1.1316372 -6.7051063 4.0814934
-1.0272163 -6.1058531 2.9497194
-0.55516332 -3.3070283 1.256231
-0.5557344 -3.3174748 0.90199673
-0.88676828 -5.2991819 0.84158581
-0.85407037 -5.114707 0.30285448
-0.23199898 -1.1857139 7.6809702
-0.16834764 -0.89091176 4.3824892
-0.4323135 -2.3729551 7.7580757
-0.41237175 -2.3089044 5.5850811
-0.72846669 -4.127809 7.7488246
-0.67938966 -3.8812814 5.8597336
-1.0963451 -6.3017035 7.7347412
-0.20162079 -0.81749558 7.8100438
-0.18893969 -1.0128874 4.0045252
-0.37802604 -2.0790582 5.800674
-0.65387565 -3.6531179 7.7373314
-0.81793666 -4.6111155 7.7302923
-0.72383666 -4.1097655 5.6005034
-1.2191005 -6.9568572 7.7349367
-0.99108815 -5.7681589 5.831212
-0.55772984 -3.2563152 2.7462659
-1.1714624 -6.8607926 4.6478448
-1.0716964 -6.2897096 3.4263854
-1.004922 -5.9102407 2.5104823
-0.56096989 -3.3062329 1.0756528
-0.90696728 -5.3567052 1.1229501
-0.86694056 -5.1311383 0.56012636
-0.56660187 -3.2703981 3.0373375
-0.60376269 -3.4956856 2.6665921
-1.1067066 -6.4207377 3.9143038
-1.0323828 -6.0082984 2.9056602
-0.56750166 -3.3097246 1.2578745
-0.56731111 -3.3155148 0.90199673
-0.8844012 -5.1740222 0.82431883
-0.85259777 -4.9984241 0.29821929
-0.2353759 -1.1810869 7.6562738
-0.17164937 -0.89131844 4.3873839
-0.44059405 -2.3714316 7.7580757
-0.42007858 -2.3055294 5.5804791
-0.74244642 -4.1228838 7.7444353
-0.69293374 -3.8788865 5.8597336
-1.1183355 -6.2978382 7.7347412
-0.20447315 -0.81678677 7.8100438
-0.19247417 -1.0122217 4.0045252
-0.38559577 -2.0794227 5.8053665
-0.66662341 -3.6508131 7.7373314
-0.83356297 -4.6056662 7.7260261
-0.73817801 -4.107214 5.6005034
-1.2433771 -6.9525595 7.7349367
-1.0112168 -5.7646646 5.831212
-0.56976366 -3.2581828 2.7494044
-1.1580582 -6.6424589 4.5052891
-1.06555 -6.1244531 3.34059
-0.99778938 -5.7468319 2.4449263
-0.57250738 -3.3042548 1.0756528
-0.90641022 -5.2421775 1.1014998
-0.86621708 -5.0201168 0.55029064
-0.5786646 -3.2720771 3.040663
-0.61525929 -3.4895761 2.6636491
-1.1081941 -6.2979589 3.8433747
-1.0227655 -5.830318 2.8238361
-0.57905132 -3.3077233 1.2578745
-0.57888097 -3.3135142 0.90199673
-0.88457704 -5.0684586 0.80981451
-0.85203856 -4.8920584 0.29398713
-0.17557468 -0.86578786 5.6163602
-0.1747596 -0.89071387 4.3873839
-0.44998088 -2.3757458 7.7771645
-0.42812383 -2.3040488 5.5804791
-0.75683343 -4.1202669 7.7444353
-0.70646936 -3.8764439 5.8597336
-1.1397407 -6.2907424 7.7309036
-0.20745498 -0.81658453 7.8150153
-0.19624573 -1.0127776 4.0093646
-0.39285195 -2.0780642 5.8053665
-0.67936307 -3.648464 7.7373314
-0.84963465 -4.6027284 7.7260261
-0.75251043 -4.1046119 5.6005034
-1.26703 -6.9448419 7.7312617
-1.0313331 -5.7610993 5.831212
-0.58181733 -3.2600062 2.752543
-1.1424115 -6.4201875 4.3599911
-1.0536158 -5.9331493 3.2408814
-0.9951914 -5.6154995 2.3924813
-0.58487338 -3.3069599 1.0770628
-0.90506476 -5.1277189 1.0800495
-0.86732101 -4.9238782 0.54179615
-0.59008271 -3.2700374 3.040663
-0.6274364 -3.487407 2.6636491
-1.0996954 -6.1243348 3.7420475
-1.0167173 -5.679285 2.7546005
-0.59059393 -3.3056819 1.2578745
-0.59044379 -3.3114736 0.90199673
-0.88315839 -4.9580827 0.79461956
-0.84200335 -4.7365713 0.28773966
-0.17906809 -0.86745244 5.6311784
-0.17806756 -0.89109683 4.3922796
-0.46789405 -2.4239917 7.9394116
-0.43652752 -2.3044596 5.5850811
-0.76988834 -4.110538 7.7312675
-0.72051072 -3.8767211 5.8638663
-1.1616925 -6.2867255 7.7309036
-0.21030413 -0.81585544 7.8150153
-0.19977978 -1.0120864 4.0093646
-0.40042993 -2.0783744 5.8100591
-0.69209445 -3.6460702 7.7373314
-0.86521351 -4.5971713 7.7217603
-0.7668336 -4.1019602 5.6005034
-1.2912643 -6.9403768 7.7312617
-1.0514368 -5.7574644 5.831212
-0.59389049 -3.2617843 2.755681
-1.1379257 -6.2680502 4.2612987
-1.0490471 -5.7899528 3.1666799
-0.98096484 -5.424952 2.3156869
-0.5964132 -3.3048983 1.0770628
-0.90380234 -5.0181704 1.0595318
-0.86335868 -4.8031859 0.53106624
-0.60216963 -3.2716296 3.0439887
-0.63960594 -3.4851956 2.6636491
-1.0876685 -5.938128 3.6331208
-1.0161507 -5.5640845 2.7021492
-0.60212928 -3.3036003 1.2578745
-0.6019994 -3.3093922 0.90199673
-0.88098037 -4.8477802 0.77942461
-0.8505078 -4.6893616 0.28592592
-0.18193489 -0.86606175 5.6262388
-0.18117699 -0.89046979 4.3922796
-0.47606438 -2.4208791 7.9346399
-0.4445689 -2.3029218 5.5850811
-0.78288454 -4.1007681 7.7181001
-0.73403859 -3.8741825 5.8638663
-1.1836302 -6.2826324 7.7309036
-0.21315069 -0.81511641 7.8150153
-0.20355941 -1.0126151 4.0142035
-0.40768236 -2.0769639 5.8100591
-0.70481741 -3.6436322 7.7373314
-0.88076401 -4.5915618 7.717494
-0.78114742 -4.0992589 5.6005034
-1.3148512 -6.932497 7.7275872
-1.0721806 -5.7572651 5.8347163
-0.60527265 -3.2596912 2.755681
-1.1209726 -6.0543513 4.1214838
-1.035442 -5.6033015 3.0692904
-0.9780333 -5.3029599 2.266988
-0.60794586 -3.3027961 1.0770628
-0.90178633 -4.9086943 1.0390142
-0.86036104 -4.6923804 0.52123052
-0.61358607 -3.2695079 3.0439887
-0.65102416 -3.4789693 2.660706
-1.0791043 -5.7775068 3.5393932
-1.0114685 -5.4311113 2.6413057
-0.61365736 -3.3014781 1.2578745
-0.61354768 -3.3072708 0.90199673
-0.87894565 -4.7424235 0.76492035
-0.84778839 -4.5831995 0.28169376
-0.18479416 -0.86466163 5.6212997
-0.18449104 -0.89082897 4.3971748
-0.48685798 -2.4309115 7.9728155
-0.45298207 -2.3032732 5.589684
-0.79627937 -4.0933084 7.7093225
-0.74755752 -3.8715966 5.8638663
-1.204949 -6.2753143 7.727066
-0.21613203 -0.8148824 7.8199873
-0.20709285 -1.0118984 4.0142035
-0.41526827 -2.0772204 5.8147521
-0.71753174 -3.6411495 7.7373314
-0.89678615 -4.5884595 7.717494
-0.79545176 -4.0965071 5.6005034
-1.3390421 -6.927865 7.7275872
-1.0922707 -5.7534876 5.8347163
-0.61737144 -3.2613831 2.7588196
-1.1149523 -5.9065914 4.0255327
-1.0279286 -5.455997 2.99277
-0.98111653 -5.217505 2.2332735
-0.61947101 -3.3006539 1.0770628
-0.89992177 -4.8041234 1.0194292
-0.85293955 -4.5620747 0.50960642
-0.62499511 -3.2673461 3.0439887
-0.66316408 -3.4766755 2.660706
-1.0670136 -5.6043162 3.4380662
-1.0067173 -5.3026996 2.5825603
-0.62517798 -3.2993162 1.2578745
-0.6259917 -3.3098845 0.90316904
-0.87342787 -4.6225429 0.748344
-0.84804189 -4.4967532 0.27826774
-0.18830743 -0.86628884 5.6361175
-0.1878098 -0.89117581 4.40207
-0.49563885 -2.4306598 7.9775877
-0.46101925 -2.3016779 5.589684
-0.80916607 -4.083456 7.6961551
-0.76052409 -3.8662024 5.8597336
-1.2268466 -6.27107 7.727066
-0.21911432 -0.81463754 7.8249583
-0.21036717 -1.0099388 4.0093646
-0.42251658 -2.0757582 5.8147521
-0.73023736 -3.6386228 7.7373314
-0.91228819 -4.5827432 7.7132277
-0.80974638 -4.0937052 5.6005034
-1.3632168 -6.9231486 7.7275872
-1.1123475 -5.7496395 5.8347163
-0.62875205 -3.2592082 2.7588196
-1.114234 -5.7917981 3.9515128
-1.0319306 -5.3740697 2.9510314
-0.96790731 -5.0501385 2.1658442
-0.63098872 -3.2984715 1.0770628
-0.89733839 -4.699626 0.99984419
-0.85394216 -4.4807987 0.50245321
-0.63711083 -3.2688093 3.0473142
-0.67529589 -3.4743392 2.660706
-1.0602961 -5.4651375 3.3570044
-0.99935794 -5.1654758 2.5196185
-0.63669086 -3.2971137 1.2578745
-0.63754153 -3.3076794 0.90316904
-0.87083006 -4.522212 0.73453039
-0.84581631 -4.4005485 0.27443862
-0.19149823 -0.86638492 5.6410565
-0.1911332 -0.89151025 4.4069648
-0.50503081 -2.4332993 7.9919028
-0.46905077 -2.3000546 5.589684
-0.82341498 -4.0806065 7.6961551
-0.77401507 -3.863524 5.8597336
-1.2487293 -6.2667494 7.727066
-0.22209752 -0.81438184 7.8299298
-0.21389124 -1.0091983 4.0093646
-0.43011001 -2.0759604 5.8194447
-0.74206233 -3.6317856 7.7283287
-0.92827934 -4.5795307 7.7132277
-0.82403111 -4.0908542 5.6005034
-1.3740425 -6.8518682 7.6540833
-1.1324106 -5.7457218 5.8347163
-0.64012492 -3.2569938 2.7588196
-1.1062938 -5.6442556 3.8555615
-1.024316 -5.2356658 2.8791485
-0.96331602 -4.9329801 2.1190186
-0.64341652 -3.3009574 1.0784729
-0.89403665 -4.5952058 0.98025918
-0.85248923 -4.3897948 0.49440575
-0.64851719 -3.2665656 3.0473142
-0.68741947 -3.471961 2.660706
-1.0584707 -5.3556781 3.2936749
-0.99193084 -5.0328231 2.458775
-0.64910764 -3.2995045 1.2595179
-0.65002024 -3.3102036 0.90434134
-0.85800886 -4.3733621 0.71381003
-0.84100956 -4.2946105 0.27020648
-0.19486271 -0.86722726 5.6509352
-0.194244 -0.89083761 4.4069648
-0.51413864 -2.4344428 8.0014477
-0.4774738 -2.3003161 5.5942864
-0.83765399 -4.0777078 7.6961551
-0.78749651 -3.8607986 5.8597336
-1.2705967 -6.2623525 7.727066
-0.22522433 -0.81462884 7.8398728
-0.2171475 -1.0072169 4.0045252
-0.43735385 -2.0744464 5.8194447
-0.75429183 -3.6270423 7.7238274
-0.94425929 -4.5762625 7.7132277
-0.83891124 -4.0909042 5.6044936
-1.3871003 -6.7938838 7.5952806
-1.1531619 -5.7452302 5.8382211
-0.6522541 -3.2585561 2.7619581
-1.1014308 -5.517345 3.7733176
-1.0200768 -5.1191049 2.8188598
-0.95791888 -4.8159165 2.0721927
-0.65493506 -3.2986913 1.0784729
-0.89192706 -4.500505 0.96253932
-0.84171361 -4.254889 0.48233458
-0.66065556 -3.2679412 3.0506394
-0.69873571 -3.4655778 2.6577628
-1.0448368 -5.1913605 3.1974142
-0.98626983 -4.9136367 2.4042258
-0.66062111 -3.2972186 1.2595179
-0.66157109 -3.3079143 0.90434134
-0.8674475 -4.3412037 0.70966595
-0.83742815 -4.1985598 0.26637742
-0.19806202 -0.86729908 5.6558743
-0.19757314 -0.89114821 4.4118605
-0.52294701 -2.4340925 8.0062189
-0.48550045 -2.2986352 5.5942864
-0.85139251 -4.0724144 7.6917658
-0.80096847 -3.8580263 5.8597336
-1.2924488 -6.2578793 7.727066
-0.22821105 -0.81435072 7.8448443
-0.22066201 -1.0064528 4.0045252
-0.44459233 -2.0729072 5.8194447
-0.76559573 -3.6179979 7.7103243
-0.96022767 -4.5729384 7.7132277
-0.85318607 -4.0879507 5.6044936
-1.3742476 -6.6130815 7.400497
-1.1732095 -5.7411699 5.8382211
-0.66362464 -3.2562594 2.7619581
-1.0898647 -5.3618536 3.6718831
-1.0132746 -4.9939556 2.7539334
-0.96183974 -4.7489324 2.0459702
-0.66739625 -3.3010867 1.0798829
-0.88916737 -4.4058762 0.94481957
-0.85066003 -4.2226338 0.47965214
-0.67281151 -3.2692726 3.0539651
-0.7108286 -3.4631178 2.6577628
-1.0378568 -5.0652132 3.1239519
-0.9843325 -4.8167849 2.3601668
-0.67307043 -3.2995195 1.2611614
-0.67408365 -3.3103478 0.9055137
-0.85988826 -4.2265382 0.69378024
-0.84114122 -4.1417546 0.26416054
-0.20126425 -0.86735934 5.6608138
-0.20090683 -0.89144635 4.4167557
-0.49352124 -2.2969265 5.5942864
-0.86560267 -4.0694175 7.6917658
-0.81443059 -3.8552067 5.8597336
-1.3156035 -6.259603 7.7347412
-0.23134488 -0.81457436 7.8547873
-0.22390006 -1.0044496 3.9996855
-0.45182544 -2.0713427 5.8194447
-0.77730381 -3.611047 7.7013216
-0.97618431 -4.5695591 7.7132277
-0.86745048 -4.0849481 5.6044936
-1.3538377 -6.4026022 7.172637
-1.1939691 -5.7405319 5.8417258
-0.67577773 -3.2577343 2.7650967
-1.080616 -5.2228913 3.5814147
-1.0074037 -4.877594 2.6936448
-0.95968783 -4.654737 2.0085094
-0.67891514 -3.2987368 1.0798829
-0.88674688 -4.316134 0.9280324
-0.84938645 -4.1415839 0.47249889
-0.68498474 -3.2705586 3.0572906
-0.72291279 -3.4606154 2.6577628
-1.0370501 -4.9729395 3.0707552
-0.98450404 -4.7333384 2.3224018
-0.68458378 -3.2971499 1.2611614
-0.68563491 -3.3079748 0.9055137
-0.86359 -4.1701703 0.6861828
-0.84143388 -4.0702987 0.26133913
-0.20446928 -0.86740768 5.6657529
-0.204245 -0.8917321 4.4216509
-0.50153601 -2.2951899 5.5942864
-0.87980235 -4.0663714 7.6917658
-0.82788283 -3.8523405 5.8597336
-1.3347646 -6.242435 7.7193909
-0.23433498 -0.81427395 7.8597589
-0.22740488 -1.0036619 3.9996855
-0.45905301 -2.0697529 5.8194447
-0.78850716 -3.6019323 7.6878176
-0.99212915 -4.5661235 7.7132277
-0.88234055 -4.0848403 5.6084833
-1.341244 -6.2354345 6.9925542
-1.2132615 -5.7328396 5.8382211
-0.68794906 -3.2591636 2.768235
-1.0661032 -5.0636024 3.4772394
-1.0080223 -4.7960162 2.6519063
-0.95689029 -4.560616 1.9710488
-0.69140917 -3.3010423 1.081293
-0.88270545 -4.2216554 0.91031265
-0.85061014 -4.0752201 0.46668684
-0.6971752 -3.2717996 3.0606163
-0.73498821 -3.458071 2.6577628
-1.0329274 -4.8680825 3.0099587
-0.98316544 -4.6455092 2.2825387
-0.69706494 -3.2993603 1.262805
-0.69818074 -3.310317 0.90668601
-0.85567629 -4.0605259 0.67098784
-0.84123802 -3.9988914 0.25851768
-0.20749585 -0.86668867 5.6657529
-0.20735648 -0.89101368 4.4216509
-0.62899494 -2.7852061 9.175355
-0.50954467 -2.2934253 5.5942864
-0.89399129 -4.0632753 7.6917658
-0.84132493 -3.849427 5.8597336
-1.3572278 -6.2408695 7.7232285
-0.23732577 -0.81396258 7.8647308
-0.2306246 -1.0016372 3.9948459
-0.46627501 -2.0681379 5.8194447
-0.79965639 -3.592783 7.6743145
-1.0074992 -4.5600867 7.7089629
-0.89659393 -4.0817351 5.6084833
-1.3195304 -6.0320048 6.7720442
-1.2295126 -5.7111382 5.8206987
-0.70013875 -3.2605481 2.7713735
-1.0539951 -4.920835 3.3840294
-1.0053052 -4.701499 2.6032114
-0.95441556 -4.4711075 1.9354613
-0.70292777 -3.2986088 1.081293
-0.8769933 -4.1224537 0.89166027
-0.85034645 -4.0040269 0.46042773
-0.70938253 -3.2729945 3.0639415
-0.7462005 -3.4515338 2.6548195
-1.0299047 -4.7717452 2.9542289
-0.98122597 -4.5577488 2.2426758
-0.70857763 -3.2969069 1.262805
-0.70973164 -3.3078597 0.90668601
-0.85635048 -3.9945681 0.66200906
-0.84055418 -3.9275362 0.25569627
-0.21070379 -0.866714 5.6706924
-0.21070001 -0.89127517 4.4265456
-0.63971531 -2.7873583 9.1896715
-0.51754713 -2.2916327 5.5942864
-0.90764642 -4.0577927 7.6873765
-0.85536736 -3.8492143 5.8638663
-1.3644701 -6.170372 7.6426411
-0.2404689 -0.81415123 7.8746734
-0.23411956 -1.000826 3.9948459
-0.47310576 -2.0648155 5.8147521
-0.81219268 -3.5899699 7.6743145
-1.0234108 -4.5565419 7.7089629
-0.91149324 -4.081522 5.6124735
-1.3103989 -5.8916812 6.6213622
-1.2387619 -5.6580396 5.7716346
-0.7115159 -3.2580843 2.7713735
-1.0489141 -4.8149858 3.3154926
-1.0028819 -4.6113887 2.5568354
-0.94542581 -4.3544893 1.8886355
-0.71443778 -3.2961349 1.081293
-0.87163854 -4.0281458 0.87394041
-0.84959638 -3.9328871 0.45416865
-0.72160679 -3.2741446 3.0672669
-0.75824404 -3.4489079 2.6548195
-1.0262223 -4.6754885 2.898499
-0.97674447 -4.4611926 2.1986165
-0.72008163 -3.2944136 1.262805
-0.72231025 -3.3101113 0.90785837
-0.86079448 -3.948009 0.65579289
-0.83832002 -3.8513539 0.2526733
-0.21372791 -0.86597323 5.6706924
-0.21380985 -0.89053422 4.4265456
-0.64944112 -2.7851081 9.1896715
-0.52554321 -2.2898121 5.5942864
-0.9218052 -4.0545998 7.6873765
-0.86879843 -3.8462048 5.8638663
-1.3852974 -6.1624446 7.6388035
-0.2434628 -0.81381738 7.8796449
-0.23761167 -1.0000026 3.9948459
-0.48031044 -2.0631516 5.8147521
-0.82471907 -3.5871127 7.6743145
-1.0393099 -4.5529418 7.7089629
-0.92573488 -4.0783153 5.6124735
-1.2920803 -5.7151227 6.4302535
-1.2391318 -5.5666547 5.6840215
-0.72372818 -3.2593806 2.7745121
-1.0467246 -4.725563 3.2579219
-0.99984223 -4.5213542 2.5104597
-0.9486267 -4.2968397 1.8661591
-0.72697163 -3.2983055 1.082703
-0.88358289 -4.0154839 0.87207526
-0.85156584 -3.8763938 0.44925076
-0.73384768 -3.2752495 3.0705926
-0.77027833 -3.4462399 2.6548195
-1.0218806 -4.5793171 2.8427689
-0.96962899 -4.3558645 2.1503615
-0.73157692 -3.2918801 1.262805
-0.73386031 -3.3075697 0.90785837
-0.86385202 -3.8966329 0.64888608
-0.83664399 -3.7801137 0.24985187
-0.21693857 -0.86597556 5.6756315
-0.21691708 -0.88978255 4.4265456
-0.65881479 -2.7813716 9.1848993
-0.53353298 -2.2879636 5.5942864
-0.93595278 -4.0513573 7.6873765
-0.8822189 -3.8431489 5.8638663
-1.3711032 -6.0013351 7.4469285
-0.24645732 -0.81347251 7.8846169
-0.24110089 -0.9991672 3.9948459
-0.48750925 -2.0614624 5.8147521
-0.83674014 -3.5820923 7.6698132
-1.0551963 -4.5492864 7.7089629
-0.93996519 -4.0750594 5.6124735
-1.2801373 -5.5718069 6.2758965
-1.2333696 -5.4509897 5.571876
-0.73595822 -3.2606313 2.7776506
-1.0430051 -4.6321363 3.1976097
-0.99618632 -4.4313974 2.4640834
-0.94229954 -4.1985106 1.8268254
-0.73848039 -3.2957478 1.082703
-0.87185615 -3.8973246 0.84969229
-0.85206574 -3.8150749 0.4438858
-0.74527597 -3.2726679 3.0705926
-0.78140777 -3.4395885 2.6518764
-1.0178339 -4.4874377 2.7895722
-0.96579665 -4.2683477 2.1104984
-0.74410385 -3.2939122 1.2644485
-0.74540138 -3.3049879 0.90785837
-0.86547291 -3.8404536 0.64128858
-0.82899785 -3.6845624 0.24602278
-0.21996006 -0.86521298 5.6756315
-0.22026666 -0.89000827 4.4314413
-0.66886884 -2.7805064 9.1896715
-0.54151618 -2.2860873 5.5942864
-0.95008898 -4.0480657 7.6873765
-0.89690703 -3.8455267 5.8721323
-1.3587008 -5.8528905 7.2704029
-0.24945235 -0.81311667 7.8895879
-0.24458717 -0.99831951 3.9948459
-0.4947021 -2.0597482 5.8147521
-0.84923887 -3.5791497 7.6698132
-1.0704715 -4.5430365 7.7046967
-0.95487159 -4.074687 5.6164637
-1.2710633 -5.4451532 6.1399155
-1.2196224 -5.3041534 5.4281893
-0.74820566 -3.2618361 2.7807887
-1.0405121 -4.546946 3.1427803
-0.99290156 -4.3458414 2.4200263
-0.93735993 -4.1093197 1.7912377
-0.75104547 -3.2978275 1.084113
-0.88000947 -3.8703079 0.84502923
-0.85214818 -3.7538004 0.43852085
-0.75753707 -3.2736843 3.0739181
-0.79340941 -3.4368401 2.6518764
-1.0141268 -4.3998446 2.7389088
-0.95017743 -4.132257 2.0475569
-0.75559717 -3.2912948 1.2644485
-0.75693339 -3.3023658 0.90785837
-0.86671233 -3.7843115 0.63369113
-0.83517247 -3.6524248 0.24481359
-0.22317331 -0.86519217 5.6805706
-0.22337203 -0.88923401 4.4314413
-0.67679912 -2.7709045 9.1658115
-0.54949284 -2.284183 5.5942864
-0.96476907 -4.0470543 7.6917658
-0.90837854 -3.8341577 5.8597336
-1.3438079 -5.6983695 7.0862026
-0.25228915 -0.81224096 7.8895879
-0.2483741 -0.99867934 3.9996855
-0.502298 -2.0596852 5.8194447
-0.86172724 -3.5761635 7.6698132
-1.0863231 -4.5392723 7.7046967
-0.96908915 -4.0713291 5.6164637
-1.2587743 -5.3087358 5.992909
-1.2129787 -5.1922092 5.3195486
-0.75958705 -3.2592044 2.7807887
-1.0364902 -4.4577579 3.0852096
-0.98903191 -4.2603636 2.3759692
-0.94123048 -4.0608611 1.7725074
-0.7625525 -3.2951858 1.084113
-0.87913775 -3.804992 0.83290511
-0.85293269 -3.6974251 0.43360299
-0.76981425 -3.2746549 3.0772438
-0.80447835 -3.4301143 2.6489332
-1.0117867 -4.3207278 2.6933117
-0.95220572 -4.0758815 2.0223801
-0.76815403 -3.2932358 1.2660919
-0.76955867 -3.3044372 0.90903062
-0.8675704 -3.7282078 0.62609363
-0.83661038 -3.6008244 0.24279828
-0.22619203 -0.8644079 5.6805706
-0.2267265 -0.88943547 4.4363365
-0.68574852 -2.7656274 9.1562672
-0.55746281 -2.2822511 5.5942864
-0.97889006 -4.0436621 7.6917658
-0.92570686 -3.847379 5.884531
-1.3293464 -5.5502586 6.909678
-0.25512284 -0.81135535 7.8895879
-0.25247452 -1.0002437 4.0093646
-0.50948453 -2.0579195 5.8194447
-0.87420517 -3.5731337 7.6698132
-1.1021616 -4.5354528 7.7046967
-0.98400283 -4.0708504 5.6204534
-1.251105 -5.1955438 5.8716283
-1.2006282 -5.0595579 5.1898804
-0.77185595 -3.2603207 2.7839272
-1.0318587 -4.3686543 3.0276387
-0.98559457 -4.1792774 2.3342307
-0.94052392 -3.9943752 1.746285
-0.77514797 -3.2971735 1.085523
-0.88118887 -3.7540777 0.82357895
-0.85219795 -3.6362422 0.42823803
-0.78210735 -3.275579 3.080569
-0.81551015 -3.4233534 2.6459901
-1.0079091 -4.2374873 2.6451812
-0.96118772 -4.0504532 2.0118899
-0.78073364 -3.2951295 1.2677355
-0.78108859 -3.3017309 0.90903062
-0.86576915 -3.6625066 0.61711478
-0.83769834 -3.5492587 0.24078298
-0.22940764 -0.86436397 5.6855102
-0.22982985 -0.88863862 4.4363365
-0.69211859 -2.7501891 9.1133194
-0.56542593 -2.2802913 5.5942864
-0.99242735 -4.0378942 7.6873765
-0.93579167 -3.8304565 5.8638663
-1.3055353 -5.3680611 6.6909404
-0.25779113 -0.8099522 7.8846169
-0.25627664 -1.0005739 4.0142035
-0.51708567 -2.0578022 5.8241377
-0.88667238 -3.5700605 7.6698132
-1.1173619 -4.5290456 7.7004309
-0.99892497 -4.0703168 5.6244435
-1.2442714 -5.0890574 5.7576985
-1.194051 -4.9547935 5.0882483
-0.7841419 -3.2613912 2.7870657
-1.0275933 -4.2837048 2.9728096
-0.97953975 -4.089653 2.2878547
-0.94152164 -3.9369631 1.7238085
-0.78665257 -3.2944477 1.085523
-0.88175613 -3.6984172 0.81332016
-0.84989333 -3.5702655 0.42242602
-0.79441637 -3.2764578 3.0838945
-0.82745486 -3.420486 2.6459901
-1.0024508 -4.1501379 2.5945175
-0.95830703 -3.9764786 1.9783211
-0.79223108 -3.2923841 1.2677355
-0.79374456 -3.3037107 0.91020298
-0.86352003 -3.5968642 0.608136
-0.83727205 -3.4928715 0.23856613
-0.23262574 -0.86430824 5.6904492
-0.23318909 -0.8888157 4.4412317
-0.70356154 -2.7549875 9.1371794
-0.5733822 -2.2783036 5.5942864
-1.0065161 -4.0344057 7.6873765
-1.2519712 -5.0480423 7.7112947
-1.3004462 -5.2670054 6.5719771
-0.26028863 -0.80803305 7.8746734
-0.25976771 -0.99967319 4.0142035
-0.52426559 -2.0559847 5.8241377
-0.89912879 -3.5669436 7.6698132
-1.1331644 -4.5251179 7.7004309
-1.0138555 -4.0697293 5.6284337
-1.2350767 -4.9761033 5.6364183
-1.1833669 -4.8362813 4.9725986
-0.79552144 -3.2586341 2.7870657
-1.0207685 -4.1907134 2.912497
-0.97601217 -4.0130353 2.248435
-0.93884802 -3.8660777 1.6957132
-0.79814756 -3.2916815 1.085523
-0.8807897 -3.638025 0.80212867
-0.84947902 -3.5140312 0.41750816
-0.80674106 -3.2772903 3.0872202
-0.8384254 -3.4136515 2.6430471
-0.99639523 -4.0628791 2.543854
-0.9592368 -3.9202075 1.9531444
-0.80483955 -3.2941856 1.2693789
-0.80527192 -3.3009198 0.91020298
-0.861996 -3.5360937 0.59984779
-0.83764398 -3.4413855 0.23655082
-0.23584622 -0.86424041 5.6953888
-0.23629022 -0.88799638 4.4412317
-0.71317399 -2.7525148 9.1371794
-0.58133149 -2.2762883 5.5942864
-1.0200047 -4.0285459 7.6829877
-1.2675238 -5.0354548 7.6988955
-1.2876549 -5.1380711 6.4184771
-0.26410282 -0.81015909 7.9045029
-0.2635763 -0.99997568 4.019043
-0.53187144 -2.0558126 5.8288302
-0.91157424 -3.5637834 7.6698132
-1.1489531 -4.5211349 7.7004309
-1.0287939 -4.0690866 5.6324239
-1.226765 -4.8698506 5.5224881
-1.178748 -4.745594 4.884985
-0.80782777 -3.2596154 2.7902043
-1.0153148 -4.1059413 2.8576679
-0.96452844 -3.9063885 2.1927841
-0.93569112 -3.7952597 1.6676176
-0.80963278 -3.2888756 1.085523
-0.87941253 -3.5776854 0.79093724
-0.8474955 -3.4530072 0.4121432
-0.81908125 -3.2780769 3.0905457
-0.85033619 -3.4107039 2.6430471
-0.98766005 -3.9673474 2.4881241
-0.95869142 -3.8595748 1.9258697
-0.81633347 -3.2913563 1.2693789
-0.81795776 -3.3028066 0.91137528
-0.85173112 -3.4417291 0.58672488
-0.83646834 -3.3850899 0.23433399
-0.23906904 -0.86416066 5.7003279
-0.23938845 -0.88716608 4.4412317
-0.72163916 -2.7456779 9.1228638
-0.58927363 -2.2742453 5.5942864
-1.0340608 -4.024961 7.6829877
-1.2843965 -5.0282726 7.6947627
-1.27793 -5.0248232 6.2841644
-0.26726446 -0.8102442 7.9144454
-0.26706529 -0.99904954 4.019043
-0.53904432 -2.0539434 5.8288302
-0.92400861 -3.5605795 7.6698132
-1.1640764 -4.5145712 7.6961646
-1.0437403 -4.0683894 5.6364136
-1.213529 -4.7472959 5.390182
-1.1639208 -4.616961 4.758821
-0.81920105 -3.2567759 2.7902043
-1.0052102 -4.0050378 2.7918727
-0.96954304 -3.8686225 2.1742337
-0.9320516 -3.7245121 1.6395222
-0.82227117 -3.2906835 1.0869331
-0.87762511 -3.5174005 0.77974582
-0.84268868 -3.3823764 0.40588409
-0.83143669 -3.2788167 3.0938711
-0.86124498 -3.4037962 2.6401038
-0.98460644 -3.8970041 2.4475932
-0.95662516 -3.7945936 1.8964971
-0.82781744 -3.2884867 1.2693789
-0.83066666 -3.3046453 0.91254759
-0.86132699 -3.4291294 0.58534348
-0.83855629 -3.3433828 0.23272175
-0.24229419 -0.86406893 5.705267
-0.24248379 -0.88632512 4.4412317
-0.59770542 -2.2740641 5.5988894
-1.0475003 -4.0190096 7.6785984
-1.3012347 -5.0210352 7.6906295
-1.2706342 -4.9241209 6.1652017
-0.27059937 -0.81082261 7.9293599
-0.27022183 -0.99689817 4.0142035
-0.54621065 -2.0520494 5.8288302
-0.93643171 -3.5573325 7.6698132
-1.1798282 -4.5104799 7.6961646
-1.0586941 -4.0676374 5.6404037
-1.2096659 -4.6642733 5.3019781
-1.1614684 -4.5403152 4.6852255
-0.83152694 -3.2576673 2.7933426
-0.99854207 -3.9204626 2.7370431
-0.96993816 -3.8136969 2.1464078
-0.92907077 -3.65833 1.6132996
-0.83493191 -3.2924426 1.0883431
-0.8742218 -3.45241 0.76762176
-0.8373993 -3.3118219 0.399625
-0.84380728 -3.2795105 3.0971966
-0.8731212 -3.4007692 2.6401038
-0.98749757 -3.8517861 2.4222612
-0.95524186 -3.734071 1.8692224
-0.84046024 -3.2901523 1.2710226
-0.84339833 -3.3064353 0.91371989
-0.86228335 -3.3829145 0.57912743
-0.83913106 -3.2968609 0.23090796
-0.24530888 -0.86321789 5.705267
-0.2458486 -0.88645422 4.4461269
-0.63091958 -2.3342216 7.7771645
-0.60563982 -2.2719638 5.5988894
-1.0615228 -4.0153284 7.6785984
-1.3166069 -5.0082979 7.6782312
-1.2545338 -4.7925253 6.007864
-0.27377033 -0.81088275 7.9393029
-0.27370003 -0.99594879 4.0142035
-0.55337036 -2.0501301 5.8288302
-0.94884342 -3.5540421 7.6698132
-1.1948966 -4.5038133 7.6918988
-1.0736558 -4.0668306 5.6443939
-1.191437 -4.5288782 5.1549716
-1.1575996 -4.4602919 4.6081257
-0.8428933 -3.254745 2.7933426
-1.002805 -3.8805177 2.7123702
-0.96885514 -3.7545276 2.1162636
-0.91985542 -3.5697687 1.5777119
-0.84881043 -3.2987998 1.0911632
-0.87037569 -3.3874872 0.75549769
-0.84647942 -3.2992313 0.39873084
-0.85619271 -3.2801576 3.100522
-0.88498682 -3.3977008 2.6401038
-0.98465931 -3.7857358 2.3842638
-0.95458812 -3.6779983 1.8440458
-0.85193986 -3.2871988 1.2710226
-0.85371697 -3.2987657 0.91254759
-0.86416739 -3.3415291 0.57360196
-0.83939141 -3.2503769 0.22909419
-0.24832059 -0.86235631 5.705267
-0.24894139 -0.88559067 4.4461269
-0.63787973 -2.3276863 7.7628479
-0.6135667 -2.2698359 5.5988894
-1.0755324 -4.0115986 7.6785984
-1.3362561 -5.0118284 7.6906295
-1.2506914 -4.710669 5.9119267
-0.27677211 -0.81042647 7.9442744
-0.27717486 -0.99498737 4.0142035
-0.56052321 -2.0481861 5.8288302
-0.96124363 -3.5507083 7.6698132
-1.2106105 -4.4996147 7.6918988
-1.0886245 -4.065969 5.6483841
-1.1897583 -4.4591808 5.0814681
-1.1413827 -4.3355184 4.4854665
-0.85523832 -3.2555475 2.7964811
-0.9993785 -3.8122776 2.6685066
-0.96737081 -3.6954126 2.0861192
-0.92058575 -3.5216839 1.5589817
-0.86153185 -3.3004582 1.0925732
-0.87476057 -3.3559079 0.74990195
-0.84670055 -3.252882 0.39470711
-0.86954874 -3.2843678 3.107173
-0.89684159 -3.3945909 2.6401038
-0.98247182 -3.7239213 2.3487992
-0.95239919 -3.6175876 1.8167711
-0.8634091 -3.2842047 1.2710226
-0.87386632 -3.3286746 0.92075378
-0.86326003 -3.2905927 0.56669515
-0.83807153 -3.1990983 0.22707887
-0.25154722 -0.86223006 5.7102065
-0.25231045 -0.88569546 4.4510221
-0.64360297 -2.3168163 7.7342162
-0.62148619 -2.2676804 5.5988894
-1.089529 -4.0078197 7.6785984
-1.3493356 -4.9908342 7.665832
-1.2429597 -4.6165199 5.8006392
-0.27977401 -0.80995899 7.9492459
-0.28098816 -0.99522334 4.019043
-0.56766933 -2.046217 5.8288302
-0.97305578 -3.5452321 7.6653118
-1.2263098 -4.4953613 7.6918988
-1.1036003 -4.065052 5.6523738
-1.1822952 -4.369916 4.9859138
-1.1417896 -4.2763796 4.4293938
-0.86759931 -3.2563038 2.7996197
-1.001935 -3.7683558 2.6410921
-0.96662265 -3.640636 2.0582936
-0.92455626 -3.4870818 1.5458705
-0.87795866 -3.31598 1.0982133
-0.87642437 -3.3148413 0.742441
-0.84915125 -3.2162018 0.39157754
-0.88488108 -3.2957368 3.1204751
-0.90868551 -3.3914397 2.6401038
-0.9754082 -3.6455119 2.3032022
-0.95097119 -3.5616221 1.7915945
-0.87608457 -3.2857337 1.2726661
-0.87672579 -3.2927253 0.91254759
-0.86328101 -3.2444892 0.56047904
-0.83640397 -3.1478693 0.22506356
-0.2545554 -0.86134678 5.7102065
-0.25540057 -0.88480937 4.4510221
-0.65087688 -2.3116817 7.7246723
-0.62939805 -2.2654972 5.5988894
-1.1035122 -4.0039921 7.6785984
-1.3555892 -4.9453855 7.603838
-1.2345862 -4.5224829 5.6893516
-0.28295252 -0.80998349 7.9591889
-0.2844604 -0.99423647 4.019043
-0.57480848 -2.0442231 5.8288302
-0.985425 -3.5418139 7.6653118
-1.241994 -4.4910536 7.6918988
-1.1185828 -4.0640798 5.656364
-1.1751205 -4.2840281 4.8940349
-1.1380693 -4.2035217 4.359303
-0.87997591 -3.2570128 2.8027582
-1.00202 -3.7163887 2.6081946
-0.96435225 -3.5816324 2.0281491
-0.92468494 -3.4390638 1.5271401
-0.88828421 -3.3082621 1.0968033
-0.87781233 -3.2738047 0.73498005
-0.85006815 -3.1747341 0.38800094
-0.90226501 -3.3142438 3.1404281
-0.91945851 -3.3843462 2.6371605
-0.97345304 -3.5879998 2.2702708
-0.95035034 -3.5100923 1.7685159
-0.88754857 -3.2826557 1.2726661
-0.879345 -3.2567968 0.90434134
-0.86170077 -3.1936452 0.55357224
-0.83308947 -3.0918679 0.22284672
-0.25778368 -0.86119723 5.7151456
-0.25877371 -0.88488966 4.4559174
-0.65935189 -2.3108313 7.7294445
-0.63730228 -2.2632864 5.5988894
-1.1174821 -4.0001159 7.6785984
-1.3585281 -4.8891091 7.5253119
-1.2255716 -4.4285612 5.578064
-0.28595635 -0.8094933 7.9641604
-0.28792921 -0.99323744 4.019043
-0.58146769 -2.0405447 5.8241377
-0.99778223 -3.5383525 7.6653118
-1.2576631 -4.486691 7.6918988
-1.134382 -4.0659556 5.6643438
-1.1664526 -4.1949782 4.7984805
-1.1338546 -4.1307425 4.2892118
-0.89236796 -3.2576749 2.8058963
-1.0017545 -3.6644673 2.5752969
-0.9616819 -3.5226901 1.9980048
-0.92449009 -3.3910887 1.5084097
-0.89982677 -3.3051412 1.0968033
-0.87892455 -3.2327993 0.72751909
-0.85070598 -3.1332996 0.3844243
-0.92872947 -3.3650618 3.1903105
-0.93126637 -3.3811162 2.6371605
-0.97796839 -3.5554845 2.2525382
-0.94818014 -3.4542339 1.7433392
-0.90025014 -3.2840915 1.2743095
-0.88557434 -3.2349551 0.89965212
-0.85977626 -3.1428521 0.54666543
-0.83729398 -3.0648444 0.22183907
-0.26101398 -0.86103559 5.7200847
-0.26215053 -0.88495725 4.4608126
-0.66741419 -2.3085155 7.7294445
-0.64573485 -2.2629263 5.6034913
-1.1307859 -3.9938867 7.6742101
-1.354225 -4.808495 7.4095888
-1.2159169 -4.3347588 5.4667764
-0.28914019 -0.80949372 7.9741035
-0.2913945 -0.9922263 4.019043
-0.58858693 -2.0385027 5.8241377
-1.0101273 -3.534848 7.6653118
-1.2733169 -4.4822736 7.6918988
-1.1493878 -4.0648704 5.6683335
-1.1544187 -4.0962524 4.6919007
-1.1291459 -4.0580454 4.219121
-0.90477544 -3.2582908 2.8090348
-1.0000223 -3.6085639 2.5396578
-0.95979363 -3.4680803 1.9701792
-0.92273659 -3.3386886 1.4878064
-0.88966113 -3.2233696 1.0728328
-0.87976128 -3.1918263 0.72005814
-0.84974343 -3.0870984 0.38040057
-0.94851786 -3.3905652 3.2169144
-0.94306308 -3.377845 2.6371605
-0.97879535 -3.5105255 2.2272067
-0.94563162 -3.3984344 1.7181625
-0.90665096 -3.2627301 1.2677355
-0.89166194 -3.2131097 0.89496285
-0.85883135 -3.0968845 0.54044932
-0.83865309 -3.0281999 0.22042835
-0.26424631 -0.86086202 5.7250242
-0.26553091 -0.88501179 4.4657078
-0.67504865 -2.3047392 7.7246723
-0.65363002 -2.2606585 5.6034913
-1.1447202 -3.9899151 7.6742101
-1.3362461 -4.6819711 7.2236066
-1.2073752 -4.2472453 5.3631635
-0.29214579 -0.80898058 7.979075
-0.29449755 -0.98999846 4.0142035
-0.59569901 -2.0364356 5.8241377
-1.0218545 -3.5292096 7.6608105
-1.2889552 -4.4778013 7.6918988
-1.1643999 -4.0637302 5.6723237
-1.1491586 -4.0237427 4.6147227
-1.1239438 -3.9854321 4.1490297
-0.91719806 -3.2588594 2.8121734
-0.99904293 -3.5567439 2.5067604
-0.95873243 -3.4177916 1.9446723
-0.91437578 -3.2640224 1.4578379
-0.89444512 -3.1971459 1.0657825
-0.87900108 -3.1461563 0.71166456
-0.84980726 -3.0457394 0.37682396
-1.0061806 -3.5488813 3.3665621
-0.95594883 -3.3784218 2.6401038
-0.97932035 -3.4656038 2.2018747
-0.94147348 -3.3383274 1.6908879
-0.91803449 -3.2595453 1.2677355
-0.89102745 -3.167866 0.88441193
-0.85891587 -3.0557292 0.53492385
-0.84111714 -2.9963942 0.21921916
-0.26748061 -0.86067623 5.7299633
-0.26891491 -0.88505369 4.470603
-0.68308955 -2.3023689 7.7246723
-0.6615172 -2.258363 5.6034913
-1.1586406 -3.9858952 7.6742101
-1.3283458 -4.5934772 7.0954857
-1.198238 -4.1598454 5.259551
-0.29533479 -0.80895686 7.9890184
-0.29795152 -0.98896444 4.0142035
-0.60280389 -2.034344 5.8241377
-1.0341676 -3.5256212 7.6608105
-1.3045779 -4.4732747 7.6918988
-1.1802583 -4.0654287 5.6803041
-1.1386943 -3.9350369 4.5191684
-1.1162887 -3.9060473 4.0719299
-0.92963576 -3.2593811 2.8153119
-0.99771398 -3.5049746 2.4738624
-0.95612055 -3.3632927 1.9168466
-0.919433 -3.2385125 1.4484727
-0.89382279 -3.152468 1.0530922
-0.87659454 -3.0958047 0.70233834
-0.84959275 -3.0044179 0.37324733
-1.0257796 -3.5704675 3.3898406
-0.96773589 -3.3750644 2.6401038
-0.9783572 -3.4165781 2.1740098
-0.93690735 -3.2782912 1.6636133
-0.90866989 -3.1836677 1.2414393
-0.89275295 -3.1320155 0.8762058
-0.85736722 -3.0098488 0.52870774
-0.84200227 -2.9598026 0.21780844
-0.27071685 -0.8604784 5.7349029
-0.27230242 -0.88508272 4.4754982
-0.69112217 -2.2999704 7.7246723
-0.66995221 -2.2579134 5.6080937
-1.1718704 -3.9795289 7.6698208
-1.3143055 -4.4861932 6.9384332
-1.1885053 -4.0725613 5.1559381
-0.29852715 -0.80892074 7.998961
-0.30103475 -0.98671621 4.0093646
-0.60990143 -2.0322273 5.8241377
-1.046468 -3.5219898 7.6608105
-1.3201845 -4.4686937 7.6918988
-1.1944422 -4.0612841 5.6803041
-1.1371627 -3.8789864 4.4603658
-1.1100771 -3.8336165 4.0018392
-0.94100738 -3.2561164 2.8153119
-0.99603617 -3.4532588 2.4409649
-0.95436645 -3.3131108 1.8913399
-0.92175972 -3.2040968 1.4353615
-0.89422417 -3.1124444 1.0418121
-0.87384737 -3.0455089 0.69301218
-0.84772855 -2.9583485 0.36922362
-1.0476286 -3.5991299 3.4197702
-0.98176658 -3.3794291 2.6459901
-0.97706372 -3.3676014 2.1461449
-0.93067133 -3.213969 1.6342405
-0.911906 -3.1532588 1.2315784
-0.88614666 -3.0681732 0.86096561
-0.85688204 -2.9687753 0.52318233
-0.84264237 -2.9232423 0.21639773
-0.2739549 -0.86026841 5.7398415
-0.27569339 -0.88509887 4.4803934
-0.69871169 -2.2961159 7.7199001
-0.67782974 -2.2555611 5.6080937
-1.1857544 -3.9754138 7.6698208
-1.3059382 -4.4006467 6.814445
-1.1781784 -3.9853978 5.0523257
-0.30153593 -0.80837291 8.003933
-0.30410594 -0.98445851 4.0045252
-0.61699152 -2.030086 5.8241377
-1.0587558 -3.5183156 7.6608105
-1.3365229 -4.466557 7.6961646
-1.2060302 -4.0484262 5.6683335
-1.1333237 -3.8164954 4.3942127
-1.0983545 -3.7441676 3.9142253
-0.95346129 -3.2565467 2.8184502
-0.99400955 -3.4015982 2.4080672
-0.95351475 -3.2672353 1.8681519
-0.92385769 -3.1697047 1.4222503
-0.8943572 -3.0724571 1.0305318
-0.87075979 -2.99527 0.6836859
-0.84694165 -2.9171114 0.36564696
-1.0601857 -3.5954511 3.4197702
-0.99355698 -3.3759816 2.6459901
-0.9754405 -3.318676 2.1182799
-0.93166363 -3.1758609 1.6174561
-0.90963006 -3.1047397 1.2151432
-0.88456583 -3.0230763 0.85041475
-0.85612071 -2.9277415 0.51765686
-0.84303772 -2.886714 0.21498701
-0.27743348 -0.86078578 5.7497206
-0.27878129 -0.88413113 4.4803934
-0.70672238 -2.293663 7.7199001
-0.68513006 -2.251312 5.6034913
-1.1989312 -3.9689579 7.6654315
-1.2913194 -4.2963495 6.6615252
-1.161741 -3.8799331 4.9256883
-0.30454454 -0.80781406 8.0089045
-0.30754048 -0.98339105 4.0045252
-0.62458169 -2.0295689 5.8288302
-1.0710304 -3.5145981 7.6608105
-1.3475676 -4.4468889 7.6705694
-1.2123208 -4.0182285 5.6324239
-1.1290624 -3.7540791 4.3280592
-1.0982113 -3.6958702 3.8686662
-0.96592975 -3.2569306 2.8215888
-0.99282151 -3.3540039 2.3779113
-0.95235467 -3.2214067 1.8449639
-0.9244141 -3.1308911 1.407266
-0.89422208 -3.0325072 1.0192515
-0.86316913 -2.9309545 0.6715619
-0.84587741 -2.8759165 0.36207035
-1.0513582 -3.5201764 3.3532603
-1.0041806 -3.368619 2.6430471
-0.97225761 -3.2656722 2.0878818
-0.93369418 -3.1421361 1.6027697
-0.90971375 -3.0653296 1.2019951
-0.87991863 -2.9687076 0.83751923
-0.85508353 -2.8867505 0.51213139
-0.84318835 -2.8502188 0.2135763
-0.2806778 -0.8605507 5.7546597
-0.28217569 -0.88412255 4.4852891
-0.71472448 -2.291182 7.7199001
-0.69355994 -2.2507739 5.6080937
-1.2127781 -3.9647486 7.6654315
-1.2866418 -4.2272058 6.5623345
-1.156674 -3.814508 4.8489375
-0.30755287 -0.80724394 8.013875
-0.31059161 -0.98111314 3.9996855
-0.63166243 -2.0273764 5.8288302
-1.0832921 -3.5108383 7.6608105
-1.3546655 -4.414732 7.6236439
-1.2052081 -3.9448109 5.5366631
-1.1243796 -3.6917405 4.2619066
-1.0884944 -3.6168857 3.7915664
-0.97841251 -3.2572668 2.8247273
-0.99131346 -3.3064601 2.3477552
-0.95088643 -3.1756265 1.8217759
-0.92338258 -3.0876715 1.3904088
-0.89381909 -2.9925959 1.0079713
-0.8663739 -2.9043872 0.66689879
-0.84595788 -2.8395376 0.35894081
-1.0517479 -3.4771726 3.3166795
-0.99840909 -3.3070512 2.5988996
-0.96871686 -3.2127316 2.0574837
-0.93550068 -3.1084359 1.5880834
-0.90681493 -3.0169127 1.18556
-0.877698 -2.9237199 0.82696843
-0.85377079 -2.8458023 0.50660598
-0.84309453 -2.8137579 0.21216558
-0.28416765 -0.86104119 5.7645383
-0.28526014 -0.88313216 4.4852891
-0.72271776 -2.2886732 7.7199001
-0.70141238 -2.2483392 5.6080937
-1.2259017 -3.9582031 7.6610427
-1.2740378 -4.1339455 6.4259477
-1.1596327 -3.7767429 4.8067255
-0.31056097 -0.80666262 8.0188475
-0.31401443 -0.98002303 3.9996855
-0.63873541 -2.0251591 5.8288302
-1.0955406 -3.5070355 7.6608105
-1.3576864 -4.3701272 7.5553889
-1.214518 -3.9261866 5.5167131
-1.1182762 -3.6262405 4.1920786
-1.0865573 -3.5653052 3.7425027
-0.9909094 -3.2575555 2.8278658
-0.99070054 -3.2629688 2.3203404
-0.94911027 -3.1298962 1.7985879
-0.92071694 -3.0400605 1.3716784
-0.89175951 -2.9481332 0.99528092
-0.86514187 -2.8637266 0.65943784
-0.84579474 -2.8031936 0.35581124
-1.0518504 -3.4342096 3.2800992
-1.0075831 -3.295815 2.5930133
-0.96355957 -3.1557331 2.0245523
-0.9344371 -3.0660791 1.5692009
-0.90496445 -2.9730711 1.1707684
-0.87658793 -2.8834348 0.81758988
-0.85362226 -2.8096373 0.50177127
-0.84275657 -2.777333 0.21075487
-0.28741792 -0.86078089 5.7694774
-0.2883411 -0.8821311 4.4852891
-0.73024774 -2.2847147 7.7151279
-0.70925623 -2.2458773 5.6080937
-1.2397109 -3.9538999 7.6610427
-1.2675046 -4.0623164 6.3226237
-1.157584 -3.7237 4.7453251
-0.31376266 -0.80656677 8.0287905
-0.31743342 -0.97892094 3.9996855
-0.64580065 -2.0229173 5.8288302
-1.1071194 -3.5011144 7.6563091
-1.3502396 -4.2932129 7.4316764
-1.2057008 -3.8500347 5.4169626
-1.119813 -3.5867181 4.1516519
-1.083222 -3.5103755 3.6899345
-1.0045658 -3.2615163 2.8341424
-0.98856753 -3.2155263 2.2901845
-0.94702667 -3.0842175 1.7753999
-0.91908962 -2.9969387 1.3548211
-0.89080566 -2.9083087 0.98400068
-0.86507362 -2.8278074 0.65290946
-0.84538841 -2.7668858 0.35268167
-1.0516659 -3.3912888 3.2435184
-1.0035433 -3.2420816 2.5547521
-0.95801634 -3.0988102 1.9916209
-0.93442762 -3.0281048 1.5524164
-0.8972556 -2.9112294 1.1494029
-0.8752073 -2.8431928 0.80821133
-0.85323179 -2.7735085 0.49693647
-0.84217483 -2.7409453 0.20934415
-0.29066986 -0.86050838 5.7744169
-0.2917386 -0.88208574 4.4901838
-0.73775905 -2.2807317 7.7103562
-0.71709144 -2.2433877 5.6080937
-1.2527806 -3.9472659 7.6566534
-1.2587917 -3.9854169 6.2110338
-1.1571038 -3.6768332 4.6915998
-0.31677181 -0.80596244 8.033761
-0.32084858 -0.97780693 3.9996855
-0.65285802 -2.0206506 5.8288302
-1.1193337 -3.4972284 7.6563091
-1.3327786 -4.1865835 7.256773
-1.2009202 -3.7883554 5.3371615
-1.1170007 -3.5342994 4.0965242
-1.0795166 -3.455513 3.6373661
-1.0182621 -3.2654216 2.8404195
-0.9861154 -3.1681383 2.2600281
-0.94332069 -3.0343618 1.7498931
-0.91717261 -2.9538655 1.3379638
-0.88958466 -2.8685272 0.97272044
-0.86476552 -2.7919245 0.64638114
-0.84621072 -2.7353728 0.34999922
-1.0511948 -3.3484113 3.206938
-1.0039756 -3.2038453 2.5282636
-0.95981359 -3.0666494 1.9738886
-0.9341647 -2.9901686 1.535632
-0.9031924 -2.894556 1.1444724
-0.87355673 -2.8029966 0.79883277
-0.85259956 -2.7374167 0.4921017
-0.83986533 -2.699825 0.2077319
-0.29392335 -0.86022365 5.7793555
-0.29513931 -0.88202751 4.495079
-0.74525124 -2.2767241 7.705584
-0.72491801 -2.240871 5.6080937
-1.2665515 -3.9428687 7.6566534
-1.2504148 -3.9113092 6.1035776
-1.1533921 -3.6208534 4.6263623
-0.31997794 -0.80584222 8.043705
-0.32425979 -0.97668099 3.9996855
-0.65990746 -2.0183594 5.8288302
-1.1308637 -3.4912288 7.6518078
-1.3201892 -4.0975065 7.1117315
-1.1948034 -3.7238877 5.2533712
-1.1148692 -3.4851737 4.0450721
-1.076517 -3.40412 3.5883024
