# .PCD v0.7 - Point Cloud Data file format
VERSION 0.7
FIELDS x y z
SIZE 4 4 4
TYPE F F F
COUNT 1 1 1
WIDTH 1446
HEIGHT 1
VIEWPOINT 0 0 0 1 0 0 0
POINTS 1446
DATA ascii
-0.81222069 0.40814632 0.13034403
-0.072160795 0.091545984 11.943818
-0.65082854 0.34982729 4.6976585
-0.8525694 0.45144415 4.6615171
-0.6485247 0.33780029 2.3848221
-0.79937375 0.41294691 2.1792133
-0.95885313 0.49286202 2.0430212
-0.93477505 0.47885936 1.615195
-0.90934163 0.46464625 1.2992463
-0.57422721 0.37660509 11.71485
-1.0849813 0.65398133 11.772332
-1.2208809 0.64287382 5.349885
-0.69423938 0.36135498 2.1825509
-0.9045307 0.4677155 2.1693296
-0.94512767 0.48686281 1.8091755
-0.91907513 0.47204223 1.4428982
-0.90311998 0.46286762 1.1784436
-0.90008968 0.45756033 1.0720384
-0.8738507 0.44365564 0.87260723
-0.86344081 0.43781286 0.71932429
-0.85088068 0.43107882 0.58585554
-0.8445158 0.42749217 0.47074962
-0.82647723 0.41800672 0.36217624
-0.82861733 0.41873178 0.26773736
-0.81777668 0.41290373 0.1751913
-0.89451718 0.4563058 0.97552752
-0.86308843 0.43971348 0.78885585
-0.8621456 0.43886277 0.65410256
-0.85059357 0.43242979 0.52856684
-0.83832258 0.42583135 0.41639778
-0.81498915 0.41362911 0.31114873
-0.8080641 0.40994272 0.21859241
-0.81524718 0.41323778 0.13054556
-0.071865581 0.091833234 11.948818
-0.64892054 0.35172632 4.692719
-0.85098839 0.45441744 4.6615171
-0.64866287 0.3407566 2.3895943
-0.79792744 0.41573474 2.1792133
-0.95925283 0.49730858 2.0474102
-0.93309784 0.48211944 1.615195
-0.90771419 0.46781763 1.2992463
-0.57218778 0.37812793 11.699877
-1.0836025 0.65831894 11.782276
-1.2164093 0.64595217 5.3402061
-0.69297373 0.36377612 2.1825509
-0.90289259 0.47087005 2.1693296
-0.94573671 0.49136162 1.8134414
-0.91742182 0.47524753 1.4428982
-0.90149873 0.46601728 1.1784436
-0.89848703 0.46069944 1.0720384
-0.87229669 0.44670323 0.87260723
-0.86190736 0.44082418 0.71932429
-0.84937078 0.43404633 0.58585554
-0.84714717 0.43254569 0.47262263
-0.82928616 0.42306921 0.36358625
-0.82715064 0.42162168 0.26773736
-0.81633037 0.41575581 0.1751913
-0.89623892 0.4611339 0.97885299
-0.86514324 0.44457111 0.79179901
-0.86060846 0.44186953 0.65410256
-0.84907895 0.43539628 0.52856684
-0.83683103 0.42875504 0.41639778
-0.81786704 0.41868642 0.31232107
-0.81103665 0.41501677 0.21928309
-0.81379974 0.41608098 0.13054556
-0.07154458 0.092083536 11.948818
-0.64700729 0.35361633 4.6877799
-0.849397 0.45738518 4.6615171
-0.65010715 0.34441712 2.3991382
-0.79647136 0.4185175 2.1792133
-0.95963341 0.50176394 2.0517993
-0.93390459 0.48667425 1.619328
-0.90891945 0.47246179 1.3030838
-0.57014465 0.37964115 11.684901
-1.0835698 0.66349119 11.807133
-1.1919875 0.63832235 5.2434173
-0.69169974 0.36619285 2.1825509
-0.90124345 0.47401887 2.1693296
-0.94632578 0.49587056 1.8177074
-0.91842794 0.4798426 1.4468882
-0.90287262 0.47072878 1.1821188
-0.90004098 0.46547136 1.0755429
-0.87419027 0.4515318 0.87574571
-0.86407936 0.44574729 0.72206575
-0.85178792 0.43903819 0.58817434
-0.84563214 0.43550017 0.47262263
-0.82780433 0.42596138 0.36358625
-0.83004254 0.42675251 0.26866996
-0.81487411 0.41860279 0.1751913
-0.89462376 0.46425956 0.97885299
-0.86358613 0.44758832 0.79179901
-0.85906076 0.44487092 0.65410256
-0.84755391 0.43835747 0.52856684
-0.83952439 0.43384156 0.41804129
-0.81640059 0.4215388 0.31232107
-0.80958301 0.41784531 0.21928309
-0.81678265 0.42120898 0.13074709
-0.071271762 0.092404895 11.958817
-0.645769 0.35587266 4.6877799
-0.84779525 0.46034732 4.6615171
-0.65021729 0.34738809 2.4039102
-0.79500562 0.42129517 2.1792133
-0.9621129 0.50734538 2.0605774
-0.93220001 0.48993123 1.619328
-0.91010344 0.4771201 1.3069214
-0.56809801 0.3811447 11.669926
-1.0789803 0.66586781 11.782276
-1.1433042 0.61738604 5.0401616
-0.68889517 0.36779204 2.1778584
-0.89958334 0.47716191 2.1693296
-0.94458908 0.49917084 1.8177074
-0.91941303 0.48445049 1.4508783
-0.90422446 0.47545546 1.1857939
-0.89841074 0.46861026 1.0755429
-0.87260884 0.45458052 0.87574571
-0.86251813 0.44876075 0.72206575
-0.85025018 0.44200879 0.58817434
-0.84410685 0.43844932 0.47262263
-0.8305701 0.4310582 0.36499628
-0.82854784 0.42964733 0.26866996
-0.81340796 0.42144465 0.1751913
-0.89630574 0.46911114 0.98217851
-0.86560053 0.45247275 0.79474217
-0.8575027 0.44786692 0.65410256
-0.85004246 0.44341245 0.53066492
-0.83800489 0.4367694 0.41804129
-0.81923521 0.42663109 0.31349337
-0.80811954 0.42066872 0.21928309
-0.81530738 0.42405754 0.13074709
-0.070973165 0.092689298 11.963818
-0.64452285 0.35812464 4.6877799
-0.84618318 0.46330389 4.6615171
-0.65557039 0.35319746 2.4277701
-0.79353017 0.42406768 2.1792133
-0.96456492 0.51295018 2.0693557
-0.93297046 0.49450031 1.623461
-0.90843242 0.48029405 1.3069214
-0.56557024 0.38231409 11.644968
-1.0752921 0.66878438 11.767361
-1.0881596 0.59251004 4.8078694
-0.68760717 0.37019449 2.1778584
-0.89983165 0.48132613 2.1738307
-0.94514227 0.50369179 1.8219732
-0.92037725 0.48907104 1.4548682
-0.90255922 0.47860891 1.1857939
-0.89992559 0.47340393 1.0790474
-0.87446237 0.45943427 0.87888414
-0.864649 0.45371184 0.7248072
-0.85262531 0.44703114 0.59049314
-0.84667772 0.44354454 0.47449568
-0.82906044 0.43395481 0.36499628
-0.83139592 0.43481347 0.2696026
-0.81193191 0.42428145 0.1751913
-0.8946628 0.47223696 0.98217851
-0.86401588 0.45549148 0.79474217
-0.85974807 0.45286658 0.6566357
-0.84848946 0.44637695 0.53066492
-0.84065497 0.44188917 0.4196848
-0.81774092 0.42948815 0.31349337
-0.80664623 0.42348701 0.21928309
-0.81382215 0.42690089 0.13074709
-0.070697717 0.093009003 11.973818
-0.64326882 0.36037228 4.6877799
-0.84366953 0.46576241 4.6566215
-0.65695637 0.35690957 2.437314
-0.79204506 0.42683503 2.1792133
-0.96698952 0.51857823 2.0781338
-0.93372035 0.49908072 1.6275939
-0.9095785 0.48497033 1.3107588
-0.56423229 0.38428596 11.644968
-1.0715969 0.67168319 11.752446
-1.1092204 0.60901326 4.9094973
-0.68631077 0.37259242 2.1778584
-0.89814603 0.4844642 2.1738307
-0.94567555 0.50822276 1.8262392
-0.92132032 0.49370423 1.4588583
-0.90387255 0.48335543 1.1894691
-0.89826763 0.47654238 1.0790474
-0.87629253 0.46430644 0.88202262
-0.86305994 0.45672727 0.7248072
-0.85105968 0.45000464 0.59049314
-0.8451243 0.44649729 0.47449568
-0.82754058 0.43684611 0.36499628
-0.82987309 0.43771294 0.2696026
-0.8104459 0.42711303 0.1751913
-0.89630473 0.47711167 0.98550397
-0.86598951 0.46040228 0.79768533
-0.85816205 0.45586491 0.6566357
-0.84692615 0.44933602 0.53066492
-0.84327954 0.44703275 0.42132831
-0.81623679 0.43234 0.31349337
-0.80516309 0.42630017 0.21928309
-0.81674314 0.43207526 0.13094862
-0.070420898 0.093327902 11.983816
-0.64200699 0.3626155 4.6877799
-0.84203857 0.46870449 4.6566215
-0.65570652 0.3592006 2.437314
-0.79055035 0.4295972 2.1792133
-0.96727997 0.52308995 2.0825229
-0.9319725 0.50233698 1.6275939
-0.91070312 0.48966053 1.3145963
-0.55932289 0.38379416 11.570093
-1.0683448 0.67484957 11.742504
-1.1070877 0.61288142 4.9094973
-0.68500596 0.37498584 2.1778584
-0.89644945 0.48759636 2.1738307
-0.94618845 0.51276344 1.8305051
-0.92224216 0.49834993 1.4628483
-0.90516371 0.48811692 1.1931442
-0.89974302 0.48135749 1.0825521
-0.87809932 0.46919698 0.88516104
-0.86146045 0.45973709 0.7248072
-0.85339242 0.45505708 0.59281194
-0.84765196 0.4516246 0.4763687
-0.82601064 0.4397321 0.36499628
-0.82834011 0.44060707 0.2696026
-0.80895013 0.42993939 0.1751913
-0.89463383 0.48023742 0.98550397
-0.86793935 0.46533239 0.80062848
-0.86036539 0.46089345 0.6591689
-0.84535253 0.45228961 0.53066492
-0.84171396 0.44997361 0.42132831
-0.81472266 0.43518656 0.31349337
-0.80803847 0.43144059 0.21997377
-0.81522989 0.43492362 0.13094862
-0.070094697 0.093573153 11.983816
-0.6407373 0.36485434 4.6877799
-0.84039736 0.47164091 4.6566215
-0.78904593 0.43235409 2.1792133
-0.96544814 0.52646321 2.0825229
-0.93268573 0.50693119 1.631727
-0.90898836 0.49283651 1.3145963
-0.55892807 0.38640329 11.590059
-1.0650839 0.67800134 11.73256
-0.68369287 0.37737465 2.1778584
-0.89474195 0.4907226 2.1738307
-0.94668144 0.51731408 1.8347712
-0.92049694 0.50156611 1.4628483
-0.90345436 0.49127355 1.1931442
-0.89805734 0.48449522 1.0825521
-0.8764562 0.47225925 0.88516104
-0.86353236 0.46472308 0.72754866
-0.85570019 0.46013129 0.59513074
-0.84607035 0.45458069 0.4763687
-0.82447064 0.44261274 0.36499628
-0.82679707 0.44349581 0.2696026
-0.81183368 0.43511307 0.17563838
-0.89623559 0.48513499 0.98882955
-0.86630976 0.46835926 0.80062848
-0.8587513 0.46389386 0.6591689
-0.84776282 0.45739284 0.53276294
-0.84429479 0.45514992 0.42297181
-0.81319863 0.43802783 0.31349337
-0.8065275 0.43425855 0.21997377
-0.81370682 0.43776664 0.13094862
-0.069719866 0.093744233 11.973818
-0.63945985 0.36708868 4.6877799
-0.84317601 0.47708011 4.681098
-1.0573933 0.5890274 3.9166293
-0.78753191 0.43510574 2.1792133
-0.96360451 0.52983004 2.0825229
-0.93337816 0.51153642 1.63586
-0.91007471 0.49754417 1.3184339
-0.55592048 0.38719288 11.555118
-1.0618138 0.68113863 11.722617
-0.68237144 0.37975889 2.1778584
-0.89302355 0.49384281 2.1738307
-0.94715399 0.52187419 1.8390369
-0.92138141 0.50622737 1.4668382
-0.90470642 0.49605426 1.1968194
-0.89949328 0.48933148 1.0860566
-0.87822235 0.47717422 0.88829952
-0.86190492 0.46773455 0.72754866
-0.85408884 0.46311542 0.59513074
-0.84447843 0.45753127 0.4763687
-0.82292062 0.44548798 0.36499628
-0.82956457 0.44871631 0.2705352
-0.81030989 0.43794423 0.17563838
-0.89453673 0.48826048 0.98882955
-0.86821842 0.47331524 0.80357164
-0.86091232 0.46895084 0.6617021
-0.84616107 0.46034929 0.53276294
-0.84270084 0.4580943 0.42297181
-0.81593585 0.44318378 0.31466568
-0.80500674 0.4370712 0.21997377
-0.81217372 0.44060433 0.13094862
-0.069368452 0.093950428 11.968818
-0.63817453 0.36931857 4.6877799
-0.83708423 0.47749645 4.6566215
-1.0514266 0.59052122 3.9023132
-0.7860083 0.43785208 2.1792133
-0.96174926 0.53319043 2.0825229
-0.93404973 0.51615262 1.6399928
-0.91113937 0.50226551 1.3222713
-0.54630893 0.38330659 11.380409
-1.0589824 0.68455112 11.717646
-1.2449042 0.70634538 5.5483012
-0.68104166 0.38213852 2.1778584
-0.8912943 0.49695706 2.1738307
-0.94760627 0.52644402 1.843303
-0.91960871 0.50944054 1.4668382
-0.90593618 0.50084978 1.2004945
-0.90090632 0.49418366 1.0895611
-0.87655133 0.48023686 0.88829952
-0.86393505 0.47274768 0.73029011
-0.85635376 0.46821919 0.59744954
-0.8428762 0.46047628 0.4763687
-0.82557112 0.45065629 0.36640632
-0.82799321 0.45160931 0.2705352
-0.80877626 0.44077009 0.17563838
-0.89609784 0.49318048 0.99215508
-0.87010294 0.47829026 0.8065148
-0.85927016 0.47195315 0.6617021
-0.84852803 0.46548316 0.53486103
-0.84109664 0.46103308 0.42297181
-0.81438386 0.44602925 0.31466568
-0.80347615 0.43987852 0.21997377
-0.8106308 0.44343668 0.13094862
-0.069016457 0.094155319 11.963818
-0.63688147 0.37154394 4.6877799
-1.4981735 0.86182785 8.3329372
-1.0597492 0.60007358 3.9404888
-0.78447509 0.44059309 2.1792133
-0.96197265 0.53771311 2.0869119
-0.93470037 0.52077973 1.6441258
-0.90938056 0.50544286 1.3222713
-0.54355574 0.38420784 11.35046
-1.0548007 0.68707818 11.697761
-1.2489768 0.71443242 5.5773377
-0.68120533 0.38536346 2.1825509
-0.88955414 0.50006521 2.1738307
-0.95031339 0.53229803 1.8518349
-0.9204554 0.51411706 1.4708283
-0.90714347 0.50565988 1.2041698
-0.90229642 0.49905163 1.0930656
-0.87486964 0.48329371 0.88829952
-0.86227959 0.47576049 0.73029011
-0.85471421 0.47120556 0.59744954
-0.84126365 0.46341565 0.4763687
-0.82399297 0.45353532 0.36640632
-0.83071595 0.45686403 0.27146783
-0.8072328 0.44359055 0.17563838
-0.89437091 0.49630544 0.99215508
-0.86842811 0.48132458 0.8065148
-0.8613885 0.47703829 0.66423523
-0.85086936 0.47063905 0.53695905
-0.83948225 0.46396622 0.42297181
-0.81707692 0.45121905 0.31583801
-0.80627114 0.44507372 0.22066444
-0.8134526 0.4486765 0.13115016
-0.068640366 0.094322123 11.953818
-0.63558066 0.37376481 4.6877799
-1.4872295 0.8624537 8.2888803
-1.0563521 0.60302889 3.9357171
-0.78293234 0.44332877 2.1792133
-0.9600898 0.54106772 2.0869119
-0.93533009 0.52541775 1.6482588
-0.91040671 0.51018131 1.3261089
-0.53728181 0.38257378 11.245635
-1.0506145 0.68958431 11.677874
-1.2486528 0.72004396 5.5870166
-0.679856 0.38773897 2.1825509
-0.88780314 0.50316733 2.1738307
-0.95072043 0.53689474 1.8561009
-0.92128062 0.51880568 1.4748185
-0.90537292 0.50882328 1.2041698
-0.90054893 0.50219816 1.0930656
-0.87657762 0.48823875 0.89143795
-0.86426765 0.48080048 0.73303157
-0.85306412 0.47418621 0.59744954
-0.84369361 0.46860045 0.47824174
-0.82659918 0.45873669 0.36781636
-0.82911617 0.45976099 0.27146783
-0.81003541 0.44881919 0.17608546
-0.89263296 0.49942437 0.99215508
-0.87027103 0.48632491 0.80945796
-0.85971808 0.48004219 0.66423523
-0.84922135 0.47360626 0.53695905
-0.8378576 0.46689373 0.42297181
-0.81974351 0.45643306 0.31701031
-0.80471259 0.44788542 0.22066444
-0.81188142 0.45151326 0.13115016
-0.068310708 0.094561152 11.953818
-0.63360399 0.3755846 4.6828408
-1.511457 0.88357455 8.4406319
-1.0542407 0.60671258 3.9357171
-0.78138012 0.44605902 2.1792133
-0.96027744 0.5455991 2.091301
-0.93593884 0.53006643 1.6523917
-0.91141081 0.51493293 1.3299464
-0.53922117 0.38681111 11.315518
-1.0464236 0.69206971 11.657989
-1.2602575 0.73261291 5.649929
-0.67849845 0.39010972 2.1825509
-0.8860414 0.50626326 2.1738307
-0.95110679 0.54150069 1.8603667
-0.91946405 0.52201837 1.4748185
-0.90654063 0.51365197 1.2078449
-0.90189898 0.50708663 1.0965703
-0.87486798 0.49129561 0.89143795
-0.86258405 0.48381439 0.73303157
-0.85526806 0.47932699 0.5997684
-0.84205282 0.47154266 0.47824174
-0.82499284 0.46161929 0.36781636
-0.83179379 0.46504956 0.27240044
-0.80846381 0.451644 0.17608546
-0.89413619 0.50437182 0.99548054
-0.86856812 0.48935977 0.80945796
-0.86179352 0.48515511 0.66676843
-0.85151899 0.47879225 0.53905708
-0.84033954 0.47212866 0.42461532
-0.81814528 0.45929173 0.31701031
-0.80746281 0.45311514 0.22135513
-0.81030041 0.45434451 0.13115016
-0.068049945 0.094909802 11.968818
-0.63228905 0.377794 4.6828408
-1.5039779 0.88625973 8.4161568
-1.039206 0.60289603 3.8879972
-0.77981836 0.44878381 2.1792133
-0.96252334 0.55132902 2.1000791
-0.93652648 0.53472573 1.6565247
-0.90960783 0.51811123 1.3299464
-0.53483146 0.38648504 11.250628
-1.0417848 0.69423819 11.63313
-1.2652831 0.74145746 5.6838055
-0.67713255 0.39247575 2.1825509
-0.88426882 0.50935304 2.1738307
-0.94921082 0.54481733 1.8603667
-0.92025131 0.52672178 1.4788084
-0.90768582 0.51849496 1.2115201
-0.90012336 0.51023173 1.0965703
-0.87653476 0.49626434 0.89457643
-0.86452967 0.48888081 0.73577309
-0.85358971 0.48230952 0.5997684
-0.84040165 0.47447911 0.47824174
-0.82755458 0.46685332 0.3692264
-0.83016539 0.46795022 0.27240044
-0.81122136 0.45690727 0.17653254
-0.89237016 0.50748986 0.99548054
-0.87036932 0.49438524 0.81240118
-0.86009479 0.48816037 0.66676843
-0.84984249 0.48176169 0.53905708
-0.83868635 0.47505915 0.42461532
-0.81653702 0.46214476 0.31701031
-0.80587626 0.45593095 0.22135513
-0.81305861 0.45962882 0.13135168
-0.067764461 0.095220774 11.978817
-0.63096648 0.3799988 4.6828408
-1.0306532 0.60275084 3.8641372
-0.77993673 0.45248386 2.183816
-0.96266693 0.55588341 2.1044683
-0.93709296 0.53939557 1.6606575
-0.91057324 0.52287954 1.3337839
-0.53301316 0.38800856 11.240644
-1.0380282 0.69697785 11.618217
-1.2626873 0.74586958 5.6838055
-0.67575842 0.39483702 2.1825509
-0.88248545 0.51243657 2.1738307
-0.94956052 0.54943377 1.8646327
-0.92101693 0.53143704 1.4827985
-0.90587044 0.52166027 1.2115201
-0.89833689 0.51337069 1.0965703
-0.87479717 0.49932098 0.89457643
-0.86281788 0.49189565 0.73577309
-0.85190094 0.48528615 0.5997684
-0.84276915 0.4797031 0.48011476
-0.82591987 0.46973917 0.3692264
-0.82852685 0.47084519 0.27240044
-0.81395203 0.46219522 0.17697962
-0.89383239 0.51245904 0.99880606
-0.86863828 0.4974204 0.81240118
-0.85838556 0.49115968 0.66676843
-0.85209602 0.48697737 0.54115516
-0.84112364 0.48032561 0.42625883
-0.81914055 0.46740121 0.31818265
-0.80858135 0.46119475 0.22204581
-0.81144929 0.46246412 0.13135168
-0.067546599 0.095642172 12.003817
-0.62897217 0.38179541 4.6779013
-1.5204653 0.91034091 8.5434322
-1.0182569 0.60027862 3.8259614
-0.77835256 0.45520356 2.183816
-0.96486014 0.56165051 2.1132464
-0.93763822 0.54407597 1.6647905
-0.90874243 0.52605486 1.3337839
-0.53026128 0.38883886 11.210693
-1.0338241 0.69940066 11.59833
-1.2622358 0.75155914 5.6934838
-0.67437607 0.3971934 2.1825509
-0.88069129 0.5155139 2.1738307
-0.94763684 0.55274504 1.8646327
-0.9217608 0.53616399 1.4867885
-0.90697575 0.52652138 1.2151952
-0.89962941 0.51828372 1.1000748
-0.87642241 0.50431299 0.89771485
-0.86472076 0.49698815 0.73851454
-0.85404307 0.49046305 0.6020872
-0.84108949 0.48264202 0.48011476
-0.82843661 0.47500551 0.3706364
-0.82687831 0.47373441 0.27240044
-0.8123337 0.46503362 0.17697962
-0.89527071 0.51744455 1.0021316
-0.86689663 0.50044948 0.81240118
-0.86039984 0.4963071 0.66930163
-0.85039097 0.48994875 0.54115516
-0.8394419 0.48325872 0.42625883
-0.81750405 0.47025767 0.31818265
-0.81125957 0.466483 0.22273649
-0.80983001 0.46529379 0.13135168
-0.067212328 0.095877372 12.003817
-0.62763566 0.38398859 4.6779013
-1.5303534 0.92353636 8.6168604
-1.0174385 0.6045922 3.8307333
-0.77675885 0.45791772 2.183816
-0.9649592 0.56622738 2.1176355
-0.93816221 0.54876661 1.6689235
-0.9096688 0.53083938 1.3376215
-0.52797371 0.38999897 11.190727
-1.0300558 0.70210326 11.583415
-1.2606825 0.75660759 5.6983237
-0.67298549 0.39954501 2.1825509
-0.87888646 0.51858497 2.1738307
-0.94794965 0.55737156 1.8688986
-0.91988361 0.53937829 1.4867885
-0.90513235 0.52968413 1.2151952
-0.89781481 0.5214209 1.1000748
-0.87465668 0.50736922 0.89771485
-0.86659861 0.50209993 0.741256
-0.8523258 0.49344125 0.6020872
-0.84341252 0.48789647 0.4819878
-0.82677352 0.47789437 0.3706364
-0.82521963 0.4766179 0.27240044
-0.81501877 0.47035563 0.1774267
-0.89345902 0.52056646 1.0021316
-0.86863786 0.50550562 0.81534433
-0.85866219 0.49930742 0.66930163
-0.85259998 0.49519369 0.54325318
-0.84183395 0.48855633 0.42790234
-0.81585753 0.47310844 0.31818265
-0.80962628 0.46931198 0.22273649
-0.8082009 0.4681178 0.13135168
-0.066809066 0.095999666 11.988816
-0.62629145 0.38617712 4.6779013
-1.5488662 0.94210482 8.7392416
-1.0242848 0.61351061 3.8641372
-0.77515566 0.46062636 2.183816
-0.96503806 0.57081175 2.1220245
-0.93866479 0.55346751 1.6730564
-0.90781033 0.53401148 1.3376215
-0.52522218 0.390802 11.160777
-1.0267204 0.70509022 11.573473
-1.2591091 0.76165438 5.7031631
-0.67158675 0.40189177 2.1825509
-0.87707096 0.52164966 2.1738307
-0.94824177 0.56200707 1.8731647
-0.92058915 0.54411942 1.4907786
-0.90327787 0.53284037 1.2151952
-0.89906675 0.5263536 1.1035793
-0.87624025 0.51238418 0.90085334
-0.86484069 0.50512189 0.741256
-0.85442406 0.49864635 0.604406
-0.84570897 0.49317306 0.48386082
-0.82924497 0.48319262 0.37204644
-0.82355088 0.47949556 0.27240044
-0.8133719 0.4731977 0.1774267
-0.89485592 0.52557313 1.005457
-0.86686802 0.50853473 0.81534433
-0.86063296 0.50448185 0.67183477
-0.85086626 0.4981668 0.54325318
-0.8441993 0.49387649 0.42954585
-0.81420112 0.47595343 0.31818265
-0.81225872 0.47463372 0.22342718
-0.80656195 0.47093609 0.13135168
-0.066428363 0.096157633 11.978817
-0.62493962 0.38836092 4.6779013
-1.5637957 0.95868415 8.842041
-1.0285258 0.6209408 3.8879972
-0.7752189 0.46433347 2.1884184
-0.96303964 0.57417691 2.1220245
-0.93914604 0.55817866 1.6771894
-0.90869772 0.5388121 1.3414589
-0.52362424 0.39245924 11.155786
-1.0238148 0.70836616 11.568501
-1.2585889 0.76735389 5.7128415
-0.67017978 0.40423357 2.1825509
-0.87337774 0.52358854 2.1693296
-0.94851303 0.56665146 1.8774304
-0.92127275 0.54887199 1.4947685
-0.9043262 0.537723 1.2188703
-0.9002952 0.53130144 1.1070838
-0.87444633 0.51543969 0.90085334
-0.86667544 0.51025927 0.74399745
-0.85267824 0.50162578 0.604406
-0.84398234 0.49612209 0.48386082
-0.82755327 0.48608428 0.37204644
-0.82187212 0.48236734 0.27240044
-0.81171519 0.47603405 0.1774267
-0.89622861 0.5305959 1.0087825
-0.86508763 0.51155752 0.81534433
-0.86257797 0.50967598 0.67436796
-0.85303068 0.50344074 0.54535127
-0.84653777 0.49921909 0.43118936
-0.81672245 0.48126027 0.31935495
-0.810597 0.47746614 0.22342718
-0.8092187 0.47628278 0.13155322
-0.06604737 0.096314117 11.968818
-0.62358016 0.39054 4.6779013
-1.5691007 0.96949035 8.8909931
-1.0301772 0.62685579 3.9023132
-0.77192104 0.46602669 2.183816
-0.96308225 0.57876891 2.1264138
-0.93960583 0.56289989 1.6813223
-0.91231364 0.54526991 1.349134
-0.52179122 0.39393553 11.145802
-1.0160916 0.70827305 11.508842
-1.2569736 0.7724008 5.7176814
-0.66876465 0.40657046 2.1825509
-0.87154478 0.52663398 2.1693296
-0.94876343 0.57130456 1.8816965
-0.92193437 0.55363601 1.4987586
-0.90244371 0.54087639 1.2188703
-0.90149987 0.53626412 1.1105883
-0.87598789 0.52047729 0.90399176
-0.86488909 0.51328146 0.74399745
-0.85473222 0.50685877 0.6067248
-0.84623367 0.50142848 0.48573387
-0.8258515 0.48897004 0.37204644
-0.82441109 0.48773456 0.27333307
-0.81433553 0.48139879 0.17787378
-0.89757717 0.53563464 1.0121081
-0.8667686 0.51664382 0.81828749
-0.86449718 0.5148899 0.67690116
-0.85126817 0.50641531 0.54535127
-0.84478998 0.50217104 0.43118936
-0.81921649 0.4865905 0.32052726
-0.80892545 0.48029274 0.22342718
-0.80755126 0.47910461 0.13155322
-0.065688439 0.096506596 11.963818
-0.62221318 0.39271429 4.6779013
-1.5769424 0.98196042 8.9546318
-1.0317999 0.63278973 3.9166293
-0.7702896 0.46871835 2.183816
-0.96105611 0.58212715 2.1264138
-0.94004399 0.56763113 1.6854552
-0.91315013 0.55010533 1.3529714
-0.51926631 0.39487782 11.120844
-1.0109973 0.70997512 11.479013
-1.2564068 0.7781077 5.7273598
-0.66734141 0.40890244 2.1825509
-0.86970115 0.52967304 2.1693296
-0.94899279 0.57596618 1.8859622
-0.92257386 0.55841124 1.5027486
-0.90345186 0.54577643 1.2225455
-0.90268099 0.54124182 1.1140929
-0.87416577 0.52353191 0.90399176
-0.86668032 0.51844406 0.74673891
-0.85675997 0.51211208 0.6090436
-0.84447819 0.50437933 0.48573387
-0.8241396 0.49184981 0.37204644
-0.82270354 0.49060935 0.27333307
-0.8126502 0.48423842 0.17787378
-0.895702 0.53876442 1.0121081
-0.8649599 0.51966625 0.81828749
-0.86269462 0.51790434 0.67690116
-0.84949523 0.50938374 0.54535127
-0.84708261 0.50754398 0.43283287
-0.81751299 0.48944718 0.32052726
-0.80724394 0.48311347 0.22342718
-0.80587399 0.48192054 0.13155322
-0.065328971 0.096697748 11.958817
-0.62083852 0.39488387 4.6779013
-1.5847156 0.99449688 9.0182686
-1.0384719 0.64188284 3.9500329
-0.7686488 0.47140431 2.183816
-0.96106231 0.58672655 2.1308026
-0.9404605 0.57237214 1.6895882
-0.91396403 0.55495322 1.3568089
-0.51948577 0.39792097 11.155786
-1.0054686 0.71134204 11.444214
-1.2568816 0.78448582 5.7418785
-0.66591001 0.41122937 2.1825509
-0.86784697 0.53270561 2.1693296
-0.94920111 0.58063638 1.8902283
-0.92319125 0.56319767 1.5067385
-0.90443683 0.55069 1.2262206
-0.90383828 0.54623419 1.1175975
-0.87566513 0.52859175 0.90713024
-0.86486536 0.5214662 0.74673891
-0.85496712 0.51509964 0.6090436
-0.8466841 0.50971514 0.48760688
-0.82241774 0.49472359 0.37204644
-0.82519615 0.49600884 0.27426568
-0.81095493 0.48707217 0.17787378
-0.8970086 0.54382366 1.0154335
-0.86659801 0.52477622 0.82123065
-0.86456966 0.52314442 0.6794343
-0.85159612 0.51469362 0.54744929
-0.84934789 0.51293904 0.43447638
-0.81996107 0.49480924 0.32169959
-0.80555272 0.48592833 0.22342718
-0.80418682 0.48473063 0.13155322
-0.064968951 0.096887559 11.953818
-0.61945635 0.39704856 4.6779013
-1.5898392 1.0054663 9.0672216
-1.0552278 0.65734583 4.0216126
-0.76699865 0.47408453 2.183816
-0.96104813 0.59133297 2.1351919
-0.94085544 0.57712311 1.6937212
-0.91475505 0.5598135 1.3606465
-0.51854986 0.40008581 11.165769
-0.9999429 0.71267903 11.409413
-1.2594548 0.79221547 5.7660751
-0.6659354 0.41446355 2.1872437
-0.86598217 0.53573173 2.1693296
-0.94938838 0.58531505 1.8944942
-0.92378646 0.56799525 1.5107286
-0.90539831 0.55561709 1.2298958
-0.90192598 0.54938591 1.1175975
-0.87713975 0.53366852 0.91026872
-0.86661309 0.52665365 0.74948037
-0.85695022 0.52038032 0.6113624
-0.84489965 0.51266754 0.48760688
-0.82478774 0.5000785 0.37345648
-0.8276611 0.5014317 0.27519831
-0.81350988 0.49247897 0.17832085
-0.89510489 0.54695147 1.0154335
-0.86821103 0.52990395 0.82417381
-0.86273825 0.52615917 0.6794343
-0.84979427 0.51766312 0.54744929
-0.84755218 0.51590067 0.43447638
-0.8182289 0.49766842 0.32169959
-0.80385154 0.48873726 0.22342718
-0.80675966 0.49012882 0.13175476
-0.064630359 0.097113751 11.953818
-0.61806661 0.39920846 4.6779013
-1.5949055 1.0164837 9.1161737
-1.0782084 0.67690289 4.1170521
-0.76533908 0.47675899 2.183816
-0.96101332 0.59594649 2.1395807
-0.94122863 0.58188373 1.697854
-0.91552335 0.564686 1.364484
-0.5182876 0.40278208 11.190727
-0.99485272 0.71429735 11.379583
-1.2577435 0.79728013 5.7709146
-0.66448462 0.41678557 2.1872437
-0.86410683 0.5387513 2.1693296
-0.94955468 0.59000218 1.8987602
-0.92435938 0.57280385 1.5147187
-0.90633643 0.56055754 1.2335709
-0.90304196 0.55439687 1.121102
-0.87527156 0.53672701 0.91026872
-0.86476946 0.52967548 0.74948037
-0.85512853 0.52336848 0.6113624
-0.84705985 0.51803243 0.48947993
-0.82303709 0.50295454 0.37345648
-0.82590568 0.5043177 0.27519831
-0.81603694 0.49790949 0.17876793
-0.89636934 0.55203068 1.018759
-0.86635596 0.53293139 0.82417381
-0.86089635 0.52916747 0.6794343
-0.85184985 0.52300102 0.54954737
-0.84977126 0.52132547 0.43611988
-0.81648672 0.50052154 0.32169959
-0.80214065 0.49154025 0.22342718
-0.80504382 0.49294192 0.13175476
-0.064290971 0.097338758 11.953818
-0.6173203 0.4017877 4.6828408
-1.5990573 1.0269982 9.1602306
-1.0985427 0.6950317 4.2029481
-0.7620157 0.47838852 2.1792133
-0.95892721 0.5992974 2.1395807
-0.94157988 0.58665395 1.701987
-0.91354662 0.56787837 1.364484
-0.51755911 0.40512443 11.205702
-0.98976356 0.71588898 11.349754
-1.2475386 0.79692763 5.7370391
-0.66302568 0.41910252 2.1872437
-0.862221 0.54176438 2.1693296
-0.94969964 0.59469742 1.903026
-0.92490995 0.57762331 1.5187087
-0.90725118 0.56551141 1.2372462
-0.90110123 0.55754566 1.121102
-0.87670356 0.54182547 0.91340715
-0.86647326 0.53488749 0.75222182
-0.85329646 0.5263502 0.6113624
-0.84524643 0.52098608 0.48947993
-0.82536101 0.50834012 0.37486652
-0.82832372 0.50977224 0.27613091
-0.81853604 0.50336367 0.17921501
-0.8944369 0.55515629 1.018759
-0.86792576 0.53808218 0.82711697
-0.86270851 0.53443962 0.6819675
-0.85001904 0.52597135 0.54954737
-0.84794635 0.52428854 0.43611988
-0.81473458 0.50336856 0.32169959
-0.80463314 0.49693939 0.22411785
-0.80331826 0.49574906 0.13175476
-0.063950807 0.097562589 11.953818
-0.61591405 0.40394011 4.6828408
-1.6023004 1.0370004 9.1993933
-1.1200217 0.71411318 4.2936158
-0.76034117 0.48104557 2.1792133
-0.95885587 0.60391766 2.14397
-0.94190943 0.5914337 1.70612
-0.91427487 0.57276559 1.3683214
-0.51727295 0.40782511 11.23066
-0.98596692 0.71839666 11.33484
-1.2394651 0.79787481 5.7128415
-0.66155875 0.42141435 2.1872437
-0.86032462 0.54477078 2.1693296
-0.94982338 0.599401 1.907292
-0.92543811 0.58245355 1.5226986
-0.90527165 0.5686748 1.2372462
-0.89914954 0.56068772 1.121102
-0.87480694 0.54488242 0.91340715
-0.8646009 0.53790879 0.75222182
-0.85521591 0.53166449 0.6136812
-0.84342265 0.52393341 0.48947993
-0.82358152 0.51121813 0.37486652
-0.82653928 0.51266056 0.27613091
-0.81677395 0.50621784 0.17921501
-0.89565897 0.56025529 1.0220846
-0.8660422 0.54110855 0.82711697
-0.8608377 0.53744781 0.6819675
-0.84817785 0.52893525 0.54954737
-0.84611106 0.52724528 0.43611988
-0.81297255 0.50620949 0.32169959
-0.80289364 0.49974507 0.22411785
-0.80582517 0.5011887 0.13195628
-0.063609861 0.09778522 11.953818
-0.61450028 0.40608758 4.6828408
-1.6054932 1.0470381 9.238555
-1.1250564 0.72286087 4.3222475
-0.75865734 0.4836967 2.1792133
-0.95674199 0.607261 2.14397
-0.94221699 0.59622294 1.7102529
-0.91226995 0.57595348 1.3683214
-0.51652318 0.41016862 11.245635
-0.97829998 0.71804428 11.275182
-1.228237 0.79672265 5.6741261
-0.66008371 0.42372105 2.1872437
-0.85841775 0.5477705 2.1693296
-0.94992584 0.60411257 1.9115579
-0.92339933 0.58568037 1.5226986
-0.90614533 0.57364488 1.2409213
-0.90020633 0.56572068 1.1246065
-0.87619615 0.55000228 0.91654563
-0.86626053 0.54314488 0.75496328
-0.85335481 0.53464651 0.6136812
-0.84158874 0.5268743 0.48947993
-0.82585883 0.51663399 0.37627655
-0.82891005 0.51814646 0.27706355
-0.81922567 0.51170403 0.17966209
-0.89685625 0.56536961 1.0254101
-0.86414808 0.5441283 0.82711697
-0.8589564 0.54044944 0.6819675
-0.850169 0.5343079 0.55164546
-0.8482644 0.53270698 0.43776339
-0.81531769 0.51162785 0.32287189
-0.80533934 0.50517619 0.22480853
-0.80407077 0.50399852 0.13195628
-0.06326814 0.098006666 11.953818
-0.61307901 0.4082301 4.6828408
-1.6077842 1.056551 9.2728214
-1.1287907 0.73084092 4.3461075
-0.75696433 0.48634192 2.1792133
-0.95461643 0.6105969 2.14397
-0.94250262 0.60102147 1.7143859
-0.91295809 0.58085507 1.3721589
-0.5150882 0.4119691 11.245635
-0.97450256 0.72050291 11.260267
-1.2243965 0.80031729 5.6692867
-0.65860057 0.42602259 2.1872437
-0.85650051 0.55076361 2.1693296
-0.95000696 0.60883218 1.9158239
-0.92388809 0.59052312 1.5266887
-0.90699542 0.57862794 1.2445965
-0.89822608 0.56885958 1.1246065
-0.87756026 0.55513841 0.91968405
-0.86789417 0.54839915 0.75770479
-0.85522896 0.53998715 0.616
-0.84366518 0.53228259 0.49135295
-0.82405037 0.51951361 0.37627655
-0.82709634 0.52103668 0.27706355
-0.81743449 0.51456058 0.17966209
-0.89802891 0.57049912 1.0287355
-0.8656562 0.54930723 0.83006012
-0.86070514 0.54575294 0.68450069
-0.84829873 0.53727233 0.55164546
-0.84639972 0.53566474 0.43776339
-0.81352681 0.5144707 0.32287189
-0.80357105 0.50798428 0.22480853
-0.80653048 0.50947028 0.13215782
-0.062946931 0.098265015 11.958817
-0.61165029 0.41036767 4.6828408
-1.6091795 1.0655304 9.3021917
-1.1262327 0.73477674 4.3461075
-0.75526208 0.48898128 2.1792133
-0.95449209 0.61522317 2.1483591
-0.94276607 0.60582918 1.7185189
-0.91362321 0.58576864 1.3759965
-0.51678807 0.4163081 11.315518
-0.9741177 0.72549415 11.285126
-1.2215954 0.80458635 5.6692867
-0.65710944 0.42831892 2.1872437
-0.85457277 0.55374998 2.1693296
-0.95006675 0.61355966 1.9200897
-0.92435426 0.59537637 1.5306787
-0.90782166 0.58362395 1.2482716
-0.89924097 0.57391024 1.1281111
-0.8788991 0.56029081 0.92282254
-0.86950153 0.55367142 0.76044625
-0.85707617 0.54534733 0.6183188
-0.841802 0.53522426 0.49135295
-0.82628089 0.52495944 0.37768659
-0.82527256 0.52392066 0.27706355
-0.81563336 0.51741081 0.17966209
-0.89917648 0.57564366 1.032061
-0.86373347 0.55232561 0.83006012
-0.85879487 0.54875404 0.68450069
-0.85024375 0.54267204 0.55374348
-0.84850603 0.54115522 0.4394069
-0.81172603 0.51730728 0.32287189
-0.80596948 0.51344687 0.22549921
-0.80896163 0.51496536 0.13235934
-0.062603533 0.098484136 11.958817
-0.61085761 0.41293573 4.6877799
-1.6105318 1.0745325 9.331563
-1.1274024 0.74116403 4.3604236
-0.75355059 0.49161467 2.1792133
-0.9523387 0.61855119 2.1483591
-0.94300753 0.61064613 1.7226517
-0.91157287 0.58895421 1.3759965
-0.5180164 0.42029905 11.375419
-0.97200543 0.72921026 11.290096
-1.2229682 0.81162655 5.6886444
-0.65561038 0.43061006 2.1872437
-0.85263461 0.55672967 2.1693296
-0.95010507 0.61829507 1.9243557
-0.92227042 0.59859931 1.5306787
-0.90862399 0.58863264 1.2519468
-0.9002316 0.5789749 1.1316158
-0.87693793 0.56335533 0.92282254
-0.86756361 0.55670315 0.76044625
-0.85889637 0.55072701 0.6206376
-0.84383196 0.54066056 0.49322599
-0.8284834 0.53042716 0.37909663
-0.82757658 0.52944547 0.27799615
-0.81382227 0.52025479 0.17966209
-0.8971616 0.57877886 1.032061
-0.86519778 0.55752677 0.83300328
-0.86049849 0.55408245 0.68703383
-0.84834433 0.54563659 0.55374348
-0.85058427 0.54666692 0.44105041
-0.81400508 0.52276421 0.32404423
-0.80417228 0.51625711 0.22549921
-0.81136423 0.52048355 0.13256088
-0.06228039 0.098740302 11.963818
-0.60941249 0.41506553 4.6877799
-1.6118407 1.083557 9.3609352
-1.1260527 0.74591941 4.3651958
-0.75182998 0.49424204 2.1792133
-0.95217764 0.62318349 2.1527481
-0.94322681 0.61547214 1.7267847
-0.91219747 0.59388155 1.3798339
-0.51833075 0.42357063 11.415352
-0.97242904 0.73485124 11.324898
-1.2222173 0.81728834 5.6983237
-0.65410328 0.43289593 2.1872437
-0.85068607 0.55970252 2.1693296
-0.95012182 0.62303805 1.9286216
-0.92269701 0.60346448 1.5346687
-0.90656376 0.59180075 1.2519468
-0.90119773 0.58405352 1.1351203
-0.87823349 0.56852829 0.92596096
-0.86912632 0.56199878 0.76318777
-0.86068922 0.55612588 0.6229564
-0.84193957 0.54360282 0.49322599
-0.82662678 0.5333159 0.37909663
-0.82572347 0.53233105 0.27799615
-0.81200129 0.52309233 0.17966209
-0.89826614 0.58394223 1.0353866
-0.86663634 0.56274498 0.83594644
-0.86217529 0.55942929 0.68956703
-0.85024297 0.55106306 0.55584157
-0.85263437 0.55219972 0.44269392
-0.81217533 0.5256024 0.32404423
-0.8065232 0.52175093 0.2261899
-0.80954248 0.52331257 0.13256088
-0.061935347 0.098957099 11.963818
-0.60795993 0.41719022 4.6877799
-1.6114204 1.0914613 9.3805161
-1.1259251 0.75150335 4.3747396
-0.75010014 0.49686342 2.1792133
-0.94999653 0.62650347 2.1527481
-0.94342393 0.62030703 1.7309177
-0.91279876 0.59882045 1.3836714
-0.5179612 0.42629746 11.44031
-0.97155344 0.73953414 11.344783
-1.2214415 0.82295471 5.7080021
-0.65258819 0.43517658 2.1872437
-0.84872711 0.56266856 2.1693296
-0.95011699 0.62778884 1.9328877
-0.92310071 0.60833991 1.5386587
-0.90732467 0.59682494 1.2556219
-0.90213931 0.5891459 1.1386248
-0.87624359 0.57159048 0.92596096
-0.86715925 0.56502914 0.76318777
-0.85874271 0.55912685 0.6229564
-0.84392273 0.54906666 0.49509901
-0.8287819 0.53881288 0.38050666
-0.82386023 0.53521007 0.27799615
-0.81017041 0.52592361 0.17966209
-0.89934552 0.58912027 1.038712
-0.86804891 0.56797987 0.8388896
-0.86021721 0.56243545 0.68956703
-0.85211414 0.55650949 0.55793959
-0.85070163 0.55517262 0.44269392
-0.81440705 0.53108937 0.32521653
-0.80469704 0.52456301 0.2261899
-0.81189698 0.52886206 0.1327624
-0.061610289 0.099211074 11.968818
-0.60586107 0.41886765 4.6828408
-1.6126462 1.1005239 9.4098873
-1.1232951 0.75542891 4.3747396
-0.74836123 0.49947876 2.1792133
-0.94979835 0.63114136 2.1571372
-0.94359863 0.62515086 1.7350507
-0.91337663 0.60377073 1.387509
-0.51647002 0.42810288 11.44031
-0.97107983 0.74454468 11.369641
-1.2206413 0.82862574 5.7176814
-0.65106517 0.43745187 2.1872437
-0.84675789 0.56562775 2.1693296
-0.95009053 0.63254702 1.9371535
-0.92599183 0.6148926 1.5466388
-0.90806156 0.6018616 1.2592971
-0.90305632 0.59425193 1.1421293
-0.87749547 0.57678372 0.92909944
-0.8686769 0.57034779 0.76592922
-0.86048949 0.56455117 0.62527519
-0.84200096 0.55200917 0.49509901
-0.82689601 0.54170257 0.38050666
-0.82609683 0.54077309 0.27892879
-0.81249726 0.53147453 0.18010917
-0.89728361 0.59225601 1.038712
-0.86606103 0.57100648 0.8388896
-0.86184847 0.56780648 0.69210023
-0.85016638 0.55948055 0.55793959
-0.84875858 0.55813873 0.44269392
-0.81254828 0.53392893 0.32521653
-0.80286103 0.52736872 0.2261899
-0.81004596 0.53169286 0.1327624
-0.061263602 0.099425532 11.968818
-0.60439527 0.42097995 4.6828408
-1.6104728 1.1073005 9.4196777
-1.1194155 0.75850785 4.3699675
-0.74661314 0.50208795 2.1792133
-0.94758952 0.634453 2.1571372
-0.9437511 0.63000345 1.7391837
-0.91393113 0.6087324 1.3913465
-0.51408792 0.42916077 11.420342
-0.97016126 0.74923456 11.389526
-1.2187787 0.83359134 5.7225208
-0.64953423 0.43972185 2.1872437
-0.8447783 0.56858003 2.1693296
-0.95004255 0.63731277 1.9414195
-0.92634404 0.61979699 1.5506288
-0.9059552 0.60502762 1.2592971
-0.90394861 0.59937149 1.1456339
-0.87547678 0.57984322 0.92909944
-0.87016797 0.57568383 0.76867068
-0.85851365 0.56755137 0.62527519
-0.84393704 0.55750036 0.49697205
-0.82900351 0.54722846 0.38191667
-0.82420421 0.54365349 0.27892879
-0.81063706 0.53430742 0.18010917
-0.89831966 0.59745234 1.0420375
-0.86742914 0.57626289 0.84183276
-0.85986114 0.57081145 0.69210023
-0.85199052 0.56495297 0.56003767
-0.8468051 0.5610981 0.44269392
-0.81473231 0.53944546 0.32638884
-0.80514473 0.53290129 0.22688057
-0.80818504 0.53451723 0.1327624
-0.060936648 0.099677309 11.973818
-0.60292208 0.42308709 4.6828408
-1.6141299 1.1181349 9.4637346
-1.1229244 0.76661986 4.3938274
-0.744856 0.50469106 2.1792133
-0.94536906 0.63775676 2.1571372
-0.94388098 0.63486457 1.7433165
-0.91446197 0.61370516 1.3951839
-0.51567376 0.43356141 11.490227
-0.96964222 0.75425482 11.414384
-1.2200011 0.84069413 5.7418785
-0.64799535 0.44198647 2.1872437
-0.8427884 0.57152539 2.1693296
-0.94997269 0.64208573 1.9456853
-0.92667329 0.62471128 1.5546188
-0.90665019 0.61007905 1.2629722
-0.90481615 0.60450453 1.1491385
-0.8766849 0.58505642 0.93223786
-0.86815315 0.57871777 0.76867068
-0.86021399 0.57300061 0.62759399
-0.84198582 0.56044281 0.49697205
-0.8270883 0.55011886 0.38191667
-0.82639253 0.54924625 0.27986142
-0.81291544 0.53988898 0.18055625
-0.89933026 0.6026631 1.0453631
-0.86877126 0.58153588 0.84477592
-0.86144656 0.57620627 0.69463336
-0.85001332 0.56792355 0.56003767
-0.84484136 0.56405056 0.44269392
-0.81688768 0.54498374 0.32756117
-0.8032797 0.53570855 0.22688057
-0.80631429 0.53733504 0.1327624
-0.060588337 0.099889413 11.973818
-0.60144156 0.42518914 4.6828408
-1.6135566 1.1260939 9.4833164
-1.1436065 0.7866112 4.4844952
-0.74147642 0.50618631 2.1746111
-0.94313711 0.64105284 2.1571372
-0.9439885 0.63973433 1.7474495
-0.91496927 0.61868912 1.3990214
-0.5148167 0.43592009 11.505201
-0.9686808 0.75895143 11.43427
-1.2201563 0.84709859 5.7563968
-0.64644855 0.44424573 2.1872437
-0.84258556 0.57569206 2.1738307
-0.94988114 0.64686608 1.9499513
-0.92697948 0.62963545 1.5586089
-0.9073211 0.61514282 1.2666475
-0.90270054 0.60765928 1.1491385
-0.87786728 0.59028518 0.93537635
-0.86959881 0.58407617 0.77141213
-0.8582086 0.57599986 0.62759399
-0.84387451 0.56596076 0.49884507
-0.82914788 0.55567324 0.38332671
-0.82855183 0.55486101 0.28079402
-0.81516469 0.54549289 0.18100333
-0.89722109 0.60579866 1.0453631
-0.87008697 0.58682513 0.84771907
-0.8594299 0.5792098 0.69463336
-0.85179055 0.57342184 0.5621357
-0.83894926 0.56436032 0.44105041
-0.81901431 0.55054355 0.3287335
-0.80551505 0.54127115 0.22757125
-0.80858135 0.54293138 0.13296394
-0.060259495 0.10013895 11.978817
-0.59995371 0.42728597 4.6828408
-1.6196101 1.1387485 9.542058
-1.1568019 0.80165368 4.5465307
-0.73970497 0.50877142 2.1746111
-0.94089371 0.64434111 2.1571372
-0.94407344 0.64461255 1.7515824
-0.91545284 0.62368399 1.402859
-0.51592231 0.43996903 11.565102
-0.9681164 0.7639811 11.459127
-1.2233714 0.85567623 5.7854328
-0.64489394 0.44649953 2.1872437
-0.84057087 0.57862973 2.1738307
-0.94976777 0.65165359 1.9542174
-0.92726254 0.63456935 1.5625988
-0.90796763 0.62021863 1.2703226
-0.90352511 0.61280841 1.152643
-0.87902379 0.5955292 0.93851483
-0.87101763 0.58945179 0.77415359
-0.85619277 0.57899207 0.62759399
-0.84189385 0.56890297 0.49884507
-0.82720315 0.55856413 0.38332671
-0.83068192 0.56049734 0.28172666
-0.81325555 0.54833502 0.18100333
-0.89818805 0.61102718 1.0486885
-0.86803323 0.58985871 0.84771907
-0.86096901 0.58462799 0.69716656
-0.84978372 0.57639158 0.5621357
-0.83697414 0.56728536 0.44105041
-0.81708753 0.55339915 0.3287335
-0.80362076 0.5440796 0.22757125
-0.80668122 0.5457505 0.13296394
-0.059929654 0.10038744 11.983816
-0.59845853 0.42937759 4.6828408
-1.6231023 1.1496931 9.5861149
-1.1723535 0.81850702 4.6181107
-0.73631889 0.51023734 2.1700084
-0.93863875 0.64762151 2.1571372
-0.94413584 0.64949912 1.7557154
-0.91591275 0.62868989 1.4066964
-0.51635027 0.44346499 11.610026
-0.9646098 0.76669174 11.449185
-1.220377 0.85994136 5.7854328
-0.64191622 0.44776028 2.1825509
-0.83854598 0.58156037 2.1738307
-0.95177776 0.65793139 1.9627492
-0.92752248 0.6395129 1.5665889
-0.90858966 0.62530637 1.2739978
-0.9013806 0.61595857 1.152643
-0.87693959 0.59859395 0.93851483
-0.86895478 0.59248865 0.77415359
-0.85782725 0.58447158 0.62991279
-0.84373486 0.57444745 0.50071812
-0.82921451 0.56414664 0.38473675
-0.83278269 0.56615537 0.28265926
-0.81545591 0.55396891 0.18145041
-0.89604968 0.61415869 1.0486885
-0.86930412 0.59516877 0.85066223
-0.86248088 0.59006405 0.6996997
-0.84776658 0.57935441 0.5621357
-0.83888841 0.57286662 0.44269392
-0.81916571 0.55898774 0.32990581
-0.80580753 0.54967213 0.22826193
-0.80889946 0.55137694 0.13316546
-0.059598807 0.10063483 11.988816
-0.59758556 0.43191946 4.6877799
-1.6273667 1.1612675 9.6350679
-1.1694891 0.82259434 4.6181107
-0.73453337 0.51280445 2.1700084
-0.93833888 0.65226126 2.1615264
-0.94648838 0.65599722 1.7639813
-0.91371256 0.63188314 1.4066964
-0.51654214 0.44677985 11.64996
-0.96109599 0.76938719 11.439241
-1.2173679 0.86419606 5.7854328
-0.64034933 0.44999826 2.1825509
-0.83651084 0.58448392 2.1738307
-0.95161533 0.66274023 1.967015
-0.92775911 0.64446586 1.5705789
-0.90918732 0.63040608 1.277673
-0.90216225 0.62112379 1.1561475
-0.87805182 0.6038571 0.94165331
-0.87032771 0.59788603 0.77689505
-0.85578185 0.58746243 0.62991279
-0.84172451 0.57738906 0.50071812
-0.82724023 0.5670377 0.38473675
-0.83485407 0.57183486 0.2835919
-0.81351721 0.55681199 0.18145041
-0.89697266 0.61940461 1.052014
-0.87054831 0.60049474 0.85360539
-0.86396503 0.59551764 0.7022329
-0.84947717 0.58488405 0.56423378
-0.8368836 0.57579142 0.44269392
-0.81720948 0.56184375 0.32990581
-0.80388397 0.55248159 0.22826193
-0.80696982 0.55419719 0.13316546
-0.059247162 0.10084225 11.988816
-0.59607428 0.43400282 4.6877799
-1.6307431 1.172291 9.6791248
-1.1775709 0.83444047 4.6610584
-0.73273885 0.5153653 2.1700084
-0.93605632 0.65553272 2.1615264
-0.94649976 0.66090828 1.7681142
-0.91413099 0.6369012 1.4105339
-0.51823765 0.45143256 11.724834
-0.95798975 0.77240235 11.43427
-1.2133216 0.86770886 5.7805939
-0.63877463 0.45223078 2.1825509
-0.83268565 0.58614701 2.1693296
-0.95356572 0.66905421 1.975547
-0.92797256 0.64942837 1.574569
-0.90976024 0.63551748 1.2813481
-0.90291882 0.62630188 1.1596521
-0.87593859 0.60691845 0.94165331
-0.86823541 0.60092038 0.77689505
-0.85736924 0.59296596 0.63223159
-0.84351772 0.58295965 0.50259119
-0.82920301 0.57264793 0.38614678
-0.83285284 0.57474554 0.2835919
-0.81156862 0.55964833 0.18145041
-0.89786994 0.62466437 1.0553395
-0.87176603 0.60583675 0.85654855
-0.86542177 0.60098881 0.70476609
-0.84743035 0.58784574 0.56423378
-0.83874959 0.58139944 0.44433743
-0.81524336 0.56469291 0.32990581
-0.80602187 0.55810338 0.2289526
-0.80913877 0.55985326 0.133367
-0.058855463 0.10097054 11.978817
-0.59455568 0.43608087 4.6877799
-1.6340624 1.1833524 9.7231817
-1.1758659 0.83941334 4.6658306
-0.73093539 0.5179199 2.1700084
-0.93376237 0.65879613 2.1615264
-0.94878989 0.66744673 1.7763801
-0.91452563 0.64192992 1.4143715
-0.51925731 0.45552981 11.784735
-0.9540472 0.77473247 11.419355
-1.2092656 0.87120396 5.7757545
-0.63719219 0.45445773 2.1825509
-0.83063447 0.58905005 2.1693296
-0.953354 0.67388427 1.979813
-0.92816263 0.65440017 1.578559
-0.91030866 0.64064056 1.2850233
-0.90365022 0.63149279 1.1631566
-0.87700617 0.61220038 0.94479173
-0.86956227 0.60633922 0.77963656
-0.85892862 0.59848773 0.63455039
-0.84147763 0.58590049 0.50259119
-0.8271991 0.57553887 0.38614678
-0.8308416 0.57764924 0.2835919
-0.80961013 0.56247783 0.18145041
-0.895684 0.62779468 1.0553395
-0.87295699 0.61119449 0.85949171
-0.86331868 0.60400605 0.70476609
-0.84909326 0.59340018 0.5663318
-0.83671504 0.5843237 0.44433743
-0.81326717 0.56753516 0.32990581
-0.80813026 0.56374687 0.22964329
-0.80717963 0.56267428 0.133367
-0.058463592 0.10109735 11.968818
-0.59302986 0.43815356 4.6877799
-1.6365018 1.1938509 9.7623434
-1.1717168 0.84264106 4.6610584
-0.73071307 0.52160358 2.1746111
-0.93145704 0.66205156 2.1615264
-0.94875008 0.67238188 1.780513
-0.91489613 0.64696908 1.418209
-0.52090228 0.46021459 11.85961
-0.95051247 0.77738231 11.409413
-1.2052 0.87468135 5.7709146
-0.63560194 0.4566792 2.1825509
-0.82857329 0.59194589 2.1693296
-0.95524454 0.68023413 1.9883448
-0.92832917 0.65938115 1.5825491
-0.91083241 0.6457752 1.2886984
-0.90435636 0.63669646 1.1666611
-0.87804759 0.61749721 0.94793022
-0.87086201 0.61177462 0.78237802
-0.86045992 0.60402757 0.63686919
-0.84322262 0.59149659 0.50446421
-0.82911313 0.58117634 0.38755682
-0.82882017 0.5805459 0.2835919
-0.81172168 0.56815618 0.18189749
-0.89653713 0.6330713 1.058665
-0.8708182 0.6142379 0.85949171
-0.86472833 0.60949951 0.70729923
-0.85072768 0.59897333 0.56842989
-0.83853221 0.58995807 0.44598094
-0.81128114 0.57037061 0.32990581
-0.81020898 0.56941175 0.23033397
-0.80929905 0.56835967 0.13356853
-0.058071554 0.10122264 11.958817
-0.59149683 0.44022098 4.6877799
-1.6405286 1.2055868 9.8112965
-1.1687684 0.846726 4.6610584
-0.72888792 0.52415103 2.1746111
-0.92914039 0.66529888 2.1615264
-0.95097744 0.67896014 1.788779
-0.91524267 0.65201867 1.4220465
-0.52079916 0.46337703 11.89455
-0.94614857 0.77933836 11.389526
-1.2011247 0.87814081 5.7660751
-0.63400394 0.45889506 2.1825509
-0.82650197 0.59483463 2.1693296
-0.95498317 0.68508476 1.9926107
-0.92847222 0.66437131 1.5865391
-0.91133118 0.65092123 1.2923737
-0.90794587 0.64397603 1.1736702
-0.87906271 0.62280875 0.95106864
-0.86872119 0.61481076 0.78237802
-0.8619628 0.60958529 0.63918799
-0.84115279 0.59443641 0.50446421
-0.83099788 0.58683419 0.38896683
-0.8267886 0.58343554 0.2835919
-0.80973351 0.57098609 0.18189749
-0.89736414 0.63836139 1.0619905
-0.87196356 0.61961538 0.86243486
-0.86259556 0.61251426 0.70729923
-0.85233343 0.60456514 0.57052791
-0.83646774 0.5928815 0.44598094
-0.80928528 0.57319903 0.32990581
-0.80821645 0.57223642 0.23033397
-0.80731016 0.57118124 0.13356853
-0.057717867 0.10142473 11.958817
-0.58995652 0.442283 4.6877799
-1.6404016 1.2143356 9.8357725
-1.1658056 0.85080063 4.6610584
-0.72705382 0.52669215 2.1746111
-0.92681241 0.66853821 2.1615264
-0.95088613 0.68391889 1.792912
-0.91816896 0.65894759 1.4297215
-0.52046573 0.46635118 11.9245
-0.94342238 0.78263628 11.389526
-1.198052 0.88232815 5.7660751
-0.63379246 0.46212238 2.1872437
-0.82618278 0.59899402 2.1738307
-0.9546997 0.68994188 1.9968767
-0.92859167 0.66937041 1.5905291
-0.91180521 0.65607864 1.2960488
-0.90859401 0.64921486 1.1771748
-0.88005137 0.62813485 0.95420712
-0.86997437 0.62026703 0.78511947
-0.85982966 0.61259043 0.63918799
-0.84284914 0.60005772 0.50633723
-0.83285302 0.59251219 0.39037687
-0.82474697 0.58631802 0.2835919
-0.81179523 0.57669324 0.18234457
-0.8951304 0.64148992 1.0619905
-0.87308198 0.62500829 0.86537802
-0.86395824 0.61802977 0.70983243
-0.85021794 0.60753667 0.57052791
-0.83439314 0.59579772 0.44598094
-0.81123608 0.57884365 0.33107814
-0.81024557 0.57792985 0.23102465
-0.80937976 0.57689548 0.13377006
-0.057382599 0.1016648 11.963818
-0.58840907 0.44433966 4.6877799
-1.6394173 1.2224894 9.8553524
-1.1640311 0.85574919 4.6658306
-0.72521091 0.52922684 2.1746111
-0.92447311 0.67176932 2.1615264
-0.948493 0.68723398 1.792912
-0.91846061 0.66402668 1.4335591
-0.51883471 0.46816507 11.9245
-0.94109344 0.7862668 11.394498
-1.1949649 0.88650477 5.7660751
-0.63217551 0.46433195 2.1872437
-0.82408684 0.60187423 2.1738307
-0.95650214 0.6963405 2.0054085
-0.92868763 0.67437845 1.5945191
-0.91225433 0.66124725 1.299724
-0.90921646 0.65446609 1.1806793
-0.88101345 0.63347542 0.9573456
-0.86780393 0.62330002 0.78511947
-0.86128485 0.61817116 0.64150673
-0.84074938 0.60299611 0.50633723
-0.83077967 0.59541583 0.39037687
-0.82668895 0.59205347 0.2845245
-0.81382698 0.58242166 0.18279165
-0.89591289 0.64679629 1.065316
-0.87417322 0.63041645 0.86832118
-0.86179566 0.62104183 0.70983243
-0.85177529 0.61315238 0.57262594
-0.83230835 0.59870666 0.44598094
-0.80921066 0.58167195 0.33107814
-0.80822331 0.58075458 0.23102465
-0.80736107 0.57971722 0.13377006
-0.05702737 0.10186449 11.963818
-0.58747262 0.44686159 4.692719
-1.6392103 1.2312628 9.8798294
-1.1622365 0.86069572 4.6706028
-0.72335911 0.53175509 2.1746111
-0.9221226 0.6749922 2.1615264
-0.9483611 0.69219983 1.7970449
-0.91872787 0.66911578 1.4373965
-0.51719731 0.46997333 11.9245
