# .PCD v0.7 - Point Cloud Data file format
VERSION 0.7
FIELDS x y z
SIZE 4 4 4
TYPE F F F
COUNT 1 1 1
WIDTH 1416
HEIGHT 1
VIEWPOINT 0 0 0 1 0 0 0
POINTS 1416
DATA ascii
-1.0243821 -0.99114585 3.0110567
-0.98187071 -0.95297599 2.30829
-0.94572175 -0.9201138 1.8219506
-0.92341477 -0.89996207 1.4761319
-0.91932648 -0.90193051 1.3453929
-0.90749145 -0.89123905 1.1079915
-0.89609855 -0.8809588 0.90848547
-0.88838279 -0.87397319 0.73889637
-0.85953891 -0.84617841 0.57563943
-0.85116041 -0.83850491 0.44113809
-0.84656334 -0.83455163 0.31716621
-0.82234704 -0.81123483 0.1966511
-0.92330325 -0.90329808 1.231591
-0.89707774 -0.87854832 0.99782026
-0.89105791 -0.87325197 0.81875914
-0.88202053 -0.86529076 0.65864611
-0.85295075 -0.83734745 0.50514728
-0.84268194 -0.82783395 0.37562618
-0.81934148 -0.80517912 0.25243574
-0.82266676 -0.80900073 0.14021905
-1.8993305 -1.7661395 16.487667
-1.4411578 -1.3575529 9.542058
-1.1474534 -1.0956659 5.1191688
-1.0569679 -1.016288 3.5139456
-0.99268389 -0.95845342 2.596045
-0.96483022 -0.93413895 2.0450218
-0.93305868 -0.90525216 1.6331092
-1.2530936 -1.1861604 6.6807265
-1.0923827 -1.0437808 4.1628985
-1.0246958 -0.98454785 3.0020542
-0.98143524 -0.94592339 2.299758
-0.94459337 -0.91261989 1.8139704
-0.92411447 -0.8943758 1.4724567
-0.9224692 -0.89871591 1.3453929
-0.90781027 -0.88534844 1.104853
-0.8961761 -0.87490457 0.90574402
-0.88825941 -0.86777133 0.73657757
-0.86248738 -0.84317291 0.57563943
-0.85065305 -0.83217424 0.43972805
-0.84596103 -0.82815516 0.31623358
-0.82161635 -0.80487442 0.19620402
-0.92377263 -0.89746797 1.2282655
-0.89724118 -0.87259358 0.9948771
-0.89101124 -0.86712986 0.81622595
-0.8817845 -0.8590396 0.65654802
-0.85586846 -0.83436495 0.50514728
-0.84208733 -0.82149333 0.37445387
-0.82214707 -0.80231422 0.25243574
-0.82191133 -0.80263364 0.14001752
-1.8940651 -1.7489581 16.388882
-1.4384507 -1.3455594 9.4931059
-1.1458545 -1.0865191 5.0953088
-1.0562695 -1.0085453 3.5001378
-0.99256569 -0.95166779 2.5872669
-0.96402776 -0.92686498 2.0367558
-0.93390459 -0.89976597 1.6292717
-1.2508144 -1.1757537 6.6468506
-1.0910116 -1.0352107 4.1441274
-1.024976 -0.97795975 2.9930518
-0.97907841 -0.93708223 2.2869601
-0.94342434 -0.90514511 1.8059905
-0.92234194 -0.88644642 1.4651064
-0.92303759 -0.89301091 1.3418884
-0.90809911 -0.87946647 1.1017146
-0.89622235 -0.86886066 0.9030025
-0.88810349 -0.86158103 0.73425877
-0.86209899 -0.83692795 0.57376641
-0.85011184 -0.82585722 0.43831801
-0.84532446 -0.82177317 0.31530097
-0.82085127 -0.79852903 0.19575694
-0.92421257 -0.89164567 1.2249401
-0.89737409 -0.8666485 0.99193394
-0.89093286 -0.86101878 0.81369281
-0.88151574 -0.85280073 0.65445
-0.8553828 -0.82808787 0.5035038
-0.84145856 -0.81516689 0.37328154
-0.82138646 -0.79599327 0.25174505
-0.82112151 -0.79628181 0.13981599
-1.8835484 -1.7271101 16.245644
-1.4356778 -1.3336016 9.4441538
-1.1442057 -1.077397 5.0714488
-1.0555301 -1.0008198 3.4863303
-0.99067754 -0.94324327 2.5740998
-0.96318638 -0.91960812 2.0284901
-0.93240744 -0.89206922 1.6215967
-1.2484781 -1.1653774 6.6129746
-1.0895941 -1.0266629 4.1253562
-1.0252225 -0.97138172 2.9840493
-0.97667176 -0.92826915 2.2741623
-0.94221461 -0.8976897 1.7980103
-0.92297798 -0.88088101 1.4614313
-0.92357725 -0.88731289 1.3383839
-0.90835786 -0.87359321 1.0985761
-0.89322478 -0.859927 0.89751953
-0.88791531 -0.85540235 0.73193997
-0.86167753 -0.83069617 0.57189339
-0.84608448 -0.81622374 0.43549791
-0.8481878 -0.81881744 0.31530097
-0.82005197 -0.79219884 0.19530986
-0.92462313 -0.88583124 1.2216145
-0.89455914 -0.85791552 0.98604763
-0.89082253 -0.85491878 0.81115961
-0.8812142 -0.84657437 0.65235192
-0.85486394 -0.82182443 0.50186026
-0.84079599 -0.80885494 0.37210923
-0.82415998 -0.79312122 0.25174505
-0.82029742 -0.78994524 0.13961446
-1.8746259 -1.706926 16.117222
-1.43209 -1.3209891 9.3903065
-1.1425074 -1.0682997 5.0475893
-1.0547496 -0.99311203 3.4725227
-0.99048316 -0.93648881 2.5653214
-0.96230596 -0.9123683 2.0202241
-0.93319184 -0.88660163 1.6177592
-3.3223572 -2.7372572 40.104931
-1.2460846 -1.1550317 6.5790987
-1.0881305 -1.0181378 4.1065855
-1.0254358 -0.96481383 2.9750469
-0.97611243 -0.92127436 2.2656305
-0.94315332 -0.89232457 1.7940203
-0.92112565 -0.87299001 1.4540808
-0.92408854 -0.88162202 1.3348794
-0.90577185 -0.86504084 1.0922991
-0.89319861 -0.85391444 0.89477807
-0.8876949 -0.84923565 0.72962117
-0.85787433 -0.82127166 0.5681473
-0.84546441 -0.80994684 0.43408787
-0.85104084 -0.81585169 0.31530097
-0.81921858 -0.78588402 0.19486278
-0.92229915 -0.87745142 1.2149636
-0.89462119 -0.8520003 0.98310447
-0.89068073 -0.84883016 0.80862641
-0.88416392 -0.84349316 0.65235192
-0.8543117 -0.81557471 0.50021678
-0.84009963 -0.80255759 0.3709369
-0.82692343 -0.79023957 0.25174505
-0.81943923 -0.78362417 0.13941292
-1.8592451 -1.6810939 15.93447
-1.429183 -1.3091059 9.3413544
-1.1407595 -1.0592272 5.0237293
-1.052501 -0.98408765 3.4541125
-0.99025381 -0.92974734 2.5565434
-0.96138698 -0.90514606 2.0119581
-0.93161786 -0.87893981 1.6100842
-3.3318915 -2.7256432 40.104931
-1.2436341 -1.1447171 6.5452228
-1.0866205 -1.0096354 4.0878143
-1.0256158 -0.95825636 2.9660444
-0.97551638 -0.91429484 2.2570984
-0.94406623 -0.88696384 1.7900304
-0.92169845 -0.86744601 1.4504057
-0.92457128 -0.87593836 1.3313749
-0.90596151 -0.85919553 1.0891607
-0.89314121 -0.84791249 0.89203662
-0.88744217 -0.84308094 0.72730237
-0.8573758 -0.81507802 0.56627429
-0.84481078 -0.80368435 0.43267787
-0.8538835 -0.81287599 0.31530097
-0.81835103 -0.77958477 0.1944157
-0.92264217 -0.87166256 1.211638
-0.89465296 -0.84609503 0.98016131
-0.8905071 -0.84275293 0.80609328
-0.88380802 -0.83728051 0.65025389
-0.85715336 -0.81258756 0.50021678
-0.83936954 -0.79627496 0.3697646
-0.82608479 -0.78393942 0.25105438
-0.82216954 -0.78075898 0.13941292
-1.8546934 -1.6652516 15.845564
-1.4262105 -1.2972591 9.2924013
-1.1389621 -1.0501802 4.9998693
-1.0516342 -0.97642028 3.4403052
-0.98998946 -0.92301893 2.5477653
-0.95837355 -0.8960197 1.9995594
-0.93000185 -0.87129992 1.6024091
-3.3413856 -2.7139959 40.104931
-1.2420547 -1.1352816 6.5161862
-1.0863328 -1.002326 4.0737357
-1.0257624 -0.95170945 2.957042
-0.97488344 -0.90733075 2.2485666
-0.94274974 -0.87955219 1.7820503
-0.9197669 -0.85959405 1.4430554
-0.92762321 -0.87270564 1.3313749
-0.90612155 -0.85335952 1.0860223
-0.893053 -0.84192145 0.88929516
-0.88715738 -0.83693832 0.72498357
-0.85684466 -0.80889791 0.56440127
-0.84412402 -0.79743642 0.43126783
-0.8567158 -0.80989051 0.31530097
-0.81744957 -0.77330112 0.19396862
-0.92023289 -0.86332762 1.204987
-0.89170796 -0.83743298 0.97427499
-0.890302 -0.83668727 0.80356008
-0.88672525 -0.83419031 0.65025389
-0.85654628 -0.80635393 0.49857324
-0.83860594 -0.79000723 0.36859229
-0.82881618 -0.7810511 0.25105438
-0.82125521 -0.7744568 0.1392114
-1.8448337 -1.6448088 15.712204
-1.4239286 -1.2861314 9.2483444
-1.1382169 -1.0421666 4.9807816
-1.0492903 -0.96744686 3.421895
-0.98617506 -0.91304976 2.5302088
-0.95737052 -0.88883978 1.9912934
-0.93069077 -0.86586523 1.5985717
-3.3549893 -2.7056615 40.154648
-1.2394941 -1.1250266 6.4823103
-1.0860074 -0.99503094 4.0596576
-1.0258759 -0.94517326 2.9480395
-0.97612923 -0.9021523 2.2443008
-0.94360369 -0.87420827 1.7780602
-0.92027676 -0.85407221 1.4393802
-0.92805785 -0.86702788 1.3278702
-0.90625185 -0.84753287 1.0828838
-0.89293379 -0.83594143 0.8865537
-0.89007342 -0.83383644 0.72498357
-0.85966301 -0.805902 0.56440127
-0.84340376 -0.79120296 0.42985779
-0.85595626 -0.80353308 0.31436834
-0.82014394 -0.77044296 0.19396862
-0.92050892 -0.8575651 1.2016616
-0.89166957 -0.8315587 0.97133183
-0.89006555 -0.83063346 0.80102688
-0.88631523 -0.82799184 0.64815581
-0.85935575 -0.80335909 0.49857324
-0.83780897 -0.78375471 0.36741996
-0.82792175 -0.7747696 0.25036371
-0.82395351 -0.77158535 0.1392114
-1.8470728 -1.6352693 15.682569
-1.4215864 -1.2750356 9.2042875
-1.1374294 -1.034171 4.9616933
-1.0483377 -0.95982087 3.4080875
-0.98406661 -0.90473938 2.5170417
-0.95632923 -0.88167799 1.9830275
-0.93135303 -0.86043626 1.5947342
-3.3664944 -2.6955991 40.179504
-1.2368768 -1.1148033 6.4484344
-1.0856445 -0.98775059 4.0455794
-1.0259564 -0.93864787 2.9390371
-0.97542918 -0.89521283 2.235769
-0.94443178 -0.86886919 1.7740703
-0.92075926 -0.84855729 1.4357051
-0.92846417 -0.86135769 1.3243657
-0.90635264 -0.84171569 1.0797453
-0.89584631 -0.83281946 0.8865537
-0.89297861 -0.83072442 0.72498357
-0.85907775 -0.79973763 0.56252825
-0.84616047 -0.78825408 0.42985779
-0.85516268 -0.79719079 0.31343573
-0.81918675 -0.76417845 0.19352154
-0.92075586 -0.85181129 1.198336
-0.89160109 -0.8256948 0.96838868
-0.88979757 -0.82459134 0.79849374
-0.88587278 -0.82180643 0.64605778
-0.85869396 -0.79714185 0.49692973
-0.83697844 -0.77751738 0.36624765
-0.82336593 -0.76513296 0.24898234
-0.82298332 -0.76530236 0.13900986
-1.8475169 -1.6241956 15.638115
-1.4191844 -1.263972 9.1602306
-1.1366001 -1.0261936 4.9426055
-1.0473447 -0.95221353 3.39428
-0.98191202 -0.89645487 2.5038743
-0.95524967 -0.87453437 1.9747616
-0.93435085 -0.85718006 1.5947342
-3.378387 -2.6858211 40.209332
-1.2351402 -1.1054502 6.4193978
-1.0852438 -0.98048472 4.0315008
-1.0243925 -0.93066984 2.9255335
-0.97469258 -0.88828939 2.2272372
-0.94300932 -0.86150277 1.7660903
-0.92121464 -0.84304953 1.4320298
-0.92621922 -0.85327917 1.3173567
-0.90642375 -0.83590817 1.0766069
-0.89567536 -0.82685101 0.88381225
-0.89261895 -0.82459646 0.72266477
-0.85845983 -0.79358715 0.56065518
-0.84538543 -0.78203827 0.42844775
-0.85433537 -0.79086393 0.3125031
-0.82184923 -0.76131427 0.19352154
-0.9209739 -0.84606624 1.1950105
-0.8915025 -0.81984156 0.96544552
-0.88949841 -0.81856143 0.79596055
-0.88539785 -0.81563425 0.6439597
-0.86147124 -0.79413956 0.49692973
-0.83968741 -0.77459103 0.36624765
-0.82239234 -0.75889593 0.24829166
-0.82197928 -0.75903565 0.13880834
-1.8531752 -1.6177367 15.638115
-1.4167224 -1.2529407 9.1161737
-1.1357291 -1.0182347 4.9235177
-1.0477617 -0.94593364 3.3850746
-0.97971183 -0.88819665 2.4907072
-0.95413178 -0.86740899 1.9664958
-0.93733728 -0.85391331 1.5947342
-3.3856494 -2.6723611 40.184479
-1.2333534 -1.0961227 6.3903608
-1.0848058 -0.97323382 4.0174227
-1.0244018 -0.92417216 2.9165311
-0.97391963 -0.88138199 2.2187052
-0.94154704 -0.85415685 1.7581102
-0.92164278 -0.83754885 1.4283547
-0.92656064 -0.84763384 1.3138521
-0.90646547 -0.83011049 1.0734684
-0.89547384 -0.820894 0.88107073
-0.8954919 -0.82147563 0.72266477
-0.86122477 -0.79058582 0.56065518
-0.84457725 -0.77583736 0.42703772
-0.85347432 -0.78455251 0.3115705
-0.82083654 -0.75506943 0.19307446
-0.91840452 -0.83781379 1.1883595
-0.89137399 -0.81399906 0.96250236
-0.88916796 -0.81254357 0.79342741
-0.88489074 -0.80947542 0.64186168
-0.86075485 -0.78793913 0.49528623
-0.83880192 -0.768372 0.36507532
-0.82138538 -0.75267506 0.24760097
-0.82094157 -0.75278533 0.1386068
-1.8100724 -1.5690246 15.228156
-1.4149659 -1.2426137 9.0770121
-1.1348163 -1.0102946 4.9044299
-1.0466927 -0.93835872 3.3712673
-0.97924608 -0.88156688 2.4819291
-0.95506495 -0.86218768 1.9623629
-0.93793523 -0.84848607 1.5908966
-3.3953769 -2.6608555 40.189449
-1.2315166 -1.0868214 6.3613248
-1.0843304 -0.96599799 4.0033445
-1.0227568 -0.91623348 2.9030275
-0.97311038 -0.87449086 2.2101734
-0.94004512 -0.8468318 1.7501302
-0.92204374 -0.83205551 1.4246795
-0.92423421 -0.83959872 1.306843
-0.90647787 -0.8243227 1.07033
-0.89524162 -0.81494862 0.87832928
-0.89835393 -0.81834477 0.72266477
-0.86055297 -0.78445172 0.55878216
-0.84373611 -0.76965165 0.42562771
-0.85257959 -0.77825683 0.31063786
-0.8197903 -0.74884093 0.19262739
-0.91855603 -0.83209622 1.185034
-0.89121562 -0.80816752 0.95955914
-0.88880652 -0.80653816 0.79089421
-0.88099194 -0.80027848 0.63766557
-0.86000556 -0.78175348 0.49364269
-0.83788329 -0.76216877 0.36390302
-0.82034498 -0.74647045 0.2469103
-0.81987035 -0.74655145 0.13840528
-1.8243731 -1.5702984 15.302245
-1.4123871 -1.2316452 9.0329552
-1.1338619 -1.0023731 4.8853416
-1.0455837 -0.9308027 3.3574595
-0.98053163 -0.87654728 2.47754
-0.95387781 -0.85509235 1.9540969
-0.94804502 -0.85163236 1.6024091
-3.4042234 -2.6486599 40.184479
-1.22963 -1.0775464 6.3322878
-1.083818 -0.95877743 3.9892662
-1.0210688 -0.90831757 2.889524
-0.97226495 -0.86761612 2.2016416
-0.94074929 -0.8415364 1.74614
-0.91989273 -0.82430732 1.4173292
-0.92451102 -0.83397865 1.3033384
-0.90646082 -0.81854498 1.0671915
-0.89497882 -0.80901468 0.87558782
-0.89463449 -0.80926073 0.71802717
-0.85984898 -0.778332 0.55690914
-0.84641755 -0.76670176 0.42562771
-0.85165149 -0.77197707 0.30970526
-0.81871068 -0.74262899 0.19218032
-0.91590297 -0.82389098 1.1783831
-0.89403129 -0.80505168 0.95955914
-0.88521123 -0.79765946 0.78582788
-0.8804099 -0.79415852 0.63556755
-0.85922384 -0.77558273 0.49199918
-0.83693153 -0.75598127 0.36273071
-0.82294559 -0.7436024 0.2469103
-0.81876558 -0.74033427 0.13820374
-1.8121209 -1.5487788 15.154068
-1.410519 -1.2213765 8.9937935
-1.1328663 -0.9944706 4.8662539
-1.0458987 -0.92455977 3.3482547
-0.98000276 -0.86993957 2.4687617
-0.95475465 -0.84988648 1.9499639
-0.93905181 -0.83765048 1.5832217
-3.4138703 -2.6370866 40.189449
-1.228642 -1.0691227 6.3080912
-1.083268 -0.95157212 3.9751875
-1.0209699 -0.90186578 2.8805215
-0.96943116 -0.85902846 2.1888437
-0.93917519 -0.8342455 1.73816
-0.9202317 -0.81883782 1.4136541
-0.92476004 -0.82836711 1.2998339
-0.90641451 -0.81277746 1.0640531
-0.89468557 -0.80309272 0.87284636
-0.8941583 -0.80317289 0.71570832
-0.85911274 -0.77222675 0.55503613
-0.84552217 -0.76053464 0.42421767
-0.85068995 -0.76571321 0.30877262
-0.81759769 -0.73643368 0.19173324
-0.91598862 -0.81820166 1.1750575
-0.89382267 -0.79923189 0.95661598
-0.88477767 -0.79169029 0.78329468
-0.87979603 -0.78805256 0.63346946
-0.8584094 -0.76942694 0.49035567
-0.83594692 -0.7498098 0.36155838
-0.82185048 -0.73741817 0.24621962
-0.81762749 -0.73413402 0.1380022
-1.8086286 -1.5349041 15.079979
-1.4078242 -1.210472 8.9497366
-1.1307039 -0.98560673 4.8423939
-1.0447146 -0.91703731 3.3344471
-0.98123676 -0.86492997 2.4643729
-0.95349842 -0.8428216 1.9416981
-0.9347716 -0.82799214 1.5717092
-3.4226315 -2.6248298 40.184479
-1.2276103 -1.0607191 6.2838941
-1.0826813 -0.94438243 3.9611094
-1.0192016 -0.8939904 2.8670177
-0.96850771 -0.85219401 2.1803117
-0.93756169 -0.82697588 1.7301799
-0.91800308 -0.81113142 1.4063038
-0.92498124 -0.82276404 1.2963293
-0.90633917 -0.80702031 1.0609146
-0.89436191 -0.79718268 0.87010491
-0.89365053 -0.79709816 0.71338952
-0.86180305 -0.76922315 0.55503613
-0.844594 -0.75438303 0.42280763
-0.84969503 -0.75946558 0.30784002
-0.82016337 -0.73357528 0.19173324
-0.91604567 -0.81252182 1.1717321
-0.89358443 -0.79342335 0.95367283
-0.88431317 -0.78573382 0.78076148
-0.87915021 -0.78196049 0.63137144
-0.8575626 -0.76328641 0.48871216
-0.83492953 -0.74365449 0.36038607
-0.8207221 -0.73125058 0.24552894
-0.82018512 -0.7312755 0.1380022
-1.8050615 -1.5210726 15.00589
-1.4050705 -1.1996014 8.9056787
-1.1296223 -0.97774684 4.8233061
-1.0434906 -0.90953445 3.3206394
-0.98244762 -0.85992229 2.4599836
-0.95431966 -0.837632 1.9375652
-0.9304356 -0.81837398 1.5601966
-3.4321971 -2.6131895 40.189449
-1.2255808 -1.0515174 6.2548571
-1.080753 -0.93607885 3.9423382
-1.0190327 -0.88756794 2.8580153
-0.96754819 -0.84537643 2.1717799
-0.93817574 -0.82171285 1.7261899
-0.91828036 -0.8056863 1.4026285
-0.92517459 -0.81716955 1.2928247
-0.90623456 -0.80127358 1.0577762
-0.89400792 -0.79128456 0.86736345
-0.88979506 -0.78809988 0.70875198
-0.86101347 -0.76313531 0.55316305
-0.84722215 -0.75143027 0.42280763
-0.84866691 -0.75323415 0.30690739
-0.81899548 -0.7274009 0.19128615
-0.91607428 -0.80685151 1.1684066
-0.89331675 -0.78762645 0.95072967
-0.88381791 -0.77979034 0.77822834
-0.87847263 -0.77588254 0.62927336
-0.86022174 -0.76028836 0.48871216
-0.8375203 -0.74073547 0.36038607
-0.82326967 -0.72838128 0.24552894
-0.81899214 -0.72509634 0.13780068
-1.7746 -1.484852 14.709535
-1.4014815 -1.1881064 8.8567266
-1.1284997 -0.96990657 4.8042183
-1.0422271 -0.90205139 3.3068321
-0.9818278 -0.85334587 2.4512055
-0.95299464 -0.83059818 1.9292994
-0.92845809 -0.8109045 1.5525217
-3.4408727 -2.6008716 40.184479
-1.2244592 -1.0431578 6.23066
-1.0800886 -0.92892545 3.9282601
-1.0188313 -0.8811577 2.8490129
-0.96852309 -0.84028488 2.1675138
-0.93876463 -0.81645578 1.7221999
-0.91597474 -0.79802233 1.3952782
-0.92534012 -0.8115837 1.2893202
-0.90610093 -0.79553741 1.0546377
-0.89362371 -0.78539884 0.864622
-0.88921422 -0.78206366 0.70643318
-0.86019194 -0.75706244 0.55129004
-0.84623992 -0.74529779 0.4213976
-0.84392041 -0.74377143 0.30504215
-0.82152963 -0.72453761 0.19128615
-0.91607451 -0.80119097 1.165081
-0.89301932 -0.78184092 0.94778651
-0.88653457 -0.7767005 0.77822834
-0.87776333 -0.7698189 0.62717533
-0.85932112 -0.75416607 0.48706865
-0.83644867 -0.73460007 0.35921374
-0.82208687 -0.72223473 0.24483825
-0.82151818 -0.72223312 0.13780068
-1.784554 -1.4826196 14.749049
-1.3986086 -1.177307 8.8126698
-1.1273361 -0.96208614 4.78513
-1.0409241 -0.89458817 3.2930243
-0.98117399 -0.84678423 2.4424274
-0.95376015 -0.82542515 1.9251662
-0.92643982 -0.80345893 1.5448467
-3.4516363 -2.5901241 40.204365
-1.2223344 -1.0340074 6.2016234
-1.0780749 -0.92066759 3.9094892
-1.0185975 -0.87475967 2.8400104
-0.9674983 -0.8334949 2.158982
-0.93932807 -0.81120461 1.7182097
-0.91619068 -0.79260224 1.3916031
-0.92547804 -0.80600667 1.2858157
-0.90300435 -0.78725427 1.0483608
-0.89320934 -0.77952546 0.86188054
-0.88860208 -0.77604115 0.70411438
-0.85933846 -0.75100458 0.54941696
-0.84522533 -0.73918152 0.41998756
-0.84281486 -0.73758608 0.30410954
-0.8240537 -0.7216655 0.19128615
-0.91604644 -0.79554027 1.1617556
-0.89269245 -0.77606714 0.94484335
-0.88598788 -0.77077186 0.77569515
-0.8770225 -0.76376975 0.62507725
-0.86194843 -0.75116193 0.48706865
-0.83900779 -0.73167586 0.35921374
-0.82087111 -0.71610522 0.24414757
-0.82027066 -0.7160756 0.13759914
-1.7939148 -1.4798418 14.783624
-1.3941146 -1.1652361 8.7588215
-1.1249928 -0.95332068 4.76127
-1.0395818 -0.88714522 3.2792168
-0.98048639 -0.8402375 2.4336493
-0.95236689 -0.81842303 1.9169004
-0.92680991 -0.79812884 1.5410092
-3.4555254 -2.5742393 40.144703
-1.2201605 -1.0248847 6.1725869
-1.077333 -0.91355091 3.8954105
-1.016675 -0.86696166 2.8265069
-0.96841985 -0.82841742 2.1547163
-0.93986654 -0.80595946 1.7142198
-0.91638005 -0.78719038 1.3879279
-0.92558819 -0.80043858 1.2823112
-0.90280402 -0.78155005 1.0452224
-0.89276487 -0.77366447 0.85913903
-0.88795877 -0.77003253 0.70179558
-0.86195475 -0.74800032 0.54941696
-0.84417838 -0.73308128 0.41857755
-0.84167665 -0.7314176 0.30317691
-0.82280993 -0.71551681 0.19083907
-0.91599 -0.78989959 1.15843
-0.89233619 -0.77030516 0.94190019
-0.88867301 -0.76767451 0.77569515
-0.87625015 -0.75773513 0.62297922
-0.8609944 -0.74505866 0.48542514
-0.84155673 -0.72874272 0.35921374
-0.81962276 -0.70999318 0.24345689
-0.82276523 -0.71320796 0.13759914
-1.7936587 -1.4691405 14.73917
-1.3903372 -1.1538616 8.7098703
-1.1248869 -0.94650531 4.7469544
-1.0396909 -0.88098532 3.2700117
-0.97976512 -0.83370596 2.424871
-0.95093644 -0.81144083 1.9086344
-0.927154 -0.79280579 1.5371716
-3.4610608 -2.5596268 40.104931
-1.2179382 -1.0157896 6.1435504
-1.0765548 -0.90645081 3.8813324
-1.0163721 -0.86059433 2.8175044
-0.96732992 -0.82165551 2.1461844
-0.94037968 -0.80072039 1.7102298
-0.91654289 -0.78178698 1.3842528
-0.92567092 -0.79487967 1.2788066
-0.90257484 -0.77585679 1.0420839
-0.89229041 -0.76781619 0.85639757
-0.88728452 -0.76403791 0.69947678
-0.86104852 -0.74196088 0.54754394
-0.84673214 -0.73013014 0.41857755
-0.84050548 -0.72526604 0.30224431
-0.82530248 -0.71264035 0.19083907
-0.91590548 -0.78426903 1.1551045
-0.89195061 -0.76455516 0.93895704
-0.88807511 -0.76176119 0.77316189
-0.8788898 -0.75467187 0.62297922
-0.8600083 -0.73897129 0.48378164
-0.84409535 -0.72580069 0.35921374
-0.81834179 -0.70389861 0.2427662
-0.82146329 -0.70707244 0.13739762
-1.7770716 -1.4452256 14.561357
-1.3857116 -1.1418802 8.6560221
-1.1236013 -0.93874544 4.7278662
-1.0382746 -0.87357795 3.2562041
-0.97901016 -0.8271898 2.4160929
-0.94946879 -0.80447853 1.9003686
-0.92747235 -0.78749031 1.5333341
-1.2166353 -1.0075243 6.1193533
-1.0757402 -0.89936739 3.8672543
-1.0160371 -0.85423976 2.808502
-0.9681983 -0.81659263 2.1419184
-0.9408679 -0.7954877 1.7062398
-0.91667914 -0.77639192 1.3805776
-0.92572612 -0.78932989 1.2753021
-0.90231699 -0.77017462 1.0389454
-0.89496517 -0.76469684 0.85639757
-0.88657916 -0.75805736 0.69715798
-0.86011064 -0.73593688 0.54567093
-0.84563172 -0.7240501 0.41716751
-0.83930176 -0.71913153 0.30131167
-0.82400447 -0.70651358 0.19039199
-0.91863757 -0.78106713 1.1551045
-0.89153594 -0.75881737 0.93601388
-0.88744688 -0.75586152 0.77062875
-0.87806511 -0.7486549 0.6208812
-0.85899013 -0.7328999 0.48213813
-0.84662378 -0.72284985 0.35921374
-0.82079387 -0.70103776 0.2427662
-0.82012862 -0.70095474 0.13719608
-1.7718271 -1.430717 14.477389
-1.380231 -1.1293004 8.5972795
-1.1234243 -0.93195885 4.7135501
-1.0383188 -0.86744362 3.246999
-0.98005664 -0.82222819 2.4117036
-0.95011783 -0.799348 1.8962357
-0.92776483 -0.7821821 1.5294967
-1.2143185 -0.99848217 6.0903168
-1.0762171 -0.89340264 3.8578684
-1.0173415 -0.84929305 2.8040009
-0.96704364 -0.80985934 2.1333864
-0.94133091 -0.79026127 1.7022496
-0.91938365 -0.7731874 1.3805776
-0.92575389 -0.78378946 1.2717975
-0.90203041 -0.76450372 1.035807
-0.89444047 -0.75886315 0.85365611
-0.88584286 -0.75209111 0.69483918
-0.85914123 -0.72992855 0.54379785
-0.84449929 -0.71798676 0.41575748
-0.83806545 -0.71301436 0.30037907
-0.8226738 -0.70040476 0.18994491
-0.91850531 -0.77544725 1.1517791
-0.89109194 -0.75309181 0.93307072
-0.88678831 -0.7499755 0.76809555
-0.87720907 -0.74265283 0.61878312
-0.8579402 -0.72684461 0.48049462
-0.84914178 -0.71989018 0.35921374
-0.81945914 -0.69496548 0.24207552
-0.81876129 -0.69485503 0.13699456
-1.7628654 -1.4133474 14.363787
-1.3802128 -1.1212662 8.5728035
-1.1232138 -0.92518514 4.6992345
-1.0383327 -0.8613196 3.2377942
-0.98108059 -0.8172695 2.4073148
-0.94858265 -0.79241866 1.8879696
-0.92557377 -0.7748242 1.5218216
-1.2129276 -0.99026358 6.0661197
-1.0766656 -0.88744575 3.8484831
-1.0169476 -0.84295851 2.7949984
-0.96585381 -0.8031441 2.1248546
-0.93945426 -0.78311217 1.6942697
-0.91947466 -0.76780063 1.3769025
-0.92575437 -0.7782585 1.268293
-0.90171534 -0.75884438 1.0326686
-0.89388591 -0.7530424 0.85091466
-0.88507581 -0.74613917 0.69252038
-0.85814047 -0.7239359 0.54192483
-0.84333473 -0.71194017 0.41434744
-0.8367967 -0.70691466 0.29944643
-0.82131052 -0.69431376 0.18949783
-0.91834491 -0.76983768 1.1484535
-0.89061892 -0.74737853 0.93012756
-0.88609952 -0.74410349 0.76556236
-0.8728478 -0.73374563 0.61458701
-0.85685849 -0.7208057 0.47885111
-0.84793097 -0.71379155 0.35804144
-0.82188004 -0.69210076 0.24207552
-0.82118183 -0.69199282 0.13699456
-1.7495481 -1.3926713 14.215609
-1.3785698 -1.1119677 8.538537
-1.1218139 -0.91747934 4.6801462
-1.0368085 -0.85396421 3.2239864
-0.98023611 -0.8107872 2.3985367
-0.94917691 -0.78730637 1.8838367
-0.92580771 -0.76953995 1.517984
-1.211494 -0.98206663 6.0419226
-1.0757501 -0.8804037 3.8344047
-1.0165219 -0.83663708 2.785996
-0.96664017 -0.79810756 2.1205888
-0.93753946 -0.77598596 1.6862897
-0.92214912 -0.76458633 1.3769025
-0.92298949 -0.7704519 1.2612839
-0.90137184 -0.75319642 1.02953
-0.89330167 -0.74723482 0.8481732
-0.88427794 -0.74020183 0.69020158
-0.85710829 -0.71795923 0.54005182
-0.8458147 -0.708992 0.41434744
-0.83549559 -0.70083249 0.29851383
-0.81991482 -0.68824089 0.18905075
-0.9152869 -0.76185042 1.1418025
-0.89011693 -0.74167776 0.9271844
-0.88538057 -0.73824531 0.76302922
-0.87191933 -0.72778612 0.61248899
-0.85574502 -0.71478313 0.4772076
-0.84668797 -0.70771015 0.35686913
-0.82049185 -0.68605119 0.24138485
-0.81976074 -0.68591613 0.13679302
-1.75196 -1.384629 14.195851
-1.3776739 -1.1033309 8.5091658
-1.1215329 -0.91073543 4.6658306
-1.0367582 -0.84786659 3.2147813
-0.98120928 -0.80584079 2.3941474
-0.94757473 -0.78041071 1.8755709
-0.92354387 -0.76222342 1.5103091
-1.2109973 -0.97467995 6.0225649
-1.0761379 -0.87446707 3.8250191
-1.0143787 -0.82895154 2.7724922
-0.96538609 -0.79142189 2.112057
-0.93558621 -0.76888257 1.6783097
-0.92219508 -0.75920826 1.3732272
-0.92292738 -0.7649498 1.2577794
-0.90099984 -0.74756026 1.0263916
-0.89268792 -0.74144053 0.84543175
-0.88344955 -0.73427927 0.68788278
-0.85604489 -0.71199858 0.5381788
-0.84459734 -0.70296663 0.4129374
-0.83416235 -0.69476807 0.2975812
-0.82231224 -0.68537468 0.18905075
-0.91506249 -0.75627238 1.138477
-0.89270049 -0.73856622 0.9271844
-0.88795215 -0.73515022 0.76302922
-0.87096 -0.72184211 0.6103909
-0.85460001 -0.70877719 0.47556409
-0.84541285 -0.70164615 0.3556968
-0.81907147 -0.68001968 0.24069417
-0.82214999 -0.68305051 0.13679302
-1.7482234 -1.3717914 14.126702
-1.376734 -1.0947134 8.4797935
-1.1200564 -0.90306807 4.6467428
-1.0351611 -0.84054852 3.200974
-0.98030376 -0.79938406 2.3853693
-0.94811451 -0.77531701 1.8714379
-0.9237197 -0.75696361 1.5064715
-1.2094818 -0.96652412 5.9983678
-1.0751543 -0.86745512 3.8109407
-1.0121943 -0.82129127 2.7589886
-0.96612 -0.78640097 2.1077909
-0.93359476 -0.76180226 1.6703296
-0.92221463 -0.75383914 1.3695521
-0.92283815 -0.75945741 1.2542748
-0.9005996 -0.74193585 1.0232532
-0.89204448 -0.73565966 0.84269029
-0.88259059 -0.72837144 0.68556398
-0.85495043 -0.70605415 0.53630573
-0.84704602 -0.70001417 0.4129374
-0.83658248 -0.69185203 0.2975812
-0.82086307 -0.6793251 0.18860367
-0.91481042 -0.75070512 1.1351515
-0.89214975 -0.73288006 0.92424124
-0.88718271 -0.7293089 0.76049602
-0.86996996 -0.71591371 0.60829288
-0.8534236 -0.702788 0.47392058
-0.84410578 -0.69559979 0.35452449
-0.82144022 -0.67715645 0.24069417
-0.82067543 -0.6769973 0.13659149
-1.7480972 -1.3618616 14.087188
-1.3749521 -1.0854857 8.4455271
-1.1197057 -0.89635473 4.6324267
-1.0350468 -0.83447808 3.1917689
-0.98122674 -0.7944504 2.3809803
-0.94863045 -0.77022922 1.867305
-0.92138368 -0.7496891 1.4987966
-1.2079242 -0.95839077 5.9741707
-1.0741349 -0.86046058 3.7968626
-1.0099688 -0.81365627 2.7454851
-0.96480209 -0.77974546 2.0992589
-0.93390685 -0.75664204 1.6663395
-0.92220795 -0.74847913 1.3658769
-0.9227218 -0.75397515 1.2507702
-0.90318394 -0.73878765 1.0232532
-0.89460701 -0.73254132 0.84269029
-0.88512772 -0.72528625 0.68556398
-0.85740983 -0.70306551 0.53630573
-0.84948438 -0.69705313 0.4129374
-0.8351959 -0.68581027 0.29664856
-0.81938171 -0.67329395 0.18815659
-0.91163594 -0.74279064 1.1285006
-0.89157021 -0.72720671 0.92129809
-0.88638335 -0.72348189 0.75796282
-0.86894906 -0.71000105 0.60619479
-0.85587156 -0.69980466 0.47392058
-0.84652871 -0.69264901 0.35452449
-0.81996685 -0.67114842 0.24000348
-0.81916869 -0.67096281 0.13638996
-1.7374728 -1.3438696 13.963707
-1.3739239 -1.0769118 8.4161568
-1.1181527 -0.88872617 4.6133385
-1.0333774 -0.82719779 3.1779611
-0.98026031 -0.78801972 2.3722022
-0.94912219 -0.76514721 1.8631719
-0.92150152 -0.74445421 1.494959
-1.2073122 -0.95105791 5.954813
-1.0730797 -0.85348386 3.7827842
-1.0077024 -0.80604702 2.7319813
-0.96548384 -0.77474093 2.0949931
-0.93184632 -0.74960041 1.6583595
-0.92217517 -0.74312842 1.3622017
-0.92257857 -0.74850297 1.2472657
-0.90273583 -0.73317677 1.0201148
-0.8939141 -0.72677648 0.83994877
-0.88421792 -0.71939665 0.68324518
-0.85626358 -0.69714141 0.53443271
-0.85191238 -0.69408363 0.4129374
-0.83377743 -0.67978668 0.29571593
-0.82172698 -0.67042971 0.18815659
-0.91132033 -0.73725575 1.125175
-0.89096195 -0.72154641 0.91835493
-0.88555425 -0.71766931 0.75542969
-0.86789739 -0.70410419 0.60409671
-0.85464299 -0.69383669 0.47227708
-0.84516883 -0.68662512 0.35335216
-0.82230461 -0.66828215 0.24000348
-0.82150573 -0.66809928 0.13638996
-1.7316751 -1.3297535 13.879739
-1.3720489 -1.0677329 8.3818903
-1.1177326 -0.8820442 4.5990224
-1.0331993 -0.82115483 3.1687562
-0.98113298 -0.78309923 2.3678129
-0.94959033 -0.76007122 1.8590392
-0.92159414 -0.73922765 1.4911215
-1.2056736 -0.94296676 5.9306159
-1.0719891 -0.84652501 3.7687061
-1.0036904 -0.79710972 2.7139764
-0.9661423 -0.769741 2.0907271
-0.93210262 -0.74446285 1.6543695
-0.92211622 -0.73778701 1.3585266
-0.9224084 -0.74304092 1.2437612
-0.90225953 -0.72757787 1.0169762
-0.89319181 -0.72102529 0.83720732
-0.88327765 -0.7135222 0.68092638
-0.85508662 -0.69123399 0.53255969
-0.85060036 -0.68808872 0.4115274
-0.83232719 -0.67378139 0.29478332
-0.82019258 -0.66442257 0.18770951
-0.91097713 -0.73173207 1.1218495
-0.89347523 -0.71843195 0.91835493
-0.88805395 -0.71457386 0.75542969
-0.86681533 -0.69822341 0.60199869
-0.85338318 -0.68788582 0.47063357
-0.84756041 -0.68367082 0.35335216
-0.82077849 -0.66229802 0.23931281
-0.81994587 -0.66208905 0.13618843
-1.7264183 -1.3161653 13.800712
-1.3709325 -1.0592028 8.3525181
-1.1172793 -0.87537593 4.5847068
-1.0329918 -0.8151232 3.1595511
-0.98010612 -0.77669501 2.3590348
-0.94783127 -0.75325072 1.8507732
-0.92166144 -0.73400956 1.4872841
-1.203993 -0.93489856 5.9064183
-1.0708629 -0.83958417 3.7546277
-1.0013379 -0.78955823 2.7004728
-0.96473217 -0.76312822 2.0821953
-0.93233448 -0.73933256 1.6503794
-0.9220314 -0.73245519 1.3548514
-0.92499644 -0.73981661 1.2437612
-0.90175521 -0.72199142 1.0138377
-0.89244038 -0.71528816 0.83446586
-0.88576293 -0.71043462 0.68092638
-0.85749424 -0.68824494 0.53255969
-0.852997 -0.6851154 0.4115274
-0.83467406 -0.67087191 0.29478332
-0.82250684 -0.66155553 0.18770951
-0.9106065 -0.72621971 1.1185241
-0.89281863 -0.71278703 0.91541177
-0.8871749 -0.70877904 0.75289649
-0.86924732 -0.69519347 0.60199869
-0.85577923 -0.68490279 0.47063357
-0.84614784 -0.67766964 0.35217986
-0.8192206 -0.65633273 0.23862213
-0.82225198 -0.65922284 0.13618843
-1.7148913 -1.297942 13.672291
-1.3689654 -1.0500739 8.3182516
-1.1156147 -0.86780518 4.565619
-1.0327548 -0.80910307 3.150346
-0.98092902 -0.77178842 2.3546457
-0.94824547 -0.74819452 1.8466402
-0.91918933 -0.72681218 1.479609
-1.2022711 -0.92685378 5.8822217
-1.0697014 -0.83266163 3.7405496
-0.99723077 -0.78069109 2.6824682
-0.96328771 -0.75653476 2.0736635
-0.93017423 -0.73234594 1.6423994
-0.92192048 -0.72713298 1.3511763
-0.92478037 -0.73436564 1.2402567
-0.90122288 -0.71641731 1.0106993
-0.8916598 -0.70956504 0.83172441
-0.884772 -0.70457894 0.67860758
-0.85626584 -0.68235838 0.53068668
-0.85163277 -0.67914283 0.41011736
-0.83317119 -0.66489029 0.29385069
-0.82091969 -0.65557283 0.18726245
-0.91313595 -0.72303665 1.1185241
-0.89213365 -0.70715553 0.91246861
-0.88626611 -0.702999 0.75036329
-0.86811435 -0.68933272 0.5999006
-0.85446751 -0.67897362 0.46899009
-0.84470367 -0.67168671 0.35100752
-0.81763113 -0.65038633 0.23793145
-0.82063931 -0.65323722 0.13598689
-1.7150626 -1.2886817 13.637715
-1.3669513 -1.0409718 8.2839851
-1.1150925 -0.86116904 4.5513029
-1.0324883 -0.80309457 3.1411412
-0.97984207 -0.76541132 2.3458676
-0.94642073 -0.74140966 1.8383743
-0.91919953 -0.72162008 1.4757715
-1.2005076 -0.91883242 5.8580246
-1.0685047 -0.82575744 3.7264709
-0.99479288 -0.77319795 2.6689644
-0.95975208 -0.74835706 2.0608656
-0.93035078 -0.72723901 1.6384094
-0.92178375 -0.72182041 1.347501
-0.92453748 -0.72892523 1.236752
-0.90066278 -0.71085584 1.0075608
-0.89085019 -0.70385605 0.82898289
-0.88375109 -0.69873887 0.67628878
-0.85500681 -0.67648888 0.5288136
-0.85023731 -0.67318821 0.40870732
-0.83548701 -0.66197789 0.29385069
-0.82320309 -0.65270329 0.18726245
-0.91271883 -0.7175374 1.1151985
-0.89142019 -0.70153749 0.90952545
-0.88532799 -0.69723415 0.74783015
-0.86695105 -0.68348849 0.59780258
-0.85312504 -0.67306209 0.46734658
-0.84322816 -0.66572219 0.34983522
-0.81989634 -0.64752829 0.23793145
-0.8229146 -0.65036869 0.13598689
-1.7077154 -1.2738624 13.54387
-1.3648903 -1.0318965 8.2497187
-1.1145375 -0.85454708 4.5369868
-1.0306462 -0.79590392 3.1273334
-0.97872245 -0.75905114 2.3370893
-0.94678158 -0.73637408 1.8342415
-0.91918463 -0.71643686 1.4719341
-1.1997038 -0.91159505 5.8386669
-1.0686421 -0.81992203 3.7170856
-0.99231505 -0.76573157 2.6554608
-0.95823365 -0.74180967 2.0523336
-0.93050301 -0.72213972 1.6344193
-0.9216212 -0.71651775 1.3438259
-0.92426789 -0.72349554 1.2332475
-0.90007478 -0.70530701 1.0044224
-0.89001149 -0.69816142 0.82624143
-0.8827002 -0.69291455 0.67396998
-0.85736299 -0.67350024 0.5288136
-0.84881061 -0.66725165 0.40729728
-0.8339318 -0.6560204 0.29291809
-0.82156336 -0.6467455 0.18681537
-0.915218 -0.71434706 1.1151985
-0.89067841 -0.69593304 0.9065823
-0.88436031 -0.69148433 0.74529696
-0.8657577 -0.67766088 0.5957045
-0.85175169 -0.6671682 0.46570307
-0.84172118 -0.65977615 0.34866288
-0.81825471 -0.64160681 0.23724076
-0.82124937 -0.64440817 0.13578537
-1.7071555 -1.2641952 13.504355
-1.3635974 -1.0234596 8.2203474
-1.11395 -0.84793967 4.5226707
-1.0303169 -0.78992444 3.1181283
-0.97946823 -0.75416917 2.3327003
-0.94934624 -0.73306471 1.8342415
-0.91914487 -0.71126252 1.4680965
-1.1978607 -0.90361768 5.8144698
-1.067379 -0.81305045 3.7030075
-0.99152547 -0.7596156 2.6464584
-0.95874918 -0.73687118 2.0480678
-0.93063104 -0.71704835 1.6304293
-0.92411673 -0.71329635 1.3438259
-0.92397177 -0.71807653 1.229743
-0.90253127 -0.70216084 1.0044224
-0.88914418 -0.69248134 0.82349998
-0.8851136 -0.68982917 0.67396998
-0.85605311 -0.66765243 0.52694058
-0.84735286 -0.66133332 0.40588725
-0.83621669 -0.65310544 0.29291809
-0.82381594 -0.64387375 0.18681537
-0.91475445 -0.70886105 1.111873
-0.89310229 -0.69281977 0.9065823
-0.88336349 -0.68574989 0.74276382
-0.8645342 -0.67184979 0.59360647
-0.85034764 -0.6612922 0.46405956
-0.84018308 -0.65384883 0.34749055
-0.82048941 -0.63874662 0.23724076
-0.82349372 -0.64153755 0.13578537
-1.7034183 -1.252247 13.440145
-1.3614454 -1.0144358 8.18608
-1.11333 -0.84134674 4.5083551
-1.0299586 -0.783957 3.1089232
-0.97828907 -0.74783695 2.3239222
-0.9496659 -0.7280345 1.8301084
-0.91908008 -0.70609725 1.464259
-1.1969826 -0.89641762 5.7951121
-1.0674574 -0.80723816 3.6936216
-0.99243802 -0.75483221 2.641957
-0.95924199 -0.73193812 2.0438018
-0.93073493 -0.71196491 1.6264393
-0.92390996 -0.7080043 1.3401507
-0.92364907 -0.71266848 1.2262385
-0.9018963 -0.69662696 1.0012839
-0.88824797 -0.6868158 0.82075852
-0.88401258 -0.68402457 0.67165118
-0.85471284 -0.66182196 0.52506757
-0.84965616 -0.65837145 0.40588725
-0.83460945 -0.64717251 0.29198545
-0.82212406 -0.63794118 0.18636829
-0.91722327 -0.70566368 1.111873
-0.89231277 -0.68723184 0.90363914
-0.88233727 -0.6800307 0.74023062
-0.86687416 -0.66882795 0.59360647
-0.85265082 -0.65831989 0.46405956
-0.83861405 -0.6479404 0.34631824
-0.82271403 -0.63587868 0.23724076
-0.82572812 -0.63865906 0.13578537
-1.7008741 -1.2412564 13.385814
-1.3600658 -1.0060451 8.1567087
-1.1138717 -0.83566403 4.4988108
-1.0311301 -0.77917939 3.104321
-0.97516978 -0.74007446 2.3107548
-0.94996202 -0.72301102 1.8259755
-0.91899067 -0.70094103 1.4604216
-1.1970779 -0.88998455 5.7805939
-1.0661283 -0.80039942 3.6795435
-0.99159199 -0.74874008 2.6329546
-0.95971215 -0.72701067 2.039536
-0.93081468 -0.70688951 1.6224493
-0.92367744 -0.70272237 1.3364756
-0.92329997 -0.70727146 1.2227339
-0.90123367 -0.69110614 0.99814546
-0.88732302 -0.68116492 0.81801701
-0.88288188 -0.67823607 0.66933239
-0.85334235 -0.65600902 0.52319455
-0.84814703 -0.65247673 0.40447721
-0.8368634 -0.64425522 0.29198545
-0.82434589 -0.63506758 0.18636829
-0.9167136 -0.70019138 1.1085476
-0.89149523 -0.68165791 0.90069598
-0.8847056 -0.67694664 0.74023062
-0.86560047 -0.66303813 0.59150839
-0.85119581 -0.65246689 0.46241605
-0.83701396 -0.6420508 0.34514591
-0.82492864 -0.63300306 0.23724076
-0.82399005 -0.63273019 0.13558383
-1.6970153 -1.2293872 13.321603
-1.3586445 -0.99767637 8.1273375
-1.1131901 -0.82909644 4.4844952
-1.0307177 -0.77323091 3.0951159
-0.97392124 -0.73378402 2.3019767
-0.95248002 -0.71969062 1.8259755
-0.91887635 -0.69579411 1.4565841
-1.1961313 -0.88281554 5.7612362
-1.0647643 -0.79357988 3.6654651
-0.99245745 -0.74396867 2.6284533
-0.96015948 -0.72208887 2.03527
-0.92846417 -0.70000839 1.6144693
-0.92341948 -0.69745088 1.3328004
-0.92292446 -0.7018857 1.2192293
-0.90054357 -0.68559843 0.99500704
-0.88636959 -0.67552894 0.81527555
-0.88172168 -0.67246389 0.66701359
-0.85562706 -0.65302634 0.52319455
-0.84660703 -0.64660048 0.4030672
-0.83520424 -0.63834721 0.29105285
-0.82260197 -0.62916076 0.18592121
-0.91617686 -0.69473135 1.105222
-0.89386928 -0.6785419 0.90069598
-0.88363039 -0.67124677 0.73769742
-0.86429691 -0.65726548 0.58941036
-0.85346812 -0.64949173 0.46241605
-0.835383 -0.6361804 0.34397361
-0.82319397 -0.62711871 0.23655009
-0.82619363 -0.62985009 0.13558383
-1.6937253 -1.2180136 13.262332
-1.3563584 -0.98873031 8.093071
-1.1136765 -0.82343107 4.4749508
-1.0318435 -0.76846153 3.0905132
-0.97264063 -0.72751117 2.2931986
-0.95273513 -0.71467298 1.8218426
-0.91873729 -0.6906566 1.4527465
-1.1961633 -0.87640661 5.7467175
-1.0633657 -0.78677964 3.651387
-0.99330181 -0.73920029 2.6239522
-0.96058434 -0.7171728 2.0310042
-0.92848951 -0.69495779 1.6104792
-0.92313594 -0.69218963 1.3291253
-0.92252254 -0.69651097 1.2157247
-0.90293121 -0.68245077 0.99500704
-0.88872224 -0.67243087 0.81527555
-0.88053191 -0.66670805 0.66469479
-0.85420626 -0.64723599 0.52132148
-0.84885889 -0.64364135 0.4030672
-0.83742744 -0.63542789 0.29105285
-0.82082701 -0.62327397 0.18547413
-0.91561329 -0.68928361 1.1018965
-0.89300424 -0.67298496 0.89775282
-0.88596815 -0.66815823 0.73769742
-0.86296368 -0.65150994 0.58731234
-0.85196215 -0.6436621 0.46077254
-0.83372134 -0.63032919 0.3428013
-0.82537794 -0.62424141 0.23655009
-0.82440358 -0.62394732 0.13538231
-1.6891118 -1.2057756 13.193182
-1.3548514 -0.98040909 8.0636997
-1.1129338 -0.81688952 4.4606352
-1.0313776 -0.76253253 3.0813081
-0.97325128 -0.72268403 2.2888095
-0.95070994 -0.70798194 1.8135767
-0.9185738 -0.68552858 1.448909
-1.1951487 -0.86926919 5.7273598
-1.0633239 -0.78102034 3.6420014
-0.99412495 -0.73443514 2.6194508
-0.96098632 -0.71226251 2.0267382
-0.928491 -0.68991548 1.6064892
-0.92282689 -0.68693894 1.3254501
-0.9220944 -0.6911478 1.2122202
-0.9021945 -0.67695886 0.99186856
-0.88772058 -0.66681331 0.81253409
-0.87931269 -0.66096878 0.66237599
-0.85646033 -0.64425033 0.52132148
-0.84726781 -0.63778937 0.40165716
-0.83571678 -0.62954533 0.29012021
-0.81902099 -0.61740726 0.18502705
-0.91502285 -0.68384832 1.0985711
-0.89211142 -0.66744244 0.89480966
-0.88484424 -0.66247815 0.73516428
-0.86523259 -0.64849371 0.58731234
-0.85420376 -0.64068419 0.46077254
-0.83202904 -0.62449741 0.34162897
-0.82359189 -0.61838323 0.23585941
-0.82258242 -0.61806476 0.13518077
-1.6850678 -1.194034 13.128972
-1.353303 -0.97211051 8.0343285
-1.1121588 -0.81036305 4.4463191
-1.0324579 -0.75777203 3.0767057
-0.97191209 -0.71644062 2.2800314
-0.94864947 -0.70131367 1.8053107
-0.91838557 -0.68041003 1.4450716
-1.1951181 -0.86288512 5.7128415
-1.06186 -0.7742542 3.627923
-0.99317139 -0.72838604 2.6104486
-0.961366 -0.7073583 2.0224721
-0.92846853 -0.68488169 1.6024991
-0.92249256 -0.68169886 1.321775
-0.92164016 -0.68579602 1.2087157
-0.90143049 -0.67148042 0.98873013
-0.89004278 -0.66371053 0.81253409
-0.87806422 -0.65524614 0.66005719
-0.85498941 -0.63848305 0.51944846
-0.84948897 -0.63482803 0.40165716
-0.83790922 -0.62662423 0.29012021
-0.81718403 -0.61156076 0.18457997
-0.91440564 -0.67842555 1.0952456
-0.89119077 -0.66191435 0.89186651
-0.8871513 -0.65938538 0.73516428
-0.86384976 -0.64276034 0.58521426
-0.85264748 -0.63487852 0.45912904
-0.83030617 -0.61868507 0.34045666
-0.82177496 -0.61254507 0.23516873
-0.82073027 -0.61220253 0.13497925
-1.6809624 -1.1823353 13.064762
-1.3517132 -0.96383482 8.0049572
-1.111352 -0.80385202 4.4320035
-1.0319384 -0.75186288 3.0675008
-0.9724741 -0.71162945 2.2756422
-0.94882303 -0.69633329 1.8011779
-0.91817284 -0.67530125 1.441234
-1.1940358 -0.85577989 5.6934838
-1.0617602 -0.76851964 3.6185374
-0.99042773 -0.72107154 2.596945
-0.95961696 -0.70092207 2.0139403
-0.92842227 -0.67985648 1.5985092
-0.92213291 -0.6764695 1.3180997
-0.9211598 -0.68045598 1.2052112
-0.9037689 -0.66832978 0.98873013
-0.88899338 -0.65811187 0.80979264
-0.87678647 -0.64954025 0.65773833
-0.8572129 -0.63549471 0.51944846
-0.84784704 -0.62900078 0.4002471
-0.83614725 -0.62076747 0.28918761
-0.81931388 -0.60870451 0.18457997
-0.91376185 -0.67301542 1.09192
-0.89024246 -0.65640092 0.88892335
-0.88597864 -0.65372533 0.73263109
-0.86608815 -0.63974106 0.58521426
-0.8548584 -0.63189834 0.45912904
-0.82855308 -0.61289251 0.33928433
-0.81992739 -0.60672718 0.23447806
-0.81884724 -0.60636079 0.13477771
-1.6787075 -1.1720136 13.015369
-1.3492509 -0.95499402 7.9706907
-1.1117257 -0.79822695 4.4224591
-1.0313904 -0.74596673 3.0582957
-0.97107655 -0.70541579 2.2668641
-0.94669878 -0.6897034 1.792912
-0.91793567 -0.67020226 1.4373965
-1.1929183 -0.84869266 5.6741261
-1.0602317 -0.76178855 3.6044593
-0.98940969 -0.71506 2.5879426
-0.95783466 -0.69450653 2.0054085
-0.9283523 -0.67483997 1.5945191
-0.9244886 -0.6732465 1.3180997
-0.92065352 -0.67512769 1.2017065
-0.90295857 -0.66286772 0.98559165
-0.88791573 -0.65252864 0.80705118
-0.87904847 -0.64647573 0.65773833
-0.85569227 -0.62975079 0.51757544
-0.85003752 -0.62603742 0.4002471
-0.83830911 -0.617845 0.28918761
-0.81742579 -0.60288495 0.18413289
-0.91309124 -0.66761798 1.0885946
-0.88926661 -0.65090221 0.88598019
-0.88825518 -0.65062869 0.73263109
-0.86465603 -0.63403028 0.58311623
-0.85325176 -0.62611699 0.45748553
-0.83068746 -0.60999662 0.33928433
-0.8220402 -0.60386145 0.23447806
-0.81693351 -0.60053974 0.13457619
-1.6744847 -1.1603949 12.951159
-1.3475767 -0.94676721 7.9413185
-1.1108583 -0.79174286 4.4081435
-1.0308138 -0.74008358 3.0490906
-0.97159022 -0.70062113 2.2624753
-0.94453973 -0.68309677 1.7846459
-0.91767412 -0.66511315 1.4335591
-1.191766 -0.84162384 5.6547685
-1.0600742 -0.75607932 3.5950737
-0.98659277 -0.7077955 2.5744388
-0.9560194 -0.68811214 1.9968767
-0.9282586 -0.66983229 1.5905291
-0.9240855 -0.66802931 1.3144246
-0.92012119 -0.66981119 1.198202
-0.90212119 -0.65741956 0.98245323
-0.88680989 -0.64696097 0.80430973
-0.87772185 -0.64079148 0.65541953
-0.8578853 -0.62676007 0.51757544
-0.85221756 -0.62306637 0.4002471
-0.83649617 -0.61201447 0.28825498
-0.81550717 -0.59708607 0.18368581
-0.91239429 -0.66223359 1.0852691
-0.88826311 -0.64541823 0.88303697
-0.88703436 -0.64498913 0.73009789
-0.86686391 -0.63100827 0.58311623
-0.85161513 -0.62035441 0.45584202
-0.82888383 -0.60423005 0.33811203
-0.82014185 -0.5980705 0.23378737
-0.81902486 -0.5976845 0.13457619
-1.6759641 -1.152782 12.931401
-1.3450264 -0.93798172 7.9070525
-1.109959 -0.78527462 4.3938274
-1.0286176 -0.73307985 3.0352831
-0.97013474 -0.69443774 2.2536969
-0.94234627 -0.67651379 1.7763801
-0.9173882 -0.660034 1.4297215
-1.1905791 -0.83457339 5.6354108
-1.0598899 -0.7503804 3.5856881
-0.98373729 -0.70055962 2.5609353
-0.95417118 -0.68173891 1.9883448
-0.9256916 -0.6630789 1.5825491
-0.9236573 -0.66282332 1.3107494
-0.91956306 -0.66450661 1.1946975
-0.90441048 -0.65426654 0.98245323
-0.88567615 -0.64140904 0.80156827
-0.87995327 -0.63772374 0.65541953
-0.8563149 -0.62103999 0.51570243
-0.85050493 -0.61727017 0.39883706
-0.8386274 -0.60909081 0.28825498
-0.81758642 -0.59423584 0.18368581
-0.91167092 -0.6568622 1.0819435
-0.88723224 -0.6399492 0.88009381
-0.88578492 -0.63936597 0.72756475
-0.86538255 -0.62532043 0.58101815
-0.85377538 -0.61737794 0.45584202
-0.83098793 -0.60133302 0.33811203
-0.81821322 -0.5923003 0.23309669
-0.81706023 -0.59189099 0.13437465
-1.6664999 -1.1377273 12.827677
-1.3424311 -0.9292255 7.8727856
-1.1090282 -0.7788223 4.3795114
-1.0279801 -0.72722858 3.026078
-0.97060043 -0.68966001 2.2493079
-0.94241023 -0.67158735 1.7722472
-0.91707814 -0.6549651 1.425884
-1.1893574 -0.82754147 5.6160531
-1.0596786 -0.74469203 3.5763025
-0.98262113 -0.69460857 2.5519328
-0.95229012 -0.67538691 1.979813
-0.92554462 -0.65809768 1.578559
-0.923204 -0.65762836 1.3070743
-0.91897911 -0.65921414 1.191193
-0.90352714 -0.64883536 0.97931474
-0.88790965 -0.63831353 0.80156827
-0.87857801 -0.63206142 0.65310073
-0.85471511 -0.61533862 0.51382935
-0.8526544 -0.61429757 0.39883706
-0.83676374 -0.60328698 0.28732237
-0.81561714 -0.5884645 0.18323873
-0.91092116 -0.65150398 1.078618
-0.88617426 -0.63449544 0.87715065
-0.88450706 -0.6337595 0.72503155
-0.86387205 -0.61965066 0.57892013
-0.85208905 -0.61164039 0.45419851
-0.82913417 -0.59559304 0.33693972
-0.8162542 -0.58655089 0.23240602
-0.81506521 -0.58611852 0.13417313
-1.6614546 -1.125803 12.758528
-1.3397912 -0.92049891 7.8385196
-1.1068413 -0.77153271 4.3604236
-1.0273144 -0.72139078 3.0168729
-0.9690873 -0.68350732 2.2405298
-0.94245124 -0.66666871 1.7681142
-0.91674381 -0.64990634 1.4220465
-1.1870668 -0.81981421 5.591856
-1.0594406 -0.73901433 3.5669169
-0.98147553 -0.68867403 2.5429304
-0.95250916 -0.6705575 1.975547
-0.92537415 -0.65312546 1.574569
-0.92272562 -0.6524446 1.3033991
-0.91836941 -0.65393394 1.1876884
-0.90261692 -0.64341831 0.97617632
-0.8867287 -0.63278151 0.79882681
-0.87717396 -0.62641644 0.65078193
-0.85685784 -0.6123513 0.51382935
-0.85479349 -0.61131752 0.39883706
-0.83886451 -0.60036248 0.28732237
-0.81766635 -0.58561385 0.18323873
-0.91318977 -0.64832026 1.078618
-0.88508892 -0.62905675 0.8742075
-0.88671386 -0.6306681 0.72503155
-0.86602974 -0.61663145 0.57892013
-0.85037303 -0.6059221 0.452555
-0.83120817 -0.59269518 0.33693972
-0.81426513 -0.58082241 0.23171534
-0.81710619 -0.58326983 0.13417313
-1.6557015 -1.1134943 12.684439
-1.3371067 -0.91180211 7.8042531
-1.1046172 -0.76426798 4.3413353
-1.0250176 -0.71444958 3.0030653
-0.96950525 -0.67874718 2.2361407
-0.94246954 -0.66175807 1.7639813
-0.91638541 -0.64485794 1.418209
-1.1857736 -0.81282353 5.5724983
-1.0591758 -0.73334742 3.5575314
-0.98208696 -0.68399984 2.538429
-0.9505682 -0.66424131 1.967015
-0.92518032 -0.64816254 1.5705789
-0.92222255 -0.64727235 1.299724
-0.91773409 -0.64866596 1.1841838
-0.90167987 -0.63801563 0.97303784
-0.88893211 -0.62968248 0.79882681
-0.87574124 -0.62078905 0.64846313
-0.85520893 -0.60667437 0.51195633
-0.85301054 -0.60555321 0.39742702
-0.83695048 -0.59458572 0.28638974
-0.81564665 -0.57987058 0.18279165
-0.91239518 -0.64297807 1.0752926
-0.88727927 -0.62596339 0.8742075
-0.88538826 -0.62508297 0.72249836
-0.8644706 -0.61098522 0.57682204
-0.84862745 -0.6002233 0.45091146
-0.82930452 -0.58698201 0.33576739
-0.81628764 -0.57797652 0.23171534
-0.81506085 -0.57752573 0.13397159
-1.6531149 -1.1033958 12.635046
-1.334378 -0.90313518 7.7699862
-1.1023557 -0.75702816 4.3222475
-1.0258986 -0.7097559 2.9984629
-0.96793461 -0.67262566 2.2273624
-0.94246501 -0.65685534 1.7598482
-0.91600305 -0.63981998 1.4143715
-1.1844462 -0.80585188 5.5531406
-1.0588846 -0.72769135 3.5481458
-0.98267776 -0.67932987 2.5339279
-0.95073795 -0.65943301 1.9627492
-0.92743719 -0.64492917 1.5705789
-0.92447633 -0.64404923 1.299724
-0.91707325 -0.64341044 1.1806793
-0.9007163 -0.63262731 0.96989942
-0.88770396 -0.62417066 0.7960853
-0.87427992 -0.6151793 0.64614433
-0.85353082 -0.60101646 0.51008332
-0.85511917 -0.60257202 0.39742702
-0.83902085 -0.59166062 0.28638974
-0.81766582 -0.57701993 0.18279165
-0.91463399 -0.63978928 1.0752926
-0.88614786 -0.62054402 0.87126434
-0.88403445 -0.61951476 0.71996522
-0.86288255 -0.60535753 0.57472402
-0.84685266 -0.59454417 0.44926795
-0.83134836 -0.58408362 0.33576739
-0.81424862 -0.57227612 0.23102465
-0.81707186 -0.57467711 0.13397159
-1.6543649 -1.0959027 12.61529
-1.3316052 -0.89449871 7.7357197
-1.1000572 -0.74981344 4.3031597
-1.0251486 -0.70395917 2.9892578
-0.96830511 -0.66788328 2.2229733
-0.94012332 -0.65035999 1.7515824
-0.91823083 -0.63661861 1.4143715
-1.1830846 -0.79889947 5.533783
-1.0585668 -0.72204632 3.5387604
-0.98324788 -0.67466402 2.5294268
-0.95088559 -0.6546315 1.9584832
-0.92720276 -0.63997632 1.5665889
-0.92393029 -0.63889027 1.2960488
-0.91638702 -0.63816756 1.1771748
-0.90291899 -0.62947935 0.96989942
-0.88644838 -0.61867523 0.79334384
-0.86915839 -0.60705096 0.64150673
