# .PCD v0.7 - Point Cloud Data file format
VERSION 0.7
FIELDS x y z
SIZE 4 4 4
TYPE F F F
COUNT 1 1 1
WIDTH 1454
HEIGHT 1
VIEWPOINT 0 0 0 1 0 0 0
POINTS 1454
DATA ascii
-0.91470426 -1.8007685 1.8800635
-0.89173472 -1.7578077 1.5187596
-0.87978357 -1.7357349 1.2291342
-0.86961287 -1.7178828 0.97755009
-0.85489547 -1.6902573 0.74838662
-0.84189755 -1.6659857 0.54092294
-0.83052623 -1.6441855 0.34913093
-0.81474304 -1.6143229 0.1666196
-0.59774923 -1.1068298 7.9970832
-0.77437186 -1.4558129 7.9511094
-1.1467957 -2.1912668 7.9537272
-1.109126 -2.1373112 5.7323623
-1.0197772 -1.9751941 4.1410012
-0.97621429 -1.8972718 3.2063804
-0.93751681 -1.8267313 2.5349226
-0.19611904 -0.299371 6.0293517
-0.45937061 -0.75975561 8.2375927
-0.96064442 -1.816402 7.9486556
-0.97198611 -1.8588252 5.7584391
-1.0553457 -2.0319116 4.7980385
-1.0027096 -1.9379622 3.639261
-0.95028406 -1.8421155 2.8194566
-0.92841291 -1.80355 2.2773178
-0.92459196 -1.8108418 2.0778432
-0.90139705 -1.7676792 1.6823291
-0.88717157 -1.7420145 1.3663102
-0.87655711 -1.7226431 1.0983104
-0.85968232 -1.6909245 0.85472137
-0.85179538 -1.6768438 0.64277273
-0.83814609 -1.6513904 0.44306993
-0.8242557 -1.6254114 0.2565597
-0.91417402 -1.7842728 1.8667616
-0.89234132 -1.7438896 1.5099303
-0.87994975 -1.7211386 1.2215346
-0.86941206 -1.7027105 0.9712559
-0.8543523 -1.6746436 0.74345607
-0.84108555 -1.6500455 0.53740603
-0.82726771 -1.6236271 0.34636822
-0.81584007 -1.6025648 0.16621654
-0.60160917 -1.1047364 7.9970832
-0.77944893 -1.4531009 7.9511094
-1.1544377 -2.1872504 7.9537272
-1.1038955 -2.1091945 5.6679268
-1.0189217 -1.9567529 4.1102772
-0.97505301 -1.8788664 3.1815827
-0.93651974 -1.8092154 2.5157351
-0.19700268 -0.29844442 6.0243607
-0.46201983 -0.75814754 8.2375927
-0.96697897 -1.8130376 7.9486556
-0.97846872 -1.8554212 5.7584391
-1.0594013 -2.0224304 4.7845349
-1.0010215 -1.9182657 3.6093998
-0.949754 -1.8254222 2.7995064
-0.92689157 -1.7852545 2.2589419
-0.92437589 -1.7949216 2.0638249
-0.90044045 -1.7506769 1.6697752
-0.88751495 -1.7277491 1.358086
-0.87649655 -1.7077498 1.0913539
-0.85923302 -1.6755381 0.8491022
-0.85326844 -1.6653217 0.63995266
-0.83718979 -1.6353369 0.44027206
-0.82312095 -1.6092234 0.25521845
-0.91353989 -1.767803 1.8534596
-0.89100772 -1.726397 1.4981576
-0.88002485 -1.7065625 1.2139351
-0.86703813 -1.6835262 0.96286368
-0.85587126 -1.6632535 0.74016905
-0.84239501 -1.638454 0.53506136
-0.82613951 -1.6075163 0.34429619
-0.81458288 -1.5863744 0.16561194
-0.60546172 -1.1026297 7.9970832
-0.78451639 -1.4503713 7.9511094
-1.1613641 -2.1818898 7.9489551
-1.1021305 -2.0880513 5.6219015
-1.0168366 -1.9362218 4.0751648
-0.97377545 -1.8604927 3.156785
-0.93541193 -1.791729 2.4965477
-0.19788221 -0.2975153 6.0193686
-0.46466348 -0.75653011 8.2375927
-0.97330171 -1.8096513 7.9486556
-0.9849394 -1.8519943 5.7584391
-1.0593355 -2.0052464 4.7530265
-0.99920833 -1.898605 3.5795383
-0.94911897 -1.8087548 2.7795563
-0.92682666 -1.7699952 2.2442412
-0.92405987 -1.779025 2.0498068
-0.89937615 -1.733703 1.6572214
-0.88584584 -1.7097898 1.3471199
-0.8743062 -1.6889442 1.0820787
-0.85868698 -1.6601756 0.84348315
-0.85246909 -1.6495484 0.63572258
-0.83613187 -1.6193105 0.43747419
-0.82188332 -1.5930632 0.25387722
-0.91280186 -1.7513592 1.8401576
-0.88956302 -1.708935 1.486385
-0.880009 -1.6920069 1.2063355
-0.86663306 -1.6684067 0.95656961
-0.85514593 -1.6476821 0.73523855
-0.84363395 -1.6268736 0.53271675
-0.82718784 -1.5958297 0.34291482
-0.81552017 -1.5746487 0.16520888
-0.60930693 -1.1005096 7.9970832
-0.78957438 -1.447624 7.9511094
-1.1689732 -2.1778226 7.9489551
-1.0983955 -2.0634975 5.5666714
-1.0157417 -1.9178458 4.0444412
-0.97238147 -1.842151 3.1319873
-0.93568701 -1.7771086 2.4811976
-0.19875768 -0.29658371 6.0143771
-0.4673014 -0.75490355 8.2375927
-0.97961271 -1.8062427 7.9486556
-0.9922139 -1.8500658 5.7631316
-1.0581391 -1.9861666 4.7170167
-0.99849278 -1.8812838 3.5539424
-0.94837934 -1.7921146 2.7596061
-0.92666656 -1.7547581 2.2295406
-0.92198926 -1.7599937 2.032284
-0.89820445 -1.716758 1.6446676
-0.88599902 -1.6955695 1.3388957
-0.87404567 -1.6741019 1.0751224
-0.85804421 -1.6448374 0.83786404
-0.85157013 -1.6338009 0.6314925
-0.8349722 -1.6033114 0.43467635
-0.82054293 -1.5769316 0.25253597
-0.91196036 -1.7349426 1.8268557
-0.88800728 -1.6915044 1.4746124
-0.87990236 -1.6774726 1.1987361
-0.86613303 -1.6533108 0.95027542
-0.85432237 -1.632136 0.730308
-0.84480244 -1.6153047 0.53037208
-0.82587045 -1.5797669 0.34084278
-0.81407261 -1.5585078 0.16460429
-0.61448932 -1.0967337 7.9921436
-0.79689127 -1.443609 7.9511094
-1.1785557 -2.169255 7.9394116
-1.0989866 -2.0388017 5.5160437
-1.0178447 -1.8977274 4.0137177
-0.9740532 -1.8221449 3.1071897
-0.9377448 -1.7578803 2.4620101
-0.20057417 -0.29570717 6.0193686
-0.47151026 -0.75228184 8.2375927
-0.98999959 -1.8005706 7.9486556
-1.002853 -1.8443204 5.7631316
-1.0550747 -1.953225 4.6539998
-1.0009838 -1.8592514 3.524081
-0.95187062 -1.7731811 2.739656
-0.92905825 -1.7342867 2.2111647
-0.9238975 -1.7428635 2.0182657
-0.90111935 -1.7020283 1.6352521
-0.8887037 -1.679975 1.3306712
-0.8742274 -1.653991 1.0658472
-0.86202842 -1.6322746 0.83411795
-0.85339445 -1.616593 0.62726241
-0.83675712 -1.5857369 0.43187848
-0.82209516 -1.5592533 0.25119475
-0.91461271 -1.7166414 1.8135536
-0.89174396 -1.6758138 1.4657828
-0.88318586 -1.6611134 1.1911365
-0.86953855 -1.6361189 0.94398123
-0.85734838 -1.614526 0.7253775
-0.84753823 -1.5973821 0.52685511
-0.82854211 -1.5615692 0.33877075
-0.81889772 -1.544678 0.16420123
-0.61831331 -1.0936899 7.9872041
-0.80193281 -1.4396491 7.9462142
-1.1875941 -2.1660223 7.9441829
-1.0961845 -2.0158813 5.465416
-1.0179542 -1.8813459 3.9873831
-0.97404593 -1.8061786 3.086525
-0.93780077 -1.7433056 2.44666
-0.20155369 -0.2950404 6.0193686
-0.47371715 -0.75026375 8.2326212
-0.9950422 -1.7963521 7.9438162
-1.0086421 -1.8411608 5.7631316
-1.0507982 -1.9307803 4.6089873
-0.99779332 -1.8402247 3.4942195
-0.94996166 -1.7570958 2.7197061
-0.92776048 -1.7195882 2.1964641
-0.9221704 -1.7235812 2.0007432
-0.90030992 -1.6848242 1.6226983
-0.88894856 -1.6656399 1.3224468
-0.87403035 -1.6390495 1.0588907
-0.86146528 -1.61683 0.82849884
-0.85226935 -1.6009012 0.62303233
-0.83536428 -1.5697972 0.42908064
-0.82051909 -1.5431831 0.24985351
-0.91500014 -1.7037308 1.8035771
-0.88965356 -1.6585999 1.4540101
-0.88258028 -1.646777 1.1835369
-0.86824656 -1.6213764 0.9376871
-0.85796058 -1.6034974 0.72209048
-0.84796906 -1.5861385 0.5245105
-0.82616979 -1.5460014 0.33669871
-0.81641769 -1.5290201 0.16359663
-0.62155187 -1.0909585 7.982265
-0.80670249 -1.4369819 7.9462142
-1.1889936 -2.1516206 7.9060073
-1.0925333 -1.9933904 5.4147878
-1.0161598 -1.8632421 3.9566598
-0.97196591 -1.7881048 3.0617273
-0.93593705 -1.7260979 2.4274726
-0.20269574 -0.29460749 6.0243607
-0.47591585 -0.74823928 8.2276497
-1.0009936 -1.7930425 7.9438162
-1.0155764 -1.8393165 5.7678246
-1.0393947 -1.8948392 4.5324669
-0.99513435 -1.8208864 3.4643579
-0.94857341 -1.7407069 2.6997557
-0.92697895 -1.7045895 2.1817634
-0.92140734 -1.7077975 1.986725
-0.90064603 -1.671392 1.6132829
-0.88881212 -1.6514806 1.3142223
-0.87345225 -1.6242844 1.0519344
-0.8605209 -1.6015619 0.82287979
-0.85104513 -1.5852371 0.61880219
-0.83592129 -1.5583608 0.4272154
-0.81857437 -1.5272857 0.24851227
-0.91353452 -1.6875534 1.7902751
-0.88938135 -1.6449738 1.4451805
-0.8818894 -1.6324632 1.1759374
-0.86687052 -1.6066581 0.93139297
-0.85627121 -1.5883243 0.71715993
-0.84603256 -1.570629 0.52099353
-0.82632715 -1.5346779 0.33531734
-0.81648326 -1.5176485 0.16319357
-0.62496895 -1.0881087 7.9773259
-0.81121182 -1.4332712 7.9413185
-1.196497 -2.1474571 7.9060073
-1.0890892 -1.9707562 5.3641601
-1.0157324 -1.8470923 3.930325
-0.97143829 -1.7723629 3.0410624
-0.9342677 -1.7087591 2.4082851
-0.20405404 -0.2943711 6.0343437
-0.47823665 -0.7461251 8.2226791
-1.0066297 -1.7884423 7.9389768
-1.0219905 -1.8357602 5.7678246
-1.0407338 -1.8816748 4.5099607
-0.99267256 -1.8014128 3.4344964
-0.94593668 -1.7215403 2.6758156
-0.92640293 -1.6894532 2.1670628
-0.918841 -1.6889077 1.9692023
-0.899041 -1.6545581 1.6007291
-0.88858777 -1.6373429 1.3059981
-0.87278163 -1.6095431 1.0449779
-0.85948068 -1.5863202 0.81726068
-0.85200578 -1.5738195 0.61598212
-0.83434445 -1.5424715 0.42441753
-0.81916493 -1.5156571 0.24761811
-0.91226345 -1.6712452 1.7769731
-0.88931334 -1.6312128 1.4363512
-0.88139558 -1.6180183 1.1683378
-0.86596632 -1.5916624 0.92509878
-0.85504413 -1.5728794 0.71222943
-0.84454978 -1.5548525 0.51747662
-0.82459038 -1.5187283 0.33324531
-0.81701124 -1.5060064 0.16279051
-0.62798429 -1.0845758 7.9674473
-0.81620991 -1.4304308 7.9413185
-1.1915556 -2.1211445 7.8248835
-1.0855006 -1.9481705 5.3135328
-1.0140435 -1.828874 3.8996017
-0.97081286 -1.756647 3.0203977
-0.93403643 -1.6942599 2.392935
-0.20508035 -0.29365703 6.0343437
-0.48083821 -0.74445122 8.2226791
-1.0128664 -1.7849175 7.9389768
-1.029237 -1.8336862 5.7725172
-1.0398731 -1.864722 4.4784522
-0.99135399 -1.7842585 3.408901
-0.94463831 -1.7050495 2.6558657
-0.92573267 -1.6743419 2.1523621
-0.91786957 -1.6731838 1.9551841
-0.89920002 -1.6411694 1.5913138
-0.88827562 -1.6232269 1.2977736
-0.87201881 -1.5948266 1.0380214
-0.85834455 -1.5711054 0.81164157
-0.85289723 -1.5624149 0.61316204
-0.83501917 -1.5309247 0.42255229
-0.81968433 -1.5040429 0.24672395
-0.9108898 -1.6549668 1.763671
-0.88916016 -1.6174725 1.4275216
-0.88081199 -1.6035968 1.1607383
-0.86715102 -1.5806719 0.92090267
-0.85371971 -1.5574627 0.70729887
-0.84296739 -1.5391059 0.51395965
-0.8251304 -1.5071532 0.33186394
-0.81746793 -1.4943793 0.16238745
-0.63137442 -1.0817062 7.9625077
-0.82119811 -1.427573 7.9413185
-1.1886524 -2.0987892 7.7580757
-1.0827245 -1.9273373 5.2675071
-1.0134084 -1.8127806 3.8732669
-0.97008955 -1.740957 2.999733
-0.93215811 -1.676982 2.3737476
-0.20610416 -0.29293939 6.0343437
-0.4834339 -0.74276823 8.2226791
-1.0190908 -1.781371 7.9389768
-1.0356314 -1.8300824 5.7725172
-1.0389068 -1.8477981 4.4469438
-0.98992777 -1.7671356 3.3833053
-0.94323635 -1.6885887 2.6359155
-0.92496836 -1.6592561 2.1376615
-0.91679949 -1.657487 1.9411659
-0.89739424 -1.624393 1.57876
-0.88585556 -1.6054722 1.2868078
-0.87116408 -1.5801352 1.0310652
-0.85711277 -1.5559181 0.80602247
-0.85140628 -1.5468208 0.60893196
-0.8356235 -1.5193921 0.42068705
-0.82013273 -1.4924437 0.24582979
-0.9112255 -1.6419829 1.7536945
-0.88696235 -1.6002181 1.415749
-0.8801384 -1.5891993 1.1531388
-0.86607277 -1.5657213 0.91460848
-0.85458237 -1.5462073 0.70401186
-0.84128529 -1.5233892 0.51044267
-0.82559997 -1.4955931 0.33048257
-0.81544054 -1.478393 0.16178286
-0.63475221 -1.0788262 7.9575691
-0.82617623 -1.4246978 7.9413185
-1.1863481 -2.0777764 7.6960402
-1.0798165 -1.9065474 5.2214818
-1.0126736 -1.7967139 3.8469329
-0.9678902 -1.7228403 2.9749353
-0.93173772 -1.662534 2.3583977
-0.20712544 -0.29221815 6.0343437
-0.48602372 -0.74107623 8.2226791
-1.0253028 -1.7778029 7.9389768
-1.0428686 -1.827955 5.7772098
-1.0367615 -1.8290102 4.4109344
-0.98839414 -1.7500445 3.3577094
-0.94320983 -1.6747842 2.6199553
-0.92410994 -1.644196 2.1229608
-0.91736823 -1.644933 1.9306521
-0.89737636 -1.6110495 1.5693445
-0.88535547 -1.5914081 1.2785833
-0.87236983 -1.5693412 1.0264276
-0.85803658 -1.5448112 0.80227643
-0.85214478 -1.5354506 0.60611188
-0.83615756 -1.5078741 0.41882181
-0.82051021 -1.4808599 0.24493563
-0.90965849 -1.6257589 1.7403926
-0.88662702 -1.5865273 1.4069196
-0.87937516 -1.5748264 1.1455393
-0.86711144 -1.5547611 0.91041237
-0.85307831 -1.5308402 0.6990813
-0.84186858 -1.5119501 0.50809807
-0.8235904 -1.4797212 0.32841054
-0.81573981 -1.4668052 0.1613798
-0.63772094 -1.0752674 7.94769
-0.83114433 -1.4218051 7.9413185
-1.1772087 -2.0451627 7.5910568
-1.0787143 -1.8891946 5.1846619
-1.011839 -1.7806748 3.8205981
-0.96696335 -1.707209 2.9542706
-0.9312278 -1.6481093 2.3430474
-0.20797536 -0.29125923 6.0293517
-0.48890194 -0.73981947 8.2276497
-1.0308703 -1.7731265 7.9341373
-1.0501037 -1.8257997 5.7819028
-1.035578 -1.81215 4.3794255
-0.9867534 -1.7329859 3.332114
-0.94161052 -1.6583802 2.6000051
-0.92315787 -1.6291623 2.1082602
-0.91611266 -1.6292868 1.916634
-0.89727652 -1.5977261 1.5599293
-0.88476813 -1.5773675 1.2703589
-0.87134498 -1.5546938 1.0194712
-0.85662812 -1.5296723 0.79665732
-0.85281432 -1.5240942 0.60329181
-0.83422422 -1.4920834 0.41602394
-0.81838804 -1.464944 0.24359439
-0.90982407 -1.6128179 1.7304161
-0.88620692 -1.5728583 1.39809
-0.87852228 -1.560478 1.1379397
-0.86585969 -1.5398568 0.90411824
-0.85379052 -1.5196193 0.69579428
-0.84000278 -1.4962871 0.50458109
-0.82390362 -1.4682002 0.32702917
-0.81596816 -1.4552336 0.16097674
-0.64107156 -1.0723681 7.9427509
-0.83610237 -1.4188954 7.9413185
-1.1820924 -2.0371678 7.5767403
-1.0765293 -1.8701797 5.143239
-1.0109049 -1.7646633 3.7942636
-0.96454358 -1.6891615 2.9294727
-0.93062872 -1.6337086 2.3276975
-0.20882107 -0.29029793 6.0243607
-0.49148145 -0.73810834 8.2276497
-1.0364176 -1.768433 7.9292984
-1.0564704 -1.8221229 5.7819028
-1.0332026 -1.7934344 4.3434157
-0.98630422 -1.7182219 3.3107843
-0.94140536 -1.6446229 2.5840452
-0.92211217 -1.6141555 2.0935595
-0.91651797 -1.6167719 1.9061204
-0.89709461 -1.5844232 1.5505139
-0.88409352 -1.5633504 1.2621346
-0.87022859 -1.5400728 1.0125147
-0.85740387 -1.5185992 0.79291129
-0.85341501 -1.5127519 0.60047174
-0.83460307 -1.4806039 0.4141587
-0.81860888 -1.4534004 0.24270025
-0.90806442 -1.5966501 1.7171141
-0.88570225 -1.5592119 1.3892606
-0.87757999 -1.5461547 1.1303401
-0.86675292 -1.5289289 0.89992213
-0.85210747 -1.5043036 0.69086379
-0.84043223 -1.4848858 0.50223649
-0.82414657 -1.4566952 0.3256478
-0.81612563 -1.4436783 0.16057368
-0.64440972 -1.0694586 7.9378119
-0.84157026 -1.4168435 7.9462142
-1.1929653 -2.0394711 7.6006007
-1.0752056 -1.8528929 5.1064186
-1.0098715 -1.7486805 3.7679293
-0.96341383 -1.6735907 2.9088082
-0.92994046 -1.6193323 2.3123474
-0.21000363 -0.2898002 6.0293517
-0.49435243 -0.73683053 8.2326212
-1.0413054 -1.7626402 7.9196196
-1.0636953 -1.8199139 5.7865958
-1.0318029 -1.7766399 4.3119073
-0.98445767 -1.701225 3.2851889
-0.9411158 -1.6308875 2.568085
-0.920973 -1.5991759 2.0788589
-0.91507745 -1.6011779 1.8921022
-0.89683086 -1.5711412 1.5410986
-0.88333207 -1.5493574 1.2539102
-0.87121361 -1.5293276 1.0078771
-0.85811269 -1.507539 0.78916514
-0.85394704 -1.5014243 0.59765172
-0.83491206 -1.4691401 0.41229346
-0.81875908 -1.4418731 0.24180609
-0.90806037 -1.5837533 1.7071376
-0.88511324 -1.5455881 1.3804312
-0.87868965 -1.535599 1.1252737
-0.86532837 -1.5140729 0.893628
-0.85266966 -1.4931189 0.68757677
-0.84079242 -1.4734997 0.49989185
-0.8243193 -1.4452065 0.32426646
-0.81621253 -1.4321396 0.16017061
-0.64813894 -1.0672026 7.9378119
-0.84651083 -1.4138973 7.9462142
-1.2038685 -2.0417233 7.6244607
-1.074761 -1.8373247 5.0742011
-1.0075338 -1.7306567 3.7372057
-0.96077466 -1.6556146 2.8840106
-0.92916328 -1.6049809 2.2969975
-0.21101394 -0.28906539 6.0293517
-0.49692148 -0.73510045 8.2326212
-1.0480951 -1.7600745 7.924459
-1.0709175 -1.8176764 5.7912879
-1.0291984 -1.7579986 4.275898
-0.98381877 -1.686515 3.263859
-0.93922663 -1.6145698 2.548135
-0.91974044 -1.5842241 2.0641582
-0.91531974 -1.5887039 1.8815886
-0.89648533 -1.5578804 1.5316831
-0.8824836 -1.5353888 1.2456857
-0.86992806 -1.5147532 1.0009208
-0.8564474 -1.4924718 0.78354609
-0.85441035 -1.4901112 0.59483165
-0.8351512 -1.4576921 0.41042823
-0.81883883 -1.4303626 0.24091193
-0.9079774 -1.5708761 1.697161
-0.88443989 -1.5319875 1.3716016
-0.87758231 -1.5213206 1.1176742
-0.86607653 -1.5031782 0.88943189
-0.85316426 -1.4819485 0.68428975
-0.83865958 -1.457916 0.49637488
-0.82195336 -1.4294415 0.32219443
-0.81622887 -1.4206182 0.15976755
-0.65186024 -1.0649337 7.9378119
-0.85144114 -1.4109337 7.9462142
-1.210988 -2.0375087 7.6244607
-1.0732284 -1.8200994 5.0373812
-1.006295 -1.7147362 3.7108712
-0.95944285 -1.6401063 2.8633456
-0.92991304 -1.5934231 2.285485
-0.21219382 -0.28855881 6.0343437
-0.49948442 -0.73336142 8.2326212
-1.0490564 -1.747784 7.8857436
-1.0781372 -1.8154107 5.7959809
-1.0275831 -1.7412721 4.2443895
-0.98176724 -1.669582 3.2382634
-0.93875927 -1.6008844 2.5321748
-0.91841495 -1.5693005 2.0494576
-0.91369492 -1.573164 1.8675704
-0.89410502 -1.5412747 1.5191293
-0.88364494 -1.5250632 1.2402028
-0.87077105 -1.5040402 0.99628317
-0.85700899 -1.4814476 0.7798
-0.85480523 -1.4788135 0.59201157
-0.83286381 -1.4420069 0.40763035
-0.81884831 -1.4188691 0.24001777
-0.90781575 -1.5580193 1.6871846
-0.88368261 -1.5184108 1.3627722
-0.87638605 -1.5070685 1.1100746
-0.86447972 -1.4883724 0.88313776
-0.85122091 -1.4667089 0.67935926
-0.83886677 -1.4465702 0.49403024
-0.821971 -1.4179951 0.32081306
-0.81617481 -1.4091141 0.15936449
-0.65557355 -1.0626518 7.9378119
-0.85636097 -1.407953 7.9462142
-1.2104205 -2.0204647 7.5767403
-1.0715886 -1.8029073 5.0005608
-1.0049571 -1.6988455 3.6845365
-0.95801455 -1.6246277 2.8426807
-0.92896813 -1.5791171 2.2701349
-0.21319978 -0.28781638 6.0343437
-0.50204128 -0.7316134 8.2326212
-1.0558017 -1.7451868 7.8905821
-1.0853541 -1.8131171 5.800674
-1.0258636 -1.7245783 4.2128806
-0.98093945 -1.6549276 3.2169337
-0.93667471 -1.5846283 2.5122247
-0.91871929 -1.5573257 2.0384321
-0.91377479 -1.5607324 1.8570567
-0.89358473 -1.5280644 1.5097139
-0.88263607 -1.5111376 1.2319785
-0.869317 -1.4895139 0.98932678
-0.85750407 -1.4704378 0.77605397
-0.85271651 -1.4633867 0.58778149
-0.83294886 -1.4306008 0.40576512
-0.81878757 -1.4073932 0.23912361
-0.90757537 -1.5451825 1.6772081
-0.88284117 -1.504858 1.3539426
-0.87510097 -1.4928436 1.1024752
-0.86508334 -1.4775126 0.87894166
-0.85156637 -1.455577 0.67607224
-0.83900505 -1.4352406 0.4916856
-0.82191879 -1.406566 0.31943169
-0.81605035 -1.3976278 0.15896143
-0.65927887 -1.060357 7.9378119
-0.86127043 -1.4049553 7.9462142
-1.1981734 -1.9842836 7.4574409
-1.0698421 -1.7857491 4.9637408
-1.003521 -1.6829854 3.6582022
-0.95648998 -1.6091794 2.8220162
-0.92793471 -1.5648371 2.2547848
-0.21437688 -0.28730097 6.0393353
-0.50459206 -0.72985649 8.2326212
-1.0573055 -1.7339789 7.8567066
-1.0925682 -1.8107949 5.8053665
-1.0251597 -1.7097849 4.1858735
-0.98002136 -1.6402994 3.1956041
-0.93603051 -1.5709949 2.4962647
-0.91721833 -1.5424539 2.0237315
-0.9137792 -1.5483197 1.8465432
-0.89298338 -1.514877 1.5002986
-0.88154066 -1.4972377 1.223754
-0.87001848 -1.4788343 0.98468918
-0.85793281 -1.4594425 0.77230787
-0.85296023 -1.4521286 0.58496141
-0.8329646 -1.4192117 0.40389988
-0.81865668 -1.3959351 0.23822945
-0.9072566 -1.5323668 1.6672316
-0.88191617 -1.4913298 1.3451133
-0.87372738 -1.478646 1.0948756
-0.86331487 -1.4627583 0.87264746
-0.85184449 -1.4444606 0.67278522
-0.83660686 -1.4197406 0.48816866
-0.82179689 -1.3951547 0.31805035
-0.8158558 -1.3861595 0.15855835
-0.66297621 -1.0580492 7.9378119
-0.86616945 -1.4019403 7.9462142
-1.1981072 -1.9686135 7.4144931
-1.0679891 -1.7686254 4.9269204
-1.0032202 -1.6692086 3.6362567
-0.9563157 -1.5961753 2.8054843
-0.92681295 -1.5505838 2.2394347
-0.21537843 -0.28655091 6.0393353
-0.50713664 -0.7280907 8.2326212
-1.0528196 -1.7131447 7.7792764
-1.099779 -1.8084443 5.8100591
-1.0232391 -1.6931546 4.1543651
-0.97766769 -1.6234639 3.1700087
-0.93530262 -1.5573856 2.4803045
-0.91736782 -1.5305194 2.0127058
-0.91188467 -1.5328611 1.832525
-0.89230067 -1.5017122 1.4908831
-0.88035899 -1.483364 1.2155296
-0.87065613 -1.4681681 0.98005158
-0.85829526 -1.4484624 0.76856184
-0.85069162 -1.4367591 0.58073127
-0.83291084 -1.40784 0.40203464
-0.81845593 -1.384495 0.23733529
-0.9068594 -1.5195719 1.6572551
-0.88297713 -1.4812984 1.339227
-0.87447143 -1.4681799 1.0898093
-0.86377454 -1.4519349 0.86845136
-0.85205537 -1.4333602 0.66949821
-0.83659303 -1.4084536 0.48582402
-0.82160544 -1.3837616 0.31666899
-0.8155911 -1.37471 0.15815529
-0.66666549 -1.0557284 7.9378119
-0.87105787 -1.3989083 7.9462142
-1.1917014 -1.9427899 7.3333697
-1.0660297 -1.7515363 4.8901005
-1.0015947 -1.6534065 3.6099226
-0.95460755 -1.5807835 2.7848196
-0.9272573 -1.539103 2.2279224
-0.21620204 -0.285568 6.0343437
-0.50967503 -0.72631603 8.2326212
-1.0488633 -1.6934313 7.7066846
-1.1042812 -1.801652 5.800674
-1.0234802 -1.680277 4.1318593
-0.9765619 -1.6088942 3.1486788
-0.93449134 -1.5438005 2.4643445
-0.91744536 -1.5186031 2.0016804
-0.91172743 -1.5204931 1.8220112
-0.89153707 -1.4885708 1.4814678
-0.8790915 -1.4695171 1.2073052
-0.86895692 -1.4537133 0.97309518
-0.85859162 -1.4374975 0.76481575
-0.85078472 -1.4255425 0.5779112
-0.83278805 -1.396486 0.4001694
-0.81818527 -1.3730735 0.23644114
-0.90638411 -1.5067987 1.6472787
-0.88189703 -1.4678131 1.3303974
-0.87293422 -1.454031 1.0822097
-0.86183512 -1.437234 0.86215717
-0.8521992 -1.4222758 0.66621119
-0.83651054 -1.3971841 0.48347941
-0.82134444 -1.3723867 0.31528762
-0.81782061 -1.3675669 0.15795377
-0.67034656 -1.0533949 7.9378119
-0.87593567 -1.3958592 7.9462142
-1.1882701 -1.9221132 7.2713337
-1.0639638 -1.7344826 4.8532801
-1.0011191 -1.63968 3.5879772
-0.95426702 -1.5678269 2.7682879
-0.92596918 -1.5248985 2.2125723
-0.21719755 -0.28481156 6.0343437
-0.51220727 -0.72453249 8.2326212
-1.0467794 -1.6769652 7.6486115
-1.1069353 -1.7919141 5.7819028
-1.0225049 -1.6655631 4.1048517
-0.97536629 -1.5943522 3.1273491
-0.93359649 -1.5302401 2.4483843
-0.91745085 -1.5067047 1.9906548
-0.91149527 -1.5081453 1.8114977
-0.89270449 -1.4787854 1.475191
-0.877738 -1.4556972 1.1990808
-0.86945367 -1.4430826 0.96845758
-0.85882193 -1.4265484 0.76106972
-0.84833717 -1.4102322 0.57368112
-0.83259612 -1.3851502 0.39830416
-0.81784493 -1.3616709 0.23554698
-0.90583062 -1.4940475 1.637302
-0.88073373 -1.4543538 1.321568
-0.87354082 -1.4435989 1.0771434
-0.86215144 -1.4264487 0.85796106
-0.85227615 -1.4112082 0.66292417
-0.83635986 -1.3859326 0.48113477
-0.82101417 -1.3610307 0.31390625
-0.81743115 -1.3561463 0.15755071
-0.67401958 -1.0510485 7.9378119
-0.88080275 -1.3927932 7.9462142
-1.1799725 -1.8938836 7.180666
-1.0628195 -1.7191265 4.8210621
-0.99930477 -1.6239375 3.5616424
-0.95237601 -1.5524935 2.7476232
-0.92459327 -1.5107219 2.1972225
-0.21801344 -0.28382355 6.0293517
-0.51473325 -0.72274011 8.2326212
-0.98099697 -1.5594668 7.1307931
-1.1104469 -1.7836447 5.7678246
-1.0214392 -1.6508766 4.0778441
-0.9754501 -1.5820584 3.1102853
-0.93261844 -1.5167047 2.4324241
-0.91738451 -1.494825 1.9796295
-0.91118783 -1.4958175 1.800984
-0.89179099 -1.4656848 1.4657755
-0.87847066 -1.445478 1.1935979
-0.86758757 -1.4286801 0.96150118
-0.85898626 -1.4156153 0.75732362
-0.84828037 -1.3990586 0.57086104
-0.83233535 -1.3738327 0.39643893
-0.81743509 -1.3502876 0.23465282
-0.90519935 -1.4813187 1.6273257
-0.87948722 -1.4409205 1.3127384
-0.87408519 -1.4331803 1.072077
-0.86240286 -1.4156786 0.85376495
-0.85228634 -1.4001573 0.65963709
-0.83614075 -1.3746991 0.47879013
-0.82061464 -1.3496939 0.31252488
-0.81697202 -1.3447453 0.15714765
-0.67768431 -1.0486895 7.9378119
-0.88511175 -1.3888514 7.9413185
-1.1802251 -1.8796405 7.1424899
-1.0605479 -1.7021415 4.7842422
-0.99865526 -1.610263 3.5396972
-0.95186955 -1.5395857 2.7310913
-0.9231298 -1.4965734 2.1818724
-0.21882513 -0.28283334 6.0243607
-0.51725298 -0.72093898 8.2326212
-0.98643452 -1.556033 7.1307931
-1.1084107 -1.7666024 5.7255898
-1.0202838 -1.6362184 4.050837
-0.97408342 -1.5675684 3.0889559
-0.93155742 -1.5031952 2.4164641
-0.91724646 -1.4829642 1.9686038
-0.91080564 -1.4835105 1.7904702
-0.89283192 -1.455927 1.4594986
-0.87695843 -1.4317057 1.1853735
-0.86794412 -1.4180864 0.95686358
-0.85908484 -1.4046985 0.75357759
-0.84815586 -1.3879025 0.56804103
-0.83200574 -1.3625342 0.39457369
-0.81954956 -1.3431748 0.23420574
-0.90449029 -1.4686124 1.617349
-0.87815779 -1.4275136 1.3039091
-0.87456757 -1.4227756 1.0670106
-0.8625899 -1.4049244 0.8495689
-0.85469902 -1.3931487 0.65799361
-0.83839375 -1.3676281 0.47761783
-0.82014608 -1.3383765 0.31114352
-0.81905228 -1.3376248 0.15694611
-0.68134075 -1.0463175 7.9378119
-0.88995433 -1.3857534 7.9413185
-1.1771995 -1.8603734 7.0852261
-1.0581707 -1.6851937 4.7474217
-0.9966529 -1.5945822 3.5133626
-0.95128483 -1.5267009 2.7145593
-0.923271 -1.4851758 2.1703598
-0.21981108 -0.28206778 6.0243607
-0.51976639 -0.71912903 8.2326212
-0.99118322 -1.5515211 7.1259537
-1.1071916 -1.7510546 5.6880474
-1.0190383 -1.621588 4.0238295
-0.97262758 -1.5531073 3.067626
-0.93041354 -1.4897116 2.4005039
-0.91703689 -1.4711227 1.9575783
-0.91222525 -1.474257 1.7834612
-0.89176929 -1.4428687 1.4500831
-0.87755746 -1.42152 1.1798905
-0.86591166 -1.4037375 0.94990712
-0.85911769 -1.3937982 0.7498315
-0.84796393 -1.3767644 0.56522095
-0.8316074 -1.3512548 0.39270842
-0.81901574 -1.3318218 0.23331158
-0.90567279 -1.4591018 1.6106981
-0.87887543 -1.4175689 1.2980225
-0.87498808 -1.4123852 1.0619444
-0.8627122 -1.3941861 0.8453728
-0.85458988 -1.3821239 0.6547066
-0.83805287 -1.3564231 0.47527319
-0.82221067 -1.3312922 0.31045285
-0.81846905 -1.3262546 0.15654305
-0.68498892 -1.0439328 7.9378119
-0.89478606 -1.3826383 7.9413185
-1.1700406 -1.8348582 7.0041027
-1.0556883 -1.6682832 4.7106018
-0.99455351 -1.5789351 3.4870281
-0.95062166 -1.5138388 2.6980276
-0.92334414 -1.4737957 2.1588473
-0.220615 -0.28107253 6.0193686
-0.52227336 -0.71731037 8.2326212
-1.0033984 -1.5586197 7.1743479
-1.1058775 -1.7355371 5.6505055
-1.0165385 -1.6051477 3.9923213
-0.97247475 -1.5408808 3.0505624
-0.92918694 -1.4762545 2.3845439
-0.91675591 -1.4593008 1.946553
-0.9117043 -1.4619858 1.7729477
-0.89062649 -1.4298359 1.4406679
-0.8780961 -1.4113474 1.1744076
-0.86612839 -1.3931824 0.94526953
-0.85908502 -1.3829151 0.74608546
-0.84770465 -1.3656448 0.56240088
-0.83114058 -1.3399947 0.39084318
-0.81841272 -1.320489 0.23241742
-0.90481973 -1.4464352 1.6007215
-0.87739253 -1.4042091 1.2891932
-0.8753466 -1.402009 1.056878
-0.8627702 -1.3834643 0.84117669
-0.85691178 -1.3751248 0.65306306
-0.8376441 -1.3452375 0.47292855
-0.82161903 -1.3200059 0.30907148
-0.81781638 -1.3149048 0.15613998
-0.6882 -1.0408874 7.9328728
-0.89960688 -1.3795066 7.9413185
-1.1764383 -1.8307629 7.0041027
-1.0531007 -1.6514109 4.6737814
-0.99235696 -1.5633222 3.4606936
-0.94988048 -1.501 2.6814959
-0.92334914 -1.4624331 2.1473348
-0.22159477 -0.28030071 6.0193686
-0.52477413 -0.71548289 8.2326212
-1.0115699 -1.5593255 7.1937056
-1.1026037 -1.7171462 5.6035776
-1.0139365 -1.5887446 3.9608128
-0.97084862 -1.526474 3.0292325
-0.92949206 -1.4653687 2.3725739
-0.91640359 -1.447499 1.9355273
-0.91110873 -1.4497362 1.7624339
-0.88940352 -1.4168288 1.4312525
-0.87635309 -1.397646 1.1661832
-0.86393017 -1.3788891 0.93831313
-0.85898691 -1.3720493 0.74233937
-0.84737813 -1.3545438 0.5595808
-0.83060527 -1.3287547 0.38897794
-0.82037884 -1.3134005 0.23197034
-0.90388936 -1.4337927 1.5907451
-0.87798107 -1.3942972 1.2833068
-0.87334776 -1.3879994 1.0492785
-0.86276388 -1.3727591 0.83698058
-0.85668367 -1.3641274 0.64977604
-0.83975106 -1.3381883 0.47175622
-0.82095867 -1.3087398 0.30769014
-0.8170945 -1.3035759 0.15573692
-0.6918292 -1.0384787 7.9328728
-0.90497619 -1.3772088 7.9462142
-1.1609125 -1.7928175 6.8752594
-1.0493522 -1.6329336 4.632359
-0.99135447 -1.5497614 3.4387484
-0.94906127 -1.488185 2.664964
-0.92328602 -1.4510885 2.1358223
-0.22257185 -0.27952549 6.0193686
-0.52695113 -0.71321845 8.2276497
-1.1001525 -1.7002482 5.5613427
-1.01241 -1.5742102 3.9338055
-0.96913397 -1.5120976 3.0079031
-0.92810941 -1.4519601 2.3566139
-0.91598016 -1.4357173 1.924502
-0.91043901 -1.4375088 1.7519203
-0.89018172 -1.4071369 1.4249755
-0.87675899 -1.3875087 1.1607003
-0.86400801 -1.3683739 0.93367553
-0.85634953 -1.3572803 0.73672026
-0.84698445 -1.3434619 0.55676073
-0.83262008 -1.3216909 0.38804534
-0.81965256 -1.3020998 0.23107618
-0.90288174 -1.4211743 1.5807685
-0.87851107 -1.3843985 1.2774205
-0.87357026 -1.3776613 1.0442121
-0.86269343 -1.3620709 0.83278447
-0.85638946 -1.3531485 0.64648902
-0.83922106 -1.3270326 0.46941158
-0.82287586 -1.3016803 0.30699944
-0.81630361 -1.2922682 0.15533386
-0.69544995 -1.0360575 7.9328728
-0.909778 -1.3740416 7.9462142
-1.1630844 -1.7825038 6.8513989
-1.0454874 -1.6145028 4.5909362
-0.98897165 -1.534214 3.4124138
-0.94816434 -1.4753941 2.6484323
-0.92315507 -1.4397624 2.1243098
-0.22354621 -0.27874687 6.0193686
-0.52943748 -0.71137464 8.2276497
-1.054935 -1.6015575 7.4211583
-1.0966544 -1.6819429 5.5144153
-1.0107946 -1.5597061 3.9067984
-0.96733087 -1.4977517 2.9865732
-0.92827648 -1.4411122 2.3446436
-0.91548574 -1.4239565 1.9134763
-0.90969491 -1.4253038 1.7414067
-0.88881075 -1.3941751 1.4155602
-0.87485874 -1.3738589 1.152476
-0.86402285 -1.357875 0.92903793
-0.85610718 -1.3464587 0.73297417
-0.84652382 -1.3323992 0.55394071
-0.83196288 -1.3104823 0.3861801
-0.81885743 -1.2908204 0.23018204
-0.90179724 -1.4085808 1.5707921
-0.87898272 -1.374513 1.2715342
-0.87373132 -1.3673387 1.0391457
-0.8625589 -1.3514 0.82858837
-0.85602897 -1.3421882 0.64320201
-0.83862352 -1.3158972 0.46706694
-0.82209313 -1.290447 0.30561811
-0.81544381 -1.2809819 0.1549308
-0.69862664 -1.03298 7.9279332
-0.91456878 -1.3708574 7.9462142
-1.0425748 -1.5977551 4.5541158
-0.98779732 -1.5207107 3.3904684
-0.94718969 -1.4626279 2.6319005
-0.92295635 -1.4284549 2.1127973
-0.22451787 -0.27796486 6.0193686
-0.5315972 -0.70909619 8.2226791
-1.0466144 -1.5769213 7.3243699
-1.0930419 -1.6636829 5.4674873
-1.0090902 -1.5452324 3.879791
-0.9668622 -1.4856228 2.9695096
-0.92673844 -1.4277534 2.3286836
-0.91492033 -1.4122168 1.902451
-0.90887696 -1.4131217 1.7308931
-0.8873601 -1.3812399 1.4061449
-0.87513244 -1.3637586 1.146993
-0.86397499 -1.3473927 0.92440039
-0.85579979 -1.3356553 0.72922814
-0.84599632 -1.3213564 0.55112064
-0.83388495 -1.3034323 0.38524747
-0.82067585 -1.2837584 0.22973496
-0.90266013 -1.3991494 1.5641412
-0.87939614 -1.3646413 1.2656479
-0.87383097 -1.3570316 1.0340793
-0.86236054 -1.3407469 0.82439226
-0.85304934 -1.3272747 0.63827151
-0.83795851 -1.3047822 0.46472231
-0.82124197 -1.279235 0.30423674
-0.81451529 -1.2697176 0.15452774
-0.70222813 -1.0305351 7.9279332
-0.91934842 -1.3676566 7.9462142
-1.0757319 -1.6237786 6.2739892
-1.0374111 -1.5777829 4.508091
-0.98654079 -1.5072342 3.3685231
-0.94613755 -1.4498863 2.6153688
-0.92269009 -1.4171665 2.1012847
-0.22548677 -0.27717945 6.0193686
-0.53374738 -0.70681131 8.2177076
-1.0521126 -1.5732584 7.3243699
-1.0893154 -1.645469 5.4205594
-1.0096909 -1.5344269 3.8617861
-0.96489042 -1.4713347 2.94818
-0.92676795 -1.4169446 2.3167133
-0.91613775 -1.4033372 1.8951007
-0.90798503 -1.4009626 1.7203795
-0.8858301 -1.368332 1.3967296
-0.87534624 -1.3536731 1.14151
-0.86626875 -1.3406481 0.92208159
-0.85542744 -1.3248706 0.72548205
-0.84540218 -1.3103334 0.54830056
-0.83310622 -1.2922564 0.38338223
-0.81975818 -1.2725129 0.2288408
-0.90143287 -1.3865989 1.5541645
-0.87754989 -1.3513935 1.2568183
-0.87386948 -1.3467408 1.0290129
-0.86209834 -1.3301114 0.82019615
-0.85254312 -1.316362 0.63498449
-0.83986706 -1.2977687 0.46355
-0.82032269 -1.2680449 0.30285537
-0.81351811 -1.2584753 0.15412468
-0.70626122 -1.0287181 7.9328728
-0.92354566 -1.3635961 7.9413185
-1.064816 -1.595185 6.1785493
-1.0375165 -1.5660094 4.4850783
-0.98520225 -1.4937853 3.3465776
-0.94500804 -1.4371701 2.5988369
-0.92235619 -1.4058974 2.0897722
-0.22645293 -0.27639067 6.0193686
-0.53588808 -0.70451993 8.2127361
-1.0266868 -1.5237142 7.1114354
-1.0864328 -1.6287369 5.3783245
-1.0090253 -1.5218216 3.8392799
-0.96426857 -1.4592544 2.9311161
-0.92673361 -1.4061534 2.3047435
-0.91544086 -1.391634 1.8840752
-0.90701932 -1.3888273 1.7098659
-0.88634753 -1.3587117 1.3904526
-0.87550032 -1.3436028 1.1360271
-0.86610901 -1.3301917 0.91744399
-0.85751855 -1.3179908 0.72360903
-0.84474128 -1.2993307 0.54548049
-0.83225983 -1.2811019 0.38151699
-0.82148343 -1.2654666 0.22839372
-0.90012926 -1.3740745 1.5441881
-0.87783539 -1.3415576 1.250932
-0.87384683 -1.3364664 1.0239466
-0.86177224 -1.3194942 0.81600004
-0.85197121 -1.305469 0.63169748
-0.83908182 -1.2866863 0.46120536
-0.82203972 -1.2610253 0.3021647
-0.81517917 -1.2514418 0.15392315
-0.70984775 -1.0262464 7.9328728
-0.92829984 -1.3603641 7.9413185
-1.0512141 -1.5629723 6.0687938
-1.0375524 -1.5542542 4.4620657
-0.98378193 -1.4803641 3.3246322
-0.94535571 -1.4268255 2.5864379
-0.92195505 -1.3946481 2.0782597
-0.22760116 -0.27582031 6.0243607
-0.53801936 -0.70222229 8.2077646
-1.0249376 -1.5097225 7.0630412
-1.0844098 -1.6134772 5.3407826
-1.0082841 -1.5092399 3.8167739
-0.96212876 -1.4450258 2.9097865
-0.92663509 -1.3953795 2.2927732
-0.91467363 -1.3799529 1.8730495
-0.90598005 -1.3767158 1.6993521
-0.88467062 -1.3458521 1.3810372
-0.87788993 -1.3370433 1.1332856
-0.86588663 -1.3197528 0.91280639
-0.85703039 -1.3072356 0.719863
-0.84401411 -1.2883489 0.54266042
-0.83134568 -1.2699691 0.37965176
-0.82044345 -1.2542564 0.22749956
-0.89874917 -1.3615758 1.5342115
-0.87583786 -1.3283619 1.2421026
-0.87376314 -1.3262086 1.0188802
-0.86387783 -1.3126869 0.81390196
-0.85133368 -1.2945962 0.62841046
-0.83822948 -1.2756253 0.45886073
-0.82099891 -1.2498702 0.30078334
-0.81405962 -1.2402353 0.15352009
-0.71387023 -1.0243998 7.9378119
-0.93246585 -1.3562766 7.9364243
-1.0566636 -1.5592934 6.0687938
-1.0375189 -1.5425179 4.4390526
-0.98228002 -1.4669712 3.3026869
-0.94408023 -1.4141556 2.5699062
-0.92148662 -1.3834187 2.0667472
-0.22856258 -0.27502418 6.0243607
-0.53981489 -0.69949681 8.1978207
-1.0287819 -1.5040609 7.0533624
-1.0813258 -1.5968231 5.2985477
-1.0074675 -1.4966822 3.7942681
-0.96135473 -1.4329958 2.8927228
-0.92647284 -1.3846239 2.2808034
-0.913836 -1.3682942 1.8620242
-0.9068383 -1.3676007 1.6923431
-0.88506424 -1.3362658 1.3747603
-0.87793714 -1.3269962 1.1278027
-0.86804515 -1.313027 0.91048759
-0.85647756 -1.2965 0.71611691
-0.84322059 -1.2773881 0.53984034
-0.83036393 -1.2588583 0.37778652
-0.8193354 -1.2430688 0.2266054
-0.89936066 -1.3522125 1.5275606
-0.8759957 -1.3185632 1.2362163
-0.87361848 -1.3159678 1.013814
-0.86343825 -1.3020986 0.80970585
-0.85063064 -1.283744 0.62512344
-0.83731019 -1.2645862 0.45651609
-0.81989026 -1.2387378 0.29940197
-0.81562793 -1.2332193 0.15331855
-0.71744168 -1.0219017 7.9378119
-0.93719441 -1.3530134 7.9364243
-1.0545236 -1.5445013 6.0258455
-1.0374163 -1.5308012 4.4160399
-0.98203635 -1.4555923 3.2851305
-0.94272786 -1.4015121 2.5533745
-0.92095107 -1.3722095 2.0552347
-0.22952119 -0.27422467 6.0243607
-0.54127032 -0.69634694 8.1829071
-1.0504339 -1.5242634 7.164669
-1.0791115 -1.5816356 5.2610059
-1.0065755 -1.4841484 3.7717619
-0.96050835 -1.4209888 2.875659
-0.92456216 -1.3713878 2.2648432
-0.91292828 -1.3566585 1.8509985
-0.9056626 -1.3555311 1.6818293
-0.88540179 -1.3266933 1.3684834
-0.87792504 -1.3169652 1.1223198
-0.86771137 -1.3026156 0.90584999
-0.85842913 -1.2896433 0.71424389
-0.84236079 -1.2664485 0.53702027
-0.82931495 -1.2477701 0.37592128
-0.81815916 -1.2319044 0.22571123
-0.89783925 -1.3397601 1.517584
-0.87384737 -1.3054209 1.2273868
-0.87580997 -1.3093271 1.0112808
-0.86293519 -1.2915294 0.80550975
-0.84986234 -1.2729123 0.62183642
-0.8363241 -1.253569 0.45417145
-0.82146162 -1.2317483 0.2987113
-0.81438661 -1.22205 0.15291549
-0.72145325 -1.0200253 7.9427509
-0.94191164 -1.3497337 7.9364243
-1.0565239 -1.5358919 6.0067577
-1.0361428 -1.5174906 4.3884254
-0.98172516 -1.4442331 3.2675743
-0.9412989 -1.3888955 2.5368426
-0.92034864 -1.3610215 2.0437222
-0.23047702 -0.27342179 6.0243607
-0.54040635 -0.69026017 8.1331921
-1.0557482 -1.5205873 7.164669
-1.0777819 -1.5679051 5.2281561
-1.0056083 -1.4716392 3.7492557
-0.95958984 -1.4090053 2.8585954
-0.92426378 -1.3606746 2.2528732
-0.91195047 -1.3450457 1.8399732
-0.90640551 -1.346445 1.6748203
-0.88351125 -1.3139049 1.3590679
-0.87785369 -1.3069507 1.1168369
-0.86731553 -1.2922226 0.90121239
-0.85776097 -1.2789387 0.7104978
-0.84143513 -1.2555307 0.53420019
-0.82819861 -1.2367046 0.37405604
-0.81691515 -1.2207634 0.22481708
-0.89833134 -1.3304292 1.510933
-0.87387818 -1.2956606 1.2215005
-0.87555641 -1.2991128 1.0062144
-0.86490357 -1.2847445 0.80341172
-0.84639287 -1.2581836 0.61690587
-0.83527148 -1.2425743 0.45182684
-0.82023215 -1.2206528 0.29732993
-0.81586242 -1.215052 0.15271397
-0.72500932 -1.0175006 7.9427509
-0.94661731 -1.3464377 7.9364243
-1.0627294 -1.5334214 6.0115299
-1.0358964 -1.5058171 4.3654122
-0.98134685 -1.4328938 3.2500179
-0.93979329 -1.3763059 2.5203109
-0.91967922 -1.349854 2.0322096
-0.23143002 -0.27261561 6.0243607
-0.53983712 -0.68460619 8.0884485
-1.0567259 -1.5107133 7.135632
-1.0753874 -1.5527847 5.1906142
-1.0045661 -1.459155 3.7267497
-0.95859957 -1.3970455 2.8415318
-0.92390198 -1.3499804 2.2409031
-0.91090286 -1.3334564 1.8289475
-0.90509415 -1.3344188 1.6643068
-0.88372564 -1.3043681 1.3527911
-0.88006675 -1.3004155 1.1140954
-0.86685765 -1.2818484 0.8965748
-0.85962439 -1.2720957 0.70862478
-0.84312809 -1.2486104 0.53279018
-0.82701528 -1.2256621 0.3721908
-0.81838733 -1.2137754 0.22437
-0.89666903 -1.3180242 1.5009565
-0.87385184 -1.2859163 1.2156142
-0.87524223 -1.2889161 1.001148
-0.86428744 -1.2742058 0.79921561
-0.84548074 -1.2474039 0.61361885
-0.83415216 -1.2316023 0.4494822
-0.82171178 -1.2136817 0.29663923
-0.81449991 -1.2039211 0.15231091
-0.72900999 -1.0155948 7.94769
-0.95131153 -1.3431251 7.9364243
-1.0680755 -1.5297025 6.0115299
-1.0344685 -1.4925585 4.3377976
-0.97954088 -1.4196036 3.2280724
-0.9398064 -1.3660622 2.5079119
-0.91894335 -1.3387083 2.0206971
-0.23238023 -0.27180612 6.0243607
-0.538571 -0.67813063 8.033761
-1.0627171 -1.5080429 7.1404719
-1.0738881 -1.5391155 5.1577649
-1.0046899 -1.4484848 3.7087448
-0.95753747 -1.38511 2.8244677
-0.92176604 -1.3368247 2.2249429
-0.90978551 -1.3218908 1.8179222
-0.90370989 -1.3224183 1.653793
-0.88388437 -1.2948463 1.3465142
-0.87988913 -1.2904261 1.1086124
-0.86633801 -1.2714931 0.89193714
-0.85884136 -1.2614232 0.70487875
-0.84208453 -1.2377273 0.52997011
-0.82852674 -1.2187055 0.3712582
-0.81702238 -1.2026726 0.22347584
-0.89704221 -1.3087269 1.4943056
-0.87376791 -1.2761879 1.2097279
-0.87486762 -1.2787377 0.99608171
-0.8636083 -1.263687 0.79501951
-0.84184051 -1.2327462 0.60868835
-0.83296663 -1.2206533 0.44713756
-0.82036215 -1.2026242 0.2952579
-0.81588352 -1.1969424 0.15210937
-0.73255062 -1.0130439 7.94769
-0.95599407 -1.3397963 7.9364243
-1.0734086 -1.5259649 6.0115299
-1.0340791 -1.4809299 4.314785
-0.97902143 -1.4083102 3.2105162
-0.93815649 -1.3535225 2.4913802
-0.91814077 -1.327584 2.0091846
-0.23313816 -0.27077541 6.0193686
-0.53693277 -0.67125648 7.9741035
-1.066519 -1.5022745 7.1307931
-1.0723063 -1.5254756 5.1249151
-1.0047517 -1.4378316 3.6907399
-0.95640391 -1.3731991 2.807404
-0.92126906 -1.326175 2.2129729
-0.90859854 -1.3103495 1.8068967
-0.90427536 -1.3133812 1.6467839
-0.88398731 -1.2853391 1.3402373
-0.87965268 -1.280454 1.1031295
-0.86575681 -1.2611573 0.88729954
-0.85799438 -1.2507719 0.70113266
-0.84368765 -1.2308238 0.5285601
-0.82722396 -1.2077007 0.36939296
-0.81840271 -1.1957039 0.22302876
-0.89736146 -1.2994431 1.4876546
-0.87362683 -1.2664759 1.2038416
-0.87443262 -1.2685775 0.99101532
-0.86286622 -1.2531886 0.7908234
-0.84078503 -1.2220196 0.60540134
-0.8344686 -1.213733 0.44596523
-0.81894529 -1.191591 0.29387653
-0.81440002 -1.1858507 0.15170631
-0.73608238 -1.0104805 7.94769
-0.96066505 -1.3364511 7.9364243
-1.0787287 -1.5222087 6.0115299
-1.0336211 -1.4693221 4.2917724
-0.97706115 -1.395076 3.1885707
-0.93804181 -1.3433183 2.4789815
-0.91727191 -1.3164818 1.9976722
-0.23370162 -0.26952553 6.0093851
-0.53592306 -0.66523147 7.9243889
-1.0739506 -1.5016094 7.1453114
-1.0706426 -1.511866 5.0920658
-1.0047512 -1.4271957 3.672735
-0.95519888 -1.3613131 2.7903402
-0.92070884 -1.3155453 2.2010028
-0.9092837 -1.3016118 1.7995464
-0.90275621 -1.3014262 1.6362704
-0.88181776 -1.2726476 1.3308219
-0.87935728 -1.2704992 1.0976466
-0.86511397 -1.250841 0.88266194
-0.8570835 -1.240142 0.69738662
-0.84252673 -1.2199768 0.52574003
-0.82864439 -1.2007627 0.3684603
-0.81691718 -1.1846404 0.22213461
-0.89549428 -1.2871082 1.4776781
-0.8734287 -1.2567804 1.1979553
-0.87147856 -1.2548954 0.98341578
-0.86206162 -1.2427109 0.78662729
-0.84235537 -1.2151964 0.6037578
-0.83316481 -1.2028214 0.44362062
-0.82028061 -1.1846539 0.29318586
-0.81569189 -1.1788923 0.15150478
-0.73960507 -1.0079051 7.94769
-0.96532422 -1.3330896 7.9364243
-1.0849031 -1.5196487 6.0163021
-1.0319651 -1.4561419 4.2641568
-0.97502041 -1.3818729 3.1666255
-0.93624794 -1.33083 2.4624498
-0.91817838 -1.3080252 1.9899971
-0.23425919 -0.26827502 5.999402
-0.53252304 -0.65632719 7.8398728
-1.0806553 -1.4998908 7.1549897
-1.068897 -1.4982865 5.059217
-1.0059484 -1.4183531 3.6592314
-0.95542818 -1.3515818 2.7775426
-0.92182237 -1.3073982 2.1930227
-0.90796787 -1.2901131 1.7885209
-0.9032076 -1.2924209 1.6292613
-0.88179862 -1.2631788 1.3245449
-0.87900329 -1.2605624 1.0921637
-0.8644098 -1.2405447 0.87802434
-0.85875809 -1.2333381 0.69551355
-0.84404033 -1.2130908 0.52433002
-0.82722235 -1.1897966 0.36659506
-0.81820601 -1.1776918 0.22168753
-0.89569533 -1.2778597 1.471027
-0.87317359 -1.2471019 1.1920689
-0.87091088 -1.2447815 0.97834945
-0.86119431 -1.2322543 0.78243119
-0.84118444 -1.2045057 0.60047078
-0.83179504 -1.1919339 0.44127598
-0.81874418 -1.1736604 0.29180449
-0.81408805 -1.167841 0.15110172
-0.74358094 -1.0059419 7.9526296
-0.96997172 -1.3297118 7.9364243
-1.0910728 -1.5170642 6.0210743
-1.0313652 -1.4445814 4.2411447
-0.97428733 -1.370653 3.1490691
-0.93600583 -1.3206663 2.4500508
-0.91718626 -1.2969614 1.9784846
-0.23423587 -0.26637626 5.9744439
-0.41926837 -0.51344973 6.1396189
-1.0873613 -1.4981439 7.164669
-1.0670699 -1.4847378 5.0263677
-1.0020335 -1.4024347 3.627723
-0.95408821 -1.3397413 2.760479
-0.9211452 -1.296803 2.1810527
-0.90854359 -1.2814046 1.7811704
-0.90360719 -1.2834283 1.6222522
-0.88172412 -1.2537256 1.3182681
-0.87618691 -1.2472222 1.0839393
-0.8636443 -1.2302686 0.87338674
-0.85773331 -1.2227426 0.69176745
-0.84276259 -1.2022809 0.52150995
-0.82855231 -1.1828784 0.36566246
-0.8166005 -1.1666689 0.22079337
-0.89584267 -1.2686254 1.4643761
-0.87286156 -1.2374405 1.1861825
-0.87028342 -1.2346872 0.97328311
-0.8602646 -1.2218187 0.77823514
-0.84266645 -1.1976999 0.5988273
-0.83315498 -1.1850469 0.44010365
-0.81998861 -1.1667438 0.29111382
-0.81528836 -1.1609037 0.15090019
-0.74708778 -1.0033401 7.9526296
-0.97521043 -1.3271382 7.9413185
-1.0963616 -1.5132464 6.0210743
-1.0306971 -1.4330429 4.218132
-0.97209322 -1.3575082 3.1271236
-0.93570417 -1.3105208 2.4376521
-0.917988 -1.2885312 1.9708096
-0.23554914 -0.26598743 5.9844275
-1.0933263 -1.4953538 7.1695085
-1.0651611 -1.47122 4.9935179
-1.0005633 -1.3900946 3.6052167
-0.95267737 -1.3279269 2.7434151
-0.92040527 -1.2862285 2.1690826
-0.90709925 -1.2699497 1.7701451
-0.90189171 -1.2715399 1.6117386
-0.88384479 -1.2474643 1.3151296
-0.87570381 -1.23733 1.0784563
-0.86281776 -1.2200131 0.86874914
-0.85932058 -1.2159551 0.68989444
-0.84418702 -1.1954134 0.52009988
-0.82701164 -1.1719519 0.36379722
-0.81779814 -1.1597414 0.22034629
-0.89593655 -1.259406 1.457725
-0.87483424 -1.2310914 1.1832393
-0.869596 -1.2246122 0.96821666
-0.86189848 -1.2151066 0.77613705
-0.84411138 -1.1908988 0.59718376
-0.83166754 -1.1741985 0.43775901
-0.82119471 -1.1598327 0.29042313
-0.8135646 -1.1498939 0.15049712
-0.7505855 -1.0007262 7.9526296
-0.979837 -1.3237259 7.9413185
-1.1025172 -1.5106158 6.0258455
-1.0288146 -1.4199445 4.1905165
-0.97122067 -1.3463377 3.1095674
-0.93369979 -1.2981091 2.4211199
-0.9168731 -1.2775072 1.9592969
-0.2368625 -0.26559266 5.9944105
-0.42284268 -0.51051021 6.1396189
-1.1000305 -1.4935522 7.1791873
-1.0641882 -1.4591281 4.9653616
-0.99774134 -1.3760198 3.5782096
-0.95119572 -1.3161386 2.7263515
-0.92136508 -1.2781194 2.1611025
-0.90558606 -1.2585205 1.7591195
-0.90217775 -1.2625809 1.6047294
-0.88367105 -1.2380356 1.3088527
-0.87516236 -1.2274565 1.0729734
-0.86193007 -1.2097784 0.86411154
-0.86087102 -1.2091717 0.68802142
-0.84279281 -1.1846417 0.51727986
-0.82825118 -1.1650543 0.36286458
-0.81895733 -1.15282 0.21989921
-0.89597708 -1.2502013 1.451074
-0.87442034 -1.221457 1.177353
-0.8688491 -1.2145574 0.96315032
-0.86085725 -1.2047055 0.77194095
-0.84277487 -1.180259 0.59389675
-0.83293796 -1.1673317 0.43658668
-0.82236254 -1.1529276 0.28973246
-0.81467378 -1.1429788 0.1502956
-0.7540741 -0.9981001 7.9526296
-0.98384297 -1.3194816 7.9364243
-1.108668 -1.5079607 6.0306177
-1.0280052 -1.4084551 4.1675038
-0.97028202 -1.3351899 3.092011
-0.93327165 -1.2880062 2.4087212
-0.91569263 -1.2665069 1.9477845
-0.23817599 -0.26519197 6.0043941
-0.42462212 -0.50903106 6.1396189
-1.1059864 -1.4907128 7.1840267
-1.0631437 -1.4470609 4.9372048
-0.99483341 -1.3619817 3.5512023
-0.94964337 -1.3043768 2.7092876
-0.92050868 -1.2675812 2.1491325
-0.90599394 -1.2498622 1.7517692
-0.90241235 -1.2536355 1.5977204
-0.88344246 -1.2286233 1.3025758
-0.8745628 -1.217602 1.0674905
-0.86098152 -1.1995648 0.85947394
-0.85968262 -1.1986251 0.68427533
-0.84412837 -1.1777936 0.5158698
-0.82945275 -1.1581625 0.36193198
-0.82007813 -1.1459044 0.21945213
-0.89596426 -1.2410119 1.4444231
-0.87631428 -1.2151189 1.1744099
-0.86804253 -1.2045227 0.95808399
-0.8624056 -1.1980098 0.76984292
-0.84413201 -1.1734767 0.59225327
-0.83417052 -1.1604702 0.43541437
-0.8206026 -1.1420071 0.28835109
-0.81283081 -1.1320119 0.14989254
-0.75708282 -0.99484366 7.94769
-0.9884429 -1.3160393 7.9364243
-1.113925 -1.5040815 6.0306177
-1.0271285 -1.3969886 4.1444917
-0.9692775 -1.3240652 3.0744548
-0.93112504 -1.2756493 2.3921895
-0.91444647 -1.2555304 1.936272
-0.23929487 -0.26457211 6.0093851
-0.42227361 -0.50265503 6.0799608
-1.1126884 -1.4888566 7.1937056
-1.0620282 -1.435019 4.9090486
-0.99313003 -1.3497342 3.5286961
-0.94802058 -1.2926421 2.6922238
-0.91959012 -1.2570646 2.1371624
-0.9043532 -1.2384787 1.7407438
-0.90050173 -1.2418169 1.5872066
-0.88315874 -1.2192276 1.2962989
-0.87390512 -1.2077667 1.0620075
-0.86256796 -1.1929625 0.85715514
-0.85843122 -1.1881015 0.6805293
-0.84261829 -1.1670614 0.51304972
-0.83061624 -1.1512764 0.36099935
-0.81824839 -1.1349558 0.21855797
-0.89589822 -1.2318376 1.437772
-0.87579882 -1.2055125 1.1685236
-0.86717665 -1.1945086 0.95301759
-0.86125314 -1.187644 0.76564676
-0.84268117 -1.1628755 0.58896625
-0.83536547 -1.1536146 0.43424204
-0.82168019 -1.1351243 0.28766042
-0.81384927 -1.1251198 0.149691
-0.76055086 -0.99219483 7.94769
-0.9924162 -1.3117691 7.931529
-1.120061 -1.5013803 6.0353899
-1.026184 -1.3855455 4.121479
-0.96820718 -1.3129638 3.0568984
-0.9305709 -1.2655902 2.3797905
-0.91313493 -1.2445782 1.9247596
-0.24041235 -0.26394773 6.0143771
-0.4240256 -0.50117791 6.0799608
-1.1186348 -1.4859676 7.198545
-1.05981 -1.4216191 4.8761988
-0.99135333 -1.3375152 3.5061903
-0.94632757 -1.2809348 2.6751602
-0.9203971 -1.2489957 2.1291823
-0.90465289 -1.2298527 1.7333934
-0.90062362 -1.2329067 1.5801976
-0.88511485 -1.2129933 1.2931604
-0.87318951 -1.1979507 1.0565246
-0.86151069 -1.1827831 0.8525176
-0.85711682 -1.1776016 0.6767832
-0.84386528 -1.1602336 0.51163971
-0.82885385 -1.1404229 0.35913411
-0.81927866 -1.1280632 0.21811089
-0.89577919 -1.2226791 1.4311211
-0.87522703 -1.1959246 1.1626372
-0.86625147 -1.1845152 0.94795126
-0.86271626 -1.1809657 0.76354873
-0.84395093 -1.156113 0.58732271
-0.8336581 -1.1428379 0.43189743
-0.82271981 -1.128248 0.28696972
-0.81188726 -1.1141967 0.14928794
-0.76353461 -0.98891914 7.9427509
-0.99698913 -1.3082969 7.931529
-1.125295 -1.4974614 6.0353899
-1.0251722 -1.3741261 4.0984659
-0.96707118 -1.3018863 3.0393422
-0.92995787 -1.2555506 2.3673918
-0.91175818 -1.2336506 1.913247
-0.24133225 -0.26310694 6.0143771
-0.42646527 -0.50050509 6.0899034
-1.1245745 -1.4830552 7.2033844
-1.0585479 -1.4096321 4.8480425
-0.99080598 -1.3270695 3.4881854
-0.94456452 -1.2692553 2.6580963
-0.91936278 -1.2385169 2.1172123
-0.90490353 -1.2212398 1.7260431
-0.90069419 -1.2240108 1.5731884
-0.8847329 -1.203624 1.2868835
-0.87489092 -1.1915251 1.0537832
-0.86301345 -1.1761973 0.85019881
-0.85573971 -1.1671253 0.67303717
-0.84223968 -1.1495417 0.50881964
-0.82992774 -1.1335592 0.3582015
-0.81733036 -1.1171582 0.21721675
