# .PCD v0.7 - Point Cloud Data file format
VERSION 0.7
FIELDS x y z
SIZE 4 4 4
TYPE F F F
COUNT 1 1 1
WIDTH 1439
HEIGHT 1
VIEWPOINT 0 0 0 1 0 0 0
POINTS 1439
DATA ascii
-0.083260804 -0.86493844 2.4171894
-0.10800862 -1.1547602 2.4619086
-0.12533407 -1.3625435 2.30829
-0.18496366 -2.0372849 2.7835462
-0.21750115 -2.418762 2.7109871
-0.21445864 -2.4768755 2.5229206
-0.23088215 -2.682723 2.2535281
-0.36299565 -4.260767 2.3249555
-0.49508283 -5.8350229 2.4542913
-0.8688221 -10.282178 3.1230204
-0.90616834 -10.768889 2.1432364
-0.86369157 -10.307068 1.0215119
-0.22253522 -2.5289874 2.342308
-0.2820079 -3.2238972 2.4399688
-0.37021315 -4.2490821 2.5919843
-0.4981963 -5.7525806 2.7566986
-0.85061651 -9.8616123 3.5341346
-0.88488179 -10.300759 2.5842724
-0.89798683 -10.474689 1.5585116
-0.84147513 -9.8558407 0.49269664
-0.05317964 -0.09338519 10.898858
-0.038673852 -0.34355697 2.1983938
-0.37598619 -3.509501 16.992594
-0.086363599 -0.86275172 2.8190727
-0.090130799 -0.93250906 2.2666614
-0.11056045 -1.1686873 2.2185843
-0.16726261 -1.7938544 2.7186925
-0.22649103 -2.4563179 3.0299606
-0.026535325 -0.1376898 2.2656415
-0.21534692 -1.3175859 12.408685
-0.51095635 -4.8801742 18.92931
-0.084734254 -0.84918851 2.3749542
-0.10993341 -1.1327088 2.4168963
-0.13008948 -1.3620977 2.30829
-0.18811129 -1.9946275 2.7276859
-0.22468086 -2.4044864 2.6962864
-0.52177429 -5.7899933 5.7926621
-0.23885576 -2.666394 2.2409742
-0.29879045 -3.3549588 2.2929258
-0.38178101 -4.3035984 2.3481433
-0.51993674 -5.8840561 2.4748948
-0.86979908 -9.8824596 3.0059876
-0.91157943 -10.398649 2.0732899
-0.85201627 -9.7582693 0.97233325
-0.23136167 -2.5281951 2.342308
-0.2972894 -3.2671723 2.4723437
-0.38504294 -4.2477641 2.5919843
-0.51908827 -5.7598467 2.7608948
-0.84323335 -9.3929605 3.3714271
-0.88966203 -9.9490337 2.4998655
-0.88832289 -9.9535818 1.4859903
-0.83827162 -9.4298563 0.47556651
-0.053505294 -0.093198985 10.898858
-0.040415969 -0.34805015 2.2280293
-0.38823435 -3.5081673 16.992594
-0.089374639 -0.86244494 2.8190727
-0.092800163 -0.92635721 2.2528539
-0.11440515 -1.165911 2.2141953
-0.17542158 -1.8128661 2.7476232
-0.23414721 -2.4459405 3.0184484
-0.02701579 -0.13759634 2.2656415
-0.21985659 -1.3163005 12.403714
-0.52744699 -4.8733621 18.90995
-0.085921101 -0.83172256 2.3280268
-0.11105128 -1.1041603 2.3583806
-0.14821856 -1.4965916 2.5301185
-0.19331159 -1.9759653 2.7037458
-0.22947253 -2.3665698 2.6558597
-0.53100902 -5.6709633 5.677012
-0.24707912 -2.6539173 2.231559
-0.30741552 -3.3205864 2.2709942
-0.39720792 -4.3066506 2.3504622
-0.54047269 -5.8822055 2.4748948
-0.87805367 -9.5927382 2.9213858
-0.90638804 -9.9404516 1.9865562
-0.85679251 -9.4328651 0.94327313
-0.2384187 -2.5087872 2.3256807
-0.31325677 -3.3144035 2.5076616
-0.40027225 -4.2506862 2.5945175
-0.54088342 -5.7760749 2.7692869
-0.85627639 -9.178381 3.2974691
-0.88749957 -9.5490055 2.4037354
-0.87045801 -9.3833675 1.4065621
-0.82704765 -8.949297 0.45621952
-0.053806018 -0.0929754 10.893859
-0.041444223 -0.34636417 2.2181509
-0.40047777 -3.5067909 16.992594
-0.092384592 -0.86212772 2.8190727
-0.095629506 -0.92214119 2.243649
-0.1199289 -1.1798006 2.2405298
-0.17837712 -1.778643 2.6980276
-0.24205036 -2.438729 3.0107732
-0.027435904 -0.1372188 2.2606497
-0.22490042 -1.318152 12.428571
-0.54431528 -4.8702421 18.905113
-0.08717075 -0.81597477 2.2857919
-0.10971459 -1.053966 2.2548525
-0.15716958 -1.5323865 2.5898414
-0.19656 -1.9393038 2.6558657
-0.23841013 -2.3725007 2.6632099
-0.24141894 -2.4851427 2.5334342
-0.25521827 -2.6414158 2.2221434
-0.31900465 -3.3194931 2.2709942
-0.41392758 -4.3228765 2.3597374
-0.55880064 -5.8572083 2.4655297
-0.87839538 -9.2410002 2.8184533
-0.89291489 -9.4286289 1.8895638
-0.85837203 -9.0976334 0.91331881
-0.24570936 -2.4930766 2.3123786
-0.32324657 -3.297199 2.4958889
-0.41720331 -4.2707152 2.6071835
-0.5614813 -5.7786684 2.771385
-0.86373645 -8.921526 3.2087195
-0.88768977 -9.2023401 2.3205009
-0.88517064 -9.1929598 1.3803163
-0.83251792 -8.6778088 0.44533688
-0.054130234 -0.09278702 10.893859
-0.042748909 -0.34698847 2.2230902
-0.4127163 -3.5053713 16.992594
-0.095393412 -0.86179996 2.8190727
-0.098430559 -0.91791677 2.2344439
-0.12580177 -1.1960477 2.2712533
-0.18225886 -1.7556177 2.664964
-0.25023383 -2.4346809 3.0069356
-0.02791472 -0.1371222 2.2606497
-0.22959219 -1.3178838 12.433542
-0.56073618 -4.863318 18.885754
-0.088311516 -0.80022854 2.243557
-0.10779569 -1.0016308 2.1468236
-0.16251765 -1.5318286 2.5898414
-0.20144154 -1.920625 2.6319253
-0.24914613 -2.3952577 2.6889362
-0.24794842 -2.4629948 2.5124068
-0.26327318 -2.6288903 2.2127283
-0.32976073 -3.3100376 2.265511
-0.43076536 -4.3390374 2.3690126
-0.59749919 -6.0397577 2.5404508
-0.88146919 -8.9418945 2.7310312
-0.87732089 -8.9316931 1.7953691
-0.84937549 -8.6782541 0.87576419
-0.25251397 -2.4736314 2.2957511
-0.3355709 -3.3040931 2.501775
-0.43297657 -4.2778101 2.6122499
-0.58164918 -5.7766733 2.771385
-0.8698855 -8.6694326 3.1216137
-0.89417571 -8.9428501 2.258368
-0.87594026 -8.775897 1.3222991
-0.83115864 -8.3566799 0.43243885
-0.05445379 -0.092597507 10.893859
-0.043959863 -0.34683713 2.2230902
-0.42494982 -3.5039096 16.992594
-0.098401077 -0.86146176 2.8190727
-0.10098788 -0.91174233 2.2206361
-0.12919876 -1.1884583 2.258086
-0.18628255 -1.7353854 2.6360335
-0.25839198 -2.4306052 3.0030982
-0.028393196 -0.13702393 2.2606497
-0.23512863 -1.3223219 12.483258
-0.57726371 -4.8575864 18.871237
-0.090712994 -0.79648632 2.2341714
-0.10840211 -0.97528547 2.092809
-0.20781966 -1.9169146 2.6279354
-0.26004383 -2.4179685 2.7146623
-0.25691408 -2.4656615 2.5159113
-0.27124375 -2.6163404 2.2033129
-0.34131292 -3.3088663 2.265511
-0.44772097 -4.355134 2.3782878
-0.6209408 -6.0606942 2.5498161
-0.87077159 -8.5283508 2.6097686
-0.89208317 -8.7673054 1.7645926
-0.81987834 -8.0856419 0.82256174
-0.25879365 -2.4504561 2.2757981
-0.34541228 -3.2868223 2.4900024
-0.45105007 -4.3062844 2.6299822
-0.60322148 -5.7881508 2.7776792
-0.8737976 -8.4127102 3.0328641
-0.89385647 -8.6350832 2.1845121
-0.84955662 -8.2210922 1.244943
-0.81784362 -7.9412465 0.41571182
-0.054776687 -0.092406861 10.893859
-0.045170281 -0.34668157 2.2230902
-0.43705192 -3.501394 16.987698
-0.1012326 -0.85963053 2.8143008
-0.10372549 -0.90750229 2.2114313
-0.12960312 -1.1546798 2.1966388
-0.19047746 -1.7179432 2.6112356
-0.26687482 -2.4296885 3.0030982
-0.028871324 -0.13692397 2.2606497
-0.23897827 -1.3172978 12.443486
-0.59696585 -4.8779993 18.958347
-0.094097592 -0.80130637 2.2482495
-0.11081253 -0.96625018 2.0748043
-0.14034384 -1.2404122 2.112057
-0.21450965 -1.9161774 2.6279354
-0.26923129 -2.4237847 2.7220125
-0.26742959 -2.4824784 2.5334342
-0.27954492 -2.6076374 2.1970358
-0.35197371 -3.2993388 2.2600281
-0.46432585 -4.3667603 2.3852444
-0.64355856 -6.07232 2.5554352
-0.88592184 -8.3869133 2.5688775
-0.86301994 -8.1974487 1.6564088
-0.84497947 -8.0530148 0.81987929
-0.26653537 -2.4421144 2.2691472
-0.35513717 -3.2695229 2.4782298
-0.46375865 -4.2832546 2.6173162
-0.62342221 -5.7860093 2.7776792
-0.86483473 -8.0527763 2.9079576
-0.86139333 -8.0471153 2.0426614
-0.87351245 -8.1737614 1.2387269
-0.82386345 -7.7346625 0.40744904
-0.055098914 -0.092215091 10.893859
-0.0465881 -0.3480618 2.2329688
-0.44927138 -3.4998472 16.987698
-0.10423265 -0.85927194 2.8143008
-0.10666367 -0.90519446 2.2068286
-0.12977329 -1.1209135 2.1351919
-0.19455293 -1.7004933 2.5864379
-0.27535439 -2.4287422 3.0030982
-0.029349102 -0.13682236 2.2606497
-0.2439647 -1.3185518 12.463371
-0.61336112 -4.8708973 18.938988
-0.097101726 -0.80268615 2.2529426
-0.1141847 -0.96585745 2.0748043
-0.14467284 -1.2399148 2.112057
-0.22361775 -1.9363704 2.6558657
-0.27498734 -2.3992538 2.6962864
-0.27333239 -2.4567192 2.5089023
-0.28736016 -2.5950398 2.1876206
-0.36257219 -3.2897778 2.2545452
-0.48150098 -4.3827252 2.3945196
-0.66525578 -6.074645 2.5573082
-0.71477032 -6.5478082 2.0260148
-0.86931139 -7.9892821 1.6172388
-0.83871859 -7.7331562 0.7912662
-0.27714905 -2.4597206 2.2857745
-0.36699834 -3.2722802 2.481173
-0.48014426 -4.2944617 2.6249156
-0.64311337 -5.7792878 2.7755811
-0.70759064 -6.3788648 2.3228683
-0.88734096 -8.0247355 2.0379725
-0.87052101 -7.8851771 1.1986674
-0.82243979 -7.4735093 0.39696944
-0.055420466 -0.092022203 10.893859
-0.047909435 -0.3486667 2.2379079
-0.46135214 -3.4972482 16.982803
-0.10704616 -0.85742176 2.8095288
-0.1102942 -0.90869552 2.2160337
-0.13169727 -1.103807 2.1044683
-0.19718978 -1.6718575 2.5451086
-0.2842029 -2.4309497 3.0069356
-0.029826524 -0.13671908 2.2606497
-0.24856582 -1.3176922 12.463371
-0.63003713 -4.8662333 18.92931
-0.10033022 -0.80576712 2.2623279
-0.11729205 -0.963292 2.070303
-0.28256485 -2.3915458 2.6889362
-0.27621102 -2.4061484 2.4598386
-0.29597482 -2.5901539 2.1844821
-0.37830707 -3.3258839 2.2792184
-0.49929243 -4.4030261 2.4061134
-0.68593532 -6.0676789 2.5554352
-0.73762208 -6.5452733 2.0260148
-0.89280659 -7.9471464 1.6097778
-0.83688629 -7.4728317 0.76801813
-0.29004431 -2.4958262 2.3190296
-0.37934765 -3.2790098 2.4870596
-0.49513182 -4.2927599 2.6249156
-0.6570704 -5.7229004 2.7504044
-0.73038971 -6.3810477 2.3245118
-0.86905628 -7.6159296 1.9394977
-0.8716923 -7.6508389 1.1662054
-0.80623549 -7.0982914 0.38185462
-0.055741351 -0.09182819 10.893859
-0.048907526 -0.34695879 2.2280293
-0.47355703 -3.4956167 16.982803
-0.10870536 -0.84667933 2.776125
-0.11346547 -0.90830499 2.2160337
-0.13730322 -1.1176031 2.1308026
-0.20234542 -1.6655722 2.5368426
-0.29191995 -2.4235783 2.9992607
-0.03023766 -0.13633308 2.2556581
-0.25326496 -1.3173399 12.468343
-0.091233999 -0.68746364 2.7075593
-0.10336185 -0.80712372 2.2670209
-0.12065385 -0.96287668 2.070303
-0.18858588 -1.5235825 2.5813096
-0.27600095 -2.2517934 3.0788083
-0.29009193 -2.3838141 2.6815858
-0.27832082 -2.3520465 2.4072704
-0.30319247 -2.5736425 2.1719282
-0.3942984 -3.3619196 2.3038917
-0.51465881 -4.4012561 2.4061134
-0.7071113 -6.0652475 2.5554352
-0.75437242 -6.4902439 2.0105047
-0.88096023 -7.6024098 1.5444943
-0.8218168 -7.1136761 0.7358284
-0.31163159 -2.6023095 2.4154692
-0.43817157 -3.6750093 2.7784324
-0.66477376 -5.61691 2.7021492
-0.88825232 -7.5500941 1.9242575
-0.87412745 -7.4411831 1.1371969
-0.81996644 -7.0011559 0.37802553
-0.056086697 -0.091668695 10.898858
-0.486177 -3.4969676 16.99749
-0.11087771 -0.84037536 2.7570369
-0.11663535 -0.90790337 2.2160337
-0.14180471 -1.121869 2.1395807
-0.20815811 -1.6648556 2.5368426
-0.30235058 -2.4384489 3.0184484
-0.030713368 -0.1362267 2.2556581
-0.051240977 -0.26620355 2.4855633
-0.095845163 -0.70333105 2.7704716
-0.10640413 -0.80846882 2.2717135
-0.12484969 -0.96892691 2.0838065
-0.19653969 -1.5436119 2.615437
-0.28499091 -2.2597847 3.0907781
-0.29714707 -2.3726954 2.6705604
-0.28480321 -2.3369005 2.3932524
-0.31170532 -2.5687046 2.1687896
-0.40502807 -3.3522205 2.2984087
-0.52207071 -4.3334627 2.3713315
-0.71500844 -5.9522748 2.5104823
-0.76333135 -6.3732581 1.9766637
-0.88827038 -7.4383278 1.5137178
-0.83722258 -7.0316429 0.72867519
-0.31797162 -2.5789716 2.3955162
-0.45592305 -3.7135761 2.8078642
-0.50832516 -4.1522756 2.543854
-0.67943388 -5.5740089 2.6832669
-0.70597863 -5.8085852 2.1256473
-0.89354956 -7.3732362 1.8820542
-0.85904688 -7.0988684 1.08954
-0.82046139 -6.7998524 0.3699643
-0.056406338 -0.091472358 10.898858
-0.49909982 -3.5002894 17.021965
-0.11180273 -0.82519186 2.7093172
-0.12005983 -0.90942746 2.2206361
-0.14695542 -1.1308671 2.1571372
-0.21396826 -1.6641189 2.5368426
-0.31248295 -2.4500966 3.0337982
-0.031120813 -0.13583806 2.2506664
-0.051332101 -0.26184171 2.4457912
-0.09777616 -0.69925785 2.7559536
-0.10968859 -0.81151265 2.2810991
-0.12851714 -0.97064316 2.0883076
-0.20463558 -1.5636039 2.6495645
-0.29365242 -2.2647524 3.0987582
-0.3049944 -2.3682814 2.6668851
-0.29207101 -2.3288152 2.3862433
-0.32115233 -2.5714631 2.1719282
-0.4146626 -3.3341885 2.2874429
-0.50884229 -4.1030159 2.2507539
-0.73578137 -5.9497428 2.5104823
-0.77207005 -6.2610517 1.9442331
-0.90403795 -7.3522973 1.4978633
-0.82903612 -6.7617583 0.70453286
-0.32133308 -2.533397 2.3556101
-0.47800177 -3.7841444 2.8608408
-0.44361347 -3.5217571 2.1714766
-0.68984824 -5.4995508 2.6496978
-0.72038883 -5.7592287 2.1092122
-0.88799715 -7.1192627 1.8210936
-0.84893262 -6.8157234 1.0501713
-0.80293548 -6.4647713 0.3564617
-0.056725297 -0.09127491 10.898858
-0.080208726 -0.5506025 2.6985307
-0.11056373 -0.79522789 2.6138773
-0.12297082 -0.907067 2.2160337
-0.15090197 -1.1303473 2.1571372
-0.22161964 -1.6773107 2.5575075
-0.32270026 -2.4617031 3.0491483
-0.031594787 -0.1357286 2.2506664
-0.050114825 -0.25121495 2.3463612
-0.099501051 -0.69393563 2.7365959
-0.1129956 -0.81454331 2.2904847
-0.13278522 -0.97665989 2.1018114
-0.21217814 -1.5783886 2.6751602
-0.30155611 -2.2637136 3.0987582
-0.30836606 -2.3302331 2.6264584
-0.3011108 -2.3348553 2.3932524
-0.42417622 -3.3161302 2.2764771
-0.53829682 -4.2198577 2.3133614
-0.76122576 -5.9839287 2.5254667
-0.78305346 -6.172658 1.9188524
-0.89702129 -7.090806 1.4484345
-0.83268875 -6.6007175 0.69022638
-0.31568938 -2.4211874 2.2558451
-0.48808452 -3.7584028 2.8431821
-0.51459831 -3.9733469 2.4399939
-0.69859004 -5.4160876 2.611933
-0.72000384 -5.5974379 2.0533328
-0.88748598 -6.9184542 1.7730286
-0.84692025 -6.6113296 1.0218533
-0.818533 -6.4074173 0.35424489
-0.057043556 -0.091076337 10.898858
-0.33772689 -2.161773 13.909374
-0.082281061 -0.5513261 2.7034261
-0.10869477 -0.76232761 2.5088937
-0.12559724 -0.90276217 2.2068286
-0.15452127 -1.1274409 2.1527481
-0.22482368 -1.6570076 2.5285769
-0.33385804 -2.4796212 3.0721734
-0.031998537 -0.13533738 2.2456748
-0.050774686 -0.24999464 2.3364182
-0.099907666 -0.67990506 2.683362
-0.11583821 -0.8141439 2.2904847
-0.13679577 -0.98050249 2.1108139
-0.22125299 -1.6034737 2.7178197
-0.30945611 -2.2626474 3.0987582
-0.31421527 -2.312346 2.6080825
-0.31207055 -2.3550019 2.4142797
-0.43193364 -3.2856092 2.2572868
-0.57605976 -4.3936415 2.4061134
-0.77369356 -5.9168806 2.4992442
-0.79156834 -6.0699944 1.8892417
-0.8837558 -6.7953582 1.3924773
-0.81729221 -6.3014541 0.6634016
-0.32562622 -2.4311726 2.2658215
-0.49959704 -3.7446563 2.8343523
-0.56713217 -4.2620993 2.6122499
-0.71093184 -5.3641248 2.5888543
-0.72901827 -5.5153055 2.0253932
-0.87478423 -6.6358161 1.7050343
-0.83896697 -6.3726678 0.98870069
-0.81422883 -6.2014303 0.3459821
-0.057386778 -0.090911962 10.903858
-0.34490255 -2.1582792 13.894556
-0.084050678 -0.5500291 2.6985307
-0.10940884 -0.74865097 2.465946
-0.12847142 -0.90038425 2.2022262
-0.15778837 -1.1221515 2.14397
-0.22905344 -1.6450645 2.5120449
-0.34338924 -2.4847906 3.0798483
-0.032470759 -0.13522485 2.2456748
-0.051206253 -0.2477297 2.3165321
-0.097779706 -0.64972246 2.5672157
-0.11818057 -0.81031948 2.2810991
-0.14083476 -0.98432893 2.1198163
-0.22684881 -1.6026915 2.7178197
-0.3160958 -2.2526014 3.0867882
-0.31713367 -2.2743011 2.5676558
-0.32798371 -2.4104371 2.4703522
-0.4479292 -3.3046525 2.7713735
-0.46074539 -3.41254 2.3422723
-0.59198421 -4.3959942 2.4084322
-0.76718849 -5.7119789 2.4168308
-0.80001318 -5.9721026 1.8610411
-0.86648744 -6.485486 1.3337222
-0.83139026 -6.239327 0.65803665
-0.48249432 -3.5226367 2.6724787
-0.58200622 -4.2600932 2.6122499
-0.73746818 -5.4331799 1.9974536
-0.88555229 -6.5412049 1.6827601
-0.85059047 -6.2911816 0.97764981
-0.80983216 -6.0054564 0.3381224
-0.057703771 -0.090711087 10.903858
-0.35255969 -2.1578288 13.899496
-0.086127996 -0.55073828 2.7034261
-0.11157864 -0.74531209 2.4564021
-0.13133053 -0.89799726 2.1976235
-0.16170444 -1.1215938 2.14397
-0.23320256 -1.6331118 2.4955132
-0.35296062 -2.489924 3.0875232
-0.032942582 -0.13511069 2.2456748
-0.051958673 -0.24702831 2.3115609
-0.09966334 -0.64689273 2.5575368
-0.12075302 -0.80819535 2.2764063
-0.14490213 -0.98813903 2.1288188
-0.2298191 -1.5838232 2.687958
-0.32610321 -2.2663968 3.1067383
-0.32363042 -2.2631118 2.5566301
-0.36352414 -2.6035364 2.6631024
-0.46160713 -3.3184893 2.7839272
-0.47265455 -3.4109111 2.3422723
-0.60307956 -4.363184 2.3922007
-0.7497651 -5.4383097 2.3063219
-0.80386317 -5.8457131 1.8243802
-0.86909521 -6.336421 1.3057436
-0.80793953 -5.905808 0.62808239
-0.40465856 -2.8688025 2.661556
-0.47284871 -3.3648267 2.5576954
-0.59507781 -4.2452288 2.6046503
-0.71258301 -5.1028218 2.4692655
-0.75121713 -5.3931565 1.9843055
-0.87761039 -6.3166132 1.6288337
-0.84668154 -6.1017814 0.95140398
-0.80818731 -5.8392835 0.33147189
-0.058045965 -0.090544231 10.908857
-0.36060223 -2.1596506 13.919253
-0.087242968 -0.54540759 2.6789498
-0.11440615 -0.7463935 2.461174
-0.13417456 -0.89560133 2.1930211
-0.16701965 -1.1304995 2.1615264
-0.23645568 -1.6155819 2.4707155
-0.36257201 -2.4950204 3.0951984
-0.033414006 -0.13499488 2.2456748
-0.053162128 -0.24840769 2.3264751
-0.10152841 -0.64405775 2.547858
-0.12331209 -0.80606312 2.2717135
-0.1489978 -0.99193269 2.1378212
-0.23304413 -1.5675334 2.6623623
-0.33313307 -2.2592826 3.0987582
-0.33546206 -2.2888029 2.5860314
-0.36704874 -2.5634191 2.6245522
-0.47373781 -3.3207114 2.7870657
-0.48043889 -3.3802614 2.323082
-0.62017184 -4.3742104 2.399157
-0.71550924 -5.0592599 2.1527331
-0.81421196 -5.7716212 1.8032297
-0.86040556 -6.1144543 1.2637757
-0.82854968 -5.9029517 0.62808239
-0.40772185 -2.8193333 2.6183245
-0.47075507 -3.2671394 2.4870596
-0.61479968 -4.2772613 2.6249156
-0.7291041 -5.0913181 2.4650693
-0.76002103 -5.3203807 1.9596528
-0.87771142 -6.1595263 1.5913193
-0.84564751 -5.9419041 0.92930222
-0.81381899 -5.732554 0.32723972
-0.058387686 -0.090376087 10.913857
-0.36840019 -2.1599104 13.929132
-0.11654743 -0.74304038 2.4516301
-0.13700345 -0.89319652 2.1884184
-0.17204046 -1.1370136 2.1746933
-0.24209367 -1.6147466 2.4707155
-0.36703011 -2.4652073 3.0606608
-0.033885024 -0.13487741 2.2456748
-0.05402891 -0.24822062 2.3264751
-0.10357545 -0.64245862 2.5430188
-0.12559047 -0.80221814 2.2623279
-0.15345284 -0.99786133 2.1513247
-0.23655096 -1.5538188 2.6410327
-0.34056735 -2.2551267 3.0947683
-0.34546316 -2.3010283 2.6007321
-0.36719036 -2.5021386 2.564975
-0.48701605 -3.3305912 2.7964811
-0.4898237 -3.3620129 2.3121161
-0.63925999 -4.3983216 2.41307
-0.715204 -4.9328566 2.1021612
-0.83160704 -5.7497535 1.7975897
-0.84175944 -5.8342843 1.2106162
-0.82361048 -5.7225728 0.61198753
-0.38252869 -2.5815134 2.4054925
-0.48392808 -3.277472 2.4958889
-0.63915002 -4.3390608 2.6629133
-0.77037859 -5.2616272 1.9399307
-0.87391686 -5.9832802 1.549116
-0.82420665 -5.6498041 0.88855207
-0.79785085 -5.4824853 0.3171632
-0.058728948 -0.09020666 10.918858
-0.3763378 -2.1609077 13.943949
-0.58329171 -3.480021 16.987698
-0.1186667 -0.73968142 2.4420862
-0.13981719 -0.89078289 2.183816
-0.18151054 -1.1719072 2.2405298
-0.24815582 -1.616673 2.4748485
-0.3732172 -2.4480679 3.0414734
-0.034280907 -0.13447945 2.2406831
-0.055012502 -0.24855047 2.3314466
-0.10622714 -0.64457351 2.5526977
-0.13030256 -0.81370217 2.2951775
-0.15727377 -0.99947006 2.1558261
-0.24558857 -1.5761759 2.6794262
-0.33646503 -2.1764996 2.9910276
-0.35452345 -2.30651 2.6080825
-0.37009001 -2.4620488 2.5264251
-0.49921569 -3.3327203 2.7996197
-0.49353099 -3.3065195 2.2764771
-0.65917641 -4.426734 2.4293015
-0.71743155 -4.8294477 2.0609546
-0.83690393 -5.6471653 1.7679789
-0.84056646 -5.6855283 1.1826377
-0.82468855 -5.5915694 0.60036349
-0.3842541 -2.5321729 2.3622611
-0.49234349 -3.25578 2.481173
-0.65429229 -4.336803 2.6629133
-0.68703353 -4.5699739 2.2237933
-0.77963489 -5.1981969 1.918565
-0.86099064 -5.7542586 1.494017
-0.84392315 -5.6468925 0.88855207
-0.80814284 -5.4203711 0.31474483
-0.059226785 -0.089932717 10.923858
-0.38788626 -2.1580751 13.93901
-0.60263336 -3.4798243 17.002386
-0.1225509 -0.73753464 2.437314
-0.14416197 -0.88613158 2.1746111
-0.19527331 -1.2158034 2.3239222
-0.2592355 -1.6263325 2.4913802
-0.38380092 -2.4237173 3.0146108
-0.035101749 -0.13426754 2.2406831
-0.056573093 -0.24819992 2.3314466
-0.11027499 -0.6438933 2.5526977
-0.13456081 -0.80776089 2.2810991
-0.16442986 -1.00273 2.1648283
-0.25659853 -1.5797056 2.687958
-0.35099286 -2.1772563 2.9950178
-0.36712617 -2.2873716 2.5897067
-0.37474614 -2.4072201 2.4738569
-0.50708282 -3.2645855 2.7462659
-0.51653129 -3.3368587 2.2984087
-0.68311757 -4.4231024 2.4293015
-0.73096311 -4.7383127 2.0253668
-0.86332226 -5.6092148 1.7581087
-0.86434168 -5.6223302 1.1714463
-0.83744693 -5.4536762 0.58829236
-0.39272135 -2.4855223 2.322355
-0.51725322 -3.2846541 2.5047183
-0.68018836 -4.32409 2.6578469
-0.70597476 -4.498188 2.1923225
-0.80295897 -5.1277394 1.895556
-0.88185871 -5.6379704 1.4670538
-0.85383648 -5.4650335 0.86368757
-0.82653099 -5.2962761 0.30990809
-0.059566803 -0.089760132 10.928858
-0.067977019 -0.37299415 2.4107821
-0.61381525 -3.4758015 16.992594
-0.12436792 -0.73420262 2.4277701
-0.14630495 -0.88181978 2.165406
-0.20490369 -1.2506356 2.3897583
-0.27037889 -1.6644427 2.5492415
-0.38894731 -2.4099107 2.9992607
-0.035530295 -0.13445337 2.2456748
-0.057179388 -0.24806096 2.3314466
-0.11206365 -0.64486027 2.5575368
-0.13278903 -0.7853108 2.220093
-0.16670455 -1.0023544 2.1648283
-0.26145458 -1.5868392 2.7007556
-0.37137163 -2.2832515 2.5860314
-0.39548773 -2.4833784 2.550957
-0.51790577 -3.2628863 2.7462659
-0.57006478 -3.6035817 2.476604
-0.69294655 -4.3901834 2.41307
-0.73935431 -4.6947775 2.0085094
-0.87796128 -5.5875192 1.7524685
-0.85819489 -5.4741516 1.1434677
-0.82265896 -5.2594304 0.57085627
-0.39863464 -2.4807992 2.3190296
-0.68939143 -4.3139014 2.6527805
-0.71617901 -4.4965749 2.1923225
-0.80495638 -5.0652766 1.8741903
-0.87844068 -5.5400977 1.4436073
-0.84746307 -5.3507385 0.84780192
-0.82110137 -5.1959863 0.30587748
-0.059879757 -0.089551665 10.928858
-0.069421396 -0.37351835 2.4157212
-0.62486035 -3.4676249 16.963223
-0.12743968 -0.73670566 2.437314
-0.14774808 -0.87167305 2.1423934
-0.20887227 -1.2475506 2.3853693
-0.28125882 -1.6940246 2.5947039
-0.39683527 -2.405376 2.9954233
-0.036077522 -0.13460645 2.2506664
-0.058044933 -0.24785984 2.3314466
-0.11409396 -0.64322764 2.5526977
-0.13111913 -0.75933594 2.1497018
-0.16983749 -0.9996202 2.1603272
-0.26655895 -1.5833451 2.6964898
-0.30192238 -1.8066684 2.5002546
-0.3776713 -2.2719083 2.575006
-0.40759343 -2.5031021 2.5719841
-0.94339472 -5.8121619 4.8302007
-0.8965115 -5.541616 3.7650931
-0.69838357 -4.3265128 2.3806067
-0.75057727 -4.66013 1.9953983
-0.88984835 -5.5370579 1.7383683
-0.86252058 -5.3789663 1.1257478
-0.83550543 -5.222105 0.56772673
-0.40910774 -2.4904456 2.329006
-0.9422943 -5.7545362 4.3294778
-0.70722616 -4.328486 2.6629133
-0.71071416 -4.3641419 2.131479
-0.81127113 -4.9925208 1.8495376
-0.87443519 -5.3930597 1.408438
-0.84475833 -5.2157612 0.82915354
-0.82169896 -5.0845852 0.30144379
-0.060245357 -0.089411125 10.938856
-0.071161181 -0.37556356 2.4305391
-0.63751322 -3.4684269 16.977907
-0.13001049 -0.7362563 2.437314
-0.15212405 -0.87885195 2.1608033
-0.19666412 -1.1500261 2.2054172
-0.29140708 -1.7180018 2.6319005
-0.41002509 -2.4324214 3.0299606
-0.036626261 -0.13475735 2.2556581
-0.058909774 -0.24765572 2.3314466
-0.11633854 -0.64282542 2.5526977
-0.13376892 -0.75887364 2.1497018
-0.17332578 -0.99902123 2.1603272
-0.27208424 -1.582405 2.6964898
-0.30112642 -1.7640197 2.4443944
-0.38446406 -2.2638919 2.5676558
-0.42335477 -2.5438783 2.6140387
-0.95539552 -5.7589164 4.7894011
-0.57610637 -3.4840028 2.399843
-0.70699072 -4.2847123 2.3597374
-0.76006097 -4.616312 1.978541
-0.89361674 -5.4392457 1.7101676
-0.84473592 -5.152936 1.0828474
-0.83121896 -5.0815458 0.5552085
-0.41841671 -2.4926848 2.3323317
-0.92368251 -5.5199904 4.1587744
-0.72446114 -4.338747 2.6705129
-0.71998221 -4.325819 2.1146946
-0.81863546 -4.9291 1.8281722
-0.87418216 -5.274889 1.3803022
-0.84759241 -5.1199551 0.81603068
-0.81908637 -4.9584575 0.29640549
-0.060610712 -0.089269139 10.948856
-0.072027333 -0.37302461 2.4157212
-0.64961642 -3.4661803 16.977907
-0.13364013 -0.74167395 2.4564021
-0.15519089 -0.87831557 2.1608033
-0.1936702 -1.1092253 2.1308026
-0.29644138 -1.7114289 2.6236346
-0.41905725 -2.4341342 3.0337982
-0.037176482 -0.13490604 2.2606497
-0.059773892 -0.24744856 2.3314466
-0.11858172 -0.6424154 2.5526977
-0.13764061 -0.76519543 2.1684728
-0.17643206 -0.9962666 2.1558261
-0.27760619 -1.5814455 2.6964898
-0.31349275 -1.7985796 2.4922745
-0.39062601 -2.2525151 2.5566301
-0.4382101 -2.577543 2.6490843
-0.96703613 -5.705658 4.748601
-0.88850415 -5.2589817 3.5814147
-0.71531463 -4.2429047 2.3388681
-0.76924807 -4.5724859 1.9616836
-0.88638854 -5.2799754 1.6636366
-0.84486276 -5.0433722 1.0623298
-0.83335143 -4.9852891 0.54671401
-0.4378427 -2.5537698 2.388865
-0.94430733 -5.5247011 4.1646609
-0.74177629 -4.3489399 2.6781125
-0.7175796 -4.2203703 2.0664392
-0.82003719 -4.8330998 1.7953018
-0.86094368 -5.0849013 1.3345819
-0.83077359 -4.9118915 0.78702211
-0.80562609 -4.7732959 0.28894886
-0.060975812 -0.089125685 10.958856
-0.073328987 -0.37277091 2.4157212
-0.66190284 -3.4648919 16.982803
-0.13622825 -0.74120289 2.4564021
-0.1586028 -0.87969112 2.165406
-0.19291638 -1.0826066 2.0825229
-0.309275 -1.7491778 2.6814959
-0.42921621 -2.4421275 3.045311
-0.037728194 -0.13505253 2.2656415
-0.060637288 -0.24723841 2.3314466
-0.12082344 -0.64199758 2.5526977
-0.14093442 -0.76810485 2.1778584
-0.17952123 -0.99350244 2.1513247
-0.28312477 -1.580467 2.6964898
-0.31765741 -1.7856078 2.4763145
-0.39671338 -2.2411232 2.5456047
-0.43744346 -2.5197785 2.5930114
-0.9670313 -5.5871887 4.6544476
-0.93316305 -5.408308 3.6828492
-0.72485894 -4.2098236 2.3226366
-0.77656835 -4.5195146 1.9410803
-0.90400296 -5.272121 1.6622264
-0.85003453 -4.9677639 1.0483404
-0.83230752 -4.8743534 0.53687823
-0.44739825 -2.5559037 2.3921907
-0.95455217 -5.4696078 4.1264
-0.73180366 -4.2019305 2.5919843
-0.73153067 -4.2133679 2.0643411
-0.83448428 -4.8162494 1.7903714
-0.87454718 -5.0579171 1.3287203
-0.83611375 -4.8406434 0.77735257
-0.82228303 -4.7704549 0.28894886
-0.061475888 -0.089151964 10.993855
-0.073555626 -0.36718082 2.3811467
-0.67399359 -3.4625604 16.982803
-0.13275693 -0.70844698 2.3514185
-0.16167253 -0.87913209 2.165406
-0.1954083 -1.0748576 2.0693557
-0.3118805 -1.7287027 2.6525652
-0.43773824 -2.4406142 3.045311
-0.038281381 -0.13519683 2.2706332
-0.061499942 -0.24702524 2.3314466
-0.1230637 -0.64157188 2.5526977
-0.14456795 -0.77269667 2.1919365
-0.18298811 -0.99286979 2.1513247
-0.28910893 -1.5820345 2.7007556
-0.32442671 -1.7874529 2.4803045
-0.40152055 -2.2230439 2.5272288
-0.44436949 -2.5077019 2.5824978
-0.97569269 -5.5224528 4.6042323
-0.70250547 -3.988415 2.7397847
-0.73494786 -4.1810908 2.3087239
-0.78352833 -4.4665484 1.920477
-0.89758372 -5.1271768 1.6199255
-0.84708041 -4.8486309 1.0259575
-0.82878882 -4.753675 0.52614838
-1.0394702 -5.8182297 5.3452349
-0.77136475 -4.3394113 2.6755793
-0.7296015 -4.1169424 2.020282
-0.84142196 -4.7575073 1.7706493
-0.85417801 -4.8394346 1.275966
-0.83924699 -4.7596669 0.76630169
-0.80602896 -4.5805826 0.28129068
-0.061623704 -0.088731982 10.963856
-0.078583397 -0.38518959 2.4996886
-0.68607605 -3.4601865 16.982803
-0.1284977 -0.67279232 2.2368906
-0.16474029 -0.87856245 2.165406
-0.1987222 -1.0718142 2.0649664
-0.31791288 -1.7276033 2.6525652
-0.45375529 -2.4800589 3.0951984
-0.038836032 -0.13533889 2.2756248
-0.062229004 -0.2462928 2.3264751
-0.12530245 -0.64113843 2.5526977
-0.14726429 -0.77218735 2.1919365
-0.18605043 -0.99008548 2.1468236
-0.29462948 -1.5810157 2.7007556
-0.32572663 -1.7596434 2.4443944
-0.41296384 -2.2416329 2.5492799
-0.44740897 -2.4745512 2.550957
-0.59510285 -3.3011215 2.7870657
-0.71938235 -4.0024004 2.7507505
-0.74640954 -4.1610589 2.2994487
-0.78931111 -4.4090257 1.8980007
-0.89269507 -4.996511 1.5818546
-0.85537726 -4.7972851 1.0166312
-0.82880032 -4.6575971 0.51765382
-1.0202711 -5.5978441 5.1490302
-0.60099983 -3.307348 2.5312068
-0.77958375 -4.2985177 2.6527805
-0.73831469 -4.0831075 2.0055957
-0.84879839 -4.7034235 1.7525707
-0.86072671 -4.7790203 1.2618983
-0.84094834 -4.6738534 0.75456011
-0.81318331 -4.5285678 0.27927536
-0.06212407 -0.088754654 10.998855
-0.082943939 -0.3993645 2.5935345
-0.69835168 -3.4587686 16.987698
-0.13198777 -0.67820019 2.2559786
-0.16743897 -0.87606317 2.1608033
-0.20201725 -1.0687608 2.0605774
-0.32134596 -1.7126545 2.6319005
-0.45770586 -2.4532528 3.0644984
-0.03939214 -0.13547872 2.2806165
-0.062953711 -0.24555832 2.3215039
-0.12753968 -0.64069712 2.5526977
-0.14962927 -0.76997471 2.1872437
-0.18950535 -0.98943007 2.1468236
-0.30160719 -1.5876641 2.7135537
-0.33186695 -1.7584958 2.4443944
-0.42203796 -2.2468414 2.5566301
-0.45410356 -2.4624534 2.5404434
-0.60873413 -3.3105083 2.7964811
-0.73636538 -4.0163159 2.7617164
-0.74338728 -4.0625639 2.248435
-0.79470199 -4.3515182 1.8755243
-0.88690537 -4.865943 1.5437837
-0.85717189 -4.71211 1.0007768
-0.81569731 -4.4929795 0.50290024
-0.46322107 -2.4923444 2.3389826
-0.61401421 -3.3131785 2.5370934
-0.76949245 -4.1601257 2.5717189
-0.74433106 -4.0358734 1.9846153
-0.86521119 -4.7004318 1.7525707
-0.85983795 -4.6803741 1.2384518
-0.83937913 -4.5734754 0.7407465
-0.81548393 -4.4519897 0.27625242
-0.062241666 -0.088299602 10.963856
-0.084983133 -0.40211272 2.6132915
-0.71021575 -3.4553125 16.982803
-0.13290082 -0.67041475 2.2321188
-0.17049597 -0.87547332 2.1608033
-0.20619996 -1.0704007 2.0649664
-0.33366719 -1.7446891 2.6814959
-0.040034585 -0.13589226 2.2905998
-0.063674055 -0.24482179 2.3165321
-0.13002552 -0.64147979 2.5575368
-0.15231608 -0.76944774 2.1872437
-0.19295795 -0.98876256 2.1468236
-0.3036764 -1.5686784 2.683692
-0.33287972 -1.7306956 2.408484
-0.42987832 -2.2453547 2.5566301
-0.46533263 -2.4748724 2.5544615
-1.0184051 -5.4315934 4.5383244
-0.74961203 -4.0096111 2.758975
-0.73318607 -3.9293048 2.1788712
-0.80054981 -4.298584 1.8549209
-0.87758541 -4.7213292 1.5014827
-0.86107057 -4.6414714 0.98772013
-0.82593578 -4.4607244 0.5002178
-0.47678426 -2.5163918 2.3622611
-0.62557554 -3.3110151 2.5370934
-0.7384724 -3.9159553 2.4273279
-0.75338179 -4.0064883 1.9720269
-0.87812912 -4.6788182 1.7459967
-0.85916609 -4.5865707 1.2161778
-0.83894157 -4.4829016 0.72831428
-0.81817716 -4.380362 0.27343097
-0.014464918 -0.028934812 2.2291887
-0.089995712 -0.41852221 2.7219551
-0.72289848 -3.4558022 16.99749
-0.13376114 -0.66263127 2.2082589
-0.17317045 -0.87295669 2.1562009
-0.2103966 -1.0720246 2.0693557
-0.34406236 -1.7656101 2.7145593
-0.35466319 -1.8301039 2.3085101
-0.040766235 -0.13657856 2.3055747
-0.064390019 -0.24408323 2.3115609
-0.13226391 -0.64102203 2.5575368
-0.15431824 -0.7655282 2.1778584
-0.1959835 -0.98594785 2.1423223
-0.30915025 -1.5676088 2.683692
-0.33428213 -1.7058673 2.3765638
-0.43836269 -2.2471681 2.5603054
-0.47396868 -2.473233 2.5544615
-1.0278598 -5.378305 4.4975247
-0.76751763 -4.0275078 2.7726822
-0.71544164 -3.7613542 2.0907567
-0.79998511 -4.2137814 1.8212063
-0.87173253 -4.6004076 1.4662318
-0.86083525 -4.5515575 0.9709329
-0.82856894 -4.3893046 0.49395865
-0.48414925 -2.50738 2.3556101
-0.63560069 -3.300873 2.5312068
-0.76271486 -3.9683867 2.4602592
-0.76223648 -3.9770901 1.9594386
-0.89001966 -4.6525345 1.7377791
-0.85329211 -4.4689593 1.1880422
-0.8304587 -4.3534727 0.71035665
-0.81944597 -4.3038626 0.27040803
-0.014538188 -0.028850384 2.2241888
-0.089955643 -0.4113754 2.6775019
-0.73410881 -3.4492741 16.977907
-0.13607334 -0.66216028 2.2082589
-0.17621659 -0.87234688 2.1562009
-0.21460707 -1.073632 2.0737445
-0.35296351 -1.7781991 2.7352242
-0.36477479 -1.8477219 2.3315351
-0.041503172 -0.13726144 2.3205497
-0.064961575 -0.24282829 2.3016179
-0.13450068 -0.64055645 2.5575368
-0.15629491 -0.76160419 2.1684728
-0.19899176 -0.98312414 2.1378212
-0.31410664 -1.5639633 2.6794262
-0.33610529 -1.6840055 2.3486338
-0.45215133 -2.2755501 2.5933819
-0.48259899 -2.4715633 2.5544615
-0.64336771 -3.3039522 2.7964811
-0.77997738 -4.0165944 2.7671995
-0.72350907 -3.7327411 2.076844
-0.81204718 -4.1973085 1.8155872
-0.87323248 -4.5219755 1.4436713
-0.85812336 -4.4520555 0.95228052
-0.82977289 -4.3130317 0.48725247
-0.49001572 -2.4910207 2.342308
-0.66423887 -3.3858948 2.5959566
-0.78070474 -3.9868524 2.4729249
-0.77002531 -3.9432244 1.9447522
-0.89541298 -4.5937796 1.718057
-0.85589045 -4.399157 1.1716297
-0.83431131 -4.2922144 0.70206845
-0.8192395 -4.2225046 0.26718354
-0.014527767 -0.028664805 2.2041895
-0.085463285 -0.38451782 2.5046279
-0.74894637 -3.4596274 17.041546
-0.13777184 -0.65875924 2.1987147
-0.17926057 -0.87172645 2.1562009
-0.21978712 -1.0799168 2.0869119
-0.35359189 -1.7493742 2.6938949
-0.042245362 -0.13794079 2.3355246
-0.065808803 -0.24260005 2.3016179
-0.13673583 -0.64008301 2.5575368
-0.16283751 -0.77963448 2.220093
-0.20198268 -0.98029137 2.1333199
-0.31590554 -1.5449713 2.6495645
-0.33597916 -1.6532931 2.3087335
-0.47353992 -2.340414 2.6668851
-0.49052766 -2.4663661 2.550957
-0.66019821 -3.3284116 2.8184502
-0.76640338 -3.8743815 2.6739895
-0.72452033 -3.6693506 2.0443807
-0.81772876 -4.1489644 1.7968569
-0.86956578 -4.4200568 1.4140607
-0.85662055 -4.3622689 0.93549335
-0.82949668 -4.2319174 0.48009923
-0.50384277 -2.5149221 2.3655865
-0.69110209 -3.4588649 2.6518764
-0.75835872 -3.8023193 2.3639984
-0.77758712 -3.9093535 1.930066
-0.91144282 -4.5906262 1.718057
-0.85612231 -4.3198566 1.1528727
-0.83582276 -4.2212672 0.69239891
-0.81750631 -4.1363001 0.2637575
-0.01471137 -0.02871462 2.2191892
-0.083708778 -0.37057811 2.4157212
-0.75882822 -3.4470484 16.992594
-0.13944827 -0.6553545 2.1891708
-0.18230237 -0.87109542 2.1562009
-0.22258325 -1.0744529 2.0781338
-0.35288882 -1.7150542 2.6442995
-0.46187979 -2.2564845 2.8342481
-0.0429928 -0.13861664 2.3504996
-0.066655234 -0.24236886 2.3016179
-0.1389693 -0.63960183 2.5575368
-0.16914879 -0.7959404 2.2670209
-0.20450924 -0.97531927 2.1243174
-0.2973769 -1.4289615 2.4575975
-0.3374745 -1.6314552 2.2808034
-0.48170662 -2.338747 2.6668851
-0.49842596 -2.4611433 2.5474524
-0.65639895 -3.2497821 2.755681
-0.75019497 -3.7241161 2.5752969
-0.72771794 -3.6190274 2.0188739
-0.82581985 -4.1142678 1.7837455
-0.87085289 -4.3464408 1.3929102
-0.84968495 -4.2484651 0.91404313
-0.82573962 -4.1362071 0.4716047
-0.51336467 -2.5168064 2.368912
-0.7023657 -3.4524705 2.6489332
-0.74846166 -3.6855855 2.2956023
-0.78402096 -3.8710296 1.9132816
-0.90593833 -4.4809608 1.6802562
-0.85292637 -4.2263155 1.1305987
-0.83489162 -4.1406541 0.68134809
-0.81616735 -4.0550575 0.260533
-0.014783518 -0.028629625 2.2141891
-0.078714244 -0.34302747 2.2379079
-0.77085608 -3.4443786 16.992594
-0.14141883 -0.65340489 2.1843991
-0.18493475 -0.86854291 2.1515982
-0.22732095 -1.0783561 2.0869119
-0.34618154 -1.6532183 2.5533745
-0.46452314 -2.2297561 2.8035481
-0.043745473 -0.13928893 2.3654745
-0.067500859 -0.24213471 2.3016179
-0.14092946 -0.63788563 2.5526977
-0.17229107 -0.7970317 2.2717135
-0.20882143 -0.9788574 2.1333199
-0.27966383 -1.3207554 2.2784283
-0.34192562 -1.62437 2.2728233
-1.1555473 -5.5124049 6.1840177
-0.50629377 -2.4558957 2.5439477
-0.65519506 -3.1864705 2.7054658
-0.68590283 -3.3446267 2.323082
-0.73679245 -3.5991061 2.0095987
-0.82996595 -4.0613976 1.7631422
-0.86780155 -4.2540693 1.3661195
-0.85176718 -4.182898 0.90191907
-0.82330871 -4.0503364 0.46400437
-0.5274604 -2.5405896 2.3921907
-0.70949483 -3.42625 2.6312745
-0.73601389 -3.5605259 2.2221403
-0.79019678 -3.8327093 1.8964971
-0.91110289 -4.4268942 1.6621777
-0.8578918 -4.1757002 1.1188755
-0.83440381 -4.0649505 0.67098784
-0.80925697 -3.9494047 0.25630087
-0.014883364 -0.028577846 2.2141891
-0.079024673 -0.3389681 2.2132118
-0.11276849 -0.49694198 2.4733503
-0.14241357 -0.64707637 2.1653109
-0.18755156 -0.86598283 2.1469958
-0.23460084 -1.093948 2.1176355
-0.34139305 -1.6024598 2.4789815
-0.49955893 -2.3566782 2.9608858
-0.044594001 -0.14023176 2.3854411
-0.068345658 -0.24189761 2.3016179
-0.14287931 -0.63616341 2.547858
-0.17470133 -0.79474008 2.2670209
-0.21500841 -0.99088675 2.1603272
-0.26614353 -1.2356373 2.1376524
-0.35453591 -1.6555771 2.3167133
-1.1592244 -5.4353957 6.1031642
-0.50973707 -2.4296818 2.5194161
-0.65834105 -3.1460662 2.6740813
-0.67621422 -3.2398813 2.2545452
-0.74392956 -3.5704923 1.9956859
-0.83847332 -4.0312433 1.751904
-0.86606658 -4.1711674 1.3421489
-0.84642357 -4.0836992 0.88326669
-0.81221646 -3.9255211 0.45282736
-0.5409565 -2.5606518 2.4121435
-0.71311551 -3.3842008 2.6018426
-0.72447729 -3.4440365 2.1537445
-0.79704666 -3.7988346 1.8818107
-0.91396493 -4.3636022 1.640812
-0.8525663 -4.0775256 1.0954292
-0.82529652 -3.9505227 0.65510219
-0.8107987 -3.887867 0.25388247
-0.014983028 -0.028525719 2.2141891
-0.080027476 -0.33793432 2.2082722
-0.11427307 -0.49555334 2.4684551
-0.14467141 -0.64657527 2.1653109
-0.19057326 -0.86532289 2.1469958
-0.24709842 -1.1329011 2.1922498
-0.29929554 -1.3812454 2.1483455
-0.50778222 -2.3549201 2.9608858
-0.045266442 -0.14062279 2.3954246
-0.069189616 -0.24165757 2.3016179
-0.14481889 -0.63443553 2.5430188
-0.17257684 -0.77223277 2.2060149
-0.22644441 -1.026268 2.2368479
-0.26710555 -1.2194152 2.112057
-0.36223704 -1.6631621 2.3286836
-1.1789091 -5.4346285 6.1068387
-0.51300359 -2.4034739 2.4948843
-0.66526586 -3.1247141 2.6583891
-0.68057019 -3.2047796 2.2326136
-0.75179458 -3.546206 1.9840919
-0.84966016 -4.0146852 1.746285
-0.85483903 -4.0460892 1.3054882
-0.84141147 -3.9893959 0.86554682
-0.81667984 -3.8788042 0.44880369
-0.56166023 -2.6135039 2.4620261
-0.71136779 -3.3184557 2.5547521
-0.72386467 -3.3824718 2.1182799
-0.80272233 -3.7605209 1.8650262
-0.90655422 -4.2541604 1.6030113
-0.85971445 -4.0412455 1.0872229
-0.83393341 -3.9233985 0.65164882
-0.80362481 -3.7872708 0.24985187
-0.015082511 -0.028473245 2.2141891
-0.081754319 -0.33991864 2.2230902
-0.11623503 -0.4961426 2.4733503
-0.14991073 -0.65916538 2.2082589
-0.19316544 -0.86274594 2.1423934
-0.26609609 -1.1998374 2.3195331
-0.29018387 -1.3169868 2.0532877
-0.49059367 -2.2372925 2.818898
-0.045942146 -0.14101084 2.4054079
-0.070032738 -0.24141459 2.3016179
-0.14703259 -0.63392615 2.5430188
-0.17106263 -0.75311577 2.1543944
-0.23860666 -1.0637051 2.3178697
-0.27136046 -1.2184755 2.112057
-0.37129873 -1.6765974 2.3486338
-0.55813158 -2.530427 2.8873951
-0.51760674 -2.3842432 2.4773614
-0.67287368 -3.1071563 2.6458354
-0.69351864 -3.2105587 2.2380965
-0.75856549 -3.5175791 1.9701792
-0.85683876 -3.9799705 1.7331737
-0.85887718 -3.9961808 1.2913878
-0.84811819 -3.9528141 0.8590185
-0.82082695 -3.832104 0.44477996
-0.58194202 -2.6625943 2.5085831
-0.70916992 -3.2527649 2.5076616
-0.71549636 -3.2872565 2.0625501
-0.80814034 -3.7222147 1.8482418
-0.90239233 -4.1632853 1.5717846
-0.85942376 -3.9717102 1.0708104
-0.82564718 -3.8188188 0.63714451
-0.81156963 -3.7600248 0.24884421
-0.015181809 -0.028420422 2.2141891
-0.082384728 -0.33736739 2.2082722
-0.11749355 -0.49375305 2.4635599
-0.15423001 -0.66736364 2.2368906
-0.19617581 -0.86206639 2.1423934
-0.26817495 -1.1895561 2.3019767
-0.28862625 -1.2885065 2.0119581
-0.49979547 -2.2418234 2.8265731
-0.046714623 -0.14166898 2.4203827
-0.070722446 -0.24065788 2.2966461
-0.14895576 -0.63218564 2.5381792
-0.171748 -0.74410707 2.1309304
-0.24183407 -1.0607432 2.3133683
-0.27561209 -1.2175207 2.112057
-0.37847275 -1.6811702 2.3566139
-0.53431958 -2.3829114 2.7256877
-0.51977545 -2.354563 2.4493251
-0.67952979 -3.0857825 2.6301429
-0.72176802 -3.2857153 2.2901845
-0.7651456 -3.4889476 1.9562663
-0.8737008 -3.9905412 1.7387928
-0.85950434 -3.932235 1.2730573
-0.84829611 -3.8874385 0.84689444
-0.82359821 -3.7805572 0.44030917
-0.60176331 -2.7079301 2.5518146
-0.70127314 -3.1634531 2.4429121
-0.72696662 -3.2847393 2.0625501
-0.81427926 -3.6883488 1.8335555
-0.89659083 -4.0678806 1.5389146
-0.86074758 -3.9117215 1.0567427
-0.83259201 -3.7868943 0.63300043
-0.81290758 -3.7034919 0.24662738
-0.015280923 -0.028367255 2.2141891
-0.083749704 -0.33783171 2.2132118
-0.11993567 -0.49630865 2.4782455
-0.15860833 -0.67553979 2.2655225
-0.19918381 -0.8613764 2.1423934
-0.262694 -1.1465926 2.2229733
-0.29312223 -1.2874912 2.0119581
-0.047303319 -0.14177786 2.4253745
-0.071407735 -0.23989934 2.2916749
-0.15086859 -0.63043952 2.53334
-0.17395005 -0.74182314 2.1262379
-0.23963661 -1.034444 2.2593539
-0.28336978 -1.2318009 2.1376524
-0.38433883 -1.6798389 2.3566139
-0.52756643 -2.3149245 2.6521845
-0.52642924 -2.3457749 2.4423161
-0.68689543 -3.0681987 2.6175892
-0.72776419 -3.2586904 2.2737355
-0.77153528 -3.460314 1.9423535
-0.89266193 -4.0100932 1.748158
-0.85969573 -3.8683343 1.2547269
-0.84802806 -3.8221104 0.83477044
-0.82386559 -3.7193141 0.43494424
-0.62684458 -2.7750108 2.6149991
-0.69631624 -3.0900099 2.389935
-0.7223419 -3.210685 2.019486
-0.81919777 -3.6500571 1.8167711
-0.88910198 -3.9679601 1.5044008
-0.8606019 -3.847029 1.0415025
-0.83176225 -3.7211382 0.62402159
-0.81386077 -3.6469958 0.24441053
-0.015379849 -0.028313741 2.2141891
-0.084928446 -0.33753729 2.2132118
-0.12142415 -0.49489823 2.4733503
-0.16061875 -0.67353016 2.2607508
-0.20218934 -0.86067587 2.1423934
-0.25963274 -1.1153452 2.1659153
-0.30269027 -1.3083928 2.0450218
-0.53989315 -2.3444774 2.9570482
-0.048084177 -0.14242928 2.4403493
-0.072244704 -0.23964861 2.2916749
-0.15366286 -0.6323517 2.5430188
-0.17693864 -0.74288994 2.1309304
-0.23875545 -1.0145303 2.218843
-0.29123047 -1.2460414 2.1632481
-0.3902002 -1.6784871 2.3566139
-0.53564382 -2.3130686 2.6521845
-0.53461432 -2.3439231 2.4423161
-0.69414663 -3.0506012 2.6050353
-0.72802663 -3.2071981 2.2408381
-0.77773434 -3.4316781 1.9284407
-0.90563112 -4.0024309 1.746285
-0.85099512 -3.7670476 1.2251163
-0.84731448 -3.7568326 0.82264632
-0.82152772 -3.6483989 0.42868513
-0.64321107 -2.8019185 2.641603
-0.68634343 -2.9969406 2.3222425
-0.73162311 -3.1997397 2.0144196
-0.82486826 -3.6162012 1.8020846
-0.88092667 -3.8681426 1.4698871
-0.86001533 -3.7823863 1.0262624
-0.83377516 -3.6699221 0.61711478
-0.81332457 -3.5856667 0.24199216
-0.015507393 -0.02829266 2.2191892
-0.086299255 -0.33799142 2.2181509
-0.1243843 -0.49941075 2.4978266
-0.16191356 -0.66861331 2.2464347
-0.20473869 -0.85806465 2.1377909
-0.2596648 -1.0981176 2.1351919
-0.55172503 -2.3581831 2.9762356
-0.048773788 -0.14280482 2.4503329
-0.072922893 -0.23888583 2.2867031
-0.15406007 -0.6244899 2.5139823
-0.18359146 -0.75904 2.1778584
-0.23520647 -0.98404944 2.1558261
-0.29135975 -1.2272551 2.1333864
-0.39536417 -1.6741823 2.3526237
-0.5561378 -2.3639855 2.7109871
-0.54118234 -2.3350942 2.4353068
-0.70216024 -3.0367827 2.5956199
-0.72135913 -3.1272233 2.18875
-0.78374308 -3.4030418 1.9145279
-0.90401304 -3.9314749 1.7181895
-0.85447884 -3.7219756 1.2124259
-0.8395707 -3.6628785 0.80492657
-0.8187049 -3.5775461 0.42242602
-0.65213948 -2.7960198 2.6382775
-0.67298126 -2.8921695 2.2457204
-0.73790979 -3.1761713 2.0017536
-0.83133733 -3.586772 1.7894964
-0.88377696 -3.8190379 1.453452
-0.85898811 -3.7177949 1.0110222
-0.83432686 -3.6139131 0.60951734
-0.81237018 -3.5243864 0.23957379
-0.015606058 -0.028238354 2.2191892
-0.08767426 -0.33844009 2.2230902
-0.12562656 -0.49699953 2.4880362
-0.16317602 -0.66369581 2.2321188
-0.20773265 -0.85734475 2.1377909
-0.26573437 -1.1065193 2.1527481
-0.36998546 -1.5498471 2.4128542
-0.049563926 -0.14344908 2.465308
-0.073756315 -0.23862982 2.2867031
-0.15532161 -0.62029064 2.4994638
-0.19077101 -0.77682817 2.2294786
-0.23812628 -0.981107 2.1513247
-0.29197297 -1.2110186 2.1077909
-0.4005028 -1.6698619 2.3486338
-0.58644927 -2.4543548 2.8138916
-0.55423433 -2.3540187 2.4563341
-0.71275634 -3.0343132 2.5956199
-0.72463775 -3.0921171 2.1668184
-0.78956139 -3.3744054 1.9006151
-0.89663744 -3.8380089 1.6807289
-0.85874814 -3.681597 1.2011458
-0.84566617 -3.6312201 0.79933083
-0.8120141 -3.4922071 0.41482568
-0.64467835 -2.7210629 2.5717676
-0.69144148 -2.9252048 2.2722087
-0.74404114 -3.1525989 1.9890878
-0.8365708 -3.5529246 1.7748101
-0.8884567 -3.779155 1.4403039
-0.85863131 -3.6579897 0.99695444
-0.83336693 -3.5531237 0.60122913
-0.80758071 -3.4485643 0.23655082
-0.015733564 -0.028216282 2.2241888
-0.089053459 -0.33888322 2.2280293
-0.12507859 -0.48768279 2.443979
-0.16476801 -0.66022587 2.2225749
-0.21025705 -0.85471731 2.1331882
-0.2724334 -1.1172187 2.1746933
-0.37671944 -1.5540158 2.4211199
-0.050457411 -0.144361 2.4852746
-0.074427404 -0.2378629 2.2817318
-0.15624571 -0.61487216 2.4801061
-0.19222818 -0.77113456 2.2154005
-0.24154952 -0.98026979 2.1513247
-0.29557812 -1.207459 2.1035249
-0.40846872 -1.6772367 2.3606038
-0.59501302 -2.4522927 2.8138916
-0.57157254 -2.3902228 2.4948843
-0.70889008 -2.9712305 2.5454047
-0.72380698 -3.0407557 2.1339209
-0.79416502 -3.3414607 1.8843836
-0.91002911 -3.8348556 1.6807289
-0.86163992 -3.6365664 1.1884555
-0.84476554 -3.5708823 0.7881394
-0.81847525 -3.4651182 0.4125903
-0.66552866 -2.7659881 2.6149991
-0.69976103 -2.9149129 2.2663224
-0.75102174 -3.133214 1.9789551
-0.84263384 -3.5234983 1.7622217
-0.892869 -3.7392864 1.4271559
-0.85899496 -3.6029611 0.98405892
-0.83199304 -3.4923863 0.59294099
-0.81152081 -3.4117017 0.23514012
-0.015831962 -0.028161187 2.2241888
-0.090436816 -0.33932087 2.2329688
-0.12498115 -0.48034656 2.4097126
-0.16633777 -0.65675288 2.2130308
-0.21276568 -0.85208285 2.1285858
-0.27863455 -1.12556 2.1922498
-0.38819572 -1.5772834 2.4583166
-0.57944089 -2.3647287 2.9915857
-0.051159438 -0.14472622 2.4952579
-0.075094029 -0.23709419 2.2767601
-0.15713386 -0.60945487 2.4607484
-0.19407156 -0.76711315 2.2060149
-0.24549833 -0.98153245 2.1558261
-0.30167866 -1.2140129 2.1163228
-0.42227778 -1.7079771 2.404494
-0.60356945 -2.4502008 2.8138916
-0.59085333 -2.433265 2.5404434
-0.70734191 -2.9195607 2.5046046
-0.72164398 -2.985374 2.0982819
-0.79958785 -3.3128314 1.8704708
-0.90168625 -3.7415173 1.6432681
-0.86422807 -3.5915611 1.1757652
-0.84574932 -3.5201488 0.77881318
-0.82127213 -3.4234996 0.40901366
-0.67606586 -2.7672751 2.6183245
-0.71663278 -2.9399419 2.2869246
-0.75685656 -3.1096308 1.9662892
-0.84850174 -3.4940736 1.7496334
-0.89367551 -3.6856661 1.4090773
-0.85898507 -3.5479753 0.97116351
-0.83136976 -3.4365153 0.58534348
-0.80582905 -3.3360043 0.23211715
-0.015930166 -0.028105753 2.2241888
-0.091824301 -0.33975297 2.2379079
-0.12561534 -0.47597 2.3901317
-0.16825727 -0.65472257 2.2082589
-0.21573871 -0.85133499 2.1285858
-0.28431341 -1.1315489 2.2054172
-0.41143641 -1.6469009 2.5657735
-0.58691806 -2.3595815 2.9877484
-0.05226526 -0.14617132 2.5252078
-0.075756192 -0.23632376 2.2717888
-0.15862325 -0.60647082 2.4510696
-0.19073582 -0.74303162 2.1403162
-0.248923 -0.9806695 2.1558261
-0.32186458 -1.2761719 2.222971
-0.4935244 -1.9666042 2.7596061
-0.60965127 -2.4382124 2.8028662
-0.60105079 -2.4381125 2.5474524
-0.69893342 -2.8414812 2.4418356
-0.71710998 -2.9219232 2.0571597
-0.80482048 -3.2842052 1.856558
-0.90151846 -3.6843107 1.6207918
-0.86537403 -3.5419228 1.1616648
-0.84638941 -3.4694521 0.76948696
-0.82378858 -3.3819039 0.40543702
-0.67493504 -2.7214108 2.5784185
-0.71232569 -2.8785677 2.2427771
-0.76357019 -3.0902302 1.9561565
-0.8530882 -3.4602444 1.734947
-0.88395947 -3.5908186 1.3762071
-0.85976207 -3.4977539 0.95944029
-0.82918566 -3.3758831 0.57705534
-0.81270897 -3.3137624 0.23131102
-0.016028175 -0.028049974 2.2241888
-0.093009695 -0.33943036 2.2379079
-0.12727602 -0.47552863 2.3901317
-0.17054164 -0.65413129 2.2082589
-0.21822226 -0.84868467 2.1239831
-0.2935892 -1.1514356 2.2449188
-0.42479166 -1.675459 2.6112356
-0.59201241 -2.3450875 2.9723983
-0.053381786 -0.14761044 2.5551577
-0.076413892 -0.23555157 2.2668171
-0.16073926 -0.6059134 2.4510696
-0.18636382 -0.71564335 2.0652318
-0.25288787 -0.98190272 2.1603272
-0.33601969 -1.3129389 2.2869601
-0.54501176 -2.1400707 2.9990077
-0.61315495 -2.4163535 2.7808154
-0.60955769 -2.4359996 2.5474524
-0.72487801 -2.9032221 2.4951892
-0.72528327 -2.9112873 2.0516768
-0.80986303 -3.255583 1.8426452
-0.89760959 -3.6136537 1.5926963
-0.86618412 -3.4923208 1.1475645
-0.84668601 -3.4187946 0.7601608
-0.82243824 -3.3258297 0.40051913
-0.66164303 -2.6285181 2.495281
-0.71941537 -2.8643029 2.2339478
-0.76910883 -3.0666397 1.9434905
-0.86295784 -3.4484401 1.7307509
-0.86672378 -3.4685974 1.3334758
-0.85902244 -3.4428554 0.94654483
-0.83018249 -3.3297231 0.57083923
-0.81461567 -3.2721217 0.22969878
-0.016125992 -0.027993854 2.2241888
-0.094193965 -0.33910364 2.2379079
