# .PCD v0.7 - Point Cloud Data file format
VERSION 0.7
FIELDS x y z
SIZE 4 4 4
TYPE F F F
COUNT 1 1 1
WIDTH 1466
HEIGHT 1
VIEWPOINT 0 0 0 1 0 0 0
POINTS 1466
DATA ascii
-1.0539243 0.83903658 3.2331915
-0.99311882 0.78726751 2.3897583
-0.954202 0.75427353 1.8590392
-0.92507839 0.72969836 1.4872841
-1.2926141 1.0456737 6.4387555
-1.1036779 0.88430482 3.9001033
-1.0228913 0.81493509 2.7679911
-0.97960055 0.77795875 2.1163228
-0.93505979 0.74074513 1.6543695
-0.92099059 0.72831047 1.3511763
-0.90905762 0.71399558 1.2157247
-0.88739711 0.69624311 0.99186856
-0.88372415 0.69262689 0.82075852
-0.87649184 0.68647403 0.66933239
-0.86221969 0.67481959 0.53068668
-0.85423934 0.66810256 0.40870732
-0.83600456 0.65337694 0.29291809
-0.82404709 0.64357793 0.18681537
-0.90910399 0.7160933 1.111873
-0.87877184 0.69146621 0.89775282
-0.87569648 0.68856114 0.74023062
-0.87175 0.68472928 0.5999006
-0.85108125 0.66802323 0.46570307
-0.84150994 0.66004556 0.34866288
-0.81826752 0.64159048 0.23724076
-0.82563484 0.6469118 0.13598689
-1.515319 1.2407588 9.4392586
-1.1751062 0.9489429 4.8757977
-1.0555613 0.84637725 3.246999
-0.99223614 0.79222381 2.3941474
-0.95376462 0.75935256 1.8631719
-0.92503524 0.7349171 1.4911215
-1.2957767 1.0557381 6.472631
-1.1046127 0.89140368 3.9141815
-1.023436 0.82122594 2.7769935
-0.97891563 0.78300267 2.1205888
-0.93482363 0.74588412 1.6583595
-0.92109436 0.73363316 1.3548514
-0.90935665 0.71937716 1.2192293
-0.88801515 0.70174992 0.99500704
-0.88458294 0.69829834 0.82349998
-0.87409025 0.68952936 0.66933239
-0.85985887 0.67782521 0.53068668
-0.85567021 0.67404878 0.41011736
-0.83371878 0.65629113 0.29291809
-0.82570958 0.64952946 0.18726245
-0.90952379 0.72158301 1.1151985
-0.87952048 0.69704014 0.90069598
-0.87328762 0.69161373 0.74023062
-0.87291372 0.690584 0.60199869
-0.84874415 0.67099005 0.46570307
-0.84301496 0.6659922 0.34983522
-0.81990921 0.64751208 0.23793145
-0.82337165 0.64978987 0.13598689
-1.5204039 1.2538158 9.4980011
-1.1764182 0.95680714 4.8948855
-1.0571598 0.85373956 3.2608066
-0.99319714 0.79868454 2.4029255
-0.95330346 0.76443785 1.867305
-0.92496669 0.74014431 1.494959
-1.2979131 1.0650399 6.501668
-1.1055115 0.89851987 3.9282601
-1.023949 0.82753044 2.785996
-0.97617638 0.78641498 2.1205888
-0.93456298 0.75103045 1.6623495
-0.91852796 0.73684394 1.3548514
-0.90962899 0.72476947 1.2227339
-0.88860554 0.70726943 0.99814546
-0.88541293 0.70398432 0.82624143
-0.87514633 0.69533211 0.67165118
-0.8611182 0.68370527 0.53255969
-0.85331213 0.67703152 0.41011736
-0.83527195 0.66224927 0.29385069
-0.82343733 0.65240771 0.18726245
-0.90699941 0.72475344 1.1151985
-0.88024086 0.70262772 0.90363914
-0.87423807 0.69734609 0.74276382
-0.87049788 0.69362682 0.60199869
-0.85009098 0.67689019 0.46734658
-0.8444885 0.67195731 0.35100752
-0.82151949 0.65345281 0.23862213
-0.82109851 0.65266001 0.13598689
-2.2519393 1.8951061 18.710333
-1.5254164 1.2669235 9.5567446
-1.1765351 0.96374595 4.9092016
-1.0587196 0.86112326 3.2746143
-0.99412525 0.80516171 2.4117036
-0.95281827 0.7695291 1.8714379
-0.92736852 0.74739146 1.502634
-1.3009689 1.07517 6.5355439
-1.1077092 0.90674627 3.9470313
-1.0244306 0.83384842 2.7949984
-0.9754504 0.79146105 2.1248546
-0.93427777 0.75618398 1.6663395
-0.91858709 0.74217641 1.3585266
-0.9098748 0.73017246 1.2262385
-0.88916808 0.71280164 1.0012839
-0.88621396 0.70968455 0.82898289
-0.87617242 0.70115066 0.67396998
-0.85872638 0.68670702 0.53255969
-0.85469109 0.6830008 0.4115274
-0.83295518 0.66516089 0.29385069
-0.82504743 0.65838432 0.18770951
-0.90737265 0.7302562 1.1185241
-0.88093293 0.70822877 0.9065823
-0.87179852 0.70039356 0.74276382
-0.87161088 0.69950199 0.60409671
-0.84772295 0.67985344 0.46734658
-0.84213775 0.67490101 0.35100752
-0.81923348 0.65631652 0.23862213
-0.81881523 0.65552217 0.13598689
-2.2453105 1.9029553 18.710333
-1.5303555 1.2800813 9.6154861
-1.1766179 0.97069716 4.9235177
-1.0602409 0.86852831 3.2884219
-0.99502003 0.81165498 2.4204819
-0.95449203 0.77640206 1.8797038
-0.92724252 0.75264418 1.5064715
-1.3039699 1.0853347 6.5694199
-1.1085314 0.91390103 3.9611094
-1.0265639 0.84156013 2.808502
-0.97470117 0.79651165 2.1291206
-0.93630332 0.76324874 1.6743195
-0.91862029 0.7475183 1.3622017
-0.9100939 0.73558599 1.229743
-0.8897028 0.71834636 1.0044224
-0.88373131 0.71277368 0.82898289
-0.87371963 0.7042048 0.67396998
-0.85632408 0.68970037 0.53255969
-0.85603875 0.68898791 0.4129374
-0.83445603 0.67114305 0.29478332
-0.82274425 0.66126025 0.18770951
-0.9077186 0.73577034 1.1218495
-0.88159668 0.71384323 0.90952545
-0.87269938 0.70614409 0.74529696
-0.87269354 0.70539343 0.60619479
-0.8490181 0.6857757 0.46899009
-0.84355897 0.68088949 0.35217986
-0.82079148 0.66228193 0.23931281
-0.81652206 0.65837634 0.13598689
-2.2741101 1.9410526 19.006689
-1.5352213 1.2932889 9.6742296
-1.1778141 0.97861487 4.9426055
-1.0602164 0.87471086 3.297627
-0.99588162 0.81816429 2.42926
-0.95395291 0.78151274 1.8838367
-0.9295724 0.75993401 1.5141466
-1.3059525 1.0947255 6.5984564
-1.1106447 0.92217511 3.9798803
-1.0269772 0.84791076 2.8175044
-0.97392833 0.8015666 2.1333864
-0.93596226 0.76842469 1.6783097
-0.91862726 0.75286943 1.3658769
-0.9130519 0.74326146 1.236752
-0.89322942 0.72635931 1.0106993
-0.8844834 0.71849078 0.83172441
-0.87469536 0.7100423 0.67628878
-0.85751152 0.69560581 0.53443271
-0.85362852 0.69197184 0.4129374
-0.83592528 0.67714381 0.29571593
-0.82430172 0.66726142 0.18815659
-0.90803695 0.74129575 1.125175
-0.88223189 0.71947092 0.91246861
-0.87357086 0.71190947 0.74783015
-0.87022591 0.70843542 0.60619479
-0.85028219 0.69171524 0.47063357
-0.84494865 0.68689603 0.35335216
-0.81847465 0.66514295 0.23931281
-0.81809711 0.66437203 0.13618843
-2.2673206 1.948979 19.006689
-1.5407898 1.3072048 9.7378674
-1.1824036 0.98942691 4.9760094
-1.061664 0.8821525 3.3114345
-0.99670976 0.82468945 2.4380381
-0.95555991 0.78841996 1.8921027
-0.92938834 0.76521164 1.517984
-1.3069249 1.1033323 6.6226535
-1.11139 0.92936784 3.9939587
-1.0273585 0.85427445 2.8265069
-0.97313231 0.80662596 2.1376524
-0.93791848 0.77552772 1.6862897
-0.91860819 0.75822973 1.3695521
-0.91320968 0.74870527 1.2402567
-0.89369965 0.7319392 1.0138377
-0.88520622 0.72422159 0.83446586
-0.87564093 0.71589518 0.67860758
-0.85507822 0.69859487 0.53443271
-0.85492373 0.69798112 0.41434744
-0.83355647 0.68005764 0.29571593
-0.82196748 0.67013478 0.18815659
-0.90832776 0.74683231 1.1285006
-0.88283837 0.7251116 0.91541177
-0.87441242 0.71768945 0.75036329
-0.87125736 0.71434641 0.60829288
-0.85151511 0.69767189 0.47227708
-0.8463065 0.69292051 0.35452449
-0.81997991 0.67113245 0.24000348
-0.81577307 0.66722369 0.13618843
-1.5462797 1.3211753 9.801506
-1.1857903 0.99932069 5.0046415
-1.0630727 0.889615 3.325242
-0.99750459 0.8312304 2.4468162
-0.95496613 0.79354936 1.8962357
-0.93164605 0.77254343 1.5256591
-1.3097682 1.1135879 6.6565294
-1.1134183 0.93768883 4.0127296
-1.0277081 0.86065114 2.8355093
-0.97431457 0.81336099 2.1461844
-0.93752104 0.78072536 1.6902797
-0.91856277 0.76359904 1.3732272
-0.91334051 0.75415927 1.2437612
-0.89414173 0.73753119 1.0169762
-0.88267285 0.7273072 0.83446586
-0.87313664 0.71894741 0.67860758
-0.85621417 0.70452106 0.53630573
-0.85248208 0.70096111 0.41434744
-0.83497286 0.68608177 0.29664856
-0.82347202 0.67616016 0.18860367
-0.90571535 0.74999845 1.1285006
-0.88341635 0.7307654 0.91835493
-0.87854689 0.72623062 0.75542969
-0.8687585 0.71738333 0.60829288
-0.85271674 0.70364547 0.47392058
-0.84388262 0.69587046 0.35452449
-0.81763226 0.67399061 0.24000348
-0.81729519 0.67324364 0.13638996
-1.5516908 1.3352 9.8651428
-1.1879846 1.0082841 5.0285015
-1.0629482 0.89583862 3.3344471
-0.99826592 0.83778691 2.4555948
-0.95650613 0.80049044 1.9045017
-0.93140364 0.77784544 1.5294967
-1.3087373 1.1206061 6.6710482
-1.1140863 0.94491887 4.0268083
-1.0280255 0.86704057 2.8445115
-0.97546172 0.8201139 2.1547163
-0.93940735 0.78786612 1.6982597
-0.92109025 0.77115357 1.3805776
-0.91344428 0.75962323 1.2472657
-0.89455587 0.74313521 1.0201148
-0.88334626 0.73305416 0.83720732
-0.87403154 0.72481865 0.68092638
-0.85731924 0.7104637 0.5381788
-0.85003012 0.70393258 0.41434744
-0.83635741 0.69212413 0.2975812
-0.82494444 0.68220413 0.18905075
-0.90595919 0.75554693 1.131826
-0.88396555 0.73643196 0.92129809
-0.87931943 0.73205119 0.75796282
-0.86973834 0.72331351 0.6103909
-0.85025531 0.70661777 0.47392058
-0.84518772 0.70191735 0.3556968
-0.8152746 0.67684054 0.24000348
-0.81494015 0.67609245 0.13638996
-1.5570226 1.3492785 9.9287815
-1.1912651 1.0182449 5.0571332
-1.0642827 0.9033367 3.3482547
-0.9989934 0.84435874 2.4643729
-0.95585752 0.80563802 1.9086344
-0.93113571 0.78315526 1.5333341
-1.3162392 1.1350197 6.7291212
-1.1160293 0.95328587 4.0455794
-1.0299699 0.87485224 2.8580153
-0.97657353 0.82688487 2.1632481
-0.93895322 0.79308492 1.7022496
-0.92098451 0.77654958 1.3842528
-0.91352099 0.76509702 1.2507702
-0.89494151 0.74875104 1.0232532
-0.88399041 0.73881483 0.83994877
-0.87149608 0.72786516 0.68092638
-0.85839313 0.71642256 0.54005182
-0.84756774 0.70689541 0.41434744
-0.83393633 0.69503933 0.2975812
-0.8225581 0.68507957 0.18905075
-0.90617526 0.76110619 1.1351515
-0.8813895 0.73951304 0.92129809
-0.87675875 0.73511612 0.75796282
-0.87068754 0.72925937 0.61248899
-0.85140479 0.71261239 0.47556409
-0.84646076 0.70798188 0.35686913
-0.81670606 0.68285877 0.24069417
-0.81640893 0.6821363 0.13659149
-2.3405783 2.0694981 19.861181
-1.5622747 1.3634101 9.9924192
-1.1933593 1.027267 5.0809932
-1.0655777 0.910855 3.3620622
-1.0015107 0.85249841 2.47754
-0.95732993 0.81261206 1.9169004
-0.93084186 0.78847259 1.5371716
-1.3198608 1.1462017 6.7678366
-1.116619 0.96055216 4.0596576
-1.0318722 0.88268787 2.8715191
-0.97566551 0.83198106 2.1675138
-0.9407692 0.80026269 1.7102298
-0.92343622 0.78414869 1.3916031
-0.91357064 0.77058059 1.2542748
-0.89529884 0.75437856 1.0263916
-0.88140607 0.74189603 0.83994877
-0.87234002 0.7337544 0.68324518
-0.8594358 0.72239757 0.54192483
-0.84876823 0.71293509 0.41575748
-0.8352676 0.70110422 0.29851383
-0.82397717 0.69114703 0.18949783
-0.90351295 0.7642647 1.1351515
-0.88189006 0.74519414 0.92424124
-0.87748092 0.74095339 0.76049602
-0.87160569 0.73522055 0.61458701
-0.84891206 0.71557999 0.47556409
-0.84770173 0.71406376 0.35804144
-0.81431746 0.68570542 0.24069417
-0.81784552 0.68819863 0.13679302
-2.3548086 2.0967767 20.043934
-1.5674475 1.3775949 10.056058
-1.1942773 1.035338 5.100081
-1.0668331 0.91839325 3.3758698
-1.0021652 0.85910702 2.4863181
-0.95662647 0.81777751 1.9210334
-0.93052232 0.79379743 1.5410092
-1.3243662 1.1582505 6.8113914
-1.1171718 0.96783435 4.0737357
-1.0353814 0.89196849 2.889524
-0.97671229 0.83878034 2.1760459
-0.94025832 0.80550236 1.7142198
-0.92326981 0.78957087 1.3952782
-0.91359311 0.77607387 1.2577794
-0.8956278 0.76001769 1.02953
-0.88200051 0.74767214 0.84269029
-0.86977345 0.73679501 0.68324518
-0.86044723 0.72838849 0.54379785
-0.84627444 0.71589357 0.41575748
-0.83656663 0.70718694 0.29944643
-0.82155961 0.69401908 0.18949783
-0.90368181 0.76983535 1.138477
-0.88236159 0.75088757 0.9271844
-0.87817293 0.74680459 0.76302922
-0.86903399 0.7382586 0.61458701
-0.8500089 0.72159499 0.4772076
-0.845204 0.71701843 0.35804144
-0.81569576 0.69174671 0.24138485
-0.81543827 0.69104928 0.13679302
-2.3561516 2.1127658 20.118023
-1.5725398 1.3918322 10.119696
-1.1962776 1.0444099 5.1239409
-1.068049 0.92595136 3.3896773
-1.0027857 0.86573046 2.4950962
-0.95803094 0.8247841 1.9292994
-0.93017685 0.79912949 1.5448467
-1.3278604 1.1695137 6.8501067
-1.1189874 0.97626674 4.0925069
-1.0371941 0.89985746 2.9030275
-0.97575098 0.84389085 2.1803117
-0.93972218 0.81074804 1.7182097
-0.92564541 0.79721385 1.4026285
-0.91358835 0.78157663 1.2612839
-0.89296937 0.76313943 1.02953
-0.88256538 0.75346142 0.84543175
-0.87056613 0.74270171 0.68556398
-0.86142725 0.73439533 0.54567093
-0.84377033 0.71884322 0.41575748
-0.83783329 0.71328717 0.30037907
-0.82292497 0.70010954 0.18994491
-0.90382272 0.77541643 1.1418025
-0.8828041 0.75659353 0.93012756
-0.87556076 0.74986541 0.76302922
-0.86990029 0.74423814 0.61668509
-0.85107404 0.72762638 0.47885111
-0.8463915 0.72312176 0.35921374
-0.8170417 0.69780588 0.24207552
-0.81682116 0.69713473 0.13699456
-2.3747094 2.1444142 20.340288
-1.5775515 1.4061217 10.183332
-1.1982292 1.053508 5.1478009
-1.0692248 0.93352908 3.4034851
-1.0033721 0.87236869 2.5038743
-0.95939821 0.83181036 1.9375652
-0.93222934 0.80656624 1.5525217
-1.3312918 1.1808152 6.8888221
-1.1207577 0.98472339 4.1112776
-1.0373251 0.90633744 2.91203
-0.97673225 0.85071784 2.1888437
-0.93916094 0.81599993 1.7221999
-0.92541784 0.80266154 1.4063038
-0.91355622 0.78708881 1.2647884
-0.89325011 0.76879096 1.0326686
-0.88310045 0.75926375 0.8481732
-0.86796832 0.745736 0.68556398
-0.8623758 0.74041784 0.54754394
-0.84489655 0.72490782 0.41716751
-0.83906752 0.71940488 0.30131167
-0.82425785 0.706218 0.19039199
-0.90676087 0.78344899 1.1484535
-0.88321751 0.76231164 0.93307072
-0.87620217 0.75573283 0.76556236
-0.86729705 0.74727011 0.61668509
-0.85210735 0.73367393 0.48049462
-0.84386224 0.72607177 0.35921374
-0.81835526 0.70388293 0.2427662
-0.8181715 0.70323825 0.13719608
-1.5824831 1.4204634 10.246971
-1.2001317 1.0626327 5.1716604
-1.0703608 0.94112617 3.4172924
-1.0039244 0.87902153 2.5126526
-0.96072787 0.83885622 1.9458311
-0.93182462 0.81192112 1.5563592
-1.3346606 1.1921551 6.9275374
-1.1211903 0.99206066 4.1253562
-1.0374235 0.91282928 2.9210322
-0.97767776 0.85756189 2.1973755
-0.93857431 0.82125753 1.7261899
-0.92516351 0.80811733 1.4099789
-0.91349673 0.79261029 1.268293
-0.89350224 0.77445382 1.035807
-0.88360578 0.7650789 0.85091466
-0.86870974 0.75165987 0.68788278
-0.86329263 0.74645573 0.54941696
-0.84236103 0.72785264 0.41716751
-0.84026921 0.72553974 0.30224431
-0.82178771 0.70909095 0.19039199
-0.90683728 0.78906047 1.1517791
-0.88360173 0.76804179 0.93601388
-0.87681317 0.76161367 0.76809555
-0.86811119 0.75326753 0.61878312
-0.85310882 0.73973745 0.48213813
-0.84132254 0.72901303 0.35921374
-0.81963634 0.70997757 0.24345689
-0.81948906 0.70935965 0.13739762
-1.5880885 1.4355392 10.315504
-1.2019851 1.0717834 5.1955204
-1.0714567 0.94874263 3.4311001
-1.0044423 0.88568884 2.5214307
-0.95990688 0.84406286 1.9499639
-0.93139392 0.81728309 1.5601966
-1.3370318 1.2026919 6.9614134
-1.1228735 1.0005611 4.1441274
-1.0374892 0.91933286 2.9300346
-0.98054194 0.86614984 2.2101734
-0.94022334 0.8285135 1.7341701
-0.92488235 0.81358117 1.4136541
-0.91340977 0.79814088 1.2717975
-0.89665788 0.78268749 1.0420839
-0.88092971 0.76815861 0.85091466
-0.86942035 0.75759792 0.69020158
-0.86068171 0.74946463 0.54941696
-0.84343398 0.73393768 0.41857755
-0.84143823 0.73169184 0.30317691
-0.82306647 0.7152217 0.19083907
-0.90969348 0.79714286 1.15843
-0.88091534 0.77112144 0.93601388
-0.87739384 0.76750803 0.77062875
-0.86547649 0.75629324 0.61878312
-0.85763508 0.74892312 0.48542514
-0.83877277 0.73194534 0.35921374
-0.82088476 0.71608961 0.24414757
-0.82077384 0.71549881 0.13759914
-1.592855 1.4499857 10.379143
-1.2037891 1.0809598 5.2193809
-1.0710545 0.95507777 3.4403052
-1.004926 0.8923704 2.5302088
-0.96116793 0.85113996 1.9582298
-0.93093705 0.82265186 1.5640341
-1.3402773 1.2141037 7.0001283
-1.1245111 1.0090853 4.1628985
-1.035898 0.92439836 2.934536
-0.98140943 0.87303436 2.2187052
-0.93957913 0.8337906 1.73816
-0.92457438 0.81905282 1.4173292
-0.91329533 0.80368036 1.2753021
-0.89684361 0.78838259 1.0452224
-0.88138491 0.77398813 0.85365611
-0.87010002 0.7635501 0.69252038
-0.86154598 0.75552118 0.55129004
-0.84447467 0.74003899 0.41998756
-0.84257442 0.73786074 0.30410954
-0.82431245 0.72136998 0.19128615
-0.90970492 0.80278414 1.1617556
-0.88125014 0.77686471 0.93895704
-0.87794405 0.77341574 0.77316189
-0.86623836 0.76230812 0.6208812
-0.85856158 0.75503069 0.48706865
-0.83621269 0.73486876 0.35921374
-0.82210058 0.72221911 0.24483825
-0.82202572 0.72165543 0.13780068
-1.5982903 1.4651712 10.447676
-1.2044367 1.0891606 5.2384686
-1.0720744 0.96272701 3.4541125
-1.0053751 0.89906609 2.5389869
-0.96239126 0.85823601 1.9664958
-0.93045408 0.82802743 1.5678717
-1.3425307 1.2247056 7.0340047
-1.1261027 1.0176331 4.1816697
-1.035903 0.93091917 2.9435384
-0.98224086 0.87993556 2.2272372
-0.94115621 0.84108132 1.74614
-0.92423922 0.82453215 1.4210044
-0.91315329 0.8092289 1.2788066
-0.89700043 0.79408848 1.0483608
-0.88180995 0.77983016 0.85639757
-0.8707487 0.76951623 0.69483918
-0.85890341 0.75852394 0.55129004
-0.84548289 0.74615645 0.4213976
-0.84367788 0.74404657 0.30504215
-0.82178938 0.72424293 0.19128615
-0.90968794 0.80843514 1.165081
-0.88155562 0.78261966 0.94190019
-0.87846357 0.77933657 0.77569515
-0.86696857 0.76833743 0.62297922
-0.85945588 0.76115394 0.48871216
-0.83364236 0.73778313 0.35921374
-0.81957453 0.72508442 0.24483825
-0.8195017 0.72452044 0.13780068
-1.604387 1.4811027 10.521104
-1.2050415 1.0973788 5.2575564
-1.0730541 0.97039503 3.4679203
-1.0057899 0.90577585 2.5477653
-0.96357661 0.86535102 1.9747616
-0.92994481 0.83340955 1.5717092
-1.3447262 1.2353379 7.0678806
-1.1276482 1.0262042 4.2004404
-1.0342611 0.93599033 2.9480395
-0.98109955 0.88510603 2.231503
-0.94269383 0.84839314 1.7541201
-0.92639899 0.83228499 1.4283547
-0.91298366 0.81478614 1.2823112
-0.89712828 0.79980505 1.0514992
-0.88220495 0.78568459 0.85913903
-0.87136632 0.77549613 0.69715798
-0.85971457 0.76459843 0.55316305
-0.84645879 0.75229001 0.42280763
-0.84474832 0.75024903 0.30597478
-0.822981 0.7304129 0.19173324
-0.90964258 0.81409574 1.1684066
-0.88183165 0.78838629 0.94484335
-0.8789525 0.78527045 0.77822834
-0.86766726 0.7743811 0.62507725
-0.85679376 0.76414937 0.48871216
-0.83469057 0.74392271 0.36038607
-0.82073593 0.73123509 0.24552894
-0.82069892 0.73069876 0.1380022
-1.6111374 1.4977882 10.599427
-1.2056036 1.1056148 5.2766442
-1.073993 0.97808146 3.4817278
-1.0061698 0.91249925 2.5565434
-0.964724 0.87248451 1.9830275
-0.92940944 0.83879828 1.5755466
-1.3477865 1.2468539 7.106596
-1.1291476 1.0347984 4.2192116
-1.0342053 0.94252795 2.957042
-0.98186433 0.89203298 2.2400348
-0.9419592 0.85370231 1.7581102
-0.92600203 0.83778828 1.4320298
-0.91278625 0.82035208 1.2858157
-0.89722723 0.80553216 1.0546377
-0.88256985 0.79155123 0.86188054
-0.87195271 0.78148967 0.69947678
-0.85704029 0.7675947 0.55316305
-0.8474021 0.75843942 0.42421767
-0.84944713 0.7597428 0.30784002
-0.82042634 0.73328114 0.19173324
-0.90956879 0.81976581 1.1717321
-0.88508189 0.79686898 0.95072967
-0.87620598 0.78833377 0.77822834
-0.87170976 0.78347301 0.62927336
-0.85763425 0.77029091 0.49035567
-0.83208871 0.74683177 0.36038607
-0.82186437 0.73740274 0.24621962
-0.81814331 0.73355907 0.1380022
-1.6185341 1.5152346 10.682646
-1.2094123 1.1169064 5.3100481
-1.0748914 0.98578638 3.4955354
-1.006515 0.91923642 2.5653214
-0.96375293 0.87774175 1.9871606
-0.93121946 0.84634924 1.5832217
-1.3526218 1.2601203 7.1549897
-1.1306007 1.0434157 4.2379827
-1.0341164 0.94907647 2.9660444
-0.98259276 0.89897615 2.2485666
-0.94342452 0.86104804 1.7660903
-0.92557776 0.84329891 1.4357051
-0.91520512 0.82831979 1.2928247
-0.89729697 0.8112697 1.0577762
-0.88290441 0.79742992 0.864622
-0.87250781 0.78749669 0.70179558
-0.85779816 0.77368671 0.55503613
-0.84831268 0.76460445 0.42562771
-0.85043991 0.76599091 0.30877262
-0.82156312 0.73947209 0.19218032
-0.90946633 0.82544529 1.1750575
-0.88528925 0.80266863 0.95367283
-0.8766433 0.79428196 0.78076148
-0.87233448 0.7895568 0.63137144
-0.85494018 0.77327991 0.49035567
-0.83308256 0.75299108 0.36155838
-0.82295954 0.74358702 0.2469103
-0.81928575 0.73975861 0.13820374
-1.6258284 1.5327506 10.765865
-1.2120639 1.1272213 5.3386803
-1.075749 0.99350935 3.5093429
-1.0068256 0.92598712 2.5740998
-0.9648307 0.88490498 1.9954264
-0.93062371 0.85175884 1.5870591
-1.3564643 1.2725754 7.198545
-1.1320074 1.0520555 4.2567539
-1.0371916 0.95859134 2.9840493
-0.98136669 0.90416801 2.2528327
-0.9426316 0.86637521 1.7700801
-0.92512637 0.84881675 1.4393802
-0.91494375 0.83391184 1.2963293
-0.89733756 0.81701744 1.0609146
-0.88320863 0.80332053 0.86736345
-0.87303156 0.79351711 0.70411438
-0.86195546 0.78291035 0.55878216
-0.84919053 0.77078509 0.42703772
-0.85139936 0.77225506 0.30970526
-0.82266665 0.74567991 0.19262739
-0.90933537 0.83113402 1.1783831
-0.88546687 0.80847955 0.95661598
-0.87386537 0.79733717 0.78076148
-0.87292719 0.79565442 0.63346946
-0.85572678 0.77943945 0.49199918
-0.83404356 0.75916636 0.36273071
-0.82402164 0.74978793 0.24760097
-0.81669855 0.74261397 0.13820374
-1.63302 1.5503361 10.849084
-1.2146581 1.1375685 5.3673124
-1.0779964 1.002581 3.5277531
-1.0088582 0.93437862 2.5872669
-0.96586996 0.89208639 2.0036924
-0.93000162 0.85717458 1.5908966
-1.3611497 1.2859359 7.2469392
-1.1333673 1.0607178 4.2755246
-1.0402128 0.96813911 3.0020542
-0.98202807 0.91113603 2.2613645
-0.94402421 0.8737542 1.7780602
-0.92464775 0.85434163 1.4430554
-0.91465443 0.83951205 1.2998339
-0.897349 0.82277542 1.0640531
-0.88348258 0.80922312 0.87010491
-0.87352395 0.79955077 0.70643318
-0.86263806 0.78904337 0.56065518
-0.84649485 0.77374464 0.42703772
-0.85232538 0.77853531 0.31063786
-0.82005876 0.74854702 0.19262739
-0.90917569 0.83683187 1.1817086
-0.88561463 0.81430137 0.95955914
-0.87425107 0.80329955 0.78329468
-0.87683141 0.80483478 0.63766557
-0.85648066 0.78561378 0.49364269
-0.83855462 0.76864189 0.36507532
-0.82139933 0.75265974 0.24760097
-0.81778598 0.74883413 0.13840528
-1.6401082 1.5679902 10.932302
-1.2171946 1.1479472 5.3959441
-1.0801932 1.0116802 3.5461633
-1.009093 0.94116187 2.596045
-0.96687096 0.89928567 2.0119581
-0.93170208 0.86477691 1.5985717
-1.3648478 1.2984779 7.290494
-1.1346805 1.0694023 4.2942958
-1.04318 0.97771949 3.0200591
-0.98265266 0.91811979 2.2698965
-0.94537669 0.8811534 1.7860402
-0.92414165 0.85987347 1.4467305
-0.91695607 0.84754133 1.306843
-0.89733112 0.82854325 1.0671915
-0.88372588 0.81513721 0.87284636
-0.87072772 0.80259508 0.70643318
-0.86328828 0.79519069 0.56252825
-0.84731823 0.77994365 0.42844775
-0.85321796 0.7848314 0.3115705
-0.82110715 0.75477517 0.19307446
-0.90898728 0.84253865 1.185034
-0.88573253 0.8201341 0.96250236
-0.87460566 0.80927414 0.78582788
-0.87734944 0.81097138 0.63976365
-0.85720193 0.79180294 0.49528623
-0.83943802 0.77486128 0.36624765
-0.82240641 0.75888067 0.24829166
-0.81883985 0.75507098 0.1386068
-1.6470933 1.5857124 11.015522
-1.2196736 1.1583575 5.4245763
-1.0823396 1.020807 3.5645733
-1.0110383 0.9495979 2.6092124
-0.96783328 0.90650284 2.0202241
-0.93101925 0.87021273 1.6024091
-1.3693823 1.311931 7.3388882
-1.135947 1.078109 4.313067
-1.0460927 0.9873324 3.038064
-0.98513979 0.92690623 2.2826943
-0.94668895 0.88857269 1.7940203
-0.92608202 0.86773044 1.4540808
-0.91660231 0.85316688 1.3103476
-0.89443344 0.83167052 1.0671915
-0.88393879 0.82106286 0.87558782
-0.87116742 0.80864334 0.70875198
-0.86390597 0.80135202 0.56440127
-0.84810853 0.78615767 0.42985779
-0.85407686 0.79114312 0.3125031
-0.82212204 0.76101977 0.19352154
-0.9087702 0.84825444 1.1883595
-0.88582051 0.82597762 0.96544552
-0.87492913 0.81526101 0.78836101
-0.87783527 0.81712133 0.64186168
-0.85789031 0.79800659 0.49692973
-0.84028816 0.7810961 0.36741996
-0.8197524 0.76174676 0.24829166
-0.81986004 0.76132417 0.13880834
-2.6154022 2.5686817 23.303843
-1.6525124 1.6020848 11.08895
-1.2220945 1.1687989 5.4532075
-1.0844355 1.0299611 3.5829835
-1.0111972 0.95641309 2.6179905
-0.96875703 0.91373771 2.0284901
-0.93264365 0.87785125 1.6100842
-1.3729349 1.3245587 7.382443
-1.1384138 1.08803 4.3365307
-1.0489511 0.99697751 3.0560689
-0.98568439 0.93392718 2.2912261
-0.94796091 0.89601183 1.8020003
-0.92551303 0.87328446 1.457756
-0.91882235 0.86123919 1.3173567
-0.89436603 0.83744812 1.07033
-0.884121 0.8269999 0.87832928
-0.86833942 0.81167936 0.70875198
-0.86449116 0.80752736 0.56627429
-0.84886581 0.79238683 0.43126783
-0.85131001 0.79411954 0.3125031
-0.82310331 0.76728052 0.19396862
-0.91124463 0.85653621 1.1950105
-0.88587844 0.83183163 0.96838868
-0.87522155 0.82125998 0.79089421
-0.87497765 0.82018054 0.64186168
-0.86199194 0.80745298 0.50021678
-0.83755648 0.78402448 0.36741996
-0.81708843 0.76460361 0.24829166
-0.82449561 0.77100605 0.1392114
-1.6643934 1.6249167 11.206435
-1.2244575 1.1792713 5.4818397
-1.0850687 1.0377917 3.5967908
-1.0113207 0.9632408 2.6267686
-0.96964204 0.92098993 2.0367558
-0.93422604 0.88551182 1.6177592
-1.3764158 1.3372271 7.4259977
-1.140825 1.0979812 4.3599949
-1.0501822 1.0051491 3.0695722
-0.98619187 0.94096327 2.299758
-0.94919246 0.90347058 1.8099804
-0.92491668 0.87884527 1.4614313
-0.91840363 0.86688918 1.3208612
-0.89426917 0.84323531 1.0734684
-0.88427246 0.83294815 0.88107073
-0.86872631 0.81774187 0.71107078
-0.86504382 0.81371653 0.5681473
-0.84609473 0.79534513 0.43126783
-0.85211313 0.80044967 0.31343573
-0.82041991 0.77014905 0.19396862
-0.91096073 0.8622787 1.198336
-0.88590622 0.83769608 0.97133183
-0.87548256 0.82727087 0.79342741
-0.87540966 0.82634526 0.6439597
-0.86260319 0.81369734 0.50186026
-0.83835143 0.79027736 0.36859229
-0.8144145 0.76745117 0.24829166
-0.82543635 0.77730447 0.13941292
-2.6304348 2.6197801 23.600199
-1.6717789 1.6435671 11.29455
-1.2267619 1.1897744 5.5104713
-1.0870676 1.0469946 3.615201
-1.0131371 0.97173905 2.6399357
-0.9725216 0.93020475 2.0491548
-0.93576622 0.8931939 1.6254343
-1.3798251 1.3499358 7.469553
-1.1431805 1.1079624 4.3834581
-1.0513691 1.0133413 3.083076
-0.98666227 0.9480142 2.30829
-0.95038337 0.91094887 1.8179604
-0.92429256 0.88441229 1.4651064
-0.92054152 0.87500399 1.3278702
-0.89414275 0.84903204 1.0766069
-0.8843931 0.83890754 0.88381225
-0.86908144 0.8238169 0.71338952
-0.86556375 0.81991941 0.57002032
-0.84679693 0.80159146 0.43267787
-0.84931386 0.80341917 0.31343573
-0.82134557 0.77642918 0.1944157
-0.91064775 0.86802953 1.2016616
-0.88590378 0.84357071 0.97427499
-0.87883514 0.83626521 0.79849374
-0.87251985 0.82939601 0.6439597
-0.86318123 0.81995577 0.5035038
-0.83558774 0.79319894 0.36859229
-0.81532276 0.77369803 0.24898234
-0.82996833 0.78705645 0.13981599
-2.6377308 2.6454546 23.748377
-1.6855661 1.6687372 11.426721
-1.2300758 1.201351 5.5438757
-1.0890154 1.056224 3.6336112
-1.0131841 0.9785977 2.6487141
-0.97332186 0.93749839 2.0574207
-0.93726397 0.90089744 1.6331092
-1.3831623 1.3626846 7.5131078
-1.1454803 1.1179733 4.4069219
-1.0525115 1.0215542 3.0965798
-0.98709536 0.95507973 2.3168218
-0.94936568 0.91635358 1.8219506
-0.92608207 0.89233828 1.4724567
-0.92005771 0.88067812 1.3313749
-0.89398664 0.85483813 1.0797453
-0.88448298 0.8448779 0.8865537
-0.86940467 0.82990432 0.71570832
-0.86605078 0.82613569 0.57189339
-0.84746587 0.80785245 0.43408787
-0.85006094 0.80976713 0.31436834
-0.81863034 0.77929145 0.1944157
-0.91299921 0.87637436 1.2083125
-0.88587111 0.8494556 0.97721815
-0.87902308 0.84231049 0.80102688
-0.87289786 0.83557504 0.64605778
-0.86031377 0.82296383 0.5035038
-0.83632737 0.79946959 0.3697646
-0.81619722 0.77996063 0.24967301
-0.83082902 0.79339916 0.14001752
-2.6667445 2.6932995 24.094126
-1.6977556 1.6925851 11.549102
-1.2322595 1.2119184 5.5725074
-1.0895143 1.0641145 3.6474187
-1.0149121 0.98713845 2.6618812
-0.97408307 0.94480902 2.0656865
-0.93871945 0.90862232 1.6407841
-1.386427 1.3754729 7.5566626
-1.1489546 1.1292235 4.4350791
-1.0520526 1.0282655 3.1055822
-0.9893589 0.96397996 2.3296194
-0.95048243 0.92386258 1.8299305
-0.92539448 0.89792639 1.4761319
-0.922113 0.88883448 1.3383839
-0.89380091 0.8606534 1.0828838
-0.88454181 0.85085905 0.88929516
-0.87288952 0.83907402 0.72034597
-0.86650503 0.83236539 0.57376641
-0.84810138 0.8141278 0.43549791
-0.85077393 0.81613004 0.31530097
-0.81950003 0.78559053 0.19486278
-0.91261905 0.88215113 1.211638
-0.88580817 0.85535049 0.98016131
-0.87917948 0.84836709 0.80356008
-0.87324327 0.84176672 0.64815581
-0.8608368 0.829238 0.50514728
-0.83703333 0.80575508 0.3709369
-0.81703794 0.78623873 0.25036371
-0.82805455 0.79629445 0.14001752
-2.6464329 2.6915097 23.99534
-1.7105173 1.71726 11.676377
-1.2343845 1.2225155 5.6011395
-1.0913641 1.0733914 3.6658287
-1.0183035 0.997379 2.6794376
-0.97279209 0.95016974 2.0698195
-0.93783724 0.91413093 1.6446217
-1.3896196 1.3883005 7.6002169
-1.1511378 1.1392974 4.4585428
-1.0515596 1.0349859 3.1145847
-0.98971093 0.97108108 2.3381512
-0.94940513 0.92928278 1.8339207
-0.92710382 0.90589005 1.4834822
-0.92156368 0.89453191 1.3418884
-0.89358544 0.86647779 1.0860223
-0.88456964 0.85685086 0.89203662
-0.87313813 0.8451969 0.72266477
-0.86359423 0.83538502 0.57376641
-0.84870332 0.82041734 0.43690795
-0.85145295 0.8225078 0.31623358
-0.82033569 0.79190505 0.19530986
-0.91220969 0.88793594 1.2149636
-0.88571483 0.86125529 0.98310447
-0.87930429 0.85443509 0.80609328
-0.87681264 0.85113233 0.65235192
-0.86132628 0.83552581 0.50679076
-0.83421564 0.80867195 0.3709369
-0.81784469 0.79253215 0.25105438
-0.82885879 0.80265552 0.14021905
-2.6467915 2.7107391 24.084246
-1.7224113 1.7413201 11.798759
-1.2375071 1.2341963 5.6345429
-1.0917745 1.0813192 3.6796365
-1.019931 1.0059733 2.692605
-0.97348154 0.95750648 2.0780854
-0.93921518 0.92188984 1.6522968
-1.391853 1.4002755 7.6389322
-1.1532646 1.1494002 4.4820061
-1.0510324 1.0417154 3.1235871
-0.99373543 0.98186266 2.3552151
-0.95044732 0.93682188 1.8419007
-0.92635232 0.91149849 1.4871573
-0.92353582 0.90272915 1.3488976
-0.89334017 0.87231117 1.0891607
-0.88456649 0.86285329 0.89477807
-0.87652647 0.85442394 0.72730237
-0.86399364 0.84162933 0.57563943
-0.84927177 0.82672113 0.43831801
-0.85209775 0.82890016 0.31716621
-0.82113725 0.79823494 0.19575694
-0.911771 0.89372849 1.218289
-0.88559097 0.86716986 0.98604763
-0.87939739 0.86051434 0.80862641
-0.87708169 0.85736042 0.65445
-0.85840452 0.83852726 0.50679076
-0.83486587 0.81497437 0.37210923
-0.8186174 0.79884076 0.25174505
-0.82962877 0.80903184 0.14042059
-2.6546195 2.7378142 24.242302
-1.7341579 1.765484 11.921139
-1.2395101 1.2448559 5.6631751
-1.0935258 1.0906427 3.6980464
-1.0232096 1.016279 2.7101612
-0.97213256 0.96287924 2.0822184
-0.93827099 0.92741597 1.6561341
-1.3949028 1.4131776 7.6824875
-1.1553351 1.1595317 4.5054703
-1.0504711 1.0484538 3.1325896
-0.99584794 0.99084431 2.3680129
-0.94930983 0.94225663 1.8458906
-0.9279812 0.91949916 1.4945077
-0.92292047 0.90844923 1.3524021
-0.89306498 0.87815326 1.0922991
-0.88453203 0.86886597 0.89751953
-0.87669981 0.8605817 0.72962117
-0.86435986 0.8478865 0.57751244
-0.84980649 0.83303875 0.43972805
-0.84919912 0.83186948 0.31716621
-0.8183459 0.80109644 0.19575694
-0.91130286 0.8995288 1.2216145
-0.88543659 0.8730939 0.98899078
-0.87638831 0.8635788 0.80862641
-0.87731791 0.86360067 0.65654802
-0.85883862 0.84483016 0.5084343
-0.83548224 0.82129103 0.37328154
-0.81935602 0.80516434 0.25243574
-0.83036417 0.81542325 0.14062211
-1.7322497 1.7759002 11.95051
-1.2414535 1.2555443 5.6918068
-1.093847 1.0986068 3.711854
-1.0247356 1.0249259 2.7233284
-0.97275001 0.97024155 2.0904841
-0.93957114 0.93520814 1.6638092
-1.3996389 1.4279135 7.7357211
-1.1561347 1.1684648 4.5242414
-1.0514108 1.0567442 3.1460929
-0.99975216 1.0016989 2.3850765
-0.95027709 0.94982523 1.8538706
-0.92716551 0.92512745 1.4981829
-0.9222765 0.91417599 1.3559066
-0.89275992 0.88400412 1.0954376
-0.88446647 0.87488902 0.90026098
-0.87999111 0.86986512 0.73425877
-0.86469299 0.85415655 0.57938552
-0.85030723 0.83937007 0.44113809
-0.84978724 0.83827841 0.31809881
-0.81909102 0.80744416 0.19620402
-0.91345334 0.90796894 1.2282655
-0.88525164 0.87902749 0.99193394
-0.87642831 0.86966908 0.81115961
-0.87429804 0.86665785 0.65654802
-0.85923922 0.85114622 0.51007777
-0.83606464 0.827622 0.37445387
-0.82006037 0.81150281 0.25312641
-0.82751274 0.81831676 0.14062211
-1.7394985 1.7958337 12.04352
-1.2443832 1.2673267 5.7252111
-1.0941259 1.1065866 3.7256618
-1.0262135 1.0335958 2.7364957
-0.97332793 0.97761983 2.0987501
-0.93856466 0.94075137 1.6676468
-1.4051654 1.4436005 7.7937942
-1.1568863 1.1774175 4.5430121
-1.0507754 1.0635054 3.1550953
-1.0035925 1.0125926 2.4021404
-0.95120299 0.95741206 1.8618507
-0.92871326 0.93316442 1.5055332
-0.92160374 0.9199093 1.3594111
-0.89518106 0.89261192 1.1017146
-0.88436955 0.88092208 0.9030025
-0.88008881 0.87605685 0.73657757
-0.86499292 0.86043918 0.58125854
-0.85077423 0.84571505 0.4425481
-0.8503409 0.84470159 0.31903145
-0.81980181 0.81380683 0.1966511
-0.9129172 0.9137935 1.231591
-0.88503599 0.88497037 0.9948771
-0.87643659 0.87577021 0.81369281
-0.87447959 0.87291098 0.65864611
-0.85960603 0.85747534 0.51172131
-0.83317065 0.83053535 0.37445387
-0.82423812 0.82135135 0.25450778
-0.82819128 0.82472563 0.14082365
-1.7522752 1.8217106 12.175691
-1.2472457 1.2791446 5.758615
-1.0943624 1.1145815 3.7394691
-1.0276433 1.0422883 2.7496629
-0.97386605 0.98501384 2.1070161
-0.93978649 0.94857609 1.6753218
-1.4105996 1.4593432 7.8518667
-1.1587945 1.1876249 4.5664763
-1.0516301 1.071829 3.1685991
-1.0055397 1.0216662 2.4149382
-0.95208746 0.96501684 1.8698307
-0.9278332 0.93881184 1.5092083
-0.92341733 0.9281773 1.3664203
-0.89480633 0.89848936 1.104853
-0.88424122 0.8869651 0.90574402
-0.88015401 0.88225973 0.73889637
-0.86525935 0.86673427 0.58313155
-0.85120714 0.85207337 0.44395813
-0.85086006 0.85113883 0.31996405
-0.82400006 0.82370502 0.19754526
-0.91498101 0.92227608 1.238242
-0.88478959 0.89092243 0.99782026
-0.87641281 0.88188195 0.81622595
-0.8714273 0.87595809 0.65864611
-0.85660768 0.86047071 0.51172131
-0.83369678 0.83688211 0.37562618
-0.82486159 0.82773119 0.25519845
-0.82883507 0.8311491 0.14102517
-1.7655952 1.8484344 12.312757
-1.2500405 1.2909981 5.7920184
-1.0945562 1.1225915 3.7532768
-1.0273497 1.0492921 2.758441
-0.97633582 0.99443167 2.119415
-0.93871748 0.95413578 1.6791594
-1.4159408 1.4751413 7.9099402
-1.1606454 1.1978601 4.5899401
-1.0524395 1.0801712 3.1821027
-1.00379 1.0270352 2.419204
-0.95293039 0.97263944 1.8778108
-0.92929947 0.94688427 1.5165586
-0.92267793 0.93393201 1.3699248
-0.89713824 0.90714252 1.11113
-0.88408142 0.89301789 0.90848547
-0.8801865 0.88847381 0.74121517
-0.86222857 0.86974931 0.58313155
-0.84822774 0.85503948 0.44395813
-0.85134453 0.8575899 0.32089669
-0.82462943 0.83010936 0.19799234
-0.91437632 0.92812425 1.2415675
-0.8873505 0.8997615 1.0037066
-0.87635708 0.88800424 0.81875914
-0.87155384 0.88222337 0.66074419
-0.85691863 0.8668139 0.51336479
-0.83760709 0.84669822 0.37797081
-0.82545054 0.8341254 0.25588912
-0.82944417 0.83758712 0.14122671
-2.8745904 3.0701849 26.736628
-1.7871574 1.8841393 12.508566
-1.2517334 1.3018104 5.8206506
-1.0960662 1.1320201 3.7716868
-1.0286889 1.0580237 2.7716084
-0.97678727 1.0018637 2.1276808
-0.93986082 0.96199232 1.6868343
-1.4220557 1.4919041 7.9728527
-1.1636351 1.209366 4.6180964
-1.0532035 1.0885323 3.1956065
-1.0020152 1.0324045 2.42347
-0.9558329 0.98243946 1.889781
-0.93072069 0.95497829 1.523909
-0.92190969 0.93969291 1.3734293
-0.89669347 0.9130457 1.1142684
-0.88682157 0.9020623 0.91396838
-0.87707978 0.89154077 0.74121517
-0.86243957 0.87605745 0.58500457
-0.84860438 0.86141253 0.44536817
-0.85179442 0.86405474 0.32182932
-0.8287214 0.84007335 0.1988865
-0.91635305 0.93664849 1.2482185
-0.88703239 0.90574133 1.0066497
-0.87626928 0.89413679 0.82129234
-0.87164724 0.88850015 0.66284221
-0.85719568 0.87316954 0.51500833
-0.83805269 0.85308433 0.37914312
-0.82947576 0.84406585 0.25727049
-0.82651544 0.84047729 0.14122671
-2.8638558 3.0802004 26.736628
-1.8112837 1.922982 12.723956
-1.2543967 1.3137298 5.8540545
-1.0975239 1.1414728 3.790097
-1.0283163 1.0650542 2.7803864
-0.97915584 1.0113328 2.1400795
-0.94096065 0.9698683 1.6945094
-1.427207 1.507815 8.0309258
-1.1653666 1.2196596 4.6415606
-1.0539216 1.0969118 3.20911
-1.0002151 1.0377738 2.427736
-0.95658481 0.99010438 1.897761
-0.93209654 0.9630937 1.5312593
-0.92111242 0.94545972 1.3769339
-0.89621836 0.91895682 1.1174068
-0.88658828 0.90814453 0.91670984
-0.87705791 0.8977657 0.74353397
-0.86261702 0.88237774 0.58687764
-0.84894687 0.86779863 0.44677821
-0.84877318 0.86702275 0.32182932
-0.82926887 0.84651846 0.19933358
-0.91567963 0.94251972 1.2515441
-0.88950127 0.91462761 1.012536
-0.87915558 0.90336895 0.82635868
-0.87170738 0.89478827 0.6649403
-0.8574388 0.87953776 0.51665181
-0.83506978 0.85600442 0.37914312
-0.83344156 0.85404444 0.25865185
-0.82357657 0.84335732 0.14122671
-2.8467622 3.0833271 26.677357
-1.8254238 1.9516039 12.870812
-1.2569919 1.3256836 5.8874583
-1.0989288 1.1509495 3.808507
-1.027907 1.072095 2.7891645
-0.97952002 1.0188018 2.1483455
-0.94201684 0.97776377 1.7021843
-1.433125 1.5246954 8.0938377
-1.1670405 1.2299798 4.6650243
-1.0545942 1.1053094 3.2226136
-1.0001928 1.0450274 2.4362679
-0.95729488 0.9977864 1.905741
-0.93342721 0.97123033 1.5386096
-0.92028612 0.95123249 1.3804384
-0.89571285 0.92487574 1.1205453
-0.88923365 0.9172383 0.92219275
-0.87700319 0.90400124 0.74585277
-0.86276084 0.88870984 0.58875066
-0.84925503 0.87419748 0.44818825
-0.84916556 0.87350249 0.32276195
-0.82978147 0.85297751 0.19978066
-0.91497636 0.94839746 1.2548696
-0.88911104 0.92063457 1.0154792
-0.8789925 0.90953201 0.82889187
-0.87173432 0.9010877 0.66703832
-0.86093229 0.88931113 0.51993883
-0.83884072 0.86589658 0.38148779
-0.83390152 0.86050469 0.25934252
-0.82410562 0.84981346 0.14142823
-1.8241434 1.9639331 12.909975
-1.2595189 1.3376715 5.9208622
-1.1002808 1.1604499 3.8269172
-1.0291125 1.0808806 2.8023319
-0.97984403 1.0262856 2.1566114
-0.94302946 0.98567826 1.7098594
-1.4398003 1.5425546 8.1615906
-1.1698397 1.2415828 4.693181
-1.055221 1.1137252 3.2361174
-1.0019286 1.0541841 2.4490657
-0.95796281 1.0054854 1.9137211
-0.93237174 0.97693521 1.5422847
-0.92190129 0.95958275 1.3874475
-0.89517701 0.9308024 1.1236838
-0.88892645 0.9233492 0.92493427
-0.87691551 0.91024733 0.74817157
-0.86287081 0.89505357 0.59062368
-0.85285938 0.88406163 0.45100829
-0.8461113 0.87646133 0.32276195
-0.83025891 0.85945052 0.20022772
-0.91682601 0.95697802 1.2615205
-0.88868964 0.92664993 1.0184224
-0.87879705 0.91570514 0.83142501
-0.87487191 0.91067111 0.67123443
-0.86109531 0.89571512 0.52158237
-0.83581311 0.86881936 0.38148779
-0.83432651 0.86697859 0.26003322
-0.82113421 0.85268492 0.14142823
-1.8262501 1.9800196 12.973613
-1.2619773 1.3496931 5.9542661
-1.1029189 1.1713961 3.8499298
-1.0286237 1.0879471 2.81111
-0.98012757 1.0337842 2.1648772
-0.94179046 0.99128777 1.7136967
-1.4455136 1.5595567 8.2245026
-1.171393 1.2519598 4.7166448
-1.0558016 1.1221586 3.2496209
-1.0036125 1.0633655 2.4618633
-0.95858872 1.0132011 1.9217011
-0.9336198 0.98510545 1.5496351
-0.92100775 0.96537536 1.3909521
-0.89729875 0.93955129 1.1299607
-0.8885873 0.92946899 0.92767572
-0.87679499 0.91650373 0.75049037
-0.86615282 0.90475768 0.59436977
-0.85308665 0.89049727 0.45241833
-0.8464461 0.88295555 0.32369456
-0.83070129 0.86593711 0.2006748
-0.91605341 0.96287769 1.2648461
-0.88823706 0.93267357 1.0213655
-0.87856907 0.92188776 0.83395821
-0.87482041 0.91700327 0.67333251
-0.86122417 0.90213114 0.52322584
-0.83613265 0.87524623 0.38266009
-0.83471644 0.87346578 0.26072389
-0.81815284 0.85554606 0.14142823
-1.8268913 1.9946427 13.02746
-1.2643671 1.361748 5.9876699
-1.1041598 1.1809477 3.8683398
-1.0297374 1.0967696 2.8242772
-0.9803707 1.0412972 2.1731431
-0.94272333 0.99923223 1.7213718
-1.451977 1.5775425 8.2922554
-1.1728882 1.2623627 4.7401085
-1.0578223 1.1322005 3.2676258
-1.0052445 1.0725713 2.4746614
-0.95917231 1.0209335 1.9296812
-0.93249875 0.99082732 1.5533104
-0.92253757 0.97376245 1.3979613
-0.89669198 0.94550204 1.1330991
-0.88821626 0.93559766 0.93041718
-0.87664145 0.92277044 0.75280917
-0.8661834 0.91113561 0.59624279
-0.85327935 0.8969453 0.45382836
-0.84335881 0.88590479 0.32369456
-0.83110845 0.8724373 0.20112188
-0.91781473 0.97149783 1.271497
-0.89053041 0.94164193 1.0272518
-0.87830883 0.92808008 0.83649141
-0.87473541 0.92334628 0.67543054
-0.86131859 0.90855896 0.52486938
-0.83976287 0.88521224 0.38500473
-0.83507103 0.87996614 0.26141456
-0.81860167 0.86201942 0.14162977
-1.8260827 2.0077875 13.071518
-1.2656763 1.3727384 6.0163021
-1.1040182 1.1890901 3.8821473
-1.0308019 1.105613 2.8374445
-0.98057324 1.0488243 2.1814091
-0.94361216 1.0071952 1.7290468
-1.45918 1.5965199 8.3648462
-1.1743248 1.2727913 4.7635722
-1.0583054 1.1406741 3.2811296
-1.0068244 1.0818014 2.4874589
-0.95971358 1.0286822 1.9376612
-0.93366379 0.99903017 1.5606607
-0.92157638 0.97957432 1.4014658
-0.89872289 0.95429361 1.139376
-0.88781333 0.94173509 0.93315864
-0.87645471 0.92904717 0.75512797
-0.86299771 0.91415358 0.59624279
-0.85343742 0.90340549 0.4552384
-0.84363586 0.89241296 0.32462719
-0.83490264 0.88256854 0.20201604
-0.91952705 0.980142 1.2781481
-0.89000499 0.94769126 1.030195
-0.87801594 0.93428171 0.83902454
-0.87461674 0.92969978 0.67752856
-0.8581419 0.91156 0.52486938
-0.84000075 0.89167619 0.38617706
-0.83539057 0.88647979 0.26210526
-0.81901526 0.86850637 0.14183129
-1.8252041 2.0209508 13.115574
-1.2669241 1.3837544 6.0449338
-1.1051573 1.1986824 3.9005575
-1.0318171 1.114477 2.8506117
-0.98264974 1.058428 2.1938081
-0.94445693 1.0151767 1.7367218
-1.4662678 1.6155667 8.437438
-1.1768687 1.2845178 4.7917295
-1.0587419 1.1491648 3.2946329
-1.008352 1.0910556 2.5002568
-0.96021241 1.0364472 1.9456413
-0.93247682 1.0047684 1.5643358
-0.92302036 0.98799741 1.4084748
-0.89804482 0.9602679 1.1425145
-0.88737822 0.94788098 0.93590009
-0.87320638 0.93210089 0.75512797
-0.86297214 0.92054278 0.59811586
-0.85356075 0.90987766 0.45664841
-0.84723961 0.90251517 0.32649243
-0.83522648 0.88910711 0.20246312
-0.91864514 0.98607785 1.2814735
-0.89220482 0.9567045 1.0360813
-0.87769037 0.94049257 0.8415578
-0.87446427 0.93606365 0.67962664
-0.85817951 0.91799957 0.52651286
-0.84352416 0.90170217 0.3885217
-0.83567476 0.89300627 0.26279593
-0.81939346 0.87500662 0.14203283
-1.8235768 2.0333748 13.154737
-1.2681104 1.3947959 6.073566
-1.1075621 1.2097383 3.9235702
-1.0344038 1.1251249 2.8681679
-0.98276365 1.0659897 2.2020738
-0.94308245 1.0208217 1.7405593
-1.4698751 1.6309472 8.4906721
-1.1781833 1.2950007 4.8151927
-1.0606014 1.1592786 3.3126378
-1.0080642 1.098412 2.5087888
-0.96066868 1.044228 1.9536213
-0.93355852 1.0130032 1.5716861
-0.92199135 0.99382788 1.4119794
-0.89998454 0.96910119 1.1487914
-0.88975793 0.95709795 0.941383
-0.87296468 0.93838674 0.75744677
-0.8629123 0.92694271 0.59998888
-0.85037947 0.91285157 0.45664841
-0.84743357 0.90906036 0.32742503
-0.83551478 0.89565879 0.2029102
-0.92026836 0.99476027 1.2881246
-0.89160621 0.96277875 1.0390246
-0.87733221 0.94671261 0.844091
-0.87427813 0.94243777 0.68172467
-0.85818249 0.92445046 0.5281564
-0.84698761 0.91176349 0.39086631
-0.83255249 0.89591789 0.26279593
-0.81973624 0.88152003 0.14223436
-1.8178217 2.0412486 13.164526
-1.2682348 1.4047544 6.0974259
-1.1085888 1.2193797 3.9419801
-1.035314 1.1340353 2.8813353
-0.98473686 1.0756409 2.2144728
-0.9438467 1.0288315 1.7482344
-1.482612 1.6566765 8.5971384
-1.1805961 1.3067892 4.8433495
-1.0609394 1.1678079 3.3261416
-1.0094935 1.1077074 2.5215867
-0.96108222 1.0520245 1.9616013
-0.93230534 1.0187569 1.5753613
-0.9233489 1.0022862 1.4189885
-0.89923489 0.97509831 1.1519299
-0.88924778 0.96327037 0.94412446
-0.8726896 0.94468224 0.75976557
-0.8628183 0.93335348 0.60186189
-0.85044539 0.91933584 0.45805845
-0.84425521 0.91201288 0.32742503
-0.8391518 0.90587664 0.20380437
-0.9218421 1.003466 1.2947755
-0.89097595 0.96886057 1.0419677
-0.87986022 0.95611352 0.84915733
-0.87405795 0.94882196 0.68382275
-0.86135149 0.93438458 0.53144342
-0.84709543 0.91828716 0.39203864
-0.83613664 0.90609729 0.26417729
-0.82004356 0.88804656 0.14243589
-1.8282204 2.0674152 13.291802
-1.275279 1.4225113 6.1546893
-1.1121798 1.2319435 3.9695954
-1.037783 1.1447403 2.8988914
-0.98665452 1.0853187 2.2268715
-0.94240803 1.0344894 1.7520717
-1.4926825 1.6796954 8.6890879
-1.1829408 1.31861 4.8715057
-1.0612308 1.1763538 3.3396454
-1.0091205 1.1150923 2.5301185
-0.96347755 1.0620686 1.9735714
-0.9333033 1.0270231 1.5827116
-0.9222517 1.0081346 1.422493
-0.89845425 0.98110187 1.1550683
-0.88870543 0.96945095 0.94686598
-0.87238115 0.95098716 0.76208436
-0.86268997 0.93977481 0.60373497
-0.85047621 0.92583162 0.45946848
-0.84439093 0.91857082 0.32835767
-0.83935606 0.91246545 0.20425145
-0.92084992 1.0094362 1.2981011
-0.89031416 0.9749496 1.0449109
-0.88233316 0.96554363 0.85422367
-0.87686706 0.95856482 0.68801886
-0.86127299 0.94086868 0.5330869
-0.85045123 0.92840689 0.39438328
-0.83631426 0.91266149 0.26486799
-0.82031512 0.89458579 0.14263742
-1.8357711 2.0906181 13.399498
-1.2792375 1.4369895 6.1976376
-1.1143925 1.2430923 3.9926083
-1.0385876 1.1536963 2.9120588
-0.98851651 1.0950229 2.2392704
-0.94309151 1.0425268 1.7597468
-1.5042733 1.7046896 8.7907152
-1.1852173 1.3304632 4.8996625
-1.0614754 1.1849158 3.3531489
-1.0104511 1.1244277 2.5429161
-0.96379763 1.0699031 1.9815515
-0.93198377 1.0327917 1.5863868
-0.92352271 1.0166273 1.4295021
-0.89764267 0.98711181 1.1582067
-0.88813072 0.97563946 0.94960743
-0.87502223 0.96057618 0.76672196
-0.86565024 0.94963264 0.607481
-0.85047203 0.93233883 0.46087852
-0.84117937 0.92151266 0.32835767
-0.83952451 0.91906667 0.20469853
-0.9223339 1.0181791 1.304752
-0.88962054 0.98104572 1.0478541
-0.88185418 0.9718101 0.85675687
-0.8765673 0.96497923 0.69011688
-0.86115986 0.94736373 0.53473043
-0.85047591 0.93496555 0.39555559
-0.83645618 0.91923797 0.26555866
-0.82055104 0.90113771 0.14283895
-1.8338151 2.1031537 13.43866
-1.2840987 1.4526311 6.245357
-1.1165408 1.2542714 4.0156207
-1.039342 1.1626716 2.925226
-0.99032271 1.1047533 2.2516692
-0.94373035 1.0505817 1.767422
-1.5099095 1.7231666 8.8584671
-1.1862822 1.3410555 4.9231267
-1.0602262 1.1918671 3.3621514
-1.0099926 1.1318401 2.5514481
-0.96407473 1.0777528 1.9895315
-0.93289757 1.0410885 1.5937371
-0.92474568 1.0251411 1.4365112
-0.89940852 0.99601698 1.1644837
-0.88752353 0.98183566 0.95234889
-0.87760711 0.97019523 0.77135956
-0.8654412 0.95608562 0.60935402
-0.85043287 0.93885726 0.46228856
-0.84125662 0.92808288 0.32929027
-0.83965707 0.92568016 0.2051456
-0.92127109 1.0241685 1.3080776
-0.88889527 0.98714888 1.0507972
-0.88422769 0.98128754 0.8618232
-0.8762334 0.97140336 0.69221497
-0.86101174 0.95386946 0.53637397
-0.85046506 0.94153553 0.39672789
-0.83656234 0.92582643 0.26624933
-0.82075119 0.90770215 0.14304048
-1.8284615 2.1118517 13.453344
-1.2878817 1.4672019 6.2883048
-1.1186246 1.2654805 4.0386333
-1.0416365 1.1734575 2.9427824
-0.99394387 1.1166116 2.2682009
-0.94432437 1.0586537 1.775097
-1.5253347 1.7530841 8.984292
-1.188426 1.352968 4.951283
-1.0575005 1.1971924 3.3666525
-1.011224 1.1412151 2.5642459
-0.96430874 1.0856174 1.9975116
-0.93376476 1.0494043 1.6010875
-0.92592025 1.0336757 1.4435203
-0.89852476 1.0020485 1.1676221
-0.88688385 0.98803949 0.95509034
-0.8801353 0.97984397 0.77599716
-0.8651976 0.96254861 0.6112271
-0.85035843 0.94538671 0.46369857
-0.84129822 0.93466485 0.3302229
-0.83975363 0.93230575 0.20559268
-0.92017776 1.0301628 1.311403
-0.88813818 0.99325895 1.0537404
-0.88367134 0.98758066 0.8643564
-0.87889332 0.98121744 0.69641101
-0.86082858 0.96038544 0.53801745
-0.85041887 0.94811684 0.39790022
-0.83663267 0.93242687 0.26694003
-0.8209154 0.91427898 0.14324202
-1.8257246 2.1236265 13.487611
-1.2905978 1.4806914 6.3264809
-1.1219324 1.2781881 4.0662484
-1.0422846 1.1824768 2.9559495
-0.99563074 1.1264 2.2805998
-0.94487339 1.0667424 1.7827719
-1.5397476 1.7821786 9.105278
-1.1905011 1.3649118 4.9794397
-1.0662332 1.2156069 3.4071634
-1.0106796 1.1486542 2.5727777
-0.96449953 1.0934967 2.0054917
-0.93458515 1.0577385 1.6084378
-0.92467648 1.0395663 1.4470248
-0.90019792 1.0109929 1.1738991
-0.88899392 0.99737233 0.96057326
-0.88260686 0.98952216 0.78063476
-0.86800641 0.97248024 0.61497313
-0.85344434 0.95550478 0.46651864
-0.84130394 0.94125837 0.33115551
-0.83981407 0.93894321 0.20603976
-0.91905373 1.036162 1.3147285
-0.89003283 1.0023983 1.0596267
