# .PCD v0.7 - Point Cloud Data file format
VERSION 0.7
FIELDS x y z
SIZE 4 4 4
TYPE F F F
COUNT 1 1 1
WIDTH 1587
HEIGHT 1
VIEWPOINT 0 0 0 1 0 0 0
POINTS 1587
DATA ascii
6.2140851 10.528526 12.093836
6.4355593 10.9168 10.300531
8.1989641 13.92472 10.679071
10.09331 17.155645 10.505681
10.445183 17.782085 6.1517706
6.2337699 10.528258 10.978632
7.1677241 12.120054 10.336469
8.9640017 15.169461 10.439773
11.525738 19.527895 10.569846
10.811708 18.332731 7.4966345
0.065455347 0.047512885 7.8439746
0.65678436 1.0481749 7.8637228
0.88008821 1.4244595 8.0734901
1.2788272 2.1012187 7.9107795
1.7214613 2.8506179 7.9047537
2.1988401 3.6582689 7.8892746
6.3238368 10.554006 18.142857
6.2963729 10.533138 14.768886
0.2865918 0.38037112 8.0759325
0.48394033 0.69487667 7.8547873
1.0646681 1.7324194 7.8663855
2.0790594 3.4184449 10.934561
1.963523 3.2488105 7.9128785
4.3146892 7.1640511 13.749525
6.3329363 10.544112 16.361599
6.3172302 10.538756 13.398366
6.2635622 10.528225 12.118367
6.4756145 10.897614 10.303669
8.2176418 13.845675 10.64069
10.157653 17.12793 10.510319
10.50719 17.745516 6.1517706
6.2896175 10.538496 11.011887
7.2120566 12.098431 10.339411
9.0213099 15.145486 10.444839
11.596152 19.491444 10.571944
0.065583311 0.047261771 7.838975
0.66043919 1.0458759 7.8637228
0.88344014 1.418786 8.0588045
1.286154 2.0967419 7.9107795
1.7314013 2.8445916 7.9047537
2.2115965 3.6505711 7.8892746
6.3737326 10.553546 18.180054
6.3215227 10.491878 14.742023
0.28791779 0.37936839 8.0759325
0.4863629 0.69318324 7.8547873
1.0707089 1.7286923 7.8663855
2.0720387 3.380271 10.836012
1.9748514 3.2419369 7.9128785
4.3450837 7.1578641 13.766589
6.3853087 10.547719 16.401499
6.3697572 10.542755 13.431442
6.3131137 10.527707 12.1429
6.515615 10.878284 10.306808
8.2573357 13.802552 10.629725
10.221925 17.099974 10.514956
10.642822 17.832306 6.1940718
6.337914 10.535674 11.03184
7.2563257 12.076648 10.342355
9.0763416 15.117599 10.447372
11.666453 19.454741 10.574042
0.065747887 0.047032557 7.838975
0.66408592 1.0435641 7.8637228
0.8867631 1.4131064 8.0441189
1.2926801 2.09097 7.9060073
1.742342 2.8401959 7.9093561
2.2243259 3.6428287 7.8892746
6.4237008 10.552867 18.217251
6.3215055 10.409476 14.657599
0.28941646 0.37858981 8.080924
0.48877966 0.69148129 7.8547873
1.0760709 1.7238783 7.861546
2.0702198 3.3509967 10.76562
1.986156 3.2350235 7.9128785
6.4512219 10.544158 20.289204
6.4362135 10.548516 16.437408
6.422389 10.546516 13.46452
6.3627372 10.526971 12.167432
6.5575714 10.862138 10.313084
8.3141022 13.787968 10.64069
10.283838 17.067982 10.517276
10.739625 17.852596 6.2138119
6.3901386 10.539027 11.058443
7.3005304 12.054702 10.345298
9.1335192 15.093201 10.452438
11.743683 19.429434 10.582434
0.065911658 0.04680277 7.838975
0.66772467 1.0412396 7.8637228
0.89005715 1.407421 8.0294333
1.2991817 2.0851779 7.9012351
1.7522455 2.8340967 7.9093561
2.2370281 3.6350422 7.8892746
6.475214 10.554366 18.258581
6.3209906 10.327203 14.573174
0.2907362 0.37757725 8.080924
0.4911904 0.68977088 7.8547873
1.0820818 1.7201115 7.861546
2.0746069 3.3320308 10.728079
1.9974362 3.228071 7.9128785
6.5003085 10.541554 20.327597
6.4872017 10.549086 16.47332
6.4751234 10.550037 13.497594
6.4142871 10.529061 12.195468
6.5974703 10.842506 10.316223
8.3513222 13.740996 10.626983
10.347953 17.039555 10.521913
10.799389 17.810896 6.2124023
6.4405169 10.53896 11.081723
7.3446712 12.032596 10.348242
9.1883936 15.064906 10.454971
11.806709 19.380571 10.578238
0.066074632 0.046572406 7.838975
0.67135519 1.0389025 7.8637228
0.89332253 1.4017301 8.0147476
1.3056586 2.0793664 7.8964639
1.7621278 2.8279629 7.9093561
2.2509656 3.629247 7.8936639
6.5253358 10.553241 18.295776
6.3098817 10.228694 14.465724
0.29223016 0.37678757 8.0859156
0.49359515 0.68805212 7.8547873
1.0880796 1.7163239 7.861546
2.0834734 3.3203835 10.714
2.008692 3.2210789 7.9128785
6.5673513 10.567532 20.421446
6.5382719 10.549427 16.50923
6.5279617 10.553319 13.530671
6.4640636 10.527881 12.219999
6.6352773 10.819411 10.316223
8.3992367 13.711761 10.626983
10.409682 17.007109 10.524232
10.823973 17.711693 6.1912518
6.4909725 10.538668 11.105001
7.3887458 12.010327 10.351184
9.2454386 15.040086 10.460037
11.838668 19.281225 10.546767
0.066236794 0.046341483 7.838975
0.67497754 1.0365528 7.8637228
0.89655882 1.3960332 8.000062
1.312909 2.0747962 7.8964639
1.7719884 2.8217945 7.9093561
2.2636204 3.6213675 7.8936639
6.5770164 10.554279 18.337107
6.3404698 10.198439 14.45421
0.29354364 0.3757652 8.0859156
0.49599391 0.68632495 7.8547873
1.094064 1.7125152 7.861546
1.5932813 2.519676 8.1611357
2.0199234 3.2140477 7.9128785
6.6166587 10.564435 20.459839
6.5894237 10.549542 16.545139
6.5809011 10.55636 13.563747
6.5157866 10.529514 12.248036
6.6750498 10.799494 10.319361
8.4119015 13.62543 10.583119
10.473637 16.978209 10.52887
11.834164 19.213648 6.7228341
6.5415039 10.538152 11.12828
7.4327555 11.987898 10.354128
9.3001537 15.011385 10.462571
11.903511 19.235922 10.544669
0.066398151 0.046109989 7.838975
0.67859161 1.0341903 7.8637228
0.9019798 1.3937498 8.0049572
1.3193406 2.0689421 7.8916917
1.7818276 2.8155921 7.9093561
2.2762475 3.6134439 7.8936639
6.6287837 10.555087 18.378435
6.3283796 10.100194 14.346761
0.29485351 0.37473828 8.0859156
0.49838656 0.68458939 7.8547873
1.1000351 1.7086859 7.861546
1.5974294 2.5068223 8.1376715
2.0311303 3.2069774 7.9128785
6.6660237 10.561124 20.498232
6.6406555 10.549426 16.581051
6.6339417 10.559159 13.596824
6.5675993 10.530912 12.276073
6.7127066 10.776128 10.319361
8.4395304 13.564032 10.558446
10.535175 16.945307 10.531188
12.161746 19.592014 6.8680673
6.5921116 10.537412 11.151558
7.476697 11.965307 10.357071
9.3570623 14.986146 10.467638
0.066558704 0.045877937 7.838975
0.68262625 1.0324633 7.8686624
0.91129005 1.397415 8.0441189
1.3273617 2.0655799 7.8964639
1.7937461 2.8126497 7.9185615
2.288847 3.6054764 7.8936639
6.6806374 10.555663 18.419765
6.3430624 10.04552 14.300712
0.29615977 0.37370673 8.0859156
0.50077319 0.68284559 7.8547873
1.1059928 1.7048357 7.861546
1.5875196 2.4721911 8.0438166
2.0423121 3.1998677 7.9128785
6.7182455 10.561996 20.545158
6.6919665 10.549082 16.616961
6.6852679 10.558853 13.626225
6.6195002 10.532079 12.30411
6.7523518 10.755928 10.3225
8.4823837 13.527404 10.552963
10.598966 16.915937 10.535826
6.6427927 10.536446 11.174836
7.5205727 11.942557 10.360014
9.413908 14.960687 10.472703
0.066718437 0.045645323 7.838975
0.68622607 1.0300742 7.8686624
0.91839963 1.3976288 8.0636997
1.3353752 2.0621865 7.9012351
1.8077784 2.8129449 7.9369712
2.3014185 3.5974648 7.8936639
6.7340879 10.558377 18.465227
6.3763676 10.020613 14.296873
0.29746246 0.37267068 8.0859156
0.50347108 0.68152171 7.8597589
1.112625 1.7020166 7.8663855
1.5773876 2.4376593 7.9499607
2.0546472 3.19455 7.9173794
6.7705545 10.562634 20.592083
6.7449789 10.551046 16.65686
6.7366724 10.558316 13.655626
6.6733985 10.536024 12.33565
6.789856 10.732292 10.3225
8.5429554 13.518922 10.569412
10.66268 16.886326 10.540463
6.6935472 10.535254 11.198115
7.5665445 11.923057 10.3659
9.4683828 14.931376 10.475237
0.066877365 0.045412153 7.838975
0.68981749 1.0276725 7.8686624
0.92664641 1.3995078 8.093071
1.3433813 2.0587628 7.9060073
1.8207725 2.8115368 7.950779
2.313962 3.5894094 7.8936639
6.7876387 10.560845 18.510689
6.4424505 10.046861 14.365949
0.29857984 0.37140572 8.080924
0.50584692 0.67976016 7.8597589
1.1185594 1.6981225 7.8663855
1.5821164 2.4263566 7.9311891
2.0657859 3.1873586 7.9173794
6.8243647 10.565225 20.643274
6.7964549 10.550237 16.69277
6.7881551 10.557549 13.685028
6.7254848 10.536713 12.363686
6.8293691 10.711807 10.325638
8.6013222 13.506654 10.583119
10.723936 16.852741 10.542782
6.7463865 10.53698 11.224718
7.6102962 11.899978 10.368843
9.5250874 14.905499 10.480304
0.067035474 0.045178432 7.838975
0.69296503 1.0246149 7.8637228
0.9320913 1.3971117 8.0979671
1.3505595 2.0540609 7.9060073
1.8337789 2.8100722 7.9645867
2.3264773 3.5813103 7.8936639
6.8397593 10.560707 18.552019
6.4774809 10.024312 14.365949
0.29987445 0.37036121 8.080924
0.50821668 0.67799026 7.8597589
1.12448 1.6942077 7.8663855
1.5867856 2.4150505 7.9124188
2.0768991 3.1801281 7.9173794
6.876853 10.565382 20.690201
6.8496475 10.551723 16.732672
6.8397136 10.556551 13.714429
6.7776585 10.537167 12.391723
6.8709269 10.694452 10.331915
8.6642265 13.501181 10.602309
10.78748 16.822662 10.54742
6.7972975 10.535329 11.247998
7.6539779 11.876738 10.371786
9.581727 14.879409 10.48537
0.067192771 0.04494416 7.838975
0.69653738 1.0221897 7.8637228
0.93696249 1.3938495 8.0979671
1.3577212 2.049334 7.9060073
1.8467969 2.8085508 7.978394
2.3389642 3.5731676 7.8936639
6.8934994 10.562691 18.597483
6.5229278 10.017756 14.388974
0.3011654 0.36931217 8.080924
0.51058018 0.67621213 7.8597589
1.1303871 1.6902721 7.8663855
1.5933006 2.4066191 7.9030328
2.089184 3.1746776 7.9218807
6.9222732 10.554399 20.715796
6.9012833 10.550444 16.768581
6.8894958 10.552484 13.740156
6.829917 10.537385 12.419759
6.9103312 10.673672 10.335054
8.7158432 13.477878 10.607792
10.850945 16.792347 10.552057
6.8503122 10.536581 11.274601
7.6975908 11.853338 10.37473
9.6359539 14.849487 10.487903
0.06734924 0.04470934 7.838975
0.70010126 1.0197521 7.8637228
0.94182217 1.3905704 8.0979671
1.3640376 2.0433409 7.9012351
1.8609059 2.8086016 7.9968042
2.3527412 3.5669804 7.8980522
6.9457903 10.562075 18.638811
6.5666475 10.008325 14.408161
0.30263674 0.3684811 8.0859156
0.51293749 0.67442572 7.8597589
1.136983 1.6873586 7.8712249
1.6016915 2.4010427 7.9030328
2.1002531 3.1673656 7.9218807
6.9605103 10.532347 20.720062
6.9546523 10.551448 16.808481
6.9411941 10.551028 13.769557
6.8822584 10.537367 12.447796
6.9496732 10.652744 10.338192
8.7080479 13.363294 10.541998
10.91433 16.761791 10.556695
6.9034195 10.537591 11.301206
7.7433462 11.833161 10.380616
9.6924477 14.822977 10.49297
0.06746652 0.04445323 7.8339748
0.70365655 1.0173022 7.8637228
0.9460963 1.3864334 8.093071
1.3703289 2.0373287 7.8964639
1.8717833 2.8037136 8.0014067
2.3651781 3.5587459 7.8980522
6.9966049 10.558876 18.676008
6.6086149 9.9960375 14.423512
0.30410594 0.36764428 8.0909071
0.51528853 0.67263114 7.8597589
1.142866 1.6833794 7.8712249
1.6110257 2.3968694 7.9077258
2.1112964 3.1600151 7.9218807
6.9683218 10.46457 20.634743
7.0081124 10.552208 16.848381
6.9948397 10.552165 13.802633
6.9366441 10.540091 12.479337
6.9910922 10.634926 10.344469
8.8257885 13.441169 10.626983
10.977633 16.731001 10.561333
6.9566159 10.538357 11.327809
7.7868295 11.809433 10.383559
9.7465019 14.792653 10.495502
0.067621276 0.044217456 7.8339748
0.70764786 1.0154769 7.8686624
0.95093012 1.3831224 8.093071
1.3774321 2.0325329 7.8964639
1.8750156 2.7874365 7.9737911
2.3775859 3.5504682 7.8980522
7.0490456 10.557793 18.717337
6.6559062 9.991581 14.450374
0.30538741 0.36658049 8.0909071
0.51763338 0.6708284 7.8597589
1.1515743 1.6835293 7.8905821
1.6193824 2.3912313 7.9077258
2.122314 3.152626 7.9218807
6.969934 10.388206 20.53236
7.0616622 10.552724 16.888283
7.0466952 10.550239 13.832036
6.989161 10.539589 12.507372
7.0303216 10.613702 10.347608
8.9534082 13.532334 10.722935
11.040855 16.69997 10.56597
7.0099025 10.53888 11.354414
7.8302412 11.785547 10.386501
9.8028469 14.765724 10.500568
0.067736685 0.043960668 7.8289752
0.7111882 1.0130007 7.8686624
0.95227259 1.3747731 8.0636997
1.3836766 2.0264797 7.8916917
1.8803496 2.7744057 7.9553814
2.3899648 3.5421474 7.8980522
7.0999928 10.554135 18.754534
6.7014599 9.9842539 14.473398
0.30685145 0.36573273 8.0958986
0.51997179 0.66901737 7.8597589
1.1645778 1.6898483 7.9389768
1.6286923 2.3869894 7.9124188
2.1333058 3.1451986 7.9218807
6.9594121 10.294672 20.395851
7.1153007 10.552994 16.928183
7.1005144 10.550888 13.86511
7.0437393 10.541815 12.538914
7.069489 10.592335 10.350746
9.019145 13.52883 10.744865
11.103994 16.668701 10.570608
7.0632768 10.53916 11.381017
7.8735814 11.761501 10.389445
9.8567266 14.735 10.503102
0.067889728 0.043723956 7.8289752
0.71516877 1.0111463 7.8736014
0.95298576 1.3655965 8.0294333
1.3907419 2.0216374 7.8916917
1.8867172 2.7629852 7.9415736
2.4023147 3.533783 7.8980522
7.1588945 10.561898 18.812393
6.7506351 9.9820414 14.504099
0.30793917 0.36443958 8.0909071
0.52230394 0.6671983 7.8597589
1.1747715 1.6919674 7.9680138
1.6370145 2.3812897 7.9124188
2.1442716 3.1377327 7.9218807
6.9879627 10.25954 20.374519
7.1707201 10.55551 16.972073
7.1544237 10.551292 13.898188
7.0964284 10.540831 12.56695
7.110764 10.574053 10.357023
9.0826349 13.521562 10.764056
11.167048 16.637196 10.575246
7.1167388 10.539195 11.407621
7.9168482 11.737297 10.392388
9.910511 14.704079 10.505635
0.068041936 0.043486711 7.8289752
0.71869397 1.0086436 7.8736014
0.9542321 1.3572646 8.000062
1.3977904 2.0167706 7.8916917
1.9007801 2.7628207 7.9599843
2.4159884 3.5273516 7.9024415
7.2131753 10.562407 18.857857
6.7998767 9.9796066 14.534798
0.30902153 0.36314327 8.0859156
0.52462977 0.66537106 7.8597589
1.1871557 1.6971253 8.0115681
1.6443341 2.3741424 7.9077258
2.1552112 3.1302288 7.9218807
7.025209 10.237235 20.378786
7.2262435 10.557768 17.015963
7.2103357 10.554248 13.934939
7.151197 10.542558 12.598492
7.1519976 10.555612 10.363299
9.1204042 13.475924 10.75309
11.227535 16.601782 10.577564
7.1702862 10.538984 11.434225
7.9600439 11.712934 10.395332
9.9666204 14.676526 10.510701
0.068193316 0.043248933 7.8289752
0.72221041 1.0061288 7.8736014
0.95543212 1.3489407 7.9706907
1.4056765 2.0131028 7.8964639
1.9115256 2.7577746 7.9645867
2.4282866 3.5188968 7.9024415
6.8491836 9.9769497 14.565498
0.30990997 0.36162528 8.0759325
0.52694911 0.66353571 7.8597589
1.1974181 1.6991357 8.0406046
1.6526115 2.3683882 7.9077258
2.1673656 3.1244752 7.9263821
7.0638676 10.216941 20.38732
7.2818694 10.559766 17.059855
7.2625103 10.551354 13.96434
7.2060642 10.54403 12.630033
7.1953835 10.540227 10.372716
9.1862345 13.471644 10.775022
11.290407 16.569813 10.582202
7.2239194 10.538529 11.46083
8.0031643 11.688412 10.398274
10.020225 14.645205 10.513234
0.06834387 0.04301063 7.8289752
0.72571808 1.0036018 7.8736014
0.95658541 1.3406249 7.9413185
1.4126948 2.008184 7.8964639
1.9256148 2.7574918 7.9829965
2.4419222 3.5123653 7.9068308
6.9003773 9.9767056 14.600037
0.31098101 0.3603234 8.07094
0.52926207 0.66169226 7.8597589
1.2120749 1.7072433 8.0986776
1.6608685 2.3626051 7.9077258
2.1782587 3.1168907 7.9263821
7.3375978 10.561503 17.103743
7.3166833 10.551011 13.997416
7.2590051 10.542309 12.658068
7.2453661 10.534286 10.391545
9.2332048 13.439496 10.775022
11.353192 16.537605 10.58684
7.279758 10.5409 11.490759
8.0462122 11.663732 10.401218
10.076178 14.617236 10.518301
0.068532467 0.042791605 7.8339748
0.72921687 1.0010624 7.8736014
0.95828712 1.3331444 7.9168429
1.4205593 2.0044582 7.9012351
1.9318557 2.74596 7.9691887
2.4541678 3.5038202 7.9068308
6.951653 9.9762259 14.634574
0.31223688 0.3592357 8.07094
0.53190351 0.66025543 7.8647308
1.2209525 1.7070913 8.1180353
1.6691054 2.3567932 7.9077258
2.1903787 3.1110482 7.9308834
7.3934259 10.562981 17.147633
7.3728857 10.5532 14.034169
7.3160882 10.546208 12.693114
7.299829 10.534527 10.416654
9.2158051 13.314353 10.701002
11.413369 16.501516 10.589158
7.3335676 10.539943 11.517363
8.0891819 11.638892 10.404161
10.132058 14.589056 10.523367
0.068681419 0.042552121 7.8339748
0.73270673 0.99851078 7.8736014
0.95994806 1.3256683 7.8923669
1.4284149 2.0007019 7.9060073
1.9369104 2.7328246 7.950779
2.4677644 3.4971893 7.9112201
7.0030088 9.9755096 14.669111
0.31348893 0.3581436 8.07094
0.53420502 0.65839469 7.8647308
1.2269039 1.702819 8.1180353
1.6783245 2.3523571 7.9124188
2.201225 3.1033835 7.9308834
7.5679431 10.704613 21.513525
7.4510913 10.566659 17.195515
7.4252882 10.549577 14.06357
7.3692002 10.543991 12.721149
7.3521538 10.531322 10.438622
9.1832962 13.168919 10.610535
11.475966 16.468843 10.593796
7.3896036 10.541796 11.547292
8.1320801 11.613897 10.407104
10.187865 14.560665 10.528434
0.068868555 0.042331647 7.838975
0.7357257 0.99532241 7.8686624
0.96156865 1.318197 7.8678908
1.43539 1.9957037 7.9060073
1.9441671 2.722867 7.9415736
2.4799569 3.4885538 7.9112201
7.0544453 9.974556 14.70365
0.31492886 0.357263 8.0759325
0.53650004 0.65652597 7.8647308
1.2328404 1.6985258 8.1180353
1.6865255 2.3464844 7.9124188
2.2120445 3.095681 7.9308834
7.5810547 10.644142 21.445271
7.5071259 10.567607 17.239403
7.4816775 10.551249 14.100323
7.4285455 10.550279 12.7597
7.4067836 10.531063 10.463731
9.1258478 12.98966 10.492651
11.535928 16.43231 10.596114
7.4435873 10.540338 11.573896
8.1749001 11.588742 10.410048
10.243597 14.532062 10.5335
0.06901589 0.042090993 7.838975
0.73919553 0.9927482 7.8686624
0.96616423 1.3148324 7.8678908
1.4423475 1.9906811 7.9060073
1.9479557 2.7081344 7.9185615
2.4921191 3.4798758 7.9112201
7.1040988 9.9707527 14.734348
0.31617403 0.35616153 8.0759325
0.53912765 0.65506035 7.8697019
1.2380198 1.6931976 8.1131964
1.694706 2.3405831 7.9124188
2.222837 3.0879405 7.9308834
7.6500926 10.662113 21.534855
7.5650125 10.570744 17.287285
7.5361977 10.549895 14.133399
7.4777083 10.541738 12.780727
7.4637523 10.533729 10.491977
9.1518087 12.930422 10.470719
11.598333 16.399176 10.600752
7.4998155 10.541673 11.603827
8.219985 11.566725 10.415934
10.299252 14.503244 10.538567
0.069162399 0.041849826 7.838975
0.74312276 0.99078327 7.8736014
0.97074795 1.3114519 7.8678908
1.4492874 1.9856342 7.9060073
1.9585434 2.7029002 7.9231639
2.5042508 3.4711556 7.9112201
7.6465616 10.629733 19.304216
7.1575503 9.9719343 14.772724
0.31741533 0.35505572 8.0759325
0.54141092 0.65317446 7.8697019
1.2439227 1.6888658 8.1131964
1.7028658 2.3346531 7.9124188
2.2336023 3.0801628 7.9308834
7.7147641 10.67339 21.611641
7.6212497 10.571159 17.331175
7.5967412 10.556545 14.177501
7.5393414 10.550389 12.822782
7.5185661 10.532953 10.517084
9.1871767 12.884778 10.459753
11.658077 16.362198 10.603071
7.5561433 10.542742 11.633756
8.2626629 11.541248 10.418877
10.352324 14.470712 10.5411
0.069308065 0.041608151 7.838975
0.74657673 0.98818332 7.8736014
0.97531974 1.3080554 7.8678908
1.4562099 1.9805632 7.9060073
1.969118 2.6976249 7.9277668
2.5163522 3.462393 7.9112201
7.7017841 10.628041 19.349678
7.1979494 9.9546804 14.784236
0.31865278 0.35394555 8.0759325
0.54334557 0.65087187 7.8647308
1.2498103 1.6845133 8.1131964
1.7110049 2.3286948 7.9124188
2.2443407 3.0723469 7.9308834
2.8317595 3.8891919 7.9393229
7.6775804 10.57131 17.375065
7.5907078 10.544267 12.847314
7.5757403 10.535087 10.54533
9.2345381 12.856027 10.462495
11.720288 16.328604 10.607709
7.6125689 10.543546 11.663686
8.3052645 11.515615 10.421821
10.405293 14.437985 10.543633
0.069452882 0.041365966 7.838975
0.75002158 0.98557127 7.8736014
0.97987986 1.3046429 7.8678908
1.4631144 1.9754679 7.9060073
1.9785227 2.6907351 7.9277668
2.5284231 3.4535882 7.9112201
7.7637229 10.635184 19.411673
7.2685094 9.9787188 14.857148
0.31988633 0.3528311 8.0759325
0.54561424 0.64897126 7.8647308
1.2556828 1.6801405 8.1131964
1.7180963 2.321321 7.9077258
2.2563417 3.0662475 7.9353848
2.8453181 3.8792834 7.9393229
7.7322273 10.568765 17.414965
7.8501973 10.749657 14.508265
7.6330185 10.536946 10.573577
9.2867107 12.833878 10.470719
11.77981 16.291182 10.610027
7.6712885 10.547104 11.69694
8.3477869 11.489823 10.424763
10.458159 14.405062 10.546165
0.069557503 0.041104432 7.8339748
0.75393021 0.98356372 7.8785405
0.98442787 1.3012146 7.8678908
1.4700011 1.9703487 7.9060073
1.987903 2.6838124 7.9277668
2.540463 3.4447412 7.9112201
7.3165712 9.9713764 14.884012
0.321116 0.35171232 8.0759325
0.54787624 0.64706278 7.8647308
1.262296 1.6767511 8.1180353
1.7261888 2.3153095 7.9077258
2.2670312 3.0583529 7.9353848
2.8603919 3.8714256 7.9435887
7.7887368 10.568393 17.458857
7.9720483 10.836884 14.662622
7.690403 10.538536 10.601823
9.3363791 12.80814 10.476202
11.841822 16.257124 10.614665
7.7279186 10.547368 11.72687
8.3902292 11.463877 10.427707
10.510925 14.37195 10.548699
0.069700554 0.040861383 7.8339748
0.75735891 0.98092604 7.8785405
0.98958135 1.2985801 7.8727856
1.4768701 1.9652054 7.9060073
1.997259 2.676857 7.9277668
2.5524719 3.4358523 7.9112201
7.358954 9.9560862 14.899362
0.32234174 0.35058931 8.0759325
0.55013156 0.64514643 7.8647308
1.2681413 1.6723348 8.1180353
1.7342603 2.3092699 7.9077258
2.2789955 3.052165 7.9398861
2.8738883 3.8614173 7.9435887
7.8471336 10.570172 17.506737
8.0623074 10.879808 14.758176
7.7478914 10.539852 10.630069
9.3859806 12.782212 10.481685
11.906358 16.226404 10.621621
7.7890782 10.553374 11.763451
8.4301949 11.434519 10.427707
10.563585 14.338643 10.551232
0.069842763 0.040617831 7.8339748
0.76125556 0.97888958 7.8834796
0.99410814 1.2951179 7.8727856
1.4837209 1.9600382 7.9060073
2.0065908 2.6698689 7.9277668
2.5644495 3.4269216 7.9112201
0.32376045 0.34967309 8.080924
0.5523802 0.64322215 7.8647308
1.2739711 1.6678979 8.1180353
2.288327 3.0424516 7.9353848
2.8889139 3.8534486 7.947855
7.9038329 10.569261 17.550627
8.1306543 10.89235 14.813304
7.8054819 10.540895 10.658315
9.4355154 12.756096 10.487168
11.962927 16.184744 10.621621
7.8503747 10.559081 11.800031
8.4724674 11.408267 10.43065
10.613572 14.301682 10.551232
0.069944575 0.040355358 7.8289752
0.76466787 0.97622633 7.8834796
0.99862289 1.2916398 7.8727856
1.4905536 1.9548471 7.9060073
2.0170774 2.6644056 7.9323683
2.576396 3.4179492 7.9112201
9.3097277 12.386042 22.82962
0.32497907 0.34854084 8.080924
0.55462211 0.64129007 7.8647308
1.2797853 1.6634407 8.1180353
2.141535 2.8104379 9.6628199
2.3028772 3.0396502 7.9488878
2.9023476 3.8433409 7.947855
7.9606214 10.568083 17.594517
8.2114115 10.920805 14.890482
10.191142 13.647701 16.817965
7.8631735 10.541664 10.686562
9.4824839 12.726434 10.489909
12.016704 16.139334 10.619303
7.9095664 10.5615 11.833285
8.5146599 11.38186 10.433593
10.666011 14.268 10.553766
0.070085019 0.040110961 7.8289752
0.76807088 0.97355121 7.8834796
1.0031254 1.2881461 7.8727856
1.4982775 1.950816 7.9107795
2.0263655 2.6573484 7.9323683
2.5883114 3.4089351 7.9112201
9.3291254 12.32206 22.771759
7.928441 10.494826 15.8242
0.32639208 0.34761411 8.0859156
0.55685723 0.63935018 7.8647308
1.285584 1.6589633 8.1180353
2.1523829 2.8043144 9.6675129
2.3134732 3.0315933 7.9488878
2.9173248 3.8352623 7.9521208
8.0193195 10.569036 17.642397
8.2822323 10.935315 14.949285
10.238719 13.612045 16.817965
7.9233041 10.54527 10.717945
9.5318689 12.699944 10.495392
12.086256 16.115007 10.630897
7.9688706 10.563633 11.86654
8.5567703 11.355298 10.436536
10.718343 14.234124 10.556299
0.070224606 0.039866071 7.8289752
0.77146453 0.97086418 7.8834796
1.0076159 1.2846367 7.8727856
1.5050781 1.9455743 7.9107795
2.0368192 2.6518085 7.9369712
2.6001949 3.3998795 7.9112201
9.3823195 12.302846 22.796558
8.0407257 10.566564 15.973862
0.32760349 0.34647265 8.0859156
0.55908561 0.63740242 7.8647308
1.2913671 1.6544658 8.1180353
2.1463256 2.7763059 9.5971222
2.328022 3.0286772 7.9623919
2.9306946 3.8250558 7.9521208
8.0781202 10.569707 17.690277
8.328578 10.91712 14.963985
10.292635 13.58475 16.828478
7.9835553 10.548586 10.749331
9.5786638 12.66993 10.498135
12.09437 16.009098 10.589158
8.028286 10.565481 11.899796
8.5987978 11.328578 10.439479
10.770569 14.200058 10.558831
0.070363335 0.039620701 7.8289752
0.77484876 0.96816534 7.8834796
1.0120939 1.2811116 7.8727856
1.5127778 1.941486 7.9155512
2.0472591 2.6462276 7.9415736
2.6135085 3.3926797 7.9156089
8.1009607 10.568959 16.019913
0.3288109 0.34532699 8.0859156
0.56130713 0.63544703 7.8647308
1.2963574 1.6489599 8.1131964
2.1400993 2.7483742 9.5267305
2.3652351 3.0549583 8.0524168
2.9440286 3.8148024 7.9521208
8.1351852 10.56771 17.734167
8.3769636 10.901422 14.982361
8.0439262 10.551606 10.780715
9.6278973 12.64307 10.503616
12.12067 15.928008 10.563651
8.0878115 10.567042 11.93305
8.6407452 11.301705 10.442423
10.822688 14.1658 10.561365
0.070541009 0.039392725 7.8339748
0.77822357 0.9654547 7.8834796
1.0159256 1.2767744 7.8678908
1.5204673 1.9373678 7.9203234
2.0564835 2.639065 7.9415736
2.6253355 3.3835363 7.9156089
8.1554327 10.563452 16.054451
0.33001432 0.34417713 8.0859156
0.56387663 0.63388157 7.8697019
1.3013251 1.6434394 8.1083565
1.7843719 2.2751598 7.9171114
2.399982 3.0775826 8.1334381
2.9573267 3.8045025 7.9521208
8.1941814 10.567823 17.782047
8.4025164 10.85603 14.960311
8.1044149 10.554336 10.812099
9.6745176 12.612705 10.506358
12.168111 15.875053 10.556695
8.1428862 10.562403 11.959655
8.6826096 11.274677 10.445365
10.874699 14.131351 10.563898
0.070678085 0.039146248 7.8339748
0.78158891 0.96273232 7.8834796
1.0203761 1.2732203 7.8678908
1.5290724 1.9343907 7.9298677
2.0656831 2.6318707 7.9415736
2.6400797 3.3781254 7.9243875
8.2138996 10.562752 16.096664
0.33121371 0.34302306 8.0859156
0.56608582 0.63190943 7.8697019
1.3023506 1.6329911 8.07932
1.7912328 2.2675631 7.9124188
2.4443288 3.1119847 8.2459679
2.9705889 3.7941563 7.9521208
8.2532768 10.567654 17.829929
8.4570341 10.848022 14.989712
8.2400894 10.642326 13.30641
8.16502 10.55677 10.843484
9.7210407 12.582166 10.509099
8.2026052 10.563405 11.992909
8.7219124 11.2443 10.445365
10.926601 14.096714 10.566432
0.070814304 0.038899299 7.8339748
0.78494471 0.95999819 7.8834796
1.0248142 1.2696508 7.8678908
1.5367451 1.930209 7.9346399
2.0748575 2.624644 7.9415736
2.653337 3.3707712 7.9287767
8.274437 10.564296 16.142714
0.33240908 0.34186482 8.0859156
0.56864578 0.6303249 7.8746734
1.3041064 1.6235355 8.0551224
1.8098822 2.2748001 7.9593468
2.434916 3.0778251 8.1784496
2.9854302 3.7858119 7.956387
8.314333 10.569568 17.881798
8.2815733 10.619122 13.313417
8.2018194 10.528204 10.843484
9.7674704 12.551457 10.511842
8.2486305 10.546473 12.006211
8.7635984 11.216972 10.448309
10.978394 14.061885 10.568964
0.070949651 0.038651872 7.8339748
0.78779685 0.95665276 7.8785405
1.02924 1.2660658 7.8678908
1.5444074 1.9259976 7.9394116
2.0827894 2.6158571 7.9369712
2.666575 3.3633654 7.9331651
8.3350859 10.565546 16.188763
0.33360037 0.34070241 8.0859156
0.57084256 0.62833613 7.8746734
1.3058124 1.6140881 8.0309258
2.1156707 2.6401246 9.25455
2.4225814 3.040364 8.1019297
2.9986269 3.7753677 7.956387
8.3717604 10.566461 17.925688
8.3384171 10.615389 13.344958
8.2385206 10.499511 10.843484
9.8138027 12.520576 10.514583
8.3084984 10.546945 12.039466
8.8051987 11.189489 10.451252
11.032743 14.030255 10.574031
0.071084142 0.038403977 7.8339748
0.79113138 0.953897 7.8785405
1.033653 1.2624655 7.8678908
1.5511209 1.9205949 7.9394116
2.1004641 2.6192393 7.9691887
2.6812878 3.3577795 7.9419432
8.3958435 10.5665 16.234812
0.33478761 0.33953586 8.0859156
0.57339269 0.62673253 7.8796449
1.3082621 1.6056225 8.0115681
2.128125 2.6367517 9.2686281
2.4290922 3.0267963 8.0884266
3.0134161 3.7669141 7.9606528
8.4386663 10.574858 17.989529
8.4041872 10.622577 13.390518
8.272706 10.467634 10.840344
9.8600388 12.489526 10.517324
8.846715 11.161854 10.454195
11.084325 13.995036 10.576564
0.07121776 0.038155612 7.8339748
0.79445624 0.95112962 7.8785405
1.0380536 1.2588496 7.8678908
1.5578156 1.9151686 7.9394116
2.1230979 2.6286089 8.0198164
2.6959946 3.3521323 7.9507217
8.4547062 10.564656 16.277025
0.33597079 0.33836517 8.0859156
0.57593864 0.62511873 7.8846169
1.3098713 1.5961883 7.987371
1.8706158 2.3012493 8.1189003
2.4382741 3.0166056 8.0839252
3.028183 3.7584031 7.9649181
8.4887419 10.561777 18.017458
8.467885 10.626643 13.432572
8.304347 10.432603 10.834067
9.9061775 12.458304 10.520065
8.8881445 11.134063 10.457138
11.135798 13.95963 10.579098
0.071310349 0.037889741 7.8289752
0.79777151 0.94835067 7.8785405
1.0430921 1.2560016 7.8727856
1.5644914 1.9097192 7.9394116
2.1507542 2.643914 8.0888538
2.7091868 3.3445623 7.955111
8.6046438 10.652589 20.184534
8.5156708 10.565026 16.323076
0.33714983 0.33719033 8.0859156
0.57811719 0.62310451 7.8846169
1.3106298 1.5857936 7.9583349
1.8851966 2.3027167 8.1470566
2.4817753 3.048593 8.1919537
3.0412836 3.7478096 7.9649181
8.5426207 10.55316 18.05337
8.5227852 10.619271 13.460609
8.3407125 10.403552 10.834067
9.952219 12.426913 10.522807
8.9294872 11.106119 10.460081
11.189858 13.927394 10.584164
0.071442179 0.037640594 7.8289752
0.80107701 0.9455601 7.8785405
1.0474701 1.2523528 7.8727856
1.5701978 1.9030951 7.9346399
2.1574941 2.6333685 8.0796499
2.7223594 3.3369408 7.9594998
8.6506548 10.633401 20.205198
8.5767393 10.565099 16.369125
0.33832479 0.33601141 8.0859156
0.58065313 0.62147176 7.8895879
1.3121359 1.5763789 7.9341373
1.8635798 2.2601748 8.0203524
2.5103455 3.0617955 8.2504692
3.0559981 3.7391901 7.9691844
8.5794048 10.523276 18.05337
8.5553169 10.583909 13.4536
8.4014301 10.404657 10.865453
9.9955359 12.392097 10.522807
8.9707451 11.078024 10.463024
11.241117 13.891602 10.586697
0.071573131 0.037390985 7.8289752
0.80386823 0.94216716 7.8736014
1.0524913 1.2494675 7.8776813
1.5758772 1.8964546 7.9298677
2.164186 2.6228075 8.0704451
2.7355111 3.329268 7.9638891
8.6379118 10.564872 16.415176
0.33949563 0.33482838 8.0859156
0.58318472 0.61982888 7.8945594
1.3119771 1.5650468 7.9002614
1.8604326 2.2403803 7.9734244
2.4669573 2.9875498 8.0749226
3.0690315 3.7284999 7.9691844
10.112016 12.420771 15.819169
8.4745359 10.420564 10.912529
10.041368 12.360376 10.525549
9.0119143 11.049774 10.465967
11.294987 13.85896 10.591763
0.07170321 0.037140917 7.8289752
0.80715209 0.93935537 7.8736014
1.0568464 1.245786 7.8776813
1.5815294 1.8897974 7.9250956
2.1683331 2.6092269 8.0520344
2.7486427 3.3215442 7.9682784
8.7012253 10.566821 16.465063
0.34066236 0.33364129 8.0859156
0.5857119 0.61817586 7.8995309
1.3149993 1.5575768 7.8857436
1.8671346 2.232549 7.9687314
2.4718029 2.9722257 8.0569181
3.0803633 3.7157564 7.9649181
10.184707 12.421248 15.864728
8.5651188 10.457165 10.981576
10.0871 12.328485 10.52829
9.0529966 11.021374 10.468911
11.34603 13.822783 10.594296
0.071832426 0.036890402 7.8289752
0.81042612 0.9365322 7.8736014
1.0611885 1.2420893 7.8776813
1.5881164 1.8842654 7.9250956
2.1711581 2.5941517 8.0290222
2.7617536 3.3137689 7.9726667
8.7626104 10.56599 16.511114
0.34161723 0.33224958 8.080924
0.58823466 0.61651278 7.9045029
1.3204283 1.552977 7.8857436
1.8637985 2.2128201 7.9218044
2.4542055 2.930202 7.9668932
3.0933149 3.7049816 7.9649181
10.248439 12.410369 15.896269
8.6659679 10.50527 11.063176
10.132734 12.296429 10.531032
9.0939884 10.992819 10.471853
11.396958 13.786416 10.596829
0.071960755 0.036639433 7.8289752
0.8136903 0.93369758 7.8736014
1.0655177 1.2383775 7.8776813
1.5946839 1.8787104 7.9250956
2.186496 2.5940256 8.0520344
2.773304 3.3041084 7.9726667
8.8261509 10.567319 16.561001
0.3427749 0.33105507 8.080924
0.5907529 0.61483955 7.9094739
1.3250234 1.5474037 7.8809042
1.8715113 2.2063007 7.9218044
2.455997 2.9116337 7.9398861
3.1062291 3.6941612 7.9649181
10.328183 12.41839 15.952342
8.7398949 10.519863 11.110252
10.178264 12.2642 10.533772
9.1348934 10.964115 10.474797
11.450528 13.753174 10.601896
0.072088219 0.036388021 7.8289752
0.81745726 0.93143541 7.8785405
1.069834 1.2346506 7.8776813
1.6022023 1.8742671 7.9298677
2.1968019 2.587867 8.0566368
2.7848206 3.2944076 7.9726667
8.8898067 10.568333 16.610889
0.3439284 0.32985657 8.080924
0.59363788 0.61353898 7.9194169
1.3304168 1.5427691 7.8809042
1.8780804 2.1984425 7.9171114
2.4746022 2.9129972 7.9668932
3.1191051 3.683296 7.9649181
10.373758 12.384996 15.955846
8.8215227 10.543024 11.166744
10.226376 12.235014 10.539256
9.1757069 10.935257 10.47774
11.501236 13.716424 10.604429
0.072255366 0.036152221 7.8339748
0.82070363 0.92857623 7.8785405
1.0741372 1.2309088 7.8776813
1.609709 1.8697941 7.9346399
2.2134392 2.5890925 8.0842514
2.7963033 3.2846668 7.9726667
8.9515047 10.566586 16.656939
0.34507775 0.32865402 8.080924
0.59689337 0.61260694 7.9343314
1.335794 1.5381156 7.8809042
1.8868685 2.1931813 7.9218044
2.481925 2.9010332 7.9578905
3.1319432 3.6723857 7.9649181
8.8984022 10.559791 11.21696
10.271715 12.202442 10.541998
9.018775 10.661041 12.518339
9.2164316 10.906249 10.480683
11.557389 13.686074 10.612029
0.072381116 0.035899781 7.8339748
0.82393992 0.92570579 7.8785405
1.0784273 1.2271518 7.8776813
1.616226 1.8641638 7.9346399
2.2160897 2.5739479 8.0612392
2.8077517 3.2748857 7.9726667
9.015379 10.566973 16.706827
0.34622285 0.32744747 8.080924
0.60014957 0.61165965 7.9492459
1.3411549 1.5334436 7.8809042
1.8945128 2.1865816 7.9218044
2.4920363 2.8923521 7.9578905
3.1447432 3.6614311 7.9649181
9.275363 10.844825 15.548337
8.9553566 10.552406 11.242068
10.31695 12.169702 10.544739
9.0849905 10.6636 12.558245
9.2570648 10.877089 10.483626
11.605092 13.645647 10.612029
0.072505988 0.035646904 7.8339748
0.82716626 0.92282408 7.8785405
1.0827043 1.2233799 7.8776813
1.6227232 1.8585107 7.9346399
2.2199414 2.5602927 8.0428295
2.8191662 3.265065 7.9726667
9.0793648 10.567042 16.756714
0.34715262 0.32604003 8.0759325
0.60378158 0.61107582 7.9691319
1.3464994 1.5287527 7.8809042
1.9032683 2.1812553 7.9264975
2.5006905 2.8819911 7.9533892
3.1592109 3.6524036 7.9691844
9.3131618 10.812382 15.548337
10.621125 12.413884 16.134579
9.0174255 10.550671 11.273452
10.364798 12.139975 10.550221
9.1343145 10.645991 12.574872
9.2976074 10.847778 10.486569
11.652654 13.605054 10.612029
0.072670713 0.035409223 7.838975
0.83038247 0.91993111 7.8785405
1.0869682 1.219593 7.8776813
1.628215 1.851714 7.9298677
2.2250097 2.5481136 8.0290222
2.8321178 3.2570119 7.977056
9.1434603 10.566794 16.806601
0.3482886 0.32482627 8.0759325
0.60741687 0.61047417 7.9890184
1.3526617 1.5249834 7.8857436
1.9108708 2.1745985 7.9264975
2.5107353 2.8732448 7.9533892
3.1736541 3.6433206 7.9734502
9.3908339 10.825903 15.61449
10.615506 12.319999 16.060982
9.0795908 10.548629 11.304836
10.409837 12.106891 10.552963
9.3380575 10.818317 10.489512
11.694442 13.557769 10.606962
0.072753079 0.035139855 7.8339748
0.8335886 0.917027 7.8785405
1.091899 1.216549 7.8825765
1.633679 1.8449018 7.9250956
2.2274399 2.5329959 8.0060101
2.8434696 3.2471061 7.977056
9.2922812 10.640838 20.821007
9.2097712 10.568644 16.860327
0.34942031 0.32360855 8.0759325
0.61105525 0.6098544 8.0089045
1.3579767 1.5202525 7.8857436
1.9195935 2.1692071 7.9311891
2.5207493 2.8644631 7.9533892
3.188072 3.6341803 7.9777164
9.4330273 10.798163 15.62184
10.614038 12.231691 15.994396
9.1444006 10.549224 11.339359
10.454772 12.073642 10.555705
9.3784161 10.788706 10.492455
11.690809 13.458285 10.561365
0.072875299 0.034885682 7.8339748
0.83678448 0.91411161 7.8785405
1.0961388 1.2127302 7.8825765
1.6391153 1.838074 7.9203234
2.231087 2.5193553 7.9875989
2.8547869 3.2371604 7.977056
9.3126421 10.589317 20.783812
9.2762051 10.570159 16.914051
0.35033458 0.32219219 8.07094
0.61507571 0.60959142 8.033761
1.3641157 1.5164374 7.8905821
1.9271537 2.1624932 7.9311891
2.5307329 2.8556466 7.9533892
3.2007382 3.6230299 7.9777164
9.4639444 10.757534 15.610814
9.2118864 10.552427 11.377022
10.50235 12.043378 10.561188
9.4186811 10.758945 10.495399
11.737717 13.417396 10.561365
0.072996631 0.034631088 7.8339748
0.83997029 0.91118509 7.8785405
1.1003654 1.2088966 7.8825765
1.6455214 1.8323412 7.9203234
2.2307646 2.5013461 7.9553814
2.8660691 3.2271757 7.977056
9.3607445 10.569386 20.808609
9.342761 10.571338 16.967775
0.35145712 0.32096735 8.07094
0.61872149 0.6089344 8.053648
1.3694009 1.5116664 7.8905821
1.9346905 2.1557529 7.9311891
2.5392358 2.845171 7.9488878
3.2150993 3.6137838 7.9819822
9.4265871 10.621284 18.879303
9.5059338 10.729508 15.618164
10.604928 12.050208 15.854214
9.2769346 10.552362 11.411544
10.547084 12.009786 10.563929
9.3932447 10.643394 12.72452
9.4588509 10.729033 10.498342
11.764534 13.3537 10.543633
0.07311707 0.034376074 7.8339748
0.84314573 0.90824753 7.8785405
1.1052667 1.2057986 7.8874717
1.6519074 1.826586 7.9203234
2.2394824 2.4935441 7.9553814
2.8773167 3.2171516 7.977056
9.4425354 10.587049 20.907801
9.4094391 10.572182 17.021502
0.35257539 0.31973857 8.07094
0.62198836 0.60788721 8.0685616
1.3755164 1.5078056 7.895422
1.9410466 2.1477065 7.9264975
2.5506072 2.8379095 7.9533892
3.2276943 3.6025391 7.9819822
9.4615974 10.586069 18.875315
9.5433292 10.696261 15.618164
9.3446751 10.554888 11.449206
10.594481 11.97916 10.569412
9.4377804 10.618912 12.734496
9.4962454 10.695951 10.498342
11.802492 13.302877 10.536033
0.073236622 0.034120634 7.8339748
0.84684181 0.90586627 7.8834796
1.1094689 1.2019333 7.8874717
1.6582735 1.8208086 7.9203234
2.2429307 2.4799159 7.9369712
2.8885291 3.2070885 7.977056
9.5019979 10.579146 20.957396
9.4762363 10.572688 17.075228
0.35390452 0.31869832 8.0759325
0.62525547 0.6068247 8.083477
1.3807713 1.5029949 7.895422
1.9485316 2.140918 7.9264975
2.560498 2.8289888 7.9533892
3.2402496 3.5912504 7.9819822
9.4984922 10.552978 18.875315
9.5851393 10.667927 15.625515
9.4729481 10.613637 14.059886
9.409955 10.554162 11.483729
10.639012 11.945228 10.572153
9.4747906 10.585903 12.734496
9.5362186 10.665751 10.501286
0.07335528 0.033864785 7.8339748
0.84999871 0.90290475 7.8834796
1.1136577 1.1980532 7.8874717
1.6646191 1.8150091 7.9203234
2.2555203 2.4764044 7.950779
2.9013152 3.1987598 7.9814448
9.5596333 10.56887 21.002857
9.5452976 10.575234 17.132788
0.35501486 0.31746101 8.0759325
0.62813848 0.60537726 8.09342
1.386863 1.4990886 7.9002614
1.954827 2.1328311 7.9218044
2.5703571 2.8200338 7.9533892
3.2527657 3.5799179 7.9819822
9.579792 10.568873 18.963095
9.6268673 10.639431 15.632865
9.4779425 10.556005 11.521391
10.686229 11.914244 10.577636
10.649108 11.814674 14.247598
9.5760937 10.635403 10.504229
0.073514149 0.033623148 7.838975
0.8531453 0.89993215 7.8834796
1.118529 1.1949016 7.8923669
1.6709446 1.8091874 7.9203234
2.2628303 2.4670765 7.9461761
2.9124632 3.1886127 7.9814448
9.6135225 10.554159 21.040054
9.6144934 10.577428 17.190351
0.35612082 0.31621987 8.0759325
0.63063341 0.60354906 8.0983915
1.3920875 1.4942385 7.9002614
1.9622601 2.1259944 7.9218044
2.5816574 2.8126481 7.9578905
3.2652421 3.5685418 7.9819822
9.6430349 10.564301 19.014965
9.6685152 10.610774 15.640216
9.6425428 10.653005 14.200068
9.5434484 10.554614 11.555914
10.730556 11.879973 10.580379
10.640096 11.722137 14.181089
9.6131601 10.601911 10.504229
0.073631063 0.03336633 7.838975
0.8562814 0.89694864 7.8834796
1.1226931 1.19099 7.8923669
1.6772496 1.8033438 7.9203234
2.2727537 2.4605978 7.950779
2.9235759 3.178427 7.9814448
9.6369886 10.506021 21.011124
9.6859837 10.581632 17.251751
0.35700524 0.31478468 8.07094
0.63350999 0.60207742 8.1083336
1.3981549 1.4902866 7.9051008
1.9696691 2.119132 7.9218044
2.5914598 2.8036191 7.9578905
3.2776787 3.5571222 7.9819822
9.696166 10.548324 19.046886
9.7032032 10.574463 15.636541
9.7109013 10.653544 14.245627
9.6090593 10.552895 11.590437
10.774772 11.845537 10.583119
9.6664629 10.586199 10.521888
0.073747084 0.03310911 7.838975
0.85940713 0.89395422 7.8834796
1.1268436 1.1870638 7.8923669
1.6835343 1.7974782 7.9203234
2.2813292 2.4526494 7.950779
2.9362805 3.1699595 7.9858341
9.6392326 10.435111 20.936731
9.7489309 10.576037 17.297802
0.35788399 0.31334719 8.0659485
0.63599592 0.60022783 8.1133051
1.4033483 1.4853971 7.9051008
1.9782337 2.1135035 7.9264975
2.6012304 2.7945564 7.9578905
3.2900755 3.5456593 7.9819822
9.767725 10.552005 19.114716
9.7423563 10.543016 15.640216
9.7480297 10.619582 14.245627
9.672143 10.547976 11.621821
10.81888 11.810938 10.585861
9.7060928 10.555367 10.524831
0.07386221 0.03285148 7.838975
0.86198175 0.89039081 7.8785405
1.1302766 1.1823874 7.8874717
1.6897984 1.7915906 7.9203234
2.2898765 2.4446712 7.950779
2.9489617 3.161442 7.9902234
9.6506824 10.374615 20.883001
9.7901506 10.546641 17.305477
0.35897559 0.312096 8.0659485
0.63808721 0.59800416 8.1133051
1.4093914 1.4813999 7.9099402
1.985599 2.1065853 7.9264975
2.6124582 2.7870474 7.9623919
3.3024321 3.5341532 7.9819822
9.7634058 10.473762 19.034914
9.8275976 10.561064 15.717394
9.7995644 10.601203 14.266655
9.7405901 10.548465 11.659482
10.862877 11.776174 10.588602
9.8433943 10.618826 12.977257
9.7730885 10.554046 10.557205
0.073976435 0.032593455 7.838975
0.86508453 0.88737649 7.8785405
1.134397 1.1784347 7.8874717
1.6960418 1.785681 7.9203234
2.2983961 2.4366632 7.950779
2.9616194 3.1528747 7.9946127
9.6348953 10.285416 20.771412
9.8597374 10.547524 17.363039
0.35984364 0.31065321 8.060957
0.64056146 0.5961358 8.1182766
1.4145538 1.4764712 7.9099402
1.9941283 2.1008928 7.9311891
2.6221709 2.7779114 7.9623919
3.3165357 3.5245032 7.9862485
9.7792835 10.417649 18.995014
9.8922205 10.556379 15.761496
9.8292208 10.559101 14.256142
9.7932558 10.531503 11.678313
10.909608 11.74431 10.594085
9.8931398 10.598049 12.993886
9.8346786 10.546472 10.583694
0.074089751 0.032335028 7.838975
0.86817682 0.88435137 7.8785405
1.1385037 1.1744677 7.8874717
1.7022647 1.77975 7.9203234
2.308233 2.4300416 7.9553814
2.9726067 3.1425176 7.9946127
9.639843 10.218969 20.705286
9.9008894 10.517712 17.370714
0.36070597 0.3092081 8.0559654
0.64263844 0.59389615 8.1182766
1.4214449 1.4733336 7.9196196
2.0014496 2.0939193 7.9311891
2.6318517 2.7687414 7.9623919
3.3288183 3.5129046 7.9862485
9.796958 10.363742 18.959105
9.97089 10.566166 15.827649
9.9001646 10.561152 14.305205
9.8778477 10.548392 11.734806
10.953393 11.709209 10.596827
9.9300737 10.563451 12.993886
9.9046364 10.547437 10.619012
0.074202172 0.03207621 7.838975
0.8712585 0.88131547 7.8785405
1.1418849 1.169758 7.8825765
1.7084669 1.773797 7.9203234
2.315351 2.420558 7.950779
2.9868617 3.1355903 8.0033913
9.6444454 10.152614 20.639158
9.9044657 10.448195 17.313152
0.36156264 0.30776078 8.0509739
0.64510089 0.59200931 8.1232491
1.4335872 1.4755745 7.9583349
2.0099432 2.0881631 7.9358821
2.6415002 2.7595377 7.9623919
3.3410602 3.5012639 7.9862485
9.7977562 10.292379 18.891275
10.007711 10.531297 15.827649
9.9687948 10.560242 14.350764
9.9493227 10.550661 11.775605
10.997067 11.673948 10.599568
10.015656 10.580242 13.05707
9.97472 10.548041 10.65433
0.074313685 0.031817004 7.838975
0.87487787 0.87881935 7.8834796
1.1459613 1.1657649 7.8825765
1.7146481 1.7678226 7.9203234
2.3264971 2.4152753 7.9599843
3.0193427 3.1476133 8.0604486
3.735219 3.904727 8.0088673
9.9342365 10.406603 17.30164
0.36263472 0.3064968 8.0509739
0.64716345 0.58975387 8.1232491
1.4457623 1.4777484 7.9970503
2.01722 2.0811346 7.9358821
2.6526277 2.7518675 7.9668932
3.3532615 3.4895799 7.9862485
9.8002596 10.223312 18.827435
10.01863 10.469357 15.787223
10.042453 10.56415 14.403332
10.026295 10.558204 11.822682
11.043507 11.641559 10.605051
10.060256 10.553325 13.067045
10.047716 10.55121 10.692591
0.074382804 0.031543929 7.8339748
0.87794024 0.87576008 7.8834796
1.1500235 1.1617577 7.8825765
1.7208085 1.7618266 7.9203234
2.3362741 2.4085419 7.9645867
3.0502794 3.1577249 8.1131182
3.7488263 3.8916647 8.0088673
9.948288 10.348755 17.263264
0.36348057 0.30504429 8.0459814
0.64921808 0.58749127 8.1232491
1.4579698 1.4798551 8.0357656
2.0244725 2.0740805 7.9358821
2.6622174 2.7425914 7.9668932
3.3654222 3.4778538 7.9862485
9.8065863 10.158689 18.771572
10.03159 10.409911 15.75047
10.094063 10.544489 14.424359
10.09806 10.559711 11.863482
11.086964 11.605962 10.607792
10.115133 10.536998 13.090324
10.118057 10.551083 10.727909
0.074492455 0.031284094 7.8339748
0.88099182 0.87269014 7.8834796
1.1540718 1.1577362 7.8825765
1.726948 1.7558091 7.9203234
2.3473973 2.4031668 7.9737911
3.0696335 3.1556416 8.1350632
3.7643473 3.8805749 8.0129995
9.9442234 10.272512 17.194189
0.36409828 0.30340564 8.0359983
0.65126485 0.58522153 8.1232491
1.4702097 1.4818945 8.074481
2.0316999 2.0670011 7.9358821
2.6717746 2.7332819 7.9668932
3.3775415 3.4660847 7.9862485
9.816783 10.09847 18.723694
10.051338 10.3578 15.724745
10.113484 10.491217 14.399828
10.159159 10.549632 11.891728
11.133205 11.573216 10.613276
10.180399 10.531155 13.126904
10.191326 10.553496 10.76617
0.074601203 0.031023875 7.8339748
0.88403273 0.86960965 7.8834796
1.1581061 1.1537007 7.8825765
1.7341169 1.7508308 7.9250956
2.374953 2.4144566 8.0382271
3.0756016 3.1397743 8.1218958
3.7798364 3.8694243 8.0171328
9.9330359 10.189541 17.113602
0.36470899 0.30176637 8.0260153
0.65290552 0.58259016 8.1182766
1.4824816 1.4838665 8.1131964
2.0389028 2.0598965 7.9358821
2.6797721 2.7223876 7.9623919
3.3896201 3.4542739 7.9862485
9.8498659 10.061988 18.719704
10.049521 10.283856 15.665942
10.125202 10.430261 14.364781
10.204051 10.522488 11.901144
11.176445 11.537287 10.616016
10.217096 10.495554 13.126904
10.264736 10.55553 10.804431
0.074709043 0.030763282 7.8339748
0.88706285 0.8665185 7.8834796
1.1628501 1.1503671 7.8874717
1.7402178 1.744767 7.9250956
2.4122398 2.4352984 8.1348801
3.091589 3.1341348 8.1350632
3.7933204 3.8562064 8.0171328
9.9528246 10.138795 17.086739
0.3653127 0.30012652 8.0160322
0.65493518 0.58030754 8.1182766
1.4921101 1.4831126 8.137393
2.0472989 2.0539892 7.9405751
2.6892588 2.7130167 7.9623919
3.3998239 3.4405661 7.9819822
9.9420443 10.085484 18.827435
10.054445 10.217301 15.618164
10.131635 10.364252 14.322727
10.27879 10.525791 11.945082
11.21957 11.501198 10.618758
10.222305 10.427831 13.086999
10.31566 10.534074 10.819146
0.074815966 0.030502308 7.8339748
0.89008218 0.86341673 7.8834796
1.1668586 1.146301 7.8874717
1.7462976 1.7386817 7.9250956
2.469017 2.4752729 8.2959681
3.1041982 3.1250231 8.139452
3.8067579 3.842942 8.0171328
9.9656229 10.081197 17.048365
0.36568502 0.29830447 8.0010567
0.65695679 0.57801783 8.1182766
1.4972781 1.477895 8.137393
2.0544565 2.0468302 7.9405751
2.6987126 2.703613 7.9623919
3.411813 3.4286776 7.9819822
10.019645 10.093486 18.907234
10.054255 10.146022 15.563038
10.160245 10.321199 14.312214
10.288178 10.462095 11.913697
11.259648 11.461964 10.618758
10.258643 10.392084 13.086999
10.383587 10.529659 10.851521
0.074921988 0.030240968 7.8339748
0.89253086 0.85976565 7.8785405
1.1708529 1.142221 7.8874717
1.7512945 1.731526 7.9203234
2.4679506 2.4569912 8.263751
3.1201689 3.1192479 8.1526184
3.8201489 3.8296306 8.0171328
10.043716 10.089509 17.121277
0.36604911 0.29648352 7.9860821
0.65897042 0.57572114 8.1182766
1.5015301 1.4717798 8.1325531
2.0628154 2.0408599 7.9452682
2.7081335 2.6941762 7.9623919
3.4237604 3.4167471 7.9819822
10.084641 10.088284 18.963095
10.070452 10.091666 15.533636
10.163572 10.252745 14.266655
10.308203 10.409525 11.894867
11.30253 11.425563 10.621499
10.247475 10.308547 13.02714
10.383253 10.456064 10.81326
0.075027093 0.029979257 7.8339748
0.89608818 0.85718185 7.8834796
1.1755642 1.1388352 7.8923669
1.7605238 1.7285393 7.9346399
2.4695649 2.4414942 8.2407379
3.1327379 3.1100249 8.1570082
3.8334937 3.8162723 8.0171328
10.121989 10.097398 17.194189
0.36640492 0.29466361 7.971107
0.66057295 0.57306856 8.1133051
1.5066583 1.4665296 8.1325531
2.0699267 2.0336468 7.9452682
2.7175214 2.6847067 7.9623919
3.4375186 3.4066107 7.9862485
10.160413 10.09337 19.038906
10.105617 10.056453 15.533636
10.148909 10.166726 14.196564
10.319739 10.348673 11.86662
11.351197 11.394928 10.629725
10.256981 10.246327 12.993886
10.382533 10.382601 10.775
0.075131282 0.029717181 7.8339748
0.89907485 0.85404873 7.8834796
1.1795323 1.1347247 7.8923669
1.7644091 1.7202996 7.9250956
2.4850433 2.4397018 8.263751
3.135047 3.0906639 8.1350632
3.8467915 3.8028679 8.0171328
10.189054 10.093585 17.247915
0.36697876 0.29302418 7.9611235
0.66256934 0.5707593 8.1133051
1.5108646 1.4603881 8.1277151
2.077013 2.0264091 7.9452682
2.7268763 2.6752045 7.9623919
3.449389 3.3945909 7.9862485
10.22347 10.085353 19.090776
10.208179 10.087839 15.636541
10.156524 10.103572 14.158013
10.319946 10.276884 11.825821
11.355367 11.319809 10.596827
10.255572 10.173647 12.947328
10.40724 10.334904 10.763227
0.075234562 0.029454742 7.8339748
0.90205055 0.85090512 7.8834796
1.1834861 1.1306006 7.8923669
1.7789831 1.7224361 7.9632711
2.4963422 2.4337401 8.2729559
3.133836 3.0679739 8.1043396
3.8600428 3.7894166 8.0171328
10.253929 10.087178 17.297802
0.36754566 0.29138437 7.9511404
0.66455764 0.56844294 8.1133051
1.5141392 1.4533645 8.1180353
2.0840738 2.0191467 7.9452682
2.7377572 2.6671886 7.9668932
3.4649479 3.3861749 7.9947805
10.269375 10.060147 19.110725
10.274785 10.083013 15.684318
10.184119 10.060539 14.1475
10.333615 10.218903 11.800713
11.368067 11.253628 10.572153
10.245806 10.093242 12.890795
