# .PCD v0.7 - Point Cloud Data file format
VERSION 0.7
FIELDS x y z
SIZE 4 4 4
TYPE F F F
COUNT 1 1 1
WIDTH 1567
HEIGHT 1
VIEWPOINT 0 0 0 1 0 0 0
POINTS 1567
DATA ascii
5.7669411 2.8640847 8.6010017
7.0240593 3.4960248 8.5839005
7.7361703 3.8825035 8.5857859
9.4138737 4.7306275 8.5775175
8.5387449 4.270359 8.5842714
10.432819 5.2244201 8.579402
0.084551856 0.004360138 8.2789574
1.1789758 0.55297226 8.2786207
1.5592111 0.74337959 8.328042
2.4052527 1.1666009 8.593173
3.2281158 1.5795116 8.5260944
4.1695457 2.0508993 8.5827494
5.2113442 2.5723193 8.6081448
6.3762188 3.1555657 8.5943422
0.45834345 0.16862513 8.2855816
0.82661438 0.33971289 8.2922802
1.9761969 0.94795722 8.4761534
2.8200459 1.3689272 8.5787916
3.707659 1.8124996 8.5970631
4.6793451 2.2965579 8.5962772
5.7796068 2.8452678 8.6049919
7.0392594 3.4729848 8.587575
7.7528682 3.857064 8.5892897
9.4338131 4.6994739 8.5806561
8.5569439 4.2421856 8.5875969
10.454614 5.1897683 8.582345
0.084610164 0.0040634405 8.2839575
1.1801941 0.54852623 8.2736807
1.5608758 0.73749751 8.3231468
2.4093101 1.1581979 8.593173
3.2336097 1.5682337 8.5260944
4.1788316 2.0373819 8.5871382
5.2202911 2.5541124 8.6081448
6.3900728 3.1347013 8.5981798
0.45892927 0.16702418 8.2855816
0.82779515 0.3368254 8.2922802
1.9704114 0.93673676 8.437438
2.8248072 1.3590752 8.5787916
3.7159228 1.8004959 8.6015644
4.6873326 2.2802098 8.5962772
5.7895041 2.8250759 8.6049919
7.0543852 3.4498813 8.5912504
7.769484 3.8315554 8.5927944
9.45714 4.6699619 8.5869331
8.5784025 4.2155843 8.5942488
10.479918 5.1568122 8.5882311
0.084623836 0.0037680711 8.2839575
1.1813958 0.54407847 8.2687416
1.5643629 0.73247617 8.328042
2.4133384 1.1497809 8.593173
3.239064 1.5569369 8.5260944
4.1859179 2.0227826 8.5871382
5.2317066 2.5371025 8.612277
6.4038587 3.1137781 8.6020174
0.45950952 0.1654212 8.2855816
0.82896584 0.33393377 8.2922802
1.9691207 0.92771059 8.4180794
2.8310916 1.3499491 8.5834846
3.7221849 1.7875139 8.6015644
4.6976123 2.2649665 8.6005421
5.8020425 2.8061616 8.6089821
7.0694356 3.4267147 8.5949249
7.7860146 3.8059773 8.5962992
9.4768801 4.6386333 8.5900717
8.5964222 4.1872492 8.5975742
10.501488 5.1219707 8.5911741
0.084636472 0.0034726551 8.2839575
1.1832877 0.53995126 8.2687416
1.5669101 0.72701108 8.328042
2.4173372 1.1413497 8.593173
3.2444792 1.5456209 8.5260944
4.1951127 2.0091929 8.591527
5.2430673 2.5200438 8.6164103
6.4175763 3.092797 8.605855
0.46008414 0.1638162 8.2855816
0.83012646 0.33103812 8.2922802
1.966652 0.91817343 8.3938828
2.8357866 1.3400584 8.5834846
3.7284019 1.77451 8.6015644
4.7054901 2.2485549 8.6005421
5.8145199 2.787194 8.6129723
7.0813537 3.4020169 8.5949249
7.8024616 3.7803309 8.599803
9.5000181 4.6089225 8.5963488
8.6143484 4.1588397 8.6008997
10.519302 5.0852823 8.5911741
0.08464808 0.0031771972 8.2839575
1.1858735 0.53613746 8.2736807
1.5703635 0.72196221 8.3329372
2.4213066 1.1329046 8.593173
3.2498546 1.5342861 8.5260944
4.2021008 1.994537 8.591527
5.2543726 2.5029371 8.6205435
6.4312243 3.0717578 8.6096916
0.46065319 0.16220921 8.2855816
0.83127695 0.32813841 8.2922802
1.9675634 0.91024768 8.3842039
2.8404469 1.3301516 8.5834846
3.736542 1.7624133 8.6060658
4.7156677 2.2332323 8.6048079
5.824213 2.7668805 8.6129723
7.0962467 3.3787348 8.5986004
7.8220391 3.7561595 8.6068125
9.519556 4.5774193 8.5994873
8.6321812 4.1303558 8.6042252
10.540635 5.0502791 8.5941172
0.084658653 0.0028817013 8.2839575
1.1877377 0.5319947 8.2736807
1.5728741 0.71647626 8.3329372
2.4266007 1.1250737 8.5979452
3.2569604 1.5237607 8.5306969
4.2112045 1.9808762 8.5959158
5.2656221 2.4857819 8.6246758
6.4448051 3.0506613 8.6135292
0.46121657 0.16060024 8.2855816
0.83241731 0.32523471 8.2922802
1.9673007 0.90180314 8.3696861
2.8450727 1.3202285 8.5834846
3.7426713 1.7493596 8.6060658
4.7257953 2.2178662 8.6090746
5.8365622 2.7478168 8.6169615
7.1110635 3.3553905 8.6022758
7.8383241 3.7303653 8.6103172
9.5425043 4.5475111 8.6057644
8.6499195 4.101799 8.6075497
10.550897 5.0099874 8.5882311
0.084668197 0.0025861701 8.2839575
1.1902978 0.52816039 8.2786207
1.5762937 0.71140027 8.3378325
2.4305131 1.1165963 8.5979452
3.2622592 1.5123824 8.5306969
4.2180939 1.9661644 8.5959158
5.2768164 2.4685788 8.628809
6.4554148 3.0281463 8.6135292
0.46150106 0.1588963 8.2805901
0.83354747 0.32232708 8.2922802
1.9670029 0.89337146 8.3551674
2.849664 1.3102894 8.5834846
3.7507303 1.7371993 8.6105671
4.7358732 2.202456 8.6133404
5.8488488 2.7287004 8.6209517
7.1258039 3.331984 8.6059513
7.8545232 3.7045033 8.613822
9.5653591 4.5174985 8.6120415
8.6675634 4.0731678 8.6108751
10.571978 4.9748478 8.5911741
0.084676705 0.002290607 8.2839575
1.1928456 0.5243147 8.2835598
1.5787673 0.70589364 8.3378325
2.4357545 1.1087238 8.6027174
3.269294 1.5018013 8.5352993
4.2271056 1.9524328 8.6003056
5.2854009 2.4501443 8.628809
6.468852 3.0069451 8.6173668
0.46205291 0.15728438 8.2805901
0.83466756 0.31941548 8.2922802
1.9678168 0.8854686 8.3454885
2.8557909 1.3010495 8.5881777
3.7547929 1.7231883 8.6060658
4.7459011 2.1870029 8.6176062
5.8583379 2.7082675 8.6209517
7.1404676 3.3085151 8.6096268
7.8674064 3.6770632 8.613822
9.5845947 4.4857311 8.61518
8.6851139 4.0444636 8.6142015
10.581952 4.9344978 8.585288
0.084684186 0.0019950164 8.2839575
1.1946685 0.52014768 8.2835598
1.5812217 0.70037842 8.3378325
2.43961 1.1002146 8.6027174
3.2762945 1.4911892 8.5399027
4.2338948 1.9376656 8.6003056
5.2964787 2.4328544 8.6329422
6.4822202 2.9856873 8.6212044
0.46259913 0.15567055 8.2805901
0.83577746 0.31650001 8.2922802
1.9674513 0.87705928 8.3309708
2.8603148 1.291073 8.5881777
3.7508764 1.705566 8.583559
4.7558784 2.1715064 8.6218719
5.8704958 2.6890564 8.6249418
7.1550536 3.2849846 8.6133013
7.8866663 3.6525757 8.6208315
9.6072559 4.455523 8.6214571
8.7059603 4.0172515 8.6208525
10.577097 4.8873572 8.5676289
0.084690638 0.0016994009 8.2839575
1.1971905 0.51628184 8.2884989
1.5836569 0.69485468 8.3378325
2.4434354 1.0916921 8.6027174
3.2814798 1.4797438 8.5399027
4.2428141 1.9238635 8.6046944
5.3049388 2.4143515 8.6329422
6.4926028 2.9630418 8.6212044
0.46313971 0.15405484 8.2805901
0.83687711 0.31358066 8.2922802
1.9682012 0.86917102 8.3212919
2.8648043 1.2810808 8.5881777
4.7634296 2.154892 8.6218719
5.8825908 2.6697936 8.628932
7.1695623 3.2613924 8.6169758
7.9026089 3.6265111 8.6243353
9.6262875 4.4235854 8.6245956
8.7233248 3.98839 8.6241779
0.084696047 0.0014037656 8.2839575
1.1989853 0.51209974 8.2884989
1.5851387 0.68891668 8.3329372
2.4485962 1.0837603 8.6074896
3.2884085 1.469077 8.5445042
4.2495036 1.9090416 8.6046944
5.3158994 2.3969755 8.6370754
6.505827 2.9416809 8.625042
0.4639492 0.15252645 8.2855816
0.83796662 0.3106575 8.2922802
1.9723747 0.86279905 8.3261309
2.8692584 1.2710729 8.5881777
4.7709227 2.1382515 8.6218719
5.8946223 2.6504788 8.6329222
7.1839938 3.2377388 8.6206512
7.9184666 3.6003802 8.62784
9.6452131 4.3915691 8.6277332
8.7439957 3.9609969 8.6308289
0.084743962 0.0011050615 8.2889576
1.2007656 0.50791138 8.2884989
1.5875338 0.68337929 8.3329372
2.4523644 1.0752065 8.6074896
3.2935164 1.4575893 8.5445042
4.2583299 1.8951703 8.6090832
5.3268032 2.3795528 8.6412086
6.5189805 2.9202638 8.6288795
0.46447879 0.15090604 8.2855816
0.83904594 0.30773056 8.2922802
1.9753745 0.85590893 8.3261309
2.875258 1.2617428 8.5928698
4.7783575 2.1215849 8.6218719
5.9065909 2.6311128 8.6369123
7.1983476 3.2140248 8.6243267
7.934237 3.5741823 8.6313438
9.6675797 4.3610754 8.6340103
8.7611761 3.9319797 8.6341543
0.0847473 0.00080924301 8.2889576
1.2025312 0.50371683 8.2884989
1.5899097 0.67783368 8.3329372
2.4561028 1.0666397 8.6074896
3.2985842 1.4460839 8.5445042
4.2649193 1.8802944 8.6090832
5.3350773 2.3609443 8.6412086
6.5291348 2.8974907 8.6288795
0.46527788 0.14937107 8.2905731
0.84011501 0.30479988 8.2922802
1.97835 0.84900832 8.3261309
2.8796446 1.2516987 8.5928698
3.7503951 1.6425501 8.5295448
4.7857342 2.1048925 8.6218719
5.9157391 2.6104789 8.6369123
7.2126231 3.1902494 8.6280022
7.9499211 3.5479178 8.6348486
9.6862974 4.3288908 8.6371489
8.7782583 3.9028897 8.6374798
0.084749609 0.00051341503 8.2889576
1.2042822 0.49951613 8.2884989
1.5922661 0.67227972 8.3329372
2.459811 1.0580598 8.6074896
3.3054042 1.4353391 8.5491066
4.2736521 1.8663541 8.6134729
5.343286 2.3423071 8.6412086
6.5421433 2.8759718 8.6327171
0.46579644 0.14774604 8.2905731
0.84117383 0.30186549 8.2922802
1.9824585 0.84258896 8.3309708
2.8855815 1.2423215 8.5975618
3.7561059 1.6294488 8.5295448
4.7930522 2.0881743 8.6218719
5.9275765 2.5910201 8.6409025
7.2268205 3.1664135 8.6316767
7.9655194 3.5215881 8.6383533
9.7084665 4.2982044 8.6434259
8.7952461 3.873729 8.6408052
0.084707394 0.00022108681 8.2839575
1.2060184 0.49530932 8.2884989
1.5946031 0.66671753 8.3329372
2.4634893 1.049467 8.6074896
3.3103943 1.4237924 8.5491066
4.2823386 1.8523757 8.6178617
5.3540101 2.3247619 8.6453409
6.5521421 2.8531182 8.6327171
0.46630937 0.14611921 8.2905731
0.84222239 0.2989274 8.2922802
1.9853876 0.83566374 8.3309708
2.8899004 1.2322414 8.5975618
3.7677712 1.6189055 8.5430489
4.8027072 2.072464 8.6261387
5.9365849 2.5703132 8.6409025
7.2409396 3.1425178 8.6353521
7.98103 3.4951921 8.6418581
9.7269754 4.2658525 8.6465645
8.8121367 3.8444977 8.6441307
0.084707655 -7.4598225e-05 8.2839575
1.2077401 0.49109653 8.2884989
1.5969206 0.66114724 8.3329372
2.4671376 1.0408614 8.6074896
3.3153441 1.4122282 8.5491066
4.2887788 1.8374163 8.6178617
5.3646779 2.3071704 8.6494732
6.5650058 2.8314989 8.6365547
0.46681657 0.1444906 8.2905731
0.84326071 0.29598567 8.2922802
1.9882925 0.82872838 8.3309708
2.8957739 1.2228174 8.6022549
3.7633834 1.6014819 8.5205421
4.8099122 2.0556867 8.6261387
5.9455204 2.5495751 8.6409025
7.2549796 3.118562 8.6390276
7.9997258 3.4701505 8.6488676
9.7489471 4.2349744 8.6528406
8.8289309 3.8151951 8.6474562
0.084706873 -0.00037028294 8.2839575
1.209447 0.48687774 8.2884989
1.600161 0.65595508 8.3378325
2.4707561 1.0322431 8.6074896
3.3202536 1.4006469 8.5491066
4.2951665 1.8224344 8.6178617
5.3726983 2.2884302 8.6494732
6.577796 2.8098242 8.6403913
0.4670417 0.14277677 8.2855816
0.84428877 0.29304034 8.2922802
1.9923351 0.82226229 8.3358097
2.9000247 1.2127018 8.6022549
3.7749691 1.5908716 8.5340462
4.8194599 2.039901 8.6304045
5.9543843 2.5288057 8.6409025
7.2689409 3.0945463 8.6427031
8.0150671 3.4436128 8.6523724
9.7672453 4.202457 8.6559792
8.8490591 3.7872913 8.6541071
0.084705062 -0.00066596275 8.2839575
1.2111391 0.48265302 8.2884989
1.6024408 0.65036547 8.3378325
2.474344 1.0236123 8.6074896
3.3251226 1.3890485 8.5491066
4.3015018 1.8074305 8.6178617
5.3832469 2.2707558 8.6536064
6.587564 2.7868464 8.6403913
0.46753725 0.14114563 8.2855816
0.84530652 0.29009143 8.2922802
1.9951931 0.81530273 8.3358097
2.9042401 1.2025715 8.6022549
3.7825086 1.5785233 8.5385475
4.8289566 2.0240738 8.6346703
5.9659524 2.5091739 8.6448927
7.2796984 3.0691543 8.6427031
8.0303202 3.4170105 8.6558771
9.7890177 4.1713891 8.6622562
8.8656635 3.7578366 8.6574326
0.084702224 -0.00096163451 8.2839575
1.2128165 0.4784224 8.2884989
1.6047014 0.64476788 8.3378325
2.4779022 1.014969 8.6074896
3.3299508 1.3774332 8.5491066
4.3099961 1.7933245 8.6222515
5.3911405 2.2519507 8.6536064
6.6002083 2.7650728 8.6442289
0.46775013 0.13943125 8.2805901
0.84681904 0.28730965 8.2972517
1.998027 0.80833328 8.3358097
2.9100168 1.193081 8.6069479
3.7900076 1.5661415 8.5430489
4.8384008 2.0082047 8.638936
5.9746747 2.4883335 8.6448927
7.2934947 3.0450304 8.6463776
8.0421991 3.3889587 8.6558771
9.8071051 4.1387072 8.6653948
8.8856115 3.7297564 8.6640835
0.084698349 -0.0012572946 8.2839575
1.2144791 0.47418597 8.2884989
1.6059959 0.63878632 8.3329372
2.4828131 1.0068742 8.6122618
3.3347387 1.3658011 8.5491066
4.3162293 1.7782687 8.6222515
5.4015689 2.234194 8.6577396
6.6127806 2.7432451 8.6480665
0.46795675 0.1377171 8.2755985
0.84781677 0.28435194 8.2972517
2.0008364 0.80135387 8.3358097
2.9141638 1.1829159 8.6069479
3.7974658 1.5537266 8.5475492
4.8477936 1.9922947 8.6432018
5.9861102 2.4686115 8.6488819
7.3040795 3.0195527 8.6463776
8.0572701 3.3622389 8.6593809
9.8286743 4.10745 8.6716719
8.9020243 3.7001503 8.6674089
0.084736854 -0.001557356 8.2889576
1.216127 0.46994376 8.2884989
1.6082159 0.63317645 8.3329372
2.4863129 0.99820137 8.6122618
3.3412964 1.3548865 8.553709
4.3224106 1.7631916 8.6222515
5.4119391 2.2163918 8.6618729
6.6252809 2.7213633 8.6519041
0.46843463 0.13608278 8.2755985
0.84880418 0.28139079 8.2972517
2.0036213 0.79436481 8.3358097
2.9182751 1.1727363 8.6069479
3.8048837 1.5412786 8.5520506
4.8547187 1.9753606 8.6432018
5.9974799 2.4488399 8.6528721
7.3177128 2.9953225 8.650053
8.0722532 3.3354549 8.6628857
9.846549 4.074605 8.6748104
8.921792 3.6718962 8.6740599
0.084730901 -0.0018531327 8.2889576
1.21776 0.46569583 8.2884989
1.6104164 0.62755889 8.3329372
2.4911687 0.99006754 8.617033
3.3460054 1.3432149 8.553709
4.3285389 1.7480927 8.6222515
5.4222503 2.1985445 8.6660061
6.6377091 2.6994278 8.6557417
0.46890682 0.13444681 8.2755985
0.84978127 0.27842617 8.2972517
2.0063822 0.78736603 8.3358097
2.9223509 1.1625426 8.6069479
3.8122613 1.5287981 8.5565519
4.8640037 1.9593768 8.6474676
6.0087852 2.4290192 8.6568623
7.3312664 2.971034 8.6537275
8.0904484 3.3099577 8.6698942
9.8679152 4.0431604 8.6810865
8.9380131 3.6421399 8.6773863
0.084727541 -0.0020010138 8.2889576
1.2185708 0.46356973 8.2884989
1.6114001 0.62502849 8.3329372
2.4927208 0.98615313 8.617033
3.3478777 1.3385416 8.553709
4.3376412 1.7447282 8.6354179
5.4275417 2.1929727 8.6701384
6.6439729 2.6925201 8.6595793
0.46930182 0.13411593 8.2805901
0.85002387 0.27768451 8.2972517
2.0069313 0.78596509 8.3358097
2.923162 1.1605021 8.6069479
3.8150823 1.5276108 8.5610533
4.8674483 1.957803 8.6517334
6.0124269 2.4280498 8.6608524
7.3354454 2.9697471 8.657403
8.0995169 3.2971771 8.673399
9.8814621 4.0305953 8.6873636
8.9481068 3.6371508 8.6840372
0.084763408 -0.0023015516 8.2939577
1.220909 0.45958683 8.2934389
1.6136801 0.61911821 8.3329372
2.4977088 0.9775542 8.6218052
3.3529928 1.3256768 8.553709
4.330956 1.7227491 8.6090832
5.4389143 2.1722112 8.6742716
6.6577029 2.6670198 8.6634169
0.47016072 0.13214409 8.2855816
0.8512274 0.27397293 8.2972517
2.0104773 0.77684987 8.3358097
2.9283981 1.1472253 8.6069479
3.8222387 1.5096158 8.5610533
4.8766208 1.9348441 8.6517334
6.02702 2.3997536 8.6648417
7.3561673 2.9363775 8.6647539
8.1175919 3.2715504 8.6804085
9.8997784 3.9958079 8.6905022
8.9673567 3.5994635 8.6873627
0.084754862 -0.0025974172 8.2939577
1.2232339 0.45559317 8.298377
1.6158315 0.6134817 8.3329372
2.5011058 0.96882957 8.6218052
3.3594191 1.3146766 8.5583124
4.3258009 1.703234 8.5871382
5.4464636 2.1532123 8.6742716
6.6669722 2.6437638 8.6634169
0.47061914 0.13050213 8.2855816
0.85217857 0.27099994 8.2972517
2.0131767 0.76982725 8.3358097
2.9339938 1.1376201 8.6116409
3.8295126 1.4970572 8.5655546
4.8857722 1.9187632 8.6560001
6.0381637 2.3798056 8.6688318
7.3695259 2.9119277 8.6684294
8.1322756 3.2445164 8.6839132
9.9208946 3.9641154 8.6967793
8.9833355 3.5695181 8.6906872
0.08474528 -0.0028932514 8.2939577
1.2255459 0.45158893 8.3033161
1.6170099 0.60747969 8.328042
2.5044725 0.9600932 8.6218052
3.3639879 1.302942 8.5583124
5.4565673 2.1352131 8.6784048
6.6791434 2.6216466 8.6672544
0.47107178 0.12885857 8.2855816
0.85311937 0.26802364 8.2972517
2.0158517 0.76279527 8.3358097
2.937947 1.1273715 8.6116409
3.8347151 1.4836805 8.5655546
4.8948712 1.9026415 8.6602659
6.0492411 2.3598089 8.672822
7.382803 2.8874204 8.6721039
8.1468678 3.2174196 8.687417
9.9382915 3.930892 8.6999178
8.9992151 3.5395055 8.6940126
0.084734663 -0.0031890501 8.2939577
1.2293053 0.4481059 8.3181343
1.6191205 0.60183156 8.328042
2.5078084 0.95134515 8.6218052
3.3703396 1.2918907 8.5629148
5.4639874 2.116153 8.6784048
6.6912417 2.5994771 8.671092
0.47151873 0.12721343 8.2855816
0.85404974 0.26504403 8.2972517
2.018502 0.75575399 8.3358097
2.9418643 1.1171094 8.6116409
3.8419037 1.4710642 8.570056
4.9039168 1.8864802 8.6645317
6.0602527 2.3397641 8.6768122
7.395999 2.8628557 8.6757793
8.1613703 3.1902604 8.6909218
9.9592009 3.8990147 8.7061949
9.0149956 3.5094252 8.6973391
0.084679708 -0.0034794081 8.2889576
1.2301308 0.4435488 8.3131952
1.6202557 0.59582484 8.3231468
2.5111141 0.94258553 8.6218052
3.3766553 1.2808111 8.5675173
4.3389244 1.6561338 8.5783606
5.4713407 2.0970674 8.6784048
6.7002749 2.5761044 8.671092
0.47168064 0.1254935 8.2805901
0.85496974 0.26206124 8.2972517
2.0223064 0.74913996 8.3406487
2.9473612 1.1074405 8.616334
3.8470151 1.4576445 8.570056
4.9129095 1.8702785 8.6687975
6.0711985 2.3196712 8.6808023
7.4059467 2.8370216 8.6757793
8.1757832 3.1630392 8.6944265
9.9763794 3.8656332 8.7093334
9.030674 3.4792778 8.7006645
0.084667049 -0.0037749743 8.2889576
1.2316716 0.43925211 8.3131952
1.6213686 0.58981758 8.3182516
2.514389 0.93381429 8.6218052
3.3811057 1.2690165 8.5675173
4.3401976 1.6392854 8.569582
5.4812579 2.0789537 8.6825371
6.7122221 2.5538399 8.6749296
0.47211587 0.12384625 8.2805901
0.85587925 0.25907525 8.2972517
2.0249093 0.74207628 8.3406487
2.9512091 1.0971454 8.616334
3.8500416 1.4434429 8.5655546
4.9242887 1.8549565 8.6773291
6.0820765 2.29953 8.6847916
7.4189739 2.8123541 8.6794538
8.1901045 3.1357563 8.6979313
9.9970808 3.8335733 8.7156105
9.0497427 3.4503942 8.7073154
0.084610097 -0.0040647923 8.2839575
1.2317317 0.43443361 8.3033161
1.6224595 0.58380979 8.3133564
2.5176334 0.92503178 8.6218052
3.3855147 1.2572064 8.5675173
4.3503804 1.6258022 8.5783606
5.4884815 2.059808 8.6825371
6.7240953 2.5315237 8.6787672
0.4725453 0.12219751 8.2805901
0.85677844 0.25608608 8.2972517
2.0286689 0.73543173 8.3454885
2.9550207 1.0868372 8.616334
3.8550568 1.4299949 8.5655546
4.9356217 1.8395778 8.6858616
6.090066 2.2782855 8.6847916
7.4319201 2.7876303 8.6831293
8.2043362 3.108412 8.7014351
10.014041 3.8000345 8.718749
9.0652256 3.4201016 8.7106409
0.084595397 -0.0043601114 8.2839575
1.2332405 0.43013144 8.3033161
1.6235281 0.57780153 8.3084612
2.5208468 0.91623795 8.6218052
3.3917167 1.2460549 8.5721197
4.3537827 1.609776 8.5739708
5.4956384 2.0406368 8.6825371
6.7328911 2.5080369 8.6787672
0.47296897 0.12054726 8.2805901
0.85766709 0.25309381 8.2972517
2.0312238 0.72834587 8.3454885
2.9604185 1.0771055 8.621027
3.8579807 1.4157796 8.5610533
4.9444599 1.8232404 8.6901274
6.1008072 2.258059 8.6887817
7.4416056 2.7616711 8.6831293
8.2184753 3.0810063 8.7049398
10.034533 3.767792 8.7250261
9.0806065 3.3897431 8.7139664
0.084622882 -0.0046613826 8.2889576
1.2347344 0.42582402 8.3033161
1.6245749 0.57179302 8.303566
2.5240297 0.90743297 8.6218052
3.3960454 1.234208 8.5721197
4.3616247 1.5953914 8.5783606
5.502728 2.0214412 8.6825371
6.7446122 2.4856277 8.6826048
0.47338685 0.11889557 8.2805901
0.85854536 0.25009847 8.2972517
2.0337536 0.72125113 8.3454885
2.9641602 1.0667652 8.621027
3.8608532 1.4015614 8.5565519
4.9532447 1.8068637 8.6943932
6.1086526 2.2367496 8.6887817
7.4543829 2.7368469 8.6868048
8.2325239 3.05354 8.7084446
10.051272 3.7340977 8.7281647
9.0958853 3.3593185 8.7172918
0.084606089 -0.0049567432 8.2889576
1.2362134 0.42151135 8.3033161
1.6255991 0.56578422 8.2986708
2.5271819 0.89861691 8.6218052
3.4021714 1.2230068 8.5767221
4.367167 1.5801568 8.5783606
5.5123959 2.0031819 8.6866703
6.7562594 2.4631674 8.6864424
0.47379899 0.11724242 8.2805901
0.85992557 0.24724673 8.3022232
2.0374451 0.71456349 8.3503275
2.9678659 1.0564119 8.621027
3.8616242 1.3866047 8.5475492
4.9644279 1.7913328 8.7029257
6.1192565 2.216439 8.6927719
7.4670773 2.7119668 8.6904793
8.2464809 3.0260131 8.7119493
10.071552 3.7016747 8.7344408
9.1145697 3.3301101 8.7239428
0.084588274 -0.0052520428 8.2889576
1.2376771 0.41719362 8.3033161
1.6275642 0.56010634 8.2986708
2.5303032 0.88978994 8.6218052
3.4082606 1.211778 8.5813255
4.3749113 1.5657098 8.5827494
5.5193543 1.983928 8.6866703
6.7648158 2.4395685 8.6864424
0.47448608 0.11565523 8.2855816
0.8607834 0.24424352 8.3022232
2.039927 0.70744711 8.3503275
2.9731631 1.0466186 8.6257191
3.8643894 1.3723882 8.5430489
4.9706507 1.7739929 8.7029257
6.1297927 2.1960816 8.6967621
7.4796891 2.6870315 8.6941547
8.2603455 2.9984257 8.7154541
10.088069 3.6678257 8.7375793
9.1296501 3.2995431 8.7272682
0.084612586 -0.0055537368 8.2939577
1.239126 0.41287076 8.3033161
1.6295094 0.55442166 8.2986708
2.5333939 0.88095206 8.6218052
3.4124699 1.1998736 8.5813255
4.3803501 1.5504291 8.5827494
5.5288978 1.9655923 8.6908035
6.7763095 2.417017 8.69028
0.47488689 0.11399826 8.2855816
0.86163074 0.24123733 8.3022232
2.0423841 0.70032215 8.3503275
2.9767983 1.0362339 8.6257191
3.8671029 1.3581693 8.5385475
4.9817309 1.7583672 8.7114563
6.1402607 2.1756775 8.7007523
7.492218 2.6620412 8.6978302
8.2741175 2.9707785 8.7189579
10.104474 3.6339068 8.7407179
9.1446276 3.2689114 8.7305937
0.084549546 -0.0058424477 8.2889576
1.2405596 0.4085429 8.3033161
1.6314348 0.54873025 8.2986708
2.5364535 0.87210351 8.6218052
3.4184821 1.1885959 8.585927
4.3879957 1.5359205 8.5871382
5.5357251 1.9462808 8.6908035
6.7877278 2.3944147 8.6941175
0.47528195 0.1123399 8.2855816
0.86246753 0.23822822 8.3022232
2.0448163 0.69318861 8.3503275
2.9803975 1.0258366 8.6257191
3.8697631 1.3439481 8.5340462
4.9829144 1.7392483 8.7029257
6.1478186 2.1542308 8.7007523
7.5046625 2.636996 8.7015057
8.2877979 2.9430718 8.7224627
10.124432 3.6012223 8.746995
9.1630239 3.23946 8.7372446
0.08452864 -0.0061375457 8.2889576
1.241978 0.40421006 8.3033161
1.6333402 0.54303211 8.2986708
2.5394821 0.86324435 8.6218052
3.4226103 1.1766559 8.585927
4.3933301 1.5205941 8.5871382
5.5451431 1.9278697 8.6949358
6.7990713 2.3717623 8.6979551
0.4759526 0.11074463 8.2905731
0.86329389 0.23521619 8.3022232
2.0472233 0.68604666 8.3503275
2.9839602 1.0154269 8.6257191
3.8744309 1.3304319 8.5340462
6.1581478 2.1337445 8.7047424
7.517024 2.6118965 8.7051811
8.3013849 2.9153056 8.7259674
10.140613 3.5671511 8.7501335
9.1778002 3.2086875 8.7405701
0.084506698 -0.0064325682 8.2889576
1.2433814 0.39987227 8.3033161
1.6352259 0.53732741 8.2986708
2.54248 0.85437465 8.6218052
3.4266968 1.1647016 8.585927
4.400877 1.5060245 8.591527
5.5545001 1.9094166 8.699069
6.8073087 2.3480146 8.6979551
0.47633624 0.10908256 8.2905731
0.86410964 0.23220129 8.3022232
2.0496056 0.67889631 8.3503275
2.9874864 1.0050046 8.6257191
3.8769903 1.3161999 8.5295448
6.1655588 2.1122355 8.7047424
7.5293016 2.5867426 8.7088556
8.3148794 2.8874807 8.7294722
10.160355 3.5342894 8.7564096
9.1924744 3.1778514 8.7438965
0.084440671 -0.0067204535 8.2839575
1.2447697 0.39552963 8.3033161
1.6380601 0.53193045 8.303566
2.5468636 0.84596497 8.6265764
3.4307413 1.1527332 8.585927
4.4083762 1.491421 8.5959158
5.5637956 1.8909216 8.7032022
6.8184967 2.3252728 8.7017927
0.4767141 0.10741917 8.2905731
0.86491489 0.22918355 8.3022232
2.0519631 0.67173773 8.3503275
2.9926138 0.99511468 8.6304121
3.8815608 1.3026586 8.5295448
6.1757483 2.0916674 8.7087326
7.5414953 2.5615351 8.7125301
8.3282814 2.8595965 8.7329769
10.17631 3.5000675 8.7595482
9.2070436 3.1469517 8.747221
0.084416702 -0.0070151659 8.2839575
1.2468842 0.39141464 8.3082561
1.6399069 0.52620929 8.303566
2.5498011 0.83706957 8.6265764
3.4365988 1.1413664 8.5905294
4.4135551 1.4760238 8.5959158
5.5703621 1.8714888 8.7032022
6.8296094 2.3024817 8.7056293
0.47708619 0.10575448 8.2905731
0.86570966 0.22616306 8.3022232
2.0542953 0.66457093 8.3503275
2.9960692 0.98466253 8.6304121
3.8840177 1.2884161 8.5250435
6.1858697 2.0710537 8.7127228
7.5536046 2.5362737 8.7162056
8.338212 2.830508 8.7329769
10.195836 3.4670305 8.7658253
9.221509 3.1159892 8.7505465
0.084434703 -0.0073171514 8.2889576
1.2482429 0.38705981 8.3082561
1.6417336 0.52048177 8.303566
2.5541272 0.82862455 8.6313486
3.4405618 1.1293634 8.5905294
4.4209547 1.4613602 8.6003056
5.5795321 1.8529202 8.7073355
6.8406453 2.2796412 8.7094669
0.47745243 0.10408849 8.2905731
0.8670103 0.2232721 8.3071947
2.0566025 0.65739608 8.3503275
2.9994881 0.97419822 8.6304121
3.8884916 1.2748505 8.5250435
4.9852624 1.6430402 8.6560001
6.1930609 2.0494487 8.7127228
7.565629 2.5109591 8.7198811
8.3514233 2.8025196 8.7364807
10.211566 3.4326594 8.7689638
9.2358713 3.084964 8.7538719
0.084408648 -0.0076118382 8.2889576
1.2495863 0.38270029 8.3082561
1.6435405 0.51474786 8.303566
2.5570042 0.81970394 8.6313486
3.444483 1.1173468 8.5905294
4.4260292 1.4459194 8.6003056
5.5886393 1.8343101 8.7114687
6.8516059 2.2567515 8.7133045
0.47781286 0.10242124 8.2905731
0.86778432 0.2202443 8.3071947
2.0588849 0.65021324 8.3503275
3.0045133 0.96424925 8.6351042
3.8887758 1.2599274 8.5160408
4.9810476 1.6223974 8.638936
6.2030406 2.0287547 8.716712
7.5775695 2.4855917 8.7235565
8.3611546 2.773351 8.7364807
10.22718 3.398221 8.7721024
9.2501297 3.0538769 8.7571974
0.084381565 -0.0079064341 8.2889576
1.2509147 0.37833607 8.3082561
1.6453273 0.50900769 8.303566
2.5612731 0.81122398 8.6361208
3.4483624 1.1053164 8.5905294
4.4310493 1.4304608 8.6003056
5.5976849 1.815659 8.715601
6.8624892 2.2338133 8.7171421
0.47816744 0.10075273 8.2905731
0.86854786 0.21721384 8.3071947
2.059942 0.64264816 8.3454885
3.0078609 0.95375574 8.6351042
3.9014435 1.2490002 8.5340462
4.9866805 1.6050005 8.638936
6.2100844 2.0070899 8.716712
7.5894246 2.4601712 8.727232
8.3741732 2.7452586 8.7399855
10.246376 3.3649297 8.7783794
9.2678328 3.0238853 8.7638493
0.084353447 -0.0082009314 8.2889576
1.2529724 0.37418941 8.3131952
1.647094 0.50326133 8.303566
2.5640891 0.80227858 8.6361208
3.4521997 1.0932727 8.5905294
4.4360156 1.4149849 8.6003056
5.606668 1.7969671 8.7197342
6.870245 2.2098451 8.7171421
0.47879913 0.099140562 8.2955656
0.86930078 0.21418071 8.3071947
2.0621727 0.63545376 8.3454885
3.0111718 0.94325054 8.6351042
3.9140821 1.2379997 8.5520506
4.9872823 1.5860035 8.6304045
6.219923 1.9863169 8.7207022
7.6011944 2.4346983 8.7309065
8.3870983 2.7171097 8.7434902
10.261761 3.330344 8.781518
9.2818851 2.992662 8.7671747
0.084281407 -0.0084873717 8.2839575
1.2542709 0.36981344 8.3131952
1.6488407 0.49750885 8.303566
2.566874 0.79332328 8.6361208
3.4559948 1.0812156 8.5905294
4.4432116 1.4002113 8.6046944
5.6129065 1.7773854 8.7197342
6.8809719 2.1868207 8.7209797
0.47914228 0.097468637 8.2955656
0.8700431 0.21114498 8.3071947
2.0643783 0.62825155 8.3454885
3.014446 0.93273383 8.6351042
3.9266913 1.2269263 8.570056
4.9952765 1.5693666 8.6346703
6.2268186 1.9645932 8.7207022
7.6128798 2.4091733 8.7345819
8.3999271 2.688904 8.746994
10.280735 3.2968805 8.7877941
9.2958317 2.9613771 8.7705002
0.08425127 -0.0087815169 8.2839575
1.2555541 0.36543298 8.3131952
1.651543 0.49204078 8.3084612
2.5696275 0.78435838 8.6361208
3.4616144 1.0697221 8.5951319
4.4503593 1.3854051 8.6090832
5.6029625 1.7527413 8.6949358
6.8916211 2.1637485 8.7248173
0.47976291 0.095851101 8.3005571
0.87129331 0.20822991 8.3121653
2.0665586 0.62104166 8.3454885
3.0193338 0.92271 8.6397972
3.9434309 1.2170635 8.5970631
5.0007238 1.5519203 8.6346703
6.2336383 1.9428456 8.7207022
7.6244774 2.3835959 8.7382565
8.4160633 2.6617172 8.7540035
10.295893 3.2621496 8.7909327
9.3132353 2.9311521 8.7771502
0.084220104 -0.009075555 8.2839575
1.2568221 0.36104807 8.3131952
1.6532506 0.48627284 8.3084612
2.5723498 0.77538401 8.6361208
3.4653275 1.0576322 8.5951319
4.4574575 1.3705658 8.6134729
5.6090465 1.7331725 8.6949358
6.9021935 2.1406286 8.7286549
0.48009455 0.09417583 8.3005571
0.87201488 0.20518725 8.3121653
2.0675089 0.61346686 8.3406487
3.0225363 0.91216499 8.6397972
3.9476552 1.2032911 8.5970631
5.0061107 1.5344551 8.6346703
6.2432628 1.9219609 8.7246923
7.6359906 2.3579674 8.7419319
8.4287071 2.6333871 8.7575083
10.310931 3.2273531 8.7940712
9.3305426 2.9008424 8.783802
0.08418791 -0.0093694832 8.2839575
1.2580748 0.3566587 8.3131952
1.6549379 0.48049894 8.3084612
2.5750408 0.76640004 8.6361208
3.4708688 1.0460933 8.5997343
4.4645066 1.3556939 8.6178617
6.9126887 2.1174612 8.7324924
0.48042038 0.09249942 8.3005571
0.87272578 0.2021421 8.3121653
2.0696375 0.60624617 8.3406487
3.0257018 0.90160882 8.6397972
3.9518316 1.1895037 8.5970631
5.0114365 1.5169711 8.6346703
6.2528162 1.9010327 8.7286825
7.647418 2.3322875 8.7456074
8.444663 2.6060524 8.7645178
10.329572 3.1936407 8.8003483
9.3441801 2.8693509 8.7871275
0.084154695 -0.0096632969 8.2839575
1.2600603 0.35247415 8.3181343
1.6575838 0.47499952 8.3133564
2.5777004 0.75740683 8.6361208
3.4744992 1.0339713 8.5997343
4.4715056 1.3407894 8.6222515
6.9231052 2.0942464 8.7363291
0.48074034 0.090821877 8.3005571
0.87342608 0.19909449 8.3121653
2.0693262 0.59832013 8.3309708
3.0288308 0.89104158 8.6397972
3.9476128 1.1732217 8.5790586
5.0191994 1.5002153 8.638936
6.2651863 1.8809276 8.7366629
7.6587591 2.3065562 8.7492819
8.4571199 2.5775988 8.7680216
10.344379 3.1587014 8.8034868
9.3577118 2.8377998 8.790453
0.084120445 -0.0099569932 8.2839575
1.261283 0.34807354 8.3181343
1.6592318 0.46921059 8.3133564
2.5803285 0.74840438 8.6361208
3.4799616 1.0223874 8.6043377
4.4761586 1.3251729 8.6222515
6.9334445 2.0709848 8.7401667
0.4810544 0.089143232 8.3005571
0.87411577 0.19604446 8.3121653
2.0701933 0.59074837 8.3261309
3.0319226 0.88046354 8.6397972
3.9495952 1.1588221 8.5745573
5.0244055 1.482686 8.638936
6.2803802 1.8616152 8.7486324
7.670013 2.2807744 8.7529573
8.4694815 2.5490901 8.7715263
10.362795 3.1248209 8.8097639
9.3747149 2.8072603 8.7971039
0.084085181 -0.010250567 8.2839575
1.2624904 0.34366876 8.3181343
1.6608596 0.46341589 8.3133564
2.5829251 0.73939282 8.6361208
3.4835093 1.0102339 8.6043377
4.4807572 1.30954 8.6222515
5.6110992 1.6483444 8.6618729
6.943706 2.0476763 8.7440042
0.48136264 0.087463491 8.3005571
0.87479472 0.19299202 8.3121653
2.071033 0.58317792 8.3212919
3.0366364 0.87035024 8.6444902
3.9494343 1.1438173 8.5655546
5.0320544 1.4658679 8.6432018
6.2926245 1.8413738 8.7566128
7.6811805 2.2549422 8.7566328
8.4817457 2.5205264 8.7750311
10.3811 3.0908501 8.816041
9.3880377 2.7755778 8.8004293
0.08404889 -0.010544016 8.2839575
1.2636824 0.33925971 8.3181343
1.662467 0.45761558 8.3133564
2.5854902 0.73037219 8.6361208
3.4870145 0.99806803 8.6043377
4.485301 1.2938913 8.6222515
5.611414 1.6271807 8.6536064
6.9538889 2.0243218 8.7478418
0.48138064 0.085733056 8.2955656
0.87598419 0.19004963 8.3171368
2.0718448 0.57560873 8.316452
3.0396562 0.85974509 8.6444902
3.9554956 1.1306223 8.570056
5.0371408 1.4482938 8.6432018
6.313489 1.823578 8.7765627
7.6922617 2.2290597 8.7603083
8.4973364 2.4929121 8.7820396
10.39556 3.0556922 8.8191795
9.4012518 2.7438362 8.8037548
0.08401157 -0.010837338 8.2839575
1.2641077 0.33464798 8.3131952
1.6640543 0.45180973 8.3133564
2.589462 0.72174335 8.640893
3.4904771 0.98588997 8.6043377
4.4920926 1.2788823 8.6266394
5.6251755 1.609906 8.6660061
6.9609127 2.0000358 8.7478418
0.48167697 0.084052198 8.2955656
0.87664223 0.18699072 8.3171368
2.0738416 0.5683732 8.316452
3.0426385 0.84912944 8.6444902
3.9636087 1.11799 8.5790586
5.0446744 1.4314138 8.6474676
6.3198161 1.8015286 8.7765627
7.7032552 2.2031271 8.7639837
8.5094118 2.4642274 8.7855444
10.41364 3.0215554 8.8254566
9.4107733 2.7110031 8.8037548
0.083973229 -0.011130528 8.2839575
1.2652681 0.3302334 8.3131952
1.6656212 0.44599834 8.3133564
2.5919657 0.71270007 8.640893
3.4920154 0.97317553 8.5997343
4.4965296 1.2631942 8.6266394
5.6280527 1.5894958 8.6618729
6.9709353 1.9765998 8.7516794
0.48196742 0.082370318 8.2955656
0.87728959 0.18392953 8.3171368
2.0758128 0.56113064 8.316452
3.0455842 0.83850354 8.6444902
3.9695842 1.1047312 8.583559
5.0496402 1.4137959 8.6474676
6.3289666 1.7802732 8.7805529
7.7141614 2.1771452 8.7676582
8.5213909 2.4354892 8.7890491
10.427866 2.9862585 8.8285952
9.4237709 2.679158 8.8070803
0.08393386 -0.01142358 8.2839575
1.2664131 0.32581475 8.3131952
1.6671679 0.44018152 8.3133564
2.5958784 0.70403868 8.6456652
3.4953911 0.96098024 8.5997343
4.5032196 1.2481303 8.6310282
5.6389885 1.5713512 8.6701384
6.9808793 1.9531184 8.755517
0.482252 0.080687441 8.2955656
0.87844855 0.18097301 8.3221083
2.0789735 0.55420494 8.3212919
3.0501578 0.82831949 8.6491833
3.9755154 1.0914443 8.5880604
5.0570588 1.3968552 8.6517334
6.3206244 1.7541412 8.760603
7.7282453 2.1520233 8.7750082
8.5332737 2.406697 8.7925539
10.441972 2.9508986 8.8317337
9.4366608 2.6472552 8.8104057
0.083893478 -0.011716495 8.2839575
1.2675427 0.32139215 8.3131952
1.6686943 0.43435937 8.3133564
2.59832 0.69497311 8.6456652
3.4949532 0.94775063 8.5905294
4.5098596 1.2330352 8.6354179
5.6471524 1.5524038 8.6742716
6.9907441 1.9295914 8.7593546
0.48253071 0.079003572 8.2955656
0.87907493 0.17790554 8.3221083
2.0808952 0.54694456 8.3212919
3.0530305 0.81766737 8.6491833
3.9835036 1.0786984 8.5970631
5.061904 1.3791943 8.6517334
6.3092713 1.7272937 8.7366629
7.7389793 2.1259317 8.7786837
8.5450573 2.377852 8.7960587
10.455957 2.9154766 8.8348713
9.4530401 2.6162906 8.8170567
0.083894596 -0.012019014 8.2889576
1.2686568 0.31696567 8.3131952
1.6702003 0.42853186 8.3133564
2.6007302 0.68589896 8.6456652
3.5095642 0.93857318 8.618145
4.5164485 1.2179089 8.6398067
5.6579685 1.5341548 8.6825371
7.0005298 1.9060196 8.7631922
0.48280358 0.077318743 8.2955656
0.87969053 0.17483592 8.3221083
2.0840087 0.53999269 8.3261309
3.0558662 0.80700529 8.6491833
3.9893482 1.0653485 8.6015644
5.0692062 1.3621935 8.6560001
7.7496257 2.099791 8.7823591
8.5567446 2.3489537 8.7995634
10.469823 2.879993 8.8380098
9.4657164 2.5842607 8.8203821
0.083852127 -0.012311787 8.2889576
1.2697555 0.31253529 8.3131952
1.6716859 0.42269915 8.3133564
2.6045532 0.67719215 8.6504374
3.5203753 0.9283089 8.6365547
4.5229864 1.2027515 8.6441965
5.666008 1.5151223 8.6866703
7.0102363 1.8824028 8.7670298
0.48307052 0.075632975 8.2955656
0.88029552 0.17176417 8.3221083
2.0858808 0.5327149 8.3261309
3.0586646 0.79633343 8.6491833
3.9951477 1.0519707 8.6060658
5.0764513 1.3451582 8.6602659
7.7569075 2.072727 8.7823591
8.5683336 2.3200028 8.8030672
10.487326 2.8454676 8.8442869
9.4818916 2.5531454 8.827034
0.083851106 -0.012614458 8.2939577
1.2715939 0.30828395 8.3181343
1.6741394 0.41710731 8.3182516
2.6069014 0.66809636 8.6504374
3.5330482 0.91847229 8.6595669
4.5341082 1.188778 8.6573639
5.6712623 1.495335 8.6866703
7.0167642 1.857921 8.7670298
0.48333156 0.073946282 8.2955656
0.88036603 0.16859071 8.3171368
2.0877278 0.5254305 8.3261309
3.063097 0.78608078 8.6538754
4.0009027 1.0385655 8.6105671
5.0836396 1.328089 8.6645317
7.767374 2.0465014 8.7860336
8.583271 2.2919195 8.8100758
10.500955 2.8098488 8.8474255
9.4943533 2.5209897 8.8303585
0.083806567 -0.012907077 8.2939577
1.2726623 0.30384338 8.3181343
1.6755853 0.41126093 8.3182516
2.6092174 0.65899253 8.6504374
3.5438032 0.90807348 8.6779776
4.5335917 1.1717453 8.6485853
5.6764474 1.4755296 8.6866703
7.0263081 1.8342259 8.7708673
0.48358676 0.072258689 8.2955656
0.88094914 0.16551663 8.3171368
2.0895491 0.51813978 8.3261309
3.0658226 0.77538377 8.6538754
4.0045033 1.0245935 8.6105671
5.0907698 1.310986 8.6687975
6.3036013 1.6314845 8.6967621
7.7777519 2.0202281 8.7897091
8.5946674 2.2628522 8.8135805
10.514462 2.7741694 8.850564
9.5103197 2.4897242 8.8370094
0.083760999 -0.013199537 8.2939577
1.2737151 0.29939911 8.3181343
1.6780002 0.40564862 8.3231468
2.6115019 0.64988065 8.6504374
3.5564222 0.89808899 8.7009897
4.5353336 1.1553217 8.6441965
5.6815634 1.455706 8.6866703
7.0326676 1.8096883 8.7708673
0.48383602 0.070570223 8.2955656
0.88152152 0.16244052 8.3171368
2.0913451 0.51084274 8.3261309
3.0685103 0.76467729 8.6538754
4.0101666 1.0111412 8.6150684
5.095315 1.293208 8.6687975
6.309258 1.6094708 8.6967621
7.7880406 1.9939073 8.7933846
8.6059666 2.2337334 8.8170853
10.527849 2.7384303 8.8537025
9.5225687 2.4574447 8.8403349
0.083714411 -0.013491836 8.2939577
1.2755096 0.29512611 8.3230743
1.679406 0.39978886 8.3231468
2.6137545 0.64076084 8.6504374
3.5595353 0.88566929 8.7009897
4.5300469 1.1371511 8.6266394
5.6893387 1.4365537 8.6908035
7.0451555 1.7867047 8.7785425
0.48407942 0.068880878 8.2955656
0.88208318 0.15936245 8.3171368
2.0931156 0.5035395 8.3261309
3.0728366 0.75437289 8.6585684
4.0136714 0.99713689 8.6150684
5.1023278 1.2760469 8.6730633
6.3206825 1.5889069 8.7047424
7.7982407 1.9675392 8.79706
8.6171656 2.2045631 8.82059
10.541114 2.702631 8.8568411
9.5383263 2.4260306 8.8469868
0.083666809 -0.013783972 8.2939577
1.2765319 0.29067194 8.3230743
1.6807913 0.39392418 8.3231468
2.6159751 0.63163328 8.6504374
3.560708 0.87277389 8.6963882
4.5270143 1.1196067 8.6134729
5.6943183 1.4166855 8.6908035
7.0606785 1.7644328 8.7900553
0.48431692 0.067190714 8.2955656
0.8826341 0.15628244 8.3171368
2.0948603 0.4962301 8.3261309
3.0754511 0.74364209 8.6585684
4.017128 0.9831205 8.6150684
5.106751 1.2582287 8.6730633
6.3261905 1.5668339 8.7047424
7.8083506 1.9411238 8.8007345
8.6282673 2.1753421 8.8240948
10.554258 2.6667728 8.8599796
9.5503588 2.3936286 8.8503122
0.083575904 -0.014065154 8.2889576
1.2782971 0.28638387 8.3280134
1.6821561 0.38805473 8.3231468
2.6181641 0.62249798 8.6504374
3.5618339 0.85988098 8.6917858
5.6992292 1.3967999 8.6908035
7.0792437 1.7428403 8.8054047
0.48454851 0.065499723 8.2955656
0.8831743 0.15320052 8.3171368
2.0965798 0.48891461 8.3261309
3.0797074 0.73330194 8.6632614
4.0247674 0.97011209 8.6240702
5.1111121 1.2403951 8.6730633
6.3286934 1.5440276 8.7007523
7.8183718 1.9146622 8.80441
8.6392698 2.1460705 8.8275995
10.563502 2.6299152 8.8599796
9.5659046 2.362067 8.8569622
0.083526298 -0.014356802 8.2889576
1.2792889 0.28192005 8.3280134
1.6835004 0.38218054 8.3231468
2.6217747 0.61369514 8.6552095
3.5648139 0.84744263 8.6917858
5.7068052 1.3775576 8.6949358
0.48506054 0.063844621 8.3005571
0.8842293 0.15020536 8.3221083
2.0994987 0.48187429 8.3309708
3.0822482 0.72254729 8.6632614
4.0196571 0.95404655 8.6060658
5.1154108 1.2225463 8.6730633
6.3340445 1.521927 8.7007523
7.8315988 1.8889493 8.8117599
8.653635 2.1175959 8.8346081
10.572618 2.5930257 8.8599796
9.5777197 2.3295436 8.8602877
0.083475672 -0.014648276 8.2889576
1.2802652 0.27745277 8.3280134
1.6848242 0.37630171 8.3231468
2.6239007 0.60453975 8.6552095
3.5677502 0.8349939 8.6917858
5.7115793 1.3576288 8.6949358
0.48528045 0.062151052 8.3005571
0.88474816 0.1471179 8.3221083
2.1011679 0.47454271 8.3309708
3.0847516 0.71178383 8.6632614
4.0293221 0.9414953 8.6195688
5.1221852 1.2052801 8.6773291
6.3393183 1.4998077 8.7007523
7.8480396 1.8639503 8.8227863
8.6644421 2.0882118 8.8381128
10.577821 2.5551906 8.8568411
9.5894241 2.2969668 8.8636141
0.083424032 -0.014939572 8.2889576
1.2812259 0.27298212 8.3280134
1.6861275 0.37041828 8.3231468
2.6259952 0.59537691 8.6552095
3.5706429 0.8225351 8.6917858
4.5492029 1.0579177 8.6266394
5.7190237 1.3383245 8.699069
0.48549443 0.060456727 8.3005571
0.88525635 0.14402865 8.3221083
2.1028116 0.46720538 8.3309708
3.0889003 0.70139372 8.6679544
4.0538001 0.93230319 8.6645813
5.1289024 1.1879815 8.6815948
6.3474503 1.4783537 8.7047424
7.8611002 1.8380878 8.8301353
8.6786175 2.0596013 8.8451214
10.590464 2.5191524 8.8599796
9.601017 2.2643366 8.8669395
0.083371378 -0.015230685 8.2889576
1.282171 0.26850817 8.3280134
1.6884056 0.36474517 8.328042
2.629514 0.58653164 8.6599808
3.575398 0.810498 8.6963882
4.5575376 1.0431002 8.6354179
5.7264023 1.3189849 8.7032022
0.48570251 0.058761667 8.3005571
0.88628024 0.14102076 8.3270798
2.1056578 0.46013054 8.3358097
3.0913298 0.69060719 8.6679544
4.076139 0.92247105 8.7050924
5.135561 1.1706506 8.6858616
6.3584461 1.4575346 8.7127228
7.8806839 1.8136775 8.8448362
8.6892271 2.0301061 8.8486261
10.599192 2.4821694 8.8599796
9.6161375 2.2324977 8.8735905
0.083317697 -0.015521613 8.2889576
1.2831005 0.2640309 8.3280134
1.6896685 0.35884932 8.328042
2.6315453 0.57734936 8.6599808
3.5801117 0.79843771 8.7009897
4.570497 1.0292897 8.6529741
5.7337165 1.29961 8.7073355
7.0867057 1.6140428 8.7785425
0.48590466 0.057065893 8.3005571
0.88676709 0.13792622 8.3270798
2.1072509 0.45277762 8.3358097
3.0937216 0.67981219 8.6679544
4.0835838 0.90918314 8.7140951
5.1447062 1.1538585 8.6943932
6.3664341 1.4359934 8.716712
7.8902736 1.7869066 8.8485117
8.6997366 2.000562 8.8521309
9.627512 2.1997492 8.8769159
0.083263017 -0.01581235 8.2889576
1.2840143 0.25955045 8.3280134
1.6909108 0.35294908 8.328042
2.6335447 0.56816006 8.6599808
3.5847855 0.78635448 8.7055922
4.5670471 1.0117755 8.6398067
5.7409644 1.2802 8.7114687
7.086041 1.587894 8.7708673
0.48610091 0.055369418 8.3005571
0.88724315 0.13482998 8.3270798
2.1088188 0.44541919 8.3358097
3.0960758 0.66900897 8.6679544
4.0888591 0.89538884 8.7185965
5.1537957 1.1370168 8.7029257
6.3743491 1.4144143 8.7207022
7.9063907 1.7615653 8.8595381
8.706666 1.9701819 8.8521309
9.642417 2.1677673 8.8835669
0.083207309 -0.016102897 8.2889576
1.2849125 0.25506681 8.3280134
1.6921326 0.34704456 8.328042
2.6355119 0.55896378 8.6599808
3.5875084 0.77383643 8.7055922
4.5775714 0.99735677 8.6529741
5.7481465 1.2607553 8.715601
7.0978012 1.5645293 8.7785425
0.48600414 0.053641595 8.2955656
0.88718098 0.13165452 8.3221083
2.1103606 0.43805534 8.3358097
3.0983922 0.65819758 8.6679544
4.09196 0.88111061 8.7185965
5.1628308 1.1201254 8.7114563
6.3792477 1.3921551 8.7207022
8.7169714 1.9405528 8.8556356
9.6535711 2.134902 8.8868923
0.083150595 -0.016393246 8.2889576
1.285795 0.25058007 8.3280134
1.6943318 0.3413367 8.3329372
2.6389081 0.55006522 8.664753
3.592099 0.76171416 8.7101955
4.5833669 0.98187369 8.6573639
5.7552629 1.241276 8.7197342
7.103219 1.5397439 8.7785425
0.48618844 0.051944796 8.2955656
0.88763517 0.12855688 8.3221083
2.1118767 0.43068612 8.3358097
3.1006711 0.64737815 8.6679544
4.0971408 0.86727244 8.7230968
5.1692595 1.102641 8.715723
6.3870149 1.3705111 8.7246923
8.7271757 1.910876 8.8591404
9.6682606 2.1027787 8.8935432
0.083050944 -0.016671289 8.2839575
1.2866619 0.24609028 8.3280134
1.695513 0.33542031 8.3329372
2.6408122 0.5408504 8.664753
3.5947359 0.74917078 8.7101955
4.5937967 0.96734893 8.6705303
5.7623138 1.2217625 8.7238665
7.1085505 1.5149395 8.7785425
0.48636681 0.050247367 8.2955656
0.88755059 0.12538375 8.3171368
2.1133673 0.42331168 8.3358097
3.1029119 0.63655084 8.6679544
4.100143 0.85296547 8.7230968
5.1705246 1.0840551 8.7114563
6.3947082 1.3488296 8.7286825
8.7337933 1.8804009 8.8591404
9.6791935 2.0697982 8.8968687
0.082992248 -0.01696109 8.2839575
1.287513 0.2415975 8.3280134
1.6976731 0.32969376 8.3378325
2.6441476 0.53192323 8.6695251
3.5992429 0.73701012 8.714798
4.6018367 0.95227832 8.6793089
5.7692986 1.202215 8.7279997
7.1169324 1.4907739 8.7823801
0.48653924 0.048549324 8.2955656
0.88798285 0.12228486 8.3171368
2.1148322 0.41593206 8.3358097
3.1051147 0.62571579 8.6679544
4.1052279 0.83908391 8.7275982
5.1717224 1.0654737 8.7071905
6.4052792 1.3277229 8.7366629
7.8804293 1.6406387 8.80441
8.7437925 1.850641 8.8626442
9.6936674 2.037535 8.9035196
0.082974367 -0.017263081 8.2889576
1.2883486 0.23710176 8.3280134
1.6988136 0.32376575 8.3378325
2.6459882 0.52269018 8.6695251
3.6017938 0.72444189 8.714798
4.6121736 0.93764037 8.6924763
5.7734599 1.1820691 8.7279997
7.1220927 1.4659221 8.7823801
0.48670575 0.046850689 8.2955656
0.88840431 0.11918448 8.3171368
2.1162713 0.40854737 8.3358097
3.1072803 0.61487311 8.6679544
4.1081319 0.82474887 8.7275982
5.1728549 1.0468974 8.7029257
6.412827 1.3059576 8.740653
7.8761449 1.6110829 8.7933846
8.7536898 1.8208345 8.8661489
9.7043772 2.0044405 8.9068451
0.0829136 -0.017552612 8.2889576
1.2891684 0.23260315 8.3280134
1.7009344 0.31802079 8.3427277
2.6477966 0.5134508 8.6695251
3.6043005 0.71186489 8.714798
4.6224637 0.92294168 8.7056427
5.7803097 1.1624634 8.7321329
7.1303082 1.4416877 8.7862177
0.48686633 0.045151483 8.2955656
0.88881493 0.11608264 8.3171368
2.1189194 0.40139154 8.3406487
3.1094074 0.60402292 8.6679544
4.1109858 0.81040376 8.7275982
5.1739192 1.028326 8.6986589
6.4203014 1.2841557 8.7446432
7.8983393 1.586919 8.8117599
8.7669821 1.7916955 8.8731585
9.7186327 1.9720386 8.913496
0.082810082 -0.017829236 8.2839575
1.2907375 0.22823676 8.3329525
1.7020342 0.31208146 8.3427277
2.6495728 0.50420511 8.6695251
3.6067636 0.69927919 8.714798
4.6303582 0.90772212 8.7144213
5.7843323 1.1422793 8.7321329
7.1384416 1.4174137 8.7900553
0.48702097 0.043451726 8.2955656
0.88921475 0.11297939 8.3171368
2.1203074 0.39399266 8.3406487
3.1131918 0.5934884 8.6726465
4.1159267 0.7964623 8.7320995
5.1749177 1.00976 8.6943932
6.4277015 1.2623173 8.7486324
7.8705692 1.5527772 8.7750082
8.7766781 1.7617838 8.8766632
9.7291193 1.9388318 8.9168215
0.082747348 -0.018118188 8.2839575
1.2915264 0.22372985 8.3329525
1.7031132 0.30613837 8.3427277
2.6527841 0.49522713 8.6742973
3.6091826 0.68668497 8.714798
4.6382027 0.89245862 8.7231998
5.7882843 1.1220813 8.7321329
7.1464915 1.3931005 8.7938929
0.48745739 0.041775096 8.3005571
0.88960367 0.10987476 8.3171368
2.12167 0.38658905 8.3406487
3.1152446 0.5826177 8.6726465
4.1186819 0.78209019 8.7320995
5.1886563 0.99365193 8.7114563
6.4350271 1.2404431 8.7526226
7.8825984 1.5265836 8.7823591
9.7431574 1.9062932 8.9234724
0.082683593 -0.01840692 8.2839575
1.2922995 0.21922022 8.3329525
1.7041714 0.30019155 8.3427277
2.6544964 0.48596415 8.6742973
3.6115575 0.6740824 8.714798
4.6459961 0.87715131 8.7319784
5.7949305 1.1023954 8.7362661
7.1513109 1.3681461 8.7938929
0.48760024 0.040073298 8.3005571
0.88998181 0.10676879 8.3171368
2.1230063 0.37918064 8.3406487
3.1172593 0.57173991 8.6726465
4.1235266 0.76810712 8.7366009
5.1997828 0.9769786 8.7242546
6.4393182 1.217973 8.7526226
7.8778872 1.49716 8.7713327
9.7570848 1.8736796 8.9301243
0.082660452 -0.018708555 8.2889576
1.2930568 0.21470791 8.3329525
1.7052089 0.29424104 8.3427277
2.6561766 0.47669527 8.6742973
3.6158104 0.66182327 8.7194004
4.6490297 0.86092842 8.7319784
5.7987432 1.0821606 8.7362661
7.1560431 1.3431751 8.7938929
0.48802498 0.038392656 8.3055477
0.89034909 0.10366153 8.3171368
2.1243172 0.3717677 8.3406487
3.119236 0.56085521 8.6726465
4.1261826 0.75370866 8.7366009
5.2108564 0.96023989 8.7370529
6.4464936 1.1960379 8.7566128
7.8830652 1.4696518 8.7713327
9.7709045 1.8409925 8.9367752
0.082594641 -0.01899698 8.2889576
1.2937984 0.21019299 8.3329525
1.7052215 0.28811747 8.3378325
2.6578245 0.46742058 8.6742973
3.6180985 0.6491977 8.7194004
4.6543627 0.84512275 8.7363663
5.8024855 1.0619127 8.7362661
7.1606884 1.3181876 8.7938929
0.48815602 0.036688894 8.3055477
0.89070553 0.100553 8.3171368
2.1256018 0.36435017 8.3406487
3.1211748 0.54996359 8.6726465
4.1287885 0.73930097 8.7366009
5.2218757 0.94343561 8.7498503
6.4506292 1.1735282 8.7566128
7.8814778 1.4409066 8.7639837
8.7688675 1.633194 8.8451214
9.7882862 1.8089099 8.9467516
0.082527824 -0.019285172 8.2889576
1.2945243 0.20567553 8.3329525
1.7062168 0.28216338 8.3378325
2.65944 0.45814019 8.6742973
3.6222668 0.63690245 8.7240028
4.6572843 0.82887083 8.7363663
5.8089261 1.0421486 8.7403994
7.1684003 1.2937534 8.7977304
0.4882811 0.034984689 8.3055477
0.89105105 0.097443238 8.3171368
2.1268609 0.35692823 8.3406487
3.1230755 0.5390653 8.6726465
4.1334887 0.72526056 8.7411013
5.2328415 0.92656612 8.7626486
6.4576521 1.151533 8.760603
7.8797855 1.4121903 8.7566328
8.7815313 1.6038564 8.8521309
9.805562 1.7767283 8.956728
0.082501478 -0.019586695 8.2939577
1.2952343 0.20115551 8.3329525
1.7071913 0.27620587 8.3378325
2.6610229 0.44885427 8.6742973
3.6263936 0.62458605 8.7286062
4.662509 0.81302023 8.7407551
5.8153005 1.0223526 8.7445316
7.1728725 1.2687231 8.7977304
0.48840028 0.033280056 8.3055477
0.89191592 0.09438774 8.3221083
2.129334 0.34970549 8.3454885
3.1266396 0.52844793 8.6773396
4.1359949 0.71082753 8.7411013
5.2411833 0.90918595 8.7711802
6.464601 1.1295033 8.7645931
7.9013619 1.3876079 8.7750082
8.773035 1.5706795 8.8381128
9.8227339 1.7444484 8.9667044
0.082432605 -0.01987456 8.2939577
1.2959286 0.19663309 8.3329525
1.708145 0.27024499 8.3378325
2.6640463 0.43980584 8.6790686
3.6285515 0.61192381 8.7286062
4.6676793 0.79714316 8.7451448
5.8216066 1.0025245 8.7486639
7.1804152 1.2442245 8.8015671
0.48851344 0.03157502 8.3055477
0.89223999 0.0912738 8.3221083
2.1305418 0.34227055 8.3454885
3.1284654 0.51753074 8.6773396
4.1384511 0.69638592 8.7411013
5.2494669 0.89175862 8.7797117
6.4714746 1.1074389 8.7685823
7.9262047 1.3634669 8.79706
8.7538757 1.5357329 8.8135805
9.8324413 1.7107898 8.9700298
