# .PCD v0.7 - Point Cloud Data file format
VERSION 0.7
FIELDS x y z
SIZE 4 4 4
TYPE F F F
COUNT 1 1 1
WIDTH 1424
HEIGHT 1
VIEWPOINT 0 0 0 1 0 0 0
POINTS 1424
DATA ascii
-0.91646826 -1.2206984 1.1950121
-0.90394181 -1.2048775 0.97074991
-0.89068907 -1.1884966 0.77403903
-0.86933482 -1.160835 0.59389675
-0.85920721 -1.148134 0.43658668
-0.84237504 -1.1260432 0.28835109
-0.84338659 -1.1282033 0.15049712
-0.099372536 -0.053420998 11.513835
-1.8238056 -2.3331869 14.261057
-0.79900163 -1.0367388 4.2315803
-0.81389964 -1.0636318 3.2147813
-0.70418358 -0.92423368 2.1966388
-0.87712628 -1.1544731 2.2020738
-0.97323883 -1.2837176 2.0053473
-0.19266215 -0.20548309 4.7115541
-0.88791811 -1.1418048 5.6063743
-0.81240296 -1.0548326 3.6748505
-0.6535089 -0.85342574 2.2863612
-0.78907907 -1.033741 2.1973755
-0.96728557 -1.2703439 2.1890328
-0.96078718 -1.2640719 1.7995464
-0.94996011 -1.258456 1.6292613
-0.92515033 -1.2269104 1.3214065
-0.91202527 -1.2108065 1.0784563
-0.89863122 -1.1938796 0.86874914
-0.87550807 -1.1639934 0.6767832
-0.86774981 -1.1545048 0.51445979
-0.85551488 -1.1390462 0.36193198
-0.83988577 -1.1190383 0.21855797
-0.9396655 -1.2412031 1.4677017
-0.91584742 -1.2110442 1.1891258
-0.90294385 -1.1948365 0.96568352
-0.88936329 -1.1781359 0.76984292
-0.87053776 -1.1540235 0.59225327
-0.85735792 -1.1373651 0.43424204
-0.84332025 -1.119141 0.28766042
-0.84130907 -1.1172705 0.15009406
-0.099439278 -0.053019539 11.498836
-1.8117803 -2.301208 14.10441
-0.8026157 -1.0339434 4.2315803
-0.81880033 -1.0623316 3.219384
-0.70740545 -0.92176998 2.1966388
-0.88115078 -1.1514043 2.2020738
-0.97187752 -1.2726706 1.9938346
-0.19337825 -0.20480932 4.7115541
-0.88569629 -1.1307831 5.5676589
-0.81819594 -1.0547171 3.684236
-0.65249461 -0.84596848 2.2728574
-0.79268265 -1.0309803 2.1973755
-0.97171402 -1.2669597 2.1890328
-0.9590109 -1.2526354 1.7885209
-0.94787121 -1.246616 1.6187476
-0.92471874 -1.2174745 1.3151296
-0.91119123 -1.2009534 1.0729734
-0.89744031 -1.1836758 0.86411154
-0.8767662 -1.157235 0.67491019
-0.86598325 -1.1438198 0.51163971
-0.85355806 -1.1282182 0.36006674
-0.8407836 -1.1121272 0.21811089
-0.93719977 -1.2290087 1.457725
-0.91517031 -1.2014092 1.1832393
-0.90449798 -1.1882473 0.96315032
-0.89072311 -1.1714115 0.76774484
-0.8717038 -1.147218 0.59060973
-0.85838348 -1.1304942 0.43306974
-0.84123361 -1.1083015 0.28627905
-0.8421849 -1.1103466 0.14989254
-0.099544205 -0.052636206 11.488835
-1.7932273 -2.2613645 13.89881
-0.80621994 -1.0311354 4.2315803
-0.82370174 -1.06101 3.2239864
-0.70915377 -0.91740036 2.1922498
-0.88516456 -1.1483214 2.2020738
-0.97045106 -1.2616489 1.9823222
-0.19409199 -0.20413305 4.7115541
-0.8818512 -1.1178175 5.5192647
-0.82293522 -1.0532142 3.6889291
-0.65143639 -0.83852887 2.2593539
-0.79627663 -1.0282071 2.1973755
-0.9742884 -1.2611755 2.1850426
-0.9592368 -1.2439109 1.7811704
-0.94787985 -1.2376374 1.6117386
-0.9242326 -1.2080566 1.3088527
-0.9102996 -1.191121 1.0674905
-0.89618921 -1.1734948 0.85947394
-0.87517524 -1.1467969 0.6711641
-0.86706167 -1.1369755 0.51022971
-0.8545137 -1.1213249 0.35913411
-0.84164339 -1.1052237 0.21766382
-0.93693507 -1.2198076 1.451074
-0.91443717 -1.1917939 1.177353
-0.90339422 -1.178241 0.95808399
-0.88928717 -1.1610889 0.76354873
-0.86996281 -1.1366684 0.58732271
-0.85641861 -1.1197695 0.4307251
-0.84208941 -1.1014243 0.28558838
-0.83998954 -1.0994602 0.14948948
-0.09960784 -0.052234985 11.473837
-1.7909416 -2.242363 13.820487
-0.81166172 -1.0306599 4.2411237
-0.82860398 -1.0596672 3.2285891
-0.7123518 -0.91491932 2.1922498
-0.88916755 -1.1452247 2.2020738
-0.97092277 -1.2531863 1.9746472
-0.19480336 -0.20345432 4.7115541
-0.87949061 -1.1068605 5.4805493
-0.82874149 -1.0530472 3.6983144
-0.65033412 -0.83110696 2.2458501
-0.79986095 -1.0254213 2.1973755
-0.97683418 -1.255389 2.1810527
-0.95941359 -1.2352004 1.77382
-0.94783741 -1.2286738 1.6047294
-0.92369193 -1.198657 1.3025758
-0.90935034 -1.1813095 1.0620075
-0.89487803 -1.1633372 0.85483634
-0.87634766 -1.1400595 0.66929108
-0.86810285 -1.1301377 0.50881964
-0.85244048 -1.1105419 0.35726887
-0.84246534 -1.0983276 0.21721675
-0.93661767 -1.2106236 1.4444231
-0.91364819 -1.1821984 1.1714667
-0.90486646 -1.1716686 0.95555079
-0.88779014 -1.1507909 0.75935262
-0.87104207 -1.1298848 0.58567923
-0.85735571 -1.1129227 0.42955279
-0.83988607 -1.0906312 0.28420702
-0.84077537 -1.0925621 0.14928794
-0.099749669 -0.051869299 11.468837
-1.7847158 -2.2186451 13.712792
-0.81618226 -1.0289898 4.2458959
-0.83350682 -1.058303 3.2331915
-0.71554112 -0.91242713 2.1922498
-0.89315975 -1.1421139 2.2020738
-0.96937519 -1.2422092 1.9631346
-0.19551235 -0.20277308 4.7115541
-0.87706441 -1.0959339 5.441834
-0.83455646 -1.0528523 3.7077
-0.6491881 -0.82370305 2.2323468
-0.80343544 -1.0226229 2.1973755
-0.97749263 -1.2472284 2.1730726
-0.9574523 -1.2238339 1.7627947
-0.94555581 -1.2169098 1.5942158
-0.92309695 -1.1892761 1.2962989
-0.90834385 -1.1715192 1.0565246
-0.893507 -1.1532031 0.85019881
-0.87748367 -1.133328 0.66741806
-0.86910701 -1.1233065 0.50740957
-0.85330713 -1.1036735 0.35633627
-0.84324938 -1.0914394 0.21676967
-0.93624741 -1.2014568 1.437772
-0.91280341 -1.172623 1.1655804
-0.90365714 -1.1616979 0.95048445
-0.88901693 -1.1441011 0.75725454
-0.87208462 -1.1231078 0.58403569
-0.85825557 -1.106083 0.42838046
-0.8406527 -1.0837799 0.28351635
-0.84152329 -1.0856719 0.14908642
-0.099850208 -0.051485728 11.458837
-1.7783461 -2.194998 13.605097
-0.82163292 -1.0284667 4.2554402
-0.83962452 -1.058448 3.2423966
-0.71872175 -0.90992391 2.1922498
-0.89714104 -1.1389892 2.2020738
-0.96974379 -1.233778 1.9554596
-0.19621897 -0.20208937 4.7115541
-0.87457263 -1.0850376 5.4031181
-0.83930337 -1.0512812 3.7123928
-0.64393741 -0.81120282 2.2053394
-0.80861878 -1.0218574 2.2016416
-0.97810602 -1.2390786 2.1650927
-0.95752174 -1.2151588 1.7554444
-0.94540173 -1.207985 1.5872066
-0.92244786 -1.1799139 1.290022
-0.90728009 -1.1617504 1.0510417
-0.8948015 -1.1465851 0.84788001
-0.87573242 -1.1229467 0.66367197
-0.87007397 -1.1164821 0.50599957
-0.85111809 -1.0929369 0.35447103
-0.8409372 -1.0806289 0.21587551
-0.93582481 -1.1923072 1.4311211
-0.91190284 -1.1630679 1.1596941
-0.90504795 -1.1551433 0.94795126
-0.88741052 -1.1338431 0.75305843
-0.87309051 -1.1163373 0.58239222
-0.8591181 -1.0992507 0.42720816
-0.83833313 -1.0730343 0.28213498
-0.84223342 -1.0787899 0.14888488
-0.10006934 -0.051154267 11.463837
-1.7718332 -2.1714225 13.497402
-0.82708979 -1.0279181 4.2649837
-0.84453374 -1.0570369 3.246999
-0.72189355 -0.90740961 2.1922498
-0.90111142 -1.1358507 2.2020738
-0.96807569 -1.2228465 1.943947
-0.1969232 -0.20140322 4.7115541
-0.8720156 -1.0741721 5.3644028
-0.8451311 -1.0510345 3.7217784
-0.64676505 -0.80895013 2.2053394
-0.81218082 -1.0190285 2.2016416
-0.97867447 -1.2309397 2.1571126
-0.95754224 -1.2064984 1.7480941
-0.94298917 -1.1962758 1.5766931
-0.9217447 -1.1705709 1.2837451
-0.9061594 -1.1520035 1.0455588
-0.89332318 -1.1364894 0.84324241
-0.87678325 -1.1162374 0.66179895
-0.86804211 -1.1058913 0.50317949
-0.85189629 -1.086094 0.35353839
-0.84163201 -1.0737674 0.21542843
-0.9353497 -1.1831754 1.4244701
-0.91094697 -1.1535337 1.1538078
-0.90373349 -1.1452091 0.94288492
-0.8885532 -1.1271743 0.75096041
-0.87113762 -1.1058639 0.5791052
-0.85693699 -1.0886066 0.42486352
-0.83901131 -1.0662099 0.28144431
-0.84290588 -1.0719162 0.14868335
-0.10000683 -0.050701138 11.433838
-1.7645313 -2.1471334 13.384811
-0.83349282 -1.0285034 4.2792997
-0.85066831 -1.0571263 3.2562041
-0.72505665 -0.90488416 2.1922498
-0.90331399 -1.1305 2.1979408
-0.96634316 -1.2119418 1.9324346
-0.19762503 -0.20071459 4.7115541
-0.86939353 -1.0633379 5.3256874
-0.85096717 -1.0507598 3.731164
-0.64958489 -0.80668759 2.2053394
-0.8157329 -1.0161873 2.2016416
-0.97731447 -1.2204602 2.1451426
-0.95539713 -1.1952045 1.7370685
-0.94272405 -1.1873912 1.569684
-0.92098767 -1.1612471 1.2774682
-0.90757841 -1.145556 1.0428174
-0.89453506 -1.1298912 0.84092361
-0.8777979 -1.1095344 0.65992594
-0.868922 -1.0990916 0.50176948
-0.84959191 -1.0754048 0.35167316
-0.84228927 -1.0669144 0.21498135
-0.93482238 -1.1740615 1.417819
-0.90993553 -1.1440202 1.1479214
-0.90236086 -1.1352983 0.93781859
-0.88683802 -1.1169572 0.7467643
-0.87205726 -1.099117 0.57746166
-0.85771185 -1.0818001 0.42369121
-0.839652 -1.0593938 0.28075361
-0.84043866 -1.0611346 0.14828028
-0.099540986 -0.050077945 11.353841
-1.7570815 -2.1229217 13.272222
-0.83896601 -1.0279003 4.2888436
-0.85681373 -1.0571858 3.2654092
-0.72821087 -0.90234774 2.1922498
-0.9072547 -1.12734 2.1979408
-0.96655357 -1.2035633 1.9247596
-0.19832446 -0.20002352 4.7115541
-0.86670631 -1.0525352 5.286972
-0.8557207 -1.0491202 3.7358565
-0.65239686 -0.80441517 2.2053394
-0.81927508 -1.0133337 2.2016416
-0.97778511 -1.2123506 2.1371624
-0.95531112 -1.186581 1.7297182
-0.94240832 -1.1785228 1.5626749
-0.92017668 -1.1519431 1.2711912
-0.90635532 -1.1358442 1.0373343
-0.89294994 -1.1198348 0.83628595
-0.87877643 -1.1028379 0.65805292
-0.86677682 -1.0885464 0.49894941
-0.85028195 -1.0685889 0.35074055
-0.83980942 -1.0561718 0.21408717
-0.93424284 -1.1649657 1.411168
-0.91139609 -1.1376824 1.1449783
-0.90092999 -1.1254112 0.93275219
-0.8878969 -1.1103102 0.74466628
-0.8729406 -1.0923774 0.57581812
-0.8554166 -1.0712032 0.42134658
-0.84025532 -1.0525862 0.28006294
-0.84102207 -1.054289 0.14807875
-0.10116228 -0.050341155 11.533834
-1.7507883 -2.1003525 13.169421
-0.84444505 -1.0272714 4.2983875
-0.86296982 -1.0572151 3.2746143
-0.7313562 -0.8998003 2.1922498
-0.90941226 -1.1219802 2.1938081
-0.96470141 -1.1927061 1.913247
-0.19902146 -0.19933002 4.7115541
-0.86475712 -1.0427318 5.2530966
-0.86266434 -1.0501266 3.7499349
-0.65382332 -0.80044711 2.2008381
-0.82280731 -1.0104676 2.2016416
-0.9782111 -1.2042525 2.1291823
-0.95304132 -1.1753398 1.7186928
-0.94204229 -1.1696713 1.5556659
-0.92175215 -1.1456915 1.2680528
-0.90769506 -1.1294143 1.0345929
-0.89407951 -1.1132573 0.83396715
-0.87681723 -1.0925328 0.65430683
-0.86757004 -1.0817721 0.49753937
-0.85093486 -1.0617812 0.34980792
-0.84037805 -1.0493469 0.21364009
-0.93361127 -1.1558884 1.4045171
-0.91028541 -1.1282029 1.139092
-0.90214711 -1.1189036 0.93021905
-0.88892031 -1.1036696 0.74256819
-0.87378758 -1.0856451 0.57417464
-0.85610425 -1.0644232 0.42017427
-0.83771837 -1.0419281 0.27868158
-0.83843887 -1.0435576 0.14767569
-0.10133739 -0.04998773 11.533834
-1.746978 -2.080972 13.086203
-0.84992993 -1.0266168 4.3079319
-0.86913663 -1.0572143 3.2838192
-0.7344926 -0.89724189 2.1922498
-0.91332316 -1.118799 2.1938081
-0.96278536 -1.1818765 1.9017346
-0.19971603 -0.1986341 4.7115541
-0.86033219 -1.0300609 5.2047019
-0.86962533 -1.0510973 3.7640131
-0.65661347 -0.79816002 2.2008381
-0.82632953 -1.0075895 2.2016416
-0.97859251 -1.1961663 2.1212022
-0.95284921 -1.1667545 1.7113425
-0.94162613 -1.1608368 1.5486567
-0.92084461 -1.1364189 1.2617759
-0.90637016 -1.1197389 1.02911
-0.89238811 -1.1032414 0.82932955
-0.87771118 -1.0858601 0.65243381
-0.8653121 -1.0712737 0.4947193
-0.84846526 -1.0511596 0.34794268
-0.84090924 -1.0425309 0.21319301
-0.93292767 -1.1468297 1.397866
-0.90911967 -1.118745 1.1332057
-0.90061218 -1.109055 0.92515266
-0.8870489 -1.0935107 0.73837209
-0.87459815 -1.07892 0.5725311
-0.85369545 -1.0538745 0.41782963
-0.83823377 -1.035149 0.27799088
-0.83579117 -1.0328573 0.14727263
-0.10090654 -0.049383331 11.458837
-1.741082 -2.0593121 12.988298
-0.85542053 -1.0259362 4.3174753
-0.87406778 -1.0556787 3.2884219
-0.73762006 -0.89467257 2.1922498
-0.91722292 -1.115604 2.1938081
-0.96283877 -1.1735529 1.8940595
-0.20040819 -0.19793576 4.7115541
-0.86068523 -1.0232044 5.1853442
-0.87660366 -1.0520322 3.7780917
-0.65800649 -0.79418701 2.196337
-0.82984161 -1.0046989 2.2016416
-0.98084557 -1.1904176 2.1172123
-0.95045501 -1.1555667 1.7003169
-0.93890309 -1.1492577 1.538143
-0.92234468 -1.1301821 1.2586373
-0.90763098 -1.1133274 1.0263685
-0.89343572 -1.0966853 0.82701075
-0.87564248 -1.0755996 0.64868772
-0.86601901 -1.0645255 0.49330926
-0.84903061 -1.0443799 0.34701008
-0.84140319 -1.0357239 0.21274593
-0.93219239 -1.13779 1.391215
-0.91045916 -1.1124369 1.1302625
-0.9017489 -1.1025678 0.92261952
-0.88798904 -1.0868932 0.73627406
-0.8723861 -1.068545 0.56924409
-0.85429627 -1.0471221 0.4166573
-0.83871216 -1.0283792 0.27730021
-0.83307892 -1.0221882 0.14686957
-0.10107831 -0.049030799 11.458837
-1.7416576 -2.0454702 12.939346
-0.86091673 -1.0252301 4.3270197
-0.87399346 -1.0481203 3.2746143
-0.74073863 -0.89209235 2.1922498
-0.92111146 -1.1123955 2.1938081
-0.96080387 -1.1627724 1.882547
-0.20109789 -0.19723499 4.7115541
-0.86100101 -1.0163581 5.1659865
-0.88359898 -1.0529311 3.7921698
-0.66077471 -0.79188526 2.196337
-0.83334363 -1.001796 2.2016416
-0.98114628 -1.1823491 2.1092322
-0.94799453 -1.14441 1.6892914
-0.93837714 -1.1404659 1.5311339
-0.92134094 -1.120942 1.2523605
-0.9062047 -1.1036893 1.0208856
-0.89163864 -1.086711 0.82237315
-0.87645227 -1.0689515 0.6468147
-0.86668926 -1.0577854 0.49189925
-0.84644705 -1.0338084 0.34514484
-0.84185988 -1.0289263 0.21229887
-0.93140543 -1.1287695 1.384564
-0.90919465 -1.1030141 1.1243762
-0.9001103 -1.0927588 0.91755313
-0.88889378 -1.0802823 0.73417598
-0.87311143 -1.0618458 0.56760061
-0.85177457 -1.0366228 0.41431266
-0.83915359 -1.0216186 0.27660954
-0.83030248 -1.0115507 0.14646651
-0.10120841 -0.048661266 11.453837
-1.7428211 -2.0324223 12.895289
-0.86641824 -1.0244979 4.3365636
-0.85754162 -1.0211282 3.200974
-0.74384809 -0.88950127 2.1922498
-0.92679131 -1.1113344 2.1979408
-0.96280658 -1.1569481 1.8787096
-0.20178515 -0.19653183 4.7115541
-0.86046356 -1.008566 5.1417894
-0.89172536 -1.0551118 3.8109407
-0.66213405 -0.78790748 2.1918356
-0.83683544 -0.99888098 2.2016416
-0.98333508 -1.1766051 2.1052423
-0.9476397 -1.1358877 1.681941
-0.93780112 -1.1316916 1.5241249
-0.92028391 -1.1117227 1.2460835
-0.90738696 -1.097297 1.018144
-0.89260465 -1.0801772 0.82005435
-0.87722617 -1.0623109 0.64494163
-0.8673231 -1.0510536 0.49048921
-0.8469252 -1.0270574 0.34421217
-0.84227937 -1.0221382 0.21185179
-0.93056685 -1.1197684 1.377913
-0.9078756 -1.093614 1.1184899
-0.90116686 -1.0862925 0.91501999
-0.88686723 -1.070184 0.72997987
-0.87380069 -1.0551547 0.56595707
-0.8522889 -1.0298985 0.41314036
-0.83955801 -1.0148675 0.27591884
-0.8306452 -1.0047957 0.14626497
-0.10133716 -0.048291415 11.448837
-1.741918 -2.0170798 12.836546
-0.87289339 -1.0248761 4.3508797
-0.81062943 -0.95846725 3.0168729
-0.74694848 -0.88689935 2.1922498
-0.9306649 -1.1080925 2.1979408
-0.96272117 -1.1486673 1.8710346
-0.20246993 -0.19582626 4.7115541
-0.86643702 -1.0084162 5.1563082
-0.89428431 -1.0506787 3.8062482
-0.66488039 -0.78559142 2.1918356
-0.83863503 -0.9939605 2.1973755
-0.98161465 -1.1662498 2.093272
-0.94505614 -1.1247865 1.6709156
-0.93717533 -1.1229353 1.5171157
-0.9191739 -1.1025245 1.2398067
-0.90585971 -1.0876969 1.0126611
-0.89070219 -1.0702451 0.81541675
-0.87796468 -1.055678 0.64306861
-0.8648544 -1.0406413 0.48766914
-0.84736669 -1.0203159 0.34327957
-0.83948141 -1.0115275 0.21095763
-0.92967683 -1.1107869 1.3712621
-0.90909469 -1.0873374 1.1155467
-0.89942527 -1.0765241 0.90995359
-0.88768923 -1.0635973 0.72788185
-0.87445396 -1.0484717 0.56431359
-0.85276675 -1.0231835 0.41196805
-0.83992559 -1.0081261 0.27522817
-0.83095092 -0.99805063 0.14606345
-0.10146458 -0.047921266 11.443837
-1.0044917 -1.1551913 7.3832631
-0.87840945 -1.0240885 4.3604236
-0.69487393 -0.81584251 2.5842357
-0.75003976 -0.88428658 2.1922498
-0.93452716 -1.1048372 2.1979408
-0.96465731 -1.1428506 1.867197
-0.20315227 -0.19511832 4.7115541
-0.87324226 -1.009187 5.1756659
-0.89569986 -1.0449306 3.7968626
-0.66761851 -0.78326571 2.1918356
-0.84209949 -0.99102706 2.1973755
-0.97788548 -1.1536224 2.077312
-0.94459659 -1.1163051 1.6635653
-0.93879467 -1.1169273 1.5136112
-0.91801083 -1.0933475 1.2335297
-0.90696377 -1.0813247 1.0099196
-0.8915869 -1.0637347 0.81309795
-0.87866747 -1.0490531 0.6411956
-0.8654027 -1.0339376 0.4862591
-0.84777153 -1.0135839 0.34234694
-0.83981347 -1.00477 0.21051055
-0.93114209 -1.1046802 1.3679365
-0.90767753 -1.0779736 1.1096603
-0.90040195 -1.0700797 0.90742046
-0.88847613 -1.0570182 0.72578382
-0.87507123 -1.0417972 0.56267005
-0.85008317 -1.0127548 0.40962341
-0.84025645 -1.0013947 0.2745375
-0.83442974 -0.99514395 0.14606345
-0.10155004 -0.047534827 11.433838
-1.0098598 -1.1532098 7.3930535
-0.88490677 -1.0244044 4.3747396
-0.65319175 -0.76151782 2.4231472
-0.75312197 -0.88166308 2.1922498
-0.9383781 -1.1015683 2.1979408
-0.96656471 -1.1370344 1.8633596
-0.20383212 -0.194408 4.7115541
-0.87841159 -1.0080276 5.1853442
-0.8970862 -1.0391854 3.787477
-0.67034858 -0.78093058 2.1918356
-0.84555364 -0.98808163 2.1973755
-0.97212374 -1.1387438 2.0573621
-0.9418903 -1.1052604 1.6525397
-0.9380793 -1.1081997 1.506602
-0.91679507 -1.0841924 1.2272528
-0.90533608 -1.0717638 1.0044367
-0.8924371 -1.0572309 0.81077915
-0.87634563 -1.0388925 0.6374495
-0.86282289 -1.0235749 0.48343906
-0.84813958 -1.0068616 0.34141433
-0.83690161 -0.99421275 0.20961639
-0.93015951 -1.0957304 1.3612856
-0.90882051 -1.0717161 1.1067171
-0.90134472 -1.0636414 0.9048872
-0.88629556 -1.0469825 0.72158772
-0.87565261 -1.0351311 0.56102657
-0.85047513 -1.0060692 0.40845108
-0.84055042 -0.99467325 0.27384681
-0.83467501 -0.98840821 0.14586191
-0.1016747 -0.04716422 11.428839
-1.0118583 -1.147387 7.3783684
-0.89043701 -1.0235614 4.3842835
-0.65329129 -0.75627661 2.4139423
-0.75619495 -0.8790288 2.1922498
-0.94038516 -1.0961505 2.1938081
-0.96844316 -1.1312187 1.859522
-0.2042987 -0.19349805 4.7065625
-0.88441283 -1.0077891 5.199863
-0.89957583 -1.0347455 3.7827842
-0.67307043 -0.77858585 2.1918356
-0.84899759 -0.98512399 2.1973755
-0.9682346 -1.1262043 2.0414019
-0.94132662 -1.0968208 1.6451894
-0.93731439 -1.0994906 1.499593
-0.91805029 -1.0780224 1.2241144
-0.90365267 -1.0622274 0.99895382
-0.89038366 -1.0473595 0.80614156
-0.87696511 -1.032294 0.63557649
-0.86328596 -1.0168999 0.48202902
-0.84847116 -1.000149 0.3404817
-0.83714658 -0.98748678 0.20916931
-0.92912596 -1.0868012 1.3546345
-0.90730584 -1.06239 1.1008309
-0.89945507 -1.0539308 0.89982086
-0.88700026 -1.0404286 0.71948963
-0.87313575 -1.0248791 0.55773956
-0.85083085 -0.99939328 0.40727875
-0.84401745 -0.99173307 0.27384681
-0.83488345 -0.9816829 0.14566039
-0.10179799 -0.046793316 11.423839
-1.0165336 -1.1446092 7.3832631
-0.89695591 -1.0238148 4.3985991
-0.65207976 -0.74957025 2.4001346
-0.75925875 -0.87638384 2.1922498
-0.94420576 -1.0928613 2.1938081
-0.96610659 -1.120549 1.8480093
-0.20497288 -0.19278374 4.7065625
-0.89042288 -1.0075209 5.2143812
-0.90204543 -1.0303009 3.7780917
-0.67578411 -0.77623165 2.1918356
-0.85243112 -0.98215449 2.1973755
-0.96624231 -1.1159837 2.0294318
-0.94071555 -1.0883987 1.6378391
-0.93650037 -1.0908009 1.492584
-0.91673964 -1.0689023 1.2178375
-0.90463448 -1.0558914 0.99621236
-0.89115316 -1.0408801 0.80382276
-0.87754929 -1.0257041 0.63370347
-0.86371303 -1.0102342 0.48061898
-0.84876633 -0.99344641 0.33954909
-0.83412135 -0.97698379 0.20827515
-0.93047762 -1.0807219 1.3513091
-0.90573716 -1.0530877 1.0949446
-0.90031856 -1.0475154 0.89728767
-0.88471353 -1.0304394 0.71529353
-0.87363291 -1.0182413 0.55609608
-0.85115033 -0.99272734 0.40610644
-0.84425139 -0.98502088 0.27315614
-0.83505523 -0.97496825 0.14545885
-0.10191995 -0.046422135 11.418839
-1.0164492 -1.136501 7.3538918
-0.90348744 -1.0240352 4.4129157
-0.65082943 -0.74288172 2.386327
-0.76231325 -0.87372816 2.1922498
-0.94801486 -1.0895587 2.1938081
-0.96370751 -1.1099095 1.8364969
-0.2054324 -0.1918713 4.7015705
-0.89560598 -1.0062841 5.2240596
-0.90563637 -1.0271457 3.7780917
-0.67848957 -0.77386796 2.1918356
-0.85413784 -0.97720951 2.1931098
-0.9641906 -1.1057911 2.0174615
-0.94005716 -1.0799943 1.6304888
-0.935637 -1.08213 1.4855748
-0.91792095 -1.0627502 1.214699
-0.90285128 -1.0463954 0.99072945
-0.88899553 -1.0310533 0.79918516
-0.87809825 -1.0191226 0.63183039
-0.86097401 -0.99994284 0.47779894
-0.84902501 -0.986754 0.33861646
-0.83427978 -0.97029018 0.20782807
-0.9293521 -1.0718254 1.344658
-0.90676111 -1.0468644 1.0920014
-0.89832693 -1.0378478 0.89222133
-0.88533646 -1.0239117 0.7131955
-0.87409455 -1.0116124 0.55445254
-0.85143375 -0.98607129 0.40493411
-0.84768462 -0.98206788 0.27315614
-0.83519024 -0.96826434 0.14525732
-0.10208137 -0.046066087 11.418839
-1.0129128 -1.1246251 7.3000441
-0.90903968 -1.0231067 4.4224591
-0.65083307 -0.73767579 2.3771222
-0.76535851 -0.87106186 2.1922498
-0.95181233 -1.0862429 2.1938081
-0.95913601 -1.0968877 1.821147
-0.20610093 -0.19115303 4.7015705
-0.90163058 -1.0059594 5.2385783
-0.91036212 -1.0252686 3.7827842
-0.67974567 -0.76986325 2.1873345
-0.85754377 -0.97422206 2.1931098
-0.96207958 -1.0956265 2.0054917
-0.94158655 -1.0741571 1.6268137
-0.93472463 -1.0734785 1.4785657
-0.91651571 -1.0536661 1.2084221
-0.90375561 -1.0400813 0.987988
-0.88968462 -1.0245992 0.79686636
-0.87557352 -1.0090485 0.62808436
-0.8613165 -0.99330711 0.4763889
-0.84924734 -0.98007196 0.33768386
-0.83114177 -0.95984268 0.20693392
-0.92817593 -1.0629503 1.3380071
-0.90509558 -1.037601 1.0861151
-0.89627886 -1.0282068 0.887155
-0.8859247 -1.0173924 0.71109742
-0.87142062 -1.0014306 0.55116552
-0.84849167 -0.9757576 0.40258947
-0.84785861 -0.97536558 0.27246544
-0.83201247 -0.95779997 0.14485426
-0.10220069 -0.045694202 11.413838
-1.0106744 -1.1142961 7.2559876
-0.91559207 -1.0232641 4.4367752
-0.6495105 -0.73101872 2.3633144
-0.76839441 -0.86838502 2.1922498
-0.95373613 -1.080804 2.1896749
-0.95660365 -1.0863167 1.8096343
-0.2067669 -0.19043244 4.7015705
-0.9076637 -1.0056049 5.2530966
-0.91393542 -1.0220846 3.7827842
-0.6824289 -0.7674858 2.1873345
-0.86266929 -0.97317415 2.1973755
-0.96190566 -1.0877472 1.9975116
-0.94084287 -1.065781 1.6194633
-0.93376327 -1.0648465 1.4715567
-0.91762322 -1.0475328 1.2052836
-0.90187329 -1.030627 0.98250502
-0.88742357 -1.0148183 0.79222876
-0.87603974 -1.0024952 0.62621135
-0.86162311 -0.98668128 0.47497886
-0.84943348 -0.97340047 0.33675122
-0.83121413 -0.95318234 0.20648684
-0.92694914 -1.0540963 1.331356
-0.9060443 -1.0313988 1.083172
-0.89417452 -1.0185928 0.8820886
-0.88647819 -1.0108814 0.70899934
-0.87179869 -0.99483138 0.54952204
-0.84869027 -0.9691332 0.40141717
-0.84799629 -0.96867406 0.27177477
-0.82877189 -0.94736952 0.1444512
-0.10235956 -0.045337174 11.413838
-1.0070025 -1.1024932 7.2021399
-0.92115718 -1.0222794 4.4463191
-0.64945245 -0.72583556 2.3541093
-0.77142096 -0.86569756 2.1922498
-0.95750302 -1.0774683 2.1896749
-0.95400947 -1.0757769 1.7981219
-0.20743038 -0.18970953 4.7015705
-0.91285956 -1.0042903 5.2627749
-0.91865259 -1.0201703 3.787477
-0.68510377 -0.76509905 2.1873345
-0.86606103 -0.97015691 2.1973755
-0.96168852 -1.0798825 1.9895315
-0.94005221 -1.0574231 1.612113
-0.93275309 -1.0562347 1.4645475
-0.91612417 -1.0384858 1.1990067
-0.90270066 -1.0243355 0.97976357
-0.88803273 -1.0083901 0.78990996
-0.8764711 -0.99595094 0.62433827
-0.86189413 -0.98006552 0.47356883
-0.84958339 -0.96673965 0.33581862
-0.83453631 -0.95027506 0.20648684
-0.92814738 -1.048059 1.3280305
-0.90428239 -1.0221752 1.0772856
-0.89486933 -1.0122358 0.87955546
-0.88699698 -1.0043792 0.70690131
-0.8721413 -0.98824167 0.5478785
-0.84885299 -0.96251935 0.40024486
-0.8480975 -0.96199346 0.2710841
-0.82877117 -0.94072211 0.14424966
-0.10292698 -0.045129474 11.463837
-1.0039502 -1.0914788 7.1531878
-0.92672646 -1.0212682 4.455863
-0.64936614 -0.72066176 2.3449044
-0.77443808 -0.86299944 2.1922498
-0.95938152 -1.0720226 2.1855421
-0.95135337 -1.0652686 1.7866094
-0.20809132 -0.1889843 4.7015705
-0.91890633 -1.0038788 5.2772937
-0.92336744 -1.0182356 3.7921698
-0.68777025 -0.76270288 2.1873345
-0.86769855 -0.96518862 2.1931098
-0.96142828 -1.0720328 1.9815515
-0.94147611 -1.0516096 1.6084378
-0.93169427 -1.0476427 1.4575385
-0.91715837 -1.0323719 1.1958683
-0.90071958 -1.0149237 0.97428066
-0.88566864 -0.99865574 0.78527236
-0.87686735 -0.989416 0.62246525
-0.86212939 -0.97345972 0.47215876
-0.84969711 -0.96008968 0.33488598
-0.83454913 -0.94362587 0.20603976
-0.92682958 -1.0392399 1.3213795
-0.90515608 -1.0159945 1.0743425
-0.89266413 -1.0026668 0.87448907
-0.88748133 -0.99788553 0.70480323
-0.87244856 -0.98166168 0.54623502
-0.84897983 -0.95591623 0.39907253
-0.84816253 -0.95532405 0.2703934
-0.82541859 -0.93034917 0.1438466
-0.10304284 -0.044755071 11.458837
-1.0008333 -1.0804991 7.1042352
-0.93229997 -1.0202307 4.4654074
-0.64925158 -0.71549749 2.3356993
-0.77744579 -0.86029088 2.1922498
-0.96123368 -1.0665768 2.1814091
-0.95077908 -1.0571752 1.7789344
-0.20874973 -0.18825679 4.7015705
-0.92496115 -1.0034373 5.2918119
-0.9280799 -1.0162804 3.7968626
-0.69042844 -0.76029748 2.1873345
-0.8710624 -0.96215391 2.1931098
-0.96112496 -1.0641979 1.9735714
-0.94060081 -1.0432813 1.6010875
-0.93058687 -1.0390712 1.4505293
-0.91556573 -1.0233626 1.1895914
-0.9014703 -1.0086557 0.97153914
-0.88619828 -0.9922542 0.78295356
-0.87722874 -0.98289043 0.62059224
-0.86232913 -0.96686441 0.47074872
-0.8497749 -0.9534508 0.33395338
-0.83783787 -0.94070697 0.20603976
-0.92795658 -1.0332205 1.318054
-0.90329826 -1.0068117 1.0684562
-0.89328086 -0.99633503 0.87195593
-0.88490319 -0.98802018 0.70060712
-0.8727206 -0.97509176 0.54459149
-0.84907103 -0.94932407 0.39790022
-0.84489065 -0.94497424 0.26901206
-0.8253324 -0.92373675 0.14364508
-0.10406115 -0.044703837 11.563832
-0.99695742 -1.0688102 7.0503879
-0.9378773 -1.0191665 4.4749508
-0.64910901 -0.71034288 2.3264942
-0.78044403 -0.85757184 2.1922498
-0.96495086 -1.063215 2.1814091
-0.95016003 -1.0490986 1.7712594
-0.2091894 -0.18733568 4.6965795
-0.93016887 -1.0020447 5.3014908
-0.93162179 -1.0130346 3.7968626
-0.69160879 -0.75627649 2.1828332
-0.87441564 -0.95910746 2.1931098
-0.96077871 -1.0563785 1.9655914
-0.93739974 -1.032462 1.5900619
-0.93181962 -1.0331683 1.4470248
-0.91392142 -1.0143771 1.1833144
-0.89939088 -0.99928701 0.96605617
-0.88669407 -0.98586118 0.78063476
-0.87755543 -0.97637463 0.61871922
-0.86249334 -0.96027958 0.46933872
-0.84981668 -0.94682294 0.33302075
-0.84111649 -0.93777668 0.20603976
-0.92654824 -1.024437 1.311403
-0.90409738 -1.0006535 1.065513
-0.89386439 -0.99001139 0.86942273
-0.88530684 -0.98155516 0.6985091
-0.8697958 -0.96502417 0.54130447
-0.84912658 -0.94274282 0.39672789
-0.84487051 -0.93833923 0.26832137
-0.82521015 -0.91713631 0.14344354
-0.10396978 -0.044252981 11.533834
-0.99301213 -1.0571617 6.9965401
-0.9434588 -1.0180759 4.4844952
-0.6489383 -0.70519799 2.3172891
-0.78343278 -0.85484236 2.1922498
-0.9686563 -1.0598402 2.1814091
-0.95165622 -1.0434076 1.767422
-0.20984206 -0.18660434 4.6965795
-0.93623662 -1.001546 5.316009
-0.93397951 -1.0085105 3.7921698
-0.69424444 -0.75385773 2.1828332
-0.8777582 -0.95604932 2.1931098
-0.96038961 -1.0485743 1.9576114
-0.93642259 -1.0241798 1.5827116
-0.93062472 -1.0246297 1.4400158
-0.91484112 -1.0082983 1.180176
-0.89725709 -0.98994517 0.96057326
-0.88715619 -0.97947687 0.77831602
-0.87784714 -0.96986836 0.61684614
-0.85940421 -0.95014787 0.46651864
-0.84982258 -0.94020659 0.33208814
-0.84104675 -0.93113923 0.20559268
-0.92760414 -1.0184361 1.3080776
-0.90486443 -0.99450189 1.0625699
-0.89441454 -0.98369575 0.86688954
-0.88567621 -0.97509944 0.69641101
-0.86998528 -0.95848566 0.53966099
-0.84914666 -0.93617296 0.39555559
-0.84481442 -0.93171591 0.2676307
-0.8250519 -0.91054791 0.14324202
-0.10325877 -0.043587092 11.428839
-0.98899788 -1.0455538 6.9426928
-0.94904399 -1.0169588 4.4940395
-0.65006781 -0.70149565 2.3126867
-0.78641194 -0.85210252 2.1922498
-0.97044408 -1.0543822 2.1772761
-0.95312423 -1.0377189 1.7635844
-0.21027459 -0.18568093 4.6915874
-0.94317383 -1.001932 5.3353667
-0.93749422 -1.0052441 3.7921698
-0.69539124 -0.74983382 2.1783321
-0.8810901 -0.95297956 2.1931098
-0.95995778 -1.0407859 1.9496313
-0.935399 -1.0159171 1.5753613
-0.93178862 -1.0187436 1.4365112
-0.91310388 -0.99935198 1.1738991
-0.89788824 -0.98371893 0.9578318
-0.88758445 -0.97310138 0.77599716
-0.87498122 -0.95994592 0.61310011
-0.85948521 -0.94359577 0.4651086
-0.84979266 -0.93360174 0.33115551
-0.84094101 -0.92451394 0.2051456
-0.92610562 -1.009689 1.3014265
-0.90286893 -0.98537719 1.0566835
-0.89202046 -0.97420913 0.8618232
-0.88601118 -0.96865302 0.69431299
-0.87013972 -0.95195746 0.53801745
-0.84913117 -0.92961442 0.39438328
-0.84806156 -0.92876124 0.2676307
-0.82485777 -0.90397197 0.14304048
-0.10312165 -0.043126497 11.39384
-0.98561716 -1.0347241 6.8937402
-0.95463282 -1.015815 4.503583
-0.65117937 -0.69779414 2.3080842
-0.7893815 -0.84935224 2.1922498
-0.97411871 -1.0509883 2.1772761
-0.95238769 -1.0296797 1.7559093
-0.21092145 -0.18494581 4.6915874
-0.94926023 -1.00137 5.349885
-0.93981588 -1.0007077 3.787477
-0.69800436 -0.74740189 2.1783321
-0.88441122 -0.94989824 2.1931098
-0.95948333 -1.0330133 1.9416513
-0.93663436 -1.01016 1.5716861
-0.93292284 -1.012862 1.4330066
-0.9113155 -0.99043018 1.1676221
-0.895657 -0.9744218 0.95234889
-0.88797903 -0.96673489 0.77367836
-0.87519175 -0.95347059 0.6112271
-0.85628837 -0.93351978 0.46228856
-0.85304636 -0.93062973 0.33115551
-0.844163 -0.92157286 0.2051456
-0.927091 -1.0037074 1.2981011
-0.90356195 -0.97924894 1.0537404
-0.89249325 -0.9679203 0.85929
-0.88323718 -0.95887816 0.69011688
-0.86706102 -0.94196576 0.53473043
-0.84908032 -0.92306733 0.39321095
-0.84794647 -0.92215008 0.26694003
-0.82800817 -0.90108716 0.14304048
-0.10281745 -0.04261088 11.338841
-0.97935301 -1.0209923 6.8252077
-0.96125144 -1.0157286 4.517899
-0.65361118 -0.69551682 2.3080842
-0.79234153 -0.84659159 2.1922498
-0.97586113 -1.0455245 2.1731431
-0.95379132 -1.0240035 1.7520717
-0.21156576 -0.18420842 4.6915874
-0.9562223 -1.0016865 5.3692427
-0.94211739 -0.99616748 3.7827842
-0.70060903 -0.74496084 2.1783321
-0.88772166 -0.94680524 2.1931098
-0.95896643 -1.0252568 1.9336712
-0.93552727 -1.0019288 1.5643358
-0.93160206 -1.0043701 1.4259976
-0.90947598 -0.98153305 1.1613452
-0.8962124 -0.96822089 0.94960743
-0.88834012 -0.96037745 0.77135956
-0.87536776 -0.94700551 0.60935402
-0.85628676 -0.9270013 0.46087852
-0.85295773 -0.92403692 0.3302229
-0.84062153 -0.91129965 0.20425145
-0.92550278 -0.99499756 1.29145
-0.90147161 -0.9701671 1.0478541
-0.88999987 -0.95848137 0.85422367
-0.88349235 -0.9524619 0.68801886
-0.86713356 -0.93547022 0.5330869
-0.84899408 -0.91653204 0.39203864
-0.84779555 -0.91555113 0.26624933
-0.82775545 -0.89452457 0.14283895
-0.10259357 -0.042125881 11.293843
-0.97866553 -1.0131742 6.795836
-0.96685106 -1.0145279 4.5274429
-0.65334886 -0.69039345 2.2988791
-0.79529184 -0.84382063 2.1922498
-0.97757733 -1.0400615 2.1690104
-0.95297414 -1.0159926 1.7443968
-0.21242701 -0.18365629 4.6965795
-0.96232677 -1.0010605 5.3837605
-0.9443987 -0.99162334 3.7780917
-0.70470226 -0.74409109 2.1828332
-0.89102119 -0.94370073 2.1931098
-0.95840698 -1.0175163 1.925691
-0.93669635 -0.99618733 1.5606607
-0.9302333 -0.99589998 1.4189885
-0.90758562 -0.97266096 1.1550683
-0.89673543 -0.96202797 0.94686598
-0.88866758 -0.95402938 0.76904076
-0.87235069 -0.93715769 0.60560799
-0.85625005 -0.92049438 0.45946848
-0.85283351 -0.91745603 0.32929027
-0.83701885 -0.90106249 0.20335729
-0.92641777 -0.98903596 1.2881246
-0.90209091 -0.96406323 1.0449109
-0.8903957 -0.9522202 0.85169047
-0.88371348 -0.94605553 0.68592077
-0.863949 -0.92553389 0.52979988
-0.84887266 -0.91000867 0.39086631
-0.84760892 -0.90896451 0.26555866
-0.82746691 -0.88797474 0.14263742
-0.101871 -0.041476917 11.188847
-0.97651541 -1.0039141 6.7566743
-0.97348779 -1.0143774 4.541759
-0.64901465 -0.68103832 2.2758665
-0.7982325 -0.84103942 2.1922498
-0.97733283 -1.0325556 2.1607444
-0.95211267 -1.0079999 1.7367218
-0.21328695 -0.18310039 4.7015705
-0.96931297 -1.0013071 5.4031181
-0.94546503 -0.98583013 3.7687061
-0.70729542 -0.74162662 2.1828332
-0.89430994 -0.94058478 2.1931098
-0.9578054 -1.0097926 1.917711
-0.937837 -0.99045002 1.5569855
-0.92881697 -0.98745173 1.4119794
-0.90830976 -0.96665055 1.1519299
-0.89436442 -0.95279479 0.941383
-0.8859309 -0.94445992 0.76440316
-0.87244612 -0.93072468 0.60373497
-0.85617852 -0.91399902 0.45805845
-0.85267383 -0.9108873 0.32835767
-0.83335489 -0.89086163 0.20246312
-0.92730236 -0.98308015 1.2847991
-0.89990646 -0.95502508 1.0390246
-0.88780355 -0.94282973 0.84662414
-0.88390082 -0.93965942 0.68382275
-0.86394012 -0.91907191 0.5281564
-0.84871602 -0.90349734 0.38969401
-0.84738672 -0.90239036 0.26486799
-0.82714283 -0.8814379 0.14243589
-0.10201516 -0.041121066 11.188847
-0.97431248 -0.99468148 6.7175121
-0.98013508 -1.0141927 4.5560746
-0.64597625 -0.67313123 2.2574563
-0.80116343 -0.83824795 2.1922498
-0.97510606 -1.0230273 2.1483455
-0.95341629 -1.0023481 1.7328844
-0.21436644 -0.18272665 4.7115541
-0.97631264 -1.0015173 5.4224763
-0.94530356 -0.97880042 3.7546277
-0.70987982 -0.73915321 2.1828332
-0.89758766 -0.93745732 2.1931098
-0.95716155 -1.0020852 1.9097309
-0.93660939 -0.98226345 1.5496351
-0.92980558 -0.98161453 1.4084748
-0.90632784 -0.95781982 1.1456529
-0.89481235 -0.94662839 0.93864155
-0.8861804 -0.93814164 0.76208436
-0.87250733 -0.92430252 0.60186189
-0.85607195 -0.90751535 0.45664841
-0.85247868 -0.90433097 0.32742503
-0.82963002 -0.88069749 0.20156896
-0.92558503 -0.97442317 1.2781481
-0.90045232 -0.94894606 1.0360813
-0.88812304 -0.93659705 0.844091
-0.88405418 -0.93327343 0.68172467
-0.86389673 -0.91262126 0.52651286
-0.84518409 -0.89346731 0.38734937
-0.84372652 -0.89223081 0.26348662
-0.82678318 -0.87491411 0.14223436
-0.10253137 -0.040886652 11.233845
-0.97348738 -0.98692596 6.6881409
-0.98679304 -1.0139741 4.5703912
-0.64289045 -0.6652537 2.2390463
-0.80408454 -0.8354463 2.1922498
-0.97477371 -1.0155572 2.1400795
-0.95247483 -0.99438471 1.7252094
-0.21566738 -0.1825328 4.7265291
-0.98332554 -1.0016906 5.441834
-0.95954412 -0.98662716 3.7968626
-0.71245563 -0.73667079 2.1828332
-0.90085459 -0.93431842 2.1931098
-0.95647562 -0.9943949 1.9017509
-0.93768418 -0.97654283 1.5459599
-0.92830324 -0.97320199 1.4014658
-0.90698057 -0.95183259 1.1425145
-0.89522821 -0.94047052 0.93590009
-0.88639647 -0.93183309 0.75976557
-0.87253428 -0.9178912 0.59998888
-0.85593069 -0.90104371 0.4552384
-0.85224825 -0.89778709 0.32649243
-0.82927185 -0.8741833 0.20112188
-0.92639983 -0.96848828 1.2748226
-0.9009667 -0.94287485 1.0331382
-0.88840973 -0.93037355 0.8415578
-0.88417387 -0.92689782 0.67962664
-0.86381876 -0.90618223 0.52486938
-0.84494519 -0.88699228 0.38617706
-0.84000564 -0.88210779 0.26210526
-0.82638818 -0.86840361 0.14203283
-0.1029226 -0.040608928 11.263844
-0.97405559 -0.9806329 6.66856
-0.99241632 -1.0126551 4.5799346
-0.63975775 -0.65740603 2.2206361
-0.80699587 -0.83263439 2.1922498
-0.97440094 -1.0081019 2.1318138
-0.95148939 -0.98644024 1.7175343
-0.2160811 -0.18159445 4.7215371
-0.9912352 -1.0027208 5.4660311
-0.98471904 -1.0054609 3.8813324
-0.71502274 -0.73417932 2.1828332
-0.90411043 -0.93116814 2.1931098
-0.95574766 -0.98672158 1.8937708
-0.93637383 -0.96838975 1.5386096
-0.92922407 -0.96738392 1.3979613
-0.90760249 -0.94585246 1.139376
-0.895612 -0.9343214 0.93315864
-0.88657939 -0.92553437 0.75744677
-0.87252724 -0.9114911 0.59811586
-0.85575467 -0.894584 0.45382836
-0.85198259 -0.89125597 0.32555979
-0.82543838 -0.86408126 0.20022772
-0.92459404 -0.95987058 1.2681715
-0.89864695 -0.93389916 1.0272518
-0.88866389 -0.92415953 0.83902454
-0.88425976 -0.92053288 0.67752856
-0.86370653 -0.89975482 0.52322584
-0.84467131 -0.88052982 0.38500473
-0.83965212 -0.87559611 0.26141456
-0.82595772 -0.86190665 0.14183129
-0.10306373 -0.040249411 11.263844
-0.97603238 -0.9757874 6.6587696
-0.99909109 -1.0123717 4.5942507
-0.64068103 -0.65377378 2.2160337
-0.80989742 -0.82981241 2.1922498
-0.97202533 -0.99864554 2.119415
-0.95046026 -0.97851491 1.7098594
-0.21604541 -0.1802882 4.7065625
-0.99739015 -1.0019267 5.4805493
-1.0136727 -1.0278163 3.9798803
-0.71758109 -0.73167896 2.1828332
-0.90735531 -0.92800653 2.1931098
-0.95497793 -0.97906554 1.8857908
-0.935018 -0.96025765 1.5312593
-0.93011558 -0.96157122 1.3944566
-0.90819383 -0.9398796 1.1362376
-0.89596373 -0.92818111 0.93041718
-0.88672918 -0.91924584 0.75512797
-0.87248605 -0.90510219 0.59624279
-0.85887218 -0.89159137 0.45382836
-0.85168159 -0.88473773 0.32462719
-0.82499707 -0.85760576 0.19978066
-0.92533916 -0.95395744 1.2648461
-0.8990885 -0.92785394 1.0243087
-0.88888544 -0.9179551 0.83649141
-0.88431203 -0.91417861 0.67543054
-0.86355984 -0.89333928 0.52158237
-0.84436274 -0.87408018 0.38383242
-0.83582348 -0.86553544 0.26003322
-0.82896131 -0.85901827 0.14183129
-0.10320359 -0.03988941 11.263844
-0.97654152 -0.96950561 6.6391888
-1.0057759 -1.0120541 4.6085668
-0.64021415 -0.64875263 2.2068286
-0.81278908 -0.82698023 2.1922498
-0.97156549 -0.99122733 2.1111491
-0.94938725 -0.97060883 1.7021843
-0.21645001 -0.17935011 4.7015705
-1.0017715 -0.99932653 5.4853888
-1.0245515 -1.0316174 4.0080371
-0.7201308 -0.72916973 2.1828332
-0.90875918 -0.92297536 2.1888437
-0.95627809 -0.97357661 1.8818009
-0.933617 -0.95214695 1.523909
-0.92848945 -0.95320958 1.3874475
-0.90604001 -0.93112469 1.1299607
-0.89336902 -0.91905153 0.92493427
-0.88684595 -0.91296756 0.75280917
-0.87241101 -0.89872473 0.59436977
-0.85863894 -0.88514483 0.45241833
-0.8513456 -0.87823236 0.32369456
-0.82452065 -0.85114396 0.19933358
-0.92344528 -0.94537979 1.258195
-0.89949882 -0.92181706 1.0213655
-0.88907462 -0.91176045 0.83395821
-0.88433081 -0.90783525 0.67333251
-0.86337906 -0.88693589 0.51993883
-0.84740865 -0.87112743 0.38383242
-0.83538729 -0.85906243 0.25934252
-0.83195484 -0.85611939 0.14183129
-0.10267562 -0.039321426 11.183847
-0.98282075 -0.96894968 6.6587696
-1.0103586 -1.0095918 4.6133385
-0.64109749 -0.64512843 2.2022262
-0.81567079 -0.82413805 2.1922498
-0.97304261 -0.98582727 2.1070161
-0.9482708 -0.96272212 1.6945094
-0.21662667 -0.17822935 4.6915874
-1.0061468 -0.99670804 5.4902282
-1.0232644 -1.0231546 3.9892662
-0.72267169 -0.72665155 2.1828332
-0.91197544 -0.91979754 2.1888437
-0.95543242 -0.96594822 1.8738209
-0.93217075 -0.94405782 1.5165586
-0.92931366 -0.9474169 1.383943
-0.90656042 -0.92517638 1.1268222
-0.8936466 -0.91293943 0.92219275
-0.88692957 -0.90669978 0.75049037
-0.87230211 -0.8923589 0.59249669
-0.85501921 -0.87527925 0.44959825
-0.85097462 -0.87174016 0.32276195
-0.82748669 -0.84826064 0.19933358
-0.9241212 -0.93948895 1.2548696
-0.89987803 -0.91578865 1.0184224
-0.8892315 -0.90557575 0.83142501
-0.88431615 -0.90150303 0.67123443
-0.86316413 -0.8805446 0.51829535
-0.84704286 -0.86469191 0.38266009
-0.83491606 -0.85260302 0.25865185
-0.83144391 -0.84963948 0.14162977
-0.10235348 -0.038821734 11.12885
-0.98838031 -0.96764958 6.6734552
-1.0223544 -1.014469 4.6515145
-0.64196336 -0.64150596 2.1976235
-0.82023352 -0.82298201 2.1966388
-0.9725101 -0.97843337 2.0987501
-0.94485354 -0.9525795 1.6829967
-0.21724749 -0.1774721 4.6915874
-1.0114124 -0.99495256 5.499907
-1.0084591 -1.0013402 3.9188745
-0.72520381 -0.72412455 2.1828332
-0.91518062 -0.91660857 2.1888437
-0.95667171 -0.96047246 1.8698307
-0.93306994 -0.93839431 1.5128835
-0.93010885 -0.94163018 1.3804384
-0.90705043 -0.91923583 1.1236838
-0.89389247 -0.90683669 0.9194513
-0.88387173 -0.89728683 0.74585277
-0.8721596 -0.88600492 0.59062368
-0.85470515 -0.8688696 0.44818825
-0.85401243 -0.8687644 0.32276195
-0.8269527 -0.84181446 0.1988865
-0.92213959 -0.93095219 1.2482185
-0.90022612 -0.90976888 1.0154792
-0.88935602 -0.89940107 0.82889187
-0.88426805 -0.89518195 0.6691364
-0.86291504 -0.87416565 0.51665181
-0.84664267 -0.85826969 0.38148779
-0.83441001 -0.84615737 0.25796115
-0.83089799 -0.84317356 0.14142823
-0.10236312 -0.038426183 11.11385
-0.99467283 -0.96703196 6.6930361
-1.0343965 -1.0192746 4.6896906
-0.64281172 -0.63788521 2.1930211
-0.82310128 -0.82011384 2.1966388
-0.97193784 -0.97105509 2.0904841
-0.94364238 -0.94474036 1.6753218
-0.21764033 -0.17653215 4.6865959
-1.0166777 -0.99317235 5.5095859
-0.98736966 -0.97358447 3.8250191
-0.72772706 -0.72158867 2.1828332
-0.9183746 -0.9134084 2.1888437
-0.95575047 -0.95287246 1.8618507
-0.9315421 -0.93034053 1.5055332
-0.92835987 -0.93332106 1.3734293
-0.90750986 -0.91330302 1.1205453
-0.89116073 -0.89777577 0.91396838
-0.88387877 -0.89105111 0.74353397
-0.87198323 -0.87966275 0.58875066
-0.85435694 -0.86247289 0.44677821
-0.85358387 -0.86228704 0.32182932
-0.82638389 -0.83538234 0.19843942
-0.9227466 -0.92508429 1.2448931
-0.90054315 -0.90375781 1.012536
-0.88944829 -0.89323658 0.82635868
-0.8809858 -0.88565457 0.6649403
-0.86263204 -0.86779922 0.51500833
-0.8462078 -0.85186076 0.38031548
-0.83386916 -0.83972579 0.25727049
-0.83031702 -0.83672178 0.14122671
-0.10249663 -0.038068637 11.11385
-1.0002403 -0.96567518 6.7077217
-1.0475514 -1.0250521 4.7326379
-0.64364272 -0.6342665 2.1884184
-0.82595897 -0.81723571 2.1966388
-0.9733237 -0.96567464 2.0863512
-0.94238806 -0.93692124 1.6676468
-0.21848118 -0.17595109 4.6915874
-1.0228454 -0.99224263 5.5241041
-0.98829573 -0.96771759 3.8156335
-0.73024142 -0.71904403 2.1828332
-0.92155737 -0.91019714 2.1888437
-0.95692945 -0.9474107 1.8578608
-0.93237668 -0.92469603 1.501858
-0.92908818 -0.92755532 1.3699248
-0.9079392 -0.90737832 1.1174068
-0.89133292 -0.89170235 0.91122693
-0.88072222 -0.88169241 0.73889637
-0.87177324 -0.87333262 0.58687764
-0.8539744 -0.85608923 0.44536817
-0.85312051 -0.85582316 0.32089669
-0.82578027 -0.82896453 0.19799234
-0.92332393 -0.91922337 1.2415675
-0.90082932 -0.89775568 1.0095929
-0.88950837 -0.8870824 0.82382548
-0.88085991 -0.87936753 0.66284221
-0.86231524 -0.86144549 0.51336479
-0.84573853 -0.8454653 0.37914312
-0.83679533 -0.83680993 0.25727049
-0.8297013 -0.83028448 0.14102517
-0.10200132 -0.037524849 11.038853
-1.0065457 -0.96499574 6.7273026
-1.0596887 -1.0297101 4.7708144
-0.64585274 -0.63201588 2.1884184
-0.82880664 -0.81434757 2.1966388
-0.9726792 -0.95832157 2.0780854
-0.9410907 -0.92912245 1.6599717
-0.21909402 -0.17518738 4.6915874
-1.0299243 -0.99215376 5.5434618
-0.99043041 -0.96305907 3.8109407
-0.73430365 -0.71801245 2.1873345
-0.92472893 -0.90697473 2.1888437
-0.95593303 -0.93983984 1.8498807
-0.93076771 -0.91667831 1.4945077
-0.92725492 -0.91928518 1.3629158
-0.90557539 -0.89872015 1.11113
-0.88850707 -0.88269186 0.90574402
-0.8806529 -0.87548971 0.73657757
-0.87481648 -0.87028426 0.58687764
-0.85355777 -0.84971863 0.44395813
-0.85262257 -0.84937322 0.31996405
-0.82866889 -0.82607692 0.19799234
-0.92121631 -0.91074497 1.2349164
-0.89821148 -0.88891947 1.0037066
-0.8895365 -0.88093883 0.82129234
-0.87747777 -0.86989713 0.65864611
-0.86196446 -0.85510451 0.51172131
-0.84523505 -0.83908355 0.37797081
-0.83971119 -0.83388388 0.25727049
-0.82550699 -0.8203401 0.14062211
-0.10213169 -0.03716857 11.038853
-1.0128584 -0.96428406 6.7468839
-1.0622022 -1.0249685 4.7660422
-0.64805496 -0.62975758 2.1884184
-0.83164418 -0.81144953 2.1966388
-0.97199529 -0.95098484 2.0698195
-0.93975049 -0.92134416 1.6522968
-0.21970421 -0.17442155 4.6915874
-1.0361068 -0.9911589 5.5579801
-0.99502754 -0.96079451 3.8156335
-0.7368055 -0.7154448 2.1873345
-0.92788923 -0.9037413 2.1888437
-0.95705158 -0.93439227 1.8458906
-0.93153805 -0.91105348 1.4908326
-0.92537528 -0.91103917 1.3559066
-0.90593457 -0.89282155 1.1079915
-0.88860613 -0.87664849 0.9030025
-0.88055104 -0.86929822 0.73425877
-0.87455094 -0.86396724 0.58500457
-0.85310715 -0.84336168 0.4425481
-0.85208994 -0.84293717 0.31903145
-0.82800823 -0.81967586 0.19754526
-0.92172533 -0.90490818 1.231591
-0.89842588 -0.88294566 1.0007634
-0.88953245 -0.87480581 0.81875914
-0.87727451 -0.86364484 0.65654802
-0.86158013 -0.84877658 0.51007777
-0.84469736 -0.83271575 0.37679848
-0.83909088 -0.82747054 0.25657982
-0.82480949 -0.81394446 0.14042059
-0.10255428 -0.036896486 11.073852
-1.0191785 -0.96354002 6.7664647
-1.0657736 -1.0212543 4.7660422
-0.6502493 -0.62749165 2.1884184
-0.83275139 -0.80687517 2.1922498
-0.96925366 -0.9417038 2.0574207
-0.94066417 -0.91582239 1.6484592
-0.22031173 -0.17365356 4.6915874
-1.0432061 -0.99099833 5.5773377
-0.9983753 -0.95731539 3.8156335
-0.73929834 -0.71286857 2.1873345
-0.9310382 -0.9004969 2.1888437
-0.95598024 -0.92685121 1.8379105
-0.92984837 -0.90307266 1.4834822
-0.92599958 -0.90531051 1.3524021
-0.90626371 -0.88693154 1.104853
-0.88867372 -0.87061518 0.90026098
-0.88041681 -0.86311823 0.73193997
-0.87425202 -0.8576628 0.58313155
-0.85262257 -0.83701807 0.44113809
-0.85502714 -0.83995771 0.31903145
-0.82731307 -0.8132894 0.19709818
-0.91953129 -0.89647257 1.2249401
-0.89571685 -0.87415826 0.9948771
-0.88949645 -0.86868358 0.81622595
-0.88028383 -0.86057729 0.65654802
-0.8645376 -0.84576398 0.51007777
-0.84412551 -0.82636189 0.37562618
-0.83843607 -0.82107174 0.25588912
-0.82764572 -0.81106037 0.14042059
-0.10268244 -0.036538281 11.073852
-1.0262481 -0.96346033 6.7909408
-1.0682504 -1.016499 4.76127
-0.65243566 -0.62521797 2.1884184
-0.83556283 -0.80396342 2.1922498
-0.9684844 -0.93440735 2.0491548
-0.93924624 -0.90807784 1.6407841
-0.22091654 -0.17288348 4.6915874
-1.0475736 -0.9882133 5.5821776
-1.0042107 -0.95620424 3.8250191
-0.74178225 -0.71028364 2.1873345
-0.93417591 -0.89724141 2.1888437
-0.95486808 -0.91932905 1.8299305
-0.93055469 -0.89746809 1.479807
-0.92403632 -0.8971045 1.3453929
-0.90656281 -0.88105005 1.1017146
-0.88871008 -0.86459208 0.89751953
-0.88025022 -0.85694981 0.72962117
-0.87391979 -0.85137093 0.58125854
-0.85210425 -0.8306883 0.43972805
-0.85443771 -0.83353782 0.31809881
-0.83014691 -0.81039661 0.19709818
-0.9199723 -0.89066041 1.2216145
-0.89586008 -0.86821336 0.99193394
-0.88942873 -0.86257243 0.81369281
-0.88002598 -0.85433799 0.65445
-0.86409748 -0.8394506 0.5084343
-0.84351981 -0.8200224 0.37445387
-0.84129697 -0.81814003 0.25588912
-0.82689136 -0.8046822 0.14021905
-0.10280936 -0.036179628 11.073852
-1.0333295 -0.96334296 6.8154168
-1.0717922 -1.012764 4.76127
-0.65461409 -0.62293679 2.1884184
-0.83836406 -0.8010419 2.1922498
-0.96767604 -0.92712766 2.040889
-0.9377858 -0.90035427 1.6331092
-0.22151867 -0.17211129 4.6915874
-1.059274 -0.99228305 5.6257319
-0.99625599 -0.94202387 3.7827842
-0.74425709 -0.70769 2.1873345
-0.93730217 -0.89397514 2.1888437
-0.95371509 -0.91182595 1.8219506
-0.92878479 -0.88952494 1.4724567
-0.9245947 -0.89139855 1.3418884
-0.90683174 -0.87517726 1.0985761
-0.88871527 -0.85857946 0.89477807
-0.88005126 -0.85079312 0.72730237
-0.87355429 -0.84509188 0.57938552
-0.85155195 -0.82437223 0.43831801
-0.85381389 -0.82713228 0.31716621
-0.829395 -0.80402768 0.1966511
-0.91769224 -0.88226855 1.2149636
-0.89597279 -0.86227822 0.98899078
-0.88932908 -0.85647225 0.81115961
-0.87973529 -0.84811103 0.65235192
-0.86362392 -0.83315074 0.50679076
-0.84637702 -0.81707293 0.37445387
-0.84058553 -0.81175834 0.25519845
-0.82610267 -0.79831916 0.14001752
-0.10293502 -0.035820536 11.073852
-1.0396751 -0.96249628 6.8349977
-1.0764095 -1.0100378 4.7660422
-0.65678459 -0.62064797 2.1884184
-0.84115511 -0.79811054 2.1922498
-0.9668287 -0.91986519 2.0326231
-0.93860292 -0.89486378 1.6292717
-0.22211811 -0.17133699 4.6915874
-1.0691748 -0.99457127 5.6596084
-0.99576372 -0.93499726 3.7687061
-0.74672288 -0.70508772 2.1873345
-0.94041699 -0.8906979 2.1888437
-0.95252144 -0.90434217 1.8139704
-0.92942739 -0.88394117 1.4687816
-0.92512459 -0.88569963 1.3383839
-0.90707093 -0.86931348 1.0954376
-0.89170688 -0.85547203 0.89477807
-0.87982005 -0.84464824 0.72498357
-0.87315559 -0.83882582 0.57751244
-0.85442442 -0.8213948 0.43831801
-0.85315573 -0.82074136 0.31623358
-0.82860881 -0.79767394 0.19620402
-0.91806555 -0.87648153 1.211638
-0.89605504 -0.85635293 0.98604763
-0.88919789 -0.8503834 0.80862641
-0.88269043 -0.84503508 0.65235192
-0.8665269 -0.83013099 0.50679076
-0.84922403 -0.81411356 0.37445387
-0.83626556 -0.80196416 0.25381708
-0.82888424 -0.79543066 0.14001752
-0.10339613 -0.035553057 11.11385
-1.0460275 -0.96161699 6.8545785
-1.081021 -1.0072918 4.7708144
-0.65752226 -0.61701494 2.183816
-0.84393597 -0.79516953 2.1922498
-0.96798819 -0.91455227 2.0284901
-0.93706548 -0.88717496 1.6215967
