# .PCD v0.7 - Point Cloud Data file format
VERSION 0.7
FIELDS x y z
SIZE 4 4 4
TYPE F F F
COUNT 1 1 1
WIDTH 1463
HEIGHT 1
VIEWPOINT 0 0 0 1 0 0 0
POINTS 1463
DATA ascii
-0.99347317 -2.0896473 3.4708893
-0.96482134 -2.034838 2.7728481
-1.493288 -3.0514369 13.117161
-1.2091463 -2.5005274 7.607389
-1.0946583 -2.2799239 5.2931724
-1.0144831 -2.1214333 3.9165471
-0.97624272 -2.0478525 3.0788083
-0.9412061 -1.9787711 2.4537256
-0.92354214 -1.9583344 2.2075114
-0.88357347 -1.8761102 1.7545135
-0.86405045 -1.8371297 1.4156566
-0.84650731 -1.801446 1.1284548
-0.83175778 -1.7716471 0.87907082
-0.81500161 -1.7375159 0.65405303
-0.80045295 -1.7080384 0.44959828
-0.78968728 -1.6865804 0.26013631
-0.91039258 -1.9234756 1.976503
-0.86994433 -1.8404901 1.5658503
-0.85674846 -1.8141946 1.2645986
-0.8426035 -1.7866477 1.0006286
-0.82548296 -1.7519135 0.76317817
-0.8074742 -1.7152293 0.54795682
-0.79272813 -1.6846573 0.35189366
-0.79485786 -1.6906968 0.16903797
-1.3486329 -2.6718988 19.026445
-1.4895613 -2.9987671 16.121243
-1.3255723 -2.7146871 9.7050457
-1.1443522 -2.3643947 6.2478452
-1.0442308 -2.1690555 4.47896
-0.99102354 -2.0658696 3.4378257
-0.95946747 -2.0054357 2.7383106
-1.4855648 -3.0090132 12.95746
-1.2057593 -2.4714773 7.5323043
-1.0912197 -2.2525792 5.2391572
-1.0116811 -2.0967398 3.8781536
-0.97554749 -2.0281396 3.054868
-0.93930566 -1.9571354 2.4316745
-0.92117745 -1.9357778 2.1864841
-0.88343388 -1.8589526 1.7419597
-0.86328638 -1.8189923 1.4046907
-0.84709638 -1.7864724 1.1214983
-0.82999748 -1.7519748 0.87157869
-0.81285238 -1.717317 0.64841288
-0.80011004 -1.6919118 0.44680041
-0.78918737 -1.6703056 0.25879508
-0.90905529 -1.9034401 1.9598755
-0.86940312 -1.8228493 1.5540776
-0.85565799 -1.7956269 1.2544659
-0.8410337 -1.7673031 0.99223644
-0.82551008 -1.7362276 0.75824767
-0.80719954 -1.699229 0.54443991
-0.79223144 -1.6684598 0.3498216
-0.79647201 -1.6788846 0.16863491
-1.3579514 -2.6671751 19.026445
-1.4972826 -2.9880881 16.091873
-1.3192066 -2.6779077 9.590518
-1.1397382 -2.3340535 6.1788068
-1.0413307 -2.1438546 4.4350691
-0.98842013 -2.0421345 3.404762
-0.9553138 -1.9789827 2.7076104
-1.4624313 -2.9363031 12.667094
-1.2014222 -2.4409332 7.4525275
-1.0876038 -2.225287 5.185143
-1.0030107 -2.0603669 3.8184304
-0.97604251 -2.011168 3.0349178
-0.93874353 -1.9385889 2.4132988
-0.91866654 -1.9132615 2.1654568
-0.88318533 -1.8418189 1.7294059
-0.86240631 -1.8008827 1.3937249
-0.84759128 -1.7715168 1.114542
-0.83010948 -1.7365191 0.86595953
-0.81263965 -1.7014831 0.6441828
-0.80177999 -1.6802419 0.44493517
-0.79072678 -1.6585501 0.25790092
-0.9075892 -1.8834375 1.943248
-0.86874938 -1.8052347 1.542305
-0.85631645 -1.780974 1.2468663
-0.84130388 -1.7520829 0.9859423
-0.82543772 -1.7205627 0.75331712
-0.80682313 -1.6832517 0.54092294
-0.79377121 -1.6567522 0.34844026
-0.79585624 -1.6625754 0.16803031
-1.366188 -2.6603453 19.011627
-1.5040286 -2.9755738 16.05271
-1.3139292 -2.6438794 9.4855347
-1.1340632 -2.302021 6.1051664
-1.0382676 -2.1187007 4.3911786
-0.98689806 -2.0209718 3.3758314
-0.94677651 -1.9439384 2.6653979
-1.1236212 -1.9460351 20.914927
-1.4619486 -2.9098408 12.575146
-1.1976544 -2.4119954 7.3774433
-1.0847738 -2.2000003 5.1356297
-1.0044476 -2.0451488 3.7971005
-0.97643089 -1.9942175 3.0149677
-0.93657511 -1.9170243 2.3912477
-0.91756469 -1.893996 2.147934
-0.88113266 -1.8212062 1.7137135
-0.86141032 -1.7828016 1.3827591
-0.84799218 -1.7565796 1.1075855
-0.83012378 -1.7210841 0.86034042
-0.81232631 -1.6856718 0.63995266
-0.80124718 -1.664155 0.44213733
-0.79003489 -1.6423168 0.2565597
-0.90599471 -1.8634684 1.9266205
-0.86974883 -1.791283 1.5334755
-0.85500157 -1.7624602 1.2367337
-0.83949924 -1.732798 0.97755009
-0.82526624 -1.7049198 0.74838662
-0.80634511 -1.667298 0.53740603
-0.79308361 -1.640596 0.34636822
-0.79730922 -1.6507897 0.16762725
-1.3765384 -2.6576297 19.026445
-1.5157939 -2.973027 16.067396
-1.3064233 -2.6059179 9.3662348
-1.1299177 -2.2735562 6.0407314
-1.0361031 -2.0957415 4.3516769
-0.9852404 -1.9998446 3.3469007
-0.94931567 -1.9319919 2.6538854
-1.1330911 -1.9467069 20.964643
-1.4601626 -2.8811755 12.473517
-1.1936992 -2.3831141 7.3023591
-1.0808108 -2.1728115 5.081615
-1.0046325 -2.0276091 3.7715054
-0.97671306 -1.9772892 2.9950178
-0.93576652 -1.8985392 2.3728719
-0.91633976 -1.8747618 2.1304114
-0.88065451 -1.8041282 1.7011597
-0.86029881 -1.7647498 1.3717932
-0.84635931 -1.7376789 1.0983104
-0.82801199 -1.701502 0.85284829
-0.8119126 -1.6698835 0.63572258
-0.80275828 -1.652511 0.44027206
-0.78923941 -1.6261085 0.25521845
-0.90427208 -1.8435339 1.9099932
-0.86888331 -1.7737168 1.5217029
-0.85546315 -1.7478493 1.2291342
-0.83956331 -1.7176245 0.9712559
-0.82499558 -1.6892991 0.74345607
-0.80576557 -1.651368 0.53388906
-0.79229301 -1.6244651 0.34429619
-0.79868966 -1.6390145 0.16722418
-1.3886858 -2.6583178 19.06596
-1.5256966 -2.9668121 16.0625
-1.2986685 -2.5680413 9.2469349
-1.1212091 -2.2364163 5.9532833
-1.0327222 -2.0706804 4.307786
-0.98344737 -1.978754 3.31797
-0.94893545 -1.9143078 2.6346979
-1.1425793 -1.947336 21.014357
-1.4656332 -2.8671076 12.434802
-1.1895571 -2.3542898 7.2272749
-1.0766715 -2.1456776 5.0276008
-1.0047072 -2.0100932 3.7459095
-0.97554499 -1.9576864 2.9710774
-0.9348405 -1.8800836 2.3544962
-0.91499174 -1.8555595 2.1128886
-0.88006794 -1.7870759 1.6886059
-0.85907179 -1.7467272 1.3608273
-0.84655869 -1.7227868 1.0913539
-0.8278169 -1.6861173 0.84722924
-0.81351131 -1.6584257 0.6329025
-0.80203623 -1.6364659 0.43747419
-0.79053056 -1.6143986 0.25432429
-0.90242118 -1.8236339 1.8933655
-0.86611491 -1.752555 1.506987
-0.85392451 -1.7293917 1.2190014
-0.83752447 -1.6984016 0.96286368
-0.82462609 -1.6737013 0.73852557
-0.80508476 -1.6354629 0.53037208
-0.7935859 -1.612803 0.34291482
-0.79779357 -1.6227663 0.1666196
-1.4023037 -2.6617026 19.125231
-1.5336992 -2.9569495 16.038025
-1.2899872 -2.5289214 9.1228638
-1.1184275 -2.2115688 5.8980532
-1.031332 -2.0499475 4.2726731
-0.98278064 -1.9602162 3.2931724
-0.94844347 -1.89665 2.6155102
-1.1444813 -1.9350797 20.92487
-1.4652622 -2.8418653 12.347692
-1.1844449 -2.3239865 7.1474977
-1.0723561 -2.1185994 4.9735861
-1.0034977 -1.990273 3.716048
-0.97289842 -1.9354237 2.9431474
-0.93379712 -1.8616576 2.3361204
-0.9151094 -1.8395823 2.0988705
-0.87764126 -1.766564 1.6729136
-0.85958815 -1.7324809 1.3526028
-0.84666455 -1.7079147 1.0843976
-0.82752448 -1.6707546 0.84161013
-0.81291223 -1.6426779 0.62867242
-0.80121189 -1.6204462 0.43467635
-0.78954393 -1.5982348 0.25298306
-0.9004426 -1.8037697 1.876738
-0.86501306 -1.7350516 1.4952143
-0.85418957 -1.7148247 1.2114018
-0.83738333 -1.6832774 0.95656961
-0.82415783 -1.658127 0.73359501
-0.80430275 -1.6195825 0.52685511
-0.79260522 -1.5967162 0.34084278
-0.79679376 -1.6065445 0.166015
-1.4101276 -2.654047 19.105473
-1.5430672 -2.9497733 16.028234
-1.2899277 -2.5071485 9.0608273
-1.1217012 -2.1989501 5.8750405
-1.0298098 -2.0292497 4.2375607
-0.98199654 -1.9417071 3.2683747
-0.9478398 -1.8790191 2.5963228
-1.1561463 -1.9393119 21.014357
-1.4542927 -2.7965879 12.173473
-1.1775576 -2.2906785 7.0583348
-1.0688547 -2.0935163 4.9240723
-1.0033444 -1.9728103 3.6904523
-0.97010851 -1.9132037 2.9152172
-0.9326365 -1.843262 2.3177445
-0.91512668 -1.8236272 2.0848522
-0.87682629 -1.749571 1.6603597
-0.85814387 -1.7145131 1.341637
-0.84667683 -1.6930629 1.0774411
-0.82713497 -1.6554147 0.83599097
-0.81435591 -1.6312463 0.62585235
-0.80028564 -1.6044524 0.43187848
-0.79067546 -1.5865548 0.2520889
-0.89833653 -1.7839419 1.8601105
-0.86379963 -1.7175777 1.4834417
-0.85242796 -1.6964253 1.2012691
-0.83511108 -1.6641186 0.94817728
-0.82570755 -1.6467975 0.730308
-0.80559695 -1.6080735 0.5245105
-0.79373932 -1.5850838 0.33946142
-0.79792601 -1.5948175 0.16561194
-1.4175482 -2.6456842 19.080778
-1.5562057 -2.9497724 16.057606
-1.2856064 -2.4774575 8.9701605
-1.1213249 -2.1793869 5.8336177
-1.0270643 -2.0064559 4.1980586
-0.98109531 -1.9232277 3.243577
-0.94712478 -1.8614159 2.5771353
-1.1640079 -1.9370915 21.034245
-1.4447769 -2.7547615 12.013772
-1.1720413 -2.2605114 6.9785581
-1.0641948 -2.0665483 4.8700581
-1.0018913 -1.953053 3.6605909
-0.9671756 -1.8910271 2.8872871
-0.93135887 -1.8248973 2.2993689
-0.91504389 -1.8076946 2.0708342
-0.87414724 -1.7291316 1.6446676
-0.85846949 -1.7003094 1.3334126
-0.84659588 -1.6782322 1.0704848
-0.82873517 -1.6442378 0.83224493
-0.81572974 -1.6198249 0.62303233
-0.80146545 -1.5928727 0.43001324
-0.78949827 -1.5704371 0.25074768
-0.89779401 -1.7674797 1.8468086
-0.86064619 -1.6965288 1.468726
-0.85249728 -1.6819042 1.1936696
-0.83476532 -1.6490457 0.94188321
-0.82505691 -1.6312637 0.7253775
-0.80682069 -1.5965755 0.52216589
-0.7925691 -1.5690432 0.33738938
-0.79673511 -1.5786422 0.16500735
-1.4252969 -2.6379859 19.06102
-1.568406 -2.9479175 16.077187
-1.2810936 -2.4478276 8.8794928
-1.1208258 -2.1598532 5.7921953
-1.0252712 -1.9858341 4.1629462
-0.98007697 -1.9047781 3.2187793
-0.9462986 -1.8438407 2.5579479
-1.1655115 -1.9243563 20.939787
-1.4367507 -2.7163696 11.868589
-1.1735266 -2.2441728 6.9410157
-1.0623703 -2.0454345 4.8295469
-1.0003124 -1.9333298 3.6307294
-0.96409965 -1.8688942 2.8593569
-0.92841291 -1.80355 2.2773178
-0.91486114 -1.7917851 2.0568159
-0.87310457 -1.7121999 1.6321138
-0.85680878 -1.6823984 1.3224468
-0.8444128 -1.6594746 1.0612096
-0.82816643 -1.6289375 0.82662582
-0.81486124 -1.6041371 0.61880219
-0.80035108 -1.5769246 0.4272154
-0.79047066 -1.5587887 0.24985351
-0.89544499 -1.7477201 1.830181
-0.86103898 -1.6827195 1.4598964
-0.85247582 -1.6674036 1.1860701
-0.83638853 -1.6380378 0.9376871
-0.82645404 -1.619961 0.72209048
-0.80576658 -1.580758 0.51864892
-0.79354489 -1.5574424 0.33600801
-0.79544103 -1.5624949 0.16440275
-1.4330093 -2.6302657 19.041264
-1.5791683 -2.9433219 16.082083
-1.2756929 -2.4169397 8.7840519
-1.1174859 -2.1351573 5.7369647
-1.0233468 -1.9652498 4.1278338
-0.97894204 -1.8863595 3.1939816
-0.94388759 -1.8234476 2.5349226
-1.1741673 -1.92346 20.974586
-1.4278821 -2.6769581 11.718567
-1.171692 -2.2217467 6.8847027
-1.0604115 -2.0243587 4.7890358
-0.99860817 -1.9136417 3.600868
-0.95949024 -1.8441334 2.8274367
-0.92689157 -1.7852545 2.2589419
-0.9145785 -1.7758988 2.0427978
-0.87195432 -1.6952965 1.6195598
-0.85694414 -1.6682391 1.3142223
-0.84413189 -1.6446939 1.0542531
-0.827501 -1.6136615 0.82100672
-0.81608069 -1.5927442 0.61598212
-0.8013736 -1.565376 0.42535016
-0.78910351 -1.5427189 0.24851227
-0.8946833 -1.731316 1.816879
-0.85949206 -1.6653365 1.4481238
-0.85236347 -1.6529236 1.1784705
-0.83586711 -1.6230037 0.93139297
-0.82562166 -1.6044699 0.71715993
-0.80683446 -1.5692903 0.51630425
-0.79444939 -1.545854 0.33462667
-0.79632622 -1.5508204 0.16399969
-1.4410592 -2.6232047 19.026445
-1.5899173 -2.9386871 16.086977
-1.2700924 -2.3861201 8.6886129
-1.1139873 -2.1105113 5.6817341
-1.0212913 -1.9447031 4.092721
-0.97769058 -1.8679721 3.169184
-0.94282937 -1.8059354 2.5157351
-1.1797562 -1.9175342 20.9547
-1.4199475 -2.6398566 11.578224
-1.1697152 -2.1993608 6.8283896
-1.0583186 -2.0033216 4.7485251
-0.99677873 -1.893989 3.5710063
-0.95612013 -1.8220958 2.7995064
-0.92368114 -1.7639886 2.236891
-0.91255218 -1.7568717 2.025275
-0.87248945 -1.6818776 1.6101445
-0.85699117 -1.6540997 1.3059981
-0.84375823 -1.6299356 1.0472968
-0.82673913 -1.59841 0.81538767
-0.81502825 -1.5771011 0.61175203
-0.80007166 -1.549475 0.42255229
-0.78991723 -1.5311035 0.24761811
-0.89381808 -1.7149383 1.8035771
-0.85970068 -1.6515701 1.4392942
-0.85017139 -1.6346406 1.1683378
-0.83734304 -1.612021 0.92719686
-0.8246913 -1.5890043 0.71222943
-0.80783218 -1.5578344 0.51395965
-0.79300374 -1.5298818 0.33255461
-0.79713953 -1.5391586 0.16359663
-1.4490775 -2.6161196 19.011627
-1.59919 -2.9313316 16.077187
-1.2642925 -2.3553689 8.593173
-1.1112487 -2.0876405 5.6311069
-1.0202259 -1.9263114 4.0619974
-0.97632259 -1.8496166 3.1443861
-0.94016719 -1.7856169 2.4927104
-1.1892536 -1.9179332 21.004414
-1.4087745 -2.5973186 11.413684
-1.1667807 -2.1754951 6.7673836
-1.0571156 -1.9842455 4.7125158
-0.99482453 -1.8743731 3.5411448
-0.95401746 -1.8027676 2.7755663
-0.92033368 -1.742767 2.2148399
-0.91205937 -1.7410399 2.0112567
-0.87294143 -1.6684754 1.6007291
-0.85501355 -1.6362746 1.2950323
-0.84329182 -1.6152 1.0403403
-0.82588094 -1.5831836 0.80976856
-0.81609386 -1.5657387 0.60893196
-0.80093747 -1.5379591 0.42068705
-0.79065949 -1.5195016 0.24672395
-0.89111215 -1.6952831 1.7869495
-0.86170274 -1.6414015 1.4334079
-0.84986466 -1.6202108 1.1607383
-0.83664638 -1.5970277 0.92090267
-0.82585299 -1.5777485 0.70894241
-0.80650711 -1.5420836 0.51044267
-0.7937507 -1.5183274 0.33117324
-0.79556817 -1.523082 0.16299205
-1.4532741 -2.602227 18.947416
-1.6064676 -2.9203794 16.047815
-1.2582933 -2.3246875 8.4977331
-1.1074399 -2.0630934 5.5758762
-1.0179164 -1.9058386 4.026885
-0.97483861 -1.8312938 3.1195884
-0.938878 -1.76817 2.4735227
-1.1973549 -1.9160299 21.029274
-1.4039577 -2.5670221 11.302377
-1.163694 -2.1516771 6.706378
-1.0547618 -1.9632845 4.6720047
-0.99274546 -1.8547938 3.5112834
-0.95179152 -1.7834766 2.7516263
-0.91844308 -1.7245827 2.1964641
-0.90980113 -1.7220795 1.9937341
-0.87331069 -1.6550909 1.5913138
-0.85487139 -1.6221825 1.2868078
-0.84066898 -1.5965681 1.0310652
-0.8270852 -1.5720857 0.80602247
-0.81485808 -1.5501422 0.60470188
-0.80173272 -1.5264562 0.41882181
-0.79133052 -1.5079131 0.24582979
-0.89002889 -1.6789668 1.7736475
-0.86175299 -1.6276672 1.4245785
-0.84745187 -1.6019926 1.1506057
-0.8379755 -1.5860717 0.91670656
-0.82474166 -1.5623281 0.70401186
-0.8073498 -1.5306607 0.50809807
-0.79442662 -1.5067863 0.3297919
-0.79622287 -1.5114554 0.16258898
-0.27821389 -0.19392273 37.462845
-1.4589169 -2.5910454 18.902964
-1.614676 -2.9111924 16.028234
-1.2520957 -2.2940772 8.4022942
-1.1044036 -2.0403168 5.525249
-1.0154762 -1.8854054 3.9917724
-0.97323871 -1.813004 3.0947907
-0.93747854 -1.750754 2.4543352
-1.2054572 -1.9140934 21.054131
-1.4019822 -2.5422943 11.215267
-1.1612817 -2.1294224 6.6500645
-1.0522748 -1.9423642 4.6314936
-0.99054199 -1.8352522 3.4814217
-0.95087081 -1.7668765 2.7316759
-0.91643697 -1.7064332 2.1780884
-0.90742177 -1.7031566 1.9762113
-0.87176865 -1.6382883 1.57876
-0.85464132 -1.6081114 1.2785833
-0.84000409 -1.5818868 1.0241088
-0.82604915 -1.5569036 0.80040342
-0.81577033 -1.5388118 0.6018818
-0.80245745 -1.5149666 0.41695657
-0.79193026 -1.4963386 0.24493563
-0.88884264 -1.6626788 1.7603455
-0.86171782 -1.6139524 1.415749
-0.84695131 -1.5876144 1.1430061
-0.83710426 -1.5711209 0.91041237
-0.82353288 -1.546935 0.6990813
-0.80583984 -1.5149593 0.50458109
-0.79270685 -1.4908869 0.32771987
-0.79680616 -1.4998429 0.16218592
-0.27899829 -0.19302262 37.477844
-1.463732 -2.5785046 18.848631
-1.623337 -2.9028726 16.01355
-1.2478594 -2.267462 8.3211699
-1.1012218 -2.0175865 5.4746208
-1.0129062 -1.8650129 3.9566598
-0.97152305 -1.7947478 3.069993
-0.935969 -1.7333695 2.4351475
-1.2098444 -1.9062742 21.014357
-1.3961856 -2.5110204 11.099121
-1.1587284 -2.1072109 6.593751
-1.0506985 -1.923396 4.5954843
-0.98821431 -1.8157486 3.4515603
-0.94984585 -1.7503048 2.711726
-0.91592979 -1.6912997 2.1633875
-0.90492141 -1.6842712 1.9586885
-0.87196046 -1.624946 1.5693445
-0.85234839 -1.5903766 1.2676175
-0.84133828 -1.5711349 1.0194712
-0.82710445 -1.5458355 0.79665732
-0.81435174 -1.5232636 0.59765172
-0.80311185 -1.5034906 0.41509131
-0.79011405 -1.4803849 0.24359439
-0.88755363 -1.6464196 1.7470435
-0.85968125 -1.5966991 1.4039763
-0.8463608 -1.5732596 1.1354066
-0.83613884 -1.5561954 0.90411824
-0.82222676 -1.5315695 0.69415081
-0.80652785 -1.5035707 0.50223649
-0.793226 -1.4793822 0.3263385
-0.79495889 -1.4838412 0.16158132
-1.4684775 -2.5659621 18.794302
-1.6289587 -2.8892062 15.969492
-1.2376575 -2.2304628 8.2018709
-1.0978949 -1.9949037 5.4239931
-1.0102061 -1.8446614 3.9215472
-0.96969193 -1.7765259 3.0451953
-0.9343496 -1.7160169 2.4159601
-1.2538792 -1.8003529 37.776299
-1.2150539 -1.8997948 20.9895
-1.3914176 -2.4820111 10.992653
-1.1551973 -2.0835342 6.5327454
-1.0479523 -1.9025559 4.5549731
-0.98701745 -1.7985702 3.4259646
-0.94871688 -1.733762 2.6917758
-0.91532826 -1.6761906 2.1486869
-0.90399933 -1.6685598 1.9446703
-0.87206984 -1.6116228 1.5599293
-0.8519302 -1.5763562 1.2593931
-0.84050274 -1.5564952 1.0125147
-0.82589126 -1.5306993 0.79103822
-0.81511104 -1.5119665 0.59483165
-0.80369586 -1.4920286 0.41322607
-0.79055649 -1.4688478 0.24270025
-0.88616204 -1.63019 1.7337415
-0.85946357 -1.5830321 1.395147
-0.84568053 -1.5589281 1.127807
-0.83507955 -1.541296 0.89782411
-0.8230716 -1.5203847 0.69086379
-0.80483359 -1.4879204 0.49871951
-0.79367453 -1.4678921 0.32495713
-0.79538435 -1.4722662 0.16117826
-1.4723765 -2.5520718 18.730091
-1.6360146 -2.8781915 15.94012
-1.2337732 -2.205287 8.1255188
-1.0953712 -1.9739769 5.3779678
-1.0073764 -1.8243514 3.8864341
-0.96910238 -1.7608039 3.0245306
-0.93262064 -1.6986972 2.3967726
-1.2618159 -1.798327 37.826214
-1.2219671 -1.8959899 20.994473
-1.3870828 -2.4541605 10.891026
-1.1523573 -2.0614145 6.4764318
-1.0461305 -1.8836616 4.5189633
-0.98571283 -1.7814224 3.4003689
-0.94748414 -1.7172486 2.6718256
-0.91463244 -1.6611067 2.1339862
-0.90126896 -1.6497462 1.9271477
-0.87023252 -1.594902 1.5473754
-0.84942359 -1.5586865 1.2484273
-0.84169382 -1.5457709 1.0078771
-0.82679802 -1.5196626 0.78729212
-0.81351036 -1.4964685 0.59060156
-0.80420977 -1.4805809 0.41136083
-0.79092795 -1.4573255 0.24180609
-0.88646281 -1.6172645 1.7237651
-0.8591609 -1.569386 1.3863175
-0.8449105 -1.5446208 1.1202074
-0.8339265 -1.5264231 0.89152992
-0.82158583 -1.5050679 0.68593329
-0.80536753 -1.4765676 0.49637488
-0.7940526 -1.4564171 0.32357576
-0.79573864 -1.4607065 0.1607752
-1.4789315 -2.542887 18.700455
-1.6409879 -2.8636291 15.891169
-1.2355959 -2.1905663 8.0873432
-1.0927151 -1.9530927 5.3319426
-1.0044173 -1.8040841 3.8513215
-0.96704954 -1.7426475 2.999733
-0.9307822 -1.6814104 2.3775849
-1.2306118 -1.8948413 21.029274
-1.3825709 -2.4263706 10.789398
-1.1476824 -2.0363336 6.4107337
-1.0431261 -1.8629041 4.4784522
-0.98430049 -1.7643056 3.3747735
-0.9476127 -1.7033982 2.6558657
-0.91384268 -1.6460481 2.1192856
-0.90013897 -1.6340955 1.9131296
-0.87016541 -1.581624 1.5379601
-0.84881788 -1.544718 1.2402028
-0.84068829 -1.5311745 1.0009208
-0.82540816 -1.5045739 0.78167301
-0.81411731 -1.4852066 0.58778149
-0.8022939 -1.4648397 0.40856299
-0.78883791 -1.44145 0.24046485
-0.88487792 -1.6010888 1.7104629
-0.85877365 -1.5557616 1.377488
-0.84613305 -1.5341128 1.115141
-0.83267987 -1.5115772 0.88523579
-0.82228029 -1.4939171 0.68264627
-0.80583209 -1.4652295 0.49403024
-0.79436028 -1.4449575 0.32219443
-0.79602206 -1.4491622 0.16037214
-1.4838681 -2.5310068 18.651062
-1.6346728 -2.8296721 15.734521
-1.233641 -2.1693721 8.0253067
-1.0899265 -1.9322509 5.2859173
-1.0048466 -1.7901253 3.8293765
-0.96488184 -1.724527 2.9749353
-0.93039685 -1.6669563 2.3622351
-1.2386792 -1.8927636 21.054131
-1.3785079 -2.3997319 10.69261
-1.1445519 -2.0143113 6.3544202
-1.0421302 -1.8459822 4.4469438
-0.98278087 -1.7472209 3.3491776
-0.94618201 -1.68694 2.6359155
-0.91295898 -1.6310154 2.1045849
-0.89891088 -1.6184732 1.8991114
-0.87001634 -1.5683659 1.5285445
-0.85015172 -1.5344309 1.2347199
-0.84173691 -1.5204797 0.99628317
-0.82616705 -1.4935704 0.77792698
-0.8146556 -1.4739588 0.58496141
-0.80265272 -1.4534299 0.40669775
-0.78905278 -1.4299673 0.23957069
-0.88500875 -1.5882058 1.7004865
-0.85830164 -1.5421591 1.3686585
-0.8451975 -1.5198479 1.1075416
-0.8335436 -1.5007262 0.88103968
-0.82290703 -1.4827799 0.67935926
-0.80622733 -1.4539061 0.4916856
-0.79459763 -1.4335134 0.32081306
-0.79623461 -1.437634 0.15996908
-1.4922985 -2.5251427 18.646122
-1.6435152 -2.8221891 15.72473
-1.2360084 -2.1559882 7.9919028
-1.0870057 -1.9114525 5.239892
-1.0040108 -1.774101 3.8030419
-0.96398216 -1.708894 2.9542706
-0.92992193 -1.6525253 2.346885
-1.2467469 -1.8906527 21.078987
-1.3742759 -2.3731515 10.59582
-1.1344186 -1.9803571 6.2605648
-1.041029 -1.8290896 4.4154353
-0.98244071 -1.7324368 3.3278482
-0.94464803 -1.6705124 2.6159654
-0.91198146 -1.616009 2.0898843
-0.89758468 -1.6028792 1.885093
-0.86788535 -1.5517313 1.5159907
-0.84938478 -1.5205027 1.2264955
-0.84056193 -1.505928 0.98932678
-0.82685924 -1.4825799 0.77418089
-0.81512541 -1.4627256 0.58214134
-0.8029418 -1.4420359 0.40483251
-0.78919715 -1.4185007 0.23867653
-0.88506037 -1.5753415 1.69051
-0.85774529 -1.5285788 1.3598289
-0.84628099 -1.5093682 1.1024752
-0.83434182 -1.4898878 0.87684357
-0.82346606 -1.4716567 0.67607224
-0.80892545 -1.4468404 0.49051329
-0.79476482 -1.4220855 0.31943169
-0.79881227 -1.4304839 0.15976755
-1.5003084 -2.5185833 18.636246
-1.6363431 -2.7874594 15.563188
-1.2270921 -2.1232293 7.8869195
-1.0849252 -1.8923935 5.1984696
-1.0030755 -1.7581043 3.7767072
-0.96159393 -1.6908424 2.9294727
-0.92935771 -1.6381181 2.3315351
-1.2542245 -1.8876207 21.093901
-1.3698756 -2.3466306 10.499033
-1.137009 -1.9689136 6.2371011
-1.0387392 -1.8103399 4.3794255
-0.9807148 -1.7154126 3.3022525
-0.94450355 -1.6567341 2.6000051
-0.91091055 -1.6010298 2.0751836
-0.89616078 -1.5873146 1.8710749
-0.86756086 -1.5385214 1.5065755
-0.85058308 -1.510242 1.2210126
-0.84146827 -1.4952639 0.98468918
-0.82748485 -1.4716028 0.77043486
-0.8155266 -1.451507 0.57932127
-0.80316114 -1.4306576 0.40296727
-0.78927112 -1.4070506 0.23778237
-0.88503307 -1.5624962 1.6805335
-0.85710466 -1.5150214 1.3509996
-0.84518009 -1.4951468 1.0948756
-0.83284312 -1.4751101 0.87054938
-0.8239575 -1.4605477 0.67278522
-0.80919731 -1.4355395 0.48816866
-0.79486203 -1.410674 0.31805035
-0.79889876 -1.4189802 0.15936449
-1.5070902 -2.5100002 18.611547
-1.6237627 -2.7440526 15.352694
-1.2217201 -2.097008 7.8057961
-1.0827249 -1.8733722 5.1570468
-1.002041 -1.7421365 3.7503729
-0.95909154 -1.6728283 2.904675
-0.92870432 -1.6237353 2.316185
-1.2619931 -1.8850023 21.113789
-1.3653069 -2.320169 10.402244
-1.13606 -1.9515109 6.1948662
-1.0374215 -1.7935127 4.3479171
-0.98018456 -1.7006811 3.2809229
-0.94427437 -1.6429774 2.5840452
-0.90974605 -1.5860775 2.060483
-0.89640337 -1.5748789 1.8605614
-0.86715472 -1.5253326 1.4971601
-0.84965533 -1.4963554 1.2127882
-0.84012449 -1.4807591 0.97773278
-0.828044 -1.4606396 0.76668876
-0.81585968 -1.4403036 0.57650119
-0.80331081 -1.4192953 0.40110204
-0.78927475 -1.3956174 0.23688821
-0.88492692 -1.5496705 1.670557
-0.85838258 -1.5049984 1.3451133
-0.84399045 -1.4809518 1.0872761
-0.83349669 -1.4643054 0.86635327
-0.82438147 -1.4494534 0.66949821
-0.80940008 -1.4242544 0.48582402
-0.79488933 -1.3992794 0.31666899
-0.79891467 -1.4074932 0.15896143
-1.5126237 -2.4994071 18.572035
-1.2146678 -2.0682759 7.7151279
-1.0804051 -1.8543897 5.115624
-1.0009071 -1.726197 3.7240384
-0.95647532 -1.6548526 2.8798773
-0.92796183 -1.6093769 2.3008351
-1.2676703 -1.8792604 21.098873
-1.3605703 -2.2937686 10.305456
-1.1358773 -1.9356273 6.1573243
-1.0359988 -1.7767168 4.3164086
-0.97825319 -1.6837195 3.2553272
-0.94245017 -1.6266354 2.564095
-0.90848851 -1.5711532 2.0457823
-0.89479512 -1.5593678 1.8465432
-0.86473161 -1.5087886 1.4846063
-0.8507185 -1.4861226 1.2073052
-0.83868974 -1.4662819 0.97077638
-0.82853675 -1.4496905 0.76294273
-0.81612444 -1.4291158 0.57368112
-0.8033911 -1.4079496 0.3992368
-0.78920835 -1.3842013 0.23599406
-0.88287914 -1.5336287 1.6572551
-0.85758609 -1.4914808 1.3362837
-0.84485966 -1.4705211 1.0822097
-0.83408511 -1.4535142 0.86215717
-0.82473814 -1.4383738 0.66621119
-0.80953407 -1.4129854 0.48347941
-0.79484677 -1.3879015 0.31528762
-0.79886013 -1.3960235 0.15855835
-1.5209342 -2.4934485 18.567095
-1.2081907 -2.0409036 7.6292324
-1.0779661 -1.8354461 5.0742011
-0.99967444 -1.7102871 3.6977041
-0.95516211 -1.6393472 2.8592129
-0.92713052 -1.5950437 2.285485
-1.3046894 -1.7660331 37.806248
-1.277221 -1.8792311 21.148588
-1.355666 -2.2674294 10.208667
-1.1338397 -1.9167986 6.1103964
-1.0344716 -1.7599529 4.2849002
-0.97753358 -1.6690425 3.2339973
-0.94204313 -1.6129282 2.548135
-0.90713793 -1.556257 2.0310817
-0.89487547 -1.5469741 1.8360294
-0.86415106 -1.4956505 1.475191
-0.84963059 -1.4722792 1.1990808
-0.83937716 -1.4556705 0.96613878
-0.8289631 -1.4387559 0.75919664
-0.81392765 -1.4137863 0.56945103
-0.80340195 -1.3966206 0.39737156
-0.78907192 -1.372803 0.2350999
-0.88260448 -1.5208497 1.6472787
-0.85670578 -1.4779875 1.3274543
-0.8435058 -1.4563724 1.0746102
-0.83460844 -1.442737 0.85796106
-0.82502753 -1.4273095 0.66292417
-0.80959934 -1.401733 0.48113477
-0.79473454 -1.3765413 0.31390625
-0.7962389 -1.380244 0.15795377
-1.5198603 -2.4722395 18.448553
-1.2038323 -2.0174472 7.5576525
-1.0764034 -1.8182236 5.0373812
-0.997127 -1.6923435 3.6669803
-0.9537524 -1.623871 2.8385479
-0.92621058 -1.580736 2.2701349
-1.309811 -1.7600793 37.776299
-1.2858826 -1.877839 21.183388
-1.3505948 -2.241153 10.111878
-1.131685 -1.8980078 6.0634685
-1.0317304 -1.7413486 4.2488904
-0.97539741 -1.6521455 3.2084019
-0.94002306 -1.596647 2.5281849
-0.90569437 -1.5413896 2.016381
-0.89308351 -1.5315182 1.8220112
-0.86348927 -1.4825349 1.4657755
-0.85055929 -1.4620759 1.1935979
-0.8377744 -1.4412425 0.95918238
-0.82932335 -1.4278361 0.75545061
-0.81404185 -1.4026387 0.56663096
-0.80334353 -1.3853089 0.39550632
-0.79136235 -1.3657314 0.23465282
-0.88225144 -1.5080913 1.637302
-0.85778111 -1.4680084 1.321568
-0.84423703 -1.4459736 1.0695438
-0.83278018 -1.4280531 0.85166693
-0.82524979 -1.4162611 0.65963709
-0.80959588 -1.3904976 0.47879013
-0.79455274 -1.3651989 0.31252488
-0.79602897 -1.3688186 0.15755071
-1.5346206 -2.4768257 18.52264
-1.1993252 -1.9940462 7.486073
-1.0747337 -1.8010343 5.0005608
-0.99568969 -1.6764978 3.640646
-0.95367998 -1.6108464 2.8220162
-0.92520213 -1.5664543 2.2547848
-1.3138666 -1.752726 37.7164
-1.2942472 -1.8759707 21.213219
-1.3460095 -2.2160139 10.01993
-1.1285239 -1.8777764 6.0118484
-1.028872 -1.7227852 4.2128806
-0.9758231 -1.6397662 3.1913381
-0.93790096 -1.5803998 2.5082345
-0.90415829 -1.5265514 2.0016804
-0.89300227 -1.5191686 1.8114977
-0.86274654 -1.4694421 1.4563601
-0.84931171 -1.4482774 1.1853735
-0.83832085 -1.4306653 0.95454472
-0.82727498 -1.4129306 0.7498315
-0.81408817 -1.3915076 0.56381088
-0.80569518 -1.3782554 0.39457369
-0.79110122 -1.3543605 0.23375866
-0.8799234 -1.4921379 1.6240001
-0.85674578 -1.4545571 1.3127384
-0.84490621 -1.4355878 1.0644776
-0.83315986 -1.4173125 0.84747082
-0.825405 -1.4052283 0.65635008
-0.809524 -1.3792793 0.4764455
-0.79680741 -1.3581458 0.31183422
-0.79574889 -1.3574117 0.15714765
-1.5453153 -2.4747491 18.547338
-1.1946695 -1.9707017 7.4144931
-1.0729573 -1.7838792 4.9637408
-0.99292368 -1.6586281 3.6099226
-0.95208621 -1.5954256 2.8013513
-0.92410523 -1.552199 2.2394347
-1.3208476 -1.7492805 37.74136
-1.3047456 -1.8771299 21.277849
-1.3406088 -2.1898627 9.9231405
-1.1261296 -1.8590664 5.9649205
-1.0258967 -1.704263 4.1768708
-0.97483265 -1.6251677 3.1700087
-0.93722397 -1.5667729 2.4922745
-0.90252966 -1.5117427 1.9869798
-0.89102739 -1.5037699 1.7974794
-0.86390549 -1.4597225 1.4500831
-0.85010624 -1.4381049 1.1798905
-0.83880389 -1.4201021 0.94990712
-0.82748926 -1.4020497 0.74608546
-0.81406677 -1.3803934 0.56099087
-0.8055135 -1.3669705 0.39270842
-0.79077047 -1.343008 0.2328645
-0.8794027 -1.4794289 1.6140234
-0.85769063 -1.4446065 1.3068521
-0.84551305 -1.425215 1.0594112
-0.83347476 -1.4065866 0.84327471
-0.82549328 -1.394212 0.65306306
-0.80938363 -1.3680785 0.47410086
-0.7965017 -1.3468312 0.31045285
-0.79539913 -1.3460238 0.15674458
-1.5527024 -2.4673669 18.53252
-1.1906438 -1.9486878 7.3476853
-1.0710744 -1.7667587 4.9269204
-0.99128264 -1.6428488 3.5835879
-0.9503966 -1.5800359 2.7806866
-0.92456967 -1.540719 2.2279224
-1.3281703 -1.7462667 37.776299
-1.3100662 -1.8708181 21.257961
-1.3363624 -2.1659155 9.836031
-1.1227194 -1.8389235 5.9133
-1.023934 -1.6876441 4.1453629
-0.97375232 -1.6105962 3.1486788
-0.93490738 -1.5505899 2.4723246
-0.90080869 -1.4969641 1.972279
-0.89078492 -1.4914656 1.7869658
-0.86301315 -1.4466703 1.4406679
-0.85084003 -1.4279444 1.1744076
-0.83922327 -1.4095531 0.94526953
-0.82763767 -1.3911842 0.74233937
-0.81397772 -1.3692964 0.5581708
-0.80526292 -1.3557036 0.39084318
-0.79291189 -1.3359571 0.23241742
-0.87880421 -1.4667418 1.6040471
-0.8565008 -1.4311988 1.2980225
-0.84605783 -1.4148555 1.0543448
-0.83372492 -1.3958759 0.83907861
-0.82551473 -1.3832121 0.64977604
-0.80917501 -1.3568956 0.47175622
-0.7961269 -1.3355355 0.30907148
-0.79753608 -1.3389469 0.15654305
-1.5558949 -2.4534025 18.468311
-1.5262007 -2.4411175 13.864544
-1.1856965 -1.9254552 7.2761054
-1.069085 -1.7496731 4.8901005
-0.98954368 -1.6271013 3.5572534
-0.95007014 -1.5670838 2.7641549
-0.92330641 -1.5265124 2.2125723
-1.3303914 -1.7365811 37.666481
-1.3165886 -1.8662337 21.257961
-1.3319652 -2.142025 9.7489214
-1.1200868 -1.820297 5.8663726
-1.021868 -1.6710594 4.1138539
-0.9725821 -1.5960522 3.1273491
-0.93405437 -1.5370171 2.4563644
-0.90075397 -1.4851149 1.9612535
-0.89046741 -1.4791812 1.7764521
-0.8620401 -1.4336418 1.4312525
-0.84936035 -1.4142121 1.1661832
-0.83729976 -1.3952202 0.93831313
-0.82772022 -1.380335 0.73859328
-0.81382126 -1.358217 0.55535072
-0.8049435 -1.3444552 0.38897794
-0.79245704 -1.324634 0.23152326
-0.87812787 -1.454077 1.5940706
-0.85522801 -1.4178174 1.2891932
-0.84654069 -1.4045095 1.0492785
-0.83391058 -1.3851807 0.8348825
-0.82546973 -1.3722293 0.64648902
-0.81140238 -1.3498968 0.47058392
-0.79568291 -1.3242589 0.30769014
-0.79706186 -1.3275883 0.15613998
-1.5585901 -2.438791 18.399158
-1.5357983 -2.4374981 13.874334
-1.1790271 -1.899745 7.1949821
-1.0669895 -1.732623 4.8532801
-0.98895848 -1.6134279 3.5353079
-0.94819748 -1.5517521 2.7434902
-0.9202866 -1.5095965 2.1933849
-1.323095 -1.8616266 21.257961
-1.3274177 -2.118192 9.6618128
-1.1173377 -1.8017111 5.8194447
-1.0196987 -1.6545101 4.0823455
-0.97132242 -1.5815362 3.1060195
-0.93311781 -1.5234691 2.4404042
-0.89885926 -1.470392 1.946553
-0.89007503 -1.4669174 1.7659385
-0.86098677 -1.4206383 1.4218372
-0.84996086 -1.4040846 1.1607003
-0.83757943 -1.3847084 0.93367553
-0.82773745 -1.3695023 0.73484725
-0.81607735 -1.3512617 0.55394071
-0.80709362 -1.3374316 0.38804534
-0.79193294 -1.3133305 0.2306291
-0.87737399 -1.4414349 1.584094
-0.85387212 -1.4044621 1.2803636
-0.84696168 -1.3941777 1.0442121
-0.8340317 -1.3745013 0.83068645
-0.82535797 -1.3612638 0.64320201
-0.81107211 -1.3387418 0.46823925
-0.79516995 -1.3130018 0.30630878
-0.79651809 -1.3162494 0.15573692
-1.5595195 -2.4215784 18.310255
-1.5382925 -2.4226677 13.820487
-1.1801094 -1.8867592 7.1615777
-1.0637577 -1.7139492 4.8118572
-0.98703128 -1.5977412 3.5089736
-0.94770533 -1.5388488 2.7269583
-0.9188382 -1.4954515 2.1780348
-1.3478028 -1.7340851 37.816235
-1.3298956 -1.85743 21.262932
-1.3227202 -2.0944169 9.5747023
-1.1163024 -1.7860937 5.7819028
-1.0174264 -1.6379966 4.050837
-0.96997321 -1.5670484 3.0846899
-0.93209827 -1.5099467 2.424444
-0.89865112 -1.4585866 1.9355273
-0.88960797 -1.4546744 1.7554249
-0.86188239 -1.4109811 1.4155602
-0.85050094 -1.3939704 1.1552174
-0.83779585 -1.3742117 0.92903793
-0.82768893 -1.3586864 0.73110116
-0.81580061 -1.3402097 0.55112064
-0.80665171 -1.3262123 0.3861801
-0.79133964 -1.3020469 0.22973496
-0.87849498 -1.4319985 1.5774431
-0.85454553 -1.3945802 1.2744772
-0.84732091 -1.3838601 1.0391457
-0.83408856 -1.3638381 0.82649034
-0.82517982 -1.3503158 0.63991499
-0.81067401 -1.3276058 0.46589461
-0.79458821 -1.3017644 0.30492741
-0.79590487 -1.3049307 0.15533386
-1.5696549 -2.4187267 18.330009
-1.5390556 -2.405277 13.751954
-1.1795235 -1.8712641 7.1186299
-1.0614449 -1.6969755 4.7750373
-0.98627263 -1.5841209 3.4870281
-0.94713467 -1.5259681 2.7104266
-0.91561472 -1.47861 2.1588473
-1.3366832 -1.8532087 21.267906
-1.3185481 -2.0717609 9.4924326
-1.1142519 -1.7690454 5.7396679
-1.0150515 -1.6215192 4.0193286
-0.96853483 -1.5525897 3.0633602
-0.93099576 -1.4964501 2.408484
-0.89837164 -1.4468008 1.924502
-0.89093775 -1.4454886 1.7484158
-0.86068034 -1.3980205 1.4061449
-0.85098082 -1.3838694 1.1497345
-0.83563012 -1.3599563 0.92208159
-0.82757527 -1.3478876 0.72735512
-0.81545651 -1.3291761 0.54830056
-0.80614132 -1.3150126 0.38431486
-0.79067719 -1.2907835 0.2288408
-0.87759721 -1.419396 1.5674665
-0.85303646 -1.381272 1.2656479
-0.84535456 -1.3698885 1.0315461
-0.83408123 -1.3531913 0.82229424
-0.82493538 -1.3393857 0.63662797
-0.81275564 -1.3206285 0.46472231
-0.79393774 -1.2905471 0.30354607
-0.79783875 -1.2978884 0.15513234
-1.5780883 -2.4132328 18.330009
-1.5386122 -2.3861992 13.673631
-1.1788439 -1.8557962 7.0756826
-1.0590266 -1.6800392 4.7382174
-0.98543096 -1.5705254 3.4650826
-0.94648576 -1.5131099 2.6938949
-0.91398203 -1.4645286 2.1434972
-1.3437711 -1.8493937 21.277849
-1.3135554 -2.0481019 9.405323
-1.1130208 -1.7534901 5.7021255
-1.0137354 -1.6069194 3.9923213
-0.96839565 -1.540368 3.0462966
-0.92981052 -1.4829798 2.392524
-0.89802092 -1.4350348 1.9134763
-0.89033228 -1.433282 1.7379023
-0.86145055 -1.3883929 1.3998679
-0.84919786 -1.3702281 1.14151
-0.83570749 -1.3494991 0.91744399
-0.82739621 -1.3371063 0.72360903
-0.81756842 -1.3222415 0.54689056
-0.80556279 -1.3038329 0.38244963
-0.78994584 -1.2795408 0.22794664
-0.87662238 -1.4068176 1.5574901
-0.85358083 -1.3714228 1.2597615
-0.84557778 -1.3596083 1.0264798
-0.83400959 -1.3425611 0.81809807
-0.82462472 -1.3284739 0.63334101
-0.81223637 -1.3095222 0.46237767
-0.79582834 -1.2835593 0.30285537
-0.79710209 -1.2866017 0.15472928
-1.5860749 -2.4070609 18.325071
-1.5297319 -2.3543477 13.521878
-1.1772656 -1.8390988 7.0279627
-1.0565031 -1.6631403 4.7013969
-0.98450649 -1.5569551 3.4431372
-0.94575864 -1.5002753 2.6773629
-0.91055584 -1.4477636 2.1243098
-1.3508486 -1.8455517 21.28779
-1.3084136 -2.0245032 9.3182125
-1.1116949 -1.7379651 5.6645837
-1.0123301 -1.5923487 3.9653139
-0.96678716 -1.5259632 3.0249667
-0.92854267 -1.4695359 2.3765638
-0.8975991 -1.4232889 1.902451
-0.88965249 -1.4210972 1.7273885
-0.8621642 -1.3787771 1.393591
-0.84954524 -1.3601625 1.1360271
-0.83572209 -1.3390578 0.91280639
-0.82715213 -1.3263429 0.719863
-0.81710476 -1.3112371 0.54407042
-0.80491596 -1.2926731 0.38058439
-0.7917766 -1.2725472 0.22749956
-0.8775562 -1.3974252 1.5508391
-0.85406703 -1.3615867 1.2538751
-0.84345001 -1.3456906 1.0188802
-0.83387411 -1.3319482 0.81390196
-0.82424808 -1.3175808 0.630054
-0.81164962 -1.2984359 0.46003303
-0.79505551 -1.2723744 0.30147403
-0.79629642 -1.275336 0.15432622
-1.5936077 -2.4002151 18.315193
-1.5044711 -2.2978852 13.228165
-1.1755855 -1.8224351 6.9802423
-1.0538745 -1.6462796 4.6645765
-0.98349941 -1.5434107 3.4211919
-0.9449535 -1.4874641 2.6608312
-0.90873975 -1.4337475 2.1089599
-1.357599 -1.841254 21.292763
-1.3031232 -2.0009656 9.2311029
-1.1093391 -1.7210206 5.6223488
-1.0108354 -1.5778078 3.9383068
-0.96508986 -1.5115886 3.0036371
-0.92557383 -1.4535778 2.3566139
-0.89710617 -1.4115638 1.8914254
-0.88889867 -1.408935 1.716875
-0.86074603 -1.3658805 1.3841758
-0.84760523 -1.3465728 1.1278027
-0.83567405 -1.328633 0.90816879
-0.82684296 -1.3155974 0.71611691
-0.81657422 -1.3002521 0.54125035
-0.80681223 -1.2856948 0.37965176
-0.79092252 -1.2613374 0.2266054
-0.87643838 -1.3848885 1.5408626
-0.85233504 -1.3483474 1.2450458
-0.84353781 -1.3354491 1.013814
-0.83367479 -1.3213526 0.80970585
-0.82128704 -1.302712 0.62512344
-0.8109954 -1.2873696 0.45768842
-0.79421443 -1.2612106 0.30009267
-0.79808259 -1.2683202 0.15412468
-1.6019764 -2.3946378 18.315193
-1.4855642 -2.2518265 12.993193
-1.1729897 -1.8045545 6.9277511
-1.0522006 -1.6310997 4.632359
-0.98111564 -1.5278771 3.3948576
-0.94407046 -1.474677 2.6442995
-0.90683699 -1.419762 2.0936098
-1.3646541 -1.8373594 21.302706
-1.296995 -1.9764391 9.1391544
-1.107819 -1.705561 5.5848064
-1.0092516 -1.5632966 3.9112992
-0.96330404 -1.4972446 2.9823074
-0.92250496 -1.4376582 2.3366637
-0.89654237 -1.3998592 1.8803998
-0.8880707 -1.3967952 1.7063613
-0.86133498 -1.3562963 1.3778987
-0.8478207 -1.336544 1.1223198
-0.83793509 -1.3219664 0.90584999
-0.82894957 -1.3087867 0.71424389
-0.8185426 -1.2933404 0.53984034
-0.80604404 -1.2745672 0.37778652
-0.79266036 -1.254359 0.22615832
-0.87725157 -1.3755248 1.5342115
-0.85269296 -1.3385462 1.2391595
-0.84356439 -1.3252234 1.0087476
-0.83341169 -1.3107747 0.80550975
-0.8207646 -1.2918657 0.62183642
-0.81027383 -1.2763238 0.45534378
-0.7933051 -1.2500682 0.2987113
-0.79715401 -1.2570884 0.15372162
-1.6064161 -2.3832333 18.270739
-1.4832679 -2.2313652 12.90508
-1.1702837 -1.7867143 6.8752594
-1.0504335 -1.6159514 4.6001415
-0.97993666 -1.5143898 3.3729122
-0.94310987 -1.4619142 2.6277676
-0.90658271 -1.4085026 2.0820973
-1.3710593 -1.8325849 21.302706
-1.2907115 -1.9519798 9.047205
-1.1062044 -1.690133 5.5472646
-1.007579 -1.548816 3.8842921
-0.96143007 -1.4829315 2.9609778
-0.91933626 -1.4217778 2.3167133
-0.89590806 -1.3881762 1.8693745
-0.887169 -1.3846786 1.6958475
-0.85976946 -1.3434463 1.3684834
-0.84797651 -1.3265305 1.1168369
-0.83777517 -1.3115672 0.90121239
-0.82852441 -1.2980698 0.7104978
-0.81789297 -1.2823863 0.53702027
-0.80520803 -1.2634609 0.37592128
-0.79168397 -1.2431834 0.22526415
-0.87599128 -1.3630311 1.524235
-0.85299283 -1.3287587 1.2332731
-0.84353 -1.315014 1.0036812
-0.83308494 -1.3002149 0.80131364
-0.82272267 -1.2850158 0.62019289
-0.80948526 -1.265299 0.45299914
-0.7923277 -1.2389475 0.29732993
-0.79615676 -1.2458785 0.15331855
-1.6121055 -2.373755 18.241104
-1.4921812 -2.2278659 12.914869
-1.1674674 -1.7689151 6.8227673
-1.0485735 -1.6008356 4.5679235
-0.9786756 -1.5009294 3.3509667
-0.94360554 -1.4515355 2.6153688
-0.90451658 -1.3945732 2.0667472
-1.3784109 -1.8290642 21.317619
-1.2842733 -1.9275888 8.9552555
-1.1044956 -1.6747373 5.5097222
-1.0058177 -1.5343663 3.8572848
-0.95946795 -1.46865 2.9396482
-0.91771317 -1.4084618 2.3007534
-0.89520299 -1.3765146 1.8583488
-0.8842591 -1.3695893 1.6818293
-0.8602345 -1.333895 1.3622065
-0.84807277 -1.3165319 1.1113539
-0.83755291 -1.3011853 0.8965748
-0.83054262 -1.2912709 0.70862478
-0.81977075 -1.2754881 0.53561026
-0.80430442 -1.252376 0.37405604
-0.79332906 -1.2362211 0.22481708
-0.87668443 -1.3536974 1.517584
-0.85323483 -1.3189856 1.2273868
-0.84343463 -1.304821 0.99861485
-0.83515662 -1.2934861 0.79921561
-0.82208306 -1.2742003 0.61690587
-0.80862951 -1.2542951 0.45065451
-0.79128253 -1.2278492 0.29594857
-0.79509109 -1.234691 0.15291549
-0.29375046 -0.16876927 37.422848
-1.6181873 -2.3649073 18.216408
-1.4731743 -2.1829786 12.684794
-1.1645412 -1.7511575 6.7702756
-1.046621 -1.5857525 4.535706
-0.97733259 -1.4874964 3.3290212
-0.94249821 -1.4388174 2.5988369
-0.904118 -1.3833584 2.0552347
-1.3822072 -1.8208463 21.277849
-1.2776805 -1.9032665 8.863307
-1.1026931 -1.6593742 5.4721804
-1.0051677 -1.521764 3.8347785
-0.95885199 -1.4565786 2.9225843
-0.91600835 -1.3951747 2.2847934
-0.89628583 -1.3677104 1.8509985
-0.88319975 -1.3575268 1.6713158
-0.85852224 -1.3210931 1.3527911
-0.84810954 -1.306549 1.105871
-0.83726823 -1.2908207 0.89193714
-0.83000201 -1.2805834 0.70487875
-0.81900263 -1.2645662 0.53279018
-0.8060022 -1.2454369 0.37312344
-0.79493517 -1.2292626 0.22437
-0.87528253 -1.3412488 1.5076076
-0.85341907 -1.3092271 1.2215005
-0.84327841 -1.2946448 0.99354851
-0.83471626 -1.2829547 0.79501951
-0.82137793 -1.263405 0.61361885
-0.81035489 -1.2473888 0.4494822
-0.79286659 -1.2209265 0.2952579
-0.79667658 -1.2277172 0.15271397
-0.2942611 -0.16770124 37.412849
-1.6233448 -2.3547668 18.181833
-1.4739141 -2.1677198 12.626051
-1.1615055 -1.7334421 6.7177839
-1.045658 -1.5723295 4.508091
-0.97590774 -1.4740912 3.3070757
-0.94131368 -1.4261248 2.5823052
-0.90365243 -1.3721638 2.0437222
-1.3966544 -1.8265928 21.402136
-1.2716384 -1.8800555 8.7761974
-1.1007968 -1.6440444 5.434638
-1.0032359 -1.5073732 3.8077717
-0.9567219 -1.4423562 2.9012547
-0.91588485 -1.3844298 2.2728233
-0.89545006 -1.3560865 1.8399732
-0.88206685 -1.3454883 1.6608021
-0.85886377 -1.3115759 1.3465142
-0.84808713 -1.2965821 1.1003881
-0.83692169 -1.2804743 0.88729954
-0.82939678 -1.2699157 0.70113266
-0.81816816 -1.2536651 0.52997011
-0.80497807 -1.2343866 0.3712582
-0.79650241 -1.2223079 0.22392292
-0.8758558 -1.3319459 1.5009565
-0.85354567 -1.2994835 1.2156142
-0.84306145 -1.2844857 0.98848218
-0.83421266 -1.2724422 0.7908234
-0.82319528 -1.2565802 0.61197537
-0.8093797 -1.2364191 0.44713756
-0.79170048 -1.209864 0.29387653
-0.79548907 -1.2165662 0.15231091
-0.29484469 -0.16667306 37.412849
-1.6315546 -2.3490858 18.181833
-1.4670831 -2.1415632 12.503672
-1.1583604 -1.7157693 6.6652918
-1.0446142 -1.5589325 4.4804754
-0.97440141 -1.4607143 3.2851305
-0.94005215 -1.4134582 2.5657735
-0.90489191 -1.3636597 2.0360472
-1.3991162 -1.8166404 21.342476
-1.2696975 -1.8631418 8.7181244
-1.0988071 -1.6287481 5.3970962
-1.0024285 -1.4948221 3.7852654
-0.95595354 -1.4303349 2.884191
-0.91569746 -1.3737028 2.2608531
-0.89454401 -1.3444854 1.8289475
-0.88086092 -1.3334745 1.6502886
-0.85914916 -1.3020725 1.3402373
-0.84800553 -1.2866313 1.0949051
-0.83651316 -1.2701461 0.88266194
-0.82872736 -1.2592677 0.69738662
-0.81726772 -1.2427855 0.52715003
-0.80658436 -1.227464 0.37032557
-0.79529738 -1.2111948 0.22302876
-0.87431246 -1.319543 1.49098
-0.85138363 -1.2863843 1.2067847
-0.84278399 -1.274344 0.98341578
-0.83614755 -1.2657357 0.78872538
-0.82237351 -1.2458172 0.60868835
-0.81101429 -1.2295289 0.44596523
-0.79319286 -1.2029588 0.29318586
-0.79423338 -1.2054383 0.15190785
-1.6410809 -2.3452859 18.19665
-1.4629802 -2.1196709 12.405766
-1.1551059 -1.6981397 6.6128001
-1.0423963 -1.5439432 4.4482579
-0.97414976 -1.4493535 3.2675743
-0.93871379 -1.4008179 2.5492415
-0.9043014 -1.3524995 2.0245347
-1.41493 -1.8239553 21.48665
-1.2669427 -1.8452286 8.6552124
-1.0967239 -1.6134857 5.3595533
-1.0015458 -1.4822955 3.7627592
-0.95511293 -1.4183366 2.8671272
-0.91544646 -1.3629941 2.2488832
-0.8935681 -1.3329071 1.8179222
-0.87958187 -1.3214855 1.6397748
-0.85937876 -1.292583 1.3339603
-0.84786487 -1.2766969 1.0894222
-0.83849216 -1.2635274 0.88034314
-0.82799375 -1.2486399 0.69364047
-0.81895101 -1.2359263 0.52574003
-0.80544013 -1.2164494 0.3684603
-0.79677248 -1.204258 0.22258168
-0.87476665 -1.3102726 1.484329
-0.85138345 -1.2766792 1.2008984
-0.84244591 -1.2642199 0.97834945
-0.835531 -1.2552533 0.78452927
-0.82410187 -1.2390071 0.60704482
-0.80992019 -1.2185944 0.44362062
-0.79190624 -1.1919334 0.29180449
-0.79567301 -1.1984965 0.15170631
-1.6425409 -2.3300183 18.122562
-1.4581608 -2.096997 12.302966
-1.1525869 -1.6817853 6.5650802
-1.0422845 -1.5322187 4.4252453
-0.97248763 -1.4360294 3.2456288
-0.9372986 -1.3882042 2.5327098
-0.90543509 -1.3440182 2.0168595
-1.4147202 -1.8106074 21.38722
-1.2633631 -1.8263234 8.5874596
-1.095523 -1.5996815 5.3267045
-0.99936265 -1.4679937 3.7357521
-0.95420045 -1.4063618 2.8500636
-0.91513181 -1.3523039 2.236913
-0.89252216 -1.3213521 1.8068967
-0.88021642 -1.3124835 1.6327658
-0.85955268 -1.283108 1.3276834
-0.84766525 -1.2667794 1.0839393
-0.83797288 -1.2532281 0.87570554
-0.82719612 -1.2380329 0.68989444
-0.81793284 -1.225081 0.52291995
-0.8042289 -1.2054578 0.36659506
-0.79544652 -1.1931822 0.22168753
-0.87308264 -1.2979171 1.4743526
-0.85132587 -1.2669897 1.1950121
-0.84204763 -1.2541137 0.97328311
-0.83485144 -1.2447906 0.78033316
-0.82316399 -1.2282777 0.6037578
-0.81146425 -1.2117212 0.44244829
-0.79330724 -1.1850468 0.29111382
-0.79429621 -1.1874067 0.15130325
-1.6569642 -2.3331387 18.191711
-1.452617 -2.0735493 12.195271
-1.1499677 -1.6654692 6.5173602
-1.0398945 -1.5172913 4.3930278
-0.97209442 -1.424713 3.2280724
-0.93580681 -1.3756174 2.5161779
-0.90652066 -1.3355457 2.0091846
-1.2611049 -1.8095286 8.5293875
-1.093259 -1.5844854 5.2891622
-0.99832356 -1.4555206 3.7132461
-0.9532159 -1.3944107 2.8329997
-0.91305619 -1.339143 2.220953
-0.89140666 -1.3098208 1.7958713
-0.87880218 -1.3005388 1.6222522
-0.85749334 -1.2704214 1.3182681
-0.84740669 -1.2568789 1.0784563
-0.83986712 -1.2466216 0.87338674
-0.8263346 -1.2274467 0.68614835
-0.81684893 -1.2142581 0.52009988
-0.80295086 -1.1944896 0.36472982
-0.79682982 -1.1862644 0.22124045
-0.87341821 -1.2886803 1.4677017
-0.85121119 -1.2573164 1.1891258
-0.84158903 -1.2440258 0.96821666
-0.83665031 -1.2381084 0.77823514
-0.82216108 -1.2175698 0.60047078
-0.81025159 -1.2008229 0.44010365
-0.79466975 -1.178165 0.29042313
-0.79564393 -1.1804841 0.15110172
-1.6655504 -2.3279722 18.19665
-1.4469275 -2.0501664 12.087577
-1.1472487 -1.649192 6.4696403
-1.0385231 -1.5040067 4.3654122
-0.97163421 -1.413417 3.2105162
-0.93423873 -1.3630582 2.4996462
-0.90574867 -1.3244363 1.9976722
-1.2580223 -1.7917432 8.4664736
-1.0918874 -1.5707417 5.2563128
-0.99720943 -1.4430727 3.6907399
-0.95215964 -1.3824836 2.8159359
-0.9126063 -1.3284969 2.2089827
-0.89022148 -1.2983134 1.7848457
-0.87932217 -1.2915673 1.615243
-0.8575449 -1.2609835 1.3119911
-0.84708941 -1.2469957 1.0729734
-0.83923763 -1.2363522 0.86874914
-0.82801175 -1.2207181 0.68427533
-0.81839103 -1.2074285 0.51868987
-0.80160606 -1.1835452 0.36286458
-0.79538333 -1.1752273 0.22034629
-0.87159401 -1.2763735 1.457725
-0.8487615 -1.24432 1.1802962
-0.84107035 -1.2339566 0.96315032
-0.8358584 -1.2276775 0.77403903
-0.82109362 -1.206884 0.59718376
-0.80897266 -1.189948 0.43775901
-0.79321069 -1.1671925 0.28904179
-0.79414636 -1.1694335 0.15069866
-1.6754842 -2.3246655 18.216408
-1.4410924 -2.0268481 11.979881
-1.1444303 -1.6329542 6.4219203
-1.0370718 -1.4907508 4.3377976
-0.96974313 -1.4001727 3.1885707
-0.93259442 -1.3505269 2.4831142
-0.90672886 -1.3159879 1.9899971
-1.2555571 -1.7750275 8.4084015
-1.0894433 -1.5556134 5.218771
-0.99477684 -1.428864 3.6637325
-0.95103186 -1.3705809 2.7988722
-0.91209316 -1.3178704 2.1970129
-0.89089388 -1.2896196 1.7774954
-0.87979054 -1.2826085 1.6082339
-0.85754097 -1.2515608 1.3057142
-0.8467136 -1.23713 1.0674905
-0.83854657 -1.2261024 0.86411154
-0.82703614 -1.2101655 0.6805293
-0.81719005 -1.1966416 0.5158698
-0.80019468 -1.1726249 0.36099935
-0.79667515 -1.1683294 0.21989921
-0.87181121 -1.2671714 1.451074
-0.84852087 -1.2346874 1.1744099
-0.84293211 -1.2274597 0.96061713
-0.83500403 -1.2172672 0.76984292
-0.81996161 -1.1962206 0.59389675
-0.80762792 -1.1790967 0.43541437
-0.79448235 -1.1603305 0.28835109
-0.79540253 -1.162531 0.15049712
-1.6835884 -2.3188028 18.216408
-1.4351124 -2.0035963 11.872187
-1.1415126 -1.6167564 6.3742008
-1.0344193 -1.4759232 4.3055797
-0.96914232 -1.3889232 3.1710143
-0.93248135 -1.3403337 2.4707155
-0.9058333 -1.304916 1.9784846
-1.4926711 -1.856289 22.172718
-1.252261 -1.7573274 8.3454885
-1.0879018 -1.5419313 5.1859212
-0.99350744 -1.416472 3.6412265
-0.94983256 -1.3587033 2.7818084
-0.91324073 -1.3097353 2.1890328
-0.88957989 -1.2781545 1.7664698
-0.87817943 -1.2707286 1.5977204
-0.85748184 -1.2421535 1.2994373
-0.8462792 -1.2272823 1.0620075
-0.8377943 -1.2158724 0.85947394
-0.82599711 -1.1996348 0.6767832
-0.81864297 -1.1898297 0.51445979
-0.80150002 -1.1657767 0.36006674
-0.79792857 -1.1614367 0.21945213
-0.87197489 -1.2579833 1.4444231
-0.84822357 -1.2250719 1.1685236
-0.84230602 -1.21742 0.95555079
-0.83408695 -1.2068778 0.76564676
-0.82144868 -1.1894656 0.59225327
-0.80621725 -1.1682694 0.43306974
-0.79290372 -1.1493977 0.28696972
-0.79662013 -1.1556342 0.1502956
-1.6916723 -2.3129117 18.216408
-1.4289879 -1.9804107 11.764492
-1.1410918 -1.6042479 6.3407969
-1.0316761 -1.4611326 4.2733622
-0.96847469 -1.3776948 3.1534581
-0.93069327 -1.3278534 2.4541838
-0.90487164 -1.2938665 1.9669722
-1.5014913 -1.8539658 22.20752
-1.24959 -1.7406933 8.2874155
-1.0852784 -1.5268725 5.1483793
-0.99090731 -1.4023287 3.6142192
-0.94706029 -1.3447186 2.760479
-0.91434252 -1.3016083 2.1810527
-0.89014304 -1.2694901 1.7591195
-0.87853402 -1.2618021 1.5907112
-0.85736746 -1.232762 1.2931604
-0.84578645 -1.2174528 1.0565246
-0.8395071 -1.2093018 0.85715514
-0.82753712 -1.1929351 0.67491019
-0.81732547 -1.17908 0.51163971
-0.79997027 -1.1548957 0.3582015
-0.79914355 -1.1545496 0.21900505
-0.87208503 -1.2488096 1.437772
-0.84786946 -1.2154734 1.1626372
-0.84162015 -1.2073996 0.95048445
-0.83570129 -1.2002344 0.76354873
