# .PCD v0.7 - Point Cloud Data file format
VERSION 0.7
FIELDS x y z
SIZE 4 4 4
TYPE F F F
COUNT 1 1 1
WIDTH 1575
HEIGHT 1
VIEWPOINT 0 0 0 1 0 0 0
POINTS 1575
DATA ascii
1.6197333 0.45704541 28.941063
1.7624532 0.57280236 17.240986
7.4912987 2.9240141 30.998833
3.3271306 1.316821 9.784832
3.914 1.5616693 8.7771111
4.9134121 1.969319 8.7285204
6.0186067 2.4207771 8.6648417
7.4181895 2.9911966 8.7492819
8.1622744 3.3227241 8.7399855
9.9182081 4.0435648 8.718749
8.9997187 3.6489813 8.7305937
2.6470873 0.99593639 17.979322
3.1138961 1.1943967 16.057606
4.9720459 1.9457425 17.115936
3.4420178 1.3608705 8.779233
4.4088459 1.7537296 8.762701
5.4127812 2.1617744 8.6329422
1.6185369 0.45061716 28.891148
1.7903308 0.57494384 17.494534
7.4920793 2.8942235 30.960119
3.3236728 1.3020523 9.7613688
3.921452 1.548797 8.7816124
4.9299531 1.956003 8.7455845
6.02702 2.3997536 8.6648417
7.4380312 2.9690545 8.7603083
8.1771317 3.2955456 8.7434902
9.9394817 4.0118327 8.7250261
9.0158672 3.6189351 8.7339191
2.6614711 0.99075478 18.053413
3.1170943 1.1831586 16.05271
4.9871597 1.9316094 17.144567
3.4485664 1.3495592 8.7838354
4.4171691 1.7392064 8.7670908
5.4229112 2.1439016 8.6370754
6.7235832 2.6662121 8.7363291
1.6061771 0.44115579 28.641565
1.8141789 0.57561028 17.708309
7.4856992 2.8617702 30.892366
3.3249795 1.2891949 9.7519827
3.9268343 1.5350993 8.7816124
4.9464607 1.9425956 8.7626486
6.0353599 2.3787005 8.6648417
7.457808 2.94681 8.7713327
8.1952095 3.2696245 8.7504988
9.9606524 3.9800012 8.7313023
9.0353842 3.5901992 8.7405701
2.6897047 0.99058491 18.221348
3.122159 1.1726286 16.057606
5.011992 1.921134 17.206604
3.4532564 1.3375132 8.7838354
4.4254446 1.7246466 8.7714796
5.4618082 2.1372638 8.6866703
6.7238979 2.6392128 8.7248173
1.8370357 0.57579881 17.91214
7.4956431 2.835623 30.892366
3.3310704 1.278199 9.7566757
3.9341996 1.5221682 8.7861137
4.962935 1.9290965 8.7797117
6.0436263 2.3576188 8.6648417
7.4775214 2.924464 8.7823591
8.2098894 3.2423081 8.7540035
9.9781055 3.9466395 8.7344408
9.0548105 3.5613711 8.747221
2.7062881 0.98597586 18.310255
3.1262331 1.1617231 16.057606
5.0186672 1.9036273 17.206604
3.4633772 1.3275486 8.7976437
4.433672 1.7100502 8.7758684
5.5059733 2.1324129 8.7445316
6.7241063 2.6122441 8.7133045
1.8466737 0.57174319 17.986712
7.5078502 2.8103223 30.902046
3.9394891 1.5084261 8.7861137
4.9745069 1.9136338 8.7882433
6.0461974 2.3343377 8.6568623
7.4940076 2.9007921 8.7897091
8.2244797 3.2149291 8.7575083
9.9990702 3.9146235 8.7407179
9.0706663 3.5310967 8.7505465
2.70752 0.9757331 18.295435
3.1312249 1.1511546 16.0625
5.0168962 1.8829504 17.177973
3.4606831 1.3126798 8.779233
4.4418521 1.6954174 8.7802572
5.5081277 2.1111665 8.7362661
6.7391677 2.5910573 8.7209797
1.8568159 0.567783 18.066256
7.5235081 2.7862802 30.926243
4.1379385 1.5547122 12.074902
3.9447305 1.4946655 8.7861137
4.9835939 1.8971856 8.79251
6.0655684 2.3175201 8.672822
7.5104194 2.8770413 8.79706
8.2389774 3.1874871 8.761013
10.019933 3.882509 8.746995
9.0899048 3.5020976 8.7571974
2.7145691 0.96758002 18.320131
3.1352239 1.1402177 16.0625
5.0304351 1.8680245 17.201832
3.4652441 1.3005918 8.779233
4.4499841 1.6807483 8.784646
5.5102015 2.0899308 8.7279997
6.7361879 2.562958 8.7056293
1.8664422 0.56360513 18.140829
7.5190248 2.754813 30.86817
4.1417232 1.5396574 12.07021
3.9499238 1.4808867 8.7861137
4.9901857 1.8797781 8.79251
6.0877137 2.3016613 8.6927719
7.5267563 2.8532104 8.80441
8.2567148 3.1612587 8.7680216
10.037058 3.8489029 8.7501335
9.1055632 3.4716766 8.7605228
2.7193956 0.95861495 18.330009
3.139185 1.1292667 16.0625
3.4715943 1.2891679 8.7838354
4.4558234 1.6652048 8.784646
5.5227323 2.0726614 8.7362661
6.7420936 2.5382996 8.7017927
1.8699311 0.55754262 18.155743
7.5238681 2.7268364 30.848812
4.1503115 1.5263819 12.079595
3.9550688 1.4670899 8.7861137
4.9991612 1.8632586 8.7967758
6.1126442 2.2867315 8.716712
7.539844 2.8281105 8.8080845
8.2710342 3.133682 8.7715263
10.05771 3.8166053 8.7564096
9.1246128 3.4425068 8.7671747
2.7197905 0.94809407 18.310255
3.1431077 1.118302 16.0625
5.5933113 2.0327024 19.072451
4.4638553 1.6504712 8.7890358
5.5299335 2.0533707 8.7362661
6.7449055 2.5125122 8.6941175
1.8744231 0.55176318 18.180601
7.5191417 2.6954675 30.790739
4.1604795 1.5136549 12.093674
3.9622095 1.4540249 8.7906151
5.0080814 1.846699 8.8010416
6.1375446 2.271656 8.740653
7.5528488 2.8029537 8.8117599
8.2852621 3.1060431 8.7750311
10.078259 3.7842102 8.7626867
9.1435699 3.4132466 8.7738247
2.7186756 0.93707591 18.280619
3.1479528 1.1076617 16.067396
5.5793014 2.0055921 19.00087
3.7394118 1.3589797 9.4327917
4.4695892 1.6348795 8.7890358
5.5397086 2.0350254 8.7403994
6.7476196 2.4867361 8.6864424
1.8768498 0.54536527 18.185572
7.5344281 2.6713042 30.814936
4.170609 1.5008757 12.107751
3.9672608 1.4401854 8.7906151
5.0144973 1.8292063 8.8010416
6.134119 2.2460742 8.7246923
7.5466747 2.7707305 8.7933846
8.3027401 3.0795836 8.7820396
10.098704 3.7517185 8.7689638
9.1624336 3.3838956 8.7804766
2.7160459 0.92557585 18.241104
3.1537232 1.0973355 16.077187
5.0504003 1.7956065 17.182743
3.7422943 1.3452576 9.4281883
4.4775209 1.6200826 8.7934246
5.5494237 2.0166371 8.7445316
6.7592707 2.4642651 8.69028
1.8777169 0.53851718 18.175629
7.5437069 2.6449878 30.814936
3.974313 1.4270641 8.7951164
5.0233054 1.8125764 8.8053074
6.1390882 2.2236218 8.7207022
8.3167868 3.0518112 8.7855444
10.119046 3.7191303 8.7752409
9.1812038 3.354455 8.7871275
2.7199967 0.91633755 18.246044
3.160423 1.0873138 16.091873
5.0538211 1.7769763 17.173201
3.7432859 1.3308775 9.4189844
4.4831491 1.6044432 8.7934246
5.5564294 1.9972537 8.7445316
6.7738614 2.4428306 8.6979551
1.8790724 0.53181463 18.170658
7.5350795 2.6124635 30.742344
6.347578 2.2342761 18.353825
3.97927 1.4131825 8.7951164
5.0296021 1.7950308 8.8053074
6.1439762 2.2011628 8.716712
8.3307419 3.0239787 8.7890491
10.14294 3.6877754 8.7846556
9.1998796 3.3249242 8.7937784
2.7239158 0.90708268 18.250982
3.1661274 1.0769309 16.101664
5.0614028 1.7598145 17.177973
3.7442226 1.316507 9.4097795
4.4909801 1.5895835 8.7978144
5.5660176 1.9787881 8.7486639
6.7883854 2.421324 8.7056293
1.8804036 0.52510905 18.165686
7.5489087 2.5877755 30.761702
6.3276315 2.2024622 18.274046
3.9862328 1.4000049 8.7996178
5.0382962 1.7783313 8.8095741
6.1544619 2.1807091 8.7207022
8.3479605 2.9972906 8.7960587
10.163076 3.6549821 8.7909327
9.2184629 3.2953045 8.8004293
2.72928 0.89829743 18.2658
3.175658 1.067819 16.131033
5.0632801 1.7406806 17.163656
3.7487953 1.3034292 9.4097795
4.4965014 1.5738975 8.7978144
5.5994387 1.9686804 8.7899942
6.8058639 2.4008119 8.7171421
1.8822252 0.51854205 18.165686
7.5686102 2.5650399 30.805258
6.235744 2.1461072 17.987787
3.9931519 1.386796 8.8041191
5.0444732 1.7607334 8.8095741
6.1648812 2.1602094 8.7246923
7.5494404 2.6527297 8.7529573
8.3617325 2.9693263 8.7995634
10.183107 3.6220927 8.7972097
9.233428 3.2643499 8.8037548
2.7353547 0.88972592 18.285557
3.1755009 1.055443 16.111452
5.0707388 1.7234761 17.168428
3.7533221 1.2903355 9.4097795
4.5042315 1.5589755 8.8022032
5.6248822 1.9555911 8.818924
6.8263087 2.3812633 8.7324924
1.8835094 0.5118292 18.160715
5.7089767 1.9425679 16.453255
3.9979684 1.3728487 8.8041191
5.0530534 1.743965 8.813839
6.175231 2.1396632 8.7286825
7.574666 2.6319246 8.7713327
8.3787756 2.9424832 8.806572
10.203032 3.5891082 8.8034868
9.2518167 3.2345643 8.8104057
2.7421427 0.88136059 18.310255
3.1791656 1.0443521 16.111452
5.0767241 1.7057654 17.168428
3.7559536 1.2765975 9.4051762
4.5096459 1.5432432 8.8022032
5.6423192 1.9396037 8.8354568
6.8345795 2.3574204 8.7324924
1.8852845 0.50525141 18.160715
6.3190908 2.0925477 25.665789
5.7075438 1.9198772 16.429789
4.004797 1.3595845 8.8086195
5.0591102 1.726316 8.813839
6.1855125 2.1190712 8.7326727
7.5773954 2.6032653 8.7639837
8.3923645 2.9143879 8.8100758
10.222851 3.5560286 8.8097639
9.2665796 3.2034695 8.8137312
2.7496457 0.87319374 18.33989
3.180855 1.0326198 16.101664
5.0812311 1.6875635 17.163656
3.7603867 1.263479 9.4051762
4.5172734 1.5282596 8.806592
5.6490555 1.9198966 8.8354568
6.836699 2.33148 8.7248173
1.8870367 0.49866745 18.160715
6.2068934 2.0313845 25.181847
5.7780757 1.921175 16.612808
4.0074553 1.3449044 8.8041191
5.0675764 1.7094793 8.8181047
6.1985803 2.0994 8.740653
7.5832257 2.5757089 8.7603083
8.4092321 2.8873916 8.8170853
10.242562 3.5228543 8.816041
9.2847719 3.1735187 8.8203821
2.7571256 0.86498529 18.369526
3.1854095 1.0218211 16.106558
5.0870905 1.6698164 17.163656
3.7629204 1.2497294 9.4005737
4.5225806 1.512482 8.806592
5.6557226 1.900166 8.8354568
6.8387213 2.3055534 8.7171421
1.8887658 0.49207747 18.160715
5.786386 1.9015329 16.6175
4.0183234 1.3329636 8.8176222
5.0759873 1.6926049 8.8223715
6.2087283 2.0787067 8.7446432
7.5825295 2.5459855 8.7492819
8.4260149 2.8603129 8.8240948
10.258482 3.4883325 8.8191795
9.2993307 3.1422849 8.8237076
2.7638392 0.85650533 18.39422
3.1986635 1.0137711 16.15551
5.0914679 1.6515883 17.158884
3.7654035 1.2359775 9.3959713
4.5301065 1.4974375 8.8109808
5.6623211 1.8804123 8.8354568
6.8436866 2.2806544 8.7133045
1.8899556 0.48534912 18.155743
4.0208836 1.3182508 8.8131208
5.0818644 1.674876 8.8223715
6.2216673 2.0589149 8.7526226
7.5849347 2.5173664 8.7419319
8.4393282 2.8320179 8.8275995
10.277976 3.454983 8.8254566
9.3173246 3.1121702 8.8303585
2.7727561 0.84867096 18.433735
3.2060697 1.0038161 16.175091
5.0957808 1.6333503 17.154112
3.7678363 1.2222235 9.3913689
4.535306 1.4816155 8.8109808
5.6688504 1.8606355 8.8354568
6.8485613 2.2557487 8.7094669
1.7312086 0.36655334 30.43856
1.8916383 0.47874898 18.155743
4.7654595 1.5046322 19.277748
5.9145412 1.8979971 16.945993
4.0254607 1.3042072 8.8131208
5.0901604 1.6579344 8.8266373
6.2316809 2.0381212 8.7566128
7.5872335 2.4887617 8.7345819
8.4525471 2.8036644 8.8311043
10.29736 3.42154 8.8317337
9.3316774 3.0807986 8.833684
2.7786767 0.83988583 18.453491
3.2134454 0.99382174 16.194672
5.0986052 1.6146516 17.144567
3.7683592 1.2078714 9.382164
4.5427294 1.466511 8.8153696
5.6753106 1.8408363 8.8354568
6.8716331 2.2367897 8.7286549
1.7296506 0.35992262 30.388645
1.8932978 0.47214302 18.155743
4.7838826 1.4921046 19.330982
5.9227748 1.8778615 16.950686
5.0983987 1.6409553 8.8309031
6.2473588 2.0191362 8.7685823
7.5958748 2.4622622 8.7345819
8.4588938 2.7730317 8.8275995
10.316637 3.3880033 8.8380098
9.3459244 3.0493643 8.8370094
2.7823362 0.83040351 18.458431
3.2353971 0.98824835 16.287682
5.1042104 1.5968443 17.144567
3.7706897 1.1941203 9.3775616
4.5478206 1.4506451 8.8153696
5.684382 1.8218734 8.8395901
6.8916039 2.2167151 8.7440042
1.7388176 0.35549441 30.528412
1.8944167 0.46540442 18.150772
4.7854576 1.4742867 19.316463
5.9292936 1.8571757 16.950686
4.2461805 1.3430287 9.2722454
5.1065817 1.6239392 8.8351688
6.2601099 1.9991499 8.7765627
7.6011944 2.4346983 8.7309065
10.335805 3.3543739 8.8442869
9.3671732 3.0201597 8.8469868
2.7859633 0.82090569 18.463369
3.2592993 0.98312193 16.390482
5.1011958 1.5763735 17.115936
3.771106 1.1797844 9.3683567
4.555141 1.4354811 8.8197594
5.6933894 1.8028696 8.8437223
6.9115191 2.1965284 8.7593546
1.7307057 0.34755588 30.363688
1.8965478 0.45891392 18.155743
4.7725368 1.4520861 19.243872
5.9176059 1.8308572 16.899065
4.2549982 1.3294969 9.2812481
5.114707 1.6068854 8.8394356
6.2785444 1.9809122 8.7925224
7.6096473 2.4081504 8.7309065
10.358571 3.3218408 8.8537025
9.3954449 2.9931102 8.8636141
2.7903039 0.81160975 18.473249
3.2822282 0.97754973 16.488384
5.6349206 1.7197582 18.881571
3.7714679 1.16546 9.3591509
4.5601239 1.419572 8.8197594
5.7023339 1.7838253 8.8478556
6.928318 2.1752696 8.7708673
1.7304921 0.34123459 30.33873
1.8981383 0.45229092 18.155743
5.8942552 1.8011134 16.814596
4.2679338 1.3172038 9.2992525
5.1227756 1.589795 8.8437014
6.2969279 1.9625703 8.8084831
7.6374207 2.3876421 8.7529573
10.377524 3.2880135 8.8599796
9.420083 2.9647794 8.8769159
2.7946141 0.80229354 18.483128
3.3032045 0.97125518 16.5765
5.6623278 1.7065387 18.95315
3.771776 1.1511476 9.349946
4.5673409 1.4043494 8.8241482
5.7139025 1.7655708 8.8561211
6.9481149 2.1548698 8.7862177
1.7311057 0.33508277 30.328747
2.6076701 0.61132306 24.936874
4.3897009 1.3022137 17.66622
5.8988533 1.7800291 16.809904
4.2704229 1.3016632 9.2947512
5.128294 1.5719035 8.8437014
6.3152599 1.944124 8.8244429
7.6554265 2.3639688 8.7639837
8.4967871 2.6546569 8.8275995
10.396367 3.2540944 8.8662558
9.4482012 2.9374216 8.8935432
2.7981448 0.79274517 18.488066
3.34569 0.9710682 16.772308
5.6668191 1.6863372 18.948378
3.773901 1.1374111 9.3453445
4.5745068 1.3890936 8.8285379
5.7227221 1.746436 8.8602543
6.9647884 2.1334195 8.7977304
1.7342505 0.32941326 30.363688
2.6118658 0.60269547 24.95676
4.3942199 1.2868829 17.66622
5.9480309 1.7722381 16.931915
4.2749405 1.2867486 9.2947512
5.1362457 1.5547483 8.8479671
6.3306565 1.9246972 8.8364134
7.6766024 2.3411877 8.7786837
8.4957781 2.6218264 8.8170853
10.4151 3.2200837 8.8725328
9.4691048 2.9077115 8.9035196
2.79865 0.78234583 18.473249
3.3823407 0.96891439 16.938747
5.5881715 1.6417245 18.66683
3.7741032 1.1231164 9.3361387
4.5816216 1.373805 8.8329268
5.7314777 1.7272614 8.8643875
6.9783287 2.1109507 8.8054047
1.7382283 0.32388368 30.413603
2.6113546 0.59298557 24.931904
4.398685 1.2715364 17.66622
5.9939141 1.7631512 17.044542
4.2794061 1.2718184 9.2947512
5.1416416 1.53681 8.8479671
6.3431087 1.9043202 8.8443937
7.6944671 2.3173099 8.7897091
8.5082893 2.5931942 8.82059
10.429999 3.1848452 8.8756714
9.48277 2.8757238 8.9068451
2.8028622 0.77298492 18.483128
3.4268551 0.96873152 17.144346
5.0591154 1.4671518 16.886881
3.7817495 1.1110368 9.3453445
4.588686 1.3584837 8.8373156
5.74017 1.7080469 8.8685198
6.9948683 2.0893312 8.8169174
1.7433248 0.31853682 30.483486
2.6092463 0.58293849 24.89213
4.398262 1.2547951 17.646862
6.0215764 1.7484729 17.105549
4.2838197 1.2568729 9.2947512
5.1494761 1.5195911 8.852232
6.355495 1.8838795 8.8523731
7.7122569 2.2933359 8.8007345
8.5207052 2.5645068 8.8240948
10.448506 3.150666 8.8819485
9.4963284 2.8436766 8.9101715
2.8010445 0.7619732 18.453491
3.4723902 0.96852297 17.354841
5.0685115 1.4507153 16.901196
3.785605 1.0978292 9.3453445
4.5934 1.3424578 8.8373156
5.7460971 1.6879995 8.8685198
7.0082679 2.0667148 8.8245926
1.7447103 0.31250018 30.48848
2.6081412 0.57314187 24.862303
4.3929353 1.2367102 17.608147
6.0093946 1.722214 17.053926
4.2881808 1.2419119 9.2947512
5.1547489 1.5016067 8.852232
6.3649244 1.8625294 8.8563633
7.7299743 2.2692659 8.8117599
8.5330238 2.5357642 8.8275995
10.4669 3.1163957 8.8882246
9.5133572 2.8126276 8.9168215
2.8014359 0.75158745 18.438675
3.4747679 0.95612615 17.349947
5.0749807 1.4334197 16.90597
3.7894139 1.0846083 9.3453445
4.595757 1.3257519 8.8329268
5.7546568 1.6687154 8.872653
7.021594 2.0440304 8.8322668
1.7463593 0.30650735 30.498463
2.6054361 0.56302285 24.817558
4.3717923 1.2143055 17.506519
6.0153699 1.7012267 17.053926
4.2945833 1.2275339 9.2992525
5.1624656 1.4843248 8.8564987
6.3742819 1.8411365 8.8603535
7.7476168 2.2451 8.8227863
8.5418234 2.5059633 8.8275995
10.48145 3.0809383 8.8913631
9.526701 2.7804487 8.9201469
2.8017888 0.7412082 18.423857
3.4662924 0.94079185 17.291204
5.0598226 1.4100866 16.839161
4.5957499 1.3083903 8.8241482
5.7604465 1.6486176 8.872653
7.0379281 2.0221632 8.8437796
1.7482723 0.30055547 30.513437
2.6063428 0.55370367 24.807615
4.3493333 1.1917315 17.400051
5.9996629 1.6741896 16.992922
4.3030324 1.2137175 9.3082552
5.1701245 1.4670072 8.8607645
6.3835678 1.8197008 8.8643436
7.7619247 2.2199061 8.8301353
8.5539436 2.4771233 8.8311043
10.499617 3.0465016 8.8976402
9.5435247 2.7492447 8.9267979
2.802103 0.73083562 18.409039
3.4626696 0.92684394 17.256935
5.066153 1.3928117 16.843933
5.7661662 1.6284999 8.872653
7.0541949 2.0002069 8.8552923
1.7478871 0.29421279 30.48848
2.6072159 0.54438496 24.797672
4.3267708 1.169329 17.293585
5.9738588 1.6445354 16.903759
4.3114371 1.1998569 9.3172579
5.1777253 1.4496543 8.8650303
6.3927813 1.7982228 8.8683338
7.7728891 2.1937194 8.8338108
8.5625381 2.4472492 8.8311043
10.521413 3.0130475 8.9070559
9.5602455 2.7179568 8.9334497
2.8046372 0.72104996 18.409039
3.1892343 0.84176069 15.881378
5.1113238 1.3860564 16.977551
6.3403869 1.7572769 12.124736
5.7745266 1.6091176 8.8767862
7.070394 1.9781618 8.8668041
1.7474791 0.28787649 30.463522
2.6080556 0.53506696 24.787729
4.3441863 1.1577786 17.346817
5.999547 1.6290985 16.960072
4.3197975 1.1859523 9.3262596
5.182754 1.431572 8.8650303
6.4019232 1.7767026 8.872324
7.7870317 2.1683924 8.8411617
8.5710287 2.4173453 8.8311043
10.535612 2.9773612 8.9101944
9.5732708 2.6855774 8.9367752
2.8063838 0.71106488 18.4041
3.1980653 0.83216095 15.910748
5.1190147 1.3689772 16.987091
6.1988721 1.6808695 15.19055
6.3418617 1.733871 12.115957
5.7801085 1.588951 8.8767862
7.0896149 1.9568807 8.8821545
1.7487582 0.28182054 30.468512
2.60834 0.5256446 24.772816
4.3919668 1.1541055 17.521036
5.968524 1.5983266 16.856831
4.328114 1.1720042 9.3352623
5.1902361 1.4141575 8.869297
6.4080863 1.7543451 8.872324
7.7978225 2.1420956 8.8448362
8.5759792 2.3864565 8.8275995
10.557188 2.9437025 8.91961
9.5897827 2.6541357 8.9434252
2.8065872 0.7007001 18.389282
3.2029235 0.82149827 15.920539
5.1569605 1.3598528 17.096849
6.2084761 1.6602304 15.199755
6.3478756 1.7117232 12.115957
5.7856197 1.568765 8.8767862
7.0994954 1.9329635 8.8859921
1.7522982 0.27611649 30.513437
2.608067 0.51612359 24.752928
4.4373407 1.1494825 17.685577
5.9757361 1.5779234 16.861525
4.3363848 1.1580122 9.344264
5.1976595 1.3967085 8.8735628
6.4170799 1.7327514 8.8763132
7.8085246 2.1157494 8.8485117
8.5808182 2.3555617 8.8240948
10.567399 2.9068332 8.91961
9.6025915 2.6216283 8.9467516
2.8158069 0.6925683 18.433735
3.2077458 0.81081182 15.930329
5.1703429 1.3440963 17.125481
6.1651163 1.6255988 15.080088
6.36307 1.6920164 12.133514
5.7910604 1.5485598 8.8767862
7.1092954 1.9090011 8.8898296
1.7558198 0.27039117 30.558361
2.6077592 0.50661081 24.733042
4.4632487 1.1395825 17.772688
4.3446112 1.1439768 9.3532667
5.2025032 1.3785567 8.8735628
6.4260006 1.7111163 8.8803034
7.822413 2.0902302 8.8558626
8.5855455 2.3246629 8.82059
10.573726 2.8689094 8.9164715
9.6152897 2.5890641 8.9500771
2.8159418 0.68218654 18.418917
3.216485 0.80108571 15.959702
5.1880174 1.3293744 17.168428
6.146173 1.5976799 15.020257
6.3758874 1.6716166 12.146681
5.7964306 1.5283357 8.8767862
7.1190138 1.8849938 8.8936672
1.7564675 0.26421791 30.553371
2.6074176 0.49710655 24.713158
4.4562287 1.1212362 17.729132
5.5904531 1.4345257 15.749339
4.3548999 1.1304451 9.3667707
5.2098069 1.3610473 8.8778286
6.4348493 1.6894403 8.8842936
7.8329401 2.0637758 8.8595381
8.583271 2.2919195 8.8100758
10.579914 2.8309765 8.9133329
9.6314859 2.5574009 8.956728
2.8258641 0.67415494 18.468311
3.2301395 0.792521 16.01355
5.211441 1.3160071 17.230465
6.1573901 1.5776705 15.034063
6.3863215 1.6505489 12.155459
5.8044534 1.5088011 8.8809195
7.1286516 1.8609416 8.8975048
1.7568077 0.25800171 30.543388
2.6112325 0.48839298 24.733042
4.4271736 1.0975097 17.598467
5.6004453 1.4162717 15.763416
4.3524914 1.1136181 9.3532667
5.2246284 1.3454547 8.8948917
6.443624 1.6677229 8.8882828
7.8532214 2.0398302 8.874238
8.6015654 2.2646682 8.82059
10.589732 2.7940285 8.9133329
9.6439667 2.5247109 8.9600534
2.8350081 0.66588479 18.512764
3.2289274 0.78028452 15.993968
5.2160029 1.2978078 17.230465
6.1855898 1.5619066 15.089293
6.3990068 1.63002 12.168627
5.8124113 1.489229 8.8850527
7.1382079 1.8368454 8.9013424
1.7576976 0.25186774 30.543388
2.6129215 0.47927511 24.733042
4.1757674 1.0197414 16.587029
5.6271238 1.4021373 15.824423
4.347909 1.0962896 9.3352623
5.2191815 1.3246431 8.8778286
6.4523258 1.6459651 8.8922729
7.8734303 2.0157681 8.8889389
8.6370335 2.2417967 8.8486261
10.584352 2.7531273 8.9007788
9.6599512 2.4928975 8.9667044
2.8365581 0.65580976 18.507824
3.2237067 0.76712376 15.954805
5.2277503 1.2813692 17.254324
6.2402973 1.5525681 15.20896
6.4069805 1.6082562 12.173016
5.8203015 1.4696195 8.889185
7.1507902 1.8134931 8.9090176
1.7568502 0.24549259 30.513437
2.615628 0.47033963 24.742985
4.1756353 1.0042775 16.57251
5.663826 1.3903018 15.913585
6.4609547 1.624167 8.8962631
7.8902807 1.9907604 8.8999643
8.6620798 2.2160535 8.8661489
9.6758308 2.4610035 8.9733553
3.2253735 0.75563413 15.949911
5.2568593 1.2690673 17.335449
6.2608585 1.5344959 15.245779
6.4148803 1.586457 12.177404
5.8281269 1.4499733 8.8933172
7.1601868 1.7892983 8.9128551
1.7599853 0.23966803 30.553371
2.6172538 0.46120653 24.742985
4.2048011 0.99577707 16.674137
5.6803861 1.3733612 15.946434
6.4695096 1.6023284 8.9002533
7.9136314 1.9672954 8.9183407
8.7008858 2.19365 8.8976898
9.6916065 2.429029 8.9800062
3.418102 0.76507938 22.2666
3.230968 0.74505699 15.964596
5.249639 1.2479483 17.297272
6.3117557 1.5236336 15.35624
6.4343405 1.5674561 12.203739
5.835886 1.4302902 8.8974504
7.1695008 1.7650598 8.9166927
1.7628148 0.23378685 30.588312
2.6135945 0.45116323 24.693272
4.2437525 0.98936778 16.814482
5.6851454 1.3535247 15.946434
7.7580056 1.86983 16.564213
9.3208694 2.2619548 15.75878
6.4779911 1.5804502 8.9042435
7.9270353 1.9412723 8.9256897
8.7050285 2.1624053 8.8941851
9.7072763 2.3969743 8.9866571
3.4124043 0.75130647 22.212267
3.2166684 0.72994524 15.881378
5.5606403 1.3013769 18.304161
6.3170357 1.5015922 15.35624
5.8408432 1.4099106 8.8974504
7.1787338 1.7407782 8.9205303
1.7659109 0.22792551 30.628244
2.6167302 0.44230321 24.708185
4.2655573 0.97876406 16.887074
5.6881557 1.3332779 15.941742
7.7369494 1.8362037 16.505695
9.3058796 2.2239494 15.720387
6.4863982 1.558532 8.9082336
7.9403548 1.9151797 8.9330406
8.7159882 2.1328535 8.8976898
9.7228403 2.3648398 8.993309
3.3945014 0.7349534 22.078907
3.2062778 0.71582955 15.817739
5.5826044 1.2859792 18.361423
5.8512049 1.3908151 8.9057169
7.1847663 1.7157091 8.9205303
1.7678416 0.22190267 30.648212
4.2763047 0.96552908 16.916109
5.6927752 1.3134145 15.941742
9.2907381 2.1860766 15.681994
6.4947314 1.5365745 8.9122238
7.9502907 1.8882344 8.9367161
8.7268467 2.1032515 8.9011946
9.7382975 2.3326259 8.999959
3.4031265 0.72439343 22.118422
3.2037845 0.7035417 15.793263
5.2580523 1.1919169 17.282957
6.3959022 1.47324 15.521932
5.8532844 1.3697408 8.9015837
7.1938319 1.6913527 8.9243679
1.7780632 0.21687491 30.812935
4.2906923 0.95304847 16.959663
5.7040553 1.2950628 15.960512
6.5029902 1.5145776 8.916213
7.9601345 1.8612431 8.9403906
8.737606 2.0735998 8.9046993
9.7536478 2.3003325 9.0066099
3.4094369 0.713305 22.143118
3.2082114 0.69278377 15.803054
5.2199297 1.1641346 17.144567
6.4029112 1.451337 15.526533
5.8580294 1.3493009 8.9015837
7.2028141 1.6669538 8.9282045
1.7768023 0.21043122 30.777994
1.7166286 0.27208948 16.167141
4.3824105 0.95737582 17.308104
7.7281504 1.7488375 16.44718
6.5111742 1.4925419 8.9202032
7.9698868 1.8342061 8.944066
8.744791 2.0430872 8.9046993
9.7688932 2.2679608 9.0132618
3.4218004 0.70343226 22.207329
3.2195745 0.68348294 15.847112
5.2531223 1.152302 17.240009
6.3335719 1.4123958 15.347035
5.8736815 1.3313323 8.9181156
7.2117143 1.6425129 8.9320421
1.7603159 0.20226689 30.478495
1.7175679 0.2660957 16.167141
4.4557757 0.95711559 17.58395
5.7095881 1.2544694 15.951128
7.7299581 1.7209044 16.438177
6.5192838 1.4704676 8.9241934
7.9795475 1.8071237 8.9477415
8.7901011 2.0213411 8.9432497
9.7803907 2.2346787 9.0165873
3.4364216 0.69394314 22.286356
3.2319081 0.67431903 15.896063
5.5504036 1.1972092 18.199177
6.1686249 1.3530307 14.937411
7.2205315 1.6180302 8.9358797
1.7759326 0.19776833 30.738062
1.7153237 0.25962204 16.137314
4.2020483 0.88729531 16.57251
5.713932 1.2345316 15.951128
6.527319 1.4483548 8.9281836
7.9924245 1.7807331 8.9550915
8.8318863 1.9985163 8.9782953
9.7881308 2.2005253 9.0165873
3.4403472 0.68224561 22.296236
3.23524 0.66323793 15.900959
5.6202602 1.1917589 18.413916
6.0873709 1.3129562 14.730297
9.3929167 2.0601101 14.195891
7.2292662 1.5935059 8.9397173
1.7680005 0.19064766 30.588312
2.6354396 0.38887987 24.802645
4.2137351 0.87440926 16.606386
5.7232699 1.2156541 15.965206
6.5382228 1.4268464 8.9361639
8.0019035 1.7535492 8.9587669
8.8457699 1.9692247 8.9853039
9.7957535 2.1663449 9.0165873
3.4419448 0.670084 22.291296
3.2305477 0.65053433 15.866691
5.5834689 1.1636076 18.2803
5.95049 1.2617155 14.38971
9.4110546 2.0296831 14.212423
7.2379165 1.5689404 8.9435549
1.7916281 0.18684904 30.987644
2.6394193 0.38005686 24.827501
4.2426257 0.86496687 16.708014
5.740993 1.1984895 16.002747
7.3599386 1.5578265 15.618957
6.5431638 1.4040151 8.9361639
8.0146036 1.727035 8.9661169
8.8525896 1.9383353 8.9853039
9.8032551 2.1321383 9.0165873
3.4503689 0.65923119 22.330811
3.2278044 0.63826662 15.842216
5.5480132 1.1360273 18.151457
5.9013062 1.2297784 14.260839
9.3933067 1.9915676 14.175226
7.2464838 1.5443338 8.9473925
1.8037598 0.18174087 31.187309
2.6412575 0.37091511 24.832472
5.7535944 1.180176 16.026213
7.371726 1.5334562 15.632461
6.5568695 1.3830321 8.9481335
8.0272169 1.7004534 8.9734678
8.8662748 1.9089234 8.9923124
9.8106375 2.0979054 9.0165873
3.457231 0.64804149 22.360445
3.2290132 0.62680167 15.83732
5.9438419 1.2170082 14.35289
9.3616333 1.9507304 14.117366
7.2549677 1.5196865 8.95123
1.8086938 0.17585851 31.262186
2.6420083 0.36162114 24.827501
5.0144844 0.98587281 19.713297
5.7830534 1.165197 16.096603
7.3706346 1.5064069 15.618957
6.5675583 1.361359 8.9561138
8.0364227 1.6731138 8.9771433
8.8763733 1.8787012 8.9958172
9.8179007 2.0636473 9.0165873
3.4625289 0.63653111 22.380201
3.2401836 0.61724049 15.881378
5.9461384 1.1958678 14.348288
7.2633677 1.4949988 8.9550676
1.8159081 0.17015725 31.376993
2.6342714 0.35120279 24.742985
4.3045225 0.83073068 16.916109
5.7870855 1.1450032 16.096603
7.3865204 1.4828117 15.641463
8.0455351 1.6457305 8.9808178
8.8863688 1.8484316 8.9993219
9.828701 2.0301189 9.0199127
3.5021999 0.63118947 22.622227
3.2513268 0.60760891 15.925435
5.1903167 1.0062855 16.948917
5.9253607 1.1701846 14.288455
7.2716837 1.4702711 8.9589052
1.8314435 0.16515198 31.63656
2.6323094 0.34159508 24.713158
4.3234515 0.81873959 16.979021
5.7080402 1.1086757 15.866658
7.4023309 1.4591237 15.663969
8.0512304 1.6176363 8.9808178
8.8962612 1.8181152 9.0028267
9.8430462 1.9972829 9.0265627
3.5334582 0.62409288 22.809917
3.2714555 0.59955817 16.01355
5.1967306 0.98871976 16.958462
5.889132 1.1416869 14.191802
7.2830596 1.4461275 8.9665794
1.8320088 0.15875806 31.63656
2.6387744 0.3330698 24.762873
4.3324623 0.80479038 17.003218
5.5101504 1.0502995 15.308218
7.3817306 1.4283136 15.609954
9.4791021 1.8615319 12.866337
8.060154 1.5901786 8.9844923
8.9095449 1.7884539 9.0098352
9.8536196 1.9636418 9.0298891
3.5585845 0.61572659 22.958094
3.2895634 0.59101439 16.091873
5.1913457 0.96893078 16.929829
5.9314666 1.1284245 14.283853
7.2912087 1.4213094 8.970417
1.8342783 0.15250412 31.666512
2.6409793 0.32398611 24.772816
4.3340082 0.78943723 16.998381
5.3933477 1.0085419 14.975032
7.4251685 1.4098468 15.690975
9.4944201 1.8301435 12.878308
8.068985 1.5626783 8.9881678
8.9192333 1.7580326 9.01334
9.8677435 1.9306682 9.03654
3.5414546 0.6006763 22.834614
3.3185802 0.58487171 16.224045
5.16957 0.94713819 16.848705
5.9351759 1.1087489 14.283853
8.6041765 1.6258976 16.114408
7.3021779 1.3983287 8.9780922
1.8396664 0.14680649 31.751368
4.3341279 0.77461863 16.988701
5.4321322 0.99814141 15.073581
7.4552422 1.3913052 15.744991
9.4882793 1.7980627 12.862348
8.0771847 1.5379553 8.9918432
8.9285154 1.7291237 9.0168447
9.8810921 1.901069 9.043191
3.5464334 0.59451801 22.85931
4.7651753 0.8302561 23.278067
5.137434 0.93198729 16.738951
5.9486279 1.1005204 14.311467
8.6114283 1.6132622 16.123188
7.3072724 1.3887299 8.9819298
1.84042 0.14460351 31.761353
4.331224 0.76942021 16.974184
5.497683 1.0042337 15.251905
7.5144863 1.3942187 15.866525
9.4809618 1.7881067 12.850377
8.0815859 1.5329477 8.9955187
8.9388237 1.7133218 9.0238533
9.8907433 1.8903975 9.0498419
3.5369854 0.58024949 22.785221
4.7670407 0.81344628 23.27317
5.0981936 0.90558243 16.600563
5.9583888 1.0797552 14.325275
8.6010695 1.5771613 16.092464
7.3253927 1.3617285 8.9972801
1.8441767 0.13712572 31.816259
1.7401047 0.1984539 16.29143
4.3333011 0.75029993 16.969343
5.4631066 0.97232217 15.143971
7.5442991 1.3643658 15.916037
8.0923147 1.4940509 8.9991932
8.9482546 1.6827681 9.0273581
9.9025669 1.8479079 9.0531673
3.5428252 0.5685147 22.809917
4.761817 0.79545969 23.234009
5.0998526 0.88752484 16.595789
5.9736624 1.0609995 14.35289
8.6065226 1.5471284 16.092464
1.8437802 0.1306271 31.801287
1.7376076 0.1920293 16.2616
4.3235006 0.73306882 16.92095
5.4358673 0.94791132 15.059502
7.574738 1.3425817 15.970052
8.1008177 1.4663982 9.0028687
8.9575815 1.6521695 9.0308628
9.9163036 1.8146745 9.0598183
3.5140831 0.55133075 22.612349
4.7655697 0.77899718 23.238903
5.0455313 0.85993904 16.409683
5.9773297 1.0401411 14.35289
8.6165867 1.5179075 16.10124
9.5528784 1.7068677 11.695045
1.8433608 0.12413289 31.78631
1.7329665 0.18539907 16.211885
4.3198328 0.7169438 16.896751
5.4493494 0.93067354 15.087658
7.6930556 1.3358705 16.208616
8.1125631 1.4392965 9.0102196
8.9703121 1.6221606 9.0378714
9.9299269 1.7813675 9.0664692
3.5006254 0.53670764 22.513563
4.7622271 0.76139331 23.209532
5.1383166 0.85730302 16.700773
5.9770722 1.0186137 14.343685
9.5429926 1.6707478 11.675858
1.8475283 0.11793325 31.851202
1.7389059 0.17989393 16.2616
4.3074207 0.69944364 16.838678
5.4253316 0.90709376 15.012574
7.8157091 1.3290789 16.456182
8.124217 1.4121307 9.0175695
8.9794312 1.5914608 9.0413761
9.9434395 1.7479877 9.0731201
3.4755816 0.52046049 22.340687
4.7608318 0.74413669 23.189953
5.9844456 0.9983865 14.35289
9.536129 1.6352595 11.660508
1.8496579 0.1115862 31.881153
1.7416449 0.17403357 16.281485
4.307353 0.68400961 16.828999
5.4012165 0.88369304 14.93749
7.8568068 1.3078653 16.532703
8.129097 1.3837632 9.0175695
8.9884453 1.5607172 9.0448809
9.9568396 1.7145351 9.079771
3.4620008 0.50607938 22.241903
4.7593737 0.72689909 23.17037
5.2458854 0.83764672 17.030041
1.8546481 0.10538685 31.96102
1.7454257 0.16825794 16.311316
4.3208933 0.67070448 16.872553
5.3838201 0.86156237 14.881177
7.8333921 1.2758828 16.474188
8.9973545 1.52993 9.0483856
9.966445 1.6803896 9.0830965
3.4706695 0.49497816 22.286356
4.757854 0.7096808 23.150789
5.2591009 0.82094121 17.063444
1.853563 0.098836727 31.936058
1.7507795 0.16260487 16.356058
4.3343935 0.65731329 16.916109
5.4157786 0.84729767 14.960953
7.803401 1.2430527 16.402168
9.5974054 1.5648278 10.619941
9.0061579 1.4990995 9.0518904
9.9796181 1.6468058 9.0897474
3.4692976 0.48243254 22.2666
4.7562714 0.69248188 23.131208
5.2766919 0.80482876 17.111164
6.7975736 1.06098 16.26754
1.8530316 0.092323683 31.921085
1.7470888 0.15611567 16.316288
4.3503389 0.64420402 16.969343
5.4169974 0.82812721 14.956261
7.6915364 1.1977204 16.159101
9.6162014 1.5334527 10.634643
9.0148563 1.4682263 9.0553951
9.9889917 1.6125554 9.0930729
3.4686506 0.47000676 22.251781
4.7516036 0.67487335 23.096941
5.2824221 0.78684443 17.120708
6.799305 1.0369511 16.262938
1.8521891 0.085802443 31.901117
1.7486852 0.15010674 16.326229
4.3587813 0.62991309 16.99354
5.4830055 0.81863993 15.129894
7.624649 1.1600603 16.010563
9.6214952 1.4998765 10.634643
9.0234489 1.4373107 9.0588989
10.001937 1.5788419 9.0997248
3.4710402 0.45799756 22.256721
4.7539301 0.65828311 23.096941
6.9709973 1.0382456 16.663357
1.8501699 0.079239868 31.861185
1.7481362 0.143915 16.316288
4.3597093 0.614519 16.988701
5.4841223 0.79924685 15.1252
7.5209866 1.1174436 15.785502
9.6099148 1.4637299 10.616266
9.0425053 1.4079988 9.072917
10.011077 1.5444883 9.1030502
3.4633696 0.44469222 22.197451
4.7491355 0.64073229 23.062675
5.287786 0.74994737 17.120708
7.0403123 1.0234603 16.819843
1.8550508 0.072958395 31.941051
1.7491592 0.13785352 16.321259
4.3655634 0.59981006 17.003218
5.4749193 0.77839887 15.092351
7.5269957 1.091496 15.790003
9.0685196 1.3796442 9.0939445
10.023791 1.5106466 9.1097002
3.4579616 0.43173456 22.152996
4.7493238 0.62388569 23.052885
5.2844572 0.73066741 17.10162
7.1270175 1.010672 17.017752
1.8573139 0.066553146 31.975992
1.7464403 0.13150883 16.29143
4.363893 0.5840677 16.988701
5.4844403 0.7602306 15.111122
7.5307598 1.0652152 15.790003
10.032698 1.4761913 9.1130266
3.4525054 0.41882005 22.108543
3.5556316 0.45453697 17.256935
7.184689 0.99327809 17.146622
1.858689 0.060105775 31.99596
1.7500789 0.12563881 16.321259
5.8080401 0.75664401 22.587915
5.4802198 0.74015808 15.092351
7.4503269 1.0273256 15.614456
10.071052 1.445937 9.1429558
3.4462292 0.40585813 22.059149
3.5582075 0.44224826 17.261831
7.2036018 0.97027868 17.183443
1.8562903 0.053544831 31.951035
1.7526343 0.11967306 16.341145
5.77947 0.73241615 22.466928
5.4759264 0.72012419 15.073581
7.4689708 1.0033416 15.645964
10.087132 1.4123268 9.1529322
3.4437652 0.39338559 22.034454
3.5587184 0.42970306 17.256935
7.2398753 0.94944543 17.261686
1.8561773 0.047057785 31.946043
1.755169 0.11369096 16.361029
5.8081899 0.71546364 22.568556
5.4698482 0.6999104 15.050116
7.4724274 0.97726387 15.645964
3.4428005 0.38110605 22.019636
3.5662644 0.4179889 17.286308
4.6778989 0.58038384 15.116475
7.3342285 0.93578732 17.478004
1.8557528 0.040566139 31.936058
1.7582158 0.10772491 16.385889
5.8418541 0.69891655 22.689543
5.4705453 0.68059981 15.045424
7.4736338 0.9508996 15.641463
3.4379289 0.36842445 21.980122
3.5636549 0.40507811 17.266726
5.3705034 0.64725721 17.340219
7.4053082 0.91859651 17.639091
1.856172 0.034093145 31.941051
1.7575167 0.10152613 16.375946
5.8505011 0.679245 22.713739
5.4506164 0.65880865 14.984418
7.4941912 0.9269433 15.677472
3.4538791 0.35794172 22.073969
3.5660596 0.39274758 17.271622
5.3371472 0.6243456 17.225691
7.3735566 0.88853508 17.556246
1.855125 0.027597561 31.921085
1.7583926 0.095419176 16.380917
4.2927279 0.48327288 16.669298
5.46488 0.6411857 15.017266
7.5298028 0.90467286 15.744991
3.4473755 0.34511018 22.024574
3.5532341 0.37878746 17.203089
4.6733384 0.53018874 15.083072
7.3416848 0.85870659 17.473402
1.8531892 0.021100638 31.886143
1.7587149 0.089280657 16.380917
4.2993875 0.46883032 16.688658
5.4722285 0.62269092 15.031345
7.5675111 0.88241696 15.817011
3.4539733 0.33359674 22.059149
3.5393417 0.36481738 17.12966
4.6781278 0.51419848 15.092615
7.3524032 0.83395469 17.491812
1.8474779 0.014591364 31.78631
1.7595484 0.083165891 16.385889
4.3034973 0.45408341 16.698334
5.4812298 0.60434175 15.050116
7.5791974 0.85697418 15.835014
3.4682689 0.32276052 22.143118
3.5446467 0.35286367 17.149242
4.6858315 0.49849704 15.111703
1.8561783 0.0081726061 31.936058
1.7603606 0.077046379 16.39086
4.3038054 0.43893117 16.693495
5.4815903 0.58502197 15.045424
7.6535554 0.83833355 15.983555
3.483305 0.31189775 22.232025
3.5468702 0.34058562 17.154137
4.6949673 0.48290071 15.135563
7.4979205 0.79747963 17.823195
1.8561954 0.0016930263 31.936058
1.7606187 0.070901111 16.39086
4.3065624 0.42402849 16.698334
5.4767327 0.56517571 15.026652
7.8144665 0.82836175 16.312143
2.6599035 0.22890984 16.971714
3.5541208 0.32876486 17.183508
4.7055373 0.46739414 15.164195
7.5084314 0.77210128 17.841602
1.7619209 0.064793482 16.400803
4.3167763 0.40982434 16.732212
5.4786725 0.5460549 15.026652
7.8996029 0.80951077 16.483191
2.6606863 0.21962364 16.971714
3.5552466 0.31635666 17.183508
4.719027 0.45210421 15.202371
7.4994173 0.74472922 17.81399
1.7600052 0.05857325 16.380917
4.3219357 0.39509657 16.746729
5.55269 0.53386158 15.223748
7.9673719 0.78836083 16.618227
2.672281 0.21119015 17.040863
3.5715468 0.30524385 17.256935
4.7280083 0.43631449 15.226231
7.4786329 0.71631199 17.758757
1.7586005 0.052382726 16.366001
4.3370619 0.38121766 16.799963
5.5596752 0.51495314 15.237827
7.8682213 0.75082695 16.40667
2.6699028 0.2016273 17.021109
3.5796947 0.29335654 17.291204
4.7220683 0.41914845 15.202371
7.4869246 0.69074064 17.772566
1.7598385 0.046271101 16.375946
4.3383665 0.36607617 16.799963
5.6009731 0.49906448 15.34576
7.5976505 0.69825876 15.839517
2.6643903 0.19186084 16.981592
3.5969384 0.28213179 17.369528
4.7101169 0.40152231 15.159423
7.3803134 0.65493381 17.514824
1.7541271 0.039997872 16.321259
4.3270888 0.34991774 16.751568
7.5501666 0.66732633 15.735989
2.6882994 0.18414871 17.12977
3.6222701 0.27139816 17.487011
4.7025633 0.38434932 15.130792
7.3358364 0.62518722 17.404364
1.7505252 0.033804905 16.286459
4.3207645 0.33423004 16.722532
6.3490343 0.52104634 17.377728
7.541604 0.64004707 15.713483
2.6959043 0.17521618 17.174223
3.6262419 0.25896978 17.501698
4.6934586 0.36711755 15.097386
7.1627288 0.58526111 16.990137
1.7479676 0.027653754 16.2616
4.3181438 0.31886819 16.708014
6.4196296 0.50428468 17.565439
7.5481315 0.61407095 15.722484
2.711235 0.1667085 17.26807
3.6271238 0.24631022 17.501698
4.6813149 0.34973183 15.054439
1.7432563 0.021495942 16.216858
4.3204851 0.30388129 16.712854
6.4660921 0.48522919 17.68745
7.4634142 0.58096302 15.542437
2.7195573 0.15769213 17.317463
3.6279616 0.23364772 17.501698
4.686974 0.33370668 15.068755
6.9289556 0.51749545 16.428627
1.7523824 0.015485045 16.301373
4.3215194 0.28879812 16.712854
5.7964492 0.41465387 15.857272
7.4675674 0.55506861 15.546937
8.1380014 0.66625839 6.6661978
2.7255223 0.14849323 17.352037
3.6257062 0.22079694 17.487011
4.7059817 0.31855306 15.126019
1.7572232 0.0093906028 16.346115
4.3212461 0.27363205 16.708014
5.7703142 0.39254481 15.782188
8.1441584 0.63815153 6.6693363
2.7291279 0.13913625 17.371794
3.6162896 0.20755695 17.438061
4.7264304 0.30336627 15.188055
6.7589207 0.45737466 16.019003
1.7615097 0.0032619033 16.385889
4.3196659 0.25839645 16.698334
5.7389288 0.37029007 15.693025
8.1812687 0.61233354 6.6975822
2.7179549 0.12905791 17.297705
3.6078413 0.1944401 17.394003
4.7244806 0.28668541 15.178511
6.742929 0.43265334 15.977581
1.766308 -0.0028980637 16.430632
4.3192863 0.24324584 16.693495
5.747076 0.3506754 15.711796
7.7553992 0.49485582 16.132095
8.1833572 0.58377188 6.6975822
2.6943252 0.11851484 17.144588
3.6003625 0.18143591 17.354841
4.7001181 0.26874468 15.097386
6.7463489 0.40923178 15.982184
1.7694852 -0.0090820314 16.460461
4.327641 0.22856459 16.722532
5.7620482 0.33140454 15.749339
7.7483869 0.46725741 16.11409
8.1115618 0.55019885 6.6379523
2.6799712 0.10851411 17.050741
3.59182 0.16843872 17.310783
4.6876125 0.25161707 15.054439
6.751637 0.38590303 15.991389
1.7731739 -0.015293147 16.49526
4.3359447 0.21382795 16.751568
5.7804012 0.31221941 15.796266
7.7956133 0.44279942 16.208616
8.1095476 0.52163106 6.6348138
2.6578164 0.098328993 16.907505
3.5913692 0.15585583 17.305889
4.6675906 0.23420636 14.987632
1.7779069 -0.021543711 16.540005
4.3454542 0.19909358 16.785444
5.7538805 0.29064804 15.721182
7.7927637 0.41535327 16.199614
8.1346292 0.49473783 6.6536441
8.5928793 0.51055866 6.3514295
2.6542602 0.08892139 16.882807
3.5908737 0.14327817 17.300993
4.6564507 0.21735571 14.949455
1.7788868 -0.027766936 16.549948
4.3385878 0.18360545 16.756409
5.7548599 0.27056149 15.721182
7.8311286 0.38998905 16.276134
8.0508165 0.46144027 6.5845985
8.5744295 0.47943255 6.3367133
2.6537776 0.079632565 16.877869
3.5893173 0.13066891 17.291204
4.6527076 0.20090735 14.93514
1.778779 -0.033976238 16.549948
4.3592987 0.1692389 16.833839
5.7471495 0.25009677 15.697719
7.8607116 0.36395934 16.33465
8.0523787 0.43333486 6.5845985
8.5599051 0.44865316 6.3249407
2.6540396 0.070368662 16.877869
3.5958571 0.11833946 17.320574
4.6489058 0.18448779 14.920824
7.6405506 0.32973841 18.076332
1.7786496 -0.040185131 16.549948
4.3661437 0.1542426 16.858036
5.7445383 0.22989604 15.688333
7.9358826 0.33968216 16.48769
8.581605 0.41975805 6.3396564
2.6550457 0.061121676 16.882807
3.6013372 0.10593612 17.345049
4.655488 0.16847461 14.939911
7.6670327 0.30407187 18.136166
1.7790316 -0.046407767 16.55492
4.408114 0.14031836 17.017736
5.745306 0.20984246 15.688333
8.0218544 0.31531188 16.663239
8.0435438 0.37656257 6.5751829
8.5830183 0.3898001 6.3396564
2.6552432 0.051853463 16.882807
3.6057565 0.09346965 17.364632
4.6590319 0.15232031 14.949455
7.6914759 0.2781539 18.191395
1.7793914 -0.05263355 16.559891
4.4462714 0.1259964 17.16292
5.7667003 0.19046929 15.744645
8.0424862 0.28800932 16.703749
8.0953608 0.35067251 6.6159825
7.4348335 0.30776989 6.7086897
8.556057 0.35865256 6.3190546
2.6554079 0.04258462 16.882807
3.6131864 0.081041858 17.398897
4.6610274 0.13609985 14.954227
7.659205 0.25022012 18.113152
1.7791969 -0.058844466 16.559891
4.4605069 0.11081789 17.216154
5.7155824 0.16881178 15.603863
8.0347404 0.25965294 16.685745
8.162653 0.32504475 6.6693363
7.4470563 0.28223974 6.7186666
8.5411015 0.32816347 6.3072815
2.6547635 0.03330563 16.877869
3.6083572 0.06833303 17.374422
4.6629658 0.11986729 14.959
7.7322869 0.22558962 18.283447
1.7795134 -0.065074481 16.564863
4.4646368 0.095327429 17.230673
8.022542 0.23122878 16.658737
8.292099 0.30121174 6.7729053
7.5039692 0.25816825 6.768549
8.6310644 0.30145094 6.3720312
2.6540864 0.024031658 16.872929
3.6065376 0.055705823 17.364632
4.6633563 0.10358976 14.959
6.4655213 0.16607065 15.296408
1.7798079 -0.071307413 16.569834
4.4749956 0.079921357 17.269386
5.6458874 0.12731287 15.411459
8.0189466 0.20311329 16.649734
8.238637 0.27047738 6.7289672
7.4936285 0.23162693 6.7585721
8.6724644 0.2725907 6.401463
2.6541541 0.01476702 16.872929
3.6046736 0.043092147 17.354841
4.6636891 0.087310985 14.959
6.4621558 0.14341415 15.287202
1.7795482 -0.07751967 16.569834
4.472734 0.064264238 17.259706
5.6135154 0.10698053 15.322297
8.0326662 0.17540567 16.676743
8.0722342 0.2368107 6.5940132
7.4682651 0.20475177 6.7352939
8.6329584 0.24118789 6.3720312
2.6541896 0.0055022035 16.872929
3.6007292 0.030475104 17.335258
4.6744132 0.071189791 14.992403
6.4919167 0.1214034 15.35624
1.7797991 -0.083756365 16.574804
5.6138549 0.087385058 15.322297
8.0441122 0.14756483 16.699247
8.0730114 0.20863189 6.5940132
7.4390726 0.17796727 6.7086897
2.6541924 -0.0037630508 16.872929
3.6018324 0.017911004 17.340155
4.7015004 0.055186808 15.0783
6.4766731 0.098504327 15.31942
1.7805606 -0.090023004 16.584747
4.493185 0.033184785 17.337139
5.6417341 0.068121023 15.397382
8.0489311 0.11954931 16.70825
8.2215614 0.18375461 6.713275
7.4247169 0.15169401 6.6953878
2.6549404 -0.013031822 16.877869
3.6039093 0.0053409976 17.349947
5.5912871 0.046073075 17.922401
6.4593959 0.075690314 15.277997
1.7813001 -0.096295983 16.59469
4.4932733 0.017500442 17.337139
5.635035 0.048368245 15.37861
8.0536537 0.091501974 16.717253
8.2026939 0.15468803 6.6975822
2.6533246 -0.022285923 16.86799
3.604924 -0.0072416617 17.354841
5.3749738 0.025535574 17.230465
6.4459457 0.053030174 15.245779
1.7820175 -0.10257523 16.604633
4.9483294 0.0019747796 19.08901
5.6455235 0.028750416 15.406767
8.01474 0.063081153 16.636232
8.0825377 0.12420119 6.6002903
7.1567874 0.096243672 6.4559517
2.6571155 -0.031594403 16.892687
3.6069133 -0.019836525 17.364632
5.4884758 0.0069118747 17.593134
6.3796682 0.030216275 15.089293
1.7827127 -0.10886064 16.614576
4.9684176 -0.015362 19.166441
5.6542177 0.0090572415 15.430231
8.0170879 0.03511361 16.640732
7.9817281 0.094786048 6.5186906
7.1570797 0.071261242 6.4559517
2.6632042 -0.040965829 16.932201
3.606822 -0.032426883 17.364632
5.5183201 -0.012315026 17.688574
6.3543372 0.0079158619 15.029462
1.7833858 -0.11515217 16.624521
4.9821601 -0.032796621 19.219675
5.6645689 -0.010700387 15.458386
7.9997468 0.0071133338 16.604723
8.1921883 0.068684898 6.6881676
7.1124806 0.045988593 6.4160461
2.6700368 -0.050394926 16.976654
3.5995598 -0.044927277 17.330364
4.6957765 -0.026840361 15.059211
6.3719091 -0.014305746 15.070885
1.7829729 -0.12137665 16.624521
4.9807577 -0.05017468 19.214836
5.685205 -0.030585401 15.514701
8.2819004 0.040525898 6.7603517
7.2208767 0.021482408 6.512485
2.6706212 -0.059732269 16.981592
3.5953088 -0.057426415 17.310783
4.6777425 -0.043065824 15.001947
6.3776813 -0.036581527 15.084692
1.7883866 -0.12802193 16.679207
4.3760071 -0.059329934 16.887074
5.6729846 -0.05032276 15.481852
7.9103484 -0.048191052 16.420174
8.387084 0.011763181 6.8450904
7.24331 -0.0037360275 6.5324378
2.6735036 -0.069134936 17.00135
3.5899966 -0.069876522 17.286308
4.7148786 -0.059869383 15.121247
6.4107246 -0.059150778 15.162933
1.7905865 -0.13446502 16.704065
4.3720026 -0.07454019 16.872553
5.6814022 -0.070231788 15.505315
7.154768 -0.068551831 14.858252
8.359827 -0.017457388 6.8231206
7.2432528 -0.029019877 6.5324378
2.6716926 -0.078420959 16.991472
3.5805693 -0.082196429 17.24225
4.7146406 -0.076327018 15.121247
6.4319677 -0.081801832 15.213562
1.7948889 -0.14109343 16.748808
4.3704591 -0.089774989 16.867716
5.6466131 -0.089515015 15.411459
7.1566615 -0.093554705 14.862752
8.5076208 -0.047464598 6.9423823
7.2319069 -0.054219306 6.5224619
2.6682961 -0.087643914 16.971714
3.5802605 -0.094694443 17.24225
4.7233 -0.092960335 15.149879
6.4961057 -0.1052995 15.365446
1.7959791 -0.14748977 16.763721
4.3600664 -0.10478802 16.828999
5.5772519 -0.10788763 15.223748
7.156291 -0.11853554 14.862752
8.3828545 -0.076031044 6.8419518
7.5116897 -0.082542107 6.7718744
8.3448448 -0.087343924 6.1601233
2.6734092 -0.097155832 17.006289
3.5788906 -0.10716075 17.237356
4.7229466 -0.10944716 15.149879
6.4956985 -0.1279745 15.365446
1.7959844 -0.15380383 16.768694
4.3295183 -0.11917506 16.712854
5.5354362 -0.12640838 15.111122
7.1471286 -0.14334019 14.844748
7.6547327 -0.096145853 6.2550602
7.4628215 -0.10805916 6.7286425
8.3283234 -0.1162466 6.1483512
2.669172 -0.10633194 16.981592
3.5825648 -0.11978921 17.256935
4.7240281 -0.12597251 15.154651
6.5616183 -0.1521897 15.521932
1.7959675 -0.1601197 16.773664
4.3114867 -0.13374056 16.645102
5.5315113 -0.14563894 15.101737
7.6621346 -0.12299027 6.2613373
7.1152143 -0.12786666 6.4193716
2.6788762 -0.11608728 17.045803
3.5841601 -0.13236929 17.266726
4.7026715 -0.14183079 15.087844
6.6059656 -0.17629285 15.627789
1.7938055 -0.16623928 16.758751
4.2821007 -0.14779076 16.533794
5.570642 -0.16613102 15.20967
7.6888995 -0.15026791 6.2833061
7.0923266 -0.15222171 6.3994179
2.6831117 -0.12565641 17.075439
3.5857108 -0.14496197 17.276516
4.6917048 -0.1578934 15.054439
6.6619401 -0.20106132 15.761263
1.7900307 -0.17219159 16.728922
4.2639737 -0.16206779 16.466042
5.6200447 -0.18724313 15.34576
8.2331066 -0.1896593 6.7226901
7.0842867 -0.17679125 6.392767
2.6896403 -0.13537401 17.119892
3.5862005 -0.15752234 17.281414
4.7000751 -0.17460243 15.083072
6.6611977 -0.2243146 15.761263
1.7888883 -0.1783857 16.723951
4.2520795 -0.17648107 16.422487
5.6383266 -0.20755853 15.397382
8.317996 -0.22066849 6.7917366
7.0724301 -0.20120034 6.382791
8.3137674 -0.23217824 6.1395216
2.7038934 -0.1455576 17.213739
3.5866456 -0.17008786 17.286308
4.7083855 -0.1913718 15.111703
6.6955152 -0.24887215 15.844107
1.7850736 -0.18429857 16.69412
4.2677617 -0.19205809 16.485401
5.6392913 -0.22730823 15.402074
7.0716848 -0.22588649 6.382791
8.3088655 -0.26107031 6.1365781
2.7196589 -0.15593147 17.317463
3.5860302 -0.18260655 17.286308
4.7151451 -0.20813543 15.135563
6.6848454 -0.27184522 15.821095
1.7807094 -0.19013005 16.659321
4.2758532 -0.20738092 16.519276
5.6470838 -0.2473695 15.425537
7.6393709 -0.25604218 6.245645
7.3469787 -0.2603572 6.6288776
8.3038654 -0.28993106 6.1336355
2.7338336 -0.16632259 17.411308
3.5863879 -0.19517846 17.291204
4.7218447 -0.22494856 15.159423
6.6799521 -0.29500553 15.81189
2.8189845 -0.31159648 26.40844
4.2801247 -0.22256659 16.538633
5.6289487 -0.26626411 15.37861
7.6423197 -0.28285098 6.2487831
7.409451 -0.28847116 6.6854115
8.2987633 -0.31876001 6.1306925
2.7487442 -0.17686456 17.510094
3.5867012 -0.20775506 17.296099
4.7493558 -0.24287924 15.250091
7.3443222 -0.35005173 17.38135
2.8178797 -0.32143471 26.40844
4.2492008 -0.23583215 16.422487
5.6193681 -0.28547314 15.355146
7.7346253 -0.31330746 6.3241067
7.311408 -0.31021723 6.598948
2.7620637 -0.18740721 17.599001
3.5839214 -0.22014868 17.286308
4.7797785 -0.26116765 15.350303
7.5986505 -0.38876808 17.984282
2.8140934 -0.33095661 26.383581
4.2232566 -0.24918106 16.325701
5.6062756 -0.30443132 15.322297
7.760704 -0.3415024 6.3460755
7.1051397 -0.32631388 6.4160461
2.7799933 -0.19837753 17.717543
3.5821152 -0.23259149 17.281414
4.7788377 -0.27785063 15.350303
