# .PCD v0.7 - Point Cloud Data file format
VERSION 0.7
FIELDS x y z
SIZE 4 4 4
TYPE F F F
COUNT 1 1 1
WIDTH 1407
HEIGHT 1
VIEWPOINT 0 0 0 1 0 0 0
POINTS 1407
DATA ascii
-1.3535597 -0.93460065 10.456833
-1.1823727 -0.82766801 6.9622736
-1.0258173 -0.72845465 4.0693326
-0.97171754 -0.69509876 2.8741946
-0.91251111 -0.65560997 2.1264138
-0.89093345 -0.64196992 1.6854552
-0.87725472 -0.63348973 1.3721589
-0.93203151 -0.52926332 18.373724
-1.4321923 -0.8882643 15.674963
-1.093504 -0.76939964 5.1853442
-0.99808538 -0.70925474 3.3838992
-0.9329201 -0.66683578 2.4349012
-0.89999169 -0.64541137 1.8816965
-0.87804538 -0.63127655 1.5067385
-0.86747867 -0.62481081 1.2372462
-0.86354911 -0.62633079 1.1281111
-0.84657174 -0.61468256 0.92596096
-0.83720148 -0.60853666 0.76318777
-0.83584988 -0.6079908 0.62759399
-0.82524431 -0.60070801 0.50071812
-0.80677426 -0.58768547 0.38332671
-0.81771529 -0.59608561 0.2835919
-0.80045503 -0.58392227 0.18189749
-0.85908687 -0.62125975 1.0254101
-0.84027541 -0.60831511 0.8388896
-0.83928406 -0.60803461 0.69463336
-0.83122319 -0.6028496 0.5621357
-0.82976592 -0.60222536 0.44598094
-0.80634016 -0.5856446 0.33107814
-0.79714662 -0.57917374 0.22964329
-0.79582208 -0.57862633 0.133367
-0.1854797 -0.031474981 20.153505
-1.3491213 -0.92460096 10.397562
-1.1810732 -0.82063162 6.9377975
-1.0259135 -0.72314984 4.0597882
-0.9709518 -0.68944073 2.8649898
-0.912844 -0.65103024 2.1220245
-0.89087993 -0.63721919 1.6813223
-0.87685549 -0.62855655 1.3683214
-0.93513215 -0.52671313 18.398682
-1.4348301 -0.88298041 15.669991
-1.093091 -0.76341933 5.170826
-0.99914479 -0.70477194 3.3792064
-0.93169099 -0.66105616 2.4258988
-0.90011424 -0.64075357 1.8774304
-0.87779075 -0.62645751 1.5027486
-0.86689639 -0.61980736 1.2335709
-0.86283582 -0.62122905 1.1246065
-0.84871221 -0.61172378 0.92596096
-0.83592951 -0.60316402 0.76044625
-0.83437556 -0.6024763 0.62527519
-0.82357854 -0.59510857 0.49884507
-0.80882078 -0.58486569 0.38332671
-0.8158114 -0.59034795 0.28265926
-0.80248845 -0.5811246 0.18189749
-0.85821694 -0.61608005 1.0220846
-0.83911127 -0.60301965 0.83594644
-0.83790147 -0.60258448 0.69210023
-0.83332247 -0.59994447 0.5621357
-0.82803166 -0.59656501 0.44433743
-0.8044368 -0.57998377 0.32990581
-0.79916346 -0.57638764 0.22964329
-0.79378605 -0.57292104 0.13316546
-0.18563171 -0.030832879 20.158504
-1.3516983 -0.91944939 10.392623
-1.1797389 -0.81361443 6.913321
-1.0259851 -0.71785325 4.0502448
-0.97015858 -0.68379676 2.8557847
-0.91120118 -0.64507264 2.1132464
-0.89080417 -0.63247657 1.6771894
-0.8764326 -0.62363386 1.364484
-0.93696499 -0.52344573 18.398682
-1.4369931 -0.87741166 15.660048
-1.0916165 -0.75673532 5.1514683
-0.99877125 -0.69930089 3.3698208
-0.93221283 -0.65654671 2.4213977
-0.89808518 -0.63459802 1.8688986
-0.87751323 -0.62164801 1.4987586
-0.86628985 -0.61481553 1.2298958
-0.86209756 -0.61613989 1.121102
-0.84767675 -0.60649276 0.92282254
-0.83802986 -0.60024232 0.76044625
-0.83287299 -0.59697956 0.6229564
-0.82565087 -0.59223014 0.49884507
-0.80696028 -0.57924163 0.38191667
-0.81786716 -0.58749664 0.28265926
-0.80046839 -0.57541311 0.18145041
-0.85732144 -0.61091393 1.018759
-0.84121108 -0.60008699 0.83594644
-0.83649117 -0.59715146 0.68956703
-0.83171898 -0.59439313 0.56003767
-0.830109 -0.59367102 0.44433743
-0.80645645 -0.57717228 0.32990581
-0.79714406 -0.57071185 0.2289526
-0.79578108 -0.5701468 0.13316546
-0.1859114 -0.030206259 20.178505
-1.351679 -0.9125523 10.367927
-1.1783701 -0.80661672 6.8888454
-1.0260322 -0.71256495 4.0407004
-0.9693377 -0.67816657 2.8465796
-0.91148758 -0.64051116 2.1088572
-0.8930065 -0.62936324 1.6771894
-0.87860411 -0.62057072 1.364484
-0.94181937 -0.52184618 18.458582
-1.4386787 -0.87156248 15.645134
-1.0901089 -0.75007099 5.1321106
-0.99837178 -0.69384104 3.3604355
-0.93093032 -0.65079451 2.4123952
-0.89815962 -0.62996191 1.8646327
-0.87721282 -0.61684805 1.4947685
-0.86565918 -0.60983574 1.2262206
-0.86133432 -0.61106354 1.1175975
-0.84978861 -0.60353017 0.92282254
-0.84011996 -0.59731346 0.76044625
-0.83134234 -0.5915007 0.6206376
-0.82393652 -0.58665568 0.49697205
-0.80897737 -0.57642126 0.38191667
-0.81591326 -0.58178633 0.28172666
-0.80247205 -0.57261544 0.18145041
-0.85944867 -0.60791755 1.018759
-0.84000176 -0.5948112 0.83300328
-0.83857048 -0.59422791 0.68956703
-0.83008713 -0.58886051 0.55793959
-0.82832557 -0.5880363 0.44269392
-0.80846626 -0.57435369 0.32990581
-0.79913139 -0.56792575 0.2289526
-0.79776639 -0.56736547 0.13316546
-0.18631893 -0.029593764 20.213503
-1.3516282 -0.90566683 10.34323
-1.1778091 -0.80021036 6.8692646
-1.0248258 -0.70643818 4.0263848
-0.96848941 -0.67255062 2.8373744
-0.90978891 -0.63458574 2.1000791
-0.89289194 -0.62462932 1.6730564
-0.87814033 -0.61566019 1.3606465
-0.94135624 -0.5173077 18.413658
-1.4417124 -0.86653525 15.645134
-1.0885679 -0.74342644 5.1127529
-0.999367 -0.68937218 3.3557425
-0.93140763 -0.64630014 2.4078939
-0.89821255 -0.62533289 1.8603667
-0.87936068 -0.61378223 1.4947685
-0.86500418 -0.6048677 1.2225455
-0.86054605 -0.60600007 1.1140929
-0.84870881 -0.59831762 0.91968405
-0.8387835 -0.59196639 0.75770479
-0.83340198 -0.58859515 0.6206376
-0.82597929 -0.583776 0.49697205
-0.80706799 -0.57082391 0.38050666
-0.8139295 -0.57609677 0.28079402
-0.80040216 -0.56693244 0.18100333
-0.8585096 -0.60276854 1.0154335
-0.84207296 -0.59187543 0.83300328
-0.83711368 -0.58881724 0.68703383
-0.83213753 -0.58595937 0.55793959
-0.83037317 -0.5851413 0.44269392
-0.80649382 -0.56872696 0.3287335
-0.8011089 -0.5651328 0.2289526
-0.79974198 -0.56457728 0.13316546
-0.18642111 -0.028943209 20.213503
-1.3528398 -0.89965284 10.328412
-1.1763735 -0.79324871 6.8447886
-1.0235893 -0.70032853 4.0120687
-0.96761364 -0.6669488 2.8281696
-0.90805984 -0.62867993 2.091301
-0.89275539 -0.61990404 1.6689235
-0.87765306 -0.61076057 1.3568089
-0.94315624 -0.5140186 18.413658
-1.4493085 -0.86422461 15.694849
-1.0869939 -0.73680192 5.0933952
-0.99891919 -0.6839301 3.3463571
-0.93007195 -0.64057577 2.3988914
-0.89824426 -0.62071139 1.8561009
-0.87902081 -0.60899317 1.4907786
-0.86711025 -0.60184455 1.2225455
-0.86265618 -0.60299248 1.1140929
-0.85079211 -0.59535146 0.91968405
-0.84084469 -0.58903486 0.75770479
-0.83182412 -0.58313972 0.6183188
-0.82421684 -0.57822686 0.49509901
-0.80905563 -0.5680033 0.38050666
-0.81191605 -0.57042825 0.27986142
-0.80237621 -0.56413507 0.18100333
-0.86060846 -0.5997681 1.0154335
-0.84081882 -0.58661979 0.83006012
-0.83562922 -0.58342385 0.68450069
-0.83045781 -0.58045113 0.55584157
-0.82854104 -0.57953268 0.44105041
-0.80847418 -0.56590831 0.3287335
-0.80307668 -0.56233299 0.2289526
-0.80170786 -0.56178224 0.13316546
-0.18630423 -0.028267641 20.188503
-1.3475403 -0.88936335 10.264202
-1.17575 -0.78687304 6.8252077
-1.0210875 -0.6933977 3.992981
-0.96671075 -0.66136128 2.8189645
-0.90827489 -0.62415022 2.0869119
-0.89491379 -0.61678398 1.6689235
-0.87714219 -0.6058718 1.3529714
-0.9441821 -0.51031262 18.398682
-1.4500216 -0.85780472 15.669991
-1.085387 -0.73019737 5.0740376
-0.99844563 -0.67849964 3.3369715
-0.93050492 -0.63609689 2.3943901
-0.89825445 -0.61609709 1.8518349
-0.87865824 -0.60421395 1.4867885
-0.86641389 -0.59689093 1.2188703
-0.86182559 -0.59794486 1.1105883
-0.8496682 -0.59015769 0.91654563
-0.83946252 -0.58370912 0.75496328
-0.83385462 -0.58023256 0.6183188
-0.82623017 -0.57534629 0.49509901
-0.80709767 -0.56243312 0.37909663
-0.80987298 -0.56478083 0.27892879
-0.80434054 -0.5613308 0.18100333
-0.859626 -0.59463644 1.0121081
-0.83953834 -0.58138025 0.82711697
-0.83411753 -0.57804817 0.6819675
-0.82874984 -0.57496184 0.55374348
-0.83055896 -0.57663703 0.44105041
-0.80645281 -0.56030941 0.32756117
-0.8091011 -0.56235254 0.22964329
-0.79956257 -0.55612767 0.13296394
-0.18635842 -0.027612368 20.183504
-1.3460859 -0.881675 10.229628
-1.1742481 -0.77994829 6.8007312
-1.0197878 -0.68732703 3.9786646
-0.96739697 -0.6568855 2.8143618
-0.90846926 -0.61962664 2.0825229
-0.89473861 -0.61206776 1.6647905
-0.87660807 -0.60099405 1.349134
-0.94595772 -0.50701368 18.398682
-1.0847927 -0.72431082 5.0595198
-0.99794626 -0.6730808 3.3275859
-0.93091816 -0.63162291 2.389889
-0.89824361 -0.61149043 1.847569
-0.87827307 -0.59944469 1.4827985
-0.86569363 -0.5919497 1.2151952
-0.86390752 -0.59493285 1.1105883
-0.84851843 -0.58497912 0.91340715
-0.84149492 -0.58077526 0.75496328
-0.83222985 -0.57480103 0.616
-0.82441986 -0.56982297 0.49322599
-0.80905604 -0.55961239 0.37909663
-0.81183946 -0.56195039 0.27892879
-0.80220127 -0.55568403 0.18055625
-0.8586182 -0.58951896 1.0087825
-0.83823144 -0.57615674 0.82417381
-0.83257836 -0.57269013 0.6794343
-0.83075178 -0.57206547 0.55374348
-0.83256668 -0.57373434 0.44105041
-0.80440229 -0.55473161 0.32638884
-0.81105918 -0.55952477 0.22964329
-0.80149895 -0.55333328 0.13296394
-0.18636687 -0.026952429 20.173506
-1.3426396 -0.87273794 10.180235
-1.171862 -0.77248335 6.7713594
-1.0184584 -0.68127394 3.9643488
-0.96644354 -0.65132141 2.8051567
-0.90864331 -0.61510932 2.0781338
-0.89454138 -0.60736024 1.6606575
-0.87605047 -0.59612745 1.3452964
-0.94899732 -0.50438398 18.423639
-1.0831227 -0.71774328 5.0401616
-0.99742132 -0.66767371 3.3182003
-0.93131143 -0.62715381 2.3853879
-0.89821148 -0.60689133 1.843303
-0.87786531 -0.59468549 1.4788084
-0.86494935 -0.58702058 1.2115201
-0.86303473 -0.58990145 1.1070838
-0.84734285 -0.5798158 0.91026872
-0.84006733 -0.57547146 0.75222182
-0.83423126 -0.57189244 0.616
-0.82640386 -0.56694168 0.49322599
-0.81100446 -0.55678487 0.37909663
-0.8137961 -0.55911309 0.27892879
-0.8041361 -0.55288041 0.18055625
-0.85758519 -0.58441573 1.005457
-0.8402375 -0.57322723 0.82417381
-0.83101207 -0.56734991 0.67690116
-0.82899654 -0.56660122 0.55164546
-0.83456433 -0.57082462 0.44105041
-0.80633378 -0.55192029 0.32638884
-0.81300735 -0.55669028 0.22964329
-0.79930431 -0.54770821 0.1327624
-0.18641643 -0.026297245 20.168505
-1.3424126 -0.86594087 10.155539
-1.1702904 -0.76560193 6.7468839
-1.017099 -0.67523849 3.9500329
-0.96546316 -0.64577198 2.7959518
-0.90879673 -0.61059839 2.0737445
-0.89432222 -0.60266167 1.6565247
-0.87546974 -0.59127212 1.3414589
-0.95126349 -0.50133675 18.433622
-1.0814202 -0.71119612 5.0208039
-0.99687082 -0.66227853 3.308815
-0.92987478 -0.62148023 2.3763855
-0.89815819 -0.60229993 1.8390369
-0.87743503 -0.58993649 1.4748185
-0.86699313 -0.58399779 1.2115201
-0.86213726 -0.58488333 1.1035793
-0.84614158 -0.57466781 0.90713024
-0.842071 -0.57253557 0.75222182
-0.83255988 -0.56648511 0.6136812
-0.8245458 -0.56144446 0.49135295
-0.8129431 -0.55395055 0.37909663
-0.81168437 -0.55350161 0.27799615
-0.80194771 -0.54726303 0.18010917
-0.85652715 -0.57932699 1.0021316
-0.83888632 -0.56802464 0.82123065
-0.83298737 -0.56444567 0.67690116
-0.83096933 -0.56370407 0.55164546
-0.83264488 -0.56525576 0.4394069
-0.8042348 -0.54637092 0.32521653
-0.81494558 -0.55384892 0.22964329
-0.79708028 -0.5421052 0.13256088
-0.18646367 -0.025642043 20.163506
-1.3414999 -0.85873717 10.125903
-1.1695391 -0.75929511 6.7273026
-1.01571 -0.66922092 3.9357171
-0.9644559 -0.64023745 2.7867467
-0.90892988 -0.60609388 2.0693557
-0.89174205 -0.59640783 1.6482588
-0.87486571 -0.58642805 1.3376215
-0.95377594 -0.49841309 18.448599
-1.0807378 -0.7053566 5.0062857
-0.99773568 -0.65784508 3.304122
-0.93022424 -0.61702746 2.3718843
-0.89808393 -0.59771639 1.8347712
-0.879489 -0.58687007 1.4748185
-0.8662079 -0.57908386 1.2078449
-0.86121535 -0.57987875 1.1000748
-0.84814239 -0.57171071 0.90713024
-0.84059823 -0.56725383 0.74948037
-0.83453226 -0.56357545 0.6136812
-0.82650065 -0.55856282 0.49135295
-0.81089813 -0.5484221 0.37768659
-0.81361151 -0.5506649 0.27799615
-0.80385309 -0.54446036 0.18010917
-0.85854411 -0.57633358 1.0021316
-0.83750904 -0.56283855 0.81828749
-0.83137548 -0.559129 0.67436796
-0.82916707 -0.55826539 0.54954737
-0.83461285 -0.56234586 0.4394069
-0.80210692 -0.54084295 0.32404423
-0.81276846 -0.54823172 0.2289526
-0.79896772 -0.53931952 0.13256088
-0.1865086 -0.024986831 20.158504
-1.3425213 -0.85279989 10.111085
-1.1679022 -0.75245172 6.702827
-1.0155408 -0.66403788 3.926173
-0.9634217 -0.63471776 2.7775416
-0.9090426 -0.60159594 2.0649664
-0.89147377 -0.59173542 1.6441258
-0.87690741 -0.58337063 1.3376215
-0.95576644 -0.49521312 18.45359
-1.0800279 -0.69953042 4.9917674
-0.99858177 -0.65341371 3.2994294
-0.93055391 -0.61257982 2.367383
-0.89581221 -0.59170341 1.8262392
-0.87901974 -0.58213294 1.4708283
-0.865399 -0.57418263 1.2041698
-0.86323428 -0.57686901 1.1000748
-0.84689766 -0.5665825 0.90399176
-0.84257317 -0.56431615 0.74948037
-0.83281463 -0.55819279 0.6113624
-0.82844532 -0.55567437 0.49135295
-0.8128075 -0.54558814 0.37768659
-0.81552875 -0.54782152 0.27799615
-0.8057487 -0.54165107 0.18010917
-0.85744333 -0.57126319 0.99880606
-0.8394686 -0.55991167 0.81828749
-0.83332211 -0.55622357 0.67436796
-0.83111072 -0.55536765 0.54954737
-0.8326453 -0.55680418 0.43776339
-0.80398995 -0.5380398 0.32404423
-0.81056207 -0.54263645 0.22826193
-0.79669487 -0.53374666 0.13235934
-0.18655124 -0.024331622 20.153505
-1.3389159 -0.8439669 10.061693
-1.1670897 -0.74617726 6.6832461
-1.015348 -0.65886438 3.9166293
-0.96399605 -0.63028198 2.772939
-0.90913516 -0.59710461 2.0605774
-0.89118385 -0.58707219 1.6399928
-0.8762635 -0.57854033 1.3337839
-0.95800316 -0.49213687 18.463573
-1.0782332 -0.69303846 4.9724097
-0.99940908 -0.64898443 3.2947366
-0.92904133 -0.606947 2.3583806
-0.89569086 -0.5871433 1.8219732
-0.87852818 -0.57740623 1.4668382
-0.86456645 -0.56929415 1.2004945
-0.86227047 -0.57188123 1.0965703
-0.84562755 -0.56146997 0.90085334
-0.84105545 -0.559057 0.74673891
-0.83106959 -0.55282897 0.6090436
-0.83037996 -0.5527792 0.49135295
-0.81071472 -0.54008812 0.37627655
-0.81334877 -0.54224664 0.27706355
-0.80763453 -0.53883523 0.18010917
-0.85943216 -0.56826669 0.99880606
-0.83804739 -0.55474705 0.81534433
-0.8352586 -0.55331135 0.67436796
-0.82926184 -0.54995483 0.54744929
-0.83064926 -0.55128318 0.43611988
-0.80586314 -0.53523004 0.32404423
-0.80420196 -0.53432292 0.22688057
-0.79855311 -0.53096247 0.13235934
-0.18663505 -0.023680288 20.153505
-1.3352652 -0.83516943 10.0123
-1.1671075 -0.7404629 6.66856
-1.0151314 -0.65370017 3.9070849
-0.9629122 -0.62478685 2.7637341
-0.90920717 -0.59261978 2.0561883
-0.89087218 -0.58241814 1.63586
-0.8782776 -0.57547808 1.3337839
-0.96023011 -0.48905104 18.473557
-1.0774661 -0.68724328 4.9578919
-0.99876696 -0.64362276 3.285351
-0.92932749 -0.60251629 2.3538795
-0.8955487 -0.58259124 1.8177074
-0.87801439 -0.57269013 1.4628483
-0.86654836 -0.56627274 1.2004945
-0.86426151 -0.56886792 1.0965703
-0.84758222 -0.55851477 0.90085334
-0.84300184 -0.55611777 0.74673891
-0.83299422 -0.54992461 0.6090436
-0.82843637 -0.54732186 0.48947993
-0.80859345 -0.53460932 0.37486652
-0.81523663 -0.53940421 0.27706355
-0.80535823 -0.53326339 0.17966209
-0.8614105 -0.56526327 0.99880606
-0.83997869 -0.55181831 0.81534433
-0.83718497 -0.55039233 0.67436796
-0.83117652 -0.54705679 0.54744929
-0.83256859 -0.54838032 0.43611988
-0.80366826 -0.52973884 0.32287189
-0.80192798 -0.52878648 0.2261899
-0.80040169 -0.52817178 0.13235934
-0.18667309 -0.023024948 20.148506
-1.3322296 -0.82681739 9.9678469
-1.1653762 -0.7336731 6.644084
-1.0148911 -0.64854562 3.897541
-0.96180183 -0.61930692 2.754529
-0.90925926 -0.58814198 2.0517993
-0.89053893 -0.57777351 1.631727
-0.87759376 -0.57066166 1.3299464
-0.96270508 -0.48608541 18.488531
-1.0766717 -0.68146187 4.9433732
-0.99955374 -0.63920307 3.2806582
-0.92776328 -0.59691334 2.344877
-0.89538562 -0.57804734 1.8134414
-0.8800081 -0.5696218 1.4628483
-0.86567521 -0.5614 1.1968194
-0.86325616 -0.56389743 1.0930656
-0.84626901 -0.55342257 0.89771485
-0.84143949 -0.55088156 0.74399745
-0.83120334 -0.54458606 0.6067248
-0.83034182 -0.5444268 0.48947993
-0.81045467 -0.53178358 0.37486652
-0.81711453 -0.53655523 0.27706355
-0.80721474 -0.53044891 0.17966209
-0.86024946 -0.56021547 0.99548054
-0.83851373 -0.5466755 0.81240118
-0.83910108 -0.5474667 0.67436796
-0.83308101 -0.54415214 0.54744929
-0.83052498 -0.54288715 0.43447638
-0.80551249 -0.52693033 0.32287189
-0.79962522 -0.5232724 0.22549921
-0.79806101 -0.52263755 0.13215782
-0.18679582 -0.022376765 20.153505
-1.3271669 -0.81727481 9.9085751
-1.1644754 -0.7274437 6.6245031
-1.0146273 -0.64340061 3.8879972
-0.96066487 -0.61384243 2.7453239
-0.90929097 -0.58367091 2.0474102
-0.8901841 -0.57313824 1.6275939
-0.87688714 -0.56585711 1.3261089
-0.96517122 -0.48310846 18.503508
-1.0758502 -0.67569453 4.9288549
-1.0003215 -0.63478559 3.2759655
-0.92800617 -0.59249991 2.3403757
-0.89520174 -0.5735116 1.8091755
-0.87945575 -0.56491816 1.4588583
-0.8647787 -0.55654037 1.1931442
-0.86521918 -0.56088066 1.0930656
-0.84493053 -0.54834646 0.89457643
-0.84335732 -0.54794103 0.74399745
-0.83309925 -0.54168135 0.6067248
-0.82835132 -0.5389967 0.48760688
-0.80828595 -0.52633363 0.37345648
-0.8148669 -0.53101778 0.27613091
-0.8048901 -0.52490765 0.17921501
-0.86219972 -0.55720925 0.99548054
-0.83702302 -0.54154968 0.80945796
-0.83738834 -0.54219157 0.67183477
-0.83497536 -0.54124081 0.54744929
-0.83241498 -0.53998482 0.43447638
-0.80734688 -0.52411538 0.32287189
-0.79729372 -0.51778096 0.22480853
-0.79988045 -0.51984864 0.13215782
-0.18695979 -0.021731419 20.163506
-1.326696 -0.81061256 9.8838797
-1.1626798 -0.72069323 6.6000271
-1.0143399 -0.63826555 3.8784533
-0.95785159 -0.60734743 2.7315164
-0.90930277 -0.57920694 2.0430212
-0.88980782 -0.56851256 1.623461
-0.87615764 -0.56106442 1.3222713
-0.96814561 -0.48037595 18.528465
-1.0750017 -0.66994119 4.9143367
-0.99815011 -0.62853205 3.2618873
-0.93006873 -0.589257 2.3403757
-0.89499712 -0.56898427 1.8049095
-0.87888116 -0.56022543 1.4548682
-0.86385876 -0.5516938 1.1894691
-0.86417246 -0.55592781 1.0895611
-0.84683955 -0.54539376 0.89457643
-0.84175044 -0.54272813 0.741256
-0.83126271 -0.53636831 0.604406
-0.83022773 -0.536102 0.48760688
-0.81011826 -0.52350903 0.37345648
-0.81671554 -0.52817017 0.27613091
-0.80253673 -0.51938915 0.17876793
-0.86099637 -0.55218071 0.99215508
-0.83890831 -0.53862458 0.80945796
-0.8392759 -0.53926522 0.67183477
-0.8330425 -0.53586763 0.54535127
-0.83032423 -0.53451991 0.43283287
-0.80508536 -0.51866168 0.32169959
-0.79909629 -0.51499468 0.22480853
-0.79749173 -0.51434559 0.13195628
-0.18707801 -0.021081939 20.168505
-1.3235365 -0.80235291 9.839426
-1.1599838 -0.71343094 6.5706553
-1.0127628 -0.63234985 3.8641372
-0.9566583 -0.60191989 2.7223115
-0.90726984 -0.57347053 2.0342431
-0.88941014 -0.56389642 1.619328
-0.87540537 -0.55628371 1.3184339
-0.9677425 -0.47597751 18.488531
-1.0730568 -0.66354114 4.894979
-0.99887431 -0.62412971 3.2571945
-0.93027687 -0.58484846 2.3358746
-0.89477193 -0.5644654 1.8006437
-0.87828469 -0.5555436 1.4508783
-0.86577928 -0.548675 1.1894691
-0.8631016 -0.55098909 1.0860566
-0.84545833 -0.54033846 0.89143795
-0.84011745 -0.53753304 0.73851454
-0.82939929 -0.53107482 0.6020872
-0.83209407 -0.53320062 0.48760688
-0.80790257 -0.51808858 0.37204644
-0.81441998 -0.522663 0.27519831
-0.80434483 -0.51658463 0.17876793
-0.85976857 -0.54716742 0.98882955
-0.83737439 -0.53352123 0.8065148
-0.83751822 -0.53401482 0.66930163
-0.83490789 -0.53295654 0.54535127
-0.83218497 -0.5316183 0.43283287
-0.8068909 -0.51584828 0.32169959
-0.80088907 -0.5122022 0.22480853
-0.79928225 -0.51155865 0.13195628
-0.18723749 -0.020435011 20.178505
-1.3276612 -0.79852867 9.8493052
-1.1581206 -0.70672649 6.5461793
-1.0124259 -0.62723893 3.854593
-0.95543903 -0.59650809 2.7131064
-0.90723699 -0.56902772 2.0298538
-0.88899112 -0.55929023 1.615195
-0.87463051 -0.55151522 1.3145963
-0.96783996 -0.47183996 18.458582
-1.0732234 -0.65847713 4.8853002
-0.99811327 -0.61882102 3.2478089
-0.93231279 -0.58159757 2.3358746
-0.89452606 -0.55995506 1.7963778
-0.87766623 -0.55087268 1.4468882
-0.86481923 -0.543845 1.1857939
-0.8620069 -0.54606473 1.0825521
-0.84733933 -0.53738397 0.89143795
-0.83845866 -0.53235614 0.73577309
-0.83124804 -0.52817637 0.6020872
-0.83395022 -0.53029287 0.48760688
-0.80970615 -0.51526529 0.37204644
-0.81623948 -0.51981699 0.27519831
-0.80194348 -0.51109731 0.17832085
-0.85851616 -0.54216939 0.98550397
-0.83581501 -0.52843517 0.80357164
-0.83573425 -0.52878332 0.66676843
-0.83292907 -0.52761042 0.54325318
-0.83004725 -0.52618194 0.43118936
-0.80458218 -0.51042473 0.32052726
-0.80685323 -0.51205695 0.22549921
-0.79684579 -0.50608706 0.13175476
-0.18726414 -0.019778347 20.173506
-1.3311079 -0.7942875 9.8542442
-1.156225 -0.70004386 6.5217032
-1.0107938 -0.62135661 3.8402774
-0.95419353 -0.59111208 2.7039013
-0.9071843 -0.56459218 2.025465
-0.88855076 -0.55469364 1.6110622
-0.873833 -0.54675889 1.3107588
-0.96948105 -0.46845868 18.458582
-1.072294 -0.65276676 4.8707819
-0.99732745 -0.61352527 3.2384233
-0.93248594 -0.57719409 2.3313732
-0.89425969 -0.5554533 1.7921119
-0.8770259 -0.54621297 1.4428982
-0.86383617 -0.53902847 1.1821188
-0.86088842 -0.54115474 1.0790474
-0.84591562 -0.53235 0.88829952
-0.83677387 -0.5271973 0.73303157
-0.82933944 -0.5229091 0.5997684
-0.8318755 -0.52490485 0.48573387
-0.81149983 -0.51243573 0.37204644
-0.81389642 -0.5143404 0.27426568
-0.80372268 -0.50829494 0.17832085
-0.86040342 -0.53916931 0.98550397
-0.83765453 -0.52551442 0.80357164
-0.833924 -0.52357084 0.66423523
-0.83092314 -0.52228463 0.54115516
-0.83187884 -0.5232814 0.43118936
-0.80635899 -0.50761312 0.32052726
-0.80863577 -0.50923735 0.22549921
-0.79860747 -0.50330245 0.13175476
-0.18733206 -0.019124551 20.173506
-1.3265163 -0.7852841 9.7999115
-1.1551697 -0.69390714 6.5021224
-1.0104076 -0.61627048 3.8307333
-0.95292199 -0.58573204 2.6946962
-0.90711153 -0.56016386 2.0210757
-0.88808918 -0.550107 1.6069292
-0.87573618 -0.54370534 1.3107588
-0.97371608 -0.46631455 18.508499
-1.0713378 -0.64707083 4.8562636
-0.99798983 -0.60914141 3.2337308
-0.93263996 -0.57279658 2.3268721
-0.89397275 -0.55096024 1.7878458
-0.87636375 -0.5415644 1.4389081
-0.86282986 -0.53422529 1.1784436
-0.85974622 -0.53625917 1.0755429
-0.84776866 -0.52939397 0.88829952
-0.8386091 -0.52427322 0.73303157
-0.83115971 -0.52001101 0.5997684
-0.82977337 -0.51953775 0.48386082
-0.81328362 -0.50959998 0.37204644
-0.81568688 -0.51149631 0.27426568
-0.80127394 -0.50283921 0.17787378
-0.8591094 -0.53419125 0.98217851
-0.8360523 -0.52045131 0.80062848
-0.83208758 -0.51837748 0.6617021
-0.82889026 -0.51697928 0.53905708
-0.82969445 -0.51787412 0.42954585
-0.80400354 -0.50222033 0.31935495
-0.81040847 -0.50641161 0.22549921
-0.80035949 -0.50051177 0.13175476
-0.18735413 -0.018467868 20.168505
-1.3252287 -0.77828902 9.770277
-1.153211 -0.6872654 6.4776464
-1.0099982 -0.61119449 3.8211894
-0.95162451 -0.58036816 2.6854911
-0.90701908 -0.55574304 2.0166867
-0.88760638 -0.54553038 1.6027963
-0.87489969 -0.53896415 1.3069214
-0.97690398 -0.46365309 18.538448
-1.0703549 -0.64138955 4.8417454
-0.99715757 -0.6038667 3.2243452
-0.93091547 -0.56727237 2.3178697
-0.89366537 -0.54647601 1.7835798
-0.87567991 -0.53692716 1.4349182
-0.86180061 -0.52943581 1.1747683
-0.8616128 -0.5332548 1.0755429
-0.84630269 -0.52438152 0.88516104
-0.83688062 -0.51913869 0.73029011
-0.82920605 -0.51477021 0.59744954
-0.83158183 -0.51663816 0.48386082
-0.81098366 -0.50422513 0.3706364
-0.8132965 -0.50605077 0.27333307
-0.80302423 -0.50003922 0.17787378
-0.86096883 -0.53118914 0.98217851
-0.83786392 -0.51752973 0.80062848
-0.83389199 -0.51546979 0.6617021
-0.83068973 -0.51408273 0.53905708
-0.82748246 -0.51248848 0.42790234
-0.8016203 -0.49685013 0.31818265
-0.80796248 -0.50097013 0.22480853
-0.80210173 -0.49771494 0.13175476
-0.18737389 -0.017811263 20.163506
-1.3225656 -0.7705307 9.7307625
-1.1520965 -0.68116367 6.4580655
-1.0095657 -0.60612899 3.8116455
-0.95197302 -0.57603168 2.6808887
-0.90690684 -0.55132967 2.0122976
-0.8871026 -0.54096395 1.5986633
-0.87404066 -0.53423554 1.3030838
-0.9795621 -0.46073008 18.558414
-1.0693455 -0.63572305 4.8272271
-0.99630058 -0.59860522 3.2149594
-0.92916381 -0.56176722 2.3088672
-0.89333755 -0.54200059 1.7793139
-0.87497431 -0.53230131 1.4309281
-0.86074859 -0.52466005 1.1710931
-0.86042988 -0.52837795 1.0720384
-0.8448121 -0.51938587 0.88202262
-0.83868766 -0.51621425 0.73029011
-0.83099782 -0.51187259 0.59744954
-0.82943374 -0.51129961 0.4819878
-0.81273872 -0.50139123 0.3706364
-0.81087816 -0.50062823 0.27240044
-0.80052823 -0.49461547 0.1774267
-0.85963321 -0.52623135 0.97885299
-0.83621895 -0.51248997 0.79768533
-0.83201146 -0.51030219 0.6591689
-0.82861149 -0.50880522 0.53695905
-0.82926631 -0.50959688 0.42790234
-0.7992093 -0.49150276 0.31701031
-0.80970621 -0.49814677 0.22480853
-0.8038342 -0.49491203 0.13175476
-0.18743491 -0.017157098 20.163506
-1.3218828 -0.76396626 9.7060661
-1.151832 -0.67559314 6.4433794
-1.0091101 -0.60107392 3.8021016
-0.95230275 -0.5716998 2.676286
-0.90677494 -0.54692394 2.0079086
-0.88657779 -0.53640759 1.5945303
-0.87590021 -0.53118134 1.3030838
-0.9811644 -0.45730793 18.558414
-1.0693926 -0.63070983 4.8175483
-0.99393684 -0.59247375 3.2008812
-0.92738521 -0.55628127 2.299865
-0.89298946 -0.53753418 1.775048
-0.87424725 -0.52768689 1.4269381
-0.85967362 -0.51989812 1.167418
-0.86226904 -0.52537131 1.0720384
-0.8466199 -0.51643378 0.88202262
-0.8404845 -0.51328355 0.73029011
-0.8289997 -0.50665879 0.59513074
-0.82725853 -0.5059824 0.48011476
-0.81039256 -0.49604687 0.3692264
-0.80843192 -0.4952288 0.27146783
-0.80224997 -0.49181813 0.1774267
-0.86146486 -0.52322745 0.97885299
-0.83800274 -0.50956786 0.79768533
-0.83378768 -0.50739479 0.6591689
-0.83038253 -0.50590974 0.53695905
-0.82700825 -0.50424099 0.42625883
-0.80092013 -0.48870999 0.31701031
-0.80721337 -0.49273723 0.22411785
-0.80555683 -0.49210313 0.13175476
-0.18749367 -0.016502723 20.163506
-1.3225192 -0.75818861 9.6912489
-1.1506624 -0.66952085 6.4237986
-1.0099169 -0.59678859 3.7973294
-0.95261395 -0.56737268 2.6716835
-0.90662318 -0.54252577 2.0035193
-0.88603193 -0.53186148 1.5903975
-0.8750025 -0.52646834 1.2992463
-0.98249239 -0.45375958 18.553423
-1.0683324 -0.62506944 4.80303
-0.99154228 -0.58636606 3.1868029
-0.92745036 -0.55192763 2.2953637
-0.89262116 -0.53307682 1.7707821
-0.87608391 -0.52463204 1.4269381
-0.85857606 -0.51515013 1.1637428
-0.8610456 -0.52051342 1.0685339
-0.84508741 -0.51146019 0.87888414
-0.84227103 -0.51034653 0.73029011
-0.83076322 -0.50376201 0.59513074
-0.82505649 -0.50068671 0.47824174
-0.81211913 -0.49321505 0.3692264
-0.80595791 -0.48985255 0.2705352
-0.80396175 -0.48901471 0.1774267
-0.86008793 -0.51829028 0.97552752
-0.83631533 -0.50455177 0.79474217
-0.83186328 -0.50225323 0.6566357
-0.82825929 -0.50066042 0.53486103
-0.82876337 -0.50135112 0.42625883
-0.79846317 -0.48339412 0.31583801
-0.80469257 -0.48735127 0.22342718
-0.80726969 -0.48928824 0.13175476
-0.18755013 -0.015848149 20.163506
-1.3224555 -0.75203186 9.6714916
-1.1503465 -0.66397381 6.4091129
-1.0094182 -0.59175038 3.7877855
-0.95290649 -0.56305033 2.6670809
-0.90439236 -0.53691304 1.9947413
-0.8854652 -0.52732581 1.5862645
-0.87408251 -0.52176815 1.2954088
-0.98380756 -0.45020756 18.548431
-1.0683334 -0.62007493 4.7933512
-0.98911744 -0.58028245 3.1727247
-0.92562187 -0.5464738 2.2863612
-0.89447653 -0.52995771 1.7707821
-0.87531918 -0.52003187 1.4229481
-0.86036903 -0.51214999 1.1637428
-0.86285734 -0.51750469 1.0685339
-0.84686762 -0.50850713 0.87888414
-0.84046352 -0.5052492 0.72754866
-0.82872075 -0.49857548 0.59281194
-0.82679915 -0.49780363 0.47824174
-0.80972695 -0.48790151 0.36781636
-0.80766296 -0.48703629 0.2705352
-0.80140013 -0.4836323 0.17697962
-0.86189187 -0.51528484 0.97552752
-0.83807153 -0.50162941 0.79474217
-0.83361137 -0.49934644 0.6566357
-0.83000195 -0.4977662 0.53486103
-0.82645935 -0.49602517 0.42461532
-0.80014563 -0.48060402 0.31583801
-0.79789931 -0.47943833 0.22204581
-0.80897272 -0.48646733 0.13175476
-0.18760431 -0.015193379 20.163506
-1.3216882 -0.74550331 9.6467953
-1.1500062 -0.65843725 6.3944273
-1.0088967 -0.58672291 3.7782414
-0.95149505 -0.55774528 2.657876
-0.90419716 -0.53253758 1.990352
-0.88487762 -0.52280051 1.5821315
-0.87314057 -0.51708084 1.2915714
-0.98484701 -0.44653314 18.538448
-1.498222 -0.75051343 15.585476
-1.0683123 -0.61508799 4.7836723
-0.98815376 -0.57509065 3.1633391
-0.92564511 -0.54213947 2.2818599
-0.89407241 -0.52551085 1.7665161
-0.87712908 -0.51697326 1.4229481
-0.85923231 -0.50741994 1.1600677
-0.86465842 -0.51448959 1.0685339
-0.84529334 -0.50355607 0.87574571
-0.84222209 -0.50231236 0.72754866
-0.83045608 -0.49567968 0.59281194
-0.8285318 -0.49491453 0.47824174
-0.81142509 -0.48507205 0.36781636
-0.80514258 -0.48169214 0.2696026
-0.80308342 -0.48083195 0.17697962
-0.86047381 -0.51036859 0.972202
-0.8398174 -0.49870098 0.79474217
-0.83164352 -0.49423143 0.65410256
-0.82783389 -0.49254537 0.53276294
-0.82818574 -0.49313727 0.42461532
-0.79764283 -0.47531992 0.31466568
-0.79531437 -0.47411457 0.22135513
-0.8063755 -0.48108086 0.13155322
-0.18765619 -0.014538425 20.163506
-1.3208914 -0.73898923 9.622098
-1.149641 -0.65291107 6.3797417
-1.0083523 -0.58170623 3.7686975
-0.95174706 -0.5534386 2.6532736
-0.90398246 -0.52817011 1.9859631
-0.88669717 -0.51970857 1.5821315
-0.87217641 -0.51240641 1.2877338
-0.98613608 -0.44297475 18.533457
-1.4960568 -0.74291146 15.535761
-1.0682697 -0.61010885 4.7739935
-0.98567134 -0.56905019 3.1492608
-0.9275319 -0.53890508 2.2818599
-0.89364815 -0.52107328 1.7622502
-0.87632698 -0.51238769 1.4189581
-0.86099827 -0.50441754 1.1600677
-0.86337787 -0.50965554 1.0650293
-0.84704596 -0.50060236 0.87574571
-0.84037161 -0.49724025 0.7248072
-0.8283695 -0.49052089 0.59049314
-0.83025432 -0.49201941 0.47824174
-0.80898732 -0.47978976 0.36640632
-0.80681914 -0.47887871 0.2696026
-0.80475694 -0.47802573 0.17697962
-0.86225009 -0.50736183 0.972202
-0.83807033 -0.49371496 0.79179901
-0.83336365 -0.49132544 0.65410256
-0.82563967 -0.48734581 0.53066492
-0.82583624 -0.48784167 0.42297181
-0.79929721 -0.47253275 0.31466568
-0.79270202 -0.4688147 0.22066444
-0.8080498 -0.4782632 0.13155322
-0.18766218 -0.013881703 20.158504
-1.3193859 -0.73211312 9.5924635
-1.1492512 -0.64739543 6.365056
-1.0077853 -0.57670057 3.7591536
-0.95028841 -0.54816121 2.6440685
-0.90374833 -0.52381063 1.9815739
-0.88607299 -0.51519603 1.5779986
-0.87119043 -0.50774509 1.2838963
-0.98688453 -0.43917891 18.518482
-1.5062954 -0.74144626 15.615305
-1.0671114 -0.60451812 4.7594748
-0.98465639 -0.56389135 3.1398752
-0.92752117 -0.53457731 2.2773588
-0.89320397 -0.51664513 1.7579843
-0.87550348 -0.50781393 1.414968
-0.85982257 -0.49970573 1.1563925
-0.86515164 -0.50663865 1.0650293
-0.84543037 -0.49567413 0.87260723
-0.83849603 -0.49218717 0.72206575
-0.83007669 -0.48762634 0.59049314
-0.82797021 -0.48676884 0.4763687
-0.8106572 -0.47696292 0.36640632
-0.80848581 -0.47605944 0.2696026
-0.80642068 -0.47521368 0.17697962
-0.86079109 -0.5024668 0.96887648
-0.83978862 -0.49078652 0.79179901
-0.83135247 -0.48623726 0.65156937
-0.82733577 -0.4844608 0.53066492
-0.82345992 -0.48256859 0.42132831
-0.80094177 -0.46973979 0.31466568
-0.79006255 -0.46353891 0.21997377
-0.80971432 -0.47543964 0.13155322
-0.1877095 -0.013226555 20.158504
-1.3164867 -0.72450757 9.552949
-1.1497262 -0.64238703 6.3552656
-1.0071956 -0.57170594 3.7496097
-0.95050019 -0.54387069 2.6394658
-0.90349495 -0.51945931 1.977185
-0.88542819 -0.51069415 1.5738657
-0.87018251 -0.50309688 1.2800589
-0.98973334 -0.43631157 18.54344
-1.5021652 -0.73291588 15.545704
-1.0670233 -0.59955853 4.7497964
-0.98361754 -0.55874658 3.1304898
-0.92938155 -0.53133643 2.2773588
-0.89047742 -0.51092869 1.7494525
-0.87465882 -0.50325221 1.410978
-0.86156166 -0.49670136 1.1563925
-0.86383116 -0.50182444 1.0615247
-0.84379077 -0.49076325 0.86946881
-0.84020889 -0.48925731 0.72206575
-0.82794636 -0.48249555 0.58817434
-0.82966429 -0.48387578 0.4763687
-0.80817413 -0.47171226 0.36499628
-0.80590099 -0.47075677 0.26866996
-0.80377531 -0.46988261 0.17653254
-0.85930854 -0.49758825 0.96555102
-0.83799976 -0.48582503 0.78885585
-0.83304465 -0.48333234 0.65156937
-0.82509738 -0.47929043 0.52856684
-0.8210569 -0.47731802 0.4196848
-0.80257654 -0.46694112 0.31466568
-0.78739583 -0.45828724 0.21928309
-0.80705202 -0.47009575 0.13135168
-0.18775453 -0.012571246 20.158504
-1.3142329 -0.7173034 9.5183744
-1.1492893 -0.63688982 6.3405795
-1.0065835 -0.56672251 3.7400656
-0.94899446 -0.53862131 2.6302607
-0.90322208 -0.5151161 1.9727957
-0.88476294 -0.50620311 1.5697327
-0.86915272 -0.49846196 1.2762213
-0.99177974 -0.43308431 18.553423
-1.5114349 -0.73091233 15.615305
-1.0658154 -0.59399521 4.7352781
-0.98105115 -0.55276906 3.1164114
-0.92933673 -0.52701533 2.2728574
-0.88998866 -0.50652742 1.7451864
-0.87379301 -0.49870265 1.406988
-0.86329013 -0.49369094 1.1563925
-0.86248755 -0.49702564 1.0580202
-0.84549868 -0.48781487 0.86946881
-0.83829075 -0.4842301 0.71932429
-0.82962555 -0.47960255 0.58817434
-0.8313483 -0.48097673 0.4763687
-0.80981576 -0.46888834 0.36499628
-0.80753928 -0.46794078 0.26866996
-0.80541062 -0.46707404 0.17653254
-0.86104023 -0.49458566 0.96555102
-0.83969051 -0.48289689 0.78885585
-0.83099043 -0.47827134 0.64903617
-0.82676536 -0.47640738 0.52856684
-0.8186273 -0.47209013 0.41804129
-0.80420166 -0.46413678 0.31466568
-0.78899074 -0.45553595 0.21928309
-0.80868804 -0.46727574 0.13135168
-0.18775366 -0.01191465 20.153505
-1.3098946 -0.70901465 9.4689817
-1.148828 -0.63140351 6.3258939
-1.0059487 -0.56175029 3.7305217
-0.94746363 -0.53338909 2.6210558
-0.90293008 -0.51078117 1.9684068
-0.8865245 -0.50311166 1.5697327
-0.8681013 -0.49384037 1.2723838
-0.99434614 -0.43007654 18.573391
-1.5168622 -0.7270124 15.645134
-1.0656818 -0.58905548 4.7255993
-0.97996169 -0.54765797 3.1070261
-0.93117076 -0.52376813 2.2728574
-0.88948011 -0.50213587 1.7409205
-0.87290615 -0.49416521 1.402998
-0.86205935 -0.48900199 1.1527174
-0.861121 -0.49224234 1.0545157
-0.84381807 -0.48292738 0.86633033
-0.83634788 -0.47922227 0.71658283
-0.82745177 -0.47450021 0.58585554
-0.82900125 -0.47576442 0.47449568
-0.80728781 -0.4636696 0.36358625
-0.8091678 -0.46511912 0.26866996
-0.80271941 -0.46177655 0.17608546
-0.85951716 -0.48972884 0.9622255
-0.83785999 -0.47796023 0.78591269
-0.83265489 -0.47536772 0.64903617
-0.82448298 -0.47126645 0.52646881
-0.81617123 -0.46688506 0.41639778
-0.80159855 -0.45891187 0.31349337
-0.78627878 -0.45031804 0.21859241
-0.80597979 -0.46196571 0.13115016
-0.1877941 -0.011259194 20.153505
-1.3082532 -0.70223415 9.4393463
-1.1492369 -0.62641537 6.3161039
-1.0052916 -0.55678952 3.7209778
-0.94590795 -0.5281741 2.6118507
-0.90261865 -0.50645453 1.9640176
-0.88582289 -0.49863389 1.5655998
-0.86981982 -0.49080712 1.2723838
-0.9963724 -0.42682952 18.583374
-1.521799 -0.72285515 15.669991
-1.0644245 -0.58351988 4.711081
-0.98035794 -0.54339755 3.1023331
-0.93109214 -0.51945424 2.2683563
-0.88895178 -0.49775398 1.7366546
-0.87199831 -0.48964012 1.3990079
-0.86376101 -0.48598987 1.1527174
-0.86283398 -0.48923346 1.0545157
-0.84549868 -0.47997895 0.86633033
-0.83438015 -0.47423393 0.71384138
-0.82910305 -0.47160897 0.58585554
-0.83065695 -0.47286779 0.47449568
-0.80890137 -0.46084881 0.36358625
-0.81078649 -0.46229178 0.26866996
-0.80432642 -0.45897174 0.17608546
-0.86122143 -0.48672557 0.9622255
-0.83952326 -0.47503266 0.78591269
-0.83430916 -0.47245833 0.64903617
-0.82612294 -0.46838558 0.52646881
-0.81779599 -0.46403322 0.41639778
-0.8031956 -0.45611098 0.31349337
-0.78784591 -0.44757065 0.21859241
-0.80758744 -0.45914951 0.13115016
-0.18778864 -0.010602772 20.148506
-1.3106965 -0.69766325 9.4393463
-1.1487288 -0.62094802 6.3014178
-1.0046122 -0.55184019 3.7114339
-0.94432747 -0.52297652 2.6026456
-0.9022882 -0.50213635 1.9596287
-0.8851009 -0.49416718 1.5614668
-0.86873066 -0.48620275 1.2685463
-0.99838805 -0.42357358 18.593355
-1.519971 -0.71549827 15.625248
-1.0642461 -0.57860053 4.7014017
-0.97922403 -0.53830999 3.0929477
-0.93099475 -0.51514715 2.263855
-0.89068383 -0.49464795 1.7366546
-0.87370217 -0.48659328 1.3990079
-0.86249167 -0.48131999 1.1490422
-0.86142802 -0.48447064 1.0510111
-0.84377724 -0.47511515 0.8631919
-0.83603048 -0.47131848 0.71384138
-0.83074421 -0.46871197 0.58585554
-0.83230251 -0.46996534 0.47449568
-0.81050515 -0.45802242 0.36358625
-0.81239522 -0.45945877 0.26866996
-0.80592364 -0.45616132 0.17608546
-0.85965812 -0.48189083 0.95890003
-0.83765143 -0.4701212 0.78296953
-0.83219469 -0.4674322 0.64650303
-0.82775295 -0.46549901 0.52646881
-0.8194108 -0.46117577 0.41639778
-0.80478281 -0.45330453 0.31349337
-0.78940344 -0.44481781 0.21859241
-0.80483359 -0.45387363 0.13094862
-0.18786813 -0.0099478811 20.153505
-1.3117492 -0.69235879 9.4294672
-1.1481969 -0.61549193 6.2867322
-1.0039104 -0.5469023 3.7018898
-0.94272226 -0.51779646 2.5934405
-0.9019385 -0.49782658 1.9552395
-0.8868205 -0.49107459 1.5614668
-0.86761993 -0.48161191 1.2647089
-1.0003932 -0.42030877 18.60334
-1.5224593 -0.71018827 15.625248
-1.0629396 -0.57309318 4.6868839
-0.97958189 -0.53406274 3.0882547
-0.9327873 -0.51189423 2.263855
-0.89012051 -0.49027783 1.7323887
-0.87275761 -0.4820838 1.395018
-0.86416656 -0.47830638 1.1490422
-0.8599993 -0.47972366 1.0475066
-0.84543055 -0.4721669 0.8631919
-0.83402085 -0.46635672 0.71109986
-0.82850951 -0.46364617 0.58353674
-0.83393788 -0.4670572 0.47449568
-0.80791432 -0.45284501 0.36217624
-0.81399411 -0.45662019 0.26866996
-0.80751103 -0.45334536 0.17608546
-0.86133498 -0.47888714 0.95890003
-0.8392874 -0.46719438 0.78296953
-0.8338213 -0.46452445 0.64650303
-0.82540905 -0.46039608 0.52437073
-0.8210156 -0.45831269 0.41639778
-0.80211687 -0.44812199 0.31232107
-0.78662854 -0.43964365 0.21790172
-0.80641299 -0.45106149 0.13094862
-0.1880326 -0.009293614 20.168505
-1.311404 -0.68633533 9.4097099
-1.1476409 -0.6100471 6.2720466
-1.0044999 -0.54268533 3.6971178
-0.94280827 -0.51356834 2.5888383
-0.90156978 -0.49352539 1.9508505
-0.88606262 -0.48662165 1.5573338
-0.86929584 -0.47858042 1.2647089
-1.002121 -0.41692472 18.608332
-1.5210569 -0.7030828 15.585476
-1.0627164 -0.56819439 4.6772046
-0.979922 -0.52981961 3.0835621
-0.93074399 -0.50655425 2.2548525
-0.89182645 -0.48716772 1.7323887
-0.87443507 -0.47903439 1.395018
-0.86285895 -0.47365582 1.145367
-0.85854799 -0.47499254 1.0440021
-0.84707361 -0.46921292 0.8631919
-0.83564365 -0.46344262 0.71109986
-0.83012289 -0.4607513 0.58353674
-0.83151048 -0.46189228 0.47262263
-0.80949014 -0.4500221 0.36217624
-0.81558305 -0.45377603 0.26866996
-0.80908859 -0.45052385 0.17608546
-0.85973161 -0.47407484 0.95557451
-0.83737439 -0.46230844 0.78002638
-0.83543772 -0.46161106 0.64650303
-0.82701111 -0.45751205 0.52437073
-0.82261038 -0.45544401 0.41639778
-0.80367625 -0.44531938 0.31232107
-0.78815836 -0.43689513 0.21790172
-0.79924518 -0.4433966 0.13054556
-0.18815115 -0.008637948 20.178505
-1.3137916 -0.68175346 9.4097099
-1.1461599 -0.60413909 6.2524657
-1.0037564 -0.53776634 3.6875737
-0.94115728 -0.50841761 2.5796332
-0.89907712 -0.48809052 1.9420724
-0.88528448 -0.48217997 1.553201
-0.86814773 -0.47400731 1.2608713
-1.0038373 -0.41353363 18.613323
-1.5264106 -0.69909894 15.615305
-1.0613613 -0.56271571 4.6626863
-0.98176545 -0.52639586 3.0835621
-0.93059075 -0.50226855 2.2503514
-0.89122826 -0.48280966 1.7281228
-0.87345403 -0.47454086 1.3910279
-0.86152947 -0.46902022 1.1416919
-0.86020082 -0.47199276 1.0440021
-0.84870625 -0.46625325 0.8631919
-0.83359247 -0.45850781 0.70835841
-0.83172613 -0.45785081 0.58353674
-0.83311766 -0.45898697 0.47262263
-0.8068552 -0.44487756 0.3607662
-0.81286108 -0.44855309 0.26773736
-0.80629689 -0.44528934 0.17563838
-0.86138123 -0.47107095 0.95557451
-0.83543766 -0.45744157 0.77708322
-0.83326334 -0.45662051 0.64396977
-0.82462406 -0.45243952 0.52227271
-0.8200559 -0.45029703 0.41475427
-0.80096591 -0.44017038 0.31114873
-0.78967863 -0.43414131 0.21790172
-0.79641098 -0.43819574 0.13034403
-0.18831106 -0.0079817874 20.193504
-1.3078713 -0.67289996 9.35044
-1.1455542 -0.59872031 6.2377801
-1.0029906 -0.53285909 3.6780298
-0.94120389 -0.5042069 2.5750306
-0.89866638 -0.48381409 1.9376832
-0.88448614 -0.47774971 1.549068
-0.86697835 -0.46944806 1.2570338
-1.0052747 -0.41002706 18.613323
-1.5307839 -0.69464636 15.635191
-1.0610937 -0.55783814 4.653008
-0.98207307 -0.5221557 3.0788693
-0.93041885 -0.49799007 2.2458501
-0.89061058 -0.47846174 1.7238568
-0.87245232 -0.47006002 1.3870379
-0.86316139 -0.46601006 1.1416919
-0.85871047 -0.4672828 1.0404975
-0.85032862 -0.46328786 0.8631919
-0.83518791 -0.45559525 0.70835841
-0.82943106 -0.45282221 0.58121794
-0.83064646 -0.45385334 0.47074962
-0.80840325 -0.44205844 0.3607662
-0.81011266 -0.44335467 0.26680472
-0.80784637 -0.44247213 0.17563838
-0.85973811 -0.46628138 0.95224905
-0.83702934 -0.45452258 0.77708322
-0.83485216 -0.4537091 0.64396977
-0.82619834 -0.44955826 0.52227271
-0.82162279 -0.44743177 0.41475427
-0.80249757 -0.43737182 0.31114873
-0.79118931 -0.43138215 0.21790172
-0.79355013 -0.43302 0.1301425
-0.18842503 -0.007324548 20.203503
-1.3053665 -0.66586041 9.3158646
-1.1449246 -0.5933131 6.2230945
-1.0022031 -0.52796382 3.6684859
-0.9412328 -0.50000221 2.5704281
-0.89823693 -0.47954655 1.9332942
-0.88614839 -0.47465935 1.549068
-0.86861181 -0.46641889 1.2570338
-1.0064321 -0.40640786 18.608332
-1.5351446 -0.69017166 15.655077
-1.060805 -0.55296922 4.6433287
-0.98846972 -0.52113819 3.0929477
-0.93022847 -0.49371895 2.241349
-0.88767153 -0.47289804 1.715325
-0.87408781 -0.46701175 1.3870379
-0.86179394 -0.46139431 1.1380167
-0.86033642 -0.46428248 1.0404975
-0.84851611 -0.45846677 0.86005342
-0.83677316 -0.45267713 0.70835841
-0.83100665 -0.44992417 0.58121794
-0.83222568 -0.4509511 0.47074962
-0.8057245 -0.43694714 0.35935616
-0.81165534 -0.44052416 0.26680472
-0.8050099 -0.43727252 0.1751913
-0.86136043 -0.46327749 0.95224905
-0.83505189 -0.44968173 0.77414006
-0.832636 -0.44874713 0.64143664
-0.8277626 -0.44667155 0.52227271
-0.81902456 -0.44231722 0.41311076
-0.79974329 -0.43225682 0.3099764
-0.79269028 -0.42861778 0.21790172
-0.790663 -0.42786962 0.12994097
-0.18844946 -0.0066667772 20.203503
-1.302135 -0.6584962 9.276351
-1.1433656 -0.58745253 6.2035136
-1.0027167 -0.52377135 3.6637139
-0.94124371 -0.49580333 2.5658255
-0.89778852 -0.47528785 1.928905
-0.88531452 -0.47024342 1.544935
-0.86740535 -0.46187776 1.2531964
-1.0078444 -0.40289226 18.608332
-1.5394927 -0.68567508 15.674963
-1.0604953 -0.54810917 4.6336503
-0.98110616 -0.51288921 3.064791
-0.92809308 -0.48844165 2.2323468
-0.88701069 -0.46857864 1.7110591
-0.87304991 -0.4625473 1.3830478
-0.86339921 -0.45838329 1.1380167
-0.85880744 -0.45959407 1.036993
-0.85011131 -0.45550209 0.86005342
-0.83466339 -0.44777688 0.70561695
-0.82866925 -0.44492534 0.57889915
-0.82971102 -0.44584903 0.46887657
-0.80724478 -0.43413195 0.35935616
-0.80886257 -0.43536022 0.26587209
-0.80214697 -0.43209815 0.17474423
-0.85967779 -0.45851105 0.94892353
-0.83661652 -0.44676414 0.77414006
-0.83419734 -0.44583794 0.64143664
-0.82931668 -0.44377941 0.52227271
-0.81640077 -0.43722633 0.41146725
-0.80124724 -0.42946255 0.3099764
-0.79418159 -0.42584816 0.21790172
-0.78774965 -0.42274472 0.12973943
-0.18842794 -0.0060091615 20.198503
-1.2981733 -0.65081453 9.2318974
-1.1426872 -0.58207208 6.188828
-1.0018877 -0.51889557 3.65417
-0.93950498 -0.49070632 2.5566204
-0.8994422 -0.47215107 1.928905
-0.88695061 -0.46715021 1.544935
-0.8690123 -0.45884717 1.2531964
-1.0111248 -0.40011236 18.643274
-1.5428524 -0.68072671 15.684906
-1.0601645 -0.54325795 4.623971
-0.97829384 -0.50707972 3.0507126
-0.92786241 -0.48419216 2.2278454
-0.88633049 -0.46426964 1.7067931
-0.87465918 -0.459497 1.3830478
-0.86199409 -0.45378762 1.1343416
-0.86040646 -0.45659345 1.036993
-0.84825873 -0.45070571 0.85691494
-0.83622134 -0.44486064 0.70561695
-0.8302173 -0.44203004 0.57889915
-0.83126223 -0.4429501 0.46887657
-0.80452245 -0.42905423 0.35794613
-0.81037736 -0.43253413 0.26587209
-0.79925781 -0.42694911 0.17429715
-0.85797238 -0.45376202 0.94559801
-0.83459872 -0.44194973 0.7711969
-0.83193946 -0.44090486 0.63890344
-0.83086073 -0.44088185 0.52227271
-0.8137514 -0.43215916 0.40982375
-0.79844946 -0.42438191 0.30880409
-0.79566324 -0.42307332 0.21790172
-0.79363084 -0.42233938 0.12994097
-0.18840414 -0.0053517767 20.193504
-1.2976536 -0.64489669 9.2121401
-1.1419851 -0.57670355 6.1741424
-1.0010369 -0.51403195 3.6446261
-0.93947715 -0.48652565 2.5520179
-0.89896023 -0.46790305 1.9245161
-0.8860814 -0.46274894 1.5408021
-0.867769 -0.45432448 1.2493588
-1.0138602 -0.39710483 18.668232
-1.5461965 -0.67576337 15.694849
-1.0598129 -0.53841585 4.6142926
-0.97545296 -0.50129616 3.0366344
-0.9276132 -0.47995016 2.2233443
-0.88563114 -0.4599711 1.7025272
-0.87358528 -0.45504922 1.3790579
-0.86357278 -0.45077595 1.1343416
-0.86199504 -0.45358732 1.036993
-0.84638309 -0.44592786 0.85377645
-0.83407062 -0.43998817 0.70287549
-0.82783782 -0.43706131 0.57658035
-0.82870442 -0.43788004 0.46700355
-0.80177456 -0.42400086 0.35653609
-0.81188226 -0.42970273 0.26587209
-0.80074328 -0.42415658 0.17429715
-0.85624433 -0.44903049 0.94227254
-0.8361364 -0.43903375 0.7711969
-0.83347344 -0.43799818 0.63890344
-0.82837802 -0.43586573 0.52017462
-0.81107664 -0.42711583 0.40818024
-0.79992598 -0.42159221 0.30880409
-0.79275471 -0.41798383 0.21721105
-0.79510021 -0.41956651 0.12994097
-0.18837804 -0.0046946318 20.188503
-1.2957141 -0.63830411 9.1825047
-1.1412593 -0.57134694 6.1594563
-1.0001644 -0.50918055 3.6350818
-0.93769354 -0.48145911 2.5428128
-0.89845961 -0.46366414 1.9201269
-0.88519233 -0.45835942 1.5366691
-0.86650467 -0.44981608 1.2455213
-1.0165869 -0.39408296 18.69319
-1.5495245 -0.67078495 15.704792
-1.0583175 -0.53301758 4.5997739
-0.97412151 -0.4963218 3.0272489
-0.92734593 -0.47571594 2.218843
-0.88723135 -0.45687687 1.7025272
-0.87516838 -0.45199707 1.3790579
-0.86213017 -0.44620073 1.1306664
-0.86041111 -0.44892609 1.0334884
-0.84448451 -0.44116861 0.85063797
-0.83560139 -0.43707404 0.70287549
-0.82543373 -0.4321146 0.57426155
-0.83022785 -0.43498465 0.46700355
-0.80324972 -0.42119956 0.35653609
-0.80902761 -0.42458344 0.26493949
-0.7978102 -0.41904324 0.17385007
-0.85449368 -0.44431657 0.93894702
-0.83407849 -0.434246 0.76825374
-0.83117425 -0.43309429 0.63637024
-0.82989448 -0.43297148 0.52017462
-0.81256258 -0.42428204 0.40818024
-0.80139273 -0.41879737 0.30880409
-0.79420882 -0.41521403 0.21721105
-0.79655993 -0.41678855 0.12994097
-0.18834966 -0.0040377337 20.183504
-1.2944429 -0.63207364 9.1578093
-1.139598 -0.56555009 6.1398754
-1.0006028 -0.50501388 3.6303101
-0.93762732 -0.47729701 2.5382104
-0.90007263 -0.46052513 1.9201269
-0.8842833 -0.45398176 1.5325361
-0.86806953 -0.44678867 1.2455213
-1.0193048 -0.39104697 18.718147
-1.5523466 -0.66558176 15.709764
-1.0579224 -0.52819765 4.5900955
-0.97276711 -0.49136284 3.0178635
-0.92706037 -0.4714894 2.2143419
-0.8864978 -0.45259145 1.6982613
-0.8740586 -0.44756627 1.3750678
-0.8606661 -0.44164106 1.1269913
-0.86197293 -0.44591996 1.0334884
-0.84601933 -0.43821812 0.85063797
-0.83340991 -0.43222964 0.70013404
-0.82693702 -0.42923063 0.57426155
-0.83174115 -0.43208396 0.46700355
-0.80045885 -0.41618028 0.35512605
-0.81050473 -0.4217568 0.26493949
-0.79926807 -0.4162558 0.17385007
-0.8560394 -0.44133112 0.93894702
-0.83558917 -0.43133187 0.76825374
-0.83268094 -0.43019029 0.63637024
-0.83140075 -0.43007195 0.52017462
-0.81403869 -0.42144307 0.40818024
-0.79853398 -0.41376135 0.30763176
-0.79125684 -0.41016024 0.21652037
-0.79800993 -0.41400549 0.12994097
-0.18827535 -0.003381937 20.173506
-1.2938433 -0.62619817 9.138051
-1.138824 -0.56022102 6.1251898
-0.99968958 -0.50018275 3.6207662
-0.93579912 -0.47226128 2.5290053
-0.8995387 -0.45629731 1.9157379
-0.88335472 -0.44961604 1.5284033
-0.86676872 -0.44229919 1.2416838
-1.0220139 -0.38799682 18.743107
-1.5561328 -0.66078305 15.724678
-1.0575062 -0.5233869 4.5804162
-0.97139013 -0.4864195 3.0084779
-0.92481256 -0.4662908 2.2053394
-0.88807225 -0.44949424 1.6982613
-0.87561554 -0.44451252 1.3750678
-0.86220247 -0.4386341 1.1269913
-0.8635242 -0.44290841 1.0334884
-0.84408134 -0.43348435 0.84749955
-0.83491361 -0.42931786 0.70013404
