# .PCD v0.7 - Point Cloud Data file format
VERSION 0.7
FIELDS x y z
SIZE 4 4 4
TYPE F F F
COUNT 1 1 1
WIDTH 1450
HEIGHT 1
VIEWPOINT 0 0 0 1 0 0 0
POINTS 1450
DATA ascii
-0.91943151 0.21506359 1.2071462
-0.54664958 0.19178268 9.857954
-1.0122608 0.31276616 9.838418
-1.1235785 0.27738708 4.4933071
-1.0341033 0.25018704 2.9474719
-0.98828399 0.23621914 2.1648283
-0.95828575 0.22748059 1.6811975
-0.93224519 0.22011438 1.3431475
-0.91526622 0.21527661 1.09759
-0.90721941 0.21021877 0.99493837
-0.88278711 0.20407923 0.81297654
-0.86999154 0.20065115 0.66997784
-0.86045247 0.19814225 0.54875475
-0.86374688 0.19859144 0.4464002
-0.83723605 0.19219555 0.34243578
-0.84269857 0.19314529 0.2556133
-0.82505763 0.18880653 0.1689322
-0.90521687 0.21109211 0.90901756
-0.87258297 0.20300885 0.735879
-0.86674488 0.20133929 0.60850531
-0.86324739 0.20005827 0.49709606
-0.82865912 0.19174428 0.38517112
-0.82418674 0.19041413 0.29473627
-0.82015395 0.18933685 0.20961356
-0.81275266 0.18733723 0.12732106
-0.078458339 0.060052563 9.9038954
-1.3467979 0.35014376 8.8466349
-1.2027122 0.30446139 5.9881234
-1.0709859 0.26344216 3.5730462
-1.0149316 0.24594422 2.5198004
-0.97843981 0.23496152 1.9113487
-0.95042807 0.22685198 1.5077385
-0.92179352 0.21901287 1.2109838
-0.54597682 0.19368967 9.857954
-1.0111628 0.31629771 9.838418
-1.1238225 0.28161317 4.4981461
-1.0332237 0.25379521 2.9474719
-0.98956889 0.24018121 2.1693296
-0.96002114 0.23143573 1.6854634
-0.93147117 0.22336718 1.3431475
-0.91450924 0.21847017 1.09759
-0.90648007 0.21338427 0.99493837
-0.88206941 0.20715947 0.81297654
-0.87335694 0.2046409 0.67271936
-0.85975558 0.20114459 0.54875475
-0.86304837 0.20160529 0.4464002
-0.83656001 0.19511686 0.34243578
-0.84201926 0.19608568 0.2556133
-0.82439357 0.19168538 0.1689322
-0.9044745 0.21425062 0.90901756
-0.87186903 0.2060535 0.735879
-0.86603683 0.20436357 0.60850531
-0.86254376 0.20307034 0.49709606
-0.82798475 0.19463567 0.38517112
-0.82351708 0.19328994 0.29473627
-0.81948811 0.19219857 0.20961356
-0.81209373 0.19017312 0.12732106
-0.07824824 0.06032607 9.9038954
-1.3478214 0.35543796 8.8614531
-1.2036142 0.30916488 5.9979138
-1.0715079 0.26754087 3.5778182
-1.0140668 0.24948548 2.5198004
-0.97994041 0.23894311 1.9157379
-0.94963044 0.23016822 1.5077385
-0.92102337 0.2222292 1.2109838
-0.54529738 0.19559431 9.857954
-1.0100526 0.31982541 9.838418
-1.1240509 0.28584439 4.5029855
-1.0340058 0.25781801 2.9521646
-0.98872447 0.24363399 2.1693296
-0.96174067 0.23540576 1.6897295
-0.93361342 0.2273304 1.3471376
-0.91374105 0.22166108 1.09759
-0.90919816 0.21737668 0.99844289
-0.88512689 0.21114056 0.81611502
-0.87263733 0.20768824 0.67271936
-0.86335796 0.20516881 0.55107355
-0.86685002 0.20568709 0.44827321
-0.83587384 0.19803582 0.34243578
-0.84132969 0.19902368 0.2556133
-0.82371944 0.19456188 0.1689322
-0.90735137 0.21828006 0.91234308
-0.87114447 0.20909563 0.735879
-0.86531818 0.20738535 0.60850531
-0.8618297 0.20607994 0.49709606
-0.83189332 0.19862145 0.38681462
-0.82756537 0.19729061 0.2959086
-0.81881219 0.19505794 0.20961356
-0.81628537 0.1941628 0.1275226
-0.078037187 0.060598839 9.9038954
-1.348824 0.36074346 8.8762703
-1.203513 0.31362143 6.002809
-1.0720145 0.27164644 3.5825901
-1.0131898 0.25302371 2.5198004
-0.97910041 0.24236231 1.9157379
-0.94882119 0.23348165 1.5077385
-0.92024207 0.22544281 1.2109838
-0.54488248 0.19759578 9.8629456
-1.00893 0.32334918 9.838418
-1.1242633 0.29008061 4.5078249
-1.0347724 0.26184943 2.9568574
-0.98786801 0.24708378 2.1693296
-0.96344405 0.2393906 1.6939954
-0.93281424 0.23058794 1.3471376
-0.91296172 0.22484928 1.09759
-0.90843385 0.22054905 0.99844289
-0.88438451 0.21422896 0.81611502
-0.87597132 0.21171555 0.67546082
-0.86263651 0.20818123 0.55107355
-0.86612678 0.2087117 0.44827321
-0.83517754 0.20095235 0.34243578
-0.84062982 0.20195925 0.2556133
-0.82303524 0.197436 0.1689322
-0.90658385 0.22144598 0.91234308
-0.87040931 0.21213521 0.735879
-0.86458898 0.2104046 0.60850531
-0.85669476 0.20801599 0.49499801
-0.83119494 0.20152409 0.38681462
-0.82687169 0.20017815 0.2959086
-0.81812632 0.19791494 0.20961356
-0.8156026 0.19701099 0.1275226
-0.077825181 0.060870875 9.9038954
-1.3498062 0.36606029 8.8910885
-1.2043797 0.31834143 6.0125999
-1.0725052 0.27575877 3.5873621
-1.0123004 0.25655887 2.5198004
-0.97824842 0.24577852 1.9157379
-0.95073056 0.23747444 1.5118713
-0.92255998 0.22942747 1.2148212
-0.54418939 0.19949657 9.8629456
-1.0077952 0.32686904 9.838418
-1.1256756 0.2946403 4.5175037
-1.0338521 0.26545984 2.9568574
-0.98910946 0.25106645 2.1738307
-0.9651314 0.2433902 1.6982613
-0.93492627 0.23457624 1.3511276
-0.9121713 0.22803475 1.09759
-0.9076584 0.22371872 0.99844289
-0.88363129 0.21731474 0.81611502
-0.87522697 0.21477197 0.67546082
-0.86190456 0.21119113 0.55107355
-0.86539298 0.21173377 0.44827321
-0.83447093 0.20386645 0.34243578
-0.83991969 0.20489237 0.2556133
-0.82717955 0.20148633 0.16937928
-0.90942931 0.22550805 0.91566855
-0.87358713 0.21614322 0.73882216
-0.86803418 0.21445543 0.61103851
-0.85596341 0.21100514 0.49499801
-0.83048642 0.20442428 0.38681462
-0.82616788 0.20306325 0.2959086
-0.8174305 0.20076953 0.20961356
-0.81976211 0.20104678 0.12772413
-0.077612229 0.061142161 9.9038954
-1.3515168 0.37159464 8.9108458
-1.2042445 0.32280743 6.0174947
-1.0715362 0.27950081 3.5873621
-1.0113987 0.26009089 2.5198004
-0.97970515 0.24978369 1.9201269
-0.9498958 0.24079166 1.5118713
-0.92175347 0.23264641 1.2148212
-0.54348969 0.20139493 9.8629456
-1.0066481 0.33038491 9.838418
-1.1258552 0.29889068 4.5223432
-1.0345889 0.26950234 2.96155
-0.98822701 0.25451756 2.1738307
-0.96680242 0.24740447 1.7025272
-0.93410176 0.2378383 1.3511276
-0.91136974 0.23121741 1.09759
-0.91033155 0.22775145 1.0019474
-0.88664371 0.22134081 0.81925344
-0.8744719 0.21782579 0.67546082
-0.86546093 0.21526788 0.55339235
-0.86464858 0.21475327 0.44827321
-0.83375424 0.20677805 0.34243578
-0.83443117 0.20664209 0.25468066
-0.82647121 0.20437251 0.16937928
-0.90863657 0.22868118 0.91566855
-0.87282735 0.2191913 0.73882216
-0.8672803 0.21748412 0.61103851
-0.85522163 0.21399172 0.49499801
-0.83434916 0.20846677 0.38845813
-0.82545406 0.20594588 0.2959086
-0.81672466 0.20362167 0.20961356
-0.81905532 0.20390706 0.12772413
-0.07739833 0.061412703 9.9038954
-1.3524567 0.3769365 8.925663
-1.2040929 0.32727635 6.0223899
-1.071997 0.28362155 3.5921342
-1.0085944 0.26312631 2.5151978
-0.9788273 0.25320199 1.9201269
-0.95177472 0.2448072 1.5160043
-0.92093581 0.23586251 1.2148212
-0.54278338 0.20329084 9.8629456
-1.0054886 0.33389676 9.838418
-1.1260186 0.30314586 4.5271826
-1.0353103 0.27355319 2.966243
-0.98943877 0.25851616 2.1783321
-0.96593297 0.25077775 1.7025272
-0.93326581 0.24109747 1.3511276
-0.91384012 0.23524268 1.1012651
-0.90953106 0.23092772 1.0019474
-0.88586569 0.22443442 0.81925344
-0.87370622 0.22087692 0.67546082
-0.86470425 0.21828759 0.55339235
-0.86389375 0.21777016 0.44827321
-0.83767927 0.21085821 0.34384581
-0.83370477 0.20955354 0.25468066
-0.82575279 0.20725618 0.16937928
-0.9078328 0.23185152 0.91566855
-0.8759737 0.22323506 0.74176532
-0.87069345 0.22157347 0.61357164
-0.85886836 0.21809287 0.49709606
-0.83361638 0.21137792 0.38845813
-0.82473016 0.20882601 0.2959086
-0.81600893 0.20647132 0.20961356
-0.81833857 0.20676485 0.12772413
-0.077151425 0.061652903 9.8988962
-1.3533758 0.38228941 8.9404812
-1.2039247 0.33174819 6.0272856
-1.0724422 0.2877489 3.5969059
-1.0076697 0.26664537 2.5151978
-0.97793746 0.25661719 1.9201269
-0.95091438 0.248128 1.5160043
-0.92320901 0.23988207 1.2186587
-0.54180074 0.20508127 9.857954
-1.004317 0.33740455 9.838418
-1.1261662 0.30740583 4.5320225
-1.0360159 0.27761236 2.9709356
-0.98853034 0.26196834 2.1783321
-0.96505165 0.25414795 1.7025272
-0.93241853 0.2443537 1.3511276
-0.91301346 0.23843116 1.1012651
-0.91217285 0.23499107 1.005452
-0.88884652 0.22849458 0.82239193
-0.87292993 0.22392538 0.67546082
-0.86822826 0.22240403 0.55571121
-0.8631283 0.22078438 0.44827321
-0.83693814 0.21378097 0.34384581
-0.83296824 0.21246244 0.25468066
-0.82502431 0.21013734 0.16937928
-0.90701795 0.23501904 0.91566855
-0.87518907 0.2262914 0.74176532
-0.86991471 0.2246114 0.61357164
-0.85810184 0.22108956 0.49709606
-0.83744663 0.21546325 0.39010164
-0.82399619 0.21170357 0.2959086
-0.82007974 0.21055001 0.21030425
-0.81761181 0.20962012 0.12772413
-0.07690379 0.061892137 9.8938971
-1.3535268 0.38743934 8.9503603
-1.2047205 0.33649695 6.0370755
-1.0714312 0.29149067 3.5969059
-1.0067328 0.27016118 2.5151978
-0.97935009 0.26064551 1.9245161
-0.95276278 0.25216606 1.5201373
-0.92236608 0.24310318 1.2186587
-0.54108155 0.20697126 9.857954
-1.0026286 0.34073612 9.8334465
-1.1250863 0.311335 4.5320225
-1.0367057 0.28167978 2.9756284
-0.98971212 0.26598263 2.1828332
-0.96667826 0.25818828 1.7067931
-0.93155992 0.24760698 1.3511276
-0.91217554 0.2416167 1.1012651
-0.91134697 0.23817372 1.005452
-0.88804352 0.23159586 0.82239193
-0.87214297 0.2269711 0.67546082
-0.8674466 0.22543338 0.55571121
-0.86235231 0.22379591 0.44827321
-0.84083045 0.21790464 0.34525582
-0.83222151 0.21536875 0.25468066
-0.82910728 0.21426196 0.16982636
-0.90619206 0.23818369 0.91566855
-0.87439382 0.22934501 0.74176532
-0.86912537 0.22764659 0.61357164
-0.85732484 0.22408356 0.49709606
-0.83668947 0.21838516 0.39010164
-0.82795572 0.21580462 0.29708093
-0.81933981 0.21341135 0.21030425
-0.8168751 0.21247286 0.12772413
-0.076687276 0.062160201 9.8938971
-1.3544047 0.3928116 8.9651775
-1.2054979 0.34125531 6.0468664
-1.071846 0.29562601 3.6016781
-1.0057837 0.27367368 2.5151978
-0.97843432 0.26406246 1.9245161
-0.95187676 0.2554903 1.5201373
-0.92151183 0.24632138 1.2186587
-0.5403558 0.20885873 9.857954
-1.0014331 0.34423387 9.8334465
-1.1252028 0.31560007 4.5368614
-1.0373799 0.28575543 2.9803214
-0.99087799 0.27000839 2.1873345
-0.96577114 0.26156104 1.7067931
-0.93068993 0.2508572 1.3511276
-0.91132659 0.24479932 1.1012651
-0.91051006 0.24135347 1.005452
-0.88722968 0.23469427 0.82239193
-0.8713454 0.23001409 0.67546082
-0.8666544 0.22845994 0.55571121
-0.86604905 0.22798502 0.45014626
-0.84470403 0.22205807 0.34666586
-0.83621591 0.21951979 0.2556133
-0.8283543 0.21715477 0.16982636
-0.90535516 0.24134542 0.91566855
-0.87358797 0.23239581 0.74176532
-0.86832541 0.23067904 0.61357164
-0.8609243 0.22823797 0.49919412
-0.835922 0.22130443 0.39010164
-0.82719737 0.21869342 0.29708093
-0.81858987 0.21627007 0.21030425
-0.81612849 0.21532297 0.12772413
-0.076438084 0.062397581 9.8888969
-1.3552617 0.39819476 8.9799948
-1.2062566 0.34602323 6.0566564
-1.072245 0.29976782 3.6064501
-1.0048223 0.27718285 2.5151978
-0.97981668 0.26810861 1.928905
-0.95097911 0.25881141 1.5201373
-0.92373991 0.2503753 1.2224963
-0.53935486 0.21063785 9.8529625
-1.0002254 0.34772742 9.8334465
-1.1253033 0.31986973 4.5417008
-1.038038 0.28983915 2.985014
-0.98992944 0.27346551 2.1873345
-0.96736717 0.26562148 1.7110591
-0.92980862 0.25410441 1.3511276
-0.91046655 0.24797894 1.1012651
-0.90621811 0.24360424 1.0019474
-0.89016438 0.23879859 0.82553035
-0.87053716 0.23305425 0.67546082
-0.86585164 0.23148374 0.55571121
-0.86972696 0.23220266 0.45201927
-0.84392381 0.22500527 0.34666586
-0.83544457 0.2224374 0.2556133
-0.82759124 0.22004497 0.16982636
-0.90811151 0.24547881 0.91899407
-0.87277138 0.23544379 0.74176532
-0.86751497 0.23370866 0.61357164
-0.86012238 0.23124175 0.49919412
-0.83514446 0.22422101 0.39010164
-0.83112371 0.22283837 0.29825324
-0.81782997 0.21912616 0.21030425
-0.81537187 0.21817048 0.12772413
-0.076219812 0.062664025 9.8888969
-1.3560975 0.40358859 8.994813
-1.2069969 0.35080057 6.0664473
-1.0726283 0.30391604 3.611222
-1.0057299 0.28121498 2.5198004
-0.98118258 0.27216765 1.9332942
-0.9500699 0.26212937 1.5201373
-0.92286038 0.25359824 1.2224963
-0.5386163 0.21251927 9.8529625
-0.99950826 0.35139412 9.838418
-1.1253878 0.32414401 4.5465403
-1.0386806 0.29393101 2.989707
-0.99106497 0.27750659 2.1918356
-0.96643406 0.2689966 1.7110591
-0.92891598 0.25734848 1.3511276
-0.90959543 0.25115556 1.1012651
-0.90536225 0.24676606 1.0019474
-0.88932538 0.24190438 0.82553035
-0.87375373 0.23718719 0.67820227
-0.86503834 0.23450473 0.55571121
-0.86891109 0.23523717 0.45201927
-0.84313321 0.22794977 0.34666586
-0.83466303 0.22535226 0.2556133
-0.82681817 0.22293246 0.16982636
-0.90724903 0.2486472 0.91899407
-0.87194425 0.23848891 0.74176532
-0.86669385 0.23673542 0.61357164
-0.85930997 0.23424275 0.49919412
-0.83891296 0.2283753 0.39174515
-0.83503115 0.22701339 0.29942557
-0.81706011 0.22197959 0.21030425
-0.81460536 0.22101533 0.12772413
-0.076000609 0.062929697 9.8888969
-1.3569119 0.40899312 9.0096302
-1.2077183 0.35558724 6.0762372
-1.0729955 0.30807057 3.615994
-1.0047421 0.28472394 2.5198004
-0.98022658 0.27559096 1.9332942
-0.94914913 0.26544413 1.5201373
-0.92505717 0.25767842 1.2263339
-0.53787124 0.2143981 9.8529625
-0.99827552 0.3548809 9.838418
-1.1266626 0.32877514 4.5562196
-1.0393068 0.29803079 2.9943995
-0.99218452 0.28155896 2.196337
-0.96799916 0.27307677 1.715325
-0.93091297 0.26140434 1.3551177
-0.90871316 0.25432912 1.1012651
-0.90449536 0.24992485 1.0019474
-0.8884756 0.24500723 0.82553035
-0.87292045 0.24023572 0.67820227
-0.86421454 0.23752284 0.55571121
-0.8725552 0.23949598 0.45389232
-0.84695882 0.2321597 0.3480759
-0.83860928 0.22956145 0.2565459
-0.8260349 0.22581723 0.16982636
-0.90637559 0.25181258 0.91899407
-0.87110645 0.24153109 0.74176532
-0.86586225 0.2397593 0.61357164
-0.85848707 0.23724085 0.49919412
-0.84266263 0.23255864 0.39338866
-0.83891952 0.2312184 0.30059788
-0.81628025 0.2248303 0.21030425
-0.81382889 0.22385751 0.12772413
-0.075780481 0.06319461 9.8888969
-1.3577054 0.41440827 9.0244484
-1.2074454 0.36009204 6.0811329
-1.0733469 0.31223133 3.6207662
-1.0056198 0.28876889 2.5244026
-0.98156178 0.27966741 1.9376832
-0.94821674 0.26875567 1.5201373
-0.92415208 0.26090592 1.2263339
-0.53711957 0.21627431 9.8529625
-0.99753207 0.35854417 9.8433886
-1.1267133 0.33306244 4.5610585
-1.0399173 0.3021386 2.9990923
-0.99119568 0.28502059 2.196337
-0.96954751 0.27717116 1.7195909
-0.92999482 0.26465222 1.3551177
-0.90781981 0.25749958 1.1012651
-0.90361744 0.25308061 1.0019474
-0.88761491 0.24810709 0.82553035
-0.87610418 0.24440509 0.68094373
-0.86338013 0.24053806 0.55571121
-0.87171394 0.24254033 0.45389232
-0.84614325 0.23511472 0.3480759
-0.83780283 0.23248737 0.2565459
-0.82524163 0.22869925 0.16982636
-0.90908498 0.25598711 0.92231953
-0.87414926 0.24566415 0.74470848
-0.86917037 0.24394533 0.61610484
-0.85765368 0.24023609 0.49919412
-0.84639329 0.23677094 0.39503217
-0.8427887 0.23545331 0.30177018
-0.82026011 0.22900999 0.21099493
-0.81304258 0.22669694 0.12772413
-0.075590752 0.063489117 9.8938971
-1.3584772 0.41983393 9.0392656
-1.2081305 0.36489394 6.0909233
-1.0736822 0.31639829 3.6255379
-1.0046057 0.29227737 2.5244026
-0.98057956 0.28309199 1.9376832
-0.94727284 0.27206394 1.5201373
-0.92323577 0.26413023 1.2263339
-0.53609425 0.21803832 9.84797
-0.99627447 0.36202401 9.8433886
-1.126748 0.33735418 4.5658979
-1.0405116 0.30625424 3.0037851
-0.9922846 0.28908792 2.2008381
-0.96857411 0.28055385 1.7195909
-0.93196058 0.26873201 1.3591076
-0.90691549 0.26066688 1.1012651
-0.90272856 0.2562333 1.0019474
-0.88674349 0.25120392 0.82553035
-0.87524569 0.24746175 0.68094373
-0.86253524 0.24355036 0.55571121
-0.87086201 0.2455817 0.45389232
-0.84993476 0.23936738 0.34948593
-0.84171492 0.23674051 0.25747854
-0.81964391 0.23023175 0.16937928
-0.9081859 0.25915885 0.92231953
-0.87328643 0.248714 0.74470848
-0.86831355 0.24697779 0.61610484
-0.85680991 0.24322842 0.49919412
-0.85010469 0.24101211 0.39667568
-0.84663838 0.23971802 0.30294251
-0.81945568 0.23187184 0.21099493
-0.81705391 0.23089221 0.12792566
-0.075368673 0.063752592 9.8938971
-1.3592281 0.42527002 9.0540838
-1.2087965 0.3697049 6.1007137
-1.0754317 0.32099864 3.6350818
-1.0054533 0.29633492 2.5290053
-0.97958541 0.28651312 1.9376832
-0.94901931 0.27615538 1.5242703
-0.92538661 0.26824391 1.2301713
-0.53532988 0.21990833 9.84797
-0.99500465 0.36549944 9.8433886
-1.1279693 0.34201521 4.5755773
-1.04109 0.31037778 3.0084779
-0.99126947 0.29254991 2.2008381
-0.97009134 0.2846677 1.7238568
-0.93101686 0.2719835 1.3591076
-0.90925497 0.26477912 1.1049403
-0.90525585 0.26036879 1.005452
-0.88586116 0.25429773 0.82553035
-0.87437654 0.25051543 0.68094373
-0.86167985 0.24655969 0.55571121
-0.87445688 0.24989401 0.45576534
-0.8537069 0.24364936 0.35089597
-0.84560752 0.24102378 0.25841114
-0.81883526 0.23309143 0.16937928
-0.90727574 0.26232743 0.92231953
-0.8762964 0.25288171 0.74765164
-0.86744618 0.25000727 0.61610484
-0.85595566 0.24621774 0.49919412
-0.84925824 0.24397805 0.39667568
-0.84579641 0.24267188 0.30294251
-0.82340157 0.23609583 0.21168561
-0.81624299 0.23374285 0.12792566
-0.075145677 0.064015284 9.8938971
-1.3599573 0.43071645 9.068902
-1.2094438 0.37452501 6.1105042
-1.0757335 0.32518283 3.639854
-1.0044128 0.2998428 2.5290053
-0.98087561 0.29061139 1.9420724
-0.9480496 0.27946639 1.5242703
-0.92444456 0.27147248 1.2301713
-0.53429264 0.22166423 9.8429785
-0.9937228 0.36897045 9.8433886
-1.1279699 0.34631962 4.5804162
-1.043304 0.31500804 3.0178635
-0.99232793 0.29663205 2.2053394
-0.96909171 0.28805223 1.7238568
-0.93295109 0.27608705 1.3630977
-0.9083252 0.2679514 1.1049403
-0.90434146 0.26352715 1.005452
-0.88870555 0.25847566 0.82866883
-0.87349677 0.25356606 0.68094373
-0.86081398 0.249566 0.55571121
-0.8735792 0.25294492 0.45576534
-0.85285115 0.24662787 0.35089597
-0.84948033 0.2453371 0.25934377
-0.81801665 0.23594828 0.16937928
-0.90635449 0.26549283 0.92231953
-0.87540829 0.25593904 0.74765164
-0.87070614 0.25424215 0.61863804
-0.85509098 0.24920408 0.49919412
-0.85293543 0.24826086 0.39831915
-0.84961158 0.24697965 0.30411482
-0.82257241 0.23896861 0.21168561
-0.81542212 0.23659064 0.12792566
-0.074921764 0.064277202 9.8938971
-1.3606651 0.43617314 9.0837193
-1.210072 0.37935412 6.1202946
-1.0774463 0.32981017 3.6493979
-1.0052299 0.30391267 2.5336077
-0.97985524 0.29403353 1.9420724
-0.94976461 0.28357935 1.5284033
-0.92349136 0.27469775 1.2301713
-0.53351563 0.22352792 9.8429785
-0.99242878 0.37243694 9.8433886
-1.1279545 0.35062826 4.5852556
-1.0438482 0.31915274 3.0225561
-0.99336994 0.30072513 2.2098405
-0.9705776 0.29218528 1.7281228
-0.93198162 0.27934197 1.3630977
-0.91063249 0.27209118 1.1086154
-0.9034161 0.2666823 1.005452
-0.88779789 0.26157624 0.82866883
-0.87260634 0.25661358 0.68094373
-0.85993755 0.25256929 0.55571121
-0.87269098 0.25599274 0.45576534
-0.8519851 0.24960338 0.35089597
-0.85333341 0.24968036 0.26027638
-0.82196808 0.24019912 0.16982636
-0.90900171 0.26971728 0.92564505
-0.87838513 0.26014119 0.75059479
-0.86981332 0.25727993 0.61863804
-0.85856861 0.25347263 0.50129217
-0.8475343 0.249901 0.39667568
-0.84874427 0.24994387 0.30411482
-0.82173324 0.24183847 0.21168561
-0.81459129 0.23943555 0.12792566
-0.074696936 0.064538337 9.8938971
-1.3613513 0.44164002 9.0985374
-1.2106813 0.38419217 6.130085
-1.0791398 0.33445346 3.658942
-1.0060309 0.30799189 2.5382104
-0.98111427 0.29814869 1.9464613
-0.94876897 0.28689292 1.5284033
-0.92559576 0.27884448 1.2340088
-0.53273213 0.22538887 9.8429785
-0.99112266 0.3758989 9.8433886
-1.1279225 0.35494098 4.5900955
-1.0460247 0.32381567 3.0319417
-0.99439543 0.30482912 2.2143419
-0.96955174 0.29557145 1.7281228
-0.9338842 0.28346893 1.3670877
-0.91292191 0.27625036 1.1122906
-0.90589637 0.27085599 1.0089566
-0.88687938 0.26467362 0.82866883
-0.87571263 0.26085186 0.68368518
-0.86329657 0.25683281 0.55803001
-0.87179208 0.25903744 0.45576534
-0.85110861 0.25257581 0.35089597
-0.85716629 0.25405347 0.26120901
-0.82112461 0.24306688 0.16982636
-0.90805471 0.27288866 0.92564505
-0.87747175 0.26320577 0.75059479
-0.86890996 0.26031458 0.61863804
-0.86202687 0.25776842 0.50339019
-0.8466568 0.25285792 0.39667568
-0.84786665 0.25290501 0.30411482
-0.82088405 0.24470536 0.21168561
-0.81853867 0.24370314 0.12812719
-0.074471205 0.064798683 9.8938971
-1.3612777 0.44687447 9.1084156
-1.2112718 0.3890391 6.1398754
-1.07939 0.33866546 3.6637139
-1.0068157 0.31208041 2.5428128
-0.98006755 0.30157158 1.9464613
-0.95045233 0.29102713 1.5325361
-0.92461675 0.28207371 1.2340088
-0.53194213 0.22724707 9.8429785
-0.98980451 0.37935627 9.8433886
-1.1290718 0.35963944 4.5997739
-1.0481812 0.32849771 3.0413272
-0.99332529 0.30829835 2.2143419
-0.96851408 0.29895401 1.7281228
-0.93288898 0.28672707 1.3670877
-0.91519338 0.28042883 1.1159657
-0.90494543 0.27401653 1.0089566
-0.88967592 0.26889411 0.83180726
-0.87479675 0.2639071 0.68368518
-0.86239475 0.25984472 0.55803001
-0.87088257 0.262079 0.45576534
-0.84562784 0.25416434 0.34948593
-0.85627431 0.25704402 0.26120901
-0.82504129 0.24736187 0.17027344
-0.90709662 0.27605668 0.92564505
-0.87654763 0.26626712 0.75059479
-0.86799604 0.26334605 0.61863804
-0.86546552 0.26209146 0.50548828
-0.84576899 0.25581175 0.39667568
-0.84232575 0.25445738 0.30294251
-0.81528419 0.24613799 0.21099493
-0.81768304 0.2465589 0.12812719
-0.074244559 0.065058246 9.8938971
-1.3619215 0.4523589 9.1232328
-1.2118429 0.39389485 6.1496658
-1.0796239 0.34288329 3.6684859
-1.0075842 0.31617817 2.5474155
-0.98129547 0.30570346 1.9508505
-0.9494307 0.29434305 1.5325361
-0.92362648 0.28529948 1.2340088
-0.53114563 0.22910252 9.8429785
-0.98797745 0.38261601 9.838418
-1.1290058 0.36396438 4.6046133
-1.0486729 0.33267662 3.04602
-0.9943198 0.31241658 2.218843
-0.96995384 0.30311111 1.7323887
-0.9347595 0.29087728 1.3710777
-0.91744679 0.28462651 1.1196409
-0.90739292 0.27821934 1.0124611
-0.8887319 0.27199802 0.83180726
-0.87387025 0.26695907 0.68368518
-0.86571938 0.26414639 0.56034881
-0.86996239 0.26511735 0.45576534
-0.8401463 0.25571766 0.3480759
-0.85537183 0.2600314 0.26120901
-0.82417285 0.2502403 0.17027344
-0.90612745 0.27922139 0.92564505
-0.87561285 0.2693252 0.75059479
-0.86707145 0.26637432 0.61863804
-0.86454535 0.26511091 0.50548828
-0.84035575 0.2573795 0.39503217
-0.84143239 0.25739607 0.30294251
-0.81442004 0.24898237 0.21099493
-0.8168174 0.24941166 0.12812719
-0.074017011 0.065317005 9.8938971
-1.3625436 0.45785323 9.138051
-1.2133621 0.39907762 6.1643515
-1.0798415 0.34710681 3.6732578
-1.0083363 0.32028505 2.5520179
-0.98250645 0.30984753 1.9552395
-0.9483974 0.2976554 1.5325361
-0.92568403 0.28947872 1.2378463
-0.5303427 0.23095517 9.8429785
-0.98663586 0.38606238 9.838418
-1.1301184 0.36868334 4.6142926
-1.0507913 0.33739078 3.0554056
-0.99322319 0.31588554 2.218843
-0.96888989 0.30649501 1.7323887
-0.93373847 0.2941384 1.3710777
-0.9164477 0.28782722 1.1196409
-0.90641618 0.28138503 1.0124611
-0.88777703 0.27509859 0.83180726
-0.87293303 0.27000785 0.68368518
-0.8690244 0.2684744 0.56266761
-0.86903173 0.26815245 0.45576534
-0.8392486 0.25864878 0.3480759
-0.84976411 0.26157042 0.26027638
-0.82805437 0.25457916 0.17072052
-0.90871155 0.28349483 0.92897052
-0.87466741 0.27238002 0.75059479
-0.87025261 0.27067983 0.62117118
-0.86794901 0.26947299 0.5075863
-0.83945227 0.26031131 0.39503217
-0.83588588 0.25889355 0.30177018
-0.813546 0.25182369 0.21099493
-0.81594181 0.25226134 0.12812719
-0.073788561 0.065574974 9.8938971
-1.3624083 0.46310717 9.1479301
-1.2138938 0.40395412 6.1741424
-1.0800426 0.35133606 3.6780298
-1.0090719 0.32440105 2.5566204
-0.98141885 0.31327525 1.9552395
-0.94735265 0.30096412 1.5325361
-0.92466795 0.29270819 1.2378463
-0.52953333 0.232805 9.8429785
-0.98528224 0.38950402 9.838418
-1.1312116 0.37341443 4.623971
-1.0496072 0.34105667 3.0554056
-0.99211454 0.3193506 2.218843
-0.97029793 0.31067073 1.7366546
-0.93557692 0.29831162 1.3750678
-0.91866815 0.29205182 1.123316
-0.90883064 0.28561673 1.0159656
-0.8905251 0.27936113 0.83494574
-0.87597549 0.27430302 0.68642664
-0.86808199 0.27150622 0.56266761
-0.87251538 0.2725668 0.45763838
-0.83834058 0.26157671 0.3480759
-0.8488459 0.26453507 0.26027638
-0.82716066 0.25746804 0.17072052
-0.90771645 0.28666511 0.92897052
-0.87371129 0.27543151 0.75059479
-0.86930245 0.27371594 0.62117118
-0.86700314 0.27250102 0.5075863
-0.83853847 0.26323995 0.39503217
-0.83033907 0.26035544 0.30059788
-0.81266195 0.25466198 0.21099493
-0.81505626 0.25510797 0.12812719
-0.07355921 0.065832153 9.8938971
-1.3629875 0.46861851 9.1627474
-1.214406 0.40883911 6.1839323
-1.0788096 0.35510397 3.6780298
-1.0097911 0.32852608 2.5612228
-0.98259836 0.31743565 1.9596287
-0.94897521 0.30513078 1.5366691
-0.9266929 0.29691231 1.2416838
-0.52871746 0.234652 9.8429785
-0.98391658 0.39294091 9.838418
-1.1322856 0.37815771 4.6336503
-1.0500494 0.34525767 3.0600982
-0.99099374 0.32281178 2.218843
-0.97168851 0.31486005 1.7409205
-0.9345299 0.30157557 1.3750678
-0.91764307 0.29525679 1.123316
-0.90782809 0.28878742 1.0159656
-0.88954455 0.2824679 0.83494574
-0.87501264 0.27735907 0.68642664
-0.87135214 0.27587196 0.56498641
-0.87155861 0.27561077 0.45763838
-0.83742243 0.26450145 0.3480759
-0.84323269 0.26601851 0.25934377
-0.82625693 0.2603538 0.17072052
-0.90671027 0.28983191 0.92897052
-0.87274456 0.27847967 0.75059479
-0.86834168 0.27674869 0.62117118
-0.86604661 0.27552578 0.5075863
-0.83761448 0.26616541 0.39503217
-0.82942516 0.26325226 0.30059788
-0.81176811 0.25749713 0.21099493
-0.81416082 0.2579515 0.12812719
-0.073328964 0.06608852 9.8938971
-1.3635449 0.47413957 9.1775656
-1.2148991 0.41373265 6.1937232
-1.0789797 0.35933948 3.682802
-1.0086383 0.33204889 2.5612228
-0.98376054 0.32160807 1.9640176
-0.94790429 0.30844149 1.5366691
-0.92565084 0.3001453 1.2416838
-0.52789509 0.23649614 9.8429785
-0.982539 0.39637303 9.838418
-1.1321493 0.38251039 4.6384892
-1.0488379 0.34892091 3.0600982
-0.98986089 0.32626903 2.218843
-0.97306156 0.31906277 1.7451864
-0.9334715 0.30483586 1.3750678
-0.91983038 0.29950806 1.1269913
-0.90681452 0.29195455 1.0159656
-0.88855314 0.28557128 0.83494574
-0.87403917 0.28041175 0.68642664
-0.87038386 0.27891186 0.56498641
-0.87059122 0.27865139 0.45763838
-0.83649403 0.267423 0.3480759
-0.84229892 0.2689603 0.25934377
-0.82534307 0.2632364 0.17072052
-0.90569305 0.29299513 0.92897052
-0.87561345 0.28276673 0.75353795
-0.86737037 0.27977809 0.62117118
-0.86507958 0.27854717 0.5075863
-0.83668029 0.26908758 0.39503217
-0.82850128 0.26614588 0.30059788
-0.81557935 0.261843 0.21168561
-0.81801277 0.26231745 0.12832873
-0.073097825 0.066344082 9.8938971
-1.3633475 0.47941232 9.1874437
-1.2163353 0.41896641 6.2084088
-1.0791334 0.3635805 3.6875737
-1.0093265 0.33618534 2.5658255
-0.98263198 0.32504007 1.9640176
-0.94949466 0.31262872 1.5408021
-0.92764282 0.30437407 1.2455213
-0.52706635 0.2383374 9.8429785
-0.98114944 0.3998003 9.838418
-1.133186 0.38727352 4.6481686
-1.0492491 0.35313061 3.064791
-0.99078095 0.33041123 2.2233443
-0.97441715 0.32327893 1.7494525
-0.93526274 0.30903807 1.3790579
-0.91877931 0.30271703 1.1269913
-0.90918058 0.29622313 1.0194702
-0.88755089 0.28867117 0.83494574
-0.87305504 0.28346097 0.68642664
-0.86940491 0.28194839 0.56498641
-0.86961329 0.28168863 0.45763838
-0.84011954 0.27181807 0.34948593
-0.83668077 0.27038822 0.25841114
-0.8244192 0.26611575 0.17072052
-0.90466481 0.29615483 0.92897052
-0.87462109 0.28582147 0.75353795
-0.8663885 0.28280407 0.62117118
-0.86410207 0.28156516 0.5075863
-0.83573592 0.27200651 0.39503217
-0.82756716 0.26903629 0.30059788
-0.81937003 0.26621857 0.21237628
-0.8218441 0.26671341 0.12853025
-0.072865799 0.066598833 9.8938971
-1.3638618 0.48494992 9.2022619
-1.2167883 0.42388001 6.2181988
-1.0792705 0.36782694 3.6923459
-1.0099982 0.34033063 2.5704281
-0.9837625 0.32922849 1.9684068
-0.94839758 0.31594115 1.5408021
-0.92657477 0.30761027 1.2455213
-0.52623123 0.24017575 9.8429785
-0.97974783 0.40322274 9.838418
-1.134203 0.39204842 4.6578469
-1.04801 0.35679105 3.064791
-0.98962158 0.33386767 2.2233443
-0.97575521 0.32750848 1.7537184
-0.93417829 0.31230086 1.3790579
-0.91771698 0.30592233 1.1269913
-0.90814102 0.29939494 1.0194702
-0.88653785 0.29176754 0.83494574
-0.87603271 0.28781211 0.6891681
-0.86841547 0.28498146 0.56498641
-0.86862469 0.28472242 0.45763838
-0.83916557 0.27474901 0.34948593
-0.84040076 0.27483407 0.25934377
-0.82821906 0.27053824 0.1711676
-0.90362549 0.29931086 0.92897052
-0.87745565 0.29014188 0.75648111
-0.86948937 0.28717875 0.62370437
-0.86311394 0.28457972 0.5075863
-0.83926648 0.27639937 0.39667568
-0.82662302 0.27192339 0.30059788
-0.82314008 0.27062377 0.21306697
-0.82565463 0.27113932 0.12873179
-0.072632886 0.066852778 9.8938971
-1.3643539 0.49049693 9.2170792
-1.2172217 0.42880192 6.2279897
-1.079391 0.37207875 3.6971178
-1.0088041 0.3438541 2.5704281
-0.98260731 0.33266041 1.9684068
-0.94995552 0.32014871 1.544935
-0.92549533 0.31084278 1.2455213
-0.52538967 0.24201117 9.8429785
-0.97882634 0.40684533 9.8433886
-1.1340141 0.39642018 4.6626863
-1.0483897 0.36100921 3.0694838
-0.99051034 0.33802342 2.2278454
-0.97460604 0.3309125 1.7537184
-0.93593681 0.31652546 1.3830478
-0.91985583 0.31020743 1.1306664
-0.90709043 0.30256313 1.0194702
-0.88551396 0.29486036 0.83494574
-0.87502271 0.29086831 0.6891681
-0.86741543 0.28801104 0.56498641
-0.86762559 0.28775275 0.45763838
-0.8382014 0.27767655 0.34948593
-0.83943629 0.27776593 0.25934377
-0.82726967 0.27342764 0.1711676
-0.90257525 0.30246329 0.92897052
-0.87643749 0.29320303 0.75648111
-0.86848158 0.29021209 0.62370437
-0.86211526 0.2875908 0.5075863
-0.83829653 0.27932727 0.39667568
-0.83028066 0.27634224 0.30177018
-0.82688934 0.27505857 0.21375765
-0.82470316 0.27401975 0.12873179
-0.072369277 0.067074046 9.8888969
-1.3648241 0.49605328 9.2318974
-1.2185948 0.4340739 6.2426753
-1.0794951 0.37633592 3.7018898
-1.0094445 0.34801039 2.5750306
-0.98370576 0.3368645 1.9727957
-0.94883215 0.32346272 1.544935
-0.92440462 0.31407148 1.2455213
-0.52454168 0.24384364 9.8429785
-0.97740018 0.41025957 9.8433886
-1.1349936 0.4012146 4.6723657
-1.0487528 0.36523438 3.0741765
-0.98932439 0.34147891 2.2278454
-0.973445 0.33431247 1.7537184
-0.93482625 0.31979054 1.3830478
-0.91876745 0.31341645 1.1306664
-0.90940773 0.30686808 1.0229747
-0.88816792 0.29919237 0.83808416
-0.87796539 0.29525393 0.69190961
-0.86640477 0.29103714 0.56498641
-0.86661583 0.29077959 0.45763838
-0.83722705 0.28060073 0.34948593
-0.83846158 0.28069443 0.25934377
-0.82631016 0.27631366 0.1711676
-0.90151387 0.30561203 0.92897052
-0.87923729 0.29755646 0.75942427
-0.86746323 0.29324189 0.62370437
-0.86110616 0.29059839 0.5075863
-0.84179121 0.28376031 0.39831915
-0.82931101 0.27923876 0.30177018
-0.82592422 0.27794328 0.21375765
-0.82847714 0.27848867 0.12893331
-0.072134703 0.067326255 9.8888969
-1.3660011 0.50188702 9.2516537
-1.2189881 0.43901542 6.2524657
-1.0795826 0.38059834 3.7066617
-1.0082235 0.35153189 2.5750306
-0.98252386 0.34029621 1.9727957
-0.95035762 0.32769033 1.549068
-0.92330271 0.31729633 1.2455213
-0.5236873 0.24567316 9.8429785
-0.97596222 0.41366884 9.8433886
-1.1347694 0.4055973 4.6772046
-1.049099 0.36946645 3.0788693
-0.99018157 0.34564793 2.2323468
-0.97473574 0.3385644 1.7579843
-0.93655181 0.32403725 1.3870379
-0.92087251 0.3177276 1.1343416
-0.90833104 0.31004062 1.0229747
-0.8871181 0.30229083 0.83808416
-0.87692946 0.29831684 0.69190961
-0.86538357 0.29405969 0.56498641
-0.86559552 0.29380286 0.45763838
-0.83624244 0.28352147 0.34948593
-0.84212935 0.28519523 0.26027638
-0.82534057 0.27919635 0.1711676
-0.90044165 0.30875704 0.92897052
-0.87819332 0.30062377 0.75942427
-0.87051326 0.29766303 0.62623757
-0.8600865 0.29360247 0.5075863
-0.84079552 0.28669697 0.39831915
-0.83293223 0.28369913 0.30294251
-0.82494897 0.2808246 0.21375765
-0.82749999 0.2813789 0.12893331
-0.07189925 0.067577638 9.8888969
-1.3671542 0.50773507 9.2714119
-1.2203182 0.44431356 6.2671514
-1.0796534 0.38486594 3.7114339
-1.0088328 0.35569903 2.5796332
-0.98359036 0.34451577 1.977185
-0.94920796 0.33100572 1.549068
-0.92218953 0.32051733 1.2455213
-0.52308708 0.24762395 9.84797
-0.97451228 0.41707307 9.8433886
-1.134529 0.40998337 4.682044
-1.0510541 0.37428457 3.0882547
-0.99102181 0.34982711 2.2368479
-0.97354794 0.34196481 1.7579843
-0.93541503 0.32730445 1.3870379
-0.91975778 0.32094011 1.1343416
-0.90724325 0.31320938 1.0229747
-0.8860575 0.30538562 0.83808416
-0.87588274 0.30137607 0.69190961
-0.86435187 0.29707867 0.56498641
-0.86456466 0.29682255 0.45763838
-0.8352477 0.28643879 0.34948593
-0.84112871 0.28813308 0.26027638
-0.82436103 0.28207561 0.1711676
-0.89935839 0.31189829 0.92897052
-0.87713856 0.30368739 0.75942427
-0.86946893 0.30069989 0.62623757
-0.8633464 0.29808429 0.50968438
-0.84425378 0.29116988 0.39996269
-0.82734132 0.2850216 0.30177018
-0.81928134 0.28209025 0.21306697
-0.82651275 0.2842657 0.12893331
-0.071662925 0.067828201 9.8888969
-1.3682829 0.51359725 9.2911682
-1.2206708 0.44927439 6.2769423
-1.0811118 0.38964501 3.7209778
-1.0094252 0.35987464 2.5842357
-0.98238176 0.34794703 1.977185
-0.95070046 0.33525318 1.553201
-0.92408884 0.32479748 1.2493588
-0.52221954 0.24944836 9.84797
-0.97256142 0.42026031 9.838418
-1.1354522 0.41480422 4.6917233
-1.0513648 0.37853599 3.0929477
-0.99184465 0.3540163 2.241349
-0.97480577 0.34623414 1.7622502
-0.93426687 0.33056766 1.3870379
-0.92182881 0.325277 1.1380167
-0.90951133 0.31755012 1.0264792
-0.88866144 0.30975801 0.84122264
-0.87482548 0.30443162 0.69190961
-0.86330962 0.30009401 0.56498641
-0.86352336 0.29983866 0.45763838
-0.83877492 0.29092467 0.35089597
-0.83547622 0.28945923 0.25934377
-0.81866527 0.28332275 0.17072052
-0.90178746 0.31627163 0.93229604
-0.879888 0.3080833 0.76236743
-0.86841398 0.30373305 0.62623757
-0.86230063 0.30109611 0.50968438
-0.84323227 0.2941151 0.39996269
-0.82634139 0.28790784 0.30177018
-0.81829166 0.28494835 0.21306697
-0.82079685 0.28550768 0.12873179
-0.071425721 0.068077937 9.8888969
-1.368661 0.5191977 9.3059864
-1.2219578 0.45459834 6.2916274
-1.0811474 0.39392766 3.7257495
-1.0100006 0.36405873 2.5888383
-0.98341584 0.35218179 1.9815739
-0.9495244 0.33856967 1.553201
-0.92294949 0.32802117 1.2493588
-0.52134562 0.2512697 9.84797
-0.97108853 0.42365262 9.838418
-1.1351763 0.41920084 4.6965628
-1.0516585 0.38279414 3.0976403
-0.99060291 0.35747632 2.241349
-0.97359127 0.34963474 1.7622502
-0.93594432 0.33484212 1.3910279
-0.92068779 0.32849282 1.1380167
-0.90839732 0.320723 1.0264792
-0.88757473 0.31285813 0.84122264
-0.8777017 0.30887172 0.69465113
-0.86225677 0.30310568 0.56498641
-0.86247146 0.30285108 0.45763838
-0.83775425 0.29385075 0.35089597
-0.82982486 0.29074943 0.25841114
-0.8176713 0.28617871 0.17072052
-0.90067798 0.31941754 0.93229604
-0.87880725 0.31115279 0.76236743
-0.86734843 0.30676255 0.62623757
-0.86124438 0.30410427 0.50968438
-0.8466537 0.29862761 0.4016062
-0.82533139 0.29079053 0.30177018
-0.81729203 0.28780299 0.21306697
-0.81979525 0.28837106 0.12873179
-0.071216896 0.068359226 9.8938971
-1.3697424 0.52508539 9.3257437
-1.2222693 0.45957813 6.3014178
-1.082567 0.3987315 3.7352936
-1.010559 0.3682512 2.5934405
-0.98218054 0.3556124 1.9815739
-0.950984 0.34283668 1.5573338
-0.92481518 0.33232501 1.2531964
-0.52072459 0.25321504 9.8529625
-0.96960378 0.42703974 9.838418
-1.1360611 0.42404038 4.7062416
-1.0519353 0.38705891 3.1023331
-0.99139398 0.36167833 2.2458501
-0.9723649 0.3530311 1.7622502
-0.93476981 0.33810711 1.3910279
-0.91953552 0.33170462 1.1380167
-0.91063076 0.32509115 1.0299838
-0.89014357 0.3172614 0.84436107
-0.87661821 0.31193358 0.69465113
-0.86119348 0.30611369 0.56498641
-0.86577761 0.30741113 0.4595114
-0.83672345 0.29677328 0.35089597
-0.82880491 0.29364428 0.25841114
-0.81666738 0.28903115 0.17072052
-0.90307206 0.32382002 0.93562156
-0.88152117 0.31558102 0.76531059
-0.87033135 0.31124002 0.62877071
-0.86017758 0.3071087 0.50968438
-0.84560615 0.30158114 0.4016062
-0.81973255 0.29203841 0.30059788
-0.81628245 0.29065409 0.21306697
-0.82349068 0.29290518 0.12893331
-0.070977844 0.068607405 9.8938971
-1.3700744 0.53070605 9.3405609
-1.2235129 0.46492761 6.3161039
-1.0825675 0.40302902 3.7400656
-1.0111005 0.37245202 2.5980432
-0.98318219 0.35986215 1.9859631
-0.94978148 0.34615415 1.5573338
-0.92666203 0.33664587 1.2570338
-0.51983756 0.25503117 9.8529625
-0.96810728 0.43042171 9.838418
-1.1369261 0.42889118 4.7159204
-1.0521952 0.3913303 3.1070261
-0.99216789 0.36589023 2.2503514
-0.97112668 0.35642311 1.7622502
-0.93641382 0.34240305 1.395018
-0.91837204 0.33491239 1.1380167
-0.90949047 0.32826787 1.0299838
-0.88903075 0.32036665 0.84436107
-0.87552398 0.31499165 0.69465113
-0.86428845 0.31061628 0.56730521
-0.8646993 0.31043139 0.4595114
-0.83568239 0.29969218 0.35089597
-0.8231504 0.29487887 0.25747854
-0.8156535 0.2918801 0.17072052
-0.90193623 0.32697034 0.93562156
-0.88041419 0.31865621 0.76531059
-0.86923963 0.31427613 0.62877071
-0.85910034 0.31010941 0.50968438
-0.84454829 0.30453104 0.4016062
-0.82328117 0.29654533 0.30177018
-0.81526285 0.2935017 0.21306697
-0.82716447 0.2974686 0.12913485
-0.070766941 0.068887316 9.8988962
-1.3696605 0.53605205 9.35044
-1.2247339 0.47029132 6.3307896
-1.083948 0.40785724 3.7496097
-1.0097944 0.37597916 2.5980432
-0.98192006 0.36329192 1.9859631
-0.95120782 0.35044044 1.5614668
-0.92548132 0.33987847 1.2570338
-0.51920253 0.256973 9.857954
-0.96611279 0.43357959 9.8334465
-1.1377708 0.43375316 4.7255993
-1.052438 0.39560822 3.1117187
-0.99088466 0.3693513 2.2503514
-0.96987659 0.35981083 1.7622502
-0.93521285 0.34566966 1.395018
-0.92037815 0.33928889 1.1416919
-0.90833908 0.3314406 1.0299838
-0.89156419 0.32480049 0.84749955
-0.87834871 0.31947532 0.69739258
-0.86319894 0.31363133 0.56730521
-0.86361045 0.31344786 0.4595114
-0.83463115 0.30260742 0.35089597
-0.82211608 0.29775038 0.25747854
-0.81462967 0.29472548 0.17072052
-0.90429509 0.33140168 0.93894702
-0.87929654 0.32172748 0.76531059
-0.8681373 0.31730843 0.62877071
-0.85801262 0.31310636 0.50968438
-0.84348011 0.30747721 0.4016062
-0.82224101 0.29941729 0.30177018
-0.81423342 0.29634571 0.21306697
-0.82612109 0.30035412 0.12913485
-0.070526049 0.069133922 9.8988962
-1.3699485 0.54168749 9.3652573
-1.2249832 0.47530061 6.3405795
-1.0839128 0.41216928 3.7543814
-1.0103041 0.38019001 2.6026456
-0.98288912 0.36755639 1.990352
-0.94997877 0.35375863 1.5614668
-0.92729408 0.34422264 1.2608713
-0.51830232 0.25878376 9.857954
-0.96459341 0.43694934 9.8334465
-1.1385956 0.43862629 4.7352781
-1.0526638 0.39989257 3.1164114
-0.99162638 0.37357557 2.2548525
-0.96861476 0.36319414 1.7622502
-0.93682313 0.34998685 1.3990079
-0.9191882 0.34249952 1.1416919
-0.90717661 0.33460927 1.0299838
-0.89042491 0.32791066 0.84749955
-0.87722814 0.32253939 0.69739258
-0.86209893 0.31664255 0.56730521
-0.86251104 0.31646049 0.4595114
-0.83356982 0.30551898 0.35089597
-0.82568449 0.30230728 0.25841114
-0.81827289 0.29927787 0.1711676
-0.90663397 0.33585349 0.94227254
-0.88195914 0.32619715 0.76825374
-0.871068 0.32183099 0.63130391
-0.86117244 0.31767035 0.51178247
-0.84240168 0.31041962 0.4016062
-0.82119083 0.30228561 0.30177018
-0.81319404 0.29918608 0.21306697
-0.8297568 0.30495942 0.12933637
-0.0702843 0.06937968 9.8988962
-1.3702136 0.54733145 9.3800745
-1.2261603 0.48068929 6.3552656
-1.0852541 0.41702169 3.7639256
-1.0107969 0.38440907 2.6072483
-0.98384047 0.37183204 1.9947413
-0.95137173 0.358064 1.5655998
-0.92608684 0.34745741 1.2608713
-0.51739585 0.26059142 9.857954
-0.96306229 0.44031376 9.8334465
-1.1394 0.44351041 4.744957
-1.0528724 0.40418336 3.1211042
-0.99235076 0.37780958 2.2593539
-0.96734101 0.36657298 1.7622502
-0.93559581 0.35325482 1.3990079
-0.91798711 0.34570602 1.1416919
-0.90934449 0.33901986 1.0334884
-0.88927495 0.33101681 0.84749955
-0.8760969 0.32559952 0.69739258
-0.86098838 0.3196499 0.56730521
-0.86140108 0.3194693 0.4595114
-0.83249825 0.30842683 0.35089597
-0.82462418 0.30518761 0.25841114
-0.82189423 0.30385926 0.17161468
-0.90545613 0.33901617 0.94227254
-0.88081509 0.32927379 0.76825374
-0.86993927 0.32486966 0.63130391
-0.8643108 0.32226017 0.51388049
-0.841313 0.31335825 0.4016062
-0.82468611 0.30684534 0.30294251
-0.81678623 0.30374905 0.21375765
-0.83337045 0.3095938 0.12953791
-0.070041686 0.069624603 9.8988962
-1.3704563 0.55298394 9.3948927
-1.2273147 0.48609194 6.3699512
-1.0851831 0.42134789 3.7686975
-1.0112723 0.38863614 2.6118507
-0.9847737 0.37611878 1.9991302
-0.95011604 0.36138272 1.5655998
-0.92786527 0.35182455 1.2647089
-0.51648307 0.26239586 9.857954
-0.96151948 0.44367278 9.8334465
-1.1401843 0.44840553 4.7546358
-1.0530639 0.40848041 3.125797
-0.99305749 0.38205314 2.263855
-0.96849108 0.37088037 1.7665161
-0.93717217 0.35759294 1.402998
-0.91994309 0.35011438 1.145367
-0.90815556 0.34219199 1.0334884
-0.88811404 0.33411893 0.84749955
-0.8788693 0.3301262 0.70013404
-0.86401469 0.32420981 0.56962395
-0.86028075 0.32247421 0.4595114
-0.83590895 0.31301323 0.35230598
-0.82815468 0.30978534 0.25934377
-0.82549345 0.30846959 0.17206176
-0.90775925 0.34349632 0.94559801
-0.87966037 0.33234638 0.76825374
-0.86879992 0.32790431 0.63130391
-0.8631807 0.32527521 0.51388049
-0.84021401 0.31629306 0.4016062
-0.82361001 0.30972216 0.30294251
-0.81572098 0.30659831 0.21375765
-0.83228469 0.31250092 0.12953791
-0.069798224 0.069868661 9.8988962
-1.3713953 0.55893815 9.41465
-1.2275009 0.49113005 6.3797417
-1.0850953 0.4256787 3.7734697
-1.0099095 0.39216375 2.6118507
-0.98345482 0.37955397 1.9991302
-0.95147544 0.36570692 1.5697327
-0.92663151 0.35506129 1.2647089
-0.51530749 0.26406473 9.8529625
-0.95996481 0.44702637 9.8334465
-1.1409481 0.45331144 4.7643147
-1.0516316 0.41215381 3.125797
-0.99374688 0.38630623 2.2683563
-0.9671905 0.37425879 1.7665161
-0.93591821 0.36086211 1.402998
-0.91871536 0.35332343 1.145367
-0.9069556 0.34535998 1.0334884
-0.89058048 0.33860049 0.85063797
-0.87771159 0.33319199 0.70013404
-0.86287773 0.32722378 0.56962395
-0.85914981 0.32547519 0.4595114
-0.83481127 0.31592917 0.35230598
-0.83166319 0.3144114 0.26027638
-0.82441169 0.31134921 0.17206176
-0.9065547 0.34666294 0.94559801
-0.87849492 0.33541495 0.76825374
-0.86765003 0.330935 0.63130391
-0.86628133 0.32990167 0.51597857
-0.84351838 0.32090321 0.40324971
-0.82252383 0.31259519 0.30294251
-0.81464577 0.30944383 0.21375765
-0.8311888 0.31540421 0.12953791
-0.069553912 0.070111878 9.8988962
-1.3715913 0.56460971 9.4294672
-1.2276669 0.49617529 6.3895321
-1.0849904 0.43001401 3.7782414
-1.0103532 0.39640045 2.6164534
-0.98435521 0.38385496 2.0035193
-0.95281601 0.37004492 1.5738657
-0.92538649 0.35829365 1.2647089
-0.5143826 0.2658619 9.8529625
-0.95839858 0.45037457 9.8334465
-1.1405252 0.45775977 4.7691541
-1.051791 0.41645771 3.1304898
-0.99441844 0.39056876 2.2728574
-0.96587825 0.37763259 1.7665161
-0.93746048 0.36522096 1.406988
-0.92063636 0.35775638 1.1490422
-0.90907288 0.34980473 1.036993
-0.88939309 0.34170711 0.85063797
-0.87654322 0.33625376 0.70013404
-0.86173028 0.33023381 0.56962395
-0.86233795 0.33012977 0.46138445
-0.83370334 0.31884128 0.35230598
-0.83056062 0.31731251 0.26027638
-0.82797247 0.31600079 0.17250884
-0.90882176 0.35117123 0.94892353
-0.87731868 0.33847943 0.76825374
-0.87051189 0.3355121 0.6338371
-0.86512446 0.33292353 0.51597857
-0.8423931 0.32384571 0.40324971
-0.82142764 0.31546447 0.30294251
-0.81818384 0.31406027 0.21444833
-0.82541806 0.31651494 0.12933637
-0.06930875 0.070354246 9.8988962
-1.3717643 0.57028943 9.4442854
-1.2287552 0.50161278 6.4042177
-1.0848684 0.43435383 3.7830136
-1.0107794 0.40064493 2.6210558
-0.98523754 0.38816684 2.0079086
-0.95413804 0.37439677 1.5779986
-0.92711502 0.36268961 1.2685463
-0.51345146 0.26765579 9.8529625
-0.95730215 0.45394617 9.838418
-1.14125 0.46268314 4.7788324
-1.0519329 0.42076775 3.1351826
-0.99507248 0.39484075 2.2773588
-0.96697974 0.38196024 1.7707821
-0.93617994 0.36849108 1.406988
-0.91938198 0.36096781 1.1490422
-0.90784633 0.35297585 1.036993
-0.88819492 0.34480959 0.85063797
-0.87926286 0.34082285 0.70287549
-0.86057228 0.33323979 0.56962395
-0.86118031 0.3331379 0.46138445
-0.83258533 0.32174951 0.35230598
-0.83403045 0.32197896 0.26120901
-0.82686436 0.31888902 0.17250884
-0.90759039 0.35434151 0.94892353
-0.87989777 0.34300804 0.7711969
-0.86933541 0.33854872 0.6338371
-0.86818701 0.33758628 0.5180766
-0.8456592 0.32849419 0.40489322
-0.8203215 0.31832984 0.30294251
-0.8216995 0.31870514 0.21513902
-0.82430816 0.31939426 0.12933637
-0.06909097 0.07062903 9.9038954
-1.3719143 0.57597727 9.4591026
-1.2288792 0.5066756 6.4140081
-1.0847293 0.43869793 3.7877855
-1.0111883 0.40489727 2.6256583
-0.98387653 0.39160359 2.0079086
-0.95282531 0.37772503 1.5779986
-0.92584336 0.36592367 1.2685463
-0.51225889 0.26931134 9.84797
-0.95571172 0.45728502 9.838418
-1.1419543 0.46761715 4.7885118
-1.0520576 0.42508385 3.1398752
-0.99570864 0.39912197 2.2818599
-0.9680627 0.38630012 1.775048
-0.93768787 0.37287036 1.410978
-0.91811633 0.36417484 1.1490422
-0.9099279 0.35744679 1.0404975
-0.88698584 0.34790787 0.85063797
-0.87806779 0.34388998 0.70287549
-0.86352903 0.33785588 0.57194275
-0.86001217 0.33614194 0.46138445
-0.83145714 0.32465383 0.35230598
-0.83290148 0.32488832 0.26120901
-0.82574618 0.32177338 0.17250884
-0.90634799 0.35750741 0.94892353
-0.87869507 0.34607738 0.7711969
-0.87215972 0.34315974 0.63637024
-0.86700332 0.34061477 0.5180766
-0.84890306 0.3331694 0.40653673
-0.82373053 0.32296568 0.30411482
-0.82058197 0.32157144 0.21513902
-0.82318825 0.32226968 0.12933637
-0.068843998 0.070869774 9.9038954
-1.3727565 0.58197653 9.4788609
-1.2299228 0.51213694 6.4286938
-1.0845731 0.44304642 3.7925575
-1.0115798 0.40915728 2.6302607
-0.98472553 0.39592922 2.0122976
-0.95411325 0.38209513 1.5821315
-0.92753708 0.37034199 1.2723838
-0.51131564 0.27109784 9.84797
-0.95458943 0.46085054 9.8433886
-1.1426378 0.47256169 4.7981901
-1.0505675 0.42875364 3.1398752
-0.99430937 0.40259522 2.2818599
-0.96912718 0.39065224 1.7793139
-0.93638062 0.37614125 1.410978
-0.91683948 0.36737743 1.1490422
-0.9086746 0.36062086 1.0404975
-0.88938457 0.35243601 0.85377645
-0.87686205 0.34695292 0.70287549
-0.86234438 0.34086812 0.57194275
-0.85883361 0.33914191 0.46138445
-0.83031881 0.32755417 0.35230598
-0.8363325 0.32959485 0.26214162
-0.82461798 0.3246538 0.17250884
-0.90856296 0.36205134 0.95224905
-0.88123721 0.35063699 0.77414006
-0.8709566 0.34620205 0.63637024
-0.87002742 0.34531352 0.52017462
-0.85212451 0.33787122 0.40818024
-0.82259816 0.32583907 0.30411482
-0.82405883 0.32625684 0.21582969
-0.82205826 0.32514119 0.12933637
-0.068596207 0.071109653 9.9038954
-1.3728592 0.58768266 9.4936771
-1.2309431 0.51761174 6.4433794
-1.0857795 0.44796866 3.8021016
-1.0119538 0.413425 2.6348634
-0.98555642 0.4002656 2.0166867
-0.95538229 0.38647881 1.5862645
-0.92623866 0.37357745 1.2723838
-0.5103662 0.272881 9.84797
-0.95297492 0.46417984 9.8433886
-1.1433009 0.47751671 4.8078694
-1.0506598 0.43307605 3.1445682
-0.99491286 0.40688786 2.2863612
-0.97017306 0.39501652 1.7835798
-0.93785399 0.3805407 1.414968
-0.91869396 0.37184775 1.1527174
-0.91072035 0.36511779 1.0440021
-0.88814884 0.35553843 0.85377645
-0.87564564 0.35001162 0.70287549
-0.86526322 0.3455191 0.57426155
-0.85333866 0.34041986 0.4595114
-0.83362657 0.33222657 0.35371602
-0.83974063 0.33432928 0.26307425
-0.82347971 0.32753026 0.17250884
-0.90729368 0.36522061 0.95224905
-0.88000792 0.35371098 0.77414006
-0.87374312 0.35084662 0.63890344
-0.86881679 0.34834838 0.52017462
-0.85532349 0.3425996 0.40982375
-0.82596844 0.33051437 0.30528715
-0.82291496 0.32913134 0.21582969
-0.82555765 0.32986242 0.12953791
-0.068347566 0.071348667 9.9038954
-1.3736521 0.59370512 9.5134354
-1.2328773 0.52349806 6.4629602
-1.085587 0.45233038 3.8068733
-1.0123104 0.41770026 2.6394658
-0.98415321 0.40370342 2.0166867
-0.95402741 0.38981137 1.5862645
-0.92789727 0.37801784 1.2762213
-0.5096643 0.27479863 9.8529625
-0.95087075 0.46726796 9.838418
-1.1439433 0.48248211 4.8175483
-1.0507346 0.43740433 3.1492608
-0.99549854 0.41118962 2.2908626
-0.97120029 0.39939281 1.7878458
-0.93930811 0.38495505 1.4189581
-0.91739035 0.3750523 1.1527174
-0.91274571 0.36963344 1.0475066
