# .PCD v0.7 - Point Cloud Data file format
VERSION 0.7
FIELDS x y z
SIZE 4 4 4
TYPE F F F
COUNT 1 1 1
WIDTH 1434
HEIGHT 1
VIEWPOINT 0 0 0 1 0 0 0
POINTS 1434
DATA ascii
-0.49729219 -1.2186999 1.0419677
-0.92175287 -2.2610445 1.5204496
-0.90560085 -2.2247367 1.1978456
-0.8914122 -2.1920519 0.91273755
-0.87086946 -2.1436608 0.64877617
-0.85137385 -2.0967085 0.40783876
-0.83747816 -2.0645344 0.1835482
-0.49817908 -1.136433 7.8884192
-0.64441931 -1.4956678 7.8532047
-0.33413449 -0.79038107 2.790441
-0.44564116 -1.0641673 2.7775416
-1.1822976 -2.8391988 5.7035131
-0.30638549 -0.73883426 1.2473627
-0.30569354 -0.73930573 1.0344586
-0.22878608 -0.41967469 8.1058817
-0.37795341 -0.75954849 7.8697019
-0.30045283 -0.70231241 2.9785671
-0.39050132 -0.92444539 2.7832251
-1.1210222 -2.6736741 6.0583787
-0.30499998 -0.73083174 1.3655185
-0.30421337 -0.73140639 1.1236962
-0.33046803 -0.79642886 1.0130612
-0.3635585 -0.88441092 1.0194702
-0.43718624 -1.0650468 1.0106993
-0.92701167 -2.2615209 1.6870618
-0.90872967 -2.2191091 1.3417844
-0.89728886 -2.1933343 1.0457706
-0.87849933 -2.1495268 0.77249575
-0.86341745 -2.1147189 0.52514052
-0.8425284 -2.0655973 0.29322016
-0.40019235 -0.96964669 1.0154335
-0.49692231 -1.2057455 1.0331382
-0.92143327 -2.2378831 1.5077838
-0.90645766 -2.2047715 1.1894534
-0.89008772 -2.1670866 0.90451998
-0.86912107 -2.1181238 0.64291459
-0.8511712 -2.0753973 0.40507603
-0.83710313 -2.0431066 0.18274207
-0.50182825 -1.1339767 7.8834796
-0.64963627 -1.4934093 7.8532047
-0.33689138 -0.78920996 2.790441
-0.44935307 -1.0626053 2.7775416
-1.1773454 -2.7997317 5.6332879
-0.30896261 -0.73776025 1.2473627
-0.30827236 -0.73823422 1.0344586
-0.23024963 -0.41887352 8.1058817
-0.38060242 -0.75822455 7.8697019
-0.30290252 -0.70125937 2.9785671
-0.39372587 -0.92307663 2.7832251
-1.1294994 -2.6677401 6.0538774
-0.30856234 -0.73216581 1.3697844
-0.30793181 -0.733118 1.1276863
-0.33324605 -0.79527038 1.0130612
-0.36664349 -0.88313645 1.0194702
-0.44090131 -1.0635144 1.0106993
-0.92530322 -2.2350907 1.6706131
-0.90969795 -2.1995494 1.332509
-0.89785814 -2.1730506 1.0382786
-0.88050616 -2.1331449 0.76826566
-0.86517572 -2.0980682 0.52234262
-0.84214592 -2.0442255 0.29143184
-0.40357462 -0.9682439 1.0154335
-0.49025482 -1.1778822 1.012536
-0.92096305 -2.214751 1.4951179
-0.90544599 -2.1806364 1.1789632
-0.89040929 -2.1465192 0.89794594
-0.86906594 -2.0971162 0.63822532
-0.8508302 -2.0541129 0.40231332
-0.83849913 -2.0263233 0.18213749
-0.50578356 -1.1322181 7.8834796
-0.6548453 -1.4911325 7.8532047
-0.33964422 -0.78802919 2.790441
-0.45382693 -1.0628269 2.7821441
-1.1740044 -2.7647426 5.5718408
-0.31263235 -0.73926896 1.2514956
-0.31209311 -0.74010688 1.0382961
-0.23185121 -0.41831926 8.1108732
-0.38324678 -0.75689143 7.8697019
-0.30585134 -0.70134974 2.9834063
-0.39694563 -0.92169666 2.7832251
-1.1379489 -2.6617794 6.049376
-0.31213772 -0.73348391 1.3740503
-0.310489 -0.73203868 1.1276863
-0.33602005 -0.79410231 1.0130612
-0.36972398 -0.88185126 1.0194702
-0.44461098 -1.0619688 1.0106993
-0.92503464 -2.2125578 1.6569057
-0.9088335 -2.1759229 1.3209151
-0.89651155 -2.1485114 1.0289134
-0.88056368 -2.1123474 0.76262552
-0.86682844 -2.0814314 0.51954478
-0.84353757 -2.0274799 0.29009062
-0.40695199 -0.96682918 1.0154335
-0.49279711 -1.1724375 1.0095929
-0.92034292 -2.1916502 1.482452
-0.90603185 -2.1607208 1.170571
-0.88877362 -2.1216209 0.88972837
-0.86887485 -2.0761347 0.63353604
-0.8503511 -2.0328565 0.39955059
-0.83786172 -2.0049455 0.18133135
-0.5099299 -1.1303567 7.8834796
-0.66030616 -1.4887223 7.8532047
-0.34312633 -0.78814739 2.7952127
-0.45771936 -1.0611563 2.7821441
-1.169966 -2.727406 5.5060048
-0.31533983 -0.73811817 1.2514956
-0.3148036 -0.73895806 1.0382961
-0.23359755 -0.41767737 8.1158657
-0.38615021 -0.75541425 7.8697019
-0.30904934 -0.70132029 2.988246
-0.40048173 -0.92016572 2.7832251
-1.1507516 -2.6633854 6.0628796
-0.31598258 -0.73467571 1.3783162
-0.31329754 -0.7308411 1.1276863
-0.33906668 -0.79280627 1.0130612
-0.37295362 -0.88049024 1.0194702
-0.44850031 -1.0603321 1.0106993
-0.92337531 -2.1860414 1.6404569
-0.90991336 -2.1562521 1.31164
-0.89717633 -2.1281238 1.0214212
-0.88085181 -2.0914218 0.75698537
-0.86719042 -2.059978 0.5158143
-0.84359378 -2.0058637 0.2883023
-0.41049287 -0.9653312 1.0154335
-0.497091 -1.1706235 1.0095929
-0.9199512 -2.1684203 1.4697862
-0.90723717 -2.1405113 1.1621786
-0.8895483 -2.1007991 0.88315433
-0.86926526 -2.0548768 0.62884676
-0.85043627 -2.0113323 0.39678788
-0.83972192 -1.9879071 0.18072677
-0.51374716 -1.1277732 7.8785405
-0.66575813 -1.4862922 7.8532047
-0.34615007 -0.78682411 2.7952127
-0.46179053 -1.0593909 2.7821441
-1.1661394 -2.6899333 5.4401684
-0.31830028 -0.73684639 1.2514956
-0.31903577 -0.740632 1.0421336
-0.23534505 -0.41669524 8.1158657
-0.38931108 -0.75379014 7.8697019
-0.3119843 -0.7000196 2.988246
-0.40449288 -0.91840959 2.7832251
-1.1641062 -2.6623282 6.0718822
-0.3191852 -0.73328996 1.3783162
-0.31781083 -0.73217583 1.1316763
-0.34266081 -0.79125947 1.0130612
-0.37602484 -0.87918305 1.0194702
-0.45238361 -1.0586811 1.0106993
-0.92317528 -2.1634128 1.6267495
-0.90912396 -2.1325281 1.300046
-0.89625436 -2.103339 1.0120561
-0.88135982 -2.0703692 0.75134528
-0.86932379 -2.0430727 0.5130164
-0.84579194 -1.9887131 0.28696108
-0.41305712 -0.96017343 1.0121081
-0.50059783 -1.16473 1.0066497
-0.92089909 -2.1445806 1.4571203
-0.90941066 -2.1198487 1.1537864
-0.88976711 -2.0750411 0.87493682
-0.87283897 -2.0375073 0.62532979
-0.85175753 -1.989243 0.39402512
-0.84121758 -1.965556 0.17992064
-0.5194487 -1.1251583 7.8785405
-0.67327237 -1.4829035 7.8532047
-0.35012811 -0.78506202 2.7952127
-0.46714661 -1.0570401 2.7821441
-1.1652821 -2.651109 5.374332
-0.32202572 -0.73522592 1.2514956
-0.32278034 -0.73900777 1.0421336
-0.23745111 -0.41549873 8.1158657
-0.39312136 -0.75181001 7.8697019
-0.31604126 -0.69957685 2.9930851
-0.40913621 -0.91635042 2.7832251
-1.1819781 -2.6663527 6.0943885
-0.32394588 -0.73405087 1.3825821
-0.32151261 -0.73055786 1.1316763
-0.34666133 -0.78951496 1.0130612
-0.38046995 -0.87726849 1.0194702
-0.45773625 -1.0563778 1.0106993
-0.92581034 -2.1395252 1.6130422
-0.91287446 -2.111635 1.2907708
-0.89953309 -2.0817533 1.0045639
-0.88422239 -2.0482652 0.74570513
-0.87186891 -2.0206056 0.50928593
-0.84795809 -1.9661155 0.28517276
-0.41791171 -0.95807052 1.0121081
-0.50648665 -1.1621813 1.0066497
-0.92313689 -2.1201301 1.4444543
-0.91107631 -2.0944099 1.1432962
-0.89272666 -2.053189 0.86836278
-0.87733072 -2.0196891 0.62181288
-0.85589826 -1.9712794 0.39195311
-0.84518844 -1.9475241 0.17931604
-0.52317697 -1.1234297 7.8785405
-0.67818618 -1.4806627 7.8532047
-0.35198012 -0.78259701 2.790441
-0.46966958 -1.0537831 2.7775416
-1.1600155 -2.6167829 5.3128848
-0.32420573 -0.73426718 1.2514956
-0.32497159 -0.73804677 1.0421336
-0.23853806 -0.41487566 8.1158657
-0.39508826 -0.7507782 7.8697019
-0.31787166 -0.6987471 2.9930851
-0.41137403 -0.91534805 2.7832251
-1.1867154 -2.6594806 6.0853858
-0.32573852 -0.73325711 1.3825821
-0.32316938 -0.72982645 1.1316763
-0.34845182 -0.78872639 1.0130612
-0.3835299 -0.87593508 1.0194702
-0.4612368 -1.054854 1.0106993
-0.92620665 -2.1211152 1.6020764
-0.91278654 -2.092355 1.2814956
-0.89865959 -2.0619178 0.9970718
-0.88299227 -2.0278842 0.74006504
-0.87002218 -1.9999918 0.50555545
-0.84749025 -1.950038 0.28383151
-0.42058548 -0.9568997 1.0121081
-0.5095275 -1.1608512 1.0066497
-0.92002743 -2.0979667 1.4317884
-0.90890872 -2.0755479 1.134904
-0.88981175 -2.0338533 0.86178875
-0.87607074 -2.0043318 0.61829591
-0.85243857 -1.9511807 0.38919038
-0.8412714 -1.9274344 0.17850992
-0.52676463 -1.1208935 7.8736014
-0.68335056 -1.4782864 7.8532047
-0.35470977 -0.78136367 2.790441
-0.4733451 -1.0521371 2.7775416
-1.1554462 -2.582113 5.2514381
-0.32791275 -0.73570114 1.2556286
-0.32754588 -0.73690796 1.0421336
-0.23983914 -0.41379121 8.1108732
-0.39770657 -0.74939454 7.8697019
-0.3203088 -0.69763321 2.9930851
-0.41385353 -0.9123351 2.7785323
-1.1915208 -2.6453977 6.0628796
-0.3282961 -0.73211563 1.3825821
-0.32571498 -0.72869396 1.1316763
-0.35120288 -0.78750527 1.0130612
-0.38658512 -0.87459099 1.0194702
-0.46491614 -1.0532377 1.0106993
-0.92517143 -2.0987387 1.588369
-0.91115707 -2.0688858 1.2699015
-0.89838314 -2.041795 0.98957968
-0.88427413 -2.0116153 0.7358349
-0.86909705 -1.9789522 0.50182498
-0.84628838 -1.9288265 0.28204319
-0.42392313 -0.95542574 1.0121081
-0.51357651 -1.1590656 1.0066497
-0.91687441 -2.0710917 1.4165894
-0.90880764 -2.055759 1.1265118
-0.8892743 -2.0134563 0.85521472
-0.87521279 -1.9834738 0.61360663
-0.85324907 -1.9346002 0.38711834
-0.83993626 -1.906199 0.1777038
-0.53067404 -1.1190479 7.8736014
-0.68807596 -1.4749694 7.8483095
-0.35743508 -0.78012073 2.790441
-0.47701487 -1.0504785 2.7775416
-1.1506488 -2.547507 5.189991
-0.33047882 -0.73455197 1.2556286
-0.33142856 -0.73868436 1.045971
-0.24128208 -0.4129515 8.1108732
-0.40031999 -0.74800175 7.8697019
-0.32327089 -0.69765121 2.9979248
-0.41703567 -0.91088492 2.7785323
-1.1926385 -2.6233871 6.0223689
-0.33084968 -0.73096526 1.3825821
-0.32949612 -0.73029912 1.1356663
-0.35394964 -0.78627449 1.0130612
-0.38963568 -0.87323624 1.0194702
-0.46858978 -1.0516084 1.0106993
-0.92569143 -2.0802155 1.5774032
-0.91117471 -2.0495017 1.2606263
-0.89609534 -2.017463 0.98021454
-0.88350749 -1.9909775 0.73019475
-0.87002671 -1.9624342 0.49902713
-0.84696579 -1.9122007 0.28070197
-0.4272556 -0.95394015 1.0121081
-0.5159688 -1.1535761 1.0037066
-0.91530412 -2.0482006 1.4039235
-0.90673006 -2.0318513 1.1160215
-0.8886053 -1.9930881 0.84864062
-0.87619787 -1.9670868 0.61008972
-0.85395437 -1.9180384 0.3850463
-0.84049392 -1.8895615 0.17709921
-0.53424138 -1.1164879 7.8686624
-0.69322032 -1.4725586 7.8483095
-0.36015603 -0.77886826 2.790441
-0.48067883 -1.0488069 2.7775416
-1.146618 -2.5151455 5.1329327
-0.3342047 -0.73595607 1.2597616
-0.334005 -0.73752296 1.045971
-0.24272208 -0.41210675 8.1108732
-0.40292856 -0.74659979 7.8697019
-0.32570419 -0.69651854 2.9979248
-0.42021269 -0.90942365 2.7785323
-1.1972488 -2.6093152 5.9998627
-0.33448324 -0.73217797 1.3868481
-0.33204335 -0.72914445 1.1356663
-0.35669208 -0.78503424 1.0130612
-0.39268145 -0.87187082 1.0194702
-0.47225773 -1.0499663 1.0106993
-0.92438012 -2.0579002 1.5636958
-0.91106826 -2.0301428 1.2513511
-0.89554548 -1.9974021 0.97272241
-0.88456869 -1.9747477 0.72596473
-0.86884522 -1.9414504 0.49529666
-0.8455047 -1.8910477 0.27891365
-0.43058288 -0.952443 1.0121081
-0.51999235 -1.1517681 1.0037066
-0.91535777 -2.0292752 1.3937908
-0.90636081 -2.0121217 1.1076293
-0.88780516 -1.9727496 0.84206659
-0.87508589 -1.9462837 0.60540044
-0.85455447 -1.9014953 0.38297427
-0.83889902 -1.8683854 0.17629308
-0.53779733 -1.1139166 7.8637228
-0.69835633 -1.4701298 7.8483095
-0.36287257 -0.77760637 2.790441
-0.48433691 -1.0471226 2.7775416
-1.1423752 -2.4828436 5.0758748
-0.33677164 -0.73478496 1.2597616
-0.33657742 -0.73635256 1.045971
-0.24415913 -0.41125697 8.1108732
-0.40553224 -0.74518871 7.8697019
-0.32867026 -0.69651395 3.002764
-0.42338461 -0.90795124 2.7785323
-1.199031 -2.5893171 5.9638529
-0.33703697 -0.73100591 1.3868481
-0.33584517 -0.73071879 1.1396563
-0.35943019 -0.78378433 1.0130612
-0.39572245 -0.87049484 1.0194702
-0.47591993 -1.0483115 1.0106993
-0.92465109 -2.0394278 1.55273
-0.91083771 -2.0108099 1.2420759
-0.89486653 -1.9773698 0.96523029
-0.88355112 -1.954164 0.72032458
-0.86752784 -1.920499 0.49156618
-0.8459549 -1.8744674 0.27757239
-0.43390492 -0.95093417 1.0121081
-0.52400964 -1.1499459 1.0037066
-0.91529047 -2.0103743 1.3836579
-0.90586489 -1.9924196 1.0992371
-0.88687396 -1.9524411 0.83549255
-0.87383938 -1.9255124 0.60071111
-0.85300386 -1.8804617 0.38021153
-0.83922911 -1.8517946 0.17568849
-0.54168236 -1.1120325 7.8637228
-0.70304352 -1.466765 7.8434148
-0.36558473 -0.77633494 2.790441
-0.48798907 -1.0454257 2.7775416
-1.13893 -2.4527748 5.0232058
-0.33933446 -0.73360491 1.2597616
-0.34048864 -0.73808354 1.0498086
-0.24559321 -0.41040218 8.1108732
-0.40813094 -0.74376863 7.8697019
-0.3316403 -0.6964972 3.0076036
-0.42655137 -0.90646785 2.7785323
-1.1933143 -2.5535612 5.8918338
-0.34068713 -0.73218942 1.391114
-0.33839381 -0.72954196 1.1396563
-0.36216393 -0.78252494 1.0130612
-0.39875865 -0.86910814 1.0194702
-0.47795478 -1.0431052 1.0075608
-0.92306441 -2.0171769 1.5390227
-0.91048348 -1.9915032 1.2328007
-0.89405876 -1.9573668 0.95773816
-0.8843922 -1.9379755 0.71609443
-0.86607504 -1.8995808 0.48783568
-0.84629977 -1.8579071 0.27623117
-0.43722165 -0.94941372 1.0121081
-0.5280205 -1.1481098 1.0037066
-0.91510254 -1.9914989 1.3735253
-0.90334976 -1.9686205 1.0887468
-0.88777995 -1.936456 0.83056211
-0.87448299 -1.9091933 0.59719419
-0.85337836 -1.863965 0.37813953
-0.83945352 -1.8352242 0.17508389
-0.54521787 -1.1094377 7.8587832
-0.70771569 -1.4633855 7.8385196
-0.36829242 -0.7750541 2.790441
-0.49163532 -1.0437158 2.7775416
-1.1352888 -2.4227605 4.9705367
-0.34189314 -0.73241597 1.2597616
-0.34306294 -0.73689049 1.0498086
-0.24717425 -0.40978909 8.1158657
-0.41098341 -0.7428056 7.8746734
-0.33461422 -0.69646811 3.0124428
-0.42971292 -0.90497333 2.7785323
-1.1920058 -2.5277216 5.84232
-0.34324086 -0.73099577 1.391114
-0.34221607 -0.7310853 1.1436464
-0.36489323 -0.78125596 1.0130612
-0.40029129 -0.86447489 1.0159656
-0.48159298 -1.0414306 1.0075608
-0.92308718 -1.998758 1.5280569
-0.91000569 -1.9722241 1.2235255
-0.89312214 -1.9373934 0.95024598
-0.88312435 -1.917448 0.71045434
-0.86654019 -1.8831587 0.48503786
-0.84653938 -1.8413677 0.27488995
-0.44053304 -0.94788182 1.0121081
-0.53202492 -1.1462597 1.0037066
-0.91479397 -1.9726495 1.3633926
-0.90258682 -1.9489821 1.0803547
-0.88660216 -1.9162025 0.82398808
-0.87298363 -1.888481 0.59250492
-0.85364813 -1.8474885 0.37606746
-0.84166664 -1.823211 0.17468084
-0.54908723 -1.1075279 7.8587832
-0.71192616 -1.459076 7.8287287
-0.37099561 -0.77376384 2.790441
-0.49527559 -1.0419934 2.7775416
-1.1314522 -2.3928018 4.9178681
-0.34444767 -0.7312181 1.2597616
-0.34563309 -0.73568851 1.0498086
-0.24875402 -0.40916997 8.1208572
-0.4135738 -0.74136645 7.8746734
-0.33759195 -0.69642681 3.0172825
-0.43286929 -0.90346789 2.7785323
-1.1858542 -2.4920943 5.7703009
-0.34579045 -0.72979319 1.391114
-0.34476593 -0.72988629 1.1436464
-0.36761808 -0.7799775 1.0130612
-0.40330642 -0.8630724 1.0159656
-0.48522532 -1.0397432 1.0075608
-0.92299247 -1.9803637 1.5170909
-0.90940446 -1.9529725 1.2142503
-0.89401287 -1.9216543 0.94462693
-0.88172406 -1.8969535 0.7048142
-0.86690128 -1.8667566 0.48223996
-0.8487699 -1.8293666 0.27399579
-0.44383907 -0.94633824 1.0121081
-0.53773749 -1.1480559 1.0066497
-0.91619247 -1.9577312 1.3557931
-0.90169799 -1.9293734 1.0719625
-0.88729173 -1.90026 0.81905752
-0.87135059 -1.867803 0.58781564
-0.85381329 -1.8310331 0.37399539
-0.84169626 -1.8066759 0.17407624
-0.55294985 -1.1056044 7.8587832
-0.71656513 -1.4556687 7.8238339
-0.3736943 -0.77246404 2.790441
-0.4989098 -1.0402582 2.7775416
-1.126389 -2.3607383 4.8608098
-0.34820634 -0.73255265 1.2638944
-0.34957236 -0.73737371 1.0536461
-0.25018078 -0.40829915 8.1208572
-0.41615909 -0.73991829 7.8746734
-0.34112605 -0.69750202 3.0269613
-0.43602031 -0.90195137 2.7785323
-1.1794685 -2.4565411 5.6982813
-0.34833577 -0.72858173 1.391114
-0.34860837 -0.73139828 1.1476364
-0.36888218 -0.77562809 1.0093859
-0.40631664 -0.86165935 1.0159656
-0.48885176 -1.038043 1.0075608
-0.92278081 -1.9619946 1.5061251
-0.90867996 -1.9337493 1.2049751
-0.89283448 -1.9017363 0.9371348
-0.88019156 -1.8764921 0.69917405
-0.86715859 -1.8503751 0.47944215
-0.84881532 -1.8128626 0.27265453
-0.44713974 -0.94478321 1.0121081
-0.54174167 -1.1461718 1.0066497
-0.9156571 -1.9389293 1.3456604
-0.90068328 -1.9097944 1.0635703
-0.88586813 -1.8800644 0.81248349
-0.87165415 -1.8515569 0.58429867
-0.85387421 -1.8145994 0.37192339
-0.84162086 -1.7901634 0.17347164
-0.55680579 -1.1036675 7.8587832
-0.72073591 -1.4513348 7.814043
-0.3763884 -0.77115494 2.790441
-0.50253797 -1.0385103 2.7775416
-1.1190379 -2.3244236 4.7949739
-0.35076132 -0.73133272 1.2638944
-0.35214412 -0.73614895 1.0536461
-0.25160447 -0.40742338 8.1208572
-0.41873938 -0.73846114 7.8746734
-0.34411526 -0.69743407 3.0318005
-0.43916607 -0.90042388 2.7785323
-1.1728495 -2.4210634 5.6262622
-0.35201031 -0.72971016 1.3953799
-0.35115933 -0.73017699 1.1476364
-0.37158737 -0.77433568 1.0093859
-0.40932193 -0.86023575 1.0159656
-0.4924722 -1.0363303 1.0075608
-0.92245221 -1.9436513 1.4951591
-0.90783244 -1.9145554 1.1956999
-0.89351273 -1.8860395 0.93151569
-0.87852699 -1.8560646 0.69353396
-0.86731207 -1.8340147 0.47664425
-0.84875584 -1.7963805 0.27131331
-0.45043492 -0.94321668 1.0121081
-0.54573929 -1.1442739 1.0066497
-0.91314715 -1.9162638 1.3329945
-0.90149331 -1.8943444 1.057276
-0.88431442 -1.8599021 0.80590945
-0.86976928 -1.8309413 0.57960939
-0.85383075 -1.7981877 0.36985135
-0.8414405 -1.7736734 0.17286706
-0.56065488 -1.1017171 7.8587832
-0.72488517 -1.4469897 7.8042531
-0.37907797 -0.76983637 2.790441
-0.50615996 -1.0367498 2.7775416
-1.1177261 -2.3011148 4.7554722
-0.35453811 -0.73263675 1.2680274
-0.35471162 -0.73491526 1.0536461
-0.25302511 -0.40654263 8.1208572
-0.42131454 -0.73699498 7.8746734
-0.34710813 -0.69735378 3.0366402
-0.44230646 -0.89888543 2.7785323
-1.1640851 -2.3817501 5.5452399
-0.35455534 -0.72847694 1.3953799
-0.35370597 -0.72894675 1.1476364
-0.37428805 -0.77303386 1.0093859
-0.41232222 -0.85880178 1.0159656
-0.49608669 -1.0346049 1.0075608
-0.92200685 -1.9253343 1.4841932
-0.90877402 -1.8993869 1.1887435
-0.89209288 -1.8661788 0.92402357
-0.87879819 -1.8400007 0.68930382
-0.86736202 -1.8176758 0.47384638
-0.8464486 -1.775426 0.26952499
-0.45372459 -0.94163859 1.0121081
-0.54797733 -1.1387197 1.0037066
-0.9123584 -1.8975246 1.3228618
-0.90024185 -1.8748211 1.0488838
-0.88263094 -1.8397739 0.79933542
-0.86985236 -1.8147448 0.57609248
-0.85368329 -1.7817984 0.36777928
-0.84115535 -1.7572067 0.17226246
-0.56449717 -1.0997534 7.8587832
-0.72947228 -1.4435419 7.7993574
-0.38176286 -0.76850843 2.790441
-0.50977582 -1.0349766 2.7775416
-1.1141576 -2.2735429 4.7071924
-0.3570933 -0.73139471 1.2680274
-0.35867837 -0.73655421 1.0574836
-0.25428841 -0.40541288 8.1158657
-0.42388457 -0.73551977 7.8746734
-0.34954023 -0.69613791 3.0366402
-0.44544145 -0.89733601 2.7785323
-1.1666149 -2.3659577 5.5182328
-0.35709602 -0.7272349 1.3953799
-0.35624832 -0.72770762 1.1476364
-0.37698418 -0.77172267 1.0093859
-0.41531748 -0.8573572 1.0159656
-0.49969509 -1.032867 1.0075608
-0.92144495 -1.9070445 1.4732274
-0.90769506 -1.8802463 1.1794683
-0.89255947 -1.8505267 0.91840452
-0.87896806 -1.8239579 0.68507373
-0.86730862 -1.8013594 0.47104853
-0.84616441 -1.7589974 0.26818374
-0.45700878 -0.94004905 1.0121081
-0.5519489 -1.1367999 1.0037066
-0.91144997 -1.8788146 1.312729
-0.89886522 -1.8553295 1.0404916
-0.88287514 -1.8239305 0.79440486
-0.86983287 -1.7985702 0.57257551
-0.85343182 -1.7654324 0.36570725
-0.84076554 -1.7407637 0.17165788
-0.56833255 -1.0977762 7.8587832
-0.73450673 -1.4409868 7.7993574
-0.38444316 -0.7671712 2.790441
-0.51251584 -1.0314415 2.772939
-1.1157176 -2.2567585 4.6808577
-0.36088791 -0.73266798 1.2721604
-0.36124724 -0.73529768 1.0574836
-0.25570202 -0.40452278 8.1158657
-0.42644945 -0.73403573 7.8746734
-0.35253635 -0.69603467 3.0414793
-0.44779807 -0.89423281 2.7738397
-1.1632308 -2.3384821 5.4642181
-0.36079037 -0.72832084 1.3996458
-0.36012092 -0.72916126 1.1516263
-0.37967569 -0.77040207 1.0093859
-0.41830769 -0.85590225 1.0159656
-0.50158995 -1.0276186 1.0044224
-0.92076683 -1.8887824 1.4622616
-0.90843338 -1.8651189 1.1725119
-0.89292783 -1.8348944 0.91278535
-0.87903655 -1.8079358 0.68084365
-0.8671518 -1.7850654 0.46825066
-0.84577584 -1.7425925 0.26684251
-0.46028736 -0.93844807 1.0121081
-0.55591369 -1.1348664 1.0037066
-0.91231728 -1.8640057 1.3051294
-0.89935678 -1.8399483 1.0341976
-0.88094723 -1.8038647 0.78783083
-0.8697111 -1.7824178 0.56905854
-0.85307658 -1.7490898 0.36363521
-0.84027135 -1.7243451 0.17105328
-0.57216108 -1.0957857 7.8587832
-0.73953223 -1.4384141 7.7993574
-0.38644499 -0.76449251 2.7856688
-0.5161131 -1.0296462 2.772939
-1.1139672 -2.2335615 4.641356
-0.3634432 -0.73140383 1.2721604
-0.3638117 -0.73403221 1.0574836
-0.2571125 -0.40362778 8.1158657
-0.4287391 -0.73208296 7.8697019
-0.35496384 -0.69479984 3.0414793
-0.4509168 -0.89266425 2.7738397
-1.161622 -2.3149509 5.4192061
-0.36333051 -0.72705704 1.3996458
-0.36266398 -0.72789973 1.1516263
-0.38236254 -0.76907206 1.0093859
-0.42129278 -0.85443687 1.0159656
-0.50517392 -1.0258615 1.0044224
-0.91997236 -1.8705481 1.4512957
-0.90712351 -1.8460336 1.1632369
-0.89115471 -1.8151207 0.90529323
-0.87900406 -1.7919362 0.67661357
-0.8668921 -1.7687948 0.46545282
-0.84528315 -1.726212 0.26550126
-0.46521643 -0.94018209 1.0154335
-0.55987173 -1.132919 1.0037066
-0.91118377 -1.845349 1.2949967
-0.8997519 -1.8245864 1.0279033
-0.88097739 -1.788071 0.78290033
-0.8694874 -1.7662888 0.56554163
-0.8526178 -1.7327716 0.36156318
-0.83967286 -1.7079513 0.17044869
-0.57562035 -1.0930945 7.8538446
-0.74454874 -1.4358238 7.7993574
-0.38911122 -0.76313889 2.7856688
-0.5197041 -1.0278382 2.772939
-1.1120685 -2.2104046 4.6018543
-0.36599407 -0.73013073 1.2721604
-0.36637175 -0.73275781 1.0574836
-0.25851986 -0.40272781 8.1158657
-0.43129191 -0.73058194 7.8697019
-0.35738698 -0.69355655 3.0414793
-0.45403004 -0.89108485 2.7738397
-1.1569136 -2.2856326 5.3606901
-0.36704049 -0.72811306 1.4039118
-0.36520261 -0.72662938 1.1516263
-0.38504481 -0.76773268 1.0093859
-0.42427278 -0.85296106 1.0159656
-0.50875181 -1.0240918 1.0044224
-0.91906196 -1.8523427 1.4403298
-0.90765911 -1.8309493 1.1562804
-0.89131218 -1.799536 0.89967412
-0.87887061 -1.7759588 0.67238343
-0.86652923 -1.7525477 0.46265495
-0.84689218 -1.7143213 0.2646071
-0.46849546 -0.93855244 1.0154335
-0.56382298 -1.1309577 1.0037066
-0.91185337 -1.8305815 1.2873973
-0.90005094 -1.8092443 1.0216092
-0.88090789 -1.7722992 0.77796978
-0.86916173 -1.7501829 0.56202465
-0.85205555 -1.7164781 0.35949114
-0.84118992 -1.6960584 0.17004563
-0.57943243 -1.0910784 7.8538446
-0.74955618 -1.4332161 7.7993574
-0.39177269 -0.76177603 2.7856688
-0.52328879 -1.0260179 2.772939
-1.1100221 -2.1872883 4.5623522
-0.36981055 -0.73135984 1.2762933
-0.37037098 -0.73433614 1.0613211
-0.2597664 -0.40158111 8.1108732
-0.43383947 -0.72907197 7.8697019
-0.36038581 -0.69341999 3.046319
-0.45792678 -0.89102918 2.7785323
-1.1539949 -2.2602537 5.3111773
-0.36957982 -0.72682738 1.4039118
-0.36909962 -0.7280376 1.1556164
-0.38772234 -0.76638395 1.0093859
-0.42724758 -0.85147494 1.0159656
-0.51232344 -1.0223098 1.0044224
-0.91803581 -1.8341668 1.429364
-0.90611923 -1.8119221 1.1470052
-0.89137185 -1.7839729 0.89405507
-0.88077921 -1.7642963 0.66956335
-0.86606377 -1.7363251 0.45985708
-0.84620738 -1.6979831 0.26326588
-0.47176874 -0.93691134 1.0154335
-0.56595111 -1.1253717 1.0007634
-0.91243094 -1.8158318 1.2797977
-0.90025365 -1.7939223 1.0153151
-0.88285583 -1.7607709 0.77468276
-0.86873424 -1.7341008 0.55850768
-0.85139 -1.7002096 0.3574191
-0.84039891 -1.679708 0.16944103
-0.58323753 -1.0890492 7.8538446
-0.75455445 -1.430591 7.7993574
-0.39442942 -0.76040381 2.7856688
-0.52686703 -1.0241851 2.772939
-1.1067364 -2.162082 4.5184617
-0.37236124 -0.73006451 1.2762933
-0.37293205 -0.73303884 1.0613211
-0.2611666 -0.4006719 8.1108732
-0.43610704 -0.72709644 7.8647308
-0.36280409 -0.6921578 3.046319
-0.46103427 -0.88942534 2.7785323
-1.1499164 -2.2329874 5.2571621
-0.37330517 -0.72785336 1.4081777
-0.37163872 -0.72674477 1.1556164
-0.39039513 -0.76502585 1.0093859
-0.43021718 -0.84997833 1.0159656
-0.51588887 -1.0205152 1.0044224
-0.91689402 -1.8160205 1.4183981
-0.90645272 -1.7968829 1.1400487
-0.89133376 -1.7684311 0.8884359
-0.88045931 -1.7483577 0.66533327
-0.8677035 -1.7245152 0.45799184
-0.84765559 -1.6861204 0.26237172
-0.47503629 -0.93525887 1.0154335
-0.56987596 -1.1233892 1.0007634
-0.91096777 -1.7972556 1.269665
-0.90036064 -1.7786212 1.0090209
-0.88260275 -1.7450371 0.76975226
-0.86820513 -1.7180433 0.55499077
-0.85062122 -1.6839669 0.35534707
-0.83950406 -1.663384 0.16883643
-0.58703542 -1.0870067 7.8538446
-0.7595436 -1.4279484 7.7993574
-0.39708132 -0.75902236 2.7856688
-0.5304389 -1.0223397 2.772939
-1.1043873 -2.1390531 4.47896
-0.37619495 -0.73126245 1.2804263
-0.37695217 -0.73458415 1.0651586
-0.26256362 -0.39975783 8.1108732
-0.43864241 -0.72556973 7.8647308
-0.36580575 -0.69199818 3.0511582
-0.46413615 -0.88781059 2.7785323
-1.1456618 -2.2057776 5.2031479
-0.37584358 -0.72654581 1.4081777
-0.37555483 -0.72812092 1.1596065
-0.39306322 -0.76365846 1.0093859
-0.43318152 -0.84847146 1.0159656
-0.52121621 -1.0221757 1.0075608
-0.91563678 -1.7979047 1.4074323
-0.90468341 -1.7779156 1.1307735
-0.89119816 -1.7529116 0.88281685
-0.88003916 -1.7324431 0.66110319
-0.86704814 -1.7083348 0.455194
-0.84677911 -1.6698266 0.2610305
-0.47829807 -0.93359494 1.0154335
-0.57379383 -1.1213932 1.0007634
-0.91134858 -1.7825501 1.2620655
-0.89830768 -1.7592993 1.0006286
-0.88439661 -1.7335328 0.76646519
-0.86757469 -1.702011 0.5514738
-0.84974962 -1.6677504 0.35327503
-0.84077215 -1.651539 0.16843337
-0.59082621 -1.0849509 7.8538446
-0.7640419 -1.424391 7.7944622
-0.39972839 -0.75763166 2.7856688
-0.53400433 -1.0204818 2.772939
-1.1007845 -2.1139429 4.4350691
-0.37874526 -0.72994477 1.2804263
-0.37951404 -0.73326385 1.0651586
-0.26395744 -0.39883885 8.1108732
-0.44117245 -0.72403419 7.8647308
-0.36821902 -0.6907171 3.0511582
-0.46723238 -0.88618505 2.7785323
-1.143252 -2.182482 5.1581359
-0.37837741 -0.7252295 1.4081777
-0.37809414 -0.72680563 1.1596065
-0.3957265 -0.76228178 1.0093859
-0.43614063 -0.84695417 1.0159656
-0.52478111 -1.02035 1.0075608
-0.91426438 -1.7798202 1.3964664
-0.90481567 -1.762924 1.1238172
-0.8909651 -1.7374148 0.87719774
-0.87951857 -1.7165529 0.65687311
-0.86629051 -1.6921802 0.45239612
-0.84806705 -1.6579933 0.26013631
-0.48155403 -0.93191975 1.0154335
-0.57770473 -1.1193835 1.0007634
-0.90966195 -1.7640326 1.2519327
-0.89820915 -1.7440485 0.99433452
-0.88396031 -1.7178386 0.76153469
-0.86684287 -1.6860039 0.54795682
-0.85103887 -1.6559653 0.35189366
-0.83968574 -1.6352613 0.16782878
-0.59498399 -1.0835629 7.8587832
-0.76900929 -1.4217154 7.7944622
-0.40237057 -0.75623178 2.7856688
-0.5375632 -1.0186116 2.772939
-1.0992476 -2.0931251 4.3999567
-0.38259596 -0.73111135 1.2845592
-0.38207132 -0.73193467 1.0651586
-0.26534802 -0.39791507 8.1108732
-0.44369712 -0.72248977 7.8647308
-0.37122336 -0.69053453 3.0559978
-0.47113329 -0.88607228 2.7832251
-1.1417105 -2.1611545 5.1176248
-0.38090664 -0.72390425 1.4081777
-0.38062885 -0.72548133 1.1596065
-0.39838493 -0.76089579 1.0093859
-0.43909439 -0.84542656 1.0159656
-0.52833962 -1.018512 1.0075608
-0.91470051 -1.7654799 1.388242
-0.90485424 -1.7479531 1.1168607
-0.89063483 -1.7219411 0.87157869
-0.87889785 -1.7006874 0.65264297
-0.86317706 -1.6716871 0.44866565
-0.84699947 -1.6417458 0.25879508
-0.4830783 -0.92692208 1.0121081
-0.58160859 -1.1173601 1.0007634
-0.90984654 -1.7493733 1.2443333
-0.89801514 -1.7288197 0.98804033
-0.88342524 -1.7021686 0.75660414
-0.86824763 -1.674338 0.54561222
-0.84997725 -1.6397948 0.3498216
-0.84079355 -1.6234477 0.16742572
-0.59876275 -1.0814794 7.8587832
-0.77396733 -1.4190224 7.7944622
-0.40500787 -0.75482261 2.7856688
-0.54111558 -1.016729 2.772939
-1.0964577 -2.0702274 4.3604546
-0.38514566 -0.72977138 1.2845592
-0.38611731 -0.73343259 1.0689961
-0.2667354 -0.3969864 8.1108732
-0.44621637 -0.7209366 7.8647308
-0.37423092 -0.69033933 3.060837
-0.47422341 -0.8844223 2.7832251
-1.1379869 -2.1360228 5.0681114
-0.38465399 -0.72487384 1.4124436
-0.38315895 -0.72414827 1.1596065
-0.40103853 -0.7595005 1.0093859
-0.4420428 -0.84388876 1.0159656
-0.5318917 -1.0166615 1.0075608
-0.91311133 -1.7474526 1.3772761
-0.90274924 -1.7290767 1.1075855
-0.89020741 -1.7064909 0.86595953
-0.87817729 -1.6848475 0.64841288
-0.86220008 -1.6555934 0.44586781
-0.84582889 -1.6255262 0.25745386
-0.48631093 -0.92523021 1.0121081
-0.58550537 -1.1153231 1.0007634
-0.90793741 -1.7309169 1.2342005
-0.89772582 -1.7136141 0.9817462
-0.88279182 -1.6865237 0.75167364
-0.86732894 -1.6583756 0.54209524
-0.85110748 -1.6280408 0.34844026
-0.83951616 -1.6072183 0.16682112
-0.60253412 -1.0793828 7.8587832
-0.77891588 -1.4163122 7.7944622
-0.40764019 -0.75340426 2.7856688
-0.54466128 -1.0148339 2.772939
-1.09465 -2.0494878 4.3253422
-0.38901311 -0.73090655 1.2886921
-0.38867512 -0.73208034 1.0689961
-0.26795685 -0.39581442 8.1058817
-0.4487302 -0.7193746 7.8647308
-0.37784487 -0.69123435 3.0705161
-0.47730771 -0.8827616 2.7832251
-1.1402841 -2.1224492 5.0456057
-0.38718191 -0.72352672 1.4124436
-0.38710317 -0.7254647 1.1635964
-0.40368724 -0.75809598 1.0093859
-0.44498584 -0.84234053 1.0159656
-0.53543723 -1.0147986 1.0075608
-0.91335696 -1.7331572 1.3690518
-0.90258741 -1.714156 1.1006291
-0.88968307 -1.6910648 0.86034042
-0.87735689 -1.6690335 0.6441828
-0.86112136 -1.6395271 0.44306993
-0.8445555 -1.6093348 0.25611261
-0.48953763 -0.92352706 1.0121081
-0.58939505 -1.1132724 1.0007634
-0.90792644 -1.7163056 1.2266009
-0.89734137 -1.6984314 0.97545201
-0.88205987 -1.6709039 0.74674314
-0.86630946 -1.6424404 0.53857833
-0.84985644 -1.6119183 0.34636822
-0.84046435 -1.5954378 0.16641806
-0.60629821 -1.077273 7.8587832
-0.78385502 -1.4135846 7.7944622
-0.41026759 -0.75197673 2.7856688
-0.54820043 -1.0129265 2.772939
-1.092711 -2.0287859 4.2902293
-0.3915621 -0.72954416 1.2886921
-0.39122817 -0.73071915 1.0689961
-0.26933685 -0.39487666 8.1058817
-0.45123854 -0.71780384 7.8647308
-0.3808625 -0.69101185 3.0753555
-0.4795599 -0.87957507 2.7785323
-1.1310927 -2.0878313 4.9735861
-0.39094397 -0.72446579 1.4167095
-0.38963318 -0.72410905 1.1635964
-0.40472692 -0.75369561 1.0057108
-0.44792345 -0.84078217 1.0159656
-0.53897631 -1.0129235 1.0075608
-0.9135139 -1.7188812 1.3608273
-0.90233266 -1.6992581 1.0936728
-0.88906205 -1.6756636 0.85472137
-0.87643683 -1.6532459 0.63995266
-0.85994107 -1.6234884 0.44027206
-0.84550899 -1.5975739 0.25521845
-0.49275836 -0.92181259 1.0121081
-0.59327745 -1.1112083 1.0007634
-0.90782464 -1.7017158 1.2190014
-0.89686197 -1.6832726 0.96915793
-0.88122964 -1.6553099 0.74181259
-0.86747205 -1.630824 0.53623366
-0.85082823 -1.6001973 0.34498686
-0.84134054 -1.5836704 0.166015
-0.61005491 -1.07515 7.8587832
-0.78878462 -1.4108398 7.7944622
-0.41288999 -0.75054008 2.7856688
-0.55173284 -1.0110067 2.772939
-1.0906409 -2.0081227 4.2551169
-0.39410627 -0.7281729 1.2886921
-0.39377648 -0.72934908 1.0689961
-0.27054924 -0.39369676 8.1008902
-0.4537414 -0.71622437 7.8647308
-0.38388321 -0.69077677 3.080195
-0.48262724 -0.87789577 2.7785323
-1.1154112 -2.0418413 4.8745594
-0.39471731 -0.72538745 1.4209754
-0.39215842 -0.72274458 1.1635964
-0.40735537 -0.75227827 1.0057108
-0.45085558 -0.83921349 1.0159656
-0.54250878 -1.0110359 1.0075608
-0.9135825 -1.7046257 1.3526028
-0.89989358 -1.6804776 1.0843976
-0.88834435 -1.6602873 0.8491022
-0.87767899 -1.6417156 0.63713264
-0.86097395 -1.6118113 0.43840683
-0.84404582 -1.5814327 0.25387722
-0.49597305 -0.92008692 1.0121081
-0.59715271 -1.1091306 1.0007634
-0.90763199 -1.6871477 1.2114018
-0.89628762 -1.6681378 0.96286368
-0.88030148 -1.6397424 0.73688203
-0.86626643 -1.614936 0.53271675
-0.84938848 -1.5841248 0.34291482
-0.84214485 -1.5719163 0.16561194
-0.61380416 -1.073014 7.8587832
-0.79420477 -1.4089648 7.7993574
-0.41550735 -0.74909425 2.7856688
-0.55525857 -1.0090747 2.772939
-1.0895904 -1.9895997 4.2243934
-0.39799401 -0.72926271 1.2928251
-0.39785278 -0.73078495 1.0728337
-0.27192184 -0.39274997 8.1008902
-0.4565261 -0.71508497 7.8697019
-0.38690686 -0.69052881 3.0850341
-0.48568875 -0.87620568 2.7785323
-1.1193805 -2.0322154 4.8610559
-0.39850181 -0.72629148 1.4252415
-0.39467886 -0.72137129 1.1635964
-0.40997881 -0.75085175 1.0057108
-0.45378223 -0.83763456 1.0159656
-0.54603463 -1.0091361 1.0075608
-0.91356277 -1.6903907 1.3443786
-0.89943945 -1.6656328 1.0774411
-0.88753027 -1.6449364 0.84348315
-0.87657499 -1.6259744 0.6329025
-0.85960615 -1.595822 0.43560895
-0.84484059 -1.5697064 0.25298306
-0.49918175 -0.91835004 1.0121081
-0.59909201 -1.1034874 0.99782026
-0.90734899 -1.6726019 1.2038023
-0.89561874 -1.6530278 0.95656961
-0.88152355 -1.6283541 0.73359501
-0.86727321 -1.603352 0.53037208
-0.85020232 -1.572438 0.34153345
-0.84287739 -1.5601761 0.16520888
-0.61754596 -1.0708649 7.8587832
-0.7991181 -1.406184 7.7993574
-0.41811964 -0.7476393 2.7856688
-0.55877751 -1.0071304 2.772939
-1.0872661 -1.9690118 4.189281
-0.40053719 -0.72786903 1.2928251
-0.40040129 -0.72939175 1.0728337
-0.27329114 -0.39179838 8.1008902
-0.45901945 -0.71348709 7.8697019
-0.38931486 -0.68917406 3.0850341
-0.48874432 -0.87450504 2.7785323
-0.64021838 -1.1528813 2.7904971
-0.40103459 -0.72489601 1.4252415
-0.39865032 -0.72262752 1.1675866
-0.41259727 -0.74941611 1.0057108
-0.45670336 -0.8360455 1.0159656
-0.54955387 -1.0072238 1.0075608
-0.91345477 -1.6761767 1.3361541
-0.8988927 -1.6508118 1.0704848
-0.88883555 -1.633684 0.83973712
-0.87766302 -1.6144756 0.63008249
-0.86048204 -1.5841784 0.43374372
-0.84556377 -1.5579941 0.2520889
-0.50238436 -0.91660196 1.0121081
-0.60294026 -1.1013894 0.99782026
-0.90697539 -1.6580786 1.1962028
-0.89485538 -1.6379428 0.95027542
-0.88041431 -1.6128327 0.72866452
-0.86588216 -1.5875132 0.52685511
-0.85094488 -1.560765 0.34015211
-0.84353828 -1.5484501 0.16480581
-0.62128019 -1.0687027 7.8587832
-0.80402172 -1.4033859 7.7993574
-0.42072684 -0.74617517 2.7856688
-0.56228966 -1.0051737 2.772939
-1.0871419 -1.9526497 4.1629462
-0.40444106 -0.72892696 1.2969581
-0.40449739 -0.73079383 1.0766711
-0.27465713 -0.39084202 8.1008902
-0.46121666 -0.71143359 7.8647308
-0.3923406 -0.68890303 3.0898738
-0.49179393 -0.87279367 2.7785323
-0.64211136 -1.1468408 2.7814946
-0.40483329 -0.72576922 1.4295074
-0.40117034 -0.72123158 1.1675866
-0.41521069 -0.7479713 1.0057108
-0.45961893 -0.83444619 1.0159656
-0.55119002 -1.0018893 1.0044224
-0.91325885 -1.6619843 1.3279297
-0.89825344 -1.6360151 1.0635283
-0.88784325 -1.6183782 0.83411795
-0.87637562 -1.5987825 0.62585235
-0.86128712 -1.5725485 0.43187848
-0.8438248 -1.5419273 0.25074768
-0.50558078 -0.91484272 1.0121081
-0.60678118 -1.0992781 0.99782026
-0.90651155 -1.6435785 1.1886032
-0.89399755 -1.6228834 0.94398123
-0.88148463 -1.601476 0.7253775
-0.86673355 -1.5759631 0.5245105
-0.84923083 -1.5447667 0.33808005
-0.84412771 -1.5367385 0.16440275
-0.62500685 -1.0665275 7.8587832
-0.80891562 -1.4005709 7.7993574
-0.42332891 -0.7447021 2.7856688
-0.56579489 -1.0032048 2.772939
-1.0857443 -1.9342244 4.1322227
-0.40698302 -0.72751075 1.2969581
-0.40860811 -0.73217613 1.0805086
-0.27601972 -0.3898809 8.1008902
-0.46369722 -0.70981932 7.8647308
-0.39536911 -0.68861914 3.094713
-0.49483755 -0.87107164 2.7785323
-0.64718103 -1.1464882 2.785996
-0.40736425 -0.7243517 1.4295074
-0.40515962 -0.72245485 1.1715766
-0.41781908 -0.74651742 1.0057108
-0.46252888 -0.83283675 1.0159656
-0.55468392 -0.99995917 1.0044224
-0.91297501 -1.6478138 1.3197054
-0.89752209 -1.6212432 1.056572
-0.88675499 -1.6030993 0.82849884
-0.87498945 -1.5831183 0.62162226
-0.86202157 -1.5609322 0.43001324
-0.84439003 -1.530252 0.24985351
-0.50877112 -0.91307235 1.0121081
-0.61061466 -1.0971533 0.99782026
-0.9059577 -1.6291021 1.1810037
-0.89304572 -1.6078503 0.9376871
-0.8801949 -1.5860025 0.72044694
-0.86751503 -1.5644265 0.52216589
-0.84981626 -1.5331305 0.33669871
-0.84222513 -1.5206714 0.16379817
-0.62872601 -1.0643394 7.8587832
-0.81379956 -1.3977387 7.7993574
-0.42592582 -0.74321979 2.7856688
-0.56929332 -1.0012238 2.772939
-1.0854111 -1.9179169 4.1058884
-0.41090271 -0.72853655 1.301091
-0.41116139 -0.73074538 1.0805086
-0.27754745 -0.38914949 8.1058817
-0.46587846 -0.70775157 7.8597589
-0.39840043 -0.68832254 3.0995526
-0.49787512 -0.86933899 2.7785323
-0.64471745 -1.1328707 2.7589886
-0.41117683 -0.72519386 1.4337733
-0.40767902 -0.7210362 1.1715766
-0.42042238 -0.74505436 1.0057108
-0.46543321 -0.83121711 1.0159656
-0.55817109 -0.99801689 1.0044224
-0.9126035 -1.6336657 1.311481
-0.89669847 -1.6064962 1.0496155
-0.88782912 -1.5918965 0.82475281
-0.8735047 -1.5674834 0.61739212
-0.8626855 -1.5493301 0.428148
-0.84488416 -1.5185916 0.24895935
-0.51195526 -0.91129088 1.0121081
-0.61444074 -1.0950152 0.99782026
-0.90742218 -1.6184098 1.1759374
-0.8919999 -1.5928437 0.93139297
-0.88111389 -1.5746787 0.71715993
-0.86585444 -1.5486612 0.51864892
-0.84791493 -1.5171865 0.33462667
-0.84265649 -1.5089984 0.16339511
-0.63243735 -1.0621382 7.8587832
-0.81867361 -1.3948894 7.7993574
-0.42851758 -0.74172854 2.7856688
-0.57278478 -0.99923044 2.772939
-1.0837904 -1.8995553 4.0751648
-0.41483453 -0.72954386 1.3052239
-0.4152914 -0.73209351 1.0843461
-0.27890414 -0.38817829 8.1058817
-0.46834612 -0.70612103 7.8597589
-0.40143448 -0.68801314 3.1043918
-0.50090665 -0.86759579 2.7785323
-0.6508351 -1.1343895 2.7679911
-0.41370574 -0.72375417 1.4337733
-0.41168591 -0.72222638 1.1755666
-0.42302054 -0.74358231 1.0057108
-0.46833187 -0.82958746 1.0159656
-0.56165141 -0.9960624 1.0044224
-0.9121443 -1.6195402 1.3032565
-0.8979556 -1.5956355 1.0449779
-0.88656378 -1.5766652 0.8191337
-0.87427133 -1.5560606 0.61457211
-0.86327904 -1.5377427 0.42628276
-0.84530711 -1.5069464 0.24806519
-0.51513314 -0.90949827 1.0121081
-0.61825931 -1.0928637 0.99782026
-0.90670156 -1.6039742 1.1683378
-0.89309168 -1.5818162 0.92719686
-0.87964433 -1.559255 0.71222943
-0.86648136 -1.537161 0.51630425
-0.84834379 -1.5055888 0.33324531
-0.84301674 -1.497341 0.16299205
-0.63654113 -1.0605901 7.8637228
-0.82301897 -1.3911469 7.7944622
-0.43110406 -0.74022824 2.7856688
-0.57626927 -0.99722493 2.772939
-1.083249 -1.8833046 4.0488305
-0.41737857 -0.72809136 1.3052239
-0.41784436 -0.7306394 1.0843461
-0.28042755 -0.38743562 8.1108732
-0.47080815 -0.7044819 7.8597589
-0.40510884 -0.68877423 3.1140707
-0.50393206 -0.86584204 2.7785323
-0.65261066 -1.1283422 2.7589886
-0.41753203 -0.72456515 1.4380392
-0.41420442 -0.72078496 1.1755666
-0.42561355 -0.74210113 1.0057108
-0.47122478 -0.82794756 1.0159656
-0.56512487 -0.9940958 1.0044224
-0.91159785 -1.6054382 1.2950323
-0.89696169 -1.5809327 1.0380214
-0.88748926 -1.5654951 0.81538767
-0.87260461 -1.5404775 0.61034197
-0.86380219 -1.5261699 0.42441753
-0.8456592 -1.4953171 0.24717103
-0.51830477 -0.90769458 1.0121081
-0.62207031 -1.0906988 0.99782026
-0.90589148 -1.5895638 1.1607383
-0.89187211 -1.5668563 0.92090267
-0.88041252 -1.5479656 0.70894241
-0.86703861 -1.5256753 0.51395965
-0.84870195 -1.4940066 0.33186394
-0.84083974 -1.4813547 0.16238745
-0.63983703 -1.0576971 7.8587832
-0.82787001 -1.3882656 7.7944622
-0.43368533 -0.73871887 2.7856688
-0.57876313 -0.99351943 2.7683365
-1.0814059 -1.865009 4.0181065
-0.42132583 -0.72906625 1.3093569
-0.42199337 -0.73195308 1.0881836
-0.28177822 -0.38645437 8.1108732
-0.47326437 -0.70283419 7.8597589
-0.40815201 -0.68843699 3.1189103
-0.50695139 -0.86407775 2.7785323
-0.65654528 -1.1260571 2.7589886
-0.42136902 -0.72535831 1.4423052
-0.41822866 -0.72194189 1.1795566
-0.42820138 -0.74061096 1.0057108
-0.474112 -0.82629764 1.0159656
-0.56859148 -0.99211705 1.0044224
-0.91096395 -1.5913597 1.2868078
-0.89587635 -1.5662566 1.0310652
-0.88604718 -1.5503129 0.80976856
-0.87083983 -1.5249255 0.60611188
-0.86425513 -1.5146123 0.42255229
-0.84594047 -1.4837036 0.24627687
-0.52147001 -0.9058798 1.0121081
-0.6258738 -1.0885208 0.99782026
-0.90499187 -1.5751787 1.1531388
-0.89281809 -1.5558606 0.91670656
-0.87876374 -1.5325934 0.70401186
-0.86752617 -1.5142045 0.51161504
-0.84898984 -1.4824407 0.33048257
-0.84104288 -1.4697382 0.16198438
-0.64352518 -1.0554572 7.8587832
-0.83271092 -1.3853673 7.7944622
-0.43626127 -0.73720056 2.7856688
-0.58222765 -0.99149305 2.7683365
-1.0806574 -1.8488172 3.9917724
-0.42386818 -0.72759116 1.3093569
-0.42454579 -0.73047554 1.0881836
-0.28295377 -0.38523638 8.1058817
-0.47571483 -0.70117784 7.8597589
-0.41184288 -0.68916565 3.1285892
-0.50908577 -0.86081767 2.7738397
-0.66047198 -1.1237586 2.7589886
-0.42521659 -0.72613335 1.4465711
-0.42226598 -0.7230795 1.1835467
-0.43078402 -0.73911172 1.0057108
-0.47699347 -0.82463771 1.0159656
-0.57205117 -0.99012631 1.0044224
-0.91024303 -1.5773053 1.2785833
-0.89691234 -1.5554451 1.0264276
-0.88451004 -1.5351602 0.80414945
-0.87137055 -1.5135616 0.60329181
-0.86463797 -1.5030704 0.42068705
-0.84615099 -1.4721067 0.24538271
-0.52275473 -0.90082473 1.0087825
-0.62966961 -1.0863295 0.99782026
-0.90400296 -1.5608195 1.1455393
-0.89142567 -1.5409493 0.91041237
-0.87938166 -1.52134 0.70072484
-0.86794442 -1.5027491 0.50927037
-0.84920728 -1.4708909 0.3291012
-0.8411752 -1.4581387 0.16158132
-0.64720547 -1.0532044 7.8587832
-0.8375417 -1.3824522 7.7944622
-0.43883193 -0.73567319 2.7856688
-0.58568501 -0.98945469 2.7683365
-1.0785929 -1.83059 3.9610486
-0.4278307 -0.72853357 1.3134899
-0.42709303 -0.72898918 1.0881836
-0.28429678 -0.38424635 8.1058817
-0.47846088 -0.69995272 7.8647308
-0.41489485 -0.68880033 3.1334283
-0.51208746 -0.85903543 2.7738397
-0.66439062 -1.1214463 2.7589886
-0.42907467 -0.72689044 1.450837
-0.4247874 -0.72160113 1.1835467
-0.43336132 -0.73760355 1.0057108
-0.47986904 -0.82296759 1.0159656
-0.57550389 -0.98812342 1.0044224
-0.90943521 -1.5632756 1.2703589
-0.89565754 -1.5408155 1.0194712
-0.88520646 -1.5240458 0.80040342
-0.87183267 -1.5022129 0.60047174
-0.86495078 -1.4915442 0.41882181
-0.84629095 -1.4605263 0.24448855
-0.52589607 -0.89899451 1.0087825
-0.63141847 -1.0806351 0.9948771
-0.90292478 -1.5464863 1.1379397
-0.8899399 -1.5260665 0.90411824
-0.87993181 -1.5101011 0.69743782
-0.87073898 -1.4955097 0.50809807
-0.84935451 -1.4593576 0.32771987
-0.84123689 -1.4465561 0.16117826
-0.65087789 -1.050939 7.8587832
-0.84236228 -1.3795202 7.7944622
-0.44139725 -0.73413694 2.7856688
-0.58913529 -0.98740423 2.7683365
-1.0764146 -1.8124001 3.930325
-0.43037111 -0.72703576 1.3134899
-0.42963511 -0.72749388 1.0881836
-0.28563631 -0.38325164 8.1058817
-0.48090124 -0.69827831 7.8647308
-0.41860196 -0.68949634 3.1431072
-0.51508296 -0.85724264 2.7738397
-0.66830117 -1.1191202 2.7589886
-0.43294322 -0.72762936 1.4551029
-0.42884162 -0.72270513 1.1875367
-0.43593344 -0.73608637 1.0057108
-0.48273882 -0.82128751 1.0159656
-0.57894957 -0.98610848 1.0044224
-0.90854049 -1.5492707 1.2621346
-0.89655125 -1.5300359 1.0148336
-0.8834936 -1.5089447 0.79478431
-0.87464863 -1.49502 0.59906173
-0.86519372 -1.4800342 0.41695657
-0.84636045 -1.448963 0.24359439
-0.52903092 -0.89715332 1.0087825
-0.63518673 -1.0784243 0.9948771
-0.90394443 -1.5358948 1.1328733
-0.89066142 -1.5151258 0.89992213
-0.88041431 -1.498877 0.69415081
-0.87103325 -1.4840773 0.50575346
-0.84943157 -1.4478416 0.3263385
-0.84375447 -1.4393009 0.16097674
-0.65413076 -1.0480015 7.8538446
-0.84717256 -1.3765714 7.7944622
-0.44318321 -0.73131526 2.7808967
-0.59257841 -0.98534173 2.7683365
-1.0753528 -1.7963026 3.9039905
-0.43434846 -0.72794539 1.3176229
-0.43217188 -0.72598976 1.0881836
-0.28697237 -0.38225222 8.1058817
-0.48333573 -0.69659543 7.8647308
-0.42166263 -0.68910301 3.1479468
-0.51807219 -0.85543942 2.7738397
-0.67220354 -1.1167806 2.7589886
-0.43682215 -0.7283501 1.4593688
-0.43136171 -0.7212038 1.1875367
-0.4385002 -0.73456013 1.0057108
-0.48560271 -0.81959748 1.0159656
-0.58238816 -0.98408157 1.0044224
-0.90968722 -1.538891 1.2566516
-0.89512777 -1.5154545 1.0078771
-0.88404268 -1.497867 0.79103822
-0.8749882 -1.4836937 0.59624165
-0.865367 -1.468541 0.41509131
-0.84635961 -1.4374174 0.24270025
-0.53215933 -0.89530122 1.0087825
-0.63894725 -1.0762006 0.9948771
-0.90270138 -1.5216078 1.1252737
-0.88900363 -1.5002941 0.893628
-0.88082916 -1.4876682 0.69086379
-0.87125832 -1.4726613 0.50340879
-0.84943867 -1.4363427 0.32495713
-0.84369022 -1.4277446 0.16057368
-0.657785 -1.0457118 7.8538446
-0.85197246 -1.3736058 7.7944622
-0.44573328 -0.72976381 2.7808967
-0.59601426 -0.98326725 2.7683365
-1.0729544 -1.7781843 3.8732669
-0.43688685 -0.72642481 1.3176229
-0.43470341 -0.72447681 1.0881836
-0.28830495 -0.38124818 8.1058817
-0.48607033 -0.69534045 7.8697019
-0.42472562 -0.68869656 3.152786
-0.52015573 -0.85215306 2.7691467
-0.67609769 -1.1144274 2.7589886
-0.44071147 -0.72905272 1.4636348
-0.43387654 -0.71969372 1.1875367
-0.44106162 -0.73302501 1.0057108
-0.48846069 -0.81789744 1.0159656
-0.58581972 -0.98204273 1.0044224
-0.9086321 -1.52493 1.2484273
-0.89587969 -1.5047083 1.0032395
-0.88452512 -1.4868034 0.78729212
-0.87525934 -1.4723835 0.59342158
-0.86547059 -1.4570646 0.41322607
-0.84374672 -1.4216068 0.24135901
-0.53528124 -0.8934381 1.0087825
-0.64270002 -1.0739638 0.9948771
-0.90358233 -1.5110481 1.1202074
-0.88958055 -1.4893891 0.88943189
-0.88117653 -1.4764745 0.68757677
-0.87390405 -1.4654365 0.50223649
-0.84937596 -1.4248617 0.32357576
-0.84355551 -1.4162065 0.16017061
-0.66143119 -1.0434092 7.8538446
-0.85676205 -1.3706235 7.7944622
-0.44827792 -0.72820342 2.7808967
-0.59842408 -0.97951376 2.7637341
-1.0716873 -1.7621508 3.8469329
-0.43941987 -0.72489536 1.3176229
-0.43722969 -0.72295499 1.0881836
-0.28963396 -0.38023949 8.1058817
-0.48849458 -0.69363946 7.8697019
-0.42779088 -0.68827718 3.1576257
-0.52312708 -0.85033214 2.7691467
-0.67998368 -1.1120605 2.7589886
-0.44461086 -0.72973692 1.4679009
-0.43638614 -0.71817476 1.1875367
-0.44361767 -0.73148096 1.0057108
-0.48947328 -0.81313211 1.0124611
-0.58924413 -0.97999179 1.0044224
-0.90749055 -1.5109953 1.2402028
-0.89656758 -1.4939755 0.99860191
-0.88494116 -1.4757551 0.78354609
-0.87546235 -1.4610895 0.59060156
-0.86550462 -1.4456055 0.41136083
-0.84359056 -1.4101057 0.24046485
-0.53839666 -0.89156425 1.0087825
-0.64644498 -1.0717137 0.9948771
-0.90440059 -1.5005008 1.115141
-0.89009231 -1.4784983 0.88523579
-0.88145661 -1.4652969 0.68428975
-0.87400573 -1.4540451 0.49989185
-0.84924346 -1.4133986 0.32219443
-0.84335071 -1.4046868 0.15976755
-0.6646508 -1.0404395 7.8489051
-0.86154127 -1.3676244 7.7944622
-0.45081708 -0.72663426 2.7808967
-0.6018396 -0.97741884 2.7637341
-1.0690696 -1.7441063 3.8162091
-0.44194755 -0.72335708 1.3176229
-0.43975061 -0.72142434 1.0881836
-0.29095951 -0.37922618 8.1058817
-0.49091282 -0.69193012 7.8697019
-0.43019077 -0.68677974 3.1576257
-0.52609211 -0.84850091 2.7691467
-0.68386137 -1.1096802 2.7589886
-0.45125046 -0.73484731 1.4806986
-0.43731639 -0.71407759 1.1835467
-0.4461683 -0.72992802 1.0057108
-0.49230865 -0.81141859 1.0124611
-0.59266132 -0.977929 1.0044224
-0.90626311 -1.4970874 1.2319785
-0.89489877 -1.4794658 0.99164557
-0.88529104 -1.4647222 0.7798
-0.87559712 -1.4498122 0.58778149
-0.86546934 -1.4341639 0.40949559
-0.84336448 -1.3986232 0.23957069
-0.54150558 -0.88967943 1.0087825
-0.65018201 -1.0694507 0.9948771
-0.90515631 -1.4899664 1.1100746
-0.89053881 -1.4676223 0.88103968
-0.88166946 -1.4541354 0.68100274
-0.87151998 -1.4385138 0.49637488
-0.84904134 -1.4019539 0.32081306
-0.84307581 -1.393186 0.15936449
-0.66827863 -1.038113 7.8489051
-0.8657639 -1.3637493 7.789567
-0.45335078 -0.72505611 2.7808967
-0.60421741 -0.9736523 2.7591317
-1.0675981 -1.728139 3.7898748
-0.44446984 -0.72180998 1.3176229
-0.44226617 -0.71988493 1.0881836
-0.29228148 -0.37820822 8.1058817
-0.49332514 -0.69021231 7.8697019
-0.43325675 -0.68633658 3.1624649
-0.52905071 -0.84665936 2.7691467
-0.68773067 -1.1072863 2.7589886
-0.44969451 -0.72661519 1.4679009
-0.43980631 -0.71254677 1.1835467
-0.44871351 -0.72836608 1.0057108
-0.49513805 -0.80969512 1.0124611
-0.59607136 -0.97585422 1.0044224
-0.90712744 -1.4867759 1.2264955
-0.89544559 -1.4687685 0.98700798
-0.8855747 -1.4537048 0.77605397
-0.87316972 -1.4344541 0.58355141
-0.86536479 -1.4227403 0.40763035
-0.8430686 -1.3871596 0.23867653
-0.54460782 -0.88778383 1.0087825
-0.65391111 -1.0671747 0.9948771
-0.90359855 -1.4757688 1.1024752
-0.8909204 -1.4567611 0.87684357
-0.88181514 -1.4429903 0.67771572
-0.87146974 -1.4271662 0.49403024
-0.84876978 -1.3905281 0.31943169
-0.84273088 -1.3817042 0.15896143
-0.67189819 -1.035774 7.8489051
