# .PCD v0.7 - Point Cloud Data file format
VERSION 0.7
FIELDS x y z
SIZE 4 4 4
TYPE F F F
COUNT 1 1 1
WIDTH 1556
HEIGHT 1
VIEWPOINT 0 0 0 1 0 0 0
POINTS 1556
DATA ascii
15.684597 10.416894 3.6662052
5.0357008 3.3167198 5.4516501
3.7950406 2.5024242 3.393553
14.362466 9.4955273 6.081574
10.777772 7.1336665 1.8948729
0.033714022 0.0099989595 2.559176
0.34405315 0.21471606 2.5787168
0.4495942 0.284367 2.5810454
0.66820639 0.42873141 2.5852456
0.9065702 0.58599424 2.6026456
1.1673713 0.75795138 2.6179905
1.4672797 0.95552695 2.6442995
1.6523222 1.0784608 2.4389851
0.13984987 0.072540037 2.565141
0.24431947 0.13708849 2.5700788
0.55556208 0.35313496 2.5720553
0.78203869 0.50207502 2.5814362
1.0236481 0.66111749 2.5834413
1.4743972 0.95541698 2.9439139
1.4980887 0.97334337 2.4404042
1.6773028 1.0918351 2.2479162
1.6973447 1.112902 2.0743387
3.8519683 2.5284081 3.7976489
3.9750161 2.6121407 3.2030926
13.536434 8.901967 8.5671654
14.352204 9.4456091 7.0301104
15.348021 10.108653 5.4918756
15.523993 10.232319 3.6214395
5.0503736 3.3011646 5.4549761
3.7834587 2.4758821 3.3758938
14.161933 9.2850103 7.9158096
14.624516 9.5955849 6.176897
14.960123 9.8232479 4.4072261
10.786052 7.0851264 1.8921101
0.03374872 0.0098812152 2.559176
0.34480056 0.21351378 2.5787168
0.45058408 0.28279588 2.5810454
0.66969889 0.42639631 2.5852456
0.90861022 0.58282614 2.6026456
1.1679963 0.75257468 2.6136014
1.4564248 0.94123566 2.6195016
1.6533862 1.0709442 2.4351475
0.14010222 0.072051428 2.565141
0.24479651 0.13623482 2.5700788
0.55679137 0.35119352 2.5720553
0.78378642 0.49934217 2.5814362
1.0222837 0.6551913 2.5744388
1.4755296 0.94885415 2.9396482
1.4710865 0.94851524 2.392524
1.678256 1.0841342 2.2442412
1.6982297 1.1050253 2.0708342
3.8770776 2.5255692 3.8133409
3.9455826 2.5731242 3.1729364
13.560006 8.8498192 8.5625277
14.385088 9.3954525 7.0301104
15.383213 10.055017 5.4918756
15.448624 10.105464 3.5962586
5.0556011 3.2794518 5.4483256
3.7446198 2.4318407 3.3346899
14.190454 9.2330437 7.9137115
15.049685 9.799572 6.3396049
15.043189 9.8028107 4.4212937
10.765086 7.0176849 1.8845128
0.033783007 0.0097633488 2.559176
0.34554377 0.21230891 2.5787168
0.45156845 0.2812213 2.5810454
0.67118317 0.42405605 2.5852456
0.91063911 0.57965094 2.6026456
1.1665804 0.74591309 2.6048231
1.4644393 0.93918413 2.6277676
1.6544181 1.0634332 2.4313099
0.14035287 0.07156194 2.565141
0.24527057 0.13537949 2.5700788
0.55801386 0.34924784 2.5720553
0.78552473 0.49660316 2.5814362
1.0208906 0.64928281 2.5654364
1.4788327 0.94369775 2.9396482
1.4743885 0.94337434 2.392524
1.679176 1.0764399 2.240566
1.6990806 1.0971563 2.0673294
3.9022141 2.5225856 3.8290334
3.9369884 2.5479765 3.159229
13.527606 8.7614937 8.5231075
14.507272 9.4031763 7.0731902
13.707796 8.8917694 4.8926115
15.475563 10.046127 3.5943935
5.076436 3.2678471 5.4583015
3.7089171 2.3902898 3.2964287
15.103631 9.7597933 6.3478222
15.232413 9.8505402 4.4658422
10.856042 7.0231028 1.8955636
0.033816881 0.0096453652 2.559176
0.34628275 0.21110144 2.5787168
0.45254734 0.27964333 2.5810454
0.67265934 0.42171061 2.5852456
0.9126569 0.57646871 2.6026456
1.1671548 0.74055344 2.6004343
1.4677087 0.93406653 2.6277676
1.6554178 1.0559282 2.4274726
0.14060183 0.07107158 2.565141
0.24574164 0.13452251 2.5700788
0.55922955 0.34729788 2.5720553
0.78725338 0.49385816 2.5814362
1.0194685 0.64339203 2.5564339
1.4799143 0.93713474 2.9353821
1.4624091 0.92853189 2.3685837
1.6829232 1.0705719 2.240566
1.7029001 1.0912186 2.0673294
3.9306524 2.5215588 3.8478642
3.9317853 2.5251799 3.1482632
13.558106 8.71422 8.5231075
14.63748 9.4151764 7.1200161
13.710515 8.8256912 4.8827415
15.555962 10.021309 3.6046522
5.0878119 3.2501073 5.4583015
3.6389189 2.3272414 3.2287359
14.57556 9.3394299 8.0899487
15.010405 9.6254435 6.2952299
15.197164 9.7526808 4.4459124
10.876324 6.9824896 1.8948729
0.033850342 0.0095272632 2.559176
0.34701753 0.20989139 2.5787168
0.45352075 0.27806196 2.5810454
0.67412728 0.41936001 2.5852456
0.91466361 0.57327944 2.6026456
1.1677058 0.73519892 2.596045
1.4899954 0.94095713 2.6608312
1.6590936 1.0501434 2.4274726
0.14084905 0.070580356 2.565141
0.24620971 0.13366389 2.5700788
0.56043845 0.34534368 2.5720553
0.78897244 0.49110714 2.5814362
1.0106374 0.63289821 2.5294268
1.480968 0.93057555 2.9311161
1.4707404 0.92663378 2.3765638
1.6837832 1.0628814 2.236891
1.7066987 1.0852678 2.0673294
3.916446 2.4931915 3.8258948
3.9194191 2.4979565 3.1318145
14.736688 9.4064283 7.1518579
13.256122 8.4678907 4.7135372
5.0991259 3.2323275 5.4583015
3.6163051 2.2950325 3.2022474
14.6502 9.3152828 8.1130257
12.676897 8.0729856 3.7155588
14.333738 9.1316128 2.4626119
0.033839867 0.0094060097 2.5541763
0.34774807 0.20867881 2.5787168
0.45448861 0.27647719 2.5810454
0.67558706 0.41700432 2.5852456
0.91665918 0.57008314 2.6026456
1.170265 0.73111838 2.596045
1.5028092 0.94172686 2.6773629
1.6600348 1.0426408 2.423635
0.14109457 0.070088275 2.565141
0.24667479 0.13280365 2.5700788
0.5616405 0.34338528 2.5720553
0.79068196 0.48835012 2.5814362
1.0220863 0.63511032 2.5519328
1.4819942 0.92402077 2.9268503
1.4841864 0.92788315 2.392524
1.6846099 1.0551978 2.2332156
1.7134926 1.0812067 2.0708342
3.9104443 2.4730852 3.1181071
14.052813 8.8941641 8.7920885
15.078828 9.5509014 7.2998271
13.33422 8.4523859 4.7304583
3.8493252 2.4213033 4.1314268
3.6516569 2.2996264 3.2257926
14.613537 9.2204943 8.0752621
14.410439 9.0993748 6.0207634
12.873467 8.1351442 3.7636237
14.365526 9.0815239 2.4626119
0.033872493 0.0092878286 2.5541763
0.34847438 0.20746365 2.5787168
0.45545092 0.27488902 2.5810454
0.67703855 0.41464353 2.5852456
0.91864359 0.56687993 2.6026456
1.17281 0.72702897 2.596045
1.5252057 0.94836164 2.7104266
1.6636641 1.03684 2.423635
0.14133836 0.069595337 2.565141
0.24713685 0.13194178 2.5700788
0.56391066 0.34207425 2.5768948
0.79238182 0.48558712 2.5814362
1.024297 0.63153869 2.5519328
1.4807746 0.916098 2.9183185
1.5258263 0.94652134 2.4523742
1.6854036 1.0475216 2.2295406
1.7112111 1.071434 2.0638249
3.5445943 2.2218571 3.4555571
3.8907187 2.4416389 3.0961754
14.087525 8.8474121 8.7944078
15.143476 9.5179434 7.3148117
13.180917 8.2908545 4.6670065
15.155975 9.5479298 1.7010721
3.8609209 2.4098287 4.1347528
3.6596618 2.2868657 3.2257926
13.957061 8.7383204 7.6997104
14.27405 8.9437132 5.9517365
14.292265 8.9655361 2.4453449
0.033899903 0.0091872858 2.5541763
0.3490884 0.20642883 2.5787168
0.4562645 0.27353647 2.5810454
0.67826581 0.41263288 2.5852456
0.92032146 0.56415176 2.6026456
1.1748357 0.72375101 2.596045
1.5278481 0.94409871 2.7104266
1.6583781 1.0271273 2.4121227
0.14153215 0.069200374 2.565141
0.24750435 0.13125114 2.5700788
0.56480426 0.34059674 2.5768948
0.79365039 0.483511 2.5814362
1.0278029 0.62999243 2.5564339
1.4809464 0.91085196 2.9140525
1.5744658 0.97099203 2.5241947
1.6879581 1.0434002 2.2295406
1.7174107 1.0682354 2.0673294
3.5445626 2.2072155 3.44928
3.8904259 2.4263389 3.0906923
14.183577 8.852602 8.8384647
14.678507 9.1686201 7.0806828
13.045378 8.1548462 4.6120152
13.173618 8.238204 3.0413496
15.266997 9.558423 1.7100136
3.8703895 2.4016812 4.1380782
3.6759365 2.2836759 3.2346222
13.981406 8.6993132 7.6997104
14.036887 8.7440214 5.8449082
14.671811 9.146637 4.2606864
11.193691 6.9810333 1.9321696
0.033936508 0.0090511302 2.5541763
0.34995002 0.20496474 2.5787168
0.45740628 0.27162287 2.5810454
0.68126702 0.41055834 2.5900176
0.9226765 0.56029183 2.6026456
1.1759378 0.71737093 2.5916562
1.5343533 0.93889189 2.7145593
1.6300561 0.99977332 2.3660727
0.14184472 0.068557404 2.565141
0.24809739 0.13012666 2.5700788
0.56640303 0.33793139 2.5768948
0.79592001 0.47976568 2.5814362
1.0326217 0.62627071 2.5609353
1.4829942 0.90250748 2.9097865
1.5738795 0.96042275 2.5162146
1.6901445 1.0333705 2.2258654
1.7125777 1.0557188 2.0568159
3.5633314 2.1991014 3.4586954
3.9112272 2.4166152 3.098917
14.005775 8.6603184 8.7062931
14.610346 9.0411882 7.0301104
12.916289 7.9991021 4.5556135
13.479438 8.3511105 3.10197
15.473624 9.5940628 1.7274498
3.9448786 2.4231777 4.2045879
3.6897044 2.2690885 3.2375653
14.167584 8.726223 7.7794366
14.196039 8.7471581 5.89257
14.559119 8.9778814 4.2161384
11.43419 7.0536456 1.9660128
0.033952255 0.0089918859 2.5541763
0.35027155 0.2044148 2.5787168
0.4577851 0.27098396 2.5810454
0.68183959 0.40960667 2.5900176
0.92336029 0.55916411 2.6026456
1.1747671 0.71468908 2.5872669
1.5377376 0.93875074 2.7186925
1.6119635 0.98635596 2.33921
0.14188059 0.068483129 2.565141
0.24816549 0.12999673 2.5700788
0.56652093 0.33773366 2.5768948
0.79608744 0.47948781 2.5814362
1.0345927 0.6272189 2.5654364
1.4831517 0.90224856 2.9097865
1.5610182 0.95257533 2.4962647
1.6872522 1.0316023 2.2221904
4.0302134 2.4746315 4.7272801
3.5899901 2.2077739 3.4806647
3.9221392 2.4148529 3.1043997
13.908495 8.5733442 8.6390476
14.713703 9.0767622 7.0731902
12.987273 8.0211267 4.5767641
13.509069 8.3499012 3.1066332
15.496367 9.5857115 1.7287909
3.9720323 2.4360392 4.2311921
3.6908917 2.2671564 3.2375653
14.475976 8.9092016 7.9451818
14.183979 8.739727 5.8876395
13.516531 8.3349705 3.9207141
11.378175 7.0218325 1.9570341
0.034042444 0.0088162655 2.559176
0.35137239 0.20251666 2.5787168
0.45929143 0.26842299 2.5810454
0.68418741 0.40567279 2.5900176
0.92666221 0.553675 2.6026456
1.1769339 0.70647293 2.5828779
1.5436056 0.92907047 2.7186925
1.5879393 0.95799649 2.2969975
0.14235523 0.067490958 2.565141
0.24908936 0.12821758 2.5700788
0.56898147 0.33357179 2.5768948
0.79958087 0.47363937 2.5814362
1.0393789 0.61925536 2.5654364
1.487798 0.88949406 2.9055204
1.5762051 0.94493365 2.5082345
1.6925733 1.0162779 2.2185149
4.0370178 2.4497955 4.7202711
3.6022646 2.1876893 3.4806647
3.9534295 2.4037716 3.1181071
14.101446 8.5805988 8.7271624
14.688107 8.9410782 7.0357294
12.933611 7.8792496 4.5415134
13.410258 8.1728287 3.0730586
15.515426 9.4595184 1.7243202
3.9793527 2.4024608 4.2212157
3.7589092 2.2720499 3.2817128
14.425944 8.7298203 7.8822408
14.169892 8.5816212 5.8547692
14.878612 9.0143776 4.2864771
11.480766 6.9584923 1.9646317
0.034059308 0.0087508932 2.559176
0.35172531 0.20190309 2.5787168
0.45975921 0.26762098 2.5810454
0.68475324 0.40471709 2.5900176
0.92743438 0.55238056 2.6026456
1.1777961 0.70503449 2.5828779
1.542165 0.92600489 2.7145593
1.5777907 0.94999748 2.2816474
0.14237878 0.067441262 2.565141
0.24908936 0.12821758 2.5700788
0.56898147 0.33357179 2.5768948
0.7994982 0.4737789 2.5814362
1.0391628 0.61961818 2.5654364
1.4850943 0.88893372 2.9012547
1.5757101 0.94575882 2.5082345
1.6887809 1.0160071 2.2148399
4.0722375 2.4604826 4.7553163
3.5890462 2.1719525 3.4649723
3.9500482 2.3932252 3.1126244
14.166438 8.5930643 8.7596254
14.389915 8.7354841 6.8896332
12.884464 7.8308206 4.5217729
13.263508 8.0643568 3.0385518
15.556058 9.4693995 1.7278969
3.9765754 2.399837 4.2178903
3.790442 2.2902062 3.3082013
14.40889 8.7229357 7.8738484
14.235546 8.6281767 5.8827085
13.755967 8.3440609 3.9711239
15.349221 9.3178167 2.5966039
15.114614 9.1826105 0.80708486
0.034088138 0.0086378995 2.559176
0.35239294 0.20073561 2.5787168
0.46064413 0.26609486 2.5810454
0.68616176 0.40232444 2.5900176
0.92935693 0.54913986 2.6026456
1.1783127 0.69949049 2.5784888
1.5431309 0.91890681 2.7104266
1.5786746 0.94228965 2.2778101
0.14264837 0.066869169 2.565141
0.24962427 0.12717308 2.5700788
0.57037371 0.33118555 2.5768948
0.8014757 0.47042584 2.5814362
1.0436236 0.61636668 2.5699377
1.4889588 0.88244528 2.9012547
1.5850025 0.94195312 2.5162146
1.690461 1.0065988 2.2111647
4.092608 2.4543014 4.7693348
3.6199656 2.1734357 3.4869416
3.9440427 2.3708055 3.1016581
14.10262 8.4938545 6.7397904
12.917188 7.7860208 4.5231829
15.634939 9.4353294 1.7323676
4.0021992 2.3934364 4.2345176
3.8134768 2.2832775 3.3199739
14.562072 8.7325277 7.9367905
14.273059 8.56598 5.8827085
15.521306 9.3298435 2.6180151
15.20591 9.1474781 0.8095032
0.034118082 0.008518857 2.559176
0.35309148 0.1995043 2.5787168
0.46157017 0.2644853 2.5810454
0.68756199 0.39992681 2.5900176
0.9312681 0.54589248 2.6026456
1.1807472 0.69537306 2.5784888
1.543906 0.91208339 2.7062936
1.5736799 0.93187416 2.2662973
0.14288092 0.06637083 2.565141
0.25006664 0.12630095 2.5700788
0.57152629 0.32919255 2.5768948
0.80319452 0.4674851 2.5814362
1.0458757 0.61253744 2.5699377
1.4899346 0.87566078 2.8969886
1.5910404 0.93766719 2.5202048
1.6912198 0.99867254 2.2074897
4.1011505 2.4400005 4.7693348
3.9451115 2.3527405 3.0961754
14.368477 8.5823669 6.8502998
13.052692 7.8026185 4.559844
13.413616 8.0247221 3.0590694
15.565234 9.3192997 1.7216376
4.0623288 2.4092247 4.2877254
3.9052322 2.3188119 3.3906097
14.654874 8.7187691 7.9703593
14.298815 8.51369 5.8810654
13.712512 8.1710739 3.9406433
15.023693 8.9559336 2.5316801
0.034147613 0.008399711 2.559176
0.35378572 0.19827057 2.5787168
0.46249059 0.26287252 2.5810454
0.68895376 0.39752433 2.5900176
0.93316793 0.54263842 2.6026456
1.1852355 0.69245535 2.5828779
1.5446525 0.90526599 2.7021606
1.5824506 0.92962205 2.2739725
0.14311172 0.065871678 2.565141
0.25050601 0.12542729 2.5700788
0.57267189 0.32719555 2.5768948
0.80482149 0.46467862 2.5814362
1.0480074 0.60888296 2.5699377
1.4929823 0.87045461 2.8969886
1.5969051 0.9336285 2.5241947
1.6888452 0.98933601 2.2001393
4.1004291 2.4202318 4.758821
3.986902 2.3560295 3.8164794
3.9281092 2.3240511 3.0769851
14.386381 8.5250692 6.8446808
13.149992 7.7986073 4.5838146
13.454219 7.9853721 3.0618672
15.118132 8.9800673 1.6715648
3.9167852 2.3072174 3.393553
14.751663 8.7067776 8.0060253
14.487015 8.5573902 5.9451623
13.61961 8.0514269 3.9066465
14.769279 8.7345419 2.4854043
0.034176722 0.0082804626 2.559176
0.35447568 0.19703442 2.5787168
0.46340537 0.26125652 2.5810454
0.69033718 0.39511701 2.5900176
0.93505639 0.53937775 2.6026456
1.1876453 0.68831384 2.5828779
1.5453702 0.89845437 2.6980276
1.6050715 0.93538892 2.3008351
0.14334078 0.065371722 2.565141
0.25094229 0.12455209 2.5700788
0.57381052 0.32519457 2.5768948
0.80643857 0.46186644 2.5814362
1.0501264 0.60522103 2.5699377
1.4937539 0.86393225 2.8927228
1.6001543 0.92804855 2.5241947
1.6864257 0.98002821 2.1927891
4.1088519 2.4059038 4.758821
3.9917443 2.3401301 3.8133409
3.9506221 2.3187916 3.0879512
13.247421 7.7940097 4.6077847
13.350789 7.8610945 3.0329561
15.175129 8.9424105 1.6742474
4.5853276 2.6762958 4.8098292
3.9248154 2.2935312 3.393553
14.499973 8.490118 7.8549657
14.52902 8.5139322 5.9500933
13.647633 8.0038366 3.9066465
14.829576 8.7004757 2.4902391
0.03416181 0.0081596738 2.5541763
0.35516128 0.19579586 2.5787168
0.46431449 0.25963733 2.5810454
0.6917122 0.39270487 2.5900176
0.93862939 0.53708059 2.6072483
1.1900407 0.68416405 2.5828779
1.5460593 0.89164877 2.6938949
1.6222018 0.93780077 2.3200223
0.1435681 0.064870968 2.565141
0.25185475 0.1239088 2.5750504
0.57494217 0.32318959 2.5768948
0.80804586 0.4590486 2.5814362
1.0541226 0.60263193 2.5744388
1.4967605 0.85871279 2.8927228
1.6007721 0.92095476 2.5202048
1.6839621 0.97074956 2.1854386
4.1233931 2.3951292 4.76583
5.7057962 3.3182473 5.4045386
3.9659193 2.309195 3.0934339
13.216544 7.7138672 4.5880446
13.378149 7.8144436 3.0329561
4.5914111 2.6584032 4.8065038
3.8803427 2.2494102 3.3494053
14.490277 8.4166584 7.8339853
14.399433 8.3706093 5.8859959
13.77632 8.0148106 3.9347818
0.034190085 0.0080403769 2.5541763
0.35584256 0.19455494 2.5787168
0.46610865 0.25850829 2.5859406
0.69307882 0.39028797 2.5900176
0.94049841 0.53380084 2.6072483
1.1924217 0.68000585 2.5828779
1.5467196 0.88484937 2.6897616
1.6449294 0.94329321 2.346885
0.14405842 0.064484552 2.5701327
0.25228575 0.12302891 2.5750504
0.57606679 0.3211807 2.5768948
0.80964333 0.45622519 2.5814362
1.0562197 0.59894866 2.5744388
1.4974819 0.85219306 2.8884568
1.60136 0.91386807 2.5162146
1.6814544 0.96149999 2.1780884
5.7746601 3.3313749 5.4578924
3.9775765 2.2974288 3.0961754
13.114696 7.5931749 4.5443335
13.732615 7.9573331 3.1047678
3.8250992 2.1995838 3.2964287
14.519569 8.3660269 7.8339853
14.277205 8.2330132 5.8251863
13.829472 7.9812517 3.9418159
14.984305 8.651207 2.505434
0.034217943 0.0079209823 2.5541763
0.35651952 0.19331163 2.5787168
0.46700817 0.25687972 2.5859406
0.69443691 0.38786629 2.5900176
0.94235605 0.53051466 2.6072483
1.1947881 0.67583936 2.5828779
1.5497988 0.8794449 2.6897616
1.6482121 0.9375456 2.346885
0.14401747 0.063867107 2.565141
0.25271365 0.12214752 2.5750504
0.57718444 0.31916791 2.5768948
0.81123096 0.45339623 2.5814362
1.0583041 0.59525812 2.5744388
1.5004475 0.84696066 2.8884568
1.6019179 0.90678841 2.5122247
1.6759536 0.95060724 2.1670628
5.7862539 3.3111973 5.4578924
3.9928279 2.2876878 3.1016581
13.141121 7.5473495 4.5443335
13.743271 7.8995576 3.1010373
4.1070008 2.3398085 4.2910514
3.857331 2.2002368 3.3170307
14.064018 8.0447922 5.728219
13.882557 7.9474187 3.9488499
14.726497 8.433959 2.4591584
0.034245383 0.0078014918 2.5541763
0.35719213 0.19206597 2.5787168
0.467902 0.25524798 2.5859406
0.6957866 0.3854399 2.5900176
0.94420213 0.52722198 2.6072483
1.1992286 0.67283636 2.5872669
1.5504071 0.87264967 2.6856289
1.6542662 0.93336147 2.3507226
0.14450508 0.063477263 2.5701327
0.25313848 0.12126464 2.5750504
0.57829499 0.31715119 2.5768948
0.81280863 0.45056176 2.5814362
1.0641779 0.5936811 2.5834413
1.5011191 0.84044409 2.884191
1.6024458 0.89971608 2.5082345
1.6822163 0.94641346 2.170738
6.5587931 3.7184181 7.488863
6.1159678 3.47159 5.7529068
4.0007892 2.2737362 3.1016581
13.034006 7.4254465 4.4992123
4.0826364 2.3070891 4.2577963
3.8614697 2.1847684 3.3140874
14.917163 8.456953 8.0144186
13.701838 7.7742696 5.5720854
13.918667 7.9037104 3.9511943
0.034316033 0.0076827351 2.559176
0.35786042 0.19081797 2.5787168
0.46879014 0.25361314 2.5859406
0.69712776 0.38300881 2.5900176
0.94603676 0.52392292 2.6072483
1.20157 0.66864616 2.5872669
1.5509865 0.86586082 2.6814959
1.6603115 0.92914653 2.3545601
0.14472578 0.062972464 2.5701327
0.25356025 0.12038028 2.5750504
0.57939857 0.31513065 2.5768948
0.81437647 0.44772175 2.5814362
1.0586241 0.5857479 2.5654364
1.5017636 0.83393312 2.879925
1.6055768 0.894117 2.5082345
1.6855098 0.94053566 2.170738
6.5530815 3.6850128 7.4678349
6.1890993 3.4845924 5.8093991
4.0050597 2.257704 3.098917
13.840831 7.8212247 4.7628889
14.533527 8.2193432 3.2614479
4.0678654 2.2800453 4.2345176
3.9078465 2.1930349 3.3464625
15.029667 8.4515457 8.0584774
13.835889 7.7866096 5.6148171
14.005463 7.8884726 3.967607
0.034342639 0.0075629032 2.559176
0.35852429 0.18956764 2.5787168
0.46967256 0.25197521 2.5859406
0.6997714 0.38128689 2.5947895
0.94785976 0.52061743 2.6072483
1.2059937 0.66560495 2.5916562
1.5539995 0.86044157 2.6814959
1.6635445 0.92334527 2.3545601
0.14494471 0.062466893 2.5701327
0.25397891 0.11949446 2.5750504
0.58049506 0.31310624 2.5768948
0.8159343 0.44487634 2.5814362
1.0644795 0.58414316 2.5744388
1.502381 0.82742786 2.875659
1.6060503 0.88705033 2.5042446
1.6917487 0.93628788 2.1744132
6.556561 3.6569049 7.4573216
3.6252782 2.0244987 3.4304495
3.9946671 2.2335067 3.0852096
13.905709 7.793972 4.775579
14.553562 8.1637564 3.2595828
4.1019063 2.2803452 4.2611217
3.9437323 2.195107 3.3700078
13.854738 7.7336626 5.6115298
14.088077 7.8703527 3.982847
14.597871 8.1584883 2.4246244
0.034368832 0.0074429787 2.559176
0.35918382 0.188315 2.5787168
0.47054926 0.25033423 2.5859406
0.70109808 0.37884188 2.5947895
0.94967127 0.51730561 2.6072483
1.2083098 0.66139114 2.5916562
1.5545268 0.85365754 2.6773629
1.6667575 0.9175328 2.3545601
0.14516188 0.061960559 2.5701327
0.25439447 0.11860718 2.5750504
0.58047587 0.31048557 2.5720553
0.81748229 0.44202548 2.5814362
3.9903054 2.1712198 9.4567947
1.5029712 0.82092845 2.871393
1.6091368 0.88143879 2.5042446
1.6950066 0.93037689 2.1744132
4.6282592 2.5602798 5.277494
3.6459427 2.0193751 3.4430032
3.8854215 2.1546586 2.9974828
6.6942525 3.7153072 4.0942001
14.251439 7.929009 3.1877708
15.032305 8.3703184 1.637587
4.3518014 2.3994167 4.5072088
3.9796796 2.1969547 3.393553
13.877517 7.6829658 5.6098862
14.145225 7.8376188 3.9910531
14.634922 8.1122837 2.4260058
0.034394603 0.0073229638 2.559176
0.36052877 0.18741776 2.5836561
0.4714202 0.24869017 2.5859406
0.70241618 0.37639228 2.5947895
0.95147121 0.51398748 2.6072483
1.210611 0.65716934 2.5916562
1.5550257 0.8468802 2.6732299
1.6699501 0.91170913 2.3545601
0.14537728 0.061453473 2.5701327
0.25432214 0.11749681 2.5700788
0.58155608 0.30845746 2.5720553
0.81902027 0.43916926 2.5814362
3.9901967 2.1531429 9.4387903
1.5035342 0.81443506 2.8671272
1.609556 0.8743782 2.5002546
1.698244 0.92445451 2.1744132
4.5590024 2.5012255 5.1898804
3.7109652 2.0384932 3.496357
3.7720115 2.0745857 2.9070144
6.711061 3.6940534 4.0965185
14.174026 7.8148251 4.8474903
14.244623 7.8602281 3.1803102
15.083228 8.329833 1.6398222
4.6255069 2.5293093 4.7765741
3.9022338 2.1364639 3.322917
13.088817 7.1867452 5.2861152
14.278992 7.8467169 4.0203609
14.728243 8.0969343 2.4363661
15.236569 8.3833075 0.79519451
0.034419954 0.0072028595 2.559176
0.36118078 0.18615815 2.5836561
0.47138298 0.24657169 2.5810454
0.70240748 0.37323803 2.5900176
0.95325959 0.51066309 2.6072483
1.2128977 0.65293956 2.5916562
1.5554965 0.84010988 2.6690972
1.6703037 0.90434837 2.3507226
0.14532343 0.060837027 2.565141
0.25473073 0.11660834 2.5700788
0.58262926 0.30642557 2.5720553
0.82054824 0.43630764 2.5814362
3.9919295 2.1361201 9.4252863
1.5040703 0.80794775 2.8628612
1.6125983 0.86875451 2.5002546
1.7014605 0.91852093 2.1744132
4.5301142 2.4648435 5.1478257
3.7522385 2.0441475 3.5277414
3.801255 2.0734198 2.9234631
6.735579 3.6769724 4.1034751
14.23068 7.7814112 4.8573608
14.073752 7.7019787 3.1374097
14.911297 8.1670876 1.6192567
4.8640642 2.6377399 5.0093594
3.6858799 2.001323 3.1374981
13.055763 7.1093965 5.2631059
14.267883 7.7758923 4.00981
14.786853 8.062068 2.4412007
15.278895 8.3372498 0.79579908
0.034444887 0.0070826681 2.559176
0.36182839 0.18489625 2.5836561
0.47224081 0.24492477 2.5810454
0.70370603 0.3707839 2.5900176
0.95503634 0.5073325 2.6072483
1.2151694 0.64870179 2.5916562
1.5559387 0.83334655 2.664964
1.6706263 0.89699638 2.346885
0.1455349 0.060329378 2.565141
0.25513622 0.11571846 2.5700788
0.58369535 0.30438995 2.5720553
0.82053965 0.4326362 2.5767434
3.9955156 2.120132 9.4162836
1.5045795 0.8014667 2.8585954
1.6129633 0.86170042 2.4962647
1.7016677 0.91097623 2.170738
4.5857687 2.4744172 5.2003937
6.2078776 3.3538463 5.7717381
3.8084695 2.0601382 2.9234631
6.7717466 3.6660924 4.1173878
13.887827 7.5248218 6.4700742
14.257756 7.7316895 4.8573608
14.135089 7.6715503 3.1448705
14.74279 8.0080223 1.5991381
4.5707059 2.4580505 4.703413
3.6109891 1.9443704 3.0698051
13.11374 7.0817299 5.2762542
14.290665 7.7237301 4.0086379
14.749563 7.9750733 2.4308405
15.356237 8.3100204 0.79801595
0.034469403 0.0069623864 2.559176
0.36247161 0.18363211 2.5836561
0.47309288 0.24327484 2.5810454
0.70499605 0.36832523 2.5900176
0.95680141 0.50399566 2.6072483
1.2174264 0.64445609 2.5916562
1.5588382 0.8279103 2.664964
1.6709179 0.88965303 2.3430474
0.14574461 0.059821002 2.565141
0.25553861 0.11482716 2.5700788
0.58475429 0.30235061 2.5720553
0.82204479 0.42976934 2.5767434
4.002892 2.1061721 9.4162836
1.5073681 0.79620987 2.8585954
1.6132985 0.85465443 2.4922745
1.7018428 0.90344125 2.1670628
4.691855 2.5105522 5.3090348
6.1577897 3.2990704 5.7152457
3.8414304 2.0606675 2.9426532
6.7298613 3.6130972 4.0849247
13.901755 7.4697142 6.4644547
12.63695 6.7957864 4.3074479
14.161782 7.6221628 3.1448705
13.617572 7.3353815 1.4815563
4.5693755 2.4368103 4.6934366
3.6177542 1.9317539 3.0698051
13.13838 7.0359111 5.2762542
14.317538 7.6737995 4.0086379
14.650747 7.8556757 2.4108109
0.034449864 0.0068422598 2.5541763
0.36311036 0.18236573 2.5836561
0.47484654 0.24208388 2.5859406
0.70627743 0.3658621 2.5900176
0.95855492 0.50065273 2.6072483
1.2196685 0.64020252 2.5916562
1.5592288 0.82115281 2.6608312
1.6683441 0.8808223 2.3353724
0.14595254 0.059311893 2.565141
0.25642571 0.11414932 2.5750504
0.58580613 0.3003076 2.5720553
0.82353997 0.42689726 2.5767434
4.0102196 2.0921867 9.4162836
1.5101382 0.79094326 2.8585954
1.6136044 0.84761661 2.4882846
1.701986 0.89591616 2.1633875
6.5655518 3.4836907 7.3837261
6.0180244 3.1972055 5.5771537
3.8449092 2.0452826 2.9399118
6.7346125 3.5854204 4.0802875
13.911379 7.4124227 6.4569621
14.116678 7.5281305 4.7924991
14.279308 7.6212549 3.1644554
13.577207 7.2526069 1.4748501
4.5580492 2.4103727 4.6734834
3.6244752 1.9191138 3.0698051
12.920966 6.8615522 5.1809306
14.335652 7.6192122 4.0062933
14.35452 7.6324477 2.3597007
0.034473538 0.0067219655 2.5541763
0.36374474 0.18109712 2.5836561
0.47568867 0.24042487 2.5859406
0.70755023 0.36339453 2.5900176
0.96029663 0.49730372 2.6072483
1.2218958 0.63594121 2.5916562
1.5620857 0.81570506 2.6608312
1.6657293 0.87202042 2.3276975
0.14615868 0.058802061 2.565141
0.25682259 0.11325353 2.5750504
0.58685082 0.29826093 2.5720553
0.82656008 0.42480847 2.5814362
4.017498 2.0781755 9.4162836
1.5128899 0.78566712 2.8585954
1.6165532 0.84197891 2.4882846
1.7020975 0.88840115 2.1597126
6.5271745 3.4341836 7.3276534
5.8982878 3.1072428 5.4578924
6.7196641 3.5474138 4.0640554
14.068336 7.4331207 6.5169001
12.879154 6.8105526 4.3723097
14.414367 7.6288104 3.1877708
4.6061158 2.4152539 4.7133894
3.5846281 1.8820248 3.031544
12.94066 6.8142076 5.179287
14.357862 7.5668592 4.0051212
14.560677 7.6769881 2.3880184
0.034496792 0.0066015893 2.5541763
0.36437467 0.1798263 2.5836561
0.47652501 0.23876294 2.5859406
0.70881438 0.36092249 2.5900176
0.96202672 0.49394864 2.6072483
1.2241082 0.63167214 2.5916562
1.5624244 0.8089537 2.6566982
1.6659182 0.86472404 2.3238599
0.14636305 0.058291517 2.565141
0.25721636 0.11235636 2.5750504
0.58788836 0.29621062 2.5720553
0.82803786 0.42192066 2.5814362
4.0266652 2.0651329 9.420785
1.5133044 0.77918756 2.8543293
1.6168051 0.83494848 2.4842944
1.7021772 0.88089615 2.1560371
6.5580935 3.4212754 7.3486805
5.9677486 3.1172705 5.5112462
6.7123833 3.5136645 4.0524616
14.106517 7.3904219 6.5225186
13.055793 6.8457494 4.4230704
14.366964 7.5396433 3.1719165
14.954567 7.854661 1.6094209
3.5194697 1.8321728 2.9726808
12.964368 6.7689948 5.179287
14.371263 7.5099406 4.0016041
14.653214 7.6605291 2.3983788
0.034519624 0.0064811329 2.5541763
0.36430186 0.17821257 2.5787168
0.47735554 0.23709811 2.5859406
0.71006995 0.35844606 2.5900176
0.96374506 0.49058753 2.6072483
1.2263057 0.62739533 2.5916562
1.5627352 0.80220991 2.6525652
1.6660764 0.85743701 2.3200223
0.14656563 0.057780255 2.565141
0.25760698 0.11145782 2.5750504
0.59004349 0.29471797 2.5768948
0.82950562 0.41902772 2.5814362
4.0338492 2.0510645 9.420785
1.5136921 0.77271485 2.8500636
1.6197097 0.82929969 2.4842944
1.7052417 0.87494916 2.1560371
6.487638 3.3557632 7.2575622
6.0580878 3.1375909 5.5834308
6.7095098 3.4794126 5.0398746
14.288374 7.4285731 4.8235202
14.375764 7.4803772 3.1681859
14.995143 7.8093123 1.6107621
3.5545781 1.8347073 2.9962261
7.0678582 3.6511631 4.7603855
12.941788 6.6998191 5.1612086
14.384444 7.453023 3.9980872
14.679865 7.6093335 2.3983788
0.034542039 0.0063605979 2.5541763
0.36492172 0.17693985 2.5787168
0.47726655 0.23498118 2.5810454
0.71131682 0.35596526 2.5900176
0.96545166 0.48722044 2.6072483
1.2284882 0.62311089 2.5916562
1.563018 0.79547381 2.6484323
1.6662042 0.85015947 2.316185
0.14676642 0.057268295 2.565141
0.25750369 0.11034991 2.5700788
0.59106869 0.29265651 2.5768948
0.83250642 0.41690207 2.586129
4.0409842 2.0369711 9.420785
1.5140529 0.76624876 2.8457975
1.6225947 0.82364076 2.4842944
1.7052639 0.86745441 2.1523621
2.9103055 1.4925547 3.2939208
6.0136032 3.0879779 5.5332155
6.624928 3.4062595 4.9685965
14.31848 7.3808494 4.8249302
14.532753 7.4977183 3.1961646
13.407227 6.9229574 1.4475782
3.6005416 1.8425426 3.0286009
7.0805602 3.6264694 4.7603855
13.107934 6.7279172 5.2170877
14.393078 7.3938813 3.9933977
0.034564029 0.0062399842 2.5541763
0.36553714 0.17566495 2.5787168
0.47808388 0.23331378 2.5810454
0.7138924 0.35414314 2.5947895
0.96889377 0.48472124 2.6118507
1.2349354 0.62097037 2.6004343
1.5657852 0.79001302 2.6484323
1.6691617 0.84433818 2.316185
0.14696544 0.056755636 2.565141
0.25788733 0.10945038 2.5700788
0.59208661 0.29059154 2.5768948
0.83395654 0.41399354 2.586129
4.0500174 2.0238261 9.4252863
1.5143874 0.75978971 2.8415318
1.6281515 0.81932622 2.4882846
1.7082813 0.86149669 2.1523621
2.9123189 1.4807703 3.2904162
5.9237533 3.0157573 5.4421997
6.4654117 3.2957604 4.8424892
14.254454 7.2849798 4.7953196
14.471369 7.4022036 3.1775119
13.431311 6.8761153 1.4475782
5.5286736 2.8012815 5.6012983
3.6069512 1.8299633 3.0286009
7.1123934 3.61149 4.7730513
7.0889564 3.6042476 3.7637637
13.194468 6.7142453 5.2417407
14.401474 7.3347712 3.9887085
0.034585603 0.0061192955 2.5541763
0.3668499 0.17472133 2.5836561
0.47889537 0.23164353 2.5810454
0.71512425 0.35164905 2.5947895
0.97057986 0.48133621 2.6118507
1.239239 0.61772406 2.6048231
1.5660164 0.78328389 2.6442995
1.6692334 0.83706987 2.3123474
0.14716265 0.056242287 2.565141
0.25826782 0.10854952 2.5700788
0.59309739 0.28852299 2.5768948
0.83539659 0.41107994 2.586129
4.0570569 2.0096767 9.4252863
1.514695 0.75333762 2.8372657
1.6310016 0.81363791 2.4882846
1.7082458 0.85401249 2.1486869
2.91747 1.4705955 3.2904162
5.930769 2.9933076 5.4390612
6.38731 3.2279088 4.7766943
6.9623871 3.5215702 4.1707201
14.317492 7.2605538 3.1392746
5.5484281 2.7869937 5.6112747
3.62415 1.8228099 3.0374305
6.5704889 3.3075304 4.4082732
7.1014943 3.5794804 3.7637637
13.268416 6.6936698 5.2614622
14.42265 7.2822657 3.9875362
13.826093 6.984076 2.2526453
0.034650363 0.0059972294 2.559176
0.36745757 0.17343971 2.5836561
0.47970104 0.22997046 2.5810454
0.7163474 0.34915066 2.5947895
0.9722541 0.47794533 2.6118507
1.2542713 0.61975926 2.6311576
1.5662199 0.77656281 2.6401665
1.6692752 0.82981145 2.3085101
0.14735807 0.055728249 2.565141
0.25864515 0.10764734 2.5700788
0.59410089 0.28645092 2.5768948
0.83682644 0.40816137 2.586129
4.0660019 1.9964621 9.4297876
1.512637 0.74573958 2.8287337
1.6338317 0.80793971 2.4882846
1.7081789 0.8465392 2.1450119
2.9289658 1.4635906 3.297425
6.1630111 3.0875988 4.6039815
6.9231582 3.4714329 4.1405754
13.297594 6.6792936 4.4639616
14.312028 7.1950874 3.1327462
13.96833 7.0284014 1.4967569
5.6082578 2.7925727 5.6611571
3.6449599 1.8173623 3.0492032
6.5742807 3.2807252 4.4032073
7.0936465 3.5445271 3.7532737
13.401511 6.7022305 5.3041935
14.391478 7.2035933 3.972296
13.850388 6.9357715 2.2526453
0.034671087 0.0058762413 2.559176
0.36806077 0.17215599 2.5836561
0.48142076 0.22873099 2.5859406
0.71756178 0.34664801 2.5947895
0.97216022 0.47369313 2.6072483
1.2800875 0.62696326 2.6794376
1.5663955 0.7698499 2.6360335
1.6692863 0.82256287 2.3046725
0.14755172 0.055213533 2.565141
0.25901932 0.10674384 2.5700788
0.59509718 0.2843754 2.5768948
0.83669233 0.40448701 2.5814362
4.074903 1.9832095 9.434289
1.5128875 0.73930997 2.8244677
1.6339363 0.80090553 2.4842944
1.7080804 0.8390767 2.1413364
2.9468396 1.4596893 3.3114433
3.3432515 1.6582081 3.0914962
4.4959779 2.2328475 3.3758049
6.9273005 3.4433024 4.1359382
13.213474 6.579381 4.4287109
14.372229 7.1626143 3.1402075
13.992779 6.9796 1.4967569
5.6179714 2.7729793 5.6611571
3.6657763 1.8117917 3.0609758
6.6088758 3.2692246 4.4184065
7.1100421 3.5217578 3.7553713
13.34867 6.6176558 5.2746105
14.425243 7.1576347 3.9746406
13.781364 6.8411427 2.2381408
0.034647785 0.005756787 2.5541763
0.36865944 0.17087017 2.5836561
0.48221627 0.22704913 2.5859406
0.7187674 0.34414113 2.5947895
0.97380781 0.4702968 2.6072483
1.3167419 0.63922322 2.7496629
1.5690732 0.76437747 2.6360335
1.6692673 0.81532443 2.3008351
0.14774354 0.054698147 2.565141
0.25939035 0.10583904 2.5700788
0.5960862 0.28229639 2.5768948
0.83809912 0.40156394 2.5814362
4.0739579 1.9651903 9.4162836
1.5131117 0.7328878 2.8202019
1.6367221 0.79519719 2.4842944
1.710999 0.83310932 2.1413364
2.9615209 1.4541093 3.3219571
3.3664839 1.6551139 3.1071882
4.466229 2.1986721 3.3483903
6.9432516 3.4210587 4.138257
13.287979 6.5586958 4.445631
3.6466694 1.7865369 3.0403738
6.6589527 3.2651141 4.4437385
13.363213 6.566855 5.2713237
14.428332 7.0965114 3.9687793
13.934017 6.8564 2.2581706
0.034667667 0.0056358082 2.5541763
0.36925367 0.16958226 2.5836561
0.48300588 0.22536451 2.5859406
0.71996433 0.34163007 2.5947895
0.97544348 0.46689466 2.6072483
1.3470227 0.64812011 2.806721
1.5691977 0.75767231 2.6319005
1.6692181 0.80809605 2.2969975
0.14793357 0.054182094 2.565141
0.25975823 0.10493296 2.5700788
0.59706795 0.28021392 2.5768948
0.83949578 0.39863598 2.5814362
4.072937 1.947202 9.3982792
1.5133096 0.72647303 2.8159359
1.636773 0.78817195 2.4803045
1.7108436 0.82565838 2.1376615
2.9665785 1.4437629 3.3219571
3.4457195 1.6791588 3.1730957
4.4588451 2.175734 3.3374245
13.315101 6.51438 4.447041
3.5947068 1.7455479 2.993283
6.6703095 3.2418499 4.4437385
13.538886 6.5946107 5.3304896
14.619042 7.1270447 4.0133276
14.327289 6.9878993 2.3154972
0.034687128 0.0055147614 2.5541763
0.36984336 0.1682923 2.5836561
0.48378959 0.22367713 2.5859406
0.72115242 0.33911484 2.5947895
0.97706729 0.46348691 2.6072483
1.3795429 0.65784389 2.8681679
1.5718329 0.75219011 2.6319005
1.6691388 0.80087799 2.29316
0.1481218 0.053665377 2.565141
0.26012293 0.10402559 2.5700788
0.59804249 0.27812809 2.5768948
0.84088212 0.39570317 2.5814362
4.0738072 1.9301767 9.3847752
1.5134811 0.72006589 2.8116701
1.6367946 0.78115594 2.4763145
1.7137151 0.81968135 2.1376615
4.5840826 2.2111683 5.0812392
3.4340355 1.6586567 3.1574037
4.466413 2.1601567 3.3374245
14.373679 6.9702077 4.785449
3.5898516 1.7277308 2.9844534
6.66605 3.2110634 4.4336052
13.349196 6.4446607 5.2483144
14.827643 7.1647897 4.0625644
14.396177 6.9593973 2.3224039
0.034706168 0.0053936471 2.5541763
0.37042856 0.16700028 2.5836561
0.48456743 0.22198702 2.5859406
0.72233176 0.33659548 2.5947895
0.97867924 0.46007347 2.6072483
1.4121472 0.66734838 2.9296153
1.5719062 0.74549311 2.6277676
1.6690295 0.79367036 2.2893224
0.14830823 0.053148009 2.565141
0.26098084 0.1033112 2.5750504
0.59900969 0.27603883 2.5768948
0.84225827 0.39276555 2.5814362
4.0647554 1.9085433 9.3487654
1.5159854 0.71477848 2.8116701
1.6367875 0.7741496 2.4723246
1.7135023 0.81224233 2.1339862
4.5853386 2.1920772 5.0742302
4.2472882 2.0331948 3.8792486
4.4814672 2.1481674 3.3429072
14.289832 6.868041 4.7501984
14.030536 6.755465 1.490945
5.7673798 2.7472568 5.7708988
3.5849159 1.7099689 2.9756241
6.677218 3.1877749 4.4336052
13.363092 6.3939476 5.2450275
15.027916 7.1969657 4.1094575
14.420382 6.9091034 2.3224039
0.034724783 0.0052724672 2.5541763
0.37100923 0.16570622 2.5836561
0.48533934 0.22029421 2.5859406
0.72485775 0.33469746 2.5995615
0.98027921 0.45665446 2.6072483
1.4361581 0.67257077 2.973506
1.5719521 0.73880482 2.6236346
1.6688905 0.78647333 2.285485
0.14849286 0.052629992 2.565141
0.2613399 0.10239957 2.5750504
0.59996957 0.2739462 2.5768948
0.84519082 0.39054668 2.586129
4.079288 1.8980163 9.3667707
1.5161083 0.70837849 2.807404
1.6367513 0.76715267 2.4683344
1.7163271 0.80625618 2.1339862
4.5897393 2.1745312 5.0707254
5.4640856 2.5922594 4.9588776
4.4851613 2.130717 3.3401661
13.44322 6.4034715 4.4667816
13.761889 6.5670414 1.4618849
5.7769341 2.727108 5.7708988
3.6310601 1.716446 3.0079987
6.6766157 3.1589172 4.4260058
13.496264 6.3998675 5.2877584
15.052946 7.1444645 4.1094575
14.077595 6.6845474 2.2657681
0.034742977 0.0051512225 2.5541763
0.3715854 0.16441014 2.5836561
0.48610535 0.21859871 2.5859406
0.72602159 0.33216518 2.5995615
0.98186731 0.45322987 2.6072483
1.4406695 0.66856152 2.977895
1.5719703 0.73212516 2.6195016
1.6716255 0.78064305 2.285485
0.14867567 0.052111335 2.565141
0.26169574 0.1014867 2.5750504
0.60092217 0.27185026 2.5768948
0.84654891 0.38759404 2.586129
4.0740261 1.8782969 9.3397627
1.5185716 0.70308197 2.807404
1.6339532 0.75889629 2.4603543
1.7160575 0.79882962 2.1303113
4.5876174 2.1539497 5.0602121
5.6457009 2.6543159 5.1126623
4.4925718 2.1150479 3.3401661
14.298388 6.7496824 4.7375083
14.189904 6.7105751 1.5021219
5.7864184 2.7069263 5.7708988
3.6626518 1.7157632 3.0286009
6.6915035 3.1374218 4.4285388
14.827085 6.9739556 4.0426354
13.979863 6.5784378 2.2471199
0.034760747 0.0050299158 2.5541763
0.37215704 0.16311207 2.5836561
0.48686546 0.21690056 2.5859406
0.72717667 0.32962888 2.5995615
0.98344332 0.44979975 2.6072483
1.4538747 0.66853064 2.9998405
1.5745164 0.72663355 2.6195016
1.6714313 0.77345717 2.2816474
0.14885665 0.051592045 2.565141
0.26155001 0.10038357 2.5700788
0.60301465 0.27026466 2.5817342
0.84946835 0.38534924 2.5908215
3.4112697 1.5583464 7.8183532
1.518646 0.69668949 2.8031383
1.6311177 0.75066888 2.4523742
1.715757 0.79141468 2.126636
4.5789409 2.1304011 5.0426893
5.7219677 2.6658237 5.1722927
4.5112953 2.1046562 3.3483903
14.643403 6.8501458 4.8418503
14.127563 6.6208496 1.4936274
3.2653568 1.5137134 3.2867501
3.6906161 1.7131786 3.0462599
6.6633205 3.0958817 4.4032073
14.868959 6.9303699 4.0473242
13.419288 6.2575302 2.1573312
0.034778092 0.0049085477 2.5541763
0.37272415 0.16181201 2.5836561
0.48668787 0.21478921 2.5810454
0.72832286 0.32708856 2.5995615
0.98500741 0.44636413 2.6072483
1.4627379 0.66643 3.0130074
1.574484 0.71996295 2.6153688
1.674121 0.76761812 2.2816474
0.14903584 0.051072124 2.565141
0.26189882 0.099469982 2.5700788
0.60395437 0.26815808 2.5817342
0.85080826 0.38238171 2.5908215
3.4087551 1.5428389 7.8003478
1.5210687 0.6913842 2.8031383
1.6309865 0.74372065 2.4483843
1.7123424 0.78260255 2.1192856
2.9961638 1.3813189 3.3219571
5.7983823 2.6768305 5.2319231
4.5375919 2.0976691 3.3620977
7.295126 3.3785794 3.3364899
14.597589 6.7667098 4.8192897
14.200273 6.5945678 1.4985453
3.2841926 1.5085397 3.3000519
3.696574 1.7002856 3.0462599
6.7014971 3.0852225 4.4209394
14.840108 6.8539691 4.0332565
13.454535 6.2168813 2.1594033
0.034795016 0.0047871196 2.5541763
0.37328666 0.16050997 2.5836561
0.48743469 0.21308905 2.5810454
0.72946012 0.32454422 2.5995615
0.98655957 0.44292313 2.6072483
1.4606893 0.65934962 3.0042293
1.5744243 0.71330148 2.6112356
1.6738721 0.76044405 2.2778101
0.14921321 0.050551575 2.565141
0.26224443 0.09855517 2.5700788
0.60488671 0.26604825 2.5817342
0.85213786 0.37940952 2.5908215
3.4061744 1.5273683 7.7823434
1.5210947 0.6849997 2.7988722
1.6280802 0.73554188 2.4404042
1.7119753 0.7752223 2.1156106
3.0106988 1.375297 3.3324707
3.4361625 1.5718044 3.1291575
4.5867047 2.1009717 3.3922536
7.3195152 3.3588946 3.342109
14.367972 6.6115756 1.5128518
3.2962353 1.5001597 3.3067031
3.6215689 1.6504954 2.9815104
6.7396793 3.0743339 4.4386716
14.841845 6.7920136 4.0273952
13.030397 5.965795 2.0910261
0.034855042 0.0046626581 2.559176
0.37455988 0.1595097 2.5885952
0.48817554 0.21138629 2.5810454
0.73058861 0.32199594 2.5995615
0.98809963 0.43947667 2.6072483
1.4586092 0.65229172 2.9954512
1.5743374 0.70664918 2.6071029
1.6765163 0.75459653 2.2778101
0.14938875 0.050030418 2.565141
0.26308721 0.097822964 2.5750504
0.60581177 0.26393518 2.5817342
0.85345709 0.37643269 2.5908215
3.4154644 1.5172367 7.7913461
1.5210948 0.67862356 2.7946064
1.6306378 0.72985429 2.4404042
1.7084845 0.7664665 2.1082602
3.0122321 1.3633089 3.3289661
3.4699898 1.5726539 3.1542652
4.5902023 2.08322 3.3895123
7.3311954 3.3333244 3.342109
14.667368 6.6874046 1.5401237
3.2742217 1.4763669 3.2800992
3.5536306 1.6045771 2.9226472
6.7975097 3.0720937 4.46907
13.073691 5.9305029 2.0944793
14.069812 6.3882775 0.71700054
0.034871109 0.0045409626 2.559176
0.37511438 0.15820128 2.5885952
0.48891041 0.20968094 2.5810454
0.73170811 0.31944376 2.5995615
0.98962766 0.43602487 2.6072483
1.4586874 0.64622629 2.9910622
1.5767944 0.7011494 2.6071029
1.6762125 0.7474345 2.2739725
0.14956248 0.04950865 2.565141
0.26342708 0.096904032 2.5750504
0.60672933 0.26181889 2.5817342
0.85476589 0.37345126 2.5908215
3.4227319 1.5061817 7.7958465
1.5210689 0.67225564 2.7903402
1.630421 0.72293669 2.4364142
1.7080516 0.75912142 2.1045849
4.572444 2.0502119 5.0041389
3.4577041 1.5525602 3.1385729
6.0542674 2.7222118 4.4367523
7.3766012 3.3229458 3.3570933
14.872158 6.7181697 1.5580068
5.9520988 2.6588261 5.8872914
3.5555201 1.5905123 2.919704
6.7373719 3.0166383 4.4234729
13.180133 5.9234004 2.1076024
14.087469 6.3370762 0.71679902
0.034886748 0.0044192122 2.559176
0.37566432 0.15689093 2.5885952
0.48963937 0.20797305 2.5810454
0.73281872 0.31688768 2.5995615
0.99114364 0.43256778 2.6072483
1.4565481 0.63920611 2.9822841
1.5766569 0.69450682 2.6029699
1.6758795 0.74028391 2.2701349
0.14973439 0.048986278 2.565141
0.26376373 0.095983908 2.5750504
0.60763955 0.2596994 2.5817342
0.8560642 0.37046531 2.5908215
3.4299641 1.4950949 7.8003478
1.5234063 0.666942 2.7903402
1.6329346 0.71724105 2.4364142
1.7075882 0.75178868 2.1009099
4.4980927 1.9980465 4.9165254
3.4453208 1.5325716 3.1228805
6.1515837 2.7401943 4.4998059
7.4008555 3.302844 3.3627121
13.081851 5.8545427 1.3796223
5.9101276 2.6153696 5.837409
3.5684412 1.5813667 2.9255905
6.5271893 2.8952215 4.2816143
13.322877 5.9317403 2.1262507
14.109504 6.2878633 0.71679902
0.034901958 0.0042974078 2.559176
0.37549138 0.15528242 2.5836561
0.49036235 0.20626262 2.5810454
0.7339204 0.31432775 2.5995615
0.99444085 0.42988035 2.6118507
1.4565738 0.63316327 2.977895
1.5790715 0.68899906 2.6029699
1.6755168 0.73314476 2.2662973
0.14990446 0.048463307 2.565141
0.26409715 0.095062606 2.5750504
0.60738468 0.25708726 2.5768948
0.8573522 0.36747482 2.5908215
3.4351621 1.4831129 7.8003478
1.5233322 0.66058284 2.7860744
1.6381912 0.71273863 2.4404042
1.7070944 0.74446839 2.0972347
4.3483572 1.9133909 4.7483072
3.4542112 1.5221055 3.126019
4.558208 2.0114052 3.3511319
7.4123392 3.2769904 3.3627121
13.379916 5.9319644 1.4068941
5.8166308 2.5497534 5.7376437
3.6109502 1.5851474 2.9550219
6.5175223 2.8637493 4.2689486
13.34803 5.8871961 2.1269414
14.044529 6.2002373 0.7129699
0.034916747 0.0041755508 2.559176
0.3760311 0.15397078 2.5836561
0.49107936 0.20454969 2.5810454
0.73501313 0.31176397 2.5995615
0.99593544 0.42640647 2.6118507
1.458775 0.628075 2.977895
1.5788838 0.68236661 2.5988369
1.6780658 0.72729164 2.2662973
0.15034865 0.048024636 2.5701327
0.26493025 0.094316952 2.5800219
0.60827839 0.25496554 2.5768948
0.8586297 0.36447987 2.5908215
3.4443216 1.4728247 7.8093505
1.5232322 0.65423226 2.7818084
1.6406692 0.70701593 2.4404042
1.7065706 0.7371608 2.0935595
4.3680863 1.9039003 4.7623258
3.455936 1.5084816 3.1228805
6.1897211 2.7055552 4.5135131
7.3940067 3.2380784 3.349601
13.491734 5.9252734 1.4158356
5.7535739 2.4982064 5.6678085
3.6535294 1.5886508 2.9844534
6.5274792 2.8409815 4.2689486
13.373038 5.8425493 2.1276321
14.038622 6.1391649 0.71176076
0.034974582 0.0040499088 2.5641758
0.37656629 0.15265724 2.5836561
0.49179035 0.20283425 2.5810454
0.73609692 0.30919638 2.5995615
0.99741775 0.42292741 2.6118507
1.4587556 0.62203985 2.973506
1.5812562 0.67685115 2.5988369
1.677649 0.72016549 2.26246
0.15051538 0.04749953 2.5701327
0.26525787 0.093391597 2.5800219
0.60916471 0.2528407 2.5768948
0.85989672 0.36148047 2.5908215
3.4414237 1.4573975 7.7913461
1.5255067 0.64891124 2.7818084
1.6431272 0.70128465 2.4404042
1.7091334 0.73119926 2.0935595
5.9626822 2.5741756 6.4620304
3.4754715 1.5025872 3.1354344
6.3104081 2.7321107 4.5930161
7.396759 3.208559 3.3458548
13.407303 5.8324518 1.4055529
3.4332604 1.4765271 3.4097934
3.6961763 1.591876 3.0138853
6.5492325 2.8232987 4.2765484
14.059966 6.0901237 0.71176076
0.034988508 0.0039277999 2.5641758
0.37637547 0.15105316 2.5787168
0.49249542 0.20111635 2.5810454
0.73717171 0.30662507 2.5995615
0.99888796 0.41944319 2.6118507
1.4609181 0.61694407 2.973506
1.5810182 0.6702292 2.5947039
1.6801525 0.71430498 2.26246
0.15068026 0.046973843 2.5701327
0.26558223 0.09246511 2.5800219
0.61004353 0.25071278 2.5768948
0.86115324 0.35847667 2.5908215
3.434444 1.4403247 7.764338
1.5253592 0.64256996 2.7775426
1.6455652 0.69554478 2.4404042
1.7085536 0.72390634 2.0898843
6.0077014 2.5687685 6.5005803
3.4878516 1.4935107 3.1417115
6.2392025 2.6754606 4.5354447
13.427581 5.7856159 1.4055529
3.4590046 1.4733124 3.4297466
3.6868389 1.5726209 3.0021126
6.570941 2.8054984 4.2841477
13.709355 5.8758507 2.1725264
0.03495856 0.0038096816 2.559176
0.37690046 0.14973845 2.5787168
0.49319443 0.19939598 2.5810454
0.73823756 0.30404997 2.5995615
1.0003461 0.41595387 2.6118507
1.460853 0.61091685 2.9691167
1.5807534 0.66361725 2.5905712
1.6796815 0.70719218 2.2586224
0.15084332 0.046447586 2.5701327
0.26590338 0.09153749 2.5800219
0.61091501 0.2485818 2.5768948
0.86239934 0.35546848 2.5908215
3.427388 1.4233184 7.7373314
1.5251856 0.63623762 2.7732766
1.6452035 0.68863314 2.4364142
1.7110699 0.71793789 2.0898843
5.9969282 2.539439 6.4795532
3.5217109 1.4934834 3.1668191
6.1984701 2.632417 4.4998059
13.452275 5.7406645 1.4059999
5.4938769 2.3173776 5.3917918
3.6774123 1.5534505 2.99034
6.5806942 2.7825444 4.2841477
13.729783 5.8279605 2.1725264
14.088346 5.9859576 0.71115613
0.034971643 0.0036876299 2.559176
0.37742084 0.14842191 2.5787168
0.49388742 0.1976732 2.5810454
0.73929441 0.3014712 2.5995615
0.99998528 0.41171595 2.6072483
1.4629766 0.60581386 2.9691167
1.5804617 0.65701532 2.5864379
1.6791813 0.70009136 2.2547848
0.15100452 0.045920759 2.5701327
0.26622128 0.090608761 2.5800219
0.61177897 0.24644779 2.5768948
0.86363494 0.352456 2.5908215
3.4142146 1.4038956 7.6968203
1.5249869 0.62991434 2.7690108
1.6475972 0.68288612 2.4364142
1.7135657 0.71196085 2.0898843
5.9695783 2.5033197 6.4410028
3.5556123 1.4932379 3.1919267
6.2076211 2.6107643 4.4998059
7.4940348 3.1579294 3.3739507
5.464035 2.2823565 5.3552113
3.6641676 1.5328052 2.9756241
6.4869828 2.7162676 4.2182851
13.987428 5.8797865 2.2084415
14.067711 5.9193053 0.70934236
0.034984302 0.0035655343 2.559176
0.37866101 0.14738467 2.5836561
0.49457446 0.195948 2.5810454
0.74034226 0.29888874 2.5995615
1.0014163 0.40822285 2.6072483
1.4628663 0.59979498 2.9647279
1.5827456 0.65149444 2.5864379
1.6786522 0.6930027 2.2509475
0.15116391 0.045393378 2.5701327
0.26653597 0.089678921 2.5800219
0.61146778 0.24384558 2.5720553
0.86486 0.34943917 2.5908215
3.4170783 1.3911484 7.6923189
1.5271764 0.6245873 2.7690108
1.6471831 0.67598683 2.4324241
1.7160404 0.705975 2.0898843
5.958519 2.4742613 6.4199758
3.5895548 1.4927738 3.2170343
6.2244172 2.5922949 4.5052891
7.5050125 3.1317513 3.3739507
5.5306239 2.2875295 5.4117446
3.6806989 1.5246459 2.9844534
6.4685512 2.68205 4.2005529
14.007867 5.8309255 2.2084415
14.323481 5.9681616 0.71962041
0.034996536 0.0034433943 2.559176
0.37917316 0.146062 2.5836561
0.49525544 0.19422042 2.5810454
0.74138105 0.29630265 2.5995615
1.0010234 0.40399384 2.6026456
1.4649512 0.59468502 2.9647279
1.582404 0.64490378 2.5823052
1.681061 0.68713886 2.2509475
0.15132144 0.044865441 2.5701327
0.26634091 0.088581763 2.5750504
0.61231518 0.24170969 2.5720553
0.8660745 0.34641814 2.5908215
3.4178751 1.3775847 7.6833162
1.5269299 0.61827397 2.7647448
1.6467412 0.66909885 2.4284341
1.7153547 0.69870186 2.0862093
5.9671197 2.4534471 6.4199758
3.6199374 1.4906086 3.2390034
6.3068752 2.6008394 4.5573764
7.4816222 3.091372 3.3589664
13.796886 5.7176867 1.4337188
5.6111355 2.2979248 5.4815798
3.7084365 1.5209913 3.0021126
14.128862 5.8235102 2.2236366
14.348845 5.920032 0.71982199
0.035008341 0.003321212 2.559176
0.37968069 0.14473756 2.5836561
0.49593037 0.19249047 2.5810454
0.74241084 0.29371291 2.5995615
1.0024275 0.40049717 2.6026456
1.4647956 0.58867478 2.9603386
1.5846456 0.63937622 2.5823052
1.680478 0.68006444 2.2471099
0.15147713 0.04433696 2.5701327
0.2666485 0.087651521 2.5750504
0.61315519 0.23957084 2.5720553
0.8672784 0.34339288 2.5908215
3.4206412 1.3648391 7.6788158
1.5290786 0.61294025 2.7647448
1.6434754 0.66109782 2.4204543
1.7177831 0.69270992 2.0862093
5.9855566 2.4366367 6.4304895
3.6575572 1.4911884 3.2672496
6.2849455 2.5661638 4.5354447
7.4065528 3.0301297 3.3215055
13.830583 5.6751633 1.43506
5.5637593 2.2558775 5.4283719
3.8260739 1.5536581 3.0904071
6.5459919 2.6647401 3.3546436
14.162858 5.7797685 2.2257087
14.549794 5.9435916 0.72768164
0.034976352 0.003203786 2.5541763
0.38018364 0.14341134 2.5836561
0.49659923 0.1907582 2.5810454
0.74343151 0.29111964 2.5995615
