# .PCD v0.7 - Point Cloud Data file format
VERSION 0.7
FIELDS x y z
SIZE 4 4 4
TYPE F F F
COUNT 1 1 1
WIDTH 1475
HEIGHT 1
VIEWPOINT 0 0 0 1 0 0 0
POINTS 1475
DATA ascii
-0.19900031 -1.4281261 24.773029
-0.25970683 -2.599328 24.320408
-0.24767892 -5.9651055 23.023462
-0.29974896 -8.1405792 22.206585
-0.28126433 -8.2649059 17.162872
-0.26388738 -8.1292362 13.374123
-0.32538158 -10.414418 13.871823
-0.31279713 -10.299107 11.248394
-0.33256051 -12.292404 12.163927
-0.42458081 -16.002605 12.990189
-0.4250311 -16.341871 10.802436
-0.42694882 -16.638741 8.7990456
-0.3279933 -12.958703 5.3256512
-0.42916328 -17.192451 5.1450076
-0.4298147 -17.462673 3.4078693
-0.42980498 -17.713316 1.683636
-0.43623644 -15.331923 13.742123
-0.45180205 -16.176443 11.866912
-0.17021896 -6.1725178 3.7141826
-0.45410213 -16.782961 7.8486719
-0.45565757 -17.060398 6.0289817
-0.45622438 -17.307682 4.2665482
-0.46056113 -17.588537 2.5461843
-0.44916117 -17.384796 0.79519451
-0.11020159 -0.2048507 25.253311
-0.20201689 -3.7497673 23.871859
-0.15095335 -3.1838894 15.347798
-0.28646633 -7.0455213 22.589401
-0.26985663 -7.2597322 17.174238
-0.2659277 -7.5806351 13.968149
-0.32717481 -9.711977 14.344677
-0.35696048 -10.935567 13.176323
-0.20390184 -1.4268514 24.763046
-0.26888874 -2.5994661 24.330351
-0.26844296 -5.9629488 23.018623
-0.32795438 -8.1343098 22.192507
-0.3082341 -8.2138386 17.059345
-0.28869969 -8.0292244 13.212018
-0.36100024 -10.392139 13.843893
-0.34679481 -10.240353 11.185916
-0.3753581 -12.287604 12.160423
-0.48043776 -16.001026 12.990189
-0.48207229 -16.340288 10.802436
-0.48502624 -16.637148 8.7990456
-0.3732256 -12.957479 5.3256512
-0.48917353 -17.190847 5.1450076
-0.48897395 -17.397232 3.3957453
-0.49149516 -17.70673 1.683189
-0.48975217 -15.330307 13.742123
-0.50826567 -16.174767 11.866912
-0.51285952 -16.5042 9.7887459
-0.51240563 -16.772202 7.8444757
-0.5156343 -17.072863 6.0339117
-0.51605648 -17.286549 4.2618585
-0.52180684 -17.581871 2.5454934
-0.11095989 -0.20454019 25.263311
-0.21510479 -3.7490394 23.871859
-0.16201439 -3.1823261 15.342903
-0.31099218 -7.0429869 22.584629
-0.29511672 -7.2567935 17.169634
-0.29192567 -7.5676947 13.946204
-0.36096936 -9.7079639 14.340544
-0.3931624 -10.8798 13.111084
-0.20871256 -1.4249885 24.743078
-0.27813169 -2.6001017 24.345266
-0.28919494 -5.9607205 23.013784
-0.35589299 -8.1227713 22.164351
-0.33672535 -8.2083626 17.050343
-0.31477109 -7.9786539 13.130965
-0.39589164 -10.354683 13.796014
-0.38038611 -10.181487 11.123439
-0.41824758 -12.286219 12.160423
-0.5362888 -15.999251 12.990189
-0.53910762 -16.338507 10.802436
-0.54309773 -16.635353 8.7990456
-0.39824909 -12.330573 5.0727916
-0.54917783 -17.189035 5.1450076
-0.545044 -17.248125 3.3677666
-0.55314463 -17.699928 1.6827419
-0.54326195 -15.328505 13.742123
-0.56472301 -16.172894 11.866912
-0.56987101 -16.485075 9.7786131
-0.57125729 -16.779383 7.8486719
-0.57266861 -17.172911 4.2348952
-0.58317584 -17.579943 2.5454934
-0.58559668 -17.840616 0.81373543
-0.11171737 -0.20422691 25.273312
-0.22819006 -3.7482655 23.871859
-0.17312181 -3.1817412 15.342903
-0.3355749 -7.0418587 22.584629
-0.32044587 -7.2557187 17.169634
-0.31703082 -7.535522 13.889145
-0.39451104 -9.6982098 14.328145
-0.4291063 -10.827117 13.049685
-0.21368541 -1.4242512 24.743078
-0.28708851 -2.5980554 24.335321
-0.30999997 -5.9596748 23.013784
-0.28633532 -6.0529895 16.53303
-0.36489156 -8.1962633 17.027836
-0.19396167 -4.5172381 7.4658036
-0.43065161 -10.320122 13.752123
-0.41440123 -10.142837 11.083012
-0.4611319 -12.284684 12.160423
-0.59213334 -15.997283 12.990189
-0.59613639 -16.336525 10.802436
-0.60100269 -16.628927 8.7967262
-0.45555013 -12.727541 5.2338719
-0.60900539 -17.182219 5.1435971
-0.60318041 -17.187206 3.3565753
-0.61475259 -17.692913 1.6822948
-0.59661978 -15.322783 13.738797
-0.6211735 -16.170824 11.866912
-0.62724715 -16.478676 9.7760792
-0.62999499 -16.78182 7.8507695
-0.62795681 -17.044516 4.2044148
-0.64417475 -17.567902 2.544112
-0.64732444 -17.823484 0.81313074
-0.11245178 -0.20387325 25.278311
-0.24122253 -3.7466707 23.866919
-0.18416812 -3.1801009 15.338007
-0.3601535 -7.0406446 22.584629
-0.3457711 -7.2545562 17.169634
-0.34093341 -7.4817343 13.792585
-0.42811328 -9.6911497 14.31988
-0.46441096 -10.767913 12.980609
-0.21865568 -1.4234967 24.743078
-0.29615569 -2.5970373 24.335321
-0.33073148 -5.9573007 23.008944
-0.30719963 -6.0467825 16.518951
-0.39109737 -8.144928 16.924309
-0.21021275 -4.5269547 7.4828677
-0.46490276 -10.279422 13.700253
-0.44845164 -10.110847 11.049935
-0.50386441 -12.279436 12.156918
-0.64797068 -15.995118 12.990189
-0.65349203 -16.342701 10.80792
-0.65922028 -16.631155 8.7990456
-0.5036149 -12.818521 5.2713327
-0.66897881 -17.179987 5.1435971
-0.6635502 -17.194815 3.3584406
-0.67650867 -17.690659 1.6822948
-0.65041924 -15.328068 13.745448
-0.67761648 -16.168558 11.866912
-0.68512273 -16.485003 9.781146
-0.68968725 -16.806726 7.863358
-0.68764538 -17.047077 4.2055874
-0.70529556 -17.560598 2.5434215
-0.11318509 -0.20351693 25.28331
-0.2542994 -3.7458057 23.866919
-0.19526763 -3.1794386 15.338007
-0.38472775 -7.0393443 22.584629
-0.37099227 -7.2513547 17.165033
-0.36599076 -7.4589696 13.753084
-0.46153706 -9.6811657 14.307481
-0.49990481 -10.721402 12.926884
-0.22366846 -1.42301 24.748072
-0.30509427 -2.594929 24.325378
-0.35145023 -5.9548554 23.004107
-0.32512176 -5.9870872 16.359398
-0.41806963 -8.1152496 16.865793
-0.22627376 -4.5314031 7.4914002
-0.49843502 -10.229582 13.636412
-0.4830941 -10.095675 11.035234
-0.54672456 -12.277603 12.156918
-0.70397121 -15.996647 12.993326
-0.71035308 -16.336143 10.805179
-0.71707886 -16.624327 8.7967262
-0.5487532 -12.82595 5.2750788
-0.72935092 -17.187136 5.1464171
-0.72253442 -17.167854 3.3537776
-0.73804879 -17.683214 1.6818477
-0.70460558 -15.340624 13.75875
-0.73405111 -16.166094 11.866912
-0.74285603 -16.486816 9.783679
-0.4660596 -10.46565 4.9302807
-0.74629515 -17.025148 4.2008982
-0.76637316 -17.553083 2.5427308
-0.75639039 -17.464151 0.7988221
-0.11389481 -0.2031206 25.28331
-0.26737314 -3.7448952 23.866919
-0.20629871 -3.1777217 15.333112
-0.40929729 -7.0379586 22.584629
-0.39630198 -7.2500153 17.165033
-0.39189944 -7.4552546 13.748694
-0.49475238 -9.6682529 14.290949
-0.53395623 -10.652367 12.846297
-0.22863431 -1.4222205 24.748072
-0.31408608 -2.5933189 24.320408
-0.3723129 -5.9548469 23.008944
-0.34601861 -5.9859157 16.359398
-0.44340402 -8.0594006 16.753262
-0.24236836 -4.5357938 7.4999313
-0.53146797 -10.176624 13.568583
-0.51711446 -10.070228 11.009508
-0.58957809 -12.27562 12.156918
-0.75980568 -15.994092 12.993326
-0.76697999 -16.325211 10.799695
-0.77592969 -16.639423 8.8060017
-0.78846037 -17.165318 5.1407776
-0.78245699 -17.165228 3.3537776
-0.79977024 -17.680531 1.6818477
-0.75814998 -15.338071 13.75875
-0.79047686 -16.163433 11.866912
-0.80123758 -16.501347 9.7938128
-0.50171769 -10.445826 4.9218888
-0.80548966 -17.017586 4.1997261
-0.82764024 -17.550301 2.5427308
-0.81641269 -17.441442 0.79801595
-0.11458054 -0.20268449 25.278311
-0.28038555 -3.7431645 23.861979
-0.21738976 -3.1769822 15.333112
-0.43395379 -7.0379772 22.589401
-0.42160681 -7.2485876 17.165033
-0.41805485 -7.456233 13.753084
-0.52849787 -9.6664667 14.290949
-0.56718856 -10.576823 12.758035
-0.2335974 -1.4214138 24.748072
-0.32307035 -2.5916777 24.315435
-0.39309692 -5.9535108 23.008944
-0.36606604 -5.9708915 16.321856
-0.47153389 -8.0578032 16.753262
-0.25819975 -4.5349202 7.4999313
-0.5644725 -10.129579 13.508731
-0.55207729 -10.064976 11.005833
-0.63242435 -12.273486 12.156918
-0.81582922 -15.995231 12.996466
-0.83400738 -16.636614 8.8060017
-0.60163093 -12.085606 4.9772668
-0.84126824 -17.018723 5.0984759
-0.84261084 -17.167297 3.3547101
-0.86172432 -17.682606 1.6822948
-0.84710443 -16.16461 11.869855
-0.53794378 -10.439478 4.9197907
-0.86488724 -17.014669 4.1997261
-0.88914764 -17.55225 2.5434215
-0.8928529 -17.747847 0.81051093
-0.11528735 -0.20228331 25.278311
-0.29338908 -3.7413883 23.85704
-0.22840501 -3.1751885 15.328217
-0.45842111 -7.0349298 22.584629
-0.44690657 -7.2470722 17.165033
-0.44393694 -7.4523368 13.748694
-0.56191003 -9.6589451 14.282682
-0.23855765 -1.4205898 24.748072
-0.33204705 -2.5900059 24.310465
-0.41387615 -5.9521022 23.008944
-0.38612446 -5.9575233 16.289005
-0.49965799 -8.0561085 16.753262
-0.27339843 -4.5235786 7.4828677
-0.59555167 -10.055356 13.412971
-0.58700967 -10.059603 11.002158
-0.67526299 -12.271204 12.156918
-0.87123424 -15.984512 12.990189
-0.32036722 -5.935359 3.9816689
-0.8934983 -16.660141 8.8199139
-0.64381385 -12.083432 4.9772668
-0.89306259 -16.871971 5.0561752
-0.90278864 -17.169155 3.3556426
-0.92318314 -17.674517 1.6818477
-0.49389604 -8.7527666 7.8892422
-0.90307301 -16.153484 11.863968
-0.3389124 -6.1007957 3.6761849
-0.5746305 -10.442068 4.9218888
-0.92427421 -17.011547 4.1997261
-0.95041102 -17.549038 2.5434215
-0.9529199 -17.709698 0.80910015
-0.11596987 -0.20184249 25.273312
-0.30644718 -3.7403414 23.85704
-0.2394871 -3.1743717 15.328217
-0.48297483 -7.0332866 22.584629
-0.4720737 -7.2435179 17.160429
-0.46979696 -7.4483523 13.744306
-0.59129107 -9.5867081 14.179358
-0.24351498 -1.4197483 24.748072
-0.34101596 -2.5883024 24.305494
-0.434742 -5.9518752 23.013784
-0.40609407 -5.9440875 16.256157
-0.52478611 -8.0086975 16.658737
-0.28902048 -4.5199938 7.4786019
-0.62989306 -10.041185 13.397011
-0.62212068 -10.057492 11.002158
-0.71830183 -12.272333 12.160423
-0.92792684 -15.996915 13.002741
-0.34084356 -5.9300303 3.9789276
-0.68336082 -12.034826 4.9585361
-0.95276219 -16.88312 5.0604053
-0.96271467 -17.165899 3.3556426
-0.98487306 -17.671186 1.6818477
-0.51796764 -8.6429033 7.7928028
-0.95993316 -16.158302 11.869855
-0.3602061 -6.099576 3.6761849
-0.98393059 -17.013069 4.2008982
-1.0116628 -17.545614 2.5434215
-0.11665072 -0.20139934 25.268311
-0.31950152 -3.739249 23.85704
-0.25056624 -3.1735165 15.328217
-0.50741518 -7.0300694 22.579857
-0.49735543 -7.2418261 17.160429
-0.4957937 -7.4466667 13.744306
-0.62017459 -9.5143843 14.076035
-0.24846932 -1.4188898 24.748072
-0.35004875 -2.5870962 24.305494
-0.45561123 -5.9515748 23.018623
-0.4254798 -5.9236999 16.204536
-0.54988921 -7.9655538 16.573215
-0.3044453 -4.5137529 7.4700699
-0.66215104 -9.9968328 13.341151
-0.65700299 -10.051877 10.998484
-0.5193373 -8.3721981 8.3229446
-0.37198266 -6.0480614 4.9682932
-0.36179566 -5.9329777 3.9816689
-0.72452903 -12.018485 4.9529171
-1.0119766 -16.884481 5.0618157
-1.0229213 -17.167339 3.3565753
-1.0459621 -17.657698 1.6809535
-0.52449417 -8.2684155 7.4602528
-0.39756727 -6.3198915 4.6944299
-0.37988034 -6.0724673 3.6609859
-1.0433112 -17.009531 4.2008982
-1.0729023 -17.541977 2.5434215
-1.0807782 -17.77243 0.8119216
-0.11735302 -0.20099095 25.268311
-0.33255202 -3.7381108 23.85704
-0.26164237 -3.1726224 15.328217
-0.53195155 -7.028255 22.579857
-0.52249044 -7.2380972 17.155828
-0.52161694 -7.442502 13.739918
-0.65318942 -9.5093546 14.071903
-0.25347176 -1.4182978 24.753063
-0.35907727 -2.5858588 24.305494
-0.47638333 -5.9499478 23.018623
-0.44420949 -5.8963671 16.134146
-0.57296455 -7.8984475 16.438177
-0.31983009 -4.5074601 7.4615388
-0.69473606 -9.9613943 13.29726
-0.69208658 -10.049522 10.998484
-0.39258698 -6.0389576 4.9620161
-1.0539302 -16.34272 10.821627
-0.76618195 -12.011256 4.9510446
-0.83977985 -13.237605 3.9887805
-1.0828402 -17.163664 3.3565753
-1.1082163 -17.663879 1.6818477
-0.5531038 -8.2628088 7.4569273
-0.42150053 -6.3466973 4.7150321
-0.4005065 -6.062501 3.6559193
-0.83959001 -12.878913 4.5810499
-1.1026793 -17.005785 4.2008982
-1.1338092 -17.533184 2.5427308
-1.1431297 -17.773533 0.81212312
-0.11803064 -0.20054315 25.263311
-0.34559843 -3.7369273 23.85704
-0.27262795 -3.1706753 15.323321
-0.55636364 -7.0248675 22.575087
-0.54760534 -7.2342806 17.151224
-0.54759294 -7.4406362 13.739918
-0.68394732 -9.4733353 14.022307
-0.25847313 -1.4176883 24.758055
-0.36810142 -2.5845895 24.305494
-0.49725437 -5.9495015 23.023462
-0.46451756 -5.8913398 16.12476
-0.60086203 -7.9007406 16.44718
-0.33536837 -4.503715 7.4572725
-0.72664148 -9.9198408 13.24539
-0.72691697 -10.043664 10.994808
-0.54976737 -7.9627819 7.9234266
-0.41339841 -6.0336671 4.9588776
-1.1104033 -16.330599 10.816144
-0.8081044 -12.008509 4.9510446
-0.88598263 -13.234593 3.9887805
-1.142746 -17.159779 3.3565753
-1.1711845 -17.679781 1.683636
-0.58325493 -8.2794495 7.4735546
-0.44308817 -6.3371224 4.7091455
-0.42076853 -6.0481648 3.64832
-0.6941067 -10.052697 4.7456522
-0.88745356 -12.918303 4.5958414
-1.1623653 -17.006683 4.2020707
-1.1946676 -17.524178 2.5420401
-1.2024595 -17.729561 0.81051093
-0.11875333 -0.20016676 25.268311
-0.35864061 -3.735698 23.85704
-0.28369403 -3.1697044 15.323321
-0.58088166 -7.0228829 22.575087
-0.5728544 -7.2323251 17.151224
-0.57356226 -7.4386792 13.739918
-0.71679872 -9.4680834 14.018174
-0.26352644 -1.417345 24.768038
-0.37712109 -2.5832889 24.305494
-0.51801896 -5.9477291 23.023462
-0.48394573 -5.8759241 16.087217
-0.62843716 -7.8985953 16.44718
-0.35088444 -4.499917 7.4530067
-0.75849599 -9.8811913 13.19751
-0.76222807 -10.044446 10.998484
-0.57472038 -7.9216876 7.8848763
-0.43613517 -6.055481 4.9777083
-0.84805238 -11.977869 4.939806
-1.1897429 -16.887312 5.0660453
-1.2033249 -17.165487 3.3584406
-1.2332379 -17.680552 1.684083
-0.61242753 -8.2810869 7.4768801
-0.46520615 -6.335537 4.7091455
-0.44093537 -6.0337615 3.6407206
-0.93220139 -12.910416 4.5941978
-1.2213742 -16.997673 4.2008982
-1.2558311 -17.519901 2.5420401
-1.2483443 -17.501007 0.80144203
-0.11947485 -0.19978778 25.273312
-0.37167844 -3.7344236 23.85704
-0.29466221 -3.1676807 15.318426
-0.60552078 -7.0222993 22.579857
-0.59809643 -7.2302818 17.151224
-0.59971708 -7.4390187 13.744306
-0.74406564 -9.3925886 13.910718
-0.26847228 -1.4164165 24.768038
-0.38621524 -2.5824838 24.310465
-0.53866374 -5.944633 23.018623
-0.5034197 -5.8621631 16.054367
-0.655644 -7.892015 16.438177
-0.36637804 -4.4960651 7.4487405
-0.78960723 -9.8364334 13.14165
-0.79674834 -10.034965 10.991133
-0.60318029 -7.9303012 7.89539
-0.45639053 -6.0422778 4.9682932
-0.89707255 -12.071923 4.9791398
-1.2490375 -16.887842 5.0674558
-1.2614332 -17.136688 3.3537776
-0.64133012 -8.2788982 7.4768801
-0.48669827 -6.3258147 4.7032595
-0.46133599 -6.0235891 3.635654
-0.79215389 -10.414167 4.9155946
-1.2814304 -17.003 4.2032428
-1.3195783 -17.549976 2.5468748
-1.2538719 -16.754223 0.77141386
-0.12024243 -0.19947952 25.288311
-0.38471177 -3.7331033 23.85704
-0.30571771 -3.1666331 15.318426
-0.6300295 -7.020143 22.579857
-0.62333113 -7.2281499 17.151224
-0.62568045 -7.4368801 13.744306
-0.77034998 -9.311409 13.794994
-0.38682091 -4.7363038 5.7661014
-0.2732496 -1.4146204 24.753063
-0.39530832 -2.5816467 24.315435
-0.55917543 -5.9402137 23.008944
-0.52295721 -5.8500581 16.026213
-0.67811668 -7.8311205 16.316647
-0.38162807 -4.4895616 7.4402084
-0.82242835 -9.8156004 13.117709
-0.8306514 -10.018607 10.976432
-0.63114142 -7.9317021 7.8988938
-0.47809267 -6.048408 4.9745698
-1.1190212 -14.314765 7.6025443
-0.9453209 -12.147291 5.0109816
-1.3057561 -16.854681 5.0589952
-1.3212438 -17.132179 3.3537776
-0.67052644 -8.2803316 7.4802055
-0.48167101 -6.0133476 3.6305878
-0.825261 -10.370621 4.8967118
-1.018953 -12.861227 4.5794063
-1.3407741 -16.998423 4.2032428
-1.3458632 -17.100952 2.4847138
-1.1812276 -15.076239 0.70369953
-0.12086671 -0.19894883 25.273312
-0.3978228 -3.7325103 23.861979
-0.31666797 -3.1645336 15.313532
-0.65439188 -7.0164151 22.575087
-0.64855832 -7.2259297 17.151224
-0.65163618 -7.4346504 13.744306
-0.8026064 -9.3058605 13.790862
-0.40389556 -4.741312 5.7737761
-0.27812982 -1.413375 24.748072
-0.40440026 -2.5807779 24.320408
-0.57978499 -5.936975 23.004107
-0.54321474 -5.846478 16.021519
-0.70310324 -7.8026872 16.26263
-0.39706722 -4.4856038 7.4359426
-0.8501336 -9.7376242 13.017959
-0.86415827 -9.9987602 10.958056
-0.65882438 -7.929451 7.8988938
-0.49888238 -6.0428238 4.9714317
-1.1675395 -14.293112 7.5932689
-0.98771703 -12.143917 5.0109816
-1.3657436 -16.864365 5.0632253
-1.3565596 -16.823887 3.2959549
-1.2063036 -15.02582 1.4462371
-0.69942611 -8.2779408 7.4802055
-0.52543694 -6.2578177 4.6561689
-0.50229937 -6.0073342 3.6280546
-0.86183202 -10.3722 4.8988099
-1.0704604 -12.937596 4.6073461
-1.3993032 -16.983952 4.2008982
-1.3726816 -16.696383 2.4287686
-1.1865622 -14.494428 0.68032193
-0.12148874 -0.19841619 25.25831
-0.41093439 -3.7318711 23.866919
-0.32760733 -3.1623964 15.308637
-0.67887974 -7.0140882 22.575087
-0.6719628 -7.2041707 17.1052
-0.67758399 -7.4323306 13.744306
-0.83181393 -9.2665653 13.737133
-0.39863271 -4.4940357 5.4782887
-0.2829476 -1.4118294 24.738089
-0.41357559 -2.5804031 24.330351
-0.60037881 -5.9336638 22.999266
-0.56312239 -5.8393931 16.007441
-0.72526097 -7.7459989 16.150099
-0.41224432 -4.4789968 7.4274111
-0.87648708 -9.6505718 12.906239
-0.8944993 -9.945035 10.902929
-0.6864993 -7.9271026 7.8988938
-0.521308 -6.0565572 4.9839854
-1.0304931 -12.145015 5.0128546
-1.4246029 -16.859495 5.0632253
-1.4115705 -16.774994 3.2875612
-1.2288052 -14.664212 1.4140474
-0.72831726 -8.2754488 7.4802055
-0.54481161 -6.2277589 4.6355667
-0.52289158 -6.0012493 3.6255214
-0.89803249 -10.369128 4.8988099
-1.1135855 -12.910257 4.5991282
-1.4257138 -16.596382 4.108285
-1.3734277 -16.020468 2.334836
-1.1759499 -13.773391 0.65130144
-0.12213254 -0.19791804 25.24831
-0.42413419 -3.7319579 23.876797
-0.33853561 -3.1602211 15.303741
-0.70321029 -7.01019 22.570314
-0.69616461 -7.1920581 17.082188
-0.70352352 -7.4299202 13.744306
-0.86101842 -9.2299843 13.687538
-0.38399434 -4.1638727 5.0830259
-0.28781602 -1.4105505 24.733097
-0.42266679 -2.5794699 24.335321
-0.62108749 -5.9315324 22.999266
-0.58436072 -5.8459773 16.030905
-0.75208467 -7.7412539 16.145599
-0.42762831 -4.4749346 7.4231453
-0.90875316 -9.632453 12.886287
-0.92573792 -9.9047222 10.862502
-0.71416581 -7.9246578 7.8988938
-0.54001462 -6.0275631 4.9620161
-1.0728809 -12.141343 5.0128546
-1.4519004 -16.496025 4.9574728
-1.3851788 -15.801056 3.1029024
-1.2284385 -14.069464 1.360845
-0.75753981 -8.2765741 7.483531
-0.55409175 -6.0889568 4.5354991
-0.54344743 -5.9950943 3.622988
-0.93951803 -10.424692 4.9260845
-1.1493547 -12.802818 4.5629711
-1.4403446 -16.107174 3.9910531
-1.3298538 -14.900841 2.1787424
-1.1638582 -13.092422 0.62389326
-0.1226536 -0.19723615 25.213312
-0.43743017 -3.73277 23.891615
-0.34956476 -3.1590199 15.303741
-0.72767615 -7.0076928 22.570314
-0.7183395 -7.1604257 17.013149
-0.72945452 -7.4274192 13.744306
-0.88970649 -9.1905098 13.63381
-0.38569403 -4.0284996 4.9218507
-0.29273802 -1.4095372 24.733097
-0.43184471 -2.57903 24.345266
-0.6417886 -5.929328 22.999266
-0.60778415 -5.8730831 16.110682
-0.7786659 -7.7342496 16.136597
-0.44273171 -4.468224 7.4146132
-0.93943596 -9.5992336 12.846387
-0.9563787 -9.8609371 10.818399
-0.74215621 -7.9256678 7.9023986
-0.56357771 -6.0527701 4.9839854
-1.1385322 -12.343637 6.5753155
-1.1139829 -12.123674 5.0072351
-1.4967926 -16.352322 4.9165821
-1.3435305 -14.734571 2.9005241
-1.1915007 -13.117815 1.2754529
-0.78642589 -8.2738791 7.483531
-0.57115853 -6.0427203 4.5031242
-0.56396675 -5.9888697 3.620455
-1.200179 -12.864554 4.5859804
-1.390402 -14.959864 3.7143862
-1.2409722 -13.377391 1.9660128
-0.12351128 -0.19706059 25.24831
-0.45064372 -3.7327633 23.901495
-0.36047405 -3.156769 15.298845
-0.75213313 -7.0051098 22.570314
-0.74030215 -7.128727 16.944113
-0.75537664 -7.4248276 13.744306
-0.91503912 -9.1201506 13.534619
-0.39975375 -4.0271287 4.9218507
-0.29771644 -1.408789 24.738089
-0.44084457 -2.5775068 24.345266
-0.66248196 -5.927052 22.999266
-0.63305688 -5.9155378 16.232693
-0.80001712 -7.6773539 16.024067
-0.4580597 -4.4640565 7.410347
-0.96929008 -9.5599213 12.798508
-0.98977679 -9.8474197 10.807375
-0.76981747 -7.9230285 7.9023986
-0.84155023 -8.7085094 7.1369662
-1.1676776 -12.19407 6.498795
-1.4476409 -15.229522 4.5866342
-1.3338213 -14.084261 2.7774181
-1.1760023 -12.464083 1.2168854
-0.81566858 -8.2747993 7.4868569
-0.59422028 -6.0608039 4.5178404
-0.58403003 -5.9782839 3.6153886
-0.96179456 -9.8983955 4.6848087
-1.2478077 -12.888488 4.5958414
-1.3534708 -14.030829 3.4904737
-1.2273821 -12.746963 1.8782966
-0.12422281 -0.19666442 25.253311
-0.46299937 -3.7257698 23.866919
-0.37149101 -3.1554914 15.298845
-0.77658093 -7.0024414 22.570314
-0.76455563 -7.1202717 16.930304
-0.78128952 -7.4221454 13.744306
-0.94686884 -9.1169004 13.534619
-0.41446421 -4.0320854 4.9295254
-0.30269322 -1.4080235 24.743078
-0.44983906 -2.5759523 24.345266
-0.68316716 -5.9247031 22.999266
-0.65313309 -5.9081464 16.218615
-0.82401264 -7.6485415 15.970052
-0.47336408 -4.4598374 7.4060812
-0.99919564 -9.5235157 12.754617
-1.0223906 -9.8270454 10.788999
-0.79746932 -7.9202933 7.9023986
-0.87233138 -8.7093916 7.1401048
-0.61623025 -6.1851702 4.1598644
-1.1949178 -12.035635 6.4176369
-1.2921588 -13.061348 5.3912067
-1.4076121 -14.27914 4.3074479
-1.3243916 -13.483096 2.6636386
-1.1520748 -11.770979 1.1547415
-0.84454805 -8.2719021 7.4868569
-0.61659825 -6.0707569 4.5266695
-0.60532874 -5.9804969 3.6179218
-1.0027065 -9.9581995 4.7141819
-1.2913749 -12.869957 4.5909109
-1.2064553 -12.087232 1.7864362
-0.61062962 -6.139432 0.34255609
-0.12498213 -0.19633786 25.268311
-0.47550899 -3.7202773 23.842222
-0.38250348 -3.1541755 15.298845
-0.80101931 -6.9996881 22.570314
-0.78983617 -7.1214423 16.939508
-0.80745184 -7.4217539 13.748694
-0.97628295 -9.0911551 13.501555
-0.42887521 -4.0338016 4.933363
-0.30773029 -1.4075221 24.753063
-0.45864061 -2.5733171 24.335321
-0.70399249 -5.9235306 23.004107
-0.67062205 -5.8783984 16.143532
-0.84444588 -7.5893655 15.85302
-0.48892894 -4.458158 7.4060812
-1.02496 -9.4510689 12.662847
-1.0552367 -9.8099346 10.774298
-0.82511139 -7.9174614 7.9023986
-0.9003188 -8.6830635 7.121274
-0.6399622 -6.2037783 4.1735716
-1.2138175 -11.806656 6.2993789
-1.3552266 -13.227395 5.4605093
-1.375098 -13.467628 4.0691524
-1.2650332 -12.432569 2.4640579
-0.87380946 -8.2726164 7.4901824
-0.63820785 -6.0725875 4.529613
-0.63203925 -6.0340838 3.6508532
-1.0685117 -10.252567 4.852653
-1.3362917 -12.865371 4.5909109
-1.1890832 -11.506624 1.7056266
-0.63205653 -6.1372633 0.34255609
-0.12571605 -0.1959724 25.278311
-0.48849225 -3.718595 23.842222
-0.39338508 -3.1518104 15.29395
-0.8256228 -6.998332 22.575087
-0.81357896 -7.1089373 16.916496
-0.8333537 -7.41889 13.748694
-1.003047 -9.042942 13.435429
-0.4429532 -4.03228 4.933363
-0.31276754 -1.4070029 24.763046
-0.46733356 -2.570127 24.320408
-0.72466516 -5.9210372 23.004107
-0.69133896 -5.8777351 16.148224
-0.87167752 -7.5928602 15.866525
-0.50419438 -4.4538321 7.4018149
-1.0586147 -9.4534216 12.670826
-1.0872271 -9.7859745 10.752247
-0.85274351 -7.9145327 7.9023986
-0.91111964 -8.4979734 6.9737668
-0.66427517 -6.2264528 4.1900206
-1.236286 -11.626147 6.2066264
-1.4038336 -13.245633 5.4698744
-1.3444957 -12.728086 3.8520074
-1.2528765 -11.90047 2.3633349
-0.62047595 -5.9134135 0.62674117
-0.90268093 -8.269516 7.4901824
-0.65983784 -6.0743413 4.5325561
-0.67258912 -6.2118421 3.7572467
-1.1042935 -10.248775 4.852653
-1.3706027 -12.762031 4.556397
-1.1904299 -11.120912 2.7882555
-1.167673 -10.926292 1.624817
-0.64236349 -6.030695 0.33832395
-0.12620108 -0.19524507 25.238312
-0.50157362 -3.7176371 23.847162
-0.40438455 -3.1504183 15.29395
-0.85004658 -6.9954076 22.575087
-0.83655721 -7.0905323 16.879675
-0.85924542 -7.415936 13.748694
-1.0307664 -9.0058365 13.385834
-0.45738697 -4.0338941 4.9372005
-0.31774095 -1.4061841 24.768038
-0.47610736 -2.5674319 24.310465
-0.74532902 -5.9184713 23.004107
-0.71039855 -5.8632936 16.115374
-0.89715272 -7.5811234 15.848519
-0.51943564 -4.4494548 7.3975492
-1.0888404 -9.4257221 12.638906
-1.12138 -9.7821198 10.752247
-0.88036519 -7.9115081 7.9023986
-0.92706645 -8.3709431 6.8733363
-0.68234056 -6.1908469 4.1680884
-1.258961 -11.458838 6.120831
-1.4359294 -13.111618 5.4174294
-1.324886 -12.136763 3.6785734
-1.2136405 -11.153743 2.2215765
-0.64111382 -5.9112115 0.62674117
-0.93154144 -8.2663145 7.4901824
-0.68103719 -6.0720005 4.5325561
-0.6966635 -6.2308764 3.7699125
-1.1571283 -10.398219 4.9239864
-1.3708876 -12.358231 4.4166989
-1.2292418 -11.116689 2.7882555
-1.1525515 -10.439778 1.5571305
-0.65849215 -5.9837217 0.33651015
-0.12688182 -0.19480336 25.238312
-0.51454753 -3.7158637 23.847162
-0.41524583 -3.1479781 15.289055
-0.87427455 -6.9909163 22.570314
-0.85965264 -7.0739937 16.847458
-0.88512659 -7.4128914 13.748694
-1.0542816 -8.935112 13.286643
-0.47146508 -4.0322728 4.9372005
-0.32277742 -1.405629 24.778023
-0.48476875 -2.5641832 24.295551
-0.76614529 -5.9170804 23.008944
-0.73086095 -5.8607783 16.115374
-0.92387378 -7.5801063 15.85302
-0.53465241 -4.445025 7.3932829
-1.1203107 -9.4098949 12.622946
-1.1495508 -9.7276449 10.69712
-0.90838289 -7.9119301 7.9059033
-0.92269099 -8.0737543 6.6348138
-0.70583701 -6.2050457 4.1790543
-1.2919638 -11.392753 6.0883675
-1.4264859 -12.61823 5.2188878
-1.2984788 -11.521902 3.4980891
-1.1977255 -10.661284 2.1283145
-0.64622498 -5.7703648 0.61422294
-0.96039063 -8.2630129 7.4901824
-0.70222831 -6.0695868 4.5325561
-0.71840906 -6.2284069 3.7699125
-1.2006658 -10.457243 4.9533596
-1.3527972 -11.818535 4.2293391
-1.2482001 -10.938477 2.746052
-1.1525477 -10.115876 1.5122361
-0.67881143 -5.9764233 0.33630863
-0.12733577 -0.19403765 25.193314
-0.5274058 -3.7132757 23.842222
-0.42609504 -3.1455004 15.28416
-0.8986721 -6.9878221 22.570314
-0.87464064 -6.9934077 16.663357
-0.91099703 -7.4097567 13.748694
-1.0864831 -8.9397583 13.299041
-0.48553747 -4.0306025 4.9372005
-0.32768202 -1.4044938 24.778023
-0.49331212 -2.5603819 24.275665
-0.78679502 -5.9143701 23.008944
-0.75131446 -5.8581915 16.115374
-0.94463754 -7.5314746 15.758494
-0.54984462 -4.4405437 7.3890176
-1.1443497 -9.3341475 12.527185
-1.1818612 -9.7101116 10.682419
-0.93599516 -7.908711 7.9059033
-0.91852975 -7.7960281 6.411983
-0.72700524 -6.198391 4.1763129
-1.3991209 -12.000743 4.9697742
-1.2373345 -10.645308 3.2400532
-1.182346 -10.203236 2.0415809
-0.66636336 -5.768074 0.61422294
-0.98967206 -8.2633171 7.4935079
-0.72341084 -6.0670981 4.5325561
-0.73963696 -6.2215805 3.7673795
-1.2216911 -10.322283 4.8925157
-1.3287426 -11.260364 4.0354047
-1.1682442 -9.9299679 2.5022099
-1.1370088 -9.6789856 1.4514563
-0.69966888 -5.9740171 0.33630863
-0.1283645 -0.19409108 25.263311
-0.54036438 -3.711412 23.842222
-0.43693197 -3.1429853 15.279264
-0.92305869 -6.9846425 22.570314
-0.8990469 -6.9903126 16.663357
-0.93715703 -7.4089074 13.753084
-1.1155864 -8.919158 13.274243
-0.49960396 -4.028883 4.9372005
-0.33251569 -1.4030604 24.773029
-0.50245231 -2.5596905 24.285608
-0.80743527 -5.9115872 23.008944
-0.77153325 -5.8538227 16.110682
-0.96563017 -7.4871101 15.672972
-0.56501216 -4.4360104 7.3847518
-1.1671194 -9.252367 12.423445
-1.2182767 -9.7261105 10.70447
-0.96402752 -7.9089355 7.9094081
-0.94010991 -7.7464075 6.3743219
-0.74913883 -6.1999669 4.1790543
-0.81774366 -6.7875462 3.6652219
-1.3729928 -11.42964 4.7393913
-1.2642171 -10.555188 3.2146726
-1.1439795 -9.5795918 1.923138
-0.68767118 -5.7756023 0.61511707
-1.0185105 -8.2598114 7.4935079
-0.7445845 -6.0645361 4.5325561
-0.75925446 -6.2018456 3.7572467
-1.3675503 -11.218989 5.3121262
-1.3082159 -10.763453 3.8628364
-1.1678123 -9.6363106 2.4318709
-1.1273583 -9.3160753 1.4010367
-0.72171479 -5.9814587 0.3367117
-0.12939517 -0.19413967 25.333309
-0.5528574 -3.706429 23.822464
-0.44775656 -3.1404333 15.27437
-0.94763482 -6.9828572 22.575087
-0.92293012 -6.9832582 16.654152
-0.96301323 -7.405591 13.753084
-1.143482 -8.890089 13.237047
-0.51366436 -4.0271144 4.9372005
-0.33734339 -1.4016107 24.768038
-0.51138425 -2.5579209 24.285608
-0.82789111 -5.9074879 23.004107
-0.79149914 -5.8476734 16.101295
-0.98489434 -7.4318995 15.564942
-0.5801546 -4.4314246 7.3804855
-1.2005717 -9.2572002 12.435414
-0.99207294 -7.909061 7.9129124
-0.77077615 -6.1973143 4.1790543
-0.84034127 -6.7758589 3.6605844
-1.3588271 -10.987695 4.5614533
-1.2464529 -10.107938 3.0835395
-1.142041 -9.2878838 1.8681136
-0.70782757 -5.7731671 0.61511707
-1.0478063 -8.2599115 7.4968333
-0.76625574 -6.0659099 4.5354991
-0.77227747 -6.1307254 3.7167156
-1.3745043 -10.957463 5.1925373
-1.2783753 -10.219969 3.6738327
-1.2014422 -9.6321754 2.4318709
-1.0876448 -8.7322197 1.3195364
-0.74320537 -5.9838605 0.33691323
-0.12991962 -0.19347398 25.303308
-0.56626153 -3.7075491 23.842222
-0.45856869 -3.1378436 15.269474
-0.97200376 -6.979507 22.575087
-0.94651228 -6.9741864 16.640345
-0.98885763 -7.4021845 13.753084
-1.1667633 -8.8274603 13.150255
-0.52730173 -4.022119 4.933363
-0.34216499 -1.4001442 24.763046
-0.52041644 -2.5566423 24.290579
-0.84850711 -5.904562 23.004107
-0.81166899 -5.8431659 16.096603
-1.0131791 -7.4456735 15.600953
-0.59527206 -4.4267883 7.3762197
-1.2281021 -9.2171116 12.387535
-1.020131 -7.9090872 7.9164171
-1.0075566 -7.8438907 6.4590597
-0.79240417 -6.1945858 4.1790543
-0.86510938 -6.781672 3.6652219
-1.3263822 -10.426422 4.3348165
-1.2376568 -9.7561245 2.980607
-1.0906082 -8.6210575 1.7412772
-0.72859871 -5.7756019 0.61556417
-1.0766324 -8.2562037 7.4968333
-0.78846627 -6.0712147 4.5413857
-0.7831524 -6.0467658 3.6685853
-0.74794215 -5.7986917 2.7902672
-1.269459 -9.8688612 3.552213
-1.2189777 -9.502574 2.4013908
-1.0577129 -8.2568245 1.253231
-0.76408839 -5.9812303 0.33691323
-0.13046654 -0.19284238 25.278311
-0.57931989 -3.7063177 23.847162
-0.46951902 -3.1362238 15.269474
-0.9965719 -6.9775491 22.579857
-0.97112048 -6.9727745 16.644947
-1.0146902 -7.3986878 13.753084
-1.1877288 -8.7508335 13.042799
-0.54133838 -4.0202537 4.933363
-0.34691063 -1.398381 24.753063
-0.52944607 -2.5553324 24.295551
-0.86911267 -5.9015641 23.004107
-0.83157367 -5.8368802 16.087217
-1.0382597 -7.4356227 15.587448
-0.61036408 -4.4220996 7.3719535
-1.2570009 -9.1888857 12.355615
-1.0477326 -7.9054775 7.9164171
-1.0476655 -7.9367967 6.5375209
-0.81402242 -6.191782 4.1790543
-0.88877648 -6.7786107 3.6652219
-1.3062658 -9.9896307 4.158751
-1.2226985 -9.3759604 2.8692145
-1.0940865 -8.4126062 1.7021072
-0.74875486 -5.7730231 0.61556417
-1.1059411 -8.2560949 7.5001583
-0.81018853 -6.072432 4.5443287
-0.80425471 -6.0439949 3.6685853
-0.7657935 -5.7780485 2.7818751
-1.2568697 -9.5085783 3.4273062
-1.2254586 -9.295866 2.3521535
-1.0742472 -8.1597986 1.2401083
-0.78561252 -5.98348 0.33711475
-0.1311902 -0.19245638 25.288311
-0.59274483 -3.7073417 23.866919
-0.48030925 -3.1335592 15.264579
-1.0211383 -6.9755044 22.584629
-0.98771816 -6.9151902 16.516077
-1.0405102 -7.3951011 13.753084
-1.2182676 -8.7466345 13.042799
-0.55492949 -4.0151644 4.9295254
-0.35164815 -1.3966018 24.743078
-0.53847277 -2.5539901 24.300522
-0.88970768 -5.8984947 23.004107
-0.85144418 -5.8305264 16.077831
-1.0611225 -7.4104042 15.542437
-0.6254307 -4.4173598 7.3676877
-1.2819482 -9.1337147 12.287785
-1.0758023 -7.9053059 7.9199219
-1.0764096 -7.9408059 6.543798
-0.83563089 -6.1889029 4.1790543
-0.91302413 -6.7798572 3.6675408
-1.2973114 -9.6587906 4.0257659
-1.2038277 -8.9865131 2.7550018
-1.1104347 -8.3113556 1.6834546
-0.76955974 -5.775311 0.61601126
-1.1347533 -8.2521839 7.5001583
-0.83192885 -6.0735717 4.5472717
-0.82126254 -6.0112534 3.6508532
-0.78534597 -5.7708435 2.7797771
-1.2284431 -9.0502462 3.2678859
-1.2226864 -9.0314302 2.2888482
-1.0722022 -7.9302573 1.2083369
-0.80649394 -5.9807014 0.33711475
-0.13183542 -0.19196205 25.28331
-0.60618401 -3.7083175 23.886675
-0.49108657 -3.1308577 15.259684
-1.0454811 -6.9718976 22.584629
-1.0053409 -6.86724 16.410219
-1.0663176 -7.3914237 13.753084
-1.2432201 -8.7033272 12.984937
-0.56894159 -4.0132031 4.9295254
-0.35644925 -1.3950862 24.738089
-0.54749662 -2.5526161 24.305494
-0.91029185 -5.8953528 23.004107
-0.87153602 -5.8258123 16.073139
-1.0806605 -7.3635774 15.452412
-0.6404717 -4.4125686 7.3634214
-1.3018037 -9.0456724 12.176064
-1.1033905 -7.9015031 7.9199219
-0.85722905 -6.1859484 4.1790543
-0.9233405 -6.6800914 3.6165271
-1.2790987 -9.2776194 3.8721774
-1.2097018 -8.7969151 2.7000105
-1.1047293 -8.0543623 1.6349585
-0.78971463 -5.7725897 0.61601126
-1.1640736 -8.2518702 7.5034842
-0.85874993 -6.1106572 4.5767035
-0.84463447 -6.0254259 3.6609859
-0.80548519 -5.7680669 2.7797771
-1.2307101 -8.8354368 3.193928
-1.2134012 -8.7334299 2.2173369
-1.0889874 -7.8479857 1.197286
-0.82736564 -5.9778495 0.33711475
-0.13250469 -0.19150069 25.28331
-0.6195091 -3.708478 23.901495
-0.50185096 -3.1281192 15.254788
-1.0700378 -6.9696813 22.589401
-1.0266979 -6.8463001 16.368795
-1.0921118 -7.3876567 13.753084
-1.2687007 -8.6655226 12.935342
-0.58294684 -4.0111928 4.9295254
-0.36117133 -1.3932748 24.728104
-0.55651736 -2.5512102 24.310465
-0.93086493 -5.8921399 23.004107
-0.89134395 -5.8193231 16.063753
-1.1005318 -7.3210106 15.371389
-0.65548682 -4.4077268 7.3591557
-1.336009 -9.058959 12.200004
-1.1309652 -7.897603 7.9199219
-1.2368274 -8.669076 7.1432433
-0.87881684 -6.1829181 4.1790543
-0.94665271 -6.6768274 3.6165271
-1.2692778 -8.9747334 3.7504303
-1.1794214 -8.3603859 2.5716977
-1.1116178 -7.899662 1.6060472
-0.81055206 -5.7747293 0.6164583
-1.1928709 -8.247756 7.5034842
-0.88756943 -6.1596317 4.6149645
-0.86688876 -6.0309749 3.6660521
-0.82561463 -5.7652202 2.7797771
-1.2221435 -8.5552797 3.0969613
-1.2109653 -8.4981642 2.1610656
-1.0961405 -7.7019596 1.1772563
-0.8482272 -5.974925 0.33711475
-0.13314632 -0.191002 25.278311
-0.63166565 -3.7016973 23.871859
-0.51260215 -3.1253433 15.249893
-1.0929697 -6.957056 22.56077
-1.049107 -6.8330193 16.345783
-1.117893 -7.3837991 13.753084
-1.2918457 -8.6137323 12.865082
-0.59694499 -4.0091333 4.9295254
-0.36595884 -1.3917265 24.723114
-0.56530374 -2.5487318 24.305494
-0.95142668 -5.8888545 23.004107
-0.9111172 -5.8127666 16.054367
-1.1184635 -7.2676382 15.267862
-0.67047602 -4.4028335 7.3548903
-1.3653722 -9.0393429 12.180054
-1.159044 -7.8971357 7.9234266
-1.2648278 -8.6493006 7.1306896
-0.9003939 -6.1798129 4.1790543
-0.8979528 -6.1781201 3.3545027
-1.2507062 -8.626153 3.6099529
-1.2079108 -8.3514709 2.5702875
-1.1286639 -7.8228049 1.5920579
-0.83070469 -5.7718644 0.6164583
-1.2222011 -8.2472363 7.5068097
-0.91969365 -6.2284718 4.6679416
-0.88982022 -6.0407062 3.6736519
-0.84573394 -5.7623029 2.7797771
-1.2089 -8.2566042 2.9934199
-1.183017 -8.0994997 2.0649357
-1.0972837 -7.5216794 1.1523918
-0.86907834 -5.9719276 0.33711475
-0.1337861 -0.19050112 25.273312
-0.64418274 -3.6971736 23.85704
-0.52334005 -3.1225307 15.244998
-1.1163003 -6.9473028 22.541681
-1.0738621 -6.8351059 16.359591
-1.1440272 -7.3822188 13.757473
-1.3142174 -8.5591049 12.790689
-0.61141902 -4.0101938 4.933363
-0.37103876 -1.3912771 24.738089
-0.57396215 -2.5457029 24.295551
-0.97177196 -5.8842573 22.999266
-0.93085557 -5.8061428 16.044981
-1.1438254 -7.2636895 15.267862
-0.68584067 -4.4004664 7.3548903
-1.3955358 -9.025589 12.168084
-0.74396724 -4.8397079 5.386507
-1.1871333 -7.8965683 7.9269309
-0.91949069 -6.16009 4.1680884
-0.91951299 -6.1749477 3.3545027
-1.2331232 -8.3007421 3.4788404
-1.1351287 -7.6778941 1.565012
-0.85157382 -5.7738566 0.61690539
-1.2509819 -8.2429199 7.5068097
-0.94142938 -6.2252231 4.6679416
-0.9121871 -6.0460887 3.6787181
-0.86651778 -5.7638035 2.7818751
-1.2068948 -8.0468559 2.9211054
-1.2004931 -8.0232143 2.0473509
-1.0971819 -7.3414874 1.1275274
-0.88991898 -5.9688578 0.33711475
-0.13445024 -0.19003297 25.273312
-0.65694827 -3.6941376 23.8521
-0.53406465 -3.1196814 15.240103
-1.1398182 -6.9389453 22.527365
-1.0974045 -6.8293862 16.354988
-1.1697891 -7.3781805 13.757473
-1.3458334 -8.5655851 12.80722
-0.62541342 -4.0080352 4.933363
-0.37612003 -1.3908092 24.753063
-0.58272547 -2.5431643 24.290579
-0.99230593 -5.8808293 22.999266
-0.95055866 -5.7994518 16.035597
-1.1695197 -7.2618017 15.272363
-0.70078629 -4.3954697 7.3506241
-1.415261 -8.9462566 12.068333
-0.75980276 -4.8303838 5.3791566
-1.2146902 -7.8923764 7.9269309
-1.2301744 -8.0208416 6.6253982
-0.9378289 -6.1361756 4.1543813
-0.92837447 -6.0884962 3.3104455
-1.232807 -8.1038933 3.4001729
-1.2014018 -7.915987 2.4433846
-1.1597165 -7.6593146 1.5622141
-0.87172318 -5.7708488 0.61690539
-1.2803205 -8.2421923 7.5101352
-0.96562725 -6.2378769 4.6797142
-0.93394428 -6.0471277 3.6812513
-0.88732237 -5.7652302 2.7839732
-1.2077408 -7.865231 2.8586524
-1.1990496 -7.8267922 2.0004582
-1.1010792 -7.1956553 1.1074977
-0.91150266 -5.9706531 0.33731627
-0.13508639 -0.18952772 25.268311
-0.67025554 -3.6941149 23.866919
-0.54477572 -3.1167951 15.235208
-1.1640326 -6.9349246 22.527365
-1.111735 -6.7676802 16.216911
-1.1959199 -7.3764167 13.761863
-1.3748317 -8.5552778 12.798955
-0.6394003 -4.0058279 4.933363
-0.3811259 -1.3900446 24.763046
-0.59075159 -2.5374811 24.255777
-1.0128278 -5.8773298 22.999266
-0.9699415 -5.7909932 16.021519
-1.195922 -7.2641191 15.285868
-0.71570545 -4.3904228 7.3463583
-1.4330057 -8.8579731 11.956613
-0.77773631 -4.8343959 5.386507
-1.242787 -7.8916106 7.9304352
-1.2473013 -7.9472837 6.5689058
-0.95471919 -6.1039467 4.135191
-0.94415724 -6.0502038 3.2918952
-1.2147275 -7.8017936 3.2784259
-1.2304993 -7.9212255 2.4462047
-1.1510849 -7.4270678 1.518381
-0.89186186 -5.7677708 0.61690539
-1.3090835 -8.2376728 7.5101352
-0.9873957 -6.2344685 4.6797142
-0.9584114 -6.0651212 3.6939173
-0.90885347 -5.7710643 2.7881694
-1.1802123 -7.5110974 2.735389
-1.1872159 -7.5728569 1.9394977
-1.0648992 -6.8003721 1.0522432
-0.9323386 -5.9674349 0.33731627
-0.13572063 -0.18902037 25.263311
-0.68371224 -3.6948092 23.886675
-0.55547315 -3.1138725 15.230312
-1.1894943 -6.9381752 22.551226
-1.1327642 -6.7483454 16.180094
-1.2216611 -7.3721972 13.761863
-1.4042306 -8.5476503 12.794822
-0.65389574 -4.0067348 4.9372005
-0.38644156 -1.3903741 24.792997
-0.60009706 -2.5374782 24.275665
-1.0333374 -5.8737583 22.999266
-0.98927671 -5.7824693 16.007441
-1.2165761 -7.2319927 15.227351
-0.73059779 -4.385325 7.342092
-1.4653922 -8.8618364 11.968582
-0.79515702 -4.8349972 5.390182
-1.2708935 -7.8907452 7.9339395
-1.2775029 -7.9582548 6.58146
-0.97469884 -6.0923185 4.1297078
-0.96108067 -6.0206246 3.2779822
-1.2135141 -7.6189551 3.2053773
-1.2159792 -7.6515751 2.3672428
-1.1316149 -7.1367574 1.4633564
-0.91354614 -5.7744603 0.61779958
-1.3384291 -8.2367382 7.5134606
-1.0097982 -6.234973 4.6826572
-0.97613811 -6.0404606 3.6812513
-0.92971438 -5.772337 2.7902672
-1.1599678 -7.2178669 2.6334915
-1.172855 -7.3143024 1.8773649
-1.0847144 -6.7721648 1.0487899
-0.94054836 -5.8852115 0.33409178
-0.13635297 -0.18851091 25.25831
-0.69703776 -3.6946907 23.901495
-0.5661568 -3.1109126 15.225417
-1.2147354 -6.9398618 22.570314
-1.1460779 -6.6846576 16.037415
-1.2477874 -7.3702493 13.766252
-1.4242748 -8.484417 12.708029
-0.66787779 -4.0044279 4.9372005
-0.39082089 -1.3873498 24.763046
-0.6092003 -2.5364046 24.285608
-1.0538343 -5.8701158 22.999266
-1.0082673 -5.772181 15.988669
-1.234071 -7.1826463 15.132826
-0.74546343 -4.3801775 7.3378263
-1.4923007 -8.8328972 11.936662
-0.81371492 -4.8422213 5.4012074
-1.2984295 -7.886261 7.9339395
-1.3159904 -8.019042 6.6348138
-0.99595904 -6.0888791 4.1297078
-0.98209083 -6.0172329 3.2779822
-1.181232 -7.2531981 3.0574081
-1.2103643 -7.4484167 2.3080215
-1.125071 -6.9388075 1.4260516
-0.93449247 -5.7761517 0.61824661
-1.3671725 -8.2320156 7.5134606
-1.0275952 -6.2074838 4.6649981
-0.9972173 -6.0370164 3.6812513
-0.94985795 -5.7690563 2.7902672
-1.1507056 -7.0040874 2.5595336
-1.1669261 -7.1183 1.8304721
-1.0435249 -6.3724923 0.9928447
-0.95383501 -5.8375173 0.33227801
-0.13692993 -0.18793039 25.243311
-0.71081108 -3.6968129 23.931129
-0.57701248 -3.1089175 15.225417
-1.2386901 -6.9341102 22.565542
-1.1687309 -6.6767669 16.02821
-1.2735066 -7.365849 13.766252
-1.448651 -8.4488859 12.662567
-0.6813134 -3.9989123 4.933363
-0.39542255 -1.3851447 24.748072
-0.61830336 -2.5352983 24.295551
-1.0743184 -5.8664012 22.999266
-1.0275011 -5.7635298 15.974591
-1.2501079 -7.1268339 15.024796
-0.76030189 -4.3749785 7.33356
-1.5215871 -8.8187256 11.924692
-0.83175969 -4.8460345 5.4085579
-1.3265415 -7.8851972 7.9374442
-1.4025559 -8.3637218 6.920413
-1.0206543 -6.1059866 4.1434155
-1.0030888 -6.0137682 3.2779822
-1.2034985 -7.2307386 3.0499158
-1.2033464 -7.2453923 2.2488
-1.1123406 -6.711915 1.3831511
-0.95464933 -5.7728548 0.61824661
-1.3965238 -8.2308741 7.5167861
-1.0458866 -6.1839323 4.6502824
-1.0225888 -6.0590024 3.6964502
-0.97074288 -5.7701812 2.7923656
-1.1821837 -7.0419412 2.5743251
-1.1580375 -6.9128428 1.7812347
-1.0665801 -6.3736949 0.9935354
-0.93964642 -5.6271882 0.32381371
-0.13771942 -0.18762316 25.268311
-0.72236598 -3.6874471 23.886675
-0.5876717 -3.1058838 15.220522
-1.2642255 -6.9370866 22.589401
-1.1927173 -6.6764936 16.037415
-1.2992105 -7.3613586 13.766252
-0.81332254 -4.646317 7.0004272
-0.69526809 -3.9965098 4.933363
-0.4000136 -1.3829243 24.733097
-0.6271494 -2.5331247 24.295551
-1.0950202 -5.8638511 23.004107
-1.0463779 -5.7531166 15.95582
-1.272676 -7.10957 14.99779
-0.77511328 -4.3697305 7.3292942
-1.5476563 -8.7866535 11.888782
-0.85042596 -4.8531194 5.4195833
-1.3540578 -7.8805189 7.9374442
-1.4468567 -8.4470129 6.9925976
-1.0367242 -6.0844665 3.3174019
-1.1704476 -6.8837194 2.9094384
-1.1804816 -6.9573793 2.1641982
-1.1119812 -6.5675344 1.3561051
-0.95488304 -5.6516385 0.60751671
-1.4265214 -8.2333078 7.5234375
-1.0660903 -6.1722775 4.6443963
-1.2502286 -7.2533751 4.4108067
-0.99087864 -5.7667575 2.7923656
-1.1788249 -6.8748727 2.5168023
-1.1485491 -6.712328 1.7331698
-0.95928323 -5.6238742 0.32381371
-0.13845448 -0.18724412 25.28331
-0.73523319 -3.6849031 23.886675
-0.59850967 -3.1038134 15.220522
-1.2870688 -6.9252939 22.565542
-1.2163656 -6.674211 16.042015
-1.3248986 -7.3567786 13.766252
-0.83151603 -4.6545305 7.0169592
-0.70921427 -3.9940586 4.933363
-0.40467545 -1.3809657 24.723114
-0.63611794 -2.5314367 24.300522
-1.1147768 -5.8562889 22.989586
-1.0651946 -5.7426424 15.937049
-1.2982674 -7.1093674 15.006793
-0.78989714 -4.3644314 7.3250279
-1.5660572 -8.7129869 11.797011
-0.86855501 -4.8567953 5.4269338
-1.382174 -7.8792572 7.940949
-1.4555469 -8.3230534 6.8953056
-1.1063484 -6.34587 4.3079033
-1.0678279 -6.1375461 3.3475463
-1.1873314 -6.8384833 2.892581
-1.1466125 -6.6176257 2.0640857
-1.0922145 -6.3167515 1.3085414
-0.9729116 -5.6384559 0.60662258
-1.4533014 -8.217248 7.5134606
-1.0890328 -6.1764798 4.6502824
-1.2927231 -7.3466153 4.46907
-1.0117867 -5.7677345 2.7944636
-1.2011869 -6.861413 2.5135152
-1.1192718 -6.4066267 1.6593138
-0.98674548 -5.6538577 0.89269614
-0.13921568 -0.18689646 25.303308
-0.74762708 -3.6800296 23.871859
-0.60914397 -3.1007066 15.215627
-0.89075166 -4.7017832 15.345531
-1.2385845 -6.6641622 16.02821
-1.3505704 -7.352109 13.766252
-0.84674913 -4.6460629 7.0086932
-0.72315174 -3.9915586 4.933363
-0.40949345 -1.3795447 24.723114
-0.64508241 -2.5297174 24.305494
-1.13617 -5.8572974 23.008944
-1.0836302 -5.7304111 15.913585
-1.3234744 -7.1069322 15.011293
-0.80465364 -4.3590837 7.3207626
-1.585593 -8.6481895 11.717211
-0.88732868 -4.86374 5.4379592
-1.4096693 -7.8743844 7.940949
-1.432613 -8.0267086 6.6567826
-1.2449706 -6.9965339 4.7437963
-1.1055112 -6.2253742 3.3962409
-1.1658909 -6.5786695 2.7876914
-1.1680344 -6.6041355 2.0612657
-1.049365 -5.9452524 1.2376623
-1.4634088 -8.1092415 7.4203467
-1.1220385 -6.2362905 4.6973729
-1.2871218 -7.168097 4.3652091
-1.0319136 -5.7641678 2.7944636
-1.1678228 -6.5364285 2.4001133
-1.0827556 -6.072506 1.578424
-0.9786855 -5.494369 0.87059438
-0.90933239 -5.1153207 0.30325755
-0.13986722 -0.18640935 25.303308
-0.76031071 -3.6766365 23.866919
-0.61976391 -3.097563 15.210732
-0.9057433 -4.6913171 15.321671
-1.2563832 -6.6310058 15.95917
-1.3762258 -7.3473501 13.766252
-0.86090475 -4.6320128 6.9921618
-0.73708051 -3.9890101 4.933363
-0.41430643 -1.378107 24.723114
-0.65390885 -2.5274503 24.305494
-1.1561214 -5.8508296 22.999266
-1.10232 -5.7198157 15.894814
-1.3450257 -7.0851588 14.975283
-0.81889993 -4.3511224 7.3122306
-1.6168787 -8.6485252 11.725191
-0.90554112 -4.8672786 5.4453096
-1.4384289 -7.8764324 7.947958
-1.4180878 -7.7880688 6.4653368
-1.3044914 -7.1855121 4.8726454
-1.1280248 -6.2258363 3.3985598
-1.1880227 -6.5699973 2.7858183
-1.1561497 -6.4064651 2.0034544
-1.0265751 -5.6998301 1.1910312
-0.93912661 -5.2247086 0.56951505
-1.4748079 -8.0122814 7.3372092
-1.1489081 -6.2601657 4.7179751
-1.2740769 -6.9557881 4.2410836
-1.0528435 -5.7649951 2.7965617
-1.1762371 -6.4533362 2.3721735
-1.0839378 -5.9586997 1.5514605
-0.98634768 -5.4275794 0.86161554
-0.92718261 -5.1121149 0.30325755
-0.14035299 -0.18571602 25.273312
-0.77233958 -3.6701586 23.842222
-0.63057262 -3.0953805 15.210732
-0.91923219 -4.673481 15.273951
-1.2739656 -6.5978065 15.890134
-1.4023137 -7.3448534 13.77064
-0.87759209 -4.6317434 6.996294
-0.75100029 -3.9864128 4.933363
-0.41919881 -1.3769284 24.728104
-0.66272724 -2.5251522 24.305494
-1.1780257 -5.8541522 23.028303
-1.1199514 -5.7040796 15.861964
-1.3623062 -7.0419497 14.894262
-0.83359176 -4.3456755 7.3079648
-1.6470578 -8.6428289 11.725191
-0.92315727 -4.8674183 5.4489846
-1.4639552 -7.8608451 7.9374442
-1.4061788 -7.5725927 6.2927217
-1.3067268 -7.0575681 4.7904015
-1.1626298 -6.2915573 3.4356606
-1.1899278 -6.4518352 2.7389925
-1.1246628 -6.1098866 1.9160324
-1.0207244 -5.5561008 1.1639853
-0.95735854 -5.2213984 0.56951505
-1.4662631 -7.8125911 7.1609578
-1.180419 -6.307766 4.7562361
-1.267481 -6.786036 4.1422896
-1.0737915 -5.7657461 2.7986596
-1.1849487 -6.3749089 2.3458774
-1.0524209 -5.6729145 1.482294
-0.98633617 -5.3218513 0.84711123
-0.92593849 -5.0056829 0.29902542
-0.14078067 -0.1849537 25.233313
-0.7861225 -3.671999 23.871859
-0.64116681 -3.0921636 15.205836
-0.93231422 -4.6541438 15.221458
-1.2898233 -6.5568991 15.802686
-1.4279435 -7.3399134 13.77064
-0.89322102 -4.6258898 6.9921618
-0.76491088 -3.983767 4.933363
-0.42400262 -1.3754567 24.728104
-0.6715377 -2.5228236 24.305494
-0.78969687 -3.8551626 15.188435
-1.1405325 -5.7035198 15.87135
-1.3797222 -7.0008411 14.81774
-0.8487559 -4.3427391 7.3079648
-1.6640049 -8.5689936 11.63342
-0.94142884 -4.8708234 5.4563346
-1.4840685 -7.8171468 7.8988938
-1.3913351 -7.3496485 6.1138301
-1.2848163 -6.8064322 4.6259131
-1.1854047 -6.2918139 3.4379795
-1.1910226 -6.3337402 2.6921666
-1.1043932 -5.8843312 1.8497608
-1.0057433 -5.3690305 1.1285458
-0.94903749 -5.0760655 0.55654973
-1.449327 -7.5763869 6.9514508
-1.207732 -6.3314009 4.7768383
-1.257297 -6.6037116 4.0358963
-1.0947578 -5.7664218 2.8007576
-1.1755437 -6.2037082 2.2867112
-1.0378915 -5.48772 1.4377458
-0.98008227 -5.1869955 0.8284629
-0.9211852 -4.8845954 0.29418868
-0.14150816 -0.18456259 25.24831
-0.79910082 -3.6699915 23.876797
-0.65174627 -3.0889103 15.200941
-0.94616759 -4.6391602 15.183283
-1.3092488 -6.5351162 15.761263
-1.4540215 -7.337234 13.77503
-0.90990609 -4.625504 6.996294
-0.77881217 -3.9810727 4.933363
-0.42888764 -1.3742437 24.733097
-0.68033987 -2.5204639 24.305494
-0.8031491 -3.8523827 15.188435
-1.1597458 -5.6961222 15.861964
-1.3921554 -6.9362206 14.691708
-0.86340046 -4.3371921 7.3036985
-1.6827955 -8.5069695 11.55761
-0.95908052 -4.8708339 5.4600101
-1.4984757 -7.7453942 7.8323083
-1.3779019 -7.142189 5.9474916
-1.2817082 -6.6622977 4.5327039
-1.1965001 -6.2310839 3.407835
-1.1703641 -6.1064458 2.6003881
-1.0708458 -5.5977426 1.7651588
-1.0023673 -5.2496848 1.1061628
-0.94717216 -4.9699912 0.5471611
-1.4364752 -7.3697181 6.768549
-1.2452501 -6.4065003 4.8357015
-1.2392875 -6.3876882 3.9092374
-1.1157418 -5.7670217 2.8028557
-1.1354109 -5.8796477 2.1733091
-1.0193229 -5.2883801 1.3896809
-0.97570831 -5.0668368 0.81188655
-0.91748405 -4.7734146 0.28975499
-0.14217927 -0.18410124 25.253311
-0.81241077 -3.669456 23.891615
-0.66252464 -3.0866165 15.200941
-0.9599278 -4.6241369 15.145107
-1.3328335 -6.5343337 15.770467
-1.4796243 -7.3321137 13.77503
-0.92328238 -4.6085038 6.9756298
-0.79207754 -3.9751863 4.9295254
-0.43376929 -1.3730134 24.738089
-0.68913376 -2.5180738 24.305494
-0.81059062 -3.8212752 15.077127
-1.1792718 -5.6903496 15.857272
-1.4207175 -6.9526467 14.736719
-0.87801665 -4.3315959 7.2994328
-1.6773707 -8.3267632 11.322198
-0.9767437 -4.8707805 5.4636855
-1.4979175 -7.6001587 7.6921263
-1.360786 -6.9234595 5.7717381
