# .PCD v0.7 - Point Cloud Data file format
VERSION 0.7
FIELDS x y z
SIZE 4 4 4
TYPE F F F
COUNT 1 1 1
WIDTH 1549
HEIGHT 1
VIEWPOINT 0 0 0 1 0 0 0
POINTS 1549
DATA ascii
0.24263321 -0.28339013 41.352695
2.5343792 -1.1062731 17.579243
4.0026793 -1.716869 20.962622
2.9784329 -1.2536303 10.377895
4.0457015 -1.6863844 10.385514
5.0759068 -2.1034193 10.136483
4.5890455 -1.8941767 7.3641272
11.795672 -4.8545179 15.34835
2.4962626 -1.3647336 49.03249
1.0170161 -0.50427598 10.544372
4.1568794 -1.7710762 17.433928
4.3038073 -1.8098484 12.750661
5.233139 -2.1835632 11.788424
4.2934699 -1.7835691 7.6748352
5.5929503 -2.3154404 8.0902786
6.3964853 -2.6415918 7.5805798
7.407249 -3.030319 7.9444537
14.433914 -5.8961935 12.654373
0.24186355 -0.28450552 41.392696
2.5347681 -1.1169937 17.608879
3.9966621 -1.7308306 20.962622
2.9726651 -1.2634352 10.373123
4.0361896 -1.6989806 10.376309
5.0928364 -2.1312957 10.184763
4.5850029 -1.9112667 7.3682599
11.83193 -4.9178066 15.417425
2.4940107 -1.3748341 49.082409
1.0157261 -0.50806183 10.549342
4.1472082 -1.7840853 17.419409
4.3101707 -1.8302568 12.788202
5.1893749 -2.1866007 11.707402
4.3040528 -1.8056082 7.7046967
5.5987344 -2.3407612 8.1102285
6.3121314 -2.6325831 7.4923759
7.396626 -3.0561564 7.9444537
14.40245 -5.9420881 12.644958
6.3697777 -2.6422954 6.2231669
0.24092399 -0.28541577 41.402695
2.5322735 -1.1264666 17.618757
5.7827096 -2.5284712 30.366356
2.9668651 -1.2732153 10.368351
4.032032 -1.7138233 10.380912
5.1052203 -2.1574512 10.224265
4.6198006 -1.9447292 7.4343872
8.7794533 -3.6850505 11.476308
2.489953 -1.3839525 49.097382
1.0139464 -0.51160431 10.549342
2.48771 -1.0803857 10.479674
3.5995686 -1.5433306 10.704614
5.1917262 -2.2089636 11.729908
4.2977238 -1.820621 7.7046967
5.5877538 -2.3591182 8.1062384
6.2591634 -2.636178 7.4409237
7.3530006 -3.068223 7.9094081
14.827141 -6.1779609 13.034126
6.350184 -2.6601856 6.2131901
0.24003582 -0.28639087 41.422695
2.530452 -1.1362542 17.633575
5.7673283 -2.5457628 30.332088
2.9610333 -1.2829704 10.36358
4.02423 -1.7271168 10.376309
5.0822387 -2.1686783 10.193542
4.7088046 -2.0015759 7.587306
8.7134171 -3.6931591 11.407232
2.483093 -1.3915054 49.057449
1.0121545 -0.51514053 10.549342
4.9542603 -2.1724365 20.86508
3.5688214 -1.544916 10.62953
4.2841487 -1.8325344 7.6918988
5.5711689 -2.3750634 8.0942688
6.0003443 -2.5518649 7.1469102
14.844951 -6.246285 13.06865
6.3408594 -2.6823356 6.2131901
0.23906194 -0.28726107 41.427696
2.5264704 -1.1450802 17.633575
1.9889727 -0.88604194 10.491733
2.9647422 -1.2968885 10.392211
4.0127988 -1.7388229 10.362501
5.0306473 -2.1674511 10.10576
4.699203 -2.0168905 7.5831728
6.0513802 -2.5897911 7.9573164
2.478472 -1.4003067 49.062439
1.01035 -0.51867044 10.549342
4.9431992 -2.1881902 20.850561
5.0797977 -2.2201741 15.129894
5.9851704 -2.5701191 7.1395607
7.183733 -3.056648 7.7517037
14.787231 -6.2828441 13.037265
6.3280239 -2.7029865 6.2098646
0.23805776 -0.28809381 41.427696
2.5217516 -1.153569 17.628635
1.9960819 -0.89757413 10.54558
4.7489367 -2.0972767 16.643511
4.4380579 -1.9415421 11.47171
5.0955248 -2.216526 10.250599
4.6792245 -2.0276871 7.5625086
6.0599566 -2.6185269 7.9803414
2.4725659 -1.4083775 49.042473
1.0085334 -0.52219409 10.549342
4.9389734 -2.2069705 20.86508
5.0704384 -2.2371957 15.1252
4.6438599 -2.0335374 10.546088
5.3084965 -2.3070056 7.7391567
6.0539222 -2.6247098 7.2314396
14.521972 -6.2300701 12.82385
0.23705068 -0.28892303 41.427696
2.5184147 -1.1626903 17.633575
1.9994265 -0.90748298 10.579846
4.7334061 -2.1101933 16.614878
4.5241833 -1.9980669 11.711041
5.1162634 -2.2468185 10.307656
4.6643839 -2.0406244 7.5501094
6.0654688 -2.6460729 7.9995294
2.4683852 -1.4174315 49.057449
1.0071768 -0.5259586 10.554314
4.9289479 -2.2231636 20.8554
5.0515637 -2.2499661 15.092351
4.6307602 -2.0470941 10.532585
5.2700586 -2.3122041 7.6952662
6.0633574 -2.6539822 7.2534904
7.1883917 -3.1180782 7.7797403
14.33227 -6.2080116 12.676343
0.2360407 -0.2897487 41.427696
2.511524 -1.1701611 17.613817
1.9851388 -0.90936643 10.521104
2.9509985 -1.3278635 10.392211
4.6599278 -2.0774918 12.079243
5.1237159 -2.2714589 10.338381
4.6443615 -2.051209 7.5294447
6.0591283 -2.6685207 8.0033665
2.4634223 -1.4260391 49.057449
1.0053347 -0.5294711 10.554314
4.9154382 -2.237751 20.831203
5.0546966 -2.2725394 15.1252
4.6136465 -2.0588102 10.510079
5.2757311 -2.3366878 7.7152166
6.0478544 -2.6723907 7.24614
10.29066 -4.5065103 11.119573
14.235621 -6.2252522 12.610435
11.412832 -5.0169501 11.184813
0.23505464 -0.29060531 41.432697
2.5116425 -1.1809051 17.643454
1.9819524 -0.91629034 10.521104
2.9422684 -1.3363042 10.377895
5.104825 -2.2844384 10.316435
4.6423135 -2.0697002 7.5377111
6.0234175 -2.6779358 7.9688292
2.4589283 -1.4349209 49.067432
1.003951 -0.53322762 10.559285
4.900744 -2.2517464 20.802168
4.0237403 -1.8259044 12.07021
4.6004772 -2.0722201 10.496575
5.2702928 -2.356319 7.7192059
5.9703751 -2.6631021 7.1652865
10.349887 -4.5755692 11.200176
14.146151 -6.2450385 12.550804
11.408902 -5.0628157 11.198115
0.23403881 -0.29142404 41.432697
2.5039957 -1.1879994 17.618757
1.9732062 -0.92061937 10.491733
2.9497979 -1.3521653 10.420843
4.6530237 -2.0939765 7.5666413
5.9877152 -2.6871338 7.9342914
2.4548995 -1.4440814 49.087399
1.0020835 -0.53672886 10.559285
4.8894324 -2.2672527 20.787649
4.0408759 -1.8507184 12.140601
4.5872707 -2.0855629 10.483072
5.4398789 -2.462945 9.8376637
5.2620354 -2.3747015 7.7192059
5.8744869 -2.6449542 7.0623817
7.3833127 -3.2949183 8.0250578
14.063826 -6.2674456 12.497451
11.39116 -5.1026096 11.198115
0.23304668 -0.29227385 41.437695
2.4998333 -1.1967328 17.618757
1.9662957 -0.92576599 10.472151
2.9396412 -1.3599466 10.401755
3.9151227 -1.7947965 10.206016
4.8359685 -2.2047672 9.8073015
4.6764312 -2.1241717 7.6162362
6.0279322 -2.7305019 7.9995294
2.4508364 -1.4532313 49.107365
1.0002038 -0.54022348 10.559285
2.4542971 -1.1483597 10.469995
4.0281258 -1.8619159 12.12183
4.5779843 -2.1006551 10.478571
5.4312487 -2.4819188 9.8376637
5.7849727 -2.6289749 6.9668274
7.3002319 -3.2884469 7.947958
13.974418 -6.28616 12.437819
0.23205146 -0.29312024 41.442692
2.848243 -1.3758301 20.108145
5.6470962 -2.6835129 30.082432
4.7012672 -2.1950073 16.633966
3.9442952 -1.8248599 10.298066
4.8630538 -2.237653 9.8775272
4.6485233 -2.1311004 7.5831728
5.9629788 -2.7262044 7.9266162
2.4467397 -1.4623704 49.127331
0.99831206 -0.54371154 10.559285
2.4605029 -1.1617508 10.513551
4.8207355 -2.2487774 14.519834
4.4481502 -2.0599017 10.199495
5.3278208 -2.4571705 9.6670256
6.888001 -3.1665766 10.11322
5.7202945 -2.6237111 6.9006748
6.4316483 -2.9242272 7.022758
13.95239 -6.3349013 12.437819
12.30296 -5.6145015 12.12593
0.23102687 -0.29392847 41.442692
2.8434229 -1.3857639 20.108145
1.9487678 -0.93418747 10.413409
3.9325905 -1.8361369 10.284259
4.8552132 -2.2546146 9.8775272
4.5950866 -2.1260436 7.5087805
5.9010406 -2.7228298 7.8575411
2.4416201 -1.4709022 49.127331
0.9964081 -0.54719299 10.559285
2.490474 -1.1865548 10.658733
4.8721862 -2.2935224 14.698158
4.1983552 -1.9620426 9.6458454
5.2884736 -2.4614458 9.6115694
6.8659725 -3.1855283 10.09726
5.6618767 -2.6208761 6.8418717
6.4051943 -2.9392231 7.0052352
13.951424 -6.3932953 12.456651
12.283287 -5.6574125 12.12593
0.22997327 -0.29469824 41.437695
2.8385684 -1.3956809 20.108145
1.9418287 -0.9392103 10.393827
4.6817851 -2.225852 16.61965
4.0286598 -1.8981528 10.551205
4.8082776 -2.2532547 9.7985239
4.5876374 -2.1420703 7.5087805
5.8246703 -2.7122912 7.769279
2.4352376 -1.4786663 49.102375
0.99495798 -0.55092645 10.564257
2.4851842 -1.1946963 10.653894
5.0075541 -2.378639 15.129894
4.1245365 -1.9451126 9.4928045
5.3105364 -2.4943056 9.6670256
5.4057474 -2.5309932 7.9785581
5.6496229 -2.639189 6.8381972
6.3819518 -2.9555688 6.9912171
14.087996 -6.51548 12.597881
12.236377 -5.6876636 12.099325
0.22891712 -0.29546422 41.432697
2.8336792 -1.4055809 20.108145
1.9376234 -0.94553614 10.388932
4.6820612 -2.2460549 16.648281
4.0308309 -1.9163984 10.574217
4.8480153 -2.2925508 9.8950834
15.714491 -7.4046254 25.586298
5.765852 -2.7094321 7.704041
2.429323 -1.4867053 49.087399
0.99302882 -0.55439615 10.564257
2.4787369 -1.2022666 10.644215
5.0054445 -2.3990877 15.148664
4.0725107 -1.937982 9.3892765
5.5492516 -2.6301155 10.114949
5.4050527 -2.5537088 7.9905276
6.3586726 -2.9717879 6.9771986
14.054585 -6.5596776 12.588465
12.216449 -5.7303419 12.099325
0.22785842 -0.29622641 41.427696
2.8301454 -1.4161593 20.118023
1.9416183 -0.9558928 10.428094
3.0632515 -1.4825845 10.926673
4.024117 -1.930457 10.574217
4.874568 -2.3259628 9.9653091
4.5929022 -2.1837127 7.5418439
5.6520982 -2.6801023 7.5658908
2.4216623 -1.4936591 49.037479
0.99155188 -0.55812097 10.569228
2.495976 -1.221411 10.736164
5.0327711 -2.433826 15.256597
4.0245099 -1.9323968 9.2947512
5.5400367 -2.6494701 10.114949
5.4178658 -2.5829346 8.0224476
5.8637285 -2.7892444 7.1175089
6.3708386 -3.0046144 7.0017304
14.013997 -6.6004052 12.572773
12.196371 -5.7729506 12.099325
0.22679718 -0.29698479 41.422695
2.8231039 -1.424979 20.103203
1.9400938 -0.96357065 10.437884
3.0674467 -1.4978535 10.960076
4.0243883 -1.947897 10.592628
4.9074187 -2.362705 10.048702
4.6309199 -2.2216415 7.6162362
5.6022305 -2.6804476 7.512166
2.4188845 -1.5036288 49.087399
0.98959762 -0.56157875 10.569228
2.5007136 -1.2345685 10.774879
3.5803647 -1.7468396 10.887632
4.0334139 -1.9540268 9.330761
5.5096154 -2.6585913 10.076556
5.4006705 -2.5979123 8.010478
5.8570132 -2.8111627 7.1211843
6.3731933 -3.0329647 7.015749
13.990871 -6.6492829 12.572773
0.22573343 -0.29773942 41.417698
2.8174202 -1.4344722 20.098265
1.9385389 -0.9712494 10.447676
3.0688949 -1.5118506 10.983937
4.0298524 -1.967934 10.624846
4.8819075 -2.3714485 10.013589
4.8308325 -2.3383315 7.9551387
5.8150978 -2.807287 7.8076539
2.4145994 -1.5126768 49.107365
0.98763132 -0.56502968 10.569228
2.4986391 -1.244411 10.784558
3.5711489 -1.7578024 10.878247
4.0441704 -1.9766982 9.3712711
5.5026464 -2.6789486 10.080822
5.3671713 -2.6049066 7.9745679
5.8776765 -2.8463666 7.1579361
6.3850713 -3.065999 7.0402808
13.985124 -6.7064948 12.588465
11.84296 -5.7072082 11.790053
0.22466718 -0.2984902 41.412697
2.8089402 -1.4425228 20.07357
1.9424064 -0.98168552 10.486837
3.0395384 -1.5105944 10.898042
4.0229583 -1.9819889 10.624846
4.8843522 -2.3937449 10.035534
4.8226409 -2.3551798 7.9551387
5.8052635 -2.8275685 7.8076539
2.4105244 -1.5218674 49.132324
0.98565298 -0.5684737 10.569228
2.477433 -1.2446594 10.711967
3.5649912 -1.7702574 10.878247
4.0313883 -1.9879144 9.3577681
5.3762178 -2.6406493 9.8675251
5.3634586 -2.626276 7.9825482
5.7428184 -2.8058472 7.0072546
6.358283 -3.0804935 7.022758
13.982651 -6.7654428 12.607296
11.819609 -5.7468805 11.786729
0.22362387 -0.2992726 41.412697
2.7990582 -1.4498167 20.038992
1.9571092 -0.99771136 10.584743
3.0409184 -1.5245404 10.921901
4.7437115 -2.3371754 7.839416
5.8039875 -2.8520563 7.8191662
2.4056845 -1.5305825 49.142303
0.98366261 -0.5719108 10.569228
2.4562557 -1.2447751 10.639376
3.5510757 -1.778826 10.854783
4.0263734 -2.0029442 9.3622694
5.3412619 -2.6466618 9.8205996
5.3542585 -2.6449819 7.9825482
5.7725191 -2.8453617 7.0550313
6.4339976 -3.1449549 7.1173806
14.000923 -6.8347001 12.644958
11.715672 -5.746994 11.703591
0.22260319 -0.30008692 41.417698
2.8049989 -1.4653363 20.118023
1.9744399 -1.0152488 10.697332
3.0329146 -1.5337987 10.912357
3.9147177 -1.9627393 10.376309
4.9575353 -2.4726844 10.219875
4.6876459 -2.3299212 7.7608895
5.7853818 -2.8680277 7.8076539
2.4000843 -1.5388148 49.137318
0.98166031 -0.57534093 10.569228
2.4742794 -1.2647858 10.736164
3.5417645 -1.789654 10.845398
4.0193577 -2.0169866 9.3622694
5.3039975 -2.6512964 9.7694092
5.3072362 -2.6448393 7.9266872
5.7959433 -2.8820987 7.095458
6.4229808 -3.1673944 7.1173806
14.001423 -6.8955684 12.666926
0.22155434 -0.3008621 41.417698
2.8033037 -1.47693 20.142719
1.9699801 -1.0216657 10.692437
3.0235531 -1.5423409 10.898042
3.6533141 -1.8476534 9.70434
5.2740674 -2.6536005 10.887016
4.651814 -2.3323958 7.7154279
2.3944557 -1.5470264 49.132324
0.97918725 -0.57849252 10.564257
2.4832551 -1.2803283 10.794237
3.5308833 -1.7996551 10.831319
4.014235 -2.0319879 9.3667707
5.2629733 -2.6457541 7.8748174
5.788878 -2.9038329 7.0991335
6.3703771 -3.1691458 7.0718217
10.790003 -5.3866897 10.822333
0.22050278 -0.30163366 41.417698
2.8036199 -1.4896235 20.182232
1.9709126 -1.0308962 10.716912
3.0208054 -1.5542518 10.907585
3.7181928 -1.8967963 9.8930435
5.3950477 -2.7381153 11.154749
4.663733 -2.3587801 7.7484913
5.556313 -2.8029587 7.5275154
2.3890409 -1.5553751 49.132324
0.97761977 -0.5821802 10.569228
2.493268 -1.2965289 10.85715
3.52458 -1.811969 10.831319
4.0090561 -2.0469775 9.3712711
4.2648611 -2.169188 7.8966632
5.2214561 -2.6477549 7.8269367
5.7091331 -2.8888173 7.014605
10.856676 -5.4484043 12.016737
12.428827 -6.2292628 11.292283
10.797814 -5.4377565 10.848938
0.2194735 -0.30243728 41.422695
2.8018274 -1.5012363 20.206928
1.9673021 -1.0377697 10.716912
3.0153618 -1.5647869 10.907585
3.7132864 -1.9106579 9.8976469
5.3620062 -2.7449253 11.10647
4.6078444 -2.3507471 7.6699653
5.5036454 -2.8005321 7.4699531
2.3835971 -1.563705 49.132324
0.97558165 -0.58558911 10.569228
2.4920661 -1.3069757 10.871668
3.5212975 -1.82585 10.840705
4.0038218 -2.0619562 9.3757725
4.2595835 -2.1852522 7.9009295
5.1960859 -2.657732 7.8029971
5.6205053 -2.8686569 6.9190507
10.796228 -5.4653287 11.971177
12.396585 -6.2673397 11.282867
10.762122 -5.46696 10.832311
0.21841645 -0.30320156 41.422695
2.8013551 -1.5135936 20.241505
1.9654654 -1.0455873 10.726704
3.0112038 -1.5759953 10.912357
3.7620826 -1.9524072 10.044928
4.17133 -2.1537731 8.6705303
4.5845981 -2.3590915 7.6451678
5.5736799 -2.8607075 7.5774035
2.3783653 -1.5721753 49.137318
0.9739874 -0.58926743 10.574201
2.4563787 -1.2992089 10.736164
3.5149026 -1.8381306 10.840705
3.9985313 -2.0769229 9.3802738
4.2403488 -2.1941149 7.8796
5.1814213 -2.6730905 7.7950168
5.6285424 -2.8975689 6.9411011
10.532521 -5.3781009 11.701327
12.339957 -6.2928915 11.251483
10.689806 -5.4772511 10.779102
0.21735676 -0.30396211 41.422695
2.7933254 -1.5218754 20.221746
1.962701 -1.0529232 10.731599
3.0070043 -1.5871937 10.91713
3.7604375 -1.9682457 10.058735
4.1616621 -2.1672142 8.6661415
4.5888233 -2.3815618 7.665832
5.5636606 -2.880146 7.5774035
2.3728628 -1.5804678 49.137318
0.97192454 -0.59266365 10.574201
2.4496109 -1.306592 10.726485
3.5130439 -1.8528039 10.854783
3.9951138 -2.0928884 9.3892765
4.2326641 -2.2089033 7.8796
5.2148275 -2.7134149 7.8588572
5.6544986 -2.9359455 6.9852037
10.260048 -5.2842026 11.420963
12.234845 -6.2931986 11.17616
10.717059 -5.5385313 10.825659
0.21629439 -0.30471897 41.422695
2.8077438 -1.5424687 20.364986
1.959909 -1.0602524 10.736494
3.0027628 -1.5983816 10.921901
3.7811871 -1.9959532 10.132376
4.1477113 -2.1783869 8.6529741
4.5754957 -2.3949554 7.6575661
10.247355 -5.3502703 13.916961
2.3673315 -1.5887409 49.137318
0.97030377 -0.59633225 10.579172
2.4561043 -1.3210901 10.774879
3.5065551 -1.8650554 10.854783
3.9897089 -2.1078382 9.3937778
5.2266693 -2.7428033 7.8907771
5.6682425 -2.9682477 7.014605
10.143433 -5.269022 11.312322
12.212804 -6.3358674 11.17616
0.21522942 -0.30547214 41.422695
2.8152556 -1.5594151 20.458832
1.9561961 -1.0670873 10.736494
2.9997957 -1.6102657 10.931445
3.7741969 -2.0091398 10.132376
4.1379657 -2.191731 8.6485853
4.5695968 -2.412226 7.6616993
10.2825 -5.4143815 13.989873
2.3620102 -1.5971564 49.142303
0.96821624 -0.59971565 10.579172
2.4260664 -1.3158696 10.663573
3.5000236 -1.8772843 10.854783
3.9842479 -2.1227758 9.3982792
5.2570124 -2.7821741 7.9506273
5.6878242 -3.0038476 7.0513568
10.001779 -5.2398524 11.175645
10.674827 -5.6114774 10.822333
0.21416181 -0.30622157 41.422695
2.8145435 -1.5718853 20.493406
1.9533515 -1.0744001 10.741389
2.9954691 -1.6214378 10.936217
3.7292924 -2.0019717 10.03112
4.1366277 -2.2095473 8.6617527
4.5512128 -2.4228728 7.6451678
5.5615039 -2.9532824 7.6157789
2.3559437 -1.6050663 49.132324
0.96656883 -0.60337436 10.584144
2.3839645 -1.3038199 10.499033
3.9768138 -2.1366704 9.3982792
5.2141051 -2.7909739 9.7438126
5.2898021 -2.8232088 8.0144682
5.6832881 -3.0268705 7.0587063
9.9455891 -5.2547417 11.133591
12.416129 -6.5517635 11.402129
10.592496 -5.6154771 10.759149
0.2130916 -0.30696726 41.422695
2.7914376 -1.5717862 20.364986
1.9504797 -1.0817059 10.746284
2.9976523 -1.6361754 10.964849
3.7274354 -2.0177672 10.044928
4.1309977 -2.2251086 8.6661415
4.5476861 -2.4414065 7.6534328
5.6189752 -3.0089934 7.7078786
2.3479476 -1.6116453 49.082409
0.9644568 -0.60674459 10.584144
2.3309705 -1.2854216 10.286098
3.9712458 -2.151576 9.4027805
5.2089205 -2.8116353 9.7523451
5.2931819 -2.8487968 8.0344181
5.672688 -3.0466905 7.0587063
9.9145956 -5.2827177 11.119573
12.400055 -6.598721 11.408406
10.355509 -5.5362325 10.539666
0.21204284 -0.30774561 41.427696
2.7798529 -1.5780674 20.320532
1.9458032 -1.0880108 10.741389
7.4354577 -4.0925136 27.18005
3.7340877 -2.038255 10.081747
4.1274147 -2.2418015 8.6749191
4.5094409 -2.4411895 7.603838
5.7550912 -3.1077852 7.9074283
2.3461049 -1.6224607 49.162273
0.9627828 -0.61039335 10.589114
2.28912 -1.2727789 10.121557
8.6287813 -4.7454739 26.833652
3.9541585 -2.1602063 9.3802738
5.2105279 -2.8360348 9.773674
5.2726116 -2.8615065 8.0184574
5.6649995 -3.0680878 7.0623817
9.8049936 -5.268343 11.017941
12.421533 -6.6658926 11.449206
10.263816 -5.5333652 10.466505
0.21096732 -0.3084839 41.427696
2.7662356 -1.5831289 20.261259
1.9455413 -1.0967969 10.76097
7.4198217 -4.1177192 27.17528
4.1237655 -2.2584965 8.6836977
4.5008917 -2.4569156 7.603838
5.7582831 -3.13552 7.9266162
2.3430316 -1.6324573 49.217182
0.96064627 -0.6137504 10.589114
2.2769883 -1.2764584 10.087682
8.5834894 -4.7596641 26.74449
3.9561284 -2.1792481 9.4027805
5.2005968 -2.8542056 9.773674
5.2758079 -2.8871269 8.0384083
5.6542554 -3.0878437 7.0623817
9.7457809 -5.2804503 10.972382
12.319454 -6.666604 11.377022
10.218196 -5.5548925 10.4399
0.20991306 -0.309255 41.432697
2.7519441 -1.5877264 20.19705
1.9452415 -1.1055944 10.780551
7.3949819 -4.1377625 27.137102
3.9418344 -2.18752 10.680076
4.12005 -2.2751927 8.6924763
4.5268016 -2.4916091 7.6616993
5.8034945 -3.1864541 8.0033665
2.3373191 -1.640626 49.217182
0.95894605 -0.6173889 10.594086
2.2779901 -1.2874917 10.111878
8.5366993 -4.7727547 26.650635
3.9751399 -2.2078431 9.4657974
5.163219 -2.8571882 9.7224836
5.2630591 -2.9040697 8.0344181
5.6434422 -3.1075618 7.0623817
9.6490498 -5.2716908 10.884768
12.268774 -6.6946507 11.351913
10.224936 -5.6048851 10.466505
0.20883228 -0.30998585 41.432697
2.74437 -1.5961504 20.182232
1.9440203 -1.1138967 10.795237
7.3700924 -4.1576829 27.098927
3.942699 -2.2060361 10.703088
4.1162677 -2.2918909 8.7012539
5.7670994 -3.1927209 7.9688292
2.3322849 -1.6492752 49.232155
0.95678508 -0.62073255 10.594086
2.2734818 -1.2954355 10.111878
8.4493322 -4.7626963 26.430075
3.9712079 -2.2238328 9.4748001
5.2397585 -2.9234827 9.8845882
5.2713223 -2.9326785 8.0623484
5.6444163 -3.1338248 7.0770826
9.6118469 -5.2950153 10.863741
12.166897 -6.6942811 11.279729
10.231452 -5.6549916 10.493109
0.20777252 -0.31074965 41.437695
2.7340901 -1.6029688 20.147657
1.942765 -1.1222041 10.809922
7.3477492 -4.178956 27.070295
3.8362846 -2.1641083 10.436142
4.1124191 -2.3085902 8.7100325
4.806437 -2.6894214 8.1617861
5.7503219 -3.2097077 7.961154
2.3258085 -1.6569035 49.217182
0.95461249 -0.62406856 10.594086
2.2700362 -1.3039898 10.116717
8.3921471 -4.7691393 26.30337
4.0089169 -2.2633693 9.5828295
5.181788 -2.9149022 9.7950039
5.2715654 -2.9569576 8.0783091
9.6338339 -5.3510461 10.9093
12.095805 -6.7102757 11.235791
10.21165 -5.6906719 10.493109
0.20668653 -0.31147298 41.437695
2.7231271 -1.6093396 20.108145
1.9414756 -1.1305163 10.824608
7.3240533 -4.1993818 27.03689
3.7862523 -2.1533391 10.321078
4.10642 -2.3241107 8.7144213
4.794569 -2.7047999 8.1576529
5.7251163 -3.2219002 7.9419661
2.3200107 -1.665012 49.217182
0.95287305 -0.62769061 10.599057
2.2665579 -1.3125358 10.121557
8.3634701 -4.7915416 26.265829
4.0274777 -2.2924261 9.6458454
5.2305646 -2.9664247 9.9059191
5.2769485 -2.9842408 8.1022491
9.6493244 -5.4038105 10.947849
12.03494 -6.7315559 11.201268
10.208 -5.7354274 10.509736
0.20562133 -0.31222945 41.442692
2.7094831 -1.6140623 20.048872
1.9375176 -1.1372864 10.824608
7.3028884 -4.2211866 27.013031
3.6922777 -2.1169806 10.086349
4.1024427 -2.3408051 8.7231998
4.8124824 -2.7359834 8.2031155
5.7199764 -3.2440302 7.9496412
2.3144767 -1.6726962 49.217182
0.95078635 -0.63084698 10.599057
2.2643642 -1.3213118 10.131236
8.3340836 -4.8114839 26.223593
4.0538435 -2.3252668 9.7268677
5.2665095 -3.0087173 9.9912367
5.2884927 -3.0127366 8.1341686
8.7835274 -4.9937143 11.03156
9.6863003 -5.4690208 11.010932
12.031712 -6.7849965 11.220099
10.192173 -5.7710867 10.513062
0.20463941 -0.3128739 41.442692
2.7043989 -1.6225666 20.048872
1.9330587 -1.1428493 10.819713
7.2844315 -4.2411046 26.993942
3.6873004 -2.1295469 10.090953
4.0971451 -2.3548751 8.7275887
4.8185148 -2.7594798 8.2279139
5.7014074 -3.2572141 7.9381285
2.3092103 -1.6799591 49.217182
0.94879979 -0.6338309 10.599057
2.2612858 -1.3290561 10.136076
8.3189268 -4.8376422 26.223593
4.0465188 -2.3379908 9.7268677
5.3338861 -3.0694766 10.136279
5.2554808 -3.0158379 8.098259
8.7854462 -5.0313921 11.053611
9.6690702 -5.499424 11.010932
11.969723 -6.7996898 11.182437
10.229129 -5.8345265 10.569595
0.20400681 -0.31333879 41.447693
4.0736947 -2.4559658 30.238562
1.9297856 -1.1463753 10.814817
7.271121 -4.2520676 26.974855
3.6004019 -2.0885839 9.8654289
4.097177 -2.3644164 8.7363663
4.8278432 -2.7771444 8.2527113
10.475021 -6.0087276 14.534798
2.3070347 -1.6839252 49.227165
0.94824553 -0.63561767 10.604029
2.2637587 -1.3347661 10.155433
8.3106747 -4.8483834 26.218899
4.0074654 -2.3228951 9.6413441
5.5644913 -3.2125387 10.579936
5.2016482 -2.9946077 8.0224476
8.7939911 -5.0505638 11.071986
9.6451464 -5.5125842 10.996913
15.371103 -8.771019 14.352279
10.281518 -5.8858323 10.63278
0.20293482 -0.31408614 41.452694
4.0597849 -2.4669421 30.199047
1.9248986 -1.1525812 10.809922
7.2516303 -4.2764134 26.960539
3.5927229 -2.1017661 9.8654289
4.090138 -2.3813362 8.7407551
4.8731222 -2.82815 8.3477688
10.561771 -6.1149693 14.688299
2.3008904 -1.6942594 49.247131
0.94557476 -0.63958412 10.604029
2.2557533 -1.3433447 10.145755
8.2864666 -4.8828468 26.209515
3.9709918 -2.324959 9.5783281
5.5881519 -3.2600989 10.652457
5.1619606 -3.0030284 7.9825482
8.7349129 -5.0715218 11.027884
9.5887651 -5.5248537 10.954859
15.335478 -8.8253555 14.349139
10.243843 -5.9213734 10.619478
0.20183721 -0.3147926 41.452694
4.0471735 -2.4786632 30.169413
1.9208636 -1.1592933 10.809922
7.2315264 -4.2986493 26.94145
3.5365624 -2.0855134 9.7319555
4.0838661 -2.396811 8.7451448
4.8510766 -2.8380382 8.3271036
10.659395 -6.2212734 14.853312
2.2949624 -1.7022805 49.247131
0.94333643 -0.64288092 10.604029
2.2553608 -1.3537984 10.165112
8.2664042 -4.9099793 26.200129
4.0284686 -2.3775346 9.7358704
5.6239471 -3.307349 10.742042
5.1124573 -2.9981632 7.9226971
8.6615648 -5.0694442 10.958056
9.5971756 -5.5744119 10.9864
14.375353 -8.3397465 13.482926
10.223111 -5.9570951 10.619478
0.20075986 -0.31553242 41.457691
4.0325465 -2.4891019 30.124958
1.9159355 -1.1654621 10.805027
7.212636 -4.3215647 26.927135
3.4889576 -2.0738866 9.6214952
4.0775361 -2.4122715 8.7495337
4.7975097 -2.8292232 8.2527113
10.626563 -6.2519422 14.837961
2.29178 -1.7123561 49.30703
0.94152582 -0.64647204 10.609
2.2570739 -1.3655674 10.194148
8.2314482 -4.9281678 26.143816
4.0818834 -2.4283128 9.8844109
5.5674996 -3.3003614 10.656723
5.0889916 -3.0083239 7.9027476
8.6554956 -5.1065388 10.972756
9.5868912 -5.6132836 10.996913
14.406632 -8.4252443 13.539418
10.173279 -5.9757237 10.589548
0.19965723 -0.31623128 41.457691
4.0251527 -2.503984 30.134838
1.9109876 -1.1716106 10.800132
7.1936731 -4.3443999 26.912819
3.4850485 -2.0880609 9.6307001
4.0711479 -2.4277167 8.7539234
4.7489028 -2.8229456 8.1865835
10.521969 -6.2399487 14.722836
2.2844057 -1.719303 49.277081
0.93926346 -0.64975458 10.609
2.3156073 -1.4120544 10.479674
8.2393122 -4.9720283 26.223593
4.0752497 -2.4436662 9.8889122
5.5447507 -3.3130867 10.635393
5.0732822 -3.0229843 7.8947673
8.6521873 -5.1453853 10.991133
9.5733805 -5.6503391 11.003922
14.333545 -8.4497843 13.498618
10.26802 -6.0796833 10.709267
0.19855215 -0.3169263 41.457691
4.0144124 -2.5167806 30.120018
1.9025558 -1.1755973 10.775656
7.1759152 -4.3679318 26.903276
4.0688071 -2.4456146 8.7670908
4.6038432 -2.7585075 7.9551387
10.494621 -6.2733498 14.715161
2.2770107 -1.7262197 49.247131
0.93742669 -0.6533345 10.613973
2.3106642 -1.4201287 10.479674
4.0258803 -2.4485314 12.86798
4.0014873 -2.4184632 9.731369
5.5041089 -3.314929 10.579936
8.6516199 -5.1860132 11.013184
9.5627947 -5.6891928 11.014436
14.257119 -8.4719305 13.454679
10.211468 -6.094439 10.672686
0.19744466 -0.31761745 41.457691
4.0042892 -2.529948 30.110142
1.8906624 -1.177386 10.731599
7.1568069 -4.3906121 26.888958
3.6105647 -2.1976702 10.017312
4.064342 -2.4622843 8.7758684
4.550828 -2.7483747 7.8807454
10.44795 -6.2950578 14.680623
2.2668428 -1.731001 49.157284
0.93514049 -0.6566028 10.613973
2.3142412 -1.4334818 10.51839
3.946543 -2.4041018 9.6188393
7.5569267 -4.587337 14.530191
15.520108 -9.3955107 24.098257
8.6566782 -5.230207 11.042585
9.9771795 -5.9829788 11.512081
10.14214 -6.1011758 10.622804
0.19635698 -0.31834227 41.462692
3.9954338 -2.5439103 30.110142
1.8667067 -1.1715268 10.619009
7.1376286 -4.4132118 26.874643
3.6028714 -2.2102602 10.017312
4.0577664 -2.4777048 8.7802572
4.5219774 -2.752538 7.847682
9.4204731 -5.7208934 13.27226
2.2653613 -1.7424262 49.257114
0.93284279 -0.65986305 10.613973
2.3156207 -1.4455457 10.547427
4.0204329 -2.4838338 12.905521
3.9418375 -2.4201415 9.627841
7.554215 -4.6218538 14.555786
15.497504 -9.455905 24.114216
8.6383686 -5.2603927 11.042585
10.032537 -6.0638881 11.599695
10.044156 -6.0900812 10.542992
14.17408 -8.584074 12.149455
0.19524454 -0.31902575 41.462692
3.9799902 -2.5536447 30.060747
1.8419548 -1.1649705 10.501523
7.1171122 -4.4349422 26.855555
3.5951343 -2.2228231 10.017312
4.7711325 -2.9362292 10.333992
4.5555158 -2.7947941 7.9220743
9.3977127 -5.752069 13.268422
2.2601776 -1.7510308 49.277081
0.93053377 -0.66311526 10.613973
2.3105605 -1.4536198 10.547427
4.0102735 -2.4969406 12.900829
3.8389559 -2.3754635 9.3982792
5.464654 -3.3696473 10.571404
15.446437 -9.4988947 24.086285
8.6141748 -5.2869673 11.035234
9.7859344 -5.9615722 11.340359
10.006907 -6.1153698 10.526363
14.154379 -8.6398153 12.158284
0.19412975 -0.31970534 41.462692
3.9664848 -2.5645685 30.026173
1.8395942 -1.1724879 10.511313
7.0977969 -4.457377 26.84124
3.5989592 -2.2425916 10.04953
4.7730656 -2.9604404 10.360326
4.5241919 -2.7973595 7.8848786
9.3666658 -5.7781072 13.253073
2.2508669 -1.7564212 49.207199
0.92864609 -0.66667062 10.618944
2.3054724 -1.4616762 10.547427
3.9986095 -2.5090892 12.891443
3.7973914 -2.3681138 9.3172579
5.4528584 -3.3887019 10.571404
15.395256 -9.5416431 24.058355
8.5495367 -5.2884684 10.976432
9.7103615 -5.9621072 11.277277
14.107579 -8.6518497 13.426434
9.9854984 -6.1502624 10.526363
14.093151 -8.6701097 12.131796
0.1930126 -0.32038105 41.462692
3.952301 -2.5750048 29.98666
1.8243539 -1.1717472 10.447676
7.0771484 -4.4789329 26.822151
3.5911093 -2.2551405 10.04953
4.0478444 -2.5302169 8.8153696
4.4666343 -2.7833691 7.8022194
9.3056078 -5.7853818 13.19551
2.2447219 -1.7642676 49.207199
0.92631328 -0.66990811 10.618944
4.3477368 -2.7780628 19.902035
3.9650328 -2.5073514 12.811666
3.8351805 -2.4103158 9.4297876
5.405632 -3.3855653 10.503149
15.3363 -9.579361 24.018456
8.5223942 -5.3129001 10.965406
9.9381609 -6.1498475 11.56465
14.090536 -8.7092276 13.438988
9.9576244 -6.1811428 10.519712
14.021577 -8.6936913 12.096478
0.19191477 -0.3210907 41.467693
3.9367933 -2.5845206 29.937267
1.8065773 -1.1692544 10.369352
7.0576954 -4.5012007 26.807837
3.487469 -2.2070637 9.7825832
4.034935 -2.5417781 8.806592
4.466424 -2.80493 7.8187513
9.2093067 -5.7701788 13.08806
0.92396921 -0.67313749 10.618944
4.330615 -2.7884583 19.868158
3.9548013 -2.5202494 12.806974
3.8359387 -2.4295125 9.4522934
5.3937812 -3.4044139 10.503149
15.277267 -9.6167841 23.978554
8.5152788 -5.3498297 10.980107
10.0407 -6.2618756 11.708336
14.357386 -8.9435797 13.721448
14.721432 -9.1596708 11.452165
9.9708071 -6.2376461 10.556293
14.035707 -8.7704277 12.13474
0.19079278 -0.32175866 41.467693
3.9232118 -2.5952456 29.902693
1.7999263 -1.1738844 10.354666
7.0369177 -4.5225806 26.788748
3.4797437 -2.2192235 9.7825832
4.0240164 -2.5545638 8.8022032
4.5065393 -2.852107 7.9055433
9.1484556 -5.7766194 13.030497
0.92161393 -0.67635864 10.618944
4.3124199 -2.798084 19.829443
3.9416239 -2.5312412 12.792895
3.8274348 -2.4428875 9.4522934
5.329051 -3.389627 10.400767
15.213072 -9.6506834 23.930674
8.5166025 -5.3922162 11.005833
11.72172 -7.3672099 13.6849
14.392011 -9.0350323 13.784218
14.813356 -9.2887506 11.548116
9.9773989 -6.2903342 10.586223
14.005007 -8.8193684 12.13474
0.18975411 -0.32257473 41.487694
3.9160683 -2.6102171 29.917509
1.7932655 -1.1784823 10.339981
7.0173292 -4.5446825 26.774431
3.4933414 -2.2450886 9.8424168
4.8301206 -3.0900383 10.575391
4.5036736 -2.87236 7.917942
9.1282358 -5.8085184 13.030497
0.91924733 -0.67957151 10.618944
4.2563376 -2.7828526 19.616508
3.9429049 -2.5515475 12.825745
3.8335311 -2.4656541 9.4883032
5.3215785 -3.4110231 10.409299
15.158981 -9.6907454 23.898756
8.5063028 -5.4273829 11.016859
11.710996 -7.417623 13.702422
14.498536 -9.1726179 13.916034
14.688938 -9.2823238 11.476838
9.9553804 -6.3251233 10.586223
13.878577 -8.8075581 12.05233
0.18860568 -0.32319707 41.482693
3.9114475 -2.6269035 29.952084
1.7772565 -1.1768627 10.271447
6.9964228 -4.5658865 26.755344
3.4969611 -2.264703 9.8746338
4.815279 -3.1042848 10.566612
4.5101905 -2.8987134 7.9468727
9.1321869 -5.8559184 13.065035
0.91644245 -0.68245745 10.613973
4.225605 -2.7838616 19.51972
3.9339745 -2.5652952 12.825745
3.843169 -2.4908612 9.5333157
15.0896 -9.7207546 23.842896
8.4530869 -5.4350405 10.972756
9.1599302 -5.8466897 10.758604
14.440173 -9.2064314 13.890925
14.550637 -9.26616 11.394593
9.9049406 -6.3417168 10.556293
13.823914 -8.8407068 12.031729
0.18739177 -0.32370079 41.462692
1.4248589 -0.96384883 10.935941
1.76975 -1.1807983 10.251866
6.9754534 -4.5870004 26.736256
3.4350452 -2.2416604 9.7227507
4.7963805 -3.1158552 10.549057
4.5213017 -2.9282069 7.9840693
9.1305361 -5.8999372 13.091897
0.91405463 -0.68565226 10.613973
4.1655965 -2.765224 19.287428
3.8563225 -2.5185466 9.5873308
5.1490016 -3.351346 10.119215
15.063157 -9.7782898 23.854864
8.4795866 -5.494009 11.03156
9.136466 -5.876699 10.7551
14.411222 -9.2588844 13.894063
14.483014 -9.2943115 11.367179
10.271785 -6.6272607 10.968656
13.718223 -8.8407354 11.96698
0.18615563 -0.32416174 41.437695
1.4150664 -0.96443933 10.886549
1.7622377 -1.1846958 10.232285
6.9544215 -4.6080232 26.717167
3.3945527 -2.232168 9.6307001
4.062098 -2.6590335 8.9645987
4.4969134 -2.9347436 7.959271
9.1233149 -5.9405169 13.111084
0.91165566 -0.68883878 10.613973
4.1360679 -2.7664688 19.195477
8.1778355 -5.4146338 26.725719
3.8893323 -2.5595183 9.6908579
5.1263676 -3.3621471 10.097885
15.041541 -9.8390579 23.874815
8.5256472 -5.5662017 11.116089
9.100934 -5.8988566 10.737576
14.480103 -9.3747082 13.991356
14.671688 -9.4878588 11.539891
10.36128 -6.7363424 11.088373
13.680499 -8.8841648 11.961093
0.18485594 -0.32450306 41.397697
1.408489 -0.96717292 10.861853
1.7606206 -1.1925536 10.246971
6.9333286 -4.6289549 26.69808
3.3802261 -2.2396872 9.6122904
4.2926979 -2.8314464 9.4912882
4.4772372 -2.9442382 7.9427395
9.0730448 -5.9529858 13.068871
0.90924561 -0.69201684 10.613973
5.8347483 -3.9323268 27.127296
8.1990786 -5.4699636 26.857117
3.8676744 -2.564657 9.6593494
5.1515894 -3.4044666 10.170406
14.971881 -9.8682852 23.818954
8.5089979 -5.5977917 11.119763
9.151947 -5.9773927 10.821686
14.44729 -9.4251966 13.991356
14.754087 -9.6143503 11.630359
10.156557 -6.6537952 10.895494
13.632494 -8.9207973 11.946378
0.18372208 -0.32514635 41.397697
2.8502588 -1.9723829 22.034454
1.7589699 -1.2004142 10.261657
6.9109359 -4.6489625 26.674219
3.3723876 -2.2514727 9.6122904
4.3067236 -2.8623219 9.5439568
4.4739699 -2.9645119 7.9551387
9.0789471 -6.0022974 13.107247
0.90682453 -0.6951865 10.613973
5.8168259 -3.9498453 27.107937
8.1870956 -5.5033636 26.880579
3.8080163 -2.5442777 9.5333157
5.1027703 -3.3978539 10.097885
14.909732 -9.9021492 23.775064
8.5035343 -5.6368246 11.13814
9.6732035 -6.3661242 11.459514
14.407797 -9.4712925 13.985079
14.776361 -9.7025146 11.674223
9.8310118 -6.4896784 10.572921
13.658637 -9.006156 11.99641
24.634211 -16.230886 17.421215
0.18266845 -0.32593954 41.417698
2.8420818 -1.9814312 22.024574
1.7589635 -1.2094319 10.286133
6.8946657 -4.6730576 26.674219
3.3531611 -2.2555974 9.5800724
4.2947164 -2.8760054 9.5395689
7.8121967 -5.2040873 11.315133
0.9043923 -0.69834763 10.613973
5.799891 -3.9679964 27.093418
3.7467432 -2.5222979 9.4027805
5.0800509 -3.4083798 10.076556
14.847529 -9.9356995 23.731173
9.7460308 -6.4629202 11.571659
14.634299 -9.6825094 11.589238
9.7150326 -6.4619188 10.473156
13.680984 -9.0895672 12.043501
24.512758 -16.273861 17.375616
0.18155006 -0.32661369 41.422695
2.8415062 -1.9958067 22.073969
1.7547312 -1.2155646 10.286133
6.8635192 -4.6869941 26.616955
3.3420329 -2.2650959 9.5708675
4.2767096 -2.8856204 9.5220118
7.7913222 -5.2295384 11.311296
0.9023695 -0.70182794 10.618944
5.786005 -3.9882176 27.093418
3.741519 -2.5378048 9.4117823
14.785275 -9.9689369 23.687283
8.1208439 -5.4651303 10.68977
9.5039835 -6.3502851 11.312322
14.027291 -9.3620539 13.680649
14.69435 -9.7961578 11.663258
9.7141285 -6.5103421 10.496434
13.665964 -9.14851 12.058217
24.37339 -16.304197 17.317352
0.18042921 -0.32728401 41.427696
1.4037268 -0.99302864 10.931002
1.7479727 -1.2199336 10.271447
6.8409681 -4.7066932 26.593096
3.3905721 -2.3153102 9.7319555
4.2666106 -2.9005315 9.5220118
7.7730203 -5.2567039 11.311296
0.89991421 -0.70497346 10.618944
4.1491013 -2.8812525 19.485844
3.7452188 -2.5594482 9.4432917
4.8384252 -3.295475 9.6456966
14.757864 -10.025566 23.699253
8.129777 -5.5124702 10.726521
9.3397617 -6.2878227 11.144104
13.968686 -9.3935843 13.65554
14.67742 -9.8590488 11.676965
9.703721 -6.5525694 10.509736
13.633947 -9.1961575 12.058217
24.205517 -16.314489 17.238825
0.17932609 -0.32798919 41.437695
1.3983541 -0.99656928 10.916184
1.7487006 -1.2295424 10.300819
6.7901483 -4.7067327 26.45948
3.4388015 -2.3658905 9.8930435
4.2781949 -2.9302948 9.5702925
7.4740367 -5.1040635 13.365169
7.7546239 -5.2838049 11.311296
0.89786613 -0.70844114 10.623916
4.2059617 -2.9425576 19.800406
8.0527163 -5.5778317 26.692869
3.7452269 -2.5786788 9.4657974
4.8010874 -3.2946355 9.5945053
7.7529101 -5.306438 12.515216
8.1104851 -5.5408149 10.726521
9.7397957 -6.6066651 11.645254
12.633999 -8.5602312 12.387604
14.691398 -9.9430342 11.715344
9.6807899 -6.5864019 10.509736
13.414553 -9.1164646 11.8934
24.044998 -16.328651 17.165363
0.17820017 -0.32865191 41.442692
1.3942358 -1.0009911 10.911245
3.1766856 -2.2505059 18.740191
6.7406344 -4.7073298 26.330637
3.4096494 -2.3634107 9.8332119
4.287652 -2.9588137 9.6141825
7.4561749 -5.1301217 13.365169
7.7202783 -5.2999573 11.28827
0.89538771 -0.71157092 10.623916
5.7470064 -4.0507612 27.107937
8.0190449 -5.5960307 26.645941
3.7451458 -2.5979404 9.4883032
4.7788324 -3.3039584 9.5731754
7.7318587 -5.3317575 12.511226
8.091095 -5.5690918 10.726521
9.7608395 -6.6708074 11.697823
12.620113 -8.6152515 12.403296
14.687692 -10.015458 11.740018
9.6515808 -6.615932 10.503085
13.519388 -9.2568617 12.014071
23.891794 -16.34676 17.096966
0.17707181 -0.32931075 41.447693
1.3907332 -1.0058517 10.911245
3.1679814 -2.2609892 18.735294
6.686317 -4.7042027 26.182705
3.3597341 -2.3462143 9.7135458
4.2772975 -2.9737623 9.6141825
7.4497852 -5.1641326 13.385834
7.691186 -5.3195801 11.27292
0.89289838 -0.71469206 10.623916
5.7297568 -4.068614 27.093418
7.9924045 -5.6190267 26.622478
3.7467606 -2.6184804 9.5153112
4.7672701 -3.3206196 9.5731754
7.7181506 -5.3621531 12.519205
8.077177 -5.6011648 10.733871
9.769803 -6.7270856 11.736372
12.589964 -8.6592512 12.403296
14.690553 -10.092711 11.770174
24.663374 -16.93162 15.74617
9.6099949 -6.6368513 10.483132
13.57017 -9.3613768 12.087649
23.770702 -16.386019 17.051369
0.17596082 -0.33000457 41.457691
1.3872137 -1.0107001 10.911245
3.1625502 -2.2738171 18.749981
6.6686378 -4.7266502 26.177935
3.2812212 -2.3084629 9.511034
4.4081278 -3.0876067 9.9301968
7.4270992 -5.1868839 13.377567
7.6567917 -5.3354001 11.249895
0.8903982 -0.71780455 10.623916
5.7257433 -4.0959034 27.141813
7.9699244 -5.6448956 26.613092
3.7607374 -2.647836 9.5738268
4.798346 -3.3672032 9.6584949
7.6821055 -5.376967 12.491276
8.0659142 -5.6351504 10.744897
10.218025 -7.0884213 12.300604
12.511673 -8.6698933 12.35622
14.62429 -10.122513 11.745502
24.625978 -17.032726 15.760082
9.5499897 -6.6447659 10.443226
23.6036 -16.392666 16.972841
0.17482749 -0.33065572 41.462692
1.3830509 -1.0150764 10.906305
3.157892 -2.2872319 18.769562
6.6435938 -4.7438269 26.144531
3.3480546 -2.3730016 9.727354
4.3973231 -3.1029751 9.9301968
7.4273601 -5.2257314 13.41063
7.6381211 -5.3620949 11.249895
0.88788718 -0.72090822 10.623916
5.6879568 -4.0989623 27.030506
7.9319105 -5.6596508 26.552086
3.737267 -2.6508713 9.537817
4.8525796 -3.4306049 9.7907381
8.0323324 -5.6535149 10.726521
10.327682 -7.2180223 12.461814
12.401546 -8.6578121 12.277759
14.530559 -10.132838 11.698895
24.471876 -17.052734 15.699793
10.930086 -7.6617918 11.969631
11.733091 -8.2155428 10.513058
0.17369176 -0.33130303 41.467693
1.3788745 -1.0194359 10.901366
3.1465991 -2.2958405 18.749981
6.63063 -4.7696037 26.158846
3.5225904 -2.5152366 10.256643
4.3728018 -3.108592 9.8994732
7.4090734 -5.251626 13.41063
7.5827212 -5.3628125 11.19617
0.88577765 -0.72434092 10.628886
5.6685281 -4.1150994 27.00631
7.9065018 -5.6832752 26.533316
3.7138216 -2.653775 9.5018072
4.9276705 -3.5095561 9.965642
7.1432552 -5.0744667 11.67731
8.0042524 -5.6756353 10.715495
9.7863026 -6.8906193 11.841509
12.30439 -8.6540251 12.211851
14.368506 -10.094559 11.597462
24.328815 -17.079514 15.646461
11.552409 -8.149271 10.377672
15.06762 -10.621114 10.918544
0.17255361 -0.33194634 41.472691
1.3746846 -1.0237786 10.896427
1.7430774 -1.2809718 10.4232
6.6175661 -4.7953472 26.173161
3.4519374 -2.4830234 10.077145
4.3950248 -3.1475437 9.9740877
7.579618 -5.4004087 11.219195
0.8832438 -0.72742844 10.628886
5.649056 -4.1311507 26.982111
5.756536 -4.1683526 19.381538
3.7504711 -2.6997914 9.6188393
4.9259849 -3.5343375 9.9869709
7.1254988 -5.099371 11.67731
7.9678416 -5.6917176 10.693444
9.7156496 -6.8917246 11.785437
12.318569 -8.7284269 12.25579
12.049855 -8.5285654 9.7634211
24.185863 -17.105499 15.593128
10.937179 -7.7812004 12.036141
11.260313 -8.0022306 10.14222
15.040998 -10.681133 10.926143
0.17137462 -0.33250755 41.467693
1.3704811 -1.0281045 10.891487
1.7451417 -1.291896 10.462361
5.0599918 -3.6936145 20.074566
3.4353395 -2.489326 10.054132
4.4578166 -3.2161157 10.140872
7.7117467 -5.5352368 11.441771
0.88069922 -0.73050714 10.628886
5.6285295 -4.1463714 26.953075
5.7363739 -4.1843529 19.362768
3.7022536 -2.6847494 9.5198116
4.8628893 -3.5148435 9.8845882
7.0392165 -5.0748711 11.56559
7.9396696 -5.7135549 10.682419
12.288026 -8.7713737 12.25579
12.023416 -8.5730028 9.7661619
24.043032 -17.130699 15.539797
10.873534 -7.7932305 11.996236
11.186299 -8.0085468 10.101016
14.996609 -10.728553 10.921076
24.837212 -17.748894 14.199476
0.17019378 -0.33306447 41.462692
1.3662643 -1.0324136 10.886549
1.7430699 -1.2998061 10.477047
6.5935478 -4.8485041 26.211338
3.445564 -2.5151253 10.109363
4.4465632 -3.2316568 10.140872
6.4604573 -4.6816306 11.790515
7.6690025 -5.5452189 11.407232
0.87814391 -0.73357689 10.628886
5.6089745 -4.1622477 26.928877
5.7217331 -4.2043514 19.362768
3.6875858 -2.6938038 9.5063086
4.8590245 -3.5379374 9.9016523
6.9824495 -5.0710797 11.50175
7.9581032 -5.7690916 10.733871
10.344562 -7.4469428 12.6055
12.314216 -8.8551168 12.312282
12.00021 -8.6197996 9.7716455
23.900316 -17.155109 15.486464
10.918916 -7.8835945 12.076047
11.256626 -8.1184769 10.18931
14.962566 -10.783358 10.92361
24.767738 -17.830183 14.195281
0.16901113 -0.33361727 41.457691
1.3620341 -1.0367057 10.88161
3.08656 -2.3187542 18.583544
6.5597906 -4.8590512 26.144531
3.5060155 -2.5780632 10.311873
4.5898485 -3.3603449 10.491998
6.4031649 -4.6742878 11.716122
7.55374 -5.50213 11.265244
0.8759855 -0.73698133 10.633858
5.6054859 -4.1900797 26.982111
5.715344 -4.2304587 19.390924
4.8971162 -3.5918977 10.004035
6.8868856 -5.0384874 11.374068
7.9707718 -5.8208289 10.777973
10.324277 -7.4871926 12.612509
12.295838 -8.9071817 12.324835
11.983599 -8.6714401 9.7826118
23.750546 -17.17354 15.428493
10.864155 -7.9018941 12.046117
11.241299 -8.1672249 10.201083
14.893437 -10.812727 10.900811
24.613497 -17.849916 14.142829
0.16780788 -0.33412647 41.447693
1.3577905 -1.0409809 10.876671
3.0808833 -2.3313577 18.598228
5.0617113 -3.776751 20.236814
3.4969947 -2.5902858 10.311873
4.3564324 -3.2128656 9.9872541
6.2779927 -4.6165886 11.51774
8.3717642 -6.1428299 12.508596
0.8734076 -0.74003458 10.633858
5.5908251 -4.209621 26.982111
5.7005424 -4.2503834 19.390924
3.4081159 -2.5263157 8.8356276
7.3575754 -5.4362431 15.033572
6.8158913 -5.0231671 11.286288
7.9504051 -5.8486161 10.777973
10.341274 -7.5547423 12.665077
12.358997 -9.0188818 12.418989
11.882298 -8.6614933 9.7250414
23.586617 -17.180704 15.361248
11.144226 -8.1562824 10.139277
14.622476 -10.694149 10.731088
24.481409 -17.884857 14.102966
0.16662182 -0.33467078 41.442692
1.3535336 -1.0452391 10.871731
3.0670581 -2.3377764 18.563963
5.0210533 -3.7737687 20.127058
4.2010036 -3.1209311 9.6580734
6.1306896 -4.5413227 11.278029
8.3992443 -6.2082148 12.58151
0.87122416 -0.74342519 10.638829
3.8675752 -2.933212 18.726055
5.6856709 -4.2702556 19.390924
3.3940439 -2.5342891 8.8221235
7.3385544 -5.4618931 15.033572
6.7789602 -5.0325584 11.254368
7.919045 -5.8682585 10.763272
10.31484 -7.5907946 12.665077
12.327439 -9.0619678 12.418989
11.781212 -8.6509447 9.667469
23.330072 -17.118799 15.233715
11.388521 -8.4054794 12.687939
11.131953 -8.2071266 10.153993
14.435819 -10.635179 10.622161
24.3311 -17.905643 14.052613
0.16541545 -0.3351714 41.432697
1.3492634 -1.0494802 10.866792
3.04515 -2.3379259 18.480742
5.01261 -3.7948768 20.146147
3.2273936 -2.4256494 9.5708675
4.176662 -3.1255317 9.6273499
5.9772248 -4.4600377 11.025919
7.2797537 -5.4201379 10.942894
0.86902785 -0.74680966 10.643801
3.8593106 -2.948221 18.735733
3.353862 -2.5225663 8.7411013
7.3048372 -5.4765248 15.003711
6.7710047 -5.0634098 11.270329
7.8822122 -5.883698 10.741221
10.259632 -7.6055164 12.630033
12.217531 -9.0470343 12.340528
11.740859 -8.684556 9.6592455
21.806065 -16.117933 14.280688
11.386079 -8.4652309 12.717869
11.132442 -8.2676239 10.180481
14.582076 -10.821662 10.75642
24.162718 -17.912085 13.99177
0.16428134 -0.33582586 41.442692
1.3449804 -1.0537043 10.861853
3.0313327 -2.3441808 18.446476
5.0278187 -3.834075 20.260674
3.2173493 -2.4357212 9.5662651
4.1638136 -3.1386502 9.622961
6.0111079 -4.5180721 11.116844
7.2377124 -5.4282079 10.908358
0.86641568 -0.74983853 10.643801
3.8410265 -2.9555416 18.697018
3.3485065 -2.5368876 8.750104
7.2648635 -5.4862719 14.96105
6.7532892 -5.0870142 11.270329
7.8697562 -5.9172888 10.752247
10.26731 -7.6668873 12.672087
12.198356 -9.0989351 12.353081
11.79765 -8.7904434 9.7305231
21.699924 -16.156916 14.248224
24.961458 -18.571802 12.658575
11.260825 -8.4333019 12.611452
11.048493 -8.2652712 10.130447
14.699586 -10.988646 10.870414
24.00186 -17.923 13.935122
0.16299833 -0.33615962 41.412697
1.3412939 -1.0583926 10.861853
3.027951 -2.3585024 18.475847
5.0499177 -3.8788817 20.403831
3.2088273 -2.4469368 9.5662651
4.183351 -3.1763387 9.6931858
5.9997869 -4.5424242 11.12511
7.1803584 -5.424458 10.850795
0.86419457 -0.75320899 10.648772
3.8306863 -2.9689317 18.697018
3.3430917 -2.5512021 8.7591066
7.2498202 -5.5147557 14.969583
7.8760777 -5.9651914 10.788999
10.249036 -7.7091112 12.6826
11.766894 -8.8315716 9.7305231
21.558344 -16.168776 14.192574
24.807444 -18.592093 12.613621
8.8944149 -6.7096558 10.00426
10.60638 -7.9924221 9.7537231
23.837593 -17.930283 13.876376
0.16198732 -0.33708358 41.457691
1.3369832 -1.0625846 10.856913
3.0188992 -2.3684292 18.470953
5.0564175 -3.912014 20.484957
3.218858 -2.4724042 9.6214952
4.1608243 -3.1821921 9.666852
6.028646 -4.5974689 11.207769
7.0925112 -5.3970823 10.747182
0.86156005 -0.756221 10.648772
3.8262444 -2.9869261 18.726055
3.6344771 -2.7937093 9.5423183
4.818749 -3.6920812 9.9997692
6.4494715 -4.9291029 10.823445
7.8983331 -6.0255489 10.847801
9.2442408 -7.0039768 11.477036
12.150056 -9.1956186 12.368774
11.779356 -8.9053736 9.7661619
21.498238 -16.241259 14.190254
24.631397 -18.594778 12.557431
8.9541798 -6.8039136 10.097375
10.514025 -7.9805207 9.6948595
23.695278 -17.953087 13.83022
0.16082771 -0.33768672 41.462692
1.3332659 -1.0672451 10.856913
3.0162051 -2.3833721 18.50522
5.0415535 -3.9287229 20.480185
3.2302952 -2.499167 9.6813278
6.0728154 -4.6647692 11.319359
7.0634527 -5.4140067 10.731832
0.85931414 -0.75957721 10.653744
4.1191316 -3.2387953 20.211758
3.7365868 -2.8930087 9.834897
4.8017025 -3.7056923 9.9912367
6.4322267 -4.9515858 10.823445
7.8503699 -6.0324254 10.811049
9.2197361 -7.0362024 11.477036
12.068356 -9.2002172 12.318559
11.704952 -8.9135046 9.7305231
21.483717 -16.348394 14.218081
24.496223 -18.627329 12.521843
9.0193243 -6.9032087 10.19714
10.431517 -7.9754376 9.6448259
20.468678 -15.638117 15.222414
23.567524 -17.986128 13.792455
0.1597195 -0.33840528 41.482693
1.3289276 -1.0714047 10.851974
3.0126469 -2.3976908 18.53459
5.0195899 -3.9398453 20.446781
3.2292566 -2.516432 9.70434
3.824409 -2.9674349 8.9382648
6.0809765 -4.7048802 11.36482
7.0597334 -5.4503822 10.754857
0.85665745 -0.76257211 10.653744
4.1087861 -3.2539344 20.216597
3.6217513 -2.8243694 9.5603228
4.815506 -3.7432389 10.046695
6.7863798 -5.2620516 11.445889
7.8239026 -6.0556412 10.803699
9.1922913 -7.0661683 11.473531
12.005296 -9.2185822 12.287173
11.637272 -8.9263144 9.7003679
21.426519 -16.423286 14.218081
24.331684 -18.636614 12.471272
8.9892588 -6.9300904 10.190488
10.509294 -8.0931864 9.74195
20.331974 -15.646375 15.161618
23.447023 -18.024025 13.758885
0.15855502 -0.33900058 41.487694
1.3251797 -1.0760369 10.851974
3.0082312 -2.4113767 18.559067
5.0022941 -3.954566 20.432465
3.2127693 -2.5216575 9.6813278
3.7668517 -2.9438958 8.8285379
6.1244454 -4.7727828 11.476411
7.0457258 -5.4789271 10.762532
0.85399032 -0.76555783 10.653744
4.1052637 -3.2745278 20.255312
3.4030142 -2.6729357 9.0111752
6.867712 -5.3636069 11.61347
7.79737 -6.0787463 10.796349
9.1506519 -7.085113 11.452504
12.013069 -9.2913895 12.327974
11.602734 -8.964325 9.6976261
21.284906 -16.433008 14.162429
24.174719 -18.650637 12.424446
8.935523 -6.9385276 10.157233
10.490559 -8.1372528 9.7507792
20.260199 -15.704048 15.148952
23.455738 -18.161333 13.800847
25.012268 -19.352577 11.09592
0.1573355 -0.33947212 41.477692
1.3208143 -1.0801642 10.847035
1.6863431 -1.3612831 10.44278
4.9884596 -3.9720032 20.432465
3.328084 -2.6309996 10.054132
3.7565525 -2.9570265 8.8285379
6.1143894 -4.7993441 11.48881
7.1148753 -5.5726633 10.896845
0.85170823 -0.76889169 10.658716
4.0928288 -3.2880507 20.250471
3.3304951 -2.6348217 8.8446293
7.1156092 -5.6113734 14.892796
6.740006 -5.3018494 11.429929
7.8027678 -6.1268644 10.8331
8.5803051 -6.6915402 10.772622
12.017408 -9.3619709 12.365635
11.505371 -8.9534101 9.6427965
21.094532 -16.403872 14.074314
24.028936 -18.672327 12.383239
8.820076 -6.8983665 10.054143
10.455722 -8.1688461 9.744894
20.225645 -15.790589 15.164151
23.438726 -18.279381 13.828121
24.836552 -19.355593 11.048259
0.15614957 -0.34001926 41.477692
1.3164361 -1.0842741 10.842095
1.6768414 -1.3633065 10.413409
4.9745641 -3.9893918 20.432465
3.3815403 -2.6924968 10.242836
3.7330713 -2.9597056 8.7978144
6.0909767 -4.8154225 11.476411
7.1054444 -5.6054053 10.912194
