# .PCD v0.7 - Point Cloud Data file format
VERSION 0.7
FIELDS x y z
SIZE 4 4 4
TYPE F F F
COUNT 1 1 1
WIDTH 1552
HEIGHT 1
VIEWPOINT 0 0 0 1 0 0 0
POINTS 1552
DATA ascii
6.1935139 1.7363267 7.0513568
8.8721256 2.5189881 9.1430082
7.7338037 2.2001681 6.5657673
8.4024916 2.3951421 5.8129683
11.438643 3.2648959 6.3132915
8.5696497 2.4201808 8.0122862
7.8744154 2.2282841 6.042397
8.6866255 2.4613841 5.3911471
10.828661 3.0744421 5.2911458
0.22792061 -0.043785781 25.193314
2.2705853 0.57960641 14.897226
3.0035541 0.78716648 14.951284
2.9718595 0.80041361 9.8863811
4.1095848 1.1221006 10.095555
5.4590545 1.5027726 10.443719
6.1751647 1.7160882 7.7500906
1.4849442 0.24222378 25.85622
1.591853 0.32413065 15.108212
3.5284019 0.93381751 14.089886
3.3814998 0.91194713 9.5783501
4.9351444 1.3456113 10.640615
5.1097913 1.4018259 8.7370529
7.4856462 2.0633855 10.356612
6.1799316 1.7092744 7.029305
8.87743 2.4870415 9.1395035
8.344779 2.3425233 7.0710588
8.2578421 2.3227737 5.7087927
11.552302 3.2537699 6.3689427
8.1212568 2.2629726 7.5899472
7.8821454 2.2007837 6.042397
10.922362 3.0598865 5.3310089
0.22780892 -0.044590779 25.198313
2.2748554 0.57224536 14.912045
3.0052979 0.7764228 14.946389
2.9746354 0.79003495 9.8863811
4.0587687 1.0930181 9.9620819
5.2955408 1.4378976 10.123316
5.4788284 1.4958543 8.4138956
6.230576 1.7080806 7.811491
1.4860657 0.23708402 25.861212
1.5919292 0.31836373 15.098268
3.5279911 0.92054349 14.075367
3.4380298 0.91432792 9.7285185
4.9335046 1.3266805 10.62711
5.1322761 1.388749 8.7669144
7.3357882 1.9945534 10.141151
6.1662369 1.6823381 7.0072546
8.9513683 2.4740891 9.20609
8.4504337 2.3403909 7.1526589
8.1893463 2.2726896 5.6567044
11.56359 3.2134252 6.3689427
8.1255074 2.2336206 7.5866213
7.8780899 2.1700366 6.0335679
10.9461 3.0253687 5.3373032
0.22769439 -0.045395534 25.203312
2.2798557 0.56504828 14.931801
2.9892411 0.76115561 14.85338
2.9672663 0.77700049 9.8529768
3.915278 1.0397376 9.6030855
5.0113411 1.3419706 9.5746813
5.5057545 1.4825737 8.4469595
6.2303133 1.6846484 7.8038163
1.4868844 0.23189525 25.861212
1.5946003 0.31311199 15.113183
3.5360525 0.90947509 14.094726
3.4395313 0.90188378 9.7238264
4.9402094 1.3100092 10.631612
5.094255 1.3593953 8.6943932
7.229198 1.938499 9.9855394
6.162251 1.6581612 6.9962287
9.0184412 2.4587743 9.2656679
8.3797026 2.2893381 7.086751
8.2899895 2.2694836 5.7197585
11.497837 3.1519604 6.3272042
8.0972185 2.1954732 7.5533671
7.9675293 2.1647787 6.0953741
8.6911268 2.3646262 5.3784809
10.969729 2.9907222 5.3435969
0.22749208 -0.046180088 25.198313
2.2840786 0.55763912 14.946619
2.9889171 0.74997348 14.838694
2.9728515 0.76738399 9.8625212
3.9169931 1.0255696 9.5984821
5.5323825 1.4608086 10.553446
5.5108962 1.4633461 8.4469595
6.2206702 1.6587611 7.7846284
1.4879701 0.22674681 25.866201
1.5967305 0.30774492 15.123126
3.5404239 0.89743507 14.099564
3.4643786 0.89548522 9.784832
4.9721327 1.2999142 10.690127
5.0787911 1.3362961 8.6602659
7.3786645 1.9509939 10.181051
6.1417866 1.6296853 6.9668274
8.9925289 2.4180191 9.2306223
8.301897 2.241622 5.7224998
11.393312 3.0805881 6.2645965
8.0435123 2.1507993 7.4968333
8.0609303 2.1599689 6.1601233
8.6826735 2.3298051 5.3683486
0.22732949 -0.046973903 25.198313
2.2890334 0.55038887 14.966375
2.9786668 0.73636031 14.775057
3.9091995 1.0089614 9.5708675
5.5652614 1.4487277 10.606114
5.5295825 1.4476639 8.4676247
6.2109232 1.6329621 7.7654414
1.4887526 0.22155145 25.866201
2.7528605 0.51979518 26.085291
3.5496325 0.88659388 14.123761
3.4775169 0.88594252 9.8129883
5.0693951 1.3064522 10.888181
5.0733266 1.3159405 8.6432018
7.5895381 1.9784299 10.460353
6.147438 1.6082364 6.9668274
8.9423141 2.3710768 9.1710443
8.4406233 2.2427759 7.1244125
11.386874 3.0362341 6.2553215
7.9859838 2.1055748 7.4369745
8.244277 2.1782811 6.2925658
8.5198898 2.2542751 5.2644882
0.22707933 -0.04774661 25.188314
2.2939651 0.54311085 14.986133
2.9574752 0.72017902 14.657571
3.078043 0.77165031 10.191788
3.907017 0.99386489 9.5570602
4.8395309 1.2418029 9.2235546
5.5482259 1.4318688 8.4882889
6.1669416 1.5984055 7.704041
1.4895169 0.21635339 25.866201
2.7562308 0.51047331 26.100206
3.5563674 0.87509865 14.138279
3.4839358 0.8746385 9.8223743
5.0718145 1.2882128 10.883679
5.0576754 1.2930558 8.6090746
7.5993161 1.9526752 10.464343
8.9332838 2.3353379 9.1535215
8.6065407 2.2547271 7.256228
8.6085396 2.2600579 5.9198856
11.431677 3.0054791 6.2738719
8.0474901 2.0917749 7.4868569
8.2518301 2.1494899 6.2925658
8.5277071 2.2245212 5.2644882
0.22686891 -0.04852856 25.183315
2.2996309 0.5359813 15.010829
2.9758136 0.71364874 14.735894
4.5197554 1.1162276 14.930368
3.8971977 0.97689629 9.5248423
5.0063705 1.2659994 9.5307903
5.5531898 1.4124931 8.4882889
6.1445341 1.5697293 7.6695037
1.490263 0.21115269 25.866201
2.7537999 0.50008887 26.060434
3.5642869 0.86386335 14.157638
3.4903183 0.86330056 9.8317604
5.1332994 1.2847704 11.005213
5.0545712 1.2734821 8.5962772
5.9060307 1.4956406 8.142149
6.4246578 1.6329215 7.2645164
7.1663156 1.8467294 7.3521852
8.9271584 2.3054502 7.5167198
8.6487608 2.2383759 5.9418173
11.437811 2.9644451 6.271553
8.0836782 2.0710843 7.5134606
8.3062639 2.1327353 6.3278842
0.22669813 -0.049320184 25.183315
2.3014877 0.52795082 15.010829
3.0099981 0.7107414 14.892542
4.51057 1.0972691 14.88742
3.8986869 0.96281815 9.5202398
4.9968152 1.2450422 9.5044556
5.5853829 1.3999414 8.5296183
6.0629439 1.5263621 7.5620532
1.4907049 0.20591022 25.861212
2.7581527 0.49093935 26.085291
3.5709486 0.85229152 14.172156
3.4983401 0.852337 9.8458376
5.1800256 1.2772663 11.095237
4.9552059 1.2300706 8.4213734
7.2502341 1.809119 9.9695807
6.4303188 1.6104853 7.2645164
9.3918056 2.3852797 9.6021042
9.0822611 2.3117177 7.6391196
8.595746 2.1926696 5.9006953
8.2935877 2.0940399 7.6996884
8.4719915 2.1469312 5.2214241
0.22652459 -0.050111208 25.183315
2.3025584 0.51974297 15.00589
3.0441978 0.70760405 15.049189
4.5434055 1.0884715 14.98286
3.9039226 0.94966513 9.5248423
5.672195 1.4006736 8.6536064
6.1335659 1.5213932 7.6426411
1.4914147 0.20070542 25.861212
2.7593246 0.48121721 26.08032
3.5800204 0.8412587 14.196353
3.5063283 0.84132802 9.8599167
5.2267618 1.2694516 11.185261
4.9670691 1.2146245 8.4341707
7.2769876 1.7888348 9.99751
7.6806698 1.9221917 7.8603444
7.7953215 1.9552112 6.5626287
8.5668497 2.1534772 5.8760223
8.35882 2.0794992 7.7528963
8.479434 2.1173456 5.2214241
0.22634828 -0.050901622 25.183315
2.3036001 0.51153404 15.00095
3.0436714 0.69629258 15.034503
4.5486302 1.0729482 14.987632
3.9110136 0.93694228 9.5340471
4.6119642 1.1150219 8.762701
5.7399383 1.3961612 8.7486639
6.1450663 1.5014951 7.6503158
1.49182 0.19546102 25.85622
2.7609875 0.47158244 26.08032
3.5829349 0.82875699 14.196353
3.5142822 0.83027369 9.8739948
5.2692714 1.2603134 11.266283
5.0321317 1.2119333 8.5365534
7.3124738 1.7705131 10.037411
6.1350384 1.4910967 6.9227257
9.3632154 2.308557 9.5565453
7.8209925 1.932657 6.5783215
8.6027269 2.1305966 5.8952122
8.135149 2.0012362 5.008637
0.22625366 -0.051713422 25.193314
2.3046126 0.50332421 14.996012
3.028203 0.68164098 14.946389
3.0488741 0.7080242 10.0534
3.9161615 0.923733 9.5386505
4.5342822 1.0795043 8.6090832
9.0588188 2.1699133 13.753666
6.1378055 1.4770362 7.6349659
1.4922067 0.19021623 25.851227
2.7620909 0.46185422 26.075348
3.5845802 0.81596619 14.191513
3.5238822 0.8195647 9.892766
5.2609248 1.2389188 11.239276
5.0464821 1.1967674 8.5536175
6.0582366 1.444481 8.3217001
6.0676708 1.4523116 6.8418717
9.3573532 2.2724924 9.5425262
8.5004292 2.0737967 5.8211927
8.0718813 1.9483799 7.4768801
8.1420851 1.9728272 5.008637
0.22611396 -0.052514035 25.198313
2.3055959 0.49511355 14.991073
3.9610884 0.87701815 19.528322
3.070245 0.70169967 10.115437
3.9212651 0.91049922 9.543252
4.5310273 1.0620307 8.5959158
9.0937271 2.1447382 13.794994
6.1148539 1.4489514 7.6004286
1.4925752 0.18497112 25.846237
2.7636862 0.45220989 26.075348
3.5935395 0.80482179 14.21571
3.5351326 0.80918396 9.9162302
5.2970281 1.2279205 11.306794
5.0684071 1.1832949 8.5834789
6.0896435 1.4295223 8.3576097
6.1090012 1.4396763 6.8822989
9.334013 2.2323501 9.5109854
8.3734474 2.0118761 5.7307243
8.0786343 1.9201919 7.4768801
8.148921 1.944394 5.008637
0.2260557 -0.0533369 25.213312
2.3073101 0.48706248 14.991073
3.9681048 0.86405218 19.547901
3.1047153 0.69818103 10.22042
3.9282289 0.89767617 9.5524569
5.6062231 1.3016135 8.525485
8.0083485 1.8681022 9.9221182
1.4926383 0.17969157 25.836254
2.764195 0.44239199 26.065405
3.5693209 0.78632557 14.109242
3.5446696 0.79835546 9.9350004
5.3034043 1.2099071 11.311296
5.0750489 1.1661797 8.5877447
6.0945964 1.4082568 8.3576097
7.8074279 1.8384696 7.9619761
8.6211767 2.0348365 7.2248435
8.2542772 1.9527931 5.6457391
8.2437868 1.9366397 5.0618334
0.22591026 -0.054137103 25.218313
2.3082352 0.4788478 14.986133
3.9740841 0.85083503 19.56259
3.1056759 0.68701696 10.215648
3.9332442 0.88438708 9.5570602
4.538331 1.0303725 8.5959158
7.0482378 1.6104769 10.691151
7.6743078 1.7619609 9.50383
1.4929696 0.17444701 25.831261
2.7646692 0.43257609 26.055462
3.5695872 0.77332938 14.099564
3.5474348 0.78597736 9.9350004
5.3012233 1.1899573 11.297791
5.0867195 1.1501827 8.6005421
6.0877223 1.3843018 8.34165
6.6014504 1.5071566 7.4188733
6.4171906 1.4874891 6.5531487
8.6509752 2.010016 7.2436738
8.1388693 1.8955151 5.5634947
8.495717 1.9567653 7.8460107
8.4982948 1.9651517 5.2112913
0.22550958 -0.054867376 25.193314
2.3136997 0.47156286 15.010829
3.9690585 0.83528078 19.523426
3.1241 0.67966157 10.26814
3.9401228 0.8714959 9.5662651
4.4717779 0.99886316 8.4642439
7.0291066 1.5803092 10.653954
7.4459276 1.6821895 9.2160177
1.4932826 0.16920233 25.826269
2.7651086 0.42276224 26.045519
3.5624294 0.75877041 14.060848
3.5501568 0.77358973 9.9350004
5.3032188 1.1709759 11.29329
5.098341 1.1341186 8.6133404
6.0807548 1.3604118 8.3256903
6.613287 1.48559 7.4262228
9.3394938 2.1305182 9.4934626
8.6655273 1.9815414 7.2499509
8.4837217 1.9446335 5.7910361
8.5279865 1.9328749 7.8692894
8.9338427 2.0330398 5.4696755
0.22523265 -0.055630736 25.183315
2.3168554 0.46378845 15.020708
3.9799273 0.82307011 19.56259
3.1264534 0.66875225 10.26814
3.9488678 0.85898256 9.5800724
4.4822555 0.98478943 8.4774113
7.0373282 1.5563711 10.658087
7.3109541 1.6248962 9.0433302
1.4932901 0.16392642 25.816286
2.7655129 0.41295061 26.035578
3.5576746 0.74478573 14.031812
3.554523 0.76155412 9.9396935
5.3072743 1.1524571 11.29329
5.1073647 1.1174299 8.6218719
6.0442667 1.3301119 8.2698298
8.5013103 1.9081234 8.6418581
8.6837835 1.9538442 7.2593665
8.4659843 1.9094881 5.7745876
8.5273933 1.9014698 7.862638
0.22495313 -0.056392834 25.173315
2.3215101 0.45629719 15.040465
3.1675415 0.64360744 15.563188
3.1375334 0.65967703 10.296771
3.9594839 0.84682721 9.5984821
4.5418496 0.9812746 8.5827494
7.0207195 1.5270125 10.625024
7.2101173 1.5760949 8.9128551
1.4935662 0.15868269 25.811295
2.7653549 0.40306461 26.020662
3.5343976 0.72704589 13.930184
3.5267639 0.742742 9.8552237
5.3282962 1.1375599 11.3293
5.1188836 1.1012405 8.6346703
6.0017514 1.2988087 8.2059898
6.3452182 1.3789135 7.1175089
6.4150028 1.4163638 6.5356259
8.6905508 1.9235201 7.2593665
8.4725981 1.8799245 5.7745876
8.3808002 1.8380978 7.7229671
0.22471295 -0.057165686 25.168314
2.3246145 0.44848496 15.050343
3.9785867 0.79387105 19.528322
3.138355 0.64841902 10.291999
3.9681516 0.83420652 9.6122904
4.5686741 0.97038972 8.6266394
7.0425181 1.5060269 10.649821
7.099628 1.5259969 8.7708673
1.4941109 0.15346821 25.811295
2.7656894 0.39325961 26.010719
3.5369136 0.7147041 13.930184
3.5039871 0.72518206 9.784832
5.2981462 1.1118013 11.25728
5.125247 1.083905 8.638936
5.9738278 1.2709538 8.1620989
6.3002629 1.3461313 7.0623817
6.3467216 1.3780724 6.4620304
8.1563721 1.7799113 5.558012
8.3762159 1.8064709 7.7129908
9.0683985 1.9640114 5.5380716
0.22447014 -0.057937555 25.163315
2.3246391 0.44007897 15.040465
3.9743381 0.77860844 19.494055
3.1245077 0.63419503 10.239508
4.0667028 0.84010881 9.8424168
4.6189232 0.96422344 8.7144213
7.1386094 1.5005358 10.786208
7.0076952 1.4806656 8.6519041
1.4946376 0.14825186 25.811295
2.7659895 0.38345724 26.000776
3.5566483 0.70577765 13.997936
3.4980416 0.71122772 9.7613688
5.3019948 1.0933006 11.25728
5.1366601 1.0676 8.6517334
5.9900265 1.2525604 8.1780596
6.2883344 1.3206474 7.0440063
6.3863707 1.363355 6.497076
8.6619005 1.8538421 7.2248435
8.1625357 1.7514293 5.558012
8.3824711 1.7772214 7.7129908
8.9613581 1.9081059 5.4696755
0.22426654 -0.058720745 25.163315
2.3208132 0.43096966 15.00589
3.9830315 0.76588392 19.523426
6.0808969 1.2119828 19.869371
4.2342696 0.85931867 10.238234
4.5612607 0.93558407 8.6003056
7.0804191 1.4625165 10.691151
6.8339381 1.4190525 8.4331665
1.495146 0.14303368 25.811295
2.7667828 0.37372857 25.995804
3.5590899 0.6933583 13.997936
3.4920413 0.69732368 9.7379045
5.320714 1.0778115 11.288789
5.1454663 1.0507067 8.6602659
7.8479691 1.6124719 10.683794
6.2563834 1.2911521 7.0035791
8.4189262 1.7665385 8.5332174
8.7178354 1.8340118 7.2656436
8.4345407 1.7790172 5.7362075
8.1839285 1.7052991 7.526763
8.8498211 1.8520887 5.3987465
0.22406019 -0.059503224 25.163315
2.3192456 0.42230964 14.986133
3.1041777 0.5857327 15.210732
6.0719061 1.1881697 19.826424
4.5323052 0.90333158 10.947022
4.7241507 0.95181918 8.8987627
7.0192933 1.4243624 10.59196
1.4956361 0.13781378 25.811295
2.7675421 0.36399916 25.990833
3.9516292 0.75549507 15.527194
3.5046148 0.68712157 9.7660608
5.2198234 1.0384219 11.06823
5.1491022 1.0327392 8.6602659
7.8181057 1.5779144 10.635914
6.330627 1.2834505 7.0807581
6.4551101 1.3309793 6.5566535
8.8309126 1.8256332 7.3535199
8.4693604 1.755505 5.7553973
8.1093569 1.6602464 7.4536018
8.8900127 1.8281324 5.4190121
0.22385111 -0.06028498 25.163315
2.315351 0.41325665 14.951558
3.1042008 0.57452303 15.200941
3.1383071 0.60284853 10.263368
4.5891147 0.89800864 11.075892
4.729794 0.9357878 8.9031515
6.9993849 1.3949022 10.554763
6.0768414 1.2176614 7.4968157
1.4961081 0.1325922 25.811295
2.7682669 0.35426894 25.985861
3.9616547 0.74308658 15.556231
3.5188544 0.67716616 9.7989111
5.2340994 1.0222812 11.090736
7.6876006 1.5236679 10.452373
6.3849421 1.2712741 7.1358852
8.3017273 1.6815265 8.4035492
8.8372307 1.7947965 7.3535199
8.217598 1.6525401 7.5467157
8.9301424 1.8039174 5.4392776
0.22363932 -0.061065998 25.163315
2.3206065 0.40584067 14.976254
3.1001763 0.56259364 15.17157
3.1623957 0.59603584 10.334947
4.5193148 0.86798406 10.900997
4.7824035 0.92886001 8.9953222
7.0263047 1.3747839 10.587827
6.0779095 1.1958231 7.4929781
1.4965619 0.127369 25.811295
2.7684286 0.34447253 25.975918
3.9765868 0.73152673 15.604625
3.5703726 0.67416191 9.9350004
5.389204 1.0418077 9.0484657
5.8945341 1.1469363 8.0264378
6.3893404 1.2489787 7.1358852
7.859838 1.563483 7.9549675
8.7785501 1.7509947 7.3001661
8.768425 1.753739 5.9473004
8.3112288 1.6412045 7.6265278
8.9363861 1.7727344 5.4392776
0.22342481 -0.061846271 25.163315
2.3227749 0.39786881 14.981194
3.0961063 0.55069935 15.142199
6.0634651 1.1207234 19.759615
4.5223169 0.85220349 10.900997
4.7903223 0.91305751 9.0041008
7.06146 1.3560866 10.633289
6.1040769 1.1788542 7.5198412
1.4969974 0.12214425 25.811295
2.7690849 0.33474305 25.970947
3.9778793 0.71741837 15.599787
3.6151247 0.66954947 10.05232
5.4272399 1.0207174 11.482341
5.4235559 1.0288217 9.0996571
6.3537078 1.2190033 7.091783
8.4497709 1.6501869 8.5402269
8.6814756 1.7001446 7.2154279
8.7785959 1.7239264 5.9500413
8.4488668 1.6377616 7.7462459
9.0398388 1.7604823 5.4975405
0.22324918 -0.062638849 25.168314
2.3256822 0.39001513 14.991073
3.0809569 0.53691846 15.05898
6.0555897 1.0974219 19.721439
4.4618673 0.82469684 10.749114
4.8146682 0.90029192 9.043602
7.0744457 1.3329922 10.645688
6.1553922 1.1664912 7.5774035
1.4974146 0.11691801 25.811295
2.769707 0.32501316 25.965975
3.9357986 0.69565535 15.425566
3.6497004 0.66278315 10.141482
5.4136429 0.99860775 11.446331
5.429678 1.0103606 9.1039228
5.6980376 1.0674752 7.7511263
6.327939 1.1911732 7.0587063
8.5675583 1.6421633 8.6523724
8.5841541 1.6499939 7.1306896
8.7763491 1.6916903 5.9445586
8.5058842 1.6180277 7.7928028
9.1517839 1.7491478 5.5608702
0.22302918 -0.063417755 25.168314
2.3277962 0.38202029 14.996012
3.0858233 0.52667427 15.073665
6.0490956 1.0744503 19.688034
4.4320388 0.80319566 10.670871
4.8436942 0.88823134 9.0918827
7.0818233 1.3088011 10.649821
6.1562753 1.1444119 7.573566
1.4975255 0.11166919 25.806303
2.7708247 0.31534311 25.965975
3.9493499 0.683842 15.469121
3.6468947 0.64913225 10.127404
5.2885642 0.95646214 11.176258
5.4203439 0.98906088 9.082593
5.6424565 1.0366896 7.6713262
6.3553963 1.1733859 7.0844331
6.3862305 1.2009834 6.4655352
8.6281099 1.6272328 7.1620741
8.603241 1.6054496 7.8759403
9.1493587 1.7156023 5.5558038
0.222848 -0.06420923 25.173315
2.3298826 0.37401548 15.00095
3.0846303 0.51539648 15.05898
6.0748687 1.0571666 19.759615
4.436739 0.78806168 10.675473
7.0697351 1.2810626 10.625024
6.1633859 1.1234905 7.5774035
1.4979061 0.10644117 25.806303
2.7713788 0.30561098 25.961004
3.9628663 0.67194253 15.512676
3.6508386 0.63669467 10.132097
5.2747221 0.93495661 11.140248
5.6460409 1.0169874 7.6713262
6.3594532 1.1511942 7.0844331
6.3938909 1.1793309 6.4690399
8.6605301 1.602061 7.1840434
8.5169725 1.5586064 7.7928028
9.2273674 1.6969091 5.5988679
0.22262253 -0.064986721 25.173315
2.3304064 0.36576006 14.996012
3.0844007 0.50429755 15.049189
3.1752594 0.54125512 10.344491
4.4202156 0.76922095 10.629448
4.9842219 0.87807667 9.3420601
6.8635921 1.2189822 10.310919
6.123096 1.0940769 7.5236778
1.4979807 0.10119273 25.801311
2.7724285 0.29593521 25.961004
3.9726281 0.65933985 15.541713
5.3336778 0.91092217 14.76855
5.2575707 0.92148346 8.8010416
5.6881323 1.0040818 7.723196
6.3867989 1.1331338 7.1101594
6.3979688 1.1570048 6.4690399
8.666069 1.5718204 7.1840434
8.5150108 1.5275486 7.7861519
9.1653566 1.6524514 5.5583367
0.22239432 -0.065763429 25.173315
2.3339732 0.3579762 15.010829
3.0831258 0.49304581 15.034503
3.1859636 0.53164166 10.373123
4.4074659 0.75116158 10.592628
4.9848967 0.86026585 9.3376703
6.7541385 1.1752394 10.141468
6.0290041 1.055562 7.4047155
1.4983248 0.09596318 25.801311
2.7729144 0.2862013 25.956034
3.9860721 0.64728135 15.585267
5.3470373 0.89400578 14.796707
5.1158676 0.87001079 10.793655
5.2633257 0.90356672 8.8053074
5.688633 0.98370695 7.7192059
6.3539743 1.104447 7.0697322
6.4019685 1.1346647 6.4690399
8.6331806 1.5347482 7.1526589
8.9321585 1.5702174 8.1586075
9.1371078 1.614448 5.5380716
0.22216339 -0.066539325 25.173315
2.3359768 0.34994191 15.015768
3.0787921 0.48133761 15.005132
3.1966393 0.52196008 10.401755
4.4023533 0.73448628 10.574217
5.6402607 0.96116555 8.4758902
5.9441967 1.0193428 7.297266
1.4983623 0.090715349 25.79632
2.7738967 0.27652028 25.956034
3.9634786 0.62942213 15.488479
3.6538994 0.59787184 10.122711
5.105989 0.8500033 10.766648
5.2998829 0.89080793 8.8607645
5.6682644 0.95981961 7.6872859
6.217423 1.058368 6.9153752
6.4726491 1.1239021 6.5356259
8.6154776 1.5005962 7.1338282
8.9780607 1.5459982 8.1951876
9.1299448 1.5803379 5.5304718
0.22192979 -0.067314416 25.173315
2.3441038 0.34279642 15.060222
3.0804536 0.4705877 15.005132
4.635632 0.74022764 15.054439
4.3836803 0.71565288 10.52359
4.8135629 0.79613757 9.0084896
5.6297035 0.93915653 8.455225
6.055192 1.0166303 7.4277406
1.4983816 0.085468411 25.791328
2.7743142 0.26678509 25.951061
3.9631672 0.61519766 15.4788
3.6474442 0.58375055 10.099248
5.1067767 0.83182496 10.762147
5.3003864 0.8718791 8.8564987
5.7161713 0.94741786 7.7471366
6.0237803 1.0037837 6.6985407
6.5468493 1.1132576 6.6057172
8.6398478 1.4737859 7.1495204
9.2076588 1.5607055 5.5735359
0.22169346 -0.068088688 25.173315
2.3491321 0.3351599 15.084918
3.0881197 0.46073294 15.034503
4.6278639 0.72243059 15.021035
4.4054446 0.70342648 10.569615
4.8163128 0.77933031 9.0084896
6.79107 1.1085269 10.178665
1.4980943 0.080207355 25.781345
2.774698 0.25705034 25.946091
3.6409352 0.5696817 10.075785
5.1225486 0.81604856 10.789155
5.2724991 0.84840077 8.8053074
5.7789311 0.93710452 7.8269367
6.1477032 1.0023897 6.8308468
6.614017 1.1009377 6.6687989
8.7793102 1.4660559 7.2593665
9.1212578 1.5051666 8.3149061
9.2087965 1.5278497 5.5710025
0.22145444 -0.068862125 25.173315
2.3549056 0.32759947 15.114553
3.0957551 0.45083043 15.063875
4.624455 0.70537186 15.001947
4.4445481 0.69376779 10.657063
4.8190036 0.76251352 9.0084896
6.8115716 1.0874766 10.203463
7.2520437 1.1655632 8.8706417
1.4980768 0.074963436 25.776352
2.7750471 0.24731614 25.941118
3.6266687 0.53708345 14.152798
3.6770186 0.5621835 10.169639
5.1060061 0.79514819 10.748644
5.2625465 0.82796466 8.7839775
5.782167 0.91692656 7.8269367
6.1913385 0.9873302 6.874948
6.6178198 1.0778438 6.6687989
8.8957739 1.4536039 7.3503814
9.1264563 1.4733183 8.3149061
9.2310963 1.4984585 5.5811357
0.22121271 -0.069634728 25.173315
2.3583446 0.31969002 15.129371
3.1063828 0.44130948 15.107932
4.6136012 0.68724638 14.959
4.4488745 0.67854369 10.661666
4.8098021 0.74385744 8.9865446
6.8320079 1.0662965 10.22826
1.4983293 0.069733717 25.776352
2.7753625 0.23758268 25.936148
3.6260331 0.52406126 14.143119
8.7958288 1.3131541 24.238552
5.0936861 0.77502823 10.717135
5.3040705 0.81553429 8.8479671
5.7674665 0.8939684 7.8029971
6.201447 0.96675664 6.8822989
6.6109757 1.0530539 6.6582851
8.9469166 1.4299141 7.3880429
9.1204786 1.4397055 8.3049297
9.1681499 1.4554133 5.5406046
0.22100942 -0.070420973 25.178314
2.3602164 0.31155747 15.134311
3.1068957 0.43032393 15.103037
4.6159716 0.67113775 14.959
4.4570131 0.66387337 10.675473
4.8123693 0.7270636 8.9865446
6.8384705 1.042866 10.232393
7.2061458 1.106636 8.8054047
1.498275 0.064491056 25.77136
2.7756436 0.22785002 25.931175
3.6265955 0.51122552 14.138279
8.8379269 1.2879168 24.341793
5.0942068 0.75692338 10.712634
5.3816791 0.80824614 8.9716787
6.1779718 0.94102007 6.8528976
6.5899448 1.0261302 6.6337533
8.955699 1.3992757 7.3911815
9.1069975 1.4050139 8.2883024
9.0709391 1.4075383 5.4798083
0.22076227 -0.071192004 25.178314
2.3620603 0.30341572 15.13925
3.1083789 0.41947621 15.103037
4.6301098 0.65669733 14.997175
6.0775084 0.88351703 14.527785
4.8101392 0.70956194 8.977766
7.2004561 1.080049 8.7938929
1.4984912 0.0592607 25.77136
2.7758906 0.21811827 25.926205
3.6221316 0.49770808 14.114082
3.6912467 0.52486205 10.193104
5.096818 0.73913664 10.712634
5.4567208 0.80004776 9.0911255
5.895782 0.87175143 7.966588
6.5335498 0.99400258 6.5741758
8.9643764 1.3685933 7.39432
9.1229229 1.3748853 8.2982788
9.0672722 1.3745739 5.4747419
0.22051242 -0.071962178 25.178314
2.3569369 0.29439938 15.099735
3.1088147 0.40849081 15.098142
4.6323738 0.6405313 14.997175
6.0940957 0.8642171 14.560003
4.8125868 0.69276714 8.977766
7.1881104 1.0448855 10.740746
7.2454104 1.0609448 8.8437796
1.4986888 0.054029636 25.77136
2.7761035 0.20838758 25.921232
3.640043 0.48722821 14.176994
3.6930563 0.51197398 10.193104
5.1122999 0.72317004 10.739641
5.4982061 0.78653449 9.1551142
5.9017715 0.85159636 7.9705777
6.2682652 0.9100433 6.9447765
6.4699564 0.96123332 6.5075893
8.9729481 1.3378674 7.3974581
9.1498308 1.3462931 8.3182316
0.22025988 -0.072731473 25.178314
2.3556359 0.28588986 15.084918
3.1142616 0.39815268 15.117722
4.6331019 0.62415808 14.992403
6.077723 0.84026444 14.513979
4.8126035 0.67563093 8.9733772
7.2557955 1.0288739 10.835804
7.3315682 1.0474325 8.9435549
1.4988682 0.048797905 25.77136
2.7762823 0.19865808 25.91626
3.6566789 0.47646707 14.235068
3.6931107 0.49884877 10.188411
5.1234188 0.70650959 10.757646
5.5086675 0.76841819 9.1679125
5.8271279 0.82007301 7.866837
6.2781172 0.88910806 6.952127
6.4697428 0.93813133 6.5040846
9.1692581 1.3164684 8.3315334
0.22000466 -0.073499881 25.178314
2.3519895 0.27712074 15.055283
3.121695 0.38803244 15.147094
6.2174125 0.81543458 20.093655
6.0477042 0.81461126 14.435736
4.7888312 0.65525687 8.9250965
7.3708434 1.0189527 11.001122
7.4335923 1.0355426 9.0625172
1.4990295 0.043565582 25.77136
2.776427 0.18892987 25.911289
3.6583197 0.46369997 14.235068
3.6828525 0.48437968 10.15556
5.1344843 0.68978047 10.775651
5.5061469 0.74848211 9.15938
5.7135286 0.7837584 7.7112265
6.4694471 0.91504258 6.5005803
9.1885881 1.2865244 8.3448362
0.21974677 -0.074267395 25.178314
2.3521707 0.26882097 15.050343
3.1270742 0.3776212 15.166675
6.07763 0.79705179 14.500171
4.7531052 0.63347524 8.8548717
7.3659887 0.99209064 10.988723
7.4435143 1.0104504 9.0701923
1.498884 0.038325675 25.766371
2.7765377 0.17920303 25.906317
3.633718 0.44770122 14.133441
3.6793861 0.4708643 10.141482
5.1476536 0.67326492 10.798157
5.749083 0.76819915 7.7551165
6.3144102 0.84932423 6.9852037
6.4726019 0.89245439 6.5005803
9.2041225 1.255957 8.3548126
0.21952704 -0.075049363 25.183315
2.3538671 0.26069412 15.055283
3.135452 0.36753246 15.200941
6.1622181 0.76447654 19.898003
4.6501684 0.5933792 11.103508
4.7054105 0.61041093 8.762701
7.2968631 0.9568606 10.881266
6.3602571 0.8408106 7.7577658
1.4987199 0.033087313 25.761377
2.776082 0.16944548 25.896374
3.6502352 0.43680561 14.191513
3.6724446 0.45695293 10.118018
5.1478124 0.65501738 10.793655
5.8353963 0.75900763 7.866837
6.32406 0.82815796 6.9925542
6.4827466 0.87080491 6.5075893
9.2232542 1.2257885 8.3681145
0.21926372 -0.075815201 25.183315
2.3555353 0.25255871 15.060222
3.1367159 0.35658544 15.200941
6.123353 0.73796219 19.764387
4.6483331 0.57666254 11.094303
4.7098885 0.59428203 8.7670908
7.2387481 0.92354977 10.790341
6.3790488 0.82064879 7.7769542
1.4982489 0.027845526 25.751394
2.7761247 0.15972373 25.891403
3.6740174 0.44413093 10.118018
5.1414261 0.63597542 10.775651
11.067108 1.3864359 18.314075
5.9336715 0.75073552 7.9945178
6.3269119 0.80607796 6.9925542
6.4857469 0.84817058 6.5075893
9.2311802 1.1940647 8.3714399
0.21903847 -0.076595753 25.188314
2.3571754 0.24441482 15.065161
3.1419899 0.34607965 15.220522
6.103653 0.71398252 19.692808
4.6348004 0.55856377 11.057483
4.7309518 0.58016956 8.8022032
6.3786941 0.79797888 7.7731166
1.4980484 0.02261146 25.746403
2.7761326 0.1500037 25.886431
3.8355625 0.43183193 14.898069
3.6601205 0.42949423 10.075785
5.1392918 0.61750531 10.766648
10.743088 1.3077747 17.772301
6.0469131 0.74362522 8.142149
6.3296876 0.78398794 6.9925542
6.5417342 0.83227682 6.5601573
9.2982693 1.169757 8.4279737
0.21876977 -0.077359878 25.188314
2.3587873 0.23626257 15.070101
3.1401415 0.33478639 15.205836
6.1224232 0.69452274 19.7453
4.6347818 0.54215497 11.05288
4.7329483 0.56365192 8.8022032
7.2841325 0.87770414 10.848202
6.3846226 0.77609497 7.7769542
1.4978296 0.017379135 25.741411
2.7761071 0.14028561 25.88146
3.8457935 0.41939396 14.931946
3.6598828 0.41652036 10.071092
5.1370912 0.59905791 10.757646
10.921119 1.2907745 18.058119
6.1003361 0.72858715 8.20998
6.3290195 0.76148349 6.9888787
6.5799923 0.81381387 6.5952029
9.3171206 1.1391052 8.4412756
0.21849839 -0.078123048 25.188314
2.3595977 0.22802743 15.070101
3.1362269 0.32330167 15.18136
6.1084886 0.67135394 19.692808
4.624999 0.52465242 11.025266
4.7991242 0.5545485 8.9207077
7.3067174 0.85456043 10.877133
6.4254904 0.75831121 7.8230038
1.4975923 0.012148612 25.73642
2.7760477 0.1305695 25.87649
6.7642617 0.74576336 18.560305
5.1369882 0.58087796 10.753145
11.091384 1.2716557 18.331139
6.0818896 0.70486063 8.1820498
7.5236554 0.87857276 8.2898865
6.6217422 0.79551935 6.6337533
0.21822436 -0.07888528 25.188314
2.3611529 0.21986142 15.07504
3.1332834 0.31194913 15.161778
6.1093102 0.64986938 19.688034
4.6229181 0.50807822 11.01606
4.8176918 0.53965896 8.9514322
5.3915296 0.61152416 8.0419302
6.4376521 0.73697102 7.8345165
1.497337 0.0069199582 25.731428
2.7759538 0.12085551 25.871517
6.7651086 0.72196412 18.555613
5.1346569 0.56246901 10.744143
11.106124 1.2340838 18.348204
6.0783238 0.68295372 8.1740694
7.5772057 0.85802639 8.3450136
6.6138511 0.77116132 6.6232395
0.21790718 -0.07963033 25.183315
2.3611321 0.21154891 15.070101
3.1302989 0.30062106 15.142199
6.1026325 0.62762403 19.659405
4.6052361 0.48987225 10.970035
5.6453781 0.62036026 8.4138956
6.4561133 0.71626186 7.8537035
1.497352 0.0016930263 25.731428
2.7763586 0.11116489 25.871517
3.6648369 0.36088052 14.21571
6.7435555 0.69586587 18.489914
5.1344237 0.54431278 10.739641
11.110364 1.1953086 18.348204
6.0597024 0.65945065 8.1461391
7.4689469 0.81937283 8.2237339
6.6094155 0.74726874 6.61623
0.21758741 -0.080374129 25.178314
2.3618562 0.20330574 15.070101
3.1272736 0.28931764 15.122617
6.1062713 0.60646552 19.664175
4.6069183 0.47379401 10.970035
5.5327811 0.58845025 8.2444448
6.4139576 0.68892968 7.7999787
1.4970602 -0.00353271 25.726437
2.7761972 0.10145367 25.866547
3.6660743 0.34808564 14.21571
6.7545295 0.67317766 18.513378
5.1341267 0.52616513 10.73514
11.171536 1.1624566 18.442053
6.0499802 0.63703227 8.1301785
7.4009662 0.78578049 8.1465559
7.9307451 0.86862099 7.9199219
0.21722473 -0.081100173 25.168314
2.3625515 0.19506006 15.070101
3.125222 0.27812919 15.107932
6.1217241 0.58642757 19.707123
4.6046557 0.45732394 10.96083
9.5219069 0.9656412 17.606695
5.537601 0.56942147 8.2485781
6.400383 0.66488081 7.7807908
1.49675 -0.0087563889 25.721445
2.7760015 0.091744907 25.861574
3.6885469 0.33723065 14.29798
6.7516842 0.64910054 18.499298
5.1337657 0.50802612 10.730639
11.152172 1.121106 18.40366
6.0401764 0.61468995 8.1142187
7.3665671 0.75613409 8.1061287
7.8521619 0.83228725 7.8393173
0.21689998 -0.081841305 25.163315
2.3624432 0.18675093 15.065161
3.1231301 0.26695859 15.093246
6.1549482 0.56793433 19.807335
6.1756449 0.59153682 14.675066
9.5276031 0.93263102 17.611086
5.5059514 0.54675192 8.1989822
6.3612046 0.63837516 7.7309036
1.4964216 -0.013977943 25.716454
2.7757721 0.082038768 25.856604
3.6947103 0.32479313 14.317338
6.7435989 0.62457412 18.471144
5.1333408 0.48989609 10.726137
6.0302896 0.59242374 8.098259
7.4771175 0.74111468 8.2237339
7.8550191 0.80487299 7.8393173
0.21661299 -0.082597926 25.163315
2.3646305 0.17862013 15.07504
3.1209984 0.25580597 15.07856
6.1970387 0.55000782 19.936178
6.1893444 0.57105285 14.702682
9.5403395 0.90026778 17.628641
5.4994235 0.52672452 8.1865835
6.3793459 0.61771089 7.7500906
1.4957864 -0.019193284 25.706469
2.7755084 0.07233534 25.851631
6.744019 0.6008777 18.46645
5.1350198 0.4719744 10.726137
11.95432 1.1174943 19.709036
6.0263205 0.57080233 8.0902786
7.5134068 0.71823591 8.2604856
7.8861723 0.78025782 7.8673539
0.21632335 -0.083353542 25.163315
2.3660145 0.17042062 15.079979
3.1208572 0.24483055 15.073665
6.2256927 0.53065383 20.022074
6.2263284 0.55255222 14.785528
9.531497 0.86587685 17.606695
5.4591961 0.50364774 8.1245899
6.4293342 0.59990519 7.8076539
1.4951329 -0.024404356 25.696486
2.7752116 0.062634751 25.846661
3.753268 0.30354753 14.535112
6.7615499 0.57865697 18.508684
5.1301303 0.45347208 10.712634
11.849051 1.0659457 19.529865
6.010272 0.54812127 8.0663385
7.5496273 0.69511288 8.2972374
14.051875 1.3407304 13.951246
0.21603106 -0.084108144 25.163315
2.3689203 0.16231959 15.094796
3.1216927 0.23393522 15.073665
8.1913366 0.66934025 26.321093
9.5666428 0.81525856 22.678856
9.5487776 0.8338505 17.63303
5.3880429 0.47812274 8.0171328
6.4665051 0.58061147 7.8498659
1.4944614 -0.029611109 25.686504
2.7748797 0.052937116 25.841688
3.7605705 0.29092866 14.55931
6.7910471 0.55730879 18.583769
5.149035 0.43703428 10.748644
11.125165 0.96169484 18.335403
5.9971399 0.52582246 8.0463886
7.5283689 0.6666624 8.2715111
14.056469 1.291672 13.951246
0.21573617 -0.084861718 25.163315
2.3710237 0.1541501 15.104675
3.1235061 0.22310953 15.07856
8.1638603 0.63841629 26.225653
9.5558004 0.78074634 22.646639
9.55163 0.80051398 17.63303
5.6252041 0.47937948 8.3643007
6.5132003 0.56189209 7.9035916
1.4937718 -0.03481346 25.676521
2.7745149 0.043242566 25.836718
3.8468051 0.28408977 14.888391
6.8239179 0.53603196 18.668238
5.1548686 0.41941106 10.757646
11.118057 0.92199278 18.31834
12.235429 1.0296751 16.33367
7.5070043 0.63836896 8.2457848
14.107074 1.2466788 13.996804
0.21547866 -0.085631602 25.168314
2.3738737 0.14601545 15.119493
3.1252818 0.21227397 15.083455
8.2077188 0.61302716 26.359268
9.59937 0.75058311 22.743292
9.5543661 0.76716769 17.63303
5.8063421 0.47440389 8.628809
6.54387 0.54153198 7.9381285
1.4930639 -0.040011361 25.666536
2.774116 0.033551205 25.831745
3.8502815 0.27083644 14.898069
6.87221 0.51569414 18.794943
5.1780052 0.40310374 10.802658
11.841365 0.9403615 19.500004
12.241952 0.98720139 16.337658
7.4247131 0.60527509 8.1539059
14.043823 1.1916996 13.930219
0.21517844 -0.086383238 25.168314
2.3759201 0.13781792 15.129371
3.128036 0.20149414 15.093246
8.2291651 0.58575046 26.421305
9.6408958 0.71997976 22.835342
11.753914 0.90247107 21.670984
8.2936049 0.64844823 12.290602
6.5233541 0.51691425 7.9112659
1.4920495 -0.04519568 25.65156
2.7736831 0.023863154 25.826773
3.8461864 0.25705981 14.878712
6.8791313 0.49207175 18.809021
5.1902361 0.38583338 10.825164
11.836774 0.89842963 19.487207
12.245323 0.94446295 16.337658
7.4267807 0.57935429 8.1539059
14.012352 1.1397791 13.895172
0.21487559 -0.087133825 25.168314
2.3794904 0.12969218 15.149129
3.1307528 0.19069764 15.103037
8.2311602 0.5570218 26.421305
11.785655 0.86353654 21.723652
8.2845936 0.61865604 12.27407
6.5251184 0.49414039 7.9112659
1.4921713 -0.050413709 25.656553
2.7737496 0.014181049 25.826773
3.8583505 0.24434683 14.922266
5.7703142 0.39254481 15.782188
7.5628343 0.53560984 15.740489
11.132305 0.80589294 18.326872
12.266577 0.90304029 16.361599
10.393711 0.77428132 11.377025
14.009135 1.0903065 13.888165
0.21457013 -0.087883353 25.168314
2.3814807 0.12146433 15.159007
3.134449 0.17994288 15.117722
8.2539091 0.52962393 26.488111
11.107588 0.7515502 26.287235
11.759927 0.82039195 21.670984
8.3288059 0.59272957 12.336064
1.4893898 -0.055522308 25.611628
2.7732491 0.0044981185 25.821802
3.8654535 0.2312521 14.946463
5.7630386 0.37184495 15.758724
7.5255609 0.5065763 15.659467
11.140255 0.76738745 18.335403
7.4238811 0.52701181 8.1465559
0.21426207 -0.088631809 25.168314
2.3818903 0.11315067 15.159007
3.1370916 0.16910993 15.127512
4.7393804 0.28758889 15.226231
11.106244 0.71252275 26.27803
11.688636 0.7744295 21.534922
8.3336315 0.56384295 12.340197
7.2478924 0.49800283 8.7747049
1.4891869 -0.060720909 25.611628
2.7727146 -0.0051815319 25.81683
3.8662369 0.21775775 14.946463
5.7401862 0.35025519 15.693025
7.5294566 0.48044273 15.663969
9.0916033 0.60554373 12.140153
10.422541 0.70329881 11.402751
13.973716 0.98945594 13.846108
0.21395138 -0.089379176 25.168314
2.3776128 0.10463145 15.129371
3.1407135 0.15831189 15.142199
4.7373748 0.27087331 15.216686
11.149615 0.67623365 26.374683
11.655415 0.73137438 21.469086
8.3130836 0.53330868 12.307134
7.3359451 0.47832987 8.8783169
1.4881008 -0.065879487 25.596655
2.7721469 -0.014857011 25.811859
3.8569319 0.20373096 14.907747
5.741374 0.33021608 15.693025
7.5137033 0.45310906 15.627959
11.798707 0.73001534 19.406155
9.0545673 0.571338 12.088283
7.4645948 0.47755149 8.1869822
13.236979 0.89086592 13.117164
0.21363807 -0.090125464 25.168314
4.0983977 0.16573216 26.074766
3.1442983 0.14749062 15.156883
4.7353106 0.25417528 15.207143
8.6144066 0.51040095 15.881786
8.3317471 0.50530928 12.331931
7.3727608 0.45489061 8.9205303
1.4826714 -0.070819676 25.506804
2.7715449 -0.024528587 25.806887
3.8463204 0.18970995 14.864193
5.7424917 0.31017295 15.693025
7.5130663 0.42675519 15.623459
11.678814 0.6816842 19.205654
9.0655298 0.54026586 12.100253
7.4831367 0.45251527 8.2053585
13.257803 0.84578997 13.134686
0.21336178 -0.090888962 25.173315
4.0904102 0.1511104 26.020435
3.1468287 0.13660218 15.166675
4.7346778 0.23756966 15.202371
8.6185274 0.48046121 15.886177
8.3924589 0.47959384 12.418723
7.3551044 0.42803496 8.8975048
1.4789555 -0.075813428 25.446903
2.7709093 -0.034196146 25.801916
3.8469591 0.17628261 14.864193
5.7366462 0.28977799 15.674254
7.5166836 0.4006429 15.627959
11.636851 0.63848472 19.133133
7.4846702 0.42639151 8.2053585
13.232197 0.79778963 13.10665
0.21304323 -0.091633186 25.173315
4.0909128 0.13683128 26.020435
3.1483035 0.12565738 15.17157
4.7295141 0.22076295 15.183283
8.6225433 0.45049897 15.890565
8.4587116 0.45376205 12.513781
1.4743584 -0.080733761 25.372028
2.7697074 -0.043850914 25.791973
3.8714123 0.16386157 14.956142
5.7376227 0.26975161 15.674254
7.5180364 0.37440234 15.627959
11.467107 0.58903205 18.851582
9.2767086 0.48788151 12.375565
7.5165811 0.40189129 8.2384348
13.220659 0.75078708 13.092632
0.21268259 -0.092357695 25.168314
4.0913653 0.1225505 26.020435
3.1507583 0.1147409 15.18136
4.7362213 0.20450984 15.202371
9.5479536 0.44541293 22.5776
8.6240635 0.42039794 15.890565
8.4602442 0.4242329 12.513781
9.81952 0.50266886 11.848546
1.4726268 -0.085794136 25.347071
2.7706032 -0.053539749 25.801916
3.8744729 0.15044421 14.965821
5.7316332 0.24942203 15.655483
7.521472 0.34825787 15.632461
11.495144 0.55024755 18.894241
9.2783556 0.45549676 12.375565
13.251688 0.70615172 13.120667
0.21231949 -0.093080804 25.163315
4.0878844 0.10816584 25.995739
3.1531746 0.1038088 15.191151
4.7383981 0.18803525 15.207143
9.5631132 0.412671 22.609818
8.6135149 0.3897506 15.86862
8.4476185 0.39404309 12.493116
9.8212147 0.46838927 11.848546
1.4737588 -0.091024674 25.372028
2.7661362 -0.063111655 25.762144
3.9227095 0.13860251 15.149719
8.8913746 0.35573637 24.25263
7.524817 0.32209396 15.636962
11.55692 0.51277703 18.992359
9.2798891 0.42310649 12.375565
11.945364 0.55504256 13.041875
13.250511 0.65971315 13.117164
0.2119146 -0.093783662 25.153315
4.0866833 0.093860276 25.985861
3.1555533 0.092861243 15.200941
4.7494678 0.17187142 15.240547
9.5547352 0.37890014 22.586805
10.11892 0.43658999 14.948088
9.8804283 0.43665078 11.917621
1.4717038 -0.096053697 25.342079
2.7643003 -0.072724178 25.747229
9.5634022 0.34917897 26.078117
7.5258951 0.29582551 15.636962
11.561244 0.47253916 18.996624
9.1608858 0.38564274 12.215963
13.274106 0.61444545 13.13819
0.21146812 -0.094465815 25.138317
4.0846558 0.079549365 25.971043
3.1568761 0.081872031 15.205836
8.2515535 0.26961395 26.440393
9.52281 0.34434596 22.508564
10.120382 0.40126571 14.948088
9.8850946 0.40228927 11.921458
1.4690557 -0.10102922 25.302147
2.7634971 -0.082356863 25.742258
3.8469372 0.10904601 14.854515
9.542141 0.31505445 26.017111
7.529058 0.26963133 15.641463
11.568036 0.43237481 19.005156
9.0357132 0.34878266 12.048383
11.698272 0.46174237 12.769912
13.258356 0.56734419 13.120667
15.116093 0.62568223 13.555895
0.21113707 -0.095203407 25.138317
4.0833549 0.065266088 25.961164
3.1612146 0.070942968 15.225417
8.2240944 0.23998249 26.349726
9.5024738 0.31040174 22.457935
10.177965 0.36796942 15.030746
9.969718 0.37087882 12.021234
1.4704214 -0.10628342 25.332094
2.7552013 -0.091733478 25.667685
3.8460379 0.095585875 14.849675
8.8670139 0.26179403 24.177547
7.5321288 0.2434186 15.645964
11.579902 0.39234537 19.022221
8.8983517 0.31237838 11.864841
11.764183 0.42322034 12.839741
15.095798 0.57206511 13.535941
0.21096003 -0.096016899 25.158314
4.0804501 0.050973609 25.941406
3.1604249 0.059888642 15.220522
8.2054834 0.21077576 26.287689
9.4019527 0.27426937 22.218605
8.6061487 0.26907513 15.846675
10.210125 0.33344951 15.076209
9.9645452 0.33585984 12.013558
1.4709052 -0.11148195 25.347071
2.7500699 -0.10117205 25.622942
3.8375514 0.081972785 14.8158
8.8885746 0.23137923 24.23386
7.5329328 0.21712509 15.645964
11.568166 0.3515256 19.000891
8.8692703 0.28036371 11.824942
11.758813 0.38193303 12.832391
14.163678 0.50704592 14.007319
15.097703 0.51936752 13.535941
0.21066268 -0.096772119 25.163315
4.0782723 0.036709126 25.92659
3.1565423 0.048793785 15.200941
8.2061691 0.18213198 26.287689
9.5102682 0.24420531 22.471743
8.6022472 0.23889948 15.837896
11.949556 0.3484892 17.630371
9.946434 0.30049443 11.990534
1.4710826 -0.11666199 25.357054
2.7438414 -0.1105326 25.568254
3.8453543 0.068710983 14.844835
8.9031305 0.20066172 24.271402
7.5336447 0.19082893 15.645964
11.600608 0.31198412 19.052082
8.8912792 0.24999507 11.852872
11.6618 0.33803675 12.72581
14.290115 0.46163183 14.129977
14.99866 0.46354964 13.446153
0.21040162 -0.097545974 25.173315
4.0752668 0.022456255 25.906832
5.4210305 0.064650372 26.087927
4.7293568 0.088537477 15.168967
9.814539 0.23826785 18.058771
11.967577 0.30720845 17.655169
9.9698515 0.26637214 12.017396
1.4712417 -0.12184463 25.367037
2.7359831 -0.11978028 25.498653
3.8392866 0.055197828 14.820638
9.4869471 0.18067849 25.857555
7.5320883 0.16448295 15.641463
11.700704 0.27380615 19.214188
8.8890848 0.21888302 11.848882
11.503623 0.29326764 12.553077
14.75506 0.42509651 14.585568
15.007651 0.41139632 13.452804
0.21009877 -0.098299488 25.178314
4.0722127 0.0082248151 25.887075
5.4161325 0.045684401 26.06345
4.7281446 0.072005741 15.164195
6.5192628 0.12191416 15.420675
9.8248882 0.20420621 18.076326
11.886992 0.26362321 17.535315
9.9899464 0.23201561 12.040421
1.4713825 -0.12702981 25.37702
2.7328863 -0.12920298 25.473797
3.8394561 0.041795876 14.820638
9.5013247 0.1477762 25.8951
7.5391469 0.13830975 15.654966
11.672906 0.23239064 19.167261
8.9078703 0.18823479 11.872821
10.758923 0.23671016 11.744541
14.767149 0.37385988 14.596082
0.20979324 -0.099052094 25.183315
4.067555 -0.0059831571 25.857441
5.420332 0.026798194 26.083031
4.7283673 0.055500999 15.164195
6.5235558 0.099216275 15.429881
9.8351192 0.17007524 18.093884
9.9938993 0.19720599 12.044258
1.4715053 -0.13221744 25.387003
2.7249658 -0.13836028 25.404196
3.8395784 0.028393421 14.820638
9.4914284 0.1144848 25.866941
5.9701815 0.088707887 12.409591
11.496324 0.18873373 18.877178
8.9205246 0.15735185 11.888782
10.752905 0.19902766 11.737191
14.746972 0.32184386 14.575055
0.20944621 -0.099783801 25.183315
4.0675092 -0.020181537 25.857441
5.4142833 0.0078690117 26.053659
4.7419662 0.03910578 15.207143
6.535584 0.076581284 15.457497
9.845233 0.13587531 18.111441
10.450741 0.15879665 15.423377
10.161178 0.16502483 12.243809
1.471897 -0.13743466 25.401979
2.722337 -0.14775491 25.38431
3.839654 0.014990618 14.820638
9.484868 0.081293792 25.848171
5.9835157 0.06801571 12.436599
11.530814 0.1490408 18.932636
8.9270449 0.12629764 11.896762
10.736586 0.16123737 11.718815
0.20909663 -0.1005143 25.183315
4.0643063 -0.034353092 25.837683
5.4142776 -0.011031169 26.053659
4.7390885 0.022538923 15.197598
6.5514398 0.053895578 15.494316
9.8624105 0.10168085 18.142162
10.470928 0.12254614 15.452308
10.161692 0.1295547 12.243809
1.4719828 -0.14262803 25.411961
2.7239335 -0.15738061 25.404196
3.84094 0.0015880724 14.825478
9.474741 0.048132528 25.820015
5.9771857 0.047077626 12.423095
9.9039278 0.09345188 16.270691
8.9214058 0.095071509 11.888782
10.760812 0.12403207 11.744541
14.488553 0.21502152 14.319223
0.20870581 -0.10122334 25.178314
4.0501761 -0.048371531 25.748775
5.399951 -0.029850841 25.985126
4.7361526 0.0059926328 15.188055
6.5613556 0.03107249 15.517328
9.8650999 0.067270294 18.146551
10.462852 0.08592578 15.439909
10.09798 0.093489997 12.167058
1.47004 -0.14761947 25.387003
2.7254958 -0.16701922 25.424084
3.8421793 -0.011823806 14.830317
9.467948 0.015048374 25.801243
5.9794908 0.02622257 12.427596
9.8963699 0.058833726 16.257895
8.9096298 0.063843153 11.872821
10.744229 0.086332984 11.726166
14.499912 0.16456708 14.329737
0.20831263 -0.1019309 25.173315
4.0422139 -0.062388301 25.699385
5.3947234 -0.048653807 25.960651
4.7271886 -0.010520003 15.159423
6.6004972 0.0082166381 15.609379
9.8724604 0.032858085 18.159719
10.4659 0.049416348 15.444041
10.00209 0.057687066 12.051933
1.4680802 -0.1525991 25.362045
2.7264917 -0.176636 25.438997
3.8458853 -0.025260452 14.844835
9.4610395 -0.017989097 25.782473
5.9643073 0.0053367917 12.396088
9.9278107 0.024365064 16.309086
8.9429445 0.032863844 11.916712
11.7276 0.053289589 12.791964
14.557457 0.11440009 14.385809
0.20795555 -0.10265742 25.173315
4.0287647 -0.076246612 25.615416
5.3812847 -0.067318268 25.897013
4.7345862 -0.027063891 15.183283
6.5887642 -0.014797775 15.581763
9.87012 -0.0016044001 18.155331
10.43787 0.012848857 15.402713
9.9701777 0.022700179 12.013558
1.4658165 -0.15753564 25.332094
2.7279859 -0.1862983 25.458883
3.8520582 -0.038748562 14.869032
9.4540167 -0.050976835 25.7637
5.9425201 -0.015426401 12.351075
9.8365545 -0.010195413 16.159779
8.9309521 0.0016448377 11.900752
11.670084 0.012291939 12.729486
14.625525 0.063880049 14.452395
0.20755748 -0.10336207 25.168314
4.0199289 -0.090116724 25.561083
5.3555651 -0.08569333 25.774632
4.7329702 -0.04357671 15.178511
6.5476465 -0.037560467 15.485111
11.659101 -0.042614765 21.433973
10.415338 -0.023536569 15.369648
9.909296 -0.012029367 11.940645
1.4638232 -0.16249043 25.307137
2.7257237 -0.19570442 25.443968
3.872009 -0.0524683 14.946463
9.4486046 -0.083931126 25.749622
5.94243 -0.036169574 12.351075
11.119595 -0.05035406 18.258617
9.0062351 -0.029781073 12.000503
10.744545 -0.026184512 11.726166
14.650624 0.012848843 14.476929
0.20719542 -0.10408594 25.168314
4.002502 -0.10370387 25.452421
5.3358917 -0.10400908 25.681623
4.747715 -0.060287774 15.226231
6.5533357 -0.060470004 15.498918
11.666065 -0.083363771 21.44714
10.347656 -0.059503753 15.270457
9.8322687 -0.046256691 11.848546
1.4612396 -0.16736688 25.272196
2.7223663 -0.20501655 25.419109
3.898195 -0.066435285 15.048092
9.4430771 -0.11684825 25.735544
6.0271645 -0.057727281 12.526623
11.10892 -0.08908464 18.241554
9.0241537 -0.061341576 12.024443
10.764728 -0.063810512 11.748217
14.63988 -0.0382655 14.466413
0.20683083 -0.10480857 25.168314
4.001339 -0.11765166 25.447481
5.3080111 -0.12200088 25.549452
4.7624011 -0.077102311 15.273951
6.5452709 -0.083245486 15.480509
11.670493 -0.12413643 21.455917
10.226389 -0.094504178 15.092742
9.8192282 -0.080472268 11.833196
1.4600732 -0.17239816 25.262213
2.7195084 -0.21434972 25.399223
3.9004529 -0.08009389 15.057771
9.4374361 -0.14972782 25.721468
6.0530472 -0.079107605 12.580638
11.113756 -0.12792154 18.250086
9.0148458 -0.092748292 12.012472
10.75427 -0.10129019 11.737191
14.625392 -0.089280836 14.452395
0.20642549 -0.10550887 25.163315
3.9962444 -0.13146448 25.417847
5.3065357 -0.14050154 25.544556
4.7606101 -0.093696281 15.269178
6.5293136 -0.10583857 15.443688
10.27383 -0.13080984 15.163001
9.8220911 -0.11478475 11.837033
1.4583163 -0.17735299 25.242245
2.7150252 -0.2235336 25.364424
9.4334059 -0.18260282 25.712082
6.1506829 -0.1018604 12.783192
11.11585 -0.16675414 18.254353
9.0054293 -0.12409078 12.000503
10.77419 -0.13909167 11.759242
14.510877 -0.13923699 14.34025
0.20605594 -0.10622879 25.163315
3.998867 -0.14552651 25.437603
5.303977 -0.15896282 25.534765
4.7707005 -0.11055586 15.302582
6.5171847 -0.12839831 15.416074
7.7373776 -0.13628899 14.24905
10.307076 -0.16721949 15.212596
9.917778 -0.15052958 11.952158
1.4585477 -0.18255094 25.257221
2.7142284 -0.23300944 25.364424
3.9035678 -0.10742599 15.072289
9.4292603 -0.21545155 25.702696
6.1285253 -0.12289277 12.73818
11.068264 -0.20468624 18.177565
9.0260305 -0.15588929 12.028433
14.271384 -0.18676095 14.105446
0.20568389 -0.10694741 25.163315
3.9967818 -0.15942219 25.427723
5.3003368 -0.17737386 25.520081
4.7687936 -0.12716819 15.297811
6.5323215 -0.15150951 15.452893
7.7392483 -0.16334721 14.253439
10.337378 -0.20380732 15.258059
9.9364195 -0.1855073 11.975183
1.4579015 -0.1876411 25.257221
2.7133985 -0.24248245 25.364424
6.7626495 -0.209915 26.086819
9.4250002 -0.24827355 25.69331
6.0823555 -0.14320749 12.643654
11.04923 -0.242919 18.147703
9.0645952 -0.18820858 12.080302
11.596601 -0.23069572 12.652307
14.349092 -0.23787706 14.182547
0.20527129 -0.1076433 25.158314
3.996201 -0.17337257 25.427723
5.2986679 -0.19583674 25.515184
4.7593684 -0.14354323 15.269178
6.5337062 -0.17436281 15.457497
7.7482085 -0.19059697 14.270995
10.308471 -0.23923711 15.21673
9.9998007 -0.22161154 12.051933
1.4572376 -0.19272898 25.257221
2.7125356 -0.2519525 25.364424
6.7518253 -0.23317233 26.048101
9.4206266 -0.28106841 25.683924
6.0818186 -0.16443801 12.643654
10.000228 -0.25477362 16.432798
9.0909929 -0.22050661 12.116213
11.602504 -0.27133256 12.659657
14.276864 -0.28653178 14.112455
0.20489429 -0.10835917 25.158314
3.9947953 -0.1872844 25.422785
5.295917 -0.2142489 25.505394
4.752871 -0.15995456 15.250091
6.536963 -0.19728659 15.466701
