# .PCD v0.7 - Point Cloud Data file format
VERSION 0.7
FIELDS x y z
SIZE 4 4 4
TYPE F F F
COUNT 1 1 1
WIDTH 1399
HEIGHT 1
VIEWPOINT 0 0 0 1 0 0 0
POINTS 1399
DATA ascii
-0.82531738 -0.45204121 0.1774267
-0.88599592 -0.48052046 0.97885299
-0.85834241 -0.46609464 0.79474217
-0.85379064 -0.4640004 0.6566357
-0.8501181 -0.46257269 0.53486103
-0.85065299 -0.46323985 0.42625883
-0.82383728 -0.44900179 0.31701031
-0.81292844 -0.44323471 0.22135513
-0.8110922 -0.44259217 0.13094862
-0.096839786 -0.0071806796 9.7089033
-0.81456053 -0.41567433 5.813931
-1.0861553 -0.56287599 5.9049048
-0.62049669 -0.32696816 2.2893825
-0.75488347 -0.40104359 2.0733554
-0.94260752 -0.50322831 2.025465
-0.92335898 -0.49458641 1.6110622
-0.89402777 -0.48006395 1.2915714
-0.52160817 -0.21150987 9.5734301
-0.54158187 -0.24427198 5.4982948
-1.1577876 -0.60349822 5.0643587
-0.65566289 -0.34574324 2.0699246
-0.85715389 -0.45494628 2.070303
-0.9337095 -0.49741808 1.8006437
-0.90598172 -0.48404869 1.4349182
-0.89168262 -0.47739363 1.1747683
-0.88544464 -0.47783014 1.0685339
-0.8690632 -0.46956727 0.87888414
-0.85884017 -0.46461371 0.7248072
-0.85048449 -0.46046901 0.59281194
-0.84852988 -0.45978513 0.47824174
-0.82680911 -0.44838089 0.36640632
-0.82892489 -0.4498969 0.2705352
-0.82689029 -0.44915757 0.1774267
-0.88437945 -0.47565642 0.97552752
-0.85996413 -0.46309561 0.79474217
-0.85161024 -0.45897228 0.65410256
-0.85172766 -0.45960242 0.53486103
-0.84810978 -0.45802388 0.42461532
-0.82539958 -0.44612333 0.31701031
-0.81447065 -0.44039437 0.22135513
-0.81263214 -0.43975821 0.13094862
-0.096864261 -0.0068426016 9.7089033
-0.81461954 -0.41212755 5.8040519
-1.0872077 -0.55861604 5.9000092
-0.62031096 -0.32410935 2.2846105
-0.75627881 -0.39840612 2.0733554
-0.94224143 -0.49881449 2.0210757
-0.92259443 -0.49004045 1.6069292
-0.89569801 -0.47694027 1.2915714
-0.52234328 -0.20968783 9.5734301
-0.54243124 -0.24238004 5.4982948
-1.1598871 -0.59945303 5.0643587
-0.65686578 -0.34345245 2.0699246
-0.85873675 -0.45195147 2.070303
-0.93313384 -0.4929378 1.7963778
-0.90766585 -0.48088324 1.4349182
-0.89334357 -0.47427818 1.1747683
-0.88710713 -0.47473645 1.0685339
-0.87069696 -0.4665308 0.87888414
-0.85677195 -0.45963636 0.72206575
-0.85208672 -0.45749745 0.59281194
-0.85012966 -0.4568204 0.47824174
-0.8283692 -0.44549203 0.36640632
-0.82616472 -0.44467258 0.2696026
-0.82406867 -0.44390669 0.17697962
-0.88273984 -0.47080955 0.972202
-0.86157542 -0.46009097 0.79474217
-0.85320717 -0.45599681 0.65410256
-0.84932506 -0.45448533 0.53276294
-0.84970343 -0.4550606 0.42461532
-0.8269518 -0.44323945 0.31701031
-0.81600291 -0.43754864 0.22135513
-0.81856441 -0.43928131 0.13115016
-0.096843928 -0.0065046768 9.7039032
-0.81535852 -0.40893349 5.7991133
-1.0882436 -0.55435562 5.8951139
-0.62011302 -0.32125589 2.2798386
-0.75766486 -0.39576378 2.0733554
-0.94397694 -0.49552241 2.0210757
-0.92180943 -0.48550588 1.6027963
-0.89452291 -0.47231445 1.2877338
-0.52307206 -0.20786323 9.5734301
-0.54327399 -0.24048512 5.4982948
-1.159735 -0.59425467 5.0546799
-0.65806061 -0.34115747 2.0699246
-0.86030912 -0.44895118 2.070303
-0.93253851 -0.48846769 1.7921119
-0.90667123 -0.47631085 1.4309281
-0.89199376 -0.46957791 1.1710931
-0.88560861 -0.46996549 1.0650293
-0.86888283 -0.4616625 0.87574571
-0.85837114 -0.45664287 0.72206575
-0.84976828 -0.45243862 0.59049314
-0.8476277 -0.45167011 0.4763687
-0.82991922 -0.44259778 0.36640632
-0.82771188 -0.44178602 0.2696026
-0.82561314 -0.44102746 0.17697962
-0.8843779 -0.46772534 0.972202
-0.85960394 -0.45518932 0.79179901
-0.85098469 -0.45099729 0.65156937
-0.85090637 -0.45151788 0.53276294
-0.85128671 -0.45209184 0.42461532
-0.82420194 -0.43806899 0.31583801
-0.81315285 -0.43237275 0.22066444
-0.8200928 -0.4364213 0.13115016
-0.096866041 -0.006166589 9.7039032
-0.8160851 -0.40573925 5.7941737
-1.0901721 -0.55055356 5.8951139
-0.61990261 -0.31840768 2.2750666
-0.75904173 -0.39311662 2.0733554
-0.94357634 -0.49111882 2.0166867
-0.92349851 -0.4822852 1.6027963
-0.89332646 -0.46770263 1.2838963
-0.52406347 -0.206141 9.5784216
-0.54411012 -0.23858728 5.4982948
-1.1595607 -0.58906466 5.045001
-0.65924746 -0.33885834 2.0699246
-0.861871 -0.44594538 2.070303
-0.93192327 -0.48400772 1.7878458
-0.90832841 -0.47314307 1.4309281
-0.89062196 -0.46489286 1.167418
-0.88408762 -0.4652108 1.0615247
-0.870489 -0.45862672 0.87574571
-0.85626143 -0.45169303 0.71932429
-0.85134238 -0.44946963 0.59049314
-0.84919918 -0.44870859 0.4763687
-0.83145911 -0.43969813 0.36640632
-0.82924896 -0.43889406 0.2696026
-0.8271476 -0.43814284 0.17697962
-0.88269836 -0.46290153 0.96887648
-0.8611877 -0.45218596 0.79179901
-0.85255378 -0.44802406 0.65156937
-0.84846067 -0.4464317 0.53066492
-0.85285962 -0.44911754 0.42461532
-0.82142603 -0.43292314 0.31466568
-0.81465715 -0.42953169 0.22066444
-0.82161117 -0.43355599 0.13115016
-0.096886978 -0.0058284258 9.7039032
-0.81679934 -0.40254492 5.7892346
-1.0929978 -0.54720038 5.9000092
-0.61834955 -0.31488794 2.2655225
-0.7604093 -0.39046469 2.0733554
-0.94315648 -0.48672405 2.0122976
-0.92267746 -0.47776499 1.5986633
-0.89495355 -0.46458149 1.2838963
-0.5247798 -0.2043104 9.5784216
-0.54493964 -0.23668651 5.4982948
-1.1593645 -0.58388311 5.0353222
-0.66042632 -0.33655506 2.0699246
-0.86342239 -0.44293419 2.070303
-0.93128836 -0.47955796 1.7835798
-0.90729707 -0.46858704 1.4269381
-0.8892284 -0.46022314 1.1637428
-0.88570613 -0.46212193 1.0615247
-0.86863464 -0.45378327 0.87260723
-0.85783291 -0.44870135 0.71932429
-0.8489815 -0.44444075 0.58817434
-0.85076028 -0.44574159 0.4763687
-0.83298892 -0.43679312 0.36640632
-0.83077598 -0.43599677 0.2696026
-0.82867193 -0.4352529 0.17697962
-0.88430882 -0.4598175 0.96887648
-0.85917556 -0.44731072 0.78885585
-0.85028946 -0.44305354 0.64903617
-0.85001385 -0.44346732 0.53066492
-0.85023612 -0.44395217 0.42297181
-0.81862432 -0.42780203 0.31349337
-0.8161515 -0.42668539 0.22066444
-0.82754618 -0.43300155 0.13135168
-0.096906736 -0.0054901913 9.7039032
-0.81750113 -0.39935055 5.7842951
-1.0967257 -0.54428673 5.9098001
-0.61811227 -0.31205526 2.2607508
-0.76002657 -0.38692197 2.068753
-0.94271755 -0.48233822 2.0079086
-0.92183596 -0.47325635 1.5945303
-0.89656979 -0.46145469 1.2838963
-0.52522004 -0.20237434 9.5734301
-0.54625261 -0.23499264 5.5032663
-1.1602708 -0.57927138 5.0304828
-0.66005659 -0.33346987 2.0652318
-0.86496329 -0.43991756 2.070303
-0.9306336 -0.47511861 1.7793139
-0.90624499 -0.46404397 1.4229481
-0.89082944 -0.45711634 1.1637428
-0.88414621 -0.45738897 1.0580202
-0.87021333 -0.45074838 0.87260723
-0.85568196 -0.44377929 0.71658283
-0.8505277 -0.44147456 0.58817434
-0.85231107 -0.44276917 0.4763687
-0.83025229 -0.43166998 0.36499628
-0.83229285 -0.43309414 0.2696026
-0.82576936 -0.43005738 0.17653254
-0.88590848 -0.45672789 0.96887648
-0.86073172 -0.44430891 0.78885585
-0.85183084 -0.44008276 0.64903617
-0.84752554 -0.4384124 0.52856684
-0.84758711 -0.43881065 0.42132831
-0.82011265 -0.4249419 0.31349337
-0.81763595 -0.42383388 0.22066444
-0.82905257 -0.43011022 0.13135168
-0.096925311 -0.0051518907 9.7039032
-0.81889009 -0.39649454 5.7842951
-1.1004463 -0.54135352 5.9195905
-0.6178627 -0.30922803 2.2559786
-0.76137251 -0.38426664 2.068753
-0.94225937 -0.47796139 2.0035193
-0.92097437 -0.46875942 1.5903975
-0.89531994 -0.45686561 1.2800589
-0.52592325 -0.20053975 9.5734301
-0.54756027 -0.23329243 5.5082374
-1.1622858 -0.57521772 5.0304828
-0.66121656 -0.33116382 2.0652318
-0.8645497 -0.4359158 2.0658019
-0.93228644 -0.47186717 1.7793139
-0.90785927 -0.46087778 1.4229481
-0.88939798 -0.45246699 1.1600677
-0.88573742 -0.45429996 1.0580202
-0.86831892 -0.44593009 0.86946881
-0.8535071 -0.43887773 0.71384138
-0.84812474 -0.43647605 0.58585554
-0.85385138 -0.43979135 0.4763687
-0.83175409 -0.42876923 0.36499628
-0.82943404 -0.42793405 0.26866996
-0.82726556 -0.42717227 0.17653254
-0.88417268 -0.45193356 0.96555102
-0.85867918 -0.43946037 0.78591269
-0.85336179 -0.43710664 0.64903617
-0.8490507 -0.43545133 0.52856684
-0.84911364 -0.43584937 0.42132831
-0.81726748 -0.41985554 0.31232107
-0.81911045 -0.42097721 0.22066444
-0.83054888 -0.42721367 0.13135168
-0.0969427 -0.0048135268 9.7039032
-0.82026917 -0.39363363 5.7842951
-1.1032445 -0.53795493 5.9244857
-0.61893833 -0.30706942 2.2559786
-0.7627092 -0.38160661 2.068753
-0.94392204 -0.47466934 2.0035193
-0.92260498 -0.46554178 1.5903975
-0.8969093 -0.45373756 1.2800589
-0.52634966 -0.19860162 9.5684376
-0.54837132 -0.23137966 5.5082374
-1.151872 -0.56506991 4.9772491
-0.66236854 -0.32885373 2.0652318
-0.86606604 -0.43289533 2.0658019
-0.9315967 -0.46744063 1.775048
-0.90677077 -0.45635155 1.4189581
-0.88794488 -0.44783324 1.1563925
-0.88413888 -0.4495891 1.0545157
-0.86987019 -0.44289637 0.86946881
-0.85503387 -0.43589577 0.71384138
-0.84964311 -0.4335129 0.58585554
-0.85538137 -0.43680817 0.4763687
-0.82897419 -0.42368022 0.36358625
-0.83092278 -0.42503616 0.26866996
-0.82875156 -0.42428198 0.17653254
-0.88574481 -0.44884446 0.96555102
-0.86020792 -0.43646032 0.78591269
-0.85488242 -0.43412519 0.64903617
-0.85056555 -0.43248492 0.52856684
-0.8464213 -0.4307411 0.4196848
-0.8143968 -0.41479424 0.31114873
-0.82057494 -0.41811541 0.22066444
-0.82758451 -0.42204225 0.13115016
-0.096958913 -0.0044751042 9.7039032
-0.82163823 -0.39076796 5.7842951
-1.1060326 -0.53454351 5.9293809
-0.61866677 -0.30424872 2.2512066
-0.7640366 -0.37894192 2.068753
-0.94342959 -0.4703033 1.9991302
-0.92170769 -0.46105978 1.5862645
-0.89562243 -0.44916734 1.2762213
-0.52703977 -0.19676311 9.5684376
-0.54917562 -0.22946407 5.5082374
-1.1481848 -0.55829841 4.953052
-0.66351241 -0.32653961 2.0652318
-0.86757183 -0.42986953 2.0658019
-0.93088758 -0.46302468 1.7707821
-0.90566176 -0.45183855 1.414968
-0.88950264 -0.444731 1.1563925
-0.88251823 -0.44489497 1.0510111
-0.86793607 -0.43810353 0.86633033
-0.85281825 -0.43102252 0.71109986
-0.84719825 -0.42854506 0.58353674
-0.85276479 -0.4317258 0.47449568
-0.83044803 -0.42078397 0.36358625
-0.82802022 -0.41991141 0.26773736
-0.82578683 -0.41913262 0.17608546
-0.88396966 -0.444074 0.9622255
-0.8581152 -0.43163887 0.78296953
-0.8525421 -0.42920017 0.64650303
-0.84801722 -0.42747048 0.52646881
-0.84370363 -0.42565703 0.41804129
-0.81583977 -0.41194895 0.31114873
-0.81760937 -0.41301578 0.21997377
-0.82905263 -0.41915086 0.13115016
-0.096973948 -0.0041366271 9.7039032
-0.82229424 -0.38756657 5.7793555
-1.1088101 -0.53111905 5.9342756
-0.61972499 -0.30208734 2.2512066
-0.76535469 -0.37627265 2.068753
-0.9450655 -0.46700725 1.9991302
-0.92079026 -0.4565897 1.5821315
-0.89718485 -0.44603828 1.2762213
-0.52772337 -0.19492219 9.5684376
-0.54997325 -0.22754571 5.5082374
-1.143332 -0.55101418 4.9240155
-0.66464823 -0.32422155 2.0652318
-0.86906707 -0.42683852 2.0658019
-0.9324981 -0.45977247 1.7707821
-0.90723342 -0.44867444 1.414968
-0.88801199 -0.4401181 1.1527174
-0.88406581 -0.44181171 1.0510111
-0.86946011 -0.4350712 0.86633033
-0.85431761 -0.42804298 0.71109986
-0.84868902 -0.42558518 0.58353674
-0.85426652 -0.42874646 0.47449568
-0.82762504 -0.41572943 0.36217624
-0.82948095 -0.4170185 0.26773736
-0.82279623 -0.41400915 0.17563838
-0.88217205 -0.43932143 0.95890003
-0.85961676 -0.42864084 0.78296953
-0.85403514 -0.42622164 0.64650303
-0.84950417 -0.42450774 0.52646881
-0.84518433 -0.42270935 0.41804129
-0.81727272 -0.40909863 0.31114873
-0.81904602 -0.41015929 0.21997377
-0.82604432 -0.41401586 0.13094862
-0.096987791 -0.0037980999 9.7039032
-0.82364208 -0.38469386 5.7793555
-1.1097374 -0.52680898 5.9293809
-0.61674291 -0.2979753 2.2368906
-0.76666349 -0.37359875 2.068753
-0.94453901 -0.46265224 1.9947413
-0.91985279 -0.45213166 1.5779986
-0.89586121 -0.44148719 1.2723838
-0.52840054 -0.19307891 9.5684376
-0.55076414 -0.22562455 5.5082374
-1.1384425 -0.54377067 4.894979
-0.6657759 -0.3218995 2.0652318
-0.87055176 -0.42380232 2.0658019
-0.93175399 -0.45536971 1.7665161
-0.90608835 -0.44417876 1.410978
-0.88954294 -0.43701568 1.1527174
-0.88240695 -0.43714017 1.0475066
-0.86748648 -0.43030414 0.8631919
-0.85580659 -0.42505825 0.71109986
-0.85016936 -0.42262012 0.58353674
-0.85160732 -0.42369699 0.47262263
-0.82907116 -0.41283795 0.36217624
-0.82653493 -0.41192946 0.26680472
-0.81978005 -0.40891173 0.1751913
-0.88370019 -0.43623939 0.95890003
-0.8574841 -0.42384672 0.78002638
-0.85551769 -0.42323792 0.64650303
-0.85098082 -0.42153981 0.52646881
-0.84242386 -0.4176591 0.41639778
-0.81869578 -0.40624332 0.31114873
-0.82047278 -0.40729779 0.21997377
-0.82301033 -0.40890694 0.13074709
-0.097000457 -0.0034595258 9.7039032
-0.82427466 -0.38149047 5.7744169
-1.1115695 -0.52293205 5.9293809
-0.61373985 -0.29388788 2.2225749
-0.76972222 -0.37176967 2.0733554
-0.94614828 -0.45935234 1.9947413
-0.91889554 -0.44768575 1.5738657
-0.89451665 -0.43695077 1.2685463
-0.52907127 -0.19123326 9.5684376
-0.55154842 -0.22370066 5.5082374
-1.1335163 -0.53656799 4.8659425
-0.66845196 -0.32031894 2.0699246
-0.87006491 -0.41981515 2.0613005
-0.93099064 -0.45097774 1.7622502
-0.90763324 -0.44101322 1.410978
-0.88801485 -0.43242389 1.1490422
-0.88392746 -0.43405733 1.0475066
-0.86898327 -0.42727342 0.8631919
-0.85728508 -0.42206833 0.71109986
-0.85163945 -0.4196499 0.58353674
-0.84892327 -0.41867137 0.47074962
-0.83050722 -0.40994141 0.36217624
-0.82796782 -0.40904179 0.26680472
-0.8212024 -0.40604767 0.1751913
-0.88186371 -0.43151116 0.95557451
-0.85895836 -0.42085096 0.78002638
-0.85698986 -0.42024902 0.64650303
-0.84837306 -0.41656655 0.52437073
-0.83963853 -0.4126333 0.41475427
-0.82010889 -0.40338305 0.31114873
-0.81744623 -0.40224496 0.21928309
-0.81995076 -0.4038243 0.13054556
-0.097011939 -0.0031209104 9.7039032
-0.82560128 -0.37861088 5.7744169
-1.1124651 -0.5186187 5.9244857
-0.61071569 -0.28982502 2.2082589
-0.77101523 -0.36908057 2.0733554
-0.94774592 -0.45604691 1.9947413
-0.91791856 -0.44325209 1.5697327
-0.89603651 -0.43382567 1.2685463
-0.53000772 -0.18948166 9.5734301
-0.55282098 -0.22197174 5.5132089
-1.1262777 -0.52833915 4.8272271
-0.66956598 -0.31798366 2.0699246
-0.87152511 -0.41677549 2.0613005
-0.93020797 -0.44659674 1.7579843
-0.90645224 -0.43653509 1.406988
-0.88951892 -0.4293215 1.1490422
-0.88543725 -0.43096921 1.0475066
-0.86697042 -0.42253241 0.86005342
-0.85499531 -0.41723964 0.70835841
-0.85309905 -0.41667458 0.58353674
-0.84621459 -0.41366962 0.46887657
-0.82762414 -0.40493175 0.3607662
-0.82939059 -0.40614915 0.26680472
-0.81814307 -0.400987 0.17474423
-0.88000494 -0.42680109 0.95224905
-0.86042219 -0.41785008 0.78002638
-0.85457438 -0.41537064 0.64396977
-0.84982204 -0.41360265 0.52437073
-0.84107375 -0.40969989 0.41475427
-0.81714284 -0.39838788 0.3099764
-0.81439441 -0.39721823 0.21859241
-0.8213554 -0.4009597 0.13054556
-0.09702225 -0.0027822563 9.7039032
-0.82691783 -0.37572667 5.7744169
-1.1133443 -0.51430559 5.9195905
-0.60902172 -0.28642175 2.1987147
-0.77229893 -0.36638698 2.0733554
-0.94717014 -0.45170516 1.990352
-0.91692179 -0.43883067 1.5655998
-0.89465547 -0.4293088 1.2647089
-0.53066587 -0.18763043 9.5734301
-0.55359244 -0.22004068 5.5132089
-1.1155757 -0.51857859 4.7739935
-0.67067188 -0.3156445 2.0699246
-0.87297457 -0.41373077 2.0613005
-0.93176121 -0.44334698 1.7579843
-0.90525103 -0.43207061 1.402998
-0.89101213 -0.42621389 1.1490422
-0.88372409 -0.42632648 1.0440021
-0.86844003 -0.41950357 0.86005342
-0.8564465 -0.41425261 0.70835841
-0.85454839 -0.41369417 0.58353674
-0.84765339 -0.41071329 0.46887657
-0.8290326 -0.40204033 0.3607662
-0.83080328 -0.40325156 0.26680472
-0.81953776 -0.39812872 0.17474423
-0.8814894 -0.42372671 0.95224905
-0.85823333 -0.41309124 0.77708322
-0.85601908 -0.41238508 0.64396977
-0.84717274 -0.40866196 0.52227271
-0.84249878 -0.4067615 0.41475427
-0.81852847 -0.39553308 0.3099764
-0.81577605 -0.39437303 0.21859241
-0.81825286 -0.39591423 0.13034403
-0.096987784 -0.0024456314 9.698904
-0.82822436 -0.37283793 5.7744169
-1.1142068 -0.5099926 5.9146948
-0.60866463 -0.28366399 2.193943
-0.77180505 -0.36285803 2.068753
-0.94874114 -0.44839615 1.990352
-0.91844803 -0.43562734 1.5655998
-0.89325392 -0.42480689 1.2608713
-0.53104484 -0.18568246 9.5684376
-0.55485356 -0.21830119 5.5181808
-1.1150955 -0.51363003 4.7643147
-0.67176956 -0.3133015 2.0699246
-0.87441343 -0.41068101 2.0613005
-0.93094409 -0.43897974 1.7537184
-0.90402967 -0.42761987 1.3990079
-0.89249444 -0.4231011 1.1490422
-0.88520688 -0.42323911 1.0440021
-0.86989909 -0.4164696 0.86005342
-0.85788727 -0.41126052 0.70835841
-0.85598725 -0.4107087 0.58353674
-0.84490281 -0.40574512 0.46700355
-0.83043092 -0.39914402 0.3607662
-0.83220583 -0.40034908 0.26680472
-0.82092249 -0.39526555 0.17474423
-0.87959224 -0.41904151 0.94892353
-0.8596701 -0.41009292 0.77708322
-0.85356313 -0.40753731 0.64143664
-0.84859413 -0.40570229 0.52227271
-0.8439135 -0.40381813 0.41475427
-0.81552041 -0.39057407 0.30880409
-0.81268179 -0.38938332 0.21790172
-0.81962991 -0.39305562 0.13034403
-0.096995734 -0.0021070659 9.698904
-0.82881099 -0.36962846 5.7694774
-1.1141254 -0.50525963 5.9049048
-0.60829568 -0.28091219 2.1891708
-0.77306688 -0.36016175 2.068753
-0.95030051 -0.44508171 1.990352
-0.91741621 -0.43122187 1.5614668
-0.89473134 -0.42168629 1.2608713
-0.53168976 -0.18382764 9.5684376
-0.55561221 -0.21636304 5.5181808
-1.1043019 -0.50399631 4.711081
-0.67129242 -0.31023109 2.0652318
-0.87584168 -0.40762624 2.0613005
-0.93010777 -0.4346236 1.7494525
-0.9027884 -0.4231829 1.395018
-0.89089739 -0.41854182 1.145367
-0.88345599 -0.41861969 1.0404975
-0.86783081 -0.41176218 0.85691494
-0.85554075 -0.40646923 0.70561695
-0.85341507 -0.40581605 0.58121794
-0.84631395 -0.40279341 0.46700355
-0.8274883 -0.39417997 0.35935616
-0.8335982 -0.39744169 0.26680472
-0.82229722 -0.39239761 0.17474423
-0.88104963 -0.41596857 0.94892353
-0.85744202 -0.40536222 0.77414006
-0.85498047 -0.40455535 0.64143664
-0.85000509 -0.40273768 0.52227271
-0.84531796 -0.40086988 0.41475427
-0.8168788 -0.387725 0.30880409
-0.81403601 -0.38654417 0.21790172
-0.82099694 -0.39019215 0.13034403
-0.097002499 -0.0017684744 9.698904
-0.83009619 -0.3667331 5.7694774
-1.1149534 -0.5009504 5.9000092
-0.60791504 -0.27816647 2.1843991
-0.77431941 -0.35746101 2.068753
-0.9496758 -0.44075382 1.9859631
-0.91891581 -0.42801687 1.5614668
-0.89329356 -0.41720441 1.2570338
-0.53205472 -0.18187802 9.563446
-0.55636406 -0.21442229 5.5181808
-1.1094908 -0.50169152 4.7255993
-0.67237127 -0.30788594 2.0652318
-0.87725925 -0.4045665 2.0613005
-0.93161923 -0.43137425 1.7494525
-0.9042601 -0.42002898 1.395018
-0.89235288 -0.41542941 1.145367
-0.88491184 -0.4155333 1.0404975
-0.86926281 -0.40873036 0.85691494
-0.85695434 -0.40348032 0.70561695
-0.85482639 -0.40283459 0.58121794
-0.84771484 -0.39983678 0.46700355
-0.82885921 -0.39128906 0.35935616
-0.83498049 -0.39452946 0.26680472
-0.81915998 -0.38739586 0.17429715
-0.88249624 -0.41289064 0.94892353
-0.85885179 -0.40236676 0.77414006
-0.85638744 -0.40156844 0.64143664
-0.85140574 -0.39976814 0.52227271
-0.84671211 -0.39791673 0.41475427
-0.81822717 -0.38487118 0.30880409
-0.81538033 -0.38370028 0.21790172
-0.82235396 -0.38732398 0.13034403
-0.097008079 -0.0014298618 9.698904
-0.83137131 -0.36383331 5.7694774
-1.1148347 -0.49622786 5.8902192
-0.60888231 -0.27604279 2.1843991
-0.77556247 -0.35475597 2.068753
-0.94903243 -0.4364357 1.9815739
-0.91784918 -0.42362764 1.5573338
-0.89474452 -0.41408369 1.2570338
-0.53241259 -0.17992809 9.5584545
-0.55760753 -0.21266794 5.5231524
-1.1123824 -0.49832925 4.7304387
-0.67187023 -0.30482447 2.0605392
-0.8786661 -0.4015018 2.0613005
-0.93311936 -0.42811966 1.7494525
-0.90298343 -0.41561034 1.3910279
-0.89071918 -0.41089216 1.1416919
-0.88312358 -0.41093755 1.036993
-0.86715609 -0.40404984 0.85377645
-0.85456812 -0.39871871 0.70287549
-0.85622734 -0.39984825 0.58121794
-0.84910536 -0.39687523 0.46700355
-0.83021998 -0.38839343 0.35935616
-0.83635259 -0.39161244 0.26680472
-0.82050729 -0.38453409 0.17429715
-0.8805446 -0.40823737 0.94559801
-0.86025107 -0.39936632 0.77414006
-0.8538745 -0.39676026 0.63890344
-0.85279602 -0.39679375 0.52227271
-0.84381515 -0.39296529 0.41311076
-0.81516004 -0.37995929 0.30763176
-0.81222665 -0.37875891 0.21721105
-0.81917381 -0.38233811 0.1301425
-0.097012475 -0.0010912318 9.698904
-0.83263618 -0.36092904 5.7694774
-1.1146965 -0.49151218 5.8804283
-0.60848027 -0.27330449 2.1796269
-0.7767961 -0.35204661 2.068753
-0.94837064 -0.43212754 1.977185
-0.91932237 -0.42042118 1.5573338
-0.89327079 -0.40962213 1.2531964
-0.53303742 -0.17806853 9.5584545
-0.55834645 -0.21072021 5.5231524
-1.1152643 -0.49495295 4.7352781
-0.67293018 -0.30247736 2.0605392
-0.88006222 -0.39843225 2.0613005
-0.93223369 -0.4237808 1.7451864
-0.90442866 -0.41245583 1.3910279
-0.88906455 -0.40637138 1.1380167
-0.88455266 -0.40785235 1.036993
-0.86856121 -0.40102047 0.85377645
-0.85595477 -0.3957333 0.70287549
-0.85359758 -0.39499682 0.57889915
-0.8504855 -0.39390889 0.46700355
-0.83157068 -0.38549307 0.35935616
-0.83771449 -0.38869062 0.26680472
-0.82184458 -0.38166761 0.17429715
-0.88196427 -0.4051612 0.94559801
-0.85796773 -0.39467207 0.7711969
-0.85525423 -0.39377728 0.63890344
-0.85417593 -0.39381453 0.52227271
-0.84089404 -0.38803896 0.41146725
-0.81648141 -0.37711152 0.30763176
-0.8135438 -0.3759214 0.21721105
-0.82050347 -0.37947634 0.1301425
-0.097059235 -0.0007497652 9.7039032
-0.83389103 -0.3580204 5.7694774
-1.114539 -0.48680356 5.8706384
-0.60670263 -0.26996598 2.170083
-0.7780202 -0.3493329 2.068753
-0.94769025 -0.42782927 1.9727957
-0.918221 -0.41604844 1.553201
-0.89469522 -0.40650153 1.2531964
-0.53365576 -0.17620678 9.5584545
-0.55907863 -0.20876995 5.5231524
-1.1181358 -0.49156252 4.7401171
-0.67398196 -0.30012655 2.0605392
-0.88343418 -0.39624852 2.0658019
-0.9337073 -0.42052412 1.7451864
-0.90311676 -0.40805581 1.3870379
-0.89047766 -0.40326548 1.1380167
-0.88597089 -0.40476221 1.036993
-0.86641616 -0.3963671 0.85063797
-0.85733092 -0.39274305 0.70287549
-0.85497111 -0.3920148 0.57889915
-0.8518554 -0.39093775 0.46700355
-0.82855195 -0.38058573 0.35794613
-0.83460301 -0.38371223 0.26587209
-0.81864786 -0.37671477 0.17385007
-0.87997478 -0.4005335 0.94227254
-0.85934013 -0.39167479 0.7711969
-0.85270154 -0.38900045 0.63637024
-0.85141712 -0.38894477 0.52017462
-0.84224343 -0.38510135 0.41146725
-0.81779277 -0.37425914 0.30763176
-0.81034845 -0.37101784 0.21652037
-0.82182306 -0.37660992 0.1301425
-0.097061262 -0.00041096084 9.7039032
-0.83513564 -0.35510743 5.7694774
-1.1143622 -0.48210204 5.8608475
-0.6062752 -0.26724488 2.1653109
-0.77923489 -0.34661499 2.068753
-0.94699156 -0.42354104 1.9684068
-0.91710037 -0.41168851 1.549068
-0.89318585 -0.40206057 1.2493588
-0.5342676 -0.17434292 9.5584545
-0.55980396 -0.20681712 5.5231524
-1.1209974 -0.48815817 4.744957
-0.67660445 -0.29846817 2.0652318
-0.88481188 -0.39316231 2.0658019
-0.93278778 -0.41619992 1.7409205
-0.90453565 -0.40490085 1.3870379
-0.88878661 -0.39876711 1.1343416
-0.88412923 -0.40019667 1.0334884
-0.86779439 -0.39334035 0.85063797
-0.85488892 -0.38801995 0.70013404
-0.85633433 -0.38902801 0.57889915
-0.8532148 -0.38796183 0.46700355
-0.82987541 -0.37769121 0.35794613
-0.83593732 -0.38079658 0.26587209
-0.81995785 -0.37385488 0.17385007
-0.88136756 -0.39745939 0.94227254
-0.85701817 -0.38700938 0.76825374
-0.85405415 -0.38602161 0.63637024
-0.85276955 -0.38597041 0.52017462
-0.83928114 -0.38021052 0.40982375
-0.81909418 -0.37140226 0.30763176
-0.81163859 -0.36818695 0.21652037
-0.82313269 -0.37373891 0.1301425
-0.097105622 -6.9024769e-05 9.7089033
-0.83637011 -0.35219008 5.7694774
-1.1151023 -0.47780842 5.8559523
-0.60446799 -0.26393318 2.155767
-0.78044003 -0.34389284 2.068753
-0.9462744 -0.41926292 1.9640176
-0.91596049 -0.40734151 1.544935
-0.89165646 -0.39763507 1.2455213
-0.53487289 -0.17247692 9.5584545
-0.56102347 -0.20504384 5.5281234
-1.1238489 -0.48473975 4.7497964
-0.67764217 -0.29610458 2.0652318
-0.88617891 -0.39007136 2.0658019
-0.93184936 -0.4118872 1.7366546
-0.90318882 -0.4005197 1.3830478
-0.8901732 -0.39566225 1.1343416
-0.88552082 -0.39710805 1.0334884
-0.86561137 -0.38871446 0.84749955
-0.85623813 -0.38503349 0.70013404
-0.85364759 -0.38421851 0.57658035
-0.85456383 -0.38498122 0.46700355
-0.82681566 -0.37282035 0.35653609
-0.83278406 -0.37585562 0.26493949
-0.82125783 -0.37099043 0.17385007
-0.87934041 -0.39285755 0.93894702
-0.85836393 -0.3840155 0.76825374
-0.85146201 -0.38127643 0.6338371
-0.85411173 -0.38299134 0.52017462
-0.83629501 -0.37534508 0.40818024
-0.81595182 -0.3665491 0.30645946
-0.8129189 -0.36535156 0.21652037
-0.81987607 -0.36881384 0.12994097
-0.097105272 0.00026993753 9.7089033
-0.83759439 -0.34926847 5.7694774
-1.1148887 -0.47311807 5.8461618
-0.60401547 -0.26122952 2.150995
-0.7816357 -0.34116653 2.068753
-0.945539 -0.41499501 1.9596287
-0.91480148 -0.40300751 1.5408021
-0.89303905 -0.39452019 1.2455213
-0.53547168 -0.17060879 9.5584545
-0.56173581 -0.20308426 5.5281234
-1.1266903 -0.48130745 4.7546358
-0.67867166 -0.29373735 2.0652318
-0.88553947 -0.38610581 2.0613005
-0.93089223 -0.40758613 1.7323887
-0.90458143 -0.39736453 1.3830478
-0.88844609 -0.39118662 1.1306664
-0.88364244 -0.39256689 1.0299838
-0.86696297 -0.38569057 0.84749955
-0.85375738 -0.38034093 0.69739258
-0.85498351 -0.38123637 0.57658035
-0.85590243 -0.38199589 0.46700355
-0.82373208 -0.36797544 0.35512605
-0.82960653 -0.37094131 0.26400685
-0.81800228 -0.36608714 0.17340299
-0.88070643 -0.38978571 0.93894702
-0.85969913 -0.38101691 0.76825374
-0.85278773 -0.37830195 0.6338371
-0.85544336 -0.38000759 0.52017462
-0.83760011 -0.37242359 0.40818024
-0.81722635 -0.36369866 0.30645946
-0.80966532 -0.36049756 0.21582969
-0.82115847 -0.36594969 0.12994097
-0.097103745 0.00060889695 9.7089033
-0.83880848 -0.34634256 5.7694774
-1.1146556 -0.46843499 5.8363714
-0.60355127 -0.2585322 2.1462228
-0.78102839 -0.33766103 2.0641503
-0.94258875 -0.40978268 1.9508505
-0.91362345 -0.39868656 1.5366691
-0.89147425 -0.39011577 1.2416838
-0.53606397 -0.16873862 9.5584545
-0.56244129 -0.20112218 5.5281234
-1.1283634 -0.47737163 4.7546358
-0.67969286 -0.29136655 2.0652318
-0.88688183 -0.38301235 2.0613005
-0.92991656 -0.40329677 1.7281228
-0.90319985 -0.39300251 1.3790579
-0.88980615 -0.38808301 1.1306664
-0.88500738 -0.38948002 1.0299838
-0.86474216 -0.38109249 0.84436107
-0.85507983 -0.37735844 0.69739258
-0.85225695 -0.37645984 0.57426155
-0.85723066 -0.37900591 0.46700355
-0.82501155 -0.36509782 0.35512605
-0.82640493 -0.36605382 0.26307425
-0.8192752 -0.36322957 0.17340299
-0.87864202 -0.3852101 0.93562156
-0.8610239 -0.37801364 0.76825374
-0.85410309 -0.37532285 0.6338371
-0.85676461 -0.37701923 0.52017462
-0.83457339 -0.36759418 0.40653673
-0.81849092 -0.36084381 0.30645946
-0.81091881 -0.35766909 0.21582969
-0.82243085 -0.3630811 0.12994097
-0.097057536 0.00094426534 9.7039032
-0.839293 -0.34311876 5.7645383
-1.1144036 -0.46375933 5.826581
-0.60307574 -0.25584131 2.1414511
-0.78220224 -0.33493268 2.0641503
-0.94181353 -0.40554297 1.9464613
-0.91500956 -0.395495 1.5366691
-0.89283055 -0.38700157 1.2416838
-0.53692561 -0.16695125 9.563446
-0.56313992 -0.19915767 5.5281234
-1.1300229 -0.47343001 4.7546358
-0.68070573 -0.2889922 2.0652318
-0.88621181 -0.37905842 2.0567994
-0.92892224 -0.39901924 1.7238568
-0.90179884 -0.38865501 1.3750678
-0.88804317 -0.38363042 1.1269913
-0.88309228 -0.38496351 1.0264792
-0.86606717 -0.37807161 0.84436107
-0.8525604 -0.37269667 0.69465113
-0.84950739 -0.37170702 0.57194275
-0.85430187 -0.37415159 0.46513051
-0.82188743 -0.36028993 0.35371602
-0.82767761 -0.3631669 0.26307425
-0.8205381 -0.36036754 0.17340299
-0.87998128 -0.38214073 0.93562156
-0.85863137 -0.37339404 0.76531059
-0.85145533 -0.37061891 0.63130391
-0.85391498 -0.37221289 0.5180766
-0.83585143 -0.36467877 0.40653673
-0.81529111 -0.3560394 0.30528715
-0.81216234 -0.35483629 0.21582969
-0.81911588 -0.35820636 0.12973943
-0.097053647 0.0012830539 9.7039032
-0.84048557 -0.34018698 5.7645383
-1.1141326 -0.45909113 5.8167906
-0.60258871 -0.25315687 2.1366789
-0.78336668 -0.33220026 2.0641503
-0.94102037 -0.40131372 1.9420724
-0.91379744 -0.39119139 1.5325361
-0.89123064 -0.38261843 1.2378463
-0.53750509 -0.16507602 9.563446
-0.56383169 -0.19719073 5.5281234
-1.1305073 -0.46900111 4.7497964
-0.68171036 -0.28661433 2.0652318
-0.88752955 -0.37596264 2.0567994
-0.92790937 -0.39475355 1.7195909
-0.90315002 -0.38550478 1.3750678
-0.88937688 -0.38052824 1.1269913
-0.88443065 -0.38187858 1.0264792
-0.86380887 -0.37350163 0.84122264
-0.85385615 -0.36971837 0.69465113
-0.85079974 -0.36873943 0.57194275
-0.85560268 -0.37116724 0.46513051
-0.82314008 -0.35741881 0.35371602
-0.82894027 -0.36027557 0.26307425
-0.81722444 -0.35551459 0.17295592
-0.88130981 -0.37906668 0.93562156
-0.8599295 -0.37039462 0.76531059
-0.85274386 -0.36764449 0.63130391
-0.85520899 -0.36922991 0.5180766
-0.83711934 -0.36175886 0.40653673
-0.81652898 -0.35319132 0.30528715
-0.81339598 -0.35199916 0.21582969
-0.8203612 -0.35534489 0.12973943
-0.097048581 0.0016218267 9.7039032
-0.84238929 -0.33753976 5.7694774
-1.1147856 -0.45481491 5.8118949
-0.60209042 -0.25047898 2.1319072
-0.78452146 -0.32946375 2.0641503
-0.94020903 -0.39709491 1.9376832
-0.91515738 -0.38799927 1.5325361
-0.89256084 -0.37950513 1.2378463
-0.53835464 -0.16328174 9.5684376
-0.56451654 -0.19522139 5.5281234
-1.1309749 -0.46457472 4.744957
-0.68111348 -0.28357011 2.0605392
-0.88883644 -0.37286231 2.0567994
-0.92687815 -0.3904998 1.715325
-0.90171456 -0.3811768 1.3710777
-0.88757813 -0.37609896 1.123316
-0.88247919 -0.37738699 1.0229747
-0.86510736 -0.37048408 0.84122264
-0.85129851 -0.36508769 0.69190961
-0.84801108 -0.36402014 0.56962395
-0.85689306 -0.36817837 0.46513051
-0.82438266 -0.35454333 0.35371602
-0.83019286 -0.35737982 0.26307425
-0.8184604 -0.35265976 0.17295592
-0.87919247 -0.37452495 0.93229604
-0.85749936 -0.36580482 0.76236743
-0.85402197 -0.36466566 0.63130391
-0.8523196 -0.36445817 0.51597857
-0.838377 -0.35883456 0.40653673
-0.81328893 -0.34842491 0.30411482
-0.81461978 -0.34915772 0.21582969
-0.82159662 -0.35247916 0.12973943
-0.097085774 0.0019646175 9.7089033
-0.84356236 -0.3345972 5.7694774
-1.114478 -0.45015866 5.8021049
-0.60158068 -0.24780767 2.127135
-0.78566676 -0.32672325 2.0641503
-0.93937987 -0.39288673 1.9332942
-0.91650617 -0.3848024 1.5325361
-0.89388013 -0.37638721 1.2378463
-0.53864443 -0.16131954 9.563446
-0.56569928 -0.19342119 5.5330949
-1.131425 -0.46015072 4.7401171
-0.68209922 -0.28119084 2.0605392
-0.89013255 -0.36975741 2.0567994
-0.92582864 -0.3862581 1.7110591
-0.90303963 -0.3780269 1.3710777
-0.88575941 -0.37168688 1.1196409
-0.88379115 -0.37430426 1.0229747
-0.86639535 -0.36746204 0.84122264
-0.85256767 -0.36211389 0.69190961
-0.84927654 -0.36105782 0.56962395
-0.85390723 -0.36336988 0.46325746
-0.82561523 -0.35166356 0.35371602
-0.82691652 -0.35255325 0.26214162
-0.81968647 -0.34980068 0.17295592
-0.88049448 -0.3714537 0.93229604
-0.85877097 -0.36280936 0.76236743
-0.85131925 -0.3600035 0.62877071
-0.85358661 -0.3614808 0.51597857
-0.83527678 -0.35406309 0.40489322
-0.81450021 -0.34558389 0.30411482
-0.81127518 -0.3443771 0.21513902
-0.82282197 -0.34960911 0.12973943
-0.097078323 0.0023034983 9.7089033
-0.84544861 -0.33193424 5.7744169
-1.115097 -0.44588783 5.7972097
-0.60105962 -0.24514297 2.1223631
-0.78680247 -0.32397878 2.0641503
-0.93853265 -0.38868913 1.928905
-0.91524535 -0.38052079 1.5284033
-0.89223003 -0.37203136 1.2340088
-0.5392043 -0.15943833 9.563446
-0.56637096 -0.19144537 5.5330949
-1.1318585 -0.45572931 4.7352781
-0.68307656 -0.27880815 2.0605392
-0.88940436 -0.3658202 2.0522981
-0.9247607 -0.38202846 1.7067931
-0.90435368 -0.37487239 1.3710777
-0.88705146 -0.36859271 1.1196409
-0.88180345 -0.36983788 1.0194702
-0.86767268 -0.36443552 0.84122264
-0.85382652 -0.35913569 0.69190961
-0.84644896 -0.35637233 0.56730521
-0.85517043 -0.36038697 0.46325746
-0.82683772 -0.34877947 0.35371602
-0.82814211 -0.34966463 0.26214162
-0.82090247 -0.3469373 0.17295592
-0.87834042 -0.36693886 0.92897052
-0.85630327 -0.35824963 0.75942427
-0.85257071 -0.35702968 0.62877071
-0.85065776 -0.35674393 0.51388049
-0.83650756 -0.35114527 0.40489322
-0.81122035 -0.34085584 0.30294251
-0.81247234 -0.34154314 0.21513902
-0.81943244 -0.34479716 0.12953791
-0.097069688 0.002642351 9.7089033
-0.84732646 -0.32926214 5.7793555
-1.1156998 -0.44161814 5.7923141
-0.59914309 -0.24192649 2.1128192
-0.78973776 -0.3219676 2.068753
-0.93988377 -0.38541067 1.928905
-0.91656804 -0.37732369 1.5284033
-0.89352316 -0.36891466 1.2340088
-0.53948021 -0.15747513 9.5584545
-0.56703579 -0.18946719 5.5330949
-1.1299391 -0.45038003 4.7207594
-0.68404561 -0.27642208 2.0605392
-0.8906759 -0.36271337 2.0522981
-0.92608857 -0.37879813 1.7067931
-0.90286911 -0.37056947 1.3670877
-0.88519746 -0.36420441 1.1159657
-0.88308907 -0.36675754 1.0194702
-0.86893952 -0.36140454 0.84122264
-0.85507494 -0.35615307 0.69190961
-0.84768778 -0.35341549 0.56730521
-0.85642326 -0.35739967 0.46325746
-0.82805014 -0.34589115 0.35371602
-0.82935762 -0.34677175 0.26214162
-0.81751466 -0.34214708 0.17250884
-0.87961596 -0.36387065 0.92897052
-0.85754859 -0.35525841 0.75942427
-0.8538118 -0.35405144 0.62877071
-0.85189784 -0.3537724 0.51388049
-0.8377282 -0.34822318 0.40489322
-0.81240529 -0.33802208 0.30294251
-0.81365961 -0.338705 0.21513902
-0.82063103 -0.34193471 0.12953791
-0.097016476 0.0029766785 9.7039032
-0.84919596 -0.32658097 5.7842951
-1.1162865 -0.4373498 5.7874193
-0.59859765 -0.23927999 2.108047
-0.7908569 -0.31920895 2.068753
-0.93900418 -0.38122687 1.9245161
-0.91527349 -0.37306005 1.5242703
-0.89183849 -0.36458078 1.2301713
-0.54002661 -0.15559104 9.5584545
-0.56820023 -0.18765295 5.5380669
-1.1291656 -0.44551089 4.711081
-0.68500632 -0.27403262 2.0605392
-0.8919366 -0.35960212 2.0522981
-0.92498779 -0.3745845 1.7025272
-0.9041571 -0.36741558 1.3670877
-0.88646334 -0.36111227 1.1159657
-0.88436395 -0.36367276 1.0194702
-0.8665967 -0.35688719 0.83808416
-0.85244721 -0.35157201 0.6891681
-0.84482151 -0.34876415 0.56498641
-0.85338098 -0.35263765 0.46138445
-0.82925254 -0.34299859 0.35371602
-0.83056301 -0.34387463 0.26214162
-0.81870401 -0.33929133 0.17250884
-0.87742543 -0.35938299 0.92564505
-0.85504377 -0.35072908 0.75648111
-0.85504246 -0.35106894 0.62877071
-0.85312754 -0.35079658 0.51388049
-0.83457184 -0.34349966 0.40324971
-0.81358021 -0.33518419 0.30294251
-0.81025851 -0.33397564 0.21444833
-0.8218196 -0.33906808 0.12953791
-0.097005494 0.0033153109 9.7039032
-0.85033077 -0.32361475 5.7842951
-1.1168568 -0.43308267 5.7825241
-0.59665287 -0.23609148 2.0985031
-0.79196632 -0.31644639 2.068753
-0.94032919 -0.37794679 1.9245161
-0.91657019 -0.36986288 1.5242703
-0.89310575 -0.36146545 1.2301713
-0.54056644 -0.15370503 9.5584545
-0.56885183 -0.18566841 5.5380669
-1.1272011 -0.44019571 4.6965628
-0.68595874 -0.27163985 2.0605392
-0.89318645 -0.35648647 2.0522981
-0.92628968 -0.37135339 1.7025272
-0.90263849 -0.36313286 1.3630977
-0.88771844 -0.35801575 1.1159657
-0.88232499 -0.35923895 1.0159656
-0.86783713 -0.35386005 0.83808416
-0.85366923 -0.34859428 0.6891681
-0.84603381 -0.34581304 0.56498641
-0.85460669 -0.34965667 0.46138445
-0.82600546 -0.3382839 0.35230598
-0.83175832 -0.34097332 0.26214162
-0.81988341 -0.33643147 0.17250884
-0.87867457 -0.356318 0.92564505
-0.85626286 -0.34774229 0.75648111
-0.85226917 -0.34645894 0.62623757
-0.85434687 -0.34781647 0.51388049
-0.83576572 -0.34058434 0.40324971
-0.81474531 -0.33234224 0.30294251
-0.81141937 -0.33114529 0.21444833
-0.81837326 -0.33430806 0.12933637
-0.096993327 0.0036539037 9.7039032
-0.85218257 -0.32091808 5.7892346
-1.1183618 -0.42918146 5.7825241
-0.59608334 -0.23346345 2.0937314
-0.79306608 -0.31367999 2.068753
-0.9394173 -0.37377697 1.9201269
-0.91524231 -0.36561751 1.5201373
-0.89138657 -0.35715386 1.2263339
-0.54109967 -0.15181717 9.5584545
-0.56949639 -0.18368162 5.5380669
-1.1240405 -0.43444663 4.6772046
-0.68690276 -0.26924375 2.0605392
-0.89442533 -0.35336649 2.0522981
-0.92515612 -0.36715603 1.6982613
-0.90390056 -0.35997984 1.3630977
-0.88896281 -0.35491487 1.1159657
-0.88357359 -0.35615689 1.0159656
-0.86545765 -0.34937176 0.83494574
-0.85488087 -0.34561229 0.6891681
-0.8431294 -0.34119612 0.56266761
-0.85152519 -0.34493101 0.4595114
-0.82718128 -0.33539852 0.35230598
-0.8329435 -0.33806786 0.26214162
-0.82105273 -0.3335675 0.17250884
-0.87991297 -0.35324869 0.92564505
-0.85747147 -0.34475124 0.75648111
-0.85347342 -0.34348184 0.62623757
-0.85134625 -0.34313563 0.51178247
-0.83694953 -0.33766493 0.40324971
-0.81590039 -0.3294962 0.30294251
-0.81257033 -0.32831088 0.21444833
-0.8195352 -0.33144936 0.12933637
-0.096979983 0.0039924509 9.7039032
-0.85402578 -0.31821245 5.7941737
-1.1189011 -0.42491382 5.7776289
-0.59550267 -0.23084222 2.0889592
-0.79415619 -0.31090978 2.068753
-0.94071627 -0.3704955 1.9201269
-0.91651297 -0.3624205 1.5201373
-0.89262789 -0.35404018 1.2263339
-0.54190475 -0.15000363 9.563446
-0.57064229 -0.1818535 5.5430384
-1.1243762 -0.43007159 4.6723657
-0.68783838 -0.26684439 2.0605392
-0.89565337 -0.35024223 2.0522981
-0.92643213 -0.36392438 1.6982613
-0.90234822 -0.3557176 1.3591076
-0.8901962 -0.35180962 1.1159657
-0.8848114 -0.35307047 1.0159656
-0.86667198 -0.34634861 0.83494574
-0.85608202 -0.34262609 0.6891681
-0.84431523 -0.33825099 0.56266761
-0.85272402 -0.34195653 0.4595114
-0.82389516 -0.33072218 0.35089597
-0.83411849 -0.33515829 0.26214162
-0.8222121 -0.33069947 0.17250884
-0.87767082 -0.34879637 0.92231953
-0.85491401 -0.34026149 0.75353795
-0.85066241 -0.33890527 0.62370437
-0.85253882 -0.34016177 0.51178247
-0.83812308 -0.33474135 0.40324971
-0.81704557 -0.32664618 0.30294251
-0.8137114 -0.32547247 0.21444833
-0.81604922 -0.32672969 0.12913485
-0.096965462 0.0043309499 9.7039032
-0.85586053 -0.31549782 5.7991133
-1.1194242 -0.42064759 5.7727332
-0.59630483 -0.22876212 2.0889592
-0.79523665 -0.30813575 2.068753
-0.93977237 -0.36633998 1.9157379
-0.91515189 -0.35819367 1.5160043
-0.89087456 -0.34975106 1.2224963
-0.54270381 -0.14818634 9.5684376
-0.57127362 -0.17986047 5.5430384
-1.1246948 -0.42569938 4.6675262
-0.68876565 -0.26444173 2.0605392
-0.89687049 -0.34711367 2.0522981
-0.92769676 -0.3606883 1.6982613
-0.90358442 -0.35256568 1.3591076
-0.88826156 -0.34746534 1.1122906
-0.88603848 -0.34997973 1.0159656
-0.86425614 -0.34188965 0.83180726
-0.8572728 -0.33963573 0.6891681
-0.84549081 -0.33530173 0.56266761
-0.84960365 -0.33726755 0.45763838
-0.82504457 -0.32784426 0.35089597
-0.83528334 -0.33224463 0.26214162
-0.82336146 -0.32782736 0.17250884
-0.878883 -0.34573057 0.92231953
-0.85609657 -0.33727521 0.75353795
-0.85184026 -0.33593383 0.62370437
-0.85372096 -0.33718377 0.51178247
-0.83928645 -0.33181372 0.40324971
-0.8181808 -0.32379219 0.30294251
-0.81023824 -0.32080713 0.21375765
-0.81718475 -0.32387918 0.12913485
-0.096993059 0.0046746451 9.7089033
-0.8569566 -0.3125084 5.7991133
-1.1208857 -0.41673753 5.7727332
-0.59709972 -0.22667924 2.0889592
-0.79630738 -0.30535796 2.068753
-0.94104534 -0.36305732 1.9157379
-0.91377258 -0.35398075 1.5118713
-0.89209002 -0.34663919 1.2224963
-0.54321778 -0.14629105 9.5684376
-0.57189798 -0.17786527 5.5430384
-1.126174 -0.4217709 4.6675262
-0.68968457 -0.26203591 2.0605392
-0.89807671 -0.34398088 2.0522981
-0.92895019 -0.35744786 1.6982613
-0.90199858 -0.34832418 1.3551177
-0.88946897 -0.34436259 1.1122906
-0.88725471 -0.34688476 1.0159656
-0.8654443 -0.33887076 0.83180726
-0.85456026 -0.33511484 0.68642664
-0.84665608 -0.33234835 0.56266761
-0.85077572 -0.3342998 0.45763838
-0.82171983 -0.32320651 0.34948593
-0.83186722 -0.32752737 0.26120901
-0.8245008 -0.32495132 0.17250884
-0.88008446 -0.34266061 0.92231953
-0.85726869 -0.33428484 0.75353795
-0.84899181 -0.33139101 0.62117118
-0.85066569 -0.33254939 0.50968438
-0.84043956 -0.32888207 0.40324971
-0.81478029 -0.31916147 0.30177018
-0.81135315 -0.31797692 0.21375765
-0.81831032 -0.32102469 0.12913485
-0.096976154 0.0050131856 9.7089033
-0.85877323 -0.30977845 5.8040519
-1.1213779 -0.41247115 5.7678385
-0.59788734 -0.22459358 2.0889592
-0.79736841 -0.30257648 2.068753
-0.94230694 -0.35977027 1.9157379
-0.91500258 -0.35078895 1.5118713
-0.89030284 -0.34237286 1.2186587
-0.54372513 -0.14439397 9.5684376
-0.57251531 -0.17586789 5.5430384
-1.1288182 -0.41827378 4.6723657
-0.69059503 -0.25962687 2.0605392
-0.89927197 -0.34084392 2.0522981
-0.92775482 -0.35327518 1.6939954
-0.90320897 -0.34517348 1.3551177
-0.88749987 -0.34004298 1.1086154
-0.88846022 -0.34378555 1.0159656
-0.86662191 -0.33584774 0.83180726
-0.85572481 -0.33212981 0.68642664
-0.84781104 -0.32939094 0.56266761
-0.85193747 -0.331328 0.45763838
-0.82284296 -0.32033622 0.34948593
-0.83300543 -0.32462162 0.26120901
-0.82563007 -0.32207128 0.17250884
-0.87779111 -0.33824414 0.91899407
-0.85465938 -0.32983527 0.75059479
-0.85014343 -0.32842544 0.62117118
-0.85182136 -0.32957795 0.50968438
-0.84158248 -0.32594636 0.40324971
-0.81588942 -0.31631544 0.30177018
-0.8124581 -0.31514284 0.21375765
-0.81942594 -0.31816629 0.12913485
-0.096958064 0.0053516645 9.7089033
-0.85984933 -0.30677891 5.8040519
-1.1208971 -0.40785846 5.7580476
-0.59866768 -0.2225052 2.0889592
-0.8002488 -0.30047768 2.0733554
-0.94131649 -0.3556326 1.9113487
-0.91359031 -0.34659496 1.5077385
-0.89149249 -0.33926308 1.2186587
-0.54422581 -0.14249513 9.5684376
-0.57363611 -0.17402215 5.5480094
-1.1208292 -0.41087183 4.6336503
-0.69149709 -0.25721464 2.0605392
-0.90045625 -0.33770281 2.0522981
-0.92898232 -0.35003456 1.6939954
-0.90440834 -0.3420186 1.3551177
-0.88868135 -0.33694294 1.1086154
-0.88632429 -0.339407 1.0124611
-0.86778897 -0.33282059 0.83180726
-0.85687894 -0.32914075 0.68642664
-0.84895569 -0.32642952 0.56266761
-0.85308886 -0.32835218 0.45763838
-0.82395619 -0.31746203 0.34948593
-0.82955033 -0.31994432 0.26027638
-0.82674921 -0.31918734 0.17250884
-0.87896645 -0.33517802 0.91899407
-0.85580552 -0.32684994 0.75059479
-0.85128468 -0.32545587 0.62117118
-0.85720509 -0.32822531 0.51178247
-0.84271514 -0.32300669 0.40324971
-0.81698859 -0.31346551 0.30177018
-0.81355321 -0.31230491 0.21375765
-0.82053149 -0.31530404 0.12913485
-0.096982054 0.0056957831 9.7139034
-0.86018217 -0.3035174 5.7991133
-1.1194395 -0.40290961 5.7433624
-0.59944075 -0.2204141 2.0889592
-0.80129278 -0.29768246 2.0733554
-0.94030875 -0.35150629 1.9069598
-0.91479462 -0.34340379 1.5077385
-0.89267135 -0.33614913 1.2186587
-0.54444015 -0.14052324 9.563446
-0.57424009 -0.17201874 5.5480094
-1.1151659 -0.40438735 4.6046133
-0.69239074 -0.25479931 2.0605392
-0.90367067 -0.33531463 2.0567994
-0.93019849 -0.34678966 1.6939954
-0.90277445 -0.33780378 1.3511276
-0.88985211 -0.33383879 1.1086154
-0.88750368 -0.3363111 1.0124611
-0.86894548 -0.32978943 0.83180726
-0.85411406 -0.32466215 0.68368518
-0.85008991 -0.32346413 0.56266761
-0.85856211 -0.32702234 0.4595114
-0.82954162 -0.31629288 0.35089597
-0.83066207 -0.31704673 0.26027638
-0.82785839 -0.3162995 0.17250884
-0.87663764 -0.33078983 0.91566855
-0.85694116 -0.32386065 0.75059479
-0.85241556 -0.32248235 0.62117118
-0.85834563 -0.32523111 0.51178247
-0.83942223 -0.31838855 0.4016062
-0.81353372 -0.30888656 0.30059788
-0.81463844 -0.30946317 0.21375765
-0.82162714 -0.31243792 0.12913485
-0.096961588 0.0060342788 9.7139034
-0.86197007 -0.30076858 5.8040519
-1.1189204 -0.3983171 5.7335715
-0.60020649 -0.21832033 2.0889592
-0.80232704 -0.29488364 2.0733554
-0.94152999 -0.34822187 1.9069598
-0.91598773 -0.34020847 1.5077385
-0.89083564 -0.33191225 1.2148212
-0.54464734 -0.13855162 9.5584545
-0.57534844 -0.17016345 5.5529809
-1.113021 -0.39921984 4.5900955
-0.69327593 -0.25238085 2.0605392
-0.90483564 -0.33215821 2.0567994
-0.92895639 -0.34263834 1.6897295
-0.90394813 -0.33465046 1.3511276
-0.88783371 -0.32955113 1.1049403
-0.88533288 -0.33195925 1.0089566
-0.87009132 -0.32675424 0.83180726
-0.85524213 -0.32167876 0.68368518
-0.85121387 -0.3204948 0.56266761
-0.85969836 -0.32402343 0.4595114
-0.83064061 -0.31339529 0.35089597
-0.83176374 -0.31414524 0.26027638
-0.82429928 -0.31164673 0.17206176
-0.87778705 -0.32772779 0.91566855
-0.85806644 -0.32086739 0.75059479
-0.85353601 -0.31950492 0.62117118
-0.86372536 -0.3238261 0.51388049
-0.84052849 -0.31545648 0.4016062
-0.81460696 -0.30604491 0.30059788
-0.8157137 -0.30661768 0.21375765
-0.81803679 -0.30780858 0.12893331
-0.096939936 0.0063727009 9.7139034
-0.86595321 -0.29877031 5.8238091
-1.1155014 -0.39271954 5.7090955
-0.5995602 -0.215719 2.0841873
-0.80151534 -0.29141399 2.068753
-0.94049042 -0.34411049 1.9025706
-0.91981119 -0.33797932 1.5118713
-0.89198875 -0.32880062 1.2148212
-0.54484743 -0.13658023 9.553463
-0.57645088 -0.16830252 5.5579529
-1.0764966 -0.38189232 4.4352341
-0.69415265 -0.24995932 2.0605392
-0.90598953 -0.3289977 2.0567994
-0.93014675 -0.33939356 1.6897295
-0.90228117 -0.330457 1.3471376
-0.8889786 -0.32644999 1.1049403
-0.88648623 -0.32886681 1.0089566
-0.87122661 -0.32371506 0.83180726
-0.85635978 -0.31869146 0.68368518
-0.8481763 -0.31597531 0.56034881
-0.86082423 -0.32102054 0.4595114
-0.8272354 -0.30881631 0.34948593
-0.83285528 -0.31123993 0.26027638
-0.82071781 -0.30702263 0.17161468
-0.87892562 -0.32466173 0.91566855
-0.85918128 -0.3178702 0.75059479
-0.85464609 -0.31652355 0.62117118
-0.86485046 -0.32080913 0.51388049
-0.8416245 -0.31252056 0.4016062
-0.81567025 -0.30319953 0.30059788
-0.81677902 -0.30376843 0.21375765
-0.81910628 -0.30495119 0.12893331
-0.096960291 0.0067171999 9.7189035
-0.86846185 -0.2962468 5.8336878
-1.1168654 -0.3888233 5.7090955
-0.60030955 -0.21362482 2.0841873
-0.80252767 -0.28861442 2.068753
-0.94168586 -0.3408255 1.9025706
-0.92098534 -0.33476654 1.5118713
-0.89011973 -0.32458717 1.2109838
-0.54532087 -0.13467753 9.553463
-0.57754743 -0.16643597 5.5629244
-1.0244449 -0.35941857 4.2174592
-0.69502097 -0.24753477 2.0605392
-0.90713245 -0.32583323 2.0567994
-0.93132579 -0.33614469 1.6897295
-0.90342921 -0.32730547 1.3471376
-0.89011276 -0.32334489 1.1049403
-0.88428086 -0.32454193 1.005452
-0.86869794 -0.3193292 0.82866883
-0.857467 -0.31570026 0.68368518
-0.84927404 -0.31301269 0.56034881
-0.86193955 -0.31801373 0.4595114
-0.82830828 -0.30592683 0.34948593
-0.82932919 -0.30662739 0.25934377
-0.8217845 -0.30415592 0.17161468
-0.8765465 -0.32031044 0.91234308
-0.86028564 -0.31486917 0.75059479
-0.85574579 -0.31353837 0.62117118
-0.86596501 -0.3177883 0.51388049
-0.84271026 -0.30958083 0.4016062
-0.81672364 -0.30035046 0.30059788
-0.81318688 -0.29920551 0.21306697
-0.82016581 -0.30209011 0.12893331
-0.096936248 0.0070556146 9.7189035
-0.87317258 -0.29445332 5.8583841
-1.1230302 -0.38657814 5.7335715
-0.59964335 -0.21103296 2.0794153
-0.80168939 -0.28515688 2.0641503
-0.94061494 -0.33672938 1.8981816
-0.92214829 -0.33154967 1.5118713
-0.89124733 -0.32147807 1.2109838
-0.54578763 -0.13277319 9.553463
-0.57812482 -0.16441897 5.5629244
-0.94018406 -0.32619679 3.8690209
-0.69750851 -0.24568006 2.0652318
-0.90621281 -0.32193625 2.0522981
-0.93003714 -0.3320151 1.6854634
-0.90172946 -0.32313365 1.3431475
-0.88804543 -0.31908968 1.1012651
-0.88540834 -0.32145321 1.005452
-0.8698073 -0.31629497 0.82866883
-0.85856378 -0.31270522 0.68368518
-0.85036153 -0.31004626 0.56034881
-0.86304438 -0.31500307 0.4595114
-0.8248654 -0.30138746 0.3480759
-0.83039445 -0.30373064 0.25934377
-0.81816477 -0.29957324 0.1711676
-0.87765932 -0.31724876 0.91234308
-0.8613795 -0.31186429 0.75059479
-0.85278213 -0.30908063 0.61863804
-0.86706907 -0.31476358 0.51388049
-0.83934754 -0.30502459 0.39996269
-0.81319928 -0.29583609 0.29942557
-0.81422633 -0.29636514 0.21306697
-0.82121527 -0.29922539 0.12893331
-0.096911035 0.0073939427 9.7189035
-0.8741951 -0.29140359 5.8583841
-1.1263008 -0.3833113 5.7433624
-0.60037631 -0.20893852 2.0794153
-0.8026799 -0.28235674 2.0641503
-0.94178462 -0.33344397 1.8981816
-0.92064852 -0.32738614 1.5077385
-0.89236408 -0.31836507 1.2109838
-0.54624778 -0.13086723 9.553463
-0.57920873 -0.162543 5.5678959
-0.91991395 -0.3155767 3.7819114
-0.69836187 -0.24324383 2.0652318
-0.90733105 -0.31877103 2.0522981
-0.93119049 -0.32876667 1.6854634
