# .PCD v0.7 - Point Cloud Data file format
VERSION 0.7
FIELDS x y z
SIZE 4 4 4
TYPE F F F
COUNT 1 1 1
WIDTH 1408
HEIGHT 1
VIEWPOINT 0 0 0 1 0 0 0
POINTS 1408
DATA ascii
-1.0718632 -0.49201348 2.5024195
-0.99869293 -0.46030855 1.8688986
-0.92140269 -0.42603651 1.4189581
-0.89307666 -0.41387135 1.145367
-0.8888666 -0.4154982 1.0440021
-0.8770256 -0.41051242 0.8631919
-0.86901605 -0.40730733 0.71384138
-0.85552818 -0.40134206 0.58121794
-0.86939347 -0.40820771 0.4763687
-0.83822399 -0.39392227 0.36217624
-0.83122271 -0.39098081 0.26587209
-0.82434052 -0.38808671 0.17474423
-0.88321549 -0.41134974 0.94892353
-0.86687934 -0.40428361 0.78002638
-0.86489964 -0.40371957 0.64650303
-0.86443704 -0.40404648 0.52856684
-0.84312803 -0.39443743 0.41311076
-0.81889766 -0.38344252 0.30880409
-0.82501769 -0.38647795 0.21928309
-0.82302874 -0.3858881 0.13034403
-0.13028689 0.00072226359 13.518758
-1.185406 -0.51611823 8.2193489
-1.3363568 -0.59197128 7.0503879
-1.2094663 -0.54555851 4.2888436
-1.1371499 -0.51767689 3.0030653
-1.0477933 -0.47962612 2.1790826
-0.97228789 -0.44669059 1.6441258
-0.90128839 -0.41520321 1.2647089
-0.61782694 -0.23427369 6.1197329
-1.0650295 -0.47489747 4.5271826
-1.1757315 -0.53080797 3.5622244
-1.0715922 -0.4873679 2.4979181
-1.0002936 -0.45681968 1.8688986
-0.92014462 -0.42156276 1.414968
-0.89143491 -0.40933695 1.1416919
-0.89031148 -0.41239294 1.0440021
-0.87845325 -0.40744853 0.8631919
-0.86664003 -0.4025102 0.71109986
-0.85692388 -0.39835325 0.58121794
-0.87081313 -0.40517047 0.4763687
-0.83524525 -0.38896888 0.3607662
-0.83258241 -0.38807693 0.26587209
-0.82569015 -0.38520685 0.17474423
-0.884646 -0.40826422 0.94892353
-0.86461604 -0.39955974 0.77708322
-0.86239094 -0.39888847 0.64396977
-0.8658421 -0.40102658 0.52856684
-0.84449971 -0.39149198 0.41311076
-0.8202312 -0.38058171 0.30880409
-0.82186997 -0.3815107 0.21859241
-0.82437068 -0.38301283 0.13034403
-0.13024004 0.0011742986 13.513759
-1.1800647 -0.50890267 8.1699572
-1.342145 -0.58893871 7.0699687
-1.2086375 -0.54011571 4.2792997
-1.137169 -0.51290137 2.9984629
-1.0472797 -0.47497672 2.1746933
-0.97128004 -0.44212836 1.6399928
-0.90273219 -0.4120546 1.2647089
-0.61814159 -0.23192923 6.1147609
-1.085079 -0.47929925 4.6046133
-1.1760017 -0.52599627 3.5575314
-1.0693172 -0.4818362 2.4889157
-0.99950606 -0.45225033 1.8646327
-0.91886663 -0.41710299 1.410978
-0.89285833 -0.40622273 1.1416919
-0.88850439 -0.40779525 1.0404975
-0.87633342 -0.40275443 0.86005342
-0.86803979 -0.39948258 0.71109986
-0.85830921 -0.39535961 0.58121794
-0.86801207 -0.40018743 0.47449568
-0.83224225 -0.3840411 0.35935616
-0.83393198 -0.38516831 0.26587209
-0.82250947 -0.38023266 0.17429715
-0.88267004 -0.40362126 0.94559801
-0.86600548 -0.39653921 0.77708322
-0.863778 -0.39587572 0.64396977
-0.86311179 -0.3961089 0.52646881
-0.84157002 -0.38657075 0.41146725
-0.81713837 -0.3756859 0.30763176
-0.82319671 -0.37863955 0.21859241
-0.82116449 -0.37804368 0.1301425
-0.13023515 0.0016289147 13.513759
-1.1775458 -0.50295049 8.1403208
-1.3376552 -0.58141035 7.0357018
-1.2091506 -0.53528947 4.274528
-1.1371688 -0.50813198 2.9938602
-1.044562 -0.4693554 2.1659153
-0.9702521 -0.43757859 1.63586
-0.90124452 -0.40758044 1.2608713
-0.61744726 -0.22921608 6.0998468
-1.0867455 -0.47550869 4.6046133
-1.174675 -0.52049029 3.5481458
-1.0690048 -0.47721347 2.4844146
-0.99869859 -0.44769207 1.8603667
-0.91756874 -0.41265735 1.406988
-0.89427084 -0.40310362 1.1416919
-0.88992238 -0.40469131 1.0404975
-0.87773395 -0.39969301 0.86005342
-0.86562437 -0.39471549 0.70835841
-0.855654 -0.390522 0.57889915
-0.86940366 -0.39715505 0.47449568
-0.83357769 -0.38113371 0.35935616
-0.83527142 -0.38225499 0.26587209
-0.82383168 -0.37735924 0.17429715
-0.88407362 -0.4005377 0.94559801
-0.86370337 -0.39184409 0.77414006
-0.86515462 -0.39285815 0.64396977
-0.8644892 -0.39309365 0.52646881
-0.84291428 -0.38363075 0.41146725
-0.81844473 -0.37283128 0.30763176
-0.82000715 -0.37371016 0.21790172
-0.82247913 -0.375175 0.1301425
-0.13022867 0.0020835095 13.513759
-1.1843041 -0.50095433 8.1748953
-1.3368706 -0.57553023 7.0210166
-1.2082773 -0.52986693 4.2649837
-1.1371491 -0.50336885 2.9892578
-1.0440059 -0.46473256 2.1615264
-0.96920431 -0.43304139 1.631727
-0.89973658 -0.40312168 1.2570338
-0.6177429 -0.22687645 6.0948749
-1.0987796 -0.47620884 4.6481686
-1.1749045 -0.51569349 3.5434532
-1.0686729 -0.47259882 2.4799132
-0.9978717 -0.44314495 1.8561009
-0.91625112 -0.40822586 1.402998
-0.89567256 -0.39997959 1.1416919
-0.88807803 -0.40011775 1.036993
-0.87557566 -0.39502618 0.85691494
-0.86699688 -0.39169151 0.70835841
-0.85701197 -0.38753283 0.57889915
-0.86656117 -0.3922064 0.47262263
-0.83053339 -0.37624225 0.35794613
-0.83660066 -0.37933701 0.26587209
-0.82514387 -0.37448123 0.17429715
-0.88546634 -0.39744925 0.94559801
-0.86506593 -0.38882682 0.77414006
-0.8665207 -0.3898358 0.64396977
-0.861718 -0.38820958 0.52437073
-0.83994341 -0.37874511 0.40982375
-0.81531084 -0.36797264 0.30645946
-0.82130665 -0.3708455 0.21790172
-0.8237837 -0.37230173 0.1301425
-0.13022061 0.0025380796 13.513759
-1.1853291 -0.49651736 8.1699572
-1.3351245 -0.56926358 7.0014353
-1.2087502 -0.52505153 4.2602119
-1.1353207 -0.49782774 2.9800527
-1.0434302 -0.46011937 2.1571372
-0.9655633 -0.42737812 1.623461
-0.89820856 -0.39867845 1.2531964
-0.61552322 -0.22363168 6.0650458
-1.1735321 -0.51021349 3.5340676
-1.0683221 -0.46799231 2.4754121
-0.99702495 -0.43860903 1.8518349
-0.91491371 -0.40380856 1.3990079
-0.89396286 -0.39547935 1.1380167
-0.88621253 -0.3955619 1.0334884
-0.87694925 -0.39196742 0.85691494
-0.86835885 -0.38866273 0.70835841
-0.85431683 -0.38272801 0.57658035
-0.86369485 -0.38728249 0.47074962
-0.83184165 -0.37334082 0.35794613
-0.83791971 -0.37641445 0.26587209
-0.82190406 -0.36955649 0.17385007
-0.88343656 -0.39283913 0.94227254
-0.86641788 -0.38580483 0.77414006
-0.86393869 -0.38505399 0.64143664
-0.85892338 -0.38334966 0.52227271
-0.83694881 -0.37388492 0.40818024
-0.81659031 -0.36512443 0.30645946
-0.81807572 -0.36595428 0.21721105
-0.82507825 -0.3694239 0.1301425
-0.13025445 0.0029959735 13.518758
-1.1884905 -0.49297166 8.1798353
-1.3342893 -0.56341207 6.9867501
-1.2078332 -0.51964957 4.250668
-1.1352593 -0.4930836 2.97545
-1.0406402 -0.45455742 2.1483591
-0.96447194 -0.42287531 1.619328
-0.89959472 -0.39554071 1.2531964
-0.61730397 -0.22184061 6.0749888
-1.233961 -0.524562 5.199863
-1.1721358 -0.50474936 3.5246823
-1.0659549 -0.46252766 2.4664097
-0.99615902 -0.4340845 1.847569
-0.91355669 -0.39940566 1.395018
-0.89533788 -0.39235643 1.1380167
-0.8875879 -0.39246607 1.0334884
-0.874753 -0.38732821 0.85377645
-0.86971027 -0.38562924 0.70835841
-0.85564762 -0.37974355 0.57658035
-0.86504143 -0.38426524 0.47074962
-0.83313978 -0.37043491 0.35794613
-0.83922851 -0.37348726 0.26587209
-0.82318908 -0.36668524 0.17385007
-0.8848024 -0.38975295 0.94227254
-0.86406112 -0.381147 0.7711969
-0.86527753 -0.38203594 0.64143664
-0.85610527 -0.37851399 0.52017462
-0.83824885 -0.37096113 0.40818024
-0.81785989 -0.36227179 0.30645946
-0.81482071 -0.36109015 0.21652037
-0.82636279 -0.36654159 0.1301425
-0.1302432 0.0034506288 13.518758
-1.1902041 -0.48882008 8.1798353
-1.33249 -0.55718064 6.9671688
-1.2068931 -0.51426041 4.2411237
-1.1351788 -0.48834598 2.9708476
-1.0400225 -0.44997138 2.14397
-0.96336097 -0.41838542 1.615195
-0.89803118 -0.39111847 1.2493588
-0.61857718 -0.21986213 6.0799608
-1.2554802 -0.52853888 5.2821326
-1.1723032 -0.49997798 3.5199893
-1.0655626 -0.45794463 2.4619086
-0.99527353 -0.42957133 1.843303
-0.91218007 -0.39501709 1.3910279
-0.89359206 -0.38787907 1.1343416
-0.8856858 -0.3879348 1.0299838
-0.87609971 -0.38427243 0.85377645
-0.86722255 -0.38090959 0.70561695
-0.85696793 -0.37675449 0.57658035
-0.86213416 -0.37937626 0.46887657
-0.83442771 -0.36752445 0.35794613
-0.84052712 -0.37055552 0.26587209
-0.82446402 -0.36380953 0.17385007
-0.88273525 -0.38516903 0.93894702
-0.86538631 -0.37812853 0.7711969
-0.86660582 -0.37901324 0.64143664
-0.85742134 -0.37552333 0.52017462
-0.83521372 -0.36613703 0.40653673
-0.81911945 -0.35941473 0.30645946
-0.81607622 -0.35824367 0.21652037
-0.8276372 -0.36365482 0.1301425
-0.13027385 0.0039088991 13.523758
-1.192623 -0.48495495 8.1847744
-1.3316042 -0.55135798 6.9524832
-1.2059302 -0.50888425 4.2315803
-1.1350791 -0.48361495 2.9662452
-1.0393853 -0.44539514 2.1395807
-0.9648155 -0.41502008 1.615195
-0.89939094 -0.38798138 1.2493588
-0.61984402 -0.21787746 6.0849323
-1.2596382 -0.5251202 5.2918119
-1.1708617 -0.49454039 3.5106039
-1.0651516 -0.45337 2.4574075
-0.99436873 -0.42506966 1.8390369
-0.91078401 -0.39064306 1.3870379
-0.89182597 -0.38341868 1.1306664
-0.88703454 -0.38484082 1.0299838
-0.87386572 -0.37966108 0.85063797
-0.8685469 -0.37788013 0.70561695
-0.8542164 -0.37199229 0.57426155
-0.86345321 -0.37636453 0.46887657
-0.83570558 -0.36460951 0.35794613
-0.84181547 -0.36761928 0.26587209
-0.82572895 -0.36092943 0.17385007
-0.88407433 -0.38208535 0.93894702
-0.86670095 -0.37510547 0.7711969
-0.8639679 -0.3742725 0.63890344
-0.8545633 -0.37072197 0.5180766
-0.83648664 -0.36321938 0.40653673
-0.8248269 -0.35849068 0.30763176
-0.81278044 -0.35341823 0.21582969
-0.82890153 -0.36076361 0.1301425
-0.13025939 0.004363616 13.523758
-1.1935877 -0.48049903 8.1798353
-1.3306942 -0.54554832 6.9377975
-1.2049443 -0.50352091 4.2220359
-1.1331602 -0.47813129 2.9570401
-1.0387291 -0.44082892 2.1351919
-0.96366936 -0.41054705 1.6110622
-0.89779222 -0.38358051 1.2455213
-0.6211046 -0.21588664 6.0899034
-1.2591395 -0.5197612 5.2821326
-1.1709887 -0.48978463 3.5059111
-1.0647215 -0.44880381 2.4529061
-0.9934448 -0.42057958 1.8347712
-0.90936852 -0.38628361 1.3830478
-0.89003968 -0.37897542 1.1269913
-0.88509583 -0.38033441 1.0264792
-0.87161022 -0.37507007 0.84749955
-0.8660205 -0.37319142 0.70287549
-0.85550964 -0.36900827 0.57426155
-0.86050546 -0.3715108 0.46700355
-0.83256972 -0.35978729 0.35653609
-0.84309357 -0.36467856 0.26587209
-0.82698375 -0.35804486 0.17385007
-0.88540268 -0.37899703 0.93894702
-0.86428988 -0.37048551 0.76825374
-0.86526912 -0.37125441 0.63890344
-0.85585213 -0.36773673 0.5180766
-0.83774942 -0.36029726 0.40653673
-0.82607323 -0.3556093 0.30763176
-0.81400913 -0.35057899 0.21582969
-0.82556802 -0.35589027 0.12994097
-0.13024338 0.0048182798 13.523758
-1.1945357 -0.47604221 8.1748953
-1.3307033 -0.54013455 6.9280071
-1.203936 -0.49817088 4.212492
-1.1312169 -0.47266692 2.947835
-1.0358454 -0.43534493 2.1264138
-0.96250373 -0.40608704 1.6069292
-0.89617378 -0.37919554 1.2416838
-0.62185436 -0.21371727 6.0899034
-1.2586191 -0.51441222 5.2724543
-1.1710968 -0.48503402 3.5012183
-1.0622636 -0.4434078 2.4439037
-0.99250138 -0.41610107 1.8305051
-0.91071135 -0.38310698 1.3830478
-0.89135712 -0.37586629 1.1269913
-0.88641804 -0.37724251 1.0264792
-0.87291414 -0.37202531 0.84749955
-0.86731791 -0.37016618 0.70287549
-0.85679251 -0.36601976 0.57426155
-0.86179703 -0.36850482 0.46700355
-0.83382052 -0.35687891 0.35653609
-0.83984607 -0.35979903 0.26493949
-0.82822853 -0.35515597 0.17385007
-0.88328254 -0.37444699 0.93562156
-0.86557782 -0.36746633 0.76825374
-0.86259216 -0.36654603 0.63637024
-0.85713053 -0.36474702 0.5180766
-0.83900201 -0.35737079 0.40653673
-0.82730949 -0.3527236 0.30763176
-0.81067294 -0.34579253 0.21513902
-0.82680523 -0.35300636 0.12994097
-0.1302692 0.005276999 13.528758
-1.1954675 -0.47158483 8.1699572
-1.329746 -0.53434789 6.913321
-1.2029048 -0.49283391 4.2029481
-1.1292492 -0.46722201 2.9386299
-1.0351474 -0.43080649 2.1220245
-0.96391535 -0.4027248 1.6069292
-0.89749193 -0.37606496 1.2416838
-0.62209159 -0.21137466 6.0849323
-1.2580764 -0.50907308 5.2627749
-1.1711861 -0.48028862 3.4965255
-1.061793 -0.43886581 2.4394026
-0.99153906 -0.41163433 1.8262392
-0.90926141 -0.37876719 1.3790579
-0.88953525 -0.37144646 1.123316
-0.88444304 -0.37276119 1.0229747
-0.87062138 -0.36746269 0.84436107
-0.86860472 -0.36713642 0.70287549
-0.85806495 -0.36302674 0.57426155
-0.85880911 -0.36368665 0.46513051
-0.83506119 -0.35396615 0.35653609
-0.84109688 -0.35686523 0.26493949
-0.82946324 -0.35226277 0.17385007
-0.88458419 -0.37136146 0.93562156
-0.86685526 -0.36444265 0.76825374
-0.86386639 -0.36353278 0.63637024
-0.8583985 -0.36175284 0.5180766
-0.84024435 -0.35443994 0.40653673
-0.82405782 -0.34794298 0.30645946
-0.81187499 -0.34296066 0.21513902
-0.8234309 -0.34817246 0.12973943
-0.13024999 0.0057316911 13.528758
-1.1971062 -0.46740898 8.1699572
-1.3287646 -0.52857453 6.8986359
-1.2018511 -0.48751023 4.1934042
-1.1272573 -0.46179655 2.929425
-1.0322161 -0.42536598 2.1132464
-0.96271485 -0.39828214 1.6027963
-0.89583856 -0.37170172 1.2378463
-0.6243425 -0.2097085 6.0998468
-1.257512 -0.50374407 5.2530966
-1.1712564 -0.47554857 3.4918327
-1.0613036 -0.43433246 2.4349012
-0.98814541 -0.4061881 1.8177074
-0.91057807 -0.37559095 1.3790579
-0.8908264 -0.36833915 1.123316
-0.88573891 -0.36967161 1.0229747
-0.87189877 -0.3644214 0.84436107
-0.86602372 -0.36248782 0.70013404
-0.85524112 -0.35831767 0.57194275
-0.85152286 -0.35710111 0.46138445
-0.83629167 -0.35104907 0.35653609
-0.83780867 -0.35202429 0.26400685
-0.83068782 -0.34936526 0.17385007
-0.88242733 -0.36683837 0.93229604
-0.86439049 -0.3598612 0.76531059
-0.86115092 -0.35885713 0.6338371
-0.85546762 -0.35700649 0.51597857
-0.84147644 -0.35150477 0.40653673
-0.82526737 -0.34506437 0.30645946
-0.8130672 -0.34012458 0.21513902
-0.82464123 -0.34529606 0.12973943
-0.13022919 0.006186313 13.528758
-1.1987305 -0.46322745 8.1699572
-1.3277591 -0.52281451 6.8839502
-1.2021602 -0.48275599 4.188632
-1.1252415 -0.45639077 2.9202199
-1.031477 -0.42085573 2.1088572
-0.96409923 -0.39491919 1.6027963
-0.89713061 -0.36857238 1.2378463
-0.62152737 -0.20635808 6.0650458
-1.2569256 -0.49842522 5.2434173
-1.171308 -0.47081384 3.4871402
-1.0607955 -0.42980796 2.4304001
-0.98714143 -0.40175346 1.8134414
-0.90909392 -0.37127116 1.3750678
-0.89210671 -0.36522731 1.123316
-0.88372785 -0.36521569 1.0194702
-0.869569 -0.35988742 0.84122264
-0.86728376 -0.35946265 0.70013404
-0.85648668 -0.35533017 0.57194275
-0.84848267 -0.35234874 0.4595114
-0.83308226 -0.34628654 0.35512605
-0.83449697 -0.34721068 0.26307425
-0.82730502 -0.34454891 0.17340299
-0.88370246 -0.36375591 0.93229604
-0.86564136 -0.35684174 0.76531059
-0.86239827 -0.35584894 0.6338371
-0.85670859 -0.35401818 0.51597857
-0.83833474 -0.34676054 0.40489322
-0.82197589 -0.34032226 0.30528715
-0.81424952 -0.33728439 0.21513902
-0.82584155 -0.34241539 0.12973943
-0.1302502 0.0066454294 13.533757
-1.2003402 -0.45904028 8.1699572
-1.3267297 -0.51706797 6.8692646
-1.2010635 -0.47745433 4.1790881
-1.1250147 -0.45173243 2.9156172
-1.0284983 -0.41545907 2.1000791
-0.96286416 -0.39049414 1.5986633
-0.89544255 -0.36423114 1.2340088
-0.62224388 -0.20418727 6.0650458
-1.2551472 -0.49265751 5.228899
-1.1713408 -0.46608457 3.4824471
-1.0602688 -0.42529225 2.4258988
-0.98369944 -0.39635631 1.8049095
-0.9103843 -0.36809555 1.3750678
-0.89337611 -0.36211106 1.123316
-0.88499737 -0.36212867 1.0194702
-0.87081993 -0.35684985 0.84122264
-0.86466491 -0.35484576 0.69739258
-0.85362422 -0.35065526 0.56962395
-0.84541982 -0.34762198 0.45763838
-0.83428597 -0.34337646 0.35512605
-0.83116198 -0.34242448 0.26214162
-0.82850271 -0.34165895 0.17340299
-0.88150907 -0.35926002 0.92897052
-0.86688167 -0.35381791 0.76531059
-0.85964459 -0.35120627 0.63130391
-0.85793912 -0.35102555 0.51597857
-0.83517003 -0.34204254 0.40324971
-0.82315886 -0.33745095 0.30528715
-0.81542188 -0.33444005 0.21513902
-0.82703179 -0.33953059 0.12973943
-0.13022621 0.0071000471 13.533757
-1.2033887 -0.45539704 8.1798353
-1.3266263 -0.51170123 6.8594737
-1.2013339 -0.47271258 4.1743164
-1.1229534 -0.44635981 2.9064121
-1.0277184 -0.41097742 2.09569
-0.96422136 -0.38713074 1.5986633
-0.89670855 -0.36110324 1.2340088
-0.62295282 -0.202014 6.0650458
-1.2545159 -0.48736331 5.2192206
-1.1697493 -0.46072859 3.4730618
-1.0617468 -0.42158863 2.4258988
-0.980232 -0.39098817 1.7963778
-0.90886605 -0.36379594 1.3710777
-0.89148837 -0.35772812 1.1196409
-0.88625598 -0.35903728 1.0194702
-0.8720603 -0.35380796 0.84122264
-0.86589825 -0.35182533 0.69739258
-0.85484302 -0.34767342 0.56962395
-0.84662807 -0.34466881 0.45763838
-0.83547944 -0.34046215 0.35512605
-0.82780379 -0.33766586 0.26120901
-0.8250798 -0.33688244 0.17295592
-0.88275778 -0.35618079 0.92897052
-0.86436379 -0.34927562 0.76236743
-0.86086529 -0.34820339 0.63130391
-0.85495263 -0.3463248 0.51388049
-0.8363589 -0.33912516 0.40324971
-0.81982791 -0.33274764 0.30411482
-0.81658435 -0.33159167 0.21513902
-0.8282119 -0.33664164 0.12973943
-0.13020064 0.0075545777 13.533757
-1.2042432 -0.45092136 8.1748953
-1.3255503 -0.50597858 6.8447886
-1.2015855 -0.46797475 4.1695442
-1.1226867 -0.44172221 2.9018097
-1.0246927 -0.40562496 2.0869119
-0.96295166 -0.38272351 1.5945303
-0.89498609 -0.35678425 1.2301713
-0.61044866 -0.19563143 5.9357872
-1.2526894 -0.48162866 5.2047019
-1.1697425 -0.45601603 3.468369
-1.0611858 -0.41708377 2.4213977
-0.97673917 -0.38564909 1.7878458
-0.91013038 -0.36062118 1.3710777
-0.89273161 -0.35461408 1.1196409
-0.8841939 -0.35461423 1.0159656
-0.87328994 -0.35076174 0.84122264
-0.86712104 -0.34880066 0.69739258
-0.85194212 -0.34303293 0.56730521
-0.84352618 -0.33997852 0.45576534
-0.83666283 -0.3375437 0.35512605
-0.82897735 -0.33477423 0.26120901
-0.82625067 -0.33400032 0.17295592
-0.88399571 -0.35309723 0.92897052
-0.86557776 -0.34625632 0.76236743
-0.85807353 -0.34359401 0.62877071
-0.85615635 -0.34333837 0.51388049
-0.83315527 -0.33444464 0.4016062
-0.82098442 -0.32988387 0.30411482
-0.81773686 -0.32873923 0.21513902
-0.8247472 -0.33188355 0.12953791
-0.13021681 0.0080140391 13.538757
-1.2072674 -0.44725445 8.1847744
-1.3244506 -0.50026977 6.8301024
-1.2018188 -0.46324095 4.164772
-1.1224011 -0.43709186 2.8972073
-1.0238723 -0.4011721 2.0825229
-0.96166301 -0.37832987 1.5903975
-0.89622599 -0.35365799 1.2301713
-0.60655165 -0.19205914 5.8910437
-1.2520132 -0.47635952 5.1950235
-1.1681069 -0.45068818 3.4589834
-1.0585774 -0.41179901 2.4123952
-0.97565007 -0.3812882 1.7835798
-0.90857828 -0.35634211 1.3670877
-0.89080888 -0.3502554 1.1159657
-0.88542628 -0.35152563 1.0159656
-0.87450904 -0.34771127 0.84122264
-0.86444855 -0.34422493 0.69465113
-0.85313433 -0.34005699 0.56730521
-0.84470779 -0.33703199 0.45576534
-0.83338106 -0.33284199 0.35371602
-0.82557964 -0.33005509 0.26027638
-0.822788 -0.32926393 0.17250884
-0.88522285 -0.35000935 0.92897052
-0.86678118 -0.34323275 0.76236743
-0.85926765 -0.34059668 0.62877071
-0.85734957 -0.34034774 0.51388049
-0.83431762 -0.33153436 0.4016062
-0.81761444 -0.32521969 0.30294251
-0.81887937 -0.32588279 0.21513902
-0.82590067 -0.32900262 0.12953791
-0.13018805 0.0084685311 13.538757
-1.205173 -0.4417018 8.160078
-1.3242811 -0.49493101 6.820312
-1.2020338 -0.4585112 4.1599998
-1.122097 -0.43246898 2.8926048
-1.0230334 -0.39673004 2.0781338
-0.96035546 -0.37394994 1.5862645
-0.89745504 -0.35052744 1.2301713
-0.60518223 -0.1893077 5.8711576
-1.2513155 -0.47110093 5.1853442
-1.1680608 -0.44599268 3.4542906
-1.0579767 -0.40731943 2.4078939
-0.97210997 -0.37599903 1.775048
-0.90700752 -0.35207823 1.3630977
-0.8888666 -0.34591445 1.1122906
-0.88664794 -0.34843278 1.0159656
-0.87571746 -0.34465653 0.84122264
-0.86564481 -0.34120536 0.69465113
-0.85431617 -0.3370769 0.56730521
-0.84587914 -0.33408135 0.45576534
-0.8345378 -0.32993093 0.35371602
-0.82672673 -0.32717127 0.26027638
-0.82393235 -0.32638985 0.17250884
-0.8864392 -0.34691724 0.92897052
-0.86421061 -0.33873019 0.75942427
-0.86045128 -0.33759522 0.62877071
-0.85430819 -0.33569324 0.51178247
-0.83546984 -0.32862002 0.4016062
-0.81874472 -0.32236367 0.30294251
-0.82001191 -0.3230224 0.21513902
-0.82704407 -0.32611766 0.12953791
-0.13015768 0.0089229215 13.538757
-1.2125521 -0.43960914 8.1995926
-1.3240905 -0.48959956 6.8105216
-1.2008337 -0.45325875 4.1504564
-1.1199489 -0.42715749 2.8833997
-1.024412 -0.39315653 2.0781338
-0.95902902 -0.36958373 1.5821315
-0.89568347 -0.34623715 1.2263339
-1.2505964 -0.46585304 5.1756659
-1.167996 -0.44130296 3.4495978
-1.0553234 -0.40207428 2.3988914
-0.97098088 -0.37167138 1.7707821
-0.90541804 -0.3478297 1.3591076
-0.89006865 -0.34280965 1.1122906
-0.88785881 -0.34533566 1.0159656
-0.87328827 -0.34018499 0.83808416
-0.86293501 -0.33666202 0.69190961
-0.85548759 -0.33409277 0.56730521
-0.84704012 -0.33112666 0.45576534
-0.83568436 -0.32701588 0.35371602
-0.82786375 -0.32428345 0.26027638
-0.82506663 -0.32351181 0.17250884
-0.88764477 -0.34382084 0.92897052
-0.86538768 -0.33571148 0.75942427
-0.86162454 -0.3345896 0.62877071
-0.85547477 -0.3327091 0.51178247
-0.83661181 -0.32570168 0.4016062
-0.81986499 -0.31950378 0.30294251
-0.82113451 -0.32015806 0.21513902
-0.82817739 -0.32322878 0.12953791
-0.13008246 0.0093717258 13.533757
-1.2177365 -0.43668407 8.224288
-1.3238789 -0.48427549 6.8007312
-1.2010101 -0.44854227 4.1456842
-1.1196051 -0.42255589 2.8787971
-1.0235392 -0.3887282 2.0737445
-0.96031332 -0.36623383 1.5821315
-0.89688659 -0.34310851 1.2263339
-0.55088639 -0.16821656 5.3292637
-1.2498559 -0.46061587 5.1659865
-1.167913 -0.43661913 3.444905
-1.0546832 -0.39762035 2.3943901
-0.97227234 -0.36827978 1.7707821
-0.9066267 -0.34466708 1.3591076
-0.88809192 -0.33849347 1.1086154
-0.88573056 -0.34095341 1.0124611
-0.87447041 -0.33713457 0.83808416
-0.86410493 -0.33364779 0.69190961
-0.85664862 -0.33110452 0.56730521
-0.84819084 -0.32816789 0.45576534
-0.83682078 -0.32409677 0.35371602
-0.8289907 -0.3213917 0.26027638
-0.82619089 -0.32062981 0.17250884
-0.88883954 -0.3407203 0.92897052
-0.86655432 -0.33268866 0.75942427
-0.86278719 -0.33157995 0.62877071
-0.85663092 -0.32972091 0.51178247
-0.83774364 -0.32277939 0.4016062
-0.82097524 -0.31663996 0.30294251
-0.81762701 -0.31550705 0.21444833
-0.82930058 -0.32033592 0.12953791
-0.13004896 0.0098257409 13.533757
-1.2236478 -0.43398777 8.2539244
-1.3236462 -0.47895882 6.7909408
-1.2011682 -0.44383007 4.1409121
-1.119243 -0.41796198 2.8741946
-1.0226479 -0.38431078 2.0693557
-0.9589529 -0.36188614 1.5779986
-0.89508098 -0.33884114 1.2224963
-0.54891694 -0.16552803 5.3044057
-1.2490942 -0.45538968 5.1563082
-1.1678113 -0.43194127 3.4402122
-1.0519854 -0.3924152 2.3853879
-0.97110969 -0.36396861 1.7665161
-0.90500385 -0.34043956 1.3551177
-0.88926816 -0.3353914 1.1086154
-0.88691533 -0.33785957 1.0124611
-0.87564194 -0.33408004 0.83808416
-0.8652643 -0.33062947 0.69190961
-0.85779917 -0.32811221 0.56730521
-0.8450017 -0.32354757 0.45389232
-0.83794701 -0.32117376 0.35371602
-0.83010745 -0.31849602 0.26027638
-0.82730502 -0.3177439 0.17250884
-0.89002347 -0.33761561 0.92897052
-0.86393178 -0.32822645 0.75648111
-0.86393934 -0.32856622 0.62877071
-0.85777664 -0.3267287 0.51178247
-0.83445293 -0.31817085 0.39996269
-0.81753445 -0.31203914 0.30177018
-0.81872332 -0.3126511 0.21444833
-0.83041376 -0.31743917 0.12953791
-0.13001387 0.010279637 13.533757
-1.2295549 -0.4312554 8.2835598
-1.3233926 -0.47364974 6.7811503
-1.1985039 -0.43809775 4.1265965
-1.1170298 -0.41269886 2.8649898
-1.0217382 -0.37990427 2.0649664
-0.96021032 -0.3585366 1.5779986
-0.89625835 -0.33571467 1.2224963
-0.54335719 -0.1617974 5.2447481
-1.2483112 -0.45017436 5.1466289
-1.1676912 -0.42726946 3.4355197
-1.0513064 -0.38798723 2.3808868
-0.9723742 -0.36057657 1.7665161
-0.9061867 -0.33727846 1.3551177
-0.89043343 -0.33228523 1.1086154
-0.88475209 -0.33350393 1.0089566
-0.8731612 -0.32964689 0.83494574
-0.86250186 -0.32612836 0.6891681
-0.85479623 -0.32354796 0.56498641
-0.84612596 -0.32059598 0.45389232
-0.83457768 -0.3165457 0.35230598
-0.83121419 -0.31559646 0.26027638
-0.82375407 -0.3130849 0.17206176
-0.88770074 -0.33319488 0.92564505
-0.86507225 -0.32520878 0.75648111
-0.86104637 -0.3240304 0.62623757
-0.85891193 -0.32373253 0.51178247
-0.83555841 -0.31525615 0.39996269
-0.81861871 -0.30918351 0.30177018
-0.81980968 -0.30979133 0.21444833
-0.83151674 -0.31453854 0.12953791
-0.1299772 0.010733407 13.533757
-1.2339894 -0.42797831 8.3033161
-1.3221581 -0.46800873 6.7664647
-1.1944106 -0.43188214 4.1075082
-1.1166286 -0.40812677 2.8603871
-1.0208102 -0.37550887 2.0605774
-0.95881617 -0.35420772 1.5738657
-0.89441913 -0.33147052 1.2186587
-0.53675479 -0.15780894 5.1751466
-1.247507 -0.44497007 5.1369505
-1.1675528 -0.42260376 3.4308267
-1.0506092 -0.38356873 2.3763855
-0.97362697 -0.35718018 1.7665161
-0.90453076 -0.33307225 1.3511276
-0.88840753 -0.32800105 1.1049403
-0.88591093 -0.33041355 1.0089566
-0.87430656 -0.32659698 0.83494574
-0.863635 -0.32311568 0.6891681
-0.85592043 -0.32056218 0.56498641
-0.84289896 -0.31601319 0.45201927
-0.8356775 -0.31363052 0.35230598
-0.8277123 -0.31096554 0.25934377
-0.82484192 -0.31020755 0.17206176
-0.88885844 -0.33009422 0.92564505
-0.86620218 -0.32218713 0.75648111
-0.86217225 -0.32102281 0.62623757
-0.86003673 -0.32073238 0.51178247
-0.83665383 -0.31233758 0.39996269
-0.81969297 -0.30632412 0.30177018
-0.81624758 -0.30519351 0.21375765
-0.82793069 -0.30988285 0.12933637
-0.12993893 0.011187047 13.533757
-1.2303305 -0.42190558 8.2687416
-1.3218615 -0.46271828 6.7566743
-1.1874772 -0.42469555 4.0788765
-1.1143718 -0.40289849 2.851182
-1.019864 -0.37112448 2.0561883
-0.96004671 -0.35085866 1.5738657
-0.89557076 -0.32834637 1.2186587
-0.53781456 -0.1560819 5.1801181
-1.2466817 -0.43977687 5.1272712
-1.1690209 -0.41852567 3.4308267
-1.0498942 -0.37915993 2.3718843
-0.97486782 -0.35377938 1.7665161
-0.90285659 -0.32888174 1.3471376
-0.88954705 -0.32489792 1.1049403
-0.88705885 -0.32731912 1.0089566
-0.87544131 -0.3235431 0.83494574
-0.8647576 -0.32009906 0.6891681
-0.8528803 -0.31603348 0.56266761
-0.84399688 -0.31306899 0.45201927
-0.8367672 -0.31071156 0.35230598
-0.82879269 -0.30807438 0.25934377
-0.82125241 -0.30558974 0.17161468
-0.88650048 -0.3257021 0.92231953
-0.86352813 -0.31776586 0.75353795
-0.85924244 -0.31652138 0.62370437
-0.86115104 -0.31772834 0.51178247
-0.83773893 -0.30941519 0.39996269
-0.81619823 -0.30177546 0.30059788
-0.81730795 -0.30234241 0.21375765
-0.82900733 -0.30699095 0.12933637
-0.1298559 0.011634319 13.528758
-1.2310597 -0.41735911 8.2638025
-1.3205818 -0.45710278 6.7419887
-1.1139318 -0.39834857 2.8465796
-1.0188998 -0.36675137 2.0517993
-0.95861924 -0.34654894 1.5697327
-0.89369816 -0.32412568 1.2148212
-0.53630519 -0.15362057 5.1602321
-1.2458354 -0.4345949 5.1175928
-1.1688479 -0.4138667 3.4261341
-1.0512114 -0.37549281 2.3718843
-0.97364199 -0.34949341 1.7622502
-0.90399903 -0.32572815 1.3471376
-0.88748717 -0.32063913 1.1012651
-0.88484591 -0.32299808 1.005452
-0.87290961 -0.31914893 0.83180726
-0.86194319 -0.31564087 0.68642664
-0.85397828 -0.31305444 0.56266761
-0.84508455 -0.310121 0.45201927
-0.8378467 -0.30778882 0.35230598
-0.82986307 -0.30517948 0.25934377
-0.82231408 -0.30272117 0.17161468
-0.88763201 -0.32260564 0.92231953
-0.86463207 -0.31474966 0.75353795
-0.86034209 -0.31352013 0.62370437
-0.86225486 -0.31472042 0.51178247
-0.8388139 -0.30648905 0.39996269
-0.81724662 -0.29892454 0.30059788
-0.81370783 -0.29778579 0.21306697
-0.82538289 -0.30237678 0.12913485
-0.12981449 0.01208753 13.528758
-1.2347195 -0.41379941 8.2786207
-1.3202424 -0.45183131 6.7321978
-0.72823656 -0.25481474 2.5136657
-1.1116316 -0.39315543 2.8373744
-1.0201738 -0.36319253 2.0517993
-0.95982307 -0.34320062 1.5697327
-0.89482415 -0.32100412 1.2148212
-0.53478515 -0.15117168 5.1403461
-1.2461563 -0.4298338 5.1127529
-1.1686567 -0.40921405 3.4214413
-1.0504628 -0.37109619 2.367383
-0.97485602 -0.34609267 1.7622502
-0.90229213 -0.32155934 1.3431475
-0.88860101 -0.31753927 1.1012651
-0.88596803 -0.31990743 1.005452
-0.87401837 -0.31609994 0.83180726
-0.86303973 -0.31263021 0.68642664
-0.85506582 -0.31007159 0.56266761
-0.84616196 -0.3071692 0.45201927
-0.83440739 -0.303224 0.35089597
-0.826307 -0.30060157 0.25841114
-0.82336581 -0.29984891 0.17161468
-0.88523901 -0.31824234 0.91899407
-0.86572552 -0.31172958 0.75353795
-0.85737574 -0.30905342 0.62117118
-0.86334825 -0.31170869 0.51178247
-0.83987868 -0.30355918 0.39996269
-0.81371439 -0.29441634 0.29942557
-0.81474233 -0.2949436 0.21306697
-0.82173628 -0.29779163 0.12893331
-0.12977152 0.012540593 13.528758
-0.80609977 -0.26717597 5.3990331
-1.3198824 -0.44656783 6.7224078
-0.72206765 -0.24983266 2.4898059
-1.1111529 -0.38862792 2.8327718
-1.0191761 -0.35883409 2.0474102
-0.9583621 -0.33891016 1.5655998
-0.89291835 -0.31680712 1.2109838
-0.53376842 -0.14887747 5.125432
-1.2452698 -0.42467034 5.1030741
-1.1668165 -0.40400344 3.4120557
-1.0496967 -0.36670941 2.3628819
-0.97359741 -0.341824 1.7579843
-0.90340906 -0.3184078 1.3431475
-0.88650751 -0.31330612 1.09759
-0.88372076 -0.31561363 1.0019474
-0.87511647 -0.31304711 0.83180726
-0.86412573 -0.30961573 0.68642664
-0.856143 -0.30708498 0.56266761
-0.84722906 -0.3042137 0.45201927
-0.83546072 -0.30030951 0.35089597
-0.82735121 -0.2977154 0.25841114
-0.8244074 -0.29697299 0.17161468
-0.88634449 -0.31515032 0.91899407
-0.86300057 -0.30734986 0.75059479
-0.85844934 -0.30605873 0.62117118
-0.86015683 -0.30716696 0.50968438
-0.84093314 -0.30062562 0.39996269
-0.81473714 -0.29157415 0.29942557
-0.81576693 -0.29209784 0.21306697
-0.82277071 -0.29492143 0.12893331
-0.12972695 0.012993503 13.528758
-0.81072003 -0.26556817 5.4237294
-1.318536 -0.44098961 6.7077217
-0.73988509 -0.25310394 2.5470698
-1.1088098 -0.3834703 2.8235669
-1.0181607 -0.35448709 2.0430212
-0.95688283 -0.33463407 1.5614668
-0.89401877 -0.31368834 1.2109838
-0.53222787 -0.1464518 5.105546
-1.2455534 -0.41991961 5.0982351
-1.1665868 -0.39936933 3.4073629
-1.0489125 -0.36233252 2.3583806
-0.97478467 -0.33842343 1.7579843
-0.90451503 -0.31525236 1.3431475
-0.88759571 -0.31020972 1.09759
-0.88481706 -0.31252694 1.0019474
-0.87620384 -0.3099905 0.83180726
-0.86125994 -0.30520102 0.68368518
-0.85720968 -0.30409458 0.56266761
-0.8526544 -0.30280575 0.45389232
-0.83198404 -0.29578456 0.34948593
-0.82838541 -0.29482558 0.25841114
-0.82074791 -0.29242212 0.1711676
-0.88743919 -0.31205449 0.91899407
-0.86406815 -0.30433556 0.75059479
-0.85951245 -0.30306032 0.62117118
-0.86122376 -0.30416256 0.50968438
-0.83752525 -0.29611441 0.39831915
-0.8111679 -0.28710672 0.29825324
-0.81678158 -0.2892485 0.21306697
-0.8237952 -0.29204762 0.12893331
-0.1296808 0.013446257 13.528758
-0.80646664 -0.26106396 5.3891544
-1.3171669 -0.43542629 6.6930361
-0.74076408 -0.25051972 2.5470698
-1.1064442 -0.37833381 2.8143618
-1.0193918 -0.3509309 2.0430212
-0.95804513 -0.33129188 1.5614668
-0.89208007 -0.3095153 1.2071462
-0.53170639 -0.14431587 5.0956025
-1.2446264 -0.41477486 5.0885558
-1.1647044 -0.39418876 3.3979776
-1.0481107 -0.35796559 2.3538795
-0.97596002 -0.33501872 1.7579843
-0.90560991 -0.31209311 1.3431475
-0.88867319 -0.30710953 1.09759
-0.88590258 -0.30943644 1.0019474
-0.87728059 -0.30693009 0.83180726
-0.86232001 -0.30219281 0.68368518
-0.85826594 -0.30110052 0.56266761
-0.84933215 -0.29829156 0.45201927
-0.83301145 -0.2928786 0.34948593
-0.83404315 -0.29356304 0.25934377
-0.82176358 -0.28955537 0.1711676
-0.88852304 -0.30895483 0.91899407
-0.86130804 -0.29998827 0.74765164
-0.86056507 -0.30005822 0.62117118
-0.86228025 -0.30115446 0.50968438
-0.83855379 -0.29318908 0.39831915
-0.81216514 -0.28427345 0.29825324
-0.81778622 -0.28639564 0.21306697
-0.82480967 -0.28917027 0.12893331
-0.12963307 0.013898845 13.528758
-0.80959356 -0.25895637 5.4039726
-1.316743 -0.43019387 6.6832461
-0.73738664 -0.24651375 2.5327537
-1.1040565 -0.37321848 2.8051567
-1.0183432 -0.34659895 2.0386319
-0.95653296 -0.32703558 1.5573338
-0.89315504 -0.30639946 1.2071462
-0.53117651 -0.1421854 5.08566
-1.2448727 -0.41003481 5.0837164
-1.1644367 -0.38957351 3.3932846
-1.0472913 -0.35360864 2.3493781
-0.97465372 -0.33077204 1.7537184
-0.90669382 -0.30893004 1.3431475
-0.88973975 -0.30400562 1.09759
-0.88360631 -0.3051782 0.99844289
-0.87466812 -0.30259359 0.82866883
-0.85941863 -0.29781199 0.68094373
-0.85512662 -0.2966511 0.56034881
-0.85036826 -0.29532498 0.45201927
-0.83402866 -0.28996906 0.34948593
-0.8350628 -0.29064989 0.25934377
-0.82276934 -0.28668511 0.1711676
-0.8895961 -0.30585143 0.91899407
-0.86234993 -0.29697987 0.74765164
-0.85753173 -0.29564756 0.61863804
-0.85903621 -0.29666138 0.5075863
-0.83510906 -0.28871736 0.39667568
-0.81315249 -0.28143674 0.29825324
-0.81878102 -0.2835393 0.21306697
-0.82581395 -0.28628939 0.12893331
-0.12962683 0.014358399 13.533757
-0.80975157 -0.25589499 5.3990331
-1.3153296 -0.42465708 6.66856
-0.73540771 -0.24300238 2.5232096
-1.1034994 -0.36874339 2.800554
-1.0172769 -0.34227869 2.0342431
-0.95500273 -0.32279384 1.553201
-0.89118361 -0.30225071 1.2033087
-0.53115392 -0.1401954 5.0806885
-1.2451011 -0.40529805 5.0788774
-1.1625125 -0.38442338 3.3838992
-1.0464542 -0.34926182 2.344877
-0.97580242 -0.32736784 1.7537184
-0.90776664 -0.30576321 1.3431475
-0.89079553 -0.30089799 1.09759
-0.8846662 -0.30209196 0.99844289
-0.87571907 -0.29953858 0.82866883
-0.86045295 -0.29481021 0.68094373
-0.85615689 -0.29366434 0.56034881
-0.84700936 -0.29084939 0.45014626
-0.83049929 -0.28549659 0.3480759
-0.83607227 -0.2877332 0.25934377
-0.82376504 -0.28381139 0.1711676
-0.89065832 -0.3027443 0.91899407
-0.86338133 -0.29396793 0.74765164
-0.8585586 -0.29265246 0.61863804
-0.86006653 -0.29366097 0.5075863
-0.83611178 -0.28580055 0.39667568
-0.81412995 -0.27859661 0.29825324
-0.8150807 -0.27907541 0.21237628
-0.83153439 -0.28502497 0.12913485
-0.12957591 0.014810794 13.533757
-0.79951274 -0.24959904 5.3249445
-1.3148637 -0.41944471 6.6587696
-0.73341328 -0.23950782 2.5136657
-1.1010696 -0.36366433 2.7913492
-1.0161928 -0.33797005 2.0298538
-0.95345461 -0.3185668 1.549068
-0.89223325 -0.29913804 1.2033087
-0.53112388 -0.13820727 5.0757165
-1.2441149 -0.40018001 5.0691981
-1.1622069 -0.37982726 3.3792064
-1.0455995 -0.34492514 2.3403757
-0.97446358 -0.32313904 1.7494525
-0.90882844 -0.30259264 1.3431475
-0.88862473 -0.29671326 1.0939147
-0.88233632 -0.29786164 0.99493837
-0.87307203 -0.29523328 0.82553035
-0.85751629 -0.29046357 0.67820227
-0.85298151 -0.28925157 0.55803001
-0.84362954 -0.28640085 0.44827321
-0.83149081 -0.28259587 0.3480759
-0.83242106 -0.28323075 0.25841114
-0.82475072 -0.28093415 0.1711676
-0.89170963 -0.2996335 0.91899407
-0.86440223 -0.29095235 0.74765164
-0.85957485 -0.28965372 0.61863804
-0.86108637 -0.29065701 0.5075863
-0.83710432 -0.28288025 0.39667568
-0.81509745 -0.27575305 0.29825324
-0.81604987 -0.27622858 0.21237628
-0.83252418 -0.28212062 0.12913485
-0.12952343 0.015263008 13.533757
-0.79295295 -0.24452069 5.2755518
-1.3143773 -0.41424072 6.6489792
-0.73282415 -0.23648824 2.5088937
-1.1004751 -0.35921267 2.7867467
-1.0150911 -0.33367321 2.025465
-0.95188862 -0.31435448 1.544935
-0.8902294 -0.29501376 1.1994712
-0.5310865 -0.13622108 5.0707455
-1.2443062 -0.39545432 5.0643587
-1.1618835 -0.375238 3.3745136
-1.0447274 -0.3405987 2.3358746
-0.97310722 -0.31892356 1.7451864
-0.90701681 -0.29847676 1.3391576
-0.88965505 -0.29360956 1.0939147
-0.8833707 -0.29477987 0.99493837
-0.87409723 -0.29218388 0.82553035
-0.85852498 -0.28746849 0.67820227
-0.85398602 -0.28627232 0.55803001
-0.8446241 -0.28345427 0.44827321
-0.83247215 -0.27969173 0.3480759
-0.83340466 -0.28032336 0.25841114
-0.82572633 -0.27805355 0.1711676
-0.89275008 -0.29651901 0.91899407
-0.86157721 -0.28665742 0.74470848
-0.86058068 -0.28665146 0.61863804
-0.86209571 -0.28764948 0.5075863
-0.83808666 -0.27995646 0.39667568
-0.81605506 -0.27290615 0.29825324
-0.81700909 -0.27337834 0.21237628
-0.82876664 -0.27762592 0.12893331
-0.12946935 0.015715037 13.533757
-0.7863676 -0.23949122 5.2261591
-1.3138708 -0.40904528 6.6391888
-0.7336452 -0.23392877 2.5088937
-1.0998628 -0.35476962 2.7821441
-1.0139716 -0.32938811 2.0210757
-0.95030493 -0.310157 1.5408021
-0.89125377 -0.29190445 1.1994712
-0.53104168 -0.13423681 5.065774
-1.2432805 -0.39035589 5.0546799
-1.1615422 -0.37065557 3.3698208
-1.0438377 -0.33628252 2.3313732
-0.97421455 -0.31552485 1.7451864
-0.90805316 -0.29530886 1.3391576
-0.89067453 -0.29050228 1.0939147
-0.88100749 -0.29057774 0.9914338
-0.87141597 -0.28791007 0.82239193
-0.85952318 -0.28446996 0.67820227
-0.85077506 -0.2818965 0.55571121
-0.84120822 -0.27904478 0.4464002
-0.82889074 -0.27527234 0.34666586
-0.82971674 -0.27586278 0.25747854
-0.82669187 -0.27516952 0.1711676
-0.89023221 -0.2922366 0.91566855
-0.86257261 -0.28364822 0.74470848
-0.85748142 -0.28229791 0.61610484
-0.86309457 -0.28463846 0.5075863
-0.83905876 -0.27702931 0.39667568
-0.81700271 -0.27005592 0.29825324
-0.81795841 -0.2705248 0.21237628
-0.82973069 -0.27473131 0.12893331
-0.12941371 0.016166871 13.533757
-0.78719884 -0.23674484 5.2261591
-1.3123709 -0.40355939 6.6245031
-0.73303342 -0.2309183 2.5041218
-1.099233 -0.35033521 2.7775416
-1.0128348 -0.32511494 2.0166867
-0.94870353 -0.30597445 1.5366691
-0.88921767 -0.28780487 1.1956338
-0.53098953 -0.13225453 5.0608025
-1.2434347 -0.38564149 5.0498405
-1.161183 -0.36608016 3.365128
-1.0429308 -0.3319768 2.3268721
-0.972826 -0.31132764 1.7409205
-0.90620959 -0.29121572 1.3351675
-0.88845634 -0.28635177 1.0902396
-0.88201642 -0.28750065 0.9914338
-0.8724156 -0.28486648 0.82239193
-0.85653663 -0.28016815 0.67546082
-0.85175389 -0.278925 0.55571121
-0.84217715 -0.27610672 0.4464002
-0.82984662 -0.27237728 0.34666586
-0.83067459 -0.27296484 0.25747854
-0.82764733 -0.27228215 0.1711676
-0.89124686 -0.28912732 0.91566855
-0.86355746 -0.28063557 0.74470848
-0.85846162 -0.27930304 0.61610484
-0.86839807 -0.28303018 0.50968438
-0.84002066 -0.27409872 0.39667568
-0.81794041 -0.26720241 0.29825324
-0.81419069 -0.26612943 0.21168561
-0.8259365 -0.27027956 0.12873179
-0.12935649 0.016618513 13.533757
-0.78802043 -0.23399557 5.2261591
-1.3118227 -0.39838454 6.6147127
-0.73240966 -0.22791499 2.4993498
-1.1004492 -0.34649605 2.7775416
-1.0139635 -0.32157752 2.0166867
-0.94440329 -0.30095267 1.5284033
-0.89021689 -0.28469917 1.1956338
-0.53144789 -0.13040023 5.0608025
-1.2423695 -0.38056293 5.0401616
-1.1608061 -0.36151174 3.3604355
-1.0440832 -0.32833427 2.3268721
-0.97390687 -0.30792993 1.7409205
-0.90434855 -0.28713906 1.3311775
-0.88945043 -0.28324872 1.0902396
-0.87962002 -0.28332692 0.98792928
-0.86970037 -0.28062442 0.81925344
-0.85750937 -0.27717656 0.67546082
-0.85272229 -0.27595013 0.55571121
-0.83872545 -0.27173653 0.44452715
-0.83079231 -0.26947892 0.34666586
-0.83162236 -0.27006361 0.25747854
-0.82385677 -0.26785174 0.17072052
-0.888695 -0.28487501 0.91234308
-0.86453182 -0.27761945 0.74470848
-0.85532737 -0.27498552 0.61357164
-0.86938071 -0.2799972 0.50968438
-0.8409723 -0.27116486 0.39667568
-0.8188681 -0.26434565 0.29825324
-0.81511474 -0.26328576 0.21168561
-0.82687491 -0.26739487 0.12873179
-0.1292548 0.017061915 13.528758
-0.79256111 -0.23233448 5.2508554
-1.3112545 -0.39321849 6.6049218
-0.73320073 -0.22535701 2.4993498
-1.0997864 -0.34207261 2.772939
-1.0127943 -0.31732035 2.0122976
-0.94276381 -0.29680946 1.5242703
-0.89120525 -0.28159001 1.1956338
-0.53138149 -0.12842016 5.0558305
-1.2424872 -0.37586021 5.0353222
-1.1604115 -0.35695049 3.3557425
-1.043144 -0.32404217 2.3223708
-0.97248626 -0.30375117 1.7366546
-0.90247017 -0.28307897 1.3271875
-0.88719982 -0.27912506 1.0865644
-0.88060361 -0.28025478 0.98792928
-0.87067467 -0.27758691 0.81925344
-0.85847175 -0.27418163 0.67546082
-0.85789979 -0.27432093 0.55803001
-0.83966893 -0.26880717 0.44452715
-0.83172786 -0.26657727 0.34666586
-0.83256 -0.26715904 0.25747854
-0.82478678 -0.26497433 0.17072052
-0.88968396 -0.28177115 0.91234308
-0.86549562 -0.2746 0.74470848
-0.85628206 -0.2719982 0.61357164
-0.87035275 -0.27696079 0.50968438
-0.84191376 -0.26822767 0.39667568
-0.81978589 -0.26148564 0.29825324
-0.81131113 -0.25893328 0.21099493
-0.82304436 -0.2629863 0.12853025
-0.12919445 0.017512994 13.528758
-0.78739536 -0.22784166 5.2113414
-1.3106664 -0.38806129 6.5951319
-0.73255438 -0.2223631 2.4945779
-1.1009737 -0.33823156 2.772939
-1.0116078 -0.3130753 2.0079086
-0.94110692 -0.29268137 1.5201373
-0.89218277 -0.2784774 1.1956338
-0.53234535 -0.12668687 5.0608025
-1.2413826 -0.37080178 5.0256433
-1.1599993 -0.35239634 3.3510499
-1.0421875 -0.31976065 2.3178697
-0.97354066 -0.30035472 1.7366546
-0.90057445 -0.27903548 1.3231975
-0.88816875 -0.27602646 1.0865644
-0.88157654 -0.27717918 0.98792928
-0.8716383 -0.274546 0.81925344
-0.85942352 -0.27118331 0.67546082
-0.85885209 -0.27132463 0.55803001
-0.836182 -0.26447669 0.44265413
-0.83265334 -0.26367238 0.34666586
-0.83348751 -0.26425126 0.25747854
-0.82570666 -0.26209366 0.17072052
-0.88709867 -0.27754915 0.90901756
-0.8625918 -0.27036846 0.74176532
-0.85311317 -0.267717 0.61103851
-0.87131423 -0.27392101 0.50968438
-0.83834052 -0.26386955 0.39503217
-0.82069361 -0.25862247 0.29825324
-0.81221008 -0.25609967 0.21099493
-0.82395732 -0.26011172 0.12853025
-0.12913254 0.017963858 13.528758
-0.78370249 -0.22381379 5.181706
-1.309081 -0.38262755 6.5804462
-0.73189622 -0.21937647 2.4898059
-1.1002781 -0.33381945 2.7683365
-1.010404 -0.30884239 2.0035193
-0.93943274 -0.28856847 1.5160043
-0.89008635 -0.27441731 1.1917962
-0.53278434 -0.12482786 5.0608025
-1.2414638 -0.36611098 5.0208039
-1.1612223 -0.34834507 3.3510499
-1.0412138 -0.31548974 2.3133683
-0.97208822 -0.29619467 1.7323887
-0.90154296 -0.2758902 1.3231975
-0.88588589 -0.27192992 1.0828893
-0.88253874 -0.27410021 0.98792928
-0.86887467 -0.27034557 0.81611502
-0.86036491 -0.26818171 0.67546082
-0.85979396 -0.268325 0.55803001
-0.83710015 -0.26155624 0.44265413
-0.83356869 -0.26076424 0.34666586
-0.83440477 -0.2613402 0.25747854
-0.82186466 -0.25771976 0.17027344
-0.88806206 -0.27445093 0.90901756
-0.86353034 -0.2673558 0.74176532
-0.85404247 -0.26473746 0.61103851
-0.87226516 -0.27087787 0.50968438
-0.83925653 -0.26094159 0.39503217
-0.82159138 -0.25575614 0.29825324
-0.80837101 -0.25179037 0.21030425
-0.82486022 -0.25723401 0.12853025
-0.12902625 0.018406024 13.523758
-0.78148705 -0.22023524 5.1619492
-1.3084518 -0.37749159 6.5706553
-0.73122603 -0.21639714 2.4850338
-1.0995651 -0.3294163 2.7637341
-1.0091829 -0.3046217 1.9991302
-0.93504846 -0.28365421 1.5077385
-0.89103884 -0.27130866 1.1917962
-0.53321677 -0.12296734 5.0608025
-1.2403203 -0.36107302 5.0111251
-1.1376107 -0.33694208 3.2806582
-1.0402231 -0.31122962 2.3088672
-0.97311622 -0.29279965 1.7323887
-0.899616 -0.27187011 1.3192074
-0.88358521 -0.26785263 1.0792141
-0.88349009 -0.27101791 0.98792928
-0.86981308 -0.26731098 0.81611502
-0.86129582 -0.26517683 0.67546082
-0.86072534 -0.26532212 0.55803001
-0.83800799 -0.25863263 0.44265413
-0.82989061 -0.25643685 0.34525582
-0.83531201 -0.25842601 0.25747854
-0.82275927 -0.25484934 0.17027344
-0.8890146 -0.27134934 0.90901756
-0.86445832 -0.26433989 0.74176532
-0.8549614 -0.26175469 0.61103851
-0.86886626 -0.26650074 0.5075863
-0.84016228 -0.25801045 0.39503217
-0.82247913 -0.25288671 0.29825324
-0.80924505 -0.24896708 0.21030425
-0.82575315 -0.25435314 0.12853025
-0.12900397 0.01886493 13.528758
-0.77251786 -0.21480492 5.0977387
-1.3078029 -0.37236476 6.5608654
-0.73054403 -0.21342516 2.480262
-1.0988349 -0.32502222 2.7591317
-1.0102401 -0.30109715 1.9991302
-0.93333721 -0.27958134 1.5036055
-0.89198047 -0.26819673 1.1917962
-0.53416288 -0.12122224 5.065774
-1.2391568 -0.35604748 5.0014462
-1.0658985 -0.31167081 3.0741765
-1.0392153 -0.30698016 2.3043661
-0.97163224 -0.28865862 1.7281228
-0.90055954 -0.2687282 1.3192074
-0.88451475 -0.26476672 1.0792141
-0.88443077 -0.2679323 0.98792928
-0.87074083 -0.26427314 0.81611502
-0.86221617 -0.26216874 0.67546082
-0.85740846 -0.26102605 0.55571121
-0.83890575 -0.25570586 0.44265413
-0.83078063 -0.25353843 0.34525582
-0.83620894 -0.25550866 0.25747854
-0.82364386 -0.25197583 0.17027344
-0.88638145 -0.26716712 0.90569204
-0.86150634 -0.26015249 0.73882216
-0.85586989 -0.25876871 0.61103851
-0.86979127 -0.26346618 0.5075863
-0.84105778 -0.25507617 0.39503217
-0.82335687 -0.25001416 0.29825324
-0.81010914 -0.24614078 0.21030425
-0.82663596 -0.25146917 0.12853025
-0.12893735 0.019315122 13.528758
-0.78150666 -0.21436378 5.15207
-1.307134 -0.36724702 6.5510745
-0.72841585 -0.21004739 2.4707179
-1.0980872 -0.32063723 2.754529
-1.0089874 -0.29689312 1.9947413
-0.9316088 -0.27552387 1.4994725
-0.8898384 -0.26416954 1.1879587
-0.53458273 -0.11935692 5.065774
-1.2391827 -0.35137722 4.9966068
-0.9956829 -0.28738287 2.8723876
-1.0381905 -0.30274162 2.299865
-0.97013128 -0.2845315 1.7238568
-0.90149206 -0.26558304 1.3192074
-0.88218242 -0.260717 1.0755389
-0.88536066 -0.26484346 0.98792928
-0.87165803 -0.26123208 0.81611502
-0.8631261 -0.25915745 0.67546082
-0.85831434 -0.25803155 0.55571121
-0.83535391 -0.2514399 0.44078106
-0.82706755 -0.24925281 0.34384581
-0.83709574 -0.25258818 0.25747854
-0.81975126 -0.24765904 0.16982636
-0.88730866 -0.26407146 0.90569204
-0.86240917 -0.25714368 0.73882216
-0.85676789 -0.25577959 0.61103851
-0.86635739 -0.25912806 0.50548828
-0.84194303 -0.25213879 0.39503217
-0.82422459 -0.2471386 0.29825324
-0.81570661 -0.2447345 0.21099493
-0.83229345 -0.25001943 0.12873179
-0.12886913 0.019765081 13.528758
-0.78074986 -0.21122941 5.1421914
-1.3064455 -0.36213851 6.5412846
-0.72770882 -0.20709528 2.465946
-1.0954452 -0.31572062 2.7453239
-1.0077175 -0.29270151 1.990352
-0.92986363 -0.27148187 1.4953396
-0.89075512 -0.26106182 1.1879587
-0.53499615 -0.11749015 5.065774
-1.2379806 -0.34637263 4.986928
-0.90373486 -0.25744694 2.6095927
-1.0371488 -0.29851392 2.2953637
-0.96861333 -0.28041837 1.7195909
-0.89952016 -0.26159346 1.3152174
-0.8830871 -0.25763601 1.0755389
-0.88285947 -0.26074144 0.98442477
-0.86883223 -0.25708365 0.81297654
-0.86001647 -0.25495473 0.67271936
-0.85920984 -0.25503391 0.55571121
-0.83622652 -0.24852243 0.44078106
-0.8279326 -0.24636431 0.34384581
-0.83797234 -0.24966465 0.25747854
-0.82061076 -0.24479607 0.16982636
-0.88822496 -0.26097256 0.90569204
-0.86330146 -0.25413173 0.73882216
-0.85765553 -0.25278735 0.61103851
-0.86725664 -0.25610232 0.50548828
-0.84281802 -0.24919833 0.39503217
-0.82508224 -0.24426 0.29825324
-0.81655586 -0.24188568 0.21099493
-0.83316106 -0.24711266 0.12873179
-0.12884204 0.020223878 13.533757
-0.7829842 -0.20890266 5.15207
-1.3067194 -0.35730761 6.5363889
-0.72699004 -0.20415069 2.461174
-1.0946614 -0.31136069 2.7407215
-1.0041285 -0.2878626 1.9815739
-0.92810154 -0.26745543 1.4912066
-0.89166099 -0.2579509 1.1879587
-0.53540295 -0.11562195 5.065774
-1.2379704 -0.34171489 4.9820886
-0.86973929 -0.24449053 2.5110447
-1.0360904 -0.29429722 2.2908626
-0.96707857 -0.27631932 1.715325
-0.90042782 -0.25845194 1.3152174
-0.88072312 -0.25361404 1.0718638
-0.88376421 -0.25765812 0.98442477
-0.86972433 -0.2540493 0.81297654
-0.86090118 -0.25195116 0.67271936
-0.85584372 -0.25078762 0.55339235
-0.84153742 -0.24690698 0.44265413
-0.82878751 -0.24347278 0.34384581
-0.83412611 -0.24535193 0.2565459
-0.82146019 -0.24193011 0.16982636
-0.88554442 -0.25683063 0.90236646
-0.86418331 -0.25111672 0.73882216
-0.85853267 -0.24979204 0.61103851
-0.86378813 -0.25180349 0.50339019
-0.84368277 -0.24625482 0.39503217
-0.82126433 -0.24001503 0.29708093
-0.81739527 -0.23903388 0.21099493
-0.83401865 -0.24420288 0.12873179
-0.12877066 0.020673497 13.533757
-0.78295696 -0.20597094 5.147131
-1.3059924 -0.35221434 6.5265985
-0.72769821 -0.20161177 2.461174
-1.0919795 -0.30648237 2.7315164
-1.0028225 -0.2837041 1.977185
-0.9263227 -0.26344463 1.4870737
-0.88947386 -0.25395715 1.1841213
-0.53580332 -0.11375234 5.065774
-1.2379429 -0.33706155 4.9772491
-0.85395741 -0.23684432 2.4641168
-1.0350151 -0.29009154 2.2863612
-0.96803719 -0.27294192 1.715325
-0.89842522 -0.25448632 1.3112274
-0.88160306 -0.2505382 1.0718638
-0.88465822 -0.25457162 0.98442477
-0.86686575 -0.24993376 0.80983812
-0.85775816 -0.24778423 0.66997784
-0.85671395 -0.24779862 0.55339235
-0.83794111 -0.24267848 0.44078106
-0.82963234 -0.24057828 0.34384581
-0.83497745 -0.24243879 0.2565459
-0.82229972 -0.23906121 0.16982636
-0.88643551 -0.25373796 0.90236646
-0.86116916 -0.24698448 0.735879
-0.85939944 -0.24679367 0.61103851
-0.86466181 -0.24878676 0.50339019
