# .PCD v0.7 - Point Cloud Data file format
VERSION 0.7
FIELDS x y z
SIZE 4 4 4
TYPE F F F
COUNT 1 1 1
WIDTH 1457
HEIGHT 1
VIEWPOINT 0 0 0 1 0 0 0
POINTS 1457
DATA ascii
-0.85140663 0.57528812 1.0895611
-0.83489627 0.56350666 0.89457643
-0.82697439 0.55754155 0.73851454
-0.8241381 0.55522013 0.6067248
-0.82365739 0.55448771 0.48947993
-0.80429548 0.54105383 0.37486652
-0.81127512 0.54534417 0.27706355
-0.81007743 0.54413795 0.18055625
-0.8467114 0.57384509 0.99215508
-0.82555008 0.55888343 0.80945796
-0.8227132 0.5565533 0.66930163
-0.8169449 0.55203682 0.54325318
-0.80665523 0.5446825 0.42790234
-0.8099938 0.54653472 0.32638884
-0.80046374 0.5399071 0.22688057
-0.79934698 0.53875726 0.13256088
-1.4256781 1.0198094 11.14339
-1.2291605 0.86734235 7.2559876
-1.0426744 0.72523695 4.1075082
-0.95261931 0.65772003 2.7867467
-0.90029693 0.61884475 2.0693557
-0.8779574 0.60171002 1.63586
-0.86674154 0.59271044 1.3337839
-0.50421023 0.43145606 11.315518
-1.0837036 0.85844064 12.851149
-1.104611 0.77545601 5.2337389
-1.0096641 0.70178318 3.3979776
-0.92731076 0.64074445 2.3943901
-0.88634276 0.61040604 1.8305051
-0.86406368 0.59352946 1.4628483
-0.85655713 0.58729136 1.2041698
-0.84939337 0.57825661 1.0895611
-0.83292419 0.56641752 0.89457643
-0.82848197 0.5627746 0.741256
-0.82586008 0.56058151 0.6090436
-0.82171685 0.55735934 0.48947993
-0.80637276 0.54654956 0.37627655
-0.80936658 0.54817277 0.27706355
-0.80817312 0.54696232 0.18055625
-0.84778649 0.57890284 0.99548054
-0.82359415 0.56176174 0.80945796
-0.82432753 0.56184983 0.67183477
-0.81501293 0.55488515 0.54325318
-0.80474901 0.54749495 0.42790234
-0.80808109 0.54935879 0.32638884
-0.80266994 0.54548138 0.22757125
-0.79746151 0.54154426 0.13256088
-1.4265215 1.0279605 11.177964
-1.2294446 0.87398815 7.2755685
-1.0425811 0.73058569 4.1170521
-0.95512849 0.66438866 2.800554
-0.90010005 0.62334728 2.0737445
-0.87816721 0.60637021 1.6399928
-0.86730659 0.59755099 1.3376215
-0.50270116 0.43321344 11.315518
-1.0802841 0.86188549 12.846177
-1.1049757 0.78148508 5.2482567
-1.0100352 0.70728338 3.4073629
-0.92685509 0.64522141 2.3988914
-0.88634944 0.6149832 1.8347712
-0.86446428 0.59825695 1.4668382
-0.85729098 0.59220475 1.2078449
-0.85031044 0.58323538 1.0930656
-0.83415276 0.5715217 0.89771485
-0.82996303 0.56802487 0.74399745
-0.8238982 0.56346089 0.6090436
-0.8235938 0.5628401 0.49135295
-0.80446005 0.54936099 0.37627655
-0.81150568 0.55376357 0.27799615
-0.80625892 0.54978007 0.18055625
-0.84883666 0.58397514 0.99880606
-0.82495946 0.56692272 0.81240118
-0.82591474 0.56716424 0.67436796
-0.81681359 0.56029403 0.54535127
-0.80283296 0.55030072 0.42790234
-0.80214846 0.54942936 0.32521653
-0.80076092 0.54827988 0.22757125
-0.79968953 0.54714572 0.1327624
-1.4273256 1.0361301 11.21254
-1.2305248 0.88123941 7.3000441
-1.0436826 0.73680383 4.1313686
-0.95600313 0.66996151 2.8097594
-0.90184665 0.62922662 2.0825229
-0.87835509 0.61103904 1.6441258
-0.86784846 0.60240275 1.3414589
-0.50096834 0.43477574 11.310527
-1.0760232 0.86464846 12.831263
-1.1053119 0.78752607 5.2627749
-1.0117899 0.7137897 3.4214413
-0.9281615 0.65095323 2.4078939
-0.88633466 0.61956781 1.8390369
-0.8648423 0.60299444 1.4708283
-0.85800105 0.59713036 1.2115201
-0.8482694 0.5862 1.0930656
-0.83215266 0.57442993 0.89771485
-0.82797521 0.57091856 0.74399745
-0.82557404 0.56884694 0.6113624
-0.82162404 0.56571156 0.49135295
-0.80648947 0.55488491 0.37768659
-0.8136155 0.55937588 0.27892879
-0.80843955 0.55541104 0.18100333
-0.84986156 0.58906174 1.0021316
-0.82629859 0.57209986 0.81534433
-0.82392991 0.57004374 0.67436796
-0.81485283 0.56314188 0.54535127
-0.80479276 0.55578333 0.42954585
-0.80022568 0.55222607 0.32521653
-0.80291843 0.55388373 0.22826193
-0.80188799 0.55276924 0.13296394
-1.4274626 1.0438588 11.242175
-1.2315693 0.8885088 7.3245206
-1.0435368 0.74217314 4.1409121
-0.95685041 0.67554843 2.8189645
-0.901604 0.63374835 2.0869119
-0.87852108 0.61571658 1.6482588
-0.86574036 0.6054284 1.3414589
-0.49944761 0.43652177 11.310527
-1.0754831 0.8704133 12.861093
-1.1056192 0.79357898 5.2772937
-1.0135115 0.72031683 3.4355197
-0.92943919 0.65670198 2.4168963
-0.88629884 0.62415975 1.843303
-0.86519778 0.60774177 1.4748185
-0.85591149 0.60012174 1.2115201
-0.84914464 0.59119529 1.0965703
-0.83333784 0.57955366 0.90085334
-0.82941121 0.57619101 0.74673891
-0.82358336 0.57172525 0.6113624
-0.82345343 0.57121861 0.49322599
-0.8084901 0.56042963 0.37909663
-0.81569612 0.56500971 0.27986142
-0.8064959 0.55822968 0.18100333
-0.8478002 0.59202468 1.0021316
-0.82761163 0.5772934 0.81828749
-0.82547146 0.57538146 0.67690116
-0.8166067 0.56857622 0.54744929
-0.8028478 0.55858916 0.42954585
-0.79829317 0.55501598 0.32521653
-0.80098015 0.55668312 0.22826193
-0.79995364 0.555565 0.13296394
-1.427563 1.0516009 11.271811
-1.2317544 0.89519745 7.3441014
-1.0445796 0.74842 4.1552286
-0.95767021 0.68114948 2.8281696
-0.90329516 0.63966036 2.09569
-0.87866515 0.62040275 1.6523917
-0.86624181 0.61029291 1.3452964
-0.49792081 0.43826255 11.310527
-1.073264 0.87483633 12.871035
-1.1069163 0.80038029 5.2966514
-1.0137969 0.72585982 3.444905
-0.93068796 0.6624676 2.4258988
-0.88836849 0.63026828 1.8518349
-0.86553061 0.612499 1.4788084
-0.85658038 0.60506189 1.2151952
-0.84999543 0.5962038 1.1000748
-0.8313098 0.58245903 0.90085334
-0.8273949 0.57908267 0.74673891
-0.82521266 0.5771355 0.6136812
-0.82145452 0.57408953 0.49322599
-0.80652893 0.5632484 0.37909663
-0.81774718 0.57066476 0.28079402
-0.80862719 0.56388998 0.18145041
-0.84878212 0.59712899 1.005457
-0.82889837 0.5825029 0.82123065
-0.82698572 0.58073688 0.6794343
-0.81461704 0.57142329 0.54744929
-0.80475986 0.56409878 0.43118936
-0.80033207 0.56058782 0.32638884
-0.79903209 0.55947566 0.22826193
-0.79800946 0.55835396 0.13296394
-1.428849 1.0564014 11.296508
-1.2343026 0.90034705 7.3685775
-1.0456953 0.75198537 4.164772
-0.9580698 0.68395519 2.8327718
-0.90412927 0.6426236 2.1000791
-0.87987667 0.62356263 1.6565247
-0.86779231 0.61365467 1.349134
-0.49715513 0.4391309 11.310527
-1.0725602 0.87738395 12.880978
-1.108569 0.80452639 5.3111696
-1.0167322 0.73064995 3.4589834
-0.93307269 0.66662228 2.4349012
-0.88939154 0.63333094 1.8561009
-0.86691678 0.61575383 1.4827985
-0.85552305 0.606556 1.2151952
-0.85186952 0.59973961 1.1035793
-0.83347565 0.58614826 0.90399176
-0.82980442 0.58292961 0.74948037
-0.82420415 0.57857496 0.6136812
-0.82424647 0.57818466 0.49509901
-0.80947274 0.56740868 0.38050666
-0.82077336 0.57490939 0.28172666
-0.81172168 0.56815618 0.18189749
-0.84773868 0.59860951 1.005457
-0.83118337 0.58627862 0.82417381
-0.82597083 0.58217937 0.6794343
-0.81732941 0.5754571 0.54954737
-0.80763608 0.56821978 0.43283287
-0.79935247 0.56198382 0.32638884
-0.7980544 0.56086934 0.22826193
-0.80112219 0.56261718 0.13316546
-1.428268 1.0637037 11.321203
-1.2344339 0.90706241 7.3881583
-1.0454814 0.75738281 4.1743164
-0.95884842 0.68957704 2.8419769
-0.90577483 0.64856464 2.1088572
-0.8799848 0.6282655 1.6606575
-0.86564493 0.61668015 1.349134
-0.4958345 0.44105607 11.315518
-1.0703132 0.88180101 12.890921
-1.1098123 0.81135917 5.3305273
-1.0183686 0.7372309 3.4730618
-0.93250686 0.67114723 2.4394026
-0.88929427 0.63795203 1.8603667
-0.86476213 0.6187762 1.4827985
-0.85615909 0.6115092 1.2188703
-0.85267955 0.60477281 1.1070838
-0.83460033 0.59130436 0.90713024
-0.82776457 0.58582264 0.74948037
-0.8221795 0.58144844 0.6136812
-0.82222319 0.58105826 0.49509901
-0.80748719 0.57023084 0.38050666
-0.82277507 0.58060324 0.28265926
-0.80973351 0.57098609 0.18189749
-0.84868628 0.60372949 1.0087825
-0.82913184 0.58917648 0.82417381
-0.82744843 0.58755499 0.6819675
-0.81901753 0.5809325 0.55164546
-0.80950022 0.57376623 0.43447638
-0.79738587 0.56477064 0.32638884
-0.79609174 0.56365168 0.22826193
-0.79915339 0.5654102 0.13316546
-1.4276533 1.0710149 11.3459
-1.2353516 0.91439551 7.4126348
-1.0464482 0.763668 4.188632
-0.95959938 0.69521266 2.851182
-0.90544772 0.6531238 2.1132464
-0.88007081 0.63297671 1.6647905
-0.86609089 0.62156707 1.3529714
-0.4942919 0.44278419 11.315518
-1.0672287 0.88553178 12.890921
-1.1110213 0.81821042 5.349885
-1.0199715 0.74383217 3.4871402
-0.93192065 0.67567617 2.4439037
-0.88917571 0.64258009 1.8646327
-0.86504114 0.62355316 1.4867885
-0.85401928 0.61449403 1.2188703
-0.85346478 0.60981894 1.1105883
-0.83569926 0.59647542 0.91026872
-0.82911927 0.5911361 0.75222182
-0.82014483 0.58431482 0.6136812
-0.82018995 0.58392489 0.49509901
-0.80549175 0.57304597 0.38050666
-0.82474697 0.58631802 0.2835919
-0.81179523 0.57669324 0.18234457
-0.84960848 0.60886335 1.0121081
-0.83035678 0.59442008 0.82711697
-0.82539243 0.59043974 0.6819675
-0.81698471 0.58378786 0.55164546
-0.81133544 0.57933259 0.43611988
-0.79540962 0.5675506 0.32638884
-0.79815096 0.5693028 0.2289526
-0.80124319 0.571096 0.133367
-1.4243134 1.0806026 11.365657
-1.2344611 0.9241178 7.4371109
-1.0445682 0.77127415 4.1981759
-0.95727718 0.70171648 2.8557847
-0.90372032 0.65958273 2.1176355
-0.87868536 0.63969147 1.6689235
-0.86508977 0.62842906 1.3568089
-0.49179122 0.44598982 11.32051
-1.0612358 0.89187652 12.885949
-1.1098876 0.82818264 5.3692427
-1.0208286 0.75432909 3.5059111
-0.92753792 0.68168008 2.4439037
-0.88711131 0.64985013 1.8688986
-0.86342925 0.63090432 1.4907786
-0.85266358 0.62214303 1.2225455
-0.85315073 0.61636794 1.1140929
-0.83561552 0.60326678 0.91340715
-0.82590878 0.59561336 0.75222182
-0.82056522 0.59133369 0.616
-0.81691587 0.58849657 0.49509901
-0.80617189 0.58033848 0.38191667
-0.82135636 0.59105843 0.2835919
-0.80835885 0.58150035 0.18234457
-0.84587336 0.61404198 1.0121081
-0.82671016 0.59948128 0.82711697
-0.82515639 0.59814429 0.68450069
-0.81687325 0.59171408 0.55374348
-0.8114025 0.58732885 0.43776339
-0.791628 0.57281339 0.32638884
-0.79435766 0.57458377 0.2289526
-0.79733729 0.57653666 0.133367
-1.4231915 1.0872071 11.385413
-1.2346417 0.93065858 7.4566917
-1.0457338 0.77722383 4.212492
-0.9582116 0.70704061 2.8649898
-0.90550357 0.66525501 2.1264138
-0.88132334 0.64562207 1.6771894
-0.86580884 0.63288474 1.3606465
-0.49062192 0.44727579 11.32051
-1.0590534 0.89446694 12.885949
-1.1118824 0.83390957 5.3886003
-1.0231382 0.75990862 3.5199893
-0.92774004 0.68507624 2.448405
-0.88773483 0.65340745 1.8731647
-0.86442435 0.63464516 1.4947685
-0.85409307 0.62593162 1.2262206
-0.85387737 0.62144101 1.1175975
-0.83675855 0.60832334 0.91654563
-0.82731235 0.60080606 0.75496328
-0.8185997 0.59405154 0.616
-0.815063 0.5910601 0.49509901
-0.80434477 0.58286822 0.38191667
-0.82357764 0.59637392 0.2845245
-0.81076628 0.58667481 0.18279165
-0.84727859 0.61845583 1.0154335
-0.82840377 0.60402501 0.83006012
-0.82369238 0.60015869 0.68450069
-0.81919795 0.59623682 0.55584157
-0.8138867 0.59194589 0.4394069
-0.79435843 0.57732785 0.32756117
-0.79715884 0.57915699 0.22964329
-0.80027175 0.58100152 0.13356853
-1.4218506 1.0940644 11.40517
-1.2354397 0.93804204 7.4811673
-1.0454038 0.78265893 4.2220359
-0.95887345 0.71271235 2.8741946
-0.90510088 0.6698367 2.1308026
-0.88132846 0.65036565 1.6813223
-0.86617523 0.63780379 1.364484
-0.48905766 0.44898564 11.32051
-1.055519 0.89781266 12.880978
-1.1139787 0.84157497 5.4127975
-1.0246242 0.7665773 3.5340676
-0.92534298 0.68831056 2.448405
-0.88963836 0.65960932 1.8816965
-0.86462629 0.63945061 1.4987586
-0.85463023 0.63092279 1.2298958
-0.85457891 0.62652659 1.121102
-0.83463001 0.61124051 0.91654563
-0.82521003 0.60369027 0.75496328
-0.82009721 0.59951973 0.6183188
-0.81673825 0.5966363 0.49697205
-0.8061797 0.5885008 0.38332671
-0.82149088 0.59924507 0.2845245
-0.8087135 0.58950138 0.18279165
-0.8481226 0.62362158 1.018759
-0.82954788 0.60930598 0.83300328
-0.82506758 0.6055811 0.68703383
-0.81711167 0.59909272 0.55584157
-0.81562454 0.59757423 0.44105041
-0.79233837 0.58009714 0.32756117
-0.79513228 0.58193606 0.22964329
-0.79823881 0.58379143 0.13356853
-1.4204791 1.1009253 11.424928
-1.2345839 0.94420499 7.4958534
-1.0462404 0.78900015 4.236352
-0.95950723 0.71839738 2.8833997
-0.90467727 0.67442369 2.1351919
-0.88131124 0.65511703 1.6854552
-0.86651784 0.6427331 1.3683214
-0.48748744 0.45069003 11.32051
-1.0515695 0.90079737 12.871035
-1.1160351 0.84926516 5.4369946
-1.0246981 0.77222675 3.5434532
-0.92641872 0.69414753 2.4574075
-0.88941985 0.66427141 1.8859622
-0.86480516 0.64426523 1.5027486
-0.85242265 0.63390213 1.2298958
-0.85525537 0.63162452 1.1246065
-0.83562338 0.61646104 0.91968405
-0.82646388 0.60904795 0.75770479
-0.8215664 0.60500562 0.6206376
-0.81465065 0.59948361 0.49697205
-0.80798519 0.59415329 0.38473675
-0.82335258 0.60501784 0.28545713
-0.80665082 0.59232074 0.18279165
-0.84894085 0.62880081 1.0220846
-0.82741594 0.61219788 0.83300328
-0.82294869 0.60845751 0.68703383
-0.81866628 0.6046378 0.55793959
-0.81733304 0.60322189 0.44269392
-0.79422039 0.5857445 0.3287335
-0.79708207 0.58764672 0.23033397
-0.80021834 0.5895375 0.13377006
-1.4184645 1.1073118 11.439746
-1.2377323 0.95348096 7.5350151
-1.045857 0.79445368 4.2458959
-0.96011299 0.7240954 2.8926048
-0.90614754 0.68045408 2.14397
-0.88127136 0.65987623 1.6895882
-0.86683643 0.64767253 1.3721589
-0.48591125 0.45238897 11.32051
-1.0480154 0.90411407 12.866063
-1.1180513 0.85697985 5.4611917
-1.0261192 0.77892959 3.5575314
-0.92572743 0.69868863 2.4619086
-0.88917971 0.66894019 1.8902283
-0.86496097 0.64908886 1.5067385
-0.85291803 0.63890648 1.2335709
-0.85590655 0.63673496 1.1281111
-0.83659047 0.62169588 0.92282254
-0.82769024 0.61442155 0.76044625
-0.82300717 0.61050898 0.6229564
-0.81627733 0.60508442 0.49884507
-0.8059063 0.59697002 0.38473675
-0.82123566 0.60788816 0.28545713
-0.80457836 0.59513283 0.18279165
-0.84973317 0.63399333 1.0254101
-0.8285147 0.61749798 0.83594644
-0.82427686 0.61390138 0.68956703
-0.82019186 0.61020094 0.56003767
-0.81901211 0.60888869 0.44433743
-0.7960726 0.59141201 0.32990581
-0.79502589 0.59042543 0.23033397
-0.79815567 0.59232724 0.13377006
-1.4166172 1.1134504 11.454564
-1.2418035 0.96319813 7.5790725
-1.0467732 0.80063856 4.2602119
-0.96081805 0.72963876 2.9018097
-0.90579623 0.68489993 2.1483591
-0.88132513 0.66448933 1.6937212
-0.86724514 0.65247071 1.3759965
-0.48440844 0.45399779 11.32051
-1.0450115 0.90758443 12.866063
-1.120178 0.86452347 5.4853888
-1.0264093 0.78424513 3.5669169
-0.92699444 0.70422769 2.4709108
-0.89123183 0.67487961 1.8987602
-0.86532182 0.65361935 1.5107286
-0.85361338 0.64362407 1.2372462
-0.85379034 0.63956964 1.1281111
-0.83452421 0.62446678 0.92282254
-0.82899725 0.61966652 0.76318777
-0.82452703 0.61588591 0.62527519
-0.81437236 0.60764587 0.49884507
-0.80787253 0.60236645 0.38614678
-0.8192153 0.6106081 0.28545713
-0.80260032 0.59779763 0.18279165
-0.85072279 0.63890207 1.0287355
-0.82980394 0.62252361 0.8388896
-0.82579327 0.61907381 0.69210023
-0.82179606 0.61563861 0.5621357
-0.81698841 0.61160129 0.44433743
-0.79410708 0.59404862 0.32990581
-0.79316711 0.59292012 0.23033397
-0.79629087 0.59483176 0.13377006
-1.4143536 1.1200825 11.46938
-1.244682 0.97276032 7.6182342
-1.0473783 0.80720407 4.274528
-0.96124005 0.73553026 2.9110148
-0.90518481 0.68966687 2.1527481
-0.88112426 0.66941762 1.697854
-0.8648479 0.65564489 1.3759965
-0.48266163 0.45585445 11.32051
-1.041118 0.91123891 12.861093
-1.1218102 0.8726781 5.5095859
-1.0259866 0.79046589 3.5763025
-0.92761606 0.7105912 2.4799132
-0.89058816 0.68003476 1.903026
-0.86508799 0.65891367 1.5147187
-0.85372132 0.6490975 1.2409213
-0.85428673 0.6448434 1.1316158
-0.83533752 0.62986475 0.92596096
-0.83006036 0.62521666 0.76592922
-0.82226413 0.61890376 0.62527519
-0.81573802 0.61355507 0.50071812
-0.80938828 0.60834622 0.38755682
-0.81686473 0.61374915 0.28545713
-0.80029905 0.60087502 0.18279165
-0.84826332 0.64216393 1.0287355
-0.83063126 0.62814337 0.84183276
-0.82341015 0.62224007 0.69210023
-0.81942612 0.61878955 0.5621357
-0.8184033 0.61757827 0.44598094
-0.79570103 0.60001987 0.33107814
-0.7907806 0.59609938 0.23033397
-0.79389662 0.59802347 0.13377006
-1.4120427 1.1254892 11.479259
-1.2480212 0.9817031 7.6573958
-1.0483751 0.81323576 4.2888436
-0.96201998 0.74093103 2.9202199
-0.90491396 0.69396484 2.1571372
-0.88136971 0.67373818 1.701987
-0.86544704 0.6601522 1.3798339
-0.48159558 0.45739987 11.325501
-1.0381695 0.91379017 12.85612
-1.124318 0.87968105 5.533783
-1.0265032 0.7954424 3.5856881
-0.92907673 0.71583652 2.4889157
-0.89087331 0.68395233 1.907292
-0.86575216 0.66300851 1.5187087
-0.85471237 0.65338945 1.2445965
-0.85509616 0.64968175 1.1351203
-0.83645493 0.63483924 0.92909944
-0.83142418 0.63034761 0.76867068
-0.82395548 0.62401533 0.62759399
-0.81761062 0.61877048 0.50259119
-0.8075797 0.61074507 0.38755682
-0.81895852 0.61913258 0.28638974
-0.79851276 0.60324693 0.18279165
-0.84932435 0.64694053 1.032061
-0.82876384 0.6306051 0.84183276
-0.82510126 0.62714577 0.69463336
-0.82130909 0.62382066 0.56423378
-0.81667548 0.6198613 0.44598094
-0.79402232 0.60223955 0.33107814
-0.79305893 0.6012972 0.23102465
-0.79222351 0.60023814 0.13377006
-1.410289 1.12893 11.484199
-1.2515544 0.9887343 7.6916623
-1.0503446 0.81799906 4.3031597
-0.96368635 0.74516702 2.929425
-0.90749699 0.69846511 2.1659153
-0.88230675 0.6771425 1.70612
-0.86683851 0.66361028 1.3836714
-0.48087651 0.45815581 11.325501
-1.0363336 0.9150666 12.851149
-1.1280324 0.88513058 5.5579801
-1.0281163 0.79899311 3.5950737
-0.92979884 0.71846437 2.493417
-0.89405006 0.6883781 1.9158239
-0.86721522 0.66605228 1.5226986
-0.8566041 0.65649557 1.2482716
-0.85373366 0.6514712 1.1351203
-0.83833045 0.63880312 0.93223786
-0.83021241 0.63194269 0.76867068
-0.82628208 0.62827742 0.62991279
-0.81642115 0.6203391 0.50259119
-0.8102262 0.61519539 0.38896683
-0.8178767 0.620561 0.28638974
-0.79349041 0.60163081 0.18234457
-0.85127366 0.65054113 1.0353866
-0.8310957 0.63421392 0.84477592
-0.82754278 0.63105512 0.69716656
-0.82404751 0.62771708 0.5663318
-0.81956649 0.62386119 0.44762444
-0.79715502 0.60615134 0.33225045
-0.79232371 0.60226566 0.23102465
-0.79148966 0.60120559 0.13377006
-1.4075493 1.1348215 11.494078
-1.2544684 0.99816996 7.7308245
-1.050862 0.82460827 4.3174753
-0.96403062 0.75109595 2.9386299
-0.90670055 0.70341271 2.1703045
-0.88192588 0.68224728 1.7102529
-0.86670464 0.66904336 1.387509
-0.47916088 0.46036661 11.330494
-1.0320936 0.91904485 12.846177
-1.1290863 0.89394623 5.5821776
-1.027336 0.80560154 3.6044593
-0.93008828 0.72519201 2.5024195
-0.89297622 0.69402874 1.9200897
-0.86656511 0.67182714 1.5266887
-0.85350096 0.6605249 1.2482716
-0.85428178 0.65662074 1.1386248
-0.83598346 0.64187145 0.93223786
-0.83120841 0.63752627 0.77141213
-0.82386363 0.63144547 0.62991279
-0.81771362 0.62628829 0.50446421
-0.80785805 0.61830187 0.38896683
-0.81938976 0.62668115 0.28732237
-0.79513115 0.60769719 0.18279165
-0.8485412 0.65410125 1.0353866
-0.831523 0.64030039 0.84771907
-0.82478142 0.63465995 0.69716656
-0.82130075 0.63130671 0.5663318
-0.81683666 0.62743133 0.44762444
-0.79439622 0.60976243 0.33225045
-0.79351133 0.60886961 0.23171534
-0.79271793 0.607831 0.13397159
-1.4041826 1.1402179 11.499017
-1.2573318 1.0076381 7.7699862
-1.0503191 0.83012301 4.3270197
-0.96447653 0.75686896 2.947835
-0.90612668 0.70804822 2.1746933
-0.88175863 0.68705148 1.7143859
-0.86689425 0.67403227 1.3913465
-0.47755098 0.4620364 11.330494
-1.0284827 0.92228568 12.841206
-1.1298895 0.90101749 5.6015353
-1.0285798 0.81239194 3.6185374
-0.92926317 0.72977901 2.5069206
-0.89260167 0.69874936 1.9243557
-0.86658949 0.67670262 1.5306787
-0.85386372 0.6655845 1.2519468
-0.8548044 0.66178209 1.1421293
-0.83681679 0.64716709 0.93537635
-0.82897794 0.64042377 0.77141213
-0.8251608 0.63702458 0.63223159
-0.81919295 0.63197052 0.50633723
-0.80949396 0.62404692 0.39037687
-0.81719726 0.62953752 0.28732237
-0.7851128 0.60439336 0.18189749
-0.8492018 0.6593492 1.038712
-0.83247668 0.64567643 0.85066223
-0.82596821 0.64017606 0.6996997
-0.82268071 0.63694829 0.56842989
-0.8183763 0.63316846 0.44926795
-0.79226291 0.61253172 0.33225045
-0.79529935 0.61466408 0.23240602
-0.7905913 0.61059439 0.13397159
-1.4007952 1.1456044 11.503957
-1.2593523 1.0164986 7.8042531
-1.0509181 0.83657378 4.3413353
-0.96642631 0.76386601 2.9616427
-0.90553147 0.71268833 2.1790826
-0.88378209 0.69360012 1.7226517
-0.86453617 0.67705423 1.3913465
-0.47593525 0.46370056 11.330494
-1.0244664 0.92515492 12.831263
-1.1316367 0.90889239 5.6257319
-1.0297889 0.81920099 3.6326158
-0.92841733 0.73436898 2.5114219
-0.89220494 0.70347577 1.9286216
-0.86895871 0.68344951 1.5386587
-0.85420156 0.67065477 1.2556219
-0.85530126 0.66695505 1.1456339
-0.83762318 0.65247625 0.93851483
-0.83003747 0.64588165 0.77415359
-0.82293212 0.63990104 0.63223159
-0.82064259 0.63767081 0.5082103
-0.80731064 0.62686878 0.39037687
-0.81887567 0.63539761 0.28825498
-0.80661118 0.6254397 0.18457997
-0.84983611 0.66460967 1.0420375
-0.83340287 0.65106684 0.85360539
-0.82712632 0.64570808 0.7022329
-0.82045227 0.63981611 0.56842989
-0.81616116 0.63602132 0.44926795
-0.79395491 0.61827999 0.33342275
-0.79314893 0.61743641 0.23240602
-0.79239845 0.61641788 0.13417313
-1.397987 1.1514753 11.513834
-1.2621161 1.0260278 7.8434148
-1.0514848 0.84303868 4.3556514
-0.9668107 0.76966882 2.9708476
-0.90679151 0.71882081 2.1878607
-0.88356304 0.69842619 1.7267847
-0.86468393 0.68205303 1.3951839
-0.47410819 0.46515632 11.325501
-1.0208367 0.92836636 12.826291
-1.1333427 0.91679043 5.649929
-1.0309626 0.82602811 3.6466939
-0.92925334 0.7403186 2.5204244
-0.89382821 0.70983005 1.9371535
-0.86892956 0.68834978 1.5426488
-0.85451442 0.67573541 1.2592971
-0.85296798 0.6699366 1.1456339
-0.83840263 0.65779889 0.94165331
-0.8277778 0.6487751 0.77415359
-0.8241809 0.64550126 0.63455039
-0.81841171 0.64053148 0.5082103
-0.80889618 0.63263834 0.3917869
-0.82052314 0.64127713 0.28918761
-0.77694941 0.60679448 0.18145041
-0.85044396 0.66988266 1.0453631
-0.83430159 0.65647161 0.85654855
-0.82825601 0.65125602 0.70476609
-0.82178301 0.64547974 0.57052791
-0.81765056 0.64178199 0.45091146
-0.79179192 0.62104762 0.33342275
-0.79488581 0.62325686 0.23309669
-0.79024184 0.61918008 0.13417313
-1.395155 1.1573406 11.523713
-1.2640407 1.0349435 7.8776813
-1.0520194 0.84951794 4.3699675
-0.96869028 0.77670574 2.9846551
-0.90614831 0.72347617 2.1922498
-0.88332111 0.70325911 1.7309177
-0.86480743 0.68706125 1.3990214
-0.47227675 0.46660498 11.32051
-1.0175898 0.9319241 12.826291
-1.1350075 0.92471147 5.6741261
-1.0334442 0.83395737 3.6654651
-0.93005896 0.74628299 2.5294268
-0.89338171 0.71457511 1.9414195
-0.87123191 0.69513774 1.5506288
-0.85480207 0.68082631 1.2629722
-0.85342097 0.67512256 1.1491385
-0.83915514 0.66313487 0.94479173
-0.82879001 0.65425152 0.77689505
-0.82540047 0.65111792 0.63686919
-0.81981152 0.64625442 0.51008332
-0.80668288 0.63545805 0.3917869
-0.82213944 0.64717585 0.29012021
-0.794397 0.62489772 0.18368581
-0.8510254 0.67516792 1.0486885
-0.83200496 0.65937984 0.85654855
-0.82935685 0.65681958 0.70729923
-0.823084 0.65116018 0.57262594
-0.81910968 0.64756095 0.452555
-0.79343319 0.6268208 0.33459508
-0.79270542 0.62602776 0.23309669
-0.78807569 0.62193477 0.13417313
-1.3922988 1.1632001 11.533591
-1.2651331 1.0432372 7.9070525
-1.0525212 0.85601103 4.3842835
-0.97053248 0.78376526 2.9984629
-0.90734988 0.72963691 2.2010279
-0.8830561 0.70809877 1.7350507
-0.86490631 0.69207853 1.402859
-0.47064507 0.46825069 11.32051
-1.0147222 0.93583226 12.831263
-1.1366307 0.93265533 5.6983237
-1.0345439 0.84082544 3.6795435
-0.93083423 0.752262 2.538429
-0.89494348 0.72096187 1.9499513
-0.87114882 0.70006239 1.5546188
-0.85770899 0.68804902 1.2703226
-0.85384816 0.68031985 1.152643
-0.83988059 0.66848415 0.94793022
-0.82650125 0.65714061 0.77689505
-0.82659084 0.65675086 0.63918799
-0.81755066 0.64911216 0.51008332
-0.80821776 0.64125168 0.39319694
-0.82372451 0.65309364 0.29105285
-0.8515802 0.68046534 1.052014
-0.83285719 0.66480184 0.85949171
-0.83042908 0.66239887 0.70983243
-0.82080609 0.65402931 0.57262594
-0.81684434 0.6504162 0.452555
-0.79504377 0.63261312 0.33576739
-0.7905153 0.62879097 0.23309669
-0.7859 0.62468189 0.13417313
-1.3888245 1.1685535 11.538531
-1.2669661 1.0522015 7.9413185
-1.0529907 0.86251795 4.3985991
-0.97233713 0.790847 3.0122702
-0.90851945 0.73581475 2.209806
-0.88276809 0.71294516 1.7391837
-0.86498082 0.69710487 1.4066964
-0.4690077 0.46989068 11.32051
-1.0122299 0.94009465 12.841206
-1.1382122 0.94062161 5.7225208
-1.0356082 0.84771127 3.6936216
-0.92989093 0.75688106 2.5429304
-0.89444655 0.72572488 1.9542174
-0.87104189 0.70499486 1.5586089
-0.85793895 0.69316959 1.2739978
-0.85424948 0.68552846 1.1561475
-0.837542 0.67141181 0.94793022
-0.82746607 0.66263545 0.77963656
-0.82429326 0.65963221 0.63918799
-0.81890047 0.65485746 0.51195633
-0.80972177 0.64706367 0.39460698
-0.8214398 0.65596497 0.29105285
-0.84919977 0.68343383 1.052014
-0.83368164 0.67023772 0.86243486
-0.82811177 0.66529357 0.70983243
-0.8220576 0.65973127 0.57472402
-0.8182528 0.65621799 0.45419851
-0.79662347 0.63842422 0.33693972
-0.79218024 0.63464278 0.23378737
-0.78761476 0.63054377 0.13437465
-1.3859223 1.1743991 11.548409
-1.2679709 1.0605382 7.9706907
-1.0545788 0.86998862 4.4176869
-0.97410423 0.79795092 3.026078
-0.90965682 0.74200964 2.2185843
-0.8846398 0.71957397 1.7474495
-0.86751914 0.70416027 1.4143715
-0.46736461 0.47152498 11.32051
-1.0097202 0.94435114 12.851149
-1.1407177 0.94941455 5.7515569
-1.0379683 0.85571265 3.7123928
-0.93061 0.76288289 2.5519328
-0.89594662 0.73214358 1.9627492
-0.87091112 0.70993519 1.5625988
-0.85814357 0.69830006 1.277673
-0.85462475 0.6907481 1.1596521
-0.83822161 0.67677665 0.95106864
-0.82514799 0.66551983 0.77963656
-0.82543468 0.66528547 0.64150673
-0.8166095 0.65771198 0.51195633
-0.81119519 0.65289408 0.39601701
-0.82297277 0.66190702 0.29198545
-0.79557288 0.6394217 0.18457997
-0.84970939 0.68874514 1.0553395
-0.83133703 0.67314374 0.86243486
-0.82913554 0.67089188 0.71236569
-0.81974965 0.66259682 0.57472402
-0.81963056 0.66203755 0.45584202
-0.79817235 0.64425397 0.33811203
-0.78996015 0.63740414 0.23378737
-0.78540897 0.63328916 0.13437465
-1.3829964 1.1802388 11.558288
-1.2697116 1.0695506 8.0049572
-1.0549796 0.87652689 4.4320035
-0.97583336 0.80507666 3.0398853
-0.91076201 0.7482214 2.2273624
-0.88429928 0.72444099 1.7515824
-0.8675372 0.70921302 1.418209
-0.46591786 0.47335979 11.325501
-1.0068054 0.94823575 12.85612
-1.1431758 0.95823646 5.7805939
-1.0402852 0.86374074 3.731164
-0.93129855 0.76889908 2.5609353
-0.89741254 0.73858154 1.9712811
-0.87075645 0.71488309 1.5665889
-0.85832268 0.70344037 1.2813481
-0.85497403 0.69597864 1.1631566
-0.83585411 0.67969841 0.95106864
-0.82606542 0.67103267 0.78237802
-0.82654661 0.67095464 0.64382553
-0.817909 0.66347903 0.51382935
-0.8089112 0.65572166 0.39601701
-0.82065731 0.66477567 0.29198545
-0.78559464 0.63592827 0.18368581
-0.85019237 0.69406843 1.058665
-0.83211458 0.67859626 0.86537802
-0.82678866 0.67378205 0.71236569
-0.8209514 0.66831964 0.57682204
-0.81731462 0.66489452 0.45584202
-0.79969019 0.65010238 0.33928433
-0.7877304 0.64015776 0.23378737
-0.78707176 0.63917637 0.13457619
-1.3794574 1.1855659 11.563227
-1.2706283 1.0779293 8.0343285
-1.0564921 0.88403648 4.4510913
-0.97602224 0.81097561 3.0490906
-0.91183501 0.75445002 2.2361407
-0.88393557 0.72931445 1.7557154
-0.86753064 0.71427453 1.4220465
-0.46446401 0.47519028 11.330494
-1.0038759 0.9521116 12.861093
-1.145586 0.96708679 5.8096299
-1.0412349 0.87068826 3.7452421
-0.93195635 0.77492923 2.5699377
-0.8968367 0.74337405 1.975547
-0.87057787 0.7198385 1.5705789
-0.85847646 0.70859045 1.2850233
-0.85529715 0.70121998 1.1666611
-0.83648759 0.68507832 0.95420712
-0.82695419 0.67655987 0.78511947
-0.82419944 0.67383575 0.64382553
-0.81558806 0.66633004 0.51382935
-0.81033331 0.6615752 0.39742702
-0.81833184 0.66763628 0.29198545
-0.79494923 0.64810711 0.18502705
-0.84776443 0.69703192 1.058665
-0.83286405 0.68406224 0.86832118
-0.82776374 0.67939907 0.71489882
-0.82212311 0.67405891 0.57892013
-0.81864148 0.67073631 0.45748553
-0.79741603 0.65288985 0.33928433
-0.78932309 0.64604008 0.23447806
-0.78870302 0.64508283 0.13477771
-1.3764853 1.1913911 11.573106
-1.272276 1.0869887 8.0685949
-1.0568236 0.89060515 4.4654074
-0.97767985 0.81813949 3.0628982
-0.91471517 0.76222837 2.2493079
-0.88571274 0.73599285 1.7639813
-0.86749935 0.7193445 1.425884
-0.46300292 0.47701627 11.335485
-1.0009314 0.95597839 12.866063
-1.1479484 0.9759658 5.8386669
-1.0421487 0.87765288 3.7593205
-0.93258339 0.78097337 2.5789402
-0.89824021 0.74984312 1.9840788
-0.87269074 0.72672993 1.578559
-0.85860473 0.71375012 1.2886984
-0.8555941 0.7064721 1.1701657
-0.83409113 0.68799406 0.95420712
-0.82781446 0.68210155 0.78786093
-0.82526195 0.6795246 0.64614433
-0.81683689 0.6721186 0.51570243
-0.81172419 0.66744643 0.39883706
-0.81979156 0.67360729 0.29291809
-0.79268211 0.65087801 0.18502705
-0.84820187 0.70236844 1.0619905
-0.83047116 0.68696535 0.86832118
-0.82870966 0.685031 0.71743202
-0.82326478 0.67981446 0.58101815
-0.81629515 0.67358983 0.45748553
-0.79888213 0.65876174 0.34045666
-0.79088432 0.65194136 0.23516873
-0.78644645 0.64783204 0.13477771
-1.3734894 1.1972101 11.582985
-1.273876 1.0960729 8.1028614
-1.0582601 0.89815295 4.4844952
-0.97780538 0.82406545 3.0721033
-0.91571772 0.76849622 2.258086
-0.88529611 0.74088621 1.7681142
-0.86498302 0.7223683 1.425884
-0.461335 0.47862953 11.335485
-0.9975884 0.95946646 12.866063
-1.1502626 0.98487288 5.867703
-1.0430266 0.88463444 3.7733986
-0.93484342 0.78843492 2.5924437
-0.89761358 0.75465256 1.9883448
-0.87245721 0.73170823 1.5825491
-0.85870719 0.71891922 1.2923737
-0.8558647 0.71173477 1.1736702
-0.83467841 0.6933887 0.9573456
-0.82864618 0.68765742 0.79060239
-0.82629472 0.685229 0.64846313
-0.81448579 0.6749658 0.51570243
-0.81308413 0.67333555 0.4002471
-0.8174352 0.6764648 0.29291809
-0.79424298 0.65681469 0.18547413
-0.84861231 0.70771641 1.065316
-0.8311736 0.69244742 0.87126434
-0.82631338 0.68791962 0.71743202
-0.82437611 0.68558615 0.58311623
-0.81757051 0.67945337 0.45912904
-0.80031699 0.66465175 0.34162897
-0.79241395 0.65786129 0.23585941
-0.78802532 0.65376318 0.13497925
-1.3710535 1.2035352 11.597801
-1.2754281 1.1051815 8.1371288
-1.0585221 0.90475154 4.4988108
-0.97939098 0.83126682 3.0859108
-0.91668773 0.77478045 2.2668641
-0.88700765 0.74759936 1.7763801
-0.86490905 0.7274465 1.4297215
-0.45966145 0.48023701 11.335485
-0.99423313 0.96294284 12.866063
-1.1525286 0.99380815 5.89674
-1.0438683 0.89163285 3.787477
-0.9354037 0.79451227 2.6014462
-0.89895433 0.76115209 1.9968767
-0.87219965 0.73669374 1.5865391
-0.8587842 0.72409779 1.2960488
-0.85610902 0.71700799 1.1771748
-0.8352381 0.6987958 0.96048403
-0.82944894 0.69322729 0.79334384
-0.82729763 0.69094884 0.65078193
-0.8156839 0.6807754 0.51757544
-0.81441271 0.67924225 0.40165716
-0.81884241 0.68245912 0.29385069
-0.79577202 0.66277021 0.18592121
-0.84899569 0.71307582 1.0686415
-0.83184779 0.69794261 0.8742075
-0.82721031 0.69356948 0.71996522
-0.82545716 0.69137383 0.58521426
-0.81519383 0.68230313 0.45912904
-0.79799205 0.66744137 0.34162897
-0.79391181 0.66379982 0.23655009
-0.78957224 0.65971321 0.13518077
-1.3685901 1.2098579 11.612619
-1.2769318 1.1143141 8.1713953
-1.0587511 0.91136301 4.5131273
-0.98093802 0.83848917 3.0997183
-0.91762483 0.78108066 2.2756422
-0.88653791 0.75251234 1.780513
-0.86481017 0.73253304 1.4335591
-0.45798233 0.48183855 11.335485
-0.99048454 0.96603501 12.861093
-1.1537973 1.0019467 5.9209371
-1.0446738 0.89864773 3.8015552
-0.93758708 0.8020184 2.6149497
-0.89827621 0.76597774 2.0011425
-0.87191778 0.74168634 1.5905291
-0.8588354 0.72928566 1.299724
-0.85632676 0.72229135 1.1806793
-0.83577013 0.70421523 0.96362251
-0.8270241 0.69611841 0.79334384
-0.82827073 0.696684 0.65310073
-0.81330252 0.68361849 0.51757544
-0.81570995 0.68516636 0.4030672
-0.81645525 0.68531322 0.29385069
-0.79345369 0.66554391 0.18592121
-0.849352 0.71844649 1.071967
-0.82940644 0.70084208 0.8742075
-0.82478422 0.69645274 0.71996522
-0.82650787 0.69717735 0.58731234
-0.81641757 0.68818802 0.46077254
-0.79937482 0.67335433 0.3428013
-0.79158986 0.66656703 0.23655009
-0.79108721 0.66568202 0.13538231
-1.365519 1.2156616 11.622499
-1.2783873 1.1234705 8.2056618
-1.0589467 0.91798693 4.5274429
-0.98244661 0.84573251 3.1135259
-0.91852909 0.78739685 2.2844205
-0.8860445 0.75743091 1.7846459
-0.86468619 0.73762769 1.4373965
-0.45610005 0.48322392 11.330494
-0.98710638 0.96948659 12.861093
-1.155969 1.0109338 5.9499736
-1.0454431 0.90567917 3.8156335
-0.93808007 0.8081283 2.6239522
-0.89757538 0.77080798 2.0054085
-0.87161177 0.74668592 1.5945191
-0.85886085 0.73448259 1.3033991
-0.85651815 0.72758514 1.1841838
-0.83627456 0.70964688 0.96676093
-0.82777864 0.70170492 0.7960853
-0.8258338 0.69957101 0.65310073
-0.81444955 0.6894486 0.51944846
-0.81331325 0.68800956 0.4030672
-0.81780946 0.69133031 0.29478332
-0.79492992 0.67152321 0.18636829
-0.84968114 0.72382843 1.0752926
-0.83003318 0.70635265 0.87715065
-0.82563198 0.70212036 0.72249836
-0.82752806 0.70299673 0.58941036
-0.81401044 0.69103366 0.46077254
-0.79701954 0.67614055 0.3428013
-0.79303509 0.6725291 0.23724076
-0.79257011 0.67166936 0.13558383
-1.3630025 1.221977 11.637316
-1.2797943 1.1326507 8.2399282
-1.0591087 0.92462331 4.541759
-0.98391652 0.85299641 3.1273334
-0.91940033 0.79372877 2.2931986
-0.88766021 0.76419157 1.792912
-0.8645373 0.74273032 1.441234
-0.45441049 0.48481306 11.330494
-0.98295879 0.97217596 12.851149
-1.1571491 1.0191174 5.9741707
-1.046176 0.91272688 3.8297122
-0.94018614 0.81567824 2.6374559
-0.89882433 0.77734888 2.0139403
-0.87128145 0.75169241 1.5985092
-0.86142915 0.74190116 1.3107494
-0.85668302 0.73288894 1.1876884
-0.83675122 0.71509057 0.96989942
-0.82850438 0.70730525 0.79882681
-0.82675666 0.70532453 0.65541953
-0.81556576 0.6952951 0.52132148
-0.81455821 0.69395542 0.40447721
-0.81165099 0.69099641 0.29385069
-0.79258096 0.67429394 0.18636829
-0.84998304 0.72922128 1.078618
-0.83063143 0.71187615 0.88009381
-0.82645011 0.70780224 0.72503155
-0.82506913 0.705881 0.58941036
-0.81518251 0.69693953 0.46241605
-0.79834998 0.68207598 0.34397361
-0.79068273 0.67529321 0.23724076
-0.79022074 0.67443186 0.13558383
-0.10172524 0.24551995 29.053165
-1.3604585 1.2282898 11.652134
-1.2811527 1.1418544 8.2741947
-1.0592375 0.93127191 4.5560746
-0.98534751 0.86028093 3.1411412
-0.9184314 0.79850489 2.2975879
-0.88711327 0.76912892 1.7970449
-0.86436319 0.74784094 1.4450716
-0.45251924 0.48618442 11.325501
-0.97880447 0.97484833 12.841206
-1.1592261 1.0281556 6.0032072
-1.045576 0.91865146 3.8390975
-0.94225073 0.82325262 2.6509595
-0.89807183 0.78219461 2.0182061
-0.87092662 0.75670564 1.6024991
-0.861395 0.74712497 1.3144246
-0.85682118 0.73820275 1.191193
-0.83719999 0.72054619 0.97303784
-0.82920086 0.71291918 0.80156827
-0.82428956 0.70820612 0.65541953
-0.81313378 0.6981377 0.52132148
-0.81577152 0.69991815 0.40588725
-0.80923402 0.69382542 0.29385069
-0.79400414 0.68029666 0.18681537
-0.84743243 0.73218381 1.078618
-0.83120126 0.71741241 0.88303697
-0.82723862 0.71349847 0.72756475
-0.8260383 0.71171927 0.59150839
-0.8163231 0.70286202 0.46405956
-0.7996487 0.68802875 0.34514591
-0.79207498 0.68127835 0.23793145
-0.79165035 0.68044257 0.13578537
-0.10089856 0.24595512 29.063166
-1.357887 1.2345997 11.666952
-1.2824626 1.1510813 8.3084612
-1.0604501 0.93892241 4.5751624
-0.98820674 0.86887586 3.1595511
-0.91924202 0.80486166 2.306366
-0.88866216 0.77592283 1.8053107
-0.86416399 0.75295937 1.448909
-0.45081934 0.48776108 11.325501
-0.97501957 0.97788125 12.836234
-1.1603167 1.0363832 6.0274043
-1.0462397 0.92572665 3.8531759
-0.94427401 0.83085132 2.6644633
-0.89729655 0.78704464 2.0224721
-0.87281507 0.76370996 1.6104792
-0.86133498 0.75235766 1.3180997
-0.8569327 0.74352646 1.1946975
-0.83762085 0.72601366 0.97617632
-0.82986826 0.71854645 0.80430973
-0.82516229 0.71397781 0.65773833
-0.81419855 0.70400405 0.52319455
-0.81332338 0.70276147 0.40588725
-0.80680716 0.69664592 0.29385069
-0.79162467 0.6830641 0.18681537
-0.84768808 0.73758847 1.0819435
-0.83174258 0.72296137 0.88598019
-0.82799745 0.71920866 0.73009789
-0.82354891 0.71459836 0.59150839
-0.81743234 0.70880085 0.46570307
-0.80091554 0.69399899 0.34631824
-0.7896921 0.684039 0.23793145
-0.78927028 0.68320179 0.13578537
-0.10003941 0.24630582 29.063166
-1.3547151 1.2403818 11.676829
-1.2837236 1.1603314 8.3427277
-1.0616223 0.94659275 4.5942507
-0.99101788 0.87750125 3.1779611
-0.92001945 0.81123382 2.3151441
-0.8880614 0.78087842 1.8094438
-0.86393946 0.75808543 1.4527465
-0.44911402 0.48933175 11.325501
-0.97047585 0.98014146 12.82132
-1.1622984 1.0454717 6.0564408
-1.0468668 0.93281764 3.8672543
-0.94462639 0.83703023 2.6734657
-0.8964982 0.79189879 2.0267382
-0.87240458 0.76874429 1.6144693
-0.86124891 0.757599 1.321775
-0.8570174 0.74885994 1.198202
-0.83801365 0.73149282 0.97931474
-0.83050644 0.72418708 0.80705118
-0.8260048 0.71976411 0.66005719
-0.81523228 0.70988637 0.52506757
-0.81448412 0.7087453 0.40729728
-0.80066371 0.69623458 0.29291809
-0.79299444 0.68908972 0.18726245
-0.84791625 0.74300379 1.0852691
-0.83225507 0.7285226 0.88892335
-0.82872635 0.72493285 0.73263109
-0.82446694 0.72045529 0.59360647
-0.81495315 0.71164995 0.46570307
-0.7984882 0.69679052 0.34631824
-0.79103124 0.69004673 0.23862213
-0.79064661 0.68923563 0.13598689
-0.098874986 0.24583553 28.963169
-1.3520905 1.2466836 11.691648
-1.2856882 1.1702895 8.3818903
-1.0627534 0.95428246 4.6133385
-0.99523878 0.88745725 3.200974
-0.92076343 0.81762117 2.3239222
-0.88954347 0.78770512 1.8177097
-0.86609131 0.76534176 1.4604216
-0.44740322 0.49089649 11.325501
-0.96518153 0.98162103 12.796462
-1.1642308 1.0545864 6.0854774
-1.0474569 0.93992418 3.8813324
-0.94494712 0.8432216 2.6824682
-0.89762551 0.79849046 2.03527
-0.87196946 0.77378505 1.6184592
-0.86113662 0.76284879 1.3254501
-0.85707539 0.75420296 1.2017065
-0.83837843 0.73698348 0.98245323
-0.83111537 0.72984082 0.80979264
-0.8268168 0.72556496 0.66237599
-0.81623489 0.71578443 0.52694058
-0.81561285 0.7147457 0.40870732
-0.7982285 0.69902515 0.29291809
-0.79058427 0.69185358 0.18726245
-0.84531748 0.7459591 1.0852691
-0.82970697 0.73142332 0.88892335
-0.82942545 0.73067093 0.73516428
-0.8219471 0.72332877 0.59360647
-0.81601012 0.71760881 0.46734658
-0.79970205 0.70278203 0.34749055
-0.78861773 0.69280374 0.23862213
-0.79199034 0.69528729 0.13618843
-0.098016255 0.24617916 28.963169
-1.3488692 1.2524533 11.701527
-1.2868487 1.1795874 8.4161568
-1.0638442 0.96199173 4.6324267
-0.99794865 0.89614773 3.219384
-0.92147404 0.82402354 2.3327003
-0.88888854 0.79267848 1.8218426
-0.86580873 0.77049124 1.464259
-0.44588012 0.49266976 11.330494
-0.96509808 0.98841953 12.841206
-1.1661135 1.0637274 6.1145139
-1.0480101 0.94704634 3.8954105
-0.94523603 0.84942549 2.6914704
-0.89677519 0.80335927 2.039536
-0.87375647 0.78084016 1.6264393
-0.86099815 0.76810718 1.3291253
-0.85443747 0.75719017 1.2017065
-0.83871502 0.74248564 0.98559165
-0.83169484 0.73550761 0.81253409
-0.82759833 0.73138028 0.66469479
-0.81720608 0.72169811 0.5288136
-0.81311297 0.71758842 0.40870732
-0.7994678 0.70505643 0.29385069
-0.79190058 0.69790167 0.18770951
-0.84549928 0.75138563 1.0885946
-0.83017141 0.73699862 0.89186651
-0.83009434 0.7364226 0.73769742
-0.82281375 0.72920382 0.5957045
-0.81350023 0.72045285 0.46734658
-0.79724395 0.70556927 0.34749055
-0.78990346 0.6988337 0.23931281
-0.78955853 0.69804764 0.13618843
-0.097290576 0.24688886 29.008167
-1.3450565 1.2576849 11.706466
-1.2887076 1.1895982 8.4553185
-1.0648938 0.96972018 4.6515145
-1.0020589 0.90617841 3.2423966
-0.92215121 0.83044088 2.3414786
-0.89030319 0.79953724 1.8301084
-0.86550075 0.77564812 1.4680965
-0.44415766 0.49422318 11.330494
-0.96238345 0.99254835 12.851149
-1.167021 1.0720439 6.138711
-1.0485265 0.9541837 3.9094892
-0.94549322 0.85564154 2.7004728
-0.89783806 0.80997902 2.0480678
-0.87326503 0.78590113 1.6304293
-0.86083347 0.77337372 1.3328004
-0.85444975 0.76254267 1.2052112
-0.83902335 0.74799907 0.98873013
-0.83224493 0.74118745 0.81527555
-0.82834929 0.7372098 0.66701359
-0.81814599 0.72762722 0.53068668
-0.81418872 0.72360909 0.41011736
-0.79700184 0.70784283 0.29385069
-0.79318416 0.70396739 0.18815659
-0.84565353 0.75682259 1.09192
-0.830607 0.74258614 0.89480966
-0.82751876 0.73931569 0.73769742
-0.82364929 0.73509353 0.59780258
-0.8145045 0.72643131 0.46899009
-0.79840481 0.71158195 0.34866288
-0.78745925 0.70158666 0.23931281
-0.79084837 0.70412159 0.13638996
-0.096516825 0.24747331 29.038168
-1.3417892 1.2634379 11.716344
-1.2897668 1.198943 8.4895849
-1.0659025 0.9774676 4.6706028
-1.0032226 0.91361761 3.2562041
-0.92102081 0.83526379 2.3458676
-0.88959384 0.80452776 1.8342415
-0.86754674 0.78295988 1.4757715
-0.44242981 0.49577057 11.330494
-0.96076006 0.997823 12.876006
-1.1688073 1.0812334 6.167748
-1.0477335 0.96016997 3.9188745
-0.94571835 0.86186981 2.7094753
-0.89886564 0.81661588 2.0565996
-0.87274897 0.7909683 1.6344193
-0.86064243 0.77864844 1.3364756
-0.85443509 0.76790464 1.2087157
-0.83930343 0.75352365 0.99186856
-0.8327654 0.74687994 0.81801701
-0.82577091 0.74009675 0.66701359
-0.81905437 0.73357165 0.53255969
-0.81523234 0.72964597 0.4115274
-0.79818755 0.71389538 0.29478332
-0.79443502 0.71005046 0.18860367
-0.84578001 0.76226968 1.0952456
-0.83101362 0.74818563 0.89775282
-0.82813758 0.74508315 0.74023062
-0.82445371 0.74099809 0.5999006
-0.8119638 0.72926998 0.46899009
-0.79591608 0.71436453 0.34866288
-0.78869128 0.70763826 0.24000348
-0.78838575 0.70687783 0.13638996
-0.095652394 0.24780872 29.038168
-1.3384982 1.2691834 11.726222
-1.2907764 1.2083097 8.5238514
-1.0668699 0.98523384 4.6896906
-1.0057861 0.92239636 3.2746143
-0.92163616 0.84170419 2.3546457
-0.89094079 0.81141806 1.8425074
-0.86718017 0.78813922 1.479609
-0.44050559 0.49709532 11.325501
-0.95727116 1.0011706 12.876006
-1.1705434 1.0904483 6.196784
-1.0481795 0.9673329 3.9329526
-0.94591159 0.86810994 2.7184777
-0.89793378 0.82150918 2.0608656
-0.8744337 0.79807287 1.6423994
-0.86042511 0.78393131 1.3401507
-0.85703743 0.77566892 1.2157247
-0.83666807 0.75644881 0.99186856
-0.83015323 0.74978226 0.81801701
-0.82647079 0.74594283 0.66933239
-0.81993115 0.73953122 0.53443271
-0.81624371 0.735699 0.4129374
-0.79934067 0.7199648 0.29571593
-0.7956531 0.71615082 0.18905075
-0.84587866 0.76772684 1.0985711
-0.83139127 0.75379694 0.90069598
-0.82872623 0.75086391 0.74276382
-0.82522696 0.74691713 0.60199869
-0.81291538 0.73526758 0.47063357
-0.79702365 0.72039795 0.34983522
-0.78989065 0.71370697 0.24069417
-0.78962147 0.71297365 0.13659149
-0.0947868 0.2481411 29.038168
-1.3351835 1.2749214 11.736101
-1.2917361 1.2176979 8.5581179
-1.067796 0.99301857 4.7087784
-1.0068654 0.92987859 3.2884219
-0.9204551 0.84653753 2.3590348
-0.89017665 0.81642526 1.8466402
-0.86678803 0.79332572 1.4834466
-0.43876773 0.49862996 11.325501
-0.95340383 1.0041192 12.871035
-1.173146 1.1005485 6.23066
-1.0485884 0.97451073 3.9470313
-0.94767123 0.87583959 2.7319813
-0.89889652 0.82817322 2.0693977
-0.87386101 0.80315959 1.6463894
-0.86018133 0.78922212 1.3438259
-0.85696024 0.78105837 1.2192293
-0.83690035 0.76198524 0.99500704
-0.83062416 0.75548911 0.82075852
-0.82713985 0.75180274 0.67165118
-0.82077628 0.74550581 0.53630573
-0.81722254 0.74176782 0.41434744
-0.80046111 0.72605091 0.29664856
-0.79683816 0.72226834 0.18949783
-0.84870547 0.77571309 1.105222
-0.83173972 0.75941998 0.90363914
-0.82928449 0.75665778 0.74529696
-0.82596886 0.75285059 0.60409671
-0.81383479 0.74128056 0.47227708
-0.79809862 0.72644752 0.35100752
-0.78739458 0.71645987 0.24069417
-0.78712791 0.7157256 0.13659149
-0.093877025 0.24834684 29.023169
-1.331285 1.280113 11.74104
-1.2919078 1.2264065 8.5874891
-1.06977 1.0018423 4.7326379
-1.0079046 0.93737936 3.3022294
-0.92100847 0.85300046 2.3678129
-0.89145553 0.8233465 1.8549061
-0.86872703 0.80069143 1.4911215
-0.4370245 0.50015855 11.325501
-0.949893 1.007441 12.871035
-1.1747788 1.1098169 6.2596965
-1.0489596 0.98170286 3.9611094
-0.94779497 0.88210881 2.7409837
-0.89982373 0.83485389 2.0779295
-0.87326342 0.80825198 1.6503794
-0.85991102 0.79452062 1.347501
-0.85685581 0.78645653 1.2227339
-0.83710426 0.76753259 0.99814546
-0.8310653 0.76120836 0.82349998
-0.8277781 0.75767654 0.67396998
-0.82158971 0.7514953 0.5381788
-0.81816912 0.7478525 0.41575748
-0.80154878 0.73215371 0.2975812
-0.7979902 0.72840273 0.18994491
-0.84873962 0.78119963 1.1085476
-0.83205914 0.76505458 0.9065823
-0.82981241 0.7624647 0.74783015
-0.82667947 0.75879842 0.60619479
-0.81472218 0.74730891 0.47392058
-0.80272412 0.73579782 0.35335216
-0.78853989 0.72254962 0.24138485
-0.7883094 0.72184277 0.13679302
-1.3323894 1.2901585 11.790433
-1.2949778 1.2379458 8.6364412
-1.0706097 1.0096675 4.7517266
-1.0103296 0.94623446 3.3206394
-0.91977674 0.85784394 2.3722022
-0.8906365 0.82836986 1.8590392
-0.86827588 0.8058995 1.494959
-0.435276 0.50168097 11.325501
-0.9460066 1.0103613 12.866063
-1.1772716 1.1199763 6.2935724
-1.0492935 0.9889096 3.9751875
-0.94947481 0.88987833 2.7544875
-0.90071499 0.84155113 2.0864613
-0.87484497 0.81540459 1.6583595
-0.85961419 0.79982692 1.3511763
-0.85672408 0.7918635 1.2262385
-0.83727962 0.77309048 1.0012839
-0.83147657 0.76693976 0.82624143
-0.82838547 0.76356381 0.67628878
-0.82237124 0.75749958 0.54005182
-0.81908298 0.75395268 0.41716751
-0.8026036 0.73827279 0.29851383
-0.79544276 0.73118383 0.18994491
-0.84874576 0.78669584 1.111873
-0.83234924 0.77070063 0.90952545
-0.82714587 0.76535666 0.74783015
-0.82402569 0.76167941 0.60619479
-0.81557733 0.75335252 0.47556409
-0.80372226 0.74189222 0.35452449
-0.78965229 0.72865599 0.24207552
-0.78945762 0.72797686 0.13699456
-1.3306587 1.2975143 11.815129
-1.2994498 1.2509339 8.6951838
-1.07249 1.018539 4.7755861
-1.0112838 0.95377719 3.3344471
-0.92026776 0.86432892 2.3809803
-0.8918469 0.83532143 1.867305
-0.86779898 0.81111437 1.4987966
-0.43352214 0.50319731 11.325501
-0.94174874 1.012876 12.85612
-1.1788002 1.1292971 6.3226094
-1.0483384 0.99494261 3.9845734
-0.95111185 0.89767033 2.7679911
-0.90157068 0.84826475 2.0949931
-0.87419027 0.82051575 1.6623495
-0.85929084 0.80514085 1.3548514
-0.85656506 0.79727912 1.229743
-0.83742625 0.77865899 1.0044224
-0.83185804 0.77268338 0.82898289
-0.82896167 0.76946449 0.67860758
-0.81972206 0.76036561 0.54005182
-0.81996423 0.76006842 0.41857755
-0.80362529 0.74440813 0.29944643
-0.7928856 0.73395598 0.18994491
-0.84872389 0.79220158 1.1151985
-0.82965398 0.77360141 0.90952545
-0.82762289 0.77117807 0.75036329
-0.8246839 0.76764357 0.60829288
-0.81640017 0.75941104 0.4772076
-0.80112773 0.74469322 0.35452449
-0.79073155 0.73477894 0.2427662
-0.78691167 0.73072809 0.13699456
-1.329447 1.3054184 11.844765
-1.3031158 1.2632595 8.749032
-1.0732425 1.0264038 4.7946739
-1.0121976 0.96133804 3.3482547
-0.92072481 0.87082767 2.3897583
-0.8930195 0.84229136 1.8755709
-0.86729616 0.81633556 1.502634
-0.43195015 0.5049274 11.330494
-0.9374848 1.0153732 12.846177
-1.1802781 1.1386421 6.3516455
-1.0486012 1.0021732 3.9986515
-0.95112824 0.90398467 2.7769935
-0.90049714 0.85320044 2.0992589
-0.87351054 0.82563221 1.6663395
-0.85894072 0.81046212 1.3585266
-0.85637873 0.80270314 1.2332475
-0.8375442 0.78423798 1.0075608
-0.8291558 0.77558237 0.82898289
-0.82950675 0.77537853 0.68092638
-0.8204506 0.76638693 0.54192483
-0.8173061 0.76292604 0.41857755
-0.80820596 0.7539103 0.30131167
-0.79031879 0.73671919 0.18994491
-0.84867388 0.79771674 1.1185241
-0.83284146 0.78202659 0.91541177
-0.82806945 0.77701223 0.75289649
-0.82531041 0.77362138 0.6103909
-0.81719065 0.76548457 0.47885111
-0.80207181 0.75080687 0.3556968
-0.79177767 0.74091828 0.24345689
-0.78800523 0.73688287 0.13719608
-0.090551823 0.25008878 29.078165
-1.3270918 1.3122368 11.864522
-1.3074399 1.2763371 8.8077745
-1.0750284 1.0353218 4.8185339
-1.0144826 0.97026742 3.3666646
-0.92114758 0.87734014 2.3985367
-0.8921141 0.84734154 1.8797038
