# .PCD v0.7 - Point Cloud Data file format
VERSION 0.7
FIELDS x y z
SIZE 4 4 4
TYPE F F F
COUNT 1 1 1
WIDTH 1508
HEIGHT 1
VIEWPOINT 0 0 0 1 0 0 0
POINTS 1508
DATA ascii
-0.94546008 1.9504031 2.4279995
-0.92741382 1.8971351 2.154943
-0.8946141 1.8276317 1.723129
-0.87878901 1.7929454 1.3937249
-0.85712165 1.7472104 1.1052668
-0.84420854 1.7193856 0.86221349
-0.8337425 1.6965891 0.64559281
-0.82168782 1.6705966 0.44493517
-0.80931568 1.6440103 0.25745386
-0.91720748 1.8829262 1.9465735
-0.88358867 1.8115191 1.5511343
-0.86504835 1.7719535 1.2443333
-0.84958458 1.7379847 0.9817462
-0.83659285 1.7099111 0.75167364
-0.82092416 1.6764199 0.54092294
-0.81257457 1.6586473 0.3498216
-0.802697 1.6370556 0.16722418
-4.1664622e-05 0.16615774 17.6336
-1.0237842 2.2444711 15.682569
-0.67175001 1.4477515 7.696558
-1.4503977 3.0720205 10.907585
-1.2339262 2.5901163 6.8185577
-1.1143807 2.3266597 4.7949739
-1.0097033 2.1006026 3.4956868
-0.95963722 1.9911319 2.7229605
-0.31686002 0.89467555 16.252268
-0.60956162 1.5310931 15.326958
-0.7852695 1.6818984 7.1840267
-0.97808945 2.0696898 6.279336
-1.2085428 2.5391579 5.8783298
-1.0589101 2.2158234 4.0871844
-0.97547305 2.0348608 3.0628481
-0.94451839 1.9659148 2.4427001
-0.92856073 1.9164081 2.1724658
-0.89502478 1.8447512 1.7356828
-0.87983352 1.8110465 1.4046907
-0.8587656 1.766127 1.114542
-0.84428751 1.7348276 0.8678326
-0.83411711 1.7124271 0.64982289
-0.82015657 1.6822857 0.44680041
-0.81012368 1.6602521 0.25879508
-0.91874582 1.9029287 1.963201
-0.88429672 1.8291489 1.562907
-0.86449039 1.7866035 1.2519327
-0.85142821 1.7572774 0.99013841
-0.83680022 1.7255675 0.75660414
-0.8214345 1.6923935 0.54443991
-0.81110609 1.6703831 0.35120299
-0.79916155 1.6443409 0.16742572
0.00053038733 0.16598253 17.613604
-1.0162631 2.2487392 15.687508
-0.66711748 1.451013 7.7014532
-1.4327083 3.062192 10.855093
-1.2398893 2.6262088 6.9014034
-1.1134408 2.3456812 4.8256974
-1.0108356 2.1218979 3.5246177
-0.96235085 2.0147154 2.7498231
-0.313925 0.89632142 16.262253
-0.60421336 1.5332115 15.326958
-0.77886617 1.6834884 7.1791873
-0.97012728 2.0715287 6.2746434
-1.2024581 2.549268 5.8918338
-1.0634472 2.245434 4.1341095
-0.97741485 2.0573056 3.0907781
-0.94493711 1.9845045 2.461076
-0.92958421 1.9357119 2.1899886
-0.89701343 1.8654033 1.7513751
-0.87894833 1.8254091 1.4129152
-0.85836476 1.7810856 1.1214983
-0.8442688 1.7502908 0.87345165
-0.83647686 1.7326083 0.65546304
-0.82069087 1.6984072 0.44959828
-0.81082809 1.6765194 0.26013631
-0.92015547 1.9229646 1.9798286
-0.88489234 1.8468052 1.5746796
-0.86570477 1.8051583 1.2620655
-0.8511827 1.7725123 0.99643254
-0.83895415 1.7455026 0.76317817
-0.82184321 1.7083911 0.54795682
-0.81171286 1.6865907 0.35327503
-0.79992115 1.6606234 0.16803031
0.0011097708 0.16597967 17.613604
-1.0087247 2.2529821 15.692447
-0.6620484 1.4533328 7.7014532
-1.4603047 3.1497853 11.146185
-1.2439595 2.6588342 6.9750438
-1.1235945 2.3885636 4.9047008
-1.0130327 2.1457715 3.5576811
-0.9635402 2.035445 2.7728481
-0.31117028 0.8985036 16.282219
-0.59905112 1.535808 15.331929
-0.7724613 1.6850542 7.1743479
-0.9621641 2.0733368 6.2699504
-1.2000043 2.567255 5.9233422
-1.0700065 2.2798254 4.1895666
-0.98049515 2.082515 3.1226983
-0.9452374 2.0031207 2.4794517
-0.93048406 1.9550456 2.2075114
-0.8988688 1.8860918 1.7670673
-0.87977439 1.8435612 1.4238811
-0.85977906 1.80006 1.1307735
-0.84415245 1.765775 0.87907082
-0.83663517 1.7484993 0.65969312
-0.82112253 1.7145526 0.45239612
-0.81142867 1.6928117 0.26147756
-0.91983658 1.9396596 1.9931306
-0.88364178 1.860837 1.5835092
-0.86680001 1.823743 1.2721982
-0.85279155 1.7918651 1.0048248
-0.83894831 1.7612101 0.76810873
-0.82215017 1.7244118 0.5514738
-0.8122164 1.7028229 0.35534707
-0.79842442 1.6724225 0.16843337
0.0017028877 0.16623621 17.6436
-1.0008543 2.2564895 15.692447
-0.65697134 1.4556348 7.7014532
-1.4686153 3.1969137 11.294116
-1.247817 2.69152 7.0486841
-1.1284033 2.4206913 4.9617591
-1.0162678 2.1722348 3.5948777
-0.96595746 2.0591085 2.7997105
-0.30821809 0.90013093 16.292202
-0.59368652 1.5378897 15.331929
-0.7655353 1.6854513 7.164669
-0.95492089 2.0766828 6.2699504
-1.2020137 2.5951328 5.9773564
-1.0741389 2.3095598 4.2364922
-0.98213744 2.1050401 3.1506286
-0.94541931 2.0217631 2.4978275
-0.93126035 1.9744093 2.225034
-0.90059054 1.9068158 1.7827597
-0.88048434 1.8617412 1.4348469
-0.86107129 1.8190659 1.1400487
-0.84393805 1.7812792 0.88468987
-0.83669287 1.7644124 0.66392326
-0.82145143 1.7307217 0.455194
-0.81192535 1.7091284 0.26281881
-0.92100018 1.9597546 2.009758
-0.88230371 1.8748817 1.5923386
-0.86777586 1.842357 1.2823309
-0.85427564 1.8112508 1.013217
-0.84085864 1.781209 0.77468276
-0.8244316 1.7448503 0.55616307
-0.81261641 1.7190789 0.3574191
-0.79899156 1.6887473 0.16903797
0.0022880372 0.16631639 17.653601
-0.99328399 2.2606807 15.697387
-0.65188622 1.4579192 7.7014532
-1.4827974 3.2577245 11.489767
-1.2465687 2.7136128 7.0947094
-1.1340054 2.4550555 5.0232058
-1.0193303 2.1987464 3.6320739
-0.96687019 2.0799074 2.8227355
-0.3049821 0.90092766 16.28721
-0.58831465 1.5399526 15.331929
-0.75913167 1.6869668 7.1598296
-0.94766617 2.0800035 6.2699504
-1.2038431 2.6230555 6.0313711
-1.0780765 2.3393502 4.2834172
-0.98489851 2.1303365 3.1825488
-0.94690764 2.0435071 2.5198786
-0.93191266 1.9938021 2.2425568
-0.90217853 1.9275745 1.7984519
-0.87930357 1.8761622 1.4430714
-0.86036009 1.8340923 1.1470052
-0.84559602 1.801 0.89218199
-0.83664936 1.7803468 0.66815329
-0.82167739 1.746914 0.45799184
-0.81231791 1.7254691 0.26416004
-0.92203486 1.9798816 2.0263855
-0.88087857 1.8889402 1.6011682
-0.8704555 1.8649063 1.2949967
-0.85563463 1.8306683 1.0216092
-0.8406387 1.7969652 0.77961332
-0.82451928 1.7609235 0.55968004
-0.81501341 1.7398427 0.36018181
-0.79945445 1.7050964 0.16964257
0.0028893389 0.16665584 17.6936
-0.98538667 2.2641342 15.697387
-0.64679319 1.4601859 7.7014532
-1.0658554 2.3634064 8.3354864
-1.2605567 2.7695148 7.2281828
-1.1383848 2.4873104 5.0802636
-1.0210453 2.2227485 3.6651375
-0.96899027 2.1036487 2.8495982
-0.30192652 0.90226072 16.292202
-0.58293563 1.5419968 15.331929
-0.75221515 1.6873102 7.1501508
-0.94110972 2.0848718 6.2746434
-1.204591 2.6490407 6.0808845
-1.0796528 2.3644512 4.3218107
-0.98749501 2.1556778 3.214469
-0.94684106 2.0622046 2.5382543
-0.93393946 2.0164592 2.2635841
-0.90363246 1.9483674 1.8141443
-0.88155502 1.8981822 1.4567786
-0.86142135 1.8531523 1.1562804
-0.84517086 1.8165506 0.8978011
-0.83650488 1.7963024 0.67238343
-0.82387543 1.7675811 0.46172231
-0.81050074 1.7373202 0.2650542
-0.9229399 2.0000391 2.0430131
-0.8810612 1.9066803 1.6129408
-0.87117863 1.8835839 1.3051294
-0.85686821 1.8501168 1.0300014
-0.84031886 1.8127414 0.78454381
-0.82450467 1.7770183 0.56319702
-0.8151902 1.7561523 0.36225384
-0.79981285 1.721469 0.17024715
0.0034628157 0.16651408 17.678598
-0.97778469 2.2682734 15.702325
-0.64210111 1.463367 7.7063479
-1.0575991 2.3671124 8.3354864
-1.267745 2.8112986 7.3248358
-1.1425525 2.5196249 5.1373219
-1.0226053 2.2467895 3.6982014
-0.96962559 2.1245141 2.8726232
-0.29805386 0.90111512 16.252268
-0.57773596 1.5445217 15.336901
-0.74530542 1.6876258 7.1404719
-0.93382639 2.0881441 6.2746434
-1.2069602 2.6790323 6.1394
-1.0810668 2.3895915 4.3602042
-0.9899264 2.1810627 3.2463892
-0.94665551 2.0809267 2.5566301
-0.93433189 2.0359132 2.2811067
-0.90495193 1.9691935 1.8298365
-0.88191563 1.9164419 1.4677445
-0.86236018 1.8722421 1.1655556
-0.84658831 1.8363302 0.90529323
-0.838269 1.8166344 0.67802358
-0.82387942 1.7838249 0.46452022
-0.81070036 1.7536998 0.26639542
-0.92216295 2.0168316 2.0563152
-0.88113075 1.9244449 1.6247134
-0.87178183 1.9022889 1.3152622
-0.8579765 1.8695964 1.0383936
-0.83989912 1.8285371 0.78947437
-0.82438767 1.7931343 0.56671393
-0.81526309 1.7724839 0.36432588
-0.80006659 1.7378647 0.17085175
0.0040411386 0.16645746 17.673601
-0.97016603 2.2723873 15.707264
-0.63739479 1.4665334 7.7112432
-1.0505377 2.3735194 8.3450298
-1.2770474 2.8585174 7.4352961
-1.1465085 2.5519989 5.1943798
-1.0240097 2.2708678 3.7312651
-0.97144747 2.1483297 2.8994856
-0.29570946 0.90462112 16.297194
-0.57252574 1.5470291 15.341872
-0.73890638 1.6890655 7.135632
-0.92653167 2.0913911 6.2746434
-1.2082474 2.7070847 6.1934147
-1.0823185 2.4147701 4.3985977
-0.99219257 2.206491 3.2783093
-0.94774359 2.1027629 2.5786812
-0.93607605 2.058641 2.302134
-0.90613705 1.9900525 1.8455287
-0.88389397 1.938532 1.4814519
-0.86501521 1.895391 1.1771495
-0.84595168 1.8519247 0.91091239
-0.8379066 1.8326377 0.68225372
-0.82377994 1.8000903 0.46731806
-0.81079543 1.7701018 0.26773667
-0.92282051 2.0370436 2.0729425
-0.88275665 1.9459138 1.6394293
-0.87226498 1.921021 1.3253949
-0.85708064 1.8849744 1.0446877
-0.83937919 1.8443518 0.79440486
-0.82416815 1.809271 0.5702309
-0.81523174 1.7888376 0.36639795
-0.80021548 1.7542831 0.17145634
0.0046221581 0.16644233 17.673601
-0.96253055 2.2764759 15.712204
-0.6326741 1.4696847 7.7161388
-1.0422462 2.377172 8.3450298
-1.2836634 2.9004753 7.531949
-1.1502521 2.5844309 5.2514381
-1.0206676 2.2847059 3.7477968
-0.9718045 2.1692588 2.9225106
-0.29263815 0.90592259 16.302185
-0.5671221 1.5490181 15.341872
-0.73300588 1.6916344 7.135632
-0.91922575 2.0946124 6.2746434
-1.2093534 2.7351785 6.2474294
-1.0802324 2.4328351 4.4241929
-0.99429303 2.231961 3.3102293
-0.94730854 2.1215365 2.5970571
-0.93620801 2.0781538 2.3196568
-0.90558702 2.0073955 1.8580827
-0.88400745 1.9568483 1.4924177
-0.86569399 1.9145445 1.1864247
-0.8471278 1.8717601 0.91840452
-0.83744252 1.8486601 0.68648374
-0.82154846 1.8119025 0.4691833
-0.81078583 1.7865256 0.2690779
-0.92334825 2.0572848 2.08957
-0.88590032 1.9711043 1.6570883
-0.87262803 1.9397796 1.3355277
-0.85795182 1.9045068 1.05308
-0.83875906 1.8601851 0.79933542
-0.82384592 1.8254279 0.57374781
-0.8130582 1.800699 0.36777928
-0.80025953 1.7707233 0.17206094
0.0052031218 0.16642518 17.673601
-0.95487827 2.2805388 15.717143
-0.62793934 1.472821 7.721034
-1.0345365 2.382165 8.349802
-1.2923551 2.9478817 7.6424098
-1.1537831 2.6169198 5.308496
-1.0263509 2.3191347 3.7973921
-0.97332722 2.1931458 2.9493732
-0.28964874 0.907489 16.312168
-0.56189269 1.5514895 15.346843
-0.72511423 1.6895622 7.1162744
-0.91190863 2.0978084 6.2746434
-1.2102778 2.7633123 6.3014441
-1.0853832 2.4676268 4.4796505
-0.99744415 2.2602293 3.3461397
-0.94812518 2.1434329 2.619108
-0.93621492 2.0976925 2.3371794
-0.90651494 2.0283122 1.8737749
-0.88571173 1.9790055 1.5061251
-0.86624938 1.9337254 1.1956999
-0.8481757 1.8916265 0.92589664
-0.83687693 1.8647017 0.69071388
-0.82327026 1.832683 0.47291377
-0.81067133 1.8029709 0.27041915
-0.92526257 2.080966 2.1095231
-0.88723457 1.9926472 1.671804
-0.8728705 1.9585638 1.3456604
-0.85869706 1.9240682 1.0614722
-0.83996445 1.8803476 0.80590945
-0.82342088 1.8416045 0.57726479
-0.81081194 1.8125671 0.36916068
-0.79815686 1.7826256 0.172464
0.0057840236 0.16640602 17.673601
-0.94720936 2.2845757 15.722082
-0.62319028 1.475942 7.7259288
-1.026215 2.3857615 8.349802
-1.2937284 2.9792552 7.7114472
-1.157101 2.6494639 5.3655539
-1.0306765 2.3510532 3.8428545
-0.97469491 2.2170696 2.9762356
-0.28647923 0.90849453 16.312168
-0.55665302 1.5539434 15.351815
-0.71626294 1.6851418 7.0872383
-0.90458035 2.1009789 6.2746434
-1.2118866 2.793483 6.3599601
-1.0923871 2.5072651 4.5436392
-0.99920315 2.2857854 3.3780599
-0.94880038 2.1653607 2.6411591
-0.93753892 2.120518 2.358207
-0.90730774 2.0492597 1.8894671
-0.88557732 1.9973755 1.5170909
-0.8666814 1.9529334 1.2049751
-0.84721321 1.9072859 0.93151569
-0.83815813 1.8851451 0.69635403
-0.82285953 1.849009 0.47571161
-0.81247824 1.8239861 0.27220747
-0.92551768 2.1012681 2.1261506
-0.88842916 2.0142233 1.6865199
-0.87473345 1.9813167 1.3583262
-0.85931611 1.9436578 1.0698644
-0.83912838 1.8962231 0.81084001
-0.82486129 1.8622444 0.58195406
-0.81049877 1.8289684 0.37123269
-0.79800642 1.7991014 0.17306858
0.0063543338 0.16625434 17.658602
-0.93952388 2.2885871 15.727021
-0.6199975 1.4828057 7.7504053
-1.0184658 2.3907027 8.3545742
-1.2972137 3.0160582 7.7942929
-1.1611567 2.6842616 5.427001
-1.0359124 2.3856113 3.8924499
-0.97718698 2.2439682 3.0069356
-0.2831355 0.90893739 16.302185
-0.55122536 1.5558771 15.351815
-0.70647627 1.6783631 7.0485229
-0.897241 2.1041236 6.2746434
-1.2132995 2.823698 6.4184752
-1.0980941 2.5445876 4.6033626
-1.0019928 2.3141465 3.4139702
-0.95068377 2.190429 2.6668851
-0.9387148 2.143378 2.3792341
-0.9079653 2.0702372 1.9051595
-0.88364387 2.0119398 1.5253153
-0.86698991 1.972168 1.2142503
-0.84801877 1.927205 0.93900776
-0.8373732 1.9012296 0.70058405
-0.8223449 1.8653548 0.47850949
-0.8121376 1.8404791 0.27354869
-0.92713547 2.1250196 2.1461036
-0.89110214 2.0395362 1.7041787
-0.87472087 2.0001566 1.368459
-0.85980874 1.963275 1.0782566
-0.83819157 1.9121152 0.81577051
-0.82616758 1.8829162 0.58664334
-0.81008095 1.8453897 0.37330475
-0.79775065 1.8155977 0.17367318
0.0069346307 0.16623114 17.658602
-0.93182194 2.2925725 15.731961
-0.61326045 1.4811975 7.7308245
-1.5119247 3.5839317 12.48234
-1.2989266 3.0493269 7.8679333
-1.163097 2.7147162 5.47967
-1.0398078 2.417649 3.9379125
-0.97950298 2.270911 3.0376358
-0.27996099 0.90992016 16.302185
-0.54596692 1.5582949 15.356787
-0.694812 1.6668956 6.9904499
-0.89056194 2.1088324 6.279336
-1.2128115 2.8499508 6.467989
-1.1045787 2.5843782 4.6673512
-1.0034091 2.3397851 3.4458902
-0.95374221 2.2186511 2.6962864
-0.93974245 2.1662722 2.4002614
-0.9084872 2.0912442 1.9208517
-0.88328755 2.0303495 1.5362811
-0.86894304 1.9954897 1.2258444
-0.84869546 1.9471523 0.94649988
-0.83840436 1.9217284 0.7062242
-0.8236919 1.8862209 0.48223996
-0.81169182 1.8569922 0.27488995
-0.92711747 2.1453803 2.1627309
-0.89360905 2.0648916 1.7218376
-0.87630063 2.0229762 1.3811249
-0.86017472 1.9829187 1.0866488
-0.83903474 1.9323554 0.82234448
-0.82733953 1.90362 0.59133261
-0.80955821 1.8618302 0.37537676
-0.79738939 1.8321139 0.17427778
0.0074729281 0.16572779 17.603603
-0.9238137 2.2958112 15.731961
-0.60692823 1.4805026 7.7161388
-1.5229936 3.6456599 12.677991
-1.2996637 3.0808434 7.9369712
-1.1657741 2.7474215 5.5367279
-1.0445945 2.4523318 3.9875078
-0.98164266 2.2978971 3.068336
-0.27720031 0.91227382 16.327145
-0.54052407 1.5601913 15.356787
-0.68898922 1.6693108 6.9904499
-0.88319528 2.111928 6.279336
-1.2163814 2.8862646 6.5400085
-1.1097822 2.6218429 4.7270746
-1.0058365 2.3682351 3.4818006
-0.95661509 2.2469206 2.7256877
-0.9406215 2.189199 2.4212887
-0.90887362 2.1122797 1.9365441
-0.88281339 2.0487809 1.5472469
-0.86898947 2.0147815 1.2351196
-0.84924316 1.967128 0.95399201
-0.83930254 1.9422575 0.71186441
-0.82490313 1.907119 0.48597044
-0.81114042 1.8735243 0.27623117
-0.92843753 2.169199 2.1826839
-0.8959496 2.0902889 1.7394966
-0.87773192 2.0458307 1.3937908
-0.86220562 2.0067592 1.097139
-0.83974671 1.9526246 0.82891852
-0.82837695 1.9243547 0.59602183
-0.8089307 1.8782896 0.37744883
-0.79890007 1.8532373 0.17508389
0.0080949636 0.16617869 17.658602
-0.91608167 2.2997439 15.7369
-0.60137391 1.4816686 7.7112432
-1.5268035 3.6909561 12.816379
-1.314503 3.1466537 8.0934572
-1.1635984 2.7691383 5.5718408
-1.048058 2.484484 4.03297
-0.98235703 2.3219733 3.0951984
-0.27434406 0.9143424 16.347109
-0.53507471 1.5620685 15.356787
-0.68220735 1.6693783 6.9807711
-0.87647808 2.1165926 6.2840285
-1.2197126 2.9226377 6.6120276
-1.1137294 2.6569698 4.7825317
-1.008077 2.3967299 3.5177109
-0.95798516 2.2721136 2.7514141
-0.94135195 2.2121584 2.4423161
-0.90912414 2.1333432 1.9522364
-0.88058001 2.0633876 1.5554714
-0.87065178 2.0381708 1.2467135
-0.84966183 1.9871311 0.96148425
-0.83818007 1.9584057 0.71609443
-0.82404417 1.9235331 0.48876834
-0.81244624 1.8946522 0.27801949
-0.92814547 2.1896152 2.1993115
-0.89812374 2.1157279 1.7571558
-0.8790139 2.0687196 1.4064566
-0.86230332 2.0264611 1.1055312
-0.8384769 1.9685776 0.83384907
-0.82737327 1.9406482 0.5995388
-0.81014085 1.8993218 0.38021153
-0.79831135 1.8697989 0.17568849
0.0086790994 0.16619283 17.663601
-0.90833324 2.3036501 15.741838
-1.5308812 3.7377043 12.959538
-1.3251652 3.2035778 8.2269306
-1.1732452 2.8196192 5.6640115
-1.0513096 2.51669 4.0784326
-0.98539203 2.351995 3.1297359
-0.27147678 0.91640234 16.367077
-0.52978951 1.5644318 15.361758
-0.67684728 1.6729147 6.9856105
-0.869739 2.1212361 6.2887216
-1.2186477 2.9490089 6.661541
-1.1184442 2.6945646 4.8422546
-1.010131 2.4252694 3.5536211
-0.96049696 2.3004713 2.7808154
-0.94193333 2.2351489 2.4633431
-0.90923858 2.1544342 1.9679285
-0.87988317 2.0818551 1.5664372
-0.87043548 2.0575168 1.2559887
-0.84995097 2.0071609 0.96897638
-0.83882701 1.9789863 0.72173458
-0.82499897 1.9444859 0.49249882
-0.81166756 1.9112277 0.27936071
-0.9277221 2.2100558 2.215939
-0.8985647 2.1374812 1.7718714
-0.88014692 2.0916426 1.4191226
-0.86227399 2.0461884 1.1139234
-0.8389411 1.9888963 0.84042311
-0.82815653 1.9614359 0.60422808
-0.80928695 1.9158237 0.3822836
-0.79761654 1.8863785 0.17629308
0.0092762299 0.16633523 17.683599
-0.90056884 2.3075306 15.746778
-1.5447463 3.8094246 13.188593
-1.3302627 3.2479582 8.328186
-1.1807289 2.8657715 5.7474041
-1.0543491 2.5489485 4.1238952
-0.98700118 2.3791053 3.1604359
-0.26859847 0.91845328 16.387043
-0.52432537 1.5662715 15.361758
-0.67100352 1.6752672 6.9856105
-0.86232919 2.1242592 6.2887216
-1.2306024 3.0076458 6.7830739
-1.1219186 2.7298117 4.8977118
-1.0131465 2.4566374 3.5935211
-0.96282238 2.3288741 2.8102167
-0.94099236 2.2548792 2.480866
-0.90921676 2.1755514 1.9836209
-0.8774538 2.0964856 1.5746617
-0.87009448 2.0768855 1.2652639
-0.8519032 2.0314915 0.97834146
-0.83934039 1.9995952 0.72737467
-0.82581758 1.9654689 0.49622929
-0.81078309 1.927821 0.28070197
-0.92860043 2.2339675 2.2358921
-0.90041792 2.1629944 1.7895304
-0.87947237 2.1106188 1.4292552
-0.86386526 2.0701282 1.1244137
-0.83927357 2.0092421 0.84699714
-0.82692975 1.9777682 0.60774505
-0.80832762 1.9323422 0.3843556
-0.79874539 1.9075845 0.17709921
0.0098656267 0.16638866 17.6936
-0.89250857 2.3106604 15.746778
-1.5581293 3.8812871 13.417649
-1.3291939 3.2779288 8.392621
-1.1906183 2.918663 5.8439636
-1.0582423 2.5838628 4.1734905
-0.98843294 2.406255 3.1911359
-0.26562956 0.92021781 16.402018
-0.51902199 1.5685984 15.36673
-0.66468859 1.6764308 6.9807711
-0.85490888 2.1272564 6.2887216
-1.2282689 3.0321004 6.8280864
-1.1231948 2.7602844 4.9446373
-1.0159553 2.4880559 3.6334214
-0.96367669 2.3541832 2.8359427
-0.9412868 2.2779262 2.5018933
-0.91054666 2.2002912 2.0024517
-0.87973535 2.1227129 1.5911106
-0.86962897 2.096277 1.2745391
-0.85369599 2.0558603 0.98770666
-0.83972007 2.0202312 0.73301482
-0.82649964 1.9864811 0.49995977
-0.81170714 1.9490283 0.28249028
-0.92790174 2.2544591 2.2525196
-0.90056378 2.1848094 1.8042463
-0.88032001 2.1336005 1.4419211
-0.86183327 2.0857148 1.130708
-0.83947408 2.0296137 0.85357118
-0.8274582 1.9986066 0.61243433
-0.80915779 1.9534523 0.38711834
-0.79782212 1.9242057 0.1777038
0.010450938 0.16639659 17.698599
-0.88471478 2.3144875 15.751718
-1.5611075 3.9283187 13.560808
-1.331571 3.3169968 8.4800692
-1.1920812 2.9516711 5.9010215
-1.0619045 2.618835 4.2230859
-0.98968709 2.4334435 3.2218359
-0.26257297 0.92169499 16.412001
-0.51354337 1.5704005 15.36673
-0.65837365 1.6775706 6.9759312
-0.84747821 2.1302276 6.2887216
-1.2395531 3.0909243 6.9496188
-1.1242716 2.7907987 4.9915624
-1.018557 2.5195236 3.673322
-0.96563941 2.3826685 2.865344
-0.94143176 2.301002 2.5229206
-0.9102391 2.2214646 2.0181439
-0.8818444 2.1489813 1.6075593
-0.86903864 2.1156905 1.2838144
-0.85356599 2.0759785 0.99519879
-0.83996588 2.0408945 0.73865497
-0.82704496 2.0075216 0.50369024
-0.81249285 1.9702654 0.2842786
-0.92848039 2.2784309 2.2724726
-0.90056795 2.2066512 1.818962
-0.87938786 2.1526232 1.4520538
-0.85970306 2.1013122 1.137002
-0.8413322 2.0543816 0.86178875
-0.82600749 2.0149748 0.61595124
-0.80985045 1.9745917 0.38988104
-0.79679263 1.9408439 0.1783084
0.011036427 0.16640246 17.703598
-0.87663031 2.3175616 15.751718
-1.5659616 3.9809744 13.723056
-1.3344126 3.3579364 8.5721197
-1.1942172 2.9869487 5.9624686
-1.0653354 2.6538639 4.2726812
-0.99076337 2.46067 3.2525358
-0.25950935 0.92316204 16.421986
-0.5082221 1.572691 15.371701
-0.65069395 1.6751715 6.9565735
-0.84003711 2.1331728 6.2887216
-1.2472286 3.1417696 7.0531468
-1.1251493 2.8213542 5.0384879
-1.0220706 2.5538368 3.717212
-0.9674148 2.411196 2.8947453
-0.94008827 2.3208017 2.5404434
-0.9112581 2.2462697 2.0369747
-0.8837806 2.1752901 1.6240081
-0.8699919 2.1392281 1.2954084
-0.8550536 2.100414 1.0045639
-0.83826733 2.0571413 0.74288505
-0.82745349 2.0285902 0.50742072
-0.81125766 1.9869208 0.28561983
-0.9289028 2.3024337 2.2924254
-0.90043056 2.2285199 1.8336779
-0.87994969 2.1756613 1.4647198
-0.85917819 2.1211264 1.1453942
-0.84302735 2.0791864 0.87000626
-0.82628042 2.035861 0.62064052
-0.80854219 1.9911714 0.39195311
-0.7975378 1.9621263 0.17911452
0.011617213 0.16636293 17.703598
-0.86853516 2.3206074 15.751718
-1.2546451 3.2881689 16.943642
-1.5715498 4.0364933 13.894848
-1.3312638 3.3843908 8.6273499
-1.1943588 3.0178225 6.0151377
-1.0685346 2.6889482 4.3222766
-0.99047482 2.4849558 3.2793987
-0.25643867 0.9246189 16.431969
-0.5027293 1.5744555 15.371701
-0.64799863 1.6856461 6.9904499
-0.83195931 2.1344841 6.2840285
-1.2553602 3.194732 7.1611757
-1.1229542 2.8446715 5.0726151
-1.0253569 2.5882049 3.7611022
-0.96775132 2.4366136 2.9204717
-0.94127238 2.3472393 2.564975
-0.91356516 2.2747204 2.0589437
-0.88554388 2.2016382 1.6404569
-0.87079144 2.1627984 1.3070024
-0.85638112 2.1248853 1.0139291
-0.83826011 2.0778496 0.7485252
-0.82772475 2.0496857 0.51115119
-0.81178242 2.0082085 0.28740814
-0.93055362 2.3299344 2.3157041
-0.90015161 2.2504144 1.8483937
-0.87875897 2.1947277 1.4748524
-0.85683626 2.1367502 1.1516885
-0.84455967 2.1040282 0.87822384
-0.82641757 2.0567737 0.62532979
-0.80897504 2.0123606 0.39471582
-0.79627895 1.9788023 0.17971911
0.012197857 0.16632137 17.703598
-0.86042941 2.3236251 15.751718
-1.2424405 3.2906232 16.933851
-1.5719396 4.0795631 14.02369
-1.3371598 3.4345315 8.7424126
-1.1960462 3.0531938 6.0765848
-1.0725315 2.7267056 4.3760047
-0.99120492 2.5122509 3.3100986
-0.25320956 0.92550844 16.431969
-0.49723035 1.5762006 15.371701
-0.64434451 1.6937721 7.0146465
-0.82450354 2.1373751 6.2840285
-1.2631371 3.2477887 7.2692051
-1.1272537 2.8850121 5.1366043
-1.0273159 2.6198218 3.8010025
-0.9691624 2.4652178 2.949873
-0.94096744 2.3703985 2.5860023
-0.91424674 2.2995973 2.0777745
-0.88713384 2.228025 1.6569057
-0.86979681 2.1822851 1.3162776
-0.85583019 2.1450853 1.0214212
-0.83811855 2.098583 0.75416535
-0.82603532 2.0662463 0.5139491
-0.81031817 2.0249007 0.2887494
-0.93065107 2.3540025 2.3356571
-0.89973038 2.2723331 1.8631094
-0.87903422 2.2178195 1.4875184
-0.85774451 2.1608198 1.1621786
-0.84592861 2.1289055 0.88644135
-0.82821518 2.0822284 0.63119137
-0.81110072 2.0381777 0.39816925
-0.79676217 2.0001349 0.18052523
0.012778352 0.16627777 17.703598
-0.85231316 2.3266144 15.751718
-1.2320154 3.2978017 16.948538
-1.5837466 4.1533689 14.257518
-1.3434241 3.4865773 8.8620787
-1.1923069 3.0752144 6.1116977
-1.0762777 2.7645233 4.4297333
-0.98825872 2.5306234 3.3292859
-0.25005212 0.92666548 16.43696
-0.49156711 1.5774176 15.36673
-0.64019895 1.7007169 7.0340047
-0.817653 2.1418524 6.2887216
-1.2658669 3.288748 7.3502264
-1.1350472 2.9351473 5.2176566
-1.0301564 2.6542921 3.8448927
-0.97161478 2.4970207 2.9829493
-0.94442487 2.403542 2.6175432
-0.91476572 2.3245063 2.0966053
-0.88855016 2.2544491 1.6733544
-0.87192792 2.210032 1.3301903
-0.85685146 2.1696191 1.0307864
-0.83784235 2.1193402 0.75980544
-0.82424027 2.0828197 0.51674694
-0.81058127 2.0462365 0.29053769
-0.93195224 2.3815761 2.3589356
-0.90064204 2.2980402 1.8807683
-0.87758446 2.2369266 1.4976511
-0.85849518 2.1849217 1.1726689
-0.84713411 2.1538181 0.89465892
-0.82806432 2.1031976 0.63588065
-0.81124097 2.0594265 0.40093195
-0.79527348 2.0168471 0.18112983
0.013358693 0.16623215 17.703598
-0.84445125 2.3303061 15.756657
-1.222261 3.3068576 16.973013
-1.590315 4.2147365 14.448398
-1.3486452 3.5368822 8.9771414
-1.2030125 3.1352594 6.2214246
-1.0797728 2.8023999 4.4834614
-0.99328458 2.5699348 3.3753364
-0.2467422 0.9272536 16.431969
-0.48605791 1.5791239 15.36673
-0.63732833 1.711187 7.0678806
-0.81017154 2.1446936 6.2887216
-1.2698759 3.3338346 7.4402514
-1.1415722 2.9829352 5.2944436
-1.0327687 2.6888142 3.8887832
-0.97263855 2.5257068 3.0123508
-0.94636947 2.433414 2.6455796
-0.91512185 2.349447 2.1154361
-0.8897928 2.2809103 1.6898032
-0.87226468 2.2336941 1.3417844
-0.85602391 2.1898677 1.0382786
-0.83743137 2.1401207 0.76544559
-0.82233965 2.099406 0.51954478
-0.80888736 2.0629625 0.29187894
-0.93307197 2.4091871 2.3822141
-0.90138501 2.3237808 1.8984272
-0.87757212 2.2600684 1.510317
-0.86073267 2.2132845 1.1852573
-0.84817588 2.1787646 0.9028765
-0.82954198 2.1287198 0.64174229
-0.81124264 2.0807009 0.40369466
-0.79549426 2.0382268 0.18193595
0.013933393 0.16614123 17.698599
-0.83631176 2.3332393 15.756657
-1.2103606 3.3101473 16.968117
-1.5954301 4.2734027 14.629732
-1.3514625 3.5817823 9.0783978
-1.2065127 3.1775033 6.2960391
-1.0830165 2.8403339 4.53719
-0.9969027 2.6063178 3.4175487
-0.24357672 0.9283886 16.43696
-0.4803881 1.5803009 15.361758
-0.63091683 1.7122217 7.0630412
-0.80328429 2.1491251 6.2934146
-1.2735853 3.3789887 7.5302758
-1.1477773 3.0308044 5.3712306
-1.0362229 2.726203 3.9366634
-0.9746809 2.5575979 3.0454271
-0.94939792 2.4666572 2.6771207
-0.91671491 2.3780501 2.1374052
-0.89086151 2.3074074 1.706252
-0.87404358 2.261517 1.3556972
-0.85673803 2.2144606 1.0476437
-0.83688533 2.1609242 0.77108568
-0.82033306 2.116004 0.52234262
-0.80888808 2.0843441 0.29366726
-0.93401045 2.4368348 2.4054925
-0.90195924 2.3495543 1.9160864
-0.87586272 2.2792137 1.5204496
-0.86115235 2.2374539 1.1957476
-0.84905374 2.2037442 0.91109401
-0.82910246 2.1497426 0.64643157
-0.81288826 2.1066201 0.40714806
-0.79737532 2.0642929 0.18294361
0.014513249 0.16609158 17.698599
-0.82842165 2.3368769 15.761597
-1.1991452 3.31531 16.973013
-1.6037748 4.341958 14.844472
-1.3573986 3.6358957 9.2026653
-1.2122591 3.2265353 6.3838205
-1.0870016 2.8809574 4.5950508
-1.0002788 2.6427565 3.4597611
-0.24083711 0.93119043 16.471901
-0.47471595 1.5814575 15.356787
-0.62622708 1.7179567 7.077559
-0.79577756 2.1519158 6.2934146
-1.2777553 3.4262481 7.6248007
-1.1518317 3.073868 5.4394855
-1.0383679 2.7608278 3.9805536
-0.97651243 2.5895338 3.0785036
-0.95220572 2.4999509 2.7086616
-0.91673195 2.4030557 2.1562359
-0.89175588 2.3339393 1.722701
-0.87405628 2.2852418 1.3672911
-0.85563338 2.2347558 1.0551358
-0.83620435 2.1817498 0.77672583
-0.81998026 2.1372001 0.52607316
-0.8069638 2.1011014 0.29500848
-0.93476707 2.4645181 2.428771
-0.90236425 2.3753598 1.9337454
-0.87709475 2.3064334 1.5356488
-0.86141372 2.2616527 1.2062378
-0.84976739 2.2287562 0.91931158
-0.8302592 2.1753292 0.65229309
-0.81259626 2.12795 0.40991077
-0.79730022 2.0857303 0.18374974
0.01509293 0.1660399 17.698599
-0.82025939 2.3397543 15.761597
-1.1879081 3.3204341 16.977907
-1.6116599 4.4106221 15.059211
-1.3521438 3.6607711 9.253293
-1.2160087 3.2711558 6.4628234
-1.0907161 2.9216428 4.6529126
-1.0022886 2.676249 3.4981363
-0.23786847 0.93314505 16.491867
-0.46904162 1.5825937 15.351815
-0.62065274 1.7213147 7.0823989
-0.78885376 2.156301 6.2981067
-1.282364 3.47562 7.7238274
-1.1565057 3.1194417 5.5120063
-1.0413344 2.7983246 4.0284338
-0.97813261 2.6215134 3.1115801
-0.95353484 2.5299561 2.7366979
-0.91933459 2.4353731 2.1813436
-0.89247584 2.3605056 1.7391497
-0.87548196 2.3131371 1.3812039
-0.85603964 2.2594047 1.064501
-0.83538812 2.2025967 0.78236604
-0.81948942 2.1584189 0.52980363
-0.8067016 2.1225259 0.2967968
-0.9340297 2.4887402 2.448724
-0.90402222 2.4049797 1.9543474
-0.87814724 2.3336887 1.5508479
-0.86151665 2.2858806 1.2167281
-0.8486498 2.2493818 0.92588562
-0.82953 2.1964025 0.65698236
-0.81041473 2.1446705 0.41198283
-0.79708517 2.1071918 0.18455586
0.015666498 0.165943 17.6936
-0.81234157 2.3433375 15.766536
-1.1766499 3.3255205 16.982803
-1.6185776 4.4779902 15.269178
-1.3634927 3.7315295 9.4189844
-1.2202882 3.3180895 6.5462165
-1.0941596 2.962389 4.7107739
-1.0029629 2.7067814 3.5326738
-0.23509863 0.93593049 16.52681
-0.46351445 1.5842214 15.351815
-0.6159066 1.7270225 7.0969167
-0.78132212 2.1590416 6.2981067
-1.2896289 3.5332451 7.8408589
-1.1599776 3.162637 5.5802612
-1.0440516 2.8358753 4.076314
-0.97954148 2.6535356 3.1446567
-0.95466596 2.5600014 2.7647343
-0.92036092 2.4640913 2.2033129
-0.89302093 2.3871047 1.7555984
-0.87672341 2.3410695 1.3951167
-0.85465693 2.2797427 1.0719931
-0.83612168 2.2279553 0.78941613
-0.81886023 2.1796601 0.53353411
-0.80629957 2.1439738 0.29858512
-0.93443429 2.5164876 2.4720025
-0.90407538 2.4308519 1.9720063
-0.87902004 2.3609796 1.566047
-0.86146075 2.3101363 1.2272184
-0.84904987 2.2744501 0.93410313
-0.82866383 2.2174971 0.66167164
-0.80986041 2.1660399 0.41474554
-0.79848099 2.1333559 0.1855635
0.016239569 0.16584408 17.688599
-0.80415684 2.3461587 15.766536
-1.1653707 3.3305686 16.987698
-0.88292837 2.4693859 8.4309254
-1.3703796 3.7913864 9.5570602
-1.2234358 3.3628416 6.6252198
-1.0973319 3.0031941 4.7686348
-1.0034362 2.7373512 3.5672116
-0.23183019 0.93674541 16.52681
-0.45798168 1.5858296 15.351815
-0.61071032 1.7315329 7.106596
-0.77378082 2.1617558 6.2981067
-1.2898542 3.5725343 7.9173794
-1.1640512 3.2083452 5.652782
-1.0465193 2.8734787 4.1241941
-0.98073834 2.6855989 3.1777329
-0.95559871 2.5900846 2.7927706
-0.92119783 2.4928463 2.225282
-0.89484245 2.4176574 1.7747886
-0.8777805 2.3690391 1.4090296
-0.85475475 2.3044453 1.0813583
-0.83501863 2.2488487 0.79505628
-0.81809264 2.200923 0.53726459
-0.8057577 2.1654449 0.30037344
-0.9333691 2.5407629 2.4919558
-0.9053545 2.4605467 1.9926084
-0.88120276 2.392349 1.5837791
-0.86124593 2.3344195 1.2377086
-0.84764934 2.295119 0.94067723
-0.8276605 2.2386127 0.66636097
-0.80916679 2.1874318 0.41750827
-0.79796892 2.1548703 0.18636963
0.016812142 0.1657432 17.683599
-0.7962116 2.3496878 15.771475
-1.1560676 3.341352 17.021965
-0.87679094 2.4794898 8.4547863
-1.3794954 3.858695 9.7135458
-1.2270966 3.409909 6.7086124
-1.1011889 3.0467038 4.8306293
-0.99933779 2.7559032 3.5863988
-0.22855893 0.93754894 16.52681
-0.45258906 1.5879314 15.356787
-0.60631758 1.7384018 7.1259537
-0.76565456 2.162817 6.2934146
-1.2971412 3.6323695 8.0389128
-1.1678196 3.2541199 5.7253032
-1.0497583 2.9139683 4.1760645
-0.98287511 2.7208912 3.2144847
-0.95755571 2.6235557 2.8243115
-0.92184496 2.5216365 2.247251
-0.89502388 2.4443254 1.7912376
-0.87712818 2.3928845 1.4206235
-0.85469031 2.3291755 1.0907234
-0.83543396 2.2742641 0.80210644
-0.81888193 2.2268171 0.54192764
-0.8067959 2.1916108 0.30260882
-0.9321456 2.5650609 2.5119085
-0.90643728 2.4902799 2.0132108
-0.88317704 2.4237628 1.6015114
-0.86087203 2.3587289 1.2481989
-0.84773511 2.3202407 0.94889468
-0.82651961 2.2597475 0.67105019
-0.80833364 2.2088449 0.42027098
-0.79731637 2.1764069 0.18717575
0.017390592 0.16568351 17.683599
-0.78800482 2.3524528 15.771475
-1.1473624 3.354038 17.066023
-0.8696084 2.486762 8.469101
-1.3875066 3.9242711 9.8654289
-1.2304435 3.4570422 6.7920046
-1.1057026 3.0929263 4.8967566
-1.0081066 2.8106649 3.6516364
-0.22528487 0.93834108 16.52681
-0.44718742 1.5900148 15.361758
-0.59860718 1.7357543 7.106596
-0.75810021 2.1654763 6.2934146
-1.3076503 3.7025621 8.182951
-1.1704103 3.2975018 5.7935581
-1.0537384 2.9573536 4.231925
-0.98363662 2.7530384 3.2475612
-0.95929056 2.6570714 2.8558524
-0.92362595 2.554122 2.2723589
-0.89502996 2.4710238 1.8076863
-0.87783003 2.4209185 1.4345363
-0.8544637 2.3539333 1.1000886
-0.8356818 2.2997093 0.8091566
-0.81782097 2.2481272 0.54565811
-0.80595708 2.2131312 0.30439714
-0.93834138 2.6104634 2.5518146
-0.90869248 2.5238531 2.036756
-0.88348103 2.4511635 1.6167104
-0.86033869 2.3830638 1.258689
-0.84765595 2.3453913 0.95711231
-0.82689494 2.2854722 0.67691177
-0.80904639 2.2349348 0.42372438
-0.79652303 2.1979649 0.18798187
0.017962297 0.16557865 17.678598
-0.77978843 2.3551891 15.771475
-1.1372782 3.3628454 17.090498
-0.85848415 2.4827287 8.4452419
-1.3950765 3.989949 10.017312
-1.2326809 3.5019808 6.8710079
-1.1099067 3.1392167 4.9628835
-1.0154335 2.8625 3.7130363
-0.22200808 0.93912172 16.52681
-0.44163451 1.5915661 15.361758
-0.59132814 1.7342639 7.0920777
-0.74997234 2.1664786 6.2887216
-1.3162495 3.7687609 8.3179884
-1.1744394 3.3458626 5.8703451
-1.0574282 3.000802 4.2877855
-0.98418552 2.7852235 3.2806377
-0.96200222 2.6939895 2.890898
-0.92388028 2.5829849 2.294328
-0.89627051 2.501688 1.8268765
-0.8753559 2.4406471 1.4438115
-0.8540746 2.3787179 1.1094538
-0.83576226 2.3251843 0.81620675
-0.81828439 2.2740791 0.55032122
-0.80666554 2.2393575 0.30663255
-0.9417299 2.6489036 2.5850697
-0.90936834 2.5536642 2.057358
-0.88360435 2.4785955 1.6319095
-0.86117208 2.4116974 1.2712774
-0.84741122 2.3705685 0.96532977
-0.82546276 2.3066502 0.68160105
-0.80958658 2.2610564 0.42717776
-0.79727453 2.2242465 0.18898953
0.018533483 0.16547182 17.673601
-0.77180409 2.3586352 15.776415
-1.1323105 3.3870749 17.193298
-0.8522265 2.4927726 8.469101
-1.401566 4.0538802 10.164593
-1.236194 3.5515008 6.9587898
-1.1147296 3.1882298 5.0331435
-1.0224109 2.9144201 3.7744367
-0.21866365 0.93960971 16.521818
-0.43621656 1.5936121 15.36673
-0.58406681 1.7327439 7.077559
-0.74128783 2.1658177 6.279336
-1.3244022 3.8350639 8.4530239
-1.1738695 3.3819718 5.9258022
-1.0618188 3.047157 4.3476357
-0.98452175 2.817446 3.3137143
-0.96446753 2.7309585 2.9259434
-0.92524242 2.6155503 2.3194356
-0.89591146 2.5284493 1.8433253
-0.87423557 2.4645624 1.4554056
-0.8535226 2.4035277 1.118819
-0.83728153 2.355207 0.82466698
-0.81857657 2.3000612 0.55498439
-0.80720055 2.265615 0.30886793
-0.94486147 2.6873989 2.6183245
-0.91118956 2.587323 2.0809033
-0.88354689 2.5060582 1.6471086
-0.86181605 2.4403663 1.2838658
-0.84700114 2.3957732 0.97354734
-0.82551461 2.3324282 0.68746263
-0.80995429 2.2872088 0.43063119
-0.79618293 2.2458513 0.18979566
0.019110974 0.16540612 17.673601
-0.76380515 2.3620543 15.781354
-1.1271874 3.41131 17.296099
-0.84399772 2.4971464 8.4738731
-1.40889 4.1216025 10.321078
-1.2347002 3.5874994 7.020237
-1.1201432 3.2399745 5.1075368
-1.0300882 2.9694514 3.8396745
-0.21563831 0.94149333 16.541786
-0.43065113 1.5951252 15.36673
-0.57682335 1.7311945 7.0630412
-0.73317033 2.1667576 6.2746434
-1.3335146 3.9055896 8.5970631
-1.1747546 3.4230511 5.9897909
-1.0649171 3.0907297 4.4034963
-0.98132342 2.840091 3.3357651
-0.96668643 2.7679768 2.9609885
-0.92638838 2.6481564 2.3445435
-0.89537638 2.5552387 1.8597742
-0.87442517 2.4926796 1.4693183
-0.85434389 2.4327369 1.1300571
-0.83860141 2.3852684 0.83312714
-0.81869698 2.3260725 0.55964744
-0.80590707 2.2872066 0.31065625
-0.94650954 2.7224214 2.6482542
-0.91278684 2.6210253 2.1044486
-0.88330835 2.53355 1.6623077
-0.86227012 2.4690683 1.2964541
-0.84642524 2.4210031 0.98176491
-0.82700217 2.3628221 0.69449651
-0.81014919 2.313391 0.43408459
-0.79495013 2.2674749 0.19060178
0.019688236 0.16533841 17.673601
-0.75602806 2.3661861 15.791232
-1.1165367 3.4190958 17.31568
-0.83669466 2.5043247 8.4881897
-1.4151326 4.1875734 10.472962
-1.2453128 3.6598079 7.1519094
-1.1242988 3.2891319 5.1777973
-1.0290749 3.0003157 3.8742115
-0.21260247 0.94336724 16.56175
-0.42521733 1.5971339 15.371701
-0.56841874 1.7260338 7.0340047
-0.72505522 2.1676672 6.2699504
-1.331708 3.9452851 8.673584
-1.1896114 3.5061636 6.1263008
-1.0677238 3.1343606 4.4593563
-0.98236263 2.8755805 3.3725169
-0.96865857 2.8050439 2.9960341
-0.92604524 2.6771233 2.3665125
-0.896034 2.5860054 1.8789644
-0.87442893 2.5208278 1.4832311
-0.85497147 2.4619806 1.1412953
-0.8397215 2.4153676 0.84158736
-0.82026052 2.3567519 0.56524318
-0.80611116 2.3135195 0.31289166
-0.94792455 2.7574878 2.6781836
-0.91284382 2.6509478 2.1250505
-0.87726909 2.544769 1.6673741
-0.86253434 2.497803 1.3090423
-0.84722614 2.450721 0.99162596
-0.82669783 2.3886609 0.70035815
-0.81017101 2.339602 0.43753797
-0.79357594 2.2891173 0.1914079
0.020258117 0.16522561 17.6686
-0.74823147 2.3702929 15.80111
-1.106158 3.4278171 17.340155
-0.82841581 2.5086477 8.4929619
-1.4221693 4.2573433 10.63405
-1.2508544 3.7186134 7.257247
-1.1281245 3.3383572 5.2480569
-1.0278587 3.031209 3.9087491
-0.20955616 0.94523144 16.581718
-0.41963971 1.5986085 15.371701
-0.56588984 1.738765 7.077559
-0.71694261 2.1685462 6.2652574
-1.3337741 3.997406 8.7771111
-1.198097 3.5721114 6.2329493
-1.0702389 3.1780486 4.5152168
-0.98858923 2.9271712 3.4276443
-0.97038352 2.8421581 3.0310798
-0.92677075 2.7098024 2.3916202
-0.89648765 2.6168077 1.8981547
-0.87424678 2.549006 1.4971439
-0.85540533 2.4912579 1.1525337
-0.83908218 2.4409668 0.84863752
-0.82002127 2.3828254 0.56990629
-0.80451918 2.3351526 0.31467995
-0.95030749 2.7961316 2.7114387
-0.91270292 2.680903 2.1456528
-0.8850686 2.5967798 1.6977723
-0.86554098 2.5351591 1.3258268
-0.84783 2.4804738 1.001487
-0.82779652 2.4191251 0.70739204
-0.81001967 2.3658414 0.4409914
-0.79368019 2.3155036 0.19241555
0.020834737 0.16515389 17.6686
-0.74064654 2.3751156 15.815928
-1.0969691 3.4403884 17.384212
-0.82011688 2.512943 8.4977331
-1.4299608 4.3309231 10.804343
-1.2575114 3.7820468 7.3713632
-1.1325117 3.3903182 5.3224502
-1.0233834 3.0530131 3.9317744
-0.20662148 0.94765019 16.611668
-0.41405696 1.6000636 15.371701
-0.56020164 1.7419266 7.0823989
-0.7088328 2.1693954 6.2605648
-1.3327656 4.0413184 8.8626347
-1.2069571 3.6406364 6.3438635
-1.0734133 3.2246504 4.575067
-0.99017358 2.9659772 3.4680707
-0.971861 2.8793178 3.0661252
-0.9260326 2.738832 2.4135895
-0.89673692 2.647644 1.9173449
-0.87672335 2.5856037 1.5156943
-0.85713518 2.5249579 1.1656448
-0.83981782 2.4711325 0.85709774
-0.82119209 2.4135761 0.57550198
-0.80439156 2.361517 0.31691536
-0.9512431 2.8312864 2.7413681
-0.91236401 2.7108889 2.166255
-0.88700986 2.6325345 1.7180376
-0.86684585 2.5682666 1.3405132
-0.84672451 2.5057864 1.0097045
-0.82713503 2.4450212 0.71325362
-0.80810714 2.3874168 0.44375411
-0.79200643 2.3371866 0.19322167
0.021396242 0.1649942 17.658602
-0.73120838 2.3739734 15.791232
-1.0864824 3.4490528 17.408688
-0.81179816 2.5172112 8.5025053
-1.4342258 4.3953218 10.951625
-1.2644883 3.8478465 7.4898686
-1.1339031 3.4343333 5.3844442
-1.0288484 3.1052485 3.9931743
-0.20343234 0.94893044 16.621653
-0.40860057 1.6020157 15.376673
-0.55525923 1.7474653 7.0969167
-0.70178598 2.1734986 6.2652574
-1.3476551 4.1349483 9.0561867
-1.2145411 3.7067871 6.4505119
-1.0753336 3.2684505 4.6309276
-0.99468577 3.014488 3.5195234
-0.97309077 2.9165223 3.1011708
-0.92633677 2.7715805 2.4386971
-0.89943677 2.6864443 1.9420182
-0.87754714 2.6180496 1.5319259
-0.85864002 2.5587001 1.178756
-0.83882535 2.4967856 0.8641479
-0.8221581 2.4443634 0.58109772
-0.80250037 2.3831887 0.31870368
-0.95076782 2.8629375 2.7679722
-0.91182655 2.7409043 2.186857
-0.89007437 2.6724243 1.7408363
-0.86936629 2.6057186 1.3572977
-0.84694862 2.5356002 1.0195656
-0.82630283 2.4709425 0.7191152
-0.80762511 2.4137037 0.44720748
-0.79336458 2.3683603 0.19443086
0.021972047 0.1649185 17.658602
-0.72269118 2.3757679 15.786292
-1.0738314 3.4508796 17.398897
-0.80300647 2.5200295 8.5025053
-1.4464513 4.4858336 11.163341
-1.2643635 3.893239 7.5688715
-1.1419837 3.4998009 5.4795022
-1.0319662 3.1514664 4.0468998
-0.20005967 0.94935215 16.616659
-0.40300599 1.6034323 15.376673
-0.54877979 1.7481937 7.0920777
-0.69419479 2.175935 6.2652574
-1.3498954 4.1914306 9.1687174
-1.2208744 3.7705534 6.5528941
-1.0816193 3.3266306 4.706738
-0.99782014 3.0598421 3.5673006
-0.9740724 2.9537694 3.1362159
-0.92153996 2.7895806 2.4512508
-0.90187657 2.7252951 1.9666914
-0.87954825 2.6547372 1.5504763
-0.85991961 2.5924828 1.1918672
-0.83766377 2.5224612 0.87119806
-0.82446885 2.4798481 0.58762604
-0.80204028 2.4096007 0.32093906
-0.9500832 2.8946197 2.7945762
-0.91235322 2.7747891 2.2104025
-0.89152318 2.7082725 1.7611017
-0.87021446 2.6389089 1.3719839
-0.84845525 2.5699301 1.0310701
-0.82529956 2.4968872 0.72497684
-0.8069694 2.4400165 0.45066091
-0.79294437 2.394829 0.19543852
0.022516649 0.16466902 17.638601
-0.71327674 2.3745551 15.761597
-1.0620782 3.4555805 17.403793
-0.79465318 2.524241 8.5072775
-1.455097 4.5671763 11.352044
-1.2763767 3.9774449 7.7224894
-1.1487575 3.5626876 5.5704269
-1.0347737 3.1977432 4.1006246
-0.19668655 0.94976193 16.611668
-0.39740652 1.6048293 15.376673
-0.54267412 1.7500987 7.0920777
-0.68659508 2.178345 6.2652574
-1.3543977 4.2562766 9.2992525
-1.2267772 3.8344085 6.6552768
-1.0847468 3.3762877 4.7705784
-0.99960995 3.1020279 3.6114023
-0.97480589 2.9910593 3.1712615
-0.92991626 2.8482823 2.4983277
-0.90405595 2.7641954 1.9913646
-0.87992525 2.6872604 1.566708
-0.85952973 2.6219006 1.2031054
-0.83483726 2.5436015 0.87683815
-0.82347476 2.5060449 0.59228915
-0.80296183 2.4407692 0.32362157
-0.94918877 2.9263313 2.8211801
-0.91640139 2.8202426 2.2427771
-0.89273244 2.7441626 1.7813672
-0.86943525 2.6678219 1.3845723
-0.84826761 2.5998116 1.0409312
-0.82412517 2.5228546 0.73083836
-0.80767816 2.4710605 0.45480499
-0.7939027 2.4260712 0.1966477
0.023193805 0.1651473 17.703598
-0.70564616 2.3792655 15.776415
-1.0494182 3.4573178 17.394003
-0.78583711 2.5269995 8.5072775
-1.4643652 4.65236 11.549953
-1.2849224 4.05265 7.8585515
-1.1551057 3.6256638 5.6613517
-1.0372705 3.2440779 4.1543498
-0.193313 0.95015973 16.606676
-0.39192817 1.6067246 15.381644
-0.53656185 1.7519823 7.0920777
-0.67949998 2.1823761 6.2699504
-1.3571581 4.3170509 9.420785
-1.2322489 3.8983502 6.7576594
-1.0930104 3.4432387 4.8583589
-1.0021459 3.1474934 3.6591797
-0.97419757 3.0249951 3.2028024
-0.93191856 2.8885541 2.5297122
-0.90597457 2.8031435 2.0160377
-0.8814494 2.7240326 1.5852584
-0.86037332 2.6557565 1.2162167
-0.83483326 2.5738783 0.88529837
-0.82534218 2.5416088 0.59881747
-0.80213565 2.467237 0.32585695
-0.94580543 2.9509606 2.8411331
-0.9176718 2.8580608 2.2692657
-0.89370191 2.7800939 1.8016325
-0.8698557 2.7010806 1.3992586
-0.84933072 2.6342173 1.0524358
-0.82427251 2.5534694 0.7378723
-0.80817991 2.5021389 0.45894906
-0.79465246 2.4573488 0.19785689
0.023866544 0.16557999 17.763597
-0.69777304 2.3832054 15.786292
-1.0385126 3.4648616 17.413584
-0.77744967 2.5311542 8.5120497
-1.4736364 4.7395291 11.752464
-1.2922422 4.1256757 7.9902234
-1.161028 3.6887264 5.7522769
-1.0394564 3.2904682 4.2080746
-0.18999514 0.95082867 16.606676
-0.38631725 1.6080829 15.381644
-0.53007925 1.7526413 7.0872383
-0.67238504 2.1863842 6.2746434
-1.365966 4.3986855 9.5873308
-1.238066 3.9648652 6.8643074
-1.0990164 3.5045373 4.9381595
-1.0013248 3.1833122 3.6959314
-0.97444534 3.062361 3.237848
-0.93483305 2.9325826 2.5642354
-0.90763217 2.8421383 2.0407109
-0.88137853 2.756629 1.60149
-0.85957783 2.685235 1.2274549
-0.83755606 2.6133225 0.89657867
-0.82396936 2.5678611 0.60348064
-0.80265754 2.4984698 0.3285394
-0.94677001 2.9898398 2.874388
-0.91991156 2.8997746 2.2986972
-0.89312643 2.8119566 1.8193648
-0.86730224 2.7257249 1.4097489
-0.85159713 2.6731613 1.0655838
-0.82569313 2.5887465 0.74607849
-0.80847448 2.5332506 0.46309313
-0.79519337 2.4886613 0.19906607
0.024444381 0.16549568 17.763597
-0.68966544 2.3863733 15.791232
-1.0284336 3.4753003 17.447851
-0.76904273 2.5352809 8.5168219
-1.4817429 4.8249507 11.950373
-1.2990674 4.1988015 8.1218958
-1.1673595 3.7545617 5.8473349
-1.0394213 3.3307936 4.2541246
-0.18678516 0.95205289 16.616659
-0.38070163 1.6094216 15.381644
-0.52395815 1.754481 7.0872383
-0.66474909 2.1887181 6.2746434
-1.3671989 4.45754 9.7043619
-1.2434337 4.0314674 6.9709554
-1.1046076 3.5659192 5.0179601
-1.0052952 3.2353504 3.7510586
-0.97337461 3.0963628 3.2693887
-0.93628216 2.9729538 2.5956199
-0.90902847 2.8811784 2.0653841
-0.88242495 2.7934811 1.6200403
-0.85998464 2.7191601 1.2405661
-0.84001356 2.6528163 0.90785891
-0.82539237 2.6034994 0.61000896
-0.80297112 2.529736 0.33122188
-0.95304817 3.0465794 2.9242706
-0.9206624 2.9376817 2.3251858
-0.89362967 2.8479617 1.8396302
-0.86867023 2.7633729 1.4265333
-0.85218424 2.7076478 1.0770885
-0.8268773 2.6240644 0.75428468
-0.80856156 2.5643947 0.46723723
-0.79402137 2.5152431 0.20007373
0.024938583 0.16498102 17.713598
-0.68197024 2.3910079 15.806049
-1.0162961 3.478869 17.447851
-0.76061642 2.5393801 8.5215931
-1.4904044 4.9142241 12.157486
-1.3053979 4.2720246 8.2535686
-1.1724192 3.8177948 5.9382596
-1.0495019 3.4048514 4.3423872
-0.18362302 0.95354986 16.631636
-0.37520197 1.6112601 15.386616
-0.52067322 1.7659448 7.1259537
-0.65710497 2.191025 6.2746434
-1.3812891 4.5602088 9.9159193
-1.2491111 4.1006498 7.0818701
-1.1089019 3.6245005 5.0937705
-1.0069251 3.2809722 3.7988358
-0.97313577 3.1338003 3.3044343
-0.93746072 3.01337 2.6270044
-0.9089188 2.9162703 2.0873158
-0.88322473 2.8303742 1.6385907
-0.85878259 2.7486954 1.2518044
-0.84220535 2.6923585 0.91913921
-0.82510835 2.6344912 0.61560464
-0.80307609 2.5610344 0.33390436
-0.9567368 3.0962629 2.9675019
-0.92115963 2.9756284 2.3516741
-0.89516854 2.8881218 1.8624289
-0.87113178 2.8053977 1.4454159
-0.85394281 2.7466805 1.0902365
-0.82926959 2.6640627 0.76366329
-0.80991352 2.6002975 0.47207198
-0.7941606 2.5466156 0.20128292
0.02553129 0.16497858 17.723598
-0.67298871 2.3911297 15.791232
-1.0075307 3.4941359 17.506594
-0.75217092 2.5434511 8.5263653
-1.4990211 5.0054884 12.369203
-1.3112324 4.3453422 8.3852406
-1.177868 3.8838015 6.0333176
-1.0534779 3.4606218 4.4076247
-0.18039958 0.95475245 16.641617
-0.36957532 1.6125599 15.386616
-0.51626122 1.7737862 7.1501508
-0.64945281 2.1933055 6.2746434
-1.3890649 4.6442575 10.086965
-1.252818 4.1649251 7.1842523
-1.1128004 3.6831543 5.1695805
-1.0092318 3.3298893 3.8502879
-0.97787547 3.1883204 3.3570025
-0.93951154 3.0575511 2.6615274
-0.90980548 2.9553924 2.111989
-0.8837775 2.8673062 1.6571411
-0.85875171 2.7826848 1.2649156
-0.84271502 2.727365 0.92900944
-0.82606965 2.6702054 0.62213302
-0.80297226 2.5923643 0.33658686
-0.9600901 3.1460092 3.0107336
-0.92140311 3.0136144 2.3781624
-0.89517611 2.9242051 1.8826944
-0.87331027 2.8474729 1.4642982
-0.8540529 2.7812433 1.1017411
-0.82996404 2.6994631 0.77186948
-0.81102467 2.636241 0.47690675
-0.79261982 2.5732448 0.20229056
0.026081124 0.16476014 17.708599
-0.66443026 2.3927157 15.786292
-0.99783522 3.5064456 17.55065
-0.74370623 2.5474942 8.5311375
-1.5053566 5.0912499 12.56711
-1.317255 4.4210467 8.5213013
-1.1836773 3.9525874 6.1325083
-1.0589223 3.5225999 4.4805374
-0.17727424 0.95651221 16.661585
-0.36394417 1.6138401 15.386616
-0.51180089 1.7816182 7.1743479
-0.64179277 2.195559 6.2746434
-1.3925717 4.7158885 10.231004
-1.2560911 4.2292752 7.2866344
-1.1137187 3.733217 5.2334213
-1.0092654 3.3723662 3.8943903
-0.98121262 3.2394986 3.4060662
-0.94126529 3.101783 2.6960506
-0.91164619 2.9985569 2.1394038
-0.88408321 2.9042764 1.6756915
-0.85849392 2.8167071 1.2780267
-0.84299046 2.7624073 0.93887961
-0.82535613 2.7012594 0.6277287
-0.80265933 2.623724 0.33926931
-0.96203029 3.1922412 3.0506394
-0.92256069 3.0555072 2.407594
-0.89618975 2.9644492 1.9054928
-0.87520552 2.8895969 1.4831808
-0.85530239 2.8203592 1.1148891
-0.8318336 2.7395515 0.78124803
-0.81189454 2.6722233 0.48174149
-0.79235673 2.6046743 0.20349976
0.026664862 0.16471082 17.713598
-0.65586901 2.3942711 15.781354
-0.98971707 3.5246119 17.624077
-0.73522252 2.5515091 8.5359097
-1.5154902 5.1921201 12.801839
-1.3220888 4.4945478 8.6529741
-1.1890204 4.0214601 6.231699
-1.0630348 3.5815847 4.5496125
-0.17362757 0.95542043 16.631636
-0.35830861 1.6151007 15.386616
-0.50694948 1.7882314 7.1937056
-0.63412493 2.1977859 6.2746434
-1.4047329 4.8189502 10.442561
-1.2559954 4.2836881 7.3719535
-1.121111 3.8064537 5.3291817
-1.0118964 3.4246371 3.9495175
-0.98420423 3.2907386 3.4551299
-0.9438386 3.149792 2.733712
-0.91199416 3.0377643 2.1640768
-0.88541657 2.9455256 1.6965607
-0.85667282 2.8463221 1.2892649
-0.84441543 2.8020773 0.95015985
-0.82727373 2.7417469 0.63518965
-0.80213714 2.6551127 0.34195179
