# .PCD v0.7 - Point Cloud Data file format
VERSION 0.7
FIELDS x y z
SIZE 4 4 4
TYPE F F F
COUNT 1 1 1
WIDTH 1528
HEIGHT 1
VIEWPOINT 0 0 0 1 0 0 0
POINTS 1528
DATA ascii
-0.95849651 11.180244 1.6572789
-0.84536272 9.8204069 0.49128589
0.025936002 0.076885998 7.8739734
-0.10385695 1.6099684 7.7797766
-0.63374335 8.9036551 28.583012
-0.14932902 1.9979781 4.7796392
-0.16513783 2.1495178 4.0181065
-0.59625036 7.6259041 11.30696
-0.69943786 8.8271132 10.678107
0.012886283 0.46394926 7.8662825
-0.13312134 1.990006 7.7163634
-0.47336325 6.6174979 18.095722
-0.14835532 1.99459 4.1993771
-0.54080856 7.1245799 11.757335
-0.68565512 8.8894815 11.880801
-0.69772369 8.9443521 9.8040552
-0.80411959 9.8855619 9.8263941
-0.9828819 12.005698 9.7952394
-0.58459872 7.0949368 4.7520208
-1.3513362 16.331474 8.6645546
-1.0907326 13.126229 5.4099374
-0.66861147 8.0123663 2.4532549
-0.9533003 11.376195 2.2588813
-0.9053008 10.758347 1.0621961
-0.87110859 10.897516 9.8180323
-1.0395275 12.919518 9.5212126
-0.79427987 9.828558 5.8800507
-1.0435783 12.829989 6.0380526
-1.164225 14.251817 5.0658851
-0.74321657 9.0590801 2.2829869
-0.96856201 11.780707 1.7408513
-0.82669973 10.012501 0.49894407
0.026186613 0.076755077 7.8689733
-0.098236486 1.6103212 7.7797766
-0.15763362 2.1500812 4.0181065
-0.56899881 7.6195207 11.29456
-0.6695891 8.8422842 10.693457
0.01450569 0.46390143 7.8662825
-0.12617411 1.9904586 7.7163634
-0.44979265 6.6122231 18.07695
-0.14139199 1.9950958 4.1993771
-0.51480615 7.1108165 11.731738
-0.65572697 8.906848 11.900752
-0.66574228 8.9365902 9.7930288
-0.76767063 9.8634195 9.8018627
-0.94127232 12.012938 9.798378
-0.5575276 7.0677552 4.732831
-1.3793392 17.409172 9.2280226
-1.0375518 13.037531 5.3724766
-0.91869456 11.443108 2.2710054
-0.90936816 11.277681 1.1086923
-0.83306384 10.900491 9.8180323
-0.99442375 12.923069 9.5212126
-0.76196027 9.8570585 5.8952498
-0.99702603 12.810928 6.0275621
-1.0986443 14.053358 4.995214
-0.71120948 9.0567732 2.2818143
-0.96240187 12.228328 1.8030125
-0.87009394 11.006424 0.53904873
0.026454378 0.076663204 7.8689733
-0.092614807 1.6106542 7.7797766
-0.46637088 7.2677636 23.32906
-0.15012747 2.1506183 4.0181065
-0.54239827 7.62146 11.29456
-0.63964307 8.8573561 10.708807
0.016124919 0.46384797 7.8662825
-0.11930031 1.9921415 7.7212029
-0.4262647 6.6068645 18.05818
-0.13442695 1.9955772 4.1993771
-0.49034002 7.117774 11.74027
-0.62442154 8.9060755 11.896762
-0.63382357 8.9287148 9.7820034
-0.73217911 9.8518143 9.7878447
-0.89991456 12.023911 9.8046541
-1.3760875 18.173632 9.6268568
-0.98851961 12.994846 5.3537464
-0.89045548 11.652007 3.5248797
-0.88062513 11.470734 2.2756686
-0.91518146 11.866685 1.1614476
-0.79528046 10.907056 9.8213577
-0.9496038 12.930493 9.5241566
-0.72691357 9.851059 5.890183
-0.96590209 12.936351 4.6040587
-0.68068194 9.0737429 2.2853315
-0.98840177 13.145167 1.9307883
-0.86328071 11.42786 0.55597734
0.026739715 0.076610185 7.8739734
-0.086992018 1.6109678 7.7797766
-0.44090846 7.267858 23.324287
-0.14261949 2.1511292 4.0181065
-0.51560122 7.6204996 11.290428
-0.60960001 8.8723259 10.724156
0.017731864 0.46350041 7.8612905
-0.11234572 1.9925457 7.7212029
-0.40319985 6.6083121 18.05818
-0.12746029 1.9960343 4.1993771
-0.59633303 8.9532995 11.956613
-0.60265273 8.930872 9.7820034
-0.69677782 9.8400793 9.7738266
-0.85876858 12.038627 9.8140697
-1.3254025 18.355057 9.7196083
-0.9498629 13.090693 5.3912067
-0.84907931 11.645475 3.5220597
-0.84093833 11.478637 2.2766011
-0.92310834 12.54029 1.2218033
-0.75513488 10.879968 9.794754
-0.90446216 12.933729 9.5241566
-0.6943357 9.8793373 5.9053822
-0.92074001 12.939643 4.6040587
-0.66217816 9.2602959 2.3298795
-0.96835691 13.509112 1.981208
-0.86394453 11.993886 0.57875031
0.027006971 0.076516375 7.8739734
-0.081368156 1.6112616 7.7797766
-0.41366303 7.236567 23.219303
-0.13510977 2.151614 4.0181065
-0.4929603 7.6840343 11.381353
-0.5796687 8.8903923 10.743344
0.019349674 0.46343568 7.8612905
-0.10538975 1.9929259 7.7212029
-0.38102138 6.625185 18.100414
-0.12049204 1.996467 4.1993771
-0.47719172 7.711916 12.708637
-0.56773281 8.9974289 12.012472
-0.57190728 8.9396887 9.7893543
-0.66218585 9.8388939 9.7703218
-0.81700414 12.045436 9.8172083
-0.9054395 13.112429 5.3986993
-0.80120713 11.486403 2.2775338
-0.91902971 13.109762 1.2727703
-0.71518803 10.852732 9.7681503
-0.8595773 12.94084 9.5270996
-0.66042066 9.8903036 5.9104486
-0.88608408 13.098254 4.6582947
-0.66843051 9.8299332 2.4670405
-0.99192703 14.549937 2.1262507
-0.86032528 12.555064 0.60132182
0.027273899 0.076421641 7.8739734
-0.07574331 1.6115358 7.7797766
-0.38712108 7.2141175 23.142952
-0.39860684 6.9739914 16.516077
-0.12759843 2.1520724 4.0181065
-0.46868983 7.7278414 11.443347
-0.54863191 8.8923607 10.743344
0.020953147 0.46307698 7.8562989
-0.098432496 1.9932816 7.7212029
-0.11352234 1.9968755 4.1993771
-0.45057312 7.7187424 12.71717
-0.53686011 9.0083799 12.024443
-0.54090309 8.945014 9.7930288
-0.62851888 9.8518229 9.7808361
-0.77470285 12.04433 9.8140697
-0.86026943 13.124763 5.4024453
-0.74063283 11.239465 3.4007969
-0.76273066 11.513637 2.2821968
-0.92058253 13.823451 1.3367027
-0.67753309 10.858888 9.7714748
-0.81465393 12.947795 9.5300417
-0.62670952 9.9054546 5.9180484
-0.94345582 14.789324 6.938117
-0.99609804 15.403291 2.2450478
-0.85052943 13.081459 0.62248254
0.027522186 0.076286368 7.8689733
-0.070117541 1.6117903 7.7797766
-0.36089042 7.1945529 23.076145
-0.37457454 6.9811926 16.529884
-0.12008552 2.1525047 4.0181065
-0.43785939 7.6620035 11.344156
-0.51740223 8.8910217 10.739507
0.022554349 0.46271273 7.8513074
-0.091474049 1.993613 7.7212029
-0.3459838 6.8500118 18.705782
-0.10655125 1.9972596 4.1993771
-0.49791276 9.0744066 14.935455
-0.50625539 9.0252419 12.044393
-0.51006144 8.9536171 9.8003798
-0.59455496 9.8610764 9.7878447
-0.73052925 12.011994 9.7858238
-0.58052486 9.4637012 6.3009491
-0.81445026 13.127685 5.4024453
-0.70109659 11.237193 3.3993866
-0.72069037 11.486814 2.2766011
-0.92531627 14.666527 1.412259
-0.63962436 10.861187 9.7714748
-0.76945269 12.95056 9.5300417
-0.59341502 9.9290981 5.9307141
-0.89319116 14.815177 6.948607
-0.75069171 12.308682 3.0649226
-1.0082295 16.484209 2.3956161
-0.8496449 13.812379 0.65190607
0.027788308 0.076189838 7.8689733
-0.064490914 1.6120253 7.7797766
-0.33445331 7.1674385 22.985476
-0.35313794 7.0409932 16.667959
-0.11257114 2.1529107 4.0181065
-0.4041788 7.5342264 11.154041
-0.48636365 8.8927746 10.739507
0.024153266 0.46234292 7.8463159
-0.084514476 1.9939202 7.7212029
-0.32174674 6.8442831 18.68701
-0.099795349 2.0019679 4.2083793
-0.46730423 9.0969257 14.969583
-0.47411546 9.0149174 12.028433
-0.47916636 8.9621143 9.8077297
-0.5607363 9.8737726 9.798358
-0.68659073 11.979497 9.7575779
-0.54676259 9.453146 6.2927246
-0.68058956 11.48926 2.2766011
-0.92595202 15.539619 1.4904978
-0.60170788 10.863353 9.7714748
-0.72446781 12.957203 9.5329857
-0.55802602 9.9181976 5.9231148
-0.84147108 14.818205 6.948607
-0.70800078 12.316081 3.0660949
-0.99059129 17.179768 2.492311
-0.83788085 14.443693 0.67729896
0.028035507 0.076052897 7.8639741
-0.058863502 1.6122406 7.7797766
-0.3090463 7.1596146 22.956844
-0.32801208 7.0304742 16.640345
-0.10505539 2.1532907 4.0181065
-0.37872237 7.552454 11.178839
-0.45531908 8.8944178 10.739507
0.025766997 0.46225578 7.8463159
-0.077553883 1.9942031 7.7212029
-0.092303321 1.9914309 4.1858735
-0.36223897 7.5667348 12.461213
-0.44279236 9.0195274 12.032423
-0.44804895 8.9671173 9.8114042
-0.52664649 9.8827925 9.8053675
-0.64435202 11.974047 9.7513008
-0.52397013 9.6428852 6.416091
-0.64868104 11.638704 2.3045797
-0.92496485 16.492439 1.5758899
-0.56494474 10.88776 9.7914286
-0.6794458 12.963689 9.5359287
-0.52499139 9.9502182 5.9408469
-0.78732598 14.775732 6.9276271
-0.78733349 14.679575 5.2055831
-0.94748831 17.494646 2.5358241
-0.85027045 15.598881 0.72385257
0.028282087 0.075915158 7.858974
-0.053235378 1.6124362 7.7797766
-0.28304756 7.135293 22.875721
-0.30422691 7.0491433 16.681768
-0.097430147 2.1512518 4.0137177
-0.35445443 7.5987058 11.244966
-0.42411634 8.8927517 10.735669
0.027362287 0.4618749 7.8413239
-0.070592344 1.9944615 7.7212029
-0.33656701 8.4120216 22.948042
-0.3360551 7.5731645 12.469746
-0.41144285 9.0240278 12.036412
-0.41690248 8.9720135 9.8150797
-0.49250054 9.8916941 9.812377
-0.60391986 12.003436 9.7732706
-0.6724022 13.047528 5.3668575
-0.63085502 12.077494 2.387583
-0.52783817 10.908313 9.8080559
-0.63438743 12.970019 9.5388718
-0.48898289 9.926156 5.9256477
-0.733262 14.728528 6.9045482
-0.73372316 14.635072 5.1891484
-0.88791806 17.527521 2.539968
-0.84289783 16.524801 0.76113582
0.028546909 0.075815976 7.858974
-0.047606599 1.6126122 7.7797766
-0.2571685 7.1093864 22.789824
-0.090219907 2.1587577 4.026885
-0.32877678 7.6195765 11.273896
-0.39307228 8.8941774 10.735669
0.02895523 0.46148852 7.8363323
-0.06362994 1.9946958 7.7212029
-0.30707565 8.4096966 22.938658
-0.37956047 9.0163774 12.024443
-0.38572729 8.9768019 9.8187551
-0.458134 9.8969154 9.8158817
-0.56256235 12.017135 9.7826853
-0.62752104 13.063688 5.3724766
-0.63338602 13.090598 3.9422493
-0.49009269 10.917549 9.8147068
-0.58947647 12.98023 9.5447588
-0.45433116 9.9278021 5.9256477
-0.68352413 14.767268 6.9213328
-0.68593228 14.708301 5.2138009
-0.82673019 17.530514 2.539968
0.028792381 0.075676583 7.8539743
-0.042003542 1.6137866 7.7846723
-0.23434766 7.1714091 22.985476
-0.083049975 2.1686325 4.0444412
-0.30340356 7.6516075 11.319359
-0.36202341 8.8954954 10.735669
0.030565949 0.46138465 7.8363323
-0.056666769 1.9949058 7.7212029
-0.27783227 8.4141665 22.948042
-0.26116711 6.9863224 11.505644
-0.3484337 9.02668 12.036412
-0.35452375 8.9814806 9.8224306
-0.4238894 9.9055805 9.8228903
-0.52162182 12.042356 9.8015156
-0.58006012 13.024117 5.3556194
-0.58919311 13.126275 3.9521196
-0.45244354 10.930386 9.8246832
-0.54433268 12.986247 9.5477009
-0.41712564 9.869031 5.890183
-0.63546473 14.851181 6.9590974
-0.63522249 14.6071 3.617084
-0.76423615 17.503609 2.5358241
0.029056368 0.075575612 7.8539743
-0.036370121 1.6139233 7.7846723
-0.21096642 7.2288828 23.166811
-0.29070216 8.8991156 21.035755
-0.07498052 2.1545477 4.0181065
-0.27699754 7.6610565 11.331758
-0.33097011 8.8967047 10.735669
0.032155152 0.46098727 7.8313408
-0.049702905 1.9950916 7.7212029
-0.20235029 6.8523054 18.696396
-0.23651381 6.979372 11.492846
-0.3153373 8.9826698 11.976562
-0.32341412 8.98944 9.8297806
-0.38944989 9.9105635 9.8263941
-0.479583 12.044104 9.8015156
-0.62051737 15.38152 10.177382
-0.5338335 13.007534 5.3481274
-0.41400388 10.924436 9.8180323
-0.49930927 12.996147 9.5535879
-0.38233975 9.8618116 5.8851166
-0.58578408 14.648083 3.6264625
-0.70412612 17.530909 2.5392773
0.029319998 0.075473726 7.8539743
-0.030736255 1.6140405 7.7846723
-0.18569334 7.2280827 23.162041
-0.25849795 8.8610201 20.943705
-0.25254944 7.7322898 11.435081
-0.29991281 8.8978062 10.735669
0.033741955 0.46058437 7.8263493
-0.04273843 1.9952528 7.7212029
-0.17703903 6.7994924 18.550919
-0.21175385 6.9671206 11.471517
-0.29214317 8.9939022 9.833456
-0.35498074 9.9154253 9.8298988
-0.43810338 12.061264 9.8140697
-0.570517 15.48388 10.243177
-0.48807767 13.000051 5.3443809
-0.28075814 8.1607246 7.353837
-0.4539412 12.99781 9.5535879
-0.34776136 9.858779 5.8825841
-0.53340834 14.616037 3.6182563
-0.76686656 20.91325 3.0110118
0.029583273 0.075370923 7.8539743
-0.025102016 1.6141379 7.7846723
-0.15950204 7.1854091 23.023653
-0.22861816 8.9028816 21.040358
-0.22596724 7.747189 11.455747
-0.26885185 8.8987989 10.735669
0.035349488 0.46046376 7.8263493
-0.035773437 1.9953898 7.7212029
-0.15299249 6.7862678 18.513378
-0.18729259 6.9626031 11.462984
-0.25219592 8.9695921 11.956613
-0.26084501 8.9982557 9.8371315
-0.32036728 9.916604 9.8298988
-0.39599907 12.062719 9.8140697
-0.31605649 9.4762201 6.3009491
-0.44332704 13.020209 5.3518734
-0.82390523 23.475864 2.2018006
-0.40844068 12.995275 9.5506449
-0.51679391 16.26255 9.6468878
-0.48527113 14.705255 3.639358
-0.69468194 20.940546 3.0144653
0.029826643 0.075228192 7.8489742
-0.019467469 1.6142156 7.7846723
-0.13327645 7.1247315 22.828001
-0.19481193 8.7805748 20.750399
-0.19870655 7.7394905 11.443347
-0.2377876 8.899683 10.735669
0.036932435 0.46004987 7.8213573
-0.028808011 1.9955026 7.7212029
-0.12930307 6.7867603 18.513378
-0.16286545 6.9580002 11.454453
-0.22214517 9.0216284 12.024443
-0.22943364 8.9991112 9.8371315
-0.28585264 9.9212275 9.8334036
-0.28272682 9.4689064 6.2954659
-0.74195409 23.478598 2.2018006
-0.2176412 7.9385438 7.1543069
-0.22256571 7.9662881 5.8864102
-0.46136445 16.311655 9.6747522
-0.43479735 14.73601 3.6463919
-0.6227569 20.982445 3.0199909
0.030089056 0.075123616 7.8489742
-0.013832687 1.6142738 7.7846723
-0.10743108 7.0609746 22.622807
-0.18192267 8.7521629 16.11002
-0.17125288 7.7204442 11.414416
-0.20672047 8.9004583 10.735669
0.038538083 0.45991817 7.8213573
-0.021842232 1.995591 7.7212029
-0.10494195 6.7440338 18.396059
-0.1377463 6.9168057 11.386198
-0.19046156 9.0133104 12.012472
-0.19809404 9.0032463 9.840806
-0.25121933 9.9221649 9.8334036
-0.20038806 7.7539482 6.3366599
-0.24923173 9.4531164 6.2845006
-0.18921505 7.9093933 7.1277027
-0.19446054 7.9548936 5.8775802
-0.23285916 9.3921471 5.6064672
-0.55054772 21.024092 3.025516
0.030351104 0.07501813 7.8489742
-0.008197736 1.6143123 7.7846723
-0.082259379 7.0165286 22.479647
-0.15343985 8.8724766 16.329473
-0.14361933 7.6844192 11.360688
-0.17558759 8.8979216 10.731832
0.0401171 0.45949334 7.8163657
-0.014876186 1.9956551 7.7212029
-0.081524923 6.7547116 18.424213
-0.14902802 9.0764008 14.918391
-0.15836072 8.9777679 11.964592
-0.16672836 9.0072727 9.8444815
-0.21666077 9.9265461 9.8369083
-0.1734944 7.7623835 6.342937
-0.21422516 9.3661413 6.2269297
-0.16160497 7.9100056 7.1277027
-0.16635297 7.9393587 5.8658075
-0.20080729 9.4273806 5.6267328
-0.47715658 21.025887 3.025516
0.03061278 0.074911729 7.8489742
-0.0025626849 1.6143311 7.7846723
-0.058256406 7.0764794 22.670525
-0.096958935 8.2781248 19.562948
-0.12299654 8.911274 16.399698
-0.11653845 7.6679907 11.335891
-0.14452699 8.8984804 10.731832
0.041720785 0.4593505 7.8163657
-0.0079099592 1.9956948 7.7212029
-0.057931326 6.7532291 18.419523
-0.1172772 9.0716496 14.90986
-0.11705361 8.2732344 11.030927
-0.13528608 9.0078001 9.8444815
-0.1820747 9.9308081 9.8404131
-0.14705786 7.797967 6.3711834
-0.15366493 7.92869 5.2838655
-0.1339929 7.9105215 7.1277027
-0.13793302 7.8994784 5.8363762
-0.16866575 9.4711256 5.6520643
0.03089417 0.074843146 7.8539743
0.0030723973 1.6143302 7.7846723
-0.033561569 7.0781322 22.675299
-0.072709821 8.8449554 20.89768
-0.092210256 8.9427824 16.456757
-0.089343689 7.6317716 11.282163
-0.11346462 8.8989305 10.731832
0.043323964 0.45920205 7.8163657
-0.00094363652 1.9957103 7.7212029
-0.034375269 6.7568417 18.428907
-0.085610516 9.0720043 14.90986
-0.095231593 8.936471 11.908731
-0.10388122 9.0116081 9.848156
-0.14746152 9.9349499 9.8439178
-0.120375 7.8334589 6.3994293
-0.12578847 7.916635 5.275641
-0.43948984 25.431837 4.9205794
-0.10723223 7.9744096 7.1842365
-0.10860834 7.774621 5.7451377
-0.13566601 9.4759665 5.6545973
-0.34280327 21.820938 3.1360252
0.031155234 0.074734852 7.8539743
0.0087074423 1.6143095 7.7846723
-0.0088340109 7.0617862 22.622807
-0.041991241 8.8783665 20.975922
-0.044626027 6.5385342 12.050121
-0.062426284 7.5982695 11.232567
-0.082371213 8.8960667 10.727994
0.044926614 0.45904803 7.8163657
0.0060266466 1.9969583 7.7260423
-0.010802836 6.7655492 18.452372
-0.053973753 9.0774641 14.918391
-0.07245142 9.0153046 9.8518314
-0.11278117 9.9354038 9.8439178
-0.093030393 7.8338313 6.3994293
-0.097531714 7.8668523 5.242743
-0.35091668 25.44795 4.923377
-0.07958141 7.993403 7.2008634
-0.08091893 7.7224097 5.7068772
-0.099742435 9.2134399 5.5000739
-0.26862836 21.985405 3.1588173
0.031436276 0.074664235 7.858974
0.014351621 1.6152873 7.789567
0.015782412 7.0468473 22.575087
-0.021476379 6.4404564 11.87017
-0.035186902 7.4464855 11.009388
-0.05131764 8.8963003 10.727994
0.046498541 0.45860133 7.8113742
0.041114893 0.64772207 6.0103593
0.012997295 1.9969251 7.7260423
0.01283328 6.7758999 18.480528
-0.018221261 7.4136801 12.196725
-0.029793175 8.1052656 10.807485
-0.040981695 9.0155029 9.8518314
-0.078127459 9.9393034 9.8474226
-0.064771615 7.7251267 6.3115525
-0.069400728 7.791882 5.193397
-0.077328719 8.3556938 4.4605703
-0.26198345 25.439196 4.9215117
-0.051678743 7.9936318 7.2008634
-0.091493085 13.09838 9.6212807
-0.067707323 9.2309742 5.5102062
-0.19240192 22.045631 3.1671054
0.031696711 0.074554048 7.858974
0.019989938 1.6152273 7.789567
0.040655512 7.0945153 22.727791
0.0010235219 6.5458713 12.063289
-0.0092039183 7.4550047 11.021786
-0.020263445 8.8964252 10.727994
0.048099078 0.45843625 7.8113742
0.019967787 1.9968675 7.7260423
0.036485508 6.7758136 18.480528
0.0077366191 7.4893317 12.320437
-0.001497706 8.0902538 10.787535
-0.009515021 9.018981 9.8555069
-0.043447901 9.9430819 9.8509274
-0.059433233 12.150811 9.8799772
-0.04235993 7.8213468 5.2125874
-0.048161436 8.3559132 4.4605703
-0.17268094 25.366274 4.9075227
-0.023443084 7.8817515 7.101099
-0.045883533 13.130958 9.6448259
-0.034988217 9.1018314 5.4342113
-0.038276169 8.7649145 4.1393151
-0.11570643 22.09569 3.1740124
0.031956762 0.074442953 7.858974
0.025644364 1.616166 7.7944622
0.06503313 7.0525355 22.594173
0.046673886 8.1300812 19.213156
0.024206428 6.636837 12.230074
0.016889192 7.4859462 11.067248
0.010790996 8.8964415 10.727994
0.049666841 0.45797861 7.8063827
0.026938032 1.9967856 7.7260423
0.060275532 6.7911758 18.522764
0.033642527 7.4370985 12.235119
0.026792519 8.1052761 10.807485
0.021967156 9.018959 9.8555069
-0.0087429173 9.9467392 9.8544312
-0.016980581 12.123698 9.8580084
-0.015154414 7.8716235 5.2454848
-0.018802587 8.2718639 4.416513
-0.097818442 32.960808 9.7783756
0.0040304121 7.8071098 7.0345883
-4.7096695e-05 7.7955899 5.7598538
-0.0076648323 8.7468414 4.1309228
-0.038534153 22.071198 3.1705589
0.032216419 0.074330948 7.858974
0.031285677 1.6160666 7.7944622
0.089270324 7.0224142 22.498735
0.075125165 8.1376829 19.231565
0.047904436 6.7109547 12.366135
0.043052331 7.4914694 11.075515
0.041845307 8.8963499 10.727994
0.051231999 0.45751569 7.8013906
0.03390795 1.9966795 7.7260423
0.084066316 6.7978258 18.541533
0.059497949 7.4238963 12.213789
0.055208109 8.1232119 10.831426
0.053469181 9.0222178 9.8591824
0.025977733 9.9467087 9.8544312
0.016649496 7.9744887 6.5124135
0.01232934 7.8758097 5.2482262
0.009990545 8.2054319 4.381731
0.00891471 10.246201 4.2280536
0.017244378 32.975338 9.7826052
0.031042477 7.7473083 6.9813805
0.026769543 7.6823668 5.6774454
0.025033889 7.9810505 4.7755847
0.022582235 8.6378908 4.0805697
0.038612649 22.130625 3.1788471
0.032454789 0.074179731 7.8539743
0.036903154 1.6149296 7.789567
0.11378258 7.0220599 22.498735
0.10238555 8.0475101 19.01985
0.071610227 6.7370906 12.414415
0.069306292 7.5025287 11.092047
0.072925404 8.8993549 10.731832
0.052828714 0.45733404 7.8013906
0.049144067 0.63433152 5.8910437
0.040877454 1.996549 7.7260423
0.10826056 6.8268237 18.621311
0.10451814 9.0822392 14.926924
0.083873354 8.153101 10.871325
0.084962271 9.0219765 9.8591824
0.060719848 9.9501228 9.8579359
0.04431165 7.943244 6.4873056
0.039990284 7.9091702 5.2701578
0.038424041 8.1610498 4.3585429
0.044336703 10.167296 4.1962118
0.13234968 32.975079 9.7826052
0.058309607 7.7770219 7.0079846
0.054150205 7.7630653 5.7363086
0.052921392 7.9852257 4.7781177
0.052928027 8.669528 4.0952559
0.11614791 22.184826 3.1864448
0.032713529 0.074065991 7.8539743
0.042540085 1.6147909 7.789567
0.13829345 7.0216198 22.498735
0.14420612 8.8929262 21.012743
0.094957329 6.7248259 12.392469
0.095028505 7.465662 11.038319
0.1039895 8.8990459 10.731832
0.054389603 0.4568603 7.7963991
0.051621731 0.63734347 5.9208722
0.047846466 1.9963942 7.7260423
0.13175566 6.8091502 18.574383
0.13633786 9.0896416 14.939721
0.11303875 8.2039795 10.939157
0.11649811 9.0250149 9.8628578
0.095451884 9.9498501 9.8579359
0.070802122 7.8068161 6.3774605
0.067526676 7.900619 5.2646747
0.067092873 8.1830139 4.3701372
0.07705979 9.8147612 4.0538616
0.24799339 33.046371 9.8037558
0.085374027 7.7693043 7.0013342
0.082814105 7.9123745 5.8452053
0.081405625 8.0453396 4.8135819
0.083364271 8.6874437 4.1036482
0.1938892 22.218948 3.1912794
0.03297187 0.073951349 7.8539743
0.033143222 0.91933286 5.8485055
0.048176497 1.6146326 7.789567
0.16332233 7.0434785 22.570314
0.17501616 8.8806477 20.985128
0.11843078 6.724453 12.392469
0.12095093 7.4568439 11.025919
0.13510101 8.9018335 10.735669
0.055984017 0.45666769 7.7963991
0.054121025 0.64034593 5.9507017
0.05481489 1.996215 7.7260423
0.15540488 6.8034735 18.560305
0.1680658 9.0891104 14.939721
0.14120673 8.1764193 10.903246
0.14805619 9.0279427 9.8665323
0.13022946 9.953023 9.8614397
0.09815038 7.8143053 6.3837366
0.095003866 7.8919735 5.2591925
0.095760114 8.1915894 4.3747745
0.11147701 9.8283386 4.0594807
0.36350349 33.059696 9.8079863
0.11276387 7.7876258 7.0179615
0.11127947 7.9726615 5.8893528
0.10948861 8.0450068 4.8135819
0.27126512 22.203281 3.1892073
0.033229806 0.073835805 7.8539743
0.036289997 0.91765887 5.8386273
0.05377822 1.6134371 7.7846723
0.1881468 7.0518193 22.598946
0.20565158 8.8643579 20.948307
0.18858311 8.934083 16.44359
0.14697944 7.4563761 11.025919
0.16617338 8.9013081 10.735669
0.05757774 0.45646948 7.7963991
0.055640966 0.63218933 5.8761292
0.061821692 1.9972678 7.7308817
0.17910703 6.8011651 18.555613
0.19984902 9.0910749 14.943986
0.16968431 8.172864 10.899256
0.17963614 9.0307598 9.8702068
0.16497119 9.952508 9.8614397
0.1226145 7.6387839 6.2425065
0.12287616 7.9124985 5.2728996
0.1378729 9.0814924 4.8408532
0.14674644 9.8927851 4.0857029
0.47938752 33.091797 9.8178558
0.13961147 7.7685189 7.0013342
0.13960238 8.000515 5.9099555
0.1361694 7.9626827 4.7654519
0.46583012 28.698126 10.078588
0.62464964 39.327362 9.5771465
0.34876737 22.202198 3.1892073
0.033487339 0.07371936 7.8539743
0.039459247 0.91675031 5.8336878
0.059409834 1.6132395 7.7846723
0.21316668 7.0645475 22.641893
0.23753163 8.8987389 21.031153
0.22076957 8.9740725 16.518204
0.17222238 7.4220586 10.976324
0.19724372 8.9006739 10.735669
0.059170764 0.45626569 7.7963991
0.057896893 0.63252199 5.8811002
0.068793081 1.9970399 7.7308817
0.20279492 6.7987733 18.550919
0.16526175 6.1122842 12.706671
0.23198029 9.1059656 14.969583
0.19791952 8.1601725 10.883295
0.21123756 9.0334673 9.8738823
0.19978249 9.9554367 9.8649445
0.14981064 7.6655502 6.2644758
0.15065427 7.920383 5.2783823
0.17188859 9.2049694 4.9057798
0.17821953 9.7253475 4.0182738
0.59541386 33.118698 9.8263159
0.16600648 7.7343879 6.9714046
0.16778246 8.0121012 5.9187846
0.16396353 7.9621592 4.7654519
0.17196448 8.5681171 4.049099
0.56581616 28.68688 10.075301
0.7616415 39.310368 9.5736294
0.42655063 22.2157 3.1912794
0.033744462 0.073602021 7.8539743
0.042367335 0.91039783 5.7941737
0.06504073 1.6130223 7.7846723
0.23817715 7.0742035 22.675299
0.26853362 8.8959036 21.02655
0.17740206 6.3158565 11.646326
0.19632591 7.3539004 10.877133
0.22831169 8.899931 10.735669
0.060763072 0.45605639 7.7963991
0.05989898 0.63019371 5.8612142
0.075811446 1.9980438 7.7357211
0.22641081 6.7945743 18.541533
0.18805918 6.1595411 12.805698
0.2633113 9.0894585 14.943986
0.22774038 8.2076254 10.947136
0.24276896 9.0326748 9.8738823
0.23461626 9.9582443 9.8684492
0.18140934 7.8751097 6.4339519
0.17830065 7.9198089 5.2783823
0.20933455 9.5948925 3.9658289
0.71163404 33.145199 9.8347769
0.19160584 7.677772 6.9215217
0.19341674 8.0304909 4.8059831
0.20112324 8.5357027 4.0344124
0.66605824 28.689451 10.076944
0.8987444 39.302605 9.5724564
0.50409526 22.214077 3.1912794
0.034001175 0.07348378 7.8539743
0.045466602 0.9086923 5.7842951
0.070715591 1.6138024 7.789567
0.26342404 7.0882449 22.723017
0.29997924 8.9066267 21.054165
0.19899356 6.3008361 11.619992
0.22038049 7.2997279 10.798607
0.25937682 8.8990803 10.735669
0.062354628 0.45584151 7.7963991
0.06193874 0.62838966 5.8462996
0.082785457 1.997767 7.7357211
0.25044459 6.8023658 18.564999
0.21111442 6.204536 12.900224
0.21986908 6.7737765 11.155838
0.25798902 8.2579794 11.014966
0.27440032 9.035161 9.8775578
0.26947203 9.9609289 9.871954
0.21168515 7.9794841 6.5186906
0.20333542 7.8188181 5.2125874
0.2103505 8.1983109 4.3794122
0.2442334 9.6497154 3.9883051
0.82816601 33.176083 9.8446474
0.7587105 30.824863 5.9455285
0.21670578 7.6173396 6.8683133
0.21050844 7.5380044 5.5744348
0.2214472 8.029767 4.8059831
0.23509113 8.6892023 4.1057463
0.76607299 28.682232 10.075301
1.0361868 39.308945 9.5748005
0.58318937 22.271585 3.1995676
0.034257475 0.073364645 7.8539743
0.048470724 0.90542465 5.7645383
0.076348387 1.6135458 7.789567
0.28828639 7.0902653 22.732561
0.33135778 8.9133339 21.072575
0.22098637 6.3001027 11.619992
0.24879785 7.3860989 10.926728
0.29043886 8.8981199 10.735669
0.063945442 0.45562106 7.7963991
0.064021707 0.62710923 5.8363571
0.089815043 1.9987215 7.7405605
0.27328351 6.7790337 18.503992
0.23407771 6.2385683 12.972242
0.24032517 6.6843524 11.010796
0.28618538 8.2389612 10.991026
0.30593726 9.0341482 9.8775578
0.30434945 9.9634924 9.8754587
0.24164037 8.048727 6.5751829
0.2303803 7.809701 5.2071042
0.23909575 8.2019539 4.381731
0.27751526 9.634903 3.9826863
0.94478571 33.201756 9.8531065
0.86892706 30.915325 5.9632487
0.24305549 7.6090741 6.8616629
0.23694666 7.5412641 5.5773778
0.25054616 8.0634146 4.8262482
0.26736107 8.7518387 4.135119
0.8663305 28.684101 10.076944
1.1735394 39.309952 9.5759735
0.66254413 22.323862 3.207165
0.034535315 0.073282331 7.858974
0.051497173 0.90292275 5.7497206
0.081980243 1.6132694 7.789567
0.31487927 7.1309705 22.866177
0.36254853 8.9140759 21.077179
0.24149878 6.2610016 11.549767
0.27625206 7.4301786 10.992856
0.32149732 8.8970518 10.735669
0.065535463 0.45539507 7.7963991
0.066096492 0.62582189 5.8264141
0.096791334 1.9983957 7.7405605
0.29686955 6.7763147 18.499298
0.25897714 6.3138418 13.129786
0.27095848 6.8684983 11.313677
0.33747044 9.0330248 9.8775578
0.33924803 9.9659338 9.8789635
0.26882136 8.0206032 6.5532136
0.25612289 7.7628784 5.1769481
0.26772448 8.2010689 4.381731
0.3112953 9.6385088 3.9845593
1.0602162 33.183872 9.848877
0.97745699 30.93174 5.966979
0.26987913 7.6156416 6.8683133
0.26242277 7.5161538 5.5597191
0.2786912 8.0624905 4.8262482
0.29790905 8.7508526 4.135119
0.96661055 28.685625 10.078588
1.3109115 39.310471 9.5771465
0.74292767 22.395653 3.217525
0.034790911 0.073161334 7.858974
0.054554049 0.90118635 5.7398415
0.087611109 1.6129736 7.789567
0.33905813 7.1149182 22.818457
0.3938348 8.9166603 21.086384
0.26536646 6.3079786 11.637548
0.30241534 7.4347925 11.001122
0.35255188 8.8958759 10.735669
0.067124687 0.45516357 7.7963991
0.068221837 0.62505752 5.8214421
0.10376645 1.9980457 7.7405605
0.32288763 6.8252258 18.635389
0.28217724 6.3389969 13.183801
0.29627565 6.8987784 11.364868
0.33175939 7.9507518 10.611974
0.36913797 9.0351801 9.8812332
0.37403357 9.9646893 9.8789635
0.29508898 7.97294 6.515552
0.28459126 7.7995448 5.2016211
0.29634991 8.2000847 4.381731
0.34228477 9.5632353 3.9545906
1.1767228 33.199146 9.854517
1.0935206 31.158873 6.0108123
0.29646105 7.6146526 6.8683133
0.28726098 7.4788408 5.5332303
0.30732474 8.0743914 4.8338475
0.3230049 8.6046286 4.0679812
1.0669116 28.686792 10.080231
1.4483017 39.310513 9.5783186
0.83706719 22.828413 3.2783051
0.035046075 0.073039442 7.858974
0.057649441 0.90021509 5.7349029
0.093240902 1.6126578 7.789567
0.36343393 7.1047468 22.789824
0.42505038 8.917182 21.090986
0.28814724 6.323761 11.668271
0.32824156 7.4308805 10.996988
0.38374025 8.8977938 10.739507
0.068757258 0.45521176 7.8013906
0.070403278 0.62481552 5.8214421
0.1107403 1.9976712 7.7405605
0.34653491 6.82061 18.626003
0.30534717 6.3597174 13.228812
0.35937449 7.9465351 10.607984
0.4006744 9.0338364 9.8812332
0.40896076 9.9668856 9.8824682
0.3133187 7.8361073 5.2262945
0.32532266 8.2078533 4.3863688
0.37329853 9.5017624 3.9302413
1.2884959 33.089382 9.8234968
1.2066356 31.267763 6.0322623
0.32240611 7.5986505 6.8550119
0.31455007 7.5060616 5.5538325
0.33550778 8.0732698 4.8338475
0.35154992 8.5671701 4.0511966
1.1674247 28.692331 10.083518
1.585512 39.305214 9.5783186
0.91555572 22.795662 3.2741609
0.035300817 0.072916664 7.858974
0.060844135 0.90078354 5.7398415
0.098869562 1.6123226 7.789567
0.3882319 7.1034346 22.789824
0.45637426 8.9195461 21.100191
0.31104138 6.3394608 11.698995
0.34908503 7.3228784 10.839937
0.41494632 8.8996019 10.743344
0.070345826 0.45496899 7.8013906
0.072646342 0.62509543 5.8264141
0.1177128 1.9972726 7.7405605
0.37034118 6.8193588 18.626003
0.32765692 6.3607869 13.233314
0.32738367 6.5553155 10.80603
0.3856442 7.9151359 10.568084
0.43236798 9.0357685 9.8849087
0.44374919 9.9653978 9.8824682
0.33431381 7.5973849 6.2142606
0.34085158 7.8391433 5.2290359
0.35416231 8.2110929 4.3886876
0.40428367 9.4494524 3.9096379
0.80887485 19.061098 5.6977401
1.3296125 31.592192 6.094748
0.34909973 7.6012082 6.8583374
0.34716669 7.6462421 5.6568432
0.36388078 8.0763559 4.836381
0.38104898 8.5568237 4.0470009
1.2677809 28.692797 10.085161
1.7229161 39.304298 9.5794907
0.98216152 22.495487 3.2327201
0.035555128 0.072792999 7.858974
0.064209759 0.90366578 5.7595987
0.10449701 1.6119676 7.789567
0.41293848 7.1005464 22.785053
0.48761317 8.9198494 21.104792
0.33291686 6.3335538 11.690217
0.36716476 7.1754766 10.625024
0.44649062 8.9077015 10.754857
0.071933538 0.45472068 7.8013906
0.074827887 0.62483799 5.8264141
0.12468386 1.9968495 7.7405605
0.3508209 6.5645504 10.823094
0.4165715 7.976933 10.651874
0.46407995 9.037591 9.8885832
0.47870329 9.9673491 9.885972
0.36249399 7.6311631 6.2425065
0.37017566 7.879674 5.2564507
0.38323495 8.2186575 4.3933249
0.43726593 9.4479837 3.9096379
0.87540555 19.058159 5.6977401
0.37821162 7.6521525 6.9048944
0.37503964 7.6692066 5.6745019
0.39625186 8.1611509 4.8870444
0.41047999 8.5463743 4.0428047
1.3683796 28.697632 10.088449
1.8603331 39.302898 9.5806627
1.0667446 22.620535 3.2506781
0.03580901 0.072668448 7.858974
0.067363746 0.90343612 5.7595987
0.11012319 1.611593 7.789567
0.43735385 7.093102 22.765965
0.51897323 8.9219933 21.113998
0.35327962 6.3012671 11.633159
0.39774105 7.2753057 10.773809
0.47758156 8.9060888 10.754857
0.073520377 0.45446679 7.8013906
0.077008523 0.62457299 5.8264141
0.13165341 1.9964021 7.7405605
0.42269415 6.8941169 18.837177
0.3982605 6.8060284 14.160563
0.3768478 6.6179657 10.912679
0.48063236 8.6252861 11.51372
0.49580991 9.0393009 9.8922586
0.51367646 9.9691801 9.8894768
0.38754326 7.5987535 6.2173991
0.39915434 7.9075665 5.275641
0.41214287 8.221694 4.3956437
0.4690904 9.4232492 3.9002728
0.94192564 19.054987 5.6977401
0.40768337 7.7029848 6.9514508
0.40053865 7.6436324 5.6568432
0.42563364 8.1769381 4.8971772
0.44077709 8.5539551 4.0470009
1.4690274 28.702112 10.091736
1.9980079 39.305874 9.5830069
0.03603971 0.072505765 7.8539743
0.071125194 0.91094166 5.8089914
0.11574804 1.6111988 7.789567
0.46172228 7.0855742 22.746876
0.55023396 8.9220781 21.118601
0.3755579 6.3047767 11.641937
0.42280725 7.2682538 10.765544
0.50811827 8.8947687 10.743344
0.075106308 0.45420739 7.8013906
0.079188213 0.62430042 5.8264141
0.13862135 1.9959304 7.7405605
0.44697985 6.8960438 18.846563
0.42228511 6.8089418 14.169565
0.40545547 6.7077241 11.061987
0.51697356 8.7288351 11.65337
0.52755749 9.0408993 9.8959341
0.54866821 9.9708862 9.8929815
0.41342995 7.5856948 6.2079835
0.42900845 7.9478788 5.3030558
0.44131389 8.2290516 4.4002814
0.50124079 9.4076662 3.8946536
1.0066593 19.018051 5.68787
0.43688348 7.7425218 6.9880319
0.42654058 7.6300802 5.6480136
0.46302176 8.3346567 4.9909048
0.47163081 8.5704899 4.0553927
1.569981 28.710953 10.096666
2.1357262 39.308369 9.5853519
0.036315452 0.072416678 7.858974
0.07354217 0.90139502 5.7497206
0.12137146 1.6107849 7.789567
0.48542973 7.0690274 22.699158
0.5815016 8.9220524 21.123203
0.39002344 6.1839156 11.422483
0.45129436 7.3172908 10.839937
0.53644764 8.8481483 10.689619
0.076691329 0.45394245 7.8013906
0.081366956 0.62402016 5.8264141
0.14549597 1.9941807 7.7357211
0.47787383 6.994297 19.118746
0.43302944 6.7713361 11.168634
0.53253418 8.489398 11.338159
0.55932224 9.042387 9.8996096
0.58367819 9.9724712 9.8964853
0.43607444 7.518147 6.1546297
0.45746902 7.9588561 5.3112798
0.47054136 8.2363062 4.4049191
0.53328824 9.3919754 3.8890347
1.0738494 19.028791 5.6921005
0.47217262 7.8788519 7.1110754
0.45173362 7.6043358 5.6303549
0.49211231 8.3329897 4.9909048
0.50234014 8.5823841 4.0616875
1.6701914 28.705297 10.096666
2.273767 39.315235 9.5888691
1.2662205 21.960476 3.1601987
0.036568012 0.072289474 7.858974
0.076953113 0.90422952 5.7694774
0.1269934 1.6103514 7.789567
0.51171482 7.089622 22.770739
0.61277574 8.9219179 21.127806
0.41415322 6.2207518 11.492708
0.47994581 7.3634076 10.910197
0.56322694 8.7822495 10.612869
0.078225285 0.45338768 7.7963991
0.083544701 0.62373233 5.8264141
0.15245609 1.9936608 7.7357211
0.5022856 6.9925866 19.118746
0.45525867 6.7489662 11.134507
0.55459571 8.3732328 11.186538
0.59110373 9.0437613 9.9032841
0.61870587 9.9739323 9.8999901
0.46016422 7.4816141 6.1263833
0.4844842 7.9446902 5.3030558
0.50009286 8.2478771 4.4118752
0.56551111 9.3808002 3.8852885
1.1402658 19.024927 5.6921005
0.49801725 7.8510714 7.0877967
0.49680233 7.8971968 5.8452053
0.50423878 8.0601702 4.8313141
0.53341931 8.5986977 4.0700793
1.7700907 28.694582 10.095023
2.4118817 39.321609 9.5923862
1.3854958 22.652863 3.2575846
0.036843251 0.072198384 7.8639741
0.106925 1.2050167 7.6908488
0.13261381 1.6098984 7.789567
0.53803688 7.1086311 22.837545
0.64405596 8.9216728 21.132408
0.50526029 7.3560724 10.901931
0.58825463 8.6970835 10.513094
0.079807431 0.45311186 7.7963991
0.085794963 0.62396491 5.8313856
0.15941434 1.9931164 7.7357211
0.52720988 6.9976735 19.137514
0.47715229 6.7239227 11.096114
0.62290168 9.0450249 9.9069586
0.6535176 9.9717112 9.8999901
0.48678219 7.487731 6.1326604
0.51221341 7.9429507 5.3030558
0.52944744 8.2549248 4.416513
0.59736729 9.3648891 3.8796694
1.2066683 19.020832 5.6921005
0.52492082 7.8418345 7.0811458
0.52141899 7.8510504 5.8128309
0.52128756 7.8906059 4.7325206
0.56402481 8.6058416 4.0742755
1.8699355 28.683517 10.09338
2.5500684 39.327499 9.5959024
1.4882084 23.013577 3.3086948
0.037095048 0.072069339 7.8639741
0.11199029 1.2139205 7.7501202
0.1382326 1.6094257 7.789567
0.5635547 7.1156378 22.866177
0.67534196 8.9213181 21.137011
0.48183516 6.5473256 12.098401
0.53235328 7.3739109 10.930861
0.6270268 8.8132715 10.655082
0.0813886 0.45283049 7.7963991
0.0878971 0.6231339 5.8264141
0.16637063 1.9925478 7.7357211
0.54471272 6.9080544 18.898184
0.49945793 6.7066116 11.070518
0.65817082 8.9852238 12.004492
0.65471572 9.0461769 9.910634
0.6885671 9.972928 9.9034948
0.5142467 7.5054016 6.1483526
0.53624856 7.8868804 5.2674165
0.55616641 8.2220879 4.4002814
0.63005322 9.3627462 3.8796694
1.2714539 18.992569 5.6850495
0.54468095 7.7319431 6.9847064
0.55051279 7.8733754 5.8304896
0.58024418 8.3402796 4.9985042
0.59499925 8.617403 4.0805697
1.9661646 28.620281 10.073657
2.6876633 39.323212 9.5970755
1.5271033 22.400549 3.2237413
0.037369777 0.071976252 7.8689733
0.11674734 1.2189362 7.7846947
0.1438497 1.6089333 7.789567
0.58937424 7.1255283 22.904352
0.70663339 8.9208536 21.141613
0.50450253 6.5432167 12.094012
0.55702752 7.3579779 10.910197
0.66255999 8.8749561 10.731832
0.082968779 0.45254365 7.7963991
0.089685574 0.62018615 5.8015561
0.17332491 1.9919549 7.7357211
0.56768942 6.8923516 18.860641
0.51601255 6.4858737 13.516891
0.51921475 6.6580243 10.993731
0.68999243 8.9888802 12.012472
0.68628871 9.0438366 9.910634
0.72363293 9.97402 9.9069996
0.54072201 7.5074434 6.1514912
0.56526691 7.9058146 5.2811241
0.5851779 8.224515 4.4026003
0.65880251 9.3049994 3.8571932
1.3357197 18.959307 5.67659
0.56395578 7.6257334 6.891592
0.61375266 8.3983955 5.0339689
0.62606132 8.6288538 4.0868635
2.0534725 28.438976 10.012847
2.8259554 39.328133 9.6005917
1.5592589 21.75296 3.1339529
0.037620794 0.071845368 7.8689733
0.1213867 1.2223871 7.809391
0.14937066 1.6074078 7.7846723
0.61501312 7.1323509 22.932985
0.73776871 8.9183331 21.141613
0.53022695 6.5772243 12.159848
0.58381951 7.3700147 10.930861
0.69128704 8.8438301 10.697294
0.084493853 0.45196775 7.7914076
0.092482403 0.6240865 5.8413281
0.18027708 1.9913379 7.7357211
0.58687061 6.83359 18.705782
0.54387707 6.546947 13.647425
0.53990984 6.624979 10.942541
0.72546458 9.0374775 12.080302
0.71812177 9.0447664 9.9143095
0.75871491 9.9749899 9.9105043
0.56751096 7.5132728 6.1577682
0.58879352 7.849587 5.2454848
0.60893577 8.1561594 4.3678184
0.69574529 9.3627443 3.8815424
1.3987074 18.911472 5.6638994
0.59172481 7.6386089 6.9048944
0.58220804 7.5670834 5.6097527
0.64306486 8.3962021 5.0339689
0.65755481 8.6447172 4.0952559
2.1398957 28.262123 9.953681
2.9613926 39.293797 9.5947313
1.5891404 21.135057 3.0483086
0.03787135 0.071713604 7.8689733
0.12565288 1.221956 7.809391
0.15498064 1.6068766 7.7846723
0.64003938 7.1316471 22.937756
0.76872706 8.9137564 21.137011
0.54996932 6.537148 12.089623
0.62068027 7.5025449 11.129243
0.72319746 8.8541412 10.712645
0.086071 0.45167005 7.7914076
0.1239484 0.81449056 7.6410127
0.18722704 1.9906963 7.7357211
0.61148924 6.8400941 18.729244
0.57198644 6.6057358 13.773459
0.56015962 6.5892715 10.887083
0.75700682 9.0348902 12.080302
0.74968952 9.0422039 9.9143095
0.79352945 9.9722805 9.9105043
0.59404045 7.5151262 6.1609068
0.61651748 7.8516521 5.2482262
0.64016432 8.1893148 4.3863688
0.73058122 9.387989 3.8927805
1.4647123 18.906475 5.6638994
0.61748064 7.6253319 6.8949175
0.60797024 7.5569472 5.6038661
0.68916661 8.6604671 4.1036482
2.2157853 27.967329 9.8534269
3.1038861 39.351059 9.6111431
1.609288 20.448103 2.9529948
0.038145218 0.071617559 7.8739734
0.12991755 1.2215099 7.809391
0.16058874 1.6063259 7.7846723
0.66520685 7.1323423 22.9473
0.79983723 8.9110193 21.137011
0.56922925 6.4946294 12.015009
0.64734894 7.5059404 11.137509
0.75464398 8.8579502 10.720319
0.087647095 0.45136684 7.7914076
0.096671581 0.62237251 5.8313856
0.19405252 1.9887798 7.7308817
0.63344544 6.8172989 18.672932
0.6003173 6.6622386 13.894992
0.58131689 6.566493 10.852956
0.78906405 9.0381966 12.088283
0.7815401 9.0429096 9.917985
0.82862967 9.9730034 9.9140081
0.62091017 7.5207653 6.1671839
0.6727137 8.2355957 4.4118752
0.76672947 9.4269676 3.9096379
1.5306993 18.901247 5.6638994
0.64126492 7.5896454 6.8649879
0.63400704 7.5507507 5.6009231
0.66394722 7.9404473 4.7679849
0.72089642 8.6760998 4.1120405
2.2569344 27.277042 9.615118
3.2400312 39.325455 9.6076269
1.6153275 19.64776 2.8417952
0.038394976 0.071483977 7.8739734
0.13418061 1.221049 7.809391
0.16619489 1.6057554 7.7846723
0.69038707 7.1329484 22.956844
0.83075613 8.9062281 21.132408
0.53013182 5.8152351 10.768511
0.65542918 7.3018365 10.839937
0.78612596 8.8616476 10.727994
0.089222126 0.45105815 7.7914076
0.13166153 0.82623667 7.7603292
0.20099345 1.9880903 7.7308817
0.65823257 6.8253522 18.701088
0.62499005 6.6752753 13.9265
0.60112643 6.5306621 10.797499
0.81979066 9.0263844 12.076313
0.81340474 9.0435028 9.9216604
0.86374462 9.9736023 9.9175129
0.64749247 7.522429 6.1703215
0.72086167 8.42626 5.6292896
0.70521796 8.2773361 4.4350634
0.80080694 9.4380932 3.915257
1.5966676 18.895788 5.6638994
0.66677171 7.5762029 6.8550119
0.66071242 7.5525184 5.6038661
0.69203478 7.9423761 4.7705178
0.75156891 8.6780519 4.1141386
2.2746243 26.370401 9.3012085
3.3689623 39.217045 9.5841799
1.6314504 19.03019 2.756151
0.038668297 0.071385942 7.8789735
0.13844205 1.2205732 7.809391
0.17190756 1.6061777 7.789567
0.71572858 7.1349506 22.971161
0.86183965 8.9032736 21.132408
0.54884696 5.7966585 10.737787
0.68012905 7.2910986 10.827538
0.81734848 8.8620415 10.731832
0.090796068 0.45074394 7.7914076
0.13540901 0.8310321 7.8100438
0.20793197 1.9873766 7.7308817
0.68274027 6.8298812 18.719858
0.6487084 6.6773868 13.935503
0.61796331 6.4662156 10.695117
0.73241335 7.7634969 10.400503
0.84528291 9.0439835 9.9253349
0.89887387 9.9740791 9.9210176
0.67548352 7.5395079 6.1860142
0.75546408 8.4820013 5.6676707
0.73645574 8.3012981 4.448976
0.82966638 9.389061 3.8965266
1.6626165 18.8901 5.6638994
0.69389427 7.5812659 6.8616629
0.68597269 7.5380907 5.595037
0.7201438 7.9442053 4.7730513
0.78063416 8.6618147 4.1078444
2.2822132 25.421648 8.9725065
0.038941398 0.071286865 7.8839731
0.1427018 1.2200824 7.809391
0.17751311 1.6055679 7.789567
0.74078405 7.133894 22.975933
0.89232743 8.8943796 21.118601
0.56720471 5.7756395 10.702675
0.71859223 7.4231243 11.025919
0.84888881 8.8655157 10.739507
0.092368908 0.45042428 7.7914076
0.13830905 0.83055437 7.8100438
0.21486793 1.9866385 7.7308817
0.70746529 6.8360391 18.743322
0.6794284 6.7487254 14.088545
0.64233136 6.4821863 10.724978
0.77066225 7.8748517 10.552123
0.8771745 9.0443525 9.9290104
0.934017 9.974432 9.9245224
0.69999272 7.5177259 6.1703215
0.76542819 8.2986774 4.448976
0.87219167 9.4922857 3.9396062
1.7285451 18.88418 5.6638994
0.71823359 7.5564947 6.8417096
0.71418321 7.5557694 5.6097527
0.75514513 8.0188951 4.8186488
0.80959529 8.6454811 4.1015506
2.3152287 24.816406 8.7637806
0.039189994 0.071150504 7.8839731
0.14695981 1.219577 7.809391
0.18311651 1.6049385 7.789567
0.7666378 7.1401691 23.004564
0.92397463 8.8970404 21.132408
0.64457893 6.3359394 11.738497
0.74421841 7.4177709 11.021786
0.88204676 8.8848248 10.76637
0.093940616 0.45009911 7.7914076
0.14120738 0.8300665 7.8100438
0.2218013 1.9858764 7.7308817
0.73205787 6.8403912 18.762094
0.70681792 6.7831211 14.165065
0.66495454 6.4799047 10.724978
0.80179381 7.9080882 10.600004
0.90873981 9.041235 9.9290104
0.96882856 9.9711113 9.9245224
0.72585589 7.511363 6.1671839
0.77545637 8.0686216 5.3990073
0.79396909 8.2915459 4.4466577
0.91897017 9.6322479 3.9976707
1.7944527 18.878033 5.6638994
3.0182488 31.870539 6.1693578
0.75229859 7.6319733 6.9115453
0.74804765 7.6296625 5.6656728
0.78438926 8.0290823 4.8262482
0.83932978 8.6380854 4.099452
3.7915845 39.305408 9.6146603
0.039462525 0.071049437 7.8889728
0.15121605 1.2190565 7.809391
0.18871768 1.6042895 7.789567
0.79155701 7.1374497 23.004564
0.95669442 8.9092999 21.169228
0.66593927 6.3265052 11.72533
0.76690871 7.3843393 10.976324
0.90944946 8.8466196 10.724156
0.095511183 0.44976845 7.7914076
0.14410399 0.82956856 7.8100438
0.22873195 1.9850901 7.7308817
0.75593084 6.8377943 18.762094
0.73935342 6.8628602 14.336111
0.68591756 6.4619827 10.699382
0.94064492 9.0413799 9.9326849
1.0039856 9.9712162 9.9280272
0.75129509 7.5010376 6.1609068
0.80112892 8.0408993 5.3825579
0.82246947 8.2843161 4.4443388
0.95486939 9.6520472 4.0070357
1.8603384 18.871655 5.6638994
3.1198752 31.762033 6.1507049
0.78576136 7.6961613 6.9714046
0.7795772 7.6752605 5.7009907
0.82022554 8.1034946 4.8718452
0.86765838 8.6170397 4.0910597
2.846735 28.370554 10.012847
3.9340825 39.345135 9.6275558
0.039710291 0.070911251 7.8889728
0.15537181 1.2177504 7.8044519
0.19431654 1.603621 7.789567
0.81629682 7.1331601 22.999792
0.98886484 8.9156151 21.192242
0.62920928 5.783669 10.729009
0.79087716 7.3648291 10.951526
0.93693495 8.8115177 10.685781
0.097080588 0.44943231 7.7914076
0.14699885 0.82906044 7.8100438
0.23580819 1.9855278 7.7357211
0.77783811 6.8179684 18.715168
0.76691645 6.8926911 14.403629
0.70619482 6.4388094 10.665255
0.97219944 9.0380421 9.9326849
1.0391552 9.9711981 9.931531
0.77546674 7.4790106 6.1452141
0.83005017 8.0463724 5.388041
0.8513822 8.281394 4.4443388
0.99469823 9.7086096 4.0313854
1.925714 18.860271 5.6624894
3.2347045 31.790047 6.1581659
0.81536674 7.7193627 6.9946828
0.81439161 7.7488699 5.7569108
0.84626162 8.0791464 4.8591795
0.89914358 8.6275015 4.0973539
2.945749 28.360443 10.012847
4.0739007 39.355335 9.6334171
0.039957576 0.070772208 7.8889728
0.15962163 1.2172008 7.8044519
0.19991304 1.6029329 7.789567
0.83751762 7.0991364 22.89958
1.0219797 8.9295778 21.233664
0.64939427 5.7814374 10.729009
0.8175112 7.3704147 10.963925
0.96943748 8.8241243 10.704969
0.098711781 0.44937241 7.7963991
0.1499875 0.82906675 7.8150153
0.24273755 1.9846926 7.7357211
0.80082601 6.8083563 18.696396
0.79072338 6.8878088 14.399128
0.73042685 6.4518547 10.69085
0.92547572 8.2645912 11.086786
1.0041167 9.037962 9.9363604
1.0739548 9.9675102 9.931531
0.80405849 7.4994798 6.1640453
0.85192174 7.9852176 5.3496609
0.88075286 8.2827768 4.4466577
1.0285815 9.7050781 4.0313854
1.991033 18.848663 5.6610794
3.3219941 31.553843 6.1152654
0.8439281 7.7313166 7.0079846
0.83925259 7.7258878 5.7421947
0.87399381 8.0718565 4.8566461
0.93508822 8.6784582 4.1225305
3.0553169 28.448586 10.04736
4.2060785 39.292545 9.6216936
0.040204376 0.070632301 7.8889728
0.16386947 1.2166362 7.8044519
0.20563683 1.6032352 7.7944622
0.85688996 7.0517154 22.75642
1.0531436 8.9259567 21.233664
0.67039835 5.7862725 10.742176
1.0016782 8.8334255 10.720319
0.10027978 0.44902509 7.7963991
0.15288058 0.82853812 7.8150153
0.24982104 1.9850802 7.7405605
0.82209539 6.7849627 18.640083
0.80606186 6.8115039 14.246086
0.77653623 6.6513181 11.023593
0.94014049 8.1385832 10.923196
1.0360448 9.0377703 9.9400358
1.1091359 9.9672451 9.9350357
0.83237398 7.5159702 6.1797371
0.87062764 7.8990693 5.2948313
0.91014349 8.2840548 4.448976
1.0619476 9.6968203 4.0295119
2.0568149 18.841599 5.6610794
3.2450745 29.823086 5.786983
0.86087495 7.639277 6.9281726
0.86351252 7.6988101 5.7245359
0.93282211 8.3429394 5.0187693
0.96989375 8.7157373 4.1414132
3.1811552 28.677111 10.13118
4.3384013 39.234142 9.6111431
0.040450681 0.070491523 7.8889728
0.16811532 1.2160567 7.8044519
0.21123192 1.6025077 7.7944622
0.87649739 7.0086899 22.627577
1.0845304 8.9241657 21.238266
0.69059211 5.7838974 10.742176
0.96458149 8.1749716 12.16248
1.0366017 8.8648939 10.762532
0.10184655 0.44867232 7.7963991
0.15587102 0.82852316 7.8199873
0.25674874 1.9841961 7.7405605
0.84705585 6.792325 18.668238
0.84089702 6.8994083 14.435138
0.82342392 6.8453584 11.347804
0.96711862 8.1232834 10.907235
1.0675863 9.0340986 9.9400358
1.1443281 9.966856 9.9385405
0.86125636 7.5362215 6.1985679
0.89441425 7.8627448 5.2728996
0.93805647 8.2720251 4.4443388
1.0916231 9.6562014 4.0145278
2.1225719 18.834305 5.6610794
3.3469632 29.792053 5.7832532
0.88365591 7.6028461 6.898243
0.8778376 7.5873384 5.6450706
0.96045685 8.326786 5.0111704
1.0008291 8.7168074 4.1435113
3.2833858 28.684597 10.137753
2.5564647 22.403196 5.5291338
0.040721536 0.070385642 7.8939724
0.17235912 1.2154624 7.8044519
0.21682443 1.6017607 7.7944622
0.90095693 7.0055881 22.627577
1.1161598 8.924202 21.247471
0.90807372 7.3859863 13.704804
0.99345112 8.1743479 12.166614
1.0713737 8.8930445 10.800907
0.10341209 0.44831407 7.7963991
0.15876216 0.82797402 7.8199873
0.26367334 1.9832878 7.7405605
0.87471259 6.8201365 18.752708
0.86985266 6.9353123 14.51616
0.85885346 6.9356194 11.501378
0.98446739 8.0301332 10.787535
1.0995243 9.0336819 9.9437103
1.1795311 9.966342 9.9420443
0.88892382 7.5447659 6.2079835
0.91600943 7.8097396 5.2400022
0.96589643 8.2599001 4.4397011
1.1231754 9.633913 4.0070357
2.1888566 18.831545 5.6624894
3.4441509 29.721632 5.7720613
0.90175283 7.5292778 6.8350592
0.90383846 7.580215 5.6421275
0.96050847 8.0793848 4.8667793
1.0312504 8.7132607 4.1435113
3.3834937 28.672962 10.137753
2.6391945 22.432755 5.5385122
0.040966973 0.070243068 7.8939724
0.17660083 1.2148534 7.8044519
0.2224143 1.6009941 7.7944622
0.92286265 6.9831629 22.565542
1.1475534 8.9221888 21.252073
0.93986171 7.4302926 13.792585
1.0219789 8.1708307 12.166614
1.1039876 8.9019737 10.816257
0.10497637 0.44795036 7.7963991
0.16165136 0.82741481 7.8199873
0.27059466 1.9823554 7.7405605
0.90325034 6.8529696 18.851255
0.89433455 6.9343925 14.52066
0.88404673 6.9403405 11.514175
1.0121145 8.0236578 10.783545
1.1314725 9.0331535 9.9473858
1.2143129 9.9621639 9.9420443
0.91478562 7.5377536 6.204845
0.93774706 7.7608309 5.209846
0.99472302 8.2564783 4.4397011
1.1523737 9.593111 3.9920514
2.2522962 18.804741 5.6568494
3.5606925 29.816736 5.7925792
0.93259901 7.5631404 6.8683133
0.93177056 7.5890489 5.6509566
0.98765707 8.0674248 4.8617125
1.0737411 8.8087225 4.1896687
