# .PCD v0.7 - Point Cloud Data file format
VERSION 0.7
FIELDS x y z
SIZE 4 4 4
TYPE F F F
COUNT 1 1 1
WIDTH 1505
HEIGHT 1
VIEWPOINT 0 0 0 1 0 0 0
POINTS 1505
DATA ascii
-0.28736845 0.55506039 5.7866421
-1.3220996 2.2332833 10.029608
-1.1745019 1.9628863 6.2746434
-1.050824 1.7451583 4.275898
-0.99225241 1.6420782 3.2084019
-0.95703495 1.5794662 2.5202048
-0.93305737 1.5368918 2.0274065
-0.92692763 1.515457 1.8255159
-0.91019642 1.4863712 1.4877448
-0.90156794 1.47057 1.2155296
-0.88106853 1.4360206 0.96845758
-0.86885637 1.4150219 0.75919664
-0.8666442 1.4103295 0.57650119
-0.83887744 1.3640844 0.39550632
-0.82209975 1.3357714 0.23375866
-0.92123735 1.5108986 1.6572551
-0.90694338 1.4857227 1.3509996
-0.88638783 1.4509228 1.0847429
-0.87676531 1.433498 0.86425525
-0.86807066 1.4181843 0.66785467
-0.85063756 1.3886285 0.48347941
-0.82533866 1.3468102 0.31252488
-0.81476671 1.3285322 0.15654305
-0.44666699 0.77564937 5.6904492
-1.8811165 3.2211139 17.956953
-1.2998166 2.1913502 8.1923265
-1.0942948 1.8303118 5.0834064
-1.0213379 1.7002338 3.7020931
-0.97344667 1.6154284 2.8426807
-0.94722843 1.5682318 2.2701349
-0.18676995 0.40017083 7.476933
-0.28567177 0.55653483 5.7916136
-1.3155688 2.2400527 10.039287
-1.1782123 1.9847819 6.3309565
-1.0514238 1.7600292 4.3029051
-0.99187797 1.6544794 3.2254655
-0.95772529 1.5931276 2.5361648
-0.93468326 1.5517559 2.0421071
-0.92533219 1.524781 1.832525
-0.91106534 1.4995189 1.4971601
-0.90077531 1.4808532 1.2210126
-0.88065732 1.4466552 0.97309518
-0.86873549 1.4259644 0.76294273
-0.86671025 1.4215378 0.57932127
-0.83922797 1.375391 0.39737156
-0.82262272 1.3471334 0.23465282
-0.92175531 1.5236894 1.6672316
-0.90593952 1.4957943 1.3568859
-0.88578653 1.4613812 1.0898093
-0.87646496 1.4443097 0.86845136
-0.86801726 1.4292781 0.67114168
-0.85083413 1.3998966 0.48582402
-0.82577783 1.3581458 0.31390625
-0.81531829 1.339904 0.15694611
-0.44395676 0.77720386 5.6904492
-1.8688407 3.2258987 17.947163
-1.3118397 2.2293246 8.3163977
-1.1018507 1.8576456 5.1478415
-1.0288825 1.72642 3.7503729
-0.97502112 1.6308935 2.8633456
-0.94833833 1.5825263 2.285485
-0.18537195 0.40082034 7.476933
-0.28372738 0.55752861 5.7916136
-1.3096397 2.2478898 10.053805
-1.1809083 2.00524 6.3825769
-1.0530423 1.7767985 4.3344135
-0.99276209 1.6691395 3.2467954
-0.95833188 1.606813 2.552125
-0.93447781 1.5637398 2.0531328
-0.92552239 1.5371675 1.8430386
-0.9098441 1.509357 1.5034369
-0.8999216 1.4911485 1.2264955
-0.88018233 1.4573042 0.97773278
-0.86854881 1.436923 0.76668876
-0.8667087 1.4327637 0.58214134
-0.83950979 1.3867165 0.3992368
-0.82307631 1.3585151 0.23554698
-0.92027372 1.5333006 1.6738826
-0.90487629 1.5058769 1.3627722
-0.88512301 1.4718528 1.0948756
-0.87609988 1.4551369 0.87264746
-0.86789697 1.4403889 0.6744287
-0.85347217 1.4153452 0.48934099
-0.82614779 1.3695006 0.31528762
-0.81321824 1.3470186 0.15714765
-0.44124109 0.77874881 5.6904492
-1.8555399 3.2288711 17.927584
-1.3213559 2.2635415 8.4261532
-1.1062571 1.880003 5.1984696
-1.0240687 1.7320627 3.7547622
-0.97506404 1.6439685 2.8798773
-0.94935995 1.5968478 2.3008351
-0.1839717 0.40146497 7.476933
-0.2817795 0.55851561 5.7916136
-1.3030428 2.2546241 10.063484
-1.1826055 2.0242507 6.4295044
-1.0545564 1.7936002 4.365922
-0.99355596 1.683826 3.2681251
-0.95885444 1.6205218 2.568085
-0.93592882 1.578657 2.0678334
-0.92563725 1.5495739 1.8535522
-0.91056311 1.5225456 1.5128524
-0.89685887 1.4978683 1.229237
-0.88192064 1.4717673 0.98468918
-0.86829609 1.4478978 0.77043486
-0.86663914 1.4440067 0.58496141
-0.83972263 1.3980606 0.40110204
-0.82089478 1.3656482 0.23599406
-0.92064631 1.5461279 1.683859
-0.90168387 1.5124981 1.3657153
-0.88439715 1.4823376 1.0999421
-0.87566984 1.465979 0.87684357
-0.86770964 1.451516 0.67771572
-0.85351729 1.4266582 0.4916856
-0.82644856 1.3808745 0.31666899
-0.81364548 1.358421 0.15755071
-0.43852007 0.78028429 5.6904492
-1.8427452 3.2326744 17.912895
-1.3358847 2.3068945 8.569314
-1.1105206 1.9024132 5.2490973
-1.0240742 1.7459563 3.7767072
-0.97645432 1.659489 2.9005423
-0.95029306 1.6111954 2.316185
-0.18256921 0.40210474 7.476933
-0.27982822 0.55949581 5.7916136
-1.2970399 2.2624304 10.078002
-1.1850493 2.0447907 6.4811249
-1.0548691 1.8085533 4.3929296
-0.99425918 1.6985379 3.2894547
-0.95929307 1.6342537 2.5840452
-0.93556839 1.5906813 2.0788589
-0.92749476 1.5650676 1.8675704
-0.90921491 1.5324098 1.5191293
-0.89589578 1.5081799 1.2347199
-0.88130504 1.4824524 0.98932678
-0.86797738 1.4588882 0.77418089
-0.86895579 1.4593883 0.5891915
-0.83986652 1.409423 0.40296727
-0.82122421 1.3770596 0.23688821
-0.92094076 1.5589768 1.6938356
-0.90051389 1.5225946 1.3716016
-0.88580441 1.4965448 1.1075416
-0.8751747 1.4768357 0.88103968
-0.86745518 1.4626592 0.68100274
-0.85349381 1.4379885 0.49403024
-0.82667977 1.3922669 0.31805035
-0.8114509 1.3655478 0.15775223
-0.4357937 0.78181022 5.6904492
-1.8294456 3.2355421 17.893316
-1.340462 2.3335485 8.6504374
-1.1146408 1.9248759 5.2997246
-1.0239954 1.7598711 3.7986526
-0.97632962 1.6726089 2.917074
-0.95113754 1.625569 2.3315351
-0.18116449 0.40273955 7.476933
-0.2781094 0.56094712 5.7965846
-1.2909985 2.2702224 10.092521
-1.1830643 2.0578918 6.5092816
-1.0572706 1.8272992 4.4289393
-0.99618131 1.7155308 3.3150501
-0.9596473 1.6480085 2.6000051
-0.93684381 1.6056503 2.0935595
-0.92744797 1.5775187 1.8780839
-0.90978324 1.5456372 1.5285445
-0.89699447 1.5221055 1.2429444
-0.88062561 1.4931511 0.99396437
-0.86759239 1.4698938 0.77792698
-0.86873579 1.4706732 0.59201157
-0.8399412 1.4208033 0.40483251
-0.82148391 1.38849 0.23778237
-0.92304415 1.5750675 1.7071376
-0.89928442 1.5327014 1.377488
-0.88494056 1.5070626 1.112608
-0.87461436 1.4877067 0.88523579
-0.86952788 1.4778883 0.68593329
-0.85586774 1.4535245 0.49754718
-0.82432818 1.399411 0.31874102
-0.81175363 1.3769795 0.15815529
-0.43306202 0.78332669 5.6904492
-1.8161484 3.2383556 17.873735
-1.3352637 2.3434012 8.6695251
-1.118618 1.9473904 5.3503528
-1.0214375 1.769658 3.8118203
-0.97753501 1.6881831 2.9377387
-0.95189303 1.6399678 2.346885
-0.17975757 0.40336946 7.476933
-0.27614963 0.5619145 5.7965846
-1.2849182 2.2779994 10.107038
-1.1921136 2.090492 6.598444
-1.059554 1.8460836 4.4649487
-0.99799675 1.7325575 3.3406458
-0.95991713 1.6617854 2.6159654
-0.93802583 1.6206474 2.1082602
-0.92912209 1.5930692 1.8921022
-0.90830755 1.5555261 1.5348215
-0.89589632 1.5324469 1.2484273
-0.87988216 1.503863 0.99860191
-0.86714107 1.4809145 0.78167301
-0.86844742 1.4819744 0.59483165
-0.83994645 1.4322011 0.40669775
-0.82167381 1.3999387 0.23867653
-0.92316991 1.5879639 1.7171141
-0.90002847 1.5463114 1.3863175
-0.88618368 1.5213172 1.1202074
-0.87398869 1.4985917 0.88943189
-0.86912441 1.4890712 0.68922031
-0.85569203 1.4648974 0.49989185
-0.82443517 1.4108311 0.32012239
-0.81198633 1.3884298 0.15855835
-0.43032506 0.78483355 5.6904492
-1.8028538 3.241116 17.854155
-1.3263413 2.3467484 8.664753
-1.1224513 1.969956 5.4009805
-1.0259629 1.791919 3.8513215
-0.97864366 1.7037861 2.9584033
-0.95255959 1.6543916 2.3622351
-0.17834844 0.4039945 7.476933
-0.27418649 0.56287497 5.7965846
-1.278186 2.2846649 10.116717
-1.1992506 2.1201761 6.6782212
-1.0617189 1.8649061 4.5009584
-0.99970543 1.7496177 3.3662415
-0.96010244 1.6755841 2.6319253
-0.93911457 1.6356722 2.1229608
-0.93069899 1.6086504 1.9061204
-0.90872484 1.5687917 1.5442369
-0.89683461 1.5464164 1.2566516
-0.87907439 1.5145876 1.0032395
-0.86895186 1.4959586 0.78729212
-0.86809081 1.4932913 0.59765172
-0.83988255 1.4436163 0.40856299
-0.82179362 1.4114056 0.23957069
-0.92321688 1.6008803 1.7270906
-0.89866728 1.5564445 1.3922038
-0.88733804 1.5355989 1.127807
-0.87557048 1.5134188 0.89572603
-0.86865336 1.5002693 0.69250727
-0.85544723 1.4762866 0.50223649
-0.82447249 1.4222689 0.32150373
-0.81214893 1.3998986 0.15896143
-0.42795372 0.78701365 5.6953888
-1.7890705 3.2429314 17.829678
-1.3166819 2.3487597 8.6552095
-1.1271015 1.9942725 5.4562106
-1.0303453 1.8142332 3.8908234
-0.97965521 1.7194173 2.9790683
-0.95313692 1.6688398 2.3775849
-0.17705181 0.40487954 7.4819245
-0.27222002 0.56382865 5.7965846
-1.2720324 2.2924101 10.131236
-1.2061949 2.1499355 6.757998
-1.0648357 1.8856617 4.5414696
-1.0013071 1.7667109 3.3918371
-0.96020305 1.6894044 2.6478853
-0.94010985 1.6507243 2.1376615
-0.93040311 1.6211687 1.916634
-0.90906054 1.5820791 1.5536524
-0.89560115 1.5567864 1.2621346
-0.88041282 1.5291641 1.010196
-0.86835366 1.5070164 0.79103822
-0.86766565 1.5046237 0.60047174
-0.83974904 1.4550483 0.41042823
-0.82184339 1.4228903 0.24046485
-0.92318487 1.6138163 1.7370671
-0.89925516 1.5700946 1.4010333
-0.88840336 1.549907 1.1354066
-0.87480021 1.5243387 0.89992213
-0.86811483 1.511482 0.69579428
-0.85271102 1.4834777 0.50340879
-0.82443994 1.433724 0.3228851
-0.81224126 1.4113852 0.15936449
-0.42520395 0.78850275 5.6953888
-1.7777395 3.2491567 17.829678
-1.3041235 2.3455133 8.6265764
-1.1306404 2.0169411 5.5068383
-1.0345843 1.8365995 3.930325
-0.98056936 1.7350761 2.999733
-0.95204526 1.6805235 2.3890977
-0.17563744 0.40549508 7.4819245
-0.27025026 0.56477541 5.7965846
-1.2652347 2.2990389 10.140915
-1.2129457 2.1797686 6.8377752
-1.0678202 1.9064614 4.5819802
-1.0040795 1.7861097 3.4216986
-0.96021885 1.7032455 2.6638458
-0.94101131 1.665803 2.1523621
-0.93179542 1.6368036 1.9306521
-0.90931439 1.5953875 1.5630677
-0.8963787 1.5707986 1.2703589
-0.87946332 1.5399214 1.0148336
-0.86768866 1.5180881 0.79478431
-0.86717194 1.5159709 0.60329181
-0.83954591 1.4664971 0.41229346
-0.82182288 1.4343925 0.24135901
-0.92307353 1.6267712 1.7470435
-0.89975858 1.5837674 1.4098626
-0.8893795 1.5642411 1.1430061
-0.87620956 1.5392158 0.90621626
-0.86750847 1.5227093 0.6990813
-0.85234249 1.4948902 0.50575346
-0.82433736 1.4451963 0.32426646
-0.81226325 1.4228892 0.15976755
-0.42244896 0.7899822 5.6953888
-1.7634737 3.2499723 17.800306
-1.2944866 2.3474369 8.617033
-1.1349841 2.0413663 5.5620689
-1.0375116 1.8569266 3.9654377
-0.98276186 1.7532167 3.0245306
-0.95245349 1.695014 2.4044476
-0.17433374 0.40637144 7.4869161
-0.26827717 0.56571537 5.7965846
-1.2584058 2.3056481 10.150594
-1.2145004 2.2006094 6.8893957
-1.0706725 1.9273049 4.6224909
-1.0054585 1.8032714 3.4472942
-0.96162003 1.7197374 2.6837957
-0.94181889 1.680908 2.1670628
-0.9313364 1.6493627 1.9411659
-0.90948635 1.608717 1.5724831
-0.8950094 1.581196 1.275842
-0.88063276 1.554545 1.02179
-0.86924332 1.5332065 0.80040342
-0.86660951 1.5273334 0.60611188
-0.83927298 1.4779619 0.4141587
-0.82173204 1.4459116 0.24225317
-0.92288315 1.6397451 1.7570201
-0.89819312 1.5939415 1.415749
-0.89026642 1.5786008 1.1506057
-0.87752563 1.5541213 0.91251045
-0.86451107 1.5298392 0.70072484
-0.84951192 1.5020872 0.50692576
-0.82660317 1.460995 0.3263385
-0.8146764 1.438758 0.16037214
-0.41932511 0.79076535 5.6904492
-1.618974 3.0086253 16.449224
-1.2798396 2.3401542 8.5740852
-1.1382275 2.0641348 5.6126966
-1.0403093 1.8772959 4.0005503
-0.98347253 1.7689344 3.0451953
-0.95277208 1.7095276 2.4197977
-0.17302604 0.40724367 7.4919081
-0.2665267 0.56713122 5.8015561
-1.2521447 2.3133433 10.165112
-1.2175813 2.224515 6.9504013
-1.0723417 1.9462845 4.6585007
-1.0079918 1.8227466 3.4771557
-0.96145648 1.7336243 2.6997557
-0.94253248 1.6960388 2.1817634
-0.93254358 1.6650497 1.9551841
-0.9095763 1.622067 1.5818983
-0.89562541 1.5952488 1.2840662
-0.88171059 1.5691954 1.0287464
-0.87070292 1.5483539 0.80602247
-0.8659783 1.5387101 0.60893196
-0.83893025 1.4894426 0.41602394
-0.82157075 1.4574476 0.24314731
-0.92261326 1.6527373 1.7669965
-0.8985396 1.6076521 1.4245785
-0.88895941 1.5892233 1.155672
-0.87874818 1.5690544 0.91880459
-0.86378324 1.5410862 0.70401186
-0.84901947 1.5135219 0.50927037
-0.82634526 1.4725085 0.32771987
-0.81454211 1.450305 0.1607752
-0.41656229 0.79222423 5.6904492
-1.6084621 3.0142581 16.449224
-1.2659706 2.3341098 8.5359097
-1.1403884 2.085237 5.6587219
-1.0429775 1.8977075 4.0356631
-0.98544377 1.7871422 3.069993
-0.95300096 1.724064 2.4351475
-0.17182532 0.40837818 7.5018911
-0.26454544 0.56805813 5.8015561
-1.2452507 2.3199151 10.174791
-1.2180405 2.2439184 6.9973292
-1.0749352 1.9672095 4.6990118
-1.0104012 1.8422612 3.5070174
-0.96265966 1.7501713 2.7197061
-0.94478816 1.7141641 2.2001393
-0.93192077 1.6776475 1.9656976
-0.91147578 1.6388386 1.5944521
-0.89411998 1.605672 1.2895492
-0.88054043 1.5800024 1.033384
-0.86980915 1.5594813 0.80976856
-0.86527807 1.5501008 0.61175203
-0.83851749 1.5009388 0.41788921
-0.82133883 1.4689999 0.24404147
-0.92226392 1.6657475 1.7769731
-0.89880115 1.6213844 1.4334079
-0.88968021 1.6036253 1.1632714
-0.87767339 1.5800472 0.92300069
-0.86298746 1.5523467 0.70729887
-0.84845734 1.5249711 0.51161504
-0.8260169 1.4840381 0.3291012
-0.81433707 1.4618684 0.16117826
-0.41343546 0.79298425 5.6855102
-1.5974543 3.018954 16.444328
-1.2521592 2.3279972 8.4977331
-1.1433469 2.1080961 5.7093496
-1.0443696 1.9160576 4.0663867
-0.98594981 1.8029162 3.0906579
-0.95468062 1.7414335 2.4543352
-0.17050877 0.40924239 7.5068827
-0.26256093 0.56897813 5.8015561
-1.2389165 2.3275764 10.189309
-1.2224681 2.2709498 7.0677209
-1.0732472 1.98052 4.721518
-1.0126867 1.8618146 3.5368788
-0.96375901 1.7667476 2.739656
-0.94530261 1.7293507 2.2148399
-0.93122137 1.6902612 1.9762113
-0.91138935 1.652235 1.6038677
-0.89457399 1.6197643 1.2977736
-0.88144857 1.5946977 1.0403403
-0.87109226 1.5746778 0.81538767
-0.86450887 1.5615054 0.61457211
-0.83803463 1.5124501 0.41975445
-0.82103628 1.4805682 0.24493563
-0.92183489 1.6787752 1.7869495
-0.89897782 1.6351382 1.4422375
-0.8903113 1.6180516 1.170871
-0.87872243 1.5950271 0.92929488
-0.86440337 1.5677555 0.71222943
-0.85017395 1.5406908 0.51513195
-0.82561815 1.4955831 0.33048257
-0.81406122 1.4734479 0.16158132
-0.41066489 0.79442263 5.6855102
-1.5878524 3.0263152 16.454119
-1.2370015 2.3191829 8.4500141
-1.1461595 2.1310012 5.7599773
-1.0467849 1.9365469 4.1014996
-0.98769921 1.8211892 3.1154556
-0.9547196 1.7560194 2.4696853
-0.16907921 0.40983507 7.5068827
-0.26079401 0.57037634 5.8065281
-1.2325442 2.335222 10.203828
-1.2299719 2.3041286 7.1568832
-1.0797224 2.0091836 4.7800336
-1.0136098 1.8791109 3.5624745
-0.96475422 1.7833529 2.7596061
-0.94572252 1.7445618 2.2295406
-0.93215501 1.7060199 1.9902295
-0.91122031 1.6656505 1.6132829
-0.8949405 1.6338792 1.3059981
-0.88226467 1.6094183 1.0472968
-0.87004995 1.5858378 0.8191337
-0.86367059 1.5729235 0.61739212
-0.83748156 1.5239763 0.42161968
-0.82066286 1.4921523 0.24582979
-0.92311174 1.6950994 1.8002516
-0.89906925 1.6489127 1.4510671
-0.89085239 1.6325017 1.1784705
-0.87967747 1.6100332 0.93558902
-0.86345673 1.5790496 0.71551645
-0.84945762 1.5521767 0.51747662
-0.82514864 1.5071431 0.33186394
-0.81371433 1.485043 0.16198438
-0.40753525 0.79515964 5.6805706
-1.5763392 3.0300326 16.444328
-1.2261074 2.3182082 8.4309254
-1.147907 2.1522279 5.8060026
-1.0479383 1.9549654 4.1322227
-0.9893328 1.8394961 3.1402533
-0.95618927 1.773448 2.4888728
-0.16732316 0.40961978 7.4919081
-0.25880143 0.57128322 5.8065281
-1.2261336 2.3428516 10.218346
-1.2356443 2.334337 7.23666
-1.0819157 2.0302317 4.8205447
-1.0156544 1.8987359 3.5923359
-0.96564513 1.7999862 2.7795563
-0.94604772 1.7597966 2.2442412
-0.93299001 1.7218057 2.0042477
-0.91096878 1.679085 1.6226983
-0.89521927 1.6480162 1.3142223
-0.88087291 1.6202719 1.0519344
-0.87115586 1.6010817 0.82475281
-0.86505711 1.5885675 0.62162226
-0.83685821 1.535517 0.42348492
-0.82021856 1.5037516 0.24672395
-0.92251146 1.7081671 1.810228
-0.89907545 1.6627074 1.4598964
-0.89130342 1.6469754 1.1860701
-0.87837631 1.6210748 0.93978512
-0.86469269 1.5945073 0.72044694
-0.85099 1.5679485 0.52099353
-0.82224566 1.5143663 0.33255461
-0.81329638 1.4966537 0.16238745
-0.40475714 0.79657733 5.6805706
-1.5652862 3.0346119 16.439434
-1.2138487 2.3145421 8.4022942
-1.1495199 2.173492 5.8520274
-1.0501 1.9755303 4.1673355
-0.99085057 1.8578364 3.165051
-0.95754898 1.7909082 2.5080602
-0.1657851 0.4099333 7.4869161
-0.25680572 0.57218307 5.8065281
-1.2196844 2.3504643 10.232863
-1.2411207 2.3646126 7.3164372
-1.0890599 2.0609426 4.8835616
-1.0163524 1.9160941 3.6179318
-0.96643174 1.8166476 2.7995064
-0.94627798 1.7750548 2.2589419
-0.93372595 1.7376177 2.0182657
-0.91063446 1.692538 1.6321138
-0.8954103 1.6621752 1.3224468
-0.88151819 1.6350346 1.0588907
-0.86996454 1.6122726 0.82849884
-0.86406547 1.6000193 0.62444234
-0.83616441 1.5470717 0.42535016
-0.81970316 1.515366 0.24761811
-0.92359394 1.7245431 1.8235301
-0.89899617 1.6765226 1.468726
-0.88962579 1.6576734 1.1911365
-0.87915683 1.6361248 0.94607931
-0.86583114 1.6099929 0.7253775
-0.85242248 1.5837495 0.5245105
-0.82165003 1.5259477 0.33393598
-0.8128072 1.5082796 0.16279051
-0.40197408 0.79798537 5.6805706
-1.5542204 3.039151 16.43454
-1.2030078 2.3134673 8.3832054
-1.1509985 2.1947937 5.8980532
-1.0510141 1.9940151 4.1980586
-0.99093682 1.8737221 3.1857157
-0.95879817 1.8083991 2.5272477
-0.1641406 0.40997264 7.476933
-0.25480685 0.57307601 5.8065281
-1.2137722 2.3591788 10.252222
-1.2464006 2.3949547 7.396214
-1.0949925 2.0898001 4.9420772
-1.0169413 1.9334794 3.643527
-0.96851939 1.8360013 2.8234465
-0.94641322 1.7903361 2.2736425
-0.93436289 1.753456 2.032284
-0.91021717 1.7060088 1.6415291
-0.89551312 1.6763551 1.3306712
-0.88207114 1.6498214 1.0658472
-0.87089282 1.6275624 0.83411795
-0.86300433 1.6114835 0.62726241
-0.83540016 1.5586402 0.4272154
-0.81911671 1.5269949 0.24851227
-0.92282212 1.7376494 1.8335066
-0.89883131 1.690357 1.4775554
-0.88990945 1.6721852 1.1987361
-0.87984294 1.6512001 0.95237339
-0.86465001 1.6213387 0.72866452
-0.853755 1.5995797 0.52802747
-0.82098347 1.5375432 0.33531734
-0.81224674 1.5199201 0.16319357
-0.399533 0.80007899 5.6855102
-1.5431418 3.0436492 16.429644
-1.194241 2.3163259 8.3784332
-1.1523421 2.2161322 5.9440784
-1.0529209 2.0146527 4.2331715
-0.99223089 1.8921229 3.2105134
-0.95844549 1.8230833 2.5425978
-0.16260318 0.41027433 7.4719415
-0.25301892 0.57445025 5.8114996
-1.2072428 2.3667607 10.266741
-1.2506925 2.4238284 7.4712982
-1.1007369 2.1187236 5.0005932
-1.018627 1.9532051 3.6733885
-0.96908706 1.8527213 2.8433967
-0.94645315 1.8056396 2.2883432
-0.93656653 1.7724727 2.0498068
-0.90971696 1.7194973 1.6509445
-0.8955279 1.6905562 1.3388957
-0.88460636 1.6685457 1.0751224
-0.87172484 1.6428781 0.83973712
-0.86412358 1.6271963 0.6314925
-0.83687055 1.5745597 0.43001324
-0.81845897 1.5386384 0.24940643
-0.92370951 1.7540749 1.8468086
-0.89858085 1.7042105 1.486385
-0.89010245 1.6867191 1.2063355
-0.88043445 1.6662997 0.95866758
-0.86560756 1.6368704 0.73359501
-0.85498726 1.6154383 0.53154445
-0.82256311 1.553529 0.33738938
-0.81161487 1.531575 0.16359663
-0.39708218 0.80216527 5.6904492
-1.5320511 3.0481074 16.424747
-1.1854692 2.3191514 8.373662
-1.1535506 2.2375059 5.9901032
-1.0535948 2.0332015 4.263895
-0.99340844 1.9105554 3.235311
-0.95948344 1.8406293 2.5617852
-0.16106567 0.41057026 7.4669495
-0.25101218 0.57532996 5.8114996
-1.2006754 2.3743255 10.281259
-1.2579412 2.4589064 7.5651541
-1.1062922 2.1477122 5.0591087
-1.0201875 1.972966 3.7032504
-0.96954983 1.8694677 2.8633468
-0.94639766 1.8209651 2.3030438
-0.93699372 1.7883672 2.0638249
-0.90913355 1.7330029 1.6603597
-0.89545435 1.7047772 1.3471199
-0.88496017 1.6833863 1.0820787
-0.87030196 1.6541163 0.84348315
-0.86290842 1.6386918 0.63431257
-0.83594972 1.5861628 0.43187848
-0.81772989 1.5502954 0.25030059
-0.92449349 1.7705278 1.8601105
-0.9001171 1.721665 1.4981576
-0.89020479 1.7012744 1.2139351
-0.8809312 1.6814235 0.96496183
-0.86427432 1.6482462 0.73688203
-0.85611916 1.6313249 0.53506136
-0.82173908 1.5651598 0.33877075
-0.81091154 1.5432439 0.16399969
-0.39427969 0.80354643 5.6904492
-1.5209478 3.0525253 16.419851
-1.1766919 2.3219438 8.3688898
-1.155513 2.2606549 6.0407314
-1.0563406 2.0560398 4.3033972
-0.99575871 1.9315202 3.2642415
-0.9589389 1.8553572 2.5771353
-0.15963154 0.41112998 7.4669495
-0.24900237 0.57620263 5.8114996
-1.1935065 2.3807495 10.290937
-1.2633991 2.4909863 7.6496239
-1.1047287 2.1631939 5.0861163
-1.0216221 1.9927609 3.7331119
-0.97128522 1.8889195 2.8872871
-0.9477995 1.8393258 2.3214197
-0.93896526 1.8074508 2.0813477
-0.91026294 1.7499783 1.6729136
-0.8952924 1.7190186 1.3553444
-0.8852213 1.6982498 1.0890352
-0.87095535 1.6694748 0.8491022
-0.86162353 1.6501986 0.63713264
-0.83723307 1.6021321 0.43467635
-0.81923729 1.566379 0.25164184
-0.92517376 1.7870072 1.8734126
-0.89968228 1.7355622 1.506987
-0.88823116 1.7120245 1.2190014
-0.88133299 1.6965709 0.9712559
-0.86505038 1.6638223 0.74181259
-0.8549068 1.6429269 0.53740603
-0.82313043 1.5811963 0.34084278
-0.81244487 1.5593569 0.16460429
-0.39181191 0.80561674 5.6953888
-1.5102832 3.0578158 16.419851
-1.1679095 2.324703 8.3641176
-1.1590936 2.2873302 6.100564
-1.0589395 2.0789216 4.3428984
-0.99669397 1.9500186 3.2890394
-0.95830321 1.8701036 2.5924852
-0.15809293 0.41141483 7.4619579
-0.24698953 0.57706833 5.8114996
-1.1868668 2.3882782 10.305456
-1.2740741 2.533926 7.766943
-1.10602 2.1845169 5.126627
-1.0241126 2.014915 3.7672393
-0.97152793 1.9057213 2.9072371
-0.94754243 1.8546993 2.3361204
-0.9391818 1.8233991 2.095366
-0.9095009 1.7635233 1.6823291
-0.89504188 1.7332793 1.3635689
-0.88742304 1.7170708 1.0983104
-0.86938214 1.6807401 0.85284829
-0.86247414 1.6659763 0.64136273
-0.83615524 1.613768 0.43654159
-0.81834966 1.5780709 0.25253597
-0.92575008 1.8035128 1.8867146
-0.9010089 1.7530721 1.5187596
-0.888165 1.7266147 1.2266009
-0.8795616 1.7077067 0.97545201
-0.86356455 1.6752264 0.7450996
-0.85585243 1.65886 0.54092294
-0.82214856 1.5928609 0.34222415
-0.81158262 1.5710608 0.16500735
-0.38933444 0.80767959 5.7003279
-1.4991528 3.0621545 16.414957
-1.1591223 2.3274293 8.3593464
-1.1589944 2.3070745 6.1419868
-1.0613915 2.1018467 4.3824
-0.99878395 1.9710573 3.31797
-0.95757604 1.884868 2.6078353
-0.15665586 0.41196415 7.4619579
-0.24518082 0.57841802 5.8164706
-1.1801888 2.3957894 10.319974
-1.2752274 2.5584364 7.8279486
-1.1042465 2.2000384 5.1536345
-1.0264606 2.0371106 3.8013666
-0.97166526 1.9225478 2.9271872
-0.94872111 1.8731176 2.3544962
-0.93767673 1.8361948 2.1058795
-0.91042715 1.7805498 1.6948829
-0.89470255 1.7475592 1.3717932
-0.88748413 1.7319854 1.1052668
-0.86985642 1.6961402 0.8584674
-0.86322504 1.6817799 0.64559281
-0.83725083 1.6297851 0.43933943
-0.81966758 1.5942044 0.25387722
-0.92452914 1.8167164 1.8966911
-0.90038919 1.7670109 1.5275892
-0.88800782 1.7412254 1.2342005
-0.87978721 1.7228928 0.9817462
-0.86200953 1.6866403 0.74838662
-0.85448366 1.6704921 0.54326761
-0.82335109 1.6089462 0.34429619
-0.8106485 1.5827775 0.16541041
-0.38651273 0.80903369 5.7003279
-1.4880102 3.0664527 16.410061
-1.1509911 2.3314612 8.3593464
-1.1587714 2.3268456 6.1834097
-1.0626243 2.1226723 4.4175129
-1.0020022 1.9946487 3.3510334
-0.9581992 1.9025127 2.6270227
-0.15521689 0.41250849 7.4619579
-0.24316026 0.57927036 5.8164706
-1.1734731 2.4032831 10.334492
-1.2693465 2.569061 7.8467202
-1.1072264 2.2253191 5.2031479
-1.0286663 2.0593469 3.835494
-0.97169673 1.9393982 2.9471374
-0.9482615 1.8885367 2.3691969
-0.93770438 1.8521838 2.1198976
-0.91124552 1.797604 1.7074367
-0.8961668 1.7655861 1.3827591
-0.88745165 1.7469209 1.1122231
-0.87023371 1.7115636 0.86408657
-0.86170048 1.6933336 0.64841288
-0.83601546 1.6414522 0.4412047
-0.81862098 1.6059295 0.25477138
-0.92490894 1.8332672 1.9099932
-0.90150553 1.7845744 1.5393618
-0.88775933 1.7558557 1.2418
-0.87991732 1.7381008 0.98804033
-0.86251956 1.7022759 0.75331712
-0.85524243 1.6864699 0.54678452
-0.82445127 1.6250591 0.34636822
-0.81190431 1.5989612 0.166015
-0.38335416 0.80967557 5.6953888
-1.4768559 3.0707107 16.405167
-1.1428456 2.3354647 8.3593464
-1.148048 2.3256207 6.1696019
-1.0637245 2.1435318 4.4526253
-1.0038136 2.0157673 3.3799641
-0.95871067 1.9201844 2.6462102
-0.15377602 0.41304779 7.4619579
-0.24113676 0.58011556 5.8164706
-1.1667192 2.4107592 10.34901
-1.2785851 2.6106722 7.9593468
-1.1129316 2.256505 5.2661648
-1.031886 2.0839601 3.8738875
-0.9729628 1.958971 2.9710774
-0.94921625 1.9070102 2.3875725
-0.93443245 1.8618203 2.1269066
-0.91195583 1.8146852 1.7199905
-0.89563668 1.7799094 1.3909835
-0.8853333 1.757921 1.1168607
-0.87051368 1.7270101 0.86970562
-0.8622663 1.7091799 0.65264297
-0.83692282 1.6575154 0.44400257
-0.8197487 1.6221112 0.25611261
-0.92518431 1.8498422 1.9232951
-0.90070027 1.798553 1.5481913
-0.88741958 1.7705054 1.2493995
-0.87995201 1.7533309 0.99433452
-0.86293101 1.7179357 0.75824767
-0.85371679 1.6981304 0.54912919
-0.82322389 1.6367751 0.34774956
-0.81081063 1.6107105 0.16641806
-0.38052553 0.81100875 5.6953888
-1.4656901 3.0749278 16.40027
-1.1346864 2.3394396 8.3593464
-1.1399231 2.3296142 6.1696019
-1.0636349 2.1622758 4.4833493
-1.0042442 2.0343995 3.404762
-0.95911038 1.9378828 2.6653979
-0.15233327 0.41358206 7.4619579
-0.23931231 0.58144706 5.8214421
-1.1599276 2.4182172 10.363528
-1.2739853 2.624434 7.9875031
-1.1165202 2.2838454 5.3201795
-1.0337974 2.1062796 3.908015
-0.97410381 1.9785759 2.9950178
-0.94855368 1.9224732 2.4022732
-0.93269336 1.8746498 2.1374204
-0.91082245 1.8283097 1.7294059
-0.89688385 1.7979921 1.4019494
-0.8851276 1.7728907 1.1238172
-0.8727687 1.7466264 0.87719774
-0.86273193 1.7250507 0.65687311
-0.83772814 1.6736048 0.44680041
-0.82077324 1.6383202 0.25745386
-0.92535514 1.8664415 1.9365971
-0.90160555 1.8161681 1.5599639
-0.8869881 1.7851738 1.256999
-0.87989092 1.768582 1.0006286
-0.8632434 1.7336187 0.76317817
-0.85428816 1.7141511 0.5526461
-0.82413423 1.6529341 0.3498216
-0.8118754 1.6269416 0.16702266
-0.37736499 0.81162745 5.6904492
-1.4545128 3.0791047 16.395376
-1.1265134 2.3433864 8.3593464
-1.1309319 2.331821 6.1649995
-1.064477 2.183198 4.5184617
-1.0057933 2.0555866 3.4336927
-0.95939821 1.9556072 2.6845856
-0.15088868 0.41411126 7.4619579
-0.23728122 0.58227891 5.8214421
-1.1530981 2.4256573 10.378047
-1.2655647 2.6304202 7.9921956
-1.1199316 2.3112383 5.3741937
-1.0367063 2.1309829 3.9464085
-0.97511971 1.9982125 3.0189579
-0.94928396 1.9410001 2.4206491
-0.92929846 1.8842909 2.1444294
-0.91132838 1.8454379 1.7419597
-0.89616209 1.8123565 1.4101737
-0.88482797 1.7878802 1.1307735
-0.87283951 1.762125 0.88281685
-0.86309725 1.7409455 0.66110319
-0.83624786 1.6853197 0.44866565
-0.81947953 1.6500957 0.25834802
-0.9254213 1.8830642 1.9498991
-0.90239865 1.833811 1.5717366
-0.88836968 1.8037282 1.2671319
-0.87973416 1.7838541 1.0069228
-0.86345685 1.7493249 0.76810873
-0.85475791 1.7301962 0.55616307
-0.82494181 1.6691194 0.35189366
-0.81283671 1.6431997 0.16762725
-0.37420475 0.81223381 5.6855102
-1.4433244 3.0832412 16.390482
-1.1183265 2.3473043 8.3593464
-1.1219392 2.3339939 6.1603966
-1.0620595 2.1976824 4.5404072
-1.0072068 2.0768089 3.4626231
-0.95957386 1.973357 2.7037728
-0.14944224 0.41463545 7.4619579
-0.23544583 0.58359832 5.8264141
-1.1462306 2.433079 10.392565
-1.2563751 2.6348219 7.9921956
-1.123165 2.3386824 5.4282084
-1.0383226 2.1533825 3.980536
-0.97601038 2.01788 3.0428979
-0.94989622 1.959555 2.4390249
-0.92741382 1.8971351 2.154943
-0.91172564 1.8625916 1.7545135
-0.89719129 1.8304926 1.4211395
-0.8863855 1.8068662 1.1400487
-0.87281269 1.7776452 0.8884359
-0.86336195 1.7568635 0.66533327
-0.83686393 1.701452 0.45146352
-0.82031304 1.66635 0.25968924
-0.92701769 1.9030668 1.9665265
-0.90307963 1.8514816 1.5835092
-0.8896324 1.8223137 1.2772646
-0.87948132 1.7991467 1.013217
-0.86564624 1.7692951 0.77468276
-0.85512602 1.7462654 0.55968004
-0.82346767 1.6808828 0.35327503
-0.81149489 1.6549985 0.16803031
-0.37201196 0.81494915 5.6953888
-1.4325532 3.0882604 16.390482
-1.110126 2.3511937 8.3593464
-1.1129451 2.336132 6.1557946
-1.0647264 2.2229767 4.5842977
-1.0072652 2.09553 3.487421
-0.96102864 1.9940192 2.7267978
-0.14808987 0.41542688 7.4669495
-0.23340726 0.58441663 5.8264141
-1.1393255 2.4404821 10.407084
-1.2515935 2.6485531 8.0203524
-1.125285 2.3642116 5.4777222
-1.0409194 2.1781726 4.0189295
-0.97677547 2.0375781 3.066838
-0.95039052 1.9781381 2.4574008
-0.93478054 1.9292457 2.1864841
-0.91201419 1.8797706 1.7670673
-0.89810473 1.8486577 1.4321055
-0.88588411 1.821901 1.1470052
-0.87471664 1.7973551 0.89592803
-0.86352605 1.7728046 0.66956335
-0.83522493 1.7131939 0.45332876
-0.81885916 1.6781545 0.2605834
-0.9268623 1.9197409 1.9798286
-0.90364796 1.8691789 1.5952818
-0.89077622 1.8409299 1.2873973
-0.87913239 1.8144586 1.0195111
-0.8656463 1.7850528 0.77961332
-0.85539234 1.7623581 0.56319702
-0.82408446 1.697111 0.35534707
-0.81226438 1.6713011 0.16863491
-0.36980471 0.8176589 5.705267
-1.421339 3.0923169 16.385586
-1.1012796 2.3537023 8.3545742
-1.1047835 2.3400028 6.1557946
-1.0672295 2.2483165 4.6281886
-1.0084153 2.1168168 3.5163515
-0.96096945 2.0118229 2.7459855
-0.14663887 0.41594127 7.4669495
-0.23156093 0.58572388 5.8313856
-1.1323826 2.4478672 10.421602
-1.2584392 2.6872883 8.1235924
-1.1281689 2.3917525 5.5317364
-1.0433557 2.2030067 4.057323
-0.97870785 2.0600276 3.0947683
-0.95076656 1.9967481 2.4757767
-0.93730277 1.9517857 2.2075114
-0.91388059 1.9004821 1.7827597
-0.89890212 1.8668514 1.4430714
-0.88721144 1.8409444 1.1562804
-0.87447959 1.8129243 0.90154719
-0.86358929 1.7887681 0.67379349
-0.83565122 1.7293679 0.4561266
-0.81950098 1.6944522 0.26192465
-0.92821312 1.9398048 1.996456
-0.90410388 1.8869027 1.6070545
-0.8918007 1.8595759 1.2975299
-0.88065177 1.8338815 1.0279033
-0.86554676 1.800832 0.78454381
-0.85555661 1.7784736 0.56671393
-0.82459795 1.7133639 0.3574191
-0.81292981 1.6876293 0.16923951
-0.3675831 0.82036322 5.7151456
-1.4105362 3.0972593 16.385586
-1.093057 2.3575323 8.3545742
-1.095781 2.3420753 6.1511922
-1.0736459 2.2823694 4.6896358
-1.0094289 2.1381373 3.5452821
-0.96216881 2.0325477 2.7690105
-0.14528006 0.41672358 7.4719415
-0.22951497 0.5865286 5.8313856
-1.1248783 2.4540901 10.43128
-1.2628509 2.7214072 8.2127552
-1.1299524 2.4173698 5.5812497
-1.0456312 2.2278841 4.0957165
-0.97921175 2.0797889 3.1187084
-0.95102406 2.0153844 2.4941523
-0.93967909 1.9743668 2.2285385
-0.91393894 1.9177154 1.7953135
-0.8995834 1.8850731 1.4540372
-0.88650751 1.856022 1.1632369
-0.87414438 1.8285134 0.90716624
-0.86355144 1.8047533 0.67802358
-0.83597475 1.7455654 0.45892447
-0.82003891 1.7107747 0.26326588
-0.92943525 1.9599016 2.0130837
-0.90444678 1.9046522 1.6188271
-0.89270574 1.8782513 1.3076627
-0.88204622 1.8533368 1.0362955
-0.86534762 1.816632 0.78947437
-0.85561877 1.7946118 0.5702309
-0.82500792 1.7296408 0.35949114
-0.81133872 1.6994736 0.16964257
-0.36503217 0.82235157 5.7200847
-1.3992976 3.1012361 16.380692
-1.084198 2.3599768 8.349802
-1.0875989 2.345886 6.1511922
-1.0778139 2.3121524 4.7423048
-1.0114983 2.162039 3.5783455
-0.96187401 2.0504034 2.788198
-0.14391756 0.41750145 7.476933
-0.22746621 0.58732623 5.8313856
-1.117864 2.4614353 10.445799
-1.2598312 2.7399101 8.2549906
-1.1315707 2.4430287 5.6307635
-1.0477453 2.2528036 4.1341095
-0.98086345 2.1023092 3.1466384
-0.95259905 2.037118 2.5162034
-0.9403879 1.9937625 2.2460613
-0.9138881 1.9349723 1.8078673
-0.90014821 1.9033216 1.4650031
-0.88760424 1.8751208 1.1725119
-0.87569588 1.8483119 0.91465843
-0.86341256 1.82076 0.68225372
-0.83619529 1.7617862 0.46172231
-0.82047284 1.7271212 0.2646071
-0.93052822 1.9800302 2.029711
-0.90639788 1.9260844 1.633543
-0.89165437 1.8930556 1.3152622
-0.88137954 1.8687192 1.0425898
-0.8670643 1.8367227 0.7960484
-0.85350209 1.8063771 0.57257551
-0.82531422 1.7459413 0.36156318
-0.81181139 1.7158434 0.17024715
-0.36247185 0.82433224 5.7250242
-1.3884637 3.1061018 16.380692
-1.0759535 2.3637471 8.349802
-1.0785881 2.3478928 6.1465893
-1.0827911 2.3441665 4.7993627
-1.0134131 2.1859813 3.6114094
-0.96416807 2.0740943 2.8150604
-0.14255142 0.41827488 7.4819245
-0.22541466 0.58811665 5.8313856
-1.1102966 2.4676151 10.455478
-1.2509748 2.7458613 8.2596836
-1.1330233 2.4687276 5.6802764
-1.0496985 2.277765 4.172503
-0.98236972 2.124866 3.1745687
-0.95260853 2.0558109 2.5345793
-0.94097257 2.0131869 2.2635841
-0.91537756 1.9557772 1.8235595
-0.90059662 1.9215972 1.475969
-0.88857836 1.8942498 1.1817871
-0.87514925 1.8639463 0.92027748
-0.86317217 1.8367872 0.68648374
-0.83631271 1.7780298 0.46452022
-0.82080251 1.7434916 0.26594836
-0.93149191 2.0001903 2.0463386
-0.90650195 1.9438897 1.6453156
-0.89233369 1.9117814 1.3253949
-0.88253766 1.8882307 1.0509819
-0.86665034 1.8525699 0.8009789
-0.85337484 1.8225514 0.57609248
-0.82551676 1.7622648 0.36363521
-0.81217957 1.7322369 0.17085175
-0.35959217 0.82559246 5.7250242
-1.3776129 3.1109293 16.380692
-1.0676959 2.3674884 8.349802
-1.0703858 2.3516433 6.1465893
-1.0865611 2.3740654 4.8520317
-1.0163472 2.2125199 3.6486058
-0.96496767 2.0949149 2.8380854
-0.1410905 0.41876993 7.4819245
-0.22317223 0.58840114 5.8264141
-1.1032112 2.47492 10.469995
-1.242802 2.7533572 8.2690687
-1.1289041 2.4825761 5.7027826
-1.0525731 2.30514 4.2151623
-0.98373049 2.1474593 3.2024989
-0.95391357 2.0776095 2.5566301
-0.94143289 2.0326395 2.2811067
-0.91509533 1.9730847 1.8361133
-0.90092826 1.9398991 1.4869348
-0.88942963 1.9134083 1.1910623
-0.87450427 1.8795998 0.92589664
-0.86485565 1.8571839 0.69212389
-0.83632684 1.7942953 0.46731806
-0.82102782 1.7598852 0.26728958
-0.93076175 2.0169904 2.0596406
-0.9081881 1.9653883 1.6600313
-0.89289314 1.9305353 1.3355277
-0.88166296 1.9036547 1.057276
-0.86812228 1.8727208 0.80755287
-0.85314488 1.8387464 0.57960939
-0.82561523 1.7786109 0.36570725
-0.81033814 1.7441231 0.17125481
-0.35670814 0.82684267 5.7250242
-1.3667454 3.1157191 16.380692
-1.0594254 2.3712008 8.349802
-1.0613675 2.3535845 6.1419868
-1.0901355 2.4040186 4.9047008
-1.0191084 2.2391057 3.6858025
-0.96696413 2.1186821 2.864948
-0.13971803 0.41953412 7.4869161
-0.22111697 0.5891766 5.8264141
-1.0955807 2.4810557 10.479674
-1.2331835 2.7576785 8.2690687
-1.1345372 2.5182593 5.7748022
-1.0541943 2.3301861 4.2535558
-0.98619068 2.1728311 3.2344191
-0.95367414 2.0963562 2.575006
-0.94176888 2.0521195 2.2986295
-0.91632861 1.993951 1.8518057
-0.90114301 1.9582261 1.4979006
-0.88830465 1.9285717 1.1980187
-0.87570143 1.8994813 0.93338877
-0.86439717 1.8732588 0.69635403
-0.83623743 1.8105824 0.4701159
-0.82114857 1.7763015 0.26863083
-0.93147802 2.0372057 2.0762682
-0.90805244 1.9832469 1.671804
-0.89512819 1.9532348 1.3481935
-0.88258421 1.9232205 1.0656683
-0.86749297 1.8886133 0.81248349
-0.85078192 1.8505459 0.58195406
-0.82560956 1.7949789 0.36777928
-0.81051266 1.7605553 0.1718594
-0.35381976 0.82808274 5.7250242
-1.3558611 3.1204712 16.380692
-1.0505377 2.3735194 8.3450298
-1.0523487 2.3554912 6.1373844
-1.0935138 2.4340258 4.9573698
-1.022853 2.2683027 3.7271321
-0.97012693 2.1454091 2.895648
-0.13825274 0.42001927 7.4869161
-0.21905901 0.58994484 5.8264141
-1.0884246 2.4883201 10.494193
-1.2235498 2.7619665 8.2690687
-1.1408219 2.5559998 5.8513227
-1.05672 2.357651 4.2962151
-0.98972124 2.2009945 3.2703295
-0.95470828 2.118217 2.5970571
-0.94198024 2.0716267 2.3161523
-0.91742724 2.0148494 1.867498
-0.9029755 1.9803832 1.511608
-0.8889237 1.9477807 1.2072939
-0.87484407 1.9151769 0.93900776
-0.86383688 1.8893528 0.70058405
-0.83604455 1.8268908 0.47291377
-0.82116473 1.7927399 0.26997206
-0.93206447 2.0574503 2.0928955
-0.90947294 2.0048096 1.6865199
-0.89543343 1.9720482 1.3583262
-0.88337958 1.9428158 1.0740606
-0.86871922 1.9088221 0.81905752
-0.85036182 1.8667744 0.58547103
-0.82549971 1.8113686 0.36985135
-0.81058234 1.77701 0.172464
-0.35092705 0.82931274 5.7250242
-1.3449603 3.1251848 16.380692
-1.0422462 2.377172 8.3450298
-1.0441202 2.3591502 6.1373844
-1.0957221 2.4618969 5.0056496
-1.0252583 2.2949831 3.7643285
-0.9718045 2.1692588 2.9225106
-0.13678575 0.42049932 7.4869161
-0.2171813 0.59120655 5.8313856
-1.0812308 2.4955645 10.508712
-1.2132081 2.7646403 8.2643766
-1.147737 2.5958049 5.9323444
-1.0590667 2.3851621 4.3388743
-0.99306709 2.2292089 3.3062396
-0.95560139 2.1401103 2.619108
-0.94353157 2.0944116 2.3371794
-0.91839099 2.0357795 1.8831903
-0.90294266 1.9987656 1.5225738
-0.88759446 1.962981 1.2142503
-0.87579924 1.9351128 0.94649988
-0.86515415 1.9098351 0.7062242
-0.83574784 1.8432193 0.47571161
-0.82107604 1.8091997 0.27131331
-0.93099207 2.0743167 2.1061976
-0.90909702 2.0227194 1.6982924
-0.89738655 1.9948184 1.3709922
-0.8840487 1.9624398 1.0824528
-0.86787385 1.9247574 0.82398808
-0.84983867 1.8830223 0.58898795
-0.82528538 1.8277791 0.37192339
-0.81260449 1.798039 0.17327012
-0.34833005 0.83124948 5.7299633
-1.3344424 3.1307971 16.385586
-1.033942 2.3807957 8.3450298
-1.0350945 2.3609912 6.132782
-1.0987151 2.4920046 5.0583181
-1.0286282 2.3242812 3.8056579
-0.97332722 2.1931458 2.9493732
-0.1353171 0.42097422 7.4869161
-0.21511629 0.59196109 5.8313856
-1.0739998 2.5027888 10.52323
-1.2035502 2.7688584 8.2643766
-1.1465285 2.6177425 5.9728551
-1.0601841 2.4103305 4.3772678
-0.99501133 2.2547159 3.3381598
-0.95498186 2.1589351 2.6374838
-0.9434818 2.1139758 2.3547022
-0.91921979 2.056741 1.8988826
-0.90279245 2.0171719 1.5335398
-0.8879807 1.9822382 1.2235255
-0.87472916 1.9508488 0.95211905
-0.86437476 1.9259729 0.71045434
-0.83736032 1.8640494 0.47944215
-0.82088238 1.8256809 0.27265453
-0.93133003 2.0946128 2.1228251
-0.91025102 2.044343 1.7130083
-0.8974368 2.0136888 1.3811249
-0.88459146 1.9820917 1.090845
-0.86885375 1.9450213 0.83056211
-0.84921247 1.8992891 0.59250492
-0.82698852 1.8487303 0.37468609
-0.81244797 1.8145437 0.17387471
-0.34542632 0.83246028 5.7299633
-1.3235058 3.1354363 16.385586
-1.026215 2.3857615 8.349802
-1.0268469 2.3645902 6.132782
-1.101511 2.5221629 5.1109872
-1.0306765 2.3510532 3.8428545
-0.97340512 2.2141354 2.9723983
-0.1338468 0.421444 7.4869161
-0.21322809 0.59321034 5.8363571
-1.0672231 2.5111501 10.542587
-1.1938778 2.7730427 8.2643766
-1.1529775 2.6576772 6.0538774
-1.0621802 2.4379263 4.4199271
-0.99799645 2.2830248 3.3740702
-0.95560294 2.1808867 2.6595349
-0.94474894 2.1368265 2.3757296
-0.91991323 2.0777326 1.9145747
-0.90252471 2.0356014 1.5445056
-0.8882432 2.0015218 1.2328007
-0.87544173 1.9708375 0.95961118
-0.86544198 1.9465121 0.71609443
-0.83684003 1.8804246 0.48223996
-0.82058352 1.8421823 0.27399579
-0.93304247 2.1183531 2.1427782
-0.90963399 2.0623012 1.7247809
-0.89736623 2.0325837 1.3912575
-0.8850078 2.0017712 1.0992371
-0.86779165 1.960997 0.83549255
-0.85045135 1.9200188 0.59719419
-0.82654905 1.865188 0.37675813
-0.812186 1.8310694 0.17447931
-0.34251839 0.83366096 5.7299633
-1.3129457 3.1409767 16.390482
-1.0178808 2.3893294 8.349802
-1.0178148 2.3663652 6.1281791
-1.1050605 2.5545688 5.1680455
-1.0336709 2.3804488 3.8841841
-0.97462767 2.2380908 2.9992607
-0.13237487 0.42190865 7.4869161
-0.2111561 0.59395105 5.8363571
-1.0599134 2.5183358 10.557105
-1.1841908 2.7771931 8.2643766
-1.1488495 2.6736867 6.0808845
-1.0639964 2.4655654 4.4625864
-1.0007956 2.3113813 3.4099801
-0.95743191 2.2059784 2.685261
-0.94443721 2.156445 2.3932524
-0.91890806 2.0951891 1.9271286
-0.90382046 2.0578816 1.5582129
-0.88838196 2.0208311 1.2420759
-0.87602526 1.9908546 0.9671033
-0.86444271 1.9626915 0.72032458
-0.83819717 1.9013137 0.48597044
-0.82218981 1.8632598 0.27578411
-0.93460059 2.1421311 2.1627309
-0.91052061 2.0839832 1.7394966
-0.89890176 2.0554519 1.4039235
-0.88347673 2.0173202 1.1055312
-0.86852443 1.9813138 0.84206659
-0.84960288 1.9363285 0.60071111
-0.82600474 1.8816652 0.37883019
-0.81382829 1.8521888 0.17528543
-0.33931381 0.8341316 5.7250242
-1.3019736 3.1455407 16.390482
-1.0095342 2.3928678 8.349802
-1.0095483 2.3699036 6.1281791
-1.1074538 2.5848284 5.2207141
-1.0375843 2.4124789 3.9296465
-0.97442549 2.2591383 3.0222857
-0.13098574 0.42264423 7.4919081
-0.20925744 0.5951876 5.8413281
-1.0530502 2.5266612 10.576464
-1.1751605 2.7828996 8.2690687
-1.1386572 2.6756778 6.0763836
-1.0676823 2.4980428 4.5137777
-1.0022216 2.3370156 3.4419003
-0.95775849 2.2279947 2.7073119
-0.94399989 2.1760869 2.4107749
-0.91934288 2.1162343 1.9428209
-0.90330374 2.0763614 1.5691788
-0.88839656 2.0401659 1.2513511
-0.87647969 2.0108993 0.97459543
-0.86334085 1.9788874 0.72455466
-0.83745277 1.9177333 0.48876834
-0.82166439 1.8798076 0.27712533
-0.93452281 2.1625178 2.1793587
-0.9112671 2.1056969 1.7542125
-0.89857501 2.0743997 1.4140562
-0.88365394 2.0370464 1.1139234
-0.86912578 2.0016594 0.84864062
-0.85058832 1.957114 0.60540044
-0.82732999 1.9027025 0.3815929
-0.81333911 1.8687608 0.17589001
-0.33611014 0.83459002 5.7200847
-1.2909856 3.1500661 16.390482
-1.0017508 2.3977544 8.3545742
-1.0005105 2.371613 6.1235766
-1.1105847 2.6173403 5.2777724
-1.0401838 2.4419758 3.9709761
-0.97660637 2.2861068 3.0529859
-0.12959307 0.42337528 7.4968996
-0.20717856 0.59591448 5.8413281
-1.0461416 2.5349693 10.59582
-1.1654392 2.7869847 8.2690687
-1.1318464 2.6856542 6.0898871
-1.0701377 2.5281737 4.5607028
-1.0034808 2.3626881 3.4738207
-0.95927095 2.2531593 2.7330382
-0.94484478 2.199029 2.4318025
-0.91964197 2.1373076 1.9585133
-0.9043234 2.0987024 1.5828861
-0.88828683 2.0595248 1.2606263
-0.87680465 2.0309718 0.98208755
-0.8621366 1.9950998 0.72878474
-0.83855385 1.9386791 0.49249882
-0.82301199 1.9009448 0.27891365
-0.93578303 2.186362 2.1993115
-0.91028053 2.1237254 1.7659851
-0.89982647 2.0973318 1.426722
-0.88191265 2.0526285 1.1202177
-0.86773014 2.0176952 0.85357118
-0.84951693 1.9734647 0.60891736
-0.82655966 1.9192235 0.38366497
-0.8127442 1.885352 0.17649461
-0.33319482 0.83575821 5.7200847
-1.2803648 3.1554968 16.395376
-0.993375 2.4012365 8.3545742
-0.9914729 2.3732884 6.1189742
-1.1125742 2.6476972 5.330441
-1.0436834 2.4741127 4.0164385
-0.97985947 2.3160696 3.0875232
-0.12811443 0.42382503 7.4968996
-0.20509718 0.59663403 5.8413281
-1.0396634 2.5444241 10.620018
-1.1557038 2.7910359 8.2690687
-1.1241417 2.6936069 6.0988894
-1.0744121 2.563163 4.6161599
-1.0057408 2.3911748 3.5097306
-0.96061921 2.2783613 2.7587643
-0.94554085 2.222003 2.4528296
-0.91980511 2.1584086 1.9742055
-0.90519816 2.1210761 1.5965935
-0.88805282 2.078908 1.2699015
-0.87700021 2.0510705 0.98957968
-0.86082947 2.0113273 0.73301482
-0.8395189 1.9596558 0.49622929
-0.82225931 1.9175367 0.28025487
-0.93688816 2.2102416 2.2192645
-0.91075855 2.1454937 1.780701
-0.89924294 2.1163301 1.4368547
-0.88185024 2.0723994 1.1286099
-0.86808336 2.03809 0.86014521
-0.85024792 1.994303 0.61360663
-0.82762671 1.9403169 0.38642767
-0.81204331 1.9019618 0.17709921
-0.32999057 0.83619332 5.7151456
-1.2693422 3.1599469 16.395376
-0.98442131 2.4033082 8.349802
-0.98243588 2.3749294 6.1143718
-1.1162053 2.6825223 5.3918886
-1.0458866 2.5037069 4.0577679
-0.98415351 2.3490386 3.1258984
-0.12671572 0.42454657 7.5018911
-0.20318395 0.59785134 5.8462996
-1.0312467 2.5492029 10.624858
-1.1452997 2.7934563 8.2643766
-1.1163949 2.7015383 6.1078916
-1.0784549 2.5982122 4.671617
-1.0078142 2.4197059 3.5456409
-0.96180302 2.3035996 2.7844903
-0.9460879 2.245008 2.4738569
-0.92134523 2.1831226 1.9930362
-0.90592748 2.1434805 1.6103007
-0.88942009 2.1023941 1.2814956
-0.87706602 2.0711951 0.9970718
-0.86129165 2.0319867 0.73865497
-0.83842903 1.9761405 0.49902713
-0.82334733 1.9387302 0.28204319
-0.93783772 2.2341552 2.2392175
-0.91109544 2.1672904 1.7954167
-0.89853758 2.1353495 1.4469875
-0.88166046 2.0921943 1.137002
-0.86830479 2.0585115 0.86671925
-0.84895319 2.0106924 0.6171236
-0.82662958 1.9568794 0.38849968
-0.81123608 1.918589 0.1777038
-0.32763445 0.83878785 5.7250242
-1.2583041 3.1643586 16.395376
-0.97602618 2.4067297 8.349802
-0.9733994 2.3765364 6.1097693
-1.1123084 2.6996887 5.4182229
-1.0489715 2.5359468 4.1032305
-0.98822933 2.382066 3.1642735
-0.12523301 0.4249863 7.5018911
-0.2010958 0.59855694 5.8462996
-1.0288827 2.569124 10.69261
-1.1355417 2.7974372 8.2643766
-1.1110795 2.715493 6.1303978
-1.0812746 2.630908 4.7228084
-1.0097003 2.4482803 3.5815511
-0.96411753 2.3320069 2.8138916
-0.94785923 2.2713354 2.4983885
-0.92122322 2.204282 2.0087285
-0.90651137 2.165916 1.6240081
-0.88892245 2.121829 1.2907708
-0.87520909 2.0870697 1.0026909
-0.85976326 2.0482504 0.74288505
-0.83913714 1.9971703 0.50275767
-0.82236677 1.9553641 0.28338444
-0.93719876 2.2546542 2.2558451
-0.91129124 2.1891158 1.8101326
-0.89936841 2.1583691 1.4596534
-0.88309097 2.1162016 1.1474924
-0.86839408 2.0789592 0.87329328
-0.84755421 2.0270967 0.62064052
-0.82552689 1.9734584 0.39057174
-0.81032276 1.935234 0.1783084
-0.32526422 0.84137619 5.7349029
-1.2472508 3.1687315 16.395376
-0.96761918 2.4101222 8.349802
-0.96436375 2.3781092 6.1051664
-1.1254915 2.7589953 5.5279503
-1.0507773 2.5656343 4.1445599
-0.99208629 2.4151497 3.2026484
-0.12382834 0.4256984 7.5068827
-0.19917235 0.59976143 5.8512716
-1.0236137 2.5820482 10.731325
-1.1251265 2.7997828 8.2596836
-1.1048629 2.7274258 6.1484027
-1.085845 2.6684868 4.7825317
-1.0125383 2.479687 3.6214516
-0.96496093 2.3573205 2.839618
-0.949458 2.2977021 2.5229206
-0.92245281 2.2290635 2.0275593
-0.90694958 2.1883814 1.6377153
-0.88829988 2.1412859 1.300046
-0.87502986 2.1072381 1.0101831
-0.85997295 2.0689576 0.7485252
-0.83970845 2.0182288 0.50648814
-0.82319462 1.9766116 0.28517276
-0.93784893 2.2786286 2.2757981
-0.91288602 2.2147055 1.8277916
-0.89840531 2.1774352 1.4697862
-0.88263118 2.1360495 1.1558845
-0.87015593 2.103796 0.88151085
-0.84791034 2.0480068 0.62532979
-0.82621354 1.9946285 0.39333448
-0.81121653 1.9565107 0.17911452
-0.32287991 0.84395808 5.744781
-1.2361822 3.1730659 16.395376
-0.95920044 2.4134851 8.349802
-0.95605671 2.3814609 6.1051664
-1.1293058 2.7962186 5.5937862
-1.0523885 2.5953646 4.1858892
-0.99572432 2.4482892 3.2410235
-0.12234163 0.42612803 7.5068827
-0.19707757 0.60045302 5.8512716
-1.0191848 2.5973067 10.779719
-1.1153467 2.8036931 8.2596836
-1.100197 2.7433891 6.1754098
-1.0891914 2.7037098 4.8379889
-1.0162983 2.5139363 3.6653416
-0.96691263 2.3858104 2.8690193
-0.95088428 2.3241072 2.5474524
-0.92352051 2.2538803 2.0463901
-0.90724188 2.210876 1.6514227
-0.8875522 2.160764 1.3093212
-0.87472039 2.1274302 1.0176752
-0.86004853 2.0896914 0.75416535
-0.83827174 2.0347733 0.50928593
-0.82198542 1.9932846 0.28651398
-0.93834317 2.302635 2.2957511
-0.91278589 2.2365904 1.8425074
-0.89895016 2.2005112 1.482452
-0.88204366 2.1559198 1.1642767
-0.86996526 2.1243005 0.88808489
-0.84628713 2.0644464 0.62884676
-0.82488328 2.0112457 0.39540651
-0.81197149 1.9778169 0.17992064
-0.32168248 0.84524661 5.7497206
-1.2306423 3.1752186 16.395376
-0.95498663 2.4151554 8.349802
-0.95117426 2.3813117 6.100564
-1.141389 2.840409 5.6771784
-1.0594379 2.6259038 4.2313519
-1.0022701 2.4767644 3.2755611
-0.12167582 0.42661884 7.5118747
-0.19602928 0.60079604 5.8512716
-1.0192202 2.6107912 10.828114
-1.1104516 2.8056355 8.2596836
-1.1139609 2.7918105 6.2789378
-1.0980541 2.7394981 4.8977118
-1.0231532 2.5436623 3.7052422
-0.97288942 2.412648 2.8984203
-0.95623869 2.3488848 2.5719841
-0.92693245 2.2735102 2.0620823
-0.91128474 2.2318122 1.6651301
-0.89215916 2.1828125 1.3209151
-0.8780275 2.1461167 1.0251673
-0.86367178 2.1089461 0.75980544
-0.84217179 2.0544138 0.5130164
-0.82606721 2.013145 0.2883023
-0.94414324 2.3284905 2.3190296
-0.91800505 2.2606502 1.8601663
-0.90322417 2.2220442 1.4951179
-0.8868354 2.1784739 1.174767
-0.87516606 2.1476808 0.89630246
-0.85002583 2.0839229 0.63353604
-0.82885611 2.0310221 0.39816925
-0.81607544 1.9977307 0.18072677
-0.31873003 0.84636432 5.7497206
-1.2195513 3.1794951 16.395376
-0.94655037 2.4184744 8.349802
-0.94285613 2.3846173 6.100564
-1.1465149 2.8822081 5.7517929
-1.060702 2.6557193 4.2726812
-1.0055372 2.5100014 3.313936
-0.1201859 0.42704096 7.5118747
-0.19393091 0.60147667 5.8512716
-1.0146297 2.6260583 10.876507
-1.1006514 2.8094945 8.2596836
-1.1337947 2.8705981 6.4454827
-1.1009878 2.7748291 4.9531689
-1.0265288 2.5780129 3.7491322
-0.97451621 2.4412181 2.9278219
-0.9573651 2.3753624 2.5965159
-0.92773169 2.2983882 2.0809131
-0.91132408 2.2543628 1.6788374
-0.89118063 2.2023389 1.3301903
-0.87923276 2.1706526 1.0345325
-0.86351466 2.1297302 0.76544559
-0.8423847 2.0755477 0.51674694
-0.82465816 2.0298574 0.28964353
-0.94435453 2.3525622 2.3389826
-0.91915411 2.2863431 1.8778253
