# .PCD v0.7 - Point Cloud Data file format
VERSION 0.7
FIELDS x y z
SIZE 4 4 4
TYPE F F F
COUNT 1 1 1
WIDTH 1458
HEIGHT 1
VIEWPOINT 0 0 0 1 0 0 0
POINTS 1458
DATA ascii
-1.2860485 -13.140179 8.7408543
-1.1958379 -12.262555 6.5358958
-1.072979 -11.04257 4.5708184
-0.98559129 -10.180076 3.0962298
-0.89003116 -9.2265854 1.8513265
-0.82088733 -8.5409222 0.8632459
-0.13487045 -1.3446733 1.2847991
-0.13791019 -1.3821484 1.0949446
-1.1028391 -11.147765 5.2659693
-1.0113362 -10.259331 3.6771197
-0.93225908 -9.4910183 2.3908401
-0.8669042 -8.8414822 1.331278
-0.80734241 -8.2636452 0.42860979
-0.15480229 -1.230354 7.8834796
-0.19345213 -1.6201339 7.8678908
-0.27375999 -2.43098 7.8678312
-0.14370662 -1.31782 3.1825638
-0.16000864 -1.495881 2.8242772
-0.38811177 -3.6750369 5.5001669
-0.64119142 -6.132153 7.4584403
-0.072188042 -0.33903167 5.8346772
-0.14666577 -0.83561462 7.8697019
-0.23599796 -2.0171471 7.8567066
-0.12477181 -1.112182 3.0976403
-0.15670605 -1.4320775 3.0425651
-2.2828536 -21.152536 34.870163
-0.6363582 -5.9652071 8.0184574
-0.63715863 -6.022378 6.6434131
-0.11921012 -1.1641077 1.229743
-0.13445443 -1.3196068 1.1519299
-1.1704962 -11.583981 6.1811199
-1.0618206 -10.545211 4.3704042
-0.96125269 -9.5799379 2.9199755
-0.89193076 -8.920372 1.7935039
-0.83390844 -8.3695202 0.84804523
-0.13802043 -1.329339 1.271497
-0.14190297 -1.3736174 1.0890583
-1.1181536 -10.913589 5.1589684
-1.0183618 -9.9738731 3.5785091
-0.92798811 -9.1201963 2.3017437
-0.86223042 -8.4886055 1.2822397
-0.79542893 -7.8581624 0.41228577
-0.15919602 -1.2305768 7.8884192
-0.19910628 -1.6194488 7.8678908
-0.28207168 -2.4285269 7.863059
-0.14852458 -1.3192517 3.1871662
-0.16522926 -1.4953133 2.8242772
-0.4073506 -3.7324057 5.5869589
-0.66500419 -6.1521845 7.4853034
-0.073183589 -0.33793205 5.8197021
-0.1495817 -0.83509761 7.8697019
-0.24303769 -2.0163112 7.8567066
-0.12865329 -1.1117398 3.0976403
-0.16097033 -1.4250324 3.0290616
-2.3560979 -21.139256 34.861633
-0.65618646 -5.9539647 8.0064878
-0.65817672 -6.0201173 6.6434131
-0.1232729 -1.1636845 1.229743
-0.1390599 -1.3191295 1.1519299
-1.1537937 -11.033507 5.8935885
-1.0587372 -10.158731 4.2149425
-0.96296859 -9.2711544 2.8297336
-0.88512856 -8.5507441 1.7235574
-0.82019126 -7.9504509 0.81049067
-0.13986889 -1.3028623 1.2482185
-0.14540838 -1.3610564 1.0802288
-1.0969278 -10.349977 4.8988099
-1.0105098 -9.5663977 3.4371676
-0.91197962 -8.6625128 2.191546
-0.83543408 -7.9487252 1.2069556
-0.81088305 -7.7410564 0.40765056
-0.1635932 -1.2307837 7.8933587
-0.204758 -1.6187439 7.8678908
-0.29054707 -2.4275272 7.863059
-0.1533543 -1.3206658 3.1917689
-0.17044787 -1.4947274 2.8242772
-0.42730972 -3.7924798 5.6778836
-0.6754511 -6.0510764 7.3663402
-0.074235804 -0.33711126 5.8097191
-0.15249583 -0.83457035 7.8697019
-0.25007445 -2.0154505 7.8567066
-0.13560259 -1.1369864 3.1680319
-0.16493525 -1.4158126 3.0110567
-2.4289796 -21.123129 34.848835
-0.67804605 -6.0076761 6.6323876
-0.12733416 -1.1632471 1.229743
-0.14113337 -1.2954196 1.1330991
-0.15935053 -1.4696169 1.0537832
-1.1494509 -10.633039 5.6848965
-1.0420426 -9.6710024 4.0182738
-0.96305335 -8.9672508 2.7409017
-0.88778275 -8.2936163 1.6750611
-0.83737189 -7.8485012 0.80154908
-0.1427692 -1.287522 1.2349164
-0.14927137 -1.3525053 1.0743425
-0.17321602 -1.5743612 1.0163471
-1.084628 -9.9039545 4.6932011
-0.97984058 -8.9760275 3.231729
-0.91802567 -8.4370012 2.1376195
-0.86210561 -7.9359155 1.2055743
-0.8153109 -7.5295696 0.39918628
-0.16799374 -1.2309749 7.8982973
-0.21027569 -1.6170095 7.8629956
-0.29901898 -2.4264984 7.863059
-0.15796334 -1.3201224 3.1917689
-0.1756644 -1.4941233 2.8242772
-0.44087026 -3.7937603 5.6820164
-0.69070148 -5.9977345 7.3049402
-0.075154297 -0.33572447 5.7897525
-0.15540808 -0.83403301 7.8697019
-0.25710815 -2.0145652 7.8567066
-0.14041299 -1.143357 3.1868029
-0.16883779 -1.4065826 2.9930518
-2.5014703 -21.104164 34.831772
-0.69783664 -5.9951711 6.6213622
-0.13139386 -1.1627955 1.229743
-0.14434871 -1.2833154 1.1236838
-0.1640141 -1.4648961 1.0510417
-1.1398695 -10.21073 5.4646106
-1.0399026 -9.3447838 3.8871617
-0.95626819 -8.6205502 2.639379
-0.8697567 -7.8656902 1.5939232
-0.83966517 -7.6178312 0.78098339
-0.14556415 -1.2721777 1.2216145
-0.15307645 -1.343944 1.0684562
-0.17919701 -1.5780303 1.0188802
-1.0886023 -9.6295204 4.567318
-0.99583066 -8.8364716 3.184067
-0.91762483 -8.1680813 2.0731418
-0.8655138 -7.7163243 1.1751842
-0.82215852 -7.3529029 0.3921327
-0.17239763 -1.2311506 7.9032369
-0.21591885 -1.6162657 7.8629956
-0.30748719 -2.4254398 7.863059
-0.16257048 -1.3195629 3.1917689
-0.1803025 -1.4887457 2.8154991
-0.45444492 -3.7949922 5.6861496
-0.70067579 -5.9029841 7.1936531
-0.076456591 -0.33602244 5.7997355
-0.15831847 -0.83348542 7.8697019
-0.26413873 -2.0136554 7.8567066
-0.2702378 -2.1375475 5.9133
-0.17214349 -1.3930217 2.9660444
-2.5763865 -21.105658 34.848835
-0.51570839 -4.2685385 5.7680845
-0.13586497 -1.165872 1.2332475
-0.14748126 -1.2712045 1.1142684
-0.1681668 -1.4560072 1.0455588
-1.1162038 -9.6918049 5.1933112
-1.0386709 -9.0463333 3.7672873
-0.95034814 -8.3026075 2.5463169
-0.88829678 -7.7845173 1.5790013
-0.84711313 -7.4466195 0.76578271
-0.14781618 -1.2531215 1.204987
-0.15682358 -1.3353727 1.0625699
-0.18370137 -1.5688322 1.013814
-1.069651 -9.1748619 4.3575125
-0.89241838 -7.7013106 1.9605994
-0.86796892 -7.5017285 1.145485
-0.82205802 -7.1266522 0.38306382
-0.1768048 -1.2313104 7.9081759
-0.22155935 -1.6155021 7.8629956
-0.3159517 -2.4243517 7.863059
-0.16692972 -1.3170493 3.1871662
-0.18638743 -1.4952372 2.8286664
-0.46768919 -3.7933829 5.6861496
-0.72010988 -5.8909574 7.1821404
-0.077695481 -0.33603445 5.8047271
-0.1613289 -0.83345097 7.8746734
-0.27116609 -2.0127211 7.8567066
-0.27725253 -2.1331689 5.9039149
-0.17755446 -1.3967314 2.9750469
-2.6493931 -21.09136 34.840302
-0.71359026 -5.7378974 7.7311764
-0.13993381 -1.1653907 1.2332475
-0.15053105 -1.2590877 1.104853
-0.17176506 -1.4429549 1.0373343
-1.1244398 -9.4723024 5.07969
-1.0026754 -8.4717836 3.5350313
-0.94109625 -7.9752874 2.4504347
-0.88733995 -7.5423174 1.5333029
-0.8527962 -7.270505 0.750135
-0.15083799 -1.2414786 1.1950105
-0.16051278 -1.3267916 1.0566835
-0.1886601 -1.5639015 1.0112808
-1.0805596 -8.9953346 4.2756886
-0.95641208 -7.9853458 2.8882356
-0.91583735 -7.6691904 1.9535655
-0.86835051 -7.2822948 1.1150951
-0.83336407 -7.0096354 0.37842858
-0.18144189 -1.2329917 7.9229937
-0.22719716 -1.6147189 7.8629956
-0.32441235 -2.423234 7.863059
-0.17152607 -1.3164586 3.1871662
-0.19130091 -1.4922019 2.8242772
-0.48092768 -3.7917273 5.6861496
-0.74106884 -5.8915877 7.1859779
-0.079002783 -0.33632267 5.8147106
-0.1642372 -0.8328827 7.8746734
-0.27819014 -2.0117624 7.8567066
-0.28446838 -2.1304774 5.8992219
-0.18242887 -1.3961031 2.9750469
-0.73208553 -5.7234168 7.7152166
-0.75630605 -5.9539037 6.5846105
-0.14400092 -1.1648952 1.2332475
-0.15349805 -1.2469652 1.0954376
-0.17476539 -1.4257451 1.0263685
-1.1037419 -9.0286131 4.8478098
-1.0311196 -8.4590292 3.5312855
-0.94693518 -7.790997 2.3968534
-0.88352156 -7.2904687 1.4857394
-0.84232485 -6.9708433 0.72331023
-0.15470719 -1.2372395 1.1916851
-0.16414395 -1.3182012 1.0507972
-0.19411799 -1.5632335 1.0112808
-1.0735171 -8.6807175 4.1309228
-0.98428035 -7.9819584 2.8882356
-0.91412854 -7.434381 1.8972943
-0.86660743 -7.0580378 1.0840145
-0.83839941 -6.8479991 0.37197959
-0.18655711 -1.2377288 7.9575691
-0.23283221 -1.6139159 7.8629956
-0.33286902 -2.422087 7.863059
-0.17612033 -1.3158518 3.1871662
-0.19619545 -1.4891505 2.8198881
-0.49416035 -3.7900255 5.6861496
-0.76121861 -5.8857865 7.1821404
-0.080244653 -0.33632532 5.8197021
-0.16714351 -0.83230436 7.8746734
-0.28521082 -2.0107791 7.8567066
-0.29260695 -2.1346006 5.9133
-0.18759087 -1.3976154 2.9795482
-0.75127387 -5.7148514 7.7072363
-0.77796245 -5.9579511 6.5919609
-0.14806628 -1.1643853 1.2332475
-0.15687148 -1.2386988 1.0891607
-0.17869443 -1.4168292 1.0208856
-1.1065001 -8.7961569 4.727232
-1.0208265 -8.1379871 3.402046
-0.93661386 -7.4877663 2.3080215
-0.8870762 -7.1118588 1.4521649
-0.86112046 -6.9233832 0.7192865
-0.15807228 -1.2292854 1.185034
-0.16771716 -1.3096018 1.0449109
-0.19902724 -1.5582703 1.0087476
-1.0465361 -8.2266932 3.9211178
-0.98182732 -7.7395582 2.8044164
-0.91262203 -7.2141457 1.8445399
-0.86641288 -6.858449 1.0563873
-0.8435654 -6.6963277 0.36593369
-0.19158888 -1.2416774 7.9872041
-0.23846439 -1.6130934 7.8629956
-0.34132168 -2.4209104 7.863059
-0.18071243 -1.3152289 3.1871662
-0.57089877 -4.2177978 7.8673291
-0.50701332 -3.7854881 5.6820164
-0.78429264 -5.9021568 7.2051654
-0.081487507 -0.33632338 5.8246937
-0.17004777 -0.83171588 7.8746734
-0.29222798 -2.0097711 7.8567066
-0.29981583 -2.1318574 5.908607
-0.19246833 -1.396952 2.9795482
-1.8471284 -13.555521 22.447763
-0.53977346 -3.9981403 5.4169626
-0.79605049 -5.9350376 6.5699096
-0.15212984 -1.1638614 1.2332475
-0.16018906 -1.2304243 1.0828838
-0.18256333 -1.4079034 1.0154026
-1.1036717 -8.533042 4.5904231
-1.0005951 -7.7573528 3.2484574
-0.93520403 -7.2703476 2.24457
-0.87251931 -6.8017626 1.3934098
-0.86442912 -6.7573247 0.70453286
-0.16187303 -1.2250246 1.1817086
-0.17123231 -1.3009936 1.0390246
-0.2044654 -1.557566 1.0087476
-1.0752462 -8.22299 3.9211178
-0.97403061 -7.4691806 2.7107365
-0.90018648 -6.9217148 1.7742009
-0.88014328 -6.7768092 1.0453364
-0.85089171 -6.5694785 0.3608954
-0.19665046 -1.2456057 8.016839
-0.24409369 -1.6122513 7.8629956
-0.34977016 -2.4197042 7.863059
-0.18530233 -1.3145902 3.1871662
-0.58462942 -4.2086635 7.8541622
-0.52022403 -3.7836952 5.6820164
-0.80619025 -5.9089108 7.2166781
-0.082731336 -0.33631688 5.8296857
-0.17294997 -0.83111721 7.8746734
-0.29924163 -2.0087388 7.8567066
-0.30725557 -2.1307979 5.908607
-0.19673371 -1.3919607 2.9705458
-1.8857669 -13.487002 22.345383
-0.54628086 -3.9425068 5.3451419
-0.81722516 -5.9355812 6.573585
-0.15619154 -1.1633233 1.2332475
-0.16345082 -1.2221417 1.0766069
-0.18692444 -1.4031129 1.0126611
-1.1013545 -8.2876215 4.4628892
-1.0026932 -7.5653877 3.171663
-0.93480265 -7.0720553 2.1867585
-0.89176232 -6.7645845 1.3868815
-0.86918581 -6.6110792 0.6915676
-0.16564596 -1.2207522 1.1783831
-0.17468943 -1.2923766 1.0331382
-0.20932499 -1.5525707 1.0062144
-1.0550053 -7.8548393 3.7511756
-0.97125554 -7.2504382 2.6351352
-0.9037441 -6.76436 1.7366867
-0.87694073 -6.5724444 1.0170186
-0.84482157 -6.3485684 0.35202804
-0.20198999 -1.2510478 8.0563536
-0.24972001 -1.6113893 7.8629956
-0.35821435 -2.4184682 7.863059
-0.19016966 -1.315869 3.1917689
-0.59965473 -4.2089682 7.8585515
-0.53342843 -3.7818563 5.6820164
-0.82903343 -5.9219317 7.2358651
-0.083976105 -0.3363058 5.8346772
-0.17585005 -0.83050847 7.8746734
-0.30625162 -2.0076821 7.8567066
-0.31469154 -2.1297123 5.908607
-0.19971712 -1.3783391 2.9435384
-1.9150654 -13.356421 22.140617
-0.5579192 -3.9256597 5.325192
-0.84078431 -5.9528341 6.5956364
-0.16025136 -1.162771 1.2332475
-0.16718629 -1.2177076 1.0734684
-0.1912543 -1.398309 1.0099196
-1.0596073 -7.7658086 4.1892705
-0.99346119 -7.3000073 3.0649002
-0.92657644 -6.8263226 2.1148469
-0.89230388 -6.5910559 1.3542398
-0.87093323 -6.4500794 0.67726111
-0.16939105 -1.2164686 1.1750575
-0.1780885 -1.2837517 1.0272518
-0.2147432 -1.5518306 1.0062144
-1.0421257 -7.5588679 3.6148019
-0.96246231 -6.9990621 2.5480289
-0.91876423 -6.6985626 1.7214466
-0.87904322 -6.4172502 0.99560744
-0.83721989 -6.1277823 0.34316069
-0.20660929 -1.2518684 8.0662327
-0.25518367 -1.6095023 7.8581004
-0.36665419 -2.4172032 7.863059
-0.19476172 -1.3151971 3.1917689
-0.61295849 -4.1973691 7.8409948
-0.54622352 -3.7771862 5.6778836
-0.84924436 -5.9158297 7.2320285
-0.085149512 -0.33601061 5.8346772
-0.178748 -0.82988954 7.8746734
-0.31325787 -2.0066009 7.8567066
-0.32212371 -2.1286008 5.908607
-0.20260784 -1.3647138 2.9165311
-1.9472671 -13.251601 21.978512
-0.57292229 -3.9326332 5.3371615
-0.18278857 -1.2627066 1.4614313
-0.1643092 -1.1622045 1.2332475
-0.17034978 -1.2094082 1.0671915
-0.19613415 -1.3976328 1.0099196
-1.0848659 -7.7489014 4.1823139
-0.9958542 -7.131207 2.9974711
-0.93583906 -6.7185206 2.0838263
-0.89840525 -6.4662638 1.3309243
-0.87293458 -6.2990155 0.6638487
-0.17258023 -1.2084774 1.1684066
-0.18142951 -1.2751189 1.0213655
-0.2201588 -1.5510715 1.0062144
-1.0284643 -7.2720752 3.4826248
-0.95918262 -6.7992735 2.4790015
-0.91775781 -6.5220389 1.6792432
-0.88627601 -6.3062568 0.98041254
-0.83779764 -5.9763966 0.33711475
-0.21175453 -1.2557364 8.0958672
-0.26080033 -1.6086017 7.8581004
-0.37531871 -2.4173837 7.8678312
-0.19935144 -1.3145093 3.1917689
-0.62760627 -4.1952043 7.8409948
-0.55940503 -3.7752564 5.6778836
-0.86988926 -5.9128294 7.2320285
-0.08632189 -0.33571136 5.8346772
-0.18164377 -0.82926053 7.8746734
-0.32026029 -2.0054951 7.8567066
-0.32955196 -2.1274633 5.908607
-0.20573333 -1.3532374 2.8940251
-0.89360464 -5.9869714 8.0902786
-0.1866975 -1.2587074 1.457756
-0.16836506 -1.161624 1.2332475
-0.17401387 -1.2049538 1.0640531
-0.2010116 -1.3969396 1.0099196
-1.070989 -7.460052 4.0315924
-0.97276425 -6.7926826 2.8607395
-0.93418467 -6.5395055 2.0316551
-0.90087456 -6.3220572 1.3038783
-0.87529391 -6.1578784 0.65133053
-0.17625664 -1.2041732 1.165081
-0.18471241 -1.2664784 1.0154792
-0.22557169 -1.5502936 1.0062144
-1.0245364 -7.0663214 3.3882124
-0.95384425 -6.5949221 2.4083309
-0.91761291 -6.3600392 1.6405567
-0.88568169 -6.1462789 0.95831072
-0.84443724 -5.8745332 0.33308414
-0.21600448 -1.2542239 8.090929
-0.26641378 -1.6076815 7.8581004
-0.38375467 -2.4160588 7.8678312
-0.20393872 -1.3138053 3.1917689
-0.6415211 -4.1882529 7.8322163
-0.57300198 -3.776063 5.6820164
-0.89100111 -5.9129257 7.2358651
-0.087418981 -0.33512899 5.8296857
-0.18453732 -0.82862145 7.8746734
-0.32725883 -2.004365 7.8567066
-0.3369762 -2.1263001 5.908607
-0.20811132 -1.3374538 2.8625166
-0.91540819 -5.9897733 8.098259
-0.19109008 -1.2580479 1.457756
-0.17241886 -1.1610291 1.2332475
-0.17707899 -1.1966383 1.0577762
-0.2058866 -1.3962295 1.0099196
-1.0647817 -7.2371373 3.9156523
-0.99242991 -6.7617249 2.8495014
-0.93615693 -6.3938107 1.989354
-0.89950842 -6.1584716 1.2731018
-0.86519027 -5.9379559 0.63165897
-0.17935126 -1.1961656 1.15843
-0.18853468 -1.2618284 1.012536
-0.23098186 -1.5494968 1.0062144
-1.0151833 -6.8337502 3.2812116
-0.95955205 -6.4747734 2.3672431
-0.9135049 -6.1788883 1.597181
-0.89410943 -6.0549688 0.94587851
-0.84746379 -5.7529273 0.3282474
-0.2203812 -1.2534623 8.090929
-0.27185386 -1.6057378 7.8532047
-0.39242539 -2.416178 7.8726034
-0.20852353 -1.3130854 3.1917689
-0.65613693 -4.1859884 7.8322163
-0.58617944 -3.7740397 5.6820164
-0.90919214 -5.8939409 7.2166781
-0.088513061 -0.33454308 5.8246937
-0.18742862 -0.82797223 7.8746734
-0.3342534 -2.0032105 7.8567066
-0.34439632 -2.1251109 5.908607
-0.21140893 -1.3281198 2.8445115
-2.0493712 -12.998625 21.594578
-0.9386391 -6.0014267 8.1182079
-0.19600134 -1.2607234 1.4614313
-0.1759342 -1.1568946 1.229743
-0.18008821 -1.1883163 1.0514992
-0.2107591 -1.3955023 1.0099196
-1.0557114 -7.005599 3.7950747
-0.99397117 -6.6115184 2.7895641
-0.93783534 -6.2529283 1.9484631
-0.90936917 -6.0775638 1.2581799
-0.86532599 -5.7969885 0.6191408
-0.18295887 -1.1918418 1.1551045
-0.19232674 -1.2571672 1.0095929
-0.23638922 -1.548681 1.0062144
-1.0206016 -6.7090187 3.2245643
-0.96018147 -6.3266544 2.3162942
-0.91542047 -6.0459037 1.5655285
-0.88710034 -5.8657479 0.91963267
-0.85039717 -5.6363139 0.32361218
-0.22448033 -1.251156 8.0810499
-0.27745727 -1.604779 7.8532047
-0.40134618 -2.4177384 7.8821478
-0.21310577 -1.3123497 3.1917689
-0.67074478 -4.1836724 7.8322163
-0.59979141 -3.77475 5.6861496
-0.089680299 -0.33423206 5.8246937
-0.19043784 -0.82783228 7.8796449
-0.34103251 -2.0007925 7.8518667
-0.35181221 -2.1238959 5.908607
-0.21569371 -1.3252251 2.8400104
-2.088505 -12.952771 21.53059
-0.96148646 -6.0100155 8.1341686
-0.19613947 -1.233247 1.4320298
-0.17942277 -1.1527495 1.2262385
-0.18304148 -1.1799879 1.0452224
-0.21562903 -1.3947581 1.0099196
-1.0457134 -6.7785921 3.6768157
-0.98812908 -6.4201484 2.71277
-0.93271708 -6.0741811 1.8962919
-0.9119814 -5.9529624 1.2348645
-0.87953663 -5.75455 0.61556417
-0.18595886 -1.1838188 1.1484535
-0.19608857 -1.2524948 1.0066497
-0.24179368 -1.5478464 1.0062144
-1.014688 -6.517067 3.1364462
-0.95906407 -6.1739459 2.2637019
-0.92311913 -5.956213 1.5444267
-0.90757024 -5.8626161 0.91963267
-0.85023916 -5.5049386 0.31837237
-0.22856607 -1.2488362 8.0711718
-0.2830573 -1.6038009 7.8532047
-0.40878436 -2.4104359 7.863059
-0.21768543 -1.3115977 3.1917689
-0.68689424 -4.1907597 7.8497729
-0.61296409 -3.7726336 5.6861496
-0.090923592 -0.33419517 5.8296857
-0.19357032 -0.82820028 7.8895879
-0.3480145 -1.9995899 7.8518667
-0.35922387 -2.1226547 5.908607
-0.21996087 -1.3223168 2.8355093
-2.1349783 -12.953121 21.543386
-0.98586452 -6.0274386 8.1620989
-0.19717695 -1.2124778 1.4099789
-0.18288456 -1.1485944 1.2227339
-0.18593884 -1.1716534 1.0389454
-0.22049633 -1.393997 1.0099196
-1.0465763 -6.6305051 3.6002955
-0.98312712 -6.24264 2.6415946
-0.93380898 -5.9429374 1.8582209
-0.90688747 -5.7847414 1.2031553
-0.18890512 -1.1757895 1.1418025
-0.20045939 -1.2518027 1.0066497
-0.24719518 -1.546993 1.0062144
-1.0110166 -6.3476501 3.0588181
-0.9583748 -6.0306511 2.2143967
-0.91269511 -5.7561274 1.4963617
-0.85151404 -5.3884387 0.31373715
-0.23263833 -1.2465031 8.0612926
-0.28865391 -1.602803 7.8532047
-0.41999915 -2.4251733 7.9155512
-0.22226243 -1.3108299 3.1917689
-0.24883798 -1.4861205 2.8286664
-0.62612933 -3.7704706 5.6861496
-0.18757626 -1.137224 1.4565841
-0.09216772 -0.33415371 5.8346772
-0.19670773 -0.82855654 7.8995309
-0.35499224 -1.9983629 7.8518667
-0.36663112 -2.121388 5.908607
-0.22421038 -1.3193948 2.8310082
-2.1767151 -12.925016 21.50926
-0.19751585 -1.1883725 1.3842528
-0.18631956 -1.1444291 1.2192293
-0.18815657 -1.159471 1.02953
-0.22536094 -1.3932188 1.0099196
-1.0435944 -6.4650035 3.5144999
-0.97542393 -6.0560932 2.5666733
-0.92257881 -5.7407179 1.7989997
-0.92707449 -5.7815404 1.2031553
-0.85596126 -5.3499579 0.57935077
-0.1911923 -1.1640699 1.131826
-0.20482777 -1.2510953 1.0066497
-0.2525937 -1.5461208 1.0062144
-1.006175 -6.1783404 2.9811902
-0.94230598 -5.7988791 2.1338649
-0.92500252 -5.704927 1.4846385
-0.88988769 -5.4943981 0.86852235
-0.84242195 -5.2128162 0.3066836
-0.23655164 -1.2433938 8.0464754
-0.29424697 -1.6017857 7.8532047
-0.42950195 -2.4295721 7.9346399
-0.22650316 -1.3081211 3.1871662
-0.25846732 -1.5112102 2.876946
-0.63928688 -3.7682621 5.6861496
-0.19047904 -1.130241 1.448909
-0.093412653 -0.33410755 5.8396688
-0.19984995 -0.82890093 7.9094739
-0.36196566 -1.9971116 7.8518667
-0.37433389 -2.1217947 5.9133
-0.22881456 -1.3186041 2.8310082
-0.1971212 -1.1609374 1.3548514
-0.18972768 -1.1402539 1.2157247
-0.19092862 -1.1511276 1.0232532
-0.22954062 -1.3882983 1.0071782
-1.0365853 -6.2821231 3.4194291
-0.95739263 -5.814786 2.4692755
-0.93561268 -5.69486 1.7863094
-0.87061131 -5.3223643 0.57711536
-0.19401813 -1.156031 1.125175
-0.20919366 -1.2503728 1.0066497
-0.25727913 -1.5409776 1.0036812
-0.99494815 -5.9778061 2.888876
-0.95944732 -5.7769208 2.1272907
-0.90825254 -5.4863729 0.86783165
-0.85328466 -5.1654811 0.3048698
-0.24044606 -1.2402722 8.0316572
-0.29983643 -1.6007487 7.8532047
-0.43957072 -2.436872 7.9632711
-0.23106799 -1.3073224 3.1871662
-0.26250434 -1.5032212 2.8637791
-0.65243667 -3.7660077 5.6861496
-0.19496706 -1.132728 1.4527465
-0.09465839 -0.33405682 5.8446603
-0.2031244 -0.82975107 7.9243889
-0.36893469 -1.9958359 7.8518667
-0.38204396 -2.1221733 5.9179931
-0.23341596 -1.3177973 2.8310082
-0.19827557 -1.1435409 1.3364756
-0.19310895 -1.1360688 1.2122202
-0.19364472 -1.1427789 1.0169762
-0.23438528 -1.3874886 1.0071782
-1.0371503 -6.1517892 3.3521838
-0.9776842 -5.811409 2.4692755
-0.9356302 -5.573288 1.7510586
-0.90167475 -5.3825035 1.1276132
-0.87112093 -5.2112327 0.56727964
-0.19679019 -1.1479864 1.1185241
-0.21287596 -1.2456506 1.0037066
-0.26265657 -1.5400702 1.0036812
-0.98385549 -5.7863755 2.8007576
-0.959858 -5.657146 2.0862031
-0.90719551 -5.3580685 1.4014039
-0.85135573 -5.044241 0.30003306
-0.24432158 -1.2371385 8.016839
-0.30542228 -1.5996923 7.8532047
-0.44915524 -2.4411948 7.9823589
-0.23528302 -1.3045853 3.1825638
-0.26606828 -1.4928644 2.8462226
-0.66557854 -3.7637074 5.6861496
-0.19947474 -1.1351973 1.4565841
-0.095823899 -0.33372438 5.8446603
-0.206278 -0.83007127 7.9343314
-0.37613216 -1.9957712 7.8567066
-0.38976121 -2.1225243 5.9226861
-0.2380145 -1.3169745 2.8310082
-0.74631786 -4.1945291 5.7162142
-0.19990198 -1.1294889 1.321775
-0.1964633 -1.1318741 1.2087157
-0.19630489 -1.1344254 1.0106993
-0.23922709 -1.3866619 1.0071782
-1.0105083 -5.8687358 3.2037807
-0.93886435 -5.4754272 1.722858
-0.91134399 -5.3260627 1.1173543
-0.86918902 -5.0903459 0.55654973
-0.19950847 -1.1399368 1.111873
-0.21722279 -1.2449 1.0037066
-0.26729116 -1.5348971 1.001148
-0.99240166 -5.7158322 2.7692869
-0.96025062 -5.5420928 2.0467589
-0.92092425 -5.3261323 1.3943701
-0.87825817 -5.0846338 0.81188655
-0.8460449 -4.9083085 0.29459172
-0.2481782 -1.2339932 8.0020227
-0.3110044 -1.5986165 7.8532047
-0.45877528 -2.4454806 8.0014477
-0.2405428 -1.3075988 3.1917689
-0.26913455 -1.480145 2.8242772
-0.67921203 -3.7641306 5.6902828
-0.20287018 -1.1313393 1.4527465
-0.096988223 -0.33338785 5.8446603
-0.2090432 -0.82882947 7.9293599
-0.38333365 -1.9956803 7.861546
-0.39780328 -2.124543 5.9320712
-0.24379468 -1.3225582 2.8445115
-1.108132 -6.104188 8.2897797
-0.20324074 -1.125448 1.3180997
-0.20041309 -1.1311815 1.2087157
-0.20026357 -1.1337333 1.0106993
-0.24406597 -1.3858185 1.0071782
-1.0056787 -5.7211971 3.1272602
-0.9669652 -5.5122061 2.3494017
-0.93894517 -5.3634367 1.6904271
-0.89864999 -5.1438074 1.0828474
-0.8783989 -5.0382214 0.55207896
-0.20282969 -1.135558 1.1085476
-0.22156699 -1.2441342 1.0037066
-0.27264732 -1.5339549 1.001148
-0.99333942 -5.6050797 2.7189336
-0.94175851 -5.3248072 1.9711574
-0.92430252 -5.2367253 1.3732684
-0.89600146 -5.0815377 0.81188655
-0.85191733 -4.8413606 0.29197183
-0.25170362 -1.2293136 7.9773259
-0.31638458 -1.5965225 7.8483095
-0.46843073 -2.4497285 8.0205345
-0.24330378 -1.2971505 3.1687562
-0.27211526 -1.4674225 2.8023319
-0.69285655 -3.764504 5.6944151
-0.20681806 -1.1306243 1.4527465
-0.098151378 -0.33304727 5.8446603
-0.21366194 -0.83480579 7.9939895
-0.39078072 -1.9967973 7.8712249
-0.4052169 -2.1231415 5.9320712
-0.24680051 -1.3131412 2.8265069
-1.1310787 -6.1091714 8.3017502
-0.20716803 -1.1247318 1.3180997
-0.20372584 -1.1269656 1.2052112
-0.20352922 -1.1291968 1.0075608
-0.24890189 -1.3849581 1.0071782
-1.0178217 -5.6740494 3.1040723
-0.97476286 -5.4449096 2.323179
-0.93741214 -5.2467918 1.6565863
-0.90970141 -5.1019516 1.0753864
-0.86980623 -4.8880358 0.53866655
-0.20612276 -1.1311698 1.105222
-0.22590847 -1.2433531 1.0037066
-0.27800015 -1.5329937 1.001148
-0.9927088 -5.4899259 2.6664822
-0.95866239 -5.3121929 1.9678704
-0.92276025 -5.1234431 1.346305
-0.87514877 -4.8639317 0.78149664
-0.85291791 -4.7498465 0.28834426
-0.25535813 -1.225385 7.9575691
-0.32195556 -1.5954083 7.8483095
-0.47840697 -2.4554043 8.0443954
-0.24672894 -1.2905366 3.1549485
-0.2754555 -1.4570504 2.7847755
-0.70651197 -3.7648282 5.6985483
-0.21076339 -1.1298953 1.4527465
-0.09922941 -0.3324264 5.8396688
-0.21832494 -0.84076005 8.0586195
-0.39799431 -1.9966538 7.8760648
-0.41427344 -2.1301835 5.9555349
-0.25015339 -1.3058578 2.8130033
-1.1473663 -6.0785379 8.2658396
-0.21109283 -1.1240017 1.3180997
-0.20765844 -1.1262476 1.2052112
-0.20746961 -1.1284794 1.0075608
-0.25298071 -1.3799679 1.0044367
-1.0160923 -5.5528111 3.0414648
-0.95878172 -5.2499337 2.2445116
-0.937657 -5.144382 1.6269757
-0.91519684 -5.0310845 1.0623298
-0.86729264 -4.7771721 0.52883083
-0.20938769 -1.1267725 1.1018965
-0.23024723 -1.242557 1.0037066
-0.28334963 -1.5320139 1.001148
-0.98964012 -5.3659196 2.6098349
-0.9213168 -5.015017 1.3205141
-0.89212173 -4.860847 0.78149664
-0.8469891 -4.6239858 0.283306
-0.25882691 -1.220686 7.9328728
-0.32752261 -1.5942748 7.8483095
-0.4884285 -2.46104 8.0682545
-0.25160605 -1.2915852 3.1595511
-0.28008661 -1.4537284 2.7803864
-0.72017819 -3.7651029 5.7026815
-0.2147062 -1.1291528 1.4527465
-0.10038919 -0.33207798 5.8396688
-0.22125843 -0.83999282 8.0586195
-0.40646249 -2.0026431 7.9051008
-0.42237759 -2.1321101 5.9649205
-0.25345841 -1.2985668 2.7994995
-0.80822545 -4.2014537 5.7401543
-0.21501502 -1.123258 1.3180997
-0.21158852 -1.1255158 1.2052112
-0.21140747 -1.1277483 1.0075608
-0.25779614 -1.3790765 1.0044367
-1.0135289 -5.4316545 2.978857
-0.97115993 -5.2146516 2.2314005
-0.93632191 -5.0373197 1.5959549
-0.91035223 -4.9071126 1.0390142
-0.855856 -4.6223168 0.51497138
-0.21331958 -1.1260347 1.1018965
-0.23383267 -1.2377739 1.0007634
-0.2886956 -1.5310156 1.001148
-0.98907322 -5.2598448 2.5615797
-0.93823361 -4.9990563 1.8593987
-0.91644311 -4.892333 1.2912061
-0.86900258 -4.6435308 0.75110674
-0.85211712 -4.5620689 0.28088763
-0.26226598 -1.2159777 7.9081759
-0.33308569 -1.5931218 7.8483095
-0.49879107 -2.4680989 8.0968876
-0.24926451 -1.2562065 3.0767057
-0.28515935 -1.4527419 2.7803864
-0.73385483 -3.7653282 5.7068143
-0.21864636 -1.1283965 1.4527465
-0.1014619 -0.33144993 5.8346772
-0.22515684 -0.84281909 8.09342
-0.41421399 -2.004905 7.9196196
-0.42947605 -2.128931 5.960228
-0.25671563 -1.2912689 2.785996
-0.81824952 -4.1749511 5.7082343
-0.21958382 -1.1258281 1.321775
-0.215516 -1.1247705 1.2052112
-0.21534276 -1.1270036 1.0075608
-0.26260844 -1.3781682 1.0044367
-1.0109605 -5.3149376 2.9185681
-0.95649761 -5.038157 2.1602252
-0.93514425 -4.9350438 1.5663441
-0.90282786 -4.7735848 1.0138334
-0.85812932 -4.5458984 0.5082652
-0.21724886 -1.1252832 1.1018965
-0.23815189 -1.2369503 1.0007634
-0.29403809 -1.5299985 1.001148
-0.97496325 -5.0869799 2.4818537
-0.95567793 -4.9957504 1.8593987
-0.91437089 -4.7888422 1.2665875
-0.88149446 -4.6210117 0.748344
-0.85682327 -4.5001736 0.27846923
-0.26567534 -1.2112602 7.8834796
-0.33864465 -1.5919495 7.8483095
-0.50740331 -2.4663427 8.0968876
-0.24938925 -1.2342649 3.026078
-0.28975892 -1.4493891 2.7759972
-0.74699378 -3.7627437 5.7068143
-0.22258386 -1.1276264 1.4527465
-0.10253145 -0.33081841 5.8296857
-0.22823749 -0.84254235 8.0983915
-0.4253501 -2.0231278 7.9970503
-0.23096216 -1.1250327 3.1774173
-0.26078928 -1.2882313 2.7814946
-0.83281785 -4.1720695 5.7082343
-0.22351235 -1.1250547 1.321775
-0.22012441 -1.1275115 1.2087157
-0.21927543 -1.126245 1.0075608
-0.26741755 -1.3772432 1.0044367
-1.0084326 -5.2026548 2.8605981
-0.97495884 -5.0393391 2.1620984
-0.93053538 -4.8187084 1.5325035
-0.89438266 -4.6401706 0.98865277
-0.86552465 -4.4988627 0.50424147
-0.22117552 -1.1245182 1.1018965
-0.24246821 -1.2361114 1.0007634
-0.29937699 -1.5289629 1.001148
-0.98575509 -5.0479107 2.4650693
-0.90230465 -4.6377149 1.2302456
-0.86927253 -4.472074 0.72762364
-0.85825324 -4.4235878 0.2754463
-0.26922435 -1.2072922 7.8637228
-0.34419957 -1.5907576 7.8483095
-0.51570332 -2.4630954 8.0921154
-0.24936388 -1.2123377 2.97545
-0.29481646 -1.4483689 2.7759972
-0.76012367 -3.7601132 5.7068143
-0.22715054 -1.1299849 1.4565841
-0.10368559 -0.33045852 5.8296857
-0.23131891 -0.84225428 8.1033621
-0.43609229 -2.0388384 8.0648022
-0.23418146 -1.1208413 3.1680319
-0.26484486 -1.285181 2.7769935
-0.84677571 -4.1661839 5.7042441
-0.22743817 -1.1242677 1.321775
-0.22405881 -1.1267363 1.2087157
-0.22244808 -1.1216547 1.0044224
-0.27222338 -1.3763013 1.0044367
-1.0059917 -5.0948019 2.8049471
-0.96833837 -4.9130979 2.1115263
-0.92790401 -4.7165871 1.5028927
-0.88501734 -4.506875 0.96347195
-0.85823369 -4.3785262 0.49351156
-0.22509947 -1.1237392 1.1018965
-0.24678156 -1.2352575 1.0007634
-0.30471224 -1.5279084 1.001148
-0.9892028 -4.9732175 2.4315004
-0.93627292 -4.7156835 1.7624317
-0.9099834 -4.5916262 1.2196947
-0.88295388 -4.4592972 0.72624224
-0.85915917 -4.3470483 0.27242333
-0.27343693 -1.2063451 7.8637228
-0.34975022 -1.5895464 7.8483095
-0.52398688 -2.4598203 8.0873432
-0.24958904 -1.1923382 2.929425
-0.29987043 -1.447331 2.7759972
-0.772677 -3.7546806 5.7026815
-0.23109354 -1.1291851 1.4565841
-0.10474974 -0.32981983 5.8246937
-0.23440114 -0.84195501 8.1083336
-0.44507787 -2.0459011 8.0986776
-0.23773342 -1.1183292 3.1633391
-0.26932937 -1.2842487 2.7769935
-0.85948175 -4.1543508 5.6922741
-0.23136123 -1.123467 1.321775
-0.22799049 -1.1259472 1.2087157
-0.22636202 -1.1208714 1.0044224
-0.27702591 -1.3753427 1.0044367
-1.0028104 -4.9870305 2.7492959
-0.96176106 -4.7915111 2.0628276
-0.91137731 -4.5486941 1.4535415
-0.89207351 -4.4604068 0.95507836
-0.87351239 -4.3755035 0.49351156
-0.22902068 -1.1229466 1.1018965
-0.2510919 -1.2343886 1.0007634
-0.31004378 -1.5268354 1.001148
-0.98583466 -4.8674259 2.3832452
-0.94524163 -4.6753583 1.7492837
-0.91350514 -4.5264821 1.2044545
-0.88676864 -4.3979349 0.7179541
-0.85954136 -4.2705569 0.26940036
-0.27764618 -1.2053833 7.8637228
-0.35529667 -1.588316 7.8483095
-0.53225386 -2.4565175 8.082571
-0.25008488 -1.174263 2.8880022
-0.30492073 -1.4462754 2.7759972
-0.78520167 -3.7492065 5.6985483
-0.23503374 -1.1283715 1.4565841
-0.10590039 -0.32945219 5.8246937
-0.23733869 -0.84113169 8.1083336
-0.45194507 -2.0431077 8.0938377
-0.24200064 -1.1191791 3.1680319
-0.2738106 -1.2833008 2.7769935
-0.87273616 -4.1454277 5.6842937
-0.23528145 -1.1226525 1.321775
-0.23263952 -1.1286373 1.2122202
-0.2302732 -1.1200745 1.0044224
-0.280985 -1.3702711 1.0016953
-0.99711221 -4.8706656 2.689007
-0.95805991 -4.6881995 2.0216208
-0.92437321 -4.5313845 1.4493115
-0.89587551 -4.3995042 0.94388694
-0.88084441 -4.3333864 0.48993495
-0.23293911 -1.1221403 1.1018965
-0.2553992 -1.2335045 1.0007634
-0.31537154 -1.525744 1.001148
-0.97715777 -4.7394943 2.3244998
-0.9282378 -4.5101476 1.6917608
-0.89408505 -4.3518639 1.1622512
-0.89116168 -4.3414531 0.71035665
-0.85940015 -4.1941171 0.26637742
-0.28185207 -1.2044067 7.8637228
-0.36083877 -1.5870661 7.8483095
-0.54050416 -2.4531868 8.0777988
-0.25087145 -1.1581085 2.851182
-0.30996731 -1.4452021 2.7759972
-0.79828405 -3.7464428 5.6985483
-0.23897105 -1.1275442 1.4565841
-0.10704975 -0.32908052 5.8246937
-0.24027334 -0.84029812 8.1083336
-0.45907408 -2.0415177 8.0938377
-0.24590585 -1.1183275 3.1680319
-0.27828848 -1.2823372 2.7769935
-1.7576584 -8.1575603 13.719664
-0.88530767 -4.1335168 5.6723237
-0.23919879 -1.1218244 1.321775
-0.23657781 -1.1278183 1.2122202
-0.23418161 -1.1192639 1.0044224
-0.28576642 -1.3692819 1.0016953
-0.99422854 -4.7717481 2.6379933
-0.94137663 -4.52597 1.9560646
-0.92068022 -4.4341927 1.4211109
-0.90125746 -4.3482499 0.93456078
-0.88991135 -4.3010254 0.48725247
-0.23685467 -1.1213204 1.1018965
-0.25970337 -1.2326055 1.0007634
-0.31980804 -1.5204153 0.99861485
-0.96480411 -4.5983582 2.2594602
-0.93526286 -4.4652834 1.6769693
-0.906286 -4.3344436 1.1587343
-0.90327269 -4.3237739 0.70828456
-0.85771608 -4.1128402 0.26315293
-0.28605452 -1.2034156 7.8637228
-0.36637643 -1.5857968 7.8483095
-0.54841125 -2.4483719 8.0682545
-0.2481842 -1.1266999 2.7775416
-0.31501013 -1.4441113 2.7759972
-0.81076062 -3.7408831 5.6944151
-0.24290545 -1.1267031 1.4565841
-0.10828941 -0.32897863 5.8296857
-0.24320507 -0.83945429 8.1083336
-0.46619752 -2.0399029 8.0938377
-0.24980803 -1.1174623 3.1680319
-0.28276297 -1.281358 2.7769935
-1.7392293 -7.9373784 13.361325
-0.89780688 -4.1215687 5.6603537
-0.24383196 -1.1242956 1.3254501
-0.24051318 -1.1269857 1.2122202
-0.23808713 -1.1184396 1.0044224
-0.29054436 -1.368276 1.0016953
-0.97872317 -4.6165767 2.5568354
-0.95332986 -4.5045142 1.9485725
-0.9153285 -4.3323894 1.3915001
-0.90832007 -4.3066254 0.92709976
-0.87721616 -4.1663184 0.47518134
-0.24155197 -1.1241372 1.105222
-0.26400438 -1.2316915 1.0007634
-0.32511333 -1.5192896 0.99861485
-0.96379483 -4.5150695 2.2216952
-0.93411225 -4.3834777 1.6490296
-0.90725076 -4.2646942 1.1423218
-0.90291613 -4.2479367 0.69792438
-0.85754913 -4.0414009 0.26033148
-0.29025349 -1.2024097 7.8637228
-0.37190968 -1.5845082 7.8483095
-0.55629146 -2.443532 8.0587111
-0.25254276 -1.1277331 2.7821441
-0.32004911 -1.4430029 2.7759972
-0.8244195 -3.7407784 5.6985483
-0.2468369 -1.1258484 1.4565841
-0.10943709 -0.32859862 5.8296857
-0.24613383 -0.83860022 8.1083336
-0.47331524 -2.0382631 8.0938377
-0.2540898 -1.1182663 3.1727247
-0.28723404 -1.2803631 2.7769935
-1.7164494 -7.7047 12.981657
-0.91023332 -4.1095843 5.6483841
-0.24775499 -1.1234376 1.3254501
-0.24444562 -1.1261393 1.2122202
-0.24198976 -1.1176016 1.0044224
-0.29531875 -1.3672535 1.0016953
-0.98175794 -4.5525084 2.5243723
-0.94270301 -4.3787932 1.8980007
-0.90423751 -4.2072287 1.3548393
-0.90582836 -4.2217789 0.91124529
-0.87715137 -4.095058 0.46892226
-0.24547444 -1.1232872 1.105222
-0.2683022 -1.2307624 1.0007634
-0.33041465 -1.5181456 0.99861485
-0.96125305 -4.4274092 2.1818323
-0.93440282 -4.3109651 1.6243769
-0.90773982 -4.1949921 1.1259094
-0.88948339 -4.1140733 0.67927605
-0.85162395 -3.9455972 0.25650239
-0.29444891 -1.2013892 7.8637228
-0.3774384 -1.5832003 7.8483095
-0.56448102 -2.4401209 8.0539389
-0.25604394 -1.1249398 2.7775416
-0.32508415 -1.441877 2.7759972
-0.8374722 -3.7378778 5.6985483
-0.25076535 -1.12498 1.4565841
-0.11067697 -0.32848772 5.8346772
-0.24890703 -0.8372252 8.1033621
-0.48042727 -2.0365984 8.0938377
-0.25799173 -1.1173725 3.1727247
-0.29170159 -1.2793528 2.7769935
-1.6955229 -7.4875407 12.627584
-0.92258704 -4.0975623 5.6364136
-0.25167501 -1.1225659 1.3254501
-0.24837509 -1.1252792 1.2122202
-0.24672659 -1.1205513 1.0075608
-0.30008957 -1.3662143 1.0016953
-0.98435771 -4.4884763 2.4919093
-0.94013429 -4.2939606 1.8642861
-0.91174746 -4.1712422 1.344969
-0.8996135 -4.1226044 0.89259279
-0.87129974 -3.9995198 0.46042773
-0.24939395 -1.1224235 1.105222
-0.27259672 -1.2298183 1.0007634
-0.33571196 -1.516983 0.99861485
-0.9630034 -4.3619819 2.1524594
-0.9331823 -4.2338934 1.5980808
-0.90775353 -4.125339 1.109497
-0.88044423 -4.0045385 0.66408104
-0.85575157 -3.8986826 0.25468862
-0.29864076 -1.2003541 7.8637228
-0.38296247 -1.5818733 7.8483095
-0.57265353 -2.4366827 8.0491676
-0.25996915 -1.1240392 2.7775416
-0.33011529 -1.4407334 2.7759972
-0.8517645 -3.7404194 5.7068143
-0.25469074 -1.1240977 1.4565841
-0.11182293 -0.3280994 5.8346772
-0.25182796 -0.83635122 8.1033621
-0.48753336 -2.034909 8.0938377
-0.2618905 -1.1164652 3.1727247
-0.29616559 -1.2783266 2.7769935
-1.6514605 -7.1765862 12.115673
-0.93486798 -4.085505 5.6244435
-0.25559196 -1.1216806 1.3254501
-0.25308254 -1.127885 1.2157247
-0.25063655 -1.1196834 1.0075608
-0.30485672 -1.3651586 1.0016953
-0.98073798 -4.3985405 2.445533
-0.9440366 -4.2408762 1.8436828
-0.91277272 -4.1071577 1.3266387
-0.89590997 -4.0379133 0.87673825
-0.86910021 -3.9235227 0.45372155
-0.25331044 -1.121546 1.105222
-0.27688792 -1.2288593 1.0007634
-0.34100518 -1.5158018 0.99861485
-0.96132714 -4.2833114 2.1167924
-0.93143529 -4.1568842 1.5717846
-0.90623099 -4.0509944 1.0919122
-0.87497264 -3.9144506 0.65164882
-0.85520965 -3.832284 0.2520687
-0.30282894 -1.1993043 7.8637228
-0.38872513 -1.5815156 7.8532047
-0.580809 -2.4332168 8.0443954
-0.26389119 -1.123125 2.7775416
-0.33514237 -1.4395723 2.7759972
-0.86545032 -3.740165 5.7109475
-0.25933239 -1.1263254 1.4604216
-0.11296753 -0.32770705 5.8346772
-0.25474584 -0.8354671 8.1033621
-0.49433634 -2.0319738 8.0889997
-0.26578611 -1.1155442 3.1727247
-0.30062595 -1.2772851 2.7769935
-1.6319685 -6.9803123 11.795728
-0.94707608 -4.0734124 5.6124735
-0.25950581 -1.1207815 1.3254501
-0.25701806 -1.1269947 1.2157247
-0.25454345 -1.1188016 1.0075608
-0.30962017 -1.364086 1.0016953
-0.97944015 -4.3216462 2.4061134
-0.94348717 -4.1697307 1.8155872
-0.91336203 -4.0431175 1.3083082
-0.88946468 -3.943716 0.8590185
-0.86528689 -3.8427317 0.44656828
-0.25805926 -1.1242942 1.1085476
-0.28117576 -1.2278852 1.0007634
-0.34629422 -1.5146023 0.99861485
-0.96113241 -4.2135572 2.0853217
-0.92916226 -4.0799389 1.5454886
-0.90420067 -3.976712 1.0743273
-0.87546581 -3.8534243 0.64336061
-0.85642505 -3.7756813 0.24985187
-0.30701345 -1.1982399 7.8637228
-0.3942433 -1.5801489 7.8532047
-0.58929896 -2.4311748 8.0443954
-0.26781002 -1.1221969 2.7775416
-0.34016538 -1.4383937 2.7759972
-0.87914461 -3.7398605 5.7150803
-0.26326245 -1.1254133 1.4604216
-0.11411075 -0.32731074 5.8346772
-0.25797641 -0.83559108 8.1133051
-0.50142628 -2.0302358 8.0889997
-0.26967847 -1.1146096 3.1727247
-0.30508268 -1.276228 2.7769935
-1.609319 -6.7766523 11.462984
-0.95990372 -4.0642166 5.6044936
-0.26341647 -1.1198689 1.3254501
-0.26095042 -1.1260906 1.2157247
-0.25844723 -1.1179063 1.0075608
-0.31437981 -1.3629969 1.0016953
-0.97662348 -4.240499 2.3643751
-0.94453061 -4.1076775 1.7912377
-0.91136867 -3.9697735 1.2871578
-0.88676304 -3.8687661 0.84502923
-0.86203128 -3.766871 0.4398621
-0.26198223 -1.1233865 1.1085476
-0.28546014 -1.2268963 1.0007634
-0.35157907 -1.5133843 0.99861485
-0.95943785 -4.1394353 2.051753
-0.92742825 -4.0076618 1.5208358
-0.90166301 -3.9024935 1.0567427
-0.87108797 -3.7731428 0.63230979
-0.85725588 -3.7191179 0.24763502
-0.31138995 -1.1979129 7.8686624
-0.39975661 -1.5787632 7.8532047
-0.5934999 -2.4117095 7.9871311
-0.27126521 -1.1193565 2.772939
-0.34518421 -1.4371976 2.7759972
-0.88957953 -3.7258205 5.6985483
-0.26718926 -1.1244875 1.4604216
-0.11515527 -0.32663861 5.8296857
-0.26073191 -0.83417684 8.1083336
-0.50820422 -2.0272539 8.0841599
-0.27274367 -1.1103098 3.1633391
-0.30953568 -1.2751552 2.7769935
-1.5809876 -6.55549 11.10038
-0.97197586 -4.0520506 5.5925236
-0.26732394 -1.1189426 1.3254501
-0.26487961 -1.125173 1.2157247
-0.26234788 -1.1169972 1.0075608
-0.31913564 -1.3618913 1.0016953
-0.9742617 -4.1637383 2.3249555
-0.94409788 -4.0411549 1.7650154
-0.91105407 -3.9058363 1.2688273
-0.88689166 -3.8082361 0.83383775
-0.85600108 -3.6813793 0.43226177
-0.26676282 -1.1260983 1.111873
-0.28881124 -1.2219589 0.99782026
-0.35685962 -1.5121479 0.99861485
-0.95931798 -4.074213 2.0223801
-0.92520118 -3.9354477 1.4961833
-0.89972919 -3.8330741 1.0403302
-0.86729127 -3.6977608 0.62194955
-0.85770237 -3.662595 0.24541819
-0.31556955 -1.1968187 7.8686624
-0.40526512 -1.5773581 7.8532047
-0.6019147 -2.4096231 7.9871311
-0.27517083 -1.1184028 2.772939
-0.35019889 -1.4359839 2.7759972
-1.3787053 -5.6862612 8.6660061
-0.27111283 -1.1235479 1.4604216
-0.11619648 -0.3259632 5.8246937
-0.26444942 -0.83580184 8.1331921
-0.51527762 -2.0254676 8.0841599
-0.27494663 -1.1026537 3.1445682
-0.31398493 -1.2740669 2.7769935
-0.98468804 -4.042778 5.5845432
-0.27202764 -1.1212972 1.3291253
-0.26880559 -1.1242415 1.2157247
-0.26624534 -1.1160748 1.0075608
-0.32388759 -1.360769 1.0016953
-0.96932733 -4.0784268 2.2808981
-0.94214189 -3.9701746 1.7369198
-0.90919828 -3.8372827 1.2490869
-0.88547784 -3.7429733 0.82171369
-0.85968792 -3.639596 0.42868513
-0.27069202 -1.1251602 1.111873
-0.29307494 -1.2209433 0.99782026
-0.36213583 -1.5108929 0.99861485
-0.95769918 -4.0046296 1.9909095
-0.92357814 -3.8678913 1.4731741
-0.897322 -3.7637165 1.0239178
-0.86527431 -3.6320863 0.61297071
-0.85660875 -3.6012547 0.24299981
-0.31974533 -1.1957098 7.8686624
-0.41076866 -1.5759339 7.8532047
-0.60518521 -2.3872507 7.9203234
-0.27907309 -1.1174355 2.772939
-0.35520926 -1.4347527 2.7759972
-1.3561673 -5.5092697 8.4056292
-0.27503309 -1.1225947 1.4604216
-0.11733359 -0.32555562 5.8246937
-0.26622277 -0.83132148 8.0983915
-0.52203029 -2.0224395 8.07932
-0.2775231 -1.0966686 3.1304898
-0.31790185 -1.2708513 2.7724922
-1.4373339 -5.7824631 9.8163338
-0.99662381 -4.0305405 5.5725732
-0.27594003 -1.1203408 1.3291253
-0.27272829 -1.1232964 1.2157247
-0.27013955 -1.1151386 1.0075608
-0.32863557 -1.3596301 1.0016953
-0.96692783 -4.0061202 2.2437975
-0.94078833 -3.9037652 1.7106974
-0.90799755 -3.7734544 1.2307564
-0.88132417 -3.6682146 0.80772442
-0.85960841 -3.5833046 0.42376727
-0.27461791 -1.1242086 1.111873
-0.29733503 -1.2199129 0.99782026
-0.36740762 -1.5096197 0.99861485
-0.95667744 -3.9395173 1.9615366
-0.92149508 -3.8003955 1.450165
-0.89558542 -3.6991477 1.0086776
-0.86397409 -3.5712855 0.60468256
-0.85744369 -3.54968 0.2409845
-0.32391718 -1.1945864 7.8686624
-0.41626719 -1.5744904 7.8532047
-0.60830694 -2.3648853 7.8535161
-0.28297198 -1.1164545 2.772939
-0.35963148 -1.4311814 2.7716084
-1.3392334 -5.3598089 8.1865835
-0.27895001 -1.1216278 1.4604216
-0.11836912 -0.3248733 5.8197021
-0.26879302 -0.8293733 8.0884485
-0.52876824 -2.0193889 8.074481
-0.27920228 -1.0873363 3.1070261
-0.32233599 -1.2697339 2.7724922
-1.4485778 -5.7420073 9.7566109
-1.0092199 -4.0211921 5.5645933
-0.27984908 -1.1193708 1.3291253
-0.27664769 -1.1223375 1.2157247
-0.27403045 -1.1141888 1.0075608
-0.33337957 -1.3584746 1.0016953
-0.95560014 -3.8994606 2.1881464
-0.93788087 -3.8329117 1.6826018
-0.90636247 -3.7096822 1.2124259
-0.87898821 -3.6030762 0.79560035
-0.86032528 -3.5318973 0.41929647
-0.27854046 -1.1232431 1.111873
-0.30159149 -1.2188675 0.99782026
-0.37164083 -1.5041431 0.99608171
-0.95521307 -3.8744621 1.9321641
-0.91895217 -3.7329619 1.4271559
-0.89340913 -3.6346374 0.99343747
-0.8575353 -3.491302 0.59363168
-0.85435915 -3.4835875 0.23836461
-0.32808506 -1.1934484 7.8686624
-0.42176065 -1.5730278 7.8532047
-0.61467302 -2.3555257 7.8296556
-0.28686741 -1.1154599 2.772939
-0.36462504 -1.4299173 2.7716084
-1.3378742 -5.2759981 8.0667276
-0.28286353 -1.1206473 1.4604216
-0.11940133 -0.32418776 5.8147106
-0.2710194 -0.82640481 8.0685616
-0.53549123 -2.0163162 8.0696411
-0.28343135 -1.088025 3.1117187
-0.32676622 -1.2686009 2.7724922
-1.4201003 -5.5474253 9.4366655
-1.021019 -4.0088844 5.5526228
-0.28375471 -1.1183871 1.3291253
-0.28056368 -1.121365 1.2157247
-0.27791804 -1.1132255 1.0075608
-0.33811951 -1.3573027 1.0016953
-0.96065074 -3.8617113 2.169596
-0.9344905 -3.7621269 1.6545064
-0.9054482 -3.650624 1.1955056
-0.86912298 -3.5093904 0.77788055
-0.86069375 -3.4805291 0.41482568
-0.28245962 -1.1222639 1.111873
-0.30584431 -1.2178073 0.99782026
-0.37688902 -1.5028366 0.99608171
-0.95330626 -3.8094654 1.9027913
-0.91709477 -3.6701748 1.4057903
-0.89079374 -3.5701885 0.9781974
-0.86252892 -3.4594576 0.58948761
-0.85082376 -3.4175606 0.2357447
-0.33204019 -1.1915475 7.8637228
-0.42724895 -1.571546 7.8532047
-0.6236558 -2.356252 7.8391995
-0.29075933 -1.1144518 2.772939
-0.36961415 -1.4286358 2.7716084
-1.3373491 -5.1977143 7.9551387
-0.28677359 -1.1196531 1.4604216
-0.12053223 -0.323769 5.8147106
-0.27356541 -0.82444239 8.0586195
-0.54252625 -2.0144346 8.0696411
-0.28722754 -1.087029 3.1117187
-0.33119249 -1.2674526 2.7724922
-1.3856933 -5.3354445 9.0868597
-1.0327446 -3.9965439 5.5406532
-0.28765687 -1.1173898 1.3291253
-0.28447625 -1.1203787 1.2157247
-0.28275836 -1.1160216 1.0106993
-0.3428553 -1.3561141 1.0016953
-0.95894295 -3.7982039 2.1371326
-0.93061745 -3.6914129 1.6264108
-0.90296179 -3.5869663 1.1771752
-0.87298501 -3.4729867 0.77135223
-0.85950196 -3.424372 0.40990782
-0.28729945 -1.1248887 1.1151985
-0.3100934 -1.2167324 0.99782026
-0.38213259 -1.5015119 0.99608171
-0.9487232 -3.7357326 1.8692224
-0.91481036 -3.6074464 1.3844247
-0.88773936 -3.5058022 0.96295726
-0.86123681 -3.4036174 0.58189011
-0.84683806 -3.3516016 0.23312481
-0.33619741 -1.1903812 7.8637228
-0.43273208 -1.5700451 7.8532047
-0.63187683 -2.3540606 7.8391995
-0.29464775 -1.1134301 2.772939
-0.37520692 -1.4296534 2.7759972
-1.3441122 -5.1494493 7.8890109
-0.29148647 -1.1217474 1.464259
-0.12166166 -0.32334629 5.8147106
-0.27576041 -0.8214618 8.0387335
-0.54756713 -2.0052536 8.0406046
-0.29102021 -1.0860198 3.1117187
-0.33561471 -1.2662889 2.7724922
-1.3710866 -5.2044768 8.8735628
-1.0451607 -3.9870853 5.5326734
-0.29155555 -1.1163789 1.3291253
-0.28927532 -1.1228325 1.2192293
-0.28665227 -1.1150279 1.0106993
-0.34654778 -1.3508589 0.99895382
-0.95900249 -3.7433388 2.1093071
-0.9274115 -3.6252642 1.6001885
-0.90241683 -3.5326664 1.1616648
-0.86931866 -3.4080405 0.75922817
-0.85915792 -3.3730919 0.40543702
-0.2912243 -1.1238791 1.1151985
-0.31433865 -1.2156425 0.99782026
-0.38737151 -1.5001689 0.99608171
-0.94590223 -3.6708686 1.8398496
-0.91209936 -3.5447795 1.363059
-0.8854562 -3.4461896 0.94888943
-0.86202866 -3.3574219 0.575674
-0.84116167 -3.2808733 0.23030338
-0.34013656 -1.1884534 7.8587832
-0.43848407 -1.5695057 7.8581004
-0.64048231 -2.3532808 7.8439717
-0.29853255 -1.1123948 2.772939
-0.38019505 -1.428335 2.7759972
-1.3246257 -5.0032716 7.674098
-0.2945832 -1.1176238 1.4604216
-0.12278961 -0.32291964 5.8147106
-0.27862617 -0.82049423 8.0387335
-0.55187947 -1.9936389 8.0018892
-0.29526213 -1.0866624 3.1164114
-0.34003282 -1.2651097 2.7724922
-1.3535628 -5.0661182 8.6474676
-1.0575231 -3.9775882 5.524693
-0.29545066 -1.1153543 1.3291253
-0.29319298 -1.1218159 1.2192293
-0.29054269 -1.1140205 1.0106993
-0.35126105 -1.349641 0.99895382
-0.95757645 -3.684233 2.0791626
-0.92491978 -3.5636706 1.575839
-0.90030044 -3.4737716 1.1447444
-0.87136358 -3.3669405 0.75176722
-0.85722059 -3.317035 0.40051913
-0.2951456 -1.1228555 1.1151985
-0.31858015 -1.2145379 0.99782026
-0.39260575 -1.4988075 0.99608171
-0.93690103 -3.5841162 1.7999867
-0.91015482 -3.4867454 1.3433369
-0.88521993 -3.3960433 0.93716627
-0.86250859 -3.3112628 0.56945789
-0.84380549 -3.2440717 0.22889265
-0.34428295 -1.187259 7.8587832
-0.44423756 -1.5689452 7.8629956
-0.6482957 -2.349592 7.8391995
-0.3024137 -1.1113459 2.772939
-0.38517857 -1.4269991 2.7759972
-1.3099736 -4.8790364 7.4922481
-0.29931056 -1.1196851 1.464259
-0.12381118 -0.32222003 5.8097191
-0.28235757 -0.82203621 8.06359
-0.55645722 -1.9832289 7.9680138
-0.29905346 -1.0856252 3.1164114
-0.34444684 -1.2639149 2.7724922
-1.3309985 -4.9128437 8.3957777
-1.0698322 -3.9680543 5.5167131
-0.29934216 -1.1143162 1.3291253
-0.29802102 -1.1242328 1.2227339
-0.2944296 -1.1129994 1.0106993
-0.35597005 -1.3484067 0.99895382
-0.95462048 -3.6209004 2.0466995
-0.92318988 -3.5066226 1.5533626
-0.89778394 -3.4149349 1.1278241
-0.87313229 -3.3258684 0.74430621
-0.85616529 -3.2658508 0.39604837
-0.2990633 -1.1218184 1.1151985
-0.32281771 -1.2134184 0.99782026
-0.39783517 -1.4974279 0.99608171
-0.94126397 -3.5501153 1.7853003
-0.90902525 -3.4333336 1.3252583
-0.88464445 -3.3459411 0.92544305
-0.86267698 -3.2651422 0.56324178
-0.84365368 -3.1976306 0.22707887
-0.34842518 -1.1860499 7.8587832
-0.45083553 -1.5712996 7.8825765
-0.65649337 -2.3473146 7.8391995
-0.30629116 -1.1102835 2.772939
-0.38952503 -1.4233359 2.7716084
-1.2929921 -4.7495351 7.3021331
-0.30153966 -1.1124463 1.4565841
-0.12493518 -0.3217859 5.8097191
-0.28592756 -0.8230589 8.083477
-0.560969 -1.9728115 7.9341373
-0.30284119 -1.0845747 3.1164114
-0.3488566 -1.262705 2.7724922
-1.3232698 -4.8176327 8.2422047
-1.0820875 -3.9584823 5.5087328
-0.30412117 -1.1165355 1.3328004
-0.30194348 -1.1231855 1.2227339
-0.29831287 -1.1119649 1.0106993
-0.35959318 -1.3431168 0.99621236
-0.95237827 -3.5619128 2.0165551
-0.92107314 -3.4496305 1.5308862
-0.89610386 -3.3607936 1.1123136
-0.87462503 -3.2848256 0.73684525
-0.85348362 -3.2099023 0.39113048
-0.30297735 -1.1207677 1.1151985
-0.3259984 -1.2083817 0.9948771
-0.40305975 -1.4960302 0.99608171
-0.93833017 -3.4898312 1.7580256
-0.90753388 -3.3799727 1.3071797
-0.88498896 -3.3005795 0.91489226
-0.86509734 -3.2286274 0.55840701
-0.84318823 -3.1512311 0.2252651
-0.35256311 -1.1848265 7.8587832
-0.45688647 -1.5716716 7.8923669
-0.66427588 -2.3435726 7.8344274
-0.31016493 -1.1092076 2.772939
-0.39449102 -1.4219676 2.7716084
-1.2803637 -4.6392012 7.1409473
-0.30796966 -1.1206589 1.4680965
-0.12605767 -0.32134783 5.8097191
-0.28897616 -0.82255852 8.0884485
-0.56611115 -1.9648023 7.9099402
-0.30709541 -1.0851713 3.1211042
-0.35326213 -1.2614795 2.7724922
-1.3162923 -4.7275615 8.0971622
-1.0950938 -3.9517772 5.5047426
-0.30801678 -1.1154672 1.3328004
-0.30680037 -1.1255654 1.2262385
-0.30321437 -1.1146727 1.0138377
-0.36427933 -1.3418534 0.99621236
-0.94509935 -3.4858842 1.9771355
-0.91978168 -3.3971717 1.5102829
-0.89530897 -3.3113375 1.0982133
-0.87456143 -3.2390707 0.72845167
-0.85042191 -3.1540127 0.38621262
-0.30787483 -1.1233042 1.1185241
-0.33021447 -1.2072364 0.9948771
-0.40714332 -1.4904556 0.99354851
-0.93737483 -3.438369 1.734947
