# .PCD v0.7 - Point Cloud Data file format
VERSION 0.7
FIELDS x y z
SIZE 4 4 4
TYPE F F F
COUNT 1 1 1
WIDTH 1399
HEIGHT 1
VIEWPOINT 0 0 0 1 0 0 0
POINTS 1399
DATA ascii
-0.86609983 -0.7450245 0.91541177
-0.86060673 -0.74081242 0.75289649
-0.86038023 -0.74139184 0.61248899
-0.85156465 -0.73430377 0.48049462
-0.82810718 -0.71457124 0.35452449
-0.81711203 -0.70532578 0.2427662
-0.81644726 -0.7052393 0.13719608
-0.028844872 -0.013477329 2.1691911
-0.25197086 -0.20609984 2.0699732
-0.31956846 -0.26458246 2.0180943
-0.48018777 -0.40276551 2.0507834
-0.74564171 -0.62964576 2.358712
-0.72545904 -0.61517143 1.8103999
-0.80870712 -0.68765879 1.631727
-0.91877699 -0.78287184 1.5218216
-0.13667066 -0.094577566 2.7148907
-0.21118502 -0.15690643 2.4109907
-0.41240546 -0.34294978 2.1026311
-0.74495721 -0.62510008 2.6987553
-0.67509592 -0.56966275 1.8902544
-0.76768917 -0.64980501 1.715325
-0.86824715 -0.73669904 1.5825491
-0.91015619 -0.7735998 1.3732272
-0.89995915 -0.7700783 1.2437612
-0.87732172 -0.75149232 1.0138377
-0.86505991 -0.74176216 0.83172441
-0.86172134 -0.73941165 0.68092638
-0.84827298 -0.72837692 0.54005182
-0.84800524 -0.72865117 0.41857755
-0.83059591 -0.71419007 0.29944643
-0.82654506 -0.71119881 0.19083907
-0.88886845 -0.75843531 1.1218495
-0.86562175 -0.73937172 0.91246861
-0.85991043 -0.73500293 0.75036329
-0.85951436 -0.73543352 0.6103909
-0.85053569 -0.72825563 0.47885111
-0.83059651 -0.71167624 0.35452449
-0.81580907 -0.69924659 0.24207552
-0.81890398 -0.70238507 0.13719608
-0.028891742 -0.01337656 2.1691911
-0.25329247 -0.2057081 2.0749123
-0.31970307 -0.26281935 2.0131991
-0.47814876 -0.39822221 2.0364673
-0.74783504 -0.62703907 2.358712
-0.72576976 -0.61109304 1.8060108
-0.81110257 -0.68483174 1.631727
-0.9092688 -0.76930922 1.502634
-0.13699996 -0.094099924 2.7148907
-0.21173143 -0.15616828 2.4109907
-0.40972155 -0.33830863 2.0832734
-0.74713469 -0.62249589 2.6987553
-0.67374253 -0.56450707 1.8812519
-0.76995277 -0.64712137 1.715325
-0.87081343 -0.7336638 1.5825491
-0.91026002 -0.76823163 1.3695521
-0.89992386 -0.76462317 1.2402567
-0.87697452 -0.74590367 1.0106993
-0.86764389 -0.73873806 0.83172441
-0.86429715 -0.73639917 0.68092638
-0.84728253 -0.72240376 0.5381788
-0.84689415 -0.7225731 0.41716751
-0.83308387 -0.71128637 0.29944643
-0.82523638 -0.70507437 0.19039199
-0.88581264 -0.75050086 1.1151985
-0.86203188 -0.73111695 0.9065823
-0.86247081 -0.73199683 0.75036329
-0.85861748 -0.72949034 0.60829288
-0.85307258 -0.72528225 0.47885111
-0.8293736 -0.70562303 0.35335216
-0.81824493 -0.69639462 0.24207552
-0.81754732 -0.69628298 0.13699456
-0.028980955 -0.013284617 2.1741908
-0.25461447 -0.2053097 2.0798516
-0.31982926 -0.26105851 2.0083039
-0.47608402 -0.39369813 2.0221515
-0.74251109 -0.61817598 2.3356993
-0.72789842 -0.60855591 1.8060108
-0.81133145 -0.68018848 1.6275939
-0.91194856 -0.76613057 1.502634
-0.1373276 -0.093621135 2.7148907
-0.21227528 -0.15542826 2.4109907
-0.40701026 -0.3336904 2.0639157
-0.75063294 -0.62098384 2.7034481
-0.67403519 -0.56075972 1.8767507
-0.77020437 -0.64275891 1.7110591
-0.87336904 -0.73061961 1.5825491
-0.91033757 -0.76287222 1.3658769
-0.89986157 -0.75917768 1.236752
-0.87659907 -0.74032664 1.0075608
-0.86702389 -0.7330054 0.82898289
-0.86348039 -0.73051667 0.67860758
-0.84979898 -0.71944171 0.5381788
-0.84575111 -0.71651173 0.41575748
-0.83181465 -0.70519751 0.29851383
-0.82769251 -0.70218951 0.19039199
-0.88556969 -0.74500078 1.111873
-0.86148685 -0.72549987 0.90363914
-0.86172432 -0.72620404 0.74783015
-0.85768968 -0.7235623 0.60619479
-0.8519907 -0.71925402 0.4772076
-0.83183163 -0.70272368 0.35335216
-0.82067084 -0.6935342 0.24207552
-0.81997287 -0.69342494 0.13699456
-0.029027151 -0.013183374 2.1741908
-0.25654387 -0.2053894 2.0897303
-0.32073858 -0.25994051 2.0083039
-0.47630143 -0.391087 2.0173793
-0.73713452 -0.60935777 2.3126867
-0.72817522 -0.60448182 1.8016218
-0.81153786 -0.67555213 1.623461
-0.91707885 -0.76499569 1.5064715
-0.13789429 -0.093300536 2.7198822
-0.21238405 -0.15437475 2.4060194
-0.40329665 -0.32830226 2.0397186
-0.75546336 -0.6205501 2.7128336
-0.67430991 -0.55701733 1.8722495
-0.77244335 -0.64006656 1.7110591
-0.8759141 -0.72756654 1.5825491
-0.90778267 -0.75535333 1.3585266
-0.89977217 -0.75374198 1.2332475
-0.87619537 -0.73476136 1.0044224
-0.86957729 -0.72997445 0.82898289
-0.86263317 -0.72464889 0.67628878
-0.84875649 -0.71348804 0.53630573
-0.84090513 -0.70737922 0.4129374
-0.83051318 -0.69912618 0.2975812
-0.82632983 -0.69608766 0.18994491
-0.88529915 -0.73951149 1.1085476
-0.86091328 -0.7198956 0.90069598
-0.86094785 -0.72042525 0.74529696
-0.85673076 -0.7176497 0.60409671
-0.85087723 -0.71324211 0.47556409
-0.8305555 -0.69669205 0.35217986
-0.8192932 -0.68748212 0.24138485
-0.81856233 -0.68734586 0.13679302
-0.029030234 -0.013073278 2.1691911
-0.25847697 -0.20545812 2.0996087
-0.32085022 -0.25818157 2.0034087
-0.47766367 -0.389422 2.0173793
-0.72566444 -0.59562773 2.2712641
-0.73028082 -0.60193634 1.8016218
-0.81172186 -0.67092264 1.619328
-0.92221212 -0.76383418 1.5103091
-0.13846043 -0.092977121 2.724874
-0.2129216 -0.15363246 2.4060194
-0.40052837 -0.32373381 2.0203609
-0.75628734 -0.61681879 2.7081406
-0.67456675 -0.55327982 1.8677483
-0.77265871 -0.63570946 1.7067931
-0.87612367 -0.72258753 1.578559
-0.9078002 -0.75002086 1.3548514
-0.89965582 -0.74831617 1.229743
-0.8757636 -0.72920787 1.0012839
-0.86890793 -0.72425741 0.82624143
-0.86175549 -0.71879601 0.67396998
-0.84768265 -0.70755035 0.53443271
-0.83968741 -0.70136446 0.4115274
-0.82917935 -0.6930725 0.29664856
-0.82875454 -0.69319898 0.18994491
-0.88212711 -0.7316497 1.1018965
-0.8634209 -0.71688604 0.90069598
-0.86014163 -0.71466094 0.74276382
-0.8557412 -0.71175265 0.60199869
-0.8497321 -0.70724684 0.47392058
-0.83298236 -0.69378865 0.35217986
-0.821688 -0.68461806 0.24138485
-0.82095665 -0.68448436 0.13679302
-0.029075691 -0.012971865 2.1691911
-0.26102412 -0.20599642 2.1144264
-0.32174948 -0.25706005 2.0034087
-0.47902009 -0.38775229 2.0173793
-0.73379767 -0.59802693 2.289674
-0.73052394 -0.59786689 1.7972326
-0.81188357 -0.66630012 1.615195
-0.92734861 -0.76264614 1.5141466
-0.13926782 -0.092808552 2.7348573
-0.21389125 -0.15319683 2.4109907
-0.39479107 -0.31682998 1.9864849
-0.75575328 -0.61200356 2.6987553
-0.67480576 -0.54954737 1.863247
-0.77487308 -0.63300854 1.7067931
-0.87864065 -0.71952486 1.578559
-0.90779155 -0.74469745 1.3511763
-0.89676279 -0.74062961 1.2227339
-0.87530375 -0.72366655 0.99814546
-0.87143081 -0.72121996 0.82624143
-0.86084759 -0.7129581 0.67165118
-0.84657794 -0.70162898 0.53255969
-0.83843797 -0.6953668 0.41011736
-0.82781351 -0.68703675 0.29571593
-0.82733822 -0.68712014 0.18949783
-0.88179344 -0.72619265 1.0985711
-0.86279917 -0.71129674 0.89775282
-0.85930562 -0.70891088 0.74023062
-0.85472089 -0.70587128 0.5999006
-0.84855562 -0.70126837 0.47227708
-0.83165336 -0.68777913 0.35100752
-0.82025713 -0.67858911 0.24069417
-0.81949264 -0.67842859 0.13659149
-0.029120795 -0.012870291 2.1691911
-0.26296601 -0.20604101 2.1243052
-0.32184666 -0.25530317 1.9985133
-0.48037067 -0.38607785 2.0173793
-0.73588067 -0.59546191 2.289674
-0.73260641 -0.59531325 1.7972326
-0.81202275 -0.66168469 1.6110622
-0.93248785 -0.76143157 1.517984
-0.13983332 -0.092478655 2.7398489
-0.21442471 -0.15244929 2.4109907
-0.39786148 -0.31701559 1.9961637
-0.75519478 -0.60719961 2.6893697
-0.6767199 -0.54718852 1.863247
-0.77505231 -0.62865716 1.7025272
-0.87880874 -0.71455258 1.574569
-0.90775675 -0.73938334 1.347501
-0.89658499 -0.73523366 1.2192293
-0.87481588 -0.7181372 0.99500704
-0.8707124 -0.71551907 0.82349998
-0.85990947 -0.70713526 0.66933239
-0.84544224 -0.69572389 0.53068668
-0.83715713 -0.68938661 0.40870732
-0.83020669 -0.68414301 0.29571593
-0.82588959 -0.68105972 0.18905075
-0.88432288 -0.72311014 1.0985711
-0.86527675 -0.70828068 0.89775282
-0.85844004 -0.70317549 0.73769742
-0.85367012 -0.70000577 0.59780258
-0.84734792 -0.69530666 0.47063357
-0.83029258 -0.68178737 0.34983522
-0.81879419 -0.67257851 0.24000348
-0.82185572 -0.67556393 0.13659149
-0.029165544 -0.012768563 2.1691911
-0.26613909 -0.20702715 2.144062
-0.32273585 -0.25417817 1.9985133
-0.48171541 -0.38439867 2.0173793
-0.73795474 -0.59288955 2.289674
-0.73281586 -0.59124875 1.7928436
-0.81432754 -0.65884614 1.6110622
-0.93763 -0.76019037 1.5218216
-0.14039822 -0.09214595 2.7448406
-0.21495555 -0.15169987 2.4109907
-0.39896566 -0.31562486 1.9961637
-0.75461209 -0.60240704 2.6799841
-0.67862582 -0.54482299 1.863247
-0.77521062 -0.62431234 1.6982613
-0.88129765 -0.71148062 1.574569
-0.90505993 -0.73194683 1.3401507
-0.89361459 -0.72759628 1.2122202
-0.87430012 -0.71262014 0.99186856
-0.86996484 -0.70983207 0.82075852
-0.85894126 -0.70132786 0.66701359
-0.84427553 -0.68983537 0.5288136
-0.83584464 -0.6834237 0.40729728
-0.82878786 -0.67813015 0.29478332
-0.82055557 -0.67186284 0.18815659
-0.88394284 -0.71766561 1.0952456
-0.8646071 -0.70270681 0.89480966
-0.86088926 -0.70017463 0.73769742
-0.85610837 -0.6970216 0.59780258
-0.84610873 -0.68936199 0.46899009
-0.82890004 -0.6758135 0.34866288
-0.81729943 -0.66658652 0.23931281
-0.82033843 -0.66953212 0.13638996
-0.02916706 -0.012658585 2.164191
-0.26870671 -0.20751947 2.1588798
-0.32362115 -0.25305006 1.9985133
-0.481884 -0.38178825 2.0126076
-0.7400198 -0.59030998 2.289674
-0.73300588 -0.58718997 1.7884545
-0.81442827 -0.65423745 1.6069292
-0.93029022 -0.74887395 1.5064715
-0.14071901 -0.091655307 2.7448406
-0.21592166 -0.15125261 2.4159625
-0.40006495 -0.31423029 1.9961637
-0.75265253 -0.59655428 2.665906
-0.68052346 -0.54245079 1.863247
-0.77534807 -0.61997402 1.6939954
-0.88142449 -0.70651555 1.5705789
-0.90496582 -0.72666061 1.3364756
-0.89337546 -0.72223067 1.2087157
-0.87375659 -0.70711547 0.98873013
-0.86918813 -0.7041589 0.81801701
-0.85794294 -0.69553572 0.66469479
-0.84667838 -0.68688405 0.5288136
-0.83450079 -0.67747843 0.40588725
-0.83114994 -0.67523301 0.29478332
-0.81903172 -0.66585308 0.18770951
-0.88644254 -0.71457571 1.0952456
-0.8670547 -0.6996845 0.89480966
-0.85997427 -0.69445723 0.73516428
-0.85500669 -0.691176 0.5957045
-0.84483862 -0.68343455 0.46734658
-0.82747608 -0.66985774 0.34749055
-0.81577283 -0.66061312 0.23862213
-0.82267058 -0.66666442 0.13638996
-0.02921107 -0.012556695 2.164191
-0.27498406 -0.21082859 2.2033331
-0.32530722 -0.25254267 2.0034087
-0.4820402 -0.37918133 2.0078354
-0.74207592 -0.5877232 2.289674
-0.73505104 -0.58462769 1.7884545
-0.81670707 -0.65139061 1.6069292
-0.92789078 -0.74162 1.4987966
-0.14128211 -0.091317818 2.7498322
-0.21644829 -0.15049799 2.4159625
-0.40115938 -0.31283191 1.9961637
-0.75201768 -0.59178954 2.6565204
-0.68241286 -0.54007202 1.863247
-0.77750742 -0.61726373 1.6939954
-0.88388526 -0.70343453 1.5705789
-0.90219492 -0.71927094 1.3291253
-0.8931098 -0.71687561 1.2052112
-0.87318528 -0.70162326 0.98559165
-0.86838257 -0.69849992 0.81527555
-0.85691476 -0.68975919 0.66237599
-0.84546047 -0.68101633 0.52694058
-0.83312571 -0.67155099 0.40447721
-0.82967842 -0.66924363 0.29385069
-0.82135093 -0.66299003 0.18770951
-0.88601637 -0.70914412 1.09192
-0.86633724 -0.69412637 0.89186651
-0.86239314 -0.69145113 0.73516428
-0.85741413 -0.68818724 0.5957045
-0.84353727 -0.67752427 0.46570307
-0.82602072 -0.66392022 0.34631824
-0.81807381 -0.65776151 0.23862213
-0.82110018 -0.66065693 0.13618843
-0.029254721 -0.012454654 2.164191
-0.27819359 -0.21174696 2.2230902
-0.32699373 -0.25202656 2.0083039
-0.48218411 -0.37657803 2.0030637
-0.74258691 -0.58392191 2.2850714
-0.73520756 -0.58057433 1.7840655
-0.8167696 -0.64678895 1.6027963
-0.92294115 -0.73239982 1.4872841
-0.14160001 -0.090824097 2.7498322
-0.21697232 -0.14974152 2.4159625
-0.40125462 -0.31066066 1.9913243
-0.75135881 -0.58703655 2.647135
-0.68429387 -0.53768665 1.863247
-0.77760899 -0.61293173 1.6897295
-0.88633537 -0.70034486 1.5705789
-0.90204185 -0.71401334 1.3254501
-0.89281774 -0.71153128 1.2017065
-0.87258631 -0.69614381 0.98245323
-0.86754799 -0.69285518 0.81253409
-0.85585672 -0.68399829 0.66005719
-0.8478325 -0.67806101 0.52694058
-0.83171946 -0.66564137 0.4030672
-0.83200949 -0.66634339 0.29385069
-0.81977427 -0.65700459 0.18726245
-0.88556296 -0.70372415 1.0885946
-0.86559159 -0.68858182 0.88892335
-0.86142874 -0.6857518 0.73263109
-0.85626167 -0.68236166 0.59360647
-0.84589714 -0.67457563 0.46570307
-0.8283332 -0.66103286 0.34631824
-0.8164947 -0.65181237 0.23793145
-0.82340133 -0.65778673 0.13618843
-0.029298021 -0.012352459 2.164191
-0.2882379 -0.21779038 2.2971792
-0.32948965 -0.2521199 2.0180943
-0.48231575 -0.37397832 1.9982916
-0.74308062 -0.58012432 2.2804689
-0.73722965 -0.57800442 1.7840655
-0.81902236 -0.64393395 1.6027963
-0.92297429 -0.72719026 1.4834466
-0.14191619 -0.09032926 2.7498322
-0.21793473 -0.14928262 2.4209337
-0.4023366 -0.3092581 1.9913243
-0.7493121 -0.58123791 2.6330566
-0.68616658 -0.53529477 1.863247
-0.77974379 -0.61021364 1.6897295
-0.88877457 -0.69724673 1.5705789
-0.9018631 -0.70876575 1.321775
-0.89249927 -0.70619768 1.198202
-0.87195981 -0.69067705 0.97931474
-0.86668479 -0.68722481 0.80979264
-0.85476881 -0.67825317 0.65773833
-0.84656358 -0.67221463 0.52506757
-0.8340379 -0.66273403 0.4030672
-0.83048546 -0.6603778 0.29291809
-0.82206261 -0.6541391 0.18726245
-0.88508266 -0.6983161 1.0852691
-0.8679899 -0.68555611 0.88892335
-0.86381721 -0.68274069 0.73263109
-0.85863835 -0.67936862 0.59360647
-0.84824675 -0.67161876 0.46570307
-0.8268258 -0.65511888 0.34514591
-0.81876498 -0.64895833 0.23793145
-0.82177818 -0.65180391 0.13598689
-0.029340958 -0.012250115 2.164191
-0.28775224 -0.21585183 2.2873006
-0.33280146 -0.2528142 2.0327799
-0.48125198 -0.37047216 1.9887476
-0.74510103 -0.57752693 2.2804689
-0.73735267 -0.57395661 1.7796764
-0.8190468 -0.63933986 1.5986633
-0.9204576 -0.72001469 1.4757715
-0.14223063 -0.089833327 2.7498322
-0.21712826 -0.14762744 2.4060194
-0.40341365 -0.30785182 1.9913243
-0.74996901 -0.57756609 2.6283638
-0.68803096 -0.53289634 1.863247
-0.77980942 -0.60588813 1.6854634
-0.89120305 -0.69414014 1.5705789
-0.90165871 -0.70352793 1.3180997
-0.89495885 -0.70307797 1.198202
-0.87130576 -0.68522316 0.97617632
-0.86579281 -0.68160892 0.80705118
-0.85713112 -0.67526531 0.65773833
-0.8452642 -0.66638541 0.52319455
-0.83258003 -0.65684748 0.40165716
-0.83278555 -0.65747488 0.29291809
-0.82043338 -0.6481784 0.18681537
-0.88457543 -0.69292003 1.0819435
-0.86719692 -0.68002814 0.88598019
-0.86280382 -0.67706019 0.73009789
-0.85743546 -0.67356372 0.59150839
-0.84687352 -0.66573548 0.46405956
-0.82910758 -0.65222877 0.34514591
-0.82102525 -0.64609635 0.23793145
-0.82012343 -0.64584053 0.13578537
-0.02942655 -0.012154967 2.1691911
-0.28351429 -0.21113907 2.2477865
-0.33612213 -0.25348848 2.0474656
-0.48135591 -0.36788398 1.9839755
-0.74556392 -0.5737313 2.2758665
-0.73935163 -0.5713793 1.7796764
-0.82127351 -0.63647693 1.5986633
-0.92043364 -0.71483141 1.4719341
-0.14254333 -0.089336306 2.7498322
-0.2158698 -0.14568339 2.3861334
-0.40448582 -0.30644178 1.9913243
-0.74923843 -0.57284898 2.6189783
-0.68988693 -0.53049141 1.863247
-0.7819196 -0.60316241 1.6854634
-0.89362061 -0.69102502 1.5705789
-0.904109 -0.70037627 1.3180997
-0.8945955 -0.69775653 1.1946975
-0.87369233 -0.68217754 0.97617632
-0.86487222 -0.67600763 0.80430973
-0.85599375 -0.66954017 0.65541953
-0.84393448 -0.66057348 0.52132148
-0.83486778 -0.65393728 0.40165716
-0.83120942 -0.6515336 0.29198545
-0.8226909 -0.64531058 0.18681537
-0.88404131 -0.687536 1.078618
-0.8663758 -0.67451388 0.88303697
-0.86516196 -0.67404431 0.73009789
-0.85978144 -0.67056662 0.59150839
-0.8491922 -0.66277534 0.46405956
-0.8275485 -0.64633882 0.34397361
-0.82327557 -0.64322644 0.23793145
-0.82237285 -0.64297384 0.13578537
-0.029468801 -0.012052174 2.1691911
-0.28424957 -0.21014813 2.2477865
-0.33945149 -0.25414258 2.0621514
-0.48263711 -0.36620149 1.9839755
-0.74911475 -0.5723111 2.2804689
-0.73944128 -0.56733733 1.7752873
-0.8234902 -0.63360631 1.5986633
-0.92038482 -0.70965719 1.4680965
-0.14285432 -0.08883819 2.7498322
-0.21149138 -0.14168666 2.3314466
-0.40555304 -0.30502799 1.9913243
-0.7484839 -0.56814384 2.6095927
-0.69173449 -0.52808005 1.863247
-0.78402025 -0.60042936 1.6854634
-0.89602733 -0.6879015 1.5705789
-0.90654826 -0.69721615 1.3180997
-0.89702564 -0.69462955 1.1946975
-0.87299186 -0.6767391 0.97303784
-0.86722666 -0.67298454 0.80430973
-0.85832566 -0.66654807 0.65541953
-0.84257454 -0.65477896 0.51944846
-0.83714533 -0.65101904 0.40165716
-0.83347863 -0.64862818 0.29198545
-0.8210094 -0.63937515 0.18636829
-0.88348049 -0.68216419 1.0752926
-0.86872506 -0.67148554 0.88303697
-0.86409956 -0.66838282 0.72756475
-0.85852832 -0.66478276 0.58941036
-0.84776783 -0.65691477 0.46241605
-0.82979953 -0.64344621 0.34397361
-0.82551587 -0.64034879 0.23793145
-0.82066584 -0.63703597 0.13558383
-0.02951069 -0.011949235 2.1691911
-0.27620435 -0.20272845 2.1786368
-0.34197184 -0.2541697 2.0719419
-0.48271984 -0.36361682 1.9792036
-0.74799436 -0.56733203 2.2712641
-0.74141717 -0.56475282 1.7752873
-0.82346046 -0.62901986 1.5945303
-0.92285645 -0.70644021 1.4680965
-0.14316355 -0.088338993 2.7498322
-0.20886844 -0.13889512 2.2966461
-0.40661532 -0.30361047 1.9913243
-0.74770582 -0.56345111 2.6002071
-0.69357359 -0.52566224 1.863247
-0.78403509 -0.5961107 1.6811975
-0.89842308 -0.68476951 1.5705789
-0.9089765 -0.69404739 1.3180997
-0.89944488 -0.69149411 1.1946975
-0.87226415 -0.67131382 0.96989942
-0.86625808 -0.66740143 0.80156827
-0.86064708 -0.66354793 0.65541953
-0.84118462 -0.64900213 0.51757544
-0.83561558 -0.64516133 0.4002471
-0.83573771 -0.64571488 0.29198545
-0.82323623 -0.63650537 0.18636829
-0.88289279 -0.6768046 1.071967
-0.86785692 -0.66598845 0.88009381
-0.86300832 -0.66273701 0.72503155
-0.86084366 -0.66178185 0.58941036
-0.84631282 -0.65107226 0.46077254
-0.83204055 -0.64054573 0.34397361
-0.82382256 -0.63444185 0.23724076
-0.81892729 -0.63111776 0.13538231
-0.029509136 -0.011839258 2.164191
-0.26936802 -0.19628128 2.1193657
-0.34203717 -0.25237048 2.0670464
-0.48398617 -0.36192963 1.9792036
-0.74684846 -0.56236768 2.262059
-0.7414735 -0.56071693 1.7708982
-0.82565111 -0.62614167 1.5945303
-0.9227646 -0.70127523 1.464259
-0.14347103 -0.087838724 2.7498322
-0.20533623 -0.13554034 2.2519026
-0.40767261 -0.30218926 1.9913243
-0.74690408 -0.55877072 2.5908215
-0.69366455 -0.52192938 1.8587458
-0.78611118 -0.59337026 1.6811975
-0.90080792 -0.6816293 1.5705789
-0.90869176 -0.68882245 1.3144246
-0.9018532 -0.68835032 1.1946975
-0.87150919 -0.66590196 0.96676093
-0.86526114 -0.66183329 0.79882681
-0.85944045 -0.65784734 0.65310073
-0.84344494 -0.64606184 0.51757544
-0.83786255 -0.64224052 0.4002471
-0.83798659 -0.6427936 0.29198545
-0.82150269 -0.63059556 0.18592121
-0.88524985 -0.67371863 1.071967
-0.86696112 -0.66050559 0.87715065
-0.86188829 -0.65710706 0.72249836
-0.85954058 -0.65601951 0.58731234
-0.84482753 -0.64524794 0.45912904
-0.83040953 -0.63468587 0.3428013
-0.82209814 -0.62855452 0.23655009
-0.82112527 -0.62825531 0.13538231
-0.029550284 -0.01173618 2.164191
-0.26816115 -0.19397594 2.104548
-0.34291601 -0.25117502 2.0670464
-0.48524657 -0.36023799 1.9792036
-0.73941714 -0.55274051 2.2344439
-0.74342632 -0.55812532 1.7708982
-0.82558346 -0.62156337 1.5903975
-0.92264813 -0.69611967 1.4604216
-0.14377677 -0.087337382 2.7498322
-0.20223042 -0.13250206 2.2121305
-0.40872496 -0.30076441 1.9913243
-0.74746448 -0.55513149 2.586129
-0.69548219 -0.5195049 1.8587458
-0.78609031 -0.58905882 1.6769315
-0.90318173 -0.67848074 1.5705789
-0.91109073 -0.68564636 1.3144246
-0.9042505 -0.68519807 1.1946975
-0.87382835 -0.6628558 0.96676093
-0.86423588 -0.65628022 0.7960853
-0.86173153 -0.65484327 0.65310073
-0.84200478 -0.64030766 0.51570243
-0.83628178 -0.63640696 0.39883706
-0.84022522 -0.63986462 0.29198545
-0.81973797 -0.62470561 0.18547413
-0.88461703 -0.66837376 1.0686415
-0.86603755 -0.65503711 0.8742075
-0.86073941 -0.65149301 0.71996522
-0.85820782 -0.65027434 0.58521426
-0.84331191 -0.63944197 0.45748553
-0.82874775 -0.62884527 0.34162897
-0.82034272 -0.62268704 0.23585941
-0.81933492 -0.62236333 0.13518077
-0.02959107 -0.011632957 2.164191
-0.26757324 -0.19213384 2.0946693
-0.34296679 -0.24937831 2.0621514
-0.48770306 -0.35942715 1.9839755
-0.72722065 -0.53968012 2.1930211
-0.74344945 -0.55409586 1.7665092
-0.82774812 -0.61867785 1.5903975
-0.92250687 -0.6909734 1.4565841
-0.1443295 -0.086981505 2.7548239
-0.19820954 -0.12891008 2.1624155
-0.40875703 -0.29859492 1.9864849
-0.74523026 -0.54944766 2.5720506
-0.69729137 -0.51707405 1.8587458
-0.78814179 -0.58631128 1.6769315
-0.90796018 -0.67712516 1.574569
-0.91076255 -0.68043303 1.3107494
-0.90378672 -0.67989373 1.191193
-0.8730275 -0.65746021 0.96362251
-0.86318249 -0.65074247 0.79334384
-0.86047566 -0.64916354 0.65078193
-0.84423476 -0.63736463 0.51570243
-0.8346706 -0.63059235 0.39742702
-0.83853519 -0.63396537 0.29105285
-0.8219136 -0.62184042 0.18547413
-0.88694471 -0.66528177 1.0686415
-0.8683188 -0.65201014 0.8742075
-0.85956204 -0.645895 0.71743202
-0.8568455 -0.64454651 0.58311623
-0.84553885 -0.6364944 0.45748553
-0.8309378 -0.62594861 0.34162897
-0.81855643 -0.61683941 0.23516873
-0.82150245 -0.6194995 0.13518077
-0.029588342 -0.011523154 2.1591914
-0.26444262 -0.18849742 2.0650339
-0.34383518 -0.24817963 2.0621514
-0.48895469 -0.35772252 1.9839755
-0.71651542 -0.5278703 2.1562009
-0.74537909 -0.5514974 1.7665092
-0.82990265 -0.6157847 1.5903975
-0.92234099 -0.68583667 1.4527465
-0.14463225 -0.086477168 2.7548239
-0.19641219 -0.12678263 2.1375582
-0.4097968 -0.29716626 1.9864849
-0.75271451 -0.5509187 2.5908215
-0.69909209 -0.51463687 1.8587458
-0.78808546 -0.58200747 1.6726656
-0.91031832 -0.67395163 1.574569
-0.91040903 -0.67523032 1.3070743
-0.90329707 -0.67460096 1.1876884
-0.87219965 -0.65207821 0.96048403
-0.86544871 -0.64772546 0.79334384
-0.86273646 -0.64615601 0.65078193
-0.84274465 -0.63163358 0.51382935
-0.83302903 -0.62479669 0.39601701
-0.84074306 -0.63103449 0.29105285
-0.82009733 -0.61597687 0.18502705
-0.8892616 -0.66218174 1.0686415
-0.86734867 -0.64655954 0.87126434
-0.86181134 -0.64289069 0.71743202
-0.85545367 -0.63883615 0.58101815
-0.84397274 -0.63071233 0.45584202
-0.82922512 -0.62013328 0.34045666
-0.81673938 -0.61101198 0.23447806
-0.8236599 -0.61662817 0.13518077
-0.029628385 -0.0114198 2.1591914
-0.26636869 -0.18846917 2.0749123
-0.34387127 -0.24638546 2.057256
-0.49140853 -0.35689038 1.9887476
-0.70573664 -0.51614183 2.1193807
-0.74729967 -0.5488922 1.7665092
-0.82978129 -0.61121535 1.5862645
-0.92215061 -0.68070954 1.448909
-0.14518298 -0.086116552 2.7598155
-0.19550288 -0.12524006 2.1226435
-0.41083163 -0.29573399 1.9864849
-0.7448591 -0.54118937 2.5579724
-0.70088422 -0.51219344 1.8587458
-0.78800875 -0.57771122 1.6683997
-0.91266531 -0.67076987 1.574569
-0.91003036 -0.67003834 1.3033991
-0.90278143 -0.66931999 1.1841838
-0.87134492 -0.6467101 0.9573456
-0.86434805 -0.64220691 0.79060239
-0.86143172 -0.64049751 0.64846313
-0.84494436 -0.62868792 0.51382935
-0.83135724 -0.61902016 0.39460698
-0.8390016 -0.62516087 0.29012021
-0.81825018 -0.61013359 0.18457997
-0.89156765 -0.65907359 1.0686415
-0.86635107 -0.64112371 0.86832118
-0.86058581 -0.63731307 0.71489882
-0.85403246 -0.63314337 0.57892013
-0.84616917 -0.62776244 0.45584202
-0.8274821 -0.61433768 0.33928433
-0.81489158 -0.60520476 0.23378737
-0.82580727 -0.61374927 0.13518077
-0.029668067 -0.011316308 2.1591914
-0.26638854 -0.18709245 2.0699732
-0.34389904 -0.2445941 2.052361
-0.49386242 -0.3560454 1.9935197
-0.69172251 -0.50220013 2.0733554
-0.74727571 -0.54486948 1.7621201
-0.83190978 -0.60831511 1.5862645
-0.9219355 -0.67559206 1.4450716
-0.14573297 -0.085753158 2.7648072
-0.19278032 -0.12257016 2.0878429
-0.41288447 -0.29502839 1.9913243
-0.7341454 -0.52950317 2.5157373
-0.70266783 -0.50974375 1.8587458
-0.79002053 -0.57495701 1.6683997
-0.91500115 -0.66758001 1.574569
-0.9096266 -0.66485739 1.299724
-0.89936775 -0.66193706 1.1771748
-0.87046331 -0.64135593 0.95420712
-0.86321926 -0.63670385 0.78786093
-0.86009812 -0.63485605 0.64614433
-0.84713376 -0.62573475 0.51382935
-0.83351296 -0.61611444 0.39460698
-0.83722943 -0.61930716 0.28918761
-0.82037503 -0.60727364 0.18457997
-0.89085251 -0.65374857 1.065316
-0.86858368 -0.63809568 0.86832118
-0.86280519 -0.63430518 0.71489882
-0.85258192 -0.62746823 0.57682204
-0.84835535 -0.62480491 0.45584202
-0.82962155 -0.61144555 0.33928433
-0.81301337 -0.59941798 0.23309669
-0.82392448 -0.60789686 0.13497925
-0.029707387 -0.011212679 2.1591914
-0.26704001 -0.18616146 2.0699732
-0.34391853 -0.24280553 2.0474656
-0.49631643 -0.35518765 1.9982916
-0.68713075 -0.49521464 2.0549452
-0.74917316 -0.54225767 1.7621201
-0.83402812 -0.60540754 1.5862645
-0.92169613 -0.67048448 1.441234
-0.14603141 -0.085243933 2.7648072
-0.193207 -0.12189648 2.0878429
-0.41391179 -0.29358536 1.9913243
-0.71072948 -0.50885981 2.4312677
-0.70444286 -0.50728792 1.8587458
-0.78990847 -0.57066876 1.6641337
-0.91488528 -0.6626147 1.5705789
-0.90645367 -0.6576966 1.2923737
-0.89879322 -0.65668994 1.1736702
-0.87269676 -0.63831353 0.95420712
-0.86206269 -0.63121665 0.78511947
-0.85873562 -0.62923169 0.64382553
-0.8455742 -0.62003255 0.51195633
-0.83179098 -0.61036336 0.39319694
-0.83542675 -0.61347353 0.28825498
-0.8184768 -0.60145736 0.18413289
-0.89011109 -0.64843661 1.0619905
-0.86753994 -0.63267833 0.86537802
-0.86153185 -0.62874842 0.71236569
-0.85476702 -0.62448835 0.57682204
-0.8505311 -0.62183976 0.45584202
-0.82782799 -0.60567588 0.33811203
-0.8111046 -0.59365165 0.23240602
-0.8260414 -0.60501713 0.13497925
-0.029746346 -0.011108913 2.1591914
-0.26768818 -0.18522817 2.0699732
-0.34476396 -0.24160357 2.0474656
-0.49877042 -0.35431704 2.0030637
-0.67932051 -0.48599446 2.0273302
-0.75106144 -0.53963929 1.7621201
-0.83613628 -0.60249257 1.5862645
-0.91883355 -0.66351044 1.4335591
-0.14657936 -0.08487583 2.7697988
-0.19453768 -0.12178263 2.0977859
-0.41493407 -0.29213876 1.9913243
-0.68577188 -0.48738709 2.3421052
-0.70620936 -0.50482583 1.8587458
-0.79189563 -0.56790799 1.6641337
-0.91719264 -0.65941709 1.5705789
-0.90599293 -0.6525473 1.2886984
-0.898193 -0.65145487 1.1701657
-0.87176985 -0.63297665 0.95106864
-0.86426079 -0.62820369 0.78511947
-0.85734439 -0.62362468 0.64150673
-0.84773332 -0.61707723 0.51195633
-0.83391649 -0.60745615 0.39319694
-0.83359349 -0.60765994 0.28732237
-0.8205713 -0.59859669 0.18413289
-0.8893435 -0.64313775 1.058665
-0.86646891 -0.62727606 0.86243486
-0.86372131 -0.62573731 0.71236569
-0.85326761 -0.6188364 0.57472402
-0.8526966 -0.6188671 0.45584202
-0.82993716 -0.60278249 0.33811203
-0.81317186 -0.59081674 0.23240602
-0.82410753 -0.59919202 0.13477771
-0.02974168 -0.010999323 2.1541915
-0.26833314 -0.18429263 2.0699732
-0.34476894 -0.23981781 2.0425704
-0.5012244 -0.35343367 2.0078354
-0.67941976 -0.48248935 2.0227277
-0.75099051 -0.53562391 1.757731
-0.84052312 -0.60120708 1.5903975
-0.91853881 -0.65843189 1.4297215
-0.14687473 -0.084363654 2.7697988
-0.19541578 -0.1213819 2.1027575
-0.41595128 -0.29068857 1.9913243
-0.67054546 -0.47305647 2.2857919
-0.70619166 -0.50109816 1.8542446
-0.7917484 -0.56362808 1.6598678
-0.91948891 -0.6562115 1.5705789
-0.9027493 -0.64543766 1.2813481
-0.89756721 -0.64623207 1.1666611
-0.87397403 -0.62992978 0.95106864
-0.86305743 -0.62273645 0.78237802
-0.85592449 -0.61803502 0.63918799
-0.84612453 -0.61139923 0.51008332
-0.8321445 -0.60173064 0.3917869
-0.83172989 -0.60186672 0.28638974
-0.8226558 -0.5957287 0.18413289
-0.88854963 -0.63785225 1.0553395
-0.86537075 -0.62188905 0.85949171
-0.86240041 -0.62020171 0.70983243
-0.85173917 -0.61320257 0.57262594
-0.8548516 -0.61588687 0.45584202
-0.8320362 -0.59988177 0.33811203
-0.81522924 -0.58797467 0.23240602
-0.82619411 -0.59631169 0.13477771
-0.029779894 -0.010895438 2.1541915
-0.26897481 -0.18335487 2.0699732
-0.34560394 -0.23861289 2.0425704
-0.50245506 -0.35168189 2.0078354
-0.67790586 -0.47786421 2.0135226
-0.7528556 -0.53299916 1.757731
-0.84261662 -0.5982694 1.5903975
-0.91560817 -0.65150535 1.4220465
-0.14716832 -0.083850451 2.7697988
-0.19629341 -0.12097653 2.107729
-0.41799662 -0.28995079 1.9961637
-0.67926139 -0.47566074 2.3092556
-0.70793647 -0.49863005 1.8542446
-0.79158092 -0.55935609 1.6556019
-0.91931498 -0.65125626 1.5665889
-0.89946729 -0.63835871 1.2739978
-0.89691597 -0.64102149 1.1631566
-0.87300187 -0.62461042 0.94793022
-0.86522597 -0.61972004 0.78237802
-0.85807663 -0.61504358 0.63918799
-0.84825355 -0.60844195 0.51008332
-0.83423984 -0.5988223 0.3917869
-0.82983607 -0.59609401 0.28545713
-0.82473022 -0.59285349 0.18413289
-0.88772994 -0.6325801 1.052014
-0.86753631 -0.6188646 0.85949171
-0.86105144 -0.61468309 0.70729923
-0.85387444 -0.61022568 0.57262594
-0.85699624 -0.61289912 0.45584202
-0.83017242 -0.594145 0.33693972
-0.81727672 -0.58512539 0.23240602
-0.82420939 -0.59051448 0.13457619
-0.029817745 -0.010791421 2.1541915
-0.26961318 -0.18241484 2.0699732
-0.34559444 -0.2368301 2.0376751
-0.50490582 -0.35077715 2.0126076
-0.6779688 -0.47437516 2.00892
-0.75275177 -0.52899116 1.7533419
-0.84700024 -0.59694546 1.5945303
-0.91525847 -0.6464563 1.418209
-0.14746012 -0.083336227 2.7697988
-0.19717062 -0.1205665 2.1127005
-0.4190062 -0.28848994 1.9961637
-0.69367254 -0.48214835 2.3514905
-0.70967275 -0.49615583 1.8542446
-0.79352862 -0.55658954 1.6556019
-0.91911769 -0.64631021 1.5625988
-0.89891845 -0.63326281 1.2703226
-0.89623934 -0.63582349 1.1596521
-0.87200332 -0.61930567 0.94479173
-0.86397582 -0.61427319 0.77963656
-0.85660887 -0.60947663 0.63686919
-0.8465957 -0.60278851 0.5082103
-0.83241826 -0.59312296 0.39037687
-0.8319118 -0.59319371 0.28545713
-0.82679468 -0.58997101 0.18413289
-0.88688421 -0.62732148 1.0486885
-0.86639243 -0.61349678 0.85654855
-0.86319184 -0.61167371 0.70729923
-0.85229766 -0.60461557 0.57052791
-0.85527986 -0.60717046 0.45419851
-0.83224136 -0.59124351 0.33693972
-0.81527764 -0.57940036 0.23171534
-0.82626563 -0.58763379 0.13457619
-0.029811919 -0.010682037 2.1491919
-0.27089387 -0.18190496 2.0749123
-0.34557664 -0.23505028 2.0327799
-0.50489795 -0.34816557 2.0078354
-0.67801577 -0.47089165 2.0043178
-0.75459373 -0.52636033 1.7533419
-0.84907877 -0.5939852 1.5945303
-0.91488492 -0.64141774 1.4143715
-0.14775011 -0.082820982 2.7697988
-0.19759026 -0.11987751 2.1127005
-0.42001066 -0.28702557 1.9961637
-0.70671636 -0.48756135 2.3890326
-0.71140033 -0.49367562 1.8542446
-0.79332608 -0.55232626 1.651336
-0.91889709 -0.64137346 1.5586089
-0.89556664 -0.62623596 1.2629722
-0.8984533 -0.63269114 1.1596521
-0.87097842 -0.61401546 0.94165331
-0.8661148 -0.61125362 0.77963656
-0.85873109 -0.6064828 0.63686919
-0.84490877 -0.59715402 0.50633723
-0.8344835 -0.59021366 0.39037687
-0.8299678 -0.5874483 0.2845245
-0.82478523 -0.584203 0.18368581
-0.88601273 -0.62207657 1.0453631
-0.86852866 -0.6104688 0.85654855
-0.86179578 -0.60617697 0.70476609
-0.85069203 -0.59902394 0.56842989
-0.85353398 -0.60146129 0.452555
-0.83032775 -0.58553368 0.33576739
-0.81729513 -0.57655096 0.23171534
-0.82423037 -0.58186477 0.13437465
-0.029849024 -0.010577909 2.1491919
-0.27152717 -0.18095824 2.0749123
-0.34639502 -0.23384254 2.0327799
-0.50611025 -0.34640104 2.0078354
-0.67804658 -0.46741349 1.999715
-0.75445718 -0.52236003 1.7489529
-0.851147 -0.59101778 1.5945303
-0.91448724 -0.63638961 1.4105339
-0.14803831 -0.082304738 2.7697988
-0.19800751 -0.11918706 2.1127005
-0.42100999 -0.28555772 1.9961637
-0.70698994 -0.48411679 2.38434
-0.71132624 -0.48995474 1.8497434
-0.79524922 -0.54955369 1.651336
-0.91865325 -0.63644624 1.5546188
-0.89496201 -0.6211732 1.2592971
-0.89773327 -0.62750816 1.1561475
-0.86992723 -0.60874003 0.93851483
-0.86481839 -0.60582763 0.77689505
-0.85721558 -0.6009388 0.63455039
-0.84698808 -0.59420115 0.50633723
-0.83261257 -0.58454096 0.38896683
-0.83201325 -0.58454758 0.2845245
-0.82274556 -0.57845622 0.18323873
-0.88817883 -0.61897999 1.0453631
-0.86733925 -0.60512072 0.85360539
-0.86037177 -0.60069734 0.7022329
-0.84905785 -0.59345084 0.5663318
-0.8517586 -0.59577167 0.45091146
-0.82838452 -0.57984453 0.33459508
-0.81524616 -0.57085419 0.23102465
-0.82625645 -0.57898414 0.13437465
-0.029842412 -0.01046872 2.144192
-0.27280581 -0.18043721 2.0798516
-0.34636283 -0.23206583 2.0278847
-0.50484633 -0.3429555 1.9982916
-0.67806154 -0.46394095 1.9951127
-0.75627601 -0.5197233 1.7489529
-0.85320485 -0.58804309 1.5945303
-0.91406578 -0.63137221 1.4066964
-0.14832471 -0.081787482 2.7697988
-0.19842234 -0.11849515 2.1127005
-0.42200422 -0.28408638 1.9961637
-0.70011085 -0.4758276 2.3561833
-0.71303213 -0.48746875 1.8497434
-0.79501182 -0.54529941 1.6470701
-0.91838628 -0.6315285 1.5506288
-0.89433295 -0.61612225 1.2556219
-0.89698803 -0.62233788 1.152643
-0.86884993 -0.60347944 0.93537635
-0.86692792 -0.6028052 0.77689505
-0.859308 -0.59794295 0.63455039
-0.84525269 -0.58859193 0.50446421
-0.83464795 -0.581631 0.38896683
-0.83001947 -0.57883 0.2835919
-0.82067585 -0.57273072 0.18279165
-0.88726324 -0.61375195 1.0420375
-0.86944622 -0.60208941 0.85360539
-0.85892016 -0.59523517 0.6996997
-0.84739512 -0.58789653 0.56423378
-0.84995407 -0.59010196 0.44926795
-0.82641172 -0.57417607 0.33342275
-0.81316751 -0.56517875 0.23033397
-0.82417101 -0.57324374 0.13417313
-0.029878771 -0.010364487 2.144192
-0.27408409 -0.17990938 2.0847909
-0.3471708 -0.23085539 2.0278847
-0.50480241 -0.34035712 1.9935197
-0.67644405 -0.45937666 1.9859076
-0.75610685 -0.51573098 1.7445638
-0.85525233 -0.58506131 1.5945303
-0.91362029 -0.62636536 1.402859
-0.14886397 -0.081405215 2.7747905
-0.19929466 -0.11807131 2.117672
-0.4229933 -0.28261158 1.9961637
-0.69461346 -0.46855724 2.3327196
-0.71292782 -0.48375478 1.8452421
-0.79691041 -0.542521 1.6470701
-0.91809624 -0.62662041 1.5466388
-0.89367956 -0.61108333 1.2519468
-0.8962177 -0.61718059 1.1491385
-0.87095118 -0.60044289 0.93537635
-0.86558533 -0.59740037 0.77415359
-0.85774493 -0.59242243 0.63223159
-0.84730214 -0.58563787 0.50446421
-0.83272785 -0.57598519 0.38755682
-0.83203483 -0.57592916 0.2835919
-0.81857628 -0.56702685 0.18234457
-0.88632202 -0.60853791 1.038712
-0.86821157 -0.59676152 0.85066223
-0.86099273 -0.59223336 0.6996997
-0.84944212 -0.58493501 0.56423378
-0.8520087 -0.58713144 0.44926795
-0.82440948 -0.56852853 0.33225045
-0.81513536 -0.5623368 0.23033397
-0.82616699 -0.57036334 0.13417313
-0.02987138 -0.010255499 2.1391919
-0.27471042 -0.17895155 2.0847909
-0.34797451 -0.22964212 2.0278847
-0.50350565 -0.33693346 1.9839755
-0.67642319 -0.45592102 1.9813049
-0.75790244 -0.51308846 1.7445638
-0.85728937 -0.58207232 1.5945303
-0.91315114 -0.62136942 1.3990214
-0.14914721 -0.08088509 2.7747905
-0.20016645 -0.11764283 2.1226435
-0.42397723 -0.28113335 1.9961637
-0.68907386 -0.46133101 2.3092556
-0.71461213 -0.48126328 1.8452421
-0.79879934 -0.53973597 1.6470701
-0.91778308 -0.62172204 1.5426488
-0.89300197 -0.60605651 1.2482716
-0.89247793 -0.61002392 1.1421293
-0.86982936 -0.59520113 0.93223786
-0.86421555 -0.59201229 0.77141213
-0.85615391 -0.58692008 0.62991279
-0.84551835 -0.58005416 0.50259119
-0.83473325 -0.57307494 0.38755682
-0.8299914 -0.57023966 0.28265926
-0.82055062 -0.56416601 0.18234457
-0.88844079 -0.60544032 1.038712
-0.86695021 -0.59144944 0.84771907
-0.85949439 -0.58679378 0.69716656
-0.84773165 -0.57940543 0.5621357
-0.85015523 -0.58148795 0.44762444
-0.82237792 -0.56290191 0.33107814
-0.81300735 -0.55669028 0.22964329
-0.82403165 -0.56465209 0.13397159
-0.029863596 -0.010146688 2.1341922
-0.27663949 -0.17883359 2.0946693
-0.34962621 -0.22898331 2.0327799
-0.50094748 -0.33269763 1.9696596
-0.67638648 -0.45247108 1.9767023
-0.7577008 -0.50910437 1.7401747
-0.85931593 -0.57907629 1.5945303
-0.91265821 -0.61638439 1.3951839
-0.14968425 -0.080498174 2.7797823
-0.20103766 -0.11720968 2.127615
-0.42495596 -0.27965164 1.9961637
-0.682055 -0.45319459 2.2810991
-0.7144776 -0.47755644 1.840741
-0.80067849 -0.53694433 1.6470701
-0.91994762 -0.61851454 1.5426488
-0.89230013 -0.60104185 1.2445965
-0.89165056 -0.60490286 1.1386248
-0.86868167 -0.58997452 0.92909944
-0.8628189 -0.58664113 0.76867068
-0.85453486 -0.5814361 0.62759399
-0.84753793 -0.57709926 0.50259119
-0.83672857 -0.57015765 0.38755682
-0.83197683 -0.567339 0.28265926
-0.81840152 -0.55849129 0.18189749
-0.88745594 -0.60024375 1.0353866
-0.86566246 -0.58615345 0.84477592
-0.8615374 -0.58379006 0.69716656
-0.84974903 -0.57644278 0.5621357
-0.85217983 -0.57851678 0.44762444
-0.82031727 -0.55729645 0.32990581
-0.81494558 -0.55384892 0.22964329
-0.82599765 -0.56177223 0.13397159
-0.029855413 -0.010038056 2.1291924
-0.28053463 -0.17996053 2.1193657
-0.35042337 -0.22776149 2.0327799
-0.5033524 -0.33176804 1.9744316
-0.67633396 -0.44902703 1.9720999
-0.75947326 -0.50645638 1.7401747
-0.8636713 -0.57763737 1.5986633
-0.91214174 -0.61141044 1.3913465
-0.14996433 -0.079975188 2.7797823
-0.20190829 -0.11677189 2.1325865
-0.42698228 -0.27885339 2.0010033
-0.69227779 -0.45650914 2.3092556
-0.71614027 -0.47505951 1.840741
-0.80037659 -0.53270143 1.642804
-0.91959453 -0.61362731 1.5386587
-0.89439273 -0.59792352 1.2445965
-0.89079833 -0.59979516 1.1351203
-0.86750817 -0.58476323 0.92596096
-0.86139518 -0.58128685 0.76592922
-0.85655928 -0.57844967 0.62759399
-0.84570605 -0.57154143 0.50071812
-0.8347401 -0.56454611 0.38614678
-0.82988399 -0.56167805 0.28172666
-0.81622279 -0.55283844 0.18145041
-0.88644558 -0.59506142 1.032061
-0.8677032 -0.58312821 0.84477592
-0.85999292 -0.57837361 0.69463336
-0.85175604 -0.57347316 0.5621357
-0.85419399 -0.57553858 0.44762444
-0.82225758 -0.55442965 0.32990581
-0.81687391 -0.55100089 0.22964329
-0.82381272 -0.55609035 0.13377006
-0.029846838 -0.0099296058 2.1241927
-0.28706485 -0.18272829 2.1638191
-0.35121629 -0.2265369 2.0327799
-0.50825584 -0.33245909 1.9887476
-0.6746341 -0.44451427 1.9628948
-0.75923908 -0.50248069 1.7357856
-0.86568236 -0.57461905 1.5986633
-0.91160154 -0.60644758 1.387509
-0.15024258 -0.079451226 2.7797823
-0.20277831 -0.11632945 2.1375582
-0.42795306 -0.27736124 2.0010033
-0.7140851 -0.4673152 2.3749542
-0.7159757 -0.47136006 1.8362398
-0.80223119 -0.52990431 1.642804
-0.91921848 -0.60874993 1.5346687
-0.89364934 -0.5929237 1.2409213
-0.88992131 -0.59470069 1.1316158
-0.86954403 -0.5817315 0.92596096
-0.863419 -0.57827652 0.76592922
-0.85489339 -0.57299 0.62527519
-0.84769589 -0.56858587 0.50071812
-0.83670563 -0.56162888 0.38614678
-0.83183956 -0.55877781 0.28172666
-0.81814754 -0.54998589 0.18145041
-0.88540995 -0.58989352 1.0287355
-0.86637062 -0.57785308 0.84183276
-0.85842097 -0.57297504 0.69210023
-0.85375261 -0.57049644 0.5621357
-0.85227239 -0.56992853 0.44598094
-0.82418787 -0.55155605 0.32990581
-0.82290739 -0.55090088 0.23033397
-0.82159829 -0.55043066 0.13356853
-0.029837869 -0.0098213376 2.1191928
-0.29296029 -0.1850384 2.2033331
-0.35286289 -0.22585784 2.0376751
-0.51442248 -0.33393222 2.0078354
-0.67454636 -0.44108775 1.9582922
-0.76098847 -0.49982741 1.7357856
-0.86768287 -0.57159382 1.5986633
-0.91371286 -0.60326183 1.387509
-0.15051901 -0.078926295 2.7797823
-0.20411222 -0.11614379 2.1475012
-0.42997617 -0.27654517 2.0058427
-0.7359761 -0.47797436 2.4406531
-0.71761668 -0.46885797 1.8362398
-0.80189472 -0.52567124 1.6385381
-0.91881955 -0.60388279 1.5306787
-0.89288211 -0.58793652 1.2372462
-0.88604754 -0.58764875 1.1246065
-0.86832666 -0.57653987 0.92282254
-0.86194992 -0.57294452 0.76318777
-0.85688829 -0.57000238 0.62527519
-0.84581643 -0.56305462 0.49884507
-0.8346687 -0.55604529 0.38473675
-0.833785 -0.55587077 0.28172666
-0.81591976 -0.5443629 0.18100333
-0.88434899 -0.58473998 1.0254101
-0.86838245 -0.57482541 0.84183276
-0.86041582 -0.56997514 0.69210023
-0.85573882 -0.56751281 0.5621357
-0.85032213 -0.56433898 0.44433743
-0.82205915 -0.54598659 0.3287335
-0.82482535 -0.54802507 0.23033397
-0.81935436 -0.54479325 0.133367
-0.029828511 -0.009713253 2.114193
-0.30085188 -0.18854514 2.2576652
-0.35364914 -0.22462474 2.0376751
-0.52311581 -0.33698222 2.0364673
-0.67444289 -0.43766728 1.9536898
-0.76072198 -0.49586046 1.7313966
-0.86967283 -0.56856149 1.5986633
-0.91313201 -0.59831226 1.3836714
-0.1507936 -0.078400403 2.7797823
-0.20498182 -0.1156904 2.1524725
-0.43199873 -0.27571833 2.0106821
-0.74344289 -0.47914064 2.4594243
-0.71742213 -0.46516609 1.8317386
-0.80372477 -0.52286887 1.6385381
-0.9183979 -0.59902585 1.5266887
-0.89492893 -0.58481616 1.2372462
-0.88511443 -0.58259177 1.121102
-0.87033385 -0.57350528 0.92282254
-0.86394465 -0.56993228 0.76318777
-0.85517585 -0.56456739 0.6229564
-0.84777671 -0.56009865 0.49884507
-0.8366046 -0.55312836 0.38473675
-0.8357203 -0.55295694 0.28172666
-0.81366277 -0.53876209 0.18055625
-0.88326293 -0.57960123 1.0220846
-0.86700541 -0.56957155 0.8388896
-0.85879791 -0.56460023 0.68956703
-0.85771459 -0.56452227 0.5621357
-0.84834313 -0.55876994 0.44269392
-0.82396001 -0.54311371 0.3287335
-0.82673329 -0.54514259 0.23033397
-0.81708115 -0.53917825 0.13316546
-0.02981876 -0.0096053537 2.1091931
-0.30414939 -0.18913206 2.2774222
-0.35443106 -0.22338891 2.0376751
-0.52554685 -0.33595777 2.0412395
-0.6743238 -0.43425292 1.9490871
-0.76043713 -0.49190149 1.7270075
-0.87165219 -0.56552237 1.5986633
-0.91252768 -0.59337401 1.3798339
-0.15080842 -0.077743851 2.7747905
-0.20631713 -0.11549055 2.1624155
-0.43402082 -0.27488074 2.0155215
-0.74511087 -0.47654262 2.4594243
-0.71904153 -0.46265897 1.8317386
-0.80335385 -0.51864588 1.6342722
-0.91795367 -0.59417921 1.5226986
-0.8941204 -0.5798443 1.2335709
-0.88415682 -0.57754844 1.1175975
-0.86907279 -0.56833363 0.91968405
-0.86243033 -0.56462276 0.76044625
-0.85714132 -0.56157881 0.6229564
-0.84972662 -0.557136 0.49884507
-0.83451939 -0.54757309 0.38332671
-0.83764541 -0.55003637 0.28172666
-0.81553841 -0.53591859 0.18055625
-0.88528073 -0.57651454 1.0220846
-0.8656022 -0.56433427 0.83594644
-0.85715312 -0.55924368 0.68703383
-0.85588008 -0.55904305 0.56003767
-0.85028845 -0.55580521 0.44269392
-0.82585078 -0.54023427 0.3287335
-0.82448745 -0.53954184 0.22964329
-0.81895828 -0.53632277 0.13316546
-0.02980862 -0.0094976407 2.1041934
-0.31142494 -0.19214174 2.3268147
-0.35607237 -0.22268963 2.0425704
-0.52545565 -0.33332199 2.0364673
-0.67418915 -0.43084478 1.9444848
-0.76214951 -0.48924407 1.7270075
-0.87362093 -0.56247628 1.5986633
-0.9119001 -0.58844739 1.3759965
-0.15107889 -0.077216953 2.7747905
-0.20671901 -0.11476967 2.1624155
-0.43817139 -0.27536902 2.0300398
-0.7423982 -0.47116554 2.4453459
-0.71881711 -0.45897499 1.8272374
-0.80515933 -0.5158385 1.6342722
-0.91748673 -0.58934301 1.5187087
-0.89328796 -0.57488519 1.2298958
-0.88317478 -0.57251889 1.1140929
-0.87105131 -0.56529653 0.91968405
-0.86439598 -0.56160891 0.76044625
-0.85538256 -0.55616885 0.6206376
-0.84778035 -0.55163819 0.49697205
-0.83240581 -0.54203916 0.38191667
-0.83956021 -0.54710907 0.28172666
-0.81323278 -0.53034824 0.18010917
-0.88415176 -0.57139438 1.018759
-0.86756682 -0.56130934 0.83594644
-0.85548139 -0.55390543 0.68450069
-0.85401785 -0.55358356 0.55793959
-0.84826171 -0.550264 0.44105041
-0.82773155 -0.53734827 0.3287335
-0.82221264 -0.5339635 0.2289526
-0.81663638 -0.53073841 0.13296394
-0.029754594 -0.0093866996 2.0941939
-0.31209373 -0.19105351 2.3268147
-0.36377195 -0.22573532 2.0817323
-0.52408892 -0.3298963 2.0269234
-0.67403883 -0.42744276 1.9398822
-0.76183254 -0.48529422 1.7226183
-0.875579 -0.55942333 1.5986633
-0.91124928 -0.58353233 1.3721589
-0.1510887 -0.076561205 2.7697988
-0.21039543 -0.11583186 2.1972163
-0.4423306 -0.27583161 2.044558
-0.73527586 -0.46305534 2.4171894
-0.72041488 -0.45646307 1.8272374
-0.80475396 -0.51162583 1.6300063
-0.91699719 -0.58451736 1.5147187
-0.89243197 -0.56993902 1.2262206
-0.8851679 -0.56943256 1.1140929
-0.86974686 -0.5601452 0.91654563
-0.86283672 -0.55632252 0.75770479
-0.8573187 -0.55317962 0.6206376
-0.84970075 -0.54867554 0.49697205
-0.83026373 -0.53652674 0.38050666
-0.83734 -0.5415076 0.28079402
-0.81507915 -0.52750629 0.18010917
-0.88299781 -0.56628913 1.0154335
-0.8661195 -0.55609387 0.83300328
-0.85378295 -0.54858577 0.6819675
-0.85212791 -0.5481438 0.55584157
-0.84620672 -0.54474372 0.4394069
-0.82551605 -0.53182334 0.32756117
-0.81990898 -0.52840751 0.22826193
-0.81848407 -0.5278846 0.13296394
-0.02970016 -0.0092762513 2.0841942
-0.31342325 -0.19036554 2.3317537
-0.36802739 -0.22659706 2.1013131
-0.52397102 -0.32727453 2.0221515
-0.67552674 -0.42508736 1.9398822
-0.76352185 -0.48263192 1.7226183
-0.87752646 -0.55636358 1.5986633
-0.90786999 -0.57691026 1.364484
-0.15135503 -0.076033346 2.7697988
-0.20986038 -0.11459015 2.1872733
-0.44970599 -0.27825114 2.0735946
-0.73542416 -0.45957172 2.4124966
-0.72016066 -0.45278713 1.8227361
-0.80653495 -0.50881356 1.6300063
-0.91648531 -0.57970232 1.5107286
-0.89155233 -0.56500584 1.2225455
-0.88715017 -0.56633925 1.1140929
-0.87169683 -0.55710578 0.91654563
-0.86125106 -0.5510537 0.75496328
-0.85551387 -0.54779506 0.6183188
-0.85161084 -0.54570615 0.49697205
-0.82809335 -0.53103584 0.37909663
-0.83922511 -0.53858149 0.28079402
-0.81272531 -0.52196681 0.17966209
-0.88496917 -0.56320345 1.0154335
-0.86805534 -0.55306715 0.83300328
-0.85569268 -0.5456022 0.6819675
-0.85021049 -0.54272413 0.55374348
-0.84412354 -0.53924453 0.43776339
-0.82736742 -0.52893847 0.32756117
-0.82174844 -0.52554238 0.22826193
-0.82032168 -0.52502429 0.13296394
-0.029688835 -0.00916941 2.0791943
-0.31475183 -0.18967065 2.336693
-0.37316254 -0.227962 2.1257894
-0.5225721 -0.3238717 2.0126076
-0.67534924 -0.42169234 1.9352797
-0.76520193 -0.47996381 1.7226183
-0.8770811 -0.55179882 1.5945303
-0.90716678 -0.57202822 1.3606465
-0.15135981 -0.075378448 2.7648072
-0.21495827 -0.1163734 2.2369881
-0.46567577 -0.28587967 2.1413465
-0.71942234 -0.44609264 2.3561833
-0.72173685 -0.4502705 1.8227361
-0.80609536 -0.50461161 1.6257404
-0.91595095 -0.57489794 1.5067385
-0.8935191 -0.5618903 1.2225455
-0.88912165 -0.5632391 1.1140929
-0.87034905 -0.55197513 0.91340715
-0.86316931 -0.54804409 0.75496328
-0.8574208 -0.54480535 0.6183188
-0.85351056 -0.54273015 0.49697205
-0.82994199 -0.52814198 0.37909663
-0.83695656 -0.53301013 0.27986142
-0.81454229 -0.51912671 0.17966209
-0.88377273 -0.55811739 1.0121081
-0.86656404 -0.54787391 0.83006012
-0.85394901 -0.54030716 0.6794343
-0.84826565 -0.53732455 0.55164546
-0.84600073 -0.53629464 0.43776339
-0.8251043 -0.52344346 0.32638884
-0.81939673 -0.52001727 0.22757125
-0.8221494 -0.52215767 0.13296394
-0.029633597 -0.0090598008 2.0691948
-0.30873856 -0.18459107 2.2873006
-0.37744048 -0.22876664 2.1453702
-0.52242762 -0.32126409 2.0078354
-0.67681706 -0.41933239 1.9352797
-0.76687264 -0.47728986 1.7226183
-0.87900192 -0.54873383 1.5945303
-0.90644079 -0.56715822 1.3568089
-0.151622 -0.074849643 2.7648072
-0.2191295 -0.11762242 2.2767601
-0.48063022 -0.29274654 2.2042592
-0.69451582 -0.42730719 2.2717135
-0.72145301 -0.44660291 1.8182349
-0.80785191 -0.50179464 1.6257404
-0.91283631 -0.56851166 1.4987586
-0.89547503 -0.55876791 1.2225455
-0.89410174 -0.56202978 1.1175975
-0.86897612 -0.54686075 0.91026872
-0.86153924 -0.54279894 0.75222182
-0.85557002 -0.53944659 0.616
-0.85539985 -0.5397476 0.49697205
-0.82772434 -0.52268052 0.37768659
-0.8346594 -0.52746111 0.27892879
-0.81634945 -0.51628029 0.17966209
-0.88255155 -0.55304664 1.0087825
-0.86847121 -0.5448457 0.83006012
-0.85582983 -0.537323 0.6794343
-0.84629345 -0.53194511 0.54954737
-0.84786755 -0.53333837 0.43776339
-0.82281291 -0.51797068 0.32521653
-0.8170166 -0.51451504 0.22688057
-0.81974047 -0.51662093 0.1327624
-0.029621499 -0.0089534959 2.0641949
-0.30536866 -0.1811384 2.2576652
-0.38085559 -0.22902004 2.1600559
-0.52482039 -0.32021558 2.0126076
-0.67661214 -0.41594446 1.9306772
-0.76649612 -0.4733519 1.7182292
-0.88091201 -0.54566216 1.5945303
-0.90841502 -0.56399071 1.3568089
-0.15188237 -0.074319929 2.7648072
-0.22519869 -0.11983715 2.3364182
-0.4956381 -0.29951236 2.2671714
-0.67390656 -0.41139773 2.2013221
-0.72300756 -0.44408187 1.8182349
-0.80959857 -0.49897167 1.6257404
-0.91225183 -0.56373793 1.4947685
-0.89742005 -0.55563867 1.2225455
