# .PCD v0.7 - Point Cloud Data file format
VERSION 0.7
FIELDS x y z
SIZE 4 4 4
TYPE F F F
COUNT 1 1 1
WIDTH 1449
HEIGHT 1
VIEWPOINT 0 0 0 1 0 0 0
POINTS 1449
DATA ascii
-0.18031508 0.15797076 0.96052694
-0.25213307 0.21902151 0.96243173
-1.007476 0.87099189 2.8175044
-0.96339411 0.83026713 2.1504502
-0.92742699 0.79731947 1.6942697
-0.9038828 0.77572489 1.3695521
-0.89866817 0.76609862 1.2402567
-0.87948358 0.74896109 1.0138377
-0.86477023 0.73566282 0.82898289
-0.86173618 0.73257333 0.67860758
-0.84504241 0.71788299 0.53630573
-0.83405286 0.70805568 0.4115274
-0.84282279 0.71500164 0.30131167
-0.8127498 0.68901122 0.18860367
-0.89098525 0.76170588 1.125175
-0.8687554 0.74192619 0.91541177
-0.85719466 0.73154521 0.74783015
-0.85392946 0.72799617 0.60619479
-0.84155911 0.71695262 0.47392058
-0.82544637 0.70273793 0.35217986
-0.81071603 0.68995976 0.24069417
-0.82184237 0.69894469 0.13719608
-0.014136103 0.017120853 1.0242345
-0.12036607 0.10779361 1.0277898
-0.14594276 0.12925249 0.96072519
-0.22114222 0.19352651 0.98663098
-1.0399034 0.90472931 3.3068321
-0.98498333 0.85336363 2.4555948
-0.94381458 0.8154158 1.9045017
-0.91664356 0.7902863 1.5256591
-0.13048743 0.13793406 3.1242065
-0.2138308 0.21100108 2.758996
-0.18070428 0.15943179 0.96536636
-0.25266525 0.22103721 0.96712452
-1.007713 0.87736255 2.8265069
-0.96442908 0.83704436 2.158982
-0.92919403 0.80449694 1.7022496
-0.90629905 0.78330922 1.3769025
-0.89869428 0.77155411 1.2437612
-0.87981832 0.75456047 1.0169762
-0.86537242 0.74139762 0.83172441
-0.85917383 0.73557687 0.67860758
-0.84605396 0.7238422 0.5381788
-0.8352223 0.7140801 0.4129374
-0.84032184 0.71793932 0.30131167
-0.81412715 0.69507766 0.18905075
-0.89115036 0.76724768 1.1285006
-0.86616027 0.74495423 0.91541177
-0.85790497 0.73734283 0.75036329
-0.85482645 0.7339291 0.60829288
-0.84263521 0.72296077 0.47556409
-0.82298827 0.70561504 0.35217986
-0.81206262 0.69600821 0.24138485
-0.81939763 0.70180917 0.13719608
-0.014076253 0.017170094 1.0242345
-0.11998907 0.10821311 1.0277898
-0.14549069 0.12976114 0.96072519
-0.22046533 0.19429727 0.98663098
-1.0411468 0.91221654 3.3206394
-0.98560756 0.85994613 2.4643729
-0.94520807 0.82239985 1.9127675
-0.91871959 0.79768431 1.5333341
-0.13000515 0.13838871 3.1242065
-0.21309295 0.2117462 2.758996
-0.18014665 0.16006158 0.96536636
-0.2531864 0.22305927 0.97181731
-1.0079176 0.88374555 2.8355093
-0.96346492 0.84212226 2.1632481
-0.92865121 0.80971605 1.7062398
-0.90611631 0.78869402 1.3805776
-0.89869314 0.77701902 1.2472657
-0.88012469 0.76017147 1.0201148
-0.86594498 0.74714547 0.83446586
-0.85995579 0.74146426 0.68092638
-0.84352207 0.72679108 0.5381788
-0.83272463 0.71699125 0.4129374
-0.83781064 0.72086817 0.30131167
-0.81547195 0.70116204 0.18949783
-0.89128768 0.77279979 1.131826
-0.86660987 0.75061965 0.91835493
-0.85858524 0.74315435 0.75289649
-0.8522594 0.7369085 0.60829288
-0.84010649 0.72589773 0.47556409
-0.82419914 0.71166021 0.35335216
-0.80962819 0.69883859 0.24138485
-0.82072586 0.7079283 0.13739762
-0.014016233 0.017219124 1.0242345
-0.12018448 0.10915513 1.032729
-0.14503686 0.13026822 0.96072519
-0.21978576 0.19506565 0.98663098
-1.0423504 0.91972357 3.3344471
-0.98799676 0.86812431 2.47754
-0.94444782 0.82754886 1.9169004
-0.92075509 0.80510634 1.5410092
-0.12932625 0.13862881 3.119215
-0.21235253 0.21248876 2.758996
-0.17958684 0.16068943 0.96536636
-0.2536965 0.22508764 0.97651005
-1.00809 0.89014059 2.8445115
-0.9644345 0.84892684 2.1717799
-0.93034732 0.8169294 1.7142198
-0.90590698 0.79408699 1.3842528
-0.89866471 0.78249323 1.2507702
-0.88040251 0.76579362 1.0232532
-0.8664878 0.75290632 0.83720732
-0.85736239 0.7444616 0.68092638
-0.84448141 0.73276949 0.54005182
-0.83384097 0.72303629 0.41434744
-0.83528918 0.72378832 0.30131167
-0.81678414 0.70726424 0.18994491
-0.89139694 0.77836221 1.1351515
-0.86703032 0.75629717 0.92129809
-0.85923535 0.74897945 0.75542969
-0.85310447 0.74285936 0.6103909
-0.84112972 0.73192567 0.4772076
-0.82537764 0.7177223 0.35452449
-0.81092119 0.70490927 0.24207552
-0.81824976 0.71078879 0.13739762
-0.013956042 0.017267944 1.0242345
-0.12037476 0.11009981 1.0376682
-0.14458124 0.13077369 0.96072519
-0.21910353 0.19583164 0.98663098
-1.0420542 0.92595214 3.3436522
-0.98854727 0.87474227 2.4863181
-0.94577312 0.83456475 1.9251662
-0.92034447 0.81043386 1.5448467
-0.12864725 0.13886589 3.1142232
-0.21160951 0.2132287 2.758996
-0.17902482 0.16131534 0.96536636
-0.251623 0.22482139 0.97181731
-1.0082301 0.89654756 2.853514
-0.96536827 0.85574865 2.1803117
-0.9297471 0.82216811 1.7182097
-0.90821248 0.80173182 1.3916031
-0.90129036 0.7903282 1.2577794
-0.87772399 0.76886213 1.0232532
-0.86700118 0.75868011 0.83994877
-0.85809308 0.75036591 0.68324518
-0.84540921 0.73876339 0.54192483
-0.83492523 0.72909796 0.41575748
-0.83275765 0.72669959 0.30131167
-0.81806362 0.71338409 0.19039199
-0.8914783 0.78393477 1.138477
-0.86742175 0.76198685 0.92424124
-0.85985523 0.7548182 0.75796282
-0.85391849 0.74882525 0.61248899
-0.83856964 0.73485726 0.4772076
-0.82286733 0.720599 0.35452449
-0.81218165 0.71099752 0.2427662
-0.81576365 0.71364069 0.13739762
-0.013895679 0.017316556 1.0242345
-0.12055992 0.11104716 1.0426075
-0.14412388 0.13127759 0.96072519
-0.21841863 0.19659527 0.98663098
-1.0431828 0.93349266 3.3574595
-0.98906368 0.88137466 2.4950962
-0.94495761 0.83973044 1.9292994
-0.92230594 0.81789511 1.5525217
-0.12796821 0.1390999 3.1092317
-0.21123669 0.21434712 2.7639675
-0.17846064 0.16193926 0.96536636
-0.24827224 0.22338849 0.96243173
-1.0099592 0.90441871 2.8670177
-0.96626616 0.86258709 2.1888437
-0.93137187 0.82941675 1.7261899
-0.907942 0.80714977 1.3952782
-0.9011991 0.79583025 1.2612839
-0.87795359 0.77449632 1.0263916
-0.86434758 0.76170182 0.83994877
-0.8587929 0.7562843 0.68556398
-0.84630549 0.74477267 0.54379785
-0.83957952 0.73834378 0.41857755
-0.83021593 0.72960204 0.30131167
-0.81931031 0.7195214 0.19083907
-0.89153153 0.78951734 1.1418025
-0.86778384 0.76768833 0.9271844
-0.86044484 0.76067042 0.76049602
-0.85129935 0.75180143 0.61248899
-0.83954 0.74090475 0.47885111
-0.82399243 0.72668195 0.3556968
-0.80969483 0.71382821 0.2427662
-0.8170163 0.71978647 0.13759914
-0.01383515 0.017364955 1.0242345
-0.12130826 0.11252694 1.0524861
-0.14366476 0.13177986 0.96072519
-0.21773103 0.19735649 0.98663098
-1.0428203 0.93974441 3.3666646
-0.9895457 0.88802129 2.5038743
-0.94621432 0.84677732 1.9375652
-0.92183578 0.82324463 1.5563592
-0.12748188 0.13954575 3.1092317
-0.21048719 0.21508317 2.7639675
-0.17789428 0.16256122 0.96536636
-0.24621277 0.22309434 0.957739
-1.0100291 0.91085482 2.8760202
-0.96712798 0.86944222 2.1973755
-0.93071425 0.83467484 1.7301799
-0.91017032 0.81483698 1.4026285
-0.90108049 0.8013413 1.2647884
-0.87815452 0.78014147 1.02953
-0.86481082 0.76748997 0.84269029
-0.8594619 0.76221681 0.68788278
-0.84370059 0.74772233 0.54379785
-0.84058827 0.74445051 0.41998756
-0.82766402 0.73249555 0.30131167
-0.8205241 0.72567612 0.19128615
-0.89155668 0.79510987 1.145128
-0.86811674 0.77340168 0.93012756
-0.86100388 0.76653576 0.76302922
-0.85206121 0.75778466 0.61458701
-0.84047824 0.74696773 0.48049462
-0.82508504 0.73278159 0.35686913
-0.81090134 0.71993804 0.24345689
-0.81449872 0.72263402 0.13759914
-0.013774451 0.017413143 1.0242345
-0.12148122 0.1134815 1.0574253
-0.1432039 0.13228056 0.96072519
-0.21814258 0.19912243 0.99140298
-1.0438734 0.94731802 3.3804724
-0.98999351 0.89468211 2.5126526
-0.94743323 0.85384309 1.9458311
-0.92372274 0.83074439 1.5640341
-0.12680194 0.13977434 3.1042399
-0.20973513 0.2158166 2.7639675
-0.17732576 0.1631812 0.96536636
-0.24033602 0.21929707 0.93896794
-1.0116776 0.91876596 2.889524
-0.96602046 0.87456346 2.2016416
-0.93003118 0.8399384 1.7341701
-0.90983826 0.8202793 1.4063038
-0.90093422 0.80686104 1.268293
-0.87832671 0.78579742 1.0326686
-0.86524415 0.77329057 0.84543175
-0.86009985 0.76816308 0.69020158
-0.84454405 0.75374979 0.54567093
-0.84156454 0.75057316 0.4213976
-0.82510215 0.73538017 0.30131167
-0.82170492 0.73184812 0.19173324
-0.89155352 0.80071211 1.1484535
-0.86541176 0.77642727 0.93012756
-0.85832298 0.76953655 0.76302922
-0.85279155 0.76378226 0.61668509
-0.84138429 0.75304627 0.48213813
-0.82614505 0.73889762 0.35804144
-0.81207502 0.72606492 0.24414757
-0.8156969 0.72880143 0.13780068
-0.013713583 0.017461119 1.0242345
-0.121649 0.11443862 1.0623646
-0.14274126 0.13277961 0.96072519
-0.21744618 0.19988267 0.99140298
-1.0434444 0.9535923 3.3896773
-0.99217784 0.90296888 2.5258198
-0.94861424 0.86092776 1.9540969
-0.92319286 0.83611554 1.5678717
-0.12612198 0.1399999 3.0992484
-0.20898052 0.2165474 2.7639675
-0.17675506 0.16379918 0.96536636
-0.24083912 0.22130296 0.94366068
-1.011677 0.92523038 2.8985264
-0.96681613 0.88144463 2.2101734
-0.93155169 0.84723485 1.7421501
-0.91198909 0.82800817 1.4136541
-0.90076047 0.81238961 1.2717975
-0.87847 0.79146403 1.035807
-0.86564744 0.77910346 0.8481732
-0.86070681 0.77412313 0.69252038
-0.84535569 0.75979227 0.54754394
-0.8425082 0.75671172 0.42280763
-0.82618582 0.74153703 0.30224431
-0.82285249 0.73803711 0.19218032
-0.89429128 0.80882865 1.1551045
-0.86569536 0.78215325 0.93307072
-0.85883105 0.77541697 0.76556236
-0.85349041 0.76979429 0.61878312
-0.84225821 0.75914031 0.48378164
-0.82356077 0.74177688 0.35804144
-0.81321585 0.73220891 0.24483825
-0.8131479 0.73164427 0.13780068
-0.013652549 0.017508883 1.0242345
-0.12181158 0.1153983 1.0673038
-0.14227691 0.13327707 0.96072519
-0.21674713 0.20064048 0.99140298
-1.0444214 0.96119821 3.4034851
-0.99255079 0.90966332 2.5345981
-0.94975734 0.86803097 1.9623629
-0.92263663 0.84149301 1.5717092
-0.12563252 0.14043929 3.0992484
-0.20822334 0.21727555 2.7639675
-0.17526414 0.16355665 0.96052694
-0.2387992 0.22096957 0.93896794
-1.0132445 0.93318087 2.91203
-0.96757531 0.88834202 2.2187052
-0.93081045 0.85251665 1.74614
-0.91159517 0.83347434 1.4173292
-0.90055895 0.81792665 1.2753021
-0.8785845 0.79714125 1.0389454
-0.86602068 0.78492862 0.85091466
-0.85799938 0.77712286 0.69252038
-0.8426984 0.76273847 0.54754394
-0.84341931 0.76286596 0.42421767
-0.82723659 0.74771047 0.30317691
-0.82027125 0.74090487 0.19218032
-0.8942228 0.81445974 1.15843
-0.86594945 0.78789067 0.93601388
-0.85930848 0.7813102 0.76809555
-0.85415763 0.77582037 0.6208812
-0.84309965 0.76524943 0.48542514
-0.82456672 0.7479127 0.35921374
-0.810655 0.73504305 0.24483825
-0.81429124 0.73783278 0.1380022
-0.013591348 0.017556431 1.0242345
-0.12196892 0.11636049 1.0722431
-0.14181083 0.13377289 0.96072519
-0.21604544 0.20139585 0.99140298
-1.0439254 0.96749431 3.4126902
-0.99288905 0.91637146 2.5433762
-0.95086229 0.87515259 1.9706287
-0.92205423 0.8468768 1.5755466
-0.12495175 0.14065942 3.0942566
-0.20673153 0.21722606 2.7540245
-0.17469214 0.16416743 0.96052694
-0.23676454 0.22062466 0.93427515
-1.014769 0.94115365 2.9255335
-0.9663834 0.89348477 2.222971
-0.93004388 0.85780376 1.7501302
-0.91117406 0.83894771 1.4210044
-0.90032983 0.82347226 1.2788066
-0.8815434 0.80545443 1.0452224
-0.86636388 0.79076582 0.85365611
-0.85855424 0.7830984 0.69483918
-0.84345686 0.76879835 0.54941696
-0.84429759 0.7690357 0.42562771
-0.82825416 0.75390005 0.30410954
-0.82136393 0.7471146 0.19262739
-0.89412594 0.82010025 1.1617556
-0.86617392 0.7936393 0.93895704
-0.85975534 0.78721619 0.77062875
-0.85479307 0.78186041 0.62297922
-0.84042335 0.76818776 0.48542514
-0.82195097 0.75078648 0.35921374
-0.80808431 0.73786831 0.24483825
-0.81171077 0.74067068 0.1380022
-0.013529982 0.017603766 1.0242345
-0.121562 0.11678553 1.0722431
-0.141343 0.13426709 0.96072519
-0.21534114 0.20214877 0.99140298
-1.0448261 0.97513187 3.4264975
-0.99319261 0.92309302 2.5521543
-0.9498654 0.88037938 1.9747616
-0.92144531 0.85226673 1.5793842
-0.12408195 0.14065832 3.0842733
-0.60385799 0.64209664 8.1779356
-0.17411803 0.16477622 0.96052694
-1.1051015 1.0378823 4.1769767
-1.0146592 0.94766223 2.934536
-0.96707588 0.90040725 2.231503
-0.93145931 0.86514652 1.7581102
-0.91072589 0.84442842 1.4246795
-0.90007287 0.82902616 1.2823112
-0.88159066 0.81116223 1.0483608
-0.86667675 0.79661494 0.85639757
-0.85907781 0.78908724 0.69715798
-0.84418344 0.7748729 0.55129004
-0.84160805 0.7719782 0.42562771
-0.82923859 0.76010585 0.30504215
-0.81875104 0.74997717 0.19262739
-0.89400047 0.82574987 1.165081
-0.86636889 0.79939908 0.94190019
-0.86017132 0.79313493 0.77316189
-0.85205865 0.78483939 0.62297922
-0.84121096 0.77431482 0.48706865
-0.82290256 0.75694174 0.36038607
-0.80914891 0.74403644 0.24552894
-0.81279904 0.74687999 0.13820374
-0.013468452 0.017650887 1.0242345
-0.12115359 0.11720914 1.0722431
-0.14087346 0.13475965 0.96072519
-0.21463419 0.20289922 0.99140298
-1.0456864 0.98278743 3.4403052
-0.99346119 0.92982769 2.5609324
-0.95090055 0.88753015 1.9830275
-0.92081004 0.85766286 1.5832217
-0.1232137 0.14065285 3.07429
-0.60052294 0.64303041 8.1630211
-0.17354178 0.16538301 0.96052694
-1.1002182 1.0405476 4.1722836
-1.0161018 0.95567304 2.9480395
-0.96773177 0.90734547 2.2400348
-0.9306342 0.87045109 1.7621001
-0.91025054 0.8499161 1.4283547
-0.89978808 0.83458835 1.2858157
-0.88160878 0.81688029 1.0514992
-0.86695921 0.80247587 0.85913903
-0.85957003 0.7950893 0.69947678
-0.84487772 0.78096187 0.55316305
-0.84243196 0.77816629 0.42703772
-0.82658029 0.76299584 0.30504215
-0.81978852 0.75620711 0.19307446
-0.89384639 0.8314085 1.1684066
-0.86653411 0.80516988 0.94484335
-0.86055636 0.79906595 0.77569515
-0.85264122 0.79089546 0.62507725
-0.84196615 0.78045678 0.48871216
-0.82382107 0.76311266 0.36155838
-0.81018031 0.75022101 0.24621962
-0.81018704 0.74971265 0.13820374
-0.013406756 0.017697794 1.0242345
-0.12129897 0.11817489 1.0771824
-0.1404022 0.13525057 0.96072519
-0.21284419 0.20261723 0.98663098
-1.0465058 0.99046075 3.4541125
-0.9936949 0.93657547 2.5697107
-0.95189732 0.8946988 1.9912934
-0.92248601 0.86525762 1.5908966
-0.122347 0.14064305 3.0643067
-0.59610283 0.64277488 8.1331921
-0.17296344 0.16598777 0.96052694
-1.1028267 1.0503331 4.1957479
-1.017501 0.96370548 2.9615433
-0.96835107 0.91429925 2.2485666
-0.93197674 0.87782663 1.7700801
-0.91221762 0.85773319 1.4357051
-0.90208149 0.84259301 1.2928247
-0.88159764 0.82260817 1.0546377
-0.86721146 0.80834842 0.86188054
-0.86003065 0.80110431 0.70179558
-0.84553981 0.78706497 0.55503613
-0.83971047 0.78110212 0.42703772
-0.82750976 0.76922101 0.30597478
-0.82079262 0.76245344 0.19352154
-0.89366364 0.83707613 1.1717321
-0.8666696 0.81095159 0.94778651
-0.86091053 0.80500942 0.77822834
-0.84987527 0.79386687 0.62507725
-0.83923668 0.78339106 0.48871216
-0.82470655 0.76929921 0.36273071
-0.81117821 0.75642174 0.2469103
-0.81122005 0.75594211 0.13840528
-0.013344898 0.017744485 1.0242345
-0.12199242 0.11968853 1.0870609
-0.13992925 0.13573985 0.96072519
-0.21213563 0.20335895 0.98663098
-1.0472844 0.99815184 3.4679203
-0.99389356 0.94333625 2.5784888
-0.95285577 0.90188533 1.9995594
-0.92179 0.87067342 1.5947342
-0.12110844 0.14018854 3.0443401
-0.59205246 0.64288884 8.1083336
-0.17238298 0.16659051 0.96052694
-1.1028894 1.0577601 4.209826
-1.0188563 0.9717592 2.9750469
-0.97082335 0.92306542 2.2613645
-0.93327904 0.88522214 1.7780602
-0.91167963 0.86324328 1.4393802
-0.90173239 0.84818029 1.2963293
-0.88155729 0.82834601 1.0577762
-0.86743307 0.81423247 0.864622
-0.86045986 0.80713218 0.70411438
-0.84616953 0.79318219 0.55690914
-0.84047973 0.7873081 0.42844775
-0.82481956 0.77210486 0.30597478
-0.82176286 0.76871592 0.19396862
-0.89345229 0.84275264 1.1750575
-0.86677527 0.81674403 0.95072967
-0.86123353 0.81096494 0.78076148
-0.85040474 0.79993838 0.62717533
-0.83993763 0.78955007 0.49035567
-0.8291015 0.77882922 0.36507532
-0.81214279 0.76263863 0.24760097
-0.81221944 0.76218784 0.1386068
-0.013282876 0.017790958 1.0242345
-0.11991957 0.11847141 1.0722431
-0.13945456 0.13622746 0.96072519
-0.21142447 0.20409821 0.98663098
-1.0480217 1.0058601 3.4817278
-0.99578834 0.95176476 2.5916562
-0.95377547 0.90908927 2.0078254
-0.92338979 0.87830418 1.6024091
-0.12006047 0.13994797 3.0293651
-0.58836776 0.64337629 8.0884485
-0.17180042 0.16719122 0.96052694
-1.1078786 1.0699964 4.2426753
-1.0201678 0.9798342 2.9885504
-0.97136265 0.93005633 2.2698965
-0.9323622 0.89055592 1.7820503
-0.91111422 0.86875999 1.4430554
-0.90394413 0.85622787 1.3033384
-0.88148761 0.83409351 1.0609146
-0.86762422 0.8201279 0.86736345
-0.86085737 0.81317282 0.70643318
-0.84676677 0.79931337 0.55878216
-0.84121579 0.7935288 0.42985779
-0.82569385 0.7783488 0.30690739
-0.81907457 0.77157974 0.19396862
-0.89321214 0.84843779 1.1783831
-0.86685097 0.82254684 0.95367283
-0.86152554 0.81693256 0.78329468
-0.85090214 0.80602324 0.62927336
-0.84060585 0.79572362 0.49199918
-0.82990885 0.78505886 0.36624765
-0.81307375 0.76887143 0.24829166
-0.8131851 0.76844978 0.13880834
-0.013220694 0.017837217 1.0242345
-0.1389782 0.13671343 0.96072519
-0.21071075 0.20483498 0.98663098
-1.0501227 1.0149437 3.5001378
-0.99591082 0.95855695 2.6004343
-0.9546563 0.91631049 2.0160913
-0.92263299 0.88373941 1.6062467
-0.11883051 0.13948029 3.0093985
-0.58468693 0.64384592 8.0685616
-0.17121577 0.16778989 0.96052694
-1.1115584 1.0810769 4.2708321
-1.0214353 0.98793012 3.0020542
-0.97186488 0.93706203 2.2784283
-0.93359107 0.89798307 1.7900304
-0.91052127 0.87428319 1.4467305
-0.90353036 0.86183965 1.306843
-0.88138843 0.83985054 1.0640531
-0.86778474 0.82603455 0.87010491
-0.85801363 0.81617284 0.70643318
-0.84397149 0.80226433 0.55878216
-0.84191871 0.79976434 0.43126783
-0.82653451 0.7846083 0.30784002
-0.8199892 0.77786148 0.1944157
-0.89294308 0.85413152 1.1817086
-0.86689669 0.82836026 0.95661598
-0.85866863 0.81993484 0.78329468
-0.85136729 0.81212127 0.63137144
-0.84124106 0.80191123 0.49364269
-0.83068281 0.79130358 0.36741996
-0.81397116 0.7751199 0.24898234
-0.81049782 0.77128363 0.13880834
-0.013158349 0.017883256 1.0242345
-0.85506058 0.860174 7.7106061
-0.13850012 0.1371977 0.96072519
-0.20999448 0.20556925 0.98663098
-1.0521731 1.0240543 3.5185483
-0.9977175 0.96702838 2.6136014
-0.95347518 0.92159313 2.0202241
-0.92415607 0.89140517 1.6139216
-0.11760528 0.13900578 2.9894319
-0.5810101 0.64429766 8.0486765
-0.17062902 0.16838653 0.96052694
-1.1139417 1.0909883 4.2942958
-1.0210992 0.99452764 3.0110567
-0.97420102 0.94589967 2.2912261
-0.9326151 0.90333301 1.7940203
-0.91233808 0.88216966 1.4540808
-0.90308833 0.86745894 1.3103476
-0.8812598 0.84561712 1.0671915
-0.86791456 0.83195227 0.87284636
-0.85835832 0.8222273 0.70875198
-0.84451473 0.80841124 0.56065518
-0.84258819 0.80601424 0.43267787
-0.82379073 0.7874887 0.30784002
-0.81726897 0.78071904 0.1944157
-0.89264524 0.85983366 1.185034
-0.86691236 0.83418405 0.95955914
-0.85890847 0.82591516 0.78582788
-0.85180032 0.8182323 0.63346946
-0.83843672 0.80484283 0.49364269
-0.83493072 0.80092806 0.3697646
-0.81483471 0.78138399 0.24967301
-0.81140763 0.77756476 0.13900986
-0.013095845 0.017929079 1.0242345
-0.85096145 0.8620472 7.7007275
-0.13802037 0.13768034 0.96072519
-0.21033791 0.20734969 0.99140298
-1.0541726 1.0331914 3.5369582
-0.99776351 0.97385126 2.6223795
-0.9542852 0.92884159 2.0284901
-0.92333806 0.89685911 1.6177592
-0.11638483 0.1385244 2.9694653
-0.57733715 0.64473152 8.0287905
-0.17093089 0.16986807 0.96536636
-1.1162692 1.1009296 4.3177595
-1.0222836 1.0026593 3.0245602
-0.97462255 0.9529413 2.299758
-0.93377006 0.91079122 1.8020003
-0.91168195 0.88771409 1.457756
-0.90518117 0.87556517 1.3173567
-0.88110161 0.85139287 1.07033
-0.8680135 0.83788091 0.87558782
-0.85867113 0.82829404 0.71107078
-0.8450253 0.81457168 0.56252825
-0.84322441 0.81227863 0.43408787
-0.82457578 0.79376626 0.30877262
-0.81453878 0.78356707 0.1944157
-0.89499837 0.86814398 1.1916851
-0.86689794 0.84001791 0.96250236
-0.85911703 0.83190715 0.78836101
-0.85220087 0.8243562 0.63556755
-0.83901733 0.81104678 0.49528623
-0.83562577 0.80721474 0.3709369
-0.81566441 0.78766352 0.25036371
-0.81228352 0.78386158 0.1392114
-0.013033181 0.017974682 1.0242345
-0.84740335 0.86445719 7.6957879
-0.13753894 0.13816127 0.96072519
-0.20961285 0.20808263 0.99140298
-1.0575113 1.0437273 3.5599706
-0.99777389 0.98068601 2.6311576
-0.95505613 0.9361068 2.0367558
-0.92478424 0.90455949 1.6254343
-0.11516917 0.13803621 2.9494987
-0.57437569 0.64594525 8.0188475
-0.17033689 0.1704637 0.96536636
-1.1185409 1.1109003 4.3412237
-1.0218748 1.0092815 3.0335627
-0.97686499 0.9618274 2.3125558
-0.93488425 0.91826838 1.8099804
-0.91341877 0.89563835 1.4651064
-0.90467381 0.88120794 1.3208612
-0.88091385 0.85717785 1.0734684
-0.86808175 0.84382039 0.87832928
-0.85895205 0.83437294 0.71338952
-0.8421768 0.81751645 0.56252825
-0.84038389 0.81521708 0.43408787
-0.82532698 0.80005884 0.30970526
-0.81537551 0.78987056 0.19486278
-0.89463341 0.87387186 1.1950105
-0.8668533 0.84586191 0.96544552
-0.85929418 0.83791065 0.79089421
-0.85256904 0.83049279 0.63766557
-0.83956486 0.8172645 0.49692973
-0.83628708 0.81351602 0.37210923
-0.81646019 0.79395831 0.25105438
-0.81312519 0.79017389 0.13941292
-0.012970358 0.018020067 1.0242345
-0.84438068 0.86740988 7.6957879
-0.13705583 0.13864052 0.96072519
-0.20888522 0.20881304 0.99140298
-1.0594037 1.0529217 3.5783808
-0.99774867 0.98753279 2.6399357
-0.95578796 0.94338876 2.0450218
-0.92390442 0.91003144 1.6292717
-0.11377628 0.1373172 2.9245405
-0.57176512 0.64754623 8.013875
-0.16974083 0.17105724 0.96536636
-1.1195364 1.1196798 4.3599949
-1.0214323 1.0159129 3.0425651
-0.97720534 0.96890414 2.3210876
-0.93381536 0.92364526 1.8139704
-0.9151113 0.90358561 1.4724567
-0.90413815 0.88685787 1.3243657
-0.88347632 0.86569613 1.0797453
-0.868119 0.84977049 0.88107073
-0.85920084 0.84046388 0.71570832
-0.84263301 0.82369179 0.56440127
-0.84096462 0.82149774 0.43549791
-0.82604426 0.80636632 0.31063786
-0.81261337 0.79271197 0.19486278
-0.89423925 0.87960786 1.198336
-0.86677837 0.85171568 0.96838868
-0.85943979 0.84392536 0.79342741
-0.8529048 0.83664209 0.63976365
-0.84007907 0.82349581 0.49857324
-0.83344227 0.81643021 0.37210923
-0.81368375 0.79680353 0.25105438
-0.81036204 0.79300743 0.13941292
-0.012894556 0.018023524 1.0192348
-0.84134769 0.87035203 7.6957879
-0.13657105 0.13911811 0.96072519
-0.20815507 0.20954092 0.99140298
-1.059864 1.0607598 3.5921884
-0.99938405 0.99608225 2.6531031
-0.95648044 0.95068711 2.0532877
-0.9252733 0.91776556 1.6369468
-0.11238983 0.13659015 2.8995821
-0.56915039 0.6491369 8.0089045
-0.16914269 0.1716487 0.96536636
-1.1192683 1.127255 4.374073
-1.0224938 1.0240942 3.0560689
-0.97750807 0.97599506 2.3296194
-0.9348551 0.93115246 1.8219506
-0.9143554 0.90916485 1.4761319
-0.90611112 0.89502108 1.3313749
-0.8832196 0.87150878 1.0828838
-0.86812526 0.85573101 0.88381225
-0.85941762 0.84656674 0.71802717
-0.84305632 0.82988036 0.56627429
-0.84151161 0.82779235 0.43690795
-0.82672757 0.81268847 0.3115705
-0.81339389 0.79903358 0.19530986
-0.89381599 0.88535166 1.2016616
-0.86667311 0.85757929 0.97133183
-0.85955387 0.84995139 0.79596055
-0.85320795 0.84280378 0.64186168
-0.84055996 0.82974064 0.50021678
-0.83404762 0.82274801 0.37328154
-0.8144235 0.80311602 0.25174505
-0.81114745 0.79933798 0.13961446
-0.012831562 0.018068425 1.0192348
-0.83830446 0.87328357 7.6957879
-0.1360846 0.13959397 0.96072519
-0.20742236 0.21026623 0.99140298
-1.0602826 1.0686139 3.6059959
-0.99928159 1.0029582 2.6618812
-0.95912254 0.95999265 2.0656865
-0.92659926 0.9255203 1.6446217
-0.11100984 0.13585512 2.8746238
-0.56653148 0.65071714 8.003933
-0.16854249 0.17223808 0.96536636
-1.1201725 1.1360707 4.3928437
-1.021978 1.0307492 3.0650711
-0.97777331 0.98309988 2.3381512
-0.93585378 0.93867815 1.8299305
-0.9159674 0.91714883 1.4834822
-0.90550977 0.90069371 1.3348794
-0.88293296 0.87733006 1.0860223
-0.86810046 0.86170202 0.8865537
-0.85960227 0.85268122 0.72034597
-0.84344673 0.83608192 0.5681473
-0.84202504 0.83410084 0.43831801
-0.82737672 0.81902522 0.3125031
-0.81414014 0.80537021 0.19575694
-0.89336348 0.89110321 1.204987
-0.8694005 0.86630553 0.97721815
-0.85963631 0.85598844 0.79849374
-0.85347849 0.84897768 0.6439597
-0.83765846 0.83266968 0.50021678
-0.83461893 0.82907993 0.37445387
-0.81512898 0.80944341 0.25243574
-0.80835229 0.80216455 0.13961446
-0.012768414 0.018113106 1.0192348
-0.835787 0.87676716 7.7007275
-0.1355965 0.14006816 0.96072519
-0.20668712 0.210989 0.99140298
-1.0606589 1.0764836 3.6198037
-1.0008273 1.011548 2.6750484
-0.95972931 0.96733034 2.0739524
-0.92788243 0.93329543 1.6522968
-0.10963637 0.13511212 2.8496656
-0.56425661 0.65269077 8.003933
-0.16794024 0.17282535 0.96536636
-1.1198217 1.1436734 4.4069219
-1.0229553 1.0389643 3.0785747
-0.9780007 0.99021834 2.3466833
-0.93681121 0.94622201 1.8379105
-0.91514748 0.92274773 1.4871573
-0.90739924 0.9088968 1.3418884
-0.88261646 0.88316 1.0891607
-0.8680445 0.86768317 0.88929516
-0.85662055 0.85567659 0.72034597
-0.84380412 0.84229624 0.57002032
-0.84250456 0.84042293 0.43972805
-0.82451278 0.8219083 0.3125031
-0.81485206 0.8117218 0.19620402
-0.89551586 0.89950854 1.211638
-0.86922443 0.8721981 0.98016131
-0.85968703 0.86203635 0.80102688
-0.85371619 0.85516369 0.64605778
-0.83808422 0.83892941 0.50186026
-0.83515614 0.83542579 0.37562618
-0.81229848 0.81228381 0.25243574
-0.8090812 0.80851275 0.13981599
-0.012717496 0.018199407 1.0242345
-0.83272147 0.87967926 7.7007275
-0.13510674 0.14054061 0.96072519
-0.20594938 0.21170919 0.99140298
-1.0596272 1.0829726 3.6290085
-1.0006471 1.0184525 2.6838267
-0.96029651 0.97468394 2.0822184
-0.9268707 0.93880963 1.6561341
-0.10826945 0.13436121 2.8247073
-0.56197482 0.65465641 8.003933
-0.16646403 0.17250511 0.96052694
-1.1206341 1.1525247 4.425693
-1.0238878 1.047199 3.0920784
-0.97819042 0.99735045 2.3552151
-0.93772745 0.95378405 1.8458906
-0.91667843 0.93076771 1.4945077
-0.90673167 0.91459131 1.3453929
-0.88226998 0.88899827 1.0922991
-0.86795729 0.87367445 0.89203662
-0.85675156 0.86180317 0.72266477
-0.84412837 0.84852314 0.57189339
-0.83956581 0.8433587 0.43972805
-0.82510567 0.82826149 0.31343573
-0.81552947 0.81808811 0.1966511
-0.89499551 0.9052844 1.2149636
-0.86901772 0.87810004 0.98310447
-0.86273926 0.87115806 0.80609328
-0.85392106 0.86136162 0.64815581
-0.83847636 0.84520221 0.5035038
-0.83565921 0.84178549 0.37679848
-0.81294751 0.81862813 0.25312641
-0.80977559 0.81487578 0.14001752
-0.012653889 0.018243687 1.0242345
-0.82964569 0.88258064 7.7007275
-0.13461535 0.14101137 0.96072519
-0.20520912 0.2124268 0.99140298
-1.0599244 1.0908688 3.6428163
-1.0021031 1.0270823 2.6969938
-0.96082395 0.98205316 2.0904841
-0.92807555 0.94661707 1.6638092
-0.10690911 0.13360243 2.7997489
-0.55968624 0.65661407 8.003933
-0.16586088 0.17308512 0.96052694
-1.1213983 1.1613957 4.4444642
-1.0247751 1.0554527 3.1055822
-0.97834212 1.0044956 2.3637469
-0.93860215 0.96136391 1.8538706
-0.91579407 0.93638557 1.4981829
-0.90853733 0.92283374 1.3524021
-0.88189346 0.89484495 1.0954376
-0.86783886 0.87967569 0.89477807
-0.85685015 0.86794108 0.72498357
-0.8444193 0.85476261 0.57376641
-0.83998919 0.84969562 0.44113809
-0.82220936 0.83113664 0.31343573
-0.81617236 0.82446903 0.19709818
-0.89706129 0.91373187 1.2216145
-0.86878037 0.88401115 0.98604763
-0.86271572 0.87723792 0.80862641
-0.85409302 0.86757147 0.65025389
-0.84214872 0.85485196 0.50679076
-0.83612806 0.84815884 0.37797081
-0.81356204 0.82498682 0.25381708
-0.81043535 0.82125348 0.14021905
-0.01259013 0.018287746 1.0242345
-0.8265599 0.88547128 7.7007275
-0.1341223 0.1414804 0.96072519
-0.20446637 0.21314181 0.99140298
-1.0601792 1.0987802 3.6566238
-1.0018446 1.0340145 2.7057722
-0.9613117 0.989438 2.0987501
-0.92923725 0.95444435 1.6714844
-0.10555542 0.13283578 2.7747905
-0.55739087 0.65856373 8.003933
-0.16439012 0.17275155 0.95568752
-1.1233084 1.1715318 4.4679279
-1.0256172 1.0637251 3.1190858
-0.97845572 1.0116541 2.3722787
-0.9394353 0.96896142 1.8618507
-0.91724354 0.94444084 1.5055332
-0.91029644 0.93109995 1.3594111
-0.88148677 0.90069979 1.0985761
-0.86768901 0.88568664 0.89751953
-0.8600173 0.87725353 0.72962117
-0.84467697 0.86101443 0.57563943
-0.84037864 0.85604578 0.4425481
-0.82274562 0.83750588 0.31436834
-0.81678063 0.83086431 0.19754526
-0.89647263 0.91953123 1.2249401
-0.87133521 0.89282399 0.99193394
-0.86266005 0.88332814 0.81115961
-0.85423207 0.87379301 0.65235192
-0.84246176 0.86116195 0.5084343
-0.83656257 0.85454565 0.37914312
-0.81414217 0.83135974 0.25450778
-0.81106049 0.82764566 0.14042059
-0.012538164 0.018373547 1.0292344
-0.82346398 0.88835114 7.7007275
-0.13432439 0.1426902 0.96562046
-0.20372112 0.21385424 0.99140298
-1.0617433 1.1081172 3.6750338
-1.0032103 1.0426832 2.7189393
-0.96175945 0.99683803 2.1070161
-0.92812765 0.95998663 1.6753218
-0.10438491 0.13228975 2.7548239
-0.55474621 0.66009688 7.998961
-0.1637861 0.17332435 0.95568752
-1.1251614 1.1816951 4.4913921
-1.0264142 1.0720164 3.1325896
-0.98033786 1.0207069 2.3850765
-0.94022679 0.97657645 1.8698307
-0.91864777 0.95251751 1.5128835
-0.9095248 0.93683064 1.3629158
-0.88105005 0.90656275 1.1017146
-0.86750787 0.89170724 0.90026098
-0.86003983 0.88342422 0.73193997
-0.84490108 0.86727828 0.57751244
-0.84073389 0.862409 0.44395813
-0.82324725 0.84388888 0.31530097
-0.81735408 0.8372739 0.19799234
-0.89585429 0.92533761 1.2282655
-0.87102628 0.89876276 0.9948771
-0.86257243 0.88942873 0.81369281
-0.8574993 0.88328248 0.65654802
-0.84274101 0.86748463 0.51007777
-0.8369627 0.86094594 0.38031548
-0.81468767 0.8377468 0.25519845
-0.81165057 0.83405215 0.14062211
-0.012473951 0.018417202 1.0292344
-0.82035804 0.89122015 7.7007275
-0.13382548 0.14315821 0.96562046
-0.20297338 0.21456404 0.99140298
-1.0619082 1.1160631 3.6888416
-1.0028733 1.0496424 2.7277176
-0.96216726 1.0042533 2.1152818
-0.92921036 0.96784502 1.6829967
-0.10392249 0.13265331 2.7548239
-0.55243868 0.66202927 7.998961
-0.16318008 0.173895 0.95568752
-1.1281424 1.1931397 4.5195484
-1.0271654 1.0803261 3.1460929
-0.98036855 1.0278974 2.3936086
-0.9409765 0.98420876 1.8778108
-0.91766208 0.9581669 1.5165586
-0.91119921 0.9451347 1.3699248
-0.88328588 0.91523433 1.1079915
-0.86729515 0.89773744 0.9030025
-0.8600297 0.88960588 0.73425877
-0.84831524 0.87688625 0.58125854
-0.84105492 0.86878514 0.44536817
-0.82371438 0.85028565 0.31623358
-0.81789267 0.84369755 0.19843942
-0.89520645 0.93115073 1.231591
-0.87068647 0.90471023 0.99782026
-0.86245263 0.89553928 0.81622595
-0.85756081 0.88953787 0.65864611
-0.84626484 0.87721819 0.51336479
-0.83395231 0.86386222 0.38031548
-0.81519842 0.84414768 0.25588912
-0.81220603 0.84047276 0.14082365
-0.012409588 0.018460633 1.0292344
-0.81724209 0.89407831 7.7007275
-0.13332495 0.14362448 0.96562046
-0.20324445 0.21635993 0.99617493
-1.0633724 1.1254437 3.7072515
-1.0041481 1.0583493 2.7408845
-0.96253502 1.0116835 2.1235478
-0.93024957 0.97572267 1.6906718
-0.10363375 0.1332449 2.7598155
-0.55012441 0.6639536 7.998961
-0.16257209 0.17446354 0.95568752
-1.128695 1.2021029 4.5383196
-1.0278714 1.088654 3.1595967
-0.98215449 1.0369945 2.4064064
-0.94168442 0.99185812 1.8857908
-0.91898423 0.96627766 1.523909
-0.91036063 0.95088571 1.3734293
-0.88277882 0.92112225 1.11113
-0.86705083 0.90377682 0.90574402
-0.85998684 0.89579815 0.73657757
-0.84846073 0.88318533 0.58313155
-0.84134167 0.87517393 0.44677821
-0.82414687 0.85669589 0.31716621
-0.81839639 0.85013509 0.1988865
-0.89710701 0.9396714 1.238242
-0.87031567 0.91066617 1.0007634
-0.86230081 0.90165991 0.81875914
-0.85758889 0.89580429 0.66074419
-0.84646422 0.88357681 0.51500833
-0.83429545 0.87027681 0.38148779
-0.81224686 0.84698814 0.25588912
-0.80926728 0.84330279 0.14082365
-0.012333566 0.018461749 1.0242345
-0.81411624 0.89692557 7.7007275
-0.1328228 0.144089 0.96562046
-0.20248798 0.21706806 0.99617493
-1.0647839 1.1348482 3.7256618
-1.0037322 1.0653346 2.7496629
-0.96479493 1.0211741 2.1359468
-0.93124491 0.98361927 1.6983467
-0.10316802 0.13360584 2.7598155
-0.54746526 0.66545773 7.9939895
-0.16196211 0.17502996 0.95568752
-1.1303755 1.2123469 4.5617833
-1.0285314 1.0969999 3.1731002
-0.98388863 1.0461162 2.419204
-0.94028348 0.99733186 1.889781
-0.91793334 0.97194445 1.5275841
-0.91195011 0.9592272 1.3804384
-0.88224131 0.92701775 1.1142684
-0.86965901 0.91285306 0.91122693
-0.85991132 0.90200096 0.73889637
-0.84857267 0.88949597 0.58500457
-0.84159398 0.88157523 0.44818825
-0.82454461 0.86311948 0.31809881
-0.81542385 0.85298669 0.1988865
-0.8963902 0.94550693 1.2415675
-0.86991382 0.91663051 1.0037066
-0.86211663 0.9077903 0.82129234
-0.8575837 0.90208179 0.66284221
-0.8466295 0.88994741 0.51665181
-0.83460379 0.87670422 0.38266009
-0.81270033 0.8534044 0.25657982
-0.80976522 0.84973925 0.14102517
-0.012269047 0.018504689 1.0242345
-0.81150043 0.90033925 7.7056665
-0.13300535 0.14530391 0.97051567
-0.20172903 0.21777356 0.99617493
-1.0674742 1.1457056 3.7486744
-1.0032797 1.0723299 2.758441
-0.96507508 1.0286403 2.1442127
-0.9321965 0.99153465 1.7060218
-0.10270102 0.13396515 2.7598155
-0.54513901 0.66736466 7.9939895
-0.16135015 0.17559426 0.95568752
-1.1319981 1.2226173 4.585247
-1.0291457 1.1053637 3.186604
-0.98557097 1.0552627 2.4320021
-0.94091493 1.0050076 1.897761
-0.919173 0.98008859 1.5349344
-0.91104436 0.96499789 1.383943
-0.88434684 0.93574959 1.1205453
-0.86934078 0.91892076 0.91396838
-0.85980284 0.90821415 0.74121517
-0.84865081 0.89581823 0.58687764
-0.84181184 0.88798904 0.44959825
-0.82490748 0.86955625 0.31903145
-0.81587005 0.85943955 0.19933358
-0.8982029 0.95406759 1.2482185
-0.86948103 0.92260325 1.0066497
-0.86190003 0.91393036 0.82382548
-0.8575452 0.90837014 0.6649403
-0.84351778 0.89289731 0.51665181
-0.83487755 0.88314438 0.38383242
-0.81311899 0.85983407 0.25727049
-0.81022805 0.85618943 0.14122671
-0.012204379 0.018547403 1.0242345
-0.80835271 0.90316641 7.7056665
-0.13252276 0.14574416 0.97051567
-0.20100576 0.21844131 0.99617493
-1.0705054 1.156222 3.7716868
-1.0047977 1.0807389 2.7716084
-0.96777624 1.0376732 2.1566114
-0.93362731 0.99897987 1.7136967
-0.10234994 0.13423356 2.7598155
-0.54339004 0.66878957 7.9939895
-0.16007337 0.17505948 0.9508481
-1.1348532 1.2317258 4.6087112
-1.0325538 1.1140831 3.2046089
-0.98850113 1.0632267 2.4447997
-0.94291729 1.0113842 1.905741
-0.9194321 0.98448932 1.5386096
-0.91010934 0.97077399 1.3874475
-0.88390297 0.94151497 1.1236838
-0.86915225 0.9248457 0.91670984
-0.86301583 0.91736388 0.74585277
-0.84900999 0.90185553 0.58875066
-0.84246337 0.89397401 0.45100829
-0.82569402 0.87557381 0.31996405
-0.81331646 0.86185652 0.19933358
-0.89825428 0.95914119 1.2515441
-0.86998898 0.92767346 1.0095929
-0.86261421 0.91917711 0.82635868
-0.85843045 0.91377068 0.66703832
-0.84472471 0.89824897 0.51829535
-0.83287162 0.88503641 0.38383242
-0.81471133 0.86514032 0.25796115
-0.80843312 0.85788447 0.14122671
-0.012171989 0.018568676 1.0242345
-0.80729216 0.90515596 7.7106061
-0.13226819 0.14597523 0.97051567
-0.20062418 0.21879181 0.99617493
-1.075109 1.1652685 3.7946997
-1.0077926 1.0877619 2.7847755
-0.96979475 1.0434835 2.1648772
-0.93625098 1.0052992 1.7213718
-0.10228784 0.13464361 2.7648072
-0.5418871 0.66932225 7.9890184
-0.15976758 0.17533858 0.9508481
-1.1397034 1.2413323 4.6368675
-1.0350384 1.1206815 3.2181125
-0.99196094 1.0706902 2.4575975
-0.94525224 1.0174439 1.9137211
-0.92233133 0.99105614 1.5459599
-0.91328251 0.9775731 1.3944566
-0.88491738 0.94589877 1.1268222
-0.87325299 0.93246543 0.92219275
-0.86444294 0.92210054 0.74817157
-0.85060644 0.90671706 0.59062368
-0.84090185 0.89544302 0.45100829
-0.82752854 0.88059324 0.32089669
-0.81522256 0.86690253 0.19978066
-0.90167361 0.96616709 1.258195
-0.87388802 0.93509686 1.0154792
-0.86395293 0.92382985 0.82889187
-0.859936 0.91858083 0.6691364
-0.84315568 0.89972192 0.51829535
-0.83465052 0.8900342 0.38500473
-0.81997746 0.87378317 0.25934252
-0.81035453 0.86293602 0.14142823
-0.012107098 0.018611049 1.0242345
-0.80412763 0.90796834 7.7106061
-0.13241202 0.14721715 0.97541088
-0.19982094 0.21952567 0.99617493
-1.0772223 1.1765935 3.8177123
-1.008471 1.0969132 2.7979426
-0.97132003 1.0535754 2.1772761
-0.93438286 1.0114039 1.7252094
-0.10169937 0.13508864 2.7648072
-0.53896147 0.67168033 7.9890184
-0.15897028 0.17606179 0.9508481
-1.1410257 1.2541506 4.6650243
-1.035623 1.1319717 3.2361174
-0.99043113 1.079196 2.4661293
-0.94638872 1.028704 1.925691
-0.92207193 1.0005379 1.5533104
-0.91228998 0.98336965 1.3979613
-0.88674164 0.95484018 1.1330991
-0.87267643 0.93872249 0.92493427
-0.86391318 0.9286564 0.75049037
-0.85027725 0.9133696 0.59249669
-0.84057021 0.9023214 0.45241833
-0.82733655 0.88750136 0.32182932
-0.81513298 0.87380964 0.20022772
-0.89998484 0.97283304 1.2615205
-0.87238204 0.94201857 1.0184224
-0.86561191 0.93406469 0.83395821
-0.85884529 0.92580104 0.67123443
-0.84211916 0.9071461 0.51993883
-0.8337552 0.89751875 0.38617706
-0.81906855 0.88140744 0.26003322
-0.80952984 0.87054437 0.14162977
-0.012009486 0.018674187 1.0242345
-0.79971498 0.91289032 7.7155447
-0.13161355 0.14793141 0.97541088
-0.19859175 0.22063823 0.99617493
-1.0771893 1.1898335 3.8407245
-1.0071617 1.1078452 2.81111
-0.96902645 1.0633123 2.1855421
-0.93286473 1.0215027 1.7328844
-0.10104216 0.13594078 2.7697988
-0.53440011 0.67463511 7.9840465
-0.15786093 0.17705715 0.9508481
-1.1400421 1.2689983 4.693181
-1.0326682 1.1434829 3.2496209
-0.98869377 1.0913682 2.4789271
-0.94377726 1.0392557 1.9336712
-0.9176966 1.0091395 1.5569855
-0.91195178 0.99338734 1.4049703
-0.88419569 0.96249038 1.1362376
-0.87041497 0.94650823 0.92767572
-0.86187559 0.93657672 0.75280917
-0.84830254 0.92151505 0.59436977
-0.83876771 0.91053021 0.45382836
-0.82554001 0.89586413 0.32276195
-0.81330866 0.88229293 0.2006748
-0.89906263 0.98382527 1.2681715
-0.87206751 0.95329493 1.0243087
-0.86263615 0.94266528 0.83649141
-0.85591376 0.93467504 0.67333251
-0.84262407 0.91952837 0.52322584
-0.83106881 0.90661168 0.38734937
-0.81655174 0.89047021 0.26072389
-0.80696273 0.87971616 0.14183129
-0.011960555 0.018705565 1.0242345
-0.79799241 0.91542757 7.7204843
-0.13192545 0.14901598 0.98030609
-0.19809063 0.22108828 0.99617493
-1.0812351 1.1993428 3.8637373
-1.0096608 1.1152791 2.8242772
-0.97076595 1.0693381 2.1938081
-0.93539476 1.0278707 1.7405593
-0.10085225 0.13608173 2.7697988
-0.53357542 0.67528749 7.9840465
-0.15767543 0.17722236 0.9508481
-1.1444714 1.2766165 4.7166448
-1.0360425 1.1492349 3.2631247
-0.99143076 1.0959265 2.4874589
-0.94709963 1.0443789 1.9416513
-0.92172688 1.0146388 1.5643358
-0.91175276 0.99840498 1.4084748
-0.88709337 0.9703939 1.1425145
-0.87391186 0.95464945 0.93315864
-0.86274052 0.94179636 0.75512797
-0.84950328 0.92670715 0.59624279
-0.84026146 0.91567338 0.4552384
-0.82714033 0.90106618 0.32369456
-0.81513649 0.88737851 0.20112188
-0.90037525 0.98768228 1.271497
-0.87362671 0.95734543 1.0272518
-0.8645553 0.94675153 0.83902454
-0.86122197 0.94212139 0.67752856
-0.84500843 0.92374766 0.52486938
-0.83371758 0.91077703 0.3885217
-0.8160854 0.89089763 0.26072389
-0.81003147 0.88368058 0.14203283
-0.011878823 0.018757574 1.0242345
-0.79433787 0.91962755 7.7254238
-0.13191815 0.15037955 0.9852013
-0.19708534 0.22198488 0.99617493
-1.0820771 1.2117113 3.88675
-1.0091907 1.1253741 2.8374445
-0.96947896 1.0780859 2.2020738
-0.93447059 1.0373551 1.7482344
-0.10013835 0.13660792 2.7697988
-0.5303601 0.67849249 7.9890184
-0.15671426 0.17807287 0.9508481
-1.1444165 1.2905375 4.7448015
-1.0341555 1.1596981 3.2766283
-0.9887718 1.1053344 2.4959908
-0.94710225 1.0565479 1.9536213
-0.92039758 1.0249758 1.5716861
-0.91217405 1.0076617 1.415484
-0.88546431 0.97713965 1.1456529
-0.87238008 0.96170241 0.93590009
-0.86126953 0.94913203 0.75744677
-0.84824336 0.93413222 0.59811586
-0.83900255 0.92331898 0.45664841
-0.82603121 0.90873253 0.32462719
-0.81414109 0.89503539 0.20156896
-0.90019304 0.9979282 1.2781481
-0.87401974 0.96790665 1.0331382
-0.86230975 0.9546144 0.8415578
-0.85899019 0.95028359 0.67962664
-0.84617156 0.93545681 0.5281564
-0.83187962 0.91902274 0.38969401
-0.81426442 0.8992539 0.26141456
-0.80828297 0.89203352 0.14223436
-0.011813275 0.018798923 1.0242345
-0.79128391 0.92225659 7.7254238
-0.1320865 0.15158488 0.99009657
-0.19634812 0.22263722 0.99617493
-1.0845346 1.2226011 3.9097626
-1.0102319 1.1340798 2.8506117
-0.97152221 1.0875912 2.2144728
-0.93548226 1.0450623 1.7559093
-0.099732585 0.13690443 2.7697988
-0.52834469 0.68006313 7.9890184
-0.15618521 0.17853706 0.9508481
-1.1462873 1.3004006 4.7682652
-1.0350419 1.167649 3.2901318
-0.99068666 1.1141106 2.5087888
-0.94815797 1.0636876 1.9616013
-0.91978955 1.0300708 1.5753613
-0.91341907 1.0161442 1.422493
-0.88725501 0.98601145 1.1519299
-0.87461478 0.97095555 0.941383
-0.86108321 0.95527339 0.75976557
-0.85135108 0.94382489 0.60186189
-0.84236449 0.93321812 0.45946848
-0.82646489 0.91496849 0.32555979
-0.8146646 0.90128309 0.20201604
-0.89954567 1.0035317 1.2814735
-0.87367409 0.97365624 1.0360813
-0.86235362 0.96037632 0.844091
-0.85936701 0.95605403 0.68172467
-0.84671384 0.94132704 0.52979988
-0.83256179 0.92495483 0.39086631
-0.81506366 0.90520436 0.26210526
-0.80578882 0.89428717 0.14223436
-0.011747583 0.018840045 1.0242345
-0.78856355 0.92560482 7.7303629
-0.13155656 0.15204501 0.99009657
-0.19556977 0.22332126 0.99617493
-1.0867164 1.2337101 3.9327753
-1.0110271 1.1429814 2.8637791
-0.97145426 1.0951864 2.2227387
-0.93608725 1.0531129 1.7635844
-0.099087268 0.13701612 2.7648072
-0.52629256 0.68232566 7.9939895
-0.15556104 0.17908117 0.9508481
-1.1474234 1.3108872 4.7917295
-1.0367126 1.1777917 3.3081367
-0.99024373 1.1214721 2.5173206
-0.94843328 1.0715036 1.9695814
-0.92068648 1.0383487 1.5827116
-0.91224128 1.0219871 1.4259976
-0.88640112 0.99200511 1.1550683
-0.8740077 0.97711927 0.94412446
-0.86069781 0.96157408 0.76208436
-0.85114437 0.95024413 0.60373497
-0.84230357 0.93972498 0.46087852
-0.82654589 0.92150456 0.32649243
-0.81483996 0.90782738 0.20246312
-0.90100187 1.0122437 1.2881246
-0.8729589 0.97971791 1.0390246
-0.86186481 0.96659815 0.84662414
-0.8590467 0.96243399 0.68382275
-0.8497141 0.95132065 0.5330869
-0.8325671 0.93147945 0.39203864
-0.81189889 0.90804398 0.26210526
-0.8059935 0.90081769 0.14243589
-0.011681747 0.018880937 1.0242345
-0.78582937 0.92894506 7.735302
-0.13102503 0.15250331 0.99009657
-0.19381033 0.22287548 0.99140298
-1.0875477 1.2433783 3.9511855
-1.0117723 1.1519022 2.876946
-0.97320491 1.1049061 2.2351375
-0.93664736 1.0611804 1.7712594
-0.098608397 0.13736117 2.7648072
-0.5239076 0.68415856 7.9939895
-0.15575498 0.18057574 0.95568752
-1.149632 1.3226999 4.8198857
-1.0368925 1.1863209 3.3216405
-0.99148089 1.1308053 2.5301185
-0.9486655 1.0793346 1.9775614
-0.92153674 1.0466452 1.5900619
-0.9133991 1.030503 1.4330066
-0.88809937 1.0009162 1.1613452
-0.87336826 0.98329049 0.94686598
-0.86322159 0.97119462 0.76672196
-0.85090315 0.9566735 0.60560799
-0.84220755 0.94624287 0.46228856
-0.82659131 0.92805237 0.32742503
-0.81497967 0.91438383 0.2029102
-0.90240818 1.0209781 1.2947755
-0.87221211 0.98578644 1.0419677
-0.86420059 0.97605598 0.85169047
-0.85869217 0.96882325 0.68592077
-0.84952158 0.95781386 0.53473043
-0.83253706 0.93801534 0.39321095
-0.81201226 0.9145757 0.26279593
-0.80616236 0.90736037 0.14263742
-0.011615769 0.018921599 1.0242345
-0.78258198 0.93168247 7.735302
-0.13049188 0.15295975 0.99009657
-0.19303116 0.22355065 0.99140298
-1.0896055 1.2545425 3.9741976
-1.0124675 1.1608422 2.8901134
-0.97489959 1.1146514 2.2475364
-0.93716252 1.0692645 1.7789344
-0.097963132 0.13746776 2.7598155
-0.52151626 0.68598324 7.9939895
-0.15512371 0.18111832 0.95568752
-1.1517721 1.3345439 4.8480425
-1.0384523 1.19651 3.3396454
-0.99095231 1.1381935 2.5386503
-0.94885463 1.0871801 1.9855415
-0.92234015 1.0549603 1.5974122
-0.91215253 1.0363623 1.4365112
-0.88717312 1.0069308 1.1644837
-0.8726964 0.98946923 0.94960743
-0.86275744 0.97752321 0.76904076
-0.8506273 0.96311253 0.607481
-0.84525287 0.95636582 0.4651086
-0.82985544 0.93829131 0.32929027
-0.8117829 0.91722304 0.2029102
-0.90130168 1.0269283 1.2981011
-0.87410122 0.99489826 1.0478541
-0.86363459 0.98230422 0.85422367
-0.86130196 0.97862875 0.69011688
-0.84929401 0.9643172 0.53637397
-0.83247149 0.94456232 0.39438328
-0.81208968 0.92111915 0.26348662
-0.80629539 0.91391528 0.14283895
-0.011549651 0.018962031 1.0242345
-0.77982241 0.93500537 7.7402415
-0.12995715 0.15341431 0.99009657
-0.19127883 0.22308922 0.98663098
-1.090323 1.2642567 3.9926083
-1.0131125 1.1698008 2.9032805
-0.97469288 1.122297 2.2558022
-0.9376325 1.0773653 1.7866094
-0.097482689 0.13780887 2.7598155
-0.51911855 0.68779945 7.9939895
-0.15449055 0.1816587 0.95568752
-1.1538433 1.3464187 4.8761988
-1.0385323 1.205075 3.3531489
-0.99208981 1.1475648 2.5514481
-0.94900048 1.0950401 1.9935215
-0.9230969 1.0632938 1.6047627
-0.91322267 1.0449106 1.4435203
-0.88621557 1.0129509 1.1676221
-0.87199205 0.99565518 0.95234889
-0.86225969 0.98386037 0.77135956
-0.85031688 0.96956146 0.60935402
-0.84507364 0.96291602 0.46651864
-0.82981658 0.94487327 0.3302229
-0.81186372 0.92379194 0.20335729
-0.90261751 1.0356979 1.304752
-0.87328017 1.0009893 1.0507972
-0.86303538 0.98856038 0.85675687
-0.86086714 0.98504674 0.69221497
-0.84903127 0.97083056 0.53801745
-0.83237022 0.9511202 0.39555559
-0.81213123 0.92767429 0.26417729
-0.80639231 0.92048198 0.14304048
-0.011483389 0.019002231 1.0242345
-0.77655393 0.93772173 7.7402415
-0.12942086 0.15386702 0.99009657
-0.19049893 0.22375554 0.98663098
-1.0922562 1.275475 4.0156207
-1.0137074 1.1787781 2.9164479
-0.97628224 1.132086 2.2682009
-0.93805736 1.0854821 1.7942843
-0.097001046 0.13814831 2.7598155
-0.51671451 0.68960738 7.9939895
-0.15385549 0.18219687 0.95568752
-1.1558459 1.3583245 4.9043555
-1.0399805 1.2153094 3.3711536
-0.99317384 1.1569579 2.5642459
-0.95106834 1.1051984 2.0054917
-0.92380643 1.0716453 1.612113
-0.91424435 1.053479 1.4505293
-0.88777947 1.0219152 1.1738991
-0.87125504 1.0018481 0.95509034
-0.86172801 0.990206 0.77367836
-0.84997183 0.97601986 0.6112271
-0.84485871 0.96947652 0.46792868
-0.83297038 0.95516866 0.33208814
-0.81190848 0.93037236 0.20380437
-0.90388316 1.0444894 1.311403
-0.87507367 1.0101418 1.0566835
-0.86522657 0.99808162 0.8618232
-0.86039793 0.99147362 0.69431299
-0.84873354 0.97735387 0.53966099
-0.83223331 0.95768881 0.39672789
-0.81538582 0.93797833 0.26555866
-0.80645329 0.92706054 0.14324202
-0.011416988 0.019042199 1.0242345
-0.77376926 0.94102705 7.7451806
-0.12888297 0.15431784 0.99009657
-0.18875386 0.22327854 0.98185903
-1.0941243 1.2867221 4.0386333
-1.0142519 1.1877738 2.9296153
-0.97598487 1.139762 2.2764668
-0.93843693 1.0936151 1.8019594
-0.096680924 0.13872457 2.7648072
-0.51430416 0.69140679 7.9939895
-0.15321857 0.18273281 0.95568752
-1.157779 1.3702604 4.9325118
-1.0413699 1.2255684 3.3891585
-0.99420434 1.1663724 2.5770435
-0.95111936 1.1130934 2.0134716
-0.92446893 1.0800147 1.6194633
-0.91521728 1.0620673 1.4575385
-0.88674921 1.0279552 1.1770375
-0.87321818 1.0112131 0.96057326
-0.8611626 0.99655974 0.77599716
-0.84959197 0.98248756 0.61310011
-0.84460849 0.97604728 0.46933872
-0.83284682 0.96178395 0.33302075
-0.81191719 0.93696439 0.20425145
-0.90509832 1.053302 1.318054
-0.87681383 1.0193191 1.0625699
-0.86454952 1.0043628 0.8643564
-0.85989439 0.99790913 0.69641101
-0.84840035 0.98388678 0.54130447
-0.83206069 0.96426803 0.39790022
-0.81534255 0.9445675 0.26624933
-0.80647814 0.93365079 0.14344354
-0.011341162 0.019039303 1.0192348
-0.77047968 0.94372225 7.7451806
-0.12834351 0.15476678 0.99009657
-0.18797334 0.22393605 0.98185903
-1.0959274 1.2979977 4.061646
-1.0147458 1.1967875 2.9427824
-0.97746861 1.1495938 2.2888658
-0.93877113 1.1017638 1.8096343
-0.096357942 0.13930024 2.7697988
-0.51157153 0.69276869 7.9890184
-0.15257978 0.18326654 0.95568752
-1.1596429 1.3822263 4.9606686
-1.0427002 1.2358518 3.4071634
-0.99518126 1.1758083 2.5898414
-0.95307618 1.1233 2.0254416
-0.92508417 1.0884017 1.6268137
-0.91614133 1.0706751 1.4645475
-0.88821965 1.0369568 1.1833144
-0.87240481 1.0174292 0.96331471
-0.86056328 1.0029216 0.77831602
