# .PCD v0.7 - Point Cloud Data file format
VERSION 0.7
FIELDS x y z
SIZE 4 4 4
TYPE F F F
COUNT 1 1 1
WIDTH 1522
HEIGHT 1
VIEWPOINT 0 0 0 1 0 0 0
POINTS 1522
DATA ascii
5.4852815 -11.683125 12.763204
3.9410555 -8.3826418 7.5512428
2.5745523 -5.4686279 4.0474644
5.7540426 -12.211283 7.1526966
8.2921925 -17.581902 7.9422774
6.0964355 -12.914563 4.2877073
10.675152 -22.593634 4.835711
11.221959 -23.729504 2.4494824
5.9954453 -12.798796 10.37473
8.330966 -17.768469 11.617701
2.5986276 -5.5348239 2.9140525
9.879405 -21.023314 8.1737604
10.681552 -22.699429 3.5911829
11.652638 -24.74069 1.1968457
0.00055818656 -0.11207987 11.428839
1.096388 -2.5073254 17.39649
0.23883291 -0.53617275 2.8453877
0.30560744 -0.67414808 2.4134541
0.41568139 -0.9088195 2.4139423
0.48845693 -1.0621868 2.209806
0.61698538 -1.3368897 2.2351375
0.5742538 -1.2409083 1.7136967
0.071378306 -0.20799163 3.6433392
0.48751891 -1.2823006 12.751719
0.26461431 -0.59039521 2.5285003
0.36967182 -0.81489182 2.4875808
0.43406346 -0.94995123 2.2233443
0.5340144 -1.1602941 1.7660903
4.538424 -9.8399191 11.825396
6.8465133 -14.715762 16.029442
3.9282079 -8.4316301 7.5826273
2.5554476 -5.4775815 4.0474644
5.906301 -12.648728 7.3938522
8.1169214 -17.367149 7.833642
6.057416 -12.948799 4.2919374
11.126379 -23.741474 2.4468
4.8254294 -10.409632 10.30023
5.9507327 -12.819646 10.37473
8.2489119 -17.754436 11.589835
2.5754626 -5.5356312 2.9098566
9.7999792 -21.044828 8.1688299
9.8790798 -21.195375 5.7307725
10.662943 -22.86673 3.6112127
13.989766 -29.97382 1.4280016
0.00016428038 -0.11212467 11.433838
1.0860856 -2.5075717 17.371794
0.23819157 -0.53979844 2.8600733
0.30447474 -0.67793453 2.4229982
0.39880222 -0.88001198 2.3356993
0.48176783 -1.0573468 2.1966388
0.60997486 -1.3339169 2.2268715
0.56991869 -1.2429051 1.7136967
0.0705612 -0.20796542 3.6383476
0.48303986 -1.2839946 12.751719
0.26306149 -0.59246433 2.53334
0.37248197 -0.82877034 2.5251229
0.43164247 -0.953444 2.2278454
6.5408893 -14.392338 25.928766
0.53746134 -1.1786014 1.7900304
4.4899578 -9.8248663 11.788644
6.7801738 -14.707186 15.994396
5.0146332 -10.862494 9.729332
2.5626302 -5.5434003 4.0885863
8.0835247 -17.454269 7.8598642
6.0182314 -12.982923 4.2961679
9.7108517 -20.929771 4.4719892
11.018268 -23.725969 2.4414351
4.7547784 -10.351767 10.227069
5.9431057 -12.921126 10.439479
8.1436224 -17.689146 11.529039
2.5504236 -5.5322223 2.9035621
8.4424257 -18.296181 7.1021929
9.8131866 -21.247381 5.7354617
10.591368 -22.921795 3.6139755
13.926994 -30.113157 1.4320322
-0.00022710893 -0.11212457 11.433838
1.0764072 -2.5092053 17.356977
0.23467657 -0.53689378 2.8404922
0.30392572 -0.68308508 2.437314
0.38932866 -0.86713958 2.2988791
0.47610369 -1.054656 2.1878607
0.58905888 -1.3001518 2.1690104
0.56425112 -1.2419689 1.7098594
0.069745146 -0.20793605 3.6333559
0.47855493 -1.2856728 12.751719
0.26099181 -0.59337896 2.53334
0.36958677 -0.83006549 2.5251229
0.42920232 -0.95693123 2.2323468
6.4809742 -14.39368 25.890373
4.4444485 -9.815773 11.759242
4.7699447 -10.44238 11.361385
4.9394469 -10.798521 9.6571474
2.5432646 -5.5523119 4.0885863
4.7821627 -10.430634 6.0930052
8.1346931 -17.726761 7.9685006
5.9788833 -13.016929 4.3003979
9.6951866 -21.088511 4.4981022
10.89791 -23.682854 2.4333875
4.0876055 -8.9817543 8.870265
5.5509944 -12.180433 9.8302441
8.0299444 -17.603724 11.455577
2.5273256 -5.532835 2.8993661
8.459012 -18.501617 7.1695766
9.7389593 -21.281506 5.7354617
10.406157 -22.728992 3.5787511
13.95708 -30.456804 1.4451318
-0.0006184958 -0.11212309 11.433838
1.0667306 -2.5108018 17.342159
0.23603348 -0.54518658 2.8796544
0.30274278 -0.68687403 2.4468579
0.3862994 -0.86849332 2.2988791
0.4704642 -1.0519388 2.1790826
0.56032091 -1.2482862 2.0822184
0.55859691 -1.2410079 1.7060218
0.069018893 -0.20817824 3.6333559
0.4740642 -1.2873355 12.751719
0.25942057 -0.5954389 2.5381792
0.36111817 -0.81871825 2.4875808
0.42851046 -0.96439201 2.2458501
6.4190044 -14.390015 25.843447
4.4087701 -9.8281336 11.755567
4.7334652 -10.458967 11.361385
3.8798656 -8.5609331 7.6610885
2.5601566 -5.6411161 4.1461568
5.831604 -12.825873 5.7807975
5.9373827 -13.046452 4.3032179
9.6378059 -21.157988 4.5055633
10.780053 -23.643717 2.4257872
4.0700412 -9.0266018 8.9001942
5.6082439 -12.42077 10.006835
8.0359097 -17.780922 11.551838
2.5042546 -5.5333538 2.89517
5.6742768 -12.526246 4.8752379
9.3474798 -20.615931 5.5502353
13.844484 -30.491692 1.4445271
-0.0010098742 -0.11212025 11.433838
1.0570562 -2.5123615 17.327341
1.0645627 -2.4854236 13.022565
0.30511838 -0.69887191 2.4850338
0.38326544 -0.86983651 2.2988791
0.46484956 -1.0491951 2.1703045
0.5376687 -1.2090931 2.0160913
0.068204023 -0.20814288 3.6283643
0.46956763 -1.2889824 12.751719
0.25833568 -0.59864938 2.547858
0.35756749 -0.81839228 2.482888
0.42689502 -0.96986711 2.2548525
6.3539772 -14.378936 25.783726
0.63500464 -1.432085 2.1491325
4.3730597 -9.8403654 11.751892
6.5834789 -14.683009 15.892764
5.1046801 -11.368914 10.131054
2.5901771 -5.7606149 4.2256594
4.8473945 -10.770773 6.2692342
5.8115511 -12.901102 5.8051472
5.8977218 -13.080217 4.3074479
9.5638924 -21.191502 4.5055633
10.662604 -23.604052 2.4181869
4.0324159 -9.0271177 8.8868923
5.6886387 -12.716997 10.227571
8.0284023 -17.930828 11.630366
2.4812105 -5.5337787 2.890974
5.6015148 -12.481354 4.850585
9.2714767 -20.639566 5.5478911
9.073905 -20.190329 3.1795378
13.793302 -30.662849 1.4499685
-0.0014012412 -0.11211605 11.433838
1.0473838 -2.5138841 17.312525
1.0530978 -2.4825625 12.988298
0.29853228 -0.69034106 2.4516301
0.381008 -0.87295961 2.3034816
0.46118435 -1.0508113 2.1703045
0.5289079 -1.2006613 1.9995594
0.067477055 -0.20837969 3.6283643
0.46506539 -1.2906137 12.751719
0.25673801 -0.60070354 2.5526977
0.35607874 -0.82280314 2.4922736
0.42611635 -0.97733831 2.2683563
0.50379872 -1.1506958 2.1248546
0.63242513 -1.4398108 2.1571126
4.3373179 -9.8524675 11.748217
6.5162611 -14.67005 15.854214
5.0633821 -11.383107 10.127915
2.5870671 -5.8078179 4.2530742
4.7412205 -10.633884 6.1811199
5.5246525 -12.379423 5.5653987
5.8657227 -13.131384 4.317318
10.551666 -23.57749 2.4119279
3.9872828 -9.0104094 8.8569622
5.3985763 -12.182465 9.7860975
8.0077124 -18.053318 11.691163
2.4600365 -5.5382581 2.888876
5.5713425 -12.531035 4.8620901
9.1420641 -20.543022 5.5138936
8.989274 -20.190212 3.1747031
13.730924 -30.811201 1.4544022
-0.0017925906 -0.11211047 11.433838
1.0380099 -2.5160882 17.302645
1.0471854 -2.492795 13.022565
0.29670802 -0.69275117 2.4564021
0.37950841 -0.87787104 2.3126867
0.45751351 -1.0524148 2.1703045
0.52808934 -1.210238 2.0119581
0.06674926 -0.20861395 3.6283643
0.46037892 -1.2917269 12.746747
0.25561866 -0.60391158 2.5623765
0.35252494 -0.82245493 2.4875808
0.42529067 -0.98481566 2.2818599
0.5008164 -1.1548402 2.1291206
0.62739545 -1.4420096 2.1571126
4.3015451 -9.86444 11.744541
6.4506507 -14.660065 15.819169
4.8180146 -10.934109 9.7167778
2.6106677 -5.9162769 4.3243523
4.7541852 -10.76383 6.2460461
5.4720345 -12.377434 5.5560341
5.8314967 -13.1781 4.3257785
9.4515247 -21.338598 4.5223503
10.443062 -23.554993 2.4061158
3.9603031 -9.0345306 8.8669395
5.3608918 -12.212337 9.7949266
7.9932008 -18.191666 11.762092
2.4370337 -5.5385032 2.8846796
5.5713434 -12.649803 4.8998904
9.0977497 -20.637074 5.5303059
8.9087505 -20.198814 3.1712496
13.617236 -30.845234 1.4537976
-0.0021839181 -0.11210353 11.433838
1.0286334 -2.5182574 17.292767
1.0490336 -2.5218196 13.154737
0.29312301 -0.69103402 2.4468579
0.37721047 -0.88098657 2.3172891
0.45383716 -1.0540054 2.1703045
0.51939666 -1.2017413 1.9954264
0.49151003 -1.133989 1.5563592
0.065935768 -0.20856975 3.6233726
0.45569038 -1.2928232 12.741776
0.25496545 -0.60827845 2.5768948
0.42527384 -0.9943009 2.299865
0.49163678 -1.1445993 2.1077909
0.61401153 -1.4248197 2.1291823
4.2590208 -9.8607216 11.72249
6.3866138 -14.653069 15.787628
5.0554142 -11.582275 10.272285
2.5866508 -5.9176912 4.3188691
4.7964854 -10.962987 6.3503923
5.4287958 -12.396459 5.5560341
5.7970166 -13.224737 4.3342385
9.3769808 -21.37146 4.5223503
10.334743 -23.532028 2.4003036
3.9614577 -9.1236467 8.9400997
5.3359594 -12.27175 9.827302
7.9812613 -18.338039 11.838088
2.4140589 -5.5386553 2.8804836
5.6385608 -12.924539 4.9968576
9.0256567 -20.668705 5.5303059
8.8183632 -20.18441 3.1643429
13.671621 -31.263346 1.4701215
-0.002571485 -0.11205175 11.428839
1.0198368 -2.5218327 17.292767
0.224932 -0.54545683 2.8600733
0.2912868 -0.69342935 2.4516301
0.37489533 -0.88409662 2.3218915
0.49386978 -1.1504247 1.5755466
0.065207325 -0.20879863 3.6233726
0.4511748 -1.2944061 12.741776
0.2509149 -0.6045202 2.5575368
0.4764533 -1.1335403 3.3979776
0.42180049 -0.99577934 2.299865
0.48967984 -1.1511085 2.1163228
0.60666889 -1.4214114 2.1212022
4.2339072 -9.8973455 11.748217
6.3283591 -14.658902 15.770105
5.4335332 -12.568059 11.122807
2.5659785 -5.9266839 4.3188691
9.0401897 -20.860586 11.987394
5.3707323 -12.381309 5.5410495
5.7641921 -13.275692 4.3441086
9.3473558 -21.507679 4.5438008
10.224727 -23.504028 2.3940446
3.9546623 -9.1957312 8.9966335
5.2930903 -12.290301 9.827302
7.9615693 -18.46871 11.90395
2.3929119 -5.5428815 2.8783855
7.9535546 -18.405956 7.0676794
8.9746819 -20.749161 5.5432014
8.7360535 -20.187799 3.1601987
-0.0029626025 -0.11204209 11.428839
1.0110277 -2.5253773 17.292767
0.22187348 -0.54341012 2.8453877
0.28886449 -0.69444197 2.4516301
0.37256312 -0.88720131 2.3264942
0.49110496 -1.1550914 1.5793842
0.064478084 -0.20902498 3.6233726
0.44648048 -1.2954689 12.736805
0.24832587 -0.60422963 2.5526977
0.47315648 -1.1367897 3.4026701
0.41916382 -0.99925315 2.3043661
0.60404956 -1.4290715 2.1291823
6.2561207 -14.631717 15.717537
5.4616385 -12.75512 11.270314
2.5353873 -5.9125466 4.3024206
8.9935265 -20.953075 12.022177
5.4080005 -12.587395 5.6234627
5.7235017 -13.308953 4.3483391
9.2722244 -21.540176 4.5438008
10.115031 -23.475548 2.3877854
3.9444859 -9.2610064 9.0465164
7.9105949 -18.528105 11.924215
2.3681965 -5.5386815 2.8720915
7.85953 -18.364147 7.0413833
8.8945427 -20.762489 5.5385122
8.6557779 -20.195414 3.1567454
-0.003353684 -0.11203107 11.428839
1.0019201 -2.5281687 17.287827
1.0138029 -2.5109496 13.042146
0.2864387 -0.69544601 2.4516301
0.37021375 -0.89030039 2.3310966
0.44369876 -1.0609095 2.1746933
0.48582637 -1.1538445 1.5755466
0.063748054 -0.20924878 3.6233726
0.44195572 -1.2970196 12.736805
0.24479525 -0.6015994 2.5381792
0.41650808 -1.0027208 2.3088672
0.59905744 -1.4311713 2.1291823
4.4794822 -10.676947 12.630257
6.2272577 -14.706008 15.773609
4.0448856 -9.5382776 8.4362879
2.5147331 -5.921361 4.3024206
4.8339238 -11.371367 6.5544462
5.3640289 -12.606196 5.6234627
5.6770101 -13.328851 4.3483391
10.005661 -23.446587 2.3815265
3.8744066 -9.1852732 8.9600534
5.1285181 -12.140782 9.6801434
7.8374772 -18.535753 11.91155
2.345309 -5.5385551 2.8678954
7.8598781 -18.54364 7.0989056
5.8566871 -13.804147 3.7073524
8.5716848 -20.193598 3.1519108
-0.0037447258 -0.11201867 11.428839
0.99337268 -2.5323739 17.292767
1.0069208 -2.5192008 13.066622
0.28457263 -0.697824 2.4564021
0.36710379 -0.89158726 2.3310966
0.43907666 -1.0602392 2.1703045
0.48796222 -1.1703256 1.5947342
0.063017249 -0.20947003 3.6233726
0.43742558 -1.2985544 12.736805
0.24316303 -0.60361636 2.5430188
0.48345777 -1.1848055 3.5340676
0.60328692 -1.4555231 2.1611025
4.4499888 -10.711301 12.652307
4.5457792 -10.840294 11.631236
4.0160871 -9.5631037 8.4457026
4.7924824 -11.384089 6.5521274
5.5950265 -13.264607 4.3215485
8.8846951 -21.04323 4.4281559
9.896615 -23.41715 2.3752673
3.846637 -9.2090759 8.9700298
5.2819581 -12.614457 8.1219139
2.3224514 -5.5383382 2.8636992
5.475832 -13.045546 5.0132923
5.8122315 -13.83347 3.7096972
8.4704399 -20.150352 3.1408598
-0.0041400623 -0.11204834 11.433838
0.98452705 -2.535826 17.292767
1.000368 -2.5283813 13.095993
0.28213507 -0.69881308 2.4564021
0.36472651 -0.89467251 2.3356993
0.43718988 -1.0661974 2.1790826
5.9410601 -14.43529 22.999071
0.49732679 -1.2046121 1.6369468
0.062285684 -0.20968871 3.6233726
0.43289015 -1.3000734 12.736805
0.24384552 -0.61146778 2.5720553
0.4793191 -1.1864858 3.5340676
0.59820253 -1.4576201 2.1611025
4.4099927 -10.720499 12.644957
4.5215888 -10.889032 11.666282
3.9811869 -9.5734711 8.442564
4.7476015 -11.388481 6.5451713
5.3722973 -12.87437 5.724607
5.5431433 -13.270777 4.317318
9.7840519 -23.378052 2.368114
3.8059061 -9.201746 8.9500771
2.2733009 -5.4881124 4.4089432
5.2279873 -12.608925 8.1067152
2.2996237 -5.5380278 2.859503
5.4429483 -13.095104 5.0247974
5.776978 -13.885088 3.7179034
8.3753099 -20.120361 3.131881
-0.0045311581 -0.1120332 11.433838
0.97539079 -2.538522 17.287827
0.99190742 -2.5328062 13.100888
0.27969402 -0.69979364 2.4564021
0.36087042 -0.89412838 2.3310966
0.43166417 -1.0632786 2.1703045
5.8789544 -14.427275 22.953609
0.5076704 -1.2419448 1.6829967
0.061553352 -0.20990486 3.6233726
0.42834938 -1.3015766 12.736805
0.24309291 -0.61582333 2.5865736
0.46428469 -1.1609113 3.4542906
0.59764743 -1.4708661 2.1770625
4.3687081 -10.726408 12.633931
4.4944 -10.931135 11.694318
3.940335 -9.569313 8.4268723
4.7027488 -11.3927 6.5382147
5.2989988 -12.824491 5.6946383
9.6718826 -23.338453 2.360961
3.7709324 -9.2080631 8.9434252
2.2479949 -5.4810553 4.3971705
5.170845 -12.595196 8.0864496
2.2768271 -5.5376263 2.8553071
5.3450866 -12.987387 4.9771357
5.7284751 -13.905169 3.7179034
8.2804937 -20.089954 3.1229019
-0.0049268436 -0.11206008 11.438837
0.96652377 -2.5419111 17.287827
0.98342818 -2.5372026 13.105784
0.27724957 -0.70076567 2.4564021
0.35992086 -0.90082556 2.3449044
0.42794999 -1.0647789 2.1703045
5.8190827 -14.42422 22.916412
0.50814104 -1.2555941 1.6983467
0.06082027 -0.21011844 3.6233726
0.42363894 -1.3025568 12.731833
0.2423128 -0.62018096 2.6010919
0.45895958 -1.1593157 3.444905
4.3249006 -10.725871 12.615556
4.4562159 -10.946757 11.694318
3.8657644 -9.482089 8.338995
6.7310205 -16.485527 11.759209
4.664628 -11.413147 6.5405335
5.2296257 -12.78284 5.668416
5.6685157 -13.84186 4.4865222
9.5601091 -23.298355 2.3538074
3.7359619 -9.2142515 8.9367752
4.1373277 -10.188887 8.0908375
5.1268482 -12.613169 8.0864496
2.2557719 -5.5413365 2.853209
5.2266593 -12.826671 4.9097514
5.7166166 -14.015092 3.7413495
8.1916056 -20.072887 3.1159954
-0.0053179767 -0.1120422 11.438837
0.95764488 -2.5452695 17.287827
0.97529465 -2.542521 13.115574
0.27480179 -0.70172918 2.4564021
0.35964715 -0.90934378 2.3633144
0.42246032 -1.0618154 2.1615264
5.7613916 -14.426151 22.887482
0.50852269 -1.2692618 1.7136967
0.060009301 -0.21005127 3.618381
0.41908962 -1.3040276 12.731833
0.24105233 -0.62336808 2.6107707
0.72111994 -1.8109448 2.6558657
4.0297909 -10.095443 11.862147
4.4179773 -10.962245 11.694318
3.8792608 -9.6110268 8.4394264
6.6718674 -16.505045 11.756467
4.6480227 -11.48685 6.5729966
5.1258001 -12.654924 5.604733
5.6201639 -13.861564 4.4865222
11.580822 -28.534374 5.9380679
9.4412365 -23.239311 2.344866
3.7009935 -9.2203054 8.9301243
4.0987215 -10.195765 8.0849504
5.0715237 -12.602993 8.068717
2.2330225 -5.5407577 2.8490129
5.1765542 -12.831698 4.9048209
5.6658401 -14.030454 3.7401772
8.1251984 -20.110544 3.1173768
-0.0057040974 -0.11197961 11.433838
0.94875449 -2.5485966 17.287827
0.9671362 -2.5478141 13.125364
0.27288967 -0.70407617 2.461174
0.35860646 -0.91605169 2.3771222
5.7016892 -14.422622 22.850285
0.48991123 -1.2352748 1.6676468
0.059275717 -0.21025945 3.618381
0.41437423 -1.3049743 12.726861
0.23977254 -0.62655389 2.6204495
0.36727044 -0.94688642 2.8160744
0.71479422 -1.8134509 2.6558657
3.9882975 -10.093682 11.843771
4.4933343 -11.262464 11.995708
3.8630188 -9.667882 8.477087
8.4904432 -21.195339 12.038408
8.848115 -22.065929 9.6935635
5.5645962 -13.863288 4.4808817
8.7486763 -21.77396 4.5465984
9.3451929 -23.235163 2.3412893
3.6660287 -9.2262287 8.9234724
4.0900083 -10.277612 8.137928
5.0099516 -12.576567 8.0408516
2.2103043 -5.5400877 2.8448167
5.6168303 -14.050146 3.7401772
8.0549507 -20.138783 3.1173768
12.879707 -32.168987 1.4914839
-0.0060949437 -0.11195902 11.433838
0.93985242 -2.551893 17.287827
0.95895261 -2.5530808 13.135155
0.27043033 -0.70502442 2.461174
0.35963985 -0.92822874 2.4047372
5.6431074 -14.421474 22.817223
0.4610036 -1.1743207 1.5870591
0.058466211 -0.21018636 3.6133893
0.40981647 -1.3064128 12.726861
0.23758399 -0.62738705 2.6204495
0.35716337 -0.93043989 2.7644541
0.71722025 -1.8383929 2.6877859
4.0135441 -10.262249 12.023854
3.5344217 -8.9495716 9.5355167
3.829248 -9.6813078 8.477087
4.3343072 -10.941519 7.8005309
8.4245701 -21.245436 12.050002
8.7812986 -22.122532 9.7048016
5.4630299 -13.748888 4.438581
8.6835117 -21.831755 4.5521941
9.2419243 -23.212122 2.3359244
3.6269677 -9.2215958 8.9068451
4.0541077 -10.291825 8.137928
4.9802527 -12.630072 8.0636511
2.1892853 -5.5435481 2.8427186
4.9826841 -12.604037 4.8062105
5.6786408 -14.349882 3.812861
7.9718428 -20.134548 3.1125419
12.914598 -32.585304 1.5076063
-0.0064857169 -0.11193706 11.433838
0.93120474 -2.5558882 17.292767
0.95074409 -2.5583217 13.144946
0.26849705 -0.70735979 2.465946
0.35639754 -0.92947841 2.4047372
5.5754561 -14.396473 22.746962
0.452259 -1.1639719 1.5717092
0.057732169 -0.21038917 3.6133893
0.40525377 -1.3078353 12.726861
0.23495196 -0.62703538 2.6156101
0.35085073 -0.92361438 2.7409902
5.8673091 -15.324454 33.992912
0.7118839 -1.8436962 2.6917758
3.9764743 -10.273036 12.02018
4.4937973 -11.496171 12.209486
3.8365803 -9.7997255 8.5681028
4.2899823 -10.94101 7.7895656
8.3438845 -21.258219 12.040728
8.6938505 -22.127161 9.6935635
5.3570623 -13.620555 4.3920498
8.5118752 -21.619682 4.5027657
3.597465 -9.2411585 8.913496
4.0401821 -10.362403 8.1820745
4.9361353 -12.647379 8.0636511
2.1666167 -5.5427027 2.8385227
4.9558649 -12.665328 4.8226457
5.6338339 -14.383196 3.8163781
7.8906703 -20.134586 3.1083977
12.992352 -33.11853 1.5287671
-0.0068764109 -0.11191374 11.433838
0.92254072 -2.5598543 17.297705
0.94251066 -2.5635364 13.154737
0.26655072 -0.70969027 2.4707179
0.35107249 -0.92523676 2.3909295
5.5120773 -14.381688 22.693233
0.45049369 -1.171527 1.5793842
0.05707068 -0.21086866 3.618381
0.40068609 -1.3092419 12.726861
0.23232526 -0.62667292 2.6107707
0.34337643 -0.9135254 2.7081406
5.8060684 -15.324485 33.947899
0.70436847 -1.8433551 2.6877859
3.9418025 -10.290019 12.023854
4.424046 -11.435288 12.128882
3.8192248 -9.8566093 8.6057644
4.2502527 -10.95202 7.7868237
8.2407551 -21.212893 11.998989
8.6081581 -22.135769 9.6841974
5.2572789 -13.505063 4.3497486
8.423872 -21.617224 4.4962373
3.5651853 -9.2536592 8.913496
4.0258121 -10.433007 8.226222
4.8531256 -12.564002 8.0003214
2.1456182 -5.5459986 2.8364246
4.9150348 -12.691357 4.8259325
8.5651035 -22.093546 5.8058004
12.99963 -33.48037 1.5424712
-0.0072670211 -0.11188906 11.433838
0.91359961 -2.5630589 17.297705
0.9342522 -2.5687244 13.164526
0.26407182 -0.71061641 2.4707179
0.34852707 -0.92828566 2.3955321
5.3836241 -14.254536 27.991257
5.4478712 -14.364004 22.635372
0.45438001 -1.1940627 1.6062467
0.056334265 -0.21106659 3.618381
0.39611351 -1.3106327 12.726861
0.22927158 -0.62511951 2.6010919
0.33778059 -0.90824825 2.6893697
0.69899523 -1.8486211 2.6917758
3.9310946 -10.370287 12.101032
4.3471236 -11.354076 12.02725
3.7847955 -9.8698816 8.6057644
4.203002 -10.94337 7.7703753
8.1587086 -21.220852 11.987394
5.241148 -13.603906 4.3751292
10.451149 -27.070698 2.6980584
3.5408435 -9.2869816 8.9334497
3.9778342 -10.416787 8.2026768
7.176579 -18.773827 11.896351
2.1230004 -5.5449767 2.8322284
4.8723936 -12.712846 4.8275762
8.4461441 -22.014397 5.7776651
12.882683 -33.525543 1.5424712
-0.0076575414 -0.111863 11.433838
0.9049055 -2.5669651 17.302645
0.92596918 -2.5738864 13.174317
0.26210436 -0.71293491 2.4754899
0.34324452 -0.92400217 2.3817246
5.3313189 -14.266511 27.97809
5.3927546 -14.369761 22.614708
0.45585573 -1.2106401 1.6254343
0.05559716 -0.21126194 3.618381
0.39138418 -1.3114965 12.721889
0.22708811 -0.62591606 2.6010919
0.32090959 -0.87217021 2.5814362
0.69253808 -1.8510499 2.6917758
0.48861453 -1.3025008 1.5863868
3.386379 -8.9380198 9.472436
3.7696531 -9.9339809 8.649703
4.6282644 -12.177472 8.6257124
8.0767097 -21.228502 11.975801
5.1987567 -13.635565 4.3793597
10.365478 -27.130276 2.7002938
3.5097225 -9.3027782 8.9367752
3.934305 -10.411704 8.1879616
7.1049013 -18.782633 11.886218
2.1004159 -5.5438662 2.8280323
4.8497577 -12.787174 4.8489418
8.2226019 -21.657494 5.6780181
12.742493 -33.509602 1.5398512
-0.0080538234 -0.11187883 11.438837
0.89593959 -2.5701082 17.302645
0.91800267 -2.5799809 13.189003
0.26012397 -0.71524847 2.480262
5.2731819 -14.26257 27.9342
5.3366852 -14.37267 22.589911
0.45722112 -1.227242 1.6446217
0.054929711 -0.21173471 3.6233726
0.38680381 -1.3128548 12.721889
0.22447774 -0.62552166 2.5962524
0.30665451 -0.84247261 2.4922736
0.68711841 -1.8562819 2.6957657
0.48524445 -1.3073767 1.5900619
3.3501518 -8.936429 9.4584179
4.5857286 -12.193553 8.6257124
7.9994373 -21.248274 11.971163
4.8461452 -12.858804 5.6403203
5.162981 -13.685047 4.3892298
8.0269537 -21.253897 4.40484
9.9625177 -26.35111 2.6220548
3.478534 -9.31847 8.9400997
3.9078462 -10.451876 8.2085638
7.0272059 -18.775023 11.865952
2.0794585 -5.5469141 2.8259342
4.8067513 -12.808446 4.850585
8.1469526 -21.686064 5.6780181
6.9031296 -18.365448 2.8286724
-0.0084443046 -0.11185004 11.438837
0.88746899 -2.5746894 17.312525
0.91000491 -2.586051 13.203688
0.25813058 -0.71755683 2.4850338
5.2176051 -14.265144 27.903475
5.2826018 -14.380645 22.573378
0.4618012 -1.2528907 1.6753218
0.054190282 -0.21192516 3.6233726
0.38207024 -1.3136848 12.716918
0.2222929 -0.62630147 2.5962524
0.29553214 -0.82080537 2.4265747
0.68167061 -1.8614986 2.6997557
0.47600427 -1.2963327 1.5753613
3.4392345 -9.2724047 9.798358
4.5241809 -12.158541 8.5900736
7.9236717 -21.271917 11.968844
4.8514423 -13.010298 5.6983843
5.11518 -13.702987 4.3892298
3.4537466 -9.351572 8.9600534
2.0595465 -5.5675435 4.4060001
6.9646196 -18.807522 11.871018
2.0569267 -5.545629 2.8217382
4.7340693 -12.74989 4.8226457
6.8389797 -18.389431 2.8286724
-0.0088408375 -0.11186308 11.443837
0.88022989 -2.5829201 17.347099
0.90197593 -2.5920968 13.218374
0.25612429 -0.71986002 2.4898059
5.1637049 -14.27201 27.881529
5.2294884 -14.391063 22.56098
0.45742497 -1.254495 1.6753218
0.053381819 -0.21183255 3.618381
0.37733564 -1.3144981 12.711946
0.22052118 -0.62825972 2.6010919
0.29092944 -0.81695467 2.4124966
0.47737187 -1.3292027 2.9840493
0.67619473 -1.8666999 2.7037458
0.46916181 -1.2916135 1.5680109
3.9252739 -10.697199 11.277277
3.9057691 -10.626864 9.2114859
4.484601 -12.182108 8.5955563
7.8463078 -21.291134 11.964207
4.7755117 -12.944515 5.6627965
5.0540209 -13.684758 4.3779497
8.2855005 -22.410599 4.6277366
5.3712368 -14.701276 14.021464
2.0428777 -5.5822906 4.4118867
6.9463778 -18.961245 11.95208
2.0359931 -5.5485139 2.8196402
4.6797657 -12.739743 4.8127847
8.1765356 -22.235102 5.8046284
6.8140759 -18.520084 2.844558
-0.0092312591 -0.11183153 11.443837
0.87145644 -2.5867133 17.352037
0.89391577 -2.5981181 13.23306
0.25360996 -0.72074968 2.4898059
5.1057854 -14.267399 27.837639
5.1754146 -14.398636 22.544447
0.44651929 -1.237993 1.6522968
0.052642062 -0.2120176 3.618381
0.37274486 -1.3158072 12.711946
0.21832682 -0.6290257 2.6010919
0.28922176 -0.82122082 2.4218822
0.47345763 -1.3329123 2.9885504
0.67069083 -1.8718855 2.7077358
0.46465039 -1.2932432 1.5680109
3.8879097 -10.710835 11.277277
3.8580105 -10.61117 9.1863785
4.4949903 -12.34306 8.696991
7.7673879 -21.305906 11.957251
4.754138 -13.026429 5.6908922
5.0029292 -13.693305 4.3751292
8.2595291 -22.582397 4.6566477
9.7288342 -26.5709 2.6332319
5.3008518 -14.667264 13.971582
2.0206275 -5.5817862 4.4060001
6.9065857 -19.058331 11.997677
2.0150642 -5.551321 2.8175421
8.1420736 -22.382269 5.8351083
6.7493873 -18.543756 2.844558
12.281935 -33.707714 1.540859
-0.009628024 -0.11184178 11.448837
0.86487573 -2.5971117 17.40143
0.88582462 -2.6041145 13.247746
0.25158265 -0.72304046 2.4945779
0.41648519 -1.1841959 3.0168729
5.051157 -14.271587 27.811304
5.1222949 -14.408659 22.532047
0.4400416 -1.2335062 1.6446217
0.051901661 -0.21220006 3.618381
0.36814961 -1.3171003 12.711946
0.21612976 -0.62978393 2.6010919
0.28748786 -0.82548493 2.4312677
0.46952337 -1.3366109 2.9930518
0.66415268 -1.8742154 2.7077358
0.46013328 -1.2948573 1.5680109
3.8372416 -10.68742 11.238727
3.8183126 -10.617247 9.1801014
4.6403513 -12.881895 9.0616055
7.6899633 -21.324554 11.952613
4.7054901 -13.034225 5.6871462
4.9485784 -13.692639 4.3694897
9.7174292 -26.829453 2.6546917
1.9997687 -5.5849996 4.4030566
6.8865638 -19.212175 12.078739
1.992607 -5.5497785 2.8133461
5.0395393 -14.02082 5.2746105
8.0392103 -22.341953 5.817524
6.6980352 -18.604477 2.8500834
-0.010018366 -0.11180749 11.448837
0.85823292 -2.6074955 17.450823
0.8780269 -2.6110516 13.267326
0.24905725 -0.72391421 2.4945779
0.41234902 -1.1856424 3.0168729
4.9886498 -14.252964 27.741079
5.0701017 -14.421144 22.523783
0.43253446 -1.2259666 1.6331092
0.05116063 -0.21237995 3.618381
0.3635498 -1.3183773 12.711946
0.2139301 -0.63053453 2.6010919
0.28516617 -0.82811517 2.4359603
0.46699721 -1.3444111 3.0065553
0.65760642 -1.8765222 2.7077358
0.45448679 -1.2932572 1.5643358
3.7812285 -10.63051 9.1801014
4.4901052 -12.602596 8.8559952
7.6110153 -21.338751 11.945657
4.7176447 -13.212111 5.7564483
4.8959074 -13.696278 4.3652592
6.5823021 -18.393732 3.8005023
3.5966351 -10.173339 9.6916628
1.973515 -5.5728955 4.388341
6.8583498 -19.3458 12.147135
1.9717036 -5.552423 2.8112481
4.9905672 -14.038326 5.2746105
7.9432468 -22.319506 5.8046284
6.6480036 -18.669731 2.8562994
-0.010408585 -0.11177184 11.448837
0.84888566 -2.6097367 17.445885
0.8701914 -2.6179652 13.286907
0.24700911 -0.72619253 2.4993498
0.39296591 -1.1427333 2.9064121
5.0123391 -14.417489 22.490719
0.42402971 -1.2153634 1.6177592
0.050483424 -0.21283865 3.6233726
0.3588061 -1.3191239 12.706975
0.21132857 -0.63008559 2.5962524
0.28282961 -0.83073926 2.4406531
0.46442237 -1.3522099 3.0200591
0.65105212 -1.8788062 2.7077358
0.44996968 -1.2948357 1.5643358
4.1394782 -11.78732 12.356677
3.6976011 -10.511461 9.0671177
4.5669818 -12.961301 9.0945024
7.5364833 -21.365189 11.945657
4.6699529 -13.224126 5.7545753
4.8400745 -13.690671 4.3582091
6.5180559 -18.416595 3.8005023
3.5598688 -10.182306 9.6883373
1.9513782 -5.5721207 4.3824549
1.9508064 -5.5549893 2.8091497
4.932137 -14.028933 5.2647495
7.8378553 -22.269154 5.784699
6.5745687 -18.669468 2.8528461
-0.01079868 -0.11173482 11.448837
0.84357327 -2.6245205 17.524912
0.86200088 -2.6238892 13.301593
0.24447271 -0.72705036 2.4993498
0.38268837 -1.1256006 2.8603871
4.8781695 -14.25572 27.679632
4.9546642 -14.413609 22.457657
0.41978472 -1.2168361 1.6177592
0.049740173 -0.21301357 3.6233726
0.35433701 -1.3208832 12.711946
0.20912787 -0.63081944 2.5962524
0.28102833 -0.83499271 2.4500387
0.4617987 -1.360007 3.0335627
0.64448988 -1.8810675 2.7077358
0.44434565 -1.2931923 1.5606607
4.0643811 -11.704 12.255046
3.6583292 -10.516952 9.0608406
4.5863743 -13.162749 9.2233524
7.4618587 -21.391365 11.945657
4.6298776 -13.257854 5.7620678
4.7859225 -13.689369 4.3525691
6.5429821 -18.694242 3.8517966
3.5121055 -10.159382 9.6550827
1.9279482 -5.56744 4.3736253
7.2385025 -20.879854 13.071746
1.9284264 -5.5531907 2.8049538
4.8660793 -13.996999 5.2466707
7.7904305 -22.383598 5.806973
6.5354171 -18.76713 2.8638971
-0.01118864 -0.11169644 11.448837
0.8372277 -2.6363358 17.584183
0.85472232 -2.6326928 13.330964
0.24240379 -0.72931588 2.5041218
0.38933375 -1.1584125 2.9386299
4.8191686 -14.245437 27.626965
4.8970771 -14.4095 22.424591
0.41553459 -1.218294 1.6177592
0.049058799 -0.21346775 3.6283643
0.34972411 -1.322112 12.711946
0.2065337 -0.63035089 2.591413
0.27865636 -0.83760613 2.4547315
0.45912623 -1.3678023 3.0470665
0.63791984 -1.8833057 2.7077358
0.43982884 -1.2947356 1.5606607
3.6241276 -10.537019 9.0671177
4.5512962 -13.210306 9.2452841
7.3871436 -21.417282 11.945657
4.7302723 -13.683322 4.3455191
6.4889326 -18.749462 3.858325
10.008699 -28.887074 2.8375468
3.4766214 -10.17158 9.6550827
1.9071931 -5.5703115 4.3706822
7.1641755 -20.900913 13.069212
1.9075565 -5.5555959 2.8028557
4.8141212 -14.004969 5.2433839
7.6632175 -22.268175 5.7706308
6.463419 -18.771099 2.8611343
-0.011578466 -0.11165671 11.448837
0.58484143 -1.8637329 12.417718
0.84552729 -2.6356604 13.330964
0.24032201 -0.73157591 2.5088937
0.38836631 -1.169035 2.9616427
4.7602987 -14.234915 27.574293
4.8404756 -14.407834 22.395662
0.41230333 -1.2227744 1.6215967
0.048313357 -0.21363769 3.6283643
0.34510696 -1.3233248 12.711946
0.20394535 -0.62987208 2.5865736
0.27680826 -0.84185255 2.4641168
0.45640492 -1.3755953 3.06057
0.63134199 -1.8855209 2.7077358
0.4353067 -1.2962629 1.5606607
3.9963293 -11.772614 12.2971
4.6261215 -13.604547 11.668899
4.5388613 -13.325066 9.3138208
7.3109078 -21.438744 11.943337
7.7889905 -22.814646 9.8284216
4.6886859 -13.717908 4.3511586
6.4202647 -18.762703 3.8564599
9.9078035 -28.921837 2.8375468
4.3112321 -12.758803 12.076047
1.8877375 -5.5769353 4.3706822
7.0856404 -20.909464 13.05908
1.8866932 -5.5579224 2.8007576
4.7576084 -13.999332 5.2351665
7.7169514 -22.681322 5.8691058
6.3850894 -18.756044 2.8556089
-0.01196079 -0.11157261 11.443837
0.57833225 -1.8657631 12.417718
0.83939737 -2.6483023 13.379916
0.23776686 -0.73241031 2.5088937
0.38976622 -1.1870896 3.0030653
4.7090774 -14.246897 27.565517
4.7830586 -14.403277 22.362597
0.40904588 -1.227247 1.6254343
0.047506813 -0.21352275 3.6233726
0.34048557 -1.3245213 12.711946
0.20136286 -0.62938273 2.5817342
0.27493393 -0.84609628 2.4735024
0.45431295 -1.3854545 3.0785747
0.62570304 -1.8905739 2.711726
0.43077925 -1.2977744 1.5606607
4.0039959 -11.931873 12.447796
4.5426388 -13.513617 11.577883
4.5363555 -13.471599 9.4042892
7.2360282 -21.464132 11.943337
7.7018929 -22.819733 9.8190565
4.6407728 -13.734191 4.3511586
6.3594537 -18.79896 3.8592575
9.7077446 -28.663803 2.809828
1.8669761 -5.5796576 4.3677387
7.0263023 -20.974945 13.084412
1.8658371 -5.5601716 2.7986596
4.7026968 -13.99795 5.2285924
7.7864876 -23.150394 5.981648
6.3243179 -18.792297 2.8576808
8.9168282 -26.465242 1.2202232
-0.012350178 -0.11153018 11.443837
0.57136142 -1.8662845 12.407841
0.83197278 -2.6570466 13.409287
0.2356644 -0.73465729 2.5136657
0.39405853 -1.2144599 3.0675008
4.6489062 -14.231375 27.504068
4.7266102 -14.40117 22.333666
0.4057622 -1.2317116 1.6292717
0.046761189 -0.21368729 3.6233726
0.33586007 -1.3257018 12.711946
0.19878629 -0.62888318 2.5768948
0.27303329 -0.85033715 2.482888
0.45148677 -1.393245 3.0920784
0.61816323 -1.8898826 2.7077358
0.42624655 -1.2992703 1.5606607
3.9623215 -11.945777 12.447796
4.3935723 -13.22281 11.31739
4.4879827 -13.483385 9.4015474
7.1610603 -21.489262 11.943337
7.6339278 -22.88166 9.8340406
4.5958428 -13.759406 4.3539791
6.2891216 -18.807068 3.8564599
3.3664043 -10.196792 9.6451063
1.8474882 -5.5861402 4.3677387
4.6454997 -14.030138 8.7704077
1.8449883 -5.5623436 2.7965617
4.6433892 -13.982908 5.2170877
8.0690575 -24.270573 6.2594876
6.2727504 -18.856548 2.8638971
-0.012739417 -0.11148639 11.443837
0.564394 -1.8667799 12.397962
0.15863019 -0.51204091 2.6006262
0.23354915 -0.73689854 2.5184379
4.5896373 -14.217887 27.447012
4.6702347 -14.398844 22.304735
0.40443641 -1.242264 1.6407841
0.046014994 -0.21384922 3.6233726
0.33123046 -1.3268661 12.711946
0.19621564 -0.62837327 2.5720553
0.27214944 -0.85786504 2.5016592
0.44794804 -1.398959 3.1010809
0.61434251 -1.9006305 2.7197061
0.4206633 -1.2975254 1.5569855
3.9228208 -11.966313 12.454805
4.3498182 -13.245462 11.323668
5.543745 -16.851349 11.715344
7.0776906 -21.488882 11.929424
7.5540094 -22.908169 9.8340406
4.5477853 -13.775364 4.3539791
6.3945518 -19.346621 3.9599807
3.3168929 -10.165886 9.6051998
1.8267219 -5.5887132 4.3647957
4.6085629 -14.083141 8.7932062
1.8241472 -5.5644369 2.7944636
4.5886607 -13.981085 5.2105136
7.9509068 -24.197001 6.2336965
6.1836905 -18.807766 2.8535368
-0.013120691 -0.11139831 11.438837
0.55809635 -1.8694834 12.402902
0.15684187 -0.51259148 2.6006262
0.23142108 -0.73913389 2.5232096
4.5319738 -14.208722 27.398731
4.6139331 -14.3963 22.275806
0.40009767 -1.2436682 1.6407841
0.045268245 -0.21400853 3.6233726
0.3265968 -1.3280143 12.711946
0.19365101 -0.6278531 2.5672157
0.26966903 -0.86045653 2.5063519
0.44437489 -1.4046654 3.1100833
0.60587108 -1.8970226 2.711726
0.41613156 -1.2989858 1.5569855
4.3035564 -13.260565 11.323668
5.4797168 -16.854691 11.704379
7.0040083 -21.51767 11.931744
4.4788418 -13.72731 4.3342385
6.1958036 -18.967251 3.8797753
3.2619097 -10.11699 9.548667
1.8072026 -5.5950556 4.3647957
4.5394797 -14.037618 8.755208
1.8033137 -5.5664525 2.7923656
6.2848015 -19.342594 2.9288211
8.6129265 -26.4764 1.2167972
-0.013509464 -0.11135183 11.438837
0.55156726 -1.87142 12.402902
0.15475768 -0.51216102 2.595731
0.22883962 -0.73993719 2.5232096
4.4708319 -14.187906 27.328506
4.5577064 -14.393538 22.246876
0.39090019 -1.2297838 1.6215967
0.044577505 -0.21444835 3.6283643
0.32183415 -1.3286281 12.706975
0.19109239 -0.62732267 2.5623765
0.27635399 -0.89271575 2.5955145
0.44011816 -1.408286 3.1145847
0.40852615 -1.2907338 1.5459599
4.6741724 -14.601908 15.146297
4.2703166 -13.316278 11.358191
5.4195709 -16.869734 11.701638
6.9152918 -21.499817 11.908556
7.8173642 -24.275351 10.392205
6.2065167 -19.227175 3.9273388
3.2265749 -10.128315 9.548667
1.7864324 -5.5974793 4.3618526
4.4510899 -13.93019 8.6792135
1.781105 -5.5640688 2.7881694
6.4853277 -20.211496 5.2102633
6.2248135 -19.387987 2.9322743
-0.013889964 -0.11126113 11.433838
0.54503143 -1.8733339 12.402902
0.15325952 -0.51367396 2.6006262
0.22625537 -0.74073148 2.5232096
4.4127378 -14.175986 27.275837
4.5023947 -14.393246 22.222076
0.38372478 -1.2219665 1.6100842
0.04382867 -0.21460263 3.6283643
0.31707114 -1.3292247 12.702003
0.18890147 -0.62798589 2.5623765
0.29189339 -0.95473814 2.7691467
0.43648353 -1.413974 3.1235871
0.40806434 -1.305095 1.5606607
4.6199479 -14.607933 15.135782
4.2238078 -13.331101 11.358191
5.3581219 -16.880579 11.696155
6.8321509 -21.498493 11.894643
7.8675189 -24.726587 10.572016
4.2387476 -13.305739 4.1946454
6.1811581 -19.379761 3.9534521
3.247246 -10.317594 9.714942
1.7656671 -5.5998259 4.3589096
1.7603035 -5.5659246 2.7860713
3.9858477 -12.58777 4.6845908
6.3750763 -20.108912 5.1786108
6.1795588 -19.480402 2.9426346
-0.014278253 -0.11121197 11.433838
0.53827465 -1.8744782 12.397962
0.15089124 -0.51225203 2.5908358
0.22366834 -0.74151677 2.5232096
4.3632278 -14.191302 27.275837
4.4471416 -14.392743 22.197281
0.37660873 -1.2141144 1.5985717
0.043079298 -0.21475431 3.6283643
0.31230789 -1.3298044 12.697033
0.18670823 -0.62864143 2.5623765
0.28905743 -0.95740336 2.7738397
0.43217978 -1.4175713 3.1280882
0.40450647 -1.3097507 1.5643358
4.5593567 -14.593334 15.104241
4.5248837 -14.456431 12.296589
3.9679785 -12.653955 8.7792339
6.7477779 -21.492628 11.878411
7.8909841 -25.103283 10.719986
4.1951561 -13.329606 4.1974654
6.1252837 -19.438702 3.9609132
3.2178617 -10.350258 9.7348948
1.7461092 -5.6059551 4.3589096
4.022624 -12.899168 8.0256529
1.740864 -5.5720358 2.7860713
3.9418838 -12.601607 4.6845908
6.2612629 -19.991888 5.1434412
-0.014674775 -0.11120426 11.438837
0.53172821 -1.8763456 12.397962
0.77444297 -2.66802 13.379916
0.22107862 -0.742293 2.5232096
0.48242742 -1.5884453 3.1095674
4.3911252 -14.389338 22.16835
0.37049091 -1.2092923 1.5908966
0.042329408 -0.21490338 3.6283643
0.30754447 -1.330367 12.692061
0.18486594 -0.63049567 2.5672157
0.29014814 -0.9732911 2.8160744
0.42848369 -1.4232403 3.1370907
4.3893108 -14.43757 20.056362
0.40388781 -1.3241256 1.5790365
4.5031314 -14.592123 15.086719
4.5192327 -14.617167 12.418989
3.9052262 -12.607817 8.7381124
6.6648407 -21.490664 11.864498
7.7991848 -25.117392 10.714366
4.2653799 -13.719793 4.3130879
6.0632319 -19.478725 3.9646437
3.1422563 -10.232933 9.6151772
1.7253417 -5.6081529 4.3559661
3.9648831 -12.871933 8.0003214
1.7200651 -5.5737419 2.7839732
3.9159942 -12.673943 4.7059565
6.1914401 -20.013622 5.1434412
-0.015062861 -0.11115236 11.438837
0.52517527 -1.8781904 12.397962
0.76372355 -2.665813 13.355441
0.21848619 -0.74306017 2.5232096
0.48100671 -1.6038842 3.1359019
4.3359981 -14.388412 22.143551
0.36626747 -1.2105782 1.5908966
0.041578993 -0.21504983 3.6283643
0.30289873 -1.3314325 12.692061
0.18266396 -0.63113713 2.5672157
0.28674898 -0.97429794 2.8160744
0.42475328 -1.4289008 3.1460929
4.0954418 -13.702567 23.463057
4.33109 -14.426829 20.020451
0.44227761 -1.4683578 1.7407438
4.4448895 -14.583874 15.062187
4.4659081 -14.625408 12.412712
3.8599696 -12.617373 8.7353706
6.5832958 -21.49262 11.852904
7.6761203 -25.029226 10.665668
4.2146463 -13.725428 4.3102679
5.9952016 -19.499771 3.9646437
3.0913482 -10.193816 9.5686197
1.7045799 -5.6102734 4.3530231
3.9073813 -12.844452 7.9749894
1.6992753 -5.5753703 2.7818751
3.8717301 -12.687533 4.7059565
6.1911368 -20.262888 5.2008848
-0.015459469 -0.11114186 11.443837
0.51861602 -1.8800122 12.397962
0.75607485 -2.6743417 13.384811
0.21589108 -0.74381828 2.5232096
0.47540519 -1.6055535 3.1359019
4.2809319 -14.387277 22.118753
0.36203951 -1.2118492 1.5908966
0.040879697 -0.21547769 3.6333559
0.29813331 -1.3319614 12.687089
0.18080455 -0.63297963 2.5720553
0.42282698 -1.4408194 3.1685991
4.0446329 -13.706773 23.445993
4.2652912 -14.389857 19.948631
0.47579977 -1.5998743 1.8877504
4.3898439 -14.585639 15.048168
4.4137044 -14.637179 12.409574
3.7892992 -12.542709 8.6750593
6.5005379 -21.490028 11.838991
7.6518636 -25.264402 10.7537
4.165318 -13.735466 4.3088579
3.0268278 -10.10797 9.4788313
1.6838247 -5.6123185 4.35008
3.8736839 -12.89517 7.997788
1.6784953 -5.5769215 2.7797771
3.764744 -12.49299 4.6303549
6.0979033 -20.209921 5.1821275
-0.015856188 -0.11112994 11.448837
0.51184648 -1.8810612 12.393023
0.74755549 -2.6799068 13.399498
0.21329334 -0.74456739 2.5232096
0.46912608 -1.6049043 3.1315129
4.2243404 -14.380533 22.08569
0.35690054 -1.2100312 1.5870591
0.040127289 -0.21561907 3.6333559
0.2934821 -1.332994 12.687089
0.1789345 -0.63481688 2.5768948
0.36217916 -1.2632667 3.627923
0.42385024 -1.4631969 3.2136111
3.9931161 -13.708288 23.424664
4.202342 -14.361279 19.888781
0.4893105 -1.6665832 1.9612535
4.3317933 -14.576944 15.023637
3.8616655 -12.970053 10.99413
3.7000735 -12.403597 8.5708838
6.420413 -21.495613 11.829717
7.5171375 -25.135504 10.688144
4.0912018 -13.662607 4.2820673
6.1904521 -20.646896 4.1838093
2.9915259 -10.118474 9.4788313
1.6642237 -5.6181617 4.35008
3.8237448 -12.892082 7.9876556
1.6577253 -5.5783968 2.7776792
3.7211125 -12.506055 4.6303549
5.971808 -20.044754 5.1352353
-0.016244007 -0.11107392 11.448837
0.5054785 -1.8835869 12.397962
0.73846632 -2.6834817 13.404392
0.21069302 -0.74530739 2.5232096
0.46418485 -1.6088333 3.1359019
4.1725497 -14.389786 22.077425
0.35267457 -1.2112696 1.5870591
0.039374392 -0.21575783 3.6333559
0.2888273 -1.3340104 12.687089
0.17671749 -0.63543761 2.5768948
0.35776734 -1.2645231 3.627923
0.42532057 -1.4876919 3.2631247
3.9409175 -13.707105 23.399067
4.1513495 -14.372965 19.88479
0.48726422 -1.6813059 1.9759542
4.2818875 -14.595399 15.027142
3.7889261 -12.890095 10.915668
3.6555727 -12.412425 8.5681419
6.337822 -21.492397 11.815804
8.4992781 -28.78521 12.214665
4.0475655 -13.690606 4.2862973
6.1030054 -20.616568 4.1735506
2.9614177 -10.146775 9.4954586
1.6446025 -5.6239367 4.35008
3.7811422 -12.913625 7.9927216
1.6369654 -5.5797944 2.7755811
3.6787667 -12.523499 4.6319985
5.9237471 -20.140087 5.1539922
-0.016640782 -0.1110592 11.453837
0.49890047 -1.8853397 12.397962
0.72962797 -2.6880085 13.414183
0.20768949 -0.74460036 2.5184379
0.4585661 -1.6104438 3.1359019
4.1091323 -14.358272 22.007164
0.34755924 -1.2094128 1.5832217
0.038621016 -0.21589395 3.6333559
0.28416896 -1.3350104 12.687089
0.17449832 -0.63605058 2.5768948
0.35567003 -1.2740752 3.651387
0.42307949 -1.4996434 3.2856307
3.8930464 -13.720777 23.399067
4.1011534 -14.387368 19.88479
0.43758005 -1.5298011 1.8032216
2.8213336 -9.7425985 10.047181
3.7417393 -12.895765 10.909391
3.6005504 -12.384958 8.5407267
6.2578087 -21.497375 11.806528
7.3272066 -25.138412 10.667541
2.9311485 -10.17499 9.5120869
1.6260822 -5.6335263 4.3530231
3.7348454 -12.922604 7.9901886
1.6162158 -5.5811148 2.773483
3.6337137 -12.531728 4.6303549
6.037724 -20.795471 5.3134274
-0.01702835 -0.11100044 11.453837
0.49231637 -1.8870698 12.397962
0.72050387 -2.6915228 13.419078
0.20508906 -0.7453208 2.5184379
0.45358953 -1.6143404 3.140291
4.0605168 -14.377943 22.015429
0.34333548 -1.2106186 1.5832217
0.03791482 -0.21631218 3.6383476
0.27950719 -1.3359942 12.687089
0.17227703 -0.63665581 2.5768948
0.35351038 -1.283628 3.6748505
0.41900933 -1.5053056 3.2946329
3.8402066 -13.716702 23.369205
4.0541706 -14.413199 19.900751
0.40553427 -1.4367003 1.6966418
2.7775085 -9.7180977 10.012136
3.5572968 -12.397451 8.5407267
6.1827307 -21.519089 11.806528
7.211215 -25.065821 10.626334
3.7181816 -12.907238 4.0381317
2.8956134 -10.18516 9.5120869
1.607515 -5.6430559 4.3559661
3.6897147 -12.935562 7.9901886
1.595477 -5.5823584 2.771385
3.5899477 -12.544335 4.6303549
5.9557242 -20.783712 5.3052216
-0.017415712 -0.11094032 11.453837
0.48572627 -1.8887768 12.397962
0.71162385 -2.6959903 13.428869
0.20248616 -0.74603218 2.5184379
0.44795164 -1.615914 3.140291
3.9959531 -14.340525 21.936903
0.33910751 -1.2118098 1.5832217
0.037159517 -0.21644321 3.6383476
0.27473509 -1.3364395 12.682117
0.17005363 -0.63725328 2.5768948
0.34947968 -1.2865195 3.6795435
0.41375232 -1.5067592 3.2946329
3.7881372 -13.71494 23.343611
3.994971 -14.395324 19.856859
0.37232536 -1.336864 1.5827116
2.7435691 -9.7277336 10.012136
3.6516192 -12.921574 10.909391
3.5345061 -12.482211 8.5900736
6.1051607 -21.532017 11.80189
6.8919673 -24.274721 10.283568
3.6691689 -12.906295 4.0339017
5.9540253 -20.915575 4.2201815
1.5921823 -5.6641974 4.3677387
3.6468742 -12.956662 7.9952545
1.5747494 -5.5835257 2.7692869
7.389843 -26.167355 9.5526648
-0.017802859 -0.11087885 11.453837
0.47913024 -1.8904608 12.397962
0.70272136 -2.700429 13.43866
0.1994952 -0.74529231 2.5136657
0.44293988 -1.6197779 3.14468
3.5736861 -13.00041 19.874563
0.33402267 -1.2098963 1.5793842
0.036449421 -0.21685667 3.6433392
0.27006835 -1.3373903 12.682117
0.16782816 -0.63784301 2.5768948
0.34587947 -1.2910656 3.6889291
0.40905917 -1.5102956 3.2991343
3.7340701 -13.705434 23.305218
3.942311 -14.400463 19.844891
0.38202453 -1.3904606 1.6415143
2.7057719 -9.7235079 9.9981174
3.6033564 -12.922994 10.899977
3.587678 -12.840812 8.825839
6.0323491 -21.561728 11.806528
6.8359537 -24.401306 10.326648
3.6733305 -13.094538 4.0874829
5.88098 -20.93623 4.2201815
3.0903492 -11.165925 10.399995
1.5713207 -5.6658254 4.3647957
3.601625 -12.969313 7.9952545
1.5540329 -5.5846162 2.7671888
7.2667704 -26.079268 9.5115767
-0.01818979 -0.11081603 11.453837
0.47234029 -1.8913679 12.393023
0.69379658 -2.7048378 13.448449
0.19689244 -0.74598414 2.5136657
0.43790659 -1.6236266 3.1490691
3.5275481 -13.010089 19.87043
0.33316529 -1.2234255 1.5947342
0.03569223 -0.21698259 3.6433392
0.26539835 -1.3383248 12.682117
0.16560066 -0.63842499 2.5768948
0.34225175 -1.295602 3.6983144
0.40715435 -1.5243337 3.3261416
3.6618428 -13.627711 23.151644
3.8794525 -14.367592 19.78105
0.40199277 -1.4834065 1.7444189
2.6557655 -9.6744308 9.9385405
3.2113659 -11.674512 9.8454542
3.5139451 -12.748449 8.7545614
5.9499774 -21.557035 11.792616
6.718626 -24.30884 10.277949
3.6276002 -13.10728 4.0874829
3.0867548 -11.306314 10.519712
1.5451342 -5.6478834 4.347137
3.5574703 -12.985963 7.997788
6.8555894 -24.974047 12.059464
7.0780654 -25.749319 9.3833838
6.4098196 -23.286516 5.9159985
-0.018576499 -0.11075186 11.453837
0.46573532 -1.8930053 12.393023
0.6848495 -2.7092175 13.45824
0.19466278 -0.74811167 2.5184379
0.43285185 -1.6274599 3.1534581
3.4784782 -13.00873 19.849766
0.32307434 -1.202912 1.5678717
0.034934603 -0.21710585 3.6433392
0.26072511 -1.3392431 12.682117
0.16337113 -0.63899916 2.5768948
0.33816192 -1.2984589 3.7030075
0.40127674 -1.5236405 3.3216405
3.8199723 -14.346104 19.73317
0.38631043 -1.4454976 1.7003169
2.6042705 -9.6182375 9.871954
3.2001517 -11.794589 9.93647
3.770009 -13.866215 9.505723
5.8642192 -21.539204 11.771747
7.8701949 -28.867439 12.177206
2.9016528 -10.776217 10.020887
1.5211983 -5.6376333 4.3353643
3.5166175 -13.014949 8.0079212
6.7612543 -24.971539 12.046875
6.9634266 -25.682718 9.3505135
6.3081183 -23.2337 5.8972416
-0.018962981 -0.11068635 11.453837
0.45894179 -1.8938642 12.388083
0.67563444 -2.7125797 13.463136
0.19205019 -0.74878657 2.5184379
0.42777568 -1.6312777 3.1578474
3.427309 -12.999024 19.8167
0.32215497 -1.2164263 1.5832217
0.034176551 -0.21722648 3.6433392
0.25604868 -1.340145 12.682117
0.16113961 -0.63956553 2.5768948
0.33405623 -1.3013028 3.7077
3.3820486 -12.946404 21.957184
3.7599251 -14.321463 19.681299
0.38212609 -1.4501158 1.7039921
2.5706809 -9.6272697 9.871954
3.1911564 -11.926008 10.036901
3.756238 -14.00853 9.5934496
5.7729149 -21.499645 11.739283
7.7705841 -28.89921 12.179078
3.6732016 -13.641815 4.2425866
3.0652382 -11.544113 10.719243
1.4973527 -5.6272845 4.3235917
3.4733851 -13.035476 8.0129871
6.6635094 -24.955523 12.027992
6.9042292 -25.820913 9.3916006
-0.019359427 -0.1106619 11.458837
0.45232818 -1.8954546 12.388083
0.66640419 -2.7159104 13.468031
0.18943527 -0.74945241 2.5184379
0.42267808 -1.6350796 3.1622362
3.3797891 -13.002739 19.804302
3.7836618 -14.494277 18.011578
0.033459753 -0.21763012 3.6483309
0.25136915 -1.3410306 12.682117
0.15890613 -0.64012408 2.5768948
0.32951179 -1.3024609 3.7077
3.3355358 -12.95308 21.94865
3.7008512 -14.299494 19.633419
2.5425076 -9.6568766 9.8929815
3.1594372 -11.97471 10.068285
3.7073162 -14.021556 9.5934496
5.7000999 -21.528233 11.74392
7.6506495 -28.854464 12.14911
3.6230981 -13.645282 4.2397666
5.3987508 -20.304205 4.0802884
3.0759842 -11.749792 10.898819
1.4735979 -5.616838 4.3118191
3.4377193 -13.085044 8.0357857
6.5682693 -24.947908 12.013306
6.8309102 -25.908783 9.4146099
7.3146029 -27.704174 7.0015645
-0.019745592 -0.11059365 11.458837
0.44553149 -1.8962656 12.383143
0.65739793 -2.7201996 13.477821
0.1871784 -0.75155765 2.5232096
0.41755918 -1.6388659 3.1666255
3.3315871 -13.003553 19.787769
3.7298493 -14.49498 17.996227
0.032699879 -0.2177456 3.6483309
0.24659057 -1.3413755 12.677146
0.15637258 -0.63945377 2.5720553
0.32496333 -1.3036033 3.7077
3.883837 -15.404754 32.912621
3.2845271 -12.941894 21.910257
3.6442113 -14.286047 19.597507
0.43169028 -1.6859288 1.9649286
2.5087833 -9.6656933 9.8929815
3.1009612 -11.921627 10.014931
4.4483323 -17.065035 11.646809
5.6271558 -21.55657 11.748558
7.5346394 -28.822683 12.12476
3.5790896 -13.671767 4.2439961
5.3141403 -20.270658 4.0700297
2.9948335 -11.604999 10.755823
1.4519583 -5.6141205 4.3059325
3.3866193 -13.076098 8.0231199
6.4731631 -24.939934 11.998619
6.7689395 -26.042156 9.4540539
7.1627555 -27.517864 6.9488101
-0.020142006 -0.11056641 11.463837
0.43890959 -1.8978091 12.383143
0.64813429 -2.7234683 13.482716
0.18455383 -0.75220644 2.5232096
0.41241899 -1.6426365 3.1710143
3.2827318 -13.001462 19.767105
3.6752903 -14.492377 17.977039
0.031979281 -0.21814434 3.6533225
0.24190679 -1.3422282 12.677146
0.15413952 -0.63999569 2.5720553
0.32041094 -1.3047297 3.7077
3.8321397 -15.426668 32.930626
3.2361679 -12.940629 21.888927
3.5906484 -14.284069 19.577559
0.4332667 -1.7170098 1.9980052
2.4759126 -9.6778469 9.8964853
3.0593281 -11.932378 10.014931
4.3856153 -17.06831 11.638584
5.5496669 -21.567501 11.74392
7.421258 -28.799425 12.104156
3.5625095 -13.804944 4.2806573
5.228601 -20.232014 4.0588384
2.9322181 -11.528537 10.676011
1.4313542 -5.6152377 4.3029895
3.3441534 -13.100371 8.0307198
6.3748188 -24.918409 11.977639
5.6022038 -21.819099 3.2341015
-0.020538468 -0.11053775 11.468837
0.43211004 -1.898572 12.378204
0.63908803 -2.7276969 13.492506
0.18192701 -0.75284606 2.5232096
0.40725756 -1.6463912 3.1754036
3.2339313 -12.999187 19.746441
3.6169097 -14.474022 17.938665
0.031217624 -0.21825466 3.6533225
0.23722008 -1.3430643 12.677146
0.15161499 -0.63930672 2.5672157
0.31585461 -1.3058401 3.7077
3.1884813 -12.941717 21.871864
3.5356953 -14.276041 19.549627
0.41990983 -1.6889014 1.9649286
2.4429872 -9.689888 9.8999901
