# .PCD v0.7 - Point Cloud Data file format
VERSION 0.7
FIELDS x y z
SIZE 4 4 4
TYPE F F F
COUNT 1 1 1
WIDTH 1552
HEIGHT 1
VIEWPOINT 0 0 0 1 0 0 0
POINTS 1552
DATA ascii
5.5310402 -7.8146362 1.9091488
5.3479943 -7.5504398 0.92360163
7.2812061 -10.37155 11.367715
7.3110638 -10.40251 9.3416805
10.516113 -14.951753 10.827349
20.245514 -28.753031 16.343685
4.8011255 -6.8135605 2.9901328
5.1541734 -7.3091874 2.247817
5.5548534 -7.8744884 1.4362614
8.3698683 -11.856251 0.67911273
1.2544842 -1.8867018 14.4033
1.6889814 -2.5053523 14.549875
2.4429998 -3.5715575 13.880531
3.0602629 -4.4408092 12.765019
3.6724286 -5.3054309 11.892115
4.1873565 -6.0313859 10.856468
4.9365902 -7.0947571 10.424831
0.44514269 -0.8163026 15.917828
0.83777183 -1.404881 15.212613
2.0369489 -3.0058599 14.017294
2.6274803 -3.8384655 12.703732
3.3752105 -4.9015613 12.36908
3.8465228 -5.567347 11.138774
4.4644337 -6.4449081 10.456363
5.2155924 -7.5153222 9.995163
7.238553 -10.356842 12.49686
6.7139187 -9.5955076 9.5253315
7.917882 -11.303636 9.1328831
20.569006 -29.342813 18.844086
19.694021 -28.073757 13.943474
4.7354999 -6.7454081 2.5124762
5.5150237 -7.8499742 1.9128793
5.3273344 -7.5772095 0.92449582
7.2534976 -10.409156 11.381017
7.270082 -10.421337 9.3357935
10.523083 -15.073201 10.888145
20.030626 -28.659843 16.251371
4.7989645 -6.8612342 3.0032809
5.2233944 -7.4625249 2.2876759
8.3456335 -11.909944 0.68032193
1.2470349 -1.8897721 14.393421
1.6790936 -2.5095401 14.540086
2.4296794 -3.5788281 13.875759
3.0447428 -4.4514642 12.765019
3.6443937 -5.3043995 11.861391
4.1614876 -6.0390143 10.84407
4.9081516 -7.1066709 10.417156
0.4424274 -0.81810576 15.922819
0.83340508 -1.4087147 15.222555
2.0264442 -3.0129519 14.017294
2.6169751 -3.8518965 12.717812
3.355624 -4.909719 12.360078
3.8270659 -5.5807405 11.138774
4.4384952 -6.4554863 10.448382
5.183558 -7.5251069 9.9841375
7.2450447 -10.443581 12.570455
6.6803837 -9.618885 9.5253315
7.8736029 -11.32434 9.1274014
20.405733 -29.327164 18.788433
19.558819 -28.089067 13.917252
4.7503204 -6.8169966 2.5322165
5.2524033 -7.5263338 0.91689545
6.0468211 -8.7423964 9.548667
7.2290583 -10.440004 9.3299074
10.50232 -15.155902 10.921076
19.896835 -28.681114 16.224096
4.7372832 -6.8236375 2.9802718
5.4940915 -7.904943 1.43488
8.3639145 -12.025132 0.68455404
1.2400053 -1.8934634 14.388482
1.6697602 -2.5145376 14.535191
2.4188402 -3.5897636 13.885303
3.029186 -4.4620657 12.765019
3.6514921 -5.3546844 11.944784
4.1356158 -6.0465355 10.831671
4.8778782 -7.115829 10.405643
0.439569 -0.81964511 15.922819
0.82902157 -1.4125351 15.232499
2.0152171 -3.0189619 14.012455
2.6035135 -3.8610077 12.717812
3.3360214 -4.9177985 12.351075
3.8075624 -5.5940647 11.138774
4.4108386 -6.4634738 10.436413
5.1515183 -7.5347586 9.9731121
7.2854009 -10.580422 12.703628
6.6379304 -9.6293268 9.5127783
7.826901 -11.34143 9.1191759
20.257925 -29.332602 18.746696
19.384212 -28.046576 13.862935
4.6555467 -6.7309589 2.4955556
5.3929887 -7.791347 1.8904965
5.2969918 -7.6469669 0.92807239
6.020494 -8.7696066 9.5553179
7.1879926 -10.458512 9.3240213
10.40538 -15.128537 10.875479
19.757986 -28.694319 16.192625
4.7134352 -6.8401322 2.9802718
6.5011888 -9.4275017 2.8527329
5.4664645 -7.9240727 1.43488
8.321888 -12.054255 0.68455404
1.232965 -1.8971287 14.383544
1.6598523 -2.5186505 14.5254
2.4004869 -3.589499 13.851899
3.0125003 -4.4709921 12.760416
3.6381481 -5.3753314 11.962339
4.1097431 -6.0539498 10.819272
4.8457975 -7.1222124 10.390294
0.43670523 -0.8211745 15.922819
0.82462168 -1.416342 15.242442
2.0039723 -3.02493 14.007615
2.5948186 -3.8772428 12.741275
3.3164029 -4.9258018 12.342072
3.7792525 -5.5943551 11.113178
4.3831806 -6.4713464 10.424442
5.1194749 -7.5442786 9.9620867
7.2464118 -10.602845 12.700122
6.5910897 -9.6331644 9.493947
7.7825379 -11.361782 9.1136932
20.097807 -29.319101 18.693363
19.181297 -27.961153 13.788013
4.6971836 -6.8420854 2.5293968
5.4141583 -7.8746953 0.95087343
5.9730263 -8.7658844 9.5287132
7.1446095 -10.473522 9.3151922
10.323343 -15.122044 10.845081
19.634661 -28.729391 16.173744
6.2458649 -9.1252432 2.7577753
5.4079957 -7.89816 1.4272825
8.285408 -12.091473 0.68495715
1.2263353 -1.9014211 14.383544
1.6504931 -2.5235767 14.520504
2.394546 -3.6078067 13.890076
2.9957893 -4.4798565 12.755815
3.6487427 -5.4317369 12.0589
4.0854411 -6.063592 10.811007
4.8155255 -7.131115 10.378781
0.43383613 -0.82269388 15.922819
0.81993902 -1.4196736 15.247414
1.9920201 -3.0298057 13.997936
2.6290047 -3.9581528 12.975913
3.2967696 -4.9337282 12.333071
3.7698684 -5.6226768 11.14304
4.3538408 -6.476604 10.408483
5.0874281 -7.5536675 9.9510612
7.2373848 -10.669394 12.749187
6.5464897 -9.6400118 9.4782553
7.7357774 -11.378505 9.1054688
19.943014 -29.312166 18.64467
19.028784 -27.947468 13.74868
6.5614066 -9.6294575 3.5150096
5.3356962 -7.824748 1.8895638
5.5185695 -8.0868788 0.97188616
5.921474 -8.7557516 9.4954586
7.1034741 -10.491704 9.3093052
10.21488 -15.075906 10.786818
19.475657 -28.711363 16.125488
4.4029999 -6.4860787 2.8175645
6.0719423 -8.9379187 2.6968148
5.2968893 -7.794117 1.4065621
8.2431507 -12.12032 0.68495715
1.2196906 -1.9056902 14.383544
1.6405658 -2.5276146 14.510714
2.3794744 -3.6124032 13.875759
2.9790533 -4.4886584 12.751212
3.6231174 -5.4344764 12.036954
4.0595579 -6.0707974 10.798607
4.7852507 -7.1398926 10.367269
0.43096176 -0.82420319 15.922819
0.81524312 -1.4229898 15.252385
1.981432 -3.0367408 13.997936
2.6484115 -4.017735 13.140161
3.2771218 -4.9415774 12.324068
3.7603319 -5.6510005 11.172901
4.32619 -6.4842429 10.396513
5.0572619 -7.565743 9.9437103
7.2279806 -10.736009 12.79825
6.4975729 -9.6402121 9.4562864
7.6913347 -11.398507 9.0999861
18.876602 -27.933052 13.709345
6.5304403 -9.6562748 3.5164194
5.2725573 -7.7904396 1.8774396
5.4847217 -8.097846 0.97099197
5.8867135 -8.7701683 9.4888077
7.0600438 -10.506371 9.3004761
10.203087 -15.172281 10.829882
19.296745 -28.662466 16.06045
4.3750548 -6.4935756 2.8142774
6.0923352 -9.0356312 2.7190888
5.2751884 -7.8207698 1.4079435
8.0861921 -11.979246 0.67669433
1.2130311 -1.9099361 14.383544
1.6311815 -2.5324695 14.505818
2.3497 -3.5944486 13.775548
2.9622922 -4.4973989 12.74661
3.5816591 -5.4131346 11.962339
4.0352302 -6.0802417 10.790341
4.7531981 -7.1458783 10.351919
0.42808211 -0.82570255 15.922819
0.810534 -1.4262905 15.257357
1.9680872 -3.0394182 13.978579
2.658932 -4.0645032 13.262172
3.2574587 -4.9493499 12.315066
3.7391462 -5.6619158 11.168634
4.2985382 -6.4917669 10.384542
5.0270739 -7.5777006 9.9363604
7.1983857 -10.773034 12.812269
6.4552255 -9.6498928 9.4437323
7.6445193 -11.414863 9.0917616
18.724754 -27.917925 13.670012
6.5287757 -9.7268076 3.53334
5.2453313 -7.8087969 1.8774396
5.8581347 -8.7937708 9.4921331
7.0165992 -10.520864 9.291647
10.197926 -15.279517 10.880546
19.115889 -28.608892 15.993312
4.3444872 -6.4970322 2.8093472
5.0659657 -7.5702786 2.2876759
5.2864242 -7.8967476 1.417613
8.0610113 -12.032302 0.67790353
1.2067709 -1.9148161 14.388482
1.6217831 -2.5372899 14.500923
2.3265781 -3.5863483 13.713511
2.9444373 -4.5044408 12.737404
3.5469675 -5.4015808 11.909671
4.0108857 -6.0895901 10.782075
4.722928 -7.1544013 10.340406
0.42506573 -0.82693475 15.917828
0.80581188 -1.4295757 15.262328
1.953389 -3.0399246 13.949542
2.6325135 -4.0549436 13.201166
3.2389719 -4.958868 12.310565
3.720789 -5.677115 11.172901
4.272542 -6.5016961 10.376562
4.9968634 -7.5895386 9.9290104
7.2178941 -10.884287 12.913899
6.4193482 -9.6691236 9.4405937
7.599999 -11.434513 9.0862789
18.591225 -27.929087 13.643789
4.6650248 -7.0028167 2.5632374
5.2180414 -7.8270588 1.8774396
5.0494103 -7.5683994 0.90974218
5.8253431 -8.8110504 9.4888077
6.9731383 -10.535179 9.2828169
10.180237 -15.36893 10.918544
18.955711 -28.584667 15.942959
4.319171 -6.5082231 2.8077035
4.8996754 -7.3773694 2.2267156
5.2560868 -7.9110274 1.4169223
1.2000796 -1.9190168 14.388482
1.6123713 -2.5420759 14.496029
2.2986941 -3.5705996 13.622844
2.9276326 -4.513052 12.732801
3.5202453 -5.4018893 11.883336
3.9865255 -6.0988431 10.773809
4.6926565 -7.1628013 10.328895
0.4221766 -0.82841349 15.917828
0.80107659 -1.4328452 15.2673
1.9414145 -3.0446048 13.939863
2.6482487 -4.1105299 13.351335
3.2192745 -4.9664903 12.301562
3.7251229 -5.7272348 11.245421
4.2448835 -6.5089984 10.364593
4.9684863 -7.6040964 9.9253349
7.2308316 -10.986871 13.005018
6.3427281 -9.6264687 9.3778248
7.5554333 -11.45399 9.0807953
18.434849 -27.904848 13.60071
4.664362 -7.0550728 2.5759277
5.2042413 -7.8657093 1.8821028
5.0724492 -7.6607199 0.91778964
5.7925029 -8.8282089 9.4854822
6.9296646 -10.54932 9.2739878
10.166782 -15.465608 10.961607
18.800924 -28.567257 15.896801
4.3120108 -6.5469222 2.8175645
4.9594927 -7.5242939 2.2642298
5.2311664 -7.9334612 1.417613
8.2464733 -12.496934 0.69765353
1.1937833 -1.9238545 14.393421
1.6034881 -2.5476885 14.496029
2.2854128 -3.5773442 13.618073
2.9097466 -4.5199585 12.723597
3.4233353 -5.293478 11.619992
3.9529607 -6.0938344 10.740746
4.6623831 -7.1710758 10.317382
0.41915265 -0.82962424 15.912835
0.79632837 -1.4360991 15.272271
1.9206945 -3.0354297 13.867271
2.632025 -4.1168413 13.341949
3.1924973 -4.9630504 12.265553
3.7531953 -5.8147054 11.390464
4.2188625 -6.5187168 10.356612
4.9400687 -7.6185498 9.9216604
7.2138877 -11.044888 13.043569
6.2643533 -9.5801382 9.3119164
7.5108252 -11.473297 9.0753126
18.311911 -27.930258 13.581981
4.6476007 -7.0833426 2.5801578
5.2010193 -7.9207835 1.8904965
5.7535019 -8.8358593 9.4721804
6.8861766 -10.563289 9.2651587
18.67379 -28.59091 15.873723
4.3253021 -6.6172714 2.8405735
5.055594 -7.728673 2.3181562
5.1817489 -7.9185228 1.4120876
8.2028008 -12.525643 0.69765353
1.187875 -1.9293333 14.4033
1.5940458 -2.5524065 14.491134
2.2529325 -3.5537813 13.498773
2.8918478 -4.5267954 12.714392
3.4113042 -5.3154736 11.641937
3.9301426 -6.1052294 10.736613
4.6321101 -7.1792269 10.305869
0.41625416 -0.83108228 15.912835
0.79156709 -1.4393373 15.277243
1.922117 -3.0612779 13.954381
2.5899067 -4.0822883 13.201166
3.1751533 -4.9741635 12.265553
3.8285284 -5.9771094 11.680548
4.1928253 -6.5283327 10.348632
4.9116101 -7.6328964 9.917985
7.2199035 -11.138831 13.124173
6.2308745 -9.6019468 9.3119164
7.4638963 -11.488926 9.0670891
18.173851 -27.931835 13.552011
4.4919682 -6.8985248 2.5096562
5.2269764 -8.0212011 1.9091488
7.8914819 -12.100881 1.3899051
5.7165442 -8.8464813 9.462204
6.8448701 -10.580474 9.2592716
19.321918 -29.844217 20.977797
18.529444 -28.587368 15.835958
4.3638515 -6.7274089 2.8800178
4.9624205 -7.6443496 2.2888482
5.1540766 -7.9365625 1.4120876
8.1590281 -12.5542 0.69765353
1.1815381 -1.9341311 14.408239
1.5845904 -2.5570898 14.486238
2.2373347 -3.5565696 13.479685
2.8739369 -4.5335622 12.705187
3.4133124 -5.3596711 11.712162
3.8875988 -6.0857105 10.678751
4.6018367 -7.1872544 10.294356
0.41322267 -0.83227134 15.907844
0.78653806 -1.4420916 15.277243
1.9134133 -3.0711696 13.9689
2.5627704 -4.0708575 13.135468
3.1449575 -4.9649868 12.21604
3.8887823 -6.1180983 11.927972
4.165153 -6.5353055 10.336662
4.883112 -7.6471372 9.9143095
7.2137747 -11.214954 13.18375
6.1909981 -9.613821 9.3025017
7.4192152 -11.507881 9.0616055
18.041035 -27.94058 13.525788
4.4678602 -6.9141626 2.5096562
5.1749377 -8.0022736 1.9007552
7.9790683 -12.329033 1.4113649
5.6775675 -8.8538094 9.4489021
6.8035288 -10.597499 9.2533855
19.219954 -29.915108 20.98033
18.419722 -28.636604 15.827565
4.3147836 -6.7028952 2.8635828
4.9146485 -7.6289363 2.2794697
7.9364409 -12.305505 0.68435252
1.1751821 -1.9389083 14.413179
1.5751216 -2.561738 14.481342
2.2209544 -3.5580263 13.455825
2.8560138 -4.5402584 12.695981
3.4316862 -5.4302673 11.839446
3.848253 -6.0707226 10.629156
4.5732827 -7.1978631 10.286681
0.41031501 -0.8337087 15.907844
0.78175271 -1.4452974 15.282214
1.9046638 -3.0810373 13.983418
2.5741427 -4.1207595 13.266865
3.1055973 -4.9409156 12.130516
3.8687942 -6.1338415 11.932238
4.1390944 -6.5447111 10.328682
4.8545742 -7.6612716 9.910634
5.2270312 -8.1889019 9.6266356
6.1532097 -9.6288137 9.2962246
7.3722401 -11.523142 9.0533819
18.844492 -29.432287 18.380327
17.905876 -27.944832 13.497693
4.5420976 -7.0831661 2.5632374
5.14432 -8.0161543 1.8998225
7.9709678 -12.411283 1.417177
5.6406145 -8.8641233 9.4389248
6.7621512 -10.614365 9.2474985
19.041256 -29.8657 20.899267
18.312323 -28.689251 15.821271
4.2888174 -6.7139363 2.8619394
4.9063144 -7.6747122 2.2876759
6.5606232 -10.258541 1.7905803
7.9446077 -12.413084 0.68818164
1.1688071 -1.9436646 14.418118
1.5656395 -2.5663512 14.476447
2.2061632 -3.5619497 13.441508
2.8391135 -4.548543 12.691379
3.3961692 -5.4158349 11.782388
3.8210456 -6.0745902 10.612624
4.5430017 -7.2056489 10.275168
0.40740231 -0.83513594 15.907844
0.77670294 -1.4480174 15.282214
1.8952115 -3.0898101 13.993096
2.5579247 -4.1267862 13.25748
3.0675955 -4.9184771 12.049494
3.8390574 -6.1340437 11.906641
4.1114182 -6.5514622 10.316711
4.8259969 -7.6753006 9.9069586
5.206048 -8.2191486 9.6406536
6.1133075 -9.6403713 9.286809
7.3252478 -11.538215 9.0451565
18.558722 -29.209986 18.201778
17.77091 -27.948484 13.469597
4.4684138 -7.0220814 2.5364468
5.0820045 -7.9801984 1.8876985
8.0159187 -12.577619 1.4319305
5.6036582 -8.8742886 9.4289494
6.7207398 -10.631072 9.2416134
18.934584 -29.928341 20.896734
18.202353 -28.737661 15.812879
4.2628274 -6.7248778 2.8602958
4.8847022 -7.7000003 2.2900207
6.6919413 -10.544793 1.834093
7.9333711 -12.491347 0.69059998
1.1620154 -1.9477327 14.418118
1.5561447 -2.5709295 14.471552
2.1952794 -3.5721726 13.451053
2.8211615 -4.5551038 12.682174
3.3759787 -5.4256234 11.777998
3.7968383 -6.083117 10.604359
4.5144219 -7.2160292 10.267494
0.40448466 -0.83655292 15.907844
0.7716437 -1.4507197 15.282214
1.8870282 -3.1007023 14.012455
3.0286429 -4.8939829 11.963971
3.7667155 -6.0654311 11.748802
4.0853391 -6.560658 10.308732
4.7973814 -7.6892233 9.9032841
5.1830192 -8.2463293 9.6511669
6.0754733 -9.6550627 9.2805319
7.2782412 -11.553102 9.036932
18.416485 -29.210888 18.162359
17.636137 -27.951536 13.441503
4.523272 -7.1633754 2.5801578
5.038373 -7.9729743 1.8821028
4.9561534 -7.8368206 0.92538995
5.5686812 -8.8874664 9.4222975
6.6814413 -10.651042 9.2386694
18.793329 -29.935839 20.856205
18.101929 -28.801025 15.812879
4.2116699 -6.6957474 2.8422172
4.8629737 -7.7252312 2.2923653
6.6867585 -10.618372 1.8423812
8.0175772 -12.72184 0.70027345
1.1552094 -1.951777 14.418118
1.5461128 -2.5746 14.461761
2.1827967 -3.579814 13.451053
2.8031988 -4.561595 12.672969
3.3469539 -5.4210711 11.742886
3.7800257 -6.1035099 10.616757
4.4841342 -7.2235737 10.255981
0.40168637 -0.83822036 15.912835
0.76682341 -1.4538763 15.287186
1.8794415 -3.1126506 14.036652
2.4041142 -3.9397817 12.605186
2.9898992 -4.8692775 11.878448
3.6907957 -5.9897275 11.578165
4.057662 -6.5671887 10.296762
4.7615895 -7.6915102 9.8849087
5.137219 -8.2371378 9.619627
6.037611 -9.6696091 9.2742558
7.2312193 -11.5678 9.0287085
18.333204 -29.305038 18.18091
17.4991 -27.95006 13.411533
4.498239 -7.179121 2.5801578
4.9844146 -7.948895 1.8727766
4.9287672 -7.854073 0.92538995
5.5317097 -8.897337 9.4123211
6.6399488 -10.667437 9.2327833
18.649971 -29.939056 20.813141
18.025301 -28.902546 15.833859
4.1932726 -6.71842 2.8455043
4.838553 -7.7462816 2.2935376
6.6470284 -10.63745 1.8416905
8.0923214 -12.940364 0.70934236
1.1479962 -1.9551274 14.413179
1.5365952 -2.5791066 14.456867
2.1695149 -3.5861342 13.44628
2.7852247 -4.5680161 12.663764
3.3167515 -5.4143405 11.703384
3.7586975 -6.1166677 10.616757
4.4538488 -7.2309942 10.244469
0.39863458 -0.83935636 15.907844
0.76174372 -1.456544 15.287186
1.8685647 -3.1191921 14.036652
2.9086859 -4.8043656 15.326989
2.9638228 -4.8648105 11.842438
3.6140902 -5.9113436 11.403262
4.0315633 -6.5761743 10.288782
4.7258406 -7.6936407 9.8665323
5.1046805 -8.2489548 9.6126175
5.9976716 -9.6806993 9.2648401
7.1819806 -11.578757 9.0177422
18.20977 -29.33498 18.16004
17.369625 -27.95978 13.387185
4.4554224 -7.1662621 2.5702875
4.9410672 -7.9412208 1.8671809
5.4947391 -8.9070606 9.4023447
6.5984254 -10.683672 9.2268972
18.447891 -29.846296 20.704214
17.938633 -28.988447 15.846449
4.3264303 -6.9859385 2.9490452
4.8191652 -7.7755179 2.2970545
6.75599 -10.896276 1.8803686
7.8890553 -12.713826 0.69725055
1.1411644 -1.9591228 14.413179
1.5270652 -2.5835779 14.451971
2.1600561 -3.5988047 13.465368
2.7672398 -4.5743666 12.654558
3.2853928 -5.4054184 11.659493
3.744648 -6.1417646 10.637423
4.4252381 -7.2410274 10.236794
0.39570227 -0.84074271 15.907844
0.75665486 -1.4591942 15.287186
1.8531705 -3.1181314 14.002776
2.894563 -4.8189273 15.341067
2.9400671 -4.8639488 11.815431
3.5853181 -5.9105439 11.377666
4.0023208 -6.5799098 10.272822
4.6866055 -7.689826 9.840806
5.0665255 -8.2515278 9.5950947
5.9740343 -9.7181549 9.2805319
7.139328 -11.600196 9.0150013
17.963228 -29.164516 18.016275
17.228136 -27.949203 13.35347
4.6142373 -7.4798093 2.6732199
4.9107361 -7.9542398 1.8662484
4.9916067 -8.0789356 0.94550848
5.4558163 -8.9134474 9.3890429
6.55898 -10.703193 9.2239532
18.287252 -29.818642 20.640884
17.865829 -29.097298 15.871624
4.2995462 -6.9969745 2.9474015
4.771625 -7.7591705 2.2876759
6.6582327 -10.822783 1.864483
7.9834499 -12.966763 0.70793164
1.1343189 -1.9630942 14.413179
1.5175225 -2.5880144 14.447076
2.1367896 -3.588367 13.398561
2.7492447 -4.5806479 12.645353
3.2578471 -5.4024973 11.62877
3.7319255 -6.1692448 10.66222
4.3949499 -7.2482076 10.225282
0.3926436 -0.84185708 15.902853
0.75155669 -1.4618266 15.287186
1.8352534 -3.1126702 13.949542
2.890975 -4.8512387 15.411459
2.9230707 -4.8741817 11.815431
3.5660095 -5.9252577 11.381931
3.9715433 -6.5809407 10.252872
4.6562266 -7.7003369 9.833456
5.032125 -8.260026 9.5845814
5.9400749 -9.7389488 9.2805319
7.0878959 -11.607202 9.0012932
17.785086 -29.102308 17.939754
17.077257 -27.922163 13.312263
4.5880995 -7.4958701 2.6732199
4.8752432 -7.9587665 1.8634504
4.9555674 -8.0835733 0.94416732
5.4324222 -8.9452038 9.4023447
6.5173793 -10.719115 9.2180681
18.223391 -29.948584 20.686481
17.787766 -29.198242 15.892605
4.2529726 -6.9756536 2.9326103
4.7419796 -7.7716293 2.2865036
6.6204133 -10.845958 1.864483
5.6748986 -9.2896776 0.53280127
1.1278458 -1.967716 14.418118
1.5079675 -2.5924153 14.442181
2.1394346 -3.6215086 13.494
2.7312396 -4.5868597 12.636148
3.2229848 -5.3871183 11.571712
3.736433 -6.2256656 10.736613
4.364665 -7.2552648 10.213769
0.38958195 -0.84296024 15.897861
0.74644941 -1.4644411 15.287186
1.8326261 -3.1331632 14.012455
2.8766577 -4.8657565 15.425537
2.9026999 -4.8787432 11.801928
3.519902 -5.895123 11.300879
3.9439037 -6.587008 10.240902
4.6205988 -7.7020068 9.8150797
4.9977274 -8.2683849 9.5740671
5.9322414 -9.8029156 9.321332
7.0451694 -11.628297 8.9985523
17.609896 -29.042999 17.865553
16.936396 -27.910265 13.278548
4.5121059 -7.4298368 2.6450193
4.8397784 -7.9631419 1.8606524
4.7642803 -7.8327742 0.91600126
5.403091 -8.967309 9.4056702
6.4757471 -10.734879 9.2121811
17.587133 -29.097021 15.804486
4.2285972 -6.9904566 2.9326103
4.8331323 -7.9835629 2.3416026
6.4952931 -10.724984 1.8409998
5.5543928 -9.1641665 0.52594924
1.1209704 -1.9716408 14.418118
1.4984003 -2.5967815 14.437285
2.1328177 -3.6392577 13.532177
2.7142184 -4.5946836 12.631546
3.1968262 -5.3859782 11.545378
3.7751434 -6.3402219 10.910197
4.3327427 -7.2594476 10.198419
0.38639763 -0.84378964 15.887877
0.74133301 -1.4670377 15.287186
1.8178935 -3.1330175 13.983418
2.8474333 -4.8549285 15.359838
2.8834393 -4.8850961 11.792925
3.4620864 -5.8445444 11.181433
3.9024205 -6.5696464 10.193022
4.6058226 -7.738481 9.840806
4.9633322 -8.2766037 9.5635538
5.916018 -9.8535967 9.3495789
8.0385618 -13.373046 10.314456
17.485577 -29.066334 17.842365
16.776697 -27.86595 13.229849
4.5059485 -7.4784117 2.6562996
4.8246355 -8.0010214 1.8653157
4.9736319 -8.241621 0.95713252
5.3755875 -8.9925232 9.4123211
6.4340844 -10.750481 9.206295
8.4115591 -14.043489 9.7051506
17.095661 -28.508221 15.454112
4.1337004 -6.887754 2.8849485
7.2903948 -12.138022 3.5057137
6.3353925 -10.543844 1.8078473
5.5609894 -9.2477207 0.52897221
1.1144627 -1.9762186 14.423058
1.488821 -2.6011124 14.43239
2.1246023 -3.6544235 13.560808
2.696188 -4.600759 12.622341
3.1901579 -5.4177423 11.589268
3.8445849 -6.5084262 11.174706
4.3024769 -7.2662535 10.186906
0.38344991 -0.84513319 15.887877
0.73620754 -1.4696165 15.287186
1.8063191 -3.1382546 13.978579
2.8374119 -4.8767719 15.397382
2.8641696 -4.8913741 11.783922
3.4376998 -5.8498478 11.168634
3.8871133 -6.5962086 10.212971
4.5805058 -7.7574306 9.8444815
4.9289412 -8.2846842 9.5530405
5.897521 -9.900939 9.3746862
7.9832654 -13.386659 10.30349
17.340874 -29.054918 17.798307
16.65793 -27.888521 13.212993
6.1387558 -10.269277 3.6066618
4.7109327 -7.8744884 1.8336066
5.3132091 -8.8741999 1.0215119
5.3422613 -9.0080223 9.4089966
6.3923912 -10.765923 9.200408
8.3558807 -14.061647 9.6975517
16.951956 -28.493614 15.414248
4.1362071 -6.946774 2.9030271
7.0140982 -11.770899 3.3955159
4.6072569 -7.728725 1.3471636
5.5312343 -9.2713671 0.52917373
1.1083161 -1.9814532 14.432936
1.4797323 -2.6062934 14.43239
2.0991566 -3.6398344 13.479685
2.678148 -4.6067643 12.613135
3.184515 -5.4515939 11.637548
3.8958244 -6.6480565 11.389619
4.27384 -7.2757001 10.179231
0.38049749 -0.8464666 15.887877
0.73107314 -1.4721773 15.287186
1.7735432 -3.106334 13.809199
2.8057075 -4.861237 15.317603
2.8459845 -4.8994598 11.779421
3.4317074 -5.8865972 11.21556
3.8823133 -6.6409535 10.260852
4.5585399 -7.7821479 9.8555069
4.89818 -8.298768 9.5495358
5.8609447 -9.9181147 9.3715477
7.9130688 -13.37486 10.273335
17.212263 -29.069532 17.770481
16.515575 -27.870722 13.177404
6.1346827 -10.344281 3.6249919
4.6984596 -7.9162297 1.8392023
5.2822003 -8.8926926 1.0215119
5.3032112 -9.0137434 9.3956938
6.3506694 -10.781206 9.1945229
8.2979889 -14.075874 9.687418
16.803946 -28.470533 15.37019
4.167171 -7.0546827 2.9408278
4.7393703 -8.0169992 2.3369133
4.6609163 -7.8811588 1.3692653
5.4581232 -9.2218285 0.52594924
1.1017696 -1.9859895 14.437875
1.4701262 -2.6105554 14.427495
2.1086731 -3.6860106 13.622844
2.6600995 -4.6127 12.603931
3.1846781 -5.495832 11.707773
3.8867369 -6.6859431 11.430948
4.2435756 -7.2822657 10.167719
0.3775405 -0.84778959 15.887877
0.72616488 -1.4751987 15.292157
1.7465863 -3.0840671 13.683374
2.7895789 -4.8724995 15.322297
2.8266912 -4.9055915 11.770418
3.4450839 -5.9572406 11.326475
3.8621316 -6.659678 10.268832
4.5313473 -7.7980127 9.8555069
4.8655777 -8.30966 9.5425262
5.822351 -9.931797 9.3652706
7.8663344 -13.4024 10.273335
17.061327 -29.045404 17.719467
16.389994 -27.880243 13.154927
6.1666474 -10.4814 3.6644731
6.8292322 -11.598338 2.6468513
4.914866 -8.3404465 0.96205044
5.2604227 -9.0128517 9.375741
6.3068795 -10.792838 9.1856928
8.2357464 -14.082427 9.6722193
16.667772 -28.466354 15.336621
5.9307156 -10.120751 4.1718159
4.7629938 -8.1215429 2.361532
4.655931 -7.9358215 1.3754815
5.4259 -9.2408247 0.52594924
1.0952048 -1.990504 14.442815
1.4600117 -2.6138933 14.417705
2.1164193 -3.729701 13.756459
2.6420419 -4.6185656 12.594726
3.1654747 -5.5069151 11.707773
3.8324487 -6.6458387 11.340023
4.214922 -7.2914844 10.160044
0.37469485 -0.84936661 15.892869
0.7210111 -1.4777244 15.292157
1.7370412 -3.0923367 13.693052
2.767441 -4.8732033 15.29414
2.80739 -4.9116492 11.761416
3.4216726 -5.964705 11.317943
3.8629022 -6.71491 10.332672
4.5024066 -7.8108454 9.8518314
4.8365421 -8.3265934 9.5425262
5.7876477 -9.9520607 9.3652706
7.8089824 -13.411708 10.259626
16.90185 -29.005272 17.65918
16.257544 -27.87722 13.126833
4.3962588 -7.53231 2.6534796
6.9522281 -11.902055 2.7084043
4.8153501 -8.2371731 0.94953221
5.2326713 -9.0376225 9.3823919
6.2651124 -10.807794 9.1798067
8.1670704 -14.07753 9.6494198
16.534111 -28.465492 15.305151
5.8170357 -10.00667 4.1175804
4.7321715 -8.1339188 2.3603597
4.668057 -8.020504 1.3865323
5.4112124 -9.2899265 0.52735996
1.0886221 -1.994997 14.447754
1.4503855 -2.6180832 14.412809
2.0938702 -3.7201548 13.694425
2.6239758 -4.6243615 12.585521
3.1509776 -5.5262537 11.72533
3.7337775 -6.5272737 11.116844
4.1846609 -7.297811 10.148531
0.37184286 -0.85093415 15.897861
0.71608019 -1.4807124 15.297129
1.7158377 -3.0797141 13.610783
2.2634597 -4.0182772 12.595799
2.7891543 -4.9195251 11.756915
3.4098597 -5.9924798 11.347804
3.8543732 -6.7545242 10.372573
4.4734316 -7.8235722 9.848156
4.7914233 -8.3156157 9.5109854
5.7509279 -9.9688311 9.3621321
7.7537546 -13.424402 10.248661
16.736208 -28.952875 17.591934
16.134598 -27.889654 13.10623
4.3747463 -7.5559125 2.6562996
6.666822 -11.505472 2.6160748
4.9139791 -8.4736395 0.97233325
5.2029514 -9.0590696 9.3857174
6.2233186 -10.822589 9.1739197
8.1006804 -14.076064 9.6291552
16.398394 -28.460115 15.271581
5.5886374 -9.6914721 3.9828126
5.4083271 -9.3712425 2.7003317
4.6375556 -8.0324612 1.3858416
5.3662534 -9.2871294 0.52635229
1.0816517 -1.9987849 14.447754
1.4402573 -2.621345 14.403019
2.077234 -3.7209244 13.670564
2.6059012 -4.6300869 12.576316
3.1186993 -5.5142875 11.67705
3.6512568 -6.4350243 10.939128
4.155992 -7.3068023 10.140857
0.36898449 -0.85249209 15.902853
0.71090722 -1.4832029 15.297129
1.6947436 -3.0669808 13.528513
2.2460527 -4.0201268 12.577028
2.7698309 -4.925436 11.747912
3.3966126 -6.0179739 11.3734
3.8500671 -6.8020277 10.424442
4.4444222 -7.8361902 9.8444815
4.7535195 -8.3168097 9.4934626
5.7141619 -9.985466 9.3589935
7.6985321 -13.436873 10.237695
16.615208 -28.97653 17.571064
16.000229 -27.881474 13.076261
4.405683 -7.6709728 2.6901405
7.5862179 -13.19814 2.981662
4.9638333 -8.6288748 0.98663974
5.1768427 -9.0869093 9.3956938
6.1794953 -10.833714 9.1650906
8.0365362 -14.078048 9.6114235
16.260664 -28.450195 15.235914
5.5407062 -9.6863279 3.9729517
5.496326 -9.6009798 2.7589476
4.5381188 -7.9239807 1.3658119
5.3586469 -9.3491497 0.52836758
1.0750352 -2.003233 14.452693
1.4296371 -2.6236739 14.388333
2.0765235 -3.7503531 13.751687
2.5878189 -4.6357436 12.56711
3.071311 -5.475009 11.571712
3.5901282 -6.3790641 10.823404
4.1257362 -7.3128901 10.129344
0.36600649 -0.85377491 15.902853
0.70595396 -1.4861571 15.3021
1.6779873 -3.0618546 13.480118
2.2336788 -4.0309615 12.586413
2.7515607 -4.9331727 11.743411
3.395968 -6.0662041 11.441654
3.8425262 -6.8443279 10.468333
4.4153795 -7.8487015 9.840806
4.7086296 -8.3054295 9.4619217
5.6754289 -9.9985819 9.3527174
7.6433172 -13.449121 10.226728
16.463589 -28.945791 17.517733
15.870698 -27.880749 13.050038
4.3788795 -7.6863046 2.6901405
7.4768414 -13.113589 2.9574139
5.3532643 -9.3814554 1.0626432
5.148766 -9.1114264 9.4023447
6.13766 -10.848183 9.1592045
7.9767256 -14.08726 9.5987577
16.120966 -28.435717 15.19815
5.5068607 -9.7056093 3.9729517
5.4771795 -9.6454668 2.7659814
5.3605485 -9.4286013 0.53118902
1.0676713 -2.0062873 14.447754
1.419502 -2.6268566 14.378542
2.0691674 -3.7680464 13.789864
2.5697291 -4.6413302 12.557906
3.0603316 -5.5003462 11.602435
3.5650961 -6.3866434 10.815139
4.0970545 -7.3216519 10.121669
0.36291167 -0.85478133 15.897861
0.70076197 -1.4886123 15.3021
1.6678894 -3.0687976 13.484958
2.2262433 -4.0508332 12.623956
2.7322164 -4.9389377 11.734409
3.3962941 -6.1167846 11.514175
3.8259411 -6.8708625 10.488283
4.3846521 -7.8581462 9.833456
4.6761136 -8.3155985 9.4549131
5.6385827 -10.014939 9.3495789
7.5860581 -13.457507 10.213021
16.327623 -28.941353 17.480631
15.736812 -27.871389 13.02007
5.2157826 -9.2301006 3.2062123
7.2593317 -12.836025 2.8911979
5.3621855 -9.4737616 1.0702436
5.1224055 -9.1391125 9.4123211
6.095799 -10.862491 9.1533175
7.9253917 -14.111258 9.5962238
15.983789 -28.424564 15.162483
5.4474721 -9.6795044 3.9548728
5.4506335 -9.6772327 2.7694986
4.6941848 -8.3308144 1.4259011
5.3570523 -9.4994755 0.53360736
1.0606616 -2.0100021 14.447754
1.4084007 -2.6282058 14.358962
2.0388691 -3.7437835 13.675336
2.5516317 -4.6468472 12.5487
3.0711977 -5.565516 11.716552
3.5604997 -6.4310536 10.868868
4.0668058 -7.3275013 10.110156
0.35992572 -0.85604298 15.897861
0.69578654 -1.4915326 15.307072
1.6571672 -3.0746009 13.484958
2.2079608 -4.0510035 12.600492
2.7128656 -4.9446278 11.725407
3.3963084 -6.1674399 11.586697
3.8106742 -6.900002 10.512223
4.3555541 -7.8704367 9.8297806
4.6470585 -8.3318701 9.4549131
5.5997944 -10.027764 9.3433018
7.5308738 -13.469306 10.202056
16.181074 -28.916988 17.431936
15.573734 -27.808849 12.965753
5.4485626 -9.7211094 3.365546
7.2985945 -13.011236 2.9238396
5.3778405 -9.5792694 1.0791851
5.0904732 -9.1569376 9.4123211
6.0539136 -10.87664 9.1474323
7.8718901 -14.131306 9.591157
15.840259 -28.400909 15.120521
5.4090481 -9.6902142 3.9515858
5.5756478 -9.980505 2.8480437
5.4526639 -9.7563715 1.6510628
5.3311768 -9.5311975 0.53421199
1.0536388 -2.0136921 14.447754
1.3996956 -2.6340051 14.363857
1.9903245 -3.6852064 13.436737
2.5335267 -4.6522937 12.539495
3.1103895 -5.683351 11.940394
3.4797912 -6.3373766 10.691151
4.0381117 -7.3360362 10.102482
0.3568249 -0.85702735 15.892869
0.69057584 -1.4939522 15.307072
1.6452397 -3.0781493 13.475279
2.1938069 -4.0586858 12.600492
2.6945486 -4.9521556 11.720906
3.4022603 -6.2296138 11.680548
3.7851181 -6.9106188 10.508233
4.3247919 -7.8796482 9.8224306
4.628304 -8.3667641 9.4759398
5.562871 -10.043845 9.3401632
7.4736724 -13.477229 10.188349
16.052092 -28.922945 17.401793
5.2770801 -9.4926968 3.2823539
7.4895692 -13.461601 3.0161691
5.3564835 -9.6197386 1.0814205
5.0476623 -9.1550341 9.3923683
6.0120034 -10.890628 9.1415453
7.8162613 -14.147378 9.5835581
15.712466 -28.404404 15.093246
5.3751898 -9.7090359 3.9515858
5.5360641 -9.9914036 2.8456991
5.6154408 -10.130503 1.7076986
5.3487697 -9.6414919 0.5384441
1.0466033 -2.0173578 14.447754
1.3857471 -2.6298664 14.314905
1.9267108 -3.5973868 13.093154
2.5163434 -4.65939 12.534893
3.1339443 -5.7741618 12.10718
3.4482284 -6.3321857 10.66222
4.0078721 -7.3416471 10.090969
0.35372162 -0.85800058 15.887877
0.68535674 -1.4963536 15.307072
1.6338965 -3.082763 13.470439
2.1779957 -4.0632772 12.591106
2.6751785 -4.9576993 11.711904
3.3829782 -6.2460389 11.689079
3.758096 -6.9184937 10.500254
4.2956395 -7.8917189 9.8187551
4.623085 -8.4266424 9.5250044
5.5240297 -10.056379 9.3338861
7.4185219 -13.488578 10.177382
15.878406 -28.846851 17.322952
5.539022 -10.054596 4.7262802
5.2508607 -9.5236626 3.2865841
7.5279703 -13.642494 3.0497432
5.0085096 -9.1594934 9.3790665
5.9720097 -10.908002 9.1386023
7.7523293 -14.148111 9.5658255
15.578293 -28.395412 15.059679
5.2980838 -9.6490936 3.9203591
5.5034947 -10.014927 2.8468714
5.3152351 -9.668354 1.6310332
5.3150826 -9.6601038 0.5384441
1.0391998 -2.020308 14.442815
1.3746729 -2.6310775 14.295324
1.9015403 -3.5803602 13.007258
2.4982195 -4.6647015 12.525688
3.0411253 -5.650095 11.826279
3.4368007 -6.3639917 10.695284
3.9791687 -7.3499551 10.083294
0.35061583 -0.8589626 15.882886
0.68012935 -1.4987369 15.307072
1.622541 -3.0873351 13.465599
2.1629887 -4.0693307 12.586413
2.6558025 -4.9631681 11.702901
3.3475804 -6.2325363 11.642154
3.7324941 -6.9289169 10.496264
4.2664557 -7.9036822 9.8150797
4.6140952 -8.48032 9.5670586
5.487031 -10.072182 9.3307476
7.361382 -13.496038 10.163675
15.809453 -28.960428 17.357735
5.4927778 -10.053529 4.7169151
5.2705183 -9.6387386 3.3190148
7.6100059 -13.905694 3.1010373
4.9693866 -9.1637917 9.3657646
5.9300404 -10.921678 9.1327162
7.68643 -14.144785 9.5455599
15.440037 -28.377861 15.021914
5.2372704 -9.6177635 3.9006371
5.4382648 -9.9785938 2.8316314
4.5845222 -8.4085875 1.4279732
5.2502203 -9.6215868 0.53582424
1.0321412 -2.0239229 14.442815
1.3547102 -2.6150644 14.182734
1.8959858 -3.6001842 13.054978
2.4800887 -4.6699424 12.516483
3.0044687 -5.6289825 11.760443
3.4331639 -6.4106793 10.753144
3.9489405 -7.355329 10.071781
0.34761536 -0.86018121 15.882886
0.67467541 -1.5006156 15.3021
1.6111735 -3.0918651 13.46076
2.1479664 -4.0753293 12.58172
2.6374412 -4.9704852 11.6984
3.3098664 -6.2142587 11.586697
3.7054455 -6.9365878 10.488283
4.2372408 -7.9155374 9.8114042
4.6081734 -8.5403137 9.6161222
5.4481387 -10.084425 9.3244705
7.3062692 -13.50694 10.152709
15.666086 -28.937525 17.311359
5.4576511 -10.07264 4.7169151
5.284863 -9.7456341 3.3486257
7.5825081 -13.971029 3.1094308
4.9320631 -9.171216 9.3557873
5.8880477 -10.935193 9.1268291
7.622694 -14.144966 9.5278282
15.334418 -28.419598 15.015618
5.2059102 -9.6401415 3.9022806
5.306334 -9.8179216 2.7823939
4.423245 -8.1805983 1.3892951
5.1738038 -9.5607662 0.5321967
1.0250702 -2.0275135 14.442815
1.3292952 -2.5880754 14.011401
1.8716624 -3.5842855 12.973854
2.4628623 -4.6768422 12.511881
3.0665846 -5.7939625 12.080845
3.4226439 -6.4449925 10.790341
3.920229 -7.3634095 10.064106
0.34450391 -0.86112118 15.877894
0.66921657 -1.5024743 15.297129
1.600371 -3.0974703 13.46076
2.1329284 -4.0812731 12.577028
2.6180477 -4.9758086 11.689398
3.2784107 -6.207325 11.552568
3.6797991 -6.9468174 10.484293
4.2064061 -7.9242916 9.8040552
4.5951586 -8.5877905 9.6511669
5.4092278 -10.096519 9.3181934
7.2491941 -13.513938 10.139002
15.52936 -28.925684 17.27194
5.4180689 -10.083462 4.7131691
5.2076435 -9.6837482 3.321835
7.5336943 -13.997413 3.1094308
4.6784549 -8.6851902 0.97859234
4.8947492 -9.1784935 9.3458118
5.8460336 -10.948549 9.1209431
7.5610824 -14.148677 9.5126295
15.299357 -28.593 15.078561
5.120954 -9.5625086 3.8644798
5.5291991 -10.316202 2.9136934
4.4110432 -8.2265387 1.3941299
5.1592979 -9.6139841 0.53380895
1.0179865 -2.0310793 14.442815
1.3031611 -2.5591264 13.830277
1.8653158 -3.6027277 13.016803
2.4447136 -4.6819472 12.502675
3.0129538 -5.7410111 11.949173
3.3896365 -6.4369812 10.757277
3.8915093 -7.3713799 10.056431
0.34149593 -0.86231846 15.877894
0.66375303 -1.5043133 15.292157
1.5895491 -3.1030378 13.46076
2.1178756 -4.087162 12.572336
2.5986493 -4.9810562 11.680395
3.2022777 -6.1147633 11.360602
3.6527252 -6.9542847 10.476313
4.1771402 -7.9359264 9.8003798
4.5684967 -8.6100788 9.6581764
5.3702993 -10.108464 9.3119164
7.1921592 -13.520702 10.125295
15.394988 -28.917152 17.234838
5.1354361 -9.6299095 3.2978644
4.6293383 -8.6663275 0.9750157
4.8556986 -9.1823196 9.332509
5.8039975 -10.961744 9.115057
7.5055923 -14.163556 9.5050287
15.220729 -28.686325 15.099541
5.0631819 -9.5344496 3.8464012
5.4999986 -10.348316 2.9172106
4.4264727 -8.3249617 1.4072528
1.0108905 -2.0346203 14.442815
1.2868799 -2.5491154 13.751954
1.8534102 -3.6105452 13.021575
2.4274573 -4.6887174 12.498073
2.9331977 -5.636766 11.712162
3.3671467 -6.4487734 10.757277
3.8612952 -7.3763995 10.044919
0.33858868 -0.86377424 15.882886
0.65849793 -1.506621 15.292157
1.5787078 -3.1085675 13.46076
2.1028073 -4.0929947 12.567643
2.5792458 -4.9862294 11.671392
3.1448586 -6.0564651 11.232624
3.6270368 -6.9643207 10.472323
4.1478448 -7.947454 9.7967043
4.5367537 -8.622818 9.6546717
5.3313537 -10.120262 9.3056402
7.1410174 -13.538327 10.119812
15.217438 -28.825769 17.149042
14.666586 -27.758854 12.772829
5.10179 -9.6477766 3.2978644
5.4205928 -10.242013 2.291523
5.4219179 -10.235889 1.1328347
4.8114796 -9.1760664 9.3092308
5.761941 -10.974779 9.1091709
15.482818 -29.465343 19.645346
4.9858661 -9.4685001 3.8135309
5.5703535 -10.569552 2.9723094
5.2588587 -9.9742899 1.6648765
1.0041254 -2.0388339 14.447754
1.2770628 -2.5517707 13.742163
1.8407959 -3.6169927 13.021575
2.4101837 -4.6954241 12.49347
2.9135039 -5.6469703 11.712162
3.3420284 -6.4554901 10.749012
3.8325698 -7.3841434 10.037244
0.33557147 -0.86495084 15.882886
0.65302342 -1.5084212 15.287186
1.5678473 -3.1140592 13.46076
2.087724 -4.098772 12.56295
2.5598383 -4.9913282 11.66239
3.1022115 -6.0256686 11.155838
3.5999396 -6.9715838 10.464343
4.1185193 -7.9588728 9.7930288
4.5049777 -8.6354389 9.6511669
5.2923903 -10.13191 9.2993631
7.0743375 -13.526119 10.092397
15.092072 -28.831617 17.121218
14.541633 -27.756498 12.74848
5.2061963 -9.9289312 3.3852866
5.3848085 -10.260872 2.291523
5.365314 -10.215074 1.1288109
4.7673635 -9.1696157 9.2859526
5.7198634 -10.987655 9.1032839
15.367919 -29.496267 19.630144
4.9090729 -9.4021273 3.7806611
5.5649405 -10.649241 2.9887216
5.3800201 -10.291007 1.7118428
7.1011777 -13.571754 0.71155918
0.99700242 -2.0423265 14.447754
1.2676953 -2.555301 13.737267
1.8200909 -3.6074033 12.964311
2.3928931 -4.7020679 12.488868
2.8217914 -5.5163779 11.422483
3.3156195 -6.4596066 10.736613
3.8023713 -7.388926 10.025731
0.3325502 -0.86611694 15.882886
0.64754432 -1.5102013 15.282214
1.5564064 -3.1183884 13.45592
2.0734038 -4.1060348 12.56295
2.5404265 -4.9963527 11.653388
3.1096144 -6.0922112 11.25822
3.5742092 -6.9814253 10.460353
4.0876174 -7.9671679 9.7856789
4.4731684 -8.6479445 9.6476631
5.2552013 -10.146866 9.2962246
7.0213046 -13.539596 10.084172
14.960728 -28.825146 17.086435
14.395505 -27.712469 12.7054
5.1582294 -9.9215059 3.3768263
5.2809348 -10.148877 2.2635446
5.4216352 -10.410416 1.1466941
4.7216406 -9.1596508 9.2593479
5.6777673 -11.000371 9.0973978
15.243099 -29.507601 19.60228
14.783964 -28.582109 14.963167
4.8762236 -9.4192057 3.7806611
5.2549291 -10.142084 2.8456991
5.2848129 -10.195415 1.6938851
7.0491581 -13.587587 0.71115613
0.99020559 -2.0464938 14.452693
1.2583187 -2.5587966 13.732372
1.8021462 -3.6030543 12.926134
2.3755856 -4.7086477 12.484265
2.7711055 -5.4642491 11.295199
3.2917747 -6.4686327 10.73248
3.7721858 -7.3935885 10.014218
0.3294228 -0.86700243 15.877894
0.64206076 -1.5119617 15.277243
1.5455117 -3.1238024 13.45592
2.0582862 -4.1117039 12.558257
2.520031 -4.9993582 11.639884
3.1507382 -6.2263627 11.484314
3.5470901 -6.9884853 10.452373
4.0551715 -7.9723229 9.7746534
4.4413271 -8.6603336 9.6441584
5.2161942 -10.158223 9.2899475
6.9682646 -13.552866 10.075949
14.831642 -28.822048 17.053972
14.277454 -27.721333 12.686669
5.1323576 -9.9565077 3.3824666
10.887339 -21.102839 4.5997577
5.3372812 -10.336354 1.1373054
4.6760454 -9.1494789 9.2327442
5.6356511 -11.012926 9.0915117
15.112495 -29.506916 19.566814
14.675822 -28.617392 14.954776
5.0179749 -9.7764597 3.9137852
5.104001 -9.9355431 2.7847385
5.2876725 -10.288674 1.7056266
6.9925456 -13.594341 0.71035004
0.98339182 -2.0506382 14.457632
1.2498251 -2.5640888 13.737267
1.7829281 -3.5959489 12.878414
2.3582606 -4.7151637 12.479663
2.7735295 -5.5166845 11.382981
3.2615702 -6.4650097 10.707683
3.7434614 -7.400991 10.006544
0.32639441 -0.86814708 15.877894
0.63657278 -1.5137023 15.272271
1.5340446 -3.1280494 13.451081
2.043154 -4.1173177 12.553564
2.5006185 -5.0042291 11.630881
3.181608 -6.3422251 11.676281
3.518611 -6.9927492 10.440403
4.0135803 -7.9591861 9.7415771
4.4094534 -8.6726046 9.6406536
5.1771717 -10.169432 9.2836704
6.9569936 -13.647887 10.128036
14.700746 -28.814457 17.01919
14.155304 -27.721457 12.664194
5.1870756 -10.149496 3.4402778
10.804662 -21.12322 4.5960274
5.922977 -11.56952 1.2598051
4.6474543 -9.1724081 9.2393951
5.5935168 -11.025322 9.0856256
15.056246 -29.651735 19.627613
14.571725 -28.660353 14.95058
4.988101 -9.8023329 3.9170723
5.0714946 -9.9576302 2.7859108
5.2809525 -10.36443 1.7146053
6.9382405 -13.605314 0.70974541
0.97656119 -2.0547605 14.462572
1.2408671 -2.5684359 13.737267
1.7703651 -3.6021509 12.878414
2.3409195 -4.7216163 12.47506
2.7425051 -5.5027537 11.334702
3.2364659 -6.4713211 10.699416
3.7132943 -7.4054174 9.9950314
0.32346219 -0.86955184 15.882886
0.63108051 -1.5154228 15.2673
1.522567 -3.1322548 13.446242
2.027246 -4.1213274 12.544179
2.4812026 -5.0090261 11.621879
3.145515 -6.3252697 11.62509
3.4914904 -6.9995956 10.432423
3.9478767 -7.8973379 9.6496983
4.3775482 -8.6847591 9.6371498
5.1398883 -10.183966 9.2805319
7.0941358 -14.037821 10.396699
14.572084 -28.810255 16.986727
14.033324 -27.721066 12.641717
5.1667924 -10.197494 3.4501479
5.4076476 -10.663639 2.3614695
5.9862342 -11.794398 1.2803707
4.6321673 -9.2219391 9.2726498
5.5513654 -11.037558 9.0797386
14.987538 -29.77342 19.67321
14.463421 -28.694832 14.942187
5.0091534 -9.9293013 3.9598031
5.0169878 -9.9362221 2.7753599
5.3228893 -10.537506 1.7387792
5.808733 -11.489363 0.61301059
0.96938282 -2.0581567 14.462572
1.2323337 -2.5736699 13.742163
1.7558196 -3.6042826 12.8641
2.3235621 -4.7280059 12.470458
2.7094901 -5.4843783 11.277643
3.2063575 -6.4674511 10.674619
3.6845684 -7.4125938 9.9873562
0.32052413 -0.87094676 15.887877
0.62558401 -1.5171236 15.262328
1.5110787 -3.1364181 13.441402
2.0113354 -4.1252766 12.534794
2.4608245 -5.0117946 11.608376
3.1049669 -6.2987823 11.556835
3.4630291 -7.0036373 10.420453
3.8796437 -7.8290539 9.5504684
4.344018 -8.6936064 9.6301403
5.1008253 -10.194884 9.2742558
7.1855607 -14.342887 10.602309
14.443631 -28.805506 16.954264
13.909443 -27.716017 12.617368
5.1333189 -10.219755 3.4515581
5.3306761 -10.603451 2.3446825
5.2824693 -10.498445 1.1480353
4.6265764 -9.2915297 9.3258591
5.5091963 -11.049634 9.0738525
14.87582 -29.810127 19.663076
14.361142 -28.741085 14.94009
4.9765754 -9.9509497 3.9614468
5.3060298 -10.595873 1.7449954
5.7820239 -11.536367 0.61421978
0.96252096 -2.062232 14.46751
1.2237788 -2.5788758 13.747059
1.749717 -3.623832 12.911819
2.3053334 -4.7325749 12.461252
2.6724236 -5.4572368 11.20303
3.1701105 -6.4508233 10.629156
3.655838 -7.4196596 9.979681
0.31758025 -0.87233174 15.892869
0.62008327 -1.5188044 15.257357
1.4995799 -3.1405394 13.436563
1.9946707 -4.1276112 12.520715
2.4423625 -5.0183964 11.603874
3.0566282 -6.2556872 11.458718
3.4332564 -7.0048599 10.404493
3.8463125 -7.8303766 9.5357676
4.3120623 -8.7055216 9.6266356
5.0634785 -10.209141 9.2711172
7.2042665 -14.50645 10.703744
14.31736 -28.804182 16.92412
13.785767 -27.710443 12.593018
5.4141402 -10.863804 2.3959765
5.2368994 -10.498994 1.1462469
4.6073356 -9.3344088 9.3524628
5.46701 -11.061549 9.0679665
14.786964 -29.892786 19.683344
14.200295 -28.669031 14.877148
4.8600106 -9.8032598 3.8973501
5.6193972 -11.325129 3.1399508
5.2624054 -10.601023 1.7429233
9.6540775 -19.430973 0.96891415
0.95531654 -2.0655792 14.46751
1.2152027 -2.5840535 13.751954
1.7422111 -3.6406898 12.949994
2.2871003 -4.7370744 12.452047
2.653358 -5.4665322 11.20303
3.1377156 -6.4416108 10.596093
3.6271031 -7.4266152 9.9720058
0.31463063 -0.87370682 15.897861
0.61477792 -1.5209596 15.257357
1.4880706 -3.1446183 13.431724
1.9780142 -4.129879 12.506637
2.4248302 -5.0268912 11.603874
3.0666018 -6.3320422 11.578165
3.4048338 -7.0086703 10.392523
3.8189559 -7.8437552 9.5357676
4.2785048 -8.714118 9.619627
5.0243764 -10.219768 9.2648401
7.2052951 -14.63655 10.780505
14.191277 -28.802326 16.893974
13.6623 -27.704344 12.568668
5.2593031 -10.655393 3.5826912
5.2978597 -10.724086 2.3624022
5.156074 -10.427929 1.1373054
4.6009784 -9.4040966 9.4056702
5.4248085 -11.073305 9.0620804
14.618002 -29.81262 19.597214
14.088134 -28.693981 14.86456
4.8153481 -9.798975 3.8891325
5.5497975 -11.283613 3.1235385
5.225369 -10.619328 1.7429233
9.5663261 -19.424217 0.96710038
0.9484241 -2.0696075 14.472449
1.2066052 -2.5892026 13.756849
1.7294922 -3.646749 12.949994
2.2688646 -4.7415042 12.442842
2.6519101 -5.5124512 11.277643
3.0907421 -6.4018412 10.513433
3.5983641 -7.4334607 9.9643307
0.31177163 -0.87534398 15.907844
0.60926729 -1.5226012 15.252385
1.4760175 -3.1475172 13.422045
1.9613667 -4.132082 12.492558
2.410085 -5.0412164 11.617377
2.9756393 -6.1992836 11.317943
3.3764265 -7.0123677 10.380552
3.7944996 -7.8631444 9.5431175
4.2449398 -8.7225857 9.6126175
4.9869666 -10.233744 9.2617016
7.1229873 -14.597727 10.733899
14.071211 -28.81188 16.870787
13.539044 -27.697723 12.54432
5.2262931 -10.682304 3.5855112
5.687284 -11.604052 1.253099
4.5860443 -9.4570551 9.4422503
5.3825912 -11.084902 9.0561934
14.470507 -29.774286 19.53895
13.954125 -28.673605 14.828892
4.8969126 -10.053462 3.981169
5.1383395 -10.535132 1.7270377
9.4480572 -19.354231 0.96246517
0.94183624 -2.0743208 14.482328
1.19756 -2.5933986 13.756849
1.7135777 -3.6460092 12.926134
2.2514629 -4.7476301 12.43824
2.6512043 -5.5605879 11.356647
3.0489438 -6.3719759 10.447307
3.5696216 -7.440196 9.9566555
0.30880964 -0.87669939 15.912835
0.60394871 -1.5247188 15.252385
1.464492 -3.1515105 13.417205
1.9439931 -4.1326571 12.473787
2.3952694 -5.055501 11.630881
2.902447 -6.1012959 11.121709
3.349333 -7.018672 10.372573
3.7699547 -7.8824587 9.5504684
4.2129173 -8.7341385 9.6091127
4.9478278 -10.244079 9.2554245
13.941602 -28.801014 16.836004
13.41398 -27.686405 12.518098
5.2496729 -10.825655 3.6264021
6.5591412 -13.51399 2.9434245
4.5530052 -9.4730053 9.4422503
5.3403587 -11.096339 9.0503073
14.368358 -29.828501 19.541483
13.840148 -28.693523 14.814205
4.8658957 -10.079 3.9844561
5.3207421 -11.011353 3.0403037
5.1101546 -10.570839 1.7298005
9.245532 -19.108269 0.9499703
0.93522722 -2.0790133 14.492208
1.1889235 -2.5984888 13.761744
1.6989499 -3.6479087 12.911819
2.2332151 -4.751924 12.429035
2.6256392 -5.5568156 11.330312
3.0206544 -6.3698668 10.426642
3.5408764 -7.4468226 9.9489813
0.30584198 -0.87804484 15.917828
0.5986228 -1.5268177 15.252385
1.452431 -3.1543198 13.407527
1.9273684 -4.1347251 12.459708
2.3803833 -5.0697427 11.644385
2.8533297 -6.0524144 11.015061
3.3222365 -7.0248728 10.364593
3.745321 -7.9016972 9.5578184
4.1808653 -8.745573 9.605608
4.9103589 -10.257777 9.252286
6.798594 -14.183311 10.396699
13.804577 -28.773621 16.791948
13.291166 -27.67873 12.493747
5.2118526 -10.843914 3.6264021
6.6056256 -13.731578 2.9844599
5.6320591 -11.697317 1.2584639
4.5150938 -9.4787283 9.4322748
5.2981129 -11.107616 9.0444212
14.193577 -29.730648 19.445223
13.700756 -28.659767 14.772245
4.8103023 -10.053328 3.9680209
5.3977423 -11.270969 3.1047814
9.1874161 -19.158445 0.9507764
0.92828053 -2.0829749 14.497147
1.1798458 -2.6026232 13.761744
1.6837044 -3.6483955 12.892731
2.2149646 -4.7561479 12.419829
2.605211 -5.5637784 11.325924
2.99122 -6.3650908 10.401844
3.5121281 -7.4533377 9.9413061
0.30296218 -0.87965328 15.927811
0.59309703 -1.5284008 15.247414
1.4414115 -3.1593704 13.407527
1.9107533 -4.1367278 12.445631
2.365427 -5.0839424 11.657888
2.8090045 -6.0127172 10.925477
3.2951374 -7.0309696 10.356612
3.7335706 -7.9484763 9.5982447
4.1472583 -8.7536678 9.5985994
4.8711863 -10.267822 9.2460098
6.7472496 -14.203179 10.393958
13.671715 -28.75362 16.752527
13.166578 -27.666351 12.467525
5.2936182 -11.11323 3.708184
5.9805298 -12.544044 2.7298546
5.5676017 -11.667466 1.253546
4.4819794 -9.4944315 9.4322748
5.2575803 -11.122389 9.0414782
14.050996 -29.698181 19.392027
13.583142 -28.670502 14.753362
4.7104359 -9.9335203 3.9154286
5.3792076 -11.333653 3.1165044
5.4037046 -11.380151 1.8492881
9.0926056 -19.131739 0.94815648
0.92163122 -2.0876241 14.507025
1.1711708 -2.6076548 13.76664
1.6709589 -3.6542506 12.892731
2.1975305 -4.7620764 12.415227
2.5857739 -5.5728383 11.325924
2.9677958 -6.3729429 10.397712
3.4833775 -7.459744 9.9336309
0.29998234 -0.88097894 15.932802
0.5877583 -1.5304618 15.247414
1.4277862 -3.1586556 13.383329
1.8941474 -4.1386647 12.431552
2.3504002 -5.0980992 11.671392
2.7858081 -6.0177522 10.916945
3.2680361 -7.036963 10.348632
3.720108 -7.9921956 9.6349974
4.1166768 -8.7680912 9.5985994
4.8320031 -10.277719 9.2397327
6.694068 -14.219079 10.388475
13.539164 -28.733046 16.713108
13.046194 -27.661827 12.445048
5.2486496 -11.118626 3.7039537
5.8359771 -12.351653 2.6850886
5.5417442 -11.718343 1.2566755
4.4472284 -9.5066366 9.4289494
5.2152944 -11.133352 9.0355911
13.888682 -29.622149 19.310965
13.357609 -28.450706 14.61699
4.6556492 -9.9071646 3.8989935
5.496841 -11.686638 3.2056005
5.3723812 -11.416866 1.8520507
0.91496086 -2.0922525 14.516903
1.162475 -2.6126571 13.771534
1.6606567 -3.6654994 12.911819
2.17927 -4.7661653 12.406023
2.57831 -5.6079426 11.378592
2.9443526 -6.3807082 10.393579
3.4546249 -7.4660397 9.9259558
0.29718012 -0.88284212 15.947778
0.58222342 -1.5320057 15.242442
1.4157244 -3.1613259 13.373651
1.8775514 -4.1405363 12.417475
2.3343995 -5.1102328 11.680395
2.7473879 -5.9895105 10.84869
3.2409334 -7.0428534 10.340652
3.7106459 -8.0451536 9.6827745
4.0860457 -8.7824078 9.5985994
4.79281 -10.287466 9.2334557
6.6320186 -14.215834 10.369285
13.41067 -28.719925 16.678326
12.924039 -27.652599 12.420699
5.2220025 -11.16295 3.7124143
5.874064 -12.545452 2.7214611
5.4437466 -11.615864 1.2446043
4.412446 -9.518714 9.4256229
5.1746984 -11.147823 9.0326481
13.752502 -29.600079 19.265368
13.13569 -28.233803 14.482715
4.6529331 -9.991847 3.9252896
5.4416399 -11.674916 3.1973944
5.0876341 -10.910441 1.7712411
0.90796059 -2.0961466 14.521842
