# .PCD v0.7 - Point Cloud Data file format
VERSION 0.7
FIELDS x y z
SIZE 4 4 4
TYPE F F F
COUNT 1 1 1
WIDTH 1474
HEIGHT 1
VIEWPOINT 0 0 0 1 0 0 0
POINTS 1474
DATA ascii
1.2916588 -18.425285 1.7511449
1.3544718 -20.554432 18.427752
1.1494222 -17.304674 12.711599
1.1632986 -17.421745 10.346045
1.1916289 -17.70668 8.2913609
1.2111704 -17.903883 6.3346739
1.2329628 -18.132153 4.4740481
1.2509378 -18.349258 2.6573837
1.2677819 -18.501274 0.84174818
-0.094032109 -0.22216702 26.243273
0.15570998 -3.8499594 24.494204
0.23309164 -4.9730358 23.958504
0.24849878 -4.6294804 14.868332
0.52397531 -9.1682758 21.693916
0.56124198 -9.4727049 17.457466
0.76504868 -12.615268 18.634678
0.72723341 -11.787599 14.216286
-0.071031168 -1.4869967 25.581678
-0.023764215 -2.6889248 25.036304
0.29848769 -6.0546513 23.376741
0.44021648 -8.151473 22.253511
0.57855719 -10.186398 21.159952
0.60677338 -10.39524 17.102549
0.82219422 -13.796989 18.376562
0.90939033 -15.039557 16.412001
1.0991572 -17.229668 17.045759
0.88737273 -13.796143 11.229514
1.1230305 -17.31875 11.463129
1.1470844 -17.594711 9.3161373
1.1689301 -17.834024 7.3091927
1.1888354 -18.04134 5.4044538
1.2117884 -18.292425 3.5720108
1.2270039 -18.424715 1.7506979
1.2829477 -20.562759 18.431078
1.0849497 -17.244038 12.664509
1.1090106 -17.528954 10.406841
1.1315473 -17.737906 8.3039484
1.1516895 -17.955128 6.351109
1.1734163 -18.194551 4.4881158
1.185601 -18.333744 2.6546209
1.2031927 -18.505587 0.84174818
-0.094880275 -0.22199585 26.263273
0.1423274 -3.8520327 24.504082
0.21581921 -4.9758534 23.968294
0.23233737 -4.6303196 14.868332
0.49249205 -9.1798029 21.716928
0.52817267 -9.4746056 17.457466
0.72004545 -12.601005 18.60988
0.68608254 -11.790066 14.216286
-0.076221325 -1.4867396 25.581678
-0.033136588 -2.6877594 25.026361
0.27752358 -6.059423 23.39126
0.41228196 -8.1633024 22.28167
0.54345983 -10.19705 21.177956
0.57048351 -10.397295 17.102549
1.0390078 -17.2334 17.045759
0.83873725 -13.791386 11.223237
1.064362 -17.351782 11.482321
1.0872967 -17.625134 9.3300495
1.1106894 -17.902775 7.3354154
1.128839 -18.093256 5.4185538
1.148236 -18.301447 3.5729432
1.1626822 -18.428886 1.7506979
1.211821 -20.578297 18.441053
1.0252297 -17.255789 12.670395
1.0485878 -17.545628 10.41444
1.0729011 -17.796114 8.3291264
1.0901507 -17.977894 6.3576832
1.1119695 -18.2325 4.4963222
1.1218994 -18.342712 2.6553116
1.1382819 -18.504686 0.8415466
-0.09570995 -0.22178192 26.278273
0.12895812 -3.8548357 24.518902
0.19840841 -4.9755588 23.963398
0.21617313 -4.6311026 14.868332
0.46103245 -9.1931715 21.744543
0.49497202 -9.474 17.453077
0.67650747 -12.611871 18.622278
0.64474839 -11.789188 14.212449
-0.081410542 -1.4864645 25.581678
-0.042483814 -2.6854956 25.006477
0.25652975 -6.0641222 23.405777
0.38459405 -8.1819286 22.328596
0.50840342 -10.209756 21.200462
0.53418672 -10.399222 17.102549
0.97844124 -17.229799 17.038752
0.78992313 -13.782571 11.213822
1.0071665 -17.413832 11.520701
1.0288548 -17.68189 9.3578758
1.0481902 -17.906542 7.3354154
1.0687767 -18.149763 5.4340639
1.0834737 -18.290632 3.5701454
1.0977539 -18.42289 1.7498037
1.1406013 -20.593584 18.451031
0.96814829 -17.315762 12.711599
0.98927295 -17.583612 10.434707
1.0133475 -17.84506 8.3501062
1.0333153 -18.085306 6.3938403
1.0474826 -18.221712 4.4928055
1.0581496 -18.351463 2.6560023
1.073103 -18.498571 0.84114355
-0.096446358 -0.22136751 26.268272
0.11554781 -3.8568156 24.528778
0.18103927 -4.9762211 23.963398
0.20007056 -4.6333203 14.873104
0.42948556 -9.2064352 21.77216
0.46189854 -9.4756699 17.453077
0.60342866 -11.788166 14.208611
-0.086598784 -1.4861712 25.581678
-0.051857684 -2.6853309 25.006477
0.23545787 -6.067493 23.415457
0.3562564 -8.1883936 22.342676
0.47286224 -10.213643 21.204964
0.49788338 -10.401024 17.102549
0.9179126 -17.225988 17.031742
0.74159896 -13.781358 11.210683
0.94909692 -17.467344 11.553598
0.97075534 -17.751722 9.3926573
0.99128258 -18.011925 7.3766212
1.0051506 -18.148594 5.4326544
1.0196209 -18.294302 3.5701454
1.0331604 -18.421637 1.7493566
0.76556027 -14.75448 13.239972
0.90833378 -17.331144 12.720428
0.93084121 -17.642923 10.467638
0.9537068 -17.898344 8.3731852
0.97068536 -18.098234 6.3971272
0.98360842 -18.220402 4.4916329
0.99354899 -18.345154 2.6546209
1.0082525 -18.497217 0.84094203
-0.097181037 -0.22095068 26.258272
0.10200241 -3.8540885 24.509024
0.1636679 -4.9768229 23.963398
0.18389603 -4.6339903 14.873104
0.39793584 -9.2215414 21.804377
0.42892769 -9.4796171 17.457466
0.53627163 -11.497521 16.977365
0.56197125 -11.783797 14.200935
-0.09178596 -1.48586 25.581678
-0.061268035 -2.6867323 25.021391
0.21432124 -6.0695338 23.420296
0.32808509 -8.1999331 22.370831
0.43804464 -10.234806 21.245474
0.46168953 -10.405303 17.106815
0.5518139 -12.103391 16.118208
0.61577231 -13.252556 14.460488
0.69309741 -13.776088 11.204406
0.89087844 -17.524839 11.589238
0.90878433 -17.755003 9.3926573
0.92864192 -18.019909 7.3784947
0.9417941 -18.151993 5.4326544
0.95549941 -18.292843 3.5692127
0.96885061 -18.425131 1.7493566
0.70358729 -14.540758 13.047093
0.84921336 -17.362471 12.74103
0.87137091 -17.689117 10.49297
0.89460909 -17.969559 8.4046564
0.90750486 -18.101511 6.3971272
0.91975635 -18.21887 4.4904604
0.92975688 -18.353455 2.6553116
0.94316995 -18.490643 0.84053898
-0.097913988 -0.22053142 26.248272
0.088477455 -3.8513141 24.489265
0.14629455 -4.9773636 23.963398
0.16771927 -4.634604 14.873104
0.36644065 -9.2404432 21.845798
0.39573517 -9.4786644 17.453077
0.4971047 -11.521814 17.010429
0.52083468 -11.785687 14.200935
-0.096991152 -1.4858186 25.58667
-0.070660338 -2.6870348 25.026361
0.19317323 -6.0715013 23.425135
0.29945999 -8.2010279 22.370831
0.40308502 -10.25585 21.285984
0.42536545 -10.406852 17.106815
0.50981522 -12.111264 16.126188
0.56950849 -13.254624 14.460488
0.63950658 -13.815597 13.670881
0.64482367 -13.774535 11.201268
0.83345616 -17.607201 11.641325
0.85123295 -17.850986 9.4413519
0.86573505 -18.023041 7.3784947
0.87819415 -18.150375 5.4312439
0.89163959 -18.296068 3.5692127
0.90428483 -18.423426 1.7489095
0.64412028 -14.349164 12.874167
0.78676832 -17.324949 12.711599
0.81277204 -17.760954 10.5335
0.83103883 -17.954435 8.3962641
0.84299344 -18.076269 6.3872666
0.85592687 -18.217113 4.4892879
0.86591905 -18.361538 2.6560023
0.87838286 -18.488834 0.84033746
-0.098645195 -0.22010973 26.238274
0.074927956 -3.8461614 24.454691
0.12891942 -4.9778442 23.963398
0.15149176 -4.6336694 14.868332
0.33439493 -9.2475224 21.859606
0.36163932 -9.4536619 17.404799
0.45632568 -11.509418 16.989763
0.47930086 -11.777825 14.189424
-0.1021569 -1.485183 25.581678
-0.080087692 -2.6883702 25.041277
0.17201407 -6.0733953 23.429974
0.27100199 -8.2071981 22.384911
0.36798379 -10.276774 21.326496
0.38903618 -10.408273 17.106815
0.46672255 -12.091893 16.098257
0.52203453 -13.226044 14.427412
0.59081995 -13.807056 13.660368
0.59673768 -13.776702 11.201268
0.77199048 -17.610003 11.641325
0.78872073 -17.849424 9.4390335
0.8017863 -18.002796 7.3691297
0.81397176 -18.134163 5.4256039
0.82754707 -18.294163 3.5682802
0.84133029 -18.45632 1.751592
0.59124923 -14.284174 12.814308
0.7274729 -17.35586 12.732201
0.75222594 -17.798138 10.553766
0.76836109 -17.957228 8.3962641
0.77968681 -18.074383 6.3856225
0.79212087 -18.215136 4.4881158
0.81340003 -18.481806 0.83993441
-0.099374659 -0.21968564 26.228275
0.061514229 -3.8471763 24.459629
0.11154272 -4.9782639 23.963398
0.13531633 -4.6341701 14.868332
0.30236804 -9.2564449 21.878017
0.41482618 -11.474384 16.936037
0.43770915 -11.766614 14.174073
-0.10736168 -1.4851053 25.58667
-0.089453414 -2.6875415 25.036304
0.15081292 -6.0739589 23.429974
0.24255542 -8.2149925 22.403681
0.33267117 -10.295403 21.362507
0.35270217 -10.409568 17.106815
0.42218602 -12.027198 16.010477
0.47257355 -13.13631 14.328182
0.53940046 -13.727075 13.579764
0.54864436 -13.778701 11.201268
0.71371764 -17.691973 11.693413
0.72640979 -17.852068 9.4390335
0.73912996 -18.010115 7.3710027
0.7506668 -18.136894 5.4256039
0.76347852 -18.29203 3.5673473
0.53742594 -14.18168 12.721193
0.67122984 -17.471386 12.81461
0.68925929 -17.779118 10.5411
0.70549577 -17.955265 8.394165
0.71621656 -18.067556 6.3823357
0.72833908 -18.212931 4.4869432
0.74867928 -18.47954 0.83973283
-0.10012162 -0.21929827 26.223274
0.048103962 -3.8489215 24.469507
0.094164662 -4.9786229 23.963398
0.11913922 -4.634614 14.868332
0.27022603 -9.2633028 21.891825
0.27775225 -8.883832 16.355808
0.37256673 -11.408261 16.836845
-0.11254501 -1.4847214 25.58667
-0.098794512 -2.6861475 25.026361
0.12960994 -6.0744481 23.429974
0.21396802 -8.2192392 22.413065
0.29704487 -10.307382 21.385012
0.31636384 -10.410735 17.106815
0.37705988 -11.929209 15.878805
0.42418557 -13.059947 14.243653
0.48790875 -13.629083 13.481637
0.50054443 -13.780533 11.201268
0.65241867 -17.706892 11.701638
0.66392547 -17.850069 9.4367151
0.67608458 -18.007954 7.3691297
0.69943511 -18.289677 3.5664148
0.96441638 -24.990606 2.3381598
0.48560902 -14.116302 12.661336
0.61461234 -17.59885 12.905848
0.62704247 -17.777105 10.538567
0.64265347 -17.953081 8.3920679
0.65399748 -18.093542 6.390553
0.66458243 -18.210506 4.4857712
0.91040176 -24.827703 3.5573399
0.68398428 -18.477049 0.83953136
-0.1008477 -0.21886928 26.213274
0.034682263 -3.8506198 24.479387
0.076785445 -4.9789214 23.963398
0.10292759 -4.6335092 14.86356
0.23768893 -9.2563782 21.873415
0.2464744 -8.8751717 16.338251
0.33102003 -11.350423 16.750053
-0.11772696 -1.4843196 25.58667
-0.10812698 -2.684721 25.016418
0.10840537 -6.0748639 23.429974
0.18515967 -8.2147617 22.398989
0.26111871 -10.310533 21.389513
0.28002167 -10.411776 17.106815
0.33490893 -11.912381 15.854866
0.37663111 -12.993573 14.17015
0.43883473 -13.584366 13.436078
0.45231062 -13.778305 11.19813
0.59074545 -17.713242 11.704379
0.60146379 -17.847851 9.4343958
0.61306322 -18.005569 7.3672562
0.63541734 -18.287096 3.5654821
0.89359576 -25.461649 2.3801851
0.43379384 -14.035808 12.588174
0.55305016 -17.596848 12.902905
0.56498498 -17.779186 10.538567
0.57983518 -17.95068 8.3899698
0.60101181 -18.212715 4.4857712
0.84212023 -25.385056 3.634696
0.61948317 -18.479322 0.83953136
-0.10159153 -0.21847692 26.208275
0.021236673 -3.8499408 24.474449
0.059405301 -4.9791589 23.963398
0.086752988 -4.6338401 14.86356
0.2053767 -9.2571507 21.873415
0.21450512 -8.8352757 16.263638
0.28980947 -11.289621 16.659128
-0.12293164 -1.4841871 25.591661
-0.11738009 -2.6816647 24.99156
0.087181486 -6.0739484 23.425135
0.15641803 -8.2119064 22.389603
0.22498417 -10.304852 21.376009
0.24367607 -10.41269 17.106815
0.25476891 -10.347059 13.780053
0.32945886 -12.923638 14.092972
0.38915464 -13.50739 13.358977
0.40421259 -13.7798 11.19813
0.52841198 -17.698477 11.693413
0.53915948 -17.849842 9.4343958
0.54992515 -17.998333 7.3635101
0.57142621 -18.284292 3.5645494
0.3826488 -13.958857 12.518339
0.4916223 -17.598671 12.902905
0.50279868 -17.776741 10.536033
0.51717204 -17.952595 8.3899698
0.53743392 -18.214703 4.4857712
0.55482453 -18.476377 0.83932978
-0.10233385 -0.21808201 26.203274
0.0077932682 -3.8476603 24.459629
0.04202443 -4.9793358 23.963398
0.070577346 -4.6341147 14.86356
0.17302547 -9.2558575 21.868811
0.18271789 -8.7904749 16.180244
0.24921456 -11.237111 16.580603
0.25232476 -10.864741 13.08806
-0.12811168 -1.483749 25.591661
-0.1268163 -2.6828361 25.006477
0.065965317 -6.0729589 23.420296
0.12769856 -8.208952 22.380217
0.18897226 -10.303398 21.37151
0.20727564 -10.410871 17.102549
0.21858574 -10.344873 13.776064
0.2827794 -12.853533 14.015793
0.33875397 -13.380322 13.232813
0.35600913 -13.777236 11.194991
0.46651939 -17.696033 11.690672
0.47684863 -17.851616 9.4343958
0.5889706 -21.487906 6.4083967
0.50746238 -18.281267 3.563617
0.33204627 -13.88172 12.448503
0.42999098 -17.592199 12.897018
0.44074324 -17.778389 10.536033
0.45438781 -17.949753 8.3878717
0.51197708 -19.949881 7.0348091
0.47384951 -18.216467 4.4857712
0.49032655 -18.478203 0.83932978
-0.10305485 -0.21764573 26.193274
-0.0056339581 -3.8453329 24.444813
0.024643047 -4.9794526 23.963398
0.054418292 -4.6358256 14.868332
0.14071545 -9.2564049 21.868811
0.15153572 -8.7623234 16.127575
0.20841172 -11.153506 16.456614
0.21408214 -10.849532 13.068871
-0.13331632 -1.4835805 25.596655
-0.13623486 -2.6834416 25.016418
0.04475712 -6.0718951 23.415457
0.099022418 -8.2076225 22.375525
0.15297323 -10.301817 21.367006
0.17093366 -10.41153 17.102549
0.18252717 -10.348585 13.780053
0.23659346 -12.783261 13.938614
0.29196808 -13.377857 13.229309
0.30782849 -13.774505 11.191853
0.40484142 -17.701735 11.693413
0.41453198 -17.85317 9.4343958
0.16944735 -7.1891365 2.9937248
0.50776684 -21.230862 6.3322549
0.44364572 -18.282927 3.563617
0.28183451 -13.796935 12.372016
0.36849546 -17.58955 12.894074
0.3786824 -17.779819 10.536033
0.3917287 -17.951229 8.3878717
0.4423359 -19.951546 7.0348091
0.41014987 -18.213152 4.4845991
0.42570752 -18.474808 0.83912826
-0.1038339 -0.21732347 26.198275
-0.019044843 -3.8429592 24.429995
0.0072599449 -4.9784899 23.958504
0.03823591 -4.6359878 14.868332
0.10840371 -9.2568398 21.868811
0.12045328 -8.7268782 16.061741
0.16900745 -11.123215 16.411152
0.17631295 -10.856623 13.076547
-0.13849416 -1.483106 25.596655
-0.14565919 -2.6840141 25.026361
0.023561981 -6.0720143 23.415457
0.070371866 -8.2079182 22.375525
0.11698756 -10.300112 21.362507
0.1345896 -10.412064 17.102549
0.14636016 -10.346147 13.776064
0.19090155 -12.712824 13.861436
0.25974461 -13.775495 11.191853
0.34345344 -17.723944 11.707121
0.35212293 -17.85008 9.4320774
0.1444446 -7.1943192 2.9955978
0.432087 -21.155766 6.3096943
0.37972164 -18.279451 3.5626843
0.72130555 -34.149799 3.1594439
0.23228192 -13.715705 12.298856
0.3069531 -17.582645 12.888188
0.31654021 -17.776724 10.5335
0.32906482 -17.952488 8.3878717
0.37260106 -19.948244 7.033165
0.34657159 -18.214472 4.4845991
0.65330946 -34.024197 4.838551
0.36121583 -18.476181 0.83912826
-0.10445126 -0.21668856 26.163277
-0.032479092 -3.8451998 24.444813
-0.010118272 -4.9784851 23.958504
0.022060094 -4.6375852 14.873104
0.076106682 -9.2591162 21.873415
0.089644782 -8.693716 16.000292
0.12961975 -11.075902 16.340891
0.13841517 -10.857172 13.076547
-0.14347313 -1.4806024 25.561712
-0.15505825 -2.6840217 25.031334
0.0023661151 -6.0708027 23.410618
0.041711718 -8.2063875 22.370831
0.081032738 -10.300458 21.362507
0.098145574 -10.402039 17.085485
0.11024448 -10.346595 13.776064
0.14570428 -12.642225 13.784258
0.19523366 -13.154921 13.008523
0.21159779 -13.772425 11.188714
0.28981239 -17.8512 9.4320774
0.12002262 -7.2364969 3.0124552
0.3566128 -21.061218 6.2814937
0.31582728 -18.275755 3.5617518
0.1831995 -13.626828 12.219044
0.24551995 -17.579571 12.885245
0.25442424 -17.773409 10.530968
0.26639697 -17.953527 8.3878717
0.30267969 -19.93054 7.0265913
0.2829136 -18.210711 4.4834266
0.2966395 -18.472334 0.83892679
-0.10542946 -0.21674794 26.218275
-0.045919858 -3.846617 24.454691
-0.027496366 -4.9784193 23.958504
0.0058717676 -4.6376338 14.873104
0.043795072 -9.2612782 21.878017
0.05913448 -8.6700268 15.956402
0.090587519 -11.031264 16.274763
0.10054538 -10.860794 13.080385
-0.14849465 -1.4786563 25.536753
-0.16445909 -2.683996 25.036304
-0.018824954 -6.0707736 23.410618
0.013065827 -8.2064829 22.370831
0.045086443 -10.302854 21.367006
0.061695807 -10.378846 17.047092
0.074105889 -10.343904 13.772073
0.10105665 -12.578244 13.714429
0.1491514 -13.141257 12.994504
0.16352178 -13.773079 11.188714
0.21986504 -17.738453 11.715344
0.22744183 -17.847673 9.4297581
0.094337024 -7.204423 2.9993439
0.2498932 -18.592072 5.5553269
0.25196335 -18.271833 3.5608189
0.13485184 -13.548981 12.149208
0.18411198 -17.576279 12.882302
0.19238192 -17.774189 10.530968
0.20372583 -17.954348 8.3878717
0.2285241 -19.53956 6.8901801
0.21934465 -18.211586 4.4834266
0.22415966 -18.345911 2.6511676
0.23209445 -18.468262 0.83872521
-0.10624647 -0.2164944 26.233274
-0.059370916 -3.8479872 24.464569
-0.044864882 -4.9772744 23.953606
-0.010316631 -4.6376262 14.873104
0.011466914 -9.2613745 21.878017
0.028735058 -8.6294661 15.881786
0.051855244 -10.983676 16.204504
0.062633529 -10.861079 13.080385
-0.15332328 -1.4749709 25.481846
-0.17386167 -2.6839375 25.041277
-0.040015794 -6.0706711 23.410618
-0.015580224 -8.2064791 22.370831
0.0091243964 -10.305127 21.37151
0.025466496 -10.378998 17.047092
0.037998475 -10.344099 13.772073
0.056857463 -12.514109 13.644602
0.10249468 -13.041846 12.896378
0.11541115 -13.769674 11.185575
0.19516428 -21.920378 14.456811
0.16514045 -17.848358 9.4297581
0.17292042 -18.01054 7.3653836
0.19009954 -19.106092 5.7062006
0.18818121 -18.2726 3.5608189
0.19622432 -18.429621 1.7475684
0.086881123 -13.444824 12.056093
0.12272996 -17.572771 12.879359
0.13030566 -17.770441 10.528434
0.14108786 -17.959488 8.3899698
0.15442908 -18.822495 6.6403666
0.15573144 -18.20738 4.4822545
0.16011912 -18.346581 2.6511676
0.16762677 -18.46896 0.83872521
-0.10712448 -0.21635334 26.263273
-0.0728321 -3.8493104 24.474449
-0.062251337 -4.978106 23.958504
-0.02649631 -4.6360693 14.868332
-0.020861385 -9.2613583 21.878017
-0.001385901 -8.619935 15.864232
0.013456297 -10.93595 16.134243
0.02471363 -10.858027 13.076547
-0.15847096 -1.4744267 25.481846
-0.1832293 -2.6833143 25.041277
-0.061218873 -6.0717511 23.415457
-0.044235423 -8.2081003 22.375525
-0.026847264 -10.305097 21.37151
-0.010741274 -10.358159 17.012964
0.0018905995 -10.344169 13.772073
0.013107275 -12.449819 13.574774
0.056549385 -12.945837 12.801754
0.067345314 -13.769994 11.185575
0.11851093 -21.895836 14.440362
0.10281152 -17.844397 9.4274397
0.10996589 -17.997126 7.3597646
0.11999809 -18.578972 5.5510969
0.12436336 -18.268236 3.5598865
0.13171357 -18.405294 1.745333
0.039816462 -13.400241 12.016188
0.061374698 -17.569052 12.876416
0.068274446 -17.770788 10.528434
0.0783967 -17.959871 8.3899698
0.087479211 -18.558481 6.5483303
0.092174873 -18.207813 4.4822545
0.096024759 -18.337124 2.6497862
0.10312916 -18.464437 0.83852369
-0.10771403 -0.21567048 26.223274
-0.086338222 -3.8521395 24.494204
-0.07962779 -4.9778585 23.958504
-0.042679049 -4.6359487 14.868332
-0.053189434 -9.2612295 21.878017
-0.031431191 -8.6079025 15.842287
-0.02460245 -10.885279 16.059851
-0.013188105 -10.858047 13.076547
-0.16393849 -1.4767334 25.531761
-0.19263309 -2.6831901 25.046247
-0.082395755 -6.0702438 23.410618
-0.072886772 -8.2078962 22.375525
-0.062805295 -10.302761 21.367006
-0.04670858 -10.316331 16.94471
-0.034217298 -10.344112 13.772073
-0.030176822 -12.378594 13.497594
0.011319176 -12.899594 12.756196
0.019273227 -13.766253 11.182437
0.042119619 -21.917023 14.454069
0.040522333 -17.844646 9.4274397
0.047155663 -18.002035 7.3616376
0.05384941 -18.14275 5.4227843
0.060594551 -18.268559 3.5598865
0.067466296 -18.405643 1.745333
-0.0068909307 -13.269617 11.899796
4.6892434e-05 -17.569159 12.876416
0.0062409029 -17.766607 10.525901
0.015704572 -17.960035 8.3899698
0.022576338 -18.459505 6.5138164
0.028617185 -18.208025 4.4822545
0.031989735 -18.322489 2.6477141
0.038675617 -18.464684 0.83852369
-0.10832089 -0.21502453 26.188276
-0.099784166 -3.8518145 24.494204
-0.097023167 -4.9785681 23.963398
-0.058861271 -4.6357713 14.868332
-0.085498758 -9.2590342 21.873415
-0.061495319 -8.6101351 15.846675
-0.062323492 -10.837289 15.989591
-0.05105947 -10.851524 13.068871
-0.16922498 -1.4772993 25.551729
-0.201998 -2.6825013 25.046247
-0.10367035 -6.0749464 23.429974
-0.10153724 -8.207592 22.375525
-0.098768257 -10.302479 21.367006
-0.08242587 -10.279593 16.884987
-0.070324779 -10.343929 13.772073
-0.073023885 -12.317393 13.431442
-0.033540826 -12.835363 12.693114
-0.028780077 -13.766235 11.182437
-0.034385324 -21.917036 14.454069
-0.021761935 -17.840248 9.4251204
-0.015667267 -17.983545 7.3541451
-0.0094784172 -18.138029 5.4213738
-0.0031749867 -18.26866 3.5598865
0.0032182003 -18.405767 1.745333
-0.053000659 -13.217239 11.853239
-0.061266806 -17.56501 12.873472
-0.055776168 -17.766521 10.525901
-0.046975862 -17.955442 8.3878717
-0.041141655 -18.143087 6.4037013
-0.034940854 -18.208014 4.4822545
-0.031993814 -18.337347 2.6497862
-0.025778392 -18.464708 0.83852369
-0.10913348 -0.21476001 26.203274
-0.11316016 -3.849113 24.479387
-0.11440103 -4.978199 23.963398
-0.07501854 -4.6340451 14.86356
-0.1178183 -9.2586794 21.873415
-0.091753893 -8.6290255 15.881786
-0.099683762 -10.786355 15.915197
-0.088938043 -10.851279 13.068871
-0.17448324 -1.4775596 25.566704
-0.21144466 -2.6828427 25.05619
-0.12492701 -6.0770607 23.439653
-0.13018647 -8.2071877 22.375525
-0.13470154 -10.299896 21.362507
-0.11779713 -10.234909 16.812466
-0.10640038 -10.34061 13.768084
-0.1151565 -12.225533 13.332213
-0.077952281 -12.770977 12.630033
-0.076833025 -13.76605 11.182437
-0.11069936 -21.87915 14.429396
-0.084035888 -17.840063 9.4251204
-0.078542605 -18.006561 7.3635101
-0.072791889 -18.137884 5.4213738
-0.066944487 -18.268536 3.5598865
-0.061013415 -18.400684 1.7448858
-0.086779743 -11.570428 10.386693
-0.12224114 -17.516186 12.838155
-0.11779256 -17.766218 10.525901
-0.10962404 -17.95063 8.3857737
-0.10395586 -18.053116 6.3724751
-0.098498464 -18.207781 4.4822545
-0.096002907 -18.337124 2.6497862
-0.090232082 -18.464504 0.83852369
-0.11007171 -0.21472184 26.248272
-0.12654413 -3.8471415 24.469507
-0.13177748 -4.9777694 23.963398
-0.091193922 -4.6337547 14.86356
-0.15016811 -9.2601643 21.878017
-0.12221284 -8.6526012 15.925678
-0.13672508 -10.738107 15.844938
-0.12674059 -10.844494 13.061197
-0.17978054 -1.4780877 25.58667
-0.22089614 -2.6831508 25.066133
-0.14619969 -6.0791006 23.449331
-0.1588341 -8.2066832 22.375525
-0.17061795 -10.297186 21.358004
-0.15277918 -10.18489 16.731413
-0.14253673 -10.343186 13.772073
-0.15765573 -12.211496 13.317512
-0.12191463 -12.706437 12.56695
-0.12484972 -13.761807 11.179298
-0.18714271 -21.886993 14.434879
-0.14630881 -17.839661 9.4251204
-0.056452483 -7.1909118 2.9937248
-0.13610448 -18.13752 5.4213738
-0.13071316 -18.26819 3.5598865
-0.12524341 -18.400358 1.7448858
-0.12642856 -11.50285 10.326834
-0.17980751 -17.765697 10.525901
-0.17219563 -17.941061 8.3815775
-0.16692866 -18.04792 6.370831
-0.16209814 -18.212185 4.4834266
-0.16005403 -18.341629 2.6504769
-0.15464282 -18.45908 0.8383221
-0.11109565 -0.21483238 26.313271
-0.13991572 -3.8451233 24.459629
-0.14915234 -4.9772792 23.963398
-0.10740284 -4.634901 14.868332
-0.1824912 -9.2595835 21.878017
-0.15233088 -8.6473322 15.916901
-0.17333943 -10.684105 15.766411
-0.16464281 -10.847189 13.065035
-0.18490274 -1.4771647 25.581678
-0.23035236 -2.6834257 25.076077
-0.16786937 -6.0948877 23.512245
-0.18744034 -8.2043533 22.370831
-0.20656079 -10.296528 21.358004
-0.18750994 -10.139965 16.658892
-0.19872358 -12.11596 13.214608
-0.16542737 -12.641747 12.503868
-0.17283772 -13.757395 11.17616
-0.2634407 -21.877844 14.429396
-0.20857996 -17.839041 9.4251204
-0.081868649 -7.2184839 3.0049632
-0.19930992 -18.12734 5.4185538
-0.19448026 -18.267624 3.5598865
-0.18942061 -18.394833 1.7444388
-0.16582303 -11.450071 10.280277
-0.2379203 -17.042036 12.493805
-0.24182028 -17.764963 10.525901
-0.23482057 -17.940351 8.3815775
-0.23004696 -18.056669 6.3741183
-0.2255491 -18.20179 4.481082
-0.2241983 -18.350863 2.6518583
-0.21907608 -18.458427 0.8383221
-0.111781 -0.21432903 26.298271
-0.15333685 -3.8446114 24.459629
-0.16652536 -4.976728 23.963398
-0.12358101 -4.6344976 14.868332
-0.21485741 -9.2608442 21.88262
-0.18200903 -8.6228037 15.87301
-0.20902349 -10.601844 15.646555
-0.20244573 -10.843345 13.061197
-0.1900579 -1.4765102 25.581678
-0.23990849 -2.6847286 25.095963
-0.18929966 -6.0992899 23.531603
-0.21603227 -8.2019243 22.366138
-0.24244985 -10.293568 21.353504
-0.22152752 -10.076672 16.556511
-0.2391264 -12.020287 13.111702
-0.20843086 -12.573342 12.437281
-0.22085892 -13.756707 11.17616
-0.27078134 -17.833776 9.422802
-0.10617132 -7.1578941 2.9806137
-0.25824499 -18.266832 3.5598865
-0.25356072 -18.389076 1.7439916
-0.20283704 -11.285163 10.133955
-0.2973361 -17.037062 12.490862
-0.30383009 -17.764011 10.525901
-0.29744267 -17.939423 8.3815775
-0.28908384 -18.200891 4.481082
-0.28794223 -18.33016 2.6490955
-0.28358343 -18.462547 0.83852369
-0.11242133 -0.21374749 26.273273
-0.16675611 -3.8440528 24.459629
-0.18385872 -4.9750991 23.958504
-0.13980272 -4.63553 14.873104
-0.24723464 -9.2619896 21.887222
-0.21198927 -8.6173277 15.864232
-0.24635614 -10.615116 15.667221
-0.24008168 -10.832957 13.049685
-0.19517255 -1.4755516 25.576687
-0.24927847 -2.6838748 25.095963
-0.2113273 -6.1199479 23.613873
-0.244661 -8.2011204 22.366138
-0.27837962 -10.292659 21.353504
-0.2560358 -10.049765 16.513849
-0.25103042 -12.50836 12.374201
-0.26880139 -13.751963 11.173021
-0.33694446 -17.711521 11.698895
-0.33311388 -17.837151 9.4251204
-0.32926619 -17.966629 7.3485265
-0.32191998 -18.260908 3.5589538
-0.31774905 -18.388081 1.7439916
-0.23749959 -11.064144 9.9377499
-0.35672009 -17.031878 12.487919
-0.3658362 -17.762842 10.525901
-0.35997 -17.933737 8.3794785
-0.23121847 -11.723429 4.1701727
-0.35252091 -18.194914 4.4799099
-0.35182962 -18.324093 2.6484048
-0.34802803 -18.461445 0.83852369
-0.11316676 -0.21335377 26.273273
-0.18017335 -3.8434474 24.459629
-0.20118271 -4.9734092 23.953606
-0.1559829 -4.6350141 14.873104
-0.2796225 -9.2630234 21.891825
-0.2417316 -8.6045647 15.842287
-0.28258184 -10.583248 15.621758
-0.14699119 -5.7309923 6.9403777
-0.20032197 -1.4748614 25.576687
-0.25849134 -2.6813967 25.081047
-0.23287986 -6.1241975 23.63323
-0.27322924 -8.1984911 22.361446
-0.3142395 -10.289448 21.349001
-0.28990567 -10.007099 16.445595
-0.26218793 -9.4486074 12.591026
-0.16313964 -6.0707479 6.6617889
-0.29317886 -12.443232 12.311118
-0.31671342 -13.74705 11.169884
-0.39782581 -17.668434 11.671481
-0.39527696 -17.831451 9.422802
-0.39248505 -17.988543 7.3578916
-0.38566047 -18.259674 3.5589538
-0.38151982 -18.366945 1.7422035
-0.2736966 -10.966201 9.8512878
-0.41626903 -17.034571 12.490862
-0.42783785 -17.761457 10.525901
-0.42278209 -17.941444 8.3836746
-0.27082419 -11.665899 4.1504507
-0.4157905 -18.322754 2.6484048
-0.41235676 -18.455122 0.8383221
-0.11386744 -0.21288171 26.263273
-0.19358838 -3.8427949 24.459629
-0.21849716 -4.9716597 23.948711
-0.17216116 -4.6344409 14.873104
-0.3119548 -9.2619915 21.891825
-0.2714631 -8.5940933 15.82473
-0.16671497 -5.7208323 6.928865
-0.20538864 -1.4735814 25.566704
-0.26784959 -2.6804781 25.081047
-0.32378355 -7.7961855 30.079344
-0.30184564 -8.1974869 22.361446
-0.35015449 -10.288287 21.349001
-0.32365009 -9.969533 16.385872
-0.29507405 -9.4446239 12.587036
-0.18422659 -6.0667534 6.6581135
-0.3348757 -12.377964 12.248036
-0.36480087 -13.749751 11.173021
-0.45949769 -17.666937 11.671481
-0.45740426 -17.825535 9.4204826
-0.45527437 -17.987064 7.3578916
-0.32441399 -12.996329 3.9112287
-0.4492754 -18.253305 3.5580213
-0.44478449 -18.330652 1.7390739
-0.31176171 -10.957714 9.8446369
-0.47561535 -17.028973 12.487919
-0.48983431 -17.759855 10.525901
-0.48540685 -17.939859 8.3836746
-0.31154412 -11.664883 4.1504507
-0.47611672 -18.182581 2.629066
-0.47677463 -18.453569 0.8383221
-0.11458801 -0.21244515 26.258272
-0.2069173 -3.8405442 24.449751
-0.23580186 -4.9698496 23.943815
-0.18833733 -4.6338115 14.873104
-0.34428328 -9.2608452 21.891825
-0.30129242 -8.5883064 15.815951
-0.35096258 -10.417896 15.382047
-0.18689257 -5.7266231 6.9365401
-0.21048999 -1.4725698 25.561712
-0.27676401 -2.6752851 25.041277
-0.35116512 -7.7987747 30.093861
-0.33045837 -8.1963835 22.361446
-0.38598353 -10.284828 21.344501
-0.35694835 -9.9266415 16.317617
-0.32835403 -9.4525709 12.599007
-0.2043695 -6.0355802 6.6250377
-0.37601152 -12.308991 12.181449
-0.52153397 -17.677765 11.679706
-0.5181917 -17.99 7.3597646
-0.36977768 -12.995117 3.9112287
-0.51312655 -18.256536 3.5589538
-0.50420773 -18.164709 1.7243202
-0.34989011 -10.952826 9.8413105
-0.53492773 -17.023169 12.484976
-0.55182481 -17.758036 10.525901
-0.54802567 -17.938057 8.3836746
-0.35083467 -11.616525 4.1340156
-0.53561628 -18.047161 2.6104176
-0.54118669 -18.451792 0.8383221
-0.11532889 -0.21204388 26.258272
-0.22063416 -3.8452284 24.484325
-0.25314844 -4.9689965 23.943815
-0.20451121 -4.6331263 14.873104
-0.37660754 -9.2595873 21.891825
-0.331177 -8.5848083 15.811562
-0.38722113 -10.413796 15.377914
-0.20688109 -5.7259355 6.9365401
-0.21558675 -1.4715405 25.556721
-0.28689772 -2.6817229 25.110878
-0.37838575 -7.7975011 30.093861
-0.35906708 -8.1951799 22.361446
-0.42179269 -10.281243 21.34
-0.39015675 -9.8888512 16.257895
-0.36088705 -9.4393225 12.583046
-0.22480339 -6.0178905 6.6066613
-0.41691273 -12.247013 12.121873
-0.58309984 -17.671658 11.676965
-0.58068603 -17.978813 7.3560185
-0.41421771 -12.96498 3.9027686
-0.57654035 -18.244816 3.5570889
-0.56761134 -18.16284 1.7243202
-0.38798821 -10.947807 9.837985
-0.59434646 -17.021198 12.484976
-0.61380857 -17.756002 10.525901
-0.3920179 -11.634106 4.1405892
-0.59795266 -18.025383 2.6076548
-0.60542828 -18.444799 0.83812064
-0.11602419 -0.21156475 26.248272
-0.23438628 -3.849864 24.518902
-0.27043653 -4.9670658 23.938921
-0.22068259 -4.6323838 14.873104
-0.40892726 -9.2582159 21.891825
-0.36094013 -8.5788155 15.802785
-0.42162478 -10.364581 15.307653
-0.22661316 -5.7187729 6.928865
-0.22076523 -1.4710644 25.561712
-0.29660955 -2.6838839 25.140705
-0.4056018 -7.796133 30.093861
-0.38767141 -8.1938763 22.361446
-0.45787197 -10.284057 21.349001
-0.42288184 -9.8457384 16.18964
-0.39408556 -9.444026 12.591026
-0.24580838 -6.0170693 6.6066613
-0.457252 -12.181335 12.058791
-0.50804538 -13.725729 11.15733
-0.64493436 -17.673693 11.679706
-0.45964128 -12.968248 3.9041784
-0.64022321 -18.242691 3.5570889
-0.63100797 -18.160748 1.7243202
-0.42634609 -10.950116 9.8413105
-0.65375787 -17.01902 12.484976
-0.6759488 -17.75806 10.528434
-0.26034763 -6.9356284 3.295898
-0.43209961 -11.61851 4.1356587
-0.66286546 -18.077623 2.6152523
-0.66980898 -18.442574 0.83812064
-0.11671753 -0.21108337 26.238274
-0.24807341 -3.8528993 24.543598
-0.28777316 -4.9660916 23.938921
-0.23685129 -4.6315856 14.873104
-0.44124198 -9.2567329 21.891825
-0.39088359 -8.5775032 15.802785
-0.45631078 -10.329311 15.258059
-0.24643587 -5.714745 6.9250274
-0.22589888 -1.4702849 25.561712
-0.30646122 -2.6870689 25.180479
-0.43246427 -7.788394 30.069664
-0.416271 -8.1924734 22.361446
-0.49334952 -10.273699 21.330997
-0.45494765 -9.7947035 16.108587
-0.42704895 -9.4425936 12.591026
-0.26650989 -6.0094004 6.5993109
-0.49728408 -12.11909 11.999213
-0.5565843 -13.739429 11.169884
-0.70662314 -17.671333 11.679706
-0.50490612 -12.966564 3.9041784
-0.70370871 -18.235435 3.5561559
-0.69154245 -18.08379 1.7176139
-0.46472487 -10.952292 9.8446369
-0.71299213 -17.012596 12.482033
-0.73793185 -17.755592 10.528434
-0.28530028 -6.9528155 3.3042901
-0.47265312 -11.616931 4.1356587
-0.72536778 -18.060354 2.6131799
-0.73418152 -18.440123 0.83812064
-0.1174313 -0.21063718 26.233274
-0.26194274 -3.8582113 24.583111
-0.30510631 -4.9650569 23.938921
-0.2530171 -4.6307306 14.873104
-0.4735513 -9.2551365 21.891825
-0.42070484 -8.5736933 15.798395
-0.48995149 -10.277061 15.183665
-0.26608393 -5.7074461 6.9173522
-0.23112005 -1.4700575 25.571693
-0.31615129 -2.6886296 25.205336
-0.45935178 -7.7818184 30.050306
-0.44486552 -8.1909704 22.361446
-0.52965653 -10.280609 21.349001
-0.48718283 -9.7539835 16.044598
-0.46015382 -9.4440546 12.595016
-0.28716087 -6.0016613 6.5919609
-0.53688723 -12.056714 11.939636
-0.60505378 -13.749066 11.179298
-0.76830328 -17.66876 11.679706
-0.30063936 -7.0270834 2.9300418
-0.55199534 -13.007858 3.9168687
-0.755584 -17.953117 3.5029967
-0.75445479 -18.07629 1.7171669
-0.50295269 -10.950603 9.8446369
-0.77218938 -17.005964 12.479089
-0.80029404 -17.76152 10.5335
-0.30896264 -6.9381762 3.297996
-0.51278406 -11.605775 4.1323719
-0.78775769 -18.04287 2.6111081
-0.79876119 -18.442438 0.8383221
-0.11805345 -0.210039 26.208275
-0.27524257 -3.8549488 24.568293
-0.32250178 -4.9649777 23.943815
-0.2690931 -4.6283293 14.868332
-0.50596154 -9.2553768 21.896427
-0.4505043 -8.5697813 15.794006
-0.52366453 -10.233134 15.121672
-0.28568405 -5.7000809 6.909678
-0.23620395 -1.4689568 25.566704
-0.32617766 -2.6928015 25.255051
-0.48619863 -7.7751493 30.030949
-0.47345465 -8.1893682 22.361446
-0.56589824 -10.28522 21.362507
-0.51746869 -9.6819077 15.929418
-0.49311695 -9.4423914 12.595016
-0.30776104 -5.9938512 6.5846105
-0.57623214 -11.997773 11.883563
-0.65285856 -13.742982 11.17616
-0.82997411 -17.665972 11.679706
-0.32538095 -7.0306225 2.9319148
-0.6000393 -13.063357 3.9337893
-0.8182475 -17.950371 3.5029967
-0.81754822 -18.073545 1.7171669
-0.54117435 -10.948782 9.8446369
-0.45599505 -9.3244505 6.8811979
-0.34690991 -7.144999 4.2892141
-0.86122227 -17.930294 8.3857737
-0.55306768 -11.599197 4.1307282
-0.85026783 -18.030117 2.6097267
-0.86313242 -18.439537 0.8383221
-0.11885373 -0.20973758 26.223274
-0.28834841 -3.8493152 24.538658
-0.33983082 -4.9638214 23.943815
-0.28524736 -4.6273618 14.868332
-0.53837913 -9.2555037 21.90103
-0.48041567 -8.5681572 15.794006
-0.55692321 -10.186286 15.055545
-0.30523598 -5.692647 6.9020028
-0.24128298 -1.4678386 25.561712
-0.33544293 -2.6905885 25.245108
-0.51283884 -7.7658796 30.001913
-0.50193238 -8.1859436 22.356752
-0.55052012 -9.6670227 15.908088
-0.52607399 -9.4406128 12.595016
-0.32849592 -5.9893551 6.5809355
-0.61498857 -11.935142 11.823985
-0.89163476 -17.662966 11.679706
-0.34853742 -7.0016627 2.9206765
-0.64468789 -13.042018 3.928149
-0.87993765 -17.92778 3.4992661
-0.88087404 -18.075556 1.7176139
-0.57938945 -10.946826 9.8446369
-0.48980993 -9.3470201 6.8988566
-0.37386546 -7.1824899 4.3120127
-0.92333823 -17.918114 8.3815775
-0.59307033 -11.587765 4.1274414
-0.91294897 -18.022095 2.6090362
-0.92774433 -18.441404 0.83852369
-0.11958513 -0.20932144 26.223274
-0.30160078 -3.8459616 24.52384
-0.35722885 -4.9636207 23.948711
-0.30139813 -4.626338 14.868332
-0.57080394 -9.2555189 21.905632
-0.51017874 -8.5640364 15.789617
-0.59018815 -10.144949 14.997683
-0.32492235 -5.6883469 6.8981652
-0.24626079 -1.4661335 25.546736
-0.34496883 -2.6904588 25.255051
-0.54029262 -7.7690578 30.021271
-0.53050357 -8.1841412 22.356752
-0.45072737 -7.2673955 15.119323
-0.58237219 -9.6338034 15.856897
-0.55902469 -9.4387188 12.595016
-0.34900564 -5.9814029 6.573585
-0.65331483 -11.872388 11.764409
-0.49033135 -8.9965096 7.3472428
-0.95328462 -17.659746 11.679706
-0.37198898 -6.9818859 2.9131844
-0.69020909 -13.039687 3.928149
-0.944224 -18.077345 1.7180611
-0.61738706 -10.941009 9.8413105
-0.52672112 -9.4219322 6.9547772
-0.39917392 -7.1854453 4.3145461
-0.98587853 -17.914782 8.3815775
-0.63351554 -11.585624 4.1274414
-0.97585225 -18.018797 2.6090362
-0.99211115 -18.438053 0.83852369
-0.12033795 -0.20893991 26.228275
-0.31483328 -3.842562 24.509024
-0.37455297 -4.9623432 23.948711
-0.31754524 -4.6252575 14.868332
-0.60310823 -9.2534704 21.905632
-0.53991896 -8.5598145 15.785228
-0.62299812 -10.100698 14.935689
-0.3443884 -5.680779 6.8904901
-0.25181928 -1.4678252 25.591661
-0.35442802 -2.6897666 25.260023
-0.56750005 -7.7683778 30.02611
-0.55895066 -8.1805172 22.35206
-0.47694686 -7.2788115 15.146329
-0.61416554 -9.6030827 15.809972
-0.5919686 -9.4367094 12.595016
-0.36967316 -5.9767642 6.5699096
-0.69162726 -11.816632 11.71184
-0.52173203 -8.9947424 7.3472428
-1.0149229 -17.656311 11.679706
-0.56555021 -9.8992014 5.2767878
-0.39556959 -6.9666595 2.9075654
-0.73193789 -12.970147 3.9084086
-0.79740059 -14.218269 2.7951379
-1.0073199 -18.073938 1.7180611
-0.65579796 -10.942514 9.8446369
-0.55888748 -9.4079323 6.9459472
-0.42349085 -7.1710982 4.3069463
-1.0507938 -17.952009 8.4004602
-0.67395306 -11.583342 4.1274414
-0.81610554 -14.111265 3.4998522
-1.0384586 -18.010336 2.6083453
-1.0567517 -18.439465 0.83872521
-0.12108954 -0.20855564 26.233274
-0.32804567 -3.8391168 24.494204
-0.39187247 -4.9610057 23.948711
-0.33368847 -4.6241207 14.868332
-0.63553911 -9.2532578 21.910234
-0.56963581 -8.5554867 15.780838
-0.65568942 -10.059149 14.877828
-0.36401075 -5.6763439 6.8866525
-0.25719208 -1.4683589 25.616619
-0.36402997 -2.6900976 25.274937
-0.5943253 -7.7625899 30.011593
-0.5875026 -8.1785164 22.35206
-0.50205177 -7.2727585 15.137326
-0.6454004 -9.5670519 15.754514
-0.62490523 -9.4345856 12.595016
-0.39009145 -5.9686723 6.5625596
-0.72955859 -11.760756 11.659273
-0.5545603 -9.0161772 7.3660741
-1.0765487 -17.65266 11.679706
-0.60117388 -9.9148531 5.2860627
-0.41932738 -6.9559813 2.9038193
-0.77720773 -12.967513 3.9084086
-0.84761113 -14.225205 2.7970033
-1.070698 -18.075283 1.7185081
-0.69469953 -10.951336 9.8546124
-0.58943963 -9.3696165 6.9194589
-0.44852009 -7.1695762 4.3069463
-1.1134516 -17.948233 8.4004602
-0.71496385 -11.590345 4.1307282
-0.86595327 -14.118033 3.5021968
-1.1016225 -18.011547 2.6090362
-1.1208078 -18.430677 0.83852369
-0.12183992 -0.20816869 26.238274
-0.3410311 -3.8333049 24.464569
-0.409271 -4.9606223 23.953606
-0.34982759 -4.6229277 14.868332
-0.66783518 -9.2509832 21.910234
-0.59932911 -8.5510578 15.77645
-0.68790537 -10.014688 14.815833
-0.38360634 -5.6718411 6.8828154
-0.26246941 -1.4683044 25.631596
-0.3736386 -2.6903944 25.289852
-0.62242186 -7.7729974 30.059986
-0.61604738 -8.1764164 22.35206
-0.52743536 -7.2709613 15.137326
-0.67620659 -9.5283213 15.694792
-0.65783429 -9.4323473 12.595016
-0.41069067 -5.963892 6.5588846
-0.76687491 -11.7012 11.6032
-0.58754444 -9.0374908 7.3849049
-1.1376231 -17.64045 11.674223
-0.44272038 -6.9405951 2.8982
-0.82155681 -12.950358 3.9041784
-0.89540541 -14.192746 2.7914076
-1.1331624 -18.061497 1.7176139
-0.62214208 -9.3675022 6.9194589
-0.4707019 -7.1249523 4.2816143
-0.75541729 -11.587779 4.1307282
-0.91176939 -14.061569 3.4893014
-1.1644877 -18.007591 2.6090362
-1.185136 -18.426653 0.83852369
-0.12261233 -0.20781595 26.248272
-0.35455304 -3.8336389 24.474449
-0.4265843 -4.9591632 23.953606
-0.36596251 -4.6216788 14.868332
-0.70115548 -9.2622309 21.942451
-0.62899834 -8.546524 15.772059
-0.71981901 -9.9701242 14.753839
-0.40317494 -5.6672702 6.8789778
-0.26759315 -1.4673793 25.631596
-0.38355526 -2.6927679 25.324652
-0.64850348 -7.7582517 30.011593
-0.644449 -8.1724958 22.347366
-0.55264747 -7.2669058 15.132826
-0.7065565 -9.4868889 15.630802
-0.69053513 -9.4269876 12.591026
-0.43101656 -5.9556594 6.5515342
-0.80378437 -11.641527 11.547128
-1.198342 -17.623857 11.665998
-0.46632233 -6.9297571 2.8944542
-0.94428903 -14.17973 2.7895422
-1.1958727 -18.052462 1.7171669
-0.35653722 -5.0614481 4.6003227
-0.6562469 -9.3854361 6.934175
-0.49886101 -7.1705704 4.3094797
-0.79489064 -11.570938 4.1257977
-0.95587629 -13.985561 3.4717166
-1.2276757 -18.008358 2.6097267
-1.2474215 -18.392496 0.83731449
-0.12338378 -0.20746036 26.258272
-0.36808142 -3.8339243 24.484325
-0.44389242 -4.957644 23.953606
-0.38209295 -4.6203732 14.868332
-0.73209375 -9.2421989 21.90103
-0.65864331 -8.5418892 15.767672
-0.75142998 -9.9254608 14.691845
-0.42247766 -5.6594357 6.8713026
-0.27244812 -1.4650176 25.606638
-0.39302966 -2.6919398 25.329622
-0.67667204 -7.7684627 30.059986
-0.67297238 -8.1701965 22.347366
-0.57801038 -7.2649322 15.132826
-0.73601705 -9.437562 15.554015
-0.72343725 -9.4245195 12.591026
-0.45154652 -5.950738 6.5478587
-0.8405447 -11.585296 11.494558
-0.38775653 -5.3838511 4.4347553
-1.2589586 -17.607054 11.657774
-0.49018142 -6.9234624 2.892581
-1.2514172 -17.851517 3.4890072
-1.2581872 -18.03824 1.7162727
-0.37392747 -5.0564494 4.5969973
-1.0507517 -14.309153 10.530717
-0.52828693 -7.2289753 4.344944
-0.8349359 -11.563383 4.1241541
-0.99911529 -13.904571 3.4529595
-1.2884047 -17.974325 2.6055827
-1.2842454 -18.004316 0.8217966
-0.12413073 -0.20706517 26.263273
-0.38153914 -3.8333895 24.489265
-0.46119511 -4.9560642 23.953606
-0.39821872 -4.6190114 14.868332
-0.7633841 -9.2279072 21.873415
-0.68845606 -8.5395384 15.767672
-0.78296018 -9.8835049 14.633984
-0.44198039 -5.6547308 6.867465
-0.27745214 -1.4634906 25.596655
-0.40202853 -2.6879156 25.304766
-0.5535304 -6.1086235 23.652588
-0.70148754 -8.167798 22.347366
-0.60318589 -7.2607007 15.128324
-0.76598954 -9.3985443 15.494292
-0.75633049 -9.421937 12.591026
-0.47177899 -5.9423661 6.5405083
-0.87665194 -11.525396 11.438486
-0.39276713 -5.2000461 4.2872481
-1.3194727 -17.590042 11.649549
-0.53406543 -7.1533852 3.8414507
-0.51468939 -6.9263325 2.8944542
-1.3227384 -17.969515 3.5123227
-0.39186382 -5.0588355 4.6003227
-1.0997632 -14.293307 10.521888
-0.74578202 -9.7372437 5.8243203
-0.84142441 -11.113072 3.9680209
-1.0476452 -13.900998 3.4529595
-1.3177218 -17.525286 2.5434215
-1.2866828 -17.19264 0.78914863
-0.12490004 -0.20670395 26.273273
-0.39499754 -3.8328071 24.494204
-0.47849223 -4.9544244 23.953606
-0.41433966 -4.6175928 14.868332
-0.79391187 -9.2057219 21.827389
-0.7180596 -8.5346966 15.763283
-0.8139745 -9.838644 14.571989
-0.4614554 -5.6499586 6.8636274
-0.2824488 -1.4619462 25.58667
-0.4112469 -2.6854424 25.294823
-0.57485008 -6.1066542 23.652588
-0.72999424 -8.1652994 22.347366
-0.62852675 -7.2585506 15.128324
-0.79238415 -9.3204527 15.37058
-0.78946632 -9.4222431 12.595016
-0.49195859 -5.9339266 6.5331583
-0.91263413 -11.46894 11.385918
-0.41490391 -5.2490859 4.3280478
-1.3798832 -17.572823 11.641325
-0.55765116 -7.1338115 3.8321753
-0.53886366 -6.9244938 2.8944542
-1.0999011 -14.262122 2.8072622
-1.2891695 -16.792645 1.6049502
-0.40952009 -5.0574369 4.6003227
-1.1467319 -14.253121 10.495399
-0.77425921 -9.6658278 5.7837896
-0.88021123 -11.110068 3.9680209
-1.0969268 -13.906946 3.4553041
-1.3462517 -17.105888 2.4854043
-1.2054223 -15.38504 0.71619439
-0.12562081 -0.20626672 26.273273
-0.40853903 -3.8329504 24.504082
-0.495682 -4.9517112 23.948711
-0.43045554 -4.6161184 14.868332
-0.82621574 -9.2048397 21.831993
-0.74763769 -8.5297518 15.758893
-0.8444435 -9.790885 14.505862
-0.48090249 -5.6451197 6.8597898
-0.28749415 -1.4606682 25.581678
-0.4204528 -2.6829371 25.28488
-0.59542942 -6.0971045 23.62355
-0.75849193 -8.1627016 22.347366
-0.65385997 -7.2563128 15.128324
-0.82514387 -9.3202276 15.374846
-0.82235122 -9.4194298 12.595016
-0.51237696 -5.9287958 6.5294833
-0.94793755 -11.40882 11.329844
-1.4446344 -17.609573 11.668739
-0.58363134 -7.1450667 3.8391318
-0.56378299 -6.9318118 2.8982
-1.0501573 -12.967519 3.9140489
-1.1516525 -14.282678 2.8119252
-1.2975651 -16.162577 1.5486181
-0.42717132 -5.0559764 4.6003227
-1.19411 -14.220837 10.474797
-0.80799454 -9.6630659 5.7837896
-0.60890073 -7.3282661 3.4868209
-0.90029645 -10.881037 3.8891325
-1.304919 -15.872169 2.3134251
-1.2252861 -14.967458 0.69946736
-0.12634006 -0.20582695 26.273273
-0.42200115 -3.8322732 24.509024
-0.51296371 -4.9499502 23.948711
-0.44656619 -4.6145878 14.868332
-0.85834152 -9.2019005 21.831993
-0.77719009 -8.5247049 15.754505
-0.87559557 -9.7542458 14.456267
-0.50032145 -5.6402144 6.8559523
-0.29259107 -1.4596558 25.581678
-0.42973089 -2.680927 25.279909
-0.61696184 -6.0974898 23.63323
-0.78698057 -8.1600037 22.347366
-0.67918527 -7.2539864 15.128324
-0.85432518 -9.2809324 15.315124
-0.85549879 -9.4195032 12.599007
-0.5324617 -5.9202175 6.5221329
-0.98344797 -11.355701 11.280782
-0.50394917 -5.8549023 4.8207855
-1.508233 -17.629419 11.685188
-0.60932088 -7.151814 3.8437696
-0.59346348 -6.994472 2.9244227
-1.0958197 -12.968554 3.9154587
-1.2678949 -15.130694 1.4560728
-0.44383532 -5.0432968 4.5903459
-1.2437428 -14.216582 10.474797
-0.63212764 -7.298965 3.4742322
-0.9455775 -10.962511 3.9187155
-1.2685261 -14.796844 2.1635475
-1.1738249 -13.748502 0.65029383
-0.12703373 -0.20534827 26.268272
-0.4356392 -3.8330929 24.52384
-0.53013057 -4.9471173 23.943815
-0.46252233 -4.6115155 14.86356
-0.89045697 -9.1988478 21.831993
-0.8067162 -8.5195551 15.750114
-0.90310389 -9.6810837 14.352943
-0.5194177 -5.6320505 6.848278
-0.29762638 -1.4583428 25.576687
-0.43908644 -2.6794107 25.279909
-0.6379804 -6.0927987 23.62355
-0.81545949 -8.1572075 22.347366
-0.70471287 -7.2537379 15.132826
-0.88349056 -9.2441435 15.259665
-0.88837373 -9.4164591 12.599007
-0.55280834 -5.914947 6.5184574
-1.018599 -11.302473 11.231718
-0.5250783 -5.8608618 4.8270626
-1.2841088 -14.417044 9.5742598
-0.63349873 -7.1408186 3.8391318
-0.62358826 -7.0570087 2.9506452
-1.1457083 -13.017214 3.9309692
-1.3122513 -14.969163 2.9443572
-1.2544285 -14.367129 1.3876697
-1.0641935 -11.626697 10.479807
-0.87683487 -9.6353083 7.1284237
-0.8139416 -8.9788647 5.3835473
-0.65760195 -7.2967138 3.4742322
-0.98088241 -10.926221 3.9072111
-1.38493 -15.487488 3.8409965
-1.2422519 -13.91928 2.041297
-1.1488174 -12.923227 0.61704117
-0.12774976 -0.20490357 26.268272
-0.44928807 -3.8338637 24.538658
-0.547396 -4.9452367 23.943815
-0.47861671 -4.6098728 14.86356
-0.92197633 -9.1898518 21.818186
-0.83598197 -8.5119209 15.741337
-0.93607807 -9.6694679 14.340544
-0.53876853 -5.6270123 6.8444405
-0.30271512 -1.4572949 25.576687
-0.44817185 -2.6762846 25.264994
-0.659109 -6.0892854 23.618713
-0.84410608 -8.1560268 22.35206
-0.7302469 -7.2533998 15.137326
-0.91240937 -9.2072639 15.204208
-0.92153138 -9.4162998 12.602996
-0.57279742 -5.9062328 6.511107
-1.0533906 -11.249139 11.182654
-0.53615022 -5.7582283 4.7454624
-1.3259447 -14.320875 9.5139475
-0.65842098 -7.1385636 3.8391318
-0.64821798 -7.0547891 2.9506452
-1.1933262 -13.037021 3.9380195
-1.2797433 -14.03502 2.7671595
-1.2000598 -13.212046 1.2839473
-1.1033585 -11.608043 10.466505
-1.3102489 -13.861482 10.221685
-0.84891635 -9.014595 5.4063458
-0.68264514 -7.2898564 3.4721346
-1.0181388 -10.913328 3.9039242
-1.324278 -14.24842 3.5420556
-1.1938574 -12.86951 1.8948729
-1.1355338 -12.287347 0.59144676
-0.12843995 -0.20442016 26.263273
-0.46322733 -3.8369007 24.568293
-0.56465477 -4.943296 23.943815
-0.49454588 -4.6066899 14.858788
-0.95546216 -9.2001801 21.850403
-0.86544657 -8.506568 15.736948
-0.96589178 -9.6269426 14.282682
-0.55777383 -5.6187177 6.8367653
-0.3078002 -1.4562294 25.576687
-0.45796156 -2.6773307 25.289852
-0.6802209 -6.0856981 23.613873
-0.87275451 -8.154747 22.356752
-0.75556153 -7.2508068 15.137326
-0.93815255 -9.141757 15.101827
-0.95439482 -9.4130249 12.602996
-0.59307146 -5.9008245 6.507432
-1.0878224 -11.1957 11.133591
-0.55587256 -5.7524476 4.7423244
-1.3607239 -14.157992 9.4097719
-0.68333519 -7.1362219 3.8391318
-0.67768317 -7.1032481 2.9712484
-1.2792277 -13.457798 4.0635123
-1.2555512 -13.257789 2.6198053
-1.1170607 -11.839382 1.1605536
-1.1409409 -11.574395 10.4399
-1.3124779 -13.386166 9.8773346
-0.89043796 -9.1145468 5.4671421
-0.7076484 -7.2829118 3.4700365
-1.0512215 -10.858005 3.8858454
-1.305866 -13.537336 3.3708973
-1.1709005 -12.160379 1.7961056
-1.1187799 -11.661671 0.56625539
-0.12920153 -0.20404291 26.273273
-0.47661775 -3.8352604 24.568293
-0.58190662 -4.9412947 23.943815
-0.51045859 -4.6034517 14.854015
-0.987571 -9.1967888 21.850403
-0.89488405 -8.5011139 15.73256
-0.9989087 -9.6179142 14.274416
-0.57705557 -5.6135483 6.8329277
-0.31282049 -1.4548639 25.571693
-0.4664771 -2.67099 25.245108
-0.70131576 -6.0820384 23.609034
-0.9014042 -8.1533661 22.361446
-0.78110027 -7.2502899 15.141829
-0.96923155 -9.1306467 15.089027
-0.98724657 -9.4096365 12.602996
-0.61331481 -5.8953466 6.503757
-1.1218939 -11.142158 11.084527
-0.5705179 -5.6962519 4.6983857
-1.0191945 -10.229495 6.8245692
-0.70780343 -7.1293845 3.836813
-0.69790989 -7.0547047 2.952518
-1.3450209 -13.644209 4.1199136
-1.2345934 -12.568905 2.4892385
-1.1302454 -11.547945 1.1346229
-1.1714753 -11.473765 10.353437
-1.3314205 -13.108054 9.6772003
-0.93657476 -9.2529163 5.5507374
-0.73261148 -7.2758818 3.4679384
-1.0867592 -10.830776 3.8776278
-1.2762197 -12.763691 3.1844988
-1.1730103 -11.752155 1.7394699
-1.1174508 -11.235125 0.54912525
-0.12988845 -0.20355459 26.268272
-0.49000242 -3.8335733 24.568293
-0.59902877 -4.9382229 23.938921
-0.52652454 -4.6016421 14.854015
-1.0205293 -9.2010517 21.868811
-0.92403477 -8.4931765 15.723782
-1.0252637 -9.5472193 14.175226
-0.59596914 -5.6051254 6.8252525
-0.31789702 -1.453763 25.571693
-0.47570398 -2.6688209 25.240135
-0.72209656 -6.075808 23.594515
-0.92985928 -8.1501694 22.361446
-0.8064037 -7.247519 15.141829
-0.99740064 -9.0935059 15.033572
-1.0200863 -9.4061327 12.602996
-0.63388968 -5.8931699 6.503757
-1.155605 -11.088516 11.035463
-0.60685754 -5.8529587 4.8270626
