# .PCD v0.7 - Point Cloud Data file format
VERSION 0.7
FIELDS x y z
SIZE 4 4 4
TYPE F F F
COUNT 1 1 1
WIDTH 1513
HEIGHT 1
VIEWPOINT 0 0 0 1 0 0 0
POINTS 1513
DATA ascii
3.5644608 -0.42677644 8.5168896
4.5839071 -0.5391773 8.525691
5.8258748 -0.67707235 8.6866703
7.2682266 -0.8370285 8.8361044
0.46714076 -0.10525265 8.1208572
0.87384999 -0.16288126 8.2475367
2.1043375 -0.26857644 8.2051458
3.0856411 -0.37923965 8.5084
4.0607839 -0.48768157 8.5205421
5.1996117 -0.61622864 8.6346703
6.5657425 -0.77005029 8.828433
8.0829697 -0.9408806 8.8999643
8.9872389 -1.0159605 8.9677811
9.9859066 -1.1429901 9.0332146
0.073498003 -0.04272113 8.3189564
1.2719319 -0.17812186 8.1650181
1.681865 -0.22469501 8.1811857
2.623872 -0.3326607 8.5025053
3.5629492 -0.43921614 8.5168896
4.5772419 -0.55459863 8.5169125
5.8234758 -0.69740433 8.6866703
7.2652607 -0.86239421 8.8361044
0.4667705 -0.10688263 8.1208572
0.87275255 -0.16583042 8.2425642
2.1033871 -0.27592033 8.2051458
3.0842986 -0.39000821 8.5084
4.0633783 -0.50238776 8.5295448
5.1974292 -0.63437492 8.6346703
6.5600233 -0.79260284 8.8244429
8.0796356 -0.96908969 8.8999643
8.9871788 -1.0477386 8.9712858
9.9855642 -1.1782782 9.03654
0.073348433 -0.042977426 8.3189564
1.2720715 -0.18267132 8.1699572
1.6810703 -0.23056446 8.1811857
2.6241751 -0.34201071 8.5072775
3.5613945 -0.4516505 8.5168896
4.5847845 -0.57175857 8.5344687
5.8265915 -0.71841663 8.6949358
7.2653871 -0.88813841 8.839942
0.46639457 -0.10851131 8.1208572
0.87216842 -0.16887587 8.2425642
2.1024113 -0.28326085 8.2051458
3.0846298 -0.40099463 8.513093
4.0702376 -0.51766741 8.5475492
5.1951828 -0.6525135 8.6346703
6.5691776 -0.81698453 8.8404036
8.0762043 -0.99728692 8.8999643
8.9834671 -1.0791032 8.9712858
9.981391 -1.2131271 9.03654
0.073197961 -0.043233201 8.3189564
1.2714261 -0.18711059 8.1699572
1.6802553 -0.23643108 8.1811857
2.6229653 -0.35116872 8.5072775
3.5597963 -0.46407929 8.5168896
4.5780096 -0.58714944 8.525691
5.8324237 -0.73981339 8.7073355
7.2622428 -0.91349393 8.839942
0.46601295 -0.11013868 8.1208572
0.87157357 -0.17191929 8.2425642
2.1014094 -0.29059789 8.2051458
3.0832112 -0.41175956 8.513093
4.0554543 -0.53017849 8.5205421
5.1954594 -0.67097807 8.638936
6.5632968 -0.83952785 8.8364134
8.0760365 -1.0258992 8.9036388
8.9796457 -1.1104549 8.9712858
9.9845047 -1.2488881 9.043191
0.073046602 -0.043488439 8.3189564
1.2707652 -0.19154756 8.1699572
1.6794198 -0.24229483 8.1811857
2.6217234 -0.36032242 8.5072775
3.5581546 -0.47650248 8.5168896
4.5925531 -0.60531729 8.5564146
5.8381763 -0.76125938 8.7197342
7.2621889 -0.93924946 8.8437796
0.46562564 -0.1117647 8.1208572
0.87149066 -0.17506623 8.2475367
2.1016271 -0.29810813 8.2099848
3.0834646 -0.42275393 8.5177851
4.0471067 -0.5434621 8.5070391
5.1930852 -0.6891095 8.638936
6.5483761 -0.86086184 8.8204527
8.0724058 -1.0540836 8.9036388
8.9757147 -1.1417929 8.9712858
9.9726782 -1.2827802 9.03654
0.072858937 -0.043717697 8.3139572
1.2731602 -0.1964571 8.1897135
1.6785637 -0.24815561 8.1811857
2.6219277 -0.36968026 8.5120497
3.5564697 -0.48891982 8.5168896
4.5951591 -0.62198716 8.5651922
5.8438511 -0.78275472 8.7321329
7.2588663 -0.96459353 8.8437796
0.4652327 -0.11338935 8.1208572
0.87087423 -0.17810723 8.2475367
2.1005735 -0.30544236 8.2099848
3.083679 -0.4337551 8.5224781
4.0430284 -0.55728847 8.5025377
5.193233 -0.70758474 8.6432018
6.5393591 -0.88290823 8.8124733
8.0686769 -1.0822551 8.9036388
8.971674 -1.1731169 8.9712858
9.9718418 -1.3180729 9.0398655
0.072705887 -0.043971755 8.3139572
1.2732341 -0.20102148 8.1946535
1.6776873 -0.25401339 8.1811857
2.6206214 -0.37883025 8.5120497
3.5566759 -0.5016042 8.521492
4.6024494 -0.63934201 8.5827494
5.8494468 -0.80429894 8.7445316
7.2554545 -0.9899258 8.8437796
0.46483403 -0.11501262 8.1208572
0.87024724 -0.18114607 8.2475367
2.0994947 -0.31277287 8.2099848
3.0821462 -0.44451648 8.5224781
4.0410585 -0.5713979 8.5025377
5.188148 -0.72534698 8.638936
6.5302677 -0.90490216 8.804493
8.0682087 -1.110876 8.9073143
8.9710598 -1.2049017 8.9747906
9.9893789 -1.3558863 9.0598183
0.072551951 -0.044225276 8.3139572
1.280962 -0.20682971 8.2489853
1.6767904 -0.25986806 8.1811857
2.6192832 -0.38797563 8.5120497
3.5549033 -0.51401627 8.521492
4.6049309 -0.65607929 8.591527
5.8521762 -0.82549858 8.7527971
7.2551298 -1.0156906 8.8476171
0.46442974 -0.1166345 8.1208572
0.87013102 -0.18429381 8.2525082
2.0983901 -0.32009956 8.2099848
3.0822828 -0.45552489 8.5271711
4.0519657 -0.58737457 8.5295448
5.1907477 -0.74419296 8.6474676
6.524086 -0.92726749 8.8005028
8.0642815 -1.1390325 8.9073143
8.9667988 -1.2362092 8.9747906
0.072397135 -0.044478264 8.3139572
1.2863649 -0.21231401 8.2884989
1.675873 -0.26571956 8.1811857
2.617913 -0.39711624 8.5120497
3.5530875 -0.52642208 8.521492
4.602613 -0.67214948 8.591527
5.8492589 -0.84592146 8.7527971
7.2515397 -1.0410094 8.8476171
0.46401981 -0.11825495 8.1208572
0.86896139 -0.18721707 8.2475367
2.0960178 -0.32722831 8.2051458
3.0840862 -0.46679801 8.5365562
4.0541973 -0.60215479 8.5385475
5.213922 -0.76609945 8.6901274
6.5178275 -0.94960064 8.7965126
8.060257 -1.1671752 8.9073143
8.962429 -1.2675017 8.9747906
0.072206363 -0.044704743 8.3089571
1.2894467 -0.2174502 8.3131952
1.6749353 -0.27156782 8.1811857
2.6165109 -0.40625209 8.5120497
3.5512283 -0.5388214 8.521492
4.6002383 -0.6882115 8.591527
5.8490539 -0.86674654 8.7569304
7.2478619 -1.0663157 8.8476171
0.46388343 -0.11994722 8.1258488
0.86830258 -0.19024917 8.2475367
2.0948629 -0.33454278 8.2051458
3.0841436 -0.47782493 8.5412493
4.0649838 -0.61826736 8.5655546
5.229269 -0.7870121 8.7199888
6.514473 -0.97234631 8.7965126
8.0561342 -1.1953037 8.9073143
8.9579506 -1.2987787 8.9747906
0.072049879 -0.044956516 8.3089571
1.2940395 -0.2228747 8.3477697
1.6739773 -0.2774128 8.1811857
2.6150768 -0.41538292 8.5120497
3.5493259 -0.55121428 8.521492
4.5978079 -0.70426512 8.591527
5.845993 -0.88715822 8.7569304
7.2440958 -1.0916089 8.8476171
0.46346191 -0.12156575 8.1258488
0.86659294 -0.19304585 8.2375927
2.0936823 -0.34185314 8.2051458
3.0841613 -0.48885792 8.5459423
4.0584989 -0.63178319 8.5565519
5.2419553 -0.80764401 8.7455845
6.5110393 -0.99508011 8.7965126
8.0519123 -1.2234174 8.9073143
8.9427795 -1.3284675 8.9642763
0.071892507 -0.045207743 8.3089571
1.2970799 -0.22806437 8.372467
1.6719947 -0.28308421 8.1762905
2.613611 -0.42450872 8.5120497
3.54738 -0.56360036 8.521492
4.5929561 -0.71993935 8.5871382
5.8428607 -0.90755922 8.7569304
7.2402411 -1.116889 8.8476171
0.46303475 -0.1231828 8.1258488
0.865394 -0.19595128 8.2326212
2.0924764 -0.34915939 8.2051458
3.0841396 -0.49989694 8.5506353
4.0562687 -0.64594615 8.5565519
5.2391043 -0.82593685 8.7455845
6.5075259 -1.0178019 8.7965126
8.0475922 -1.2515163 8.9073143
8.9451389 -1.3607483 8.9712858
0.071734264 -0.045458421 8.3089571
1.2955111 -0.23245315 8.367527
1.6709963 -0.28891885 8.1762905
2.612113 -0.43362933 8.5120497
3.5453913 -0.57597959 8.521492
4.590415 -0.73596734 8.5871382
5.8396568 -0.92794901 8.7569304
7.2394643 -1.142655 8.8514547
0.46288037 -0.12487451 8.1308403
0.86366612 -0.19873051 8.2226791
2.092484 -0.35667276 8.2099848
3.0840781 -0.51094162 8.5553274
4.0518403 -0.65975124 8.5520506
5.2336149 -0.84380472 8.7413187
6.5069094 -1.0409874 8.8005028
8.0431747 -1.2796 8.9073143
0.07157515 -0.045708541 8.3089571
1.2946917 -0.23697391 8.367527
1.6699775 -0.29474992 8.1762905
2.6105835 -0.44274464 8.5120497
3.543359 -0.58835179 8.521492
4.6090884 -0.75547338 8.6266394
5.8363824 -0.9483276 8.7569304
7.2354317 -1.1679186 8.8514547
0.46244168 -0.12648951 8.1308403
0.8619293 -0.20150007 8.2127361
2.0912263 -0.36397472 8.2099848
3.0822756 -0.52170396 8.5553274
4.0495124 -0.67389077 8.5520506
5.2280641 -0.86164409 8.7370529
6.5032358 -1.0636944 8.8005028
8.0353127 -1.3071239 8.9036388
0.071415164 -0.045958109 8.3089571
1.2930928 -0.24134898 8.3625879
1.6699407 -0.30075812 8.1811857
2.6090221 -0.45185462 8.5120497
3.5412836 -0.60071683 8.521492
4.6300445 -0.77551454 8.6705303
5.8330364 -0.96869457 8.7569304
7.2344732 -1.1936897 8.8552923
0.46227518 -0.12818106 8.1358318
0.86018378 -0.20425993 8.2027922
2.0899432 -0.37127224 8.2099848
3.0804358 -0.53245991 8.5553274
4.0449896 -0.68765718 8.5475492
5.2198811 -0.87902182 8.7285204
6.5024552 -1.0868852 8.804493
8.0307016 -1.3351644 8.9036388
0.071254298 -0.046207115 8.3089571
1.2930058 -0.2460067 8.367527
1.6688807 -0.30658546 8.1811857
2.607429 -0.46095902 8.5120497
3.5391653 -0.6130746 8.521492
4.6273088 -0.79167169 8.6705303
5.8296194 -0.98904973 8.7569304
7.2302623 -1.2189354 8.8552923
0.46182495 -0.12979393 8.1358318
0.85842943 -0.20701005 8.1928492
2.0886343 -0.37856525 8.2099848
3.0785584 -0.54320937 8.5553274
4.0447092 -0.70214504 8.5520506
5.21421 -0.89679515 8.7242546
6.4986215 -1.1095763 8.804493
8.0293341 -1.3637564 8.9073143
0.071127005 -0.046482369 8.3139572
1.2929021 -0.2506668 8.372467
1.6678003 -0.3124091 8.1811857
2.6072731 -0.470323 8.5168219
3.5389273 -0.62576509 8.5260944
4.6197996 -0.80699486 8.6617527
5.8261313 -1.009393 8.7569304
7.2291222 -1.2447102 8.8591299
0.46164647 -0.13148525 8.1408234
0.85666645 -0.20975044 8.1829071
2.0873001 -0.38585365 8.2099848
3.0749454 -0.55364645 8.5506353
4.0336599 -0.71473992 8.5340462
5.2084794 -0.91453964 8.7199888
6.4976778 -1.1327716 8.8084831
0.070964321 -0.046730362 8.3139572
1.2927815 -0.25532913 8.3774061
1.6666996 -0.3182289 8.1811857
2.6056154 -0.4794212 8.5168219
3.5367215 -0.63811445 8.5260944
4.6169543 -0.82311612 8.6617527
5.8225727 -1.0297238 8.7569304
7.2247334 -1.269937 8.8591299
0.46146178 -0.13317694 8.1458149
0.85489476 -0.21248101 8.1729641
2.0871754 -0.39337021 8.2148237
3.072994 -0.56437665 8.5506353
4.0461359 -0.73152727 8.5655546
5.205255 -0.932715 8.7199888
6.4936843 -1.1554458 8.8084831
0.070800766 -0.046977788 8.3139572
1.2926439 -0.25999364 8.3823442
1.6655787 -0.32404482 8.1811857
2.6039259 -0.48851356 8.5168219
3.5344725 -0.65045601 8.5260944
4.6140532 -0.83922726 8.6617527
5.8189425 -1.0500422 8.7569304
7.2202568 -1.2951483 8.8591299
0.4612709 -0.13486892 8.1508064
0.85363108 -0.21533282 8.1679926
2.0857897 -0.40065345 8.2148237
3.0693092 -0.57478219 8.5459423
4.0478396 -0.74643618 8.5745573
5.2019677 -0.95087904 8.7199888
6.4896111 -1.178106 8.8084831
0.070636354 -0.047224645 8.3139572
1.2924896 -0.26466033 8.3872843
1.6634386 -0.32965869 8.1762905
2.6036711 -0.49788046 8.5215931
3.5321803 -0.6627897 8.5260944
4.6110954 -0.8553282 8.6617527
5.8152418 -1.0703475 8.7569304
7.2093859 -1.3191898 8.8514547
0.46079731 -0.13647825 8.1508064
0.85235798 -0.21817839 8.1630211
2.0843782 -0.40793175 8.2148237
3.0672839 -0.58549261 8.5459423
4.0580459 -0.7629751 8.6015644
5.198617 -0.96903157 8.7199888
6.4854593 -1.2007518 8.8084831
0.070437029 -0.047443636 8.3089571
1.2923186 -0.26932913 8.3922234
1.6622778 -0.33546317 8.1762905
2.6019175 -0.50696594 8.5215931
3.5298452 -0.67511523 8.5260944
4.6080818 -0.87141871 8.6617527
5.81147 -1.0906401 8.7569304
7.21734 -1.3466991 8.8668041
0.46031809 -0.13808589 8.1508064
0.85159117 -0.22115237 8.1630211
2.0829418 -0.41520512 8.2148237
3.0652215 -0.59619582 8.5459423
4.0724621 -0.78041399 8.6375742
5.1952028 -0.98717219 8.7199888
6.4812288 -1.2233829 8.8084831
0.070270985 -0.047689214 8.3089571
1.2921306 -0.27399993 8.3971624
1.6610967 -0.34126353 8.1762905
2.600132 -0.51604527 8.5215931
3.5274673 -0.68743259 8.5260944
4.6050119 -0.88749862 8.6617527
5.8076277 -1.1109192 8.7569304
7.212595 -1.371884 8.8668041
0.45983329 -0.13969186 8.1508064
0.85029876 -0.22398718 8.1580486
2.0814798 -0.4224734 8.2148237
3.0631218 -0.60689181 8.5459423
4.0697131 -0.79462475 8.6375742
5.1917253 -1.0053008 8.7199888
6.4769187 -1.2459991 8.8084831
0.070104092 -0.047934216 8.3089571
1.2919258 -0.2786727 8.4021015
1.6598953 -0.34705976 8.1762905
2.5983148 -0.52511823 8.5215931
3.5250461 -0.6997416 8.5260944
4.6042352 -0.90402907 8.6661415
5.8037148 -1.1311848 8.7569304
0.45934287 -0.14129613 8.1508064
0.84899682 -0.22681567 8.1530771
2.0799923 -0.42973652 8.2148237
3.0609846 -0.61758041 8.5459423
4.0690494 -0.80925059 8.6420755
5.190743 -1.023922 8.7242546
6.4725294 -1.2686002 8.8084831
0.069970109 -0.048206277 8.3139572
1.2917041 -0.2833474 8.4070415
1.6586738 -0.35285178 8.1762905
2.5950038 -0.53388393 8.5168219
3.5244973 -0.71242917 8.5306969
4.6010513 -0.92009532 8.6661415
5.8024912 -1.1519848 8.7610636
0.45884684 -0.14289866 8.1508064
0.84768564 -0.2296378 8.1481056
2.0784795 -0.43699446 8.2148237
3.0588105 -0.62826151 8.5459423
4.0661998 -0.82344925 8.6420755
5.1871371 -1.0420349 8.7242546
6.4680619 -1.2911859 8.8084831
0.069801413 -0.048450228 8.3139572
1.2914654 -0.28802392 8.4119806
1.6584271 -0.35885501 8.1811857
2.5931244 -0.54293895 8.5168219
3.5219889 -0.72472763 8.5306969
4.5978117 -0.93615043 8.6661415
5.7984347 -1.1722322 8.7610636
0.45834523 -0.14449947 8.1508064
0.84636509 -0.23245358 8.1431351
2.0757127 -0.44398403 8.2099848
3.0565987 -0.63893485 8.5459423
4.0633006 -0.8376379 8.6420755
5.1834683 -1.0601349 8.7242546
6.4664683 -1.314356 8.8124733
0.069665425 -0.048721455 8.3189564
1.2912099 -0.29270223 8.4169197
1.6571643 -0.36464182 8.1811857
2.5912135 -0.55198729 8.5168219
3.5194378 -0.73701727 8.5306969
4.5968614 -0.95268017 8.6705303
5.7943072 -1.1924654 8.7610636
0.45811278 -0.14618726 8.1557989
0.84554851 -0.23540652 8.1431351
2.0741501 -0.45122692 8.2099848
3.0543499 -0.64960057 8.5459423
4.0603518 -0.85181636 8.6420755
5.1797361 -1.0782222 8.7242546
6.4588904 -1.3363097 8.8084831
0.069494925 -0.048964337 8.3189564
1.2901803 -0.29720762 8.4169197
1.6568749 -0.3706466 8.18608
2.5892708 -0.56102896 8.5168219
3.5149326 -0.74889064 8.5260944
4.5935078 -0.96872038 8.6705303
5.7901096 -1.212684 8.7610636
0.45787412 -0.14787516 8.1607904
0.84472167 -0.23835661 8.1431351
2.0725625 -0.45846429 8.2099848
3.0520637 -0.66025823 8.5459423
4.057354 -0.8659845 8.6420755
5.175941 -1.0962963 8.7242546
6.4571347 -1.359468 8.8124733
0.069323584 -0.049206622 8.3189564
1.2898914 -0.30188665 8.4218588
1.6565638 -0.37665382 8.1909752
2.5872967 -0.57006383 8.5168219
3.5256624 -0.76405251 8.5583124
4.5900984 -0.98474884 8.6705303
5.785841 -1.2328879 8.7610636
0.45762923 -0.14956318 8.165782
0.84388453 -0.24130379 8.1431351
2.0709496 -0.46569613 8.2099848
3.0497403 -0.67090791 8.5459423
4.054306 -0.88014197 8.6420755
5.1720824 -1.114357 8.7242546
6.4435105 -1.380106 8.8005028
0.069151402 -0.049448308 8.3189564
1.2888297 -0.30638736 8.4218588
1.655239 -0.38243401 8.1909752
2.5867476 -0.57941806 8.5215931
3.5306053 -0.77803683 8.5767221
4.588973 -1.0012759 8.6749191
5.7842526 -1.2536728 8.7651968
0.45710438 -0.1511597 8.165782
0.84303707 -0.24424802 8.1431351
2.0705364 -0.47320235 8.2148237
3.0473797 -0.68154937 8.5459423
4.0512094 -0.89428878 8.6420755
5.1681614 -1.1324041 8.7242546
6.4327655 -1.4013067 8.7925224
0.068978369 -0.049689386 8.3189564
1.2877524 -0.31088436 8.4218588
1.6548852 -0.38844243 8.1958704
2.5847094 -0.58844399 8.5215931
3.5354934 -0.79206485 8.5951319
4.5854502 -1.0172883 8.6749191
5.7798414 -1.273856 8.7651968
0.4568474 -0.15284693 8.1707735
0.8421793 -0.24718928 8.1431351
2.068872 -0.48042703 8.2148237
3.044982 -0.6921826 8.5459423
4.0480628 -0.90842468 8.6420755
5.1641769 -1.1504375 8.7242546
0.068804502 -0.049929861 8.3189564
1.2866594 -0.31537753 8.4218588
1.6535193 -0.39421669 8.1958704
2.5826395 -0.59746271 8.5215931
3.5422316 -0.80657041 8.618145
4.581871 -1.0332884 8.6749191
5.7781053 -1.294639 8.7693291
0.45658422 -0.15453421 8.175766
0.84131134 -0.25012752 8.1431351
2.0671823 -0.48764578 8.2148237
3.0425475 -0.70280737 8.5459423
4.044867 -0.92254955 8.6420755
5.1601295 -1.1684568 8.7242546
8.3092899 -1.8420777 6.2807937
0.068629801 -0.050169732 8.3189564
1.2863046 -0.32005474 8.4267979
1.6521331 -0.39998615 8.1958704
2.5790851 -0.60613257 8.5168219
3.5393946 -0.81893015 8.618145
4.5782361 -1.0492758 8.6749191
5.7762952 -1.3154254 8.7734623
0.45631474 -0.15622149 8.1807566
0.84043312 -0.25306273 8.1431351
2.06669 -0.49515164 8.2196636
3.0400758 -0.71342349 8.5459423
4.0437427 -0.93715465 8.6465769
5.1560197 -1.1864619 8.7242546
8.2949228 -1.869294 6.2749071
0.068454251 -0.050408989 8.3189564
1.2851796 -0.32454285 8.4267979
1.6517155 -0.40599394 8.2007656
2.5769536 -0.61513156 8.5168219
3.5365143 -0.83127993 8.618145
4.5745459 -1.0652504 8.6749191
5.7744098 -1.3362148 8.7775955
0.45603913 -0.1579088 8.1857481
0.83954465 -0.25599483 8.1431351
2.0649488 -0.50236273 8.2196636
3.0392454 -0.72443122 8.5506353
4.0404468 -0.95126426 8.6465769
5.1543865 -1.2050463 8.7285204
8.260767 -1.8919207 6.2543049
0.068277873 -0.050647631 8.3189564
1.2840389 -0.32902697 8.4267979
1.6502882 -0.41175702 8.2007656
2.5747907 -0.62412304 8.5168219
3.5316908 -0.84316593 8.6135426
4.5707994 -1.081212 8.6749191
5.7697101 -1.3563632 8.7775955
0.45575732 -0.15959607 8.1907396
0.83864594 -0.25892383 8.1431351
2.0619626 -0.50926614 8.2148237
3.0366981 -0.73503578 8.5506353
4.0371017 -0.96536225 8.6465769
5.1501484 -1.2230312 8.7285204
8.2541132 -1.9207447 6.2543049
0.068100668 -0.050885655 8.3189564
1.2828826 -0.33350712 8.4267979
1.649828 -0.41776523 8.2056618
2.5740459 -0.63346374 8.5215931
3.5287263 -0.8554886 8.6135426
4.5669975 -1.0971606 8.6749191
5.7539921 -1.3738806 8.7610636
0.45546925 -0.16128331 8.1957321
0.83773702 -0.26184967 8.1431351
2.0601723 -0.51646066 8.2148237
3.0341139 -0.74563134 8.5506353
4.0337076 -0.9794485 8.6465769
5.1458483 -1.2410011 8.7285204
8.2473583 -1.9495453 6.2543049
0.067922629 -0.051123064 8.3189564
1.2817106 -0.33798316 8.4267979
1.6513182 -0.42428237 8.2203474
2.5718191 -0.64244497 8.5215931
3.5257185 -0.86780101 8.6135426
4.5631399 -1.1130956 8.6749191
5.7436914 -1.3926311 8.7527971
0.45517492 -0.16297048 8.2007236
0.83681786 -0.26477236 8.1431351
2.058357 -0.5236488 8.2148237
3.0314927 -0.75621784 8.5506353
4.0323777 -0.99404401 8.6510782
5.1440177 -1.2595762 8.7327871
8.2876663 -1.989645 6.2896228
0.067743763 -0.051359847 8.3189564
1.2805231 -0.34245512 8.4267979
1.6557384 -0.43158597 8.2497187
2.5710077 -0.65178531 8.5263653
3.5226679 -0.88010275 8.6135426
4.5592265 -1.1290171 8.6749191
0.45460328 -0.16455835 8.2007236
0.83588856 -0.26769176 8.1431351
2.0565164 -0.53083062 8.2148237
3.0288346 -0.7667951 8.5506353
4.0288835 -1.0081135 8.6510782
5.1395898 -1.2775245 8.7327871
8.1432247 -1.9850566 6.1866121
0.06756407 -0.051596001 8.3189564
1.2793199 -0.34692287 8.4267979
1.6611122 -0.43918604 8.2839851
2.5687168 -0.66075581 8.5263653
3.5195744 -0.89239383 8.6135426
4.5575809 -1.1455089 8.6793089
0.45429686 -0.16624436 8.2057152
0.83494902 -0.27060792 8.1431351
2.054651 -0.53800601 8.2148237
3.0278106 -0.77779245 8.5553274
4.0253401 -1.0221709 8.6510782
5.1350989 -1.2954572 8.7327871
8.206872 -2.0309479 6.2395887
0.067351297 -0.05180217 8.3139572
1.278101 -0.35138643 8.4267979
1.6694032 -0.44762045 8.3329372
2.5678391 -0.67009538 8.5311375
3.5164378 -0.90467393 8.6135426
4.5535545 -1.1614108 8.6793089
0.45398423 -0.16793026 8.2107067
0.83399934 -0.2735208 8.1431351
2.0527606 -0.54517478 8.2148237
3.0250771 -0.78835672 8.5553274
4.0217476 -1.0362157 8.6510782
5.1305456 -1.3133742 8.7327871
8.297739 -2.0842001 6.313168
0.067170061 -0.052036949 8.3139572
1.2761183 -0.35563689 8.4218588
1.6688131 -0.45371234 8.3378325
2.5654845 -0.67905468 8.5311375
3.5132585 -0.91694319 8.6135426
4.5494728 -1.1772985 8.6793089
0.45339528 -0.16951393 8.2107067
0.83253384 -0.27626181 8.1381636
2.0508451 -0.55233693 8.2148237
3.0223069 -0.79891139 8.5553274
4.018106 -1.0502479 8.6510782
5.1234059 -1.3306196 8.7285204
7.7679076 -1.9684151 6.543798
8.3844147 -2.1371129 6.3838038
0.066988006 -0.052271102 8.3139572
1.2741215 -0.35987779 8.4169197
1.6711454 -0.46061775 8.3574133
2.5645399 -0.68839288 8.5359097
3.5100365 -0.92920107 8.6135426
4.5453353 -1.1931721 8.6793089
0.45307046 -0.17119853 8.2156992
0.83156437 -0.27916622 8.1381636
2.0489047 -0.55949235 8.2148237
3.0194998 -0.80945641 8.5553274
4.0144153 -1.0642673 8.6510782
5.1187301 -1.3484955 8.7285204
7.779839 -2.0003648 6.5594907
8.3808174 -2.1673789 6.3867469
0.066805139 -0.052504618 8.3139572
1.2713636 -0.36389503 8.4070415
1.6705079 -0.46672249 8.3623085
2.5621216 -0.69734061 8.5359097
3.5067713 -0.94144773 8.6135426
4.5411425 -1.209031 8.6793089
0.45273942 -0.1728829 8.2206898
0.83058482 -0.28206721 8.1381636
2.0469391 -0.56664091 8.2148237
3.0166557 -0.81999147 8.5553274
4.0106759 -1.0782738 8.6510782
5.1114717 -1.3656816 8.7242546
7.769042 -2.0265269 6.5563521
8.4201174 -2.2089288 6.4220653
0.066621453 -0.052737486 8.3139572
1.2693394 -0.36811405 8.4021015
1.6708279 -0.47310597 8.3720989
2.5596719 -0.70627987 8.5359097
3.5034637 -0.9536829 8.6135426
4.539207 -1.2254995 8.6836977
0.45240217 -0.17456707 8.2256813
0.82909119 -0.28479096 8.1331921
2.0449486 -0.57378268 8.2148237
3.0137751 -0.83051652 8.5553274
4.0068874 -1.092267 8.6510782
5.1041565 -1.3828337 8.7199888
7.8146009 -2.0675719 6.6002903
8.3420448 -2.2195988 6.3690882
0.066436969 -0.052969716 8.3139572
1.2673013 -0.37232339 8.3971624
1.6711236 -0.47949737 8.3818903
2.5571909 -0.71521044 8.5359097
3.5019968 -0.96642631 8.618145
4.5349016 -1.2413368 8.6836977
0.4520587 -0.17625101 8.2306728
0.82809204 -0.28768331 8.1331921
2.0441422 -0.58126134 8.2196636
3.0108578 -0.84103149 8.5553274
4.0030503 -1.1062471 8.6510782
5.091753 -1.3985695 8.7071905
7.8073363 -2.0948374 6.6002903
8.3264427 -2.2465987 6.3632016
0.066251658 -0.053201307 8.3139572
1.26376 -0.37607926 8.3823442
1.6704174 -0.48561221 8.3867855
2.5546787 -0.72413236 8.5359097
3.4986019 -0.97864461 8.618145
4.5305409 -1.257159 8.6836977
0.45170894 -0.17793465 8.2356653
0.82708281 -0.29057211 8.1331921
2.0421009 -0.58839315 8.2196636
3.0079036 -0.85153627 8.5553274
3.9991646 -1.1202135 8.6510782
7.7999763 -2.1220772 6.6002903
8.2522707 -2.2575178 6.313168
0.06606555 -0.053432241 8.3139572
1.2609519 -0.38003945 8.372467
1.6696886 -0.49172789 8.3916798
2.5521355 -0.73304546 8.5359097
3.4951644 -0.9908511 8.618145
4.526125 -1.2729659 8.6836977
0.45054933 -0.17929497 8.2256813
0.82606345 -0.29345739 8.1331921
2.0400345 -0.59551781 8.2196636
3.0049129 -0.86203063 8.5553274
3.99523 -1.1341664 8.6510782
7.7700086 -2.1430817 6.58146
8.3066597 -2.3035927 6.3602586
0.06587863 -0.053662527 8.3139572
1.2521867 -0.38216823 8.3230743
1.6689377 -0.4978444 8.396575
2.5481279 -0.74153239 8.5311375
3.4916844 -1.0030454 8.618145
4.5216537 -1.2887573 8.6836977
0.44965324 -0.18075795 8.2206898
0.8255356 -0.29651996 8.1381636
2.0391486 -0.60299176 8.2245026
3.0018854 -0.87251449 8.5553274
3.9912465 -1.1481055 8.6510782
7.7362399 -2.1628547 6.5594907
8.3024597 -2.333668 6.3632016
0.065690912 -0.053892162 8.3139572
1.245649 -0.38492939 8.2884989
1.6681644 -0.50396168 8.4014702
2.5455239 -0.75042248 8.5311375
3.488162 -1.0152276 8.618145
4.5171275 -1.3045329 8.6836977
0.44821826 -0.18199784 8.2057152
0.82449549 -0.29939979 8.1381636
2.0370314 -0.61010611 8.2245026
2.9988217 -0.88298768 8.5553274
3.9893045 -1.1626396 8.6555796
7.7323875 -2.190907 6.5626287
8.3175869 -2.3692787 6.3808603
0.065502398 -0.054121137 8.3139572
1.2376244 -0.38718516 8.2440462
1.6673687 -0.51007962 8.4063654
2.5428889 -0.75930345 8.5311375
3.4845967 -1.0273974 8.618145
4.5102477 -1.3196201 8.6793089
0.44758028 -0.1835613 8.2057152
0.82344544 -0.30227602 8.1381636
2.0348895 -0.61721295 8.2245026
2.9957211 -0.89345014 8.5553274
3.9852219 -1.1765578 8.6555796
7.754622 -2.2264781 6.5877361
8.3014994 -2.3960562 6.3749747
0.065313078 -0.054349452 8.3139572
1.2325618 -0.39032879 8.2193489
1.665578 -0.51589674 8.4063654
2.5402229 -0.76817513 8.5311375
3.4809892 -1.0395546 8.618145
4.5056143 -1.3353556 8.6793089
0.44800207 -0.18556815 8.2256813
0.82238525 -0.30514851 8.1381636
2.0327225 -0.62431222 8.2245026
2.992584 -0.90390176 8.5553274
3.9810905 -1.1904616 8.6555796
7.8140759 -2.2731035 6.6442285
8.285326 -2.4227505 6.3690882
0.065091953 -0.054546408 8.3089571
1.2297122 -0.39415413 8.2094707
1.6647387 -0.52201241 8.4112606
2.5375259 -0.7770375 8.5311375
3.4792092 -1.0522647 8.6227474
4.5032191 -1.3517638 8.6836977
0.44788349 -0.18735552 8.2356653
0.82181394 -0.30820513 8.1431351
2.0305309 -0.63140398 8.2245026
2.9894106 -0.91434234 8.5553274
3.9769108 -1.2043511 8.6555796
7.8172941 -2.3036666 6.6536441
8.2768183 -2.4516568 6.3690882
0.064901158 -0.05477329 8.3089571
1.2268509 -0.39796427 8.1995926
1.6609654 -0.5272038 8.4014702
2.5362239 -0.78633255 8.5359097
3.4755149 -1.0644031 8.6227474
4.4984736 -1.3674747 8.6836977
0.44775787 -0.18914431 8.2456484
0.82073307 -0.31107193 8.1431351
2.0283144 -0.63848805 8.2245026
2.9862008 -0.92477173 8.5553274
3.9706016 -1.2175875 8.6510782
7.8092051 -2.33094 6.6536441
0.064678773 -0.054968592 8.303957
1.2239779 -0.40175924 8.1897135
1.659115 -0.53299838 8.4014702
2.5334637 -0.7951808 8.5359097
3.4717782 -1.0765283 8.6227474
4.4959612 -1.3838735 8.6880875
0.44762519 -0.19093449 8.2556324
0.81964225 -0.31393492 8.1431351
2.0260735 -0.64556432 8.2245026
2.9846013 -0.9357062 8.5600204
3.9663272 -1.2314401 8.6510782
8.5340891 -2.5928063 6.5780525
0.064517185 -0.055225048 8.3089571
1.2218307 -0.40578413 8.1847744
1.6514348 -0.53689665 8.3720989
2.532095 -0.80447143 8.5406809
3.4679992 -1.0886406 8.6227474
4.4796705 -1.3959957 8.6661415
0.44722068 -0.19261093 8.260623
0.81854141 -0.3167941 8.1431351
2.0238075 -0.65263265 8.2245026
2.9813168 -0.94611871 8.5600204
3.9620044 -1.2452776 8.6510782
7.4801078 -2.2897 6.3900137
8.5790739 -2.639219 6.619257
0.064324021 -0.055449914 8.3089571
1.2196703 -0.40979895 8.1798353
1.6437478 -0.54074788 8.3427277
2.5292714 -0.81330526 8.5406809
3.4623163 -1.100148 8.618145
4.4747701 -1.4116242 8.6661415
0.44680998 -0.19428691 8.2656145
0.81743062 -0.3196494 8.1431351
2.021517 -0.65969306 8.2245026
2.9796391 -0.95704746 8.5647125
3.9576335 -1.2591 8.6510782
7.4051485 -2.2950554 6.3335214
8.5813856 -2.6727557 6.6280861
0.064160541 -0.055705346 8.3139572
1.2174968 -0.41380358 8.1748953
1.6370199 -0.5448736 8.3182516
2.526417 -0.82212907 8.5406809
3.4584551 -1.112227 8.618145
0.44612908 -0.19584538 8.2656145
0.81630981 -0.32250085 8.1431351
2.019202 -0.66674548 8.2245026
2.9762802 -0.96744251 8.5647125
3.9552863 -1.2735742 8.6555796
7.3933783 -2.319725 6.3303828
8.5373096 -2.6917548 6.6015978
0.063965708 -0.055928968 8.3139572
1.2153103 -0.41779816 8.1699572
1.6302835 -0.54895908 8.2937756
2.5235317 -0.83094287 8.5406809
3.4545517 -1.1242924 8.618145
8.6557627 -2.7972791 16.737658
0.44544274 -0.19740146 8.2656145
0.81517911 -0.32534832 8.1431351
2.0180547 -0.6741882 8.2293425
2.9728851 -0.97782582 8.5647125
3.9508164 -1.2873729 8.6555796
7.4074941 -2.3525879 6.3492141
8.4585495 -2.699419 6.5486212
0.063800327 -0.056183349 8.3189564
1.2138445 -0.42203784 8.1699572
1.6225747 -0.55267566 8.2644043
2.5192001 -0.83927476 8.5359097
3.4506059 -1.1363442 8.618145
8.4114819 -2.7507966 16.285583
0.44422475 -0.19871755 8.2556324
0.81403852 -0.32819185 8.1431351
2.0156891 -0.68122846 8.2293425
2.9694536 -0.98819715 8.5647125
3.9462986 -1.301156 8.6555796
7.4437037 -2.3927243 6.3868752
8.2567587 -2.6668119 6.401463
0.063603826 -0.056405712 8.3189564
1.2116311 -0.42601439 8.1650181
1.6158224 -0.55667692 8.2399282
2.5162549 -0.84806329 8.5359097
3.4484718 -1.1489997 8.6227474
8.2972374 -2.7455306 16.083685
0.443003 -0.20002754 8.2456484
0.81288797 -0.33103138 8.1431351
2.0132987 -0.68826038 8.2293425
2.965986 -0.99855649 8.5647125
3.9417326 -1.3149234 8.6555796
7.4871254 -2.43555 6.4308133
8.0091953 -2.6177597 6.218987
0.063376524 -0.056595739 8.3139572
1.2101365 -0.43024117 8.1650181
1.6157923 -0.56298423 8.2497187
2.5132794 -0.85684144 8.5359097
3.4444399 -1.1610301 8.6227474
8.1808605 -2.7387407 15.877398
0.4417775 -0.20133142 8.2356653
0.8122201 -0.33407021 8.1481056
2.010884 -0.69528389 8.2293425
2.9608488 -1.0083472 8.5600204
3.9371188 -1.3286744 8.6555796
7.4896698 -2.4653213 6.4402289
7.9501204 -2.6292021 6.1807261
0.063178584 -0.056816619 8.3139572
1.2086275 -0.43446273 8.1650181
1.6138173 -0.56862092 8.2497187
2.5102732 -0.86560929 8.5359097
3.4422154 -1.173677 8.6273499
8.1462975 -2.7588296 15.829119
0.44081017 -0.20275073 8.2306728
0.81104904 -0.33690336 8.1481056
2.0084448 -0.70229894 8.2293425
2.9573112 -1.0186763 8.5600204
3.930397 -1.3417063 8.6510782
7.4920974 -2.4951398 6.4496446
7.9293952 -2.6530895 6.1718965
0.06297987 -0.05703681 8.3139572
1.2071035 -0.43867898 8.1650181
1.6127818 -0.57459265 8.2546139
2.5072362 -0.87436652 8.5359097
3.4380975 -1.1856855 8.6273499
8.234045 -2.8206244 16.017849
0.43957683 -0.20404327 8.2206898
0.8098681 -0.33973241 8.1481056
2.0059812 -0.70930547 8.2293425
2.9537373 -1.0289931 8.5600204
3.9256897 -1.3554177 8.6510782
7.3948159 -2.4914503 6.3743219
8.0694017 -2.731293 6.2866793
0.06275069 -0.057224326 8.3089571
1.2048355 -0.44262165 8.160078
1.6107662 -0.58021885 8.2546139
2.504169 -0.88311303 8.5359097
3.4339378 -1.1976794 8.6273499
8.2241497 -2.8493493 16.017849
0.43833998 -0.20532972 8.2107067
0.80867726 -0.34255728 8.1481056
2.0034931 -0.71630335 8.2293425
2.9501274 -1.0392973 8.5600204
3.9168236 -1.3676772 8.6420755
7.4376535 -2.5348268 6.4182601
8.0980597 -2.7725368 6.3161111
0.06255056 -0.057443019 8.3089571
1.2032831 -0.44682464 8.160078
1.608731 -0.5858379 8.2546139
2.501071 -0.8918488 8.5359097
3.4297361 -1.2096587 8.6273499
8.2570972 -2.8930871 16.10124
0.43735999 -0.20673427 8.2057152
0.80747658 -0.34537801 8.1481056
2.0009804 -0.72329247 8.2293425
2.9464817 -1.0495888 8.5600204
3.9161313 -1.3827909 8.6510782
7.3036461 -2.5176446 6.3115525
8.1379862 -2.8179815 6.3543725
0.062320191 -0.05762884 8.303957
1.2017161 -0.45102215 8.160078
1.6066763 -0.59144986 8.2546139
2.4979427 -0.90057379 8.5359097
3.4273326 -1.2222797 8.6319523
8.2582359 -2.9258916 16.123188
0.43611544 -0.20800929 8.1957321
0.80577707 -0.34798262 8.1431351
1.9984435 -0.73027283 8.2293425
2.9428 -1.0598675 8.5600204
3.9051301 -1.3942561 8.6375742
7.1036944 -2.4764946 6.1483526
8.2349148 -2.8837771 6.4367809
0.062118653 -0.057846028 8.303957
1.2001344 -0.45521417 8.160078
1.6026934 -0.59634405 8.2448235
2.4947839 -0.90928769 8.5359097
3.4230454 -1.2342359 8.6319523
8.2366991 -2.9506614 16.10124
0.43460757 -0.20915203 8.1807566
0.8045575 -0.35079318 8.1431351
1.9958822 -0.73724425 8.2293425
2.9390824 -1.0701333 8.5600204
3.9125252 -1.4123144 8.6645813
7.006906 -2.4702163 6.0730295
8.281951 -2.9327433 6.4809279
0.061916355 -0.058062509 8.303957
1.1985381 -0.45940065 8.160078
1.5996491 -0.60157627 8.2399282
2.4915948 -0.91799062 8.5359097
3.4205515 -1.2468462 8.6365547
8.2308521 -2.9810262 16.11002
0.4333564 -0.21041383 8.1707735
0.80332804 -0.35359946 8.1431351
1.9932966 -0.74420667 8.2293425
2.935329 -1.0803862 8.5600204
7.0312381 -2.5064225 6.1012759
8.2069712 -2.9384718 6.4308944
0.061684165 -0.0582458 8.2989578
1.1969272 -0.46358156 8.160078
1.595636 -0.60643262 8.2301369
2.4897738 -0.92720324 8.5406809
3.4161787 -1.2587786 8.6365547
8.202405 -3.0031514 16.074907
0.43210164 -0.21166942 8.1607904
0.80208886 -0.35640144 8.1431351
1.9906867 -0.75116003 8.2293425
2.93154 -1.0906259 8.5600204
4.1149783 -1.5179558 9.1327076
7.5167809 -2.7091174 6.5249677
9.2638254 -3.3333123 6.5394568
0.06148047 -0.058460765 8.2989578
1.1960253 -0.4680402 8.1650181
1.5916086 -0.6112684 8.2203474
2.486522 -0.93588853 8.5406809
3.4099331 -1.2700136 8.6319523
8.2233181 -3.0434031 16.136354
0.43084341 -0.21291882 8.1508064
0.8008399 -0.35919908 8.1431351
1.9880525 -0.75810421 8.2293425
2.9293303 -1.1014596 8.5647125
4.1116943 -1.5330713 9.1372089
7.5072784 -2.7353392 6.5249677
9.2482033 -3.3641992 6.5367155
10.027898 -3.6399217 4.3984995
7.6700253 -2.8067813 6.0306249
0.06127603 -0.058675013 8.2989578
1.1943842 -0.47221226 8.1650181
1.5875669 -0.61608326 8.210557
2.4832401 -0.94456249 8.5406809
3.4054792 -1.2819088 8.6319523
8.2126446 -3.0720894 16.136354
0.42958173 -0.21416201 8.1408234
0.79958123 -0.36199236 8.1431351
1.985394 -0.76503921 8.2293425
2.9254675 -1.1116781 8.5647125
4.1103921 -1.5489496 9.1462107
7.406374 -2.7278957 6.446506
9.2285547 -3.3935745 6.5312324
10.028189 -3.6796947 4.4041185
7.7208366 -2.8559747 6.0777154
9.4495611 -3.486094 4.7435541
0.061070845 -0.058888547 8.2989578
1.1927286 -0.47637856 8.1650181
1.5844587 -0.62124926 8.2056618
2.4799278 -0.95322478 8.5406809
3.3991578 -1.2930937 8.6273499
8.2130709 -3.1049726 16.158298
0.42831668 -0.215399 8.1308403
0.79879725 -0.36500335 8.1481056
1.9827114 -0.77196485 8.2293425
2.9215693 -1.1218832 8.5647125
4.10496 -1.5632882 9.1462107
7.2034769 -2.6817567 6.2801676
9.3028803 -3.4578183 6.5915446
10.09352 -3.7436955 4.4378328
7.9266243 -2.963594 6.2454753
9.3990622 -3.5047865 4.7246718
0.06086491 -0.059101366 8.2989578
1.1910585 -0.48053905 8.1650181
1.5813339 -0.62640113 8.2007656
2.4765851 -0.96187556 8.5406809
3.3946233 -1.304951 8.6273499
8.3118095 -3.1755071 16.373365
0.42704818 -0.21662976 8.1208572
0.79751825 -0.36778945 8.1481056
1.9800048 -0.77888113 8.2293425
2.9176354 -1.1320745 8.5647125
4.1015096 -1.5783895 9.150712
7.0264969 -2.643831 6.1357989
9.3181534 -3.5005634 6.6107345
10.076051 -3.7772787 4.4359603
7.8443909 -2.9640985 6.1895552
9.4589691 -3.5647831 4.7603388
0.060658239 -0.059313465 8.2989578
1.1893739 -0.48469368 8.1650181
1.5791377 -0.63191718 8.2007656
2.4732125 -0.9705146 8.5406809
3.3900476 -1.3167925 8.6273499
8.3565311 -3.2260659 16.483091
0.42603284 -0.21798672 8.1158657
0.7962296 -0.37057105 8.1481056
1.9772738 -0.78578788 8.2293425
2.913666 -1.142252 8.5647125
4.0980039 -1.593486 9.1552134
6.9881201 -2.6572745 6.1106915
8.7976856 -3.3401263 6.2543445
7.7320418 -2.9525301 6.1100898
0.060450826 -0.059524842 8.2989578
1.1876746 -0.48884243 8.1650181
1.5769222 -0.63742554 8.2007656
2.4698098 -0.97914183 8.5406809
3.3854303 -1.3286179 8.6273499
8.4054623 -3.2787161 16.601597
0.42501327 -0.21933921 8.1108732
0.79493123 -0.37334815 8.1481056
1.974519 -0.79268509 8.2293425
2.9096611 -1.1524156 8.5647125
4.0944428 -1.6085769 9.1597147
6.9969683 -2.688632 6.1263833
8.6688547 -3.3258815 6.1721005
7.5067415 -2.8965607 5.9423299
0.060214348 -0.059702307 8.2939577
1.185961 -0.49298519 8.1650181
1.5746876 -0.64292616 8.2007656
2.466377 -0.98775709 8.5406809
3.3807721 -1.3404273 8.6273499
8.3939657 -3.3080366 16.601597
0.42398944 -0.22068724 8.1058817
0.79362309 -0.37612069 8.1481056
1.9717399 -0.79957259 8.2293425
2.9056206 -1.1625652 8.5647125
4.0888028 -1.6228595 9.1597147
6.9693985 -2.7059956 6.1106915
8.731267 -3.3848381 6.2241879
7.5304785 -2.935961 5.9688182
9.4042006 -3.6570604 4.7519464
0.059977364 -0.059878845 8.2889576
1.1842331 -0.49712196 8.1650181
1.5724338 -0.64841896 8.2007656
2.462914 -0.9963603 8.5406809
3.3760724 -1.3522201 8.6273499
8.3423157 -3.3213699 16.522594
0.42321652 -0.22216591 8.1058817
0.79230535 -0.37888867 8.1481056
1.9677737 -0.80597371 8.2245026
2.9031446 -1.1733475 8.5694056
4.0831132 -1.637122 9.1597147
6.9961452 -2.7445216 6.142076
8.7193985 -3.4152951 6.2241879
7.460012 -2.9385271 5.9217277
0.05976798 -0.060087837 8.2889576
1.1824906 -0.50125271 8.1650181
1.5701609 -0.65390384 8.2007656
2.4594212 -1.0049515 8.5406809
3.3713317 -1.3639966 8.6273499
8.2595673 -3.3218718 16.382143
0.4226931 -0.22377783 8.1108732
0.79145777 -0.38188428 8.1530771
1.9649483 -0.8128376 8.2245026
2.8990312 -1.1834742 8.5694056
4.073338 -1.6497303 9.150712
7.01547 -2.7803988 6.1671839
8.6802073 -3.4349406 6.204998
9.8964853 -3.9082813 4.3872614
7.2694426 -2.8928127 5.7804561
9.6273232 -3.8214154 4.8757315
0.059529889 -0.060262624 8.2839575
1.1814479 -0.5056833 8.1699572
1.5688072 -0.65977561 8.2056618
2.455898 -1.0135303 8.5406809
3.36655 -1.3757565 8.6273499
8.2745476 -3.3615 16.434813
0.42190939 -0.22525194 8.1108732
0.79011995 -0.38464466 8.1530771
1.962099 -0.81969166 8.2245026
2.8964777 -1.1942443 8.5740986
7.0057225 -2.8048706 6.1671839
8.6409864 -3.4543543 6.1858077
9.8827829 -3.9428024 4.3872614
7.221797 -2.9030941 5.7510242
9.6939621 -3.8870912 4.9155946
0.059319172 -0.06047006 8.2839575
1.1796755 -0.50980425 8.1699572
1.5664947 -0.6652478 8.2056618
2.453723 -1.0226712 8.5454531
3.3617272 -1.3874995 8.6273499
8.262763 -3.3903632 16.434813
0.42112055 -0.22672331 8.1108732
0.78877246 -0.38740036 8.1530771
1.9603839 -0.8270244 8.2293425
2.8922915 -1.2043476 8.5740986
7.0716639 -2.8599539 6.2330909
9.0825119 -3.6676846 6.5065594
9.8302603 -3.9616799 4.3704042
12.001839 -4.8319898 3.8928981
7.2415795 -2.9404504 5.7745695
9.6761284 -3.9192021 4.9134965
0.059135474 -0.060710423 8.2889576
1.1778888 -0.51391894 8.1699572
1.564163 -0.67071176 8.2056618
2.4501383 -1.0312301 8.5454531
3.3568633 -1.3992257 8.6273499
8.2265415 -3.4090989 16.386532
0.42057979 -0.22833055 8.1158657
0.78789276 -0.39038861 8.1580486
1.9574852 -0.83386236 8.2293425
2.8880699 -1.2144363 8.5740986
7.1697354 -2.9287791 6.3272443
9.0696535 -3.6993659 6.5065594
7.6152182 -3.1030264 4.391006
9.7605524 -3.9732471 4.3460546
11.820482 -4.8069921 3.8407271
7.1863956 -2.9473057 5.7392521
9.6203833 -3.9357691 4.8925157
0.058923196 -0.060916476 8.2889576
1.1753767 -0.51771396 8.1650181
1.5618123 -0.67616767 8.2056618
2.4465237 -1.0397763 8.5454531
3.3573606 -1.413209 8.6411572
8.2300558 -3.4442666 16.417255
0.41978022 -0.22979727 8.1158657
0.78652519 -0.39313647 8.1580486
1.9545625 -0.8406902 8.2293425
2.8822246 -1.2238356 8.5694056
7.1594687 -2.9537885 6.3272443
8.8749733 -3.6561434 6.3777103
7.6166296 -3.1346474 4.3979626
9.7680616 -4.016108 4.3554196
11.568452 -4.751626 3.7659953
7.1573915 -2.9646385 5.7245359
9.5101109 -3.9294639 4.8442607
0.058710199 -0.061121784 8.2889576
1.1735623 -0.52181363 8.1650181
1.5594424 -0.68161529 8.2056618
2.4428792 -1.0483099 8.5454531
3.3542051 -1.4256839 8.6457605
8.262105 -3.4916205 16.505037
0.41922775 -0.23140156 8.1208572
0.78514814 -0.39587957 8.1580486
1.951616 -0.84750777 8.2293425
2.8779352 -1.233889 8.5694056
6.9384661 -2.9522104 15.654966
8.7424774 -3.6373074 6.2927246
7.6220031 -3.168016 4.407238
11.472038 -4.7588935 3.7406147
7.102253 -2.9708867 5.689218
9.3539286 -3.9032116 4.7729268
0.058469094 -0.061292388 8.2839575
1.1717337 -0.52590698 8.1650181
1.5570537 -0.68705463 8.2056618
2.4392052 -1.0568309 8.5454531
8.2476635 -3.5194995 16.500648
0.41841748 -0.23286355 8.1208572
0.7837615 -0.39861783 8.1580486
1.9486458 -0.85431504 8.2293425
2.8736105 -1.2439274 8.5694056
6.9681225 -2.9935989 15.744991
6.887538 -2.8980279 6.107553
11.459782 -4.8007627 3.7420247
7.0918398 -2.9956601 5.689218
7.5080557 -3.1683969 4.8743782
9.369523 -3.9481761 4.7876134
0.058254786 -0.061496109 8.2839575
1.1698909 -0.52999389 8.1650181
1.5546459 -0.69248557 8.2056618
2.4355013 -1.0653389 8.5454531
3.6578703 -1.5850109 9.4512024
0.41760209 -0.23432268 8.1208572
0.78236526 -0.40135124 8.1580486
1.9456519 -0.86111188 8.2293425
2.869251 -1.2539505 8.5694056
6.9476433 -3.013572 15.722484
6.8236446 -2.8992209 6.0604763
9.6792002 -4.1065383 6.9780912
8.105442 -3.4355123 4.6947689
9.8578081 -4.1742144 4.4134836
11.752214 -4.9715629 3.8407271
7.0255699 -2.9966092 5.6450706
7.5088482 -3.1996555 4.881978
9.4308548 -4.0128431 4.8253784
0.058012616 -0.061664935 8.2789574
1.1680337 -0.53407431 8.1650181
1.5512906 -0.69749033 8.2007656
2.4317677 -1.0738338 8.5454531
3.6505253 -1.5969864 9.446599
0.4167816 -0.23577894 8.1208572
0.78095955 -0.40407977 8.1580486
1.9426342 -0.86789823 8.2293425
2.8664351 -1.2646551 8.5740986
6.9410701 -3.039552 15.731486
6.8099055 -2.9214873 6.0573378
9.6109953 -4.1172476 6.9397106
8.093401 -3.4637845 4.6947689
9.8602285 -4.2158895 4.4209762
11.743611 -5.016324 3.8435473
7.0893145 -3.0530908 5.7039337
7.4817934 -3.2190316 4.8718452
9.41679 -4.0457387 4.8253784
9.9263439 -4.2564702 2.6956422
0.057797011 -0.061867058 8.2789574
1.1668677 -0.53847408 8.1699572
1.554409 -0.70542675 8.2301369
2.4280045 -1.0823157 8.5454531
3.6467156 -1.6105088 9.4512024
0.41595602 -0.23723236 8.1208572
0.77954423 -0.40680337 8.1580486
1.9395928 -0.87467396 8.2293425
2.8620031 -1.2746532 8.5740986
6.9383821 -3.0672832 15.749492
7.9145384 -3.4199712 4.5996985
9.8156567 -4.2374201 4.4078646
11.712815 -5.0515876 3.8393171
7.1490426 -3.1084416 5.7598538
7.525866 -3.2691743 4.90731
9.398447 -4.0767784 4.8232803
9.8935833 -4.2833691 2.6909533
0.057580702 -0.062068429 8.2789574
1.164981 -0.54254395 8.1699572
1.5547143 -0.71212095 8.2448235
2.4255729 -1.091397 8.5502253
3.6517775 -1.6280017 9.478817
0.4151254 -0.23868287 8.1208572
0.77764803 -0.40927315 8.1530771
1.9365278 -0.88143915 8.2293425
2.8575366 -1.2846357 8.5740986
6.8719707 -3.0666432 15.623459
7.2279897 -3.1607797 6.4433675
8.3979301 -3.6671751 6.092598
7.6548781 -3.3395257 4.4582515
9.800806 -4.271657 4.4078646
7.0678277 -3.1025088 5.7039337
7.5183563 -3.2971559 4.909843
9.4049463 -4.1186643 4.8337708
9.8785715 -4.3178778 2.6909533
0.057390489 -0.062303476 8.2839575
1.163783 -0.54693776 8.1748953
1.5559158 -0.7192533 8.2644043
2.4217486 -1.0998572 8.5502253
0.41428971 -0.24013047 8.1208572
0.77621466 -0.41198513 8.1530771
1.9334391 -0.88819349 8.2293425
2.853035 -1.2946024 8.5740986
6.726254 -3.0298128 15.317376
7.2453985 -3.1985667 6.4684753
8.3429909 -3.677913 6.0624418
7.89047 -3.4751413 4.5996985
9.7646189 -4.2965069 4.3984995
11.211766 -4.9286051 3.6898537
6.9941325 -3.0993223 5.6539001
7.5186262 -3.3286147 4.9174423
9.3323984 -4.1257758 4.8043976
9.9612713 -4.395504 2.7167442
0.057172664 -0.062503427 8.2839575
1.1618667 -0.55099678 8.1748953
1.5580088 -0.72683322 8.2888803
2.4178946 -1.108304 8.5502253
0.41344899 -0.24157515 8.1208572
0.77430218 -0.41443998 8.1481056
1.9303269 -0.89493704 8.2293425
2.8484983 -1.3045535 8.5740986
6.6581674 -3.027143 15.18684
7.3728437 -3.2856293 6.5908747
8.490551 -3.7784162 6.1775832
8.2142563 -3.6520336 4.7921586
9.7156687 -4.3155103 4.3835154
11.198878 -4.9696569 3.6912637
7.0090985 -3.1352706 5.6745019
7.4794121 -3.3425276 4.8997102
9.264061 -4.1342826 4.777123
9.9458675 -4.4302487 2.7167442
0.056954134 -0.062702619 8.2839575
1.1599363 -0.55504912 8.1748953
1.5536199 -0.73139954 8.2790899
2.414011 -1.1167372 8.5502253
6.0000391 -2.7506666 15.609379
0.41285142 -0.24316427 8.1258488
0.77285087 -0.41714028 8.1481056
1.9271914 -0.90166968 8.2293425
2.8439271 -1.3144886 8.5740986
6.5980959 -3.0276675 15.074309
7.3577805 -3.3097486 6.5877361
8.6985369 -3.9074075 6.3365879
8.3590755 -3.751421 4.8825917
9.6032515 -4.3057752 4.3404355
11.531695 -5.1656046 3.8040662
7.0349517 -3.1763513 5.7039337
9.6095839 -4.3287678 4.9596534
9.9436426 -4.4709191 2.7202611
0.056708481 -0.06286633 8.2789574
1.1572924 -0.55875671 8.1699572
1.5501375 -0.73638111 8.2741947
2.4100983 -1.1251569 8.5502253
6.056004 -2.8019483 15.779672
0.41200012 -0.2446039 8.1258488
0.77139002 -0.41983548 8.1481056
1.9240322 -0.90839136 8.2293425
2.8393216 -1.3244078 8.5740986
6.5815611 -3.0479362 15.060806
9.0721598 -4.1190767 8.1161652
8.8752584 -4.0240827 6.4736614
8.4992628 -3.8500352 4.970706
9.7402086 -4.4080815 4.4078646
11.513594 -5.2058263 3.8040662
7.1488748 -3.257879 5.8040013
9.7885971 -4.4505744 5.0582623
10.153708 -4.6080461 2.7800493
0.056488689 -0.063063897 8.2789574
1.1553348 -0.56279302 8.1699572
1.5466397 -0.74134737 8.2692986
2.4061561 -1.1335629 8.5502253
5.9169631 -2.7627304 15.443688
0.41114378 -0.24604057 8.1258488
0.76991987 -0.42252558 8.1481056
1.9208497 -0.91510189 8.2293425
2.8346813 -1.3343109 8.5740986
6.5511594 -3.0616739 15.015794
8.9869576 -4.118289 8.0533953
8.8459482 -4.048079 6.4626956
8.4293709 -3.853893 4.9382429
9.7247629 -4.4420543 4.4078646
11.298967 -5.1563625 3.7406147
9.6051769 -4.3793421 2.0956728
7.1925426 -3.3081489 5.8481488
8.6426096 -3.9714594 5.6748629
9.6286278 -4.4184642 4.9848304
11.246968 -5.1563635 4.3953333
10.19059 -4.6677513 2.794117
0.056242015 -0.063225798 8.2739582
1.1533633 -0.56682247 8.1699572
1.5422095 -0.74585468 8.2595091
2.4021845 -1.141955 8.5502253
5.9815097 -2.8183434 15.636995
0.41028243 -0.24747422 8.1258488
0.76844025 -0.42521054 8.1481056
1.9176437 -0.92180139 8.2293425
2.8315651 -1.3449382 8.5787916
6.52665 -3.0780227 14.984285
9.0467167 -4.1839457 8.1193037
8.8317642 -4.0789323 6.4626956
8.4319563 -3.8907175 4.9475183
9.667098 -4.4565644 4.3891344
9.5942945 -4.414897 2.0966055
7.2432775 -3.3621664 5.8981824
8.6286945 -4.0016036 5.6748629
9.7614059 -4.52071 5.0603604
11.181757 -5.1737781 4.3772545
10.174234 -4.7032943 2.794117
0.055994913 -0.063386753 8.268959
1.1506816 -0.57049966 8.1650181
1.5395966 -0.75123346 8.2595091
2.3995295 -1.150979 8.5549974
6.0210376 -2.8626952 15.765865
0.40941608 -0.24890487 8.1258488
0.76695132 -0.4278903 8.1481056
1.9155451 -0.92903823 8.2341814
2.8268533 -1.3548139 8.5787916
6.5021062 -3.094238 14.952777
7.300271 -3.4072182 6.5783215
8.4384756 -3.9330873 6.188549
8.2978506 -3.8640263 4.877954
9.5758238 -4.4550819 4.3554196
7.3449669 -3.4405825 5.9894204
8.6459084 -4.0463171 5.6951284
9.5728779 -4.4740467 4.9722419
11.176466 -5.2187719 4.3821855
10.109303 -4.716176 2.7812216
0.05574736 -0.06354674 8.2639589
1.1486833 -0.57451278 8.1650181
1.5387917 -0.75750279 8.2692986
2.3954973 -1.1593479 8.5549974
5.9423127 -2.8507376 15.586367
0.40879038 -0.25048417 8.1308403
0.76545304 -0.43056482 8.1481056
1.9122905 -0.93571901 8.2341814
2.8236604 -1.3654246 8.5834846
6.4579048 -3.1008961 14.876257
7.1615663 -3.3729742 6.4653368
8.5457764 -4.0194697 6.2762761
8.3083677 -3.9042718 4.8918667
9.5644102 -4.4904509 4.3572931
7.4461956 -3.5197494 6.0806584
9.5572023 -4.5074348 4.9722419
11.209441 -5.2819071 4.4019074
10.08838 -4.7493649 2.7800493
0.055499375 -0.06370578 8.2589588
1.1466708 -0.57851893 8.1650181
1.5397856 -0.76468182 8.2888803
2.3914359 -1.1677027 8.5549974
6.6023011 -3.1957746 17.339928
0.40791354 -0.25190961 8.1308403
0.7639454 -0.43323416 8.1481056
1.9090126 -0.94238853 8.2341814
2.818877 -1.3752728 8.5834846
6.4313684 -3.1158259 14.840246
9.5051203 -4.5173726 8.5681028
8.8112316 -4.1819501 6.4791446
8.3387165 -3.9541278 4.9173737
9.5780048 -4.5377035 4.3704042
9.8495054 -4.6579285 2.1600237
7.4338641 -3.5457201 6.0806584
8.1504679 -3.8840389 5.3911471
11.220787 -5.3351974 4.4134116
9.9092951 -4.7073817 2.7366736
0.055276662 -0.063899122 8.2589588
1.1453367 -0.58287066 8.1699572
1.5425687 -0.77278936 8.3182516
2.3873451 -1.1760433 8.5549974
6.6016388 -3.2239454 17.367544
0.40703174 -0.25333196 8.1308403
0.76242852 -0.43589818 8.1481056
1.9045863 -0.94848603 8.2293425
2.8156075 -1.3858662 8.5881777
6.4360995 -3.145905 14.876257
9.2260714 -4.4242964 8.3327188
8.8078938 -4.2181001 6.4873691
8.3128757 -3.9774752 4.9104176
9.8198853 -4.6859345 2.1572256
7.3740935 -3.5488601 6.042397
8.1524 -3.9199381 5.4012794
9.7668867 -4.6899581 5.0960274
11.163777 -5.3559494 4.3986201
9.8752708 -4.7335391 2.7319844
0.055027701 -0.064056337 8.2539587
1.1432952 -0.58686507 8.1699572
1.5480398 -0.78230381 8.3623085
2.3832254 -1.1843694 8.5549974
0.40614495 -0.25475124 8.1308403
0.76090229 -0.43855688 8.1481056
1.9012638 -0.95512849 8.2293425
2.8092072 -1.3949186 8.5834846
6.4426508 -3.1770175 14.916768
9.0458956 -4.3767958 8.1852112
8.2949524 -4.0045424 4.9080987
9.8676109 -4.759542 4.5146279
11.331109 -5.4605832 3.7871456
9.8919878 -4.7628045 2.1758783
7.3798418 -3.5834074 6.0571132
8.2395077 -3.997293 5.4671421
9.7096128 -4.7042332 5.0750465
11.111012 -5.3784261 4.3854723
9.8324327 -4.7552834 2.7249503
0.054803766 -0.064248025 8.2539587
1.1419294 -0.59120971 8.1748953
1.5525562 -0.79140335 8.4014702
2.3790767 -1.1926812 8.5549974
5.9911528 -2.9777756 15.821095
0.40525323 -0.25616735 8.1308403
0.75936675 -0.44121027 8.1481056
1.8979183 -0.96175933 8.2293425
2.8058639 -1.405489 8.5881777
6.441267 -3.2043355 14.939274
8.9501143 -4.3690729 8.1130266
8.4136515 -4.1017485 6.221447
8.7548399 -4.2643104 5.1840358
9.8551044 -4.7959857 4.5165005
10.876252 -5.2882438 3.6447327
9.9283237 -4.8230624 2.1870694
7.458034 -3.6536016 6.1306925
9.7542934 -4.7679939 5.1065173
11.041252 -5.3923106 4.3657503
9.6628828 -4.7149734 2.6839194
0.054553829 -0.064403407 8.2489595
1.1398587 -0.59519219 8.1748953
1.5579332 -0.8010096 8.4455271
2.3748989 -1.2009785 8.5549974
5.9702435 -2.9934165 15.793481
0.40435657 -0.2575804 8.1308403
0.75782204 -0.44385827 8.1481056
1.8945496 -0.96837842 8.2293425
2.7947798 -1.4121612 8.5694056
