# .PCD v0.7 - Point Cloud Data file format
VERSION 0.7
FIELDS x y z
SIZE 4 4 4
TYPE F F F
COUNT 1 1 1
WIDTH 1529
HEIGHT 1
VIEWPOINT 0 0 0 1 0 0 0
POINTS 1529
DATA ascii
0.96520001 -0.27069813 9.3064661
2.3741558 -0.52087063 9.3956432
3.3991015 -0.729146 9.5079594
2.4189408 -0.51182181 5.1761408
2.6612267 -0.55876058 4.5180435
3.8490264 -0.80331576 5.2813015
3.22082 -0.66927415 3.644479
2.6559358 -0.54270738 2.7437069
4.5224743 -0.9216994 3.8039258
8.3941011 -1.7062316 5.7005682
7.9981604 -1.6228492 4.3585429
8.8882036 -1.800223 3.7523031
9.3900795 -1.8984708 2.9058752
2.7645903 -0.56893981 2.595046
4.9241543 -1.0107365 3.743789
7.8777685 -1.6141688 4.811049
7.498095 -1.5322886 3.6252923
7.3202753 -1.4932951 2.6893709
0.077095918 -0.055537626 9.4689131
1.4326968 -0.3327184 9.35044
1.8955914 -0.42756906 9.3658295
2.8741093 -0.62802321 9.4521303
2.0810926 -0.44713229 5.0742011
2.3570001 -0.50130492 4.4833493
6.4102173 -1.3542532 9.6951103
2.5237918 -0.53038752 3.1642735
0.51959562 -0.16905217 9.2889051
0.96373671 -0.27391937 9.3014956
2.3723233 -0.52915478 9.3956432
3.3948498 -0.74063867 9.5032663
2.4341648 -0.52392787 5.2121501
2.5699937 -0.54897475 4.3687358
3.8403039 -0.81549454 5.2733216
3.1919296 -0.67490178 3.6150777
2.6889405 -0.55923742 2.7787523
4.5459075 -0.94301474 3.8258948
8.4290419 -1.7439944 5.7279825
7.8275943 -1.6167089 4.2704287
6.8931623 -1.4212068 2.9319148
9.3646011 -1.9273685 2.9002352
2.8027866 -0.58700657 2.6316266
7.8087854 -1.6284564 4.7730513
7.6037865 -1.5815583 3.6777437
0.076868273 -0.055778235 9.463913
1.4307705 -0.33753881 9.3455
1.8950799 -0.43441099 9.3707247
2.8718996 -0.63805193 9.4521303
2.0814276 -0.4548111 5.078804
2.3552358 -0.50952929 4.4833493
6.4054513 -1.3766209 9.6951103
2.5940156 -0.55460942 3.2525358
0.51845443 -0.17068258 9.2789221
0.96277469 -0.27728179 9.3014956
2.3692355 -0.53715438 9.3908043
3.3922436 -0.75248438 9.5032663
2.4429541 -0.53474957 5.2346563
2.4890568 -0.54077429 4.2364922
3.8227072 -0.8257134 5.2533712
4.6111393 -0.97334802 3.8823872
8.4474525 -1.7785757 5.7444315
7.8175683 -1.6431111 4.2681098
6.9244566 -1.4528756 2.9468989
2.8628006 -0.61001605 2.6881599
4.4306755 -0.94172186 3.3817804
7.9169102 -1.6798637 4.8414474
7.5715785 -1.6024525 3.6651554
7.6053629 -1.606837 2.7945554
0.076673098 -0.056046218 9.463913
1.4295835 -0.34253109 9.3455
1.8935519 -0.44102338 9.3707247
2.8711109 -0.6484018 9.4569016
2.0931771 -0.4650408 5.1110215
2.355782 -0.51826227 4.4877386
6.4033561 -1.3995726 9.6992426
2.6108561 -0.56774789 3.2755611
0.51703465 -0.17221504 9.2639465
0.9623124 -0.28079066 9.3064661
2.367346 -0.5454213 9.3908043
3.3895962 -0.76432097 9.5032663
2.4176981 -0.53807044 5.185143
2.4565949 -0.54270697 4.1853008
3.7462246 -0.82288861 5.1536207
3.1695762 -0.68232876 3.2658844
4.4745188 -0.96083486 3.772541
8.4739017 -1.8150582 5.7663631
7.8637667 -1.6815051 4.2959352
6.9374781 -1.480909 2.9543912
2.9372838 -0.6366154 2.7579958
4.4431643 -0.96059877 3.393553
8.0753355 -1.7429594 4.9402409
7.6768603 -1.6527531 3.7176068
7.6135573 -1.6363517 2.7994859
0.076476991 -0.056313518 9.463913
1.4283792 -0.34751919 9.3455
1.8920009 -0.44763044 9.3707247
2.8688302 -0.65841991 9.4569016
2.3305862 -0.52125365 4.4438477
6.3984318 -1.421916 9.6992426
2.6025991 -0.57547379 3.2678859
0.5158838 -0.17383273 9.2539635
0.96132642 -0.28414807 9.3064661
2.3642039 -0.55339497 9.3859644
3.3885896 -0.77653372 9.5079594
4.3331118 -0.98034865 9.2497396
2.4521408 -0.55070722 4.181035
2.4934893 -0.556817 3.4578602
2.6485834 -0.58904588 3.019701
3.1706583 -0.69415122 3.2693887
4.4026899 -0.96149898 3.716049
8.467515 -1.8446267 5.7663631
7.8015776 -1.6967061 4.2657909
6.9685092 -1.5129853 2.9693754
3.0334923 -0.66856396 2.847784
4.4713659 -0.98304623 3.4170983
8.119729 -1.7822276 4.9706392
7.7020788 -1.6863354 3.7322931
7.6216388 -1.6659431 2.8044164
0.076279953 -0.056580126 9.463913
1.426403 -0.35231653 9.3405609
1.8904269 -0.45423204 9.3707247
2.8665142 -0.66842997 9.4569016
3.8283403 -0.87876123 9.3131256
2.3100696 -0.52513766 4.4087348
6.396174 -1.444862 9.7033758
2.6005745 -0.58455503 3.2678859
0.51472789 -0.17544444 9.2439804
0.9603287 -0.28750199 9.3064661
2.3610351 -0.56135339 9.3811245
3.3841777 -0.78796595 9.5032663
4.3381495 -0.99741942 9.2677441
2.4807148 -0.56622899 4.2322259
2.5297308 -0.57418942 3.5097306
2.6465111 -0.59828764 3.019701
3.1786594 -0.70753938 3.2799027
4.3575091 -0.96757978 3.6815257
8.4079533 -1.8624166 5.7307243
7.7220774 -1.7076676 4.2263713
6.9994006 -1.5452963 2.9843597
2.7833874 -0.62363321 2.6216502
7.7670269 -1.7289892 3.765862
9.0908804 -2.0203705 3.3303392
0.076114915 -0.056874681 9.4689131
1.4251646 -0.35729343 9.3405609
1.8888297 -0.4608281 9.3707247
2.8641636 -0.67843187 9.4569016
3.83286 -0.89389449 9.3315363
3.7409999 -0.86424428 7.1036291
6.3910918 -1.4671801 9.7033758
2.5953937 -0.5929153 3.2640488
0.51356703 -0.17705022 9.2339964
0.95982921 -0.29100764 9.3114376
2.3553958 -0.5687061 9.3666077
3.3847651 -0.80056876 9.5126524
4.3537207 -1.0170137 9.3082552
2.4583986 -0.57017016 4.1980987
3.1325569 -0.72254479 4.331676
2.6543183 -0.60979944 3.0307264
3.2039969 -0.72492719 3.3079391
4.2933564 -0.96907187 3.6313105
8.3728456 -1.8853245 5.711534
7.6469183 -1.7190664 4.1892705
6.9170661 -1.5524602 2.952518
4.426723 -1.0081065 4.1247764
4.9137316 -1.116325 3.7526183
7.7565174 -1.755089 3.7637637
9.1943197 -2.0770648 3.3697836
0.075948752 -0.057168771 9.4739132
1.4239087 -0.362266 9.3405609
1.8872097 -0.46741852 9.3707247
2.8603265 -0.68807632 9.4521303
3.8354194 -0.90861958 9.3453445
5.0809722 -1.1925454 9.6317387
6.385931 -1.4894801 9.7033758
2.593308 -0.60197133 3.2640488
0.51294589 -0.17884183 9.2339964
0.95880759 -0.29435629 9.3114376
2.3497341 -0.57602626 9.3520889
3.3752382 -0.81076628 9.4938803
4.3882694 -1.0412525 9.3892765
2.4563935 -0.57874805 4.1980987
3.2062936 -0.75135183 4.4354167
2.6521738 -0.61906099 3.0307264
3.215349 -0.73930359 3.3219571
4.3051229 -0.98753375 3.6438644
8.3213778 -1.904279 5.6813779
7.6279154 -1.7427886 4.1823139
7.1059575 -1.6209301 3.0330586
4.5104804 -1.0437561 4.2045879
4.9216199 -1.136198 3.7614481
9.7136717 -2.2389672 5.9433804
9.265254 -2.1271091 3.3977234
0.07578145 -0.057462394 9.4789124
1.4226356 -0.3672342 9.3405609
1.8855666 -0.47400326 9.3707247
2.8579075 -0.69805652 9.4521303
3.84742 -0.9256587 9.382164
5.0791082 -1.2108295 9.6361284
6.380693 -1.5117623 9.7033758
2.5911911 -0.61101997 3.2640488
0.51259053 -0.18072812 9.2389889
0.95777428 -0.29770136 9.3114376
2.346489 -0.58392119 9.347249
3.3740644 -0.82295215 9.4985733
2.3634961 -0.56947219 5.0906172
2.4492855 -0.58610487 4.1895666
3.1069169 -0.73951179 4.3037457
2.6730874 -0.63379049 3.0564525
3.212749 -0.75052279 3.3219571
4.2864866 -0.99902129 3.6313105
8.3065329 -1.9314202 5.6758947
7.8030176 -1.8114784 4.2797036
7.1454177 -1.6561925 3.051789
4.4668279 -1.0500947 4.1680079
9.7057972 -2.2728605 5.9433804
8.1816072 -1.9114159 3.9714708
9.3865366 -2.1894732 3.4437416
0.075613029 -0.057755541 9.4839115
1.421345 -0.37219787 9.3405609
1.8839005 -0.48058221 9.3707247
2.8554535 -0.70802826 9.4521303
3.8327782 -0.93630081 9.3545485
5.0958004 -1.2336236 9.6756296
6.3781133 -1.5346842 9.707509
2.5921593 -0.62080777 3.2678859
0.51195651 -0.18251628 9.2389889
0.95622098 -0.30088225 9.3064661
2.3310313 -0.58872133 9.2940159
3.3644707 -0.83306545 9.4798031
2.4207015 -0.5922069 5.2166514
2.4446907 -0.59403503 4.1853008
2.5243962 -0.61016208 3.5137208
2.6774509 -0.64470494 3.063803
3.1996996 -0.75926238 3.3114433
4.2867613 -1.0148746 3.634449
8.3933392 -1.9825121 5.7389488
7.8138933 -1.8427722 4.2889791
7.1395931 -1.6811247 3.051789
4.3687115 -1.0431334 4.0815449
5.6331177 -1.3419503 4.3000464
9.6978045 -2.3067262 5.9433804
8.2278767 -1.9525387 3.9966478
9.3282928 -2.2102492 3.425663
0.075410962 -0.058019128 9.4839115
1.4200372 -0.377157 9.3405609
1.8822116 -0.48715535 9.3707247
2.8529644 -0.71799129 9.4521303
3.8256946 -0.94873345 9.3453445
3.7448487 -0.9203943 7.1343527
6.3727174 -1.5569386 9.707509
2.593091 -0.63060981 3.2717235
0.5113163 -0.18430223 9.2389889
0.95516485 -0.30421823 9.3064661
2.3289621 -0.59685457 9.2940159
3.3464799 -0.84101832 9.4375677
2.4249578 -0.60222751 5.230155
2.4400699 -0.60194016 4.181035
2.4783549 -0.60819632 3.4538705
2.7048223 -0.66129404 3.0968795
3.1692936 -0.76374239 3.283407
4.2604856 -1.0243722 3.6156182
8.4554911 -2.0283806 5.7855539
7.678174 -1.8390806 4.2194147
7.1201553 -1.7028012 3.0461698
4.3505292 -1.0548571 4.0682425
5.6401854 -1.3644568 4.3088756
9.6687412 -2.3355026 5.9307141
0.075207978 -0.058282003 9.4839115
1.4187119 -0.38211155 9.3405609
1.8804996 -0.4937225 9.3707247
2.8504407 -0.72794563 9.4521303
3.8053083 -0.95778942 9.3039217
2.291594 -0.57166153 4.3955679
6.3645124 -1.5784966 9.7033758
2.590874 -0.6396575 3.2717235
0.51066983 -0.18608594 9.2389889
0.95409709 -0.30755055 9.3064661
2.3049676 -0.59928501 9.2069063
3.3217862 -0.84714967 9.3765612
2.4186189 -0.60962415 5.2211523
2.432894 -0.60918671 4.172503
2.5814762 -0.64306831 3.5975113
2.7024975 -0.6707316 3.0968795
3.128504 -0.76547652 3.2448571
4.196384 -1.0244672 3.565403
8.5214853 -2.0756962 5.8348999
7.6415777 -1.858543 4.2031832
7.0916433 -1.7221748 3.0368047
4.8581729 -1.193234 3.7261302
9.6312237 -2.362051 5.912982
0.074971765 -0.058514867 9.4789124
1.4173695 -0.38706148 9.3405609
1.8797485 -0.5005458 9.3756208
2.8493273 -0.73826563 9.4569016
3.7849061 -0.96671474 9.2624989
2.2826195 -0.57789338 4.3824
6.356235 -1.6000164 9.6992426
2.5917344 -0.64947671 3.2755611
0.51001716 -0.18786737 9.2389889
0.95301771 -0.31087908 9.3064661
2.2919233 -0.60444117 9.1633511
3.3021028 -0.85441607 9.3296347
4.344121 -1.1112053 9.3352623
2.428225 -0.617033 4.1682372
2.5441601 -0.64321148 3.5496311
2.6804149 -0.67519182 3.0748284
3.1119688 -0.77295345 3.2308388
4.268342 -1.0578362 3.6281719
8.5141878 -2.1054292 5.8348999
7.6866512 -1.8979487 4.231009
7.175611 -1.7691138 3.0742652
6.7845492 -1.6952934 6.3096299
4.8539782 -1.2101849 3.7261302
9.6103697 -2.3925316 5.9053822
7.6784186 -1.9072971 3.7448812
9.203804 -2.2828021 3.3895056
0.074767053 -0.058776211 9.4789124
1.4160098 -0.39200664 9.3405609
1.8779898 -0.50710428 9.3756208
2.8467331 -0.74820709 9.4569016
3.7815084 -0.97992063 9.2624989
2.2643507 -0.5816856 4.3516769
2.5832388 -0.65693945 3.2678859
0.50935829 -0.18964651 9.2389889
0.95192677 -0.31420383 9.3064661
2.2691572 -0.60691446 9.0810814
3.2757323 -0.8598026 9.2639351
4.3233585 -1.1219872 9.2992525
2.4184802 -0.62355161 4.1554394
2.4951999 -0.64010662 3.4857907
2.6583347 -0.67950618 3.0527775
3.1057935 -0.78293967 3.2273343
4.2985964 -1.081275 3.6564181
8.5189533 -2.1381903 5.8431244
7.6541977 -1.9183071 4.2170959
7.1918783 -1.7997777 3.0836306
6.7460179 -1.7107054 6.2797003
4.9124203 -1.2429856 3.7732208
10.05752 -2.5411689 6.1814985
7.7025194 -1.9418547 3.7595675
9.287365 -2.3379712 3.4223759
0.07452932 -0.059007298 9.4739132
1.4146328 -0.39694706 9.3405609
1.8771904 -0.51392567 9.3805161
2.8455462 -0.75852412 9.4616737
3.7761755 -0.99261773 9.2578955
2.2437661 -0.58475327 4.3165641
2.9780183 -0.77173346 4.5909185
2.5933437 -0.66915619 3.283236
0.50869322 -0.19142336 9.2389889
0.95031881 -0.31735539 9.3014956
2.2609594 -0.61318594 9.0568848
3.2593706 -0.86767966 9.2263927
4.3131003 -1.135409 9.2857494
2.4188118 -0.63264996 4.1597052
2.4229646 -0.63059574 3.3900301
2.629694 -0.68197244 3.023376
4.3174243 -1.1020496 3.6752489
8.4992819 -2.1648176 5.8348999
7.5787654 -1.9275429 4.1799951
7.2259908 -1.8351414 3.1004877
4.9276266 -1.2651516 3.7879364
10.069468 -2.5816138 6.1941648
7.7132821 -1.9732291 3.7679601
9.2791471 -2.3703759 3.4223759
0.074322894 -0.0592671 9.4739132
1.4139858 -0.40209535 9.3455
1.8753849 -0.52047515 9.3805161
2.8443222 -0.76884192 9.4664459
3.7745752 -1.0062964 9.2624989
2.2092953 -0.5840112 4.2551169
2.9589772 -0.7778309 4.5661206
2.6064961 -0.6822632 3.3024235
0.50829142 -0.19330132 9.2439804
0.94920528 -0.32067069 9.3014956
2.2624407 -0.62207448 9.0714016
3.2563219 -0.87905174 9.2263927
4.304904 -1.1493343 9.2767467
2.4115474 -0.63975167 4.1511736
2.4294887 -0.64135724 3.4020002
2.6240189 -0.69028503 3.019701
4.3399267 -1.1239446 3.6972182
8.4754801 -2.1902876 5.8239341
7.5376759 -1.9451309 4.1614447
7.2644343 -1.871922 3.1192181
6.1125236 -1.5955529 5.7077141
4.8997111 -1.2762313 3.7702775
10.085427 -2.6232581 6.2093639
7.6975613 -1.9978613 3.7637637
7.3509388 -1.9051651 2.7321019
0.074115559 -0.059526172 9.4739132
1.4125737 -0.40702868 9.3455
1.8735569 -0.52701831 9.3805161
2.8430607 -0.77916038 9.4712181
3.7729256 -1.0199759 9.2671013
2.1771708 -0.58365601 4.1980586
2.9616821 -0.78960502 4.5743866
2.6226864 -0.69629282 3.3254488
0.5076136 -0.19507441 9.2439804
0.94808012 -0.32398206 9.3014956
2.2650988 -0.63131851 9.0907602
3.251569 -0.88995743 9.2216997
4.2945623 -1.1626474 9.2632427
2.4118178 -0.64884323 4.1554394
2.4417884 -0.65373069 3.4219503
2.6215935 -0.69944036 3.019701
3.1767457 -0.83630347 3.3079391
4.3773875 -1.1499661 3.7317412
5.0337915 -1.3196089 3.4964294
7.3722816 -1.9299219 4.0756497
7.2444 -1.8937507 3.1135988
6.5292163 -1.7286927 6.0967975
4.8952265 -1.2933267 3.7702775
8.9091215 -2.3505247 5.5000739
7.5281487 -1.9819642 3.6861358
7.3214097 -1.9248096 2.7238846
0.073907323 -0.05978452 9.4739132
1.4103984 -0.41173905 9.3405609
1.8717057 -0.53355503 9.3805161
2.8345709 -0.78748113 9.4521303
3.7693422 -1.0331397 9.2671013
2.2005422 -0.59816396 4.2463388
6.3354912 -1.7129076 9.7116413
2.6264296 -0.70711011 3.3331234
0.50692958 -0.19684511 9.2439804
0.9469434 -0.32728952 9.3014956
2.26651 -0.64024675 9.105278
3.2484429 -0.9013021 9.2216997
4.2925768 -1.1782074 9.2677441
2.4802034 -0.6733036 3.4778104
2.6224084 -0.7094726 3.023376
5.5477829 -1.4812725 5.7225714
4.4184794 -1.1772649 3.7694027
5.0493598 -1.3425446 3.5101368
7.3954697 -1.9636018 4.0918813
7.2646322 -1.9261557 3.1248374
6.6241117 -1.7785847 6.1899118
4.871161 -1.3051757 3.7555616
9.33395 -2.4974926 5.7635241
7.407177 -1.9777888 3.6315863
7.3146458 -1.9503546 2.7238846
0.073698185 -0.060042143 9.4739132
1.4089526 -0.41665971 9.3405609
1.8698318 -0.54008526 9.3805161
2.8274944 -0.79615676 9.4378147
3.765713 -1.0462909 9.2671013
2.2238386 -0.61284208 4.2946186
6.3159041 -1.7312921 9.6909771
2.6270375 -0.71711797 3.336961
0.50623935 -0.19861344 9.2439804
0.94629818 -0.33076939 9.3064661
2.2690949 -0.6495387 9.1246357
3.2452769 -0.9126358 9.2216997
4.2905354 -1.1937678 9.2722454
2.4836483 -0.68355638 3.4857907
2.6624177 -0.73028123 3.0711532
5.5632324 -1.5062209 5.7435985
4.4143429 -1.1926811 3.7694027
5.0365677 -1.3579847 3.5046537
7.4593253 -2.005672 3.2091236
6.6106577 -1.7997346 6.1832604
9.5498362 -2.5910137 5.9003162
7.5404143 -2.0415888 3.6987243
7.3442612 -1.9857358 2.7370327
0.073456548 -0.060268927 9.4689131
1.4067453 -0.42135218 9.3356218
1.8669579 -0.54632276 9.3756208
2.8203917 -0.80479264 9.4234982
3.7620378 -1.0594292 9.2671013
2.2378323 -0.62511224 4.3253422
6.3423586 -1.7623698 9.7405729
2.6368747 -0.72970337 3.3523111
0.50554293 -0.20037934 9.2439804
0.9451378 -0.33407056 9.3064661
2.2692282 -0.65815592 9.1343155
3.2420714 -0.92395836 9.2216997
4.2863421 -1.2087373 9.2722454
2.3797791 -0.6670239 4.1127801
3.3635757 -0.93840635 4.6987581
2.7121119 -0.75410259 3.129956
5.5751367 -1.5303514 5.7611213
4.4214149 -1.2111679 3.7788181
5.0156636 -1.3711467 3.4936879
8.3858337 -2.289351 4.6367993
7.4791145 -2.0390141 3.2203619
6.6583228 -1.8377004 6.2331429
9.440979 -2.5968938 5.83952
7.6251502 -2.093127 3.7427831
7.3281765 -2.008863 2.7337456
0.07327722 -0.060555186 9.4739132
1.4052659 -0.42626008 9.3356218
1.8650396 -0.5528363 9.3756208
2.8089616 -0.81214452 9.3948669
3.7583168 -1.0725547 9.2671013
2.2402456 -0.63422501 4.3341203
6.3415847 -1.7860235 9.7488375
0.50484043 -0.20214278 9.2439804
0.94396591 -0.33736768 9.3064661
2.2705348 -0.66713631 9.1488323
3.2388265 -0.93526965 9.2216997
4.2841897 -1.2242903 9.2767467
2.3699098 -0.67318857 4.0999818
3.4588645 -0.97801983 4.8344188
2.6898849 -0.75804704 3.1079049
3.5701737 -0.99338865 3.7214751
4.4359121 -1.2318016 3.7945104
8.4480524 -2.3412216 5.8321586
8.3735218 -2.3174274 4.6344805
7.4496093 -2.0589335 3.2109966
6.6878247 -1.8709906 6.266398
6.1147003 -1.707207 4.7062025
9.373723 -2.6136236 5.8040552
7.6571493 -2.130681 3.7616656
7.3438683 -2.0407524 2.7419629
0.073065393 -0.060810596 9.4739132
1.4037695 -0.43116277 9.3356218
1.8621234 -0.55905026 9.3707247
2.7946501 -0.81858712 9.3566904
3.75455 -1.0856673 9.2671013
2.2518303 -0.64600426 4.3604546
6.3380179 -1.8089212 9.7529707
3.0140169 -0.85677922 3.8281615
0.50413173 -0.20390378 9.2439804
0.94278252 -0.34066069 9.3064661
2.2706015 -0.67577529 9.1585121
3.2355421 -0.94656962 9.2216997
4.281981 -1.2398428 9.2812481
2.3650396 -0.68073559 4.0957165
3.078862 -0.88217968 4.3157158
2.6676633 -0.76184565 3.0858538
3.5529547 -1.0019728 3.7074571
4.4540658 -1.2536057 3.8133409
8.4277515 -2.3673041 5.8239341
8.2672825 -2.3191233 4.5811481
7.4334488 -2.0824237 3.2072504
6.706398 -1.9014537 6.2896767
6.1125927 -1.7296413 4.7091455
9.2069063 -2.6017809 5.7077947
7.6278243 -2.151237 3.7511756
7.40488 -2.085578 2.7666159
0.072852686 -0.061065271 9.4739132
1.4022559 -0.43606022 9.3356218
1.8601606 -0.56554687 9.3707247
3.7507374 -1.0987663 9.2671013
2.2518616 -0.65452933 4.3648438
2.963419 -0.856929 4.6033173
3.0602877 -0.88149077 3.8895617
0.50368387 -0.20577231 9.2489719
0.94158763 -0.34394953 9.3064661
2.2718394 -0.68478572 9.1730309
3.2322183 -0.95785791 9.2216997
4.277627 -1.2547822 9.2812481
2.3701599 -0.69117767 4.1085138
2.9947386 -0.86939687 4.2039952
2.6487052 -0.76644087 3.0674782
3.5391488 -1.0114288 3.6969435
4.4496627 -1.2691457 3.8133409
8.4154148 -2.3955634 5.8211927
8.1824389 -2.3261631 4.5394096
7.4038367 -2.1020279 3.1978855
4.1374655 -1.1886851 3.9152696
6.0249238 -1.727571 4.6473393
9.280652 -2.6576383 5.7584577
7.4064436 -2.1167383 3.648371
7.4565859 -2.1282618 2.7879813
0.072639078 -0.061319206 9.4739132
1.4007252 -0.44095239 9.3356218
1.858175 -0.57203656 9.3707247
2.441493 -0.73366195 8.1970987
3.7468791 -1.1118523 9.2671013
2.2288864 -0.65629631 4.3253422
2.8955977 -0.84827888 4.5041265
3.0171928 -0.880494 3.8396745
0.50296247 -0.20752923 9.2489719
0.9398815 -0.34704903 9.3014956
2.2718394 -0.69344592 9.1827087
3.2288549 -0.96913463 9.2216997
4.2732205 -1.2697062 9.2812481
2.375236 -0.70166367 4.1213117
2.6361163 -0.77526289 3.713222
2.6427605 -0.77472806 3.063803
3.4842141 -1.0088971 3.6443753
4.4377265 -1.2825087 3.8070643
8.4110184 -2.4260828 5.8239341
8.067852 -2.3240554 4.4814396
7.3697228 -2.1201692 3.1866474
5.9186063 -1.7228161 5.5713687
5.9101748 -1.7170162 4.5649309
6.3732815 -1.849157 3.9852328
7.3902898 -2.1400537 3.6441748
7.4899378 -2.1660843 2.802773
0.072424598 -0.061572392 9.4739132
1.3991776 -0.44583911 9.3356218
1.856167 -0.57851934 9.3707247
2.434633 -0.74087578 8.1827822
3.7429752 -1.1249245 9.2671013
2.2036312 -0.65722638 4.2814517
2.8656418 -0.85037494 4.4627967
3.0141013 -0.89102054 3.8396745
0.502235 -0.20928364 9.2489719
0.93866438 -0.3503277 9.3014956
2.2718067 -0.7021144 9.1923876
3.2254524 -0.98039955 9.2216997
4.2687626 -1.2846148 9.2812481
2.3677754 -0.7084552 4.1127801
2.7027018 -0.80510825 3.8089824
2.64329 -0.78491348 3.0674782
3.490937 -1.0240649 3.6548889
4.4332228 -1.2979915 3.8070643
8.4386206 -2.4659841 5.8486075
8.1957674 -2.3919177 4.5556412
7.3444738 -2.140692 3.1791551
5.9376254 -1.7508579 5.5946469
6.0863905 -1.7912737 4.7032595
6.3750591 -1.8738239 3.9902992
7.5221343 -2.2067213 3.7113125
7.5321794 -2.206821 2.8208516
0.072178267 -0.061794072 9.4689131
1.3983521 -0.45095912 9.3405609
1.8551072 -0.58530158 9.3756208
2.4391646 -0.75156808 8.2066431
3.7390256 -1.1379831 9.2671013
3.5631585 -1.076336 6.8885646
6.2905841 -1.8907572 9.7199078
3.0232546 -0.90521407 3.8550243
0.50150144 -0.21103549 9.2489719
0.93743575 -0.35360214 9.3014956
2.2717414 -0.71079117 9.2020664
3.2220106 -0.99165249 9.2216997
4.2642527 -1.2995077 9.2812481
3.915257 -1.1864508 6.7619252
2.7748797 -0.83716851 3.9127231
2.6762455 -0.80487663 3.1079049
3.4873409 -1.0362443 3.6548889
4.4286652 -1.3134584 3.8070643
8.3898678 -2.4835565 5.8211927
8.2213526 -2.4305587 4.5741916
7.2969413 -2.154501 3.1622977
4.1319456 -1.2340835 3.9219205
6.2350421 -1.8586985 4.8209858
6.4097953 -1.9083667 4.0156307
8.1321564 -2.4165437 4.0092359
7.4882145 -2.2223516 2.8077035
0.071962126 -0.062045641 9.4689131
1.3967694 -0.45583755 9.3405609
1.8530529 -0.59177351 9.3756208
2.446501 -0.76319027 8.2400465
3.7350307 -1.1510278 9.2671013
3.5525091 -1.0866654 6.8753972
6.2758698 -1.9102457 9.707509
3.0292783 -0.91855222 3.8665369
0.50076169 -0.21278477 9.2489719
0.93619573 -0.35687223 9.3014956
2.2728412 -0.71985573 9.2165852
3.2185292 -1.0028933 9.2216997
4.2617707 -1.3150268 9.2857494
3.9011185 -1.1970499 6.7448611
2.9851897 -0.91200572 4.2079849
2.7090931 -0.82507914 3.1483316
3.4871178 -1.0494388 3.6583936
4.4277811 -1.3300292 3.8102026
8.3450994 -2.5020194 5.7965193
8.1788683 -2.4490759 4.5556412
7.2893763 -2.1799588 3.1622977
5.9431272 -1.7976726 5.6112747
6.2826886 -1.8968072 4.8621898
6.4030948 -1.9307293 4.0156307
8.2192822 -2.4736907 4.0553927
7.4397106 -2.2362428 2.792912
0.071745105 -0.062296458 9.4689131
1.3951699 -0.46071041 9.3405609
1.8509759 -0.59823829 9.3756208
2.4480925 -0.77307433 8.2543631
3.7309902 -1.1640586 9.2671013
3.5464063 -1.0983506 6.8710079
6.2664747 -1.931312 9.7033758
3.0291176 -0.93006164 3.8703744
0.50001591 -0.21453147 9.2489719
0.93544149 -0.36033013 9.3064661
2.2727084 -0.72855258 9.226263
3.215009 -1.014122 9.2216997
4.2509208 -1.3279476 9.2722454
3.8894446 -1.2083386 6.7320633
2.9963813 -0.92687315 4.2279348
4.0830231 -1.2591501 4.7102766
3.4834332 -1.0616047 3.6583936
4.4268355 -1.3466097 3.8133409
8.4643488 -2.5700092 5.8842463
8.0897255 -2.4531856 4.5115838
7.3083444 -2.2134533 3.1735363
5.904685 -1.8085654 5.5813451
6.3030872 -1.9269987 4.8827925
6.4251761 -1.9618809 4.0333629
8.2887421 -2.5261831 4.0931578
7.4047537 -2.2539477 2.7830508
0.07152722 -0.062546514 9.4689131
1.3935531 -0.46557763 9.3405609
1.8488762 -0.60469574 9.3756208
2.4411135 -0.78025126 8.2400465
3.7269042 -1.177075 9.2671013
3.5425508 -1.1107233 6.8710079
6.2650671 -1.9548507 9.7116413
3.0197308 -0.93872643 3.8626993
0.49926403 -0.21627553 9.2489719
0.93417799 -0.36359322 9.3064661
2.2737379 -0.73764539 9.2407818
3.2114494 -1.0253383 9.2216997
4.2524867 -1.3447474 9.2857494
3.8852029 -1.2219079 6.7320633
2.9902523 -0.93642616 4.2239451
3.9944651 -1.2471244 4.6147227
3.4831138 -1.0748092 3.6618979
4.4258275 -1.3631997 3.8164794
8.5352621 -2.6241157 5.9390759
8.0811129 -2.4814091 4.5115838
7.2961411 -2.2375913 3.171663
3.9939787 -1.2385756 3.8055282
6.1534567 -1.9047644 4.7738953
6.4429994 -1.9919368 4.048562
8.1801291 -2.5243201 4.0449028
7.396841 -2.2797813 2.7830508
0.071308449 -0.06279581 9.4689131
1.3926555 -0.47068819 9.3455
1.8457878 -0.61082584 9.3707247
2.4369547 -0.78830808 8.2352743
3.7227726 -1.1900771 9.2671013
3.529521 -1.1201841 6.8534517
3.0164359 -0.94926155 3.8626993
0.49850604 -0.21801697 9.2489719
0.93290317 -0.3668519 9.3064661
2.2735381 -0.74636215 9.2504616
3.2078509 -1.0365421 9.2216997
4.2581329 -1.3629014 9.3082552
2.9697311 -0.94139469 4.2000051
3.346812 -1.0577424 3.8833644
3.4827449 -1.0880246 3.6654024
4.4284739 -1.3809581 3.8227565
8.6378403 -2.6886909 6.0158372
7.958189 -2.4740944 4.448976
7.3458414 -2.2809174 3.1960123
3.9753816 -1.248036 3.7922261
5.9269185 -1.8573352 4.6061349
6.4113226 -2.0066888 4.0333629
8.1452761 -2.5447383 4.0323148
0.071088813 -0.063044339 9.4689131
1.391004 -0.47554663 9.3455
1.8436444 -0.61726511 9.3707247
2.4313507 -0.79588079 8.2257299
3.7204542 -1.2036662 9.2717028
3.5233092 -1.131765 6.8490624
3.0321493 -0.96933198 4.7479701
3.0802925 -0.98118895 3.9471245
0.49747822 -0.21963832 9.2439804
0.9316169 -0.3701061 9.3064661
2.274497 -0.75548267 9.2649784
3.2042131 -1.0477333 9.2216997
4.2989106 -1.3925165 9.4072809
5.6241479 -1.8121045 9.7352819
2.969296 -0.95267594 4.2039952
3.3430996 -1.0694184 3.8833644
3.4857264 -1.1023258 3.6724117
4.4347615 -1.3999231 3.8321719
8.6363792 -2.7213397 6.0213194
7.970633 -2.5085082 4.4605703
7.2936096 -2.2926435 3.1772821
3.9638836 -1.2596433 3.7855749
5.6352921 -1.7875713 4.388341
6.4166083 -2.0329626 4.0409627
8.1623077 -2.5813665 4.0449028
0.070868321 -0.063292108 9.4689131
1.3893355 -0.48039922 9.3455
1.8414785 -0.6236968 9.3707247
2.427141 -0.80389351 8.2209578
3.7162299 -1.2166456 9.2717028
3.5125043 -1.1418352 6.8358955
2.9992964 -0.9703809 4.702508
3.2354798 -1.0430799 4.1466746
0.49670848 -0.2213735 9.2439804
0.93031937 -0.37335578 9.3064661
2.274229 -0.76421863 9.2746582
3.2005363 -1.0589117 9.2216997
4.3395338 -1.422433 9.5063086
5.5905132 -1.8228315 9.6883564
2.994612 -0.97234142 4.2438951
3.3683741 -1.0904796 3.916441
3.4886501 -1.1166608 3.6794207
4.4409714 -1.4189489 3.8415871
8.6547127 -2.7603633 6.0405097
8.0335808 -2.5591736 4.49999
7.285562 -2.318089 3.1772821
3.9630175 -1.2746156 3.7889006
5.6213212 -1.8047601 4.3824549
8.088376 -2.5937388 5.077033
8.1489229 -2.6084585 4.0428047
0.070646957 -0.063539095 9.4689131
1.3876501 -0.48524597 9.3455
1.8392901 -0.63012099 9.3707247
2.4229047 -0.81188661 8.2161865
3.7101061 -1.2289959 9.2671013
3.503947 -1.1525923 6.827117
2.9851937 -0.97734189 4.685976
3.3902712 -1.1060659 4.3462248
0.49566987 -0.22298674 9.2389889
0.92901039 -0.37660095 9.3064661
2.2739277 -0.77296185 9.284337
3.1968203 -1.0700772 9.2216997
4.3407407 -1.4396281 9.5198116
5.5865927 -1.843152 9.6926222
3.3613253 -1.1011753 3.9127657
3.4949093 -1.1321291 3.6899345
4.4508052 -1.4392327 3.854141
8.0541115 -2.5967157 4.5162215
3.9549932 -1.2872856 3.7855749
5.6149869 -1.8243712 4.3824549
8.1161757 -2.6339328 5.0998316
8.1872635 -2.6522739 4.0658836
0.070424736 -0.063785315 9.4689131
1.3859478 -0.49008685 9.3455
1.8370794 -0.63653749 9.3707247
2.4186423 -0.81985986 8.2114143
3.7057934 -1.2419392 9.2671013
3.4976299 -1.16406 6.8227286
2.9764216 -0.98598629 4.6777105
3.5142233 -1.160096 4.5074
0.49488848 -0.22471559 9.2389889
0.92769015 -0.37984151 9.3064661
2.2735932 -0.78171229 9.2940159
3.1930656 -1.0812297 9.2216997
4.3377528 -1.4554639 9.524313
3.7890708 -1.2647536 6.6040854
3.3480315 -1.1130035 4.7466383
3.357461 -1.1129018 3.9127657
3.5044913 -1.1487653 3.7039528
4.4531522 -1.4571811 3.8604181
8.0449982 -2.624814 4.5162215
7.8422112 -2.5556302 3.4207764
3.9504757 -1.3010832 3.7855749
5.5433078 -1.8224982 4.3324208
8.1069326 -2.6622477 5.0998316
8.2512703 -2.7048707 4.1015506
0.07020165 -0.064030752 9.4689131
1.3842287 -0.49492171 9.3455
1.8348463 -0.64294618 9.3707247
2.4157658 -0.8282975 8.2114143
3.6995857 -1.2542399 9.2624989
3.4912755 -1.1754977 6.8183393
2.9863021 -1.0008414 4.6983747
3.4554298 -1.1540779 4.4383249
0.49410105 -0.22644171 9.2389889
0.92635864 -0.38307744 9.3064661
2.2720377 -0.79005677 9.2988558
3.1892722 -1.092369 9.2216997
4.3347077 -1.4712964 9.5288143
3.7698076 -1.2729656 6.5784898
3.3755424 -1.1352502 4.7905283
3.2635579 -1.0944321 3.8098612
3.4598408 -1.1475184 3.6618979
4.4480386 -1.4727166 3.8604181
5.3340483 -1.7629917 3.7678347
7.8170495 -2.5806668 4.3956437
7.7804093 -2.565567 3.3982999
3.9459102 -1.314865 3.7855749
5.5906076 -1.8596988 4.3736253
8.2762403 -2.7450869 4.1183348
0.069977716 -0.064275414 9.4689131
1.3824928 -0.49975052 9.3455
1.8316309 -0.6490069 9.3658295
2.4114494 -0.83623582 8.2066431
3.693337 -1.2665124 9.2578955
3.4848838 -1.186905 6.8139501
2.9987805 -1.0166812 4.7231727
3.2965152 -1.1138039 4.2426119
0.49330762 -0.22816506 9.2389889
0.92501581 -0.3863087 9.3064661
2.2716377 -0.7988171 9.3085337
3.1854396 -1.1034949 9.2216997
4.3336635 -1.4878324 9.537817
3.7604053 -1.2844307 6.5699577
6.9545069 -2.3660631 9.8019991
3.2532971 -1.103639 3.8025112
3.4591951 -1.1607231 3.6654024
4.4317989 -1.4845252 3.8510025
5.3516555 -1.7895569 3.7842834
7.7869854 -2.6009207 4.3840499
7.9121313 -2.6396596 3.4582369
3.9306822 -1.3250526 3.7755985
5.5840816 -1.8792024 4.3736253
8.1719475 -2.7421949 4.0721774
0.069723174 -0.064487375 9.463913
1.3807398 -0.50457335 9.3455
1.8293544 -0.65539646 9.3658295
2.4085157 -0.8446483 8.2066431
3.6888933 -1.2793968 9.2578955
3.4784553 -1.1982822 6.8095608
2.9765806 -1.0207523 4.694242
3.1864531 -1.0890216 4.1082997
0.49250814 -0.22988564 9.2389889
0.92366165 -0.38953525 9.3064661
2.2700195 -0.80716294 9.3133736
3.1815681 -1.1146076 9.2216997
4.3325567 -1.5043789 9.5468197
3.7558987 -1.2975491 6.5699577
6.9262605 -2.383461 9.7740688
3.2462182 -1.113888 3.7988358
4.4192171 -1.4974877 3.8447256
5.3374538 -1.8055468 3.7788005
7.9205475 -2.6763003 4.4628892
8.0785675 -2.7265618 3.5331581
3.9189651 -1.3363549 3.7689478
5.608099 -1.9091036 4.3971705
6.4011941 -2.1766105 4.0586948
8.1064568 -2.7517385 4.0449028
0.069497645 -0.064730361 9.463913
1.3789701 -0.50938994 9.3455
1.8270555 -0.66177815 9.3658295
2.4055526 -0.85305041 8.2066431
3.6844051 -1.2922657 9.2578955
3.4719896 -1.2096291 6.805172
2.9490716 -1.0228366 4.6570454
3.1947496 -1.1043266 4.1236496
0.49170268 -0.2316034 9.2389889
0.92229629 -0.39275703 9.3064661
2.2683711 -0.81550717 9.3182125
3.1776581 -1.1257064 9.2216997
4.3293328 -1.5202144 9.551321
3.7390363 -1.3063505 6.5486283
6.9093609 -2.4046521 9.7620983
5.2728539 -1.8299394 6.12889
4.5742064 -1.5704967 4.8324165
4.4102812 -1.5116423 3.8415871
5.3548565 -1.8322895 3.7952492
7.8105555 -2.6695471 4.407238
8.1655216 -2.7876973 3.5743651
3.8966279 -1.3439394 3.7523203
5.5899353 -1.92472 4.388341
6.3038759 -2.1680968 4.002965
7.9594402 -2.7328553 3.9777653
0.069271274 -0.064972557 9.463913
1.3771837 -0.51420033 9.3455
1.8247343 -0.66815174 9.3658295
2.4025602 -0.86144215 8.2066431
3.6798716 -1.3051187 9.2578955
3.467746 -1.2217412 6.805172
2.9322064 -1.0284672 4.6363807
0.49115157 -0.2334431 9.2439804
0.92043036 -0.39576301 9.3014956
2.2655106 -0.82342035 9.3182125
3.1737092 -1.1367917 9.2216997
4.3281026 -1.5367742 9.5603228
5.5270953 -1.9527938 9.6584949
6.9407177 -2.4427609 9.8179588
5.2472401 -1.8415973 6.1068387
4.5653276 -1.5852841 4.8289118
4.3976221 -1.5244781 3.8353105
5.4037485 -1.8701159 3.8336296
7.8011894 -2.696795 4.407238
8.1820335 -2.8252621 3.5856032
3.8919129 -1.357533 3.7523203
5.5526452 -1.9335866 4.3647957
6.3003411 -2.1915045 4.0054979
8.0184507 -2.7844436 4.0113339
0.069014639 -0.065181732 9.4589128
1.3753803 -0.51900446 9.3455
1.8223909 -0.67451715 9.3658295
2.3995388 -0.86982346 8.2066431
3.6752934 -1.317956 9.2578955
3.4612043 -1.2330345 6.8007827
2.9073813 -1.0311704 4.6033173
3.5012453 -1.2377113 4.5227499
0.49033374 -0.2351561 9.2439804
0.91904324 -0.39897349 9.3014956
2.260263 -0.83045626 9.3085337
3.1697218 -1.1478631 9.2216997
4.3268094 -1.553344 9.5693254
5.5153327 -1.9703202 9.6499624
3.4205086 -1.2172256 4.8822994
5.2216105 -1.8530991 6.0847878
4.5564017 -1.6000289 4.8254075
4.3886008 -1.5385315 3.8321719
5.3971877 -1.888967 3.8336296
7.6328263 -2.6684563 4.3191233
8.0758343 -2.8201804 3.5443966
3.8941927 -1.373594 3.758971
5.5229869 -1.9449017 4.347137
6.3333187 -2.2277882 4.0308299
8.0044003 -2.8109124 4.0092359
0.068786688 -0.065422244 9.4589128
1.3735603 -0.52380222 9.3455
1.8200253 -0.68087441 9.3658295
2.3978894 -0.87870777 8.2114143
3.6798539 -1.3341068 9.2809086
3.4568791 -1.2451088 6.8007827
2.8905201 -1.0365628 4.5826521
3.5150127 -1.2563987 4.5457749
0.48950988 -0.23686627 9.2439804
0.91764498 -0.40217912 9.3014956
2.2502806 -0.83571452 9.2794971
3.1656957 -1.1589204 9.2216997
4.3234076 -1.5691808 9.5738268
5.5133276 -1.9913323 9.6584949
3.4275801 -1.2332388 4.8982592
5.2023473 -1.8667346 6.0700879
4.3795352 -1.5525409 3.8290334
5.3984447 -1.9105855 3.8391128
8.0790539 -2.8529837 3.5500154
3.9139919 -1.3959594 3.7822497
5.5275874 -1.9682363 4.3559661
6.3904881 -2.2729962 4.0713611
7.9389391 -2.819092 3.981961
0.068557903 -0.065661952 9.4589128
1.3717235 -0.52859366 9.3455
1.8176376 -0.68722332 9.3658295
2.3948076 -0.88707268 8.2114143
3.6935177 -1.3536673 9.3269339
3.4525115 -1.2571681 6.8007827
2.8524928 -1.0341763 4.528924
3.5136201 -1.2697502 4.5496125
0.48842108 -0.23844607 9.2389889
0.91623551 -0.40537983 9.3014956
2.2379355 -0.8400296 9.2407818
3.1600127 -1.1693648 9.2170076
4.3219914 -1.5857627 9.5828295
5.5210419 -2.0159326 9.6840897
3.4175909 -1.2431356 4.8902788
5.1862378 -1.8814142 6.059062
4.3667607 -1.565192 3.8227565
5.403553 -1.9336444 3.847337
6.5044427 -2.3250504 3.7023225
7.986094 -2.851548 3.5144281
3.9231448 -1.4146798 3.7955518
5.4636383 -1.9669815 4.3118191
6.3784585 -2.2938304 4.0688276
7.92905 -2.846787 3.981961
0.068328276 -0.065900862 9.4589128
1.369146 -0.53309655 9.3405609
1.8161787 -0.69392747 9.3707247
2.3916965 -0.89542663 8.2114143
3.6887698 -1.3665519 9.3269339
3.4481025 -1.269212 6.8007827
2.8541501 -1.0460641 4.53719
0.48758578 -0.24014954 9.2389889
0.91481489 -0.40857562 9.3014956
2.2255883 -0.84426886 9.2020664
3.1559114 -1.1803882 9.2170076
4.3184705 -1.6015965 9.5873308
2.607326 -0.96229798 4.6161599
3.3877778 -1.2456977 4.8543687
5.1828222 -1.9006734 6.062737
3.6141772 -1.3118166 3.8581526
4.3795681 -1.587056 3.8384485
5.3613825 -1.9396912 3.8226638
6.4837885 -2.343224 3.6953661
8.0807428 -2.9171872 3.5593808
3.9462459 -1.4385962 3.8221557
5.4567389 -1.9860412 4.3118191
6.2893858 -2.286622 4.0181642
7.9318643 -2.8790932 3.9882553
0.06809783 -0.066138975 9.4589128
1.3672769 -0.53787249 9.3405609
1.8146952 -0.70062977 9.3756208
2.3885562 -0.90376985 8.2114143
3.7242279 -1.3944927 9.4281883
3.443651 -1.2812403 6.8007827
2.8557584 -1.0579759 4.5454555
6.1295547 -2.2636609 7.899754
0.48648638 -0.24172078 9.2339964
0.91386878 -0.41198602 9.3064661
2.2132385 -0.84843206 9.1633511
3.151772 -1.1913971 9.2170076
4.3169298 -1.6181892 9.5963326
3.7084146 -1.3834568 6.5443625
6.8716087 -2.5540726 9.7820482
3.596184 -1.3195105 3.8441346
4.4142041 -1.617062 3.8729718
5.331017 -1.9497765 3.8062153
6.4755697 -2.3658426 3.6953661
8.0922861 -2.9533236 3.5687459
4.0112691 -1.4781845 3.8886657
5.1576815 -1.897608 4.0851955
6.2813654 -2.3085623 4.0181642
7.9601126 -2.9208341 4.0071378
0.067895398 -0.066409014 9.463913
1.3653909 -0.54264194 9.3405609
1.8131871 -0.70733017 9.3805161
2.3867812 -0.91263515 8.2161865
3.7577085 -1.4220065 9.5248423
3.4413996 -1.2940962 6.805172
2.8573186 -1.0699116 4.5537219
6.1276207 -2.2872849 7.9074283
0.48563963 -0.24341746 9.2339964
0.9124251 -0.4151735 9.3064661
2.2055752 -0.8543359 9.1439934
3.147594 -1.2023916 9.2170076
4.3153267 -1.6347908 9.6053352
3.6669581 -1.3825905 6.4803734
6.851368 -2.5738046 9.7660885
3.6015873 -1.335776 3.8546481
4.4048824 -1.6311089 3.8698332
5.3241787 -1.9683733 3.8062153
6.4714274 -2.3899667 3.697685
8.1645651 -3.0120397 3.6043336
4.0445724 -1.5065137 3.925246
5.1358719 -1.9099643 4.0734229
7.5744576 -2.8138649 4.8338475
7.9668899 -2.9549153 4.0155301
0.06766317 -0.066645615 9.463913
1.3634884 -0.54740471 9.3405609
1.810707 -0.71365505 9.3805161
2.3835809 -0.92096102 8.2161865
3.7490723 -1.4337188 9.5156374
3.4413385 -1.3078028 6.8139501
2.864094 -1.0838634 4.5702534
6.1106033 -2.3052664 7.8959165
0.48478699 -0.24511118 9.2339964
0.91097027 -0.41835597 9.3064661
2.2014091 -0.86157149 9.1391544
3.1433778 -1.2133715 9.2170076
4.3156934 -1.6521794 9.6188393
2.597106 -0.98954856 4.6161599
6.8423424 -2.5977046 9.7660885
4.2019839 -1.5910765 4.9491625
3.5835452 -1.3433323 3.8406298
6.3239031 -2.3668721 5.5269384
5.3094416 -1.9840188 3.8007321
6.5086966 -2.4295826 3.7231917
8.0323763 -2.9951682 3.5518885
4.0812216 -1.5364091 3.965152
5.1897106 -1.9506345 4.1205134
7.7340889 -2.9039309 4.9402409
8.0287704 -3.0097897 4.0511966
0.067430124 -0.066881388 9.463913
1.3608494 -0.55186868 9.3356218
1.8082049 -0.71997124 9.3805161
2.3803518 -0.92927569 8.2161865
3.7422223 -1.4460925 9.511034
3.4412241 -1.3215246 6.8227286
2.8576646 -1.0928489 4.5661206
6.0935335 -2.3231566 7.8844037
0.48392844 -0.24680191 9.2339964
0.90950441 -0.42153329 9.3064661
2.1995571 -0.86971277 9.1439934
3.1391232 -1.2243365 9.2170076
4.3139606 -1.6688049 9.627841
2.6009376 -1.0014197 4.6289582
6.8276067 -2.6194143 9.7581091
4.2249002 -1.6166387 4.9822388
3.5855041 -1.3583599 3.8476391
6.3156028 -2.388932 5.5269384
5.3063955 -2.0040176 3.8034737
6.4877424 -2.4475965 3.7162354
8.0392246 -3.0297275 3.5593808
4.0653644 -1.5466628 3.9551756
5.2055416 -1.9773504 4.1381726
7.6392674 -2.8987932 4.8870444
7.9587979 -3.0152857 4.0218244
0.067196257 -0.067116357 9.463913
1.3596337 -0.55691028 9.3405609
1.8056806 -0.72627872 9.3805161
2.3770936 -0.93757898 8.2161865
3.7407913 -1.4605676 9.5202398
3.4410558 -1.3352617 6.8315063
2.8039608 -1.0835437 4.4875946
6.0794048 -2.342108 7.8767285
0.48332033 -0.24862249 9.2389889
0.90802747 -0.42470548 9.3064661
2.1965077 -0.87738538 9.1439934
3.1348302 -1.2352866 9.2170076
4.3141913 -1.6862307 9.6413441
2.6071482 -1.0142752 4.6460218
6.8212309 -2.6443205 9.7620983
4.2508516 -1.6436031 5.0189905
3.5840709 -1.3721424 3.8511434
6.2817755 -2.4012344 5.5049691
5.2993679 -2.0225279 3.8034737
6.4791589 -2.470228 3.7162354
8.006938 -3.049521 3.5500154
3.9344783 -1.5126082 3.8354578
5.1721935 -1.9853693 4.1175704
7.8804088 -3.0170848 3.9882553
7.917541 -3.0281413 3.0394382
0.066961564 -0.067350514 9.463913
1.3576814 -0.56165284 9.3405609
1.8031344 -0.73257726 9.3805161
2.3738062 -0.94587082 8.2161865
3.7338531 -1.4728997 9.5156374
3.4386036 -1.3481393 6.8358955
2.7556 -1.0759239 4.4173346
6.0562587 -2.3575015 7.8575411
0.48270535 -0.25044182 9.2439804
0.90653944 -0.42787251 9.3064661
2.1934319 -0.88504732 9.1439934
3.1304991 -1.2462217 9.2170076
4.3143539 -1.7036788 9.6548481
2.5963099 -1.0205072 4.6332235
6.8119588 -2.6681149 9.7620983
4.2577195 -1.6633661 5.0336909
3.5825858 -1.3859317 3.8546481
6.189846 -2.3908904 5.432785
5.3039794 -2.0455277 3.811698
6.4415612 -2.4816813 3.7000036
7.9919186 -3.0757871 3.5481427
3.8560865 -1.4979399 3.7656221
5.142621 -1.9946415 4.0999112
7.7851729 -3.0118232 3.9462941
7.9553733 -3.0744848 3.0575168
0.066726059 -0.067583837 9.463913
1.3557127 -0.56638867 9.3405609
1.8005663 -0.73886693 9.3805161
2.3704901 -0.95415121 8.2161865
3.7286892 -1.4859242 9.5156374
3.4383302 -1.3618982 6.8446741
2.7413571 -1.0814054 4.4008026
6.0599241 -2.3833201 7.8728914
0.48182818 -0.25212523 9.2439804
0.90552133 -0.43126404 9.3114376
2.1903291 -0.89269835 9.1439934
3.1277311 -1.2577854 9.2216997
4.3124247 -1.7203417 9.6638508
2.5975797 -1.031489 4.6417561
6.8026042 -2.6918769 9.7620983
6.3331265 -2.4997191 7.4592996
3.5843692 -1.4010255 3.8616571
6.0726838 -2.3700275 5.3386307
5.3123908 -2.0701025 3.8226638
6.416347 -2.4977238 3.6907284
7.9897742 -3.1070256 3.5518885
6.0161552 -2.3612792 5.837409
5.13939 -2.014055 4.1028547
6.3520651 -2.4867482 4.0941596
7.7407961 -3.0257614 3.9295096
7.8874102 -3.0799065 3.0361512
0.066461585 -0.067783013 9.4589128
1.3537273 -0.57111752 9.3405609
1.7979761 -0.74514753 9.3805161
2.3671451 -0.96241999 8.2161865
3.7234795 -1.4989307 9.5156374
3.4357789 -1.3747817 6.8490624
2.7401793 -1.0920097 4.4049354
6.0396528 -2.3997242 7.8575411
0.4809452 -0.25380561 9.2439804
0.90401042 -0.43442225 9.3114376
2.1871996 -0.90033865 9.1439934
3.1233215 -1.2686957 9.2216997
4.3124504 -1.7378255 9.6773539
2.5988042 -1.0424922 4.6502876
6.7931662 -2.715606 9.7620983
6.296021 -2.5105093 7.4262228
3.572823 -1.4109089 3.8546481
5.3284774 -2.0978246 3.8391128
6.3746099 -2.5071347 3.6721783
7.9141579 -3.1094666 3.5237932
5.987051 -2.3740072 5.8174553
5.1623936 -2.0438864 4.1264
6.3593812 -2.5152481 4.1042924
7.7048593 -3.0427613 3.9169216
7.9337158 -3.1299484 3.0575168
0.066224575 -0.068014592 9.4589128
1.3517255 -0.5758394 9.3405609
1.7953643 -0.75141913 9.3805161
2.3637712 -0.97067702 8.2161865
3.7182245 -1.511919 9.5156374
3.4331794 -1.387664 6.8534517
2.7311304 -1.0994662 4.3966699
6.0401635 -2.4243739 7.8690538
0.48005629 -0.25548288 9.2439804
0.90200913 -0.43734211 9.3064661
2.1840434 -0.90796793 9.1439934
3.1172774 -1.2789353 9.2170076
4.3083744 -1.7536891 9.6818552
2.5927324 -1.0505779 4.6460218
6.7836456 -2.7393019 9.7620983
4.252646 -1.7129276 5.0483918
3.5645638 -1.4220502 3.8511434
6.6562409 -2.6514764 5.8596144
6.0088329 -2.3899462 4.3243523
6.4028702 -2.5440927 3.6930473
7.8989463 -3.1353631 3.52192
5.9683299 -2.3907263 5.8074794
5.1739926 -2.0693996 4.1411157
6.3505621 -2.5374312 4.1042924
7.6225286 -3.0410471 3.8812547
7.86133 -3.133147 3.0345078
0.065986753 -0.068245344 9.4589128
1.3497071 -0.58055431 9.3405609
1.7927303 -0.75768155 9.3805161
2.3603685 -0.97892219 8.2161865
3.711117 -1.5241464 9.511034
3.430532 -1.4005449 6.857841
2.7298825 -1.1100531 4.4008026
6.0494862 -2.4526691 7.8920789
0.47916156 -0.25715703 9.2439804
0.90047705 -0.44048804 9.3064661
2.1808608 -0.91558611 9.1439934
3.1127942 -1.2898088 9.2170076
4.3062534 -1.7703731 9.6908579
2.6083589 -1.0675254 4.6801491
6.7740421 -2.7629645 9.7620983
4.2435007 -1.7264838 5.0447164
3.6191175 -1.4584793 3.9142253
6.6830544 -2.6892254 5.8909993
6.1129727 -2.4561157 4.4038548
6.4227271 -2.5779781 3.7092788
7.6599011 -3.0714707 3.4226496
5.9391809 -2.4031417 5.7875261
5.2154574 -2.1071315 4.1793771
6.3656511 -2.5692639 4.1194911
7.7002683 -3.1032629 3.9253139
7.653224 -3.0812068 2.9605501
0.065748125 -0.068475261 9.4589128
1.3476725 -0.58526212 9.3405609
1.7900746 -0.76393473 9.3805161
2.3569369 -0.98715544 8.2161865
3.7075789 -1.53784 9.5156374
3.4278362 -1.4134241 6.8622303
2.725991 -1.1195753 4.4008026
6.0497866 -2.4774151 7.9035916
0.47851449 -0.25896627 9.2489719
0.89893395 -0.44362861 9.3064661
2.1776514 -0.9231931 9.1439934
3.1066813 -1.3000004 9.2123156
4.3020577 -1.7862287 9.6953592
2.6046166 -1.0766238 4.6801491
6.7643561 -2.7865937 9.7620983
4.2060914 -1.7284001 5.0079651
3.6734595 -1.4953061 3.9773073
6.6772327 -2.7140028 5.8941379
6.3290825 -2.5686429 4.5628595
6.4342155 -2.6087041 3.7208729
7.700695 -3.1190748 3.4451258
5.9203877 -2.4196212 5.7775497
5.1818733 -2.1146333 4.1587744
6.3406768 -2.5849588 4.1093583
7.6767769 -3.1249893 3.9190197
7.6861644 -3.1256917 2.9769847
0.065508701 -0.068704352 9.4589128
1.3456213 -0.58996278 9.3405609
1.787397 -0.77017862 9.3805161
2.3534768 -0.99537665 8.2161865
3.700386 -1.5500176 9.511034
3.4250927 -1.4263016 6.8666191
2.7220664 -1.129084 4.4008026
4.2698865 -1.7659427 5.6087637
0.47760764 -0.26063502 9.2489719
0.89737988 -0.44676378 9.3064661
2.1744156 -0.93078893 9.1439934
3.1021245 -1.3108369 9.2123156
4.2978044 -1.8020767 9.6998606
2.581589 -1.0776708 4.6460218
6.7518058 -2.8090312 9.7581091
4.1843762 -1.7365737 4.9895892
3.6682177 -1.5081198 3.9773073
6.3974576 -2.6224399 4.6176891
7.5653296 -3.0950301 3.3908079
7.1888857 -2.9673879 7.0079846
5.1744604 -2.1327085 4.1587744
6.3316145 -2.6070762 4.1093583
7.4433503 -3.060298 3.8078227
7.5572701 -3.1040609 2.9326103
0.065296054 -0.068966419 9.463913
1.3435537 -0.59465635 9.3405609
1.7846978 -0.77641308 9.3805161
2.349988 -1.0035857 8.2161865
3.700351 -1.5652084 9.5248423
3.4223006 -1.4391773 6.8710079
2.7207038 -1.1396661 4.4049354
4.2636967 -1.7808367 5.6087637
0.47669494 -0.26230058 9.2489719
0.89629108 -0.45013326 9.3114376
2.1711533 -0.93837339 9.1439934
3.100704 -1.3230119 9.2216997
4.2934923 -1.8179166 9.7043619
2.5177319 -1.0613465 4.5393734
6.7419596 -2.8325822 9.7581091
4.1595292 -1.7433065 4.9675379
3.6299949 -1.5072389 3.9422617
5.2594705 -2.1806395 4.6732779
6.2260013 -2.5775764 4.5025477
7.4902105 -3.0948639 3.3627121
7.4128323 -3.0901577 7.2341185
5.1707158 -2.1523111 4.1617179
6.2508297 -2.5993679 4.0637612
6.984129 -2.9000306 3.5833311
7.5769215 -3.1430874 2.9441149
0.065054923 -0.069193929 9.463913
1.3414699 -0.59934258 9.3405609
1.7819767 -0.78263807 9.3805161
2.3464706 -1.0117826 8.2161865
3.6840851 -1.5735109 9.4972277
3.4194605 -1.4520508 6.8753972
2.7167091 -1.1491561 4.4049354
4.2367816 -1.7869892 5.5819011
0.47602844 -0.2641038 9.2539635
0.8947143 -0.45325914 9.3114376
2.1678646 -0.9459464 9.1439934
3.096067 -1.3338274 9.2216997
4.2931252 -1.8354602 9.717865
2.4996138 -1.0639991 4.5137777
6.7320313 -2.8560989 9.7581091
5.9048839 -2.4991045 7.029305
3.6247115 -1.5199007 3.9422617
5.3200421 -2.2275484 4.7329087
6.2015343 -2.5928416 4.4915814
8.487112 -3.5449793 4.9011421
7.5948782 -3.1691937 3.4132841
5.6091003 -2.361244 5.5015335
5.1594453 -2.1687808 4.1587744
6.170176 -2.5911274 4.0181642
6.6014609 -2.7681887 3.3966045
7.5659037 -3.1695166 2.9441149
0.064840332 -0.069454595 9.4689131
1.3393695 -0.60402155 9.3405609
1.7792339 -0.78885359 9.3805161
2.3429244 -1.0199672 8.2161865
3.6839519 -1.5886823 9.511034
3.4209745 -1.4668096 6.8885646
2.7126811 -1.1586323 4.4049354
0.47510365 -0.26576385 9.2539635
0.89312673 -0.45637953 9.3114376
2.1645494 -0.9535079 9.1439934
3.105634 -1.350822 9.2639351
4.2926879 -1.8530232 9.731369
2.5030727 -1.0758077 4.5265756
6.7220201 -2.8795807 9.7581091
5.9148293 -2.5276949 7.0513568
3.5963964 -1.5228101 3.9177299
5.3588395 -2.2658112 4.7737088
6.2386718 -2.6339903 4.5244794
8.4787674 -3.5763049 4.903461
7.5624094 -3.1866846 3.4039192
5.6111321 -2.3851907 5.5115094
5.1332402 -2.1788809 4.1440587
6.1610937 -2.6126494 4.0181642
6.5917578 -2.7912152 3.3966045
7.5200009 -3.1811886 2.9309669
0.064597487 -0.069680512 9.4689131
1.337253 -0.60869312 9.3405609
1.7764695 -0.79505944 9.3805161
2.3407161 -1.0287399 8.2209578
3.6837575 -1.6038719 9.5248423
3.4290206 -1.4844515 6.9148989
2.7112043 -1.1692086 4.4090686
5.7141213 -2.4572594 7.5236778
0.47417307 -0.26742065 9.2539635
0.89152819 -0.45949435 9.3114376
2.1612079 -0.96105778 9.1439934
3.1072199 -1.3644301 9.2827063
4.2921805 -1.8706055 9.7448721
2.5208342 -1.0938829 4.5649691
6.7119274 -2.9030273 9.7581091
4.1348205 -1.7840824 4.9601879
3.6008961 -1.5395607 3.9282434
5.4475489 -2.3257685 4.8584471
6.2717509 -2.67379 4.5546355
8.4988365 -3.6197662 4.9220114
7.5256443 -3.202172 3.3926806
5.5615993 -2.3870907 5.4716039
5.103312 -2.187232 4.1264
6.140048 -2.6290493 4.0105648
6.6028399 -2.8231292 3.407095
7.5088506 -3.2074189 2.9309669
0.064353868 -0.069905572 9.4689131
1.3351201 -0.61335731 9.3405609
1.7727555 -0.80083627 9.3756208
2.3371108 -1.0369042 8.2209578
3.4435689 -1.5050449 6.954401
2.7071064 -1.1786654 4.4090686
5.7143297 -2.4810202 7.5351906
0.47323674 -0.2690742 9.2539635
0.8899188 -0.46260357 9.3114376
2.15784 -0.96859598 9.1439934
3.137145 -1.3906552 9.3859472
4.3015656 -1.8925909 9.7808828
2.5552213 -1.1194216 4.6332235
6.7017536 -2.9264386 9.7581091
4.1409993 -1.8039205 4.9748883
3.5660322 -1.5393994 3.8967025
5.4822898 -2.3632598 4.8961086
6.2892637 -2.7072389 4.5738258
8.3925524 -3.6091592 4.868679
7.3653407 -3.164372 3.3271248
5.5840664 -2.4198518 5.5015335
5.0733886 -2.195401 4.1087408
6.1189628 -2.645334 4.002965
6.6179452 -2.8569529 3.419683
7.4152236 -3.1980782 2.89974
0.06410946 -0.070129782 9.4689131
1.332971 -0.61801398 9.3405609
1.7690228 -0.80659693 9.3707247
2.3348393 -1.0456662 8.2257299
3.4886906 -1.539294 7.0553493
2.7003994 -1.1869754 4.4049354
5.6880212 -2.4932311 7.512166
0.47204456 -0.27058011 9.2489719
0.88829863 -0.46570715 9.3114376
2.1544459 -0.97612232 9.1439934
3.1669247 -1.4171057 9.4891882
4.2849851 -1.9031758 9.7583761
2.5727646 -1.1378288 4.671617
6.6887398 -2.9485986 9.7541189
4.1129546 -1.8088108 4.9491625
3.5867908 -1.563237 3.9247389
6.4024925 -2.7825096 4.6615524
8.3473969 -3.6243191 4.8501287
7.3840213 -3.2029765 3.3402359
5.541378 -2.4243627 5.4682784
5.0916224 -2.2244246 4.129343
6.0859866 -2.6563303 3.987766
6.6079326 -2.8800364 3.419683
7.6031723 -3.3106627 2.9753413
0.063864268 -0.070353143 9.4689131
1.3308055 -0.6226632 9.3405609
1.7652715 -0.81234121 9.3658295
2.3311751 -1.05381 8.2257299
3.5336149 -1.5738764 7.1562986
2.6962397 -1.1963942 4.4049354
0.47109717 -0.27222618 9.2489719
0.88666755 -0.46880504 9.3114376
2.1510255 -0.9836368 9.1439934
3.1713943 -1.4324142 9.5173445
4.2803025 -1.9190125 9.7628775
3.4475281 -1.539151 6.2457471
6.6784062 -2.9719286 9.7541189
4.0787292 -1.8107756 4.9160857
3.5813122 -1.5757476 3.9247389
5.7364831 -2.5204725 5.1346312
6.2893558 -2.75948 4.587533
8.330637 -3.6516559 4.8478098
7.3727956 -3.2287321 3.3402359
5.5089736 -2.4331315 5.4449997
5.1134124 -2.255233 4.1528883
