# .PCD v0.7 - Point Cloud Data file format
VERSION 0.7
FIELDS x y z
SIZE 4 4 4
TYPE F F F
COUNT 1 1 1
WIDTH 1604
HEIGHT 1
VIEWPOINT 0 0 0 1 0 0 0
POINTS 1604
DATA ascii
3.2852464 9.2110653 14.435603
3.6047127 10.140241 12.961422
0.51797318 1.0705999 20.405329
0.86657816 1.9834603 20.144344
2.1488328 5.8160014 23.909077
3.0146408 8.278676 24.013298
2.5765529 7.1374917 15.753994
3.4699609 9.6968117 13.712223
2.9298856 8.2101421 9.5284176
2.8987963 8.2088947 8.6348486
5.2293553 14.833191 12.764219
4.4332733 12.596107 8.8395472
4.4418993 12.634674 7.0970454
7.7250695 21.997862 9.5081329
8.0966339 23.081669 7.2797971
6.6891766 19.090654 3.9320018
5.8779807 16.794296 1.6903423
4.8839402 13.807258 8.6918793
7.172677 20.334009 7.5936017
7.1542435 20.304317 5.2829471
5.773489 16.394747 2.516485
6.1271796 17.418488 0.83852369
0.11216885 0.11078806 16.65864
1.1245983 2.9323425 19.964905
1.7515451 4.6558533 23.938921
2.614614 7.0954442 24.22142
2.3161485 6.3536587 15.991389
2.4981906 6.8977642 13.511685
3.2992413 9.1492453 14.357076
3.6552649 10.169825 13.015146
0.52170712 1.0687853 20.405329
0.87392724 1.9813986 20.154287
2.1691213 5.808465 23.909077
3.0488861 8.2826777 24.055534
2.6007054 7.1264091 15.749492
3.5027626 9.6818066 13.708233
2.9838398 8.2700214 9.609271
2.9538164 8.2726154 8.7119493
5.2235947 14.653529 12.626127
4.5122638 12.679039 8.908083
4.4874597 12.623266 7.0993643
7.7273464 21.761068 9.4182272
6.7656183 19.094971 3.9375975
5.9365678 16.773676 1.6903423
3.1989675 8.9198217 8.5210876
4.7819877 13.355717 10.412991
4.9306555 13.786068 8.6893463
10.295983 28.834932 14.241438
7.2214026 20.246578 7.5705924
5.8389883 16.397821 2.5199382
6.1946406 17.415821 0.83932978
0.11252242 0.11036671 16.653639
1.1348273 2.9283991 19.964905
1.7681482 4.6506624 23.943815
2.6393659 7.0862746 24.22142
2.3430417 6.358367 16.023607
2.5107248 6.8575158 13.450237
3.3311579 9.1376734 14.357076
3.7060673 10.199179 13.068871
0.52543467 1.0669577 20.405329
0.88105536 1.9788228 20.15926
2.187608 5.796154 23.889719
3.0741684 8.2622805 24.027378
2.6248121 7.1152458 15.744991
5.0591426 13.780336 24.081617
3.5323966 9.6582012 13.692272
3.0277915 8.3009596 9.6570473
3.004472 8.3226318 8.7750311
4.501339 12.489425 10.786992
4.5819778 12.734032 8.9574299
4.5359907 12.62003 7.1063209
7.8032598 21.733963 9.4182272
8.0454302 22.433058 7.0950828
6.8421717 19.098984 3.9431934
6.0118618 16.799738 1.694813
3.2249928 8.8945589 8.5077848
4.8285789 13.338943 10.412991
4.9684868 13.740395 8.6716137
10.381163 28.756128 14.220458
7.3112559 20.274555 7.5903153
8.2858315 23.002239 5.9875102
5.9029016 16.395977 2.522701
6.2638497 17.417599 0.84033746
0.11290698 0.10997326 16.653639
1.1450423 2.9244199 19.964905
1.7821798 4.6387591 23.914446
2.6646116 7.0784163 24.226192
2.3652222 6.3501496 16.023607
2.5354781 6.8509564 13.454626
3.3698454 9.1444721 14.386006
3.7405412 10.183171 13.065035
0.88817614 1.9762214 20.16423
2.2060349 5.7837849 23.870361
3.1187842 8.2934952 24.149389
2.6496329 7.1060405 15.744991
5.0999546 13.743032 24.047489
3.5754929 9.6712484 13.728183
3.0731688 8.3348713 9.7085009
3.0347278 8.315444 8.7785349
4.5608978 12.517522 10.824653
4.6521301 12.788692 9.0067759
4.5845537 12.616611 7.113277
8.141674 22.454445 7.1105928
6.9188342 19.102695 3.9487889
6.0840216 16.816114 1.6983896
3.2688706 8.9183044 8.5410404
4.9445648 13.511798 10.560148
5.0090189 13.702724 8.658947
8.3743906 22.996012 5.9933715
5.9685664 16.398537 2.5261545
6.3331451 17.419104 0.84134513
0.11325749 0.10954957 16.64864
1.1552434 2.9204051 19.964905
1.7987299 4.6334596 23.91934
2.6893036 7.0690718 24.226192
2.393569 6.3583102 16.065029
2.5677683 6.8644962 13.498517
3.4154968 9.1695719 14.443868
3.7738333 10.164042 13.05736
0.55336553 1.1040133 21.194012
0.89528942 1.9735942 20.169201
2.2230458 5.7678394 23.836485
3.1403577 8.2632008 24.093077
2.6744215 7.0967479 15.744991
5.1524758 13.737355 24.068819
3.5923538 9.6135473 13.664342
3.0939565 8.301856 9.6827745
4.6350508 12.564037 13.239822
4.6180172 12.53805 10.856038
4.7429237 12.897959 9.0945024
4.6331482 12.613006 7.1202335
7.7871175 21.221979 9.2215595
6.9956069 19.106104 3.9543848
6.1512365 16.818161 1.7006251
3.3155479 8.9488544 8.580946
13.485524 36.456253 28.386871
8.4630051 22.989445 5.9992332
6.0326114 16.396194 2.5289173
6.4025273 17.420336 0.84235275
0.1136392 0.10915355 16.64864
1.1654307 2.9163549 19.964905
1.8130335 4.6224132 23.894865
2.7144985 7.0610337 24.230965
2.4185276 6.3572192 16.083439
2.6332152 6.9652619 13.713582
3.430629 9.1128235 14.373608
3.8059111 10.141805 13.045847
0.55917507 1.1059366 21.268885
0.90239531 1.9709417 20.174173
2.2445345 5.7635584 23.851006
3.1685641 8.2505779 24.088383
2.6999521 7.0894032 15.749492
5.2031698 13.726603 24.081617
3.6226957 9.5924921 13.652372
3.145622 8.351284 9.7526016
4.7922664 12.851859 13.558736
5.4344711 14.597406 12.64182
4.8185105 12.963633 9.1520748
4.6802316 12.605062 7.1248713
7.8611493 21.194668 9.2215595
8.0482416 21.722322 6.8990879
7.0724878 19.109211 3.9599807
6.2340822 16.861979 1.7068841
3.346765 8.9372263 8.580946
13.616943 36.420315 28.3957
7.480309 20.081829 7.5475836
8.5533733 22.987099 6.0062671
6.0984387 16.398243 2.5323706
6.4719963 17.421297 0.84336042
0.11401952 0.10875621 16.64864
1.1756035 2.9122689 19.964905
1.8299079 4.6179495 23.904655
2.7391295 7.0515156 24.230965
3.7033534 9.6329136 24.372585
2.6874297 7.0343328 13.8672
3.4604161 9.0955315 14.365342
3.8401523 10.125461 13.042009
0.56395268 1.105777 21.303827
0.90949351 1.9682636 20.179144
2.2669406 5.7615366 23.875202
3.1811123 8.1976395 23.966372
2.7254643 7.0819669 15.753994
5.2501197 13.70592 24.077351
3.1920686 8.470088 8.9747906
5.4785385 14.560132 12.626127
4.7828541 12.731445 9.0012932
4.7288723 12.601089 7.1318274
7.9123015 21.106325 9.1953373
8.1425238 21.743515 6.9145985
7.1477537 19.107412 3.9646437
6.2807012 16.807461 1.7037545
3.3726552 8.9115219 8.5676441
13.755422 36.402809 28.419247
7.5453711 20.042337 7.5426531
8.6455374 22.988947 6.0144734
6.1643543 16.400034 2.5358241
6.5415492 17.421984 0.84436804
0.11443144 0.10838611 16.653639
1.1854684 2.907428 19.959965
1.8463949 4.6124787 23.90955
2.7642729 7.0433016 24.235737
3.7355411 9.6162853 24.36338
2.7369823 7.0897021 13.994484
3.4901249 9.078145 14.357076
3.8720324 10.103016 13.030497
0.57045728 1.1089324 21.40366
0.9170351 1.966526 20.194061
2.287967 5.7559247 23.88488
3.1933296 8.1447144 23.84436
2.7509573 7.074439 15.758494
5.298872 13.689943 24.081617
3.7828224 9.8087492 13.995515
3.3292122 8.6550264 10.131145
3.2254231 8.4688921 8.9853039
5.4546223 14.34446 12.456651
4.8168769 12.687308 8.9821024
4.7759709 12.59279 7.1364651
7.9596486 21.009212 9.1653681
8.1640377 21.571392 6.8694777
7.2317786 19.128292 3.9739697
6.3358126 16.776115 1.7028605
3.4197471 8.9415426 8.6075497
13.911246 36.430096 28.478109
7.6136055 20.011461 7.5410094
8.7360916 22.985889 6.0215068
6.2285972 16.396933 2.5385866
6.6111856 17.4224 0.84537578
0.11475715 0.10797759 16.64864
1.1948075 2.9027624 19.955027
1.8643515 4.6129384 23.943815
2.7876141 7.0340962 24.235737
3.7624147 9.5911131 24.331163
2.7639575 7.0895128 14.01204
3.5161359 9.0560284 14.340544
3.9078279 10.096099 13.038172
0.57546413 1.1095957 21.453577
0.92423272 1.9649208 20.208975
2.3079784 5.7506385 23.89456
3.2201707 8.1378498 23.853745
2.7787364 7.079947 15.790003
5.3418541 13.673229 24.081617
3.8092463 9.7855844 13.979554
3.384609 8.7172108 10.215672
3.2304428 8.3982372 8.9222212
5.4505267 14.191853 12.340528
4.9771962 12.979699 9.198679
4.8224578 12.589293 7.1434216
8.0554209 21.062044 9.1990833
8.2300529 21.541155 6.8680673
7.2969232 19.108795 3.9749026
6.3967342 16.768972 1.7042016
3.5500219 9.1954784 8.8602877
5.1066113 13.247993 10.421821
7.691781 20.01696 7.5525141
8.8227186 22.98402 6.0285411
6.2889438 16.400402 2.5420401
6.6748228 17.424871 0.84638339
0.11515214 0.10755627 16.64864
1.2051402 2.8976464 19.950089
1.8727752 4.5853376 23.836123
2.8133767 7.0238318 24.235737
3.7968223 9.5754433 24.326559
2.7899234 7.0793347 14.01204
3.5493042 9.0430803 14.340544
3.9448056 10.081708 13.038172
0.57931763 1.106611 21.438601
0.93268657 1.9632829 20.228861
2.3295696 5.7405696 23.889719
3.2476814 8.1120424 23.816204
2.8127592 7.0828977 15.821511
5.3976574 13.6541 24.085884
3.3811426 8.6057377 10.101743
3.2599096 8.3830166 8.9187174
5.4686937 14.084697 12.265204
4.9703245 12.821016 9.0999861
4.8733668 12.583925 7.1503778
8.2014694 21.199581 9.272131
8.3161621 21.518343 6.8708873
7.3773217 19.098965 3.9786327
6.4825888 16.800041 1.7095667
3.666791 9.390461 9.0598183
5.1559734 13.224521 10.418877
8.9197025 22.97263 6.0344024
6.3618951 16.393492 2.5448029
6.7537456 17.421227 0.84739101
0.11552688 0.10715365 16.64864
1.2149465 2.8927054 19.945148
1.8876045 4.5759482 23.821436
2.8378773 7.0139685 24.235737
3.8309505 9.5639458 24.331163
2.8190477 7.0806789 14.033986
3.5704761 9.0044775 14.299214
3.9858651 10.08278 13.05736
0.58379471 1.1062148 21.468552
0.93988359 1.9616209 20.243774
2.3481166 5.7316499 23.88488
3.2693899 8.0884275 23.77866
2.8394723 7.081614 15.839517
5.4438734 13.638549 24.090151
3.6837585 9.2618141 13.27332
3.1983778 8.061923 9.4806404
5.5178251 14.065521 12.265204
4.920496 12.562197 8.9300156
4.9156489 12.562713 7.1480594
8.2636051 21.140598 9.2590199
8.4453163 21.627708 6.9145985
7.4209785 19.024057 3.9683743
6.550921 16.810932 1.7126962
4.8286338 12.239562 11.800031
5.1472926 13.067294 10.30998
8.5491009 21.781227 8.2329273
9.0064802 22.970078 6.0414367
6.4252572 16.395357 2.5482562
6.8205857 17.421995 0.84839869
0.11590021 0.10674974 16.64864
1.2247331 2.8877318 19.940208
1.9000413 4.5608726 23.777378
2.8623433 7.0040193 24.235737
3.8657773 9.5541363 24.340368
2.8437467 7.0707955 14.033986
3.595607 8.976285 14.274416
4.0210361 10.068805 13.05736
0.58860439 1.1059527 21.503494
0.94765431 1.9602476 20.26366
2.3719542 5.7327099 23.923595
3.2989082 8.080162 23.788046
5.4924226 13.621881 24.094416
3.7149429 9.2461042 13.269331
3.1924474 7.965745 9.3814106
3.4117701 8.5953951 9.1675406
5.5927033 14.111308 12.321697
4.953546 12.517729 8.9108248
4.9399285 12.496042 7.1202335
11.329226 28.687555 12.549939
8.5207605 21.598097 6.9145985
7.5161576 19.071157 3.9832962
6.622333 16.8204 1.7158258
4.8312397 12.122047 11.703591
5.0912476 12.79387 10.109845
8.6285601 21.760031 8.2362137
9.086606 22.938498 6.0414367
6.4897413 16.391249 2.551019
6.8923841 17.425957 0.84960788
0.11614212 0.10648649 16.64864
1.2309768 2.8842309 19.935268
1.9072348 4.5490384 23.738216
2.8770061 6.9980097 24.235737
3.8872514 9.5496368 24.349571
2.8564184 7.0631022 14.029596
3.605474 8.9510937 14.245486
4.014081 9.9956303 12.972934
0.59258008 1.1087402 21.578369
0.95166427 1.9606743 20.283548
2.3852983 5.7394238 23.96715
3.3155258 8.0845509 23.816204
4.3641195 10.73176 24.018221
5.5124164 13.616617 24.098682
3.712714 9.2080221 13.221449
3.1895268 7.9303865 9.3446589
3.4405262 8.610815 9.1920719
5.0246081 12.619987 8.9903278
4.9513545 12.448623 7.0993643
11.384282 28.665752 12.549939
8.6842718 21.889364 7.0118904
7.6052446 19.189125 4.0103421
6.6711125 16.849327 1.7198495
3.7428012 9.348361 9.0498419
6.2666583 15.675827 12.376079
9.1419783 22.984503 6.0566769
6.5217676 16.405178 2.5544724
6.9228845 17.440739 0.8506155
0.11642402 0.10611349 16.643639
1.239529 2.8805656 19.935268
1.9215168 4.5452347 23.748009
2.8995485 6.9903145 24.240507
3.9187183 9.5409927 24.358778
2.8780141 7.0491567 14.020818
3.6287768 8.9234495 14.220689
4.0460014 9.9792957 12.969097
0.59548545 1.1048872 21.543427
0.95954835 1.9586087 20.298462
2.4063184 5.7306423 23.96715
3.3557055 8.0978508 23.891289
4.4086056 10.722978 24.036226
5.5656471 13.597764 24.102947
3.7257485 9.1344528 13.137659
3.234112 7.9489202 9.3814106
3.4953876 8.6733389 9.2691727
5.0809364 12.626632 11.056899
5.0611124 12.596379 8.9848452
4.9656868 12.371341 7.0645823
11.475826 28.619236 12.546192
8.7621641 21.873808 7.0161209
7.7272382 19.309738 4.0401859
6.7361937 16.850233 1.7220849
3.8442636 9.5007153 9.209466
6.4194632 15.888858 12.561499
8.730031 21.683889 8.2247095
9.2446747 22.985306 6.0660553
6.593946 16.402988 2.5579257
7.0040102 17.440624 0.85182476
0.1167601 0.10567866 16.638639
1.249267 2.875509 19.93033
1.9373709 4.5384998 23.748009
2.9239316 6.9801507 24.240507
3.9490047 9.5200377 24.340368
2.9007766 7.0346389 14.01204
3.6524196 8.8925076 14.191759
4.0468001 9.8820591 12.861648
0.59975326 1.1035624 21.558403
0.96708858 1.9566805 20.313375
2.4253256 5.719893 23.957472
3.420594 8.1736412 24.149389
4.4460092 10.707522 24.036226
5.6140742 13.580664 24.107212
3.7736797 9.1603966 13.193519
3.2876115 8.0002975 9.4549141
3.5054724 8.6115389 9.2166033
5.1337738 12.630452 11.075729
5.4950261 13.539509 9.6647282
4.9622359 12.238987 6.9996557
8.8492603 21.869768 7.024581
7.8093228 19.319082 4.047647
6.8266702 16.905115 1.7296851
3.8081872 9.3178816 9.0465164
6.4382319 15.776534 12.490862
8.8056688 21.653284 8.2247095
9.3413172 22.993425 6.0766058
6.6604786 16.402813 2.561379
7.0761142 17.443846 0.8530339
0.11712828 0.10527045 16.638639
1.2592968 2.8711309 19.93033
1.9527984 4.5307746 23.743113
2.9488609 6.9712772 24.245281
3.9746628 9.4881754 24.294342
2.9225521 7.0178375 13.998872
3.684516 8.8823023 14.195891
4.0763698 9.8560247 12.846297
0.60387993 1.1019681 21.568386
0.97510326 1.9556775 20.338232
2.4447825 5.710237 23.952633
3.4571657 8.1807261 24.205702
4.4740977 10.669855 23.986713
5.6624508 13.563391 24.111479
3.8091054 9.1555157 13.20549
3.3155177 7.9887724 9.4549141
3.5111008 8.5398788 9.1535215
5.1615715 12.572848 11.041207
5.5834899 13.620838 9.7360058
4.9713526 12.139603 6.9532804
8.9436951 21.88315 7.0386815
7.8748536 19.287157 4.0467138
6.8799968 16.867352 1.728344
3.8592098 9.3493986 9.0897474
6.4408932 15.626904 12.390795
8.8471117 21.539423 8.1934824
9.4344387 22.992155 6.0848122
6.7252107 16.397791 2.5641418
7.1483274 17.446779 0.8542431
0.11749503 0.10486095 16.638639
1.2689965 2.8660069 19.92539
1.9686017 4.5239301 23.743113
2.9731772 6.9609413 24.245281
3.9902515 9.4328604 24.188484
2.9442458 7.0009708 13.985705
3.73507 8.9161053 14.270284
4.1169257 9.8565235 12.865484
0.60814261 1.1006109 21.583361
0.98168427 1.951786 20.333261
2.4627047 5.697053 23.933273
3.4978926 8.1971779 24.290173
4.5155597 10.664194 24.009218
5.7097607 13.543542 24.111479
3.8527129 9.1699429 13.24539
3.3407624 7.9708972 9.4475632
3.5149047 8.4649925 9.086936
5.1785932 12.490035 10.984715
5.6693892 13.693989 9.8018017
4.9933805 12.073054 6.9254546
9.1243563 22.104546 7.1190534
7.9589853 19.300423 4.0551076
6.942627 16.852442 1.729238
3.9191189 9.401351 9.1529322
6.4317164 15.451331 12.270124
8.8987217 21.451704 8.1721172
9.5313864 22.999495 6.0953631
6.7918844 16.397091 2.5675952
7.2206459 17.449419 0.8554523
0.11786035 0.10445017 16.638639
1.2789929 2.8615596 19.92539
1.9839717 4.516099 23.738216
2.9980483 6.9518905 24.250051
4.0200844 9.4116879 24.170074
2.965857 6.9840369 13.972538
3.769459 8.9107885 14.282682
0.61324835 1.1007494 21.628284
0.98824984 1.947872 20.328291
2.4855931 5.6953344 23.962311
3.527168 8.1865034 24.294867
4.5519013 10.646367 24.004719
5.7570019 13.523529 24.111479
3.8846984 9.1564388 13.24539
3.3606377 7.940455 9.4255123
3.5058167 8.3605862 8.9888086
5.18608 12.385715 10.909391
5.7413502 13.73198 9.8429232
5.0235415 12.026937 6.9092231
9.1940765 22.05485 7.1134133
8.0357504 19.295198 4.0597711
6.9975843 16.818909 1.728344
3.9519117 9.3876133 9.1529322
5.2857962 12.574535 10.015664
8.9735479 21.420511 8.1721172
9.6153641 22.975052 6.0977077
6.8586354 16.396128 2.5710487
7.2930689 17.451765 0.85666144
0.11822423 0.10403813 16.638639
1.2889738 2.8570778 19.92539
1.9997238 4.5091457 23.738216
3.0222967 6.9413834 24.250051
2.9854984 6.962636 13.950593
3.8082783 8.9156904 14.311613
0.61652011 1.0975959 21.608318
0.99528623 1.944885 20.333261
2.506979 5.690074 23.97683
3.5564108 8.1757231 24.299559
4.5898991 10.632411 24.009218
5.805203 13.505747 24.115746
3.9130771 9.1345129 13.23342
3.5989459 8.4993591 9.1500177
4.6183982 10.922777 9.6445932
5.8103924 13.761934 9.878562
5.0551634 11.984839 6.8953104
8.1163845 19.298727 4.0662994
7.0543218 16.789789 1.7278969
3.9422958 9.2741108 9.0564928
5.2870154 12.45555 9.9361982
9.055624 21.406456 8.1786909
9.7068577 22.968214 6.1047421
6.9273877 16.399454 2.5751927
7.3655972 17.453817 0.85787064
0.11862076 0.10365202 16.643639
1.298939 2.852561 19.92539
2.0154514 4.5021381 23.738216
3.0465081 6.9307909 24.250051
4.0357747 9.268755 23.875513
3.0050268 6.9411831 13.928647
3.8638945 8.9591894 14.402538
6.6701598 15.510488 20.291054
0.62049025 1.0956882 21.61331
1.000356 1.9380839 20.298462
2.5288692 5.6858821 23.996187
3.584234 8.1616802 24.294867
4.6269851 10.616324 24.009218
5.8554263 13.492579 24.128544
3.9293873 9.0848455 13.181549
3.6752152 8.5175591 10.13482
3.6370044 8.5064201 9.1710443
5.2770066 12.359947 10.918806
5.0882878 11.946742 6.8837161
8.1952209 19.297405 4.0718946
7.1109409 16.760477 1.7274498
3.902483 9.0921707 8.8935432
5.3575306 12.500177 9.9862328
9.786972 22.934191 6.1047421
6.9943042 16.397947 2.5786459
7.4362702 17.450981 0.85887831
0.11898185 0.10323732 16.643639
1.3088884 2.8480096 19.92539
2.0311544 4.4950757 23.738216
3.0706825 6.9201145 24.250051
4.0657458 9.2492466 23.861706
3.0378706 6.9504023 13.968149
4.0445619 9.2887936 14.952221
6.7204313 15.47829 20.279543
0.62431115 1.0935156 21.61331
1.0095788 1.9393072 20.348175
2.5476716 5.674727 23.986507
3.6127017 8.1491184 24.294867
4.6640148 10.600108 24.009218
5.9077215 13.484001 24.149874
3.9562519 9.0600271 13.165589
3.759084 8.6289997 10.281826
4.6575603 10.804485 9.5692701
5.4500222 12.661 9.1219177
5.1282086 11.924839 6.8813972
8.274148 19.295771 4.0774908
7.1831293 16.767595 1.7305793
3.9045043 9.0099754 8.827034
5.4027362 12.485107 9.9891758
6.8073297 15.745991 10.166189
9.5526867 22.149223 8.4843836
7.0632544 16.400724 2.5827901
7.5089879 17.452454 0.86008751
0.11934149 0.10282137 16.643639
1.3188219 2.8434234 19.92539
2.0468328 4.487958 23.738216
3.0948195 6.9093537 24.250051
4.0964222 9.2314262 23.852501
3.0659811 6.9485202 13.985705
4.1517024 9.4446421 15.224996
6.7744198 15.454738 20.279543
0.62826878 1.0915797 21.618301
1.0165902 1.9362433 20.353148
2.5627949 5.6554956 23.942953
3.6411257 8.1364584 24.294867
4.7018714 10.585752 24.013721
5.9621382 13.479993 24.179735
3.7741687 8.5816889 10.241399
3.7817948 8.6769753 9.3813181
5.2528815 12.069411 10.695976
5.5041838 12.664907 9.1383667
5.1645103 11.894676 6.8744411
8.3531628 19.293819 4.0830865
7.2633624 16.7927 1.7354971
3.928448 8.979188 8.8104057
5.4511395 12.477284 9.9980049
6.8674259 15.733987 10.173789
9.6770744 22.223984 8.5254717
9.7684593 22.455246 5.9968882
7.1303334 16.398676 2.5862436
7.5798149 17.449045 0.86109513
0.11969968 0.10240417 16.643639
1.3287393 2.8388023 19.92539
2.0624864 4.4807858 23.738216
3.1201489 6.9012289 24.259596
4.1358089 9.2331181 23.893923
3.0950897 6.9487143 14.00765
4.1937761 9.4506693 15.258059
6.1395965 13.87459 18.241827
0.63193011 1.0891305 21.61331
1.0243416 1.9345669 20.373035
2.577292 5.6350842 23.89456
3.6695049 8.1236992 24.294867
4.7387938 10.569276 24.013721
6.0176616 13.47815 24.213861
4.5070043 10.127866 14.753618
3.771086 8.4940987 10.153195
3.8149326 8.6702499 9.3883266
4.6420627 10.565023 9.3872395
5.5550795 12.660934 9.149332
5.2024422 11.868462 6.8698034
8.4322634 19.29155 4.0886822
7.3438578 16.817444 1.7404151
3.9597673 8.9654207 8.8104057
5.4767179 12.4175 9.9656305
6.9292583 15.725698 10.183921
9.7469893 22.172775 8.5188971
9.8194208 22.358706 5.9804759
7.1994753 16.400892 2.5903878
7.6507096 17.445358 0.86210281
0.12005641 0.10198572 16.643639
1.3386405 2.834147 19.92539
2.0785437 4.4744825 23.743113
3.1398818 6.8807902 24.226192
4.1897454 9.2666883 24.01819
3.1134338 6.9247618 13.981317
4.1968293 9.3692007 15.150602
6.1879902 13.853074 18.241827
0.63587403 1.087167 21.618301
1.0313395 1.9314494 20.378006
2.598 5.6283364 23.90424
3.6985552 8.1124105 24.299559
4.776556 10.554654 24.018221
6.0743175 13.478462 24.252254
4.5843101 10.205525 14.889279
3.7715971 8.4159164 10.076017
3.8857093 8.7481384 9.486454
4.6868043 10.566545 9.4029322
5.5992408 12.641466 9.149332
5.2384615 11.838077 6.8628469
8.5134344 19.293457 4.0952101
7.4266229 16.846388 1.74578
3.9910383 8.9515438 8.8104057
5.4805727 12.309685 9.8949947
6.9771018 15.685659 10.173789
9.8304262 22.173214 5.9406171
7.2667127 16.3983 2.5938411
7.7236938 17.445957 0.86331201
0.12041168 0.10156602 16.643639
1.3485253 2.8294568 19.92539
2.0941498 4.4671998 23.743113
3.157012 6.8548741 24.1737
4.2236886 9.2555618 24.027397
3.1296685 6.8964047 13.946204
4.1703811 9.2237244 14.939821
6.2336745 13.825546 18.234154
0.63922429 1.0841955 21.603327
1.0385811 1.9287761 20.387949
2.6208155 5.6260691 23.933273
3.7268503 8.0994511 24.299559
4.8106565 10.531976 24.004719
6.1310472 13.478542 24.290648
4.6460366 10.247093 14.973071
3.5284865 7.8003783 9.3593597
3.9001725 8.6987257 9.4479036
6.7100449 15.007626 10.862749
5.2761388 11.81163 6.8582096
8.5947199 19.295031 4.1017385
7.5036054 16.861311 1.7498037
4.0253253 8.9443674 8.8170567
5.4671731 12.165129 9.7949266
9.9117374 22.147638 5.9429617
7.3340192 16.395435 2.5972943
7.7967744 17.446255 0.86452115
0.12076548 0.10114508 16.643639
1.3583938 2.8247325 19.92539
2.1097305 4.4598627 23.743113
3.1677077 6.8153858 24.07349
4.2837591 9.301095 24.183882
3.1517277 6.881083 13.937426
4.010952 8.7892647 14.262018
6.2792411 13.797868 18.226479
0.64403963 1.0836933 21.638269
1.0460713 1.926544 20.402863
2.644182 5.6248493 23.96715
3.755827 8.0879574 24.304253
4.8528585 10.52698 24.031727
6.1889405 13.480761 24.333307
7.7324715 16.897182 24.680799
3.5289409 7.7294192 9.2895317
5.0457878 11.164917 9.9615774
6.8122721 15.094639 10.942251
5.3136954 11.785064 6.8535719
8.6741076 19.291794 4.1073346
7.5746608 16.862272 1.7524862
4.0765972 8.9744549 8.8602877
5.5279717 12.186461 9.827302
9.9669752 22.06418 5.9300661
7.4034324 16.396814 2.6014385
7.8720064 17.450811 0.86593193
0.12111779 0.10072292 16.643639
1.3682456 2.8199737 19.92539
2.1257243 4.4533901 23.748009
3.1819696 6.7840161 24.001909
4.3293757 9.3144302 24.257523
3.1626635 6.8417783 13.880367
4.0239496 8.7368708 14.200025
4.6497164 10.123355 13.414248
0.64826453 1.0821809 21.653242
1.0533023 1.9238156 20.412806
2.6638002 5.6155853 23.96715
3.7847683 8.0763607 24.308943
6.2381525 13.463808 24.341841
7.7914062 16.870089 24.680799
3.5573189 7.7201328 9.2932062
3.7889249 8.2949972 9.0413761
5.0330386 11.033915 9.8611469
6.8545203 15.047935 10.925802
5.3511305 11.758379 6.8489342
8.7556057 19.292711 4.113863
7.6355305 16.840263 1.7529333
4.1172357 8.9805346 8.8802414
5.5233641 12.064187 9.744894
10.060065 22.064636 5.939445
7.4708905 16.393402 2.604892
7.9452939 17.450506 0.86714107
0.12143381 0.10027328 16.638639
1.3777392 2.8144827 19.920452
2.1412566 4.4459429 23.748009
3.1966903 6.7539787 23.935101
4.3660111 9.3081055 24.280535
3.1612127 6.7764363 13.77064
4.0662837 8.7482891 14.241354
4.6850252 10.107063 13.414248
0.65233725 1.0804054 21.663227
1.0615584 1.9229264 20.442636
2.6817579 5.6028514 23.952633
3.812937 8.0630999 24.308943
6.3027868 13.479752 24.410095
7.8566113 16.856445 24.700748
3.8973114 8.3808804 10.098067
3.8372662 8.3238239 9.086936
5.401947 11.734011 10.498253
6.9087529 15.027718 10.928544
5.3976893 11.751706 6.8558908
8.8351707 19.288828 4.1194587
7.7025571 16.831621 1.7547215
4.1673732 9.0067711 8.9201469
5.5993505 12.118218 9.8037558
6.6768732 14.463431 9.4467659
10.023238 21.782112 5.873795
7.5404854 16.39422 2.6090362
8.0207615 17.454443 0.86855179
0.12174814 0.099822648 16.633638
1.3872108 2.8089597 19.915512
2.1572077 4.4393573 23.752903
3.2048063 6.7104516 23.820572
4.4051623 9.3069353 24.317354
3.1634252 6.7198563 13.67847
4.252151 9.065239 14.778637
4.728426 10.108068 13.437273
0.65760869 1.0805857 21.713142
1.0677452 1.9182779 20.432692
2.7007523 5.5923238 23.947792
3.8410592 8.0497408 24.308943
6.3664951 13.493048 24.474083
3.8933768 8.3685808 9.1500177
5.496995 11.831572 10.601823
5.4405408 11.736813 6.8582096
8.9168758 19.289082 4.1259871
7.7696157 16.822718 1.7565099
4.2335415 9.0665989 8.993309
5.8329382 12.508889 10.13339
6.7109351 14.404868 9.4239674
10.027558 21.592697 5.8327641
7.6122608 16.39924 2.6138709
8.0942516 17.453535 0.86976099
0.12209585 0.099397056 16.633638
1.3963145 2.8027096 19.905634
2.1726909 4.4317999 23.752903
3.2191384 6.680398 23.753765
4.4350963 9.286212 24.303547
3.1930287 6.7217526 13.704804
4.7636809 10.0915 13.437273
0.66001517 1.0760707 21.668217
1.0736513 1.9131448 20.417776
2.7175035 5.5772128 23.923595
3.8683865 8.03473 24.304253
3.2999356 6.9032555 15.884528
3.6488225 7.6639276 13.954289
7.9676394 16.787573 24.680799
4.0036068 8.4545784 10.219348
3.9346898 8.380765 9.1780539
4.9830728 10.628186 9.5473013
7.1837144 15.34266 11.191725
5.48523 11.725774 6.8628469
8.9986906 19.289 4.1325154
7.8367052 16.813547 1.7582982
4.3383746 9.2071333 9.1462812
10.014175 21.368309 5.7823544
7.6820621 16.399477 2.6180151
8.1699505 17.456848 0.87117171
0.12240694 0.098944381 16.628639
1.4053912 2.7964299 19.895756
2.1881475 4.4241891 23.752903
3.2443962 6.6731486 23.768082
2.9348919 6.0904436 15.986786
3.2030146 6.6824894 13.647746
4.3311009 9.0683432 14.832365
4.8043909 10.086386 13.452621
0.66391951 1.0740056 21.67321
1.0797975 1.9084579 20.407835
2.7391734 5.5722055 23.942953
3.8971629 8.0227299 24.308943
3.3249581 6.8936558 15.88903
3.6789408 7.6581969 13.967089
8.0183811 16.743353 24.656858
4.0491724 8.4742002 10.259775
3.7868025 7.9931278 8.7715263
4.9518919 10.466474 9.4186239
5.7974629 12.270269 8.9821024
5.5280185 11.710561 6.8651657
9.0827055 19.293026 4.139976
7.9059472 16.808624 1.7605337
4.3736935 9.198679 9.1529322
15.726256 33.119537 26.779905
5.94103 12.562711 3.4424088
7.7519579 16.399422 2.622159
8.2436371 17.455328 0.87238091
0.12271634 0.098490715 16.62364
1.4140897 2.789428 19.880938
2.2035775 4.4165239 23.752903
3.2676699 6.6617827 23.768082
2.928797 6.0239391 15.839505
3.2722025 6.7661357 13.840866
4.3578424 9.0430298 14.815833
4.8298502 10.049331 13.425759
0.6662876 1.0694782 21.628284
1.0853953 1.9028255 20.387949
2.7608414 5.5671144 23.962311
3.9243846 8.0075274 24.304253
3.3499537 6.8839645 15.893531
3.7158887 7.6664305 14.005482
8.0676003 16.69627 24.628929
4.0743113 8.4508524 10.24875
3.8039136 7.9573379 8.746994
5.0068426 10.487763 9.4531479
5.8258634 12.219764 8.9601717
5.5574327 11.667199 6.851253
9.1647501 19.292265 4.1465049
7.9752479 16.803417 1.762769
15.864472 33.111828 26.818167
7.8219466 16.39908 2.6263032
8.319562 17.458015 0.87379164
0.1230594 0.098061763 16.62364
1.4234643 2.7837834 19.875998
2.2189806 4.4088049 23.752903
3.2928901 6.6543489 23.782398
2.9179714 5.9487815 15.669212
3.3189068 6.8020253 13.937426
4.3475451 8.9417171 14.675313
4.8635015 10.029527 13.421923
0.67124736 1.0691001 21.668217
1.0920309 1.8990252 20.387949
2.783632 5.5641875 23.991346
3.9477227 7.984498 24.276094
3.3730037 6.8702755 15.88903
3.7220035 7.6112413 13.928695
8.1337557 16.684259 24.65287
3.8347652 7.9504356 8.7540035
5.053556 10.491261 9.4719782
9.2469006 19.291162 4.1530328
8.0446091 16.797935 1.7650044
4.2962728 8.875536 8.8636141
16.023939 33.147224 26.891745
7.8898807 16.39399 2.6297565
8.395606 17.460386 0.8752023
0.12340094 0.097631603 16.62364
1.4331728 2.7787976 19.875998
2.2343566 4.4010324 23.752903
3.3227654 6.6561689 23.830116
2.9144559 5.8895321 15.54034
3.3785944 6.8634562 14.086654
4.3688164 8.9062767 14.64225
4.8914385 9.9980927 13.402736
0.6752845 1.0672381 21.678202
1.0999908 1.897507 20.412806
2.8024714 5.5533152 23.986507
3.9647865 7.9490509 24.210396
3.3969648 6.8584595 15.88903
3.7520106 7.6052194 13.941492
8.1906147 16.653059 24.648878
4.638042 9.4508762 11.490955
3.8578126 7.9273815 8.7434902
5.0254941 10.340529 9.3527174
5.6335087 11.607006 8.5434685
9.3291531 19.289724 4.1595612
8.1270285 16.819075 1.7699223
4.3255892 8.857131 8.8602877
16.148405 33.109257 26.906462
5.6394486 11.572926 7.6507425
7.1839256 14.775075 5.8071074
6.0319042 12.41674 3.4201345
7.9600363 16.393076 2.6339006
8.4717674 17.462437 0.87661302
0.12374099 0.09720026 16.62364
1.4432224 2.774467 19.880938
2.2497056 4.3932066 23.752903
3.3667929 6.6858592 23.978048
2.9297609 5.8688354 15.512727
4.4098635 8.9111481 14.675313
0.67962795 1.0658473 21.698168
1.107146 1.8945758 20.422749
2.8201282 5.5401382 23.971991
3.986304 7.9228296 24.172853
3.4208846 6.8465605 15.88903
3.7738869 7.5827365 13.924428
8.2540522 16.635164 24.664839
4.7071042 9.5075455 11.57916
3.8886039 7.920269 8.7504988
5.0581312 10.315934 9.3464403
5.7273192 11.696177 8.6229706
9.4115086 19.287943 4.1660895
8.2140589 16.848797 1.7757343
7.2125487 14.657944 11.978751
5.7083397 11.611198 7.6887403
7.1980219 14.673596 5.777524
6.0794883 12.404339 3.4224794
8.0302811 16.391872 2.6380446
8.5480452 17.46417 0.87802374
0.12407953 0.096767731 16.62364
1.4528984 2.7694123 19.880938
2.2650268 4.3853264 23.752903
3.4117441 6.7166529 24.130753
2.9493501 5.8568277 15.508123
3.4425189 6.8718214 14.152491
4.3743253 8.7622623 14.456267
7.427 14.915989 20.026268
0.68381345 1.0641965 21.713142
1.1145649 1.8920768 20.437664
2.8383014 5.5280242 23.962311
3.9928482 7.8673191 24.046148
3.4437828 6.8326325 15.884528
3.7979918 7.5648551 13.915895
8.3242083 16.630503 24.700748
4.7251153 9.4607277 11.542408
3.9193935 7.9130392 8.7575083
5.0388846 10.186574 9.2460098
5.7662592 11.672364 8.6202297
9.4939651 19.285822 4.1726179
8.2772179 16.828959 1.7766284
4.7030821 9.4619856 9.4921331
7.260077 14.62544 11.972866
5.6664739 11.42514 7.5798135
6.1162877 12.36997 3.4189622
8.1006155 16.390379 2.6421888
8.6244383 17.465582 0.87943447
0.12441656 0.096334025 16.62364
1.4625566 2.7643239 19.880938
2.280791 4.3782964 23.757799
3.4392529 6.7126741 24.159386
2.9715457 5.8499804 15.517328
3.4686453 6.864038 14.161268
4.4314642 8.7997189 14.543058
7.4157195 14.763947 19.857418
0.68799579 1.0625293 21.728119
1.1211627 1.8881748 20.437664
2.8575804 5.5180831 23.962311
3.9974809 7.8087873 23.910059
3.467612 6.8205705 15.884528
3.8279104 7.5585322 13.928695
8.3822088 16.601345 24.700748
3.9501791 7.9056902 8.7645178
5.0274863 10.074887 9.1612711
6.1762562 12.393166 9.1630392
9.5787067 19.28776 4.1800785
8.36026 16.849033 1.7815462
4.7628593 9.4989128 9.5453415
7.3527117 14.683134 12.040559
6.1333952 12.29635 3.4048946
8.1732464 16.393024 2.6470234
8.7009459 17.466673 0.88084519
0.12475207 0.095899142 16.62364
1.4718312 2.7585166 19.875998
2.2960603 4.3703084 23.757799
3.4619782 6.6993012 24.154612
2.9937298 5.84305 15.526533
3.4675679 6.8028121 14.06032
4.5105844 8.8795338 14.700111
7.4425826 14.689363 19.792179
0.69249088 1.0613291 21.753077
1.1277467 1.8842497 20.437664
2.8727512 5.5002756 23.928436
4.0088792 7.7641196 23.816204
3.491399 6.8084245 15.884528
3.8412201 7.5195761 13.881769
8.4455776 16.582726 24.716709
3.8787024 7.6322856 9.3593597
3.9809616 7.898222 8.7715263
5.0871248 10.105949 9.2052088
6.2082105 12.349117 9.1465912
9.663578 19.289343 4.1875401
8.4190226 16.819748 1.7815462
4.8347473 9.5588617 9.6218281
5.7217999 11.327344 9.3240213
7.3279228 14.551023 5.7594457
6.17628 12.274866 3.4048946
8.2459946 16.395365 2.6518583
8.7753229 17.46298 0.88205439
0.12508605 0.09546309 16.62364
1.4814513 2.7533622 19.875998
2.3113017 4.362267 23.757799
3.4791324 6.6752629 24.111664
3.0150049 5.8343 15.531137
3.4836271 6.7757568 14.029596
4.5518174 8.88377 14.733174
5.0389285 9.8598289 13.33366
0.69619137 1.0589055 21.753077
1.1340417 1.8798455 20.432692
2.89662 5.4991107 23.96715
4.0359564 7.7500787 23.816204
3.5141437 6.7942624 15.880028
3.8471372 7.4667091 13.809248
6.3169174 12.29686 18.38055
3.8975883 7.6036153 9.3409843
4.0117393 7.890635 8.7785349
5.0730286 9.9909563 9.1173325
6.2380409 12.301266 9.1274014
9.7485752 19.290565 4.1950006
8.479929 16.794704 1.7819934
4.8307543 9.4687567 9.548667
5.7888308 11.361325 9.3681688
7.3230653 14.415893 5.7167144
6.2542872 12.32258 3.4236517
8.316618 16.392979 2.6560023
8.8520374 17.463434 0.88346511
0.12541853 0.095025875 16.62364
1.490312 2.7468081 19.866119
2.3265147 4.3541722 23.757799
3.494772 6.6485438 24.059172
3.0362549 5.8254719 15.535739
3.511668 6.7720604 14.047153
4.647398 8.9928226 14.939821
5.0703778 9.8364811 13.325985
0.6997236 1.0562284 21.748083
1.1403195 1.8754202 20.427719
2.9187465 5.4945164 23.991346
4.0734162 7.7558041 23.877211
3.5388453 6.783884 15.884528
3.8491249 7.406951 13.723929
6.3362374 12.229253 18.312721
3.9272201 7.5959868 9.3483343
4.0425129 7.8829303 8.7855444
5.56565 10.866994 9.9270544
6.2314339 12.182625 9.0561228
9.8403931 19.304562 4.2052593
8.5588417 16.804939 1.7860172
5.9503942 11.57832 9.562417
7.3991814 14.440674 5.7364364
6.3282723 12.361246 3.440064
8.396348 16.407928 2.662909
8.9265871 17.459118 0.88467425
0.12574945 0.094587505 16.62364
1.499145 2.7402263 19.856241
2.3416994 4.3460245 23.757799
3.5095685 6.6204782 24.001909
3.059298 5.8200259 15.549546
3.5264058 6.7427826 14.01204
4.7138791 9.0439215 15.051412
5.1017256 9.813035 13.31831
0.70276392 1.0528198 21.728119
1.1465801 1.8709738 20.422749
2.9402823 5.4887266 24.010704
2.8128958 5.3107691 16.39694
3.5574362 6.761858 15.862022
3.8689032 7.3819208 13.7026
6.3481846 12.148307 18.224939
3.9725213 7.6183043 9.392436
4.0732822 7.8751068 8.7925539
5.5624614 10.767962 9.8548698
9.9077177 19.270096 4.2052593
8.6242771 16.78825 1.7873583
4.3016148 8.2881575 8.3980436
7.5235214 14.514448 11.987581
7.4994087 14.511245 5.7742372
6.3736134 12.3434 3.4412363
8.455843 16.382923 2.6636
9.0035067 17.458935 0.88608503
0.12607887 0.09414798 16.62364
1.5087011 2.7349763 19.856241
2.3568556 4.3378243 23.757799
3.5249155 6.5937066 23.949417
3.077765 5.8058591 15.54034
3.5555079 6.741024 14.033986
4.7035193 8.9477053 14.919157
5.1419024 9.8065214 13.33366
0.70562744 1.0491637 21.703161
1.152263 1.8656001 20.407835
2.9630086 5.4850655 24.039742
2.8265386 5.2917857 16.368784
3.8775845 7.3360906 13.642878
6.3807168 12.107412 18.19701
3.9990897 7.6043916 9.392436
4.1056948 7.870326 8.8030672
5.6054101 10.758836 9.8642855
6.4282794 12.353966 9.2151279
9.9817076 19.248478 4.2080574
8.7240639 16.837635 1.7954057
4.3305197 8.2730913 8.3980436
7.5797582 14.498844 11.99641
7.5565653 14.497542 5.7791681
6.4233961 12.33401 3.4447534
8.5381308 16.401623 2.6711972
9.0828371 17.462856 0.88769722
0.12640673 0.093707308 16.62364
1.5189943 2.7310514 19.866119
2.3719831 4.3295708 23.757799
3.540118 6.5669088 23.896925
3.0989337 5.7968035 15.544944
3.5947633 6.7581739 14.095432
4.6899095 8.8466997 14.778637
5.1746039 9.7856798 13.329822
0.7092855 1.0466942 21.703161
1.1582044 1.8606616 20.397892
2.9833393 5.4768963 24.049421
2.813076 5.2226357 16.185766
3.5193117 6.5775437 15.488422
3.9338386 7.3800464 13.749525
6.4243546 12.087727 18.201
4.0319633 7.602365 9.4071369
4.1381235 7.8654146 8.8135805
5.6320682 10.718531 9.8454542
7.2194405 13.756933 10.270592
9.9850922 19.091635 4.1819439
8.8173819 16.873283 1.802112
4.3123078 8.1687727 8.3082552
6.0807395 11.533251 9.5771322
6.4144263 12.21254 3.4177899
8.6114454 16.402414 2.6760321
9.1599836 17.462015 0.88910794
0.12673306 0.093265504 16.62364
1.5285181 2.7257323 19.866119
2.387574 4.3221555 23.762693
3.556603 6.5427089 23.853977
3.1376915 5.8203444 15.636995
3.629653 6.7666903 14.139323
4.6995344 8.7905684 14.712509
5.2192879 9.7873545 13.356685
0.71423954 1.0461175 21.743093
1.1632748 1.8543506 20.373035
3.0078859 5.4763651 24.092976
2.8246996 5.2006526 16.148224
3.3985605 6.2989159 14.862752
3.9929166 7.4282937 13.864705
6.4679337 12.067885 18.20499
4.0664706 7.6031914 9.4255123
4.1688972 7.8572221 8.82059
5.0898843 9.6051226 8.8474255
7.2439461 13.687301 10.237695
10.051673 19.056664 4.1819439
8.8971243 16.882053 1.8061358
4.3232498 8.1207123 8.2750006
6.1418347 11.551212 9.6095076
6.4274402 12.134236 3.40255
9.2395716 17.465263 0.89072019
0.12705785 0.092822552 16.62364
1.5399358 2.7237618 19.890816
2.4026465 4.3137951 23.762693
3.5801373 6.5315633 23.858749
3.1673203 5.8265204 15.68302
3.6657856 6.7771516 14.187604
4.7408733 8.7939272 14.745574
5.2625289 9.7860136 13.37971
0.71870655 1.0448061 21.768051
1.1703107 1.8511794 20.382977
3.0446444 5.4977193 24.233318
2.8552709 5.2134638 16.218615
3.4132445 6.2736287 14.831244
4.03125 7.4372392 13.907366
6.507153 12.039932 18.19701
4.1010323 7.6038699 9.4438877
4.2013464 7.852056 8.8311043
5.0903602 9.5255051 8.7909327
7.3743706 13.816864 10.352836
10.06046 18.91304 4.1586285
8.9606724 16.859688 1.8070297
4.3639331 8.1285992 8.2982788
6.1954885 11.554639 9.6301098
6.4491458 12.07314 3.391999
6.9553914 13.026316 2.1518059
9.319293 17.468166 0.89233243
0.12738109 0.092378467 16.62364
1.5482796 2.7163451 19.875998
2.4181886 4.3062701 23.76759
3.598582 6.5111876 23.830116
3.1895175 5.8188553 15.692225
3.6802447 6.7474933 14.152491
4.8064857 8.8416042 14.85303
5.2981849 9.7704029 13.383548
0.72350252 1.0439504 21.802992
1.1779119 1.8488808 20.402863
3.0766864 5.5101047 24.334948
2.8767884 5.2095075 16.237385
3.4414055 6.273128 14.858252
6.5419312 12.003915 18.177061
4.1178312 7.5716391 9.4218378
4.2304225 7.8404808 8.8346081
5.5722775 10.340304 9.5535784
7.4839897 13.905182 10.437821
10.047467 18.730629 4.1269193
9.0265274 16.841475 1.8083711
4.3993902 8.1264505 8.3115807
6.2338619 11.529387 9.6271667
6.4935546 12.054835 3.3931713
7.0078621 13.015038 2.153878
9.399147 17.470728 0.89394468
0.12770277 0.091933265 16.62364
1.5565903 2.7089031 19.861181
2.4337072 4.2986889 23.772484
3.6241951 6.5038023 23.849205
3.204139 5.7974267 15.664609
3.7083921 6.743 14.170047
4.8549042 8.8568516 14.906758
5.3368707 9.7602854 13.395061
0.72631419 1.0402361 21.778034
1.1852232 1.846103 20.417776
3.1107016 5.5256186 24.451092
4.2986302 7.720305 24.083691
8.9637365 16.311901 24.720699
4.1442361 7.557219 9.4218378
4.5458093 8.3550749 9.4268761
5.7217031 10.52941 9.7450237
4.5805268 8.4398813 6.3804522
10.02164 18.526937 4.0905471
9.0899954 16.818626 1.8092653
4.3759575 8.0261726 6.7399263
6.6260757 12.198672 3.4388916
7.109961 13.094944 2.1704543
9.4767504 17.468552 0.8953554
0.12798633 0.091463193 16.618641
1.5652577 2.7021086 19.851303
2.4492023 4.2910514 23.777378
3.6468756 6.4911122 23.849205
3.2176991 5.774261 15.632391
3.8341177 6.914331 14.556287
4.8871517 8.8423138 14.910891
5.3801928 9.7584381 13.418084
0.72944164 1.0369868 21.76306
1.1928192 1.843744 20.437664
3.126868 5.5092611 24.426895
4.3255534 7.7052526 24.083691
9.0030966 16.248882 24.672819
4.8120165 8.702733 10.858827
4.7138882 8.5924139 9.7107449
5.8145337 10.611777 9.8391781
4.64007 8.4788628 6.4215741
10.10742 18.530655 4.0989408
9.1534138 16.795536 1.8101593
5.010561 9.1030025 9.3358345
4.3844743 7.9754276 6.7104945
6.6756215 12.188257 3.4424088
7.1698956 13.096107 2.1745982
9.5568504 17.470428 0.89696765
0.12830481 0.091015875 16.618641
1.5742884 2.6959574 19.846361
2.4651818 4.2842412 23.787169
3.6702473 6.479641 23.853977
3.2368789 5.7612915 15.627789
6.4166989 11.476871 24.16398
4.8755226 8.7490005 14.78277
5.4967637 9.8880768 13.621473
0.73305696 1.0344342 21.76306
1.2001219 1.8409085 20.452579
3.1435828 5.4939489 24.407537
4.3524232 7.6901069 24.083691
3.72031 6.6162491 15.758494
9.0685797 16.233143 24.69676
4.7003946 8.4312305 10.542763
4.6420045 8.3917894 9.5039759
5.8665986 10.618671 9.8642855
4.6655984 8.4552917 6.416091
10.14837 18.452221 4.0896149
9.2167816 16.772213 1.8110535
5.0495534 9.0985165 9.3491373
4.414247 7.9636097 6.713438
6.3208594 11.426704 6.124073
6.6640806 12.067019 3.4154453
7.2107792 13.062329 2.1732168
9.6370792 17.471962 0.8985799
0.12862173 0.090567455 16.618641
1.5829008 2.6891062 19.836483
2.4806325 4.2764912 23.792065
3.692843 6.4667897 23.853977
3.26371 5.7618561 15.660007
3.902288 6.9228635 14.630899
4.9790883 8.8619528 15.001816
5.5312462 9.8688288 13.621473
0.73565501 1.0304607 21.733109
1.2074193 1.8380443 20.467493
3.1596007 5.477499 24.383341
4.369832 7.65838 24.03207
3.7487507 6.6126909 15.781
4.1386285 7.327148 13.834844
9.1192722 16.190886 24.680799
4.6417561 8.2581415 10.347979
4.6730061 8.3786488 9.5074806
5.863852 10.526723 9.798378
4.6950846 8.4389544 6.416091
7.2015467 12.986618 2.9107828
9.309063 16.800922 1.8173127
5.0739894 9.0678015 9.3358345
4.4597659 7.9799085 6.7399263
6.356286 11.396644 6.1198769
6.6659632 11.97149 3.3955159
7.2587399 13.041407 2.1739075
9.7150059 17.468779 0.89999062
0.12897392 0.090141289 16.62364
1.5922778 2.6835644 19.836483
2.4965732 4.2695637 23.801855
3.7153938 6.4538603 23.853977
3.2673323 5.7215881 15.581763
3.9181461 6.8946238 14.600177
5.0821152 8.9718399 15.21673
5.5751219 9.8662033 13.644497
0.74093634 1.030228 21.783028
1.2141222 1.8342626 20.472464
3.1685913 5.4490509 24.30591
4.3999805 7.6490636 24.050842
3.7772114 6.609015 15.803506
4.1641798 7.3126564 13.834844
9.1489515 16.11179 24.608978
4.6354532 8.1799488 10.270801
4.9644203 8.8285608 10.033163
5.4259639 9.6611586 9.016902
4.7101932 8.396986 6.3969007
7.2372456 12.94425 2.9070525
9.3919392 16.811802 1.8217834
5.1202879 9.0760498 9.3624382
4.5669627 8.1051493 6.8576527
6.3849068 11.354607 6.1093864
6.7315054 11.990532 3.4072392
7.3284535 13.059175 2.1808145
9.7954702 17.46962 0.9016028
0.12928778 0.089690536 16.62364
1.6012367 2.6773236 19.831545
2.5130129 4.263454 23.816542
3.7378993 6.4408517 23.853977
3.2716882 5.6830583 15.508123
3.9362359 6.8705144 14.578232
5.1189837 8.9638195 15.233262
5.6142874 9.8550386 13.656011
0.74215233 1.0243655 21.713142
1.2205175 1.8300134 20.472464
3.1615291 5.3934979 24.107494
4.4283853 7.6366444 24.060228
3.7991714 6.593904 15.799006
4.1792927 7.2799826 13.800717
9.2096272 16.087601 24.620949
4.7716098 8.3521109 10.506011
5.0497317 8.9073515 10.141805
5.469244 9.6590948 9.0325947
4.7085996 8.3258982 6.3557787
9.4750051 16.822304 1.8262541
4.6111994 8.1172743 6.8811979
6.4289794 11.340146 6.1135821
6.7805014 11.979651 3.4107561
7.276453 12.861112 2.1531873
9.8760605 17.470114 0.90321511
0.12960006 0.089238696 16.62364
1.6105726 2.6717179 19.831545
2.5283997 4.2555313 23.821436
3.7603595 6.4277649 23.853977
3.2846413 5.6597753 15.475905
6.5571499 11.35298 24.093756
5.1741104 8.9873543 15.303521
0.74572343 1.0217688 21.713142
1.2268982 1.8257418 20.472464
3.1605129 5.3488817 23.957472
3.786083 6.5184817 15.650465
4.234726 7.3172665 13.898833
9.2672338 16.057966 24.624939
4.8667231 8.449975 10.649343
4.9816933 8.7162819 9.945549
5.4990678 9.6331835 9.0263176
4.8101215 8.4365473 6.4517298
7.5531578 13.29059 2.9937861
9.5558004 16.828102 1.8302779
5.2819614 9.2117538 9.5386906
5.5755935 9.73563 8.2527103
7.2269011 12.629182 8.6361485
6.4662728 11.313696 6.1114845
7.32621 12.844238 2.1545687
9.9567728 17.470257 0.9048273
0.12991078 0.08878576 16.62364
1.6198889 2.6660795 19.831545
2.5463779 4.2519207 23.850807
3.7827735 6.4145994 23.853977
3.3043776 5.6482754 15.475905
6.5810728 11.303115 24.036697
5.2012134 8.9619379 15.291123
0.7530545 1.0242715 21.82296
1.2335628 1.8218893 20.477436
3.1598675 5.3054204 23.812288
4.4815907 7.6055422 24.060228
3.8077137 6.5033479 15.645964
4.2825837 7.340735 13.971354
9.2717104 15.936964 24.489279
4.9217229 8.4769135 10.70447
5.0209908 8.7142906 9.9630718
5.5462499 9.6375437 9.0482864
4.8270388 8.397954 6.4352808
7.8595285 13.695839 6.4682007
6.8580737 11.960386 4.1424742
7.6141562 13.289718 2.9993818
9.639225 16.837864 1.8347487
5.3850904 9.3160973 9.6650591
5.5266819 9.5725889 8.132041
7.2321682 12.536668 8.5905523
6.5079908 11.294988 6.1135821
7.360673 12.785157 5.2236619
7.3833427 12.840051 2.1580219
10.037606 17.470051 0.9064396
0.13018276 0.088308901 16.618641
1.6287796 2.6597464 19.826607
2.5669935 4.2525949 23.904655
3.8051414 6.4013557 23.853977
3.3756802 5.7242126 15.715237
6.6120024 11.265615 24.005974
0.75765806 1.0230273 21.852909
1.2399148 1.8175722 20.477436
3.1706038 5.281426 23.754215
4.503705 7.5824332 24.036764
3.8503089 6.5237622 15.726986
4.3108258 7.3302374 13.979886
9.2815542 15.826527 24.369577
4.9478579 8.4538298 10.69712
4.6091118 7.9448466 7.4884739
4.8835773 8.4280872 6.4709206
7.8910379 13.640231 6.4550896
6.8997817 11.936374 4.1424742
7.6973529 13.326863 3.013371
9.7153664 16.834307 1.8378783
5.3837399 9.2391748 9.6051998
4.7183146 8.1069698 6.9135728
7.2022033 12.384645 8.5044241
6.5382605 11.256504 6.1051903
7.4834785 12.894162 5.2778978
7.4380517 12.831337 2.1607847
10.121063 17.473814 0.90825337
0.13045298 0.087831214 16.613642
1.6380539 2.6540446 19.826607
2.5865855 4.2514372 23.948711
3.8282304 6.3893151 23.858749
3.414609 5.7443023 15.802686
6.657383 11.252772 24.027918
4.5746355 7.7570887 13.299041
0.76122451 1.0203763 21.852909
1.2465539 1.8136723 20.482407
3.1864166 5.2660246 23.734858
4.5531931 7.6051617 24.158775
3.8697186 6.5046701 15.713483
4.3257475 7.2971973 13.945757
9.3229427 15.770686 24.333668
4.9583879 8.4043884 10.656693
5.0979233 8.7067232 9.9946136
4.5935879 7.8547916 7.4194279
4.9171848 8.4182091 6.4764028
7.9386034 13.612603 6.4550896
7.6227117 13.091903 2.9676726
9.8066254 16.856249 1.8436903
5.4235225 9.2332039 9.6185026
4.7486296 8.0939369 6.9165163
7.2366686 12.344554 8.4942913
6.5660467 11.214029 6.0946999
7.4759812 12.778294 5.2417407
7.4802976 12.80102 2.160094
10.204667 17.477207 0.91006714
0.13072143 0.087352715 16.608641
1.6473082 2.6483109 19.826607
2.6067328 4.2510619 23.997663
3.8505101 6.3759131 23.858749
3.4788225 5.8060846 16.005196
6.7309694 11.287061 24.150812
4.5844297 7.7120466 13.249446
0.76356548 1.0160991 21.817968
1.2534846 1.810186 20.49235
3.2041247 5.2537971 23.730019
4.6109195 7.640933 24.323021
3.8845634 6.478054 15.681974
4.2281184 7.0760851 13.553292
9.3779354 15.738048 24.333668
5.1337223 8.6980886 10.005126
7.7480664 13.143217 12.384466
4.9889727 8.4730587 6.5312324
7.9179387 13.46891 6.4007716
7.1675973 12.20227 4.2496367
7.6882572 13.099107 2.9751337
9.8805199 16.847691 1.8463727
7.0955238 11.983665 12.485084
4.7686234 8.0633955 6.9047432
7.2205024 12.219014 8.4258957
6.5936165 11.171499 6.0842099
7.5701766 12.851634 2.1725264
10.285885 17.475924 0.91167939
0.13102555 0.086895876 16.608641
1.6565424 2.6425443 19.826607
2.6263745 4.2497325 24.041721
3.8727427 6.3624339 23.858749
3.5020981 5.7989225 16.019003
3.953403 6.5771985 14.130545
4.5939651 7.6670308 13.19985
0.76553673 1.0113579 21.773043
1.2601011 1.8062367 20.497322
3.2211275 5.2404389 23.720341
4.6411505 7.6306891 24.341793
3.9184134 6.4830852 15.726986
4.1424556 6.8780856 13.203485
9.4328136 15.705216 24.333668
4.8670411 8.1195011 10.340629
5.1695228 8.6893101 10.01564
7.7879314 13.106052 12.37505
4.9758344 8.3836765 6.4764028
6.5019889 10.972451 5.2413645
7.2101469 12.177175 4.2496367
7.8014688 13.186339 3.0003145
9.9874201 16.894548 1.8548672
5.5509953 9.3009186 9.7282438
4.7698355 8.0015659 6.8664823
7.1461916 11.997447 8.2916374
6.6232905 11.132813 6.0758176
7.7085357 12.982677 2.1980815
10.369767 17.478582 0.91349316
0.13129061 0.086415656 16.603642
1.6657567 2.6367459 19.826607
2.6465764 4.2491808 24.090673
3.8941474 6.3476038 23.853977
3.4979389 5.7466125 15.908544
3.9713736 6.5551648 14.112988
4.6076064 7.6292682 13.162654
0.77064049 1.0107436 21.817968
1.2670115 1.8026989 20.507263
3.2394009 5.2291627 23.720341
4.6731696 7.62327 24.369949
3.9319584 6.4544945 15.690975
4.3789177 7.2135992 13.873238
9.4906988 15.677349 24.341648
4.8865881 8.0879536 10.322253
5.1961541 8.6650944 10.008631
4.6675892 7.792901 7.4068737
5.0694704 8.4739065 6.5586472
6.5307407 10.933767 5.2338719
10.079473 16.915197 1.8606793
7.2136569 11.991427 12.544942
4.791491 7.9744725 6.8576527
7.3256011 12.201571 8.4486942
6.6527739 11.094056 6.0674253
7.3132696 12.205125 5.0412321
8.0716934 13.48684 2.2844164
10.451228 17.476582 0.91510546
0.13159145 0.085956842 16.603642
1.6753677 2.6315706 19.831545
2.6657238 4.2468157 24.129835
3.9162807 6.333972 23.853977
3.5128684 5.7260404 15.88553
4.0229392 6.5882745 14.213937
4.6503048 7.6395793 13.208117
0.77434009 1.0082761 21.82296
1.2742213 1.79957 20.522181
3.2589657 5.2199564 23.730019
4.6988444 7.6054425 24.365257
3.9738295 6.4722681 15.767497
4.3659601 7.1359801 13.753792
9.5437956 15.641552 24.337658
