# .PCD v0.7 - Point Cloud Data file format
VERSION 0.7
FIELDS x y z
SIZE 4 4 4
TYPE F F F
COUNT 1 1 1
WIDTH 1481
HEIGHT 1
VIEWPOINT 0 0 0 1 0 0 0
POINTS 1481
DATA ascii
0.63028514 -4.2424841 1.8212063
0.66424054 -4.4603891 1.4154707
4.5624294 -30.564323 5.9585853
0.75165945 -5.0234375 0.54894942
1.6804826 -11.561271 10.486458
3.5527008 -24.352552 18.003401
0.6053648 -4.1392417 2.543854
0.71331978 -4.8597217 2.3580687
0.54863638 -3.7287076 1.4008597
0.67591941 -4.5827451 1.2079716
1.9879304 -13.462166 1.9901867
-0.040216394 -0.13027939 14.213732
0.23681615 -1.9796304 12.67456
0.31788576 -2.5209398 12.239328
0.4780255 -3.595438 11.64247
0.60805142 -4.455112 10.65246
0.75303739 -5.432951 10.118927
0.93036872 -6.6444745 9.9265547
1.1071689 -7.8475432 9.5652313
0.026055308 -0.8208248 14.040963
0.1012525 -1.4429286 13.447729
0.38968784 -3.0316496 11.805676
0.53320181 -4.0001645 11.028416
0.66527414 -4.8873687 10.262512
0.83208728 -6.042232 10.046695
1.0064577 -7.2432437 9.7581091
1.1894106 -8.5056772 9.3887606
1.3075318 -9.1296368 9.1430082
3.5171883 -24.467728 20.014053
3.6630592 -25.388187 16.902199
0.73073864 -5.0520005 2.7585711
0.61813319 -4.26301 1.8286985
0.65211684 -4.4864168 1.4225209
4.4592538 -30.604368 5.9632487
0.71828532 -4.9176211 0.53911364
1.6390679 -11.559673 10.479807
3.6556156 -25.68536 18.974646
0.5903036 -4.1370616 2.5413208
0.68863106 -4.80827 2.3328919
0.5336042 -3.7165771 1.3959291
0.65991855 -4.5850763 1.2079716
5.0267868 -34.883404 5.0077682
-0.040655766 -0.13009728 14.208733
0.2299045 -1.980445 12.67456
0.30908412 -2.5220339 12.239328
0.46489775 -3.5926435 11.628155
0.5922392 -4.4552717 10.647859
0.73374778 -5.4331732 10.114538
0.90793049 -6.6532578 9.9348211
1.0815158 -7.8640614 9.5805807
0.023189938 -0.82091075 14.040963
0.096215114 -1.4432732 13.447729
0.37910303 -3.0329912 11.805676
0.51901346 -4.0002904 11.023723
0.64792395 -4.8875027 10.258011
0.81064409 -6.0425148 10.042428
0.98318905 -7.2616429 9.7780581
1.1610862 -8.5198545 9.3997869
1.278615 -9.1553373 9.1640358
3.4495907 -24.607059 20.117622
3.5732501 -25.392536 16.896715
0.60324872 -4.265142 1.8286985
0.6377992 -4.4981647 1.4253409
4.3378801 -30.517616 5.9436636
0.72570425 -5.0926547 0.55476141
1.5971733 -11.554228 10.469831
3.5709343 -25.733995 19.001133
0.56813711 -4.083591 2.5083895
0.51800865 -3.6997108 1.3893552
0.64255834 -4.5777249 1.205627
4.8980985 -34.8517 5.0008612
3.0592184 -21.71245 0.97818464
-0.041109644 -0.12995459 14.208733
0.22299007 -1.9812354 12.67456
0.3001585 -2.5220866 12.234433
0.45216793 -3.5927634 11.623384
0.57668376 -4.4573116 10.647859
0.71477795 -5.4357009 10.114538
0.88507152 -6.6591768 9.9389544
1.0561862 -7.8836727 9.5997677
0.020284984 -0.81925499 14.011014
0.091176562 -1.4436002 13.447729
0.36836213 -3.0330482 11.800838
0.50483072 -4.0003653 11.01903
0.63085938 -4.8897347 10.258011
0.78920919 -6.0427217 10.038162
0.95862287 -7.2710052 9.7860384
1.1326774 -8.5339375 9.4108124
1.2509773 -9.1915474 9.1955767
3.5512521 -25.991859 21.234915
3.4800463 -25.371714 16.874784
0.53492278 -3.8896368 2.1417704
0.58835691 -4.2672215 1.8286985
0.62472117 -4.519371 1.430981
0.68646264 -4.9533248 1.0408795
0.72505647 -5.2184715 0.56593841
1.555835 -11.552332 10.463179
3.4778349 -25.722269 18.983475
0.55098385 -4.0641909 2.4957235
0.51060879 -3.7516527 1.8377515
0.50636792 -3.7108538 1.3926421
0.54817539 -4.0068641 1.0661212
4.7750688 -34.858768 4.9994798
2.9752519 -21.663603 0.97576618
-0.041563015 -0.1298103 14.208733
0.21607292 -1.9820018 12.67456
0.29135293 -2.5231187 12.234433
0.43926179 -3.5913563 11.613839
0.56112128 -4.4592972 10.647859
0.69579947 -5.4381633 10.114538
0.86146021 -6.6594343 9.9348211
1.0307332 -7.903204 9.6189556
0.017463923 -0.82134122 14.045956
0.0861369 -1.4439096 13.447729
0.35777256 -3.0343153 11.800838
0.49065366 -4.0003901 11.014337
0.61378723 -4.8919067 10.258011
0.76778257 -6.0428524 10.033896
0.93361992 -7.2772965 9.7900286
1.1046187 -8.5512877 9.4255123
1.2245082 -9.2382822 9.2376308
3.4769318 -26.127563 21.335344
3.392015 -25.387852 16.877525
0.51781309 -3.8651366 2.1278574
0.59677702 -4.4311957 1.4041904
0.64747643 -4.7950444 1.010103
0.70549995 -5.2111006 0.56504422
1.5150151 -11.55399 10.459854
3.3864439 -25.722233 18.974646
0.53679383 -4.0660892 2.4957235
0.50168425 -3.7849066 1.852438
0.49154532 -3.6985562 1.3877116
0.53546941 -4.0183887 1.0684658
-0.042000312 -0.12962367 14.203732
0.20915312 -1.9827439 12.67456
0.28254384 -2.5241206 12.234433
0.42707488 -3.5958326 11.623384
0.54555202 -4.4612288 10.647859
0.67651695 -5.4381824 10.110148
0.83785796 -6.6596088 9.9306879
1.0051565 -7.9226518 9.6381426
0.014596799 -0.82139719 14.045956
0.081096195 -1.4442015 13.447729
0.34717867 -3.0355458 11.800838
0.47668672 -4.0020781 11.014337
0.59670752 -4.8940196 10.258011
0.74636477 -6.0429068 10.029631
0.90858471 -7.2835011 9.7940187
1.076875 -8.5719099 9.4438877
1.1917968 -9.2389641 9.234127
3.3827081 -26.116377 21.316513
3.2990599 -25.366365 16.855595
0.49286136 -3.7790685 2.0814815
0.5254916 -4.0184016 1.7256817
0.58380026 -4.4522767 1.4098306
0.64418149 -4.8995523 1.029688
0.68665463 -5.2085938 0.56459713
1.4737298 -11.551802 10.453203
3.2925267 -25.70182 18.951099
0.52424502 -4.0807652 2.5033233
0.49137241 -3.8091407 1.8629282
0.4889296 -3.7798629 1.4156513
0.52331495 -4.0346947 1.0719829
1.1588845 -8.9228354 1.3471636
1.0606519 -8.1442862 0.42498225
-0.042452529 -0.12947626 14.203732
0.20223077 -1.9834619 12.67456
0.27362168 -2.5240791 12.229538
0.41298336 -3.5839553 11.580435
0.52997613 -4.4631062 10.647859
0.65753001 -5.4405107 10.110148
0.81426501 -6.6596994 9.9265547
0.97906429 -7.9388371 9.6534929
0.011754189 -0.82346386 14.080896
0.076054499 -1.4444759 13.447729
0.33658051 -3.0367391 11.800838
0.46251595 -4.0020041 11.009645
0.5796206 -4.8960729 10.258011
0.72526658 -6.0454755 10.029631
0.8835175 -7.2896194 9.7980089
1.0485903 -8.5890779 9.4585896
1.1626467 -9.2678366 9.2586584
3.2905517 -26.120304 21.310236
3.2131188 -25.398468 16.869301
0.47799447 -3.7675822 2.0745251
0.50385594 -3.9604263 1.7013322
0.48751828 -3.8214076 1.2222962
0.71745682 -5.6082897 1.1649179
0.66910267 -5.2158985 0.56504422
1.432938 -11.553169 10.449878
3.2032905 -25.717171 18.954042
0.48089755 -3.8333488 1.8734185
0.50048685 -3.9783268 1.4846787
0.50740302 -4.0220289 1.0684658
1.0811816 -8.5583506 1.2953626
1.0535648 -8.3164539 0.43183428
-0.042904224 -0.12932728 14.203732
0.19530597 -1.9841557 12.67456
0.26480931 -2.5250189 12.229538
0.40245786 -3.6031768 11.637698
0.51439375 -4.4649291 10.647859
0.63853508 -5.4427729 10.110148
0.79068166 -6.6597075 9.9224215
0.95363373 -7.9613008 9.6765184
0.0088670952 -0.82205641 14.055939
0.071011871 -1.4447325 13.447729
0.32597825 -3.0378957 11.800838
0.44854355 -4.0035939 11.009645
0.56227827 -4.8959036 10.25351
0.7038579 -6.0453796 10.025364
0.85806662 -7.2926593 9.7980089
1.0209967 -8.6128855 9.4806404
1.1311519 -9.2789192 9.2656679
3.1969895 -26.112314 21.294542
3.3785777 -27.476316 18.23455
0.46484023 -3.7692277 2.0745251
0.49230433 -3.9805644 1.7088243
0.4800804 -3.8706918 1.2363966
0.69787586 -5.6107602 1.1649179
1.1113384 -8.9096355 0.89901233
1.3921546 -11.554394 10.446552
3.1139865 -25.732204 18.956985
0.55858833 -4.6021328 2.8098376
0.45213681 -3.7088594 1.8146731
0.53358561 -4.3644056 1.6194464
0.49040282 -3.9996536 1.0626043
0.95534354 -7.7805619 1.1855445
1.0172015 -8.2605791 0.42941591
-0.043355402 -0.12917674 14.203732
0.1883788 -1.9848254 12.67456
0.25599375 -2.5259278 12.229538
0.39148229 -3.6194003 11.685418
0.49858829 -4.4647551 10.643256
0.61953235 -5.4449687 10.110148
0.76710808 -6.6596308 9.9182892
0.92694801 -7.974133 9.6880312
0.0059945057 -0.82150501 14.045956
0.065992281 -1.4455042 13.452701
0.31537205 -3.0390151 11.800838
0.43475169 -4.0068507 11.014337
0.54518491 -4.8978367 10.25351
0.6827513 -6.0477996 10.025364
0.83260524 -7.29561 9.7980089
0.9928624 -8.6332369 9.4990158
1.0979172 -9.2757282 9.2586584
3.1021452 -26.092394 21.269438
3.2504182 -27.218067 18.056355
0.4558948 -3.8060143 2.0930755
0.48283002 -4.0190816 1.7238085
0.47173053 -3.9152076 1.2490869
1.06705 -8.8046961 0.88917649
1.35138 -11.555474 10.443226
3.2849312 -27.962881 20.584553
0.54252046 -4.6040545 2.8098376
0.4386543 -3.7059081 1.8125749
0.53003776 -4.464716 1.6539601
0.47586375 -3.9965146 1.0614319
1.0085077 -8.4575109 1.2801677
0.94920474 -7.9366813 0.41611487
-0.043806046 -0.12902461 14.203732
0.18144929 -1.9854709 12.67456
0.24707603 -2.5257924 12.224643
0.37806961 -3.613322 11.661559
0.48300034 -4.4664683 10.643256
0.6005221 -5.4470983 10.110148
0.74385697 -6.6622682 9.9182892
0.90054309 -7.9900594 9.7033806
0.0031258739 -0.82094359 14.035973
0.060946133 -1.4457257 13.452701
0.30476198 -3.0400975 11.800838
0.42076251 -4.0083437 11.014337
0.52785176 -4.8975449 10.249008
0.66163641 -6.0501461 10.025364
0.80713373 -7.2984719 9.7980089
0.96497399 -8.6568661 9.5210667
1.0675662 -9.2972183 9.2761812
3.012831 -26.11853 21.281992
0.45322102 -3.9107378 2.6657653
0.47148213 -4.043766 1.7331737
0.45917544 -3.9263597 1.251907
0.54709703 -4.6641288 0.98305702
0.98917717 -8.407753 0.85296315
1.3106149 -11.556412 10.4399
3.154815 -27.689041 20.375587
0.52644598 -4.6059203 2.8098376
0.41950309 -3.6533098 1.7873983
0.51553041 -4.4759216 1.6572472
0.61698544 -5.340477 1.3873361
0.99207044 -8.5741224 1.2960533
0.94568473 -8.1483765 0.42457917
-0.044256158 -0.1288709 14.203732
0.17458546 -1.9868661 12.6795
0.23825788 -2.5266395 12.224643
0.36485419 -3.6086788 11.64247
0.46720332 -4.4661841 10.638653
0.58125043 -5.4467793 10.10576
0.72029442 -6.6620269 9.9141569
0.87195146 -7.9867816 9.6957054
0.00026123456 -0.8203721 14.02599
0.055899236 -1.4459296 13.452701
0.29402733 -3.0398917 11.795999
0.40694234 -4.0115056 11.01903
0.51075286 -4.8993578 10.249008
0.64051342 -6.0524187 10.025364
0.78165239 -7.3012447 9.7980089
0.93693268 -8.6804047 9.5431175
1.2197012 -10.959655 10.916308
3.0457754 -27.239061 22.182728
0.43723309 -3.8915191 2.6520579
0.45996782 -4.0684199 1.7425389
0.46546733 -4.1042995 1.3040781
0.53081286 -4.6660099 0.98305702
0.8875522 -7.7778292 0.79573703
1.2698598 -11.557204 10.436575
3.0341914 -27.482933 20.216658
0.51178873 -4.6205835 2.8174374
0.40373629 -3.6276882 1.7748101
0.50409466 -4.5152373 1.6703953
0.58265191 -5.2025156 1.353339
0.96323907 -8.5873756 1.2974347
0.93846357 -8.3402834 0.43223736
-0.044705734 -0.12871563 14.203732
0.16764896 -1.9874635 12.6795
0.22943681 -2.5274558 12.224643
0.35196555 -3.6069593 11.632927
0.4514142 -4.4658442 10.63405
0.5622341 -5.4487753 10.10576
0.69674248 -6.6617017 9.9100237
0.84373051 -7.9865904 9.6918688
-0.0026024 -0.82036805 14.02599
0.050869983 -1.4466487 13.457672
0.28341433 -3.0408995 11.795999
0.39310521 -4.0146189 11.023723
0.49342975 -4.8989449 10.244507
0.61938268 -6.0546179 10.025364
0.75616151 -7.3039289 9.7980089
0.90697873 -8.6869946 9.546793
1.1822016 -10.970937 10.923318
3.0462108 -28.131819 22.898294
0.42364651 -3.8930216 2.6520579
0.44828704 -4.0930424 1.751904
0.4574247 -4.1631198 1.3209985
0.63292414 -5.7420244 1.1882334
0.87736464 -7.9343238 0.80959648
1.2291151 -11.557855 10.43325
2.9360924 -27.473263 20.201942
0.49749511 -4.6394873 2.82757
0.39107084 -3.6290753 1.7748101
0.49391335 -4.5686126 1.6884738
0.46857771 -4.3202095 1.1388049
0.94983715 -8.7433014 1.3188457
0.91313386 -8.378274 0.43364808
-0.045171332 -0.12859918 14.208733
0.16071039 -1.9880365 12.6795
0.22061294 -2.5282414 12.224643
0.33895364 -3.6037073 11.618611
0.43582273 -4.4673924 10.63405
0.54321086 -5.4507046 10.10576
0.67320168 -6.661293 9.9058905
0.81552136 -7.9862976 9.6880312
-0.0054660025 -0.82035393 14.02599
0.045819927 -1.4468175 13.457672
0.27279788 -3.0418704 11.795999
0.37908918 -4.0159664 11.023723
0.47632623 -4.9006371 10.244507
0.59798801 -6.0541472 10.021098
0.73066145 -7.3065238 9.7980089
0.87664998 -8.6901073 9.546793
1.1442684 -10.978545 10.926823
2.9711075 -28.362934 23.077187
0.40917909 -3.8861597 2.6465747
0.43399692 -4.0945826 1.751904
0.54484874 -5.1234951 1.6044152
0.85549384 -7.9918056 0.81451428
1.1887631 -11.562075 10.43325
2.8410056 -27.491385 20.207829
0.46795881 -4.5125613 2.7515745
0.37040266 -3.553679 1.7391431
0.47747177 -4.5656123 1.6868303
0.44487154 -4.2396388 1.1188755
0.91620576 -8.7170143 1.3147017
-0.04561995 -0.12844072 14.208733
0.15376985 -1.9885854 12.6795
0.21178639 -2.528996 12.224643
0.32637233 -3.6048684 11.618611
0.42022595 -4.4688864 10.63405
0.52441019 -5.4549513 10.110148
0.64994532 -6.6636024 9.9058905
0.78732455 -7.9859061 9.6841936
-0.008354228 -0.82235056 14.06093
0.040754706 -1.4464357 13.452701
0.26217812 -3.042804 11.795999
0.36506853 -4.0172653 11.023723
0.45921689 -4.9022703 10.244507
0.57685143 -6.0561981 10.021098
0.70486319 -7.3060303 9.7940187
0.84598202 -8.6897402 9.5431175
1.1055818 -10.978924 10.923318
2.8697324 -28.349895 23.058357
0.39095524 -3.841805 2.6164188
0.42820677 -4.1790843 1.7856187
0.53235769 -5.177856 1.6199255
0.43806648 -4.2462029 0.90191907
0.82964313 -8.0145578 0.81630266
1.1480279 -11.562438 10.429925
2.7458286 -27.50918 20.213717
0.4522042 -4.5141673 2.7515745
0.35981458 -3.5730131 1.7475353
0.46343088 -4.5860438 1.6934043
0.43006971 -4.2411661 1.1188755
0.88577211 -8.7201595 1.3147017
-0.046084855 -0.12832093 14.213732
0.14682746 -1.9891101 12.6795
0.20295724 -2.5297198 12.224643
0.31378698 -3.6059859 11.618611
0.4046241 -4.4703264 10.63405
0.50536567 -5.456749 10.110148
0.6264177 -6.6630287 9.9017572
0.75914043 -7.985415 9.680356
-0.011274597 -0.82549161 14.115839
0.035705455 -1.4465692 13.452701
0.25145173 -3.042448 11.791159
0.35089332 -4.0167961 11.01903
0.44210202 -4.9038434 10.244507
0.55570781 -6.0581746 10.021098
0.6793561 -7.3084464 9.7940187
0.81564403 -8.6926403 9.5431175
1.0669066 -10.979166 10.919813
2.7703767 -28.355865 23.055218
0.3771337 -3.8389847 2.6136773
0.41954982 -4.2405276 1.8099681
0.49769235 -5.0126071 1.5705743
0.81305796 -8.1313753 0.82658547
1.1073046 -11.562658 10.426599
2.6761308 -27.792189 20.413851
0.42110127 -4.3569584 2.6578469
0.34777921 -3.5787642 1.7496334
0.44879481 -4.6017337 1.6983349
-0.046532501 -0.12815928 14.213732
0.13982895 -1.9888353 12.67456
0.19412565 -2.5304129 12.224643
0.3010737 -3.6055717 11.613839
0.38901728 -4.4717116 10.63405
0.48610249 -5.4560938 10.10576
0.60315555 -6.665175 9.9017572
0.73126149 -7.9880161 9.680356
-0.014117234 -0.82342666 14.080896
0.03065577 -1.446685 13.452701
0.24083006 -3.0433073 11.791159
0.33686996 -4.0179968 11.01903
0.42479381 -4.9031878 10.240005
0.53455746 -6.0600777 10.021098
0.65357232 -7.3077717 9.7900286
0.78529602 -8.6954346 9.5431175
1.0282431 -10.979273 10.916308
2.6684601 -28.334366 23.030111
0.36373085 -3.8402779 2.6136773
0.39337039 -4.1379409 2.2623477
0.41355121 -4.3342657 1.8474287
0.46007183 -4.8042045 1.5085329
0.40841195 -4.2491579 0.90191907
0.79662359 -8.2580881 0.83776242
1.0669366 -11.566453 10.426599
2.5858223 -27.873806 20.466827
0.38150901 -4.0965753 2.5033233
0.33867022 -3.6161067 1.7664177
0.43405482 -4.6173763 1.7032654
0.71582156 -7.5724897 1.1530825
-0.046979576 -0.12799607 14.213732
0.13288577 -1.9893113 12.67456
0.18529168 -2.531075 12.224643
0.28836715 -3.6051128 11.609067
0.37340569 -4.4730425 10.63405
0.46705422 -5.4577575 10.10576
0.57988608 -6.6672397 9.9017572
0.70309258 -7.9873271 9.6765184
-0.017004544 -0.82394964 14.09088
0.025614737 -1.4473163 13.457672
0.23020546 -3.0441294 11.791159
0.32284248 -4.0191479 11.01903
0.40767592 -4.9046407 10.240005
0.51340061 -6.0619063 10.021098
0.62805945 -7.310009 9.7900286
0.75464541 -8.6947451 9.539443
0.98959196 -10.979243 10.912804
2.5698898 -28.34738 23.033249
0.35184234 -3.8581808 2.6246431
0.34985071 -3.8216712 2.0953944
0.41114509 -4.4741774 1.9036198
0.43272465 -4.6911383 1.4746921
0.39085972 -4.2212095 0.89632326
0.78438389 -8.4393282 0.85385728
1.0262256 -11.566387 10.423273
2.4921017 -27.922922 20.496258
0.33835414 -3.775862 2.3133347
0.34193397 -3.7935543 1.8482418
0.41878557 -4.6282692 1.7065524
0.42256725 -4.6520562 1.2173501
0.68938428 -7.5749426 1.1530825
0.81495404 -8.9203072 0.45501035
-0.047426078 -0.12783131 14.213732
0.12584311 -1.9882122 12.664681
0.17645545 -2.5317066 12.224643
0.27566746 -3.6046088 11.604295
0.35778964 -4.4743185 10.63405
0.44780439 -5.4569674 10.10137
0.5563755 -6.666419 9.897624
0.67493749 -7.9865389 9.6726809
-0.019835221 -0.82215375 14.06093
0.020562502 -1.4473969 13.457672
0.21948776 -3.0436606 11.78632
0.30881107 -4.0202503 11.01903
0.39038038 -4.9038639 10.235505
0.49202654 -6.0610628 10.016833
0.60253894 -7.3121567 9.7900286
0.72429049 -8.6973267 9.539443
0.95095342 -10.979077 10.9093
2.4705856 -28.352304 23.030111
0.33800751 -3.8552203 2.621902
0.33378968 -3.7919798 2.0791626
0.39838132 -4.5079103 1.9167309
0.40871617 -4.6066108 1.4493115
0.36653465 -4.1149054 0.87580574
0.76334798 -8.5362587 0.86235183
0.98552817 -11.566178 10.419948
2.3922007 -27.903259 20.475657
0.32258382 -3.7469554 2.2956023
0.34161308 -3.9439375 1.9174775
0.40385467 -4.6438165 1.711483
0.406326 -4.6535029 1.2173501
0.65603304 -7.4983716 1.1420317
0.78381139 -8.9230967 0.45501035
-0.047872007 -0.12766498 14.213732
0.11894841 -1.9894149 12.669621
0.16761705 -2.5323071 12.224643
0.2629748 -3.6040602 11.599523
0.3420203 -4.4735923 10.629448
0.4285658 -5.4561095 10.096981
0.53332627 -6.6711259 9.9017572
0.64679641 -7.9856515 9.6688433
-0.022679256 -0.82121378 14.045956
0.015510019 -1.4474598 13.457672
0.20886207 -3.0444081 11.78632
0.29477587 -4.0213041 11.01903
0.37326032 -4.9051967 10.235505
0.47086647 -6.0627437 10.016833
0.57701111 -7.3142152 9.7900286
0.69365716 -8.6964216 9.5357676
0.91232818 -10.978776 10.905795
2.3709536 -28.352997 23.023834
0.32454824 -3.8563769 2.621902
0.32129717 -3.8019502 2.0838003
0.38225135 -4.5046535 1.9148579
0.35133123 -4.1063704 0.87394041
0.74974328 -8.7274151 0.87934077
0.9448446 -11.565826 10.416622
2.2927983 -27.887268 20.457996
0.29283071 -3.5461385 2.1765432
0.34851462 -4.1938677 2.0328705
0.38842762 -4.6546092 1.71477
0.37465623 -4.4708338 1.1728021
0.6335842 -7.5450273 1.1482477
-0.048299801 -0.12745716 14.208733
0.11191631 -1.9882665 12.659742
0.15871306 -2.5318604 12.219748
0.25028935 -3.6034675 11.594751
0.32626036 -4.4728098 10.624846
0.40951779 -5.4575725 10.096981
0.51196617 -6.6981993 9.9389544
0.61891735 -7.9878602 9.6688433
-0.025526548 -0.82055259 14.035973
0.01046079 -1.4480382 13.462644
0.19823383 -3.0451188 11.78632
0.280617 -4.0205865 11.014337
0.35597816 -4.9042978 10.231004
0.44970071 -6.0643497 10.016833
0.55102324 -7.3101754 9.7820482
0.66329682 -8.6987906 9.5357676
0.87399954 -10.981893 10.905795
2.2691715 -28.326181 22.995588
0.31478179 -3.9033327 2.6520579
0.30909663 -3.8162944 2.0907567
0.36840406 -4.5290642 1.9242231
0.37381232 -4.5758839 1.4394413
0.6241737 -7.6080713 1.5407639
0.72254568 -8.7696838 0.8829174
0.90417564 -11.565332 10.413297
2.1954396 -27.895102 20.457996
0.28045058 -3.5471389 2.1765432
0.36483631 -4.5841408 2.2133029
0.37293014 -4.6653509 1.718057
0.6132006 -7.6212354 1.158608
-0.048744414 -0.12728778 14.208733
0.10522009 -1.9933007 12.689378
0.14987426 -2.5323989 12.219748
0.23770937 -3.6043193 11.594751
0.3105101 -4.4719725 10.620243
0.39046481 -5.4589686 10.096981
0.48858199 -6.6999454 9.9389544
0.59103072 -7.9899721 9.6688433
-0.02834834 -0.81930447 14.016006
0.0054061301 -1.4480659 13.462644
0.18760316 -3.0457923 11.78632
0.26658085 -4.0215416 11.014337
0.33885682 -4.9055109 10.231004
0.42852941 -6.0658827 10.016833
0.52636647 -7.3240762 9.7980089
0.6326825 -8.6976719 9.532093
0.83511931 -10.977766 10.898787
2.1699836 -28.33005 22.992449
0.3043699 -3.9460979 2.6794724
0.35403121 -4.5488105 1.9317151
0.35783726 -4.5771608 1.4394413
0.59184444 -7.5367465 1.5267745
0.86352152 -11.564694 10.409971
2.0974479 -27.894535 20.45211
0.26774231 -3.5437977 2.1740098
0.36501181 -4.7980828 2.3119113
0.35736236 -4.6760411 1.721344
0.47811961 -6.2277246 1.597181
0.60179043 -7.8208275 1.1862352
-0.049188439 -0.12711686 14.208733
0.047447108 -0.95838338 6.1004076
0.14097714 -2.5318902 12.214852
0.22503354 -3.603637 11.589979
0.29476964 -4.4710798 10.61564
0.37140709 -5.4602985 10.096981
0.47025734 -6.7745991 10.046411
0.56313694 -7.9919863 9.6688433
-0.031266 -0.82064283 14.040963
0.00035140393 -1.448076 13.462644
0.17697023 -3.0464284 11.78632
0.25243339 -4.0207257 11.009645
0.32158896 -4.9044924 10.226502
0.40735292 -6.0673418 10.016833
0.50244123 -7.3499188 9.8299294
0.60231805 -8.6998272 9.532093
0.79653662 -10.977057 10.895282
0.29304937 -3.9804981 2.7014043
0.33815074 -4.5500188 1.9317151
0.34078631 -4.5640311 1.4352112
0.56406283 -7.5191727 1.5230441
0.57821923 -7.6720886 0.7836659
0.82288301 -11.563914 10.406646
2.0000651 -27.901686 20.45211
0.25568023 -3.5490105 2.1765432
0.40639564 -5.6005397 2.6832669
0.34172451 -4.6866798 1.7246311
0.45673299 -6.2342033 1.5983534
0.58718085 -7.9957371 1.2104089
2.943619 -39.893753 1.7073236
-0.049631856 -0.12694438 14.208733
0.04427835 -0.96242416 6.125104
0.13213834 -2.532367 12.214852
0.21245313 -3.6044006 11.589979
0.27903926 -4.4701319 10.611038
0.35234484 -5.4615617 10.096981
0.45030722 -6.8323584 10.129069
0.53523624 -7.9939036 9.6688433
-0.034142978 -0.82081705 14.045956
-0.0047011864 -1.4475353 13.457672
0.16633514 -3.0470278 11.78632
0.23829485 -4.0198598 11.004951
0.30433232 -4.9034119 10.222002
0.38600588 -6.0661235 10.012568
0.47931692 -7.3907185 9.8817987
0.571724 -8.698494 9.5284176
0.75796902 -10.976213 10.891777
0.2838316 -4.0482359 2.7452679
0.32717746 -4.6205368 1.9598107
0.35685715 -5.0149794 1.5677543
0.53956437 -7.5455947 1.5277072
0.55750281 -7.7585015 0.7912662
0.78251249 -11.566716 10.406646
1.9023827 -27.904465 20.449167
0.25065789 -3.6573992 2.2398727
0.38621831 -5.5928683 2.6790707
0.32667062 -4.706687 1.7312051
0.43057197 -6.1727247 1.5831132
0.5637576 -8.0619583 1.2193878
2.8071477 -39.943653 1.7089356
-0.050074674 -0.12677036 14.208733
0.040722553 -0.95791501 6.0954685
0.12329792 -2.5328126 12.214852
0.19978759 -3.6036298 11.585207
0.26343387 -4.4710789 10.611038
0.33327827 -5.4627581 10.096981
0.43223745 -6.9265709 10.265456
0.50712615 -7.9925241 9.6650057
-0.037021559 -0.82098126 14.050947
-0.0097539984 -1.44751 13.457672
0.15569802 -3.0475898 11.78632
0.22426148 -4.0206671 11.004951
0.28721437 -4.9044442 10.222002
0.3648288 -6.0674338 10.012568
0.45554486 -7.4254298 9.9256897
0.5413571 -8.7004366 9.5284176
0.7191838 -10.971675 10.884768
1.2219398 -18.494022 15.027046
0.26858753 -4.0325131 2.734302
0.29010651 -4.3329473 2.3597374
0.31322572 -4.6540284 1.972922
0.33934945 -5.0161943 1.5677543
0.52702135 -7.7107167 0.78679544
0.74189329 -11.565651 10.40332
1.8057489 -27.923037 20.457996
0.24152558 -3.714174 2.2728038
0.34532118 -5.2681088 2.5280108
0.31023923 -4.707799 1.7312051
0.53560936 -8.0850878 2.0450063
0.53659731 -8.078701 1.2214599
-0.050516881 -0.1265948 14.208733
0.03752837 -0.96193337 6.1201649
0.11445601 -2.5332277 12.214852
0.18720736 -3.6043053 11.585207
0.24771725 -4.4700203 10.606436
0.31420767 -5.4638882 10.096981
0.40739492 -6.916801 10.248925
0.47922391 -7.994246 9.6650057
-0.039887093 -0.82084703 14.050947
-0.014806692 -1.4474672 13.457672
0.14505899 -3.0481145 11.78632
0.21013536 -4.019702 11.000259
0.2700929 -4.905417 10.222002
0.3436473 -6.0686703 10.012568
0.43205822 -7.46909 9.9815502
0.51078492 -8.6988888 9.5247421
0.68066025 -10.970558 10.881263
1.155918 -18.474869 15.008216
0.2555629 -4.0501184 2.7452679
0.27077299 -4.2676201 2.3249555
0.2975685 -4.6643467 1.9766681
0.31016934 -4.835434 1.514173
0.54946995 -8.5197878 1.712366
0.53361529 -8.2293406 0.83329165
0.70129108 -11.564443 10.399995
1.7053075 -27.880758 20.42268
0.22882389 -3.7192972 2.275337
0.28365237 -4.571691 2.2049108
0.29439211 -4.7182789 1.7344921
0.4921661 -7.8443537 1.9863904
0.51336914 -8.1596012 1.2325107
-0.050958473 -0.1264177 14.208733
0.034034107 -0.9581759 6.0954685
0.10561269 -2.5336118 12.214852
0.17455271 -3.6034458 11.580435
0.23211247 -4.4708576 10.606436
0.2950041 -5.4625597 10.092592
0.38402635 -6.932229 10.269589
0.45113531 -7.9926705 9.6611681
-0.042752143 -0.82070279 14.050947
-0.019866927 -1.4479398 13.462644
0.13436292 -3.0473464 11.78148
0.19610269 -4.020411 11.000259
0.25296816 -4.9063296 10.222002
0.32232326 -6.0672288 10.008301
0.4059836 -7.4705529 9.9815502
0.48041698 -8.7006187 9.5247421
0.64215332 -10.969308 10.877758
1.085914 -18.385536 14.932893
0.24067764 -4.0384636 2.7370431
0.25587454 -4.2685394 2.3249555
0.28770155 -4.77179 2.0197477
0.28283617 -4.6641097 1.4634118
0.51972699 -8.5216532 1.712366
0.50945967 -8.3057127 0.83999789
0.6607064 -11.563093 10.396669
1.6089057 -27.902679 20.434452
0.21009779 -3.6210914 2.2170739
0.2409063 -4.115046 1.9930075
0.274867 -4.6674237 1.7164135
0.36734608 -6.2011557 1.5889748
0.4942818 -8.3195314 1.2546124
-0.05139944 -0.12623903 14.208733
0.030664697 -0.9575122 6.090529
0.096729368 -2.5329478 12.209957
0.16190633 -3.6025419 11.575663
0.21659927 -4.4735923 10.611038
0.27593443 -5.4635563 10.092592
0.35909703 -6.919477 10.248925
0.42323294 -7.9941959 9.6611681
-0.045616668 -0.82054859 14.050947
-0.024921058 -1.4478616 13.462644
0.12372489 -3.047797 11.78148
0.18198967 -4.0193472 10.995566
0.23584034 -4.9071827 10.222002
0.30114275 -6.0683174 10.008301
0.38005701 -7.4749336 9.9855394
0.4498682 -8.6988573 9.5210667
0.60366344 -10.967922 10.874254
1.0159001 -18.284285 14.848154
0.22494031 -4.0100555 2.7178531
0.27288291 -4.8051643 2.0328588
0.77696538 -13.515846 2.6617732
0.48506477 -8.3869867 0.84715116
0.62033963 -11.565329 10.396669
1.3980507 -25.813395 18.906952
0.19417179 -3.5615408 2.1816094
0.30834141 -5.6022472 2.6811688
0.25570056 -4.6164904 1.6983349
0.34407485 -6.1732812 1.5819409
0.46523821 -8.3212051 1.2546124
-0.051839784 -0.12605885 14.208733
0.087887138 -2.5332699 12.209957
0.14933014 -3.603085 11.575663
0.2009822 -4.4743214 10.611038
0.25686136 -5.4644866 10.092592
0.49554893 -10.240169 15.129938
0.39532539 -7.995625 9.6611681
-0.048463013 -0.82009619 14.045956
-0.029974887 -1.4477657 13.462644
0.11308533 -3.0482101 11.78148
0.16795841 -4.019958 10.995566
0.21870963 -4.9079762 10.222002
0.27983838 -6.0667262 10.004035
0.35396227 -7.4762149 9.9855394
0.41950077 -8.7003746 9.5210667
0.56519103 -10.9664 10.870749
0.95206988 -18.28772 14.848154
0.21291736 -4.0483971 2.7425263
0.24386427 -4.6064162 2.5011845
0.25265476 -4.7412767 2.0066366
0.73004627 -13.523381 2.6627059
0.61978447 -11.407021 1.1185281
0.57977843 -11.563694 10.393344
1.3079367 -25.818117 18.906952
0.1817385 -3.562197 2.1816094
0.2831783 -5.4945092 2.6308155
0.23982911 -4.6220708 1.6999784
0.32252398 -6.1744442 1.5819409
0.43722561 -8.3425598 1.2573752
0.56483507 -10.706133 0.52615076
-0.052279498 -0.12587713 14.208733
0.079043843 -2.5335612 12.209957
0.1367521 -3.6035845 11.575663
0.18536268 -4.4749956 10.611038
0.23768115 -5.4629574 10.088202
0.46043193 -10.255891 15.150602
0.367266 -7.9937539 9.6573305
-0.051306762 -0.81963396 14.040963
-0.03502835 -1.4476522 13.462644
0.10240228 -3.0473301 11.776641
0.15385918 -4.0187955 10.990873
0.20157625 -4.90871 10.222002
0.25865987 -6.0676656 10.004035
0.32773131 -7.4743948 9.9815502
0.38897678 -8.6983986 9.5173922
0.52690768 -10.968307 10.870749
0.88709539 -18.267605 14.829324
0.19898951 -4.0532923 2.7452679
0.22887693 -4.6293612 2.5127783
0.2361031 -4.7421298 2.0066366
0.78545326 -15.667055 4.7008471
0.67788309 -13.427727 2.6440535
0.5807212 -11.424035 1.1198692
0.53941005 -11.565648 10.393344
0.80386698 -17.044964 12.508521
0.16848473 -3.5455859 2.1714766
0.16862272 -3.5098817 1.7118685
0.22369361 -4.62288 1.6999784
0.29765689 -6.1075649 1.5655285
0.40810198 -8.3440351 1.2573752
0.53237605 -10.807837 0.53018135
-0.052718572 -0.12569387 14.208733
0.070199586 -2.5338218 12.209957
0.12417241 -3.6040399 11.575663
0.16966692 -4.4736629 10.606436
0.21861042 -5.4637537 10.088202
0.42393121 -10.240566 15.125804
0.33936033 -7.9949875 9.6573305
-0.054167505 -0.8194499 14.040963
-0.040081386 -1.4475211 13.462644
0.091764502 -3.0476689 11.776641
0.13977011 -4.0175834 10.98618
0.18435878 -4.9072084 10.217501
0.23747817 -6.0685315 10.004035
0.30163881 -7.475493 9.9815502
0.35861138 -8.6997032 9.5173922
0.48845932 -10.966517 10.867245
0.18560131 -4.0706701 2.7562337
0.21373239 -4.6522574 2.5243723
0.73165417 -15.688869 4.7064872
0.61878866 -13.169949 2.5946245
0.53989851 -11.406096 1.118081
0.49887422 -11.56373 10.390018
0.74542183 -17.071894 12.526179
0.15553869 -3.5332325 2.1638772
0.1547545 -3.4741766 1.695084
0.20861408 -4.6472192 1.7081959
0.37942266 -8.3553028 1.2587565
0.49099246 -10.729777 0.52695686
-0.053157002 -0.12550908 14.208733
0.06135447 -2.5340514 12.209957
0.11154511 -3.6029594 11.570891
0.15404987 -4.4742274 10.606436
0.19944969 -5.4620905 10.083815
0.38892823 -10.261668 15.154735
0.31132585 -7.9929204 9.6534929
-0.05702759 -0.81925583 14.040963
-0.045116909 -1.4468396 13.457672
0.081092246 -3.0467143 11.771801
0.12569137 -4.0163217 10.981487
0.16722831 -4.9078217 10.217501
0.21629359 -6.0693235 10.004035
0.27554265 -7.4765005 9.9815502
0.32824156 -8.700902 9.5173922
0.44988352 -10.961027 10.860236
0.7171942 -17.254448 14.007048
0.17121506 -4.0671158 2.7534921
0.20143588 -4.7459178 2.5730669
0.20358583 -4.7575574 2.0122557
0.67481792 -15.643402 4.6923871
0.57473391 -13.216197 2.6030183
0.52407062 -11.955182 1.1672597
0.4585062 -11.565401 10.390018
0.68566304 -17.070353 12.523237
0.14268093 -3.5208318 2.1562774
0.14392911 -3.5064385 1.7097704
0.19258629 -4.652638 1.7098395
0.32149491 -7.7023921 1.9500486
0.35336548 -8.4307928 1.2691168
0.45016038 -10.651563 0.52373236
-0.05359479 -0.12532276 14.208733
0.052487638 -2.533232 12.205062
0.098967753 -3.6033268 11.570891
0.13837063 -4.4727855 10.601833
0.18038222 -5.4627533 10.083815
0.35368636 -10.279837 15.179533
0.28342342 -7.9939585 9.6534929
-0.060038496 -0.82106692 14.075906
-0.050167046 -1.4466733 13.457672
0.070456736 -3.0469787 11.771801
0.11162314 -4.0150108 10.976794
0.1500293 -4.9061995 10.212999
0.19502264 -6.0674353 9.9997692
0.24934267 -7.4744048 9.97756
0.29786772 -8.7019949 9.5173922
0.41161969 -10.962531 10.860236
0.65947759 -17.322968 14.060402
0.15685588 -4.0635099 2.7507505
0.18486832 -4.746592 2.5730669
0.18897967 -4.8091946 2.0328588
0.61849809 -15.602523 4.6796966
0.53782248 -13.448813 2.6468513
0.48233607 -11.956938 1.1672597
0.41813263 -11.566931 10.390018
0.62607229 -17.072641 12.523237
0.12991166 -3.5083849 2.1486781
0.13168848 -3.5069196 1.7097704
0.17688078 -4.667438 1.71477
0.29442084 -7.6986103 1.9488763
0.32393438 -8.4319744 1.2691168
0.41065443 -10.593163 0.52131397
-0.05403192 -0.12513492 14.208733
0.043644685 -2.5333998 12.205062
0.086389184 -3.6036501 11.570891
0.12275685 -4.4732413 10.601833
0.16131257 -5.4633498 10.083815
0.21358617 -6.9086032 10.224128
0.2555176 -7.9948993 9.6534929
-0.063017443 -0.82229125 14.100863
-0.055195831 -1.4459566 13.452701
0.059820365 -3.0472062 11.771801
0.097607456 -4.0153761 10.976794
0.13290255 -4.9066935 10.212999
0.17384216 -6.068079 9.9997692
0.2232506 -7.4752297 9.97756
0.26738617 -8.6995935 9.5137167
0.37322947 -10.960338 10.856731
0.59913963 -17.329054 14.06354
0.14164402 -4.0347805 2.7315605
0.17206447 -4.853457 2.6287181
0.21083072 -5.8893027 2.4692755
0.56333828 -15.585411 4.6740565
0.49069491 -13.445701 2.6459186
0.42721081 -11.595257 1.1346229
0.37751025 -11.560856 10.383368
0.45350042 -13.669187 10.042152
0.11723103 -3.495892 2.1410785
0.11944625 -3.5073578 1.7097704
0.16042495 -4.6633072 1.7131264
0.26788345 -7.7093067 1.9512208
0.28931457 -8.2845821 1.2483963
0.37314662 -10.579554 0.52070946
-0.054468393 -0.12494556 14.208733
0.034801204 -2.5335367 12.205062
0.073809579 -3.6039298 11.570891
0.10709487 -4.4716892 10.59723
0.14224093 -5.4638796 10.083815
0.18977773 -6.9205589 10.240659
0.22760862 -7.9957423 9.6534929
-0.065958358 -0.82292956 14.115839
-0.060242824 -1.4457551 13.452701
0.049203448 -3.0486531 11.776641
0.083554745 -4.0139675 10.972102
0.11577418 -4.9071274 10.212999
0.152594 -6.0660415 9.9955034
0.19715582 -7.4759636 9.97756
0.23701727 -8.7004738 9.5137167
0.33496848 -10.961574 10.856731
0.12610635 -3.9892781 2.7014043
0.15625341 -4.8894486 2.6472688
0.19176856 -5.9363379 2.4880059
0.50814891 -15.56331 4.6670065
0.44359565 -13.442422 2.6449859
0.38656726 -11.591702 1.1341759
0.33758834 -11.577032 10.396669
0.1047686 -3.4876621 2.1360121
0.10720255 -3.5077536 1.7097704
0.144146 -4.6638389 1.7131264
0.24127498 -7.7199111 1.9535655
0.26303852 -8.3696842 1.2601379
0.35224041 -11.085126 0.54106408
-0.054923814 -0.12479363 14.213732
0.025957298 -2.5336428 12.205062
0.061229069 -3.6041656 11.570891
0.091485113 -4.4720359 10.59723
0.12316757 -5.4643426 10.083815
0.16541746 -6.9127388 10.22826
0.1996969 -7.9964881 9.6534929
-0.068978466 -0.82442003 14.145789
-0.065289088 -1.445536 13.452701
0.038561366 -3.0488062 11.776641
0.06954287 -4.0142345 10.972102
0.098600723 -4.9053254 10.208498
0.1313622 -6.06393 9.9912367
0.17098975 -7.4735942 9.9735699
0.2066455 -8.7012482 9.5137167
0.35274944 -13.033911 12.892873
0.11041818 -3.9269972 2.6602821
0.39730549 -13.791596 5.6627965
0.45326054 -15.545808 4.661366
0.39855349 -13.50772 2.6571102
0.33035004 -11.065337 1.0867854
0.29842007 -11.626664 10.4399
0.35964835 -13.73263 10.0863
0.092250712 -3.4750788 2.1284127
0.094957553 -3.5081062 1.7097704
0.12773591 -4.6595936 1.711483
0.21432599 -7.720706 1.9535655
0.23382126 -8.3705521 1.2601379
0.31834602 -11.256083 0.54791611
-0.055359092 -0.12460116 14.213732
0.017113078 -2.5337179 12.205062
0.048627745 -3.6028647 11.566119
0.075874239 -4.4723282 10.59723
0.10409269 -5.4647393 10.083815
0.14122905 -6.9104609 10.224128
0.17178272 -7.9971366 9.6534929
-0.071958467 -0.82532448 14.165755
-0.070334546 -1.4452994 13.452701
0.027918808 -3.0489223 11.776641
0.055530157 -4.0144525 10.972102
0.081477344 -4.9056396 10.208498
0.11019434 -6.0643516 9.9912367
0.14490101 -7.4741454 9.9735699
0.1762026 -8.6985264 9.5100412
0.30632624 -12.995845 12.854323
0.39701799 -16.478317 13.373079
0.096401051 -3.914818 2.6520579
0.35608274 -14.066332 5.7733059
0.39813137 -15.513728 4.6514959
0.34922892 -13.425549 2.6412556
0.31626272 -11.997355 1.1703893
0.31281072 -13.782292 10.121618
0.080119863 -3.4753797 2.1284127
0.082925245 -3.5174909 1.7139665
0.11147012 -4.6600108 1.711483
0.18725647 -7.716548 1.9523932
0.20460115 -8.3713169 1.2601379
0.28264338 -11.401963 0.55376047
-0.055813577 -0.124446 14.218732
0.0082654478 -2.5327439 12.200167
0.036051106 -3.6030126 11.566119
0.060262434 -4.4725657 10.59723
0.085053764 -5.467464 10.088202
0.11710618 -6.910912 10.224128
0.14386646 -7.9976873 9.6534929
-0.074652277 -0.82305604 14.130814
-0.075379156 -1.445045 13.452701
0.017275915 -3.0490012 11.776641
0.041516766 -4.0146217 10.972102
0.064352967 -4.9058943 10.208498
0.089025132 -6.0646992 9.9912367
0.11876263 -7.4715929 9.9695807
0.14583799 -8.6990891 9.5100412
0.28200331 -14.045101 13.884659
0.33885428 -16.448471 13.347972
0.083176702 -3.9360335 2.6657653
0.35016334 -16.046555 6.573091
0.34206215 -15.428697 4.6261153
0.30103576 -13.367754 2.630064
0.26469964 -13.783299 10.121618
0.067313947 -3.4411585 2.1081471
0.070737496 -3.5222967 1.7160646
0.09510655 -4.6556506 1.7098395
0.18141712 -8.7328072 2.1974077
0.17537856 -8.3719797 1.2601379
0.24401146 -11.457823 0.55597734
-0.056267653 -0.12428918 14.223732
-0.00057552831 -2.5327573 12.200167
0.023474026 -3.6031163 11.566119
0.044630464 -4.4707952 10.592628
0.065968238 -5.4677272 10.088202
0.092944063 -6.9084649 10.219995
0.11594845 -7.9981413 9.6534929
-0.077469483 -0.82221574 14.12083
-0.080422848 -1.4447732 13.452701
0.0066328091 -3.0490429 11.776641
0.027502868 -4.0147424 10.972102
0.047227811 -4.9060888 10.208498
0.067854837 -6.0649729 9.9912367
0.092681184 -7.471962 9.9695807
0.11547162 -8.6995449 9.5100412
0.23628624 -14.245684 14.080914
0.28203547 -16.484579 13.376219
0.070247628 -3.9822881 2.6959214
0.29691985 -16.513081 8.7318001
0.29440314 -16.061584 6.5787096
0.28990585 -15.520924 4.6529059
0.29462627 -15.20577 1.4583082
0.21614091 -13.75585 10.101016
0.056132242 -3.4930952 2.1385453
0.058592457 -3.5315981 1.7202607
0.078854717 -4.6559544 1.7098395
0.15328431 -8.8694639 2.2302325
0.20419258 -11.468596 0.55638039
-0.056701157 -0.12409201 14.223732
-0.0094164982 -2.5327399 12.200167
0.01089666 -3.6031764 11.566119
0.02901159 -4.4689703 10.588025
0.046881903 -5.4679241 10.088202
0.068800457 -6.9059334 10.215861
0.088029027 -7.998497 9.6534929
-0.080310412 -0.82165307 14.115839
-0.085465558 -1.4444836 13.452701
-0.0040086219 -3.0477908 11.771801
0.013482911 -4.0130887 10.96741
0.030102076 -4.9062238 10.208498
0.046683718 -6.0651727 9.9912367
0.066571787 -7.4692264 9.9655905
0.085070714 -8.6965055 9.5063658
0.18800518 -14.356965 14.189554
0.22427988 -16.469894 13.363665
0.055341523 -3.9114318 2.6493163
0.24011084 -16.5716 8.7619448
0.23819838 -16.053242 6.5749636
0.23579881 -15.526639 4.6543159
0.10179859 -6.5521469 1.3355874
0.24107186 -15.176829 1.4556257
0.20451748 -17.48385 15.654284
0.043234516 -3.4372339 2.1056142
0.046264522 -3.531781 1.7202607
0.062474996 -4.6467571 1.7065524
0.097567618 -6.9865584 1.0667475
0.16415846 -11.469238 0.55638039
-0.057133976 -0.12389334 14.223732
-0.018257353 -2.5326915 12.200167
-0.0016808379 -3.6031926 11.566119
0.013400202 -4.4651365 10.57882
0.027782878 -5.4656601 10.083815
0.044693835 -6.9061313 10.215861
0.06010852 -7.9987555 9.6534929
-0.083118677 -0.82079339 14.105856
-0.090507217 -1.4441764 13.452701
-0.014647371 -3.0477581 11.771801
-0.00052546407 -4.0131111 10.96741
0.012975976 -4.9062991 10.208498
0.02551203 -6.065299 9.9912367
0.040498912 -7.4694133 9.9655905
0.054713726 -8.6967497 9.5063658
0.14274998 -14.863919 14.687201
0.04146516 -3.8906953 2.6356089
0.032342274 -2.9382229 1.6246779
0.078157678 -6.4886074 1.3234633
0.14351685 -17.488192 15.657611
0.11689266 -13.389215 9.8331881
0.031118695 -3.424432 2.0980146
0.034023155 -3.5409973 1.7244568
0.046442311 -4.6658344 1.7131264
0.061379828 -5.9589577 1.5280142
0.069030814 -6.5907125 1.0114931
0.12428454 -11.484729 0.55698496
-0.057566095 -0.12369315 14.223732
-0.016132737 -0.9570902 6.0855904
-0.027097985 -2.5326126 12.200167
-0.014258316 -3.6031647 11.566119
-0.0021830467 -4.4592953 10.565013
0.0087039964 -5.4657235 10.083815
0.020561619 -6.8978033 10.203463
0.03217442 -7.9957113 9.6496553
-0.08619801 -0.82250768 14.140797
-0.095547788 -1.4438517 13.452701
-0.025285942 -3.0476882 11.771801
-0.014533833 -4.0130849 10.96741
-0.0041502831 -4.9063144 10.208498
0.0043382109 -6.0627427 9.9869709
0.014425547 -7.4695091 9.9655905
0.024356073 -8.696888 9.5063658
0.092868574 -15.192415 15.009618
0.027464945 -3.832278 2.5972285
0.022019276 -2.9294584 1.6200403
0.026975721 -3.4312966 1.4746952
0.046296671 -5.6414938 1.7482384
0.082523577 -17.499786 15.667586
0.070239522 -13.405709 9.8449612
0.020969454 -3.4276338 1.6720055
0.029850287 -4.6187482 1.6966914
0.038097426 -5.5945973 1.4400904
0.045263931 -6.4819698 0.99629813
-0.057976961 -0.12345297 14.218732
-0.035938285 -2.5325024 12.200167
-0.02683562 -3.6030929 11.566119
-0.017741036 -4.4573069 10.56041
-0.010374992 -5.4657207 10.083815
-0.0035222271 -6.9090896 10.219995
0.0042639845 -7.9957752 9.6496553
-0.088688418 -0.81875831 14.080896
-0.10054972 -1.4429777 13.447729
-0.035924207 -3.0475814 11.771801
-0.028529676 -4.0112839 10.962717
-0.021276491 -4.90627 10.208498
-0.016824737 -6.0627213 9.9869709
-0.011643261 -7.4665008 9.9616003
-0.0060018776 -8.6969194 9.5063658
0.040900949 -15.5992 15.409138
0.041918047 -13.326369 10.827792
0.014378821 -3.911797 2.6493163
0.011864554 -2.9472365 1.6293155
0.0149981 -3.4313695 1.4746952
0.025948338 -5.5025082 1.7073475
0.02863037 -5.6539226 1.1649179
0.042198755 -7.7983117 0.79305458
0.021441991 -17.503702 15.670913
0.023232788 -13.284612 9.7566652
0.0062089055 -2.9460678 1.8168316
0.0082323244 -3.1326833 1.535632
0.013727667 -4.618824 1.6966914
0.017859187 -5.3808298 1.3885086
0.022654647 -6.487041 0.99698883
0.037120968 -9.6668081 0.48362774
-0.05838684 -0.12321142 14.213732
-0.022644406 -0.94996327 6.0411367
-0.04477815 -2.5323617 12.200167
-0.039429013 -3.60447 11.570891
-0.03337314 -4.4669857 10.583423
-0.029440895 -5.4632559 10.079425
-0.027628129 -6.9062209 10.215861
-0.023646504 -7.9957409 9.6496553
-0.09131711 -0.81643593 14.045956
-0.10558604 -1.4426179 13.447729
-0.046562031 -3.0474374 11.771801
-0.042531494 -4.0111599 10.962717
-0.038402438 -4.9061661 10.208498
-0.037987478 -6.0626254 9.9869709
-0.037721392 -7.4694281 9.9655905
-0.036359757 -8.696846 9.5063658
-0.0045863325 -13.287511 10.796407
0.00072985271 -3.9452748 2.6712482
0.0015790261 -2.9516897 1.6316342
0.003004109 -3.4128575 1.4672031
0.0063598868 -5.1907563 1.6156954
0.0089251883 -5.6736369 1.1686484
0.014958187 -7.7884517 0.79216039
-0.039657459 -17.50367 15.670913
-0.023393266 -13.430124 9.8626194
-0.004086866 -2.9546933 1.821898
-0.0028335252 -3.282464 1.6048678
-0.0023901763 -4.6093993 1.6934043
-0.00087008841 -5.0746403 1.3146524
1.051124e-05 -6.4870806 0.99698883
0.0033720552 -9.6518908 0.48302314
-0.058795746 -0.12296852 14.208733
-0.026132734 -0.95609206 6.0806508
-0.053617466 -2.5321898 12.200167
-0.052053966 -3.6072955 11.580435
-0.048987113 -4.4687958 10.588025
-0.048511039 -5.46312 10.079425
-0.05141839 -6.8638735 10.153868
-0.051536005 -7.9924045 9.6458178
-0.093930677 -0.81410515 14.011014
-0.1105799 -1.4417092 13.442758
-0.057199292 -3.0472565 11.771801
-0.056508403 -4.0092616 10.958024
-0.055527918 -4.906002 10.208498
-0.059149761 -6.0624557 9.9869709
-0.063768566 -7.4662375 9.9616003
-0.066743217 -8.7000551 9.5100412
-0.078054219 -17.90288 17.673075
-0.051028155 -13.302983 10.808961
-0.013055597 -3.949435 2.6739895
-0.0086191567 -2.9162388 1.6130838
-0.0092245564 -3.5333807 1.5159019
-0.011770156 -5.1955438 1.6171055
-0.010577773 -5.5164423 1.1388046
-0.012064404 -7.683877 0.78277171
-0.10099299 -17.544497 15.707494
-0.06993439 -13.365291 9.8155289
-0.01431638 -2.9374182 1.8117652
-0.014291446 -3.282434 1.6048678
-0.015731379 -3.924654 1.4550955
-0.017906915 -4.8899035 1.2701044
-0.022184195 -6.3582878 0.97903115
-0.030743115 -9.7867336 0.48846447
-0.059203669 -0.12272426 14.203732
-0.029639853 -0.96143132 6.1152253
-0.062456135 -2.5319872 12.200167
-0.064484462 -3.5981371 11.551804
-0.064670719 -4.4744582 10.601833
-0.067580596 -5.4629178 10.079425
-0.074727699 -6.8045607 10.067075
-0.079434387 -7.9921761 9.6458178
-0.096459724 -0.81119287 13.966089
-0.11552569 -1.4402517 13.432815
-0.067835853 -3.0470383 11.771801
-0.070502996 -4.0090399 10.958024
-0.07265272 -4.9057784 10.208498
-0.080311313 -6.0622125 9.9869709
-0.089612484 -7.4478917 9.9376602
-0.097111672 -8.699769 9.5100412
-0.14051844 -17.898933 17.669569
-0.097178608 -13.263803 10.777576
-0.026443154 -3.8908265 2.6356089
-0.018941708 -2.9383397 1.6246779
-0.021558302 -3.5333269 1.5159019
-0.029833684 -5.5163717 1.1388046
-0.038785242 -7.6638684 0.78098339
-0.16268307 -17.592573 15.750724
-0.11648171 -13.352839 9.8066998
-0.024461456 -2.9244184 1.8041657
-0.025214516 -3.2142885 1.5733969
-0.028934736 -3.8584666 1.4320863
-0.034210563 -4.7828798 1.2443134
-0.044378627 -6.3581715 0.97903115
-0.064905003 -9.7865667 0.48846447
-0.059610602 -0.12247866 14.198732
-0.03253701 -0.94812101 6.0312581
-0.071294039 -2.5317538 12.200167
-0.076851659 -3.5889356 11.52317
-0.080289096 -4.474205 10.601833
-0.086649321 -5.4626484 10.079425
-0.097664334 -6.7479844 9.984417
-0.1073318 -7.9918499 9.6458178
-0.099219359 -0.8102783 13.956105
-0.12050752 -1.4393086 13.427843
-0.078471586 -3.046783 11.771801
-0.084496722 -4.0087695 10.958024
-0.08977665 -4.9054947 10.208498
-0.1014719 -6.0618949 9.9869709
-0.11481426 -7.3963141 9.8698292
-0.12747894 -8.6993771 9.5100412
-0.20291561 -17.891201 17.66256
-0.18761688 -17.342287 14.066679
-0.029727133 -2.9914107 1.6525035
-0.033268772 -3.4683304 1.4896795
-0.041252211 -4.4614158 1.4013703
-0.049001783 -5.5064096 1.1369393
-0.065749846 -7.6885853 0.7832188
-0.22394891 -17.580698 15.740748
-0.038700275 -3.1712997 2.3928783
-0.03461827 -2.9200046 1.8016325
-0.036228377 -3.1960278 1.5650047
-0.041831981 -3.8064015 1.4140078
-0.050750479 -4.7681508 1.2407964
-0.066883661 -6.3876891 0.98317522
-0.098813251 -9.7613029 0.48745683
-0.060037769 -0.12226983 14.198732
-0.036024526 -0.95266032 6.0608935
-0.080098733 -2.5304718 12.195271
-0.089378908 -3.5886455 11.52317
-0.095864564 -4.4719443 10.59723
-0.1056706 -5.459918 10.075036
-0.12111743 -6.7419748 9.9761505
-0.13517365 -7.9882221 9.6419802
-0.10197379 -0.80935436 13.946123
-0.12543742 -1.4378171 13.4179
-0.089106366 -3.0464904 11.771801
-0.098489419 -4.00845 10.958024
-0.10685197 -4.9029746 10.203997
-0.12257845 -6.0588965 9.9827061
-0.13982902 -7.3536901 9.8139687
-0.15778315 -8.6954899 9.5063658
-0.26531342 -17.886818 17.659056
-0.24798448 -17.329849 14.057263
-0.044150449 -3.2048573 2.1860087
-0.040764228 -3.0355828 1.6756915
-0.045435984 -3.4728289 1.4915526
-0.056825209 -4.4612446 1.4013703
-0.068100706 -5.4963813 1.1350741
-0.092827499 -7.7082272 0.78500712
-0.28543684 -17.587275 15.747399
-0.049769942 -3.1711454 2.3928783
-0.045075603 -2.9371071 1.8117652
-0.045835838 -3.0915074 1.5167495
-0.054981746 -3.7967894 1.4107208
-0.065538876 -4.6367207 1.209144
-0.088973023 -6.3725624 0.98110324
-0.14036706 -10.310399 0.5096252
-0.060442843 -0.12202147 14.193732
-0.038993288 -0.9439891 6.0065618
-0.08893124 -2.5301766 12.195271
-0.1007162 -3.5465331 11.389556
-0.11137647 -4.4676762 10.588025
-0.12472862 -5.4595156 10.075036
-0.14332165 -6.6796165 9.8852253
-0.16305692 -7.9877014 9.6419802
-0.1046853 -0.80813479 13.931148
-0.13040698 -1.4368396 13.412929
-0.099740058 -3.0461607 11.771801
-0.11248092 -4.0080819 10.958024
-0.1239659 -4.9025722 10.203997
-0.1437272 -6.0584316 9.9827061
-0.1646833 -7.3170075 9.7660885
-0.1881351 -8.6948862 9.5063658
-0.32774845 -17.885784 17.659056
-0.30861402 -17.336662 14.06354
-0.054903742 -3.179599 2.1695597
-0.052185047 -3.0841427 1.7011983
-0.057404418 -3.4633784 1.4878064
-0.07185249 -4.427444 1.3915001
-0.08931464 -5.6238127 1.1593223
-0.12050719 -7.7576499 0.78947788
-0.34689978 -17.589905 15.750724
-0.060063042 -3.1305399 2.3634467
-0.055490248 -2.9455519 1.8168316
-0.056377433 -3.0777154 1.5104555
-0.067895129 -3.7776883 1.4041468
-0.083779916 -4.7531004 1.2372795
-0.11182185 -6.4068718 0.98593795
-0.17601444 -10.289866 0.5088191
-0.060868409 -0.12180974 14.193732
-0.042779751 -0.95471418 6.0757113
-0.097802103 -2.5308685 12.200167
-0.11280929 -3.5372081 11.360924
-0.12691531 -4.4653072 10.583423
-0.14378512 -5.4590473 10.075036
-0.16663699 -6.6790757 9.8852253
-0.19093822 -7.9870834 9.6419802
-0.10742821 -0.80719221 13.921164
-0.13532081 -1.4353143 13.402986
-0.11037254 -3.045794 11.771801
-0.12652555 -4.0093894 10.962717
-0.14101563 -4.8999333 10.199495
-0.16480319 -6.0552864 9.9784393
-0.19030178 -7.3194003 9.7700787
-0.21848477 -8.6941767 9.5063658
-0.3901017 -17.880966 17.655552
-0.063657612 -3.0665138 2.0955403
-0.06358356 -3.114944 1.71743
-0.069400467 -3.4585218 1.4859334
-0.088063531 -4.4655352 1.4027804
-0.10894487 -5.6234665 1.1593223
-0.14768045 -7.7621613 0.78992498
-0.40795121 -17.573654 15.737422
-0.070073269 -3.0899014 2.3340151
-0.065964401 -2.9539597 1.821898
-0.067120321 -3.0774999 1.5104555
-0.081284046 -3.7868702 1.4074337
-0.10108931 -4.7867961 1.2454858
-0.13408162 -6.4014912 0.98524725
-0.21172592 -10.279199 0.50841606
-0.061293233 -0.12159653 14.193732
-0.046338987 -0.95921552 6.1053472
-0.10663589 -2.5305116 12.200167
-0.12526152 -3.5397763 11.370467
-0.14250137 -4.4648366 10.583423
-0.16283987 -5.4585123 10.075036
-0.18987027 -6.6756406 9.881093
-0.21881717 -7.9863682 9.6419802
-0.11016583 -0.80624044 13.911181
-0.14022557 -1.4337723 13.393043
-0.12100367 -3.0453901 11.771801
-0.14052017 -4.0089235 10.962717
-0.15811872 -4.8994112 10.199495
-0.18593909 -6.0546741 9.9784393
-0.21567236 -7.3126674 9.7620983
-0.24883178 -8.6933613 9.5063658
-0.45251557 -17.879496 17.655552
-0.077285327 -3.1198373 2.5987585
-0.072332725 -2.9826691 2.0407109
-0.073503159 -3.0748463 1.6965607
