# .PCD v0.7 - Point Cloud Data file format
VERSION 0.7
FIELDS x y z
SIZE 4 4 4
TYPE F F F
COUNT 1 1 1
WIDTH 1414
HEIGHT 1
VIEWPOINT 0 0 0 1 0 0 0
POINTS 1414
DATA ascii
-0.83395898 -0.77550876 0.13961446
-0.14413483 -0.044236932 15.868669
-1.6473273 -1.4482628 13.943949
-1.4260286 -1.2700655 9.2042875
-1.208625 -1.0912046 5.2527843
-1.0646927 -0.96798241 3.4495103
-0.99429417 -0.9077574 2.5345981
-0.96977961 -0.88783461 2.0036924
-0.93671292 -0.85934675 1.5985717
-0.72623593 -0.53362244 15.423654
-1.2724513 -1.0124835 15.123126
-1.295092 -1.1590909 6.7291212
-1.123662 -1.0151861 4.1722836
-1.022781 -0.92920607 2.9210322
-0.98047572 -0.89355904 2.2400348
-0.94523412 -0.86353499 1.7700801
-0.92621678 -0.84762669 1.4393802
-0.92097318 -0.84844679 1.3103476
-0.90070093 -0.83063096 1.07033
-0.88645786 -0.81834239 0.87558782
-0.87309521 -0.80656147 0.70875198
-0.86526829 -0.7998808 0.56440127
-0.86299264 -0.7983256 0.43549791
-0.84352082 -0.78085303 0.30970526
-0.83280933 -0.77146697 0.19486278
-0.91272461 -0.83848858 1.185034
-0.88555187 -0.81436968 0.95955914
-0.87680978 -0.80688548 0.78582788
-0.87204534 -0.80333447 0.63556755
-0.85799915 -0.79093891 0.49528623
-0.86112368 -0.79436493 0.37328154
-0.83331037 -0.76897079 0.25036371
-0.83299053 -0.7692036 0.13941292
-0.14428838 -0.043733537 15.868669
-1.645933 -1.4368842 13.889618
-1.4228249 -1.2583359 9.1553354
-1.2046458 -1.0800052 5.2193809
-1.0637144 -0.96033287 3.4357026
-0.99390787 -0.90106428 2.5258198
-0.96870816 -0.88065851 1.9954264
-0.93496776 -0.85175496 1.5908966
-0.7276271 -0.53074479 15.41367
-1.2751409 -1.0073752 15.113183
-1.2925525 -1.1487191 6.6952448
-1.1220603 -1.0066487 4.153513
-1.0211688 -0.92125607 2.9075289
-0.97972119 -0.88663149 2.231503
-0.94601083 -0.85820574 1.7660903
-0.9266609 -0.84210855 1.4357051
-0.92129779 -0.84281975 1.306843
-0.90072423 -0.8248533 1.0671915
-0.88622671 -0.81241763 0.87284636
-0.87264085 -0.80051446 0.70643318
-0.86464 -0.79372078 0.56252825
-0.8657741 -0.79530835 0.43549791
-0.8426249 -0.77457941 0.30877262
-0.83183199 -0.76518381 0.1944157
-0.91288739 -0.83278126 1.1817086
-0.88540429 -0.80854797 0.95661598
-0.87643868 -0.80091202 0.78329468
-0.87149549 -0.79722238 0.63346946
-0.85727155 -0.7847507 0.49364269
-0.8603071 -0.78807098 0.37210923
-0.83598959 -0.76605737 0.25036371
-0.83198822 -0.76291484 0.1392114
-0.14444016 -0.04322961 15.868669
-1.6450666 -1.4260416 13.840225
-1.4218525 -1.2486595 9.121069
-1.2017181 -1.069839 5.1907487
-1.0626957 -0.95270222 3.421895
-0.99170679 -0.89278263 2.5126526
-0.96968734 -0.87538612 1.9912934
-0.93318105 -0.84418583 1.5832217
-0.72877288 -0.52769506 15.398695
-1.2790691 -1.0032468 15.118155
-1.2899563 -1.1383792 6.6613688
-1.1204128 -0.99813491 4.1347418
-1.0211352 -0.91478109 2.8985264
-0.97893023 -0.87972009 2.222971
-0.94676179 -0.85288167 1.7621001
-0.92707777 -0.8365978 1.4320298
-0.91895449 -0.83480293 1.2998339
-0.90071827 -0.8190856 1.0640531
-0.88596499 -0.80650455 0.87010491
-0.87215501 -0.79448044 0.70411438
-0.86397916 -0.78757477 0.56065518
-0.86500078 -0.78904855 0.43408787
-0.8453235 -0.77163345 0.30877262
-0.83082104 -0.75891691 0.19396862
-0.91302145 -0.82708305 1.1783831
-0.88522691 -0.8027373 0.95367283
-0.87603664 -0.79495108 0.78076148
-0.87091351 -0.79112387 0.63137144
-0.85651129 -0.77857727 0.49199918
-0.85945708 -0.78179252 0.3709369
-0.83865851 -0.76313448 0.25036371
-0.83095229 -0.75664234 0.13900986
-0.14459017 -0.042725157 15.868669
-1.6435555 -1.4147159 13.785893
-1.4200622 -1.2383358 9.0819063
-1.1987343 -1.0597067 5.162117
-1.0616366 -0.94509029 3.4080875
-0.98946005 -0.88452739 2.4994855
-0.96854615 -0.86823964 1.9830275
-0.93373758 -0.83878148 1.5793842
-0.73154938 -0.52582014 15.418661
-1.2825632 -0.99877584 15.118155
-1.2882493 -1.1288998 6.6323323
-1.1187195 -0.98964483 4.1159706
-1.0210688 -0.90831757 2.889524
-0.97615701 -0.87108868 2.2101734
-0.94524121 -0.84555405 1.7541201
-0.92494249 -0.82883191 1.4246795
-0.91921479 -0.82920152 1.2963293
-0.90068299 -0.81332803 1.0609146
-0.88567269 -0.80060303 0.86736345
-0.87163764 -0.7884596 0.70179558
-0.86328596 -0.78144306 0.55878216
-0.86419439 -0.78280389 0.43267787
-0.84437227 -0.76537901 0.30784002
-0.8334651 -0.75601214 0.19396862
-0.91035092 -0.81889713 1.1717321
-0.8850199 -0.79693782 0.95072967
-0.87560368 -0.78900272 0.77822834
-0.87029958 -0.78503919 0.62927336
-0.85571837 -0.77241862 0.49035567
-0.85857373 -0.77552962 0.3697646
-0.83764291 -0.75688237 0.24967301
-0.83358836 -0.75373715 0.13900986
-0.14473844 -0.042220183 15.868669
-1.6425763 -1.4039229 13.736501
-1.4189873 -1.2287067 9.0476398
-1.1968163 -1.0505928 5.138257
-1.0605376 -0.9374975 3.39428
-0.98895907 -0.87788856 2.4907072
-0.96736687 -0.86111176 1.9747616
-0.93426776 -0.83338356 1.5755466
-0.7336157 -0.52343059 15.423654
-1.2868857 -0.99494433 15.128098
-1.2864919 -1.1194463 6.6032958
-1.1169806 -0.98117888 4.0971994
-1.0193383 -0.90042472 2.8760202
-0.97528756 -0.86421704 2.2016416
-0.94593418 -0.84024853 1.7501302
-0.92529726 -0.82334471 1.4210044
-0.91679066 -0.82122916 1.2893202
-0.90061855 -0.80758065 1.0577762
-0.88535017 -0.79471362 0.864622
-0.87438464 -0.78541225 0.70179558
-0.86256063 -0.77532578 0.55690914
-0.8633551 -0.77657461 0.43126783
-0.84703881 -0.76242691 0.30784002
-0.83239871 -0.74976528 0.19352154
-0.91041917 -0.81322724 1.1684066
-0.88478309 -0.79114956 0.94778651
-0.87513983 -0.78306705 0.77569515
-0.86965388 -0.77896845 0.62717533
-0.85489303 -0.76627523 0.48871216
-0.85765719 -0.76928246 0.36859229
-0.83659393 -0.75064671 0.24898234
-0.83249694 -0.74748504 0.13880834
-0.14488491 -0.041714694 15.868669
-1.640357 -1.392149 13.67723
-1.4170902 -1.2184364 9.0084782
-1.1937243 -1.0405248 5.1096253
-1.05793 -0.92863512 3.3758698
-0.9866271 -0.86968058 2.47754
-0.96614969 -0.85400271 1.9664958
-0.9347716 -0.82799214 1.5717092
-0.73614603 -0.52136582 15.438628
-1.2911971 -0.99109471 15.138041
-1.2846843 -1.1100187 6.5742593
-1.1151963 -0.97273713 4.0784287
-1.0192016 -0.8939904 2.8670177
-0.97438204 -0.85736197 2.1931098
-0.94434154 -0.83295524 1.7421501
-0.92308432 -0.8156206 1.4136541
-0.91698694 -0.81565386 1.2858157
-0.90052503 -0.80184376 1.0546377
-0.88499731 -0.78883618 0.86188054
-0.87381506 -0.77940679 0.69947678
-0.86180305 -0.76922315 0.55503613
-0.86248285 -0.77036065 0.42985779
-0.8460325 -0.75619203 0.30690739
-0.83501083 -0.74685514 0.19352154
-0.91045886 -0.80756682 1.165081
-0.88451666 -0.78537261 0.94484335
-0.87464535 -0.77714425 0.77316189
-0.87236762 -0.77592802 0.62717533
-0.8575626 -0.76328641 0.48871216
-0.85670769 -0.76305127 0.36741996
-0.83551162 -0.74442762 0.24829166
-0.83137208 -0.7412498 0.1386068
-0.14502965 -0.041208699 15.868669
-1.6362923 -1.3789055 13.60314
-1.4159133 -1.2088554 8.9742117
-1.1917052 -1.0314678 5.0857654
-1.0567465 -0.92108607 3.3620622
-0.98785454 -0.86465406 2.473151
-0.96489477 -0.84691268 1.9582298
-0.93765616 -0.82472408 1.5717092
-0.73843443 -0.51912427 15.448612
-1.2921034 -0.98464477 15.108212
-1.2837807 -1.1014359 6.5500622
-1.1133668 -0.96431988 4.0596576
-1.017391 -0.88613832 2.853514
-0.97147644 -0.84880811 2.1803117
-0.94497639 -0.82766855 1.73816
-0.92337728 -0.81015772 1.4099789
-0.9171555 -0.81008732 1.2823112
-0.90040243 -0.79611737 1.0514992
-0.88461423 -0.78297085 0.85913903
-0.87321419 -0.77341485 0.69715798
-0.86101347 -0.76313531 0.55316305
-0.86157775 -0.76416236 0.42844775
-0.84866691 -0.75323415 0.30690739
-0.83388931 -0.7406289 0.19307446
-0.91047025 -0.80191612 1.1617556
-0.88422084 -0.7796073 0.94190019
-0.87735271 -0.77408642 0.77316189
-0.87166905 -0.76987386 0.62507725
-0.85668337 -0.75716114 0.48706865
-0.85208404 -0.75361592 0.36507532
-0.83439618 -0.73822522 0.24760097
-0.83395445 -0.73834324 0.1386068
-0.14517261 -0.040702198 15.868669
-1.6333477 -1.3667048 13.53893
-1.4146869 -1.1992974 8.9399452
-1.1885053 -1.0214648 5.0571332
-1.0555232 -0.91355658 3.3482547
-0.98725116 -0.85805869 2.4643729
-0.96572375 -0.84169078 1.9540969
-0.93811506 -0.81933779 1.5678717
-0.73905671 -0.51571965 15.423654
-1.2942567 -0.9791646 15.093297
-1.2837898 -1.0936879 6.530704
-1.1114922 -0.95592731 4.0408864
-1.0171845 -0.87973374 2.8445115
-0.9704932 -0.84199387 2.1717799
-0.94331217 -0.82041037 1.7301799
-0.92364347 -0.80470282 1.4063038
-0.91729635 -0.80452949 1.2788066
-0.89732581 -0.78783369 1.0452224
-0.88106024 -0.77435768 0.85365611
-0.8725822 -0.76743656 0.69483918
-0.86367208 -0.76012522 0.55316305
-0.86423993 -0.76115024 0.42844775
-0.84760571 -0.74701929 0.30597478
-0.83646953 -0.73771352 0.19307446
-0.9104532 -0.79627508 1.15843
-0.88693678 -0.77651602 0.94190019
-0.87680691 -0.76817858 0.77062875
-0.87093884 -0.763834 0.62297922
-0.85932112 -0.75416607 0.48706865
-0.84740514 -0.74422216 0.36273071
-0.83324772 -0.73203975 0.2469103
-0.83277458 -0.73212904 0.13840528
-0.14531381 -0.040195204 15.868669
-1.630338 -1.3545415 13.47472
-1.413411 -1.1897631 8.9056787
-1.1863858 -1.0124658 5.0332732
-1.0527786 -0.90477383 3.3298445
-0.98842704 -0.85304266 2.4599836
-0.96439993 -0.83463186 1.9458311
-0.93854773 -0.81395823 1.5640341
-0.74037713 -0.51280886 15.41367
-1.2963874 -0.97368121 15.078382
-1.2828008 -1.0851418 6.5065074
-1.1108851 -0.94868022 4.0268083
-1.0152942 -0.87192345 2.8310082
-0.96947438 -0.83519697 2.1632481
-0.94160885 -0.81317401 1.7221999
-0.92131865 -0.79703802 1.3989534
-0.91740966 -0.79898059 1.2753021
-0.89713639 -0.78213894 1.0420839
-0.88060737 -0.76852816 0.85091466
-0.8719191 -0.76147223 0.69252038
-0.86282933 -0.7540552 0.55129004
-0.86328048 -0.75497091 0.42703772
-0.8502081 -0.74405611 0.30597478
-0.83529311 -0.73150831 0.19262739
-0.91040796 -0.79064405 1.1551045
-0.88659132 -0.77076352 0.93895704
-0.87623054 -0.76228392 0.76809555
-0.87017727 -0.75780874 0.6208812
-0.85838836 -0.74805957 0.48542514
-0.84633446 -0.738065 0.36155838
-0.8320663 -0.72587144 0.24621962
-0.83156151 -0.72593218 0.13820374
-0.14545323 -0.039687719 15.868669
-1.6302606 -1.3448877 13.435206
-1.4120861 -1.180252 8.8714123
-1.1830791 -1.0025291 5.0046415
-1.0514717 -0.89728945 3.3160369
-0.98776132 -0.84647065 2.4512055
-0.96517313 -0.82942647 1.9416981
-0.94138324 -0.81067717 1.5640341
-0.7414481 -0.50973201 15.398695
-1.2993507 -0.96883172 15.073411
-1.2817677 -1.0766159 6.4823103
-1.1089246 -0.94033307 4.0080371
-1.0150185 -0.86554933 2.8220057
-0.96841985 -0.82841742 2.1547163
-0.94215399 -0.80792075 1.7182097
-0.92152357 -0.79160827 1.3952782
-0.91479784 -0.79110819 1.268293
-0.89691824 -0.77645522 1.0389454
-0.88012463 -0.76271129 0.8481732
-0.8745718 -0.75842404 0.69252038
-0.86195475 -0.74800032 0.54941696
-0.86228848 -0.74880755 0.42562771
-0.8490923 -0.73786169 0.30504215
-0.83408362 -0.72532028 0.19218032
-0.91033459 -0.78502309 1.1517791
-0.88927639 -0.76766402 0.93895704
-0.87562388 -0.75640285 0.76556236
-0.86938411 -0.75179803 0.61878312
-0.8609944 -0.74505866 0.48542514
-0.84155673 -0.72874272 0.35921374
-0.83459502 -0.72296262 0.24621962
-0.83031535 -0.71975267 0.1380022
-0.14559087 -0.03917975 15.868669
-1.6241237 -1.3303283 13.346299
-1.4107116 -1.1707648 8.8371449
-1.1808599 -0.99358892 4.9807816
-1.0501254 -0.88982505 3.3022294
-0.98706174 -0.83991373 2.4424274
-0.96592182 -0.82422602 1.9375652
-0.94177115 -0.80530328 1.5601966
-0.7425065 -0.50665396 15.38372
-1.3022959 -0.96397334 15.068439
-1.2806909 -1.0681105 6.4581132
-1.1055993 -0.93089986 3.9845734
-1.013049 -0.85778117 2.808502
-0.96732992 -0.82165551 2.1461844
-0.94037968 -0.80072039 1.7102298
-0.92170173 -0.78618681 1.3916031
-0.91484803 -0.78558695 1.2647884
-0.89667124 -0.77078241 1.035807
-0.87961203 -0.75690717 0.84543175
-0.87385696 -0.75247616 0.69020158
-0.86104852 -0.74196088 0.54754394
-0.86126417 -0.74266052 0.42421767
-0.84794366 -0.73168421 0.30410954
-0.83661032 -0.72240442 0.19218032
-0.91023302 -0.77941221 1.1484535
-0.88888174 -0.7619248 0.93601388
-0.87498671 -0.75053519 0.76302922
-0.86855966 -0.74580222 0.61668509
-0.8600083 -0.73897129 0.48378164
-0.84040982 -0.72263169 0.35804144
-0.83335924 -0.71681559 0.24552894
-0.83282268 -0.71684998 0.1380022
-0.14572676 -0.038671304 15.868669
-1.6166995 -1.3148481 13.247514
-1.4092885 -1.1613016 8.8028784
-1.1785926 -0.98467636 4.9569216
-1.0472449 -0.8811236 3.2838192
-0.98632836 -0.83337194 2.4336493
-0.96664578 -0.81903017 1.9334321
-0.93968952 -0.79786223 1.5525217
-0.74355257 -0.50357473 15.368745
-1.3052232 -0.95910633 15.063468
-1.2795702 -1.0596256 6.4339156
-1.1048697 -0.92371482 3.9704952
-1.0127043 -0.85143828 2.7994995
-0.96620464 -0.81491143 2.1376524
-0.93856663 -0.79354233 1.7022496
-0.9218533 -0.7807737 1.3879279
-0.91487086 -0.78007501 1.2612839
-0.89639568 -0.76512092 1.0326686
-0.87906963 -0.75111592 0.84269029
-0.87647825 -0.74942124 0.69020158
-0.86011064 -0.73593688 0.54567093
-0.86385131 -0.73964965 0.42421767
-0.84676236 -0.72552377 0.30317691
-0.83534634 -0.71623814 0.19173324
-0.91010344 -0.77381176 1.145128
-0.88845778 -0.75619763 0.93307072
-0.87431949 -0.7446813 0.76049602
-0.86770403 -0.73982131 0.61458701
-0.85899013 -0.7328999 0.48213813
-0.84292716 -0.71969378 0.35804144
-0.83209074 -0.71068621 0.24483825
-0.83152205 -0.71069252 0.13780068
-0.14581817 -0.038153324 15.863668
-1.6007226 -1.2926036 13.079579
-1.4070284 -1.1512182 8.7637167
-1.1762776 -0.97579181 4.9330616
-1.0458158 -0.87370551 3.2700117
-0.98556149 -0.82684565 2.424871
-0.96734548 -0.81383961 1.9292994
-0.94001818 -0.79251134 1.5486841
-0.74458611 -0.50049436 15.35377
-1.3081323 -0.95423049 15.058496
-1.2774352 -1.0503637 6.4048796
-1.1027757 -0.9154442 3.9517241
-1.0106564 -0.84371328 2.785996
-0.96704364 -0.80985934 2.1333864
-0.93902308 -0.78832406 1.6982597
-0.92197841 -0.77536929 1.3842528
-0.91214448 -0.77226824 1.2542748
-0.89609158 -0.75947076 1.02953
-0.8784976 -0.74533784 0.83994877
-0.87571192 -0.74349028 0.68788278
-0.8626743 -0.73293006 0.54567093
-0.86277312 -0.73352253 0.42280763
-0.84554833 -0.7193805 0.30224431
-0.8340494 -0.71008956 0.19128615
-0.90994596 -0.76822174 1.1418025
-0.88800466 -0.75048286 0.93012756
-0.87362194 -0.73884124 0.75796282
-0.87028116 -0.73678792 0.61458701
-0.8579402 -0.72684461 0.48049462
-0.8417266 -0.71360385 0.35686913
-0.83078951 -0.70457435 0.24414757
-0.83018869 -0.70455301 0.13759914
-0.14595047 -0.037644092 15.863668
-1.6100754 -1.2908956 13.119093
-1.4055055 -1.1418066 8.7294502
-1.1750674 -0.96788448 4.9139733
-1.0443479 -0.86630821 3.2562041
-0.98476118 -0.82033497 2.4160929
-0.96802056 -0.80865401 1.9251662
-0.93786317 -0.78511071 1.5410092
-0.7458477 -0.49757272 15.343787
-1.3105912 -0.9490338 15.048553
-1.2762247 -1.0419242 6.3806825
-1.1006373 -0.90719944 3.9329526
-1.0102429 -0.83740211 2.7769935
-0.96585381 -0.8031441 2.1248546
-0.93713969 -0.78118306 1.6902797
-0.922077 -0.76997346 1.3805776
-0.91210479 -0.76678485 1.2507702
-0.89278078 -0.75132608 1.0232532
-0.87789595 -0.73957282 0.83720732
-0.87491488 -0.7375738 0.68556398
-0.86168396 -0.72692508 0.54379785
-0.86166269 -0.72741205 0.4213976
-0.8443017 -0.71325463 0.30131167
-0.83271986 -0.70395887 0.19083907
-0.90976048 -0.76264215 1.138477
-0.88752252 -0.74478036 0.9271844
-0.87289429 -0.73301512 0.75542969
-0.86937362 -0.73082525 0.61248899
-0.85685849 -0.7208057 0.47885111
-0.84421241 -0.71066135 0.35686913
-0.82945591 -0.69848025 0.24345689
-0.82882261 -0.69843149 0.13739762
-0.14608099 -0.037134398 15.863668
-1.6060594 -1.2784944 13.049944
-1.4039342 -1.1324196 8.6951838
-1.1738163 -0.95999736 4.8948855
-1.0428411 -0.85893178 3.2423966
-0.98392743 -0.81383985 2.4073148
-0.96650523 -0.80167729 1.9169004
-0.93566793 -0.77773482 1.5333341
-0.74613392 -0.49401268 15.313837
-1.3147621 -0.94507492 15.058496
-1.2749711 -1.0335062 6.3564849
-1.0997906 -0.90007359 3.9188745
-1.008117 -0.8297208 2.7634897
-0.96664017 -0.79810756 2.1205888
-0.93753946 -0.77598596 1.6862897
-0.92214912 -0.76458633 1.3769025
-0.91203791 -0.76131123 1.2472657
-0.89241111 -0.74570942 1.0201148
-0.88047212 -0.73650384 0.83720732
-0.87408733 -0.73167205 0.68324518
-0.86066222 -0.72093606 0.54192483
-0.86052024 -0.7213183 0.41998756
-0.8430227 -0.70714623 0.30037907
-0.83135778 -0.69784606 0.19039199
-0.90954721 -0.7570734 1.1351515
-0.88701159 -0.7390905 0.92424124
-0.87213683 -0.72720313 0.75289649
-0.86843497 -0.72487795 0.6103909
-0.85574502 -0.71478313 0.4772076
-0.84295851 -0.70459294 0.3556968
-0.82808995 -0.69240421 0.2427662
-0.83125556 -0.69553411 0.13739762
-0.14620972 -0.036624257 15.863668
-1.6062448 -1.2695087 13.015369
-1.4031094 -1.1236941 8.6658134
-1.1713659 -0.95119017 4.871026
-1.0428081 -0.85281307 3.2331915
-0.9830603 -0.80736065 2.3985367
-0.96712554 -0.79650998 1.9127675
-0.9359048 -0.77242386 1.5294967
-0.74857849 -0.4918794 15.328812
-1.3184872 -0.9407891 15.063468
-1.2736744 -1.0251095 6.3322878
-1.0989076 -0.8929649 3.9047961
-1.0076354 -0.8234421 2.7544875
-0.96538609 -0.79142189 2.112057
-0.93558621 -0.76888257 1.6783097
-0.91957766 -0.75705367 1.3695521
-0.91468984 -0.75812298 1.2472657
-0.89201295 -0.7401045 1.0169762
-0.87982094 -0.73075444 0.83446586
-0.87322921 -0.72578514 0.68092638
-0.86317348 -0.71792734 0.54192483
-0.85934573 -0.71524143 0.41857755
-0.84171146 -0.70105553 0.29944643
-0.83378863 -0.69493985 0.19039199
-0.90930623 -0.75151539 1.131826
-0.88647169 -0.73341334 0.92129809
-0.87134928 -0.72140539 0.75036329
-0.87096 -0.72184211 0.6103909
-0.85823482 -0.71179163 0.4772076
-0.84541285 -0.70164615 0.3556968
-0.83050185 -0.68950933 0.2427662
-0.82983553 -0.68943566 0.13719608
-0.14633666 -0.036113665 15.863668
-1.6045527 -1.2590986 12.965977
-1.4014437 -1.1143544 8.631547
-1.17003 -0.94334847 4.8519378
-1.0412283 -0.84547383 3.219384
-0.98216003 -0.80089748 2.3897583
-0.96554291 -0.78956681 1.9045017
-0.9361161 -0.76712084 1.5256591
-0.75029093 -0.48926342 15.328812
-1.3243744 -0.9380278 15.093297
-1.2733166 -1.0175192 6.3129301
-1.0966452 -0.88478988 3.8860252
-1.0054318 -0.81580532 2.7409837
-0.96409726 -0.78475475 2.1035249
-0.93592954 -0.76370716 1.6743195
-0.91958964 -0.75169367 1.3658769
-0.91457689 -0.75265944 1.2437612
-0.89158672 -0.73451149 1.0138377
-0.87914044 -0.72501862 0.83172441
-0.87234062 -0.71991301 0.67860758
-0.86209965 -0.71195805 0.54005182
-0.85813934 -0.70918155 0.41716751
-0.84415346 -0.69811308 0.29944643
-0.83237278 -0.68885016 0.18994491
-0.90903753 -0.74596828 1.1285006
-0.88590294 -0.72774887 0.91835493
-0.87386209 -0.71835941 0.75036329
-0.86996996 -0.71591371 0.60829288
-0.85706896 -0.7057898 0.47556409
-0.84410578 -0.69559979 0.35452449
-0.82908249 -0.68345624 0.24207552
-0.83223712 -0.68653482 0.13719608
-0.14646184 -0.035602637 15.863668
-1.6040337 -1.2496709 12.926462
-1.4005291 -1.1056708 8.6021748
-1.1686542 -0.93552786 4.8328495
-1.041131 -0.83938211 3.2101789
-0.98122674 -0.7944504 2.3809803
-0.96392363 -0.78264439 1.8962357
-0.93630183 -0.76182574 1.5218216
-0.75199419 -0.48664138 15.328812
-1.3258954 -0.93217403 15.073411
-1.2729213 -1.0099438 6.2935724
-1.0956862 -0.87772024 3.8719471
-1.0031873 -0.80819404 2.7274802
-0.96277362 -0.77810633 2.0949931
-0.93858963 -0.76043546 1.6743195
-0.91694307 -0.74420661 1.3585266
-0.91443682 -0.74720603 1.2402567
-0.8911323 -0.72893059 1.0106993
-0.87843049 -0.71929634 0.82898289
-0.87142181 -0.71405607 0.67628878
-0.8609947 -0.70600492 0.5381788
-0.85319281 -0.70009595 0.41434744
-0.84278882 -0.69204491 0.29851383
-0.83477229 -0.68594038 0.18994491
-0.90874124 -0.74043232 1.125175
-0.88530546 -0.7220974 0.91541177
-0.8730247 -0.71257907 0.74783015
-0.86894906 -0.71000105 0.60619479
-0.85952741 -0.70279378 0.47556409
-0.84276688 -0.68957114 0.35335216
-0.83146316 -0.68055803 0.24207552
-0.83076352 -0.68045986 0.13699456
-0.14658523 -0.035091173 15.863668
-1.6034685 -1.2402619 12.886949
-1.3987697 -1.0963794 8.5679083
-1.1672379 -0.92772824 4.8137617
-1.0410041 -0.83330131 3.200974
-0.98026031 -0.78801972 2.3722022
-0.96226776 -0.77574295 1.8879696
-0.93646193 -0.75653869 1.517984
-0.75368828 -0.4840135 15.328812
-1.327392 -0.92632109 15.053525
-1.272489 -1.0023837 6.2742147
-1.094691 -0.87066811 3.8578684
-1.002602 -0.80196816 2.7184777
-0.96344948 -0.77310878 2.0907271
-0.93889034 -0.75526601 1.6703296
-0.91689551 -0.73887432 1.3548514
-0.91426992 -0.74176276 1.236752
-0.89064986 -0.72336179 1.0075608
-0.87769139 -0.71358788 0.82624143
-0.87047279 -0.70821434 0.67396998
-0.85985869 -0.7000683 0.53630573
-0.85191238 -0.69408363 0.4129374
-0.84519935 -0.68909883 0.29851383
-0.83330292 -0.67987418 0.18949783
-0.9084174 -0.73490751 1.1218495
-0.88782072 -0.71900266 0.91541177
-0.87550682 -0.70952725 0.74783015
-0.87142211 -0.70696354 0.60619479
-0.85830915 -0.69681287 0.47392058
-0.84516883 -0.68662512 0.35335216
-0.83383369 -0.67765158 0.24207552
-0.8331337 -0.6775558 0.13699456
-0.14670682 -0.034579281 15.863668
-1.6040899 -1.2318186 12.857313
-1.3977664 -1.0877389 8.538537
-1.1657814 -0.91995001 4.7946739
-1.0408473 -0.82723176 3.1917689
-0.97926104 -0.78160542 2.3634241
-0.96057564 -0.76886266 1.8797038
-0.93659663 -0.75125986 1.5141466
-0.75512952 -0.48122504 15.32382
-1.3293022 -0.92077225 15.03861
-1.2720191 -0.99483895 6.2548571
-1.0923059 -0.8625645 3.8390975
-1.0019855 -0.7957561 2.7094753
-0.96206248 -0.76649112 2.0821953
-0.93916637 -0.75010377 1.6663395
-0.91682172 -0.73355138 1.3511763
-0.91129887 -0.73409265 1.229743
-0.89013946 -0.71780521 1.0044224
-0.88017696 -0.71051985 0.82624143
-0.8694936 -0.70238793 0.67165118
-0.85869187 -0.69414824 0.53443271
-0.85060036 -0.68808872 0.4115274
-0.84759963 -0.68614435 0.29851383
-0.83567101 -0.67696124 0.18949783
-0.90806592 -0.72939396 1.1185241
-0.88717508 -0.71336651 0.91246861
-0.87461948 -0.7037645 0.74529696
-0.87034988 -0.70107037 0.60409671
-0.86073619 -0.69381261 0.47392058
-0.84377712 -0.68061918 0.35217986
-0.83619404 -0.67473686 0.24207552
-0.83160675 -0.67150491 0.13679302
-0.14678371 -0.0340591 15.858669
-1.59911 -1.2191472 12.783223
-1.3967198 -1.0791191 8.5091658
-1.1631099 -0.911273 4.7708144
-1.040661 -0.82117343 3.1825638
-0.97822899 -0.77520776 2.3546457
-0.95884722 -0.76200372 1.8714379
-0.9341985 -0.74399269 1.5064715
-0.75680476 -0.4785862 15.32382
-1.3303107 -0.91461807 15.013753
-1.2705195 -0.98653895 6.23066
-1.0912356 -0.85555267 3.8250191
-1.0013379 -0.78955823 2.7004728
-0.96064103 -0.75989258 2.0736635
-0.93705678 -0.74307674 1.6583595
-0.91672212 -0.72823805 1.347501
-0.91107064 -0.7286799 1.2262385
-0.88960111 -0.71226114 1.0012839
-0.87938893 -0.7048282 0.82349998
-0.87194008 -0.69934851 0.67165118
-0.86110967 -0.69114661 0.53443271
-0.84925687 -0.68211144 0.41011736
-0.84616065 -0.68010414 0.2975812
-0.83414847 -0.67091894 0.18905075
-0.90476805 -0.72156399 1.111873
-0.88650084 -0.70774359 0.90952545
-0.87370276 -0.6980167 0.74276382
-0.86924732 -0.69519347 0.60199869
-0.85946602 -0.68785334 0.47227708
-0.84235394 -0.67463118 0.35100752
-0.83467948 -0.66871762 0.24138485
-0.83394569 -0.66859794 0.13679302
-0.1469017 -0.033546519 15.858669
-1.5940613 -1.2065259 12.709135
-1.3948218 -1.0698999 8.4748983
-1.1615703 -0.90354204 4.7517266
-1.040445 -0.81512648 3.1733589
-0.97904664 -0.77030766 2.3502567
-0.95708263 -0.75516623 1.8631719
-0.93427545 -0.73873931 1.502634
-0.75871551 -0.47609448 15.328812
-1.3343762 -0.91056913 15.023696
-1.2689774 -0.97826165 6.2064633
-1.0887679 -0.84749907 3.8062482
-1.0006593 -0.78337461 2.6914704
-0.95918518 -0.7533133 2.0651317
-0.9372772 -0.73793739 1.6543695
-0.91659659 -0.72293442 1.3438259
-0.91081572 -0.72327757 1.2227339
-0.89208192 -0.70915145 1.0012839
-0.87857193 -0.69915074 0.82075852
-0.87091053 -0.69354123 0.66933239
-0.85989141 -0.68524748 0.53255969
-0.84788227 -0.67615205 0.40870732
-0.84468991 -0.67408228 0.29664856
-0.83648527 -0.6680032 0.18905075
-0.90435398 -0.71608365 1.1085476
-0.88579828 -0.70213413 0.9065823
-0.87275654 -0.69228375 0.74023062
-0.86811435 -0.68933272 0.5999006
-0.85816473 -0.68191135 0.47063357
-0.84089917 -0.66866159 0.34983522
-0.83313316 -0.66271722 0.24069417
-0.83236569 -0.66257143 0.13659149
-0.14701791 -0.033033531 15.858669
-1.5901866 -1.194888 12.644925
-1.393687 -1.0613241 8.4455271
-1.1599909 -0.89583302 4.7326379
-1.0386572 -0.80789173 3.1595511
-0.97795451 -0.76393712 2.3414786
-0.95749754 -0.75008565 1.8590392
-0.93180585 -0.73151541 1.494959
-0.76037276 -0.47344318 15.328812
-1.3375467 -0.90590572 15.023696
-1.2673929 -0.97000712 6.1822658
-1.0876228 -0.84052825 3.7921698
-0.99994981 -0.77720529 2.6824682
-0.95769525 -0.74675351 2.0565996
-0.93509907 -0.73095012 1.6463894
-0.9164452 -0.71764046 1.3401507
-0.91053432 -0.71788603 1.2192293
-0.89149648 -0.70362192 0.99814546
-0.87772596 -0.69348747 0.81801701
-0.86985129 -0.68774968 0.66701359
-0.85864252 -0.67936534 0.53068668
-0.84647632 -0.67021048 0.40729728
-0.84318745 -0.66807902 0.29571593
-0.83490974 -0.66198522 0.18860367
-0.9039126 -0.71061504 1.105222
-0.88506728 -0.69653827 0.90363914
-0.87178099 -0.68656605 0.73769742
-0.87051523 -0.68629825 0.5999006
-0.85683239 -0.67598683 0.46899009
-0.83941299 -0.66271031 0.34866288
-0.83155507 -0.65673578 0.24000348
-0.83467346 -0.65966195 0.13659149
-0.14717531 -0.032527562 15.863668
-1.5862501 -1.1832919 12.580714
-1.3925093 -1.0527694 8.4161568
-1.1571875 -0.88723809 4.7087784
-1.0383781 -0.80187345 3.150346
-0.97682971 -0.75758356 2.3327003
-0.9556672 -0.74328393 1.8507732
-0.93182558 -0.7262882 1.4911215
-0.75980771 -0.46942469 15.283886
-1.3407006 -0.90123129 15.023696
-1.2657664 -0.9617756 6.1580687
-1.0850731 -0.83252543 3.7733986
-0.99920946 -0.77105063 2.6734657
-0.95823365 -0.74180967 2.0523336
-0.93526429 -0.72583425 1.6423994
-0.91626805 -0.71235639 1.3364756
-0.91022623 -0.71250522 1.2157247
-0.89088333 -0.69810516 0.99500704
-0.87685132 -0.68783879 0.81527555
-0.87224668 -0.68470907 0.66701359
-0.8610087 -0.67636395 0.53068668
-0.84503919 -0.66428709 0.40588725
-0.84165353 -0.66209465 0.29478332
-0.83330238 -0.65598649 0.18815659
-0.90344423 -0.70515829 1.1018965
-0.88112307 -0.68846756 0.89775282
-0.87417221 -0.68351877 0.73769742
-0.8693316 -0.68045813 0.59780258
-0.85546929 -0.67008007 0.46734658
-0.83789563 -0.65677762 0.34749055
-0.82994556 -0.65077364 0.23931281
-0.83697098 -0.65674436 0.13659149
-0.14728796 -0.032013629 15.863668
-1.5841258 -1.1731248 12.531322
-1.391289 -1.0442359 8.3867855
-1.1555259 -0.87957764 4.6896906
-1.0365193 -0.79467845 3.1365385
-0.97757041 -0.75270814 2.3283112
-0.9560284 -0.73822367 1.8466402
-0.92928499 -0.71910822 1.4834466
-0.75996327 -0.46586713 15.253937
-1.3433948 -0.89625037 15.018724
-1.2640979 -0.95356733 6.1338716
-1.0824809 -0.82455087 3.7546277
-0.99843842 -0.76491052 2.6644633
-0.95874918 -0.73687118 2.0480678
-0.93540514 -0.72072625 1.6384094
-0.91606534 -0.70708245 1.3328004
-0.90989178 -0.70713526 1.2122202
-0.89024252 -0.69260114 0.99186856
-0.87594789 -0.6822046 0.81253409
-0.87113738 -0.67893726 0.66469479
-0.85970879 -0.67050338 0.5288136
-0.84735286 -0.66133332 0.40588725
-0.84008813 -0.65612906 0.29385069
-0.83558714 -0.65307373 0.18815659
-0.90294868 -0.69971347 1.0985711
-0.88032705 -0.68291032 0.89480966
-0.87314761 -0.67781991 0.73516428
-0.87170154 -0.67741936 0.59780258
-0.85780311 -0.66708982 0.46734658
-0.84018308 -0.65384883 0.34749055
-0.82830459 -0.64483058 0.23862213
-0.83925831 -0.65381879 0.13659149
-0.14735577 -0.031492181 15.858669
-1.5806975 -1.1620667 12.472051
-1.3908426 -1.0363318 8.3623085
-1.1526339 -0.87103975 4.6658306
-1.0346228 -0.78750628 3.122731
-0.97638619 -0.74638253 2.3195331
-0.95636612 -0.73317021 1.8425074
-0.92924756 -0.71390748 1.479609
-0.76109093 -0.46291244 15.243953
-1.3460705 -0.89126158 15.013753
-1.2623876 -0.94538248 6.1096745
-1.0812229 -0.81764513 3.7405496
-0.99763662 -0.75878537 2.6554608
-0.95924199 -0.73193812 2.0438018
-0.93552178 -0.71562606 1.6344193
-0.91583687 -0.70181859 1.3291253
-0.909531 -0.70177644 1.2087157
-0.88957423 -0.6871103 0.98873013
-0.87832391 -0.67914283 0.81253409
-0.86999846 -0.67318147 0.66237599
-0.85837841 -0.66466016 0.52694058
-0.8458643 -0.65543336 0.40447721
-0.83849132 -0.65018255 0.29291809
-0.83392733 -0.64710003 0.18770951
-0.90242624 -0.6942808 1.0952456
-0.87950301 -0.67736697 0.89186651
-0.87550831 -0.67476791 0.73516428
-0.87046754 -0.67160028 0.5957045
-0.85638857 -0.66120565 0.46570307
-0.83861405 -0.6479404 0.34631824
-0.83055043 -0.64193535 0.23862213
-0.8454873 -0.65394175 0.13679302
-0.1474648 -0.030977624 15.858669
-1.5765839 -1.1505891 12.407841
-1.3895392 -1.0278383 8.3329372
-1.1496966 -0.86253279 4.6419706
-1.0326889 -0.780357 3.1089232
-0.97707772 -0.74152213 2.3151441
-0.95444083 -0.72641927 1.8342415
-0.92663664 -0.70677203 1.4719341
-0.76245469 -0.46010423 15.238962
-1.3487277 -0.88626516 15.008781
-1.2616445 -0.93797094 6.0903168
-1.0799299 -0.81075829 3.7264709
-0.99680436 -0.752675 2.6464584
-0.9617911 -0.7285853 2.0438018
-0.93561423 -0.71053392 1.6304293
-0.91288465 -0.69451237 1.321775
-0.91197515 -0.69859731 1.2087157
-0.88887846 -0.68163252 0.98559165
-0.87737232 -0.6735267 0.80979264
-0.86882997 -0.66744202 0.66005719
-0.85701782 -0.65883446 0.52506757
-0.84434479 -0.64955181 0.4030672
-0.8368634 -0.64425522 0.29198545
-0.83618098 -0.64418519 0.18770951
-0.90187693 -0.68886024 1.09192
-0.87865108 -0.67183775 0.88892335
-0.87443465 -0.66908818 0.73263109
-0.86920351 -0.66579789 0.59360647
-0.85869139 -0.65821224 0.46570307
-0.84087068 -0.6450091 0.34631824
-0.82885736 -0.63601768 0.23793145
-0.84776485 -0.65098643 0.13679302
-0.14748584 -0.03044905 15.84867
-1.5736679 -1.1400658 12.353508
-1.3890146 -1.0199691 8.3084612
-1.1479113 -0.85494852 4.6228828
-1.0322807 -0.77440304 3.0997183
-0.9777472 -0.73666602 2.3107548
-0.95472533 -0.72138691 1.8301084
-0.9265427 -0.70159841 1.4680965
-0.76405615 -0.45743999 15.238962
-1.3513664 -0.88126087 15.00381
-1.2598537 -0.92983007 6.0661197
-1.0786021 -0.80389053 3.7123928
-0.99594158 -0.74657989 2.6374559
-0.96432847 -0.7252236 2.0438018
-0.93568271 -0.70544994 1.6264393
-0.91259801 -0.68927854 1.3180997
-0.91156936 -0.69325107 1.2052112
-0.88815534 -0.67616796 0.98245323
-0.87639225 -0.66792554 0.80705118
-0.86763203 -0.66171873 0.65773833
-0.85931242 -0.65583891 0.52506757
-0.84660703 -0.64660048 0.4030672
-0.83910716 -0.64133012 0.29198545
-0.8344689 -0.638237 0.18726245
-0.90427595 -0.68570787 1.09192
-0.88099086 -0.66876668 0.88892335
-0.87676489 -0.66603178 0.73263109
-0.86790961 -0.66001266 0.59150839
-0.85722589 -0.65235132 0.46405956
-0.83925003 -0.63912523 0.34514591
-0.83107245 -0.63312054 0.23793145
-0.84605896 -0.64499438 0.13659149
-0.14759123 -0.029934043 15.84867
-1.5643888 -1.1250417 12.249784
-1.387629 -1.0115166 8.2790899
-1.1460872 -0.84738737 4.6037946
-1.0287095 -0.76612806 3.0813081
-0.97647667 -0.73037988 2.3019767
-0.95273513 -0.71467298 1.8218426
-0.92642379 -0.69643408 1.464259
-0.76490271 -0.45432925 15.223987
-1.3544344 -0.8765384 15.00381
-1.2590355 -0.92245579 6.046762
-1.0772395 -0.79704189 3.6983144
-0.99504834 -0.74049973 2.6284533
-0.96476424 -0.72029293 2.039536
-0.9333145 -0.69856864 1.6184592
-0.91228598 -0.68405515 1.3144246
-0.91113758 -0.68791622 1.2017065
-0.88740498 -0.67071682 0.97931474
-0.87871844 -0.66486233 0.80705118
-0.86993659 -0.6586861 0.65773833
-0.85790133 -0.65003568 0.52319455
-0.84503633 -0.64074302 0.40165716
-0.83742744 -0.63542789 0.29105285
-0.83669168 -0.63532031 0.18726245
-0.90368086 -0.68030167 1.0885946
-0.88009191 -0.6632548 0.88598019
-0.87564266 -0.66037178 0.73009789
-0.86658597 -0.65424448 0.58941036
-0.85949785 -0.64935505 0.46405956
-0.83759862 -0.63326049 0.34397361
-0.82932764 -0.62722856 0.23724076
-0.84432167 -0.63902217 0.13638996
-0.14765167 -0.02941215 15.84367
-1.5721014 -1.122282 12.27942
-1.3853765 -1.0024893 8.2448235
-1.1430206 -0.83896631 4.5799346
-1.0266644 -0.75904876 3.0675008
-0.97709721 -0.72553927 2.2975879
-0.95296705 -0.7096625 1.8177097
-0.92628038 -0.69127917 1.4604216
-0.76548803 -0.4510721 15.20402
-1.3574858 -0.87180519 15.00381
-1.2581811 -0.91509849 6.0274043
-1.0758423 -0.79021269 3.684236
-0.99237394 -0.73314184 2.6149497
-0.96727258 -0.71692091 2.039536
-0.93332851 -0.69350946 1.6144693
-0.91194874 -0.67884243 1.3107494
-0.91353327 -0.6847316 1.2017065
-0.88662738 -0.66527921 0.97617632
-0.87769043 -0.6592797 0.80430973
-0.86868942 -0.6529839 0.65541953
-0.86016518 -0.64703709 0.52319455
-0.84343517 -0.63490444 0.4002471
-0.83964044 -0.63250089 0.29105285
-0.83492762 -0.62939811 0.18681537
-0.90305912 -0.6749081 1.0852691
-0.87916511 -0.65775734 0.88303697
-0.87449151 -0.6547277 0.72756475
-0.86886436 -0.65121561 0.58941036
-0.85798156 -0.64351755 0.46241605
-0.83980405 -0.63033289 0.34397361
-0.83151209 -0.62432986 0.23724076
-0.84255302 -0.63306999 0.13618843
-0.14779662 -0.02890294 15.84867
-1.5671324 -1.1105001 12.21027
-1.3839049 -0.99408406 8.2154522
-1.141116 -0.83145577 4.5608468
-1.0261575 -0.75314903 3.0582957
-0.97576797 -0.71928239 2.2888095
-0.95091248 -0.70298636 1.8094438
-0.92611217 -0.68613368 1.4565841
-0.76581037 -0.4476712 15.179062
-1.3605207 -0.86706132 15.00381
-1.2572908 -0.90775847 6.0080466
-1.0744106 -0.78340286 3.6701579
-0.99141586 -0.72709882 2.6059475
-0.96766841 -0.71199465 2.03527
-0.93089354 -0.68667018 1.6064892
-0.91158611 -0.67364025 1.3070743
-0.91305661 -0.67940974 1.198202
-0.88582265 -0.65985519 0.97303784
-0.8766343 -0.65371251 0.80156827
-0.86741322 -0.64729846 0.65310073
-0.85870397 -0.64125681 0.52132148
-0.84564626 -0.63195646 0.4002471
-0.84184313 -0.62956613 0.29105285
-0.83711952 -0.62647986 0.18681537
-0.90241081 -0.66952711 1.0819435
-0.87821072 -0.65227455 0.88009381
-0.8733117 -0.64909971 0.72503155
-0.86749101 -0.64546949 0.58731234
-0.8602227 -0.64051872 0.46241605
-0.83810151 -0.62449342 0.3428013
-0.82971591 -0.61846405 0.23655009
-0.84075308 -0.62713796 0.13598689
-0.14793977 -0.028393071 15.853669
-1.5716348 -1.1054699 12.215209
-1.3815625 -0.9851104 8.1811857
-1.1391729 -0.82396889 4.541759
-1.025622 -0.74726188 3.0490906
-0.97440702 -0.71304363 2.2800314
-0.95109177 -0.69799799 1.8053107
-0.92591941 -0.68099791 1.4527465
-0.76586831 -0.44412926 15.149113
-1.3630883 -0.86202234 14.998838
-1.255343 -0.89970398 5.9838495
-1.0743425 -0.77762443 3.6607723
-0.99042773 -0.72107154 2.596945
-0.96804172 -0.70707452 2.0310042
-0.93085355 -0.68163651 1.6024991
-0.91393203 -0.6704542 1.3070743
-0.91255403 -0.67409968 1.1946975
-0.88499087 -0.65444493 0.96989942
-0.87891084 -0.65064847 0.80156827
-0.86966747 -0.64426666 0.65310073
-0.8572129 -0.63549471 0.51944846
-0.84399432 -0.62614262 0.39883706
-0.84403557 -0.62662369 0.29105285
-0.83530378 -0.62058407 0.18636829
-0.90173602 -0.66415894 1.078618
-0.88048226 -0.64920509 0.88009381
-0.87210333 -0.64348805 0.72249836
-0.86608815 -0.63974106 0.58521426
-0.86245322 -0.63751209 0.46241605
-0.8363685 -0.61867356 0.34162897
-0.82788891 -0.61261839 0.23585941
-0.83490717 -0.61825323 0.13558383
-0.1480812 -0.027882559 15.858669
-1.5748469 -1.0995325 12.21027
-1.3783431 -0.97557718 8.142024
-1.1384041 -0.8173762 4.5274429
-1.0234747 -0.74024296 3.0352831
-0.97301441 -0.70682317 2.2712533
-0.95124787 -0.69301701 1.8011779
-0.9282909 -0.67776173 1.4527465
-0.76891696 -0.442314 15.179062
-1.3656372 -0.85697603 14.993867
-1.2543786 -0.89240253 5.9644918
-1.0728457 -0.77084929 3.6466939
-0.98940969 -0.71506 2.5879426
-0.96839231 -0.70216024 2.0267382
-0.9283523 -0.67483997 1.5945191
-0.91352618 -0.66526425 1.3033991
-0.91202557 -0.66880137 1.191193
-0.88726997 -0.65135169 0.96989942
-0.87780726 -0.64510047 0.79882681
-0.86834234 -0.63860267 0.65078193
-0.85942596 -0.6324985 0.51944846
-0.8461749 -0.62319273 0.39883706
-0.84621781 -0.62367368 0.29105285
-0.83345711 -0.6147086 0.18592121
-0.90103465 -0.65880358 1.0752926
-0.87948138 -0.64374048 0.87715065
-0.87086642 -0.63789272 0.71996522
-0.86465603 -0.63403028 0.58311623
-0.86086607 -0.63170409 0.46077254
-0.83460522 -0.61287344 0.34045666
-0.83002228 -0.60972482 0.23585941
-0.82900953 -0.60941696 0.13518077
-0.14817764 -0.027365491 15.858669
-1.5710106 -1.0887192 12.150999
-1.375074 -0.96607834 8.1028614
-1.1363877 -0.80993271 4.5083551
-1.0244652 -0.73552668 3.0306804
-0.97159022 -0.70062113 2.2624753
-0.95138085 -0.68804342 1.7970449
-0.9280557 -0.67263645 1.448909
-0.7719624 -0.44048285 15.209012
-1.3681676 -0.85192239 14.988895
-1.2523515 -0.88439387 5.9402947
-1.0713148 -0.76409417 3.6326158
-0.98836178 -0.7090643 2.5789402
-0.96872061 -0.69725233 2.0224721
-0.9282586 -0.66983229 1.5905291
-0.91309536 -0.6600855 1.299724
-0.91147119 -0.66351503 1.1876884
-0.88639247 -0.64595836 0.96676093
-0.8800537 -0.6420325 0.79882681
-0.87056619 -0.63556772 0.65078193
-0.8578853 -0.62676007 0.51757544
-0.84447259 -0.6174041 0.39742702
-0.84442514 -0.61781549 0.29012021
-0.83559775 -0.61179554 0.18592121
-0.90030694 -0.65346128 1.071967
-0.87845296 -0.63829076 0.8742075
-0.86960125 -0.63231391 0.71743202
-0.86686391 -0.63100827 0.58311623
-0.8630659 -0.62869525 0.46077254
-0.83281165 -0.60709327 0.33928433
-0.82814431 -0.60390604 0.23516873
-0.8270961 -0.60357451 0.13497925
-0.14827225 -0.026848087 15.858669
-1.5748014 -1.0832288 12.150999
-1.3725907 -0.95719659 8.0685949
-1.1355518 -0.80337518 4.4940395
-1.0238442 -0.72967881 3.0214753
-0.97013474 -0.69443774 2.2536969
-0.9514907 -0.68307751 1.792912
-0.92779601 -0.66752106 1.4450716
-0.77123165 -0.43651003 15.164086
-1.3706794 -0.84686148 14.983924
-1.2513134 -0.87713164 5.9209371
-1.0711583 -0.75835598 3.6232302
-0.987284 -0.70308483 2.5699377
-0.96902633 -0.69235063 2.0182061
-0.9256916 -0.6630789 1.5825491
-0.91263938 -0.65491778 1.2960488
-0.91089112 -0.65824074 1.1841838
-0.88548815 -0.6405791 0.96362251
-0.87890267 -0.63650405 0.7960853
-0.86919242 -0.62992561 0.64846313
-0.8563149 -0.62103999 0.51570243
-0.84662259 -0.6144526 0.39742702
-0.84657657 -0.61486417 0.29012021
-0.83369988 -0.6059472 0.18547413
-0.90258247 -0.65031463 1.071967
-0.8773973 -0.63285607 0.87126434
-0.87180316 -0.62927461 0.71743202
-0.86538255 -0.62532043 0.58101815
-0.86142862 -0.62291181 0.45912904
-0.83492577 -0.60418248 0.33928433
-0.83425868 -0.60391533 0.23585941
-0.82110614 -0.59482193 0.13457619
-0.14832178 -0.026324742 15.853669
-1.5670205 -1.0698416 12.062092
-1.3700625 -0.94834411 8.0343285
-1.1334623 -0.79597574 4.4749508
-1.02479 -0.72497237 3.0168729
-0.96864802 -0.68827301 2.2449188
-0.95157743 -0.678119 1.788779
-0.92751199 -0.66241574 1.441234
-0.77275062 -0.43381527 15.164086
-1.3731724 -0.84179348 14.978952
-1.25024 -0.86988753 5.9015794
-1.0695628 -0.75163621 3.6091518
-0.98617667 -0.69712138 2.5609353
-0.96930981 -0.68745536 2.0139403
-0.92554462 -0.65809768 1.578559
-0.91215855 -0.64976132 1.2923737
-0.91028535 -0.65297854 1.1806793
-0.88455713 -0.63521403 0.96048403
-0.88111913 -0.63343227 0.7960853
-0.87138599 -0.62688768 0.64846313
-0.85847747 -0.61804718 0.51570243
-0.84487003 -0.60868955 0.39601701
-0.84871769 -0.61190528 0.29012021
-0.83580995 -0.60303336 0.18547413
-0.90180987 -0.64498818 1.0686415
-0.87960112 -0.62978953 0.87126434
-0.87049013 -0.62371695 0.71489882
-0.86387205 -0.61965066 0.57892013
-0.86359769 -0.61990112 0.45912904
-0.8370297 -0.60126442 0.33928433
-0.83636165 -0.60099959 0.23585941
-0.81912136 -0.58903533 0.13437465
-0.14841276 -0.025806842 15.853669
-1.5649555 -1.0604435 12.017639
-1.3674892 -0.93952101 8.000062
-1.1325599 -0.78945428 4.4606352
-1.0241165 -0.71914577 3.0076678
-0.9690873 -0.68350732 2.2405298
-0.95164114 -0.6731683 1.7846459
-0.92720366 -0.6573205 1.4373965
-0.77198774 -0.42985559 15.119162
-1.3751913 -0.83644176 14.969009
-1.2491312 -0.86266154 5.8822217
-1.0693491 -0.745924 3.5997665
-0.98682195 -0.6924246 2.5564339
-0.96957088 -0.68256646 2.0096743
-0.92537415 -0.65312546 1.574569
-0.91165292 -0.64461625 1.2886984
-0.91255909 -0.64979714 1.1806793
-0.88676906 -0.63212252 0.96048403
-0.87992114 -0.62792397 0.79334384
-0.86996388 -0.62126786 0.64614433
-0.85685784 -0.6123513 0.51382935
-0.84308761 -0.60294622 0.39460698
-0.84685385 -0.60608017 0.28918761
-0.83790982 -0.60011214 0.18547413
-0.90101123 -0.63967502 1.065316
-0.87849933 -0.62437379 0.86832118
-0.87266195 -0.62067455 0.71489882
-0.86602974 -0.61663145 0.57892013
-0.86191058 -0.61414266 0.45748553
-0.83912337 -0.59833896 0.33928433
-0.83845443 -0.59807646 0.23585941
-0.81710619 -0.58326983 0.13417313
-0.14850195 -0.025288628 15.853669
-1.5576851 -1.0476052 11.933671
-1.3657123 -0.93130088 7.9706907
-1.1303982 -0.78209955 4.4415474
-1.0234147 -0.71333265 2.9984629
-0.96754301 -0.67737371 2.2317514
-0.94937897 -0.66660869 1.7763801
-0.92687112 -0.65223563 1.4335591
-0.77044779 -0.42548931 15.059262
-1.3776461 -0.83136123 14.964038
-1.2469503 -0.85474354 5.8580246
-1.0676895 -0.73924035 3.5856881
-0.98565996 -0.68648779 2.5474315
-0.96980959 -0.67768425 2.0054085
-0.92518032 -0.64816254 1.5705789
-0.9111225 -0.63948268 1.2850233
-0.91190946 -0.64454955 1.1771748
-0.88579267 -0.62677521 0.9573456
-0.87869549 -0.62243187 0.79060239
-0.86851323 -0.61566567 0.64382553
-0.85899019 -0.60935658 0.51382935
-0.84518713 -0.59999961 0.39460698
-0.84896433 -0.60312039 0.28918761
-0.83594072 -0.59429812 0.18502705
-0.90323865 -0.63652605 1.065316
-0.88067347 -0.62130344 0.86832118
-0.87482321 -0.61762464 0.71489882
-0.8644706 -0.61098522 0.57682204
-0.86404902 -0.6111303 0.45748553
-0.84120685 -0.59540623 0.33928433
-0.84457856 -0.59800768 0.23655009
-0.81098449 -0.57463735 0.13377006
-0.14858931 -0.024770105 15.853669
-1.5587473 -1.0404367 11.913915
-1.3638948 -0.92310452 7.9413185
-1.1281987 -0.77476966 4.4224591
-1.0210782 -0.70642191 2.9846551
-0.96793461 -0.67262566 2.2273624
-0.94939131 -0.66168183 1.7722472
-0.92651433 -0.64716095 1.4297215
-0.77294213 -0.4233501 15.079228
-1.3796246 -0.82600021 14.954095
-1.2457689 -0.84755808 5.8386669
-1.0674187 -0.73355442 3.5763025
-0.98625946 -0.68180531 2.5429304
-0.96788293 -0.67132252 1.9968767
-0.92496318 -0.64320898 1.5665889
-0.91056728 -0.63436061 1.2813481
-0.91123426 -0.63931441 1.1736702
-0.88478994 -0.62144238 0.95420712
-0.87744212 -0.61695588 0.78786093
-0.87065703 -0.61263025 0.64382553
-0.86111194 -0.60635448 0.51382935
-0.84335518 -0.59428263 0.39319694
-0.85106444 -0.60015327 0.28918761
-0.83801013 -0.59137654 0.18502705
-0.90239537 -0.63122922 1.0619905
-0.8795259 -0.61590725 0.86537802
-0.87697381 -0.61456716 0.71489882
-0.86659801 -0.60796398 0.57682204
-0.86231214 -0.60539722 0.45584202
-0.84328002 -0.59246624 0.33928433
-0.84666091 -0.59505588 0.23655009
-0.80072618 -0.56318063 0.13316546
-0.14867488 -0.02425128 15.853669
-1.5578345 -1.0319864 11.879339
-1.3620367 -0.91493249 7.9119477
-1.125962 -0.76746464 4.4033713
-1.0203166 -0.70064199 2.97545
-0.96830511 -0.66788328 2.2229733
-0.94938082 -0.65676302 1.7681142
-0.92613351 -0.64209682 1.425884
-0.7731455 -0.41996291 15.054271
-1.382041 -0.82090753 14.949123
-1.2435107 -0.83968806 5.8144698
-1.0671213 -0.72787958 3.5669169
-0.98504311 -0.67589557 2.5339279
-0.96592385 -0.6649825 1.9883448
-0.92472273 -0.63826483 1.5625988
-0.90998757 -0.62925029 1.277673
-0.91053373 -0.63409179 1.1701657
-0.88695371 -0.61835009 0.95420712
-0.8761614 -0.61149627 0.78511947
-0.86915839 -0.60705096 0.64150673
-0.85942346 -0.60068917 0.51195633
-0.84542441 -0.59133512 0.39319694
-0.85315418 -0.59717888 0.28918761
-0.83599037 -0.5855906 0.18457997
-0.90152621 -0.62594616 1.058665
-0.88167048 -0.61283338 0.86537802
-0.87557471 -0.60904074 0.71236569
-0.86499041 -0.60234183 0.57472402
-0.86054587 -0.59968376 0.45419851
-0.8413561 -0.58673871 0.33811203
-0.84467143 -0.58926356 0.23585941
-0.79039788 -0.55180264 0.13256088
-0.148802 -0.023737019 15.858669
-1.5562325 -1.0231286 11.839826
-1.3592911 -0.90621996 7.8776813
-1.1249248 -0.76102096 4.3890557
-1.0195271 -0.69487596 2.9662452
-0.97063053 -0.66449916 2.2229733
-0.94702768 -0.65025973 1.7598482
-0.92572856 -0.63704324 1.4220465
-0.77435231 -0.41712517 15.049279
-1.3839792 -0.81553769 14.93918
-1.2412127 -0.83184415 5.7902722
-1.0653683 -0.72124857 3.5528388
-0.98379755 -0.67000264 2.5249257
-0.96608561 -0.66013545 1.9840788
-0.92445904 -0.63333029 1.5586089
-0.90938324 -0.62415177 1.2739978
-0.9098078 -0.62888199 1.1666611
-0.88590604 -0.61303562 0.95106864
-0.87829059 -0.6084342 0.78511947
-0.87127209 -0.60401332 0.64150673
-0.86151499 -0.59768558 0.51195633
-0.84748346 -0.58838046 0.39319694
-0.85523349 -0.59419715 0.28918761
-0.83802944 -0.5826689 0.18457997
-0.90063101 -0.62067682 1.0553395
-0.88047713 -0.6074568 0.86243486
-0.87414777 -0.60353154 0.70983243
-0.86708772 -0.5993188 0.57472402
-0.86263388 -0.59667623 0.45419851
-0.83940238 -0.58103192 0.33693972
-0.8467232 -0.58631146 0.23585941
-0.78000003 -0.54050374 0.13195628
-0.14888394 -0.023217458 15.858669
-1.5545877 -1.0142946 11.800311
-1.3573506 -0.89809948 7.8483095
-1.1238561 -0.75459385 4.3747396
-1.0187099 -0.68912399 2.9570401
-0.97096306 -0.65976113 2.2185843
-0.94696623 -0.64536548 1.7557154
-0.9252997 -0.63200033 1.418209
-0.77478403 -0.41387752 15.029313
-1.3863571 -0.81043303 14.934209
-1.2378286 -0.82333088 5.7612362
-1.0650144 -0.71560085 3.5434532
-0.9825229 -0.66412663 2.5159233
-0.96406692 -0.65383184 1.975547
-0.92417228 -0.62840533 1.5546188
-0.91155642 -0.62097365 1.2739978
-0.90905666 -0.62368488 1.1631566
-0.88483191 -0.60773593 0.94793022
-0.87696356 -0.60299575 0.78237802
-0.86972576 -0.59845734 0.63918799
-0.86359608 -0.59467471 0.51195633
-0.84953207 -0.58541858 0.39319694
-0.85730243 -0.59120822 0.28918761
-0.83595949 -0.57691151 0.18413289
-0.90279216 -0.61752921 1.0553395
-0.87925708 -0.60209602 0.85949171
-0.87269306 -0.59803981 0.70729923
-0.86917442 -0.59628844 0.57472402
-0.86081827 -0.59098881 0.452555
-0.83741921 -0.57534587 0.33576739
-0.84468353 -0.58054745 0.23516873
-0.7654168 -0.52645302 0.13115016
-0.14896408 -0.022697615 15.858669
-1.552248 -1.0050625 11.755857
-1.3553699 -0.89000362 7.8189383
-1.1215141 -0.74735594 4.3556514
-1.0178648 -0.68338621 2.947835
-0.97127438 -0.65502894 2.2141953
-0.94455129 -0.6389032 1.7474495
-0.92484701 -0.6269682 1.4143715
-0.77494717 -0.41049728 15.004354
-1.3887162 -0.80532175 14.929237
-1.2344003 -0.81485116 5.7321992
-1.0646341 -0.70996445 3.5340676
-0.9830271 -0.65948027 2.5114219
-0.96201605 -0.6475504 1.967015
-0.92386234 -0.6234901 1.5506288
-0.91090989 -0.61588919 1.2703226
-0.90828031 -0.61850083 1.1596521
-0.88373166 -0.60245132 0.94479173
-0.8756091 -0.59757388 0.77963656
-0.87180948 -0.5954178 0.63918799
-0.86183912 -0.58904076 0.51008332
-0.85157043 -0.58244962 0.39319694
-0.85530722 -0.58543748 0.28825498
-0.83796823 -0.57398993 0.18413289
-0.90185302 -0.61227703 1.052014
-0.88135338 -0.59902316 0.85949171
-0.87477529 -0.5949899 0.70729923
-0.86749905 -0.59069651 0.57262594
-0.86287594 -0.58798039 0.452555
-0.8354066 -0.56968087 0.33459508
-0.84670484 -0.57759541 0.23516873
-0.75074524 -0.51251096 0.13034403
-0.1490424 -0.022177495 15.858669
-1.5492092 -0.99543923 11.706466
-1.3524963 -0.88137692 7.7846723
-1.1203805 -0.74096698 4.3413353
-1.0169923 -0.67766279 2.9386299
-0.96957409 -0.6489706 2.2054172
-0.94443911 -0.63403386 1.7433165
-0.92437035 -0.62194699 1.4105339
-0.77509612 -0.40712094 14.979396
-1.3910567 -0.8002038 14.924266
-1.2309278 -0.80640548 5.7031631
-1.0627884 -0.70338726 3.5199893
-0.98169887 -0.65363234 2.5024195
-0.95993298 -0.64129126 1.9584832
-0.92352945 -0.61858475 1.5466388
-0.91023892 -0.6108169 1.2666475
-0.90747899 -0.61332971 1.1561475
-0.88260543 -0.59718174 0.94165331
-0.8742277 -0.59216893 0.77689505
-0.87021583 -0.58988559 0.63686919
-0.86389005 -0.58602875 0.51008332
-0.85359836 -0.5794735 0.39319694
-0.85734558 -0.58244836 0.28825498
-0.83584845 -0.56826156 0.18368581
-0.90398473 -0.60912526 1.052014
-0.88008803 -0.59368277 0.85654855
-0.87327397 -0.58952093 0.70476609
-0.86955571 -0.58766472 0.57262594
-0.86101151 -0.58231938 0.45091146
-0.83739007 -0.56676126 0.33459508
-0.84461528 -0.57186002 0.23447806
-0.73184985 -0.49587542 0.12933637
-0.14911892 -0.021657104 15.858669
-1.5467771 -0.98626709 11.662012
-1.351289 -0.87388653 7.7601957
-1.117968 -0.73377609 4.3222475
-1.0160922 -0.6719538 2.929425
