# .PCD v0.7 - Point Cloud Data file format
VERSION 0.7
FIELDS x y z
SIZE 4 4 4
TYPE F F F
COUNT 1 1 1
WIDTH 1597
HEIGHT 1
VIEWPOINT 0 0 0 1 0 0 0
POINTS 1597
DATA ascii
0.84625512 2.0966933 14.373665
1.1186082 2.8232415 14.623303
1.8996905 4.8906684 16.820074
2.8220928 7.3407383 18.587214
3.6447773 9.5400667 18.782969
3.8796914 10.197543 16.097046
5.019978 13.23628 17.025339
0.35866258 0.7046048 13.511847
0.62633002 1.3562832 13.890193
1.4697493 3.7356744 15.493319
2.3039341 5.9373083 17.373035
3.3392708 8.6768265 19.287447
3.8581839 10.072222 17.712578
4.5028253 11.798154 16.796513
5.4397726 14.290441 16.65456
6.0318832 16.005323 16.888056
8.4845896 22.549135 19.508762
8.9767714 23.895102 16.819954
9.4541569 25.192522 14.171704
7.149087 19.070433 8.316884
8.7061005 23.248466 7.3869596
6.1770482 16.512522 3.4386461
7.8899608 20.847324 19.934204
9.5442209 25.284853 15.967169
6.5466013 17.371 8.6690102
8.7765598 23.312664 8.7588501
7.3024302 19.417561 5.0942039
6.3368464 16.858942 2.6042013
7.3054724 19.456526 0.93203402
0.089560732 0.086850017 12.883782
0.85268843 2.0915682 14.358847
1.1273211 2.816484 14.608619
1.9162053 4.882618 16.815302
2.8250613 7.2725687 18.439932
3.6823688 9.538456 18.804913
3.9152639 10.183939 16.097046
5.0650039 13.215684 17.021502
0.36098754 0.70309204 13.506856
0.63106048 1.3540885 13.890193
1.4827803 3.7305212 15.493319
2.3227556 5.9244108 17.358957
3.36796 8.6610594 19.278444
3.8801391 10.024643 17.652855
4.5428963 11.779552 16.792521
5.4896221 14.271365 16.65456
6.0864468 15.980839 16.884552
8.5784664 22.559401 19.543285
8.908741 23.464886 16.540325
9.5593176 25.204929 14.197211
8.9366226 23.612747 7.5110426
6.2485461 16.527615 3.4461067
7.0959086 18.788715 1.8959986
7.9506793 20.788269 19.904274
9.3691454 24.535505 19.207153
9.6370325 25.263466 15.974769
6.6152749 17.369251 8.6795006
8.8562031 23.27747 8.757206
7.2959123 19.196581 5.0437942
6.4976497 17.105219 2.6442606
7.3609366 19.398212 0.93062335
0.089863345 0.086536862 12.883782
0.85909623 2.0864236 14.344028
1.1363821 2.8106437 14.598828
1.9326867 4.8745117 16.81053
2.826875 7.2026491 18.288048
3.7199941 9.5367022 18.82686
3.9507885 10.17021 16.097046
5.1087894 13.191946 17.013826
0.36330625 0.70157158 13.501864
0.63578331 1.3518775 13.890193
1.4953249 3.7241561 15.488479
2.354861 5.9451447 17.443426
3.3965802 8.6451979 19.269442
3.9179573 10.018323 17.665653
4.5828934 11.760815 16.788532
5.5394053 14.252116 16.65456
6.1434736 15.962822 16.888056
8.6878767 22.609251 19.612331
9.1853094 23.941158 16.896715
7.9239831 20.675131 11.676676
8.5650215 22.371056 9.7666121
9.0309877 23.612772 7.5209126
6.2711368 16.413929 3.4274542
7.1721048 18.791746 1.898681
8.0501146 20.830044 19.970785
9.4329081 24.446091 19.163008
9.7360125 25.25783 15.9925
6.6791248 17.354525 8.6836967
7.4081869 19.288973 5.0742745
6.5608678 17.091681 2.645642
7.4160829 19.339746 0.92921263
0.09016487 0.086222656 12.883782
0.86547858 2.08126 14.329211
1.1454159 2.8047745 14.589037
1.9491352 4.8663502 16.805758
2.8375967 7.1564159 18.195997
3.7576516 9.5347996 18.848804
3.9862652 10.156357 16.097046
5.1396232 13.135229 16.96394
0.36548463 0.69978797 13.491881
0.64026946 1.3491685 13.885221
1.5078429 3.7177489 15.48364
2.3858576 5.9625235 17.518513
3.4267371 8.6332893 19.269442
3.956738 10.01429 17.682716
4.6239181 11.744746 16.788532
5.5891204 14.232694 16.65456
6.1991568 15.94128 16.888056
8.7780161 22.607817 19.63744
9.2401066 23.834875 16.844627
7.9353132 20.490374 11.588561
8.4557171 21.856773 9.5568323
9.1271906 23.616901 7.5321932
6.4062381 16.593573 3.4684899
7.2340727 18.757305 1.8977869
8.1472216 20.86442 20.030643
9.4829445 24.322632 19.092369
9.7756205 25.099167 15.913972
6.7429523 17.339563 8.6878929
10.164165 26.164215 9.8583574
6.5258756 16.816053 4.4412231
7.5052071 19.369642 0.93163097
0.090465292 0.0859074 12.883782
0.87183529 2.076077 14.314394
1.154423 2.798877 14.579247
1.9649903 4.8567491 16.796213
2.8567483 7.131959 18.159178
3.7953408 9.5327501 18.87075
4.0216932 10.142381 16.097046
5.1748371 13.090381 16.929401
0.36765495 0.69799763 13.481898
0.64497501 1.3469254 13.885221
1.5208111 3.7124627 15.48364
2.3956616 5.9269605 17.438734
3.4528005 8.6111717 19.246935
3.9945705 10.007683 17.695515
4.6648865 11.728534 16.788532
5.6387677 14.213097 16.65456
6.2560697 15.922866 16.89156
8.8739357 22.620518 19.6751
9.2912245 23.720716 16.787058
8.003561 20.454298 11.583923
7.2340641 18.506756 8.1164694
9.2427254 23.669798 7.5589833
6.5248179 16.726707 3.5001988
7.2995038 18.731937 1.8977869
8.2213736 20.839329 20.033968
9.5189028 24.165277 18.995247
9.8268661 24.972628 15.855709
6.8233533 17.36661 8.713069
10.391732 26.475834 9.9881945
7.3315234 18.698284 4.9347692
6.6944852 17.082346 2.6511676
7.5727739 19.343327 0.93163097
0.090764612 0.085591093 12.883782
0.87816656 2.0708754 14.299577
1.1630108 2.7920103 14.564562
1.9813665 4.8484783 16.791441
2.8742979 7.1038332 18.113152
3.8330615 9.5305538 18.892694
4.0570722 10.128281 16.097046
5.1931581 13.003776 16.841139
0.36995319 0.69645536 13.476907
0.64967275 1.3446658 13.885221
1.5342414 3.7082932 15.488479
2.4052467 5.8914027 17.358957
3.4746659 8.5788908 19.201923
4.0343561 10.005772 17.716843
4.7057986 11.712179 16.788532
5.6883464 14.193327 16.65456
6.3102961 15.897614 16.888056
8.9714861 22.636448 19.7159
9.4139709 23.789227 16.858335
8.0635118 20.3974 11.567692
7.2713757 18.412401 8.0865011
9.3622627 23.7311 7.588594
6.5831656 16.703829 3.5001988
7.5326862 19.13265 1.9389181
8.2843895 20.786224 20.010691
9.5972195 24.11688 18.983475
9.8693876 24.826012 15.78478
6.8839326 17.342686 8.713069
10.666855 26.900312 10.160764
6.6019421 16.666149 4.4142599
7.6439228 19.326067 0.93203402
0.091062829 0.085273743 12.883782
0.88447201 2.0656548 14.284759
1.1715651 2.7851183 14.549875
1.9971398 4.8387733 16.781897
2.8975992 7.0901399 18.103947
3.8699121 9.5259914 18.910252
4.092402 10.114058 16.097046
5.1953483 12.878559 16.702988
0.37210825 0.69465137 13.466923
0.65412861 1.3419108 13.88025
1.5471765 3.7029152 15.488479
2.402771 5.8271332 17.19471
3.4955232 8.5445461 19.152411
4.0741768 10.003706 17.738174
4.7466531 11.695682 16.788532
5.7378559 14.173385 16.65456
6.3684053 15.882112 16.895065
5.7779212 14.431364 12.616712
9.5155811 23.802814 16.891233
8.0114431 20.060589 11.393782
7.3613701 18.451494 8.1145964
9.4663553 23.751749 7.605515
6.6977615 16.822226 3.52911
7.6215115 19.161768 1.944283
8.3624735 20.771032 20.023993
9.6768217 24.071983 18.974646
9.8483524 24.52339 15.615057
7.2885189 18.213423 4.822226
7.7243123 19.331741 0.93344474
0.091326356 0.084927484 12.878783
0.89075154 2.0604153 14.26994
1.1800853 2.7782004 14.535191
2.012295 4.8276391 16.767582
2.915622 7.0637298 18.062525
3.9076862 9.5235033 18.932198
4.1276813 10.09971 16.097046
5.1918907 12.741615 16.549488
0.37439305 0.69309449 13.461931
0.65880883 1.3396194 13.88025
1.5600926 3.6974919 15.488479
2.4157989 5.8011866 17.143089
3.5170147 8.5121727 19.107397
4.1140323 10.001483 17.759504
4.7874498 11.679041 16.788532
5.7885785 14.156408 16.658237
6.4211278 15.853173 16.888056
5.8443131 14.4508 12.651235
9.0161638 22.327124 15.871408
7.4257331 18.425686 8.1145964
9.4345446 23.433762 7.5152721
6.7032847 16.666578 3.5020642
7.6512198 19.042631 1.9353416
8.4335203 20.738256 20.020666
9.6923571 23.86953 18.842201
9.8885231 24.377012 15.544127
18.918882 46.755455 17.64366
7.4139862 18.341089 4.8620849
6.6652312 16.497059 2.5738113
7.8085752 19.346355 0.93525851
0.091622248 0.084608182 12.878783
0.89700562 2.0551574 14.255123
1.1885715 2.7712569 14.520504
2.0273969 4.8164582 16.753265
2.9380062 7.0480995 18.048717
3.9454901 9.5208673 18.954142
4.1629109 10.08524 16.097046
5.2143779 12.670062 16.480413
0.37667146 0.69153023 13.45694
0.66324365 1.3368342 13.875278
1.5729897 3.6920235 15.488479
2.4313509 5.7815838 17.110241
3.5341313 8.4697084 19.039881
4.154922 10.001512 17.785099
4.8281879 11.662259 16.788532
5.8379583 14.136116 16.658237
7.8915997 19.289808 20.56082
5.8976641 14.437518 12.657512
9.1114168 22.338106 15.901564
9.0699339 22.303102 7.1669946
6.700407 16.492893 3.4712875
7.6464787 18.840458 1.9183525
8.5115347 20.722509 20.033968
9.777153 23.839293 18.845146
9.9653826 24.322403 15.531462
6.6492867 16.253109 8.2053413
19.051603 46.614819 17.615721
7.635973 18.702097 4.9629045
6.7115498 16.446184 2.5696673
7.8892612 19.351364 0.93666923
0.091917031 0.084287845 12.878783
0.90323365 2.0498807 14.240305
1.1958095 2.7614853 14.491134
2.0424454 4.8052306 16.738951
2.9603167 7.0323992 18.03491
3.9823985 9.5158739 18.971699
4.1970072 10.06805 16.092915
5.2548823 12.642903 16.468901
0.37880403 0.68970567 13.446957
0.66790605 1.3345108 13.875278
1.5853709 3.6853557 15.48364
2.4535415 5.7778273 17.124319
3.5602932 8.449296 19.021875
4.1948543 9.9989729 17.806429
4.8688674 11.645334 16.788532
5.8872671 14.115652 16.658237
7.9697814 19.288513 20.588856
5.9673238 14.46362 12.698312
9.1973 22.325495 15.915271
6.8740211 16.702536 9.5410604
7.5947323 18.472013 8.1576767
9.1477318 22.271307 7.1669946
6.9183087 16.860235 3.5514929
7.3325338 17.887476 1.8284897
8.588109 20.703016 20.043945
9.9268208 23.965593 18.971701
9.860671 23.829395 15.240146
6.6747832 16.154297 8.1675758
19.192581 46.495655 17.595999
7.7234454 18.72925 4.9769721
6.6972075 16.248676 2.5434215
0.092210688 0.083966479 12.878783
0.908804 2.0431659 14.215609
1.2054416 2.7572944 14.491134
2.0550847 4.7884698 16.705545
2.9833176 7.0184264 18.025705
4.0211849 9.515152 18.998034
4.2321253 10.053339 16.092915
5.3014631 12.630394 16.476576
0.38106883 0.68812692 13.441965
0.67231965 1.3316956 13.870307
1.5977247 3.6786463 15.4788
2.4532921 5.7216468 16.983536
3.5855033 8.4268017 18.999369
4.2368526 10.001079 17.83629
4.9094877 11.628267 16.788532
5.9351878 14.091889 16.65456
8.0631552 19.323107 20.655443
6.0252595 14.460665 12.714004
9.284812 22.31642 15.93172
6.930582 16.674351 9.5387421
7.6591659 18.445391 8.1576767
9.1371899 22.026552 7.0993133
7.3854027 17.838764 1.8262541
8.6660948 20.686687 20.057247
9.9932575 23.889778 18.939327
9.7210588 23.261852 14.9007
6.7311316 16.130899 8.1675758
7.8822103 18.926529 5.0355878
6.761498 16.243488 2.5461843
7.0746055 17.012396 0.83691144
0.092503227 0.083644092 12.878783
0.91465688 2.0371461 14.195851
1.215059 2.7530699 14.491134
2.0694132 4.7757888 16.686459
3.0062571 7.0043797 18.016499
4.0600147 9.5142736 19.024368
4.2671924 10.038505 16.092915
5.3442688 12.608861 16.472738
0.38318598 0.68628907 13.431981
0.67696404 1.3293407 13.870307
1.610051 3.6718957 15.473961
2.4746206 5.7162156 16.992922
3.6105998 8.4042339 18.976864
4.276866 9.9982176 17.85762
4.950048 11.611059 16.788532
5.9843416 14.071086 16.65456
8.1499453 19.340855 20.704506
6.0424891 14.360617 12.644958
9.3966675 22.364828 15.98929
6.9647417 16.592873 9.506279
7.6231108 18.179129 8.0527868
9.1917772 21.941427 7.0823922
7.4476266 17.812874 1.8262541
8.7426157 20.666628 20.067223
10.054568 23.802622 18.898123
9.5038614 22.520826 14.449795
6.7609615 16.044569 8.1361046
7.9708405 18.952667 5.0496559
6.7222066 15.991529 2.5116503
7.0778494 16.854015 0.83106703
0.092760585 0.083293408 12.873783
0.91951627 2.0289874 14.161277
1.2242472 2.7478817 14.486238
2.0693183 4.7302446 16.552841
3.0291352 6.9902582 18.007294
4.098887 9.5132408 19.050703
4.3022075 10.023548 16.092915
5.3882494 12.590129 16.472738
0.38515276 0.68419349 13.417006
0.68135631 1.3264955 13.865335
1.6223496 3.6651039 15.469121
2.4931765 5.7043805 16.983536
3.6433792 8.3995676 18.994867
4.3220811 10.00717 17.900278
4.9881649 11.588175 16.780552
6.0320845 14.046997 16.650887
8.2132187 19.302443 20.693993
6.0788813 14.307196 12.616712
9.5759335 22.570549 16.159262
7.0174322 16.556223 9.4993219
7.657599 18.084105 8.0228176
9.2739191 21.922464 7.0866227
9.5842533 22.678104 4.7657642
7.5058856 17.777594 1.8253599
8.8191032 20.646288 20.0772
10.107462 23.696739 18.842201
9.7716846 22.931677 14.73351
6.8382511 16.070986 8.1612816
8.0825481 19.032099 5.0777912
6.7895956 15.995317 2.5157943
7.0898266 16.718821 0.82623029
0.093050763 0.082969107 12.873783
0.92594647 2.0243521 14.151398
1.2355024 2.7473056 14.505818
2.0737555 4.695684 16.457403
3.0519509 6.9760618 17.998089
4.1378021 9.5120525 19.077038
4.3382888 10.011051 16.097046
5.4308925 12.568301 16.468901
0.38725266 0.68234348 13.407023
0.68598247 1.3241091 13.865335
1.6341077 3.6571233 15.459443
2.5151637 5.7003794 16.997614
4.3809624 10.047007 17.998394
5.0297856 11.573455 16.78454
6.0810814 14.025856 16.650887
8.2889929 19.293314 20.715021
6.1180434 14.26085 12.594742
9.7452221 22.748383 16.310041
7.080411 16.543844 9.506279
7.879241 18.428114 8.1857719
9.3786507 21.956129 7.1077728
9.6537151 22.621918 4.7611012
7.517117 17.632179 1.813736
8.8970327 20.629087 20.090502
10.201309 23.6873 18.862804
9.9027853 23.016226 14.809506
6.8925152 16.042847 8.1591835
10.349939 24.136629 6.4247847
6.8512411 15.985175 2.5178664
7.1697745 16.74449 0.82844716
0.093305565 0.082616754 12.868783
0.93333292 2.0218132 14.156338
1.2450848 2.7429762 14.505818
2.0755453 4.6556964 16.342875
3.0747046 6.961792 17.988884
4.1738691 9.5041294 19.090204
4.3732071 9.9958467 16.097046
5.474731 12.549267 16.468901
0.38934427 0.68048692 13.39704
0.69060028 1.3217065 13.865335
1.6458298 3.6491053 15.449763
2.5540049 5.734127 17.124319
3.8330846 8.6705933 19.665548
4.4454288 10.098489 18.117842
5.0689435 11.553069 16.780552
6.1286445 14.001437 16.647211
8.3619652 19.277351 20.729038
6.1507683 14.200119 12.560219
9.9142075 22.921469 16.45808
7.1363587 16.514961 9.5039597
7.9416814 18.396242 8.1838989
9.4685345 21.954092 7.1176429
9.6995783 22.511391 4.7452469
7.5746803 17.596684 1.8128418
8.9749498 20.611601 20.103804
10.293602 23.673788 18.880463
9.9401283 22.882673 14.746177
10.58669 24.452732 6.5173974
6.9207649 15.992975 2.522701
7.2361097 16.737701 0.8292532
0.093593381 0.082290553 12.868783
0.94005644 2.0178387 14.151398
1.2584696 2.7469442 14.549875
2.0844328 4.6320887 16.285612
3.0966005 6.9456639 17.975077
4.2099314 9.4960699 19.103371
4.4080725 9.9805212 16.097046
5.5185027 12.530081 16.468901
0.39142767 0.67862415 13.387056
0.69496083 1.3188163 13.860364
1.6575158 3.6410499 15.440084
2.5732975 5.7236023 17.119625
3.8828454 8.7008953 19.764576
4.5113664 10.152026 18.241554
5.1006985 11.516019 16.752621
6.1774812 13.979959 16.647211
9.0114565 20.577604 22.155388
6.2002983 14.178562 12.560219
10.295363 23.576481 16.951546
7.2010489 16.506191 9.5132351
9.5336199 21.89452 7.1091833
9.8192482 22.571991 4.7648315
9.0573616 20.604074 20.127083
10.382675 23.652517 18.892237
10.054568 22.92679 14.79684
7.1536374 16.335239 8.3312235
10.689502 24.455713 6.5279479
6.9963746 16.014099 2.5296078
7.3164749 16.762707 0.83147007
0.093845621 0.081936553 12.863783
0.94709432 2.0145447 14.151398
1.2714698 2.7499278 14.589037
2.0919461 4.6057572 16.218803
3.1192226 6.9312491 17.965872
4.4428844 9.9650726 16.097046
5.5622072 12.51074 16.468901
0.39364848 0.67700452 13.382065
0.69956017 1.3163824 13.860364
1.6686407 3.6318157 15.425566
2.5925477 5.7130141 17.114933
3.9221339 8.7071371 19.809587
4.576664 10.202844 18.361
5.1162672 11.443127 16.672821
6.2234802 13.95212 16.639862
9.0933256 20.568857 22.17992
11.317105 25.671556 18.478542
7.2175565 16.387712 9.4599028
7.8589344 17.860855 7.9722457
9.6447363 21.940155 7.1345639
9.8545246 22.438631 4.7443142
7.6173077 17.360962 1.7949587
9.1352854 20.585983 20.140385
10.481549 23.653084 18.921667
7.2142844 16.318472 8.3354197
9.8467255 22.293959 8.5714893
10.768917 24.404913 6.5244312
7.0462365 15.975986 2.5275359
7.3749428 16.737066 0.83147007
0.094165593 0.081635155 12.868783
0.95378745 2.0105247 14.146459
1.2892433 2.7630033 14.682047
2.1204524 4.6255646 16.314241
3.1409748 6.9149828 17.952065
4.4861317 9.9313488 20.038246
4.4776416 9.9495039 16.097046
5.6045318 12.488325 16.465063
0.39571622 0.67512882 13.372081
0.70415092 1.3139325 13.860364
1.6802503 3.6236882 15.415888
2.6074438 5.6929469 17.082085
3.949801 8.6874485 19.796083
4.6423707 10.253329 18.480446
5.1487427 11.408719 16.64888
6.27632 13.939584 16.650887
9.1621637 20.530476 22.172911
6.3704286 14.294916 12.701449
11.372646 25.555494 18.423714
7.2963119 16.410992 9.4877281
7.9212322 17.833315 7.9722457
9.6589975 21.766043 7.0894427
9.9646444 22.475946 4.7592363
7.6778626 17.334267 1.7949587
9.2238798 20.591454 20.176966
10.540944 23.564697 18.880463
9.9148722 22.237886 8.5632725
10.804595 24.25617 6.4951234
7.0375061 15.806527 2.505434
7.3541346 16.533195 0.82361037
0.094449975 0.081305951 12.868783
0.96012849 2.0057814 14.13658
1.3066895 2.7750671 14.770161
2.1365857 4.618135 16.314241
3.1626508 6.8986492 17.938257
4.5515718 9.9831829 20.174307
4.5111814 9.9312515 16.092915
5.6480899 12.468686 16.465063
0.39777565 0.67324686 13.362099
0.70873308 1.3114666 13.860364
1.6918236 3.6155241 15.406209
2.6265755 5.6822438 17.077391
3.9773777 8.6676722 19.782579
4.6889739 10.260783 18.523106
5.1573076 11.322124 16.549129
6.3165245 13.899072 16.628834
8.6478806 19.197741 20.771093
6.4202886 14.272593 12.701449
11.391532 25.359253 18.311312
7.4097795 16.51071 9.5596113
8.0858545 18.033985 8.07339
9.6996174 21.653393 7.0640621
10.133337 22.642792 4.8012037
7.7586498 17.352821 1.7994295
9.3110828 20.593151 20.21022
10.631453 23.546175 18.895178
7.8567991 17.417187 11.31372
7.1956844 15.973907 8.1864586
10.915113 24.27594 6.5103636
7.102788 15.80445 2.5088875
7.3913383 16.461851 0.82159507
0.094733208 0.080975771 12.868783
0.96644801 2.0010185 14.126702
1.3216131 2.7815244 14.828903
2.1495352 4.6038861 16.290382
3.1858919 6.8857942 17.933653
4.6114211 10.021627 20.284035
4.5446477 9.9128866 16.088781
5.6915798 12.448895 16.465063
0.39997509 0.6716066 13.357107
0.71305126 1.3085169 13.855393
1.7033602 3.6073232 15.39653
2.6442058 5.6683497 17.063313
4.0048647 8.647809 19.769075
4.7509766 10.301191 18.625488
5.1540031 11.210966 16.413469
6.370656 13.889264 16.643536
8.7192688 19.177174 20.781607
6.5247817 14.370594 12.808157
8.6447372 19.06617 13.809825
7.4673676 16.484743 9.5596113
8.1487551 18.00565 8.07339
9.7316628 21.523237 7.0330415
7.7067533 17.060663 3.6456873
7.8273697 17.34379 1.8012178
9.3953114 20.5877 20.236824
10.856055 23.82156 19.145348
11.220398 24.64381 15.997567
7.255157 15.956955 8.1906548
11.027906 24.299654 6.5267758
7.1763244 15.820148 2.5151036
0.095050104 0.080670908 12.873783
0.97274595 1.996236 14.116823
1.3383586 2.791584 14.907228
2.1713192 4.6085076 16.33333
3.2115612 6.8781719 17.94286
4.6675587 10.051085 20.376205
4.5792227 9.8969631 16.088781
5.7336564 12.42604 16.461226
0.40201876 0.66971195 13.347123
0.71761447 1.3060198 13.855393
1.7148602 3.599086 15.38685
2.6625056 5.6559625 17.053926
4.0322618 8.6278601 19.755573
4.7979116 10.308189 18.668148
5.1601324 11.12184 16.309729
8.7965689 19.169312 20.806137
6.5749049 14.347732 12.808157
8.5946598 18.78113 13.626147
7.5009193 16.406204 9.5294666
8.1672554 17.880108 8.0303106
9.137558 20.0228 6.5592704
7.7581086 17.015781 3.6419573
7.9332786 17.416063 1.8110535
9.5202265 20.670082 20.349892
10.984746 23.882669 19.224813
7.9836011 17.373663 11.321319
7.5001035 16.344028 8.4004602
11.232086 24.52174 6.5959425
7.2603636 15.858038 2.5247731
0.095331118 0.080338635 12.873783
0.97936529 1.9921311 14.111884
1.3503124 2.7914779 14.931704
2.1893156 4.6049442 16.347647
3.2380493 6.872221 17.956665
4.723958 10.080273 20.468374
4.6137414 9.8809185 16.088781
5.7769961 12.405951 16.461226
0.40420404 0.6680578 13.342132
0.7219103 1.3030409 13.850421
1.7263236 3.5908124 15.377172
2.680011 5.6419582 17.03985
4.0595679 8.6078262 19.742067
4.8416262 10.307902 18.698009
5.181035 11.065556 16.253868
7.8722196 16.851475 20.241522
8.8784151 19.170849 20.841183
6.6004405 14.271703 12.761081
8.5742559 18.565004 13.491815
7.5729895 16.412098 9.5480175
8.2043877 17.796761 8.0059605
9.1291294 19.820856 6.5042791
7.8174572 16.988596 3.6419573
7.9732223 17.343019 1.8065827
9.6017628 20.657038 20.369844
11.074853 23.858845 19.236586
7.549479 16.301273 8.3920679
10.13516 21.90443 8.4893141
8.7559166 18.940899 5.1235118
9.4939594 20.565674 1.0074066
0.095610976 0.080005378 12.873783
0.98562247 1.9873081 14.102005
1.3609416 2.7885776 14.941494
2.2176445 4.6228452 16.438314
3.2636957 6.8644047 17.965872
4.7673073 10.081041 20.503489
4.6482043 9.8647528 16.088781
5.8202662 12.385709 16.461226
0.40638271 0.66639668 13.33714
0.72645438 1.3005129 13.850421
1.7377499 3.5825028 15.367494
2.6981971 5.6294565 17.030464
4.0867839 8.5877056 19.728565
4.8842802 10.305079 18.723604
5.2170548 11.041954 16.245888
7.9989371 16.968016 20.414253
8.9422598 19.13328 20.834175
6.6419859 14.230938 12.745388
8.6549063 18.569073 13.516488
7.5778718 16.273123 9.4830904
8.3075275 17.856281 8.0452948
9.2205029 19.836718 6.5197897
7.8560205 16.916651 3.6326308
8.006465 17.256355 1.8007706
9.6817398 20.640301 20.386473
8.3632441 17.853729 14.439234
8.1704779 17.458059 11.412514
7.604414 16.27071 8.3899698
10.227543 21.903151 8.5024624
8.7562208 18.769264 5.0859976
8.9258699 19.141621 3.0379484
9.479188 20.346737 0.99914378
0.095854573 0.079645194 12.868783
0.99185795 1.9824663 14.092128
1.3751658 2.7929442 14.990446
2.2233617 4.5935788 16.361963
3.2901728 6.8582554 17.979679
4.8034987 10.066501 20.507877
4.6838183 9.8510084 16.092915
5.8634648 12.365316 16.461226
0.4087064 0.66497409 13.33714
0.73072767 1.297505 13.845449
1.7491394 3.574157 15.357815
2.7155769 5.6153426 17.016384
4.1139088 8.5675011 19.715061
4.9269729 10.302084 18.749201
5.2568631 11.026395 16.249878
6.7247906 14.278093 12.808157
8.6965361 18.489557 13.480848
7.5611529 16.090214 9.3926573
8.3658657 17.818783 8.0415487
9.4485903 20.143167 6.6297717
7.9275298 16.915813 3.6382267
7.8322515 16.727682 1.7511449
6.4614391 13.650912 13.532617
8.420332 17.813463 14.430405
8.1669369 17.293005 11.323852
7.6243782 16.166073 8.3501062
10.342181 21.948475 8.5336895
8.9024267 18.910093 5.1317182
9.0179348 19.164116 3.0462365
0.09613201 0.079310112 12.868783
0.99807155 1.9776047 14.082249
1.3840007 2.7863033 14.980656
2.2262814 4.5589643 16.266523
3.3157947 6.8502455 17.988884
4.8406868 10.053988 20.516655
4.7193933 9.8371353 16.097046
5.9052091 12.341884 16.457388
0.41087249 0.66329825 13.332148
0.73525232 1.2949463 13.845449
1.7610483 3.5669026 15.352975
2.7336483 5.6027279 17.007
4.1399927 8.5452518 19.697056
4.9708381 10.301265 18.779062
5.2953205 11.007977 16.249878
8.5660944 17.846996 21.538855
6.894886 14.507648 13.034126
8.6964788 18.323095 13.382155
7.6229658 16.075729 9.3996134
8.4399233 17.814608 8.0527868
9.5003748 20.071039 6.6170816
7.9361277 16.781462 3.6158435
7.9459081 16.817312 1.762769
6.5090499 13.628274 13.532617
8.4842014 17.787609 14.433348
8.2420874 17.295525 11.344117
7.6417561 16.057398 8.3081455
9.0226078 18.993053 5.1621985
9.0465403 19.052 3.0338042
8.1520329 17.18363 0.86089367
0.09640827 0.078974068 12.868783
1.0042633 1.9727238 14.07237
1.395543 2.7850962 15.000237
2.2349246 4.5364361 16.214031
3.3405437 6.8403854 17.993486
4.8747053 10.034876 20.512266
4.756155 9.8256674 16.105312
5.9482541 12.321196 16.457388
0.41318533 0.66186005 13.332148
0.73950291 1.2919096 13.840478
1.7729281 3.5596087 15.348135
2.7509022 5.5885062 16.992922
4.1669288 8.5248823 19.683554
5.0079074 10.286195 18.783327
5.3337131 10.989427 16.249878
8.6771011 17.917677 21.660135
10.496693 21.888803 19.656269
8.8524952 18.484962 13.521971
7.6790342 16.049023 9.3996134
8.5180531 17.818499 8.067771
9.3987789 19.678476 6.5000491
7.9438848 16.647257 3.5934608
8.0452833 16.874882 1.7712635
6.5614448 13.615561 13.542592
8.5427351 17.750605 14.427462
8.3285627 17.321039 11.379581
7.6977601 16.030624 8.3081455
9.0231218 18.832737 3.0047958
8.4125748 17.574148 0.87963593
0.096648 0.078611478 12.863783
1.0104331 1.967824 14.062491
1.4057158 2.7811167 15.005132
2.2394512 4.5058842 16.132908
3.3661277 6.8321881 18.002691
4.9097042 10.017798 20.512266
4.7928934 9.8140631 16.113579
5.9912267 12.300358 16.457388
0.41533893 0.66016972 13.327157
0.744008 1.2893203 13.840478
1.7847784 3.5522754 15.343297
2.7696257 5.5773249 16.98823
4.1937718 8.504427 19.67005
5.0495319 10.280357 18.804657
5.3720407 10.970741 16.249878
8.7455454 17.899464 21.674835
7.0400758 14.550255 13.115726
8.3693771 17.320702 12.696789
8.5902681 17.809534 8.077136
9.3674507 19.43812 6.4323678
8.0147324 16.645983 3.5990565
8.1645861 16.972353 1.7837818
10.04245 20.654215 20.536119
8.6011124 17.713404 14.421576
8.394618 17.303495 11.387181
7.8526144 16.207878 8.4130478
8.2956572 17.160419 2.7506254
8.4499683 17.495193 0.87741917
0.096921816 0.078273639 12.863783
1.0165812 1.9629053 14.052613
1.4168029 2.7789142 15.019817
2.2518203 4.4913664 16.109047
3.3908255 6.8221459 18.007294
4.9425197 9.9963055 20.503489
4.8308535 9.8048458 16.125978
6.0327129 12.276491 16.45355
0.41748568 0.65847248 13.322165
0.74850404 1.2867154 13.840478
1.7971672 3.5460236 15.343297
2.7852125 5.5599084 16.964766
4.2205234 8.4838886 19.656546
5.084228 10.26033 18.80039
5.4103031 10.951923 16.249878
8.8109713 17.874907 21.682186
8.8316021 18.067581 19.842388
7.1591229 14.665504 13.241264
8.4444456 17.321451 12.718721
8.0120287 16.449028 9.6639576
8.7172985 17.912832 8.1370726
9.3618279 19.254307 6.3830161
8.0384445 16.547209 3.5841346
8.0867882 16.661499 1.7556157
10.135862 20.662613 20.579351
8.664669 17.686901 14.424519
8.5743618 17.518019 11.546772
7.9410324 16.245607 8.4466162
11.938654 24.445435 9.5575953
10.220687 20.946276 5.7120152
8.3641911 17.149162 2.7533882
8.4825354 17.407206 0.87479925
0.097194456 0.077934839 12.863783
1.0230669 1.9586561 14.047674
1.427426 2.7757626 15.029609
2.262095 4.4728236 16.070871
3.4163699 6.8137603 18.016499
4.975245 9.9747057 20.494711
4.8713121 9.8005238 16.146643
6.0755291 12.255358 16.45355
0.41962567 0.65676814 13.317174
0.75272095 1.2836351 13.835506
1.8089619 3.5386095 15.338457
2.7983761 5.5378304 16.927223
4.2471824 8.4632673 19.643044
5.122345 10.247186 18.808924
5.4484992 10.932971 16.249878
8.877841 17.853149 21.693213
8.9119663 18.071825 19.880938
7.2653027 14.752164 13.341695
8.562068 17.408186 12.803707
8.090888 16.464693 9.6894636
8.7777309 17.878134 8.1352005
9.4289808 19.22151 6.3830161
8.104804 16.536692 3.5878651
10.229455 20.670609 20.622583
8.6679049 17.553688 11.589835
8.0860147 16.396891 8.5389309
12.042696 24.441736 9.5723867
10.29374 20.910471 5.7120152
8.3737154 17.017666 2.7375026
8.4638958 17.216087 0.86754411
0.097465903 0.077595092 12.863783
1.0291731 1.9536982 14.037795
1.4380443 2.7725706 15.039398
2.2709105 4.4516039 16.023153
3.4410155 6.8035374 18.021103
5.006804 9.950861 20.481543
4.911799 9.7960367 16.167307
6.1182709 12.234076 16.45355
0.42175883 0.65505701 13.312181
0.75719708 1.2809998 13.835506
1.8207268 3.5311563 15.333617
2.8122039 5.5172668 16.894373
4.2766991 8.448391 19.643044
5.1580825 10.229243 18.808924
5.4866295 10.913885 16.249878
8.9416265 17.825083 21.696886
8.9765835 18.0438 19.884441
10.797822 21.733141 19.649992
8.53543 17.202147 12.674858
8.0971546 16.333158 9.6291752
8.8544874 17.876465 8.1483116
9.6172972 19.433544 6.463388
8.1755428 16.534721 3.5934608
6.8109474 13.642883 13.662311
8.6887617 17.442295 11.536639
8.1452227 16.372629 8.541029
10.656641 21.439529 8.4219303
10.273705 20.687218 5.6616054
8.4330673 16.988333 2.7375026
8.4506865 17.03874 0.86089367
0.097736172 0.0772544 12.863783
1.0352572 1.9487216 14.027917
1.4486576 2.7693384 15.049189
2.2837036 4.4383402 16.004065
3.4665189 6.7949648 18.030306
5.0382562 9.9269152 20.468374
4.9523139 9.7913866 16.187973
6.1609387 12.212646 16.45355
0.4238852 0.65333897 13.30719
0.76166397 1.2783489 13.835506
1.8318818 3.5225489 15.323938
2.8259223 5.4966741 16.861525
4.3002234 8.4217777 19.616035
5.193758 10.211177 18.808924
5.5246925 10.894667 16.249878
9.0068541 17.79981 21.704237
9.0395136 18.012356 19.884441
10.899778 21.747511 19.697069
8.2360716 16.454325 12.148496
8.1679888 16.332531 9.6454067
8.9271936 17.866182 8.1576767
10.083614 20.198154 6.7256541
8.2332096 16.506083 3.5934608
6.8366957 13.575674 13.619079
7.0496039 14.016685 11.507846
8.6857204 17.28475 11.453044
10.77798 21.495066 8.4580879
10.400283 20.759872 5.6909137
8.5876617 17.149193 2.7672019
8.353632 16.696383 0.84678644
0.098005243 0.076912768 12.863783
1.0416862 1.9444113 14.022977
1.4587908 2.7651653 15.054084
2.2991824 4.4303417 16.004065
3.4902165 6.7828226 18.030306
5.0696025 9.9028721 20.455208
4.9928565 9.7865734 16.208637
6.2020783 12.18821 16.449713
0.42600471 0.65161407 13.302198
0.76612163 1.2756824 13.835506
1.8429986 3.5139067 15.31426
2.8387365 5.4745207 16.82398
4.3196268 8.3873634 19.571024
5.2305603 10.195305 18.813189
5.5613165 10.872634 16.245888
9.0704727 17.771282 21.707912
9.1039438 17.983875 19.887947
7.4106045 14.657906 13.326003
8.3405743 16.518789 12.217032
8.2967777 16.446299 9.7288837
8.9957638 17.84733 8.1632957
10.238206 20.329927 6.7806454
6.887424 13.558384 13.62573
7.1094608 14.013619 11.525506
8.8103189 17.381212 11.536639
10.540647 20.857925 5.7272553
8.7367811 17.295916 2.7948289
8.4186153 16.680502 0.84739101
0.098273121 0.076570198 12.863783
1.0480975 1.9400795 14.018038
1.4689125 2.7609551 15.05898
2.3139408 4.4209661 15.999291
3.5129719 6.7688646 18.025705
5.1074357 9.8914995 20.468374
5.0334253 9.7815962 16.229303
6.2475123 12.172189 16.457388
0.42827666 0.65012306 13.302198
0.77056992 1.2730004 13.835506
1.8540777 3.5052299 15.304581
2.8570294 5.4630494 16.819288
4.3368354 8.3490505 19.517008
5.2661166 10.176984 18.813189
5.5992355 10.853155 16.245888
9.1324511 17.739511 21.707912
9.1666641 17.951986 19.887947
7.4422731 14.593805 13.29148
8.3981848 16.489576 12.217032
8.3681993 16.444874 9.7451153
10.797684 21.237507 9.7141666
8.3704748 16.492006 3.602787
9.8696384 19.462555 2.0520291
10.465986 20.426081 20.522818
7.1215081 13.916752 11.466642
8.9298096 17.465498 11.612634
9.4126873 18.449608 7.29777
10.611182 20.816675 5.7260828
8.6194954 16.91674 2.7402651
8.4767904 16.651014 0.84739101
0.098539799 0.076226689 12.863783
1.0544915 1.935727 14.0131
1.4790226 2.7567081 15.063875
2.3286619 4.4115424 15.99452
3.5365779 6.7565608 18.025705
5.141932 9.8736115 20.468374
5.0753169 9.7789526 16.254099
6.2825956 12.136075 16.438202
0.43054339 0.64862412 13.302198
0.77473086 1.269848 13.830535
1.864527 3.4954095 15.290063
2.8744712 5.4499898 16.809904
4.3497887 8.3030081 19.444988
5.301609 10.158541 18.813189
5.6370854 10.833544 16.245888
9.1958809 17.710535 21.711588
9.2309046 17.923048 19.891451
11.158963 21.694483 19.753563
8.4251232 16.40065 12.173169
8.3183441 16.206692 9.6222191
10.702513 20.869677 9.5643234
9.8439436 19.211987 6.4351873
9.0704441 17.717609 3.8704488
9.9034986 19.361481 2.0453229
10.451511 20.223574 20.356543
7.1292582 13.812789 11.401893
8.8840284 17.227329 11.475843
8.2857485 16.087847 8.4529114
9.591548 18.639179 7.3848767
8.7712994 17.067131 2.7685831
8.557682 16.665766 0.8494063
0.098805279 0.075882256 12.863783
1.0608679 1.9313534 14.00816
1.4891208 2.752424 15.06877
2.3433454 4.4020691 15.989747
3.5355155 6.6975269 17.901436
5.1785936 9.8598433 20.477154
5.1159453 9.7736425 16.274763
6.3264031 12.116912 16.442038
0.43264389 0.64687765 13.297207
0.77915877 1.267136 13.830535
1.8749303 3.4855592 15.275544
2.8918567 5.4368758 16.800518
4.3614569 8.2550526 19.368469
5.3370366 10.139972 18.813189
5.6748676 10.813801 16.245888
9.2576456 17.678328 21.711588
9.2934113 17.890717 19.891451
7.6067109 14.662418 13.401325
8.6294317 16.669296 9.9120693
10.683712 20.655128 9.4837837
9.9065428 19.168985 6.4323678
9.186326 17.790594 3.8928318
10.534122 20.210144 20.379822
7.179297 13.791405 11.404836
8.0489817 15.475223 10.335913
8.335578 16.046741 8.4466162
9.6326246 18.559481 7.3667979
10.776389 20.780924 5.7366338
8.830822 17.036409 2.7685831
8.6089115 16.622484 0.84880173
0.099069558 0.075536899 12.863783
1.0668499 1.9262792 13.998281
1.4992071 2.7481029 15.073665
2.3579912 4.3925476 15.984976
3.5588729 6.6851449 17.901436
5.2141008 9.8438234 20.481543
5.1579132 9.7706566 16.299562
0.43489927 0.64536351 13.297207
0.78357714 1.2644085 13.830535
1.8858869 3.4767833 15.265865
2.9100018 5.4252281 16.795826
4.362606 8.1879044 19.246935
5.3723993 10.121281 18.813189
5.7125802 10.793926 16.245888
9.3192987 17.645905 21.711588
9.3558054 17.858168 19.891451
7.5168943 14.384699 10.725676
8.8269835 16.906094 10.069748
9.486371 18.184448 8.3749485
9.9512215 19.091749 6.4182668
9.2461004 17.754061 3.8918991
10.73143 20.414511 20.622583
7.210484 13.734052 11.378347
8.1169682 15.473755 10.353644
8.4104958 16.053728 8.4654989
9.695159 18.521559 7.3651538
10.80381 20.65704 5.7131877
8.8420572 16.913322 2.7540789
0.099332623 0.075190619 12.863783
1.0728095 1.9211869 13.988402
1.5087906 2.7428529 15.073665
2.3725991 4.3829775 15.980205
3.557236 6.6262069 17.777168
5.2416596 9.8128872 20.455208
5.1985998 9.7650118 16.320227
7.5743842 14.263525 19.412268
0.43714938 0.64384151 13.297207
0.78770328 1.2612137 13.825563
1.8955989 3.4657683 15.246508
2.9272795 5.4120016 16.78644
4.3767352 8.1457796 19.183918
5.4076962 10.102466 18.813189
5.7502232 10.773919 16.245888
9.3808374 17.613266 21.711588
9.4180841 17.825401 19.891451
7.6598415 14.516013 13.316587
7.5592613 14.343575 10.714709
8.8425989 16.792864 10.021052
9.4634466 17.987114 8.3000269
10.064676 19.146065 6.4478774
10.066363 19.181747 2.0377226
10.842848 20.452801 20.699068
7.2583814 13.708799 11.378347
8.1084423 15.327204 10.275116
8.5025263 16.092491 8.5011663
9.6230707 18.228691 7.2632565
8.9356852 16.948063 2.7644391
0.099594481 0.074843429 12.863783
1.0787466 1.9160762 13.978524
1.5188498 2.7384601 15.07856
2.3871686 4.3733582 15.975431
3.5570915 6.5707984 17.662104
5.2724738 9.7882061 20.442041
5.2393103 9.759203 16.340891
7.6195869 14.22852 19.400753
0.43939412 0.64231163 13.297207
0.79210091 1.2584563 13.825563
1.9052565 3.4547276 15.22715
2.9445004 5.3987203 16.777054
4.3771415 8.0787735 19.062386
5.4429278 10.083528 18.813189
5.7877965 10.753782 16.245888
9.4406576 17.577427 21.707912
9.4802494 17.792418 19.891451
7.5349264 14.159323 13.015295
7.5386367 14.184176 10.616016
8.7598848 16.495855 9.8633738
9.5174856 17.937592 8.2925348
10.169645 19.182867 6.4718485
9.2686501 17.498081 3.8508639
10.091329 19.067266 2.0296752
10.926498 20.437876 20.722347
7.252882 13.583543 11.295938
8.1192837 15.218936 10.221919
8.6418819 16.218925 8.5829906
9.7687502 18.349216 7.3240662
10.749165 20.207767 5.611196
9.0366383 16.995472 2.7768714
0.099855132 0.074495323 12.863783
1.0846609 1.9109477 13.968646
1.5283996 2.7331414 15.07856
2.4017003 4.3636913 15.970661
3.5762615 6.5514822 17.643694
5.2803154 9.7213354 20.341091
5.282722 9.7581768 16.369822
7.6661615 14.196197 19.393078
0.44163352 0.64077395 13.297207
0.79620302 1.2552338 13.820592
1.9136388 3.4414651 15.198113
2.9616642 5.385385 16.767668
4.3823528 8.0214157 18.963358
5.4780927 10.064466 18.813189
5.8252988 10.733513 16.245888
9.5035715 17.547348 21.711588
9.5422983 17.759216 19.891451
7.5272508 14.026617 12.918004
7.5821776 14.146721 10.607792
8.7902269 16.414412 9.83323
9.5866022 17.916521 8.2981539
10.304396 19.274164 6.5141492
9.3296738 17.46562 3.8508639
10.127341 18.974812 2.0238631
11.004862 20.412758 20.735649
7.263844 13.490524 11.240019
8.1641874 15.175316 10.211786
8.7843704 16.348579 8.666913
9.8774147 18.398216 7.3569365
10.81734 20.16584 5.6100235
9.0397453 16.859081 2.7602949
8.616025 16.082306 0.8296563
0.10007809 0.074122369 12.858783
1.0905527 1.9058012 13.958767
1.5384308 2.7286766 15.083455
2.4169178 4.3552814 15.970661
3.5859199 6.514998 17.57926
5.2751007 9.6314259 20.191862
5.3181005 9.7421474 16.373955
7.7141361 14.166535 19.389242
0.44386753 0.63922846 13.297207
0.80029231 1.2519979 13.81562
1.9293284 3.4413424 15.22715
2.978771 5.3719954 16.758282
4.3819642 7.9545875 18.841825
5.5131907 10.045283 18.813189
5.86273 10.713114 16.245888
9.564765 17.514067 21.711588
9.6042318 17.7258 19.891451
7.9800053 14.746518 13.602188
7.6513944 14.156954 10.635207
8.7338066 16.173147 9.7080145
10.142196 18.796846 8.7177134
10.367059 19.229633 6.5113292
9.3509798 17.359428 3.8350096
11.076049 20.37422 20.735649
7.3861089 13.603621 11.354802
8.2171097 15.146726 10.211786
8.8738155 16.377672 8.6983833
9.9663048 18.409304 7.3750153
10.83679 20.033903 5.5842328
9.0985403 16.827423 2.7602949
8.743351 16.184 0.8357023
0.10033622 0.073772572 12.858783
1.0964218 1.9006369 13.948889
1.5479463 2.72329 15.083455
2.4313769 4.3455153 15.965888
3.5972631 6.4819427 17.524029
5.2924786 9.583602 20.130415
5.3710723 9.7580376 16.431816
7.7635393 14.139522 19.389242
0.44609618 0.63767517 13.297207
0.80436885 1.248749 13.810649
1.9413292 3.4345865 15.22715
2.99582 5.3585525 16.748898
4.3885636 7.9011822 18.751802
5.5482216 10.025978 18.813189
5.8986335 10.689944 16.241898
9.6242065 17.477602 21.707912
9.666048 17.692167 19.891451
8.1321096 14.903076 13.771664
7.7267771 14.177888 10.670846
8.7796164 16.123112 9.6964207
10.280864 18.895712 8.7795229
10.363094 19.062679 6.4676185
9.47717 17.447544 3.8611228
10.378336 19.122492 2.0462172
11.152484 20.345255 20.745626
7.4335489 13.577756 11.354802
8.2575188 15.095258 10.196587
8.9309311 16.346598 8.6983833
10.091596 18.486313 7.4193902
10.860105 19.91061 5.5607862
8.9770641 16.465128 2.7078035
8.7782803 16.113895 0.83388847
0.10059312 0.073421888 12.858783
1.1018775 1.8947834 13.934071
1.5579493 2.7187536 15.08835
2.4465306 4.3370018 15.965888
3.6122355 6.455708 17.487209
5.3363857 9.5839014 20.169918
5.4132948 9.753994 16.456614
7.8128486 14.112336 19.389242
0.44815257 0.63587856 13.292214
0.80843228 1.2454866 13.805677
1.9539289 3.4288814 15.231989
3.0128119 5.3450561 16.739511
4.3927159 7.8440289 18.652775
5.5831852 10.00655 18.813189
5.9359126 10.669289 16.241898
9.6851559 17.443901 21.707912
9.727746 17.658319 19.891451
8.1746998 14.857548 13.755971
7.7299032 14.066545 10.607792
8.8635588 16.142843 9.7265654
10.411425 18.977579 8.8338413
10.418042 19.005354 6.460568
9.4743023 17.298031 3.835942
10.447412 19.090515 2.0466642
11.176474 20.221239 20.659163
7.4711323 13.534032 11.340086
8.3434744 15.12674 10.237119
9.005456 16.347124 8.715168
10.586433 19.232843 7.7300134
10.962334 19.932207 5.577199
9.2539654 16.832926 2.7713459
0.1008488 0.073070303 12.858783
1.1076984 1.889585 13.924192
1.5674301 2.7132986 15.08835
2.4564888 4.3193526 15.932484
3.632828 6.4396558 17.478004
5.3463588 9.523448 20.082136
5.452806 9.7448606 16.473145
7.8605003 14.08218 19.385405
0.45036945 0.63431031 13.292214
0.81219071 1.2417654 13.795734
1.9652598 3.4209499 15.22715
3.0297463 5.3315067 16.730127
4.4050851 7.8021083 18.589758
5.61936 9.989274 18.817455
5.9731188 10.648503 16.241898
9.7426758 17.40407 21.700562
9.7875948 17.621138 19.887947
8.1793079 14.743833 13.67751
7.7809839 14.043135 10.610535
8.9219999 16.115681 9.7288837
10.39682 18.795082 8.7664118
10.410063 18.834524 6.4154468
9.54175 17.277754 3.8387399
10.562107 19.141134 2.0556056
11.219728 20.133179 20.60928
7.5655079 13.592634 11.410723
9.1131506 16.406845 8.763423
10.685586 19.253578 7.7530222
11.06013 19.94483 5.5912666
9.3126669 16.800522 2.7713459
8.6412439 15.602068 0.81313074
0.10110324 0.072717831 12.858783
1.1131015 1.8837003 13.909374
1.5768918 2.7078106 15.08835
2.4663537 4.3016872 15.89908
3.6562502 6.4286337 17.482607
5.3689523 9.4859705 20.042635
6.9911642 12.39234 20.969793
7.9080362 14.051863 19.381567
0.4524124 0.63249993 13.287224
0.8162266 1.2384777 13.790763
1.9752992 3.4108064 15.212632
3.0474801 5.3194003 16.725433
4.4226003 7.7696571 18.549248
5.6541944 9.9695978 18.817455
6.0117369 10.630213 16.245888
9.7983694 17.361099 21.689537
9.8490448 17.586866 19.887947
8.1680202 14.603089 13.573941
7.831995 14.019539 10.613276
9.9949284 17.92058 8.3786945
10.501431 18.844164 6.4309573
9.5876646 17.218592 3.8331442
10.604647 19.060633 2.0511351
11.235068 19.996239 20.509516
7.6485143 13.629591 11.463698
8.6048889 15.346366 10.424573
9.223588 16.469969 8.813776
10.782705 19.269733 7.7743878
11.089357 19.833977 5.5713372
9.364007 16.754944 2.769274
8.6591167 15.506381 0.81010783
0.10131957 0.072341159 12.853784
1.1184767 1.8778009 13.894556
1.5858186 2.701412 15.083455
2.4768722 4.2852974 15.870448
3.6738093 6.4073582 17.459595
5.3877878 9.4422092 19.989965
6.9675994 12.25045 20.771412
7.9538746 14.018597 19.373892
0.4546175 0.63091689 13.287224
0.81995428 1.2347333 13.78082
1.9859254 3.4017193 15.202953
3.0643034 5.3057418 16.716047
4.4399428 7.7371793 18.508736
5.6889606 9.9498005 18.817455
6.0488067 10.609163 16.245888
9.8555584 17.320898 21.682186
9.9103746 17.552378 19.887947
8.1940899 14.530414 13.533141
7.8336883 13.908319 10.550221
9.0299454 16.04528 9.724246
10.109684 17.978523 8.4217739
10.571844 18.815756 6.4337773
9.6260681 17.146469 3.8247507
10.668679 19.019156 2.0506878
11.291919 19.934158 20.486237
7.7159476 13.637989 11.493131
8.6562843 15.312482 10.422041
9.2832546 16.441624 8.8158741
11.156137 19.790915 5.5701647
9.35923 16.609983 2.7513161
8.7278957 15.502179 0.81131697
0.10157147 0.071987048 12.853784
1.1242247 1.8725533 13.884679
1.5952384 2.6958599 15.083455
2.4880579 4.2701769 15.846588
3.7039745 6.4080257 17.496414
5.408772 9.402585 19.946075
6.9837232 12.179671 20.692886
8.0059423 13.996311 19.381567
0.45681703 0.62932611 13.287224
0.82396257 1.2314209 13.775848
1.9958749 3.3915167 15.188435
3.0828052 5.295013 16.716047
4.4658332 7.719749 18.504234
5.7236571 9.9298811 18.817455
6.0858026 10.587984 16.245888
9.9041519 17.265806 21.65646
9.9698181 17.51458 19.884441
8.1793518 14.386677 13.426434
7.8698006 13.859073 10.533772
9.0968294 16.032927 9.7358398
10.179238 17.955221 8.427393
10.646918 18.795437 6.4394178
9.6471472 17.044363 3.8098288
10.774227 19.051155 2.0578411
11.498453 20.13455 20.732323
7.7655087 13.614484 11.496074
9.2305737 16.215851 8.713069
10.849264 19.074949 7.7267261
11.155506 19.629301 5.5361676
9.4098148 16.564295 2.7492442
8.7548275 15.423827 0.80910015
0.10178509 0.071609013 12.848784
1.129547 1.8666234 13.869861
1.6046392 2.690275 15.083455
2.4984124 4.2537436 15.817957
3.734189 6.4085612 17.533234
5.4319477 9.3670731 19.910961
7.0402789 12.179582 20.734217
8.0531502 13.965505 19.377729
0.45901099 0.62772769 13.287224
0.82765937 1.2276536 13.765905
2.0064187 3.3823671 15.178756
3.1003964 5.282732 16.711355
4.4916563 7.7022328 18.499733
5.7582841 9.9098415 18.817455
6.1227245 10.566677 16.245888
9.9439955 17.195911 21.612358
10.030895 17.479671 19.884441
10.083784 17.593145 16.433075
7.9679885 13.918611 10.599568
9.2803087 16.224096 9.8703308
10.152135 17.762609 8.3543444
10.679156 18.699837 6.4196773
9.7747517 17.130047 3.835942
10.84313 19.017757 2.0582883
11.620828 20.184893 20.825438
7.8835063 13.709934 11.599085
8.7629738 15.251678 10.422041
9.2871218 16.183531 8.713069
11.12972 19.42576 5.490447
9.4355841 16.475483 2.7402651
0.10203443 0.071253285 12.848784
1.1352464 1.8613425 13.859982
1.6134955 2.6837847 15.07856
2.5079217 4.2360058 15.784554
3.767421 6.4140182 17.583862
5.4658213 9.3501225 19.915352
7.128088 12.232736 20.86647
8.1050711 13.942851 19.385405
0.4611994 0.62612164 13.287224
0.83163989 1.2243165 13.760934
2.0169227 3.3731854 15.169077
3.1188176 5.2718773 16.711355
4.5306506 7.7071509 18.549248
5.792841 9.8896818 18.817455
6.1595721 10.545239 16.245888
9.9817638 17.12302 21.564581
10.090063 17.441462 19.880938
10.17824 17.615131 16.486429
8.0436964 13.937794 10.635207
10.165473 17.64271 8.315011
10.749152 18.670761 6.4224968
9.8320379 17.091564 3.8350096
11.708082 20.173269 20.855368
7.935369 13.689326 11.604971
8.8161592 15.220996 10.422041
10.738756 18.577652 7.557445
11.233927 19.449928 5.5080323
9.5227499 16.49391 2.7485535
9.0645056 15.712858 0.82542413
0.10228254 0.070896678 12.848784
1.1409228 1.8560448 13.850103
1.6223259 2.6772654 15.073665
2.5219276 4.2259436 15.77978
3.790782 6.4025087 17.588465
5.4935622 9.322732 19.897795
7.1835718 12.229617 20.903667
8.8926439 15.1755 21.135305
0.46338218 0.6245079 13.287224
0.83530563 1.2205267 13.750991
2.0273871 3.3639712 15.159398
3.1380844 5.2624402 16.716047
5.8273268 9.8694 18.817455
6.1948147 10.521076 16.241898
10.031166 17.070536 21.54253
10.147291 17.399975 19.873928
10.225952 17.555952 16.46446
8.1785107 14.057817 10.747607
10.07904 17.33847 10.58452
10.226996 17.607119 8.315011
10.855195 18.703657 6.4464679
10.958157 18.911434 2.0551589
11.789742 20.151613 20.87532
7.9769869 13.651073 11.596141
8.8540201 15.16407 10.404308
10.293855 17.651232 9.5334082
10.794028 18.523731 7.5508709
9.8468018 16.918524 2.8224564
9.1192989 15.681121 0.82542413
0.10252938 0.070539214 12.848784
1.1469854 1.8513906 13.845164
1.6311308 2.6707172 15.06877
2.5366638 4.2171149 15.77978
3.8141091 6.3909154 17.593067
5.5211787 9.2952633 19.880238
7.2319522 12.214153 20.920198
8.9683838 15.183002 21.18903
0.46555927 0.6228866 13.287224
0.8389551 1.2167262 13.741048
2.0384648 3.3557997 15.154558
3.1564348 5.2514544 16.716047
4.6859312 7.8454061 18.958858
5.8604074 9.8467569 18.813189
6.2315021 10.499389 16.241898
10.075144 17.009165 21.509455
10.20616 17.361374 19.870424
10.468486 17.828947 16.753197
8.3015671 14.155423 10.843558
10.141741 17.307005 10.58684
10.276682 17.55131 8.3056459
10.947063 18.711197 6.461978
12.455016 21.3057 4.7769556
11.860012 20.110336 20.87532
8.0020237 13.584835 11.563766
8.9550047 15.214803 10.460037
10.43131 17.744307 9.602644
10.858623 18.485941 7.5508709
11.627777 19.811178 5.6311255
9.915822 16.901134 2.8252192
9.0451231 15.429387 0.81514609
0.10277499 0.070180893 12.848784
1.1530293 1.8467166 13.840225
1.6399097 2.6641405 15.063875
2.5451775 4.1980233 15.741606
3.8303521 6.3675184 17.565453
5.5535913 9.2759333 19.880238
7.2788692 12.196083 20.932598
9.0278864 15.162621 21.20438
0.4675566 0.62102747 13.282232
0.84289265 1.2133527 13.736076
2.04951 3.3475916 15.149719
3.1756411 5.2418804 16.720741
4.7132883 7.8290014 18.958858
5.894743 9.8262405 18.813189
6.2665672 10.474988 16.237907
10.139669 16.982626 21.520479
10.2667 17.325642 19.870424
10.534621 17.798994 16.759474
8.3360338 14.101164 10.824368
10.269681 17.385921 10.656404
10.359092 17.551262 8.322504
11.092727 18.809225 6.5085092
12.544275 21.287487 4.7825518
11.943493 20.09128 20.898598
8.0906668 13.62633 11.622629
9.0146589 15.194574 10.467638
10.382127 17.52037 9.5019379
10.96639 18.521063 7.5804539
11.699334 19.774651 5.6322975
0.10301934 0.069821715 12.848784
1.1586407 1.8413653 13.830346
1.6481254 2.6566691 15.054084
2.5660427 4.1993027 15.77978
3.8505297 6.3507676 17.556246
5.5908866 9.2646933 19.897795
7.3184967 12.165778 20.924332
9.0956039 15.155751 21.238918
0.46972156 0.61939162 13.282232
0.84651113 1.2095301 13.726133
2.0605226 3.3393471 15.144879
3.1957181 5.2337089 16.730127
4.798183 7.9074163 19.188419
5.9290075 9.805604 18.813189
6.2984262 10.445309 16.225939
10.197139 16.944221 21.516804
10.325286 17.286636 19.866919
10.534866 17.658491 16.662182
8.357379 14.025283 10.788729
10.332572 17.353773 10.658722
10.434516 17.538898 8.3337412
11.153413 18.762142 6.5056887
12.623523 21.252016 4.7844167
12.025067 20.068686 20.918552
8.1568642 13.62922 11.649117
9.0764923 15.177814 10.47777
10.471149 17.530779 9.5271139
11.050334 18.51511 7.5936017
12.181559 20.426683 5.8269024
0.10322491 0.069439411 12.843784
1.164645 1.8366536 13.825407
1.6568489 2.6500368 15.049189
2.5845995 4.1966748 15.80364
3.8696182 6.3322873 17.54244
5.58461 9.1816893 19.761732
7.3609185 12.140158 20.924332
9.1567469 15.137622 21.258106
0.47170496 0.6175192 13.277241
0.85042048 1.2061325 13.721162
2.0715027 3.3310671 15.14004
3.216681 5.2269311 16.744205
4.809855 7.8646202 19.125402
5.9631991 9.7848482 18.813189
6.3348489 10.423259 16.225939
10.236883 16.87664 21.476377
10.385565 17.25049 19.866919
10.528244 17.508198 16.555473
8.3696842 13.935086 10.742125
10.536695 17.55689 10.804807
10.440837 17.410923 8.2906618
11.990584 20.011061 6.9470291
12.760714 21.313187 4.8077321
12.096976 20.029783 20.921877
8.2294436 13.642197 11.684436
9.1271915 15.142346 10.475237
11.090555 18.435961 7.577167
12.275324 20.421532 5.8374534
0.10346667 0.069078662 12.843784
