# .PCD v0.7 - Point Cloud Data file format
VERSION 0.7
FIELDS x y z
SIZE 4 4 4
TYPE F F F
COUNT 1 1 1
WIDTH 1547
HEIGHT 1
VIEWPOINT 0 0 0 1 0 0 0
POINTS 1547
DATA ascii
0.23829214 -0.40934804 8.0310068
0.46699238 -0.73748767 8.0983915
1.2225454 -1.7059509 8.1180353
8.5672712 -11.839272 39.795074
10.308902 -14.162755 36.284031
13.202687 -18.078697 36.687454
6.988554 -9.5275793 12.887517
7.4605703 -10.1007 12.419759
7.3145485 -9.8921785 10.002378
11.385492 -15.380925 12.630995
8.0786152 -10.897676 5.5691452
7.9657717 -10.737632 4.0198011
12.336169 -16.616703 4.0206008
21.103853 -28.405994 3.2698724
7.160377 -9.7226572 10.835635
5.7102556 -7.7451243 7.0901623
7.6558547 -10.365147 6.0443468
8.1150026 -10.978774 4.840724
13.917995 -18.815931 5.7354617
15.258151 -20.62019 3.6699207
21.198044 -28.626602 1.5305808
0.75358009 -1.0791202 8.367527
0.97557706 -1.3783431 8.142024
1.4806365 -2.0624492 8.1636944
8.9777994 -12.415766 36.155048
11.676119 -16.076498 36.479736
14.327008 -19.668694 35.811214
0.23686182 -0.41017735 8.0310068
0.46441516 -0.73911327 8.0983915
1.2165831 -1.7102079 8.1180353
8.5188446 -11.859294 39.762222
10.259402 -14.198653 36.284031
13.137968 -18.122562 36.683186
6.8734365 -9.4395514 12.736835
7.4653335 -10.181325 12.486346
7.3997416 -10.080813 10.165578
11.460489 -15.59579 12.773551
10.54823 -14.34387 9.4065704
8.106473 -11.015422 5.6140976
7.885572 -10.707432 3.9986506
12.275177 -16.655708 4.0196681
21.155321 -28.683887 3.2926736
7.1440244 -9.7717066 10.86224
5.6736369 -7.7519627 7.0783896
6.9549427 -9.4957027 7.0022488
7.600841 -10.366186 6.0296602
15.22126 -20.721218 3.6782088
0.74980861 -1.0817442 8.367527
0.97075987 -1.3817401 8.142024
1.4734281 -2.067605 8.1636944
8.9378223 -12.45179 36.168854
11.618529 -16.115213 36.475346
14.26651 -19.729988 35.831879
0.23542859 -0.41100165 8.0310068
0.46183234 -0.74072987 8.0983915
1.2113309 -1.715471 8.1228752
8.4763937 -11.887553 39.75753
10.208508 -14.232609 36.27953
13.07463 -18.16831 36.683186
6.5862398 -9.1118002 12.266415
7.4276485 -10.204438 12.482841
7.9719496 -10.940204 10.997268
11.391194 -15.61543 12.757102
10.597348 -14.516562 9.4946852
7.2065315 -9.8644829 5.0240927
7.7094221 -10.545139 3.929559
12.231465 -16.718277 4.0243311
21.608143 -29.512966 3.3767242
7.1625042 -9.8691072 10.942051
5.6489182 -7.7749906 7.0813332
9.5151033 -13.086741 9.5936909
7.5779643 -10.411003 6.0401506
9.9231939 -13.623034 5.9550233
15.166343 -20.798229 3.6823528
19.554628 -26.796429 1.4318306
0.74602807 -1.0843549 8.367527
0.96593082 -1.3851203 8.142024
1.4662019 -2.0727358 8.1636944
8.8875017 -12.473366 36.141239
11.560812 -16.153723 36.470959
14.199191 -19.781952 35.83601
0.23399249 -0.41182095 8.0310068
0.45924395 -0.74233752 8.0983915
1.2053354 -1.719689 8.1228752
8.4308596 -11.911434 39.738758
10.158764 -14.268156 36.27953
13.009614 -18.211718 36.678921
6.5287004 -9.0989265 12.218637
7.3982506 -10.238976 12.493355
8.0865564 -11.179266 11.207545
7.1725984 -9.897584 6.4848824
8.5029411 -11.724753 5.9400053
7.1992068 -9.9197454 3.6926734
21.499136 -29.580154 3.3758304
7.1301937 -9.8970785 10.945377
5.6217446 -7.7946615 7.0813332
9.4138603 -13.042974 9.537961
7.5415778 -10.437391 6.0401506
9.9309187 -13.734119 5.9878936
6.9840984 -9.6516724 2.9641032
0.7422384 -1.0869524 8.367527
0.96108985 -1.3884835 8.142024
1.4598154 -2.0790629 8.1684666
8.8461628 -12.507503 36.150444
11.502968 -16.192026 36.466568
14.125154 -19.82452 35.823612
0.23269437 -0.41288725 8.0359983
0.45664987 -0.74393606 8.0983915
1.200043 -1.7249179 8.1277151
8.3822851 -11.930906 39.70591
10.107641 -14.301754 36.275028
12.945965 -18.257019 36.678921
6.5087004 -9.1382294 12.240688
7.3499928 -10.24735 12.472327
8.1541853 -11.356024 11.355053
10.681505 -14.859344 12.082702
7.4303207 -10.328911 6.7469068
8.4375849 -11.720501 5.9231482
7.1336923 -9.9020014 3.6771634
12.008161 -16.655828 3.9898245
21.614286 -29.957916 3.4093614
7.11515 -9.9492407 10.975306
5.5945015 -7.8142376 7.0813332
9.3783178 -13.089773 9.5480938
8.0683126 -11.24062 4.9048209
21.540058 -29.954086 1.5819713
0.73843968 -1.0895367 8.367527
0.95623732 -1.39183 8.142024
1.4525492 -2.0841458 8.1684666
3.9632437 -5.6451426 16.308964
11.444998 -16.230125 36.462181
14.065618 -19.887489 35.848408
0.23125172 -0.413697 8.0359983
0.45405027 -0.74552548 8.0983915
1.1947286 -1.7301306 8.1325531
8.3277559 -11.941692 39.644905
10.057657 -14.336948 36.275028
12.880656 -18.299965 36.674656
6.5315609 -9.2384024 12.343593
7.3079729 -10.264228 12.461814
8.1077175 -11.374908 11.345636
10.653859 -14.930575 12.110116
7.1625342 -10.030333 6.5382147
7.2807331 -10.188348 5.1477127
7.0990844 -9.9268427 3.6771634
11.94423 -16.689653 3.9879591
21.596571 -30.154638 3.4227734
7.0328293 -9.9070358 10.902145
5.5695329 -7.8370137 7.0842762
7.6486526 -10.75468 7.8407311
10.075929 -14.141547 6.1325221
6.8657527 -9.6289577 2.9430015
12.385488 -17.363794 3.066957
21.179939 -29.671263 1.5642364
0.73506558 -1.0927526 8.372467
0.95079964 -1.3943181 8.1371288
1.4452654 -2.0892036 8.1684666
3.9602687 -5.6829858 16.378002
11.388274 -16.269978 36.462181
14.034918 -19.991745 35.947601
7.3806148 -10.489738 15.432774
0.22994532 -0.41475466 8.0409908
0.45117003 -0.74664932 8.09342
1.188682 -1.7342904 8.1325531
8.2840557 -11.967852 39.635517
10.006306 -14.370181 36.270523
12.815206 -18.342678 36.670387
6.5090108 -9.2750216 12.36197
7.2679834 -10.283852 12.454805
10.463915 -14.773177 11.953852
7.1300406 -10.058887 6.5405335
7.2209849 -10.17967 5.1308556
7.0033007 -9.8655052 3.6461425
11.803399 -16.615114 3.9609132
21.595057 -30.375957 3.4388683
6.9680948 -9.8887939 10.855589
5.5398121 -7.8531036 7.0813332
7.4121752 -10.499578 7.6380763
7.9164519 -11.201467 6.4282904
6.8545647 -9.6846046 2.9523799
12.256122 -17.309923 3.0503807
20.946262 -29.561577 1.5551676
0.73124665 -1.0953118 8.372467
0.94592679 -1.3976284 8.1371288
1.4379638 -2.0942357 8.1684666
3.940407 -5.696775 16.378002
11.331411 -16.309631 36.462181
14.0294 -20.132963 36.112919
7.3274374 -10.491788 15.398236
0.22849615 -0.41555479 8.0409908
0.44856101 -0.74821961 8.09342
1.182621 -1.7384292 8.1325531
8.2119379 -11.952602 39.490044
9.9548464 -14.403233 36.266026
12.749613 -18.385157 36.666122
6.4320269 -9.2337027 12.27744
7.2668591 -10.35879 12.514381
7.8894162 -11.233747 11.151052
10.390639 -14.778829 11.929179
7.0897865 -10.076468 6.5358958
7.2094278 -10.238929 5.1477127
6.9246106 -9.8271503 3.6235819
11.784962 -16.712418 3.9739697
21.586519 -30.589495 3.4540691
6.9399538 -9.9222355 10.865565
5.5239573 -7.888948 7.0960488
9.097249 -12.982503 9.4011688
7.8720908 -11.221601 6.4240942
6.8207173 -9.7084732 2.9523799
12.17854 -17.328291 3.0462365
20.779715 -29.544611 1.5507339
0.7274189 -1.0978577 8.372467
0.94104236 -1.4009219 8.1371288
1.4306449 -2.0992424 8.1684666
3.9492462 -5.7523713 16.497667
11.274412 -16.349085 36.462181
13.995854 -20.235043 36.207977
7.2432923 -10.448812 15.298462
0.22704421 -0.41634986 8.0409908
0.44594654 -0.74978083 8.09342
1.1765455 -1.7425467 8.1325531
8.1672478 -11.976917 39.475964
9.9045105 -14.437894 36.266026
12.683882 -18.427401 36.661858
6.4055405 -9.2644653 12.288466
7.2286181 -10.381166 12.510878
7.8323479 -11.235672 11.125944
10.226519 -14.653846 11.800331
7.0368156 -10.075732 6.5196643
8.4059057 -12.027158 6.0167999
6.8050332 -9.7294016 3.5798709
11.768805 -16.813816 3.9879591
21.585323 -30.815577 3.4706109
6.9776726 -10.050681 10.978632
5.5033073 -7.9181395 7.1048784
9.0592604 -13.024796 9.4087687
9.870595 -14.164925 6.0980086
6.7061586 -9.616601 2.9183829
12.146312 -17.41131 3.0531435
20.524889 -29.399857 1.5400528
0.72358221 -1.1003902 8.372467
0.9361465 -1.4041982 8.1371288
1.4233084 -2.1042235 8.1684666
3.9203415 -5.7532053 16.460846
11.217275 -16.38834 36.462181
13.996807 -20.388174 36.393959
7.1577191 -10.402737 15.194849
0.22572589 -0.41739425 8.0459814
0.44359687 -0.75179237 8.0983915
1.1704558 -1.7466429 8.1325531
8.1118498 -11.985345 39.410267
9.8540516 -14.472381 36.266026
12.61948 -18.471563 36.661858
5.9319634 -8.6438589 11.443178
7.184226 -10.394601 12.49686
7.7997241 -11.272547 11.135361
9.9633942 -14.383532 11.556339
7.0369339 -10.151202 6.5521274
9.3415823 -13.465791 6.7098222
6.6533947 -9.5836525 3.5192397
11.760491 -16.92741 4.0047464
18.512529 -26.626114 3.0043075
6.9997487 -10.157989 11.06842
5.4802246 -7.9439559 7.110765
9.0333328 -13.08472 9.4290342
7.6490531 -11.067204 6.306603
9.686779 -14.005108 6.0158334
6.6172218 -9.5600195 2.8949363
12.043174 -17.392532 3.042783
18.538404 -26.752893 1.4066392
0.71973675 -1.1029092 8.372467
0.93123925 -1.4074574 8.1371288
1.4159547 -2.109179 8.1684666
8.5910416 -12.702967 36.187263
11.160001 -16.427397 36.462181
13.974673 -20.508995 36.522079
7.087019 -10.377368 15.121937
0.22426754 -0.41817963 8.0459814
0.44096994 -0.75333625 8.0983915
1.1636559 -1.7496715 8.1277151
8.0324373 -11.957721 39.227249
9.8034744 -14.506689 36.266026
12.553461 -18.513344 36.657593
5.8635845 -8.6084738 11.369675
7.2306113 -10.540188 12.640546
7.777956 -11.325373 11.160467
9.8325806 -14.301072 11.463129
7.0692525 -10.274239 6.6147351
7.3305478 -10.646053 5.3106666
6.8730392 -9.9741755 3.6503727
11.681812 -16.940052 3.9982181
18.379877 -26.63319 2.9980483
6.9558167 -10.170033 11.055119
7.3720708 -10.758512 7.7495365
7.584702 -11.056412 6.2856231
6.6444907 -9.678606 4.1751032
6.5838113 -9.5830593 2.8949363
11.954341 -17.393656 3.0358765
18.410933 -26.768045 1.4042209
0.71546024 -1.1047624 8.367527
0.92632061 -1.4106995 8.1371288
1.4069285 -2.111624 8.1589222
8.5390263 -12.721522 36.155048
11.10259 -16.466251 36.462181
13.950292 -20.627583 36.646069
7.111897 -10.492251 15.252413
0.22280647 -0.41895995 8.0459814
0.43860465 -0.75533217 8.1033621
1.1568489 -1.7526734 8.1228752
7.9542727 -11.931124 39.04892
9.7527761 -14.540821 36.266026
12.490217 -18.559214 36.661858
5.8107157 -8.5951862 11.325573
7.2278948 -10.615476 12.700122
9.8815928 -14.48037 11.578272
7.0358443 -10.30251 6.617054
7.6203175 -11.150007 5.5447955
6.8706789 -10.045621 3.6672931
11.09267 -16.206478 3.8200877
18.258656 -26.656101 2.9935777
6.8825274 -10.138645 10.995259
7.8056297 -11.485552 10.195197
7.3053808 -10.741405 7.7191381
10.695516 -15.708413 8.8725214
6.6399145 -9.7446661 4.1931815
6.7118845 -9.8429174 2.9641032
11.946575 -17.513004 3.0489993
18.258232 -26.745502 1.3999889
0.71117967 -1.1065993 8.3625879
0.92139071 -1.4139243 8.1371288
1.4011955 -2.1190126 8.1684666
8.497817 -12.756129 36.168854
11.043713 -16.502916 36.45779
13.925253 -20.746246 36.770058
7.0913301 -10.540948 15.28695
0.22120892 -0.41947931 8.0409908
0.43596539 -0.75685859 8.1033621
1.1507239 -1.7567009 8.1228752
7.896389 -11.93435 38.969147
9.7019596 -14.574776 36.266026
12.419563 -18.594025 36.644794
5.7523446 -8.5731897 11.270446
7.2187524 -10.68201 12.749187
6.3486276 -9.3838453 9.2177629
9.9083672 -14.629023 11.668739
9.218277 -13.58973 6.7229333
6.8140173 -10.03779 3.656013
11.085717 -16.318239 3.8368745
18.101099 -26.62495 2.9832947
7.3450198 -10.881175 7.8002005
10.62283 -15.71933 8.8578358
6.6774859 -9.8662863 2.9641032
11.735448 -17.333166 3.0117025
18.136738 -26.767712 1.3979734
0.70689493 -1.1084199 8.3576488
0.91644961 -1.417132 8.1371288
1.3913335 -2.1201465 8.154151
8.4564705 -12.790604 36.182663
10.986039 -16.541367 36.45779
13.873032 -20.825172 36.823784
7.0740705 -10.59496 15.329163
0.21974331 -0.4202489 8.0409908
0.43358466 -0.75883895 8.1083336
1.1438999 -1.7596531 8.1180353
7.8480525 -11.951745 38.936295
9.6510248 -14.608553 36.266026
12.358906 -18.643785 36.657593
5.74681 -8.629899 11.318222
7.1178541 -10.612367 12.637041
6.2876258 -9.3639412 9.1769629
10.235153 -15.225699 12.112858
6.8895693 -10.241114 6.5474901
9.1604271 -13.606442 6.7154412
6.7762566 -10.057537 3.6546028
11.097343 -16.458658 3.8601899
17.991337 -26.663204 2.9806123
7.1374254 -10.673742 11.517363
7.8039546 -11.657325 10.298207
7.2734017 -10.856608 7.7647357
6.6085668 -9.8456755 4.2161908
6.640295 -9.8855 2.9629309
11.619634 -17.291821 2.997889
17.981857 -26.739653 1.3935399
0.70219094 -1.1095672 8.3477697
0.91149729 -1.4203223 8.1371288
1.386368 -2.1287432 8.1684666
8.4021254 -12.805344 36.141239
10.926913 -16.577612 36.4534
13.811117 -20.889904 36.852715
7.0069451 -10.574165 15.263925
0.21827504 -0.42101339 8.0409908
0.4314577 -0.76127601 8.1182766
1.1377506 -1.7636353 8.1180353
7.7846165 -11.945814 38.828365
9.6011648 -14.64397 36.270523
12.265083 -18.643234 36.572269
6.9641747 -10.461995 12.430273
6.220365 -9.3340073 9.1267481
10.219073 -15.316987 12.156721
9.1103001 -13.634481 6.7135682
6.7464409 -10.089104 3.6574228
11.045288 -16.505461 3.8620553
17.853819 -26.659641 2.9734592
7.5027227 -11.305241 12.165835
7.7699265 -11.694595 10.307037
7.2378473 -10.885521 7.7672687
7.6609592 -11.508812 6.4786434
6.5741591 -9.8686838 4.2161908
6.6731524 -10.009726 2.9922388
11.559203 -17.332275 2.997889
17.902275 -26.823036 1.3945475
0.69748753 -1.1106954 8.3378916
0.9065339 -1.4234954 8.1371288
3.880651 -6.0050864 22.904352
8.3488474 -12.821497 36.10442
10.867669 -16.613651 36.449013
13.72885 -20.92387 36.827919
6.9946485 -10.636053 15.317649
0.21680409 -0.42177278 8.0409908
0.42931896 -0.76370746 8.1282206
1.1309098 -1.7665373 8.1131964
7.7297511 -11.952627 38.762665
9.5499897 -14.677397 36.270523
12.174268 -18.646627 36.495487
5.8872271 -8.9759693 11.71514
6.8824005 -10.417802 12.349668
6.1662741 -9.3232002 9.0953636
8.0070639 -12.074399 5.9418788
6.6369109 -10.000678 3.6179419
10.914228 -16.433432 3.8368745
17.810272 -26.796455 2.9815066
7.4837518 -11.362543 12.19909
5.853343 -8.876976 7.8259525
7.1855602 -10.889132 7.75207
7.675776 -11.618793 6.5248008
6.6757193 -10.089709 3.008651
11.566962 -17.475756 3.015156
17.89682 -27.018644 1.4009964
0.69237411 -1.1111445 8.3230743
0.90155941 -1.4266511 8.1371288
3.8491907 -6.0022607 22.842316
8.3061609 -12.853843 36.113625
10.80961 -16.651485 36.449013
13.65573 -20.971666 36.827919
7.0678425 -10.829507 15.559412
0.21533053 -0.42252699 8.0409908
0.42716855 -0.76613325 8.1381636
1.1247365 -1.7704742 8.1131964
7.6721373 -11.954846 38.682884
9.4986982 -14.710643 36.270523
12.097759 -18.671499 36.461361
5.8595581 -9.0021477 11.72249
6.7658243 -10.319484 12.205981
6.1657295 -9.3934765 9.1424408
7.4780736 -11.371238 7.2106667
8.0617142 -12.249431 6.0130539
10.317101 -15.664513 5.6032681
10.824358 -16.422211 3.8256831
18.073097 -27.398872 3.0396266
5.0457497 -7.7194285 8.2949533
5.8223209 -8.8973541 7.8259525
7.154592 -10.924967 7.7596693
7.647614 -11.664493 6.5352907
6.6605339 -10.15123 4.3148017
11.837499 -18.027697 5.292326
11.497734 -17.503607 3.0130839
18.208561 -27.698805 1.4308231
0.68685758 -1.1109104 8.3033161
0.89657396 -1.4297894 8.1371288
8.2633514 -12.886049 36.122829
10.750124 -16.687101 36.444622
13.583967 -21.021568 36.83205
7.0282545 -10.851422 15.555575
0.21385431 -0.42327607 8.0409908
0.42500633 -0.76855326 8.1481056
1.1185497 -1.7743895 8.1131964
7.6173825 -11.961176 38.617188
9.4472904 -14.74371 36.270523
12.073415 -18.777233 36.585072
5.8262596 -9.0196991 11.718815
6.7492104 -10.372931 12.241028
5.0876679 -7.8103309 7.59832
9.4162855 -14.438966 11.386369
7.54002 -11.553078 7.3080564
8.0239763 -12.285259 6.0167999
10.409334 -15.92529 5.6822295
10.737387 -16.414677 3.8154242
18.19828 -27.799286 3.07584
5.0086131 -7.7213321 8.2783251
5.7604079 -8.8701649 7.7847481
7.1234598 -10.960717 7.7672687
7.4954681 -11.519931 6.4408789
6.6302118 -10.182331 4.3180881
11.742654 -18.020041 5.2782578
11.436564 -17.543634 3.0130839
18.281006 -28.021618 1.4433179
0.68053907 -1.1093267 8.2736807
0.89157766 -1.4329103 8.1371288
2.9273391 -4.6355796 17.574047
8.2183208 -12.914814 36.122829
10.691809 -16.724525 36.444622
13.508987 -21.06649 36.827919
7.0059295 -10.900155 15.590112
0.21237549 -0.42401996 8.0409908
0.42334399 -0.77190292 8.1679926
1.112349 -1.7782831 8.1131964
7.5617557 -11.965811 38.546795
9.3946009 -14.774761 36.266026
12.002185 -18.810467 36.568008
5.7325358 -8.9429407 11.59386
6.7767992 -10.495294 12.356677
5.0603743 -7.8280425 7.59832
9.3840008 -14.49983 11.408301
7.4707489 -11.53471 7.280231
8.0037374 -12.348206 6.0336571
10.695665 -16.488741 5.8669443
10.701422 -16.48502 3.8228853
18.215082 -28.03804 3.0946176
4.9715252 -7.7230701 8.2616987
5.7775812 -8.9649649 7.8494973
6.9800158 -10.822495 7.653276
6.598475 -10.219175 5.7107563
6.6458864 -10.284738 4.3509583
11.361807 -17.56266 3.0096304
18.256392 -28.19849 1.4487593
0.67424005 -1.1077125 8.2440462
0.88657045 -1.4360138 8.1371288
2.9214427 -4.6622128 17.636082
8.1752758 -12.946726 36.132034
10.633365 -16.761745 36.444622
13.433859 -21.111139 36.823784
6.9712849 -10.929949 15.597787
0.21089409 -0.4247587 8.0409908
0.42140931 -0.77478182 8.1829071
1.1067976 -1.783223 8.1180353
7.5061898 -11.970203 38.476406
9.3429699 -14.807465 36.266026
11.935056 -18.850044 36.56374
5.7249379 -9.000083 11.641637
6.7343507 -10.509877 12.346164
5.0141034 -7.8161731 7.5700736
6.7573953 -10.521608 8.2830296
7.1909289 -11.18807 7.0483508
10.127423 -15.744795 7.6519575
10.80422 -16.784126 5.9571862
10.651794 -16.534662 3.8256831
18.192654 -28.218645 3.1071358
4.9465466 -7.7435246 8.2650242
8.6839895 -13.57869 11.819821
7.0374718 -10.995658 7.7571363
6.5652122 -10.245968 5.7128544
6.6099453 -10.307874 4.3509583
11.965716 -18.645647 5.434176
11.35929 -17.693893 3.0248256
18.241562 -28.392344 1.4550067
0.6683619 -1.106733 8.2193489
0.88155246 -1.4390998 8.1371288
3.0115499 -4.8435192 18.2803
8.1279593 -12.971874 36.122829
10.57479 -16.798759 36.444622
13.357081 -21.153147 36.815521
6.92452 -10.940675 15.5786
0.20941013 -0.42549229 8.0409908
0.41945961 -0.77765644 8.1978207
1.1005663 -1.7870756 8.1180353
7.4506855 -11.974354 38.406013
9.2900696 -14.838141 36.261524
11.885834 -18.918091 36.614933
5.7097735 -9.0458136 11.674714
5.9283876 -9.323534 10.937336
4.972158 -7.8106441 7.5481043
6.7700667 -10.622708 8.3433418
7.142302 -11.198163 7.0390754
10.14723 -15.897281 7.7081485
6.5130115 -10.195837 3.6461425
10.601951 -16.58416 3.8284812
18.177238 -28.41202 3.120995
4.8875022 -7.7102861 8.2118158
8.6452007 -13.62257 11.831594
7.0914907 -11.165712 7.8584633
6.5001841 -10.222863 5.6876779
6.7894106 -10.66952 4.4906569
11.892726 -18.675001 5.4306593
11.425173 -17.933908 3.0579782
18.142345 -28.455845 1.4550067
0.66090226 -1.1030593 8.1748953
0.87652361 -1.4421682 8.1371288
3.0298915 -4.911171 18.495039
8.0815973 -12.998507 36.118225
10.514818 -16.833538 36.440235
13.280171 -21.194872 36.807251
6.8914008 -10.972922 15.590112
0.20804924 -0.42648053 8.0459814
0.41774589 -0.78099734 8.2177076
1.0943215 -1.7909065 8.1180353
7.3943367 -11.976793 38.330929
9.2370682 -14.86863 36.257023
11.816965 -18.955038 36.6064
17.457596 -27.926987 43.685287
5.6781631 -9.0656891 11.674714
5.9224486 -9.3863974 10.9864
4.9490204 -7.8345337 7.5543809
6.7061257 -10.603867 8.3104439
7.3211217 -11.567392 7.2524052
7.7474785 -12.231605 5.9381323
6.4850869 -10.230664 3.6503727
10.612413 -16.728916 3.8527293
18.056597 -28.441662 3.1174183
4.8406792 -7.6956944 8.1785612
8.5631342 -13.597939 11.784503
7.0984402 -11.263338 7.9091268
6.4838347 -10.276198 5.7044625
9.2077856 -14.582131 6.0914345
11.246071 -17.789505 3.0275881
18.032219 -28.502111 1.4542006
0.6566512 -1.1046917 8.1699572
0.87148416 -1.445219 8.1371288
8.0351496 -13.024976 36.113625
10.455994 -16.87014 36.440235
13.204622 -21.23871 36.80312
0.20655929 -0.42720419 8.0459814
0.41601387 -0.78433567 8.2375927
1.0887148 -1.7957904 8.1228752
7.3380632 -11.978989 38.255844
9.185112 -14.900782 36.257023
11.749356 -18.993954 36.602135
17.380653 -28.02104 43.737156
5.8858628 -9.4009676 10.97939
4.9195757 -7.8484631 7.5512428
6.6712928 -10.630753 8.3131857
7.268919 -11.574121 7.2408113
7.5493178 -12.011298 5.8201313
6.4723229 -10.289784 3.663063
10.705733 -17.006971 3.906821
17.930662 -28.462381 3.1129477
4.7900629 -7.6745353 8.1386547
8.4941978 -13.59347 11.755072
7.0819368 -11.324597 7.9344583
6.435883 -10.279534 5.6939716
9.1668568 -14.63019 6.0980086
11.756896 -18.749336 5.4283147
12.360196 -19.703819 3.3363221
17.908714 -28.526804 1.4523869
0.6520021 -1.1056381 8.160078
0.86591148 -1.4473784 8.1322336
7.9886146 -13.051278 36.109024
10.395787 -16.904495 36.435844
13.130405 -21.284676 36.80312
5.8285003 -9.4259567 13.345172
0.2050668 -0.42792261 8.0459814
0.41401613 -0.78719932 8.2525082
1.0824398 -1.7995799 8.1228752
7.2818637 -11.980934 38.180759
9.1319075 -14.930898 36.252522
11.681619 -19.032629 36.59787
17.270102 -28.06101 43.705235
6.1414413 -9.9592543 12.762562
5.7909088 -9.3214893 10.863741
4.8921499 -7.8655882 7.5512428
6.6739287 -10.717867 8.3625317
7.2214456 -11.588144 7.2338548
7.2129569 -11.565541 5.5953674
10.269113 -16.453144 5.790802
10.557823 -16.902586 3.8751123
17.781048 -28.444567 3.1044533
4.7553811 -7.6785111 8.1253529
5.6479311 -9.1090908 7.8877587
6.8559875 -11.048889 7.726738
6.3568521 -10.232545 5.6562071
11.665697 -18.748989 5.4165912
12.265173 -19.704803 3.3294156
17.764122 -28.517056 1.4489609
0.64735442 -1.1065658 8.1501999
0.86085391 -1.4503921 8.1322336
7.9430084 -13.079084 36.109024
10.335469 -16.938637 36.431458
13.056027 -21.330379 36.80312
5.7972379 -9.4489765 13.34901
0.20369475 -0.42889705 8.0509739
0.41200343 -0.79005861 8.2674227
1.0761515 -1.8033472 8.1228752
7.2266312 -11.984113 38.110367
9.0786028 -14.960822 36.24802
11.60426 -19.05547 36.56374
17.179899 -28.133984 43.725185
6.1880298 -10.113654 12.93162
5.8144751 -9.4327211 10.968877
4.8646641 -7.882617 7.5512428
6.6232886 -10.719754 8.3460827
7.1646428 -11.586907 7.2176232
7.1652231 -11.578822 5.5897484
10.259606 -16.566378 5.8175931
10.490993 -16.926811 3.8723142
17.655399 -28.46414 3.0999823
4.728549 -7.6950641 8.1253529
5.6859918 -9.2423592 7.9848833
6.8625803 -11.146171 7.7774014
7.1951032 -11.672577 6.4261923
6.5852351 -10.674857 4.4544997
11.566987 -18.73583 5.4013515
12.310811 -19.93288 3.3598053
17.761658 -28.736126 1.4564174
0.64270824 -1.1074743 8.1403208
0.85578591 -1.4533882 8.1322336
7.8973055 -13.10673 36.109024
10.27628 -16.974609 36.431458
12.98149 -21.375824 36.80312
5.7642202 -9.4691544 13.34901
0.20219636 -0.42960545 8.0509739
0.40997583 -0.79291338 8.2823362
1.0698501 -1.8070928 8.1228752
7.1723514 -11.988533 38.04467
9.0252028 -14.990557 36.243519
11.539021 -19.098091 36.568008
17.076902 -28.18605 43.713215
6.2212987 -10.248216 13.074951
5.8708277 -9.5989933 11.137095
4.8432164 -7.9095082 7.560658
6.4787436 -10.56813 8.211751
11.819788 -19.265427 11.91783
10.194181 -16.589828 5.8133626
10.398392 -16.908932 3.8601899
17.537661 -28.495905 3.0968528
4.6997156 -7.7083349 8.1220274
5.6979194 -9.3346014 8.046689
14.293501 -23.398067 16.197689
6.1952777 -10.129545 5.5764809
6.5479321 -10.697779 4.4544997
11.491362 -18.759516 5.3966618
12.326544 -20.11507 3.3825979
17.661242 -28.797951 1.4564174
0.6384511 -1.1090376 8.1353817
0.85019392 -1.4554873 8.1273375
7.8515067 -13.134217 36.109024
10.215731 -17.008326 36.427067
12.906796 -21.421007 36.80312
5.7195315 -9.4700117 13.322146
0.20069553 -0.43030864 8.0509739
0.40769067 -0.79528892 8.2922802
1.0635357 -1.8108163 8.1228752
7.1163673 -11.989753 37.969585
8.9717045 -15.020099 36.239017
11.433401 -19.073383 36.444294
16.973753 -28.237738 43.701244
6.0543046 -10.052061 12.799314
5.8742862 -9.6804056 11.207186
4.8216405 -7.9363456 7.5700736
6.0289536 -9.9119091 7.6908727
11.763985 -19.325485 11.929424
10.11873 -16.59664 5.8034925
10.252314 -16.802553 3.8284812
17.383585 -28.467697 3.0874641
4.6708474 -7.721498 8.1187019
5.6255174 -9.288744 7.9907699
14.129065 -23.311415 16.10396
7.0380955 -11.598363 6.3590546
6.4884896 -10.684245 4.4397078
12.323143 -20.267988 3.4005554
17.223003 -28.304598 1.4302185
0.63380581 -1.1099098 8.1255035
0.84510815 -1.4584461 8.1273375
7.8056121 -13.161544 36.109024
10.156299 -17.04388 36.427067
12.830501 -21.463512 36.798988
5.5974774 -9.3414497 13.114923
0.19919226 -0.43100655 8.0509739
0.40539399 -0.79765821 8.3022232
1.0572083 -1.8145176 8.1228752
7.0657172 -11.999651 37.922661
8.9181099 -15.049452 36.234516
11.133464 -18.7209 35.697758
16.871994 -28.291639 43.693264
5.5148826 -9.2291784 11.733517
5.8055105 -9.6428003 11.140599
4.7999363 -7.963129 7.5794892
5.9143806 -9.8004322 7.5894384
11.730805 -19.423311 11.964207
6.5102468 -10.762373 3.7871456
11.104333 -18.342628 4.1623592
17.217014 -28.417463 3.07584
4.6400232 -7.7313528 8.1120501
7.4708309 -12.43346 10.6455
6.7632556 -11.246978 7.797667
7.1871805 -11.937807 6.5289969
6.5705705 -10.905021 4.5202403
12.275341 -20.349045 3.4067717
17.067293 -28.270452 1.4257848
0.62954491 -1.1114392 8.1205645
0.83950484 -1.4605044 8.1224422
7.7586312 -13.187027 36.10442
10.095524 -17.077166 36.422676
12.754066 -21.505749 36.794853
5.5599217 -9.3526649 13.103409
0.19768654 -0.43169925 8.0509739
0.40284646 -0.79954487 8.3071947
1.050868 -1.8181969 8.1228752
7.0002866 -11.984009 37.795952
8.8644199 -15.078615 36.230015
11.061421 -18.748415 35.676426
16.771601 -28.347767 43.689274
5.4826336 -9.2483721 11.733517
5.7590146 -9.6415749 11.116068
4.7900896 -8.0099001 7.6077347
5.899466 -9.8533058 7.6141119
5.786314 -9.656683 5.9793839
10.00219 -16.679342 7.9460235
6.4726391 -10.785033 3.7871456
10.969417 -18.263371 4.1362457
17.115149 -28.47312 3.0753932
4.6091876 -7.7410865 8.1054001
7.4356637 -12.473351 10.657273
6.7615013 -11.333451 7.8407311
6.1330829 -10.267898 5.616344
6.5251966 -10.91573 4.5153093
9.4202356 -15.746273 4.5162511
12.153373 -20.306786 3.3929579
18.454866 -30.811417 1.5424712
0.009738435 -0.064780116 6.0740423
0.62528104 -1.1129525 8.1156254
0.83389741 -1.4625412 8.117547
7.712553 -13.214029 36.10442
10.035851 -17.112301 36.422676
12.678919 -21.550138 36.794853
5.6461024 -9.5735617 13.383548
0.19606009 -0.43212336 8.0459814
0.40029061 -0.80142319 8.3121653
1.0445149 -1.821854 8.1228752
6.94803 -11.990454 37.739643
8.8117313 -15.109466 36.230015
10.990641 -18.777912 35.659363
16.669498 -28.400944 43.681293
5.4503174 -9.2674541 11.733517
5.7253242 -9.6616192 11.116068
4.7799749 -8.0566988 7.6359811
5.8842545 -9.9061937 7.6387844
5.7525706 -9.6768217 5.9793839
9.9510193 -16.726109 7.951643
6.4963064 -10.910605 3.8223965
10.885483 -18.26779 4.1287847
16.954435 -28.430037 3.0646629
4.5783401 -7.7506976 8.0987492
7.3303518 -12.394857 10.568978
6.7482462 -11.401501 7.871129
5.9954004 -10.117445 5.5240297
8.6934624 -14.658892 6.0207634
9.3329639 -15.724723 4.5010114
12.014152 -20.234116 3.3743095
18.459494 -31.064619 1.5513384
0.0095122512 -0.064813718 6.0740423
0.62139231 -1.1151284 8.1156254
0.82878709 -1.4654431 8.117547
2.7180152 -4.7320924 17.492924
7.6654005 -13.23918 36.099815
9.9748526 -17.145159 36.418285
12.6022 -21.591835 36.790722
5.6126504 -9.5932112 13.383548
0.1945505 -0.43280509 8.0459814
0.39749068 -0.80281562 8.3121653
1.038149 -1.8254889 8.1228752
6.8983932 -12.001168 37.697407
8.7589369 -15.140132 36.230015
10.914551 -18.798117 35.625237
16.568741 -28.456354 43.677303
5.4145179 -9.2805672 11.726166
5.7350378 -9.7438364 9.1989326
5.981257 -10.150026 7.8087554
5.7210078 -9.7006598 5.9817028
6.4459839 -10.912563 3.8153465
10.786654 -18.246475 4.1157279
10.916345 -18.45117 2.0176041
4.5455942 -7.756968 8.0887718
7.2747684 -12.39945 10.551319
8.6302671 -14.668798 6.0125461
9.2952814 -15.786525 4.5092177
11.991203 -20.357002 3.3874326
0.0092904959 -0.06497734 6.0890417
0.61712039 -1.1166104 8.1106853
0.82316875 -1.4674392 8.1126518
2.7022192 -4.7428479 17.497694
7.6191406 -13.265856 36.099815
9.9149446 -17.179873 36.418285
12.526752 -21.635695 36.790722
5.5598221 -9.5794783 13.337497
0.19303855 -0.43348157 8.0459814
0.39445171 -0.80371952 8.3071947
1.0317706 -1.8291016 8.1228752
8.7071171 -15.172502 36.234516
10.852771 -18.842882 35.638035
16.467802 -28.511406 43.673317
5.3922782 -9.3170147 11.748217
4.9894042 -8.5553503 9.812377
7.0061226 -11.999053 11.286006
5.6915855 -9.7282171 5.9863405
5.2966981 -9.0460291 4.3235784
10.722895 -18.284016 4.1157279
10.675418 -18.188522 1.9863086
4.5128603 -7.7631044 8.0787964
6.0718126 -10.423969 7.1745048
6.9077687 -11.844885 6.4261923
8.5195036 -14.596876 5.9714584
9.1788301 -15.71395 4.4799099
11.920071 -20.398735 3.3874326
0.6132189 -1.1187577 8.1106853
0.81754649 -1.4694136 8.1077566
2.6900535 -4.7600493 17.526327
7.5718217 -13.290674 36.095215
9.8537254 -17.212301 36.413902
12.451154 -21.679289 36.790722
5.5039601 -9.5599384 13.283772
0.19140866 -0.43388823 8.0409908
0.39141119 -0.80461186 8.3022232
1.024766 -1.8315951 8.1180353
8.6541023 -15.202803 36.234516
10.785638 -18.878386 35.633766
16.368179 -28.568716 43.673317
5.3766022 -9.3651819 11.784968
4.9523673 -8.5603666 9.798358
6.8608003 -11.844926 11.119669
5.8892746 -10.155364 7.7813411
5.2581038 -9.0524368 4.3179588
6.451612 -11.098306 3.8632877
9.9920464 -17.174923 3.8639205
10.55423 -18.126694 1.9760257
4.4782734 -7.7658715 8.0654936
7.0485778 -12.208403 10.348242
6.0461731 -10.463764 7.187171
6.1379108 -10.601195 4.352602
9.106864 -15.716454 4.4717035
11.62776 -20.058918 3.3259618
11.469509 -19.770027 1.0156693
0.0088184867 -0.064386375 6.0140448
0.60968083 -1.1215743 8.1156254
0.81192058 -1.471367 8.1028614
2.6763406 -4.7746186 17.545416
7.5253825 -13.317024 36.095215
9.7924004 -17.244509 36.409512
12.375403 -21.722618 36.790722
5.4705567 -9.579093 13.283772
0.18989296 -0.43455371 8.0409908
0.38813835 -0.80501229 8.2922802
1.0183662 -1.835161 8.1180353
6.506402 -11.598657 36.219185
8.6009817 -15.232918 36.234516
10.722246 -18.920458 35.6423
16.266867 -28.623056 43.669327
5.3841419 -9.4545965 11.873172
4.9189053 -8.5714149 9.7913494
5.6094184 -9.7628584 9.1612711
8.4809217 -14.742736 11.235588
5.7207808 -9.9366312 6.0883675
5.2264729 -9.0707359 4.3179588
6.4296069 -11.149848 3.8731577
9.9467669 -17.235226 3.8695164
10.498363 -18.176361 1.9773669
4.4455767 -7.7717328 8.0555172
7.0219898 -12.260991 10.371786
5.9838867 -10.439925 7.1567726
6.3008289 -10.979576 5.9394441
8.6078873 -14.987681 6.1045828
11.323159 -19.691555 3.2603474
11.308228 -19.649731 1.0082127
0.60576212 -1.1236956 8.1156254
0.80629104 -1.473299 8.0979671
2.6654601 -4.7943687 17.58359
7.4788513 -13.343211 36.095215
9.7309704 -17.276499 36.405121
12.298117 -21.763233 36.786591
5.4291868 -9.5841856 13.264585
0.1882612 -0.43494859 8.0359983
0.38486752 -0.80539978 8.2823362
1.0119542 -1.8387046 8.1180353
6.4801393 -11.646935 36.298962
8.5477571 -15.262849 36.234516
10.708529 -19.050983 35.817204
16.165375 -28.677038 43.665333
5.3994594 -9.5589352 11.979753
4.8995409 -8.6071291 9.812377
5.6369791 -9.8905926 9.2617016
8.3154287 -14.572503 11.084808
6.1386013 -10.748964 6.5660405
5.325902 -9.3183432 4.4247217
6.3906479 -11.172223 3.8731577
9.8084469 -17.133421 3.8396726
10.422474 -18.191292 1.9751315
4.4110508 -7.7742138 8.0422153
6.0607514 -10.668757 9.0179329
10.553751 -18.562792 12.633506
6.2512383 -10.981782 5.9289541
8.4994173 -14.919164 6.0651383
8.8452482 -15.51363 4.3978472
10.23368 -17.941528 2.9730246
10.927493 -19.142401 0.98281986
0.60183603 -1.1258032 8.1156254
0.80065775 -1.4752095 8.093071
2.652312 -4.8101807 17.60745
7.4322295 -13.369236 36.095215
9.6706047 -17.31036 36.405121
12.220698 -21.803574 36.782455
0.18674178 -0.43560311 8.0359983
0.38159865 -0.80577415 8.2723932
1.0049276 -1.8411224 8.1131964
6.4402771 -11.670994 36.303654
8.4933701 -15.29069 36.230015
10.704192 -19.199863 36.026234
16.063704 -28.730661 43.661343
5.3544602 -9.5570221 11.954026
4.8817406 -8.6459169 9.8369083
5.6024199 -9.9102087 9.2617016
8.7526512 -15.463876 11.734535
6.1010427 -10.770327 6.5660405
5.2933421 -9.3368769 4.4247217
9.7461548 -17.163282 3.8387399
10.410583 -18.318481 1.9845202
4.3783932 -7.7798018 8.032239
6.0671268 -10.767321 9.0826817
10.457128 -18.543194 12.595508
6.1793962 -10.944255 5.8974833
8.3845625 -14.837739 6.0207634
8.7910414 -15.544412 4.3978472
10.178305 -17.99007 2.9750965
11.106771 -19.615166 1.002973
0.59826624 -1.1285838 8.1205645
0.79550344 -1.4779953 8.093071
2.6433825 -4.8338151 17.659941
7.3855166 -13.395099 36.095215
9.6089611 -17.341917 36.400734
12.143147 -21.843639 36.77832
6.80229 -12.2061 16.806601
0.18510823 -0.43598616 8.0310068
0.37810609 -0.8056528 8.2574797
0.99849474 -1.844619 8.1131964
6.4144106 -11.720652 36.388123
8.4388933 -15.318336 36.225513
15.960395 -28.78129 43.653366
5.3013072 -9.5400925 11.909924
4.8567586 -8.6722403 9.8474226
5.5563712 -9.9093342 9.2428713
5.9147596 -10.535583 8.0061407
5.7509456 -10.235435 6.2321334
5.1539216 -9.1653776 4.3366895
6.2630887 -11.128775 3.8435473
9.9344873 -17.638044 3.9347999
10.346576 -18.35471 1.9845202
4.3475709 -7.7885189 8.025588
5.9861221 -10.71081 9.0179329
10.337623 -18.481766 12.529645
6.1411557 -10.965759 5.8974833
8.3442631 -14.887514 6.0289817
10.122716 -18.038445 2.9771686
11.074929 -19.719154 1.0059959
0.5943231 -1.1306653 8.1205645
0.78986019 -1.4798647 8.0881758
2.6257818 -4.841701 17.65517
7.3387141 -13.420796 36.095215
9.5483685 -17.375355 36.400734
12.065466 -21.88343 36.774189
6.7658434 -12.240992 16.821951
0.18358524 -0.43662965 8.0310068
0.37461895 -0.80551684 8.2425642
0.99204975 -1.8480932 8.1131964
6.3709898 -11.738421 36.374046
8.3832846 -15.343882 36.216511
10.651404 -19.422764 36.30352
15.858379 -28.834185 43.649372
5.2777915 -9.576354 11.931974
4.8489685 -8.7296686 9.8929815
5.5274224 -9.9388742 9.252286
8.5325994 -15.323676 11.583755
5.7022438 -10.23223 6.2182207
5.1218972 -9.1833115 4.3366895
6.2031612 -11.112872 3.830857
9.8872318 -17.698343 3.9403954
4.31674 -7.7971129 8.0189371
5.9212637 -10.682147 8.9767284
10.312779 -18.589359 12.577775
6.16675 -11.102187 5.9583263
8.3450165 -15.011477 6.066782
8.4530821 -15.193398 4.2841325
9.9994793 -17.965496 2.9599016
10.935524 -19.631124 1.0001515
0.59037274 -1.132733 8.1205645
0.78468966 -1.4826128 8.0881758
2.613107 -4.8587251 17.683804
7.291822 -13.446332 36.095215
9.4865122 -17.406473 36.396343
11.987656 -21.922945 36.770058
6.7230735 -12.264534 16.821951
0.18206 -0.43726781 8.0310068
0.37091497 -0.80488199 8.2226791
0.98559266 -1.8515449 8.1131964
6.3234329 -11.748432 36.336502
8.3286352 -15.371136 36.212009
10.637121 -19.558344 36.486954
15.754748 -28.884077 43.641396
4.8356748 -8.7777777 9.9280272
5.5321736 -10.029681 9.3181934
5.8168063 -10.532696 7.9732437
5.0987864 -9.2173605 4.3441815
6.1248336 -11.063111 3.8068864
10.614261 -19.140741 2.0578411
4.2876997 -7.8088613 8.0156116
5.8566785 -10.653162 8.935524
6.1717572 -11.20315 6.0002875
8.2925653 -15.040515 6.066782
8.3976479 -15.218556 4.2829604
9.9343138 -17.995956 2.9592109
10.642247 -19.262495 0.98140913
0.58641517 -1.134787 8.1205645
0.7795096 -1.4853429 8.0881758
2.5961311 -4.8678169 17.683804
7.2439156 -13.469982 36.090614
9.4256945 -17.439482 36.396343
11.909716 -21.962181 36.765923
6.6603198 -12.251319 16.772064
0.18064162 -0.43816796 8.0359983
0.36721992 -0.80423111 8.2027922
0.97912353 -1.8549739 8.1131964
6.2823849 -11.770433 36.336502
8.2738991 -15.398197 36.207508
10.593546 -19.641264 36.572269
15.65526 -28.941544 43.645382
4.7742276 -8.7382708 9.8649445
6.4199157 -11.735831 10.868591
5.806118 -10.600612 8.0088825
5.7073269 -10.41163 6.3016973
5.2315884 -9.5358725 4.4827862
8.3095541 -15.133748 5.1647477
9.5505171 -17.379484 3.8564599
10.540182 -19.164585 2.0565
4.2586303 -7.8205018 8.0122862
5.8155866 -10.666443 8.9296379
9.9225779 -18.184109 12.258595
6.1565495 -11.268437 6.0233665
8.2422791 -15.073513 6.0684252
8.4284773 -15.401277 4.3251638
9.9380226 -18.152147 2.97855
10.4261 -19.027882 0.96891415
0.58245045 -1.136827 8.1205645
0.77432001 -1.4880549 8.0881758
2.5798211 -4.8781691 17.688574
7.1968527 -13.495186 36.090614
9.3636303 -17.470167 36.391953
11.831649 -22.001144 36.761791
6.5642772 -12.175746 16.637753
0.17911102 -0.43879583 8.0359983
0.36353397 -0.80356437 8.1829071
0.97264254 -1.8583804 8.1131964
6.2356095 -11.781615 36.303654
8.2190762 -15.425064 36.203011
10.533531 -19.694221 36.602135
15.552717 -28.993361 43.641396
5.724577 -10.64935 13.185205
4.7148142 -8.7015781 9.8053675
6.3826232 -11.765013 10.874868
5.8568964 -10.782487 8.1295071
5.6688337 -10.427598 6.2993789
5.1982698 -9.5540762 4.4827862
8.2245598 -15.103682 5.1450076
9.4850922 -17.404089 3.8545945
10.275297 -18.838392 2.0193923
4.2295308 -7.8320332 8.0089598
5.8033104 -10.732901 8.9678993
9.688756 -17.903957 12.048341
6.0436654 -11.154184 5.9520326
5.7202096 -10.548434 4.2654958
8.3908958 -15.460508 4.3333702
9.9573021 -18.339046 3.0027239
10.385856 -19.112448 0.97113103
0.57847863 -1.1388532 8.1205645
0.7695877 -1.4916536 8.093071
2.5503001 -4.863349 17.602678
7.1487885 -13.518497 36.08601
9.3025913 -17.502745 36.391953
11.753454 -22.039825 36.75766
6.5217361 -12.198586 16.637753
0.17768547 -0.43968642 8.0409908
0.35985714 -0.80288154 8.1630211
0.96672845 -1.8628799 8.1180353
6.1912384 -11.797197 36.284882
8.1651821 -15.45366 36.203011
10.464722 -19.730869 36.602135
5.7112899 -10.714143 13.240334
4.6709075 -8.6928511 9.7773314
6.328608 -11.763226 10.852899
5.8192229 -10.802865 8.1295071
5.9918685 -11.114092 6.6958933
5.0856376 -9.4252853 4.4153566
8.1991396 -15.182948 5.1619277
9.4055967 -17.402519 3.8471334
10.176305 -18.81282 2.0131333
4.2021661 -7.8467493 8.0089598
5.74862 -10.721032 8.9414101
9.6445465 -17.971853 12.071139
5.7877283 -10.77142 5.7401295
5.6319132 -10.472681 4.2276955
8.3253593 -15.468304 4.3275084
9.8556623 -18.30393 2.991673
10.316708 -19.144188 0.9709295
0.57449979 -1.1408656 8.1205645
0.76437616 -1.4943309 8.093071
2.5174716 -4.8417602 17.492924
7.1015563 -13.543369 36.08601
9.2403221 -17.532991 36.387566
11.676449 -22.080719 36.75766
0.17614959 -0.44030398 8.0409908
0.35575813 -0.80120802 8.1331921
0.96021992 -1.8662431 8.1180353
6.1460381 -11.811083 36.261421
8.1111889 -15.482068 36.203011
10.394569 -19.764973 36.59787
5.626327 -10.644096 13.130077
4.6824608 -8.7877865 9.8649445
6.245369 -11.706259 10.780715
5.8327026 -10.919006 8.2007856
5.9488597 -11.127127 6.6912556
5.1248822 -9.5778704 4.4771671
8.1483564 -15.215707 5.1633382
9.2496519 -17.257732 3.8088958
10.079971 -18.79118 2.0073214
4.1747503 -7.8613696 8.0089598
5.7130589 -10.744602 8.9443541
5.8760118 -11.027878 5.8639145
8.385747 -15.711674 4.3861246
9.7427273 -18.246485 2.9771686
10.24982 -19.180082 0.9709295
0.5705139 -1.1428639 8.1205645
0.75915533 -1.49699 8.093071
2.5108144 -4.8704205 17.564503
7.0542378 -13.568076 36.08601
9.1790638 -17.56514 36.387566
11.599301 -22.121344 36.75766
6.5959978 -12.54739 17.048365
0.17471689 -0.44118494 8.0459814
0.35274521 -0.80195677 8.1282206
0.95369965 -1.8695835 8.1180353
6.1023989 -11.827865 36.247341
8.0560932 -15.508354 36.198505
10.323101 -19.796507 36.589336
5.5812693 -10.648658 13.111702
4.6967397 -8.8892145 9.959568
5.4782376 -10.355219 9.52847
5.7534499 -10.861703 8.1432142
5.9328065 -11.190876 6.7167625
5.1631222 -9.7308416 4.5389771
9.0717802 -17.068695 3.7613325
10.04472 -18.883406 2.0131333
4.1472836 -7.8758945 8.0089598
5.6208496 -10.66079 8.8590021
5.4931717 -10.409835 7.0022488
5.6805863 -10.751371 5.7086587
5.2981834 -10.019159 4.033761
8.3126621 -15.706482 4.3767457
9.6419001 -18.210358 2.9661176
0.56617671 -1.1441519 8.1156254
0.75392526 -1.4996308 8.093071
2.5039873 -4.8990922 17.636082
7.0059381 -13.59088 36.081406
9.1165934 -17.594948 36.383179
11.522013 -22.161697 36.75766
6.6291966 -12.718138 17.247915
0.17317581 -0.44179213 8.0459814
0.3495191 -0.8022052 8.1182766
0.94716775 -1.8729011 8.1180353
6.0587168 -11.844483 36.233261
8.0019093 -15.53638 36.198505
10.25154 -19.827789 36.580807
5.5909634 -10.758321 13.221957
4.7020912 -8.9750519 10.036668
5.4348249 -10.36049 9.5159168
5.6805019 -10.815086 8.0938683
5.9287477 -11.278175 6.7561822
5.2543197 -9.986763 4.647613
8.1961517 -15.565095 5.2606301
9.1335258 -17.330576 3.8107612
10.020564 -18.997641 2.0211806
4.1197662 -7.8903232 8.0089598
5.5536399 -10.623033 8.8119116
5.4707909 -10.455684 7.0199814
5.7820306 -11.036469 5.8471298
5.2631779 -10.037592 4.033761
8.1516275 -15.533115 4.3216467
9.58288 -18.252672 2.967499
10.282987 -19.569597 0.98543966
0.56217945 -1.1461213 8.1156254
0.74868596 -1.5022533 8.093071
2.4801247 -4.8944883 17.588364
6.9575653 -13.613514 36.076805
9.0551195 -17.626663 36.383179
11.440717 -22.194279 36.745258
0.17173608 -0.44266346 8.0509739
0.34713793 -0.80439985 8.1282206
0.94062442 -1.8761959 8.1180353
6.013433 -11.857865 36.209801
7.9466391 -15.562279 36.194004
10.181077 -19.861134 36.576538
5.5828791 -10.835031 13.291786
4.6559381 -8.9629288 10.005126
5.3698902 -10.324148 9.4657011
5.7122474 -10.968361 8.1925611
5.9057236 -11.330228 6.7747326
5.1701107 -9.9105082 4.6045332
8.1417694 -15.59361 5.2606301
9.0661507 -17.349293 3.8079634
10.044199 -19.204603 2.0386167
4.0939159 -7.9079723 8.0122862
5.4811821 -10.57417 8.755991
5.4203639 -10.447929 7.0022488
6.0342789 -11.616414 6.1387591
5.2433553 -10.085231 4.0452657
8.0569735 -15.483865 4.3005452
9.4253559 -18.105917 2.9391811
10.209997 -19.59651 0.98503667
0.55817527 -1.1480767 8.1156254
0.74343753 -1.5048575 8.093071
2.4630249 -4.9031157 17.588364
6.9091196 -13.635974 36.072201
8.9924498 -17.656031 36.378788
11.363173 -22.234079 36.745258
6.0959125 -11.896923 16.081314
0.17018984 -0.44326022 8.0509739
0.34453684 -0.80609709 8.1331921
0.93406951 -1.879468 8.1180353
5.9627028 -11.860282 36.153484
7.8922682 -15.589924 36.194004
10.111687 -19.896551 36.576538
5.5743265 -10.911815 13.361613
4.5462441 -8.8269434 9.8369083
5.3516593 -10.377423 9.4970856
5.6489859 -10.939934 8.1569223
5.9678268 -11.54754 6.8906727
6.0385437 -11.674399 5.3986993
8.0299492 -15.511175 5.2239695
8.8609056 -17.101694 3.7482758
9.9381285 -19.164394 2.0310163
4.0679917 -7.9255366 8.0156116
5.4608665 -10.625595 8.7824793
5.3838611 -10.466787 7.0022488
5.9957714 -11.64144 6.1408572
5.2189384 -10.12446 4.0534835
7.9649892 -15.438459 4.2806158
9.3620977 -18.138708 2.9391811
10.075035 -19.503309 0.97919226
0.55416435 -1.1500181 8.1156254
0.73818004 -1.5074435 8.093071
6.8606024 -13.658262 36.0676
8.9307632 -17.687313 36.378788
11.268959 -22.240974 36.691528
6.0862837 -11.980997 16.165737
0.16864154 -0.44385162 8.0509739
0.34213528 -0.80827719 8.1431351
0.92750323 -1.882717 8.1180353
5.9120302 -11.86249 36.097176
7.8368239 -15.615431 36.189503
10.040998 -19.929396 36.572269
4.8001895 -9.4984512 14.167086
5.505569 -10.870718 13.28811
4.5300016 -8.8713446 9.8684492
5.3331223 -10.430697 9.52847
5.6526842 -11.04147 8.2172337
5.8810215 -11.477627 6.8373404
5.9554462 -11.612905 5.3612385
7.914422 -15.419613 5.1844883
8.7944202 -17.119411 3.7454777
9.7869186 -19.035099 2.0144746
4.0436883 -7.9463434 8.0222626
5.3925476 -10.583368 8.7324457
5.9076271 -11.569332 6.0926023
5.1835656 -10.142615 4.0534835
10.025113 -19.573933 0.9808045
0.55014664 -1.1519455 8.1156254
0.73291367 -1.5100111 8.093071
6.8120141 -13.680379 36.063
8.8636084 -17.70767 36.356842
11.179888 -22.257544 36.654335
6.0386586 -11.990719 16.150389
0.1671918 -0.44470814 8.0559654
0.33951721 -0.80995834 8.1481056
0.92037427 -1.8848135 8.1131964
5.8598862 -11.861394 36.031475
7.7812991 -15.640743 36.185005
9.9713707 -19.964323 36.572269
4.7751021 -9.5313129 14.191025
5.4310818 -10.817157 13.199907
5.6200681 -11.101623 12.307613
5.2966795 -10.44925 9.52847
5.63871 -11.109607 8.2528734
5.7406082 -11.300613 6.7214003
5.6396351 -11.092269 5.115871
7.8866558 -15.498449 5.2014084
8.66327 -17.009933 3.7156339
9.7769556 -19.180065 2.0256515
4.019289 -7.9670768 8.0289125
5.7200618 -11.323694 9.3210773
5.9894586 -11.846749 7.8863282
5.9451008 -11.743753 6.172328
5.0670266 -10.000578 3.99103
7.6195931 -15.025502 4.1540055
9.0784035 -17.894487 2.8908334
9.8730373 -19.443987 0.97334784
0.54612225 -1.1538588 8.1156254
0.72719699 -1.5116426 8.0881758
2.2003138 -4.4968901 16.051785
6.7633543 -13.702322 36.058395
8.7942915 -17.723484 36.326118
11.112161 -22.316586 36.687401
6.0053563 -12.028931 16.173412
0.16563848 -0.44528905 8.0559654
0.33689159 -0.81163114 8.1530771
0.91378939 -1.8880149 8.1131964
5.8123746 -11.869378 35.993931
7.7256927 -15.665858 36.180504
9.900465 -19.996672 36.568008
4.7887125 -9.6423817 14.330677
5.3540154 -10.757137 13.104352
5.558888 -11.07655 12.25855
5.3126025 -10.572011 9.6226244
5.6951489 -11.308713 6.7144437
5.2461557 -10.408125 4.7974553
7.9146132 -15.688636 5.2549901
8.6104841 -17.053226 3.7184319
3.9947944 -7.9877367 8.0355644
5.5827684 -11.148427 9.1621475
5.9480696 -11.867584 7.8863282
5.9040709 -11.764434 6.172328
5.0299683 -10.013986 3.9893863
7.5670977 -15.052008 4.1540055
9.0047607 -17.90395 2.8873801
9.7062654 -19.281984 0.96448052
0.54209125 -1.1557581 8.1156254
0.72191596 -1.5141717 8.0881758
2.1839521 -4.5032005 16.047012
6.7154832 -13.725847 36.058395
8.7218008 -17.732584 36.282227
5.9050431 -11.932039 16.016075
0.16408312 -0.44586453 8.0559654
0.33446047 -0.81378871 8.1630211
0.90719348 -1.8911932 8.1131964
5.7641253 -11.875622 35.951694
7.6700048 -15.690773 36.175999
9.8294554 -20.028769 36.56374
4.7989426 -9.748251 14.462347
5.3314333 -10.806164 13.141105
5.5789623 -11.214025 12.388218
5.2478986 -10.534748 9.5724087
5.7737832 -11.575265 8.5654001
5.6437678 -11.304745 6.700531
5.2097926 -10.426373 4.7974553
7.8598008 -15.716167 5.2549901
8.6212645 -17.223745 3.7482758
9.3037643 -18.571077 1.9576955
3.9702048 -8.0083237 8.0422153
5.4000421 -10.878208 8.9266949
5.2199345 -10.506193 6.9794502
5.7052898 -11.468022 6.0086799
5.1465287 -10.335835 4.1077194
7.5058379 -15.060927 4.1493163
9.0173349 -18.085953 2.9108632
9.6388998 -19.315748 0.96448052
0.53838086 -1.158348 8.1205645
0.71662611 -1.5166825 8.0881758
2.1682198 -4.5107965 16.047012
6.6675301 -13.749206 36.058395
8.6598501 -17.76292 36.282227
5.845006 -11.91517 15.966188
0.16262355 -0.44670624 8.060957
0.33201835 -0.81593931 8.1729641
0.90058643 -1.8943481 8.1131964
5.7233853 -11.897225 35.95639
7.6151872 -15.71745 36.175999
9.7572002 -20.058266 36.55521
4.7807426 -9.7974405 14.510228
5.2921901 -10.821662 13.137428
4.3678408 -8.8569651 9.7843399
5.1524997 -10.434342 9.4657011
5.7518759 -11.632831 8.5928154
5.5355043 -11.185417 6.6193728
7.777194 -15.687634 5.236659
8.5610895 -17.253735 3.7482758
9.2322369 -18.590059 1.9563541
3.9455197 -8.0288353 8.0488663
5.4298501 -11.034806 9.0385351
5.2041793 -10.566889 7.0073152
5.4966083 -11.145949 5.8324432
5.1125083 -10.357972 4.1093626
7.4381504 -15.056532 4.1411099
8.9541483 -18.117317 2.9108632
9.6090736 -19.425404 0.96790653
0.53465897 -1.1609261 8.1255035
0.71132755 -1.5191747 8.0881758
2.1531029 -4.5196848 16.051785
6.6194959 -13.772395 36.058395
8.6009188 -17.799511 36.295395
5.021306 -10.327029 13.824861
0.16106327 -0.44727117 8.060957
0.32936674 -0.81758797 8.1779356
0.89396846 -1.8974802 8.1131964
5.6773653 -11.907785 35.928234
7.5602765 -15.743937 36.175999
9.6859913 -20.089855 36.550945
4.7556977 -9.8330584 14.538158
5.2455115 -10.821766 13.115378
4.2914796 -8.7792435 9.6827078
4.8319926 -9.8719282 8.9447174
5.7222762 -11.675365 8.6092634
5.4964261 -11.204672 6.6193728
5.071496 -10.329327 4.7375183
7.7033467 -15.675941 5.2239695
8.511651 -17.305552 3.752939
9.2002811 -18.689192 1.9630604
3.9207397 -8.0492716 8.0555172
5.6659427 -11.616797 9.4947243
5.1994109 -10.650846 7.0503793
4.9850101 -10.189119 4.0370483
7.4774652 -15.270115 4.1915197
8.840745 -18.046181 2.8949776
9.5148144 -19.404999 0.9654882
0.53060335 -1.1627853 8.1255035
0.70602036 -1.5216485 8.0881758
2.1315782 -4.5150242 16.008835
6.5722213 -13.797182 36.063
8.5377007 -17.827265 36.291008
4.9615722 -10.295408 13.759624
0.15950102 -0.44783065 8.060957
0.32690448 -0.81972343 8.1878777
0.88733959 -1.9005892 8.1131964
5.6328158 -11.921289 35.909462
7.5043387 -15.768266 36.171501
9.6146812 -20.121189 36.546677
4.699203 -9.8034039 14.470327
5.1930237 -10.809451 13.078626
4.2188249 -8.7075157 9.5880861
4.7839127 -9.8607187 8.91961
5.6120563 -11.552346 8.5050879
5.4282255 -11.164032 6.5845909
5.0313516 -10.338629 4.7337723
7.6233726 -15.650981 5.2070489
8.4942436 -17.423468 3.7715914
9.2682037 -18.994205 1.9903322
3.8974886 -8.0729971 8.0654936
5.6271172 -11.640143 9.4976673
5.21665 -10.781464 7.1238413
6.097414 -12.584995 6.5520754
4.8711171 -10.044998 3.9745948
7.4198718 -15.287377 4.1891751
8.7063169 -17.929926 2.872185
9.4382849 -19.420118 0.96468204
0.52750081 -1.1667546 8.1403208
