# .PCD v0.7 - Point Cloud Data file format
VERSION 0.7
FIELDS x y z
SIZE 4 4 4
TYPE F F F
COUNT 1 1 1
WIDTH 1427
HEIGHT 1
VIEWPOINT 0 0 0 1 0 0 0
POINTS 1427
DATA ascii
-0.29144588 -0.59434348 1.0448482
-0.35292032 -0.72153139 1.0382961
-0.25221118 -0.40058094 8.0260153
-0.42597035 -0.73616195 7.8895879
-0.32243735 -0.63941926 2.7946689
-0.18126704 -0.36379826 1.1595279
-0.2083649 -0.42096516 1.0350237
-0.26259035 -0.53248465 1.0413074
-0.32028073 -0.65137553 1.0359157
-0.38729203 -0.78932399 1.0314369
-0.94895875 -1.9501121 2.2110159
-0.92344189 -1.9001831 1.7858981
-0.90833986 -1.8715777 1.4485543
-0.8955124 -1.8467721 1.160918
-0.88163853 -1.8197619 0.90529323
-0.86751944 -1.7921963 0.6752035
-0.85120255 -1.7600428 0.46265495
-0.83189988 -1.7216463 0.2646071
-0.93873936 -1.9222751 1.9864796
-0.91362745 -1.8733197 1.6011682
-0.90150905 -1.8500946 1.2949967
-0.89217216 -1.8333534 1.0300014
-0.8736679 -1.796906 0.78454381
-0.86022729 -1.770817 0.56554163
-0.83704418 -1.7238481 0.35949114
-0.82853782 -1.7078295 0.17024715
-0.061717883 -0.052812431 7.8839731
-0.57132369 -1.0988505 7.8736014
-0.26404539 -0.51622289 2.811121
-0.18436177 -0.36654222 1.3588457
-0.18882346 -0.37856483 1.0561975
-0.23654437 -0.47657272 1.0423111
-0.29351875 -0.59332258 1.0448482
-0.3554368 -0.72029507 1.0382961
-0.25314131 -0.39896849 8.0110407
-0.42853746 -0.73467052 7.8895879
-0.32466736 -0.63828987 2.7946689
-0.18176019 -0.3616218 1.1548352
-0.20983307 -0.42023528 1.0350237
-0.26444745 -0.53156477 1.0413074
-0.3225525 -0.65025359 1.0359157
-0.3900449 -0.78796732 1.0314369
-0.94790149 -1.9307815 2.1934931
-0.92321473 -1.8829689 1.7733443
-0.90751165 -1.8533741 1.4375885
-0.89416635 -1.8277185 1.1516428
-0.8818776 -1.8041782 0.89967412
-0.86745453 -1.7762256 0.67097336
-0.85087866 -1.7438167 0.45985708
-0.83135766 -1.705303 0.26326588
-0.93884277 -1.9055893 1.9731777
-0.91302276 -1.8556123 1.5893955
-0.90035403 -1.831462 1.2848641
-0.89056545 -1.8139322 1.0216092
-0.87369585 -1.7811269 0.77961332
-0.8578468 -1.750345 0.56085235
-0.83869922 -1.7120217 0.35810977
-0.82790518 -1.691465 0.16964257
-0.061937429 -0.052621938 7.8889728
-0.57371163 -1.0940974 7.8538446
-0.26584575 -0.51529807 2.811121
-0.18428802 -0.36323479 1.3493017
-0.19014375 -0.3779034 1.0561975
-0.23713371 -0.47360277 1.037922
-0.2943311 -0.58977664 1.0407152
-0.35794896 -0.71904999 1.0382961
-0.25390691 -0.3971118 7.9910736
-0.4310993 -0.73317015 7.8895879
-0.32746756 -0.6382708 2.7995081
-0.18224035 -0.35944632 1.1501424
-0.21129869 -0.41950026 1.0350237
-0.26513112 -0.52830768 1.0370414
-0.32482034 -0.64912373 1.0359157
-0.39279303 -0.78660101 1.0314369
-0.94672102 -1.9114826 2.1759706
-0.92115289 -1.8622907 1.7576519
-0.90656745 -1.8351994 1.4266225
-0.89465886 -1.8126692 1.1446863
-0.87996835 -1.7844577 0.89218199
-0.86728901 -1.7602776 0.66674334
-0.85045183 -1.7276145 0.45705923
-0.83290935 -1.6934532 0.26237172
-0.93717903 -1.8855828 1.9565501
-0.91230565 -1.8379321 1.5776229
-0.89907998 -1.8128604 1.2747314
-0.88883406 -1.7945446 1.013217
-0.87362438 -1.7653694 0.77468276
-0.85748827 -1.7342685 0.55733538
-0.8380878 -1.6957653 0.35603774
-0.82716846 -1.6751261 0.16903797
-0.062120736 -0.052405417 7.8889728
-0.57825422 -1.0934616 7.8637228
-0.26764286 -0.51436692 2.811121
-0.18487415 -0.36126083 1.3445297
-0.1905769 -0.37549558 1.051595
-0.23878543 -0.47277212 1.037922
-0.29638803 -0.58874565 1.0407152
-0.36045671 -0.71779615 1.0382961
-0.25497708 -0.39573884 7.9810901
-0.43365589 -0.7316609 7.8895879
-0.32969356 -0.63712382 2.7995081
-0.18270755 -0.35727194 1.1454496
-0.21276173 -0.41876012 1.0350237
-0.26697364 -0.52737898 1.0370414
-0.32708421 -0.64798588 1.0359157
-0.39553639 -0.78522509 1.0314369
-0.94382322 -1.8890251 2.154943
-0.92069608 -1.8451328 1.7450981
-0.90737283 -1.8207965 1.4183981
-0.89308292 -1.7936735 1.1354111
-0.87999725 -1.7689233 0.88656294
-0.86702257 -1.7443525 0.6625132
-0.84992236 -1.7114365 0.45426136
-0.83217508 -1.6771525 0.2610305
-0.93706101 -1.8689493 1.943248
-0.91147625 -1.8202796 1.5658503
-0.89961606 -1.7981454 1.2671319
-0.88900679 -1.7792511 1.0069228
-0.87345374 -1.7496345 0.76975226
-0.85702813 -1.7182162 0.55381846
-0.83737326 -1.6795341 0.3539657
-0.82632792 -1.6588131 0.16843337
-0.062339038 -0.052213281 7.8939724
-0.58572614 -1.0982913 7.9131155
-0.26943669 -0.51342952 2.811121
-0.18544874 -0.3592872 1.3397578
-0.19188647 -0.37482804 1.051595
-0.24043427 -0.47193575 1.037922
-0.29844132 -0.58770746 1.0407152
-0.36296007 -0.71653354 1.0382961
-0.25635689 -0.39484638 7.9810901
-0.43620723 -0.73014271 7.8895879
-0.33191553 -0.6359691 2.7995081
-0.18395355 -0.35663196 1.1454496
-0.21422218 -0.41801491 1.0350237
-0.26881292 -0.52644384 1.0370414
-0.32797661 -0.64415514 1.0319257
-0.39673901 -0.78081739 1.0277618
-0.94399077 -1.8729807 2.1409249
-0.92013079 -1.8280013 1.7325443
-0.90621042 -1.8026744 1.4074323
-0.89337361 -1.7786697 1.1284548
-0.87992829 -1.7534105 0.88094378
-0.86665577 -1.7284509 0.65828311
-0.84929043 -1.6952835 0.45146352
-0.83356619 -1.6653308 0.26013631
-0.93515301 -1.8490078 1.9266205
-0.91053492 -1.8026556 1.5540776
-0.89811796 -1.7796004 1.256999
-0.88704103 -1.759926 0.99853063
-0.87105983 -1.7297046 0.76317817
-0.85646641 -1.7021883 0.55030149
-0.8387807 -1.6677529 0.35258433
-0.82762676 -1.6469907 0.16803031
-0.062520914 -0.051995356 7.8939724
-0.58992457 -1.0969241 7.9180546
-0.27122727 -0.51248592 2.811121
-0.18601181 -0.35731399 1.3349857
-0.19319369 -0.37415597 1.051595
-0.24208015 -0.4710936 1.037922
-0.30049098 -0.58666211 1.0407152
-0.36545905 -0.71526223 1.0382961
-0.25757471 -0.39370808 7.976099
-0.43902886 -0.72907197 7.8945594
-0.33413345 -0.63480663 2.7995081
-0.18440022 -0.35445711 1.140757
-0.21467988 -0.41533101 1.0305225
-0.27064893 -0.52550226 1.0370414
-0.33022311 -0.64300638 1.0319257
-0.39946216 -0.77942777 1.0277618
-0.94244164 -1.8537794 2.1234024
-0.91945726 -1.8108962 1.7199905
-0.90493274 -1.784583 1.3964664
-0.89156842 -1.7597344 1.1191796
-0.87766814 -1.7337837 0.87345165
-0.86618847 -1.7125732 0.65405303
-0.85077173 -1.6835403 0.44959828
-0.83488506 -1.65352 0.25924215
-0.93481427 -1.8324286 1.9133185
-0.91131669 -1.7886618 1.545248
-0.89845741 -1.7649298 1.2493995
-0.88700813 -1.7446817 0.99223644
-0.87067634 -1.7140234 0.75824767
-0.8580032 -1.6905196 0.54795682
-0.8378756 -1.651566 0.3505123
-0.82659447 -1.6307231 0.16742572
-0.062666103 -0.051752031 7.8889728
-0.22867607 -0.42219576 3.0528855
-0.27301452 -0.511536 2.811121
-0.18656336 -0.35534126 1.3302138
-0.19359556 -0.37174684 1.0469925
-0.24372311 -0.47024569 1.037922
-0.30253699 -0.58560967 1.0407152
-0.36795357 -0.71398216 1.0382961
-0.25894743 -0.39280659 7.976099
-0.44157115 -0.72753501 7.8945594
-0.33634731 -0.63363642 2.7995081
-0.18563637 -0.35381129 1.140757
-0.21612835 -0.41457909 1.0305225
-0.27248162 -0.52455431 1.0370414
-0.33246562 -0.64184976 1.0319257
-0.40218043 -0.77802861 1.0277618
-0.94076997 -1.8346119 2.1058795
-0.91867548 -1.7938181 1.7074367
-0.9035399 -1.7665224 1.3855006
-0.89165777 -1.7447778 1.1122231
-0.87739009 -1.7183232 0.8678326
-0.86562097 -1.6967199 0.64982289
-0.84995055 -1.6674309 0.44680041
-0.8338716 -1.637283 0.25790092
-0.93437117 -1.8158745 1.9000165
-0.91016436 -1.7710898 1.5334755
-0.8987053 -1.7502784 1.2418
-0.88687974 -1.7294598 0.9859423
-0.8701939 -1.6983656 0.75331712
-0.85725403 -1.6745346 0.54443991
-0.83686787 -1.635406 0.34844026
-0.8277331 -1.6189313 0.16702266
-0.06284637 -0.051532969 7.8889728
-0.22791031 -0.41730529 3.0232499
-0.27479845 -0.51057994 2.811121
-0.1878026 -0.35468787 1.3302138
-0.19489202 -0.37106881 1.0469925
-0.24647307 -0.47151437 1.0423111
-0.30587998 -0.58704543 1.0448482
-0.37044358 -0.71269339 1.0382961
-0.260317 -0.3919003 7.976099
-0.44438675 -0.72644359 7.8995309
-0.33855706 -0.63245845 2.7995081
-0.18687028 -0.35316116 1.140757
-0.21757418 -0.41382214 1.0305225
-0.27431101 -0.52359998 1.0370414
-0.33470407 -0.64068538 1.0319257
-0.40489382 -0.77662003 1.0277618
-0.93897617 -1.8154789 2.088357
-0.91778588 -1.7767678 1.6948829
-0.90203208 -1.7484936 1.3745347
-0.8916539 -1.7298425 1.1052668
-0.87489212 -1.6987643 0.86034042
-0.86495346 -1.6808916 0.64559281
-0.84902734 -1.6513479 0.44400257
-0.83503056 -1.6255029 0.25700676
-0.93210399 -1.7960317 1.8833891
-0.91076058 -1.7571361 1.5246459
-0.89886194 -1.7356471 1.2342005
-0.88665593 -1.7142597 0.97964811
-0.86961305 -1.6827327 0.74838662
-0.85863388 -1.6628942 0.54209524
-0.83575761 -1.6192734 0.34636822
-0.82879949 -1.6071516 0.1666196
-0.063025877 -0.051313277 7.8889728
-0.22861481 -0.41514662 3.0133715
-0.27657902 -0.50961757 2.811121
-0.18833578 -0.35271376 1.3254418
-0.19618611 -0.37038627 1.0469925
-0.24811746 -0.47065118 1.0423111
-0.30792731 -0.58597416 1.0448482
-0.3729291 -0.71139598 1.0382961
-0.26168337 -0.39098924 7.976099
-0.44663945 -0.72443455 7.8945594
-0.34076267 -0.63127285 2.7995081
-0.1881019 -0.3525067 1.140757
-0.21901737 -0.41306016 1.0305225
-0.27613702 -0.52263927 1.0370414
-0.33693844 -0.63951313 1.0319257
-0.40760225 -0.77520192 1.0277618
-0.93870974 -1.7995427 2.0743387
-0.91678846 -1.7597458 1.6823291
-0.90233952 -1.7342063 1.3663102
-0.89155644 -1.7149283 1.0983104
-0.8744055 -1.6833581 0.85472137
-0.86639595 -1.6693467 0.64277273
-0.84800231 -1.6352918 0.4412047
-0.83382648 -1.6093131 0.25566554
-0.93144131 -1.7795351 1.870087
-0.90939802 -1.7396181 1.5128733
-0.89892745 -1.721036 1.2266009
-0.88633698 -1.6990827 0.97335398
-0.87111628 -1.6713119 0.7450996
-0.85769773 -1.6469538 0.53857833
-0.83683169 -1.6075612 0.34498686
-0.82979387 -1.5953844 0.16621654
-0.063168429 -0.051068574 7.8839731
-0.2338402 -0.42113596 3.0627639
-0.27835625 -0.50864905 2.811121
-0.18956582 -0.35205418 1.3254418
-0.1974778 -0.36969918 1.0469925
-0.24975882 -0.4697822 1.0423111
-0.30997086 -0.58489573 1.0448482
-0.37391171 -0.70725644 1.0344586
-0.2632089 -0.39031219 7.9810901
-0.44916552 -0.72287112 7.8945594
-0.34296414 -0.63007951 2.7995081
-0.18933123 -0.35184795 1.140757
-0.22045788 -0.41229314 1.0305225
-0.2779597 -0.52167225 1.0370414
-0.3391687 -0.63833308 1.0319257
-0.41030574 -0.77377439 1.0277618
-0.93834347 -1.7836304 2.0603204
-0.91568351 -1.7427526 1.6697752
-0.90061533 -1.7162358 1.3553444
-0.89136589 -1.7000362 1.0913539
-0.87382203 -1.6679761 0.8491022
-0.86776847 -1.6578122 0.63995266
-0.84687567 -1.6192632 0.43840683
-0.83482611 -1.5975654 0.25477138
-0.92893189 -1.7597635 1.8534596
-0.90792435 -1.7221311 1.5011007
-0.89890206 -1.7064458 1.2190014
-0.88592279 -1.6839287 0.96705979
-0.87035316 -1.6557214 0.74016905
-0.85892117 -1.6353436 0.53623366
-0.83553219 -1.5914767 0.34291482
-0.82839537 -1.5792055 0.16561194
-0.063346304 -0.050847765 7.8839731
-0.2326479 -0.41557351 3.0281894
-0.28013006 -0.50767428 2.811121
-0.19150652 -0.35270175 1.3302138
-0.19876708 -0.36900759 1.0469925
-0.250265 -0.46679696 1.037922
-0.31068388 -0.58132851 1.0407152
-0.37637821 -0.70594692 1.0344586
-0.26473284 -0.38962924 7.9860821
-0.45168605 -0.72129881 7.8945594
-0.34455633 -0.62777686 2.7946689
-0.19055825 -0.3511849 1.140757
-0.22189571 -0.41152105 1.0305225
-0.27977899 -0.52069879 1.0370414
-0.34139484 -0.63714528 1.0319257
-0.41300422 -0.77233744 1.0277618
-0.93787783 -1.7677431 2.0463021
-0.91629362 -1.7292278 1.6603597
-0.90073264 -1.7019943 1.3471199
-0.89108241 -1.6851664 1.0843976
-0.87530756 -1.6567178 0.84535617
-0.86683154 -1.6420463 0.63572258
-0.84793925 -1.6076075 0.43654159
-0.83343214 -1.5814248 0.25343013
-0.92805046 -1.743327 1.8401576
-0.90633976 -1.704676 1.489328
-0.89676332 -1.6880701 1.2088687
-0.88541389 -1.6687988 0.96076572
-0.86949193 -1.6401569 0.73523855
-0.85779881 -1.6194496 0.53271675
-0.83644801 -1.5797975 0.34153345
-0.82923037 -1.5674722 0.16520888
-0.063523412 -0.050626334 7.8839731
-0.23409709 -0.41475886 3.0281894
-0.28190047 -0.50669336 2.811121
-0.19273651 -0.35203114 1.3302138
-0.20098706 -0.37002793 1.051595
-0.25189292 -0.46592054 1.037922
-0.31271121 -0.58024043 1.0407152
-0.37884012 -0.70462883 1.0344586
-0.26609126 -0.38870278 7.9860821
-0.45391601 -0.71926725 7.8895879
-0.34674558 -0.62657028 2.7946689
-0.19178297 -0.3505176 1.140757
-0.22437125 -0.41265622 1.0350237
-0.28159484 -0.519719 1.0370414
-0.34361681 -0.63594967 1.0319257
-0.41569766 -0.77089113 1.0277618
-0.93731278 -1.7518809 2.032284
-0.91498613 -1.7122873 1.6478059
-0.90076172 -1.6877732 1.3388957
-0.89070588 -1.6703194 1.0774411
-0.87454528 -1.6413783 0.83973712
-0.86804944 -1.6305419 0.6329025
-0.84662491 -1.5916271 0.43374372
-0.83193564 -1.5653136 0.2520889
-0.92706567 -1.7269183 1.8268557
-0.90655458 -1.6908153 1.4804987
-0.89654309 -1.67353 1.2012691
-0.88481003 -1.6536928 0.95447153
-0.87075907 -1.628783 0.73195153
-0.85886627 -1.6078711 0.53037208
-0.83495998 -1.563763 0.33946142
-0.82999361 -1.5557523 0.16480581
-0.063699745 -0.050404284 7.8839731
-0.23477374 -0.41258916 3.0183108
-0.28366745 -0.50570625 2.811121
-0.19468623 -0.35266265 1.3349857
-0.20227747 -0.36932412 1.051595
-0.25351775 -0.46503839 1.037922
-0.31473473 -0.57914537 1.0407152
-0.38129744 -0.70330209 1.0344586
-0.26761124 -0.38800865 7.9910736
-0.45642394 -0.71767843 7.8895879
-0.3489306 -0.62535614 2.7946689
-0.19300532 -0.34984601 1.140757
-0.22581033 -0.41187051 1.0350237
-0.2834073 -0.51873291 1.0370414
-0.34583458 -0.63474637 1.0319257
-0.41838604 -0.76943535 1.0277618
-0.93664843 -1.7360442 2.0182657
-0.91541809 -1.6988037 1.6383907
-0.90070248 -1.6735725 1.3306712
-0.89023679 -1.6554959 1.0704848
-0.87368661 -1.6260644 0.83411795
-0.86692864 -1.6148225 0.62867242
-0.84753144 -1.5800047 0.43187848
-0.83268952 -1.5536215 0.25119475
-0.92597771 -1.7105377 1.8135536
-0.90476125 -1.6734183 1.468726
-0.89623231 -1.6590121 1.1936696
-0.88411164 -1.6386116 0.94817728
-0.86971658 -1.6132637 0.72702098
-0.85755807 -1.5920253 0.52685511
-0.83571804 -1.5521187 0.33808005
-0.82831824 -1.5396467 0.16420123
-0.063875303 -0.050181627 7.8839731
-0.2358253 -0.4110935 3.0133715
-0.28543097 -0.504713 2.811121
-0.19664271 -0.35328484 1.3397578
-0.20451048 -0.37032565 1.0561975
-0.25513947 -0.46415064 1.037922
-0.3167544 -0.57804316 1.0407152
-0.38375008 -0.70196688 1.0344586
-0.2691296 -0.38730863 7.9960656
-0.45892635 -0.71608084 7.8895879
-0.35111138 -0.62413436 2.7946689
-0.19506487 -0.35067788 1.1454496
-0.22724664 -0.41107976 1.0350237
-0.28521627 -0.51774043 1.0370414
-0.34804815 -0.63353533 1.0319257
-0.42106932 -0.7679702 1.0277618
-0.93758947 -1.7233664 2.0077522
-0.91390866 -1.681918 1.6258368
-0.90055519 -1.6593933 1.3224468
-0.88967502 -1.6406958 1.0635283
-0.87494022 -1.6148525 0.83037192
-0.86799246 -1.6033493 0.62585235
-0.84603012 -1.5640746 0.42908064
-0.83337194 -1.5419433 0.25030059
-0.92657578 -1.6974632 1.8035771
-0.90479237 -1.6596035 1.4598964
-0.89376897 -1.6407315 1.1835369
-0.88548791 -1.6275421 0.94398123
-0.87083191 -1.6019207 0.72373396
-0.85615003 -1.5762086 0.5233382
-0.83640498 -1.5404881 0.33669871
-0.82892287 -1.5279632 0.16379817
-0.064050078 -0.049958356 7.8839731
-0.23686931 -0.40959555 3.0084324
-0.287191 -0.50371355 2.811121
-0.19787471 -0.35259628 1.3397578
-0.20580192 -0.3696095 1.0561975
-0.25675812 -0.46325719 1.037922
-0.3187702 -0.57693398 1.0407152
-0.38619807 -0.70062304 1.0344586
-0.2706463 -0.38660273 8.0010567
-0.46142316 -0.71447456 7.8895879
-0.35266736 -0.62181175 2.7898293
-0.19628778 -0.34999484 1.1454496
-0.22761981 -0.4083828 1.0305225
-0.28702182 -0.51674169 1.0370414
-0.35025752 -0.63231659 1.0319257
-0.42374748 -0.76649576 1.0277618
-0.93673819 -1.7075766 1.9937341
-0.91416293 -1.6684772 1.6164215
-0.90031987 -1.6452353 1.3142223
-0.88902098 -1.6259204 1.056572
-0.87390363 -1.5995836 0.82475281
-0.86668831 -1.5876781 0.62162226
-0.84678024 -1.552487 0.4272154
-0.83398306 -1.5302795 0.24940643
-0.92529351 -1.6811347 1.7902751
-0.90473825 -1.6458091 1.4510671
-0.89326453 -1.6262667 1.1759374
-0.88461488 -1.6125044 0.9376871
-0.8696087 -1.5864486 0.71880347
-0.85464197 -1.5604212 0.51982123
-0.83464289 -1.524528 0.33462667
-0.82945615 -1.5162944 0.16339511
-0.064224072 -0.049734473 7.8839731
-0.2379057 -0.40809527 3.0034931
-0.28894752 -0.50270802 2.811121
-0.19984002 -0.35320219 1.3445297
-0.20709084 -0.36888888 1.0561975
-0.25837362 -0.46235815 1.037922
-0.32215199 -0.57827586 1.0448482
-0.38864136 -0.69927067 1.0344586
-0.27199417 -0.38565564 8.0010567
-0.46391433 -0.71285951 7.8895879
-0.35483575 -0.62057692 2.7898293
-0.19835831 -0.35080934 1.1501424
-0.22904395 -0.40758577 1.0305225
-0.28882381 -0.51573664 1.0370414
-0.35246256 -0.63109004 1.0319257
-0.42642045 -0.76501191 1.0277618
-0.93578809 -1.6918141 1.9797159
-0.9143346 -1.6550552 1.607006
-0.89999682 -1.6310996 1.3059981
-0.88827461 -1.6111692 1.0496155
-0.87500811 -1.5884024 0.82100672
-0.86759871 -1.5762382 0.61880219
-0.84509248 -1.5366091 0.42441753
-0.83452284 -1.51863 0.24851227
-0.92572051 -1.6681004 1.7802985
-0.90459883 -1.6320351 1.4422375
-0.89475858 -1.6155965 1.170871
-0.88364756 -1.5974925 0.93139297
-0.87057257 -1.5751376 0.71551645
-0.85538405 -1.5489186 0.51747662
-0.83517295 -1.5129346 0.33324531
-0.82991803 -1.5046406 0.16299205
-0.06439729 -0.049509987 7.8839731
-0.23854029 -0.40592325 2.9936144
-0.29070053 -0.50169635 2.811121
-0.20107171 -0.3525025 1.3445297
-0.20837724 -0.36816376 1.0561975
-0.25998598 -0.46145344 1.037922
-0.32416859 -0.57714784 1.0448482
-0.3910799 -0.69790983 1.0344586
-0.27350673 -0.3849386 8.0060482
-0.46610698 -0.71079046 7.8846169
-0.35699981 -0.61933452 2.7898293
-0.19958165 -0.35011479 1.1501424
-0.23046529 -0.40678379 1.0305225
-0.29062229 -0.51472533 1.0370414
-0.35466334 -0.62985587 1.0319257
-0.42908823 -0.76351875 1.0277618
-0.93647647 -1.6791933 1.9692023
-0.91442382 -1.6416526 1.5975907
-0.89958614 -1.6169862 1.2977736
-0.88743615 -1.5964435 1.042659
-0.87379408 -1.5731802 0.81538767
-0.86843973 -1.5648112 0.61598212
-0.84568661 -1.5250579 0.42255229
-0.83499163 -1.5069958 0.24761811
-0.92424458 -1.6518255 1.7669965
-0.90437436 -1.6182824 1.4334079
-0.89408731 -1.6011723 1.1632714
-0.88258636 -1.582507 0.92509878
-0.87146807 -1.5638394 0.71222943
-0.85605633 -1.53743 0.51513195
-0.83563215 -1.501356 0.33186394
-0.82788068 -1.488636 0.16238745
-0.064569719 -0.049284894 7.8839731
-0.23916262 -0.40375173 2.983736
-0.29245004 -0.50067854 2.811121
-0.20230094 -0.35179847 1.3445297
-0.20966111 -0.36743414 1.0561975
-0.26159516 -0.4605431 1.037922
-0.32618126 -0.57601279 1.0448482
-0.39351368 -0.69654047 1.0344586
-0.27518654 -0.38444981 8.0160322
-0.46858522 -0.70915914 7.8846169
-0.35915953 -0.61808455 2.7898293
-0.20166305 -0.35091183 1.1548352
-0.23188384 -0.4059768 1.0305225
-0.29241726 -0.51370776 1.0370414
-0.35685977 -0.62861407 1.0319257
-0.4317508 -0.76201636 1.0277618
-0.9353404 -1.6634802 1.9551841
-0.91252464 -1.6248758 1.5850369
-0.89908791 -1.6028956 1.2895492
-0.8865059 -1.5817434 1.0357027
-0.87474978 -1.5620308 0.81164157
-0.86686927 -1.5492116 0.61175203
-0.84621042 -1.5135214 0.42068705
-0.83538944 -1.4953768 0.24672395
-0.924501 -1.6388334 1.7570201
-0.90406501 -1.6045514 1.4245785
-0.89332646 -1.5867726 1.155672
-0.88365591 -1.5715046 0.92090267
-0.87229538 -1.5525542 0.70894241
-0.85665888 -1.5259558 0.51278734
-0.83602095 -1.4897929 0.33048257
-0.82818514 -1.4770217 0.16198438
-0.064741358 -0.049059205 7.8839731
-0.23977271 -0.40158087 2.9738574
-0.29419595 -0.49965468 2.811121
-0.20352772 -0.35109016 1.3445297
-0.2109424 -0.36670005 1.0561975
-0.26320118 -0.45962715 1.037922
-0.32818994 -0.57487071 1.0448482
-0.39752927 -0.69794756 1.0382961
-0.2766965 -0.38372049 8.0210238
-0.4710578 -0.70751911 7.8846169
-0.36131483 -0.61682713 2.7898293
-0.20375241 -0.35169855 1.1595279
-0.23329954 -0.40516493 1.0305225
-0.29420865 -0.51268387 1.0370414
-0.35905185 -0.62736458 1.0319257
-0.43440813 -0.76050454 1.0277618
-0.93410611 -1.6477956 1.9411659
-0.91243738 -1.6115195 1.5756215
-0.89850235 -1.5888282 1.2813249
-0.8854838 -1.5670693 1.0287464
-0.87563831 -1.5508941 0.80789554
-0.86755753 -1.5378201 0.60893196
-0.84907627 -1.5062792 0.41975445
-0.83571631 -1.4837736 0.24582979
-0.92467803 -1.6258597 1.7470435
-0.90367085 -1.5908422 1.415749
-0.89460391 -1.5761467 1.1506057
-0.8824212 -1.556566 0.91460848
-0.87072706 -1.5371735 0.70401186
-0.85719174 -1.5144961 0.51044267
-0.83877766 -1.4825555 0.3297919
-0.82841867 -1.4654237 0.16158132
-0.064912215 -0.048832916 7.8839731
-0.23996933 -0.39874533 2.9590394
-0.29593825 -0.49862468 2.811121
-0.20475201 -0.35037759 1.3445297
-0.21222115 -0.36596149 1.0561975
-0.26480398 -0.4587056 1.037922
-0.33019459 -0.57372159 1.0448482
-0.39996314 -0.69655567 1.0382961
-0.27837527 -0.3832182 8.0310068
-0.47322705 -0.70542818 7.8796449
-0.36346579 -0.61556214 2.7898293
-0.20497884 -0.35098517 1.1595279
-0.23471242 -0.40434811 1.0305225
-0.29599646 -0.51165378 1.0370414
-0.36123961 -0.62610739 1.0319257
-0.43706012 -0.75898355 1.0277618
-0.93277377 -1.63214 1.9271477
-0.9122681 -1.5981836 1.5662062
-0.89782971 -1.5747846 1.2731004
-0.886563 -1.5562707 1.0241088
-0.87645984 -1.5397704 0.80414945
-0.86580527 -1.5222732 0.60470188
-0.84947473 -1.4947647 0.41788921
-0.83597243 -1.4721864 0.24493563
-0.92477596 -1.612905 1.7370671
-0.90319222 -1.5771558 1.4069196
-0.89367706 -1.5617896 1.1430061
-0.88334507 -1.5455955 0.91041237
-0.87140393 -1.5259236 0.70072484
-0.85765523 -1.5030514 0.50809807
-0.83904052 -1.4710156 0.32841054
-0.82858139 -1.4538422 0.16117826
-0.065082282 -0.048606034 7.8839731
-0.23974556 -0.39524928 2.9392827
-0.29767698 -0.49758863 2.811121
-0.20673208 -0.35094646 1.3493017
-0.21349731 -0.36521846 1.0561975
-0.26640353 -0.45777845 1.037922
-0.33078268 -0.57013166 1.0407152
-0.40239212 -0.69515532 1.0382961
-0.28005388 -0.38270891 8.0409908
-0.47568664 -0.70377207 7.8796449
-0.36561227 -0.61428964 2.7898293
-0.20707887 -0.35175428 1.1642207
-0.23722239 -0.40540493 1.0350237
-0.29778066 -0.51061743 1.0370414
-0.36342293 -0.62484264 1.0319257
-0.43970677 -0.75745332 1.0277618
-0.93134362 -1.6165141 1.9131296
-0.91201687 -1.5848688 1.5567907
-0.89706993 -1.5607655 1.264876
-0.88537145 -1.5416427 1.0171524
-0.87490702 -1.5246389 0.79853034
-0.86634135 -1.5109187 0.6018818
-0.84980321 -1.4832658 0.41602394
-0.83615792 -1.4606156 0.24404147
-0.92292607 -1.5967368 1.7237651
-0.90262896 -1.5634919 1.39809
-0.89266104 -1.5474588 1.1354066
-0.88193733 -1.5307053 0.90411824
-0.86965686 -1.5105953 0.69579428
-0.85804921 -1.491622 0.50575346
-0.83923316 -1.4594918 0.32702917
-0.83116227 -1.4466091 0.16097674
-0.065288715 -0.048401412 7.8889728
-0.2395003 -0.39175969 2.9195256
-0.2994121 -0.49654651 2.811121
-0.20795584 -0.35022271 1.3493017
-0.21477085 -0.36447099 1.0561975
-0.26799986 -0.45684579 1.037922
-0.33277082 -0.56897354 1.0407152
-0.40481624 -0.69374645 1.0382961
-0.28156021 -0.38196075 8.0459814
-0.47814032 -0.70210731 7.8796449
-0.36775431 -0.61300969 2.7898293
-0.20830546 -0.35102928 1.1642207
-0.23863606 -0.40457439 1.0350237
-0.29823914 -0.50732684 1.0327755
-0.36407745 -0.62097096 1.0279356
-0.44234815 -0.75591385 1.0277618
-0.92981583 -1.6009182 1.8991114
-0.91168392 -1.5715755 1.5473754
-0.89831984 -1.5503888 1.2593931
-0.88630819 -1.5308754 1.0125147
-0.87558073 -1.51355 0.79478431
-0.86440808 -1.4954261 0.59765172
-0.85251874 -1.4760367 0.41509131
-0.83378369 -1.4447485 0.24270025
-0.92285454 -1.5838274 1.7137885
-0.90198147 -1.5498514 1.3892606
-0.89155591 -1.5331539 1.127807
-0.88271606 -1.5197686 0.89992213
-0.86781341 -1.495298 0.69086379
-0.85593551 -1.4760035 0.50223649
-0.83935553 -1.4479851 0.3256478
-0.83119881 -1.4350528 0.16057368
-0.06545727 -0.048173215 7.8889728
-0.23923363 -0.38827673 2.8997686
-0.30114353 -0.49549833 2.811121
-0.20917708 -0.34949467 1.3493017
-0.21604177 -0.36371911 1.0561975
-0.26959291 -0.45590749 1.037922
-0.33475488 -0.56780845 1.0407152
-0.40561005 -0.68956655 1.0344586
-0.28323767 -0.38143793 8.0559654
-0.48058823 -0.70043397 7.8796449
-0.36989191 -0.61172223 2.7898293
-0.2095295 -0.35030001 1.1642207
-0.24004684 -0.40373892 1.0350237
-0.30000824 -0.50628269 1.0327755
-0.36624286 -0.61969638 1.0279356
-0.44670674 -0.757285 1.0314369
-0.92819047 -1.5853525 1.885093
-0.91126931 -1.5583036 1.5379601
-0.89739913 -1.5364118 1.2511686
-0.88494772 -1.5162948 1.0055584
-0.87385225 -1.4984704 0.78916514
-0.86237729 -1.4799654 0.59342158
-0.85272247 -1.4645616 0.41322607
-0.83381319 -1.4332201 0.24180609
-0.92270416 -1.5709379 1.703812
-0.90124977 -1.5362346 1.3804312
-0.89036167 -1.5188756 1.1202074
-0.88113594 -1.5049284 0.893628
-0.86825854 -1.484108 0.68757677
-0.85617644 -1.4646143 0.49989185
-0.83940798 -1.4364952 0.32426646
-0.83116484 -1.4235139 0.16017061
-0.065662354 -0.047967035 7.8939724
-0.23894559 -0.38480037 2.8800116
-0.30287129 -0.49444413 2.811121
-0.21039577 -0.34876236 1.3493017
-0.21731007 -0.36296275 1.0561975
-0.26995599 -0.4529067 1.0335329
-0.33673483 -0.5666365 1.0407152
-0.40801463 -0.68814653 1.0344586
-0.28474113 -0.38067749 8.060957
-0.48303029 -0.69875216 7.8796449
-0.37202492 -0.61042738 2.7898293
-0.21075101 -0.34956649 1.1642207
-0.24145468 -0.40289855 1.0350237
-0.30177364 -0.50523239 1.0327755
-0.36840376 -0.6184141 1.0279356
-0.44934741 -0.75572109 1.0314369
-0.92828071 -1.5728893 1.8745794
-0.91077328 -1.5450541 1.5285445
-0.8985135 -1.5260634 1.2456857
-0.88574255 -1.5055604 1.0009208
-0.8720293 -1.4834214 0.78354609
-0.86267883 -1.4686737 0.59060156
-0.85285664 -1.4531033 0.41136083
-0.83377236 -1.4217094 0.24091193
-0.92247522 -1.5580692 1.6938356
-0.90043402 -1.5226419 1.3716016
-0.88907897 -1.5046248 1.112608
-0.88176996 -1.4940264 0.88943189
-0.86623734 -1.4688656 0.68264627
-0.85388058 -1.4490538 0.49637488
-0.83939046 -1.4250226 0.3228851
-0.83106059 -1.4119928 0.15976755
-0.065829389 -0.047737539 7.8939724
-0.23863621 -0.38133082 2.8602545
-0.30513075 -0.49425003 2.8160164
-0.21238807 -0.34930089 1.3540736
-0.21857573 -0.36220199 1.0561975
-0.27153528 -0.45196161 1.0335329
-0.33871073 -0.56545758 1.0407152
-0.41041422 -0.68671811 1.0344586
-0.2860682 -0.37968123 8.060957
-0.48546645 -0.69706184 7.8796449
-0.37415344 -0.60912502 2.7898293
-0.21286672 -0.35030305 1.1689135
-0.2428596 -0.40205327 1.0350237
-0.3035354 -0.5041759 1.0327755
-0.37056017 -0.61712438 1.0279356
-0.45198265 -0.75414795 1.0314369
-0.9282952 -1.5604447 1.8640658
-0.91019589 -1.5318272 1.5191293
-0.89743251 -1.5121305 1.2374614
-0.88421375 -1.4910291 0.99396437
-0.87247539 -1.472392 0.7798
-0.862912 -1.4573979 0.58778149
-0.85041976 -1.4374342 0.40856299
-0.83112729 -1.4059297 0.23957069
-0.92216754 -1.5452211 1.683859
-0.89953458 -1.5090739 1.3627722
-0.88991362 -1.4941051 1.1075416
-0.88001823 -1.479238 0.88313776
-0.86653328 -1.4577148 0.67935926
-0.85396898 -1.4377065 0.49403024
-0.83930308 -1.4135679 0.32150373
-0.83088601 -1.40049 0.15936449
-0.065995626 -0.047507461 7.8939724
-0.23872061 -0.37852496 2.8454366
-0.30685416 -0.49318191 2.8160164
-0.21360604 -0.34855738 1.3540736
-0.21983874 -0.36143681 1.0561975
-0.27311128 -0.451011 1.0335329
-0.34068248 -0.56427187 1.0407152
-0.41280878 -0.68528134 1.0344586
-0.28756714 -0.37890968 8.0659485
-0.48789665 -0.69536299 7.8796449
-0.37627742 -0.60781527 2.7898293
-0.2140882 -0.34955788 1.1689135
-0.24426153 -0.40120307 1.0350237
-0.30529347 -0.50311327 1.0327755
-0.37271211 -0.61582714 1.0279356
-0.45461237 -0.75256568 1.0314369
-0.92823428 -1.5480195 1.8535522
-0.90953726 -1.5186231 1.5097139
-0.89626521 -1.4982237 1.229237
-0.88486719 -1.480329 0.98932678
-0.87047797 -1.4573976 0.77418089
-0.86061859 -1.4420192 0.58355141
-0.85040015 -1.426019 0.40669775
-0.83093137 -1.3944638 0.23867653
-0.92178178 -1.5323944 1.6738826
-0.89855129 -1.4955305 1.3539426
-0.88846684 -1.479902 1.0999421
-0.87817395 -1.4644803 0.87684357
-0.8667621 -1.4465797 0.67607224
-0.85149169 -1.4222058 0.49051329
-0.83914608 -1.4021312 0.32012239
-0.83064127 -1.3890057 0.15896143
-0.066161059 -0.047276802 7.8939724
-0.23920572 -0.37637857 2.8355582
-0.30857381 -0.49210781 2.8160164
-0.21560647 -0.34907922 1.3588457
-0.22212066 -0.36233243 1.0608001
-0.27468395 -0.45005494 1.0335329
-0.34265009 -0.56307924 1.0407152
-0.41519833 -0.68383616 1.0344586
-0.2890642 -0.37813231 8.07094
-0.49062929 -0.6940906 7.8846169
-0.37839678 -0.60649812 2.7898293
-0.21530709 -0.34880844 1.1689135
-0.24452145 -0.39849284 1.0305225
-0.30704781 -0.50204456 1.0327755
-0.37485945 -0.6145224 1.0279356
-0.4554733 -0.74807864 1.0277618
-0.92994273 -1.5386659 1.8465432
-0.90879786 -1.5054426 1.5002986
-0.8950119 -1.4843438 1.2210126
-0.8831706 -1.4658484 0.98237038
-0.87077761 -1.4464067 0.77043486
-0.86070126 -1.4307851 0.58073127
-0.85031128 -1.4146215 0.40483251
-0.83066559 -1.3830166 0.23778237
-0.92131758 -1.5195893 1.663906
-0.89957851 -1.4854702 1.3480563
-0.88916355 -1.4694154 1.0948756
-0.87858522 -1.4536376 0.87264746
-0.86692381 -1.4354612 0.67278522
-0.85142821 -1.4109019 0.48816866
-0.83636165 -1.3864725 0.31805035
-0.83032656 -1.3775401 0.15855835
-0.066325679 -0.047045574 7.8939724
-0.24051808 -0.3755413 2.8355582
-0.31028971 -0.49102768 2.8160164
-0.21682368 -0.34832451 1.3588457
-0.22338408 -0.36155489 1.0608001
-0.27625325 -0.44909337 1.0335329
-0.34461349 -0.56187969 1.0407152
-0.41758284 -0.6823827 1.0344586
-0.29055926 -0.37734911 8.0759325
-0.49304911 -0.69237369 7.8846169
-0.37984216 -0.60410976 2.7849901
-0.21743551 -0.34951964 1.1736063
-0.24591096 -0.39763686 1.0305225
-0.31016725 -0.50318956 1.0370414
-0.37700224 -0.61321014 1.0279356
-0.45808178 -0.74648422 1.0277618
-0.92974174 -1.5262736 1.8360294
-0.90797734 -1.4922857 1.4908831
-0.89367265 -1.4704907 1.2127882
-0.8836832 -1.4551841 0.97773278
-0.87101114 -1.4354317 0.76668876
-0.8607161 -1.4195682 0.5779112
-0.84760785 -1.3990407 0.40203464
-0.83033013 -1.3715882 0.23688821
-0.92077529 -1.5068063 1.6539296
-0.89844048 -1.4719709 1.339227
-0.88979793 -1.4589422 1.0898093
-0.87657028 -1.4389342 0.86635327
-0.86701858 -1.4243591 0.66949821
-0.85129619 -1.3996156 0.48582402
-0.83605087 -1.375082 0.31666899
-0.82994199 -1.3660939 0.15815529
-0.066489495 -0.046813764 7.8939724
-0.24140558 -0.37404701 2.8306189
-0.31200182 -0.48994157 2.8160164
-0.21803823 -0.34756553 1.3588457
-0.2246448 -0.36077294 1.0608001
-0.27908158 -0.45016155 1.037922
-0.34657273 -0.56067336 1.0407152
-0.41996232 -0.6809209 1.0344586
-0.29187471 -0.37633255 8.0759325
-0.49577418 -0.69108111 7.8895879
-0.38194856 -0.60278016 2.7849901
-0.21865423 -0.34875855 1.1736063
-0.24729748 -0.39677608 1.0305225
-0.31192183 -0.50210387 1.0370414
-0.37914047 -0.61189044 1.0279356
-0.46068472 -0.74488068 1.0277618
-0.92946589 -1.5139016 1.8255159
-0.90707618 -1.4791533 1.4814678
-0.89443183 -1.4602308 1.2073052
-0.88181961 -1.4407558 0.97077638
-0.86876011 -1.420518 0.76106972
-0.86066318 -1.4083687 0.57509118
-0.84736615 -1.3876886 0.4001694
-0.83251894 -1.3644304 0.23644114
-0.92015511 -1.4940455 1.6439531
-0.8972193 -1.4584976 1.3303974
-0.89037013 -1.4484825 1.0847429
-0.87683839 -1.4281304 0.86215717
-0.86704624 -1.4132738 0.66621119
-0.85363609 -1.3924916 0.48465171
-0.83567077 -1.3637105 0.31528762
-0.8320967 -1.358928 0.15795377
-0.06661471 -0.046559576 7.8889728
-0.24270977 -0.37320206 2.8306189
-0.31371015 -0.48884949 2.8160164
-0.22004843 -0.34806362 1.3636177
-0.22486372 -0.35833216 1.0561975
-0.28065124 -0.44918466 1.037922
-0.34852773 -0.55946022 1.0407152
-0.42233655 -0.67945081 1.0344586
-0.29318658 -0.37531143 8.0759325
-0.49818349 -0.68934631 7.8895879
-0.38405034 -0.60144323 2.7849901
-0.2198703 -0.34799317 1.1736063
-0.24868096 -0.39591041 1.0305225
-0.31367263 -0.50101197 1.0370414
-0.38127404 -0.61056328 1.0279356
-0.46328202 -0.74326807 1.0277618
-0.92911482 -1.5015502 1.8150022
-0.90609449 -1.4660451 1.4720525
-0.89293361 -1.4464258 1.1990808
-0.88219202 -1.4301286 0.96613878
-0.86884815 -1.4095839 0.75732362
-0.8605426 -1.3971868 0.57227111
-0.84705549 -1.3763555 0.39830416
-0.8320592 -1.353032 0.23554698
-0.91945714 -1.4813077 1.6339766
-0.89804512 -1.4484864 1.3245111
-0.89088029 -1.4380367 1.0796765
-0.87942988 -1.4212016 0.86005914
-0.86700726 -1.4022059 0.66292417
-0.85338193 -1.3812333 0.48230708
-0.83522159 -1.3523586 0.31390625
-0.83158767 -1.3475121 0.15755071
-0.066776827 -0.04632676 7.8889728
-0.244011 -0.3723526 2.8306189
-0.31541461 -0.48775145 2.8160164
-0.22206475 -0.3485519 1.3683896
-0.22611317 -0.35754505 1.0561975
-0.28221747 -0.44820225 1.037922
-0.35047847 -0.55824018 1.0407152
-0.42470571 -0.67797244 1.0344586
-0.29449487 -0.37428573 8.0759325
-0.50058669 -0.68760318 7.8895879
-0.38682795 -0.60115576 2.7898293
-0.22201113 -0.3486788 1.178299
-0.25006145 -0.39503995 1.0305225
-0.31541958 -0.49991399 1.0370414
-0.38340297 -0.60922861 1.0279356
-0.46587369 -0.74164635 1.0277618
-0.92868906 -1.4892199 1.8044887
-0.90709043 -1.4562658 1.4657755
-0.89355916 -1.4361995 1.1935979
-0.88250083 -1.4195164 0.96150118
-0.86887044 -1.3986667 0.75357759
-0.86035448 -1.3860232 0.56945103
-0.84667617 -1.3650414 0.39643893
-0.83153015 -1.3416536 0.23465282
-0.92066181 -1.4717584 1.6273257
-0.89666998 -1.4350594 1.3156817
-0.88904518 -1.4239485 1.072077
-0.87958205 -1.4104211 0.85586303
-0.8669017 -1.3911556 0.65963709
-0.85562891 -1.37412 0.48113477
-0.83732015 -1.3452308 0.31321558
-0.83100915 -1.3361164 0.15714765
-0.066938125 -0.046093386 7.8889728
-0.24530926 -0.37149855 2.8306189
-0.31711525 -0.48664749 2.8160164
-0.22328007 -0.34777462 1.3683896
-0.22735986 -0.35675359 1.0561975
-0.28378028 -0.44721439 1.037922
-0.35242498 -0.55701339 1.0407152
-0.42878103 -0.679196 1.0382961
-0.29579958 -0.37325546 8.0759325
-0.50298387 -0.68585157 7.8895879
-0.38892403 -0.59980178 2.7898293
-0.2232269 -0.3479017 1.178299
-0.25143886 -0.39416468 1.0305225
-0.31716266 -0.49880993 1.0370414
-0.38552725 -0.60788661 1.0279356
-0.4702732 -0.74287993 1.0314369
-0.92818844 -1.4769108 1.7939749
-0.90595967 -1.4432009 1.4563601
-0.89412427 -1.4259866 1.188115
-0.8827464 -1.4089197 0.95686358
-0.86882722 -1.3877666 0.7498315
-0.86009908 -1.3748778 0.56663096
-0.84622824 -1.3537469 0.39457369
-0.83093184 -1.3302953 0.23375866
-0.91981965 -1.4590603 1.617349
-0.89736611 -1.4250802 1.3097954
-0.88941866 -1.4135394 1.0670106
-0.87966967 -1.399657 0.85166693
-0.864218 -1.3761241 0.6547066
-0.85525292 -1.3628908 0.47879013
-0.83674777 -1.3339097 0.31183422
-0.83036131 -1.3247414 0.15674458
-0.067098618 -0.045859449 7.8889728
-0.24660455 -0.37064001 2.8306189
-0.31825274 -0.48468673 2.811121
-0.22530414 -0.34824601 1.3731616
-0.22754748 -0.3543143 1.051595
-0.28533962 -0.44622108 1.037922
-0.35588038 -0.55815238 1.0448482
-0.43114924 -0.6776951 1.0382961
-0.29691979 -0.37199569 8.07094
-0.50505757 -0.68366343 7.8846169
-0.39101535 -0.59844059 2.7898293
-0.22443995 -0.3471204 1.178299
-0.25399089 -0.39511549 1.0350237
-0.31749448 -0.49550414 1.0327755
-0.38764682 -0.60653716 1.0279356
-0.47286347 -0.74123383 1.0314369
-0.92761332 -1.4646236 1.7834612
-0.90474886 -1.4301621 1.4469448
-0.894629 -1.4157872 1.1826321
-0.88292891 -1.3983386 0.95222592
-0.86871856 -1.376884 0.74608546
-0.85977626 -1.3637513 0.56381088
-0.84571183 -1.3424722 0.39270842
-0.83026445 -1.3189578 0.2328645
-0.91890019 -1.4463861 1.6073725
-0.89583755 -1.4117006 1.3009658
-0.88742167 -1.3995045 1.0594112
-0.87969303 -1.3889097 0.84747082
-0.86396563 -1.3651189 0.65141958
-0.85740715 -1.3557891 0.47761783
-0.83875275 -1.326795 0.31114352
-0.8296442 -1.3133872 0.15634152
-0.067258283 -0.045624949 7.8889728
-0.24789682 -0.36977693 2.8306189
-0.31994265 -0.4835729 2.811121
-0.22733422 -0.3487075 1.3779337
-0.22772084 -0.35187808 1.0469925
-0.28689548 -0.44522235 1.037922
-0.35782656 -0.5569067 1.0448482
-0.43351221 -0.67618597 1.0382961
-0.29803479 -0.37073261 8.0659485
-0.50744092 -0.68189627 7.8846169
-0.39310193 -0.59707201 2.7898293
-0.22659291 -0.34778029 1.1829917
-0.25536856 -0.39422646 1.0350237
-0.31922218 -0.49439287 1.0327755
-0.38976169 -0.60518032 1.0279356
-0.47544798 -0.73957872 1.0314369
-0.92696387 -1.4523585 1.7729477
-0.90345806 -1.4171489 1.4375293
-0.89507329 -1.4056017 1.1771491
-0.88067007 -1.3840361 0.94526953
-0.86854452 -1.366019 0.74233937
-0.85938638 -1.352644 0.56099087
-0.84512711 -1.3312178 0.39084318
-0.83219576 -1.3118464 0.23241742
-0.91790348 -1.4337364 1.5973961
-0.89640439 -1.4017545 1.2950795
-0.88765895 -1.3891335 1.0543448
-0.8772102 -1.3743536 0.84117669
-0.86364686 -1.3541322 0.64813256
-0.85690981 -1.3445898 0.47527319
-0.83805758 -1.3155062 0.30976218
-0.82885808 -1.3020543 0.15593846
-0.067417137 -0.045389898 7.8889728
-0.24918607 -0.36890936 2.8306189
-0.32106349 -0.48160625 2.8062258
-0.22855005 -0.3479118 1.3779337
-0.22894774 -0.35108104 1.0469925
-0.28844786 -0.44421822 1.037922
-0.35976836 -0.55565429 1.0448482
-0.43586987 -0.67466861 1.0382961
-0.29914463 -0.36946633 8.060957
-0.50981814 -0.68012077 7.8846169
-0.39518368 -0.59569621 2.7898293
-0.2278055 -0.34698722 1.1829917
-0.2567431 -0.39333269 1.0350237
-0.32094601 -0.49327555 1.0327755
-0.39023107 -0.60128868 1.0239457
-0.47802669 -0.73791462 1.0314369
-0.92624015 -1.4401158 1.7624339
-0.90419149 -1.4074373 1.4312525
-0.89545768 -1.3954306 1.1716661
-0.8807134 -1.3734955 0.94063193
-0.86830533 -1.3551722 0.73859328
-0.86151612 -1.345596 0.5595808
-0.84712148 -1.3241217 0.38991058
-0.83140516 -1.3005418 0.23152326
-0.91885418 -1.4242488 1.5907451
-0.89472318 -1.3884243 1.2862499
-0.88550073 -1.3751533 1.0467453
-0.87709188 -1.3636492 0.83698058
-0.86326206 -1.3431643 0.64484555
-0.85634494 -1.333411 0.47292855
-0.83729386 -1.3042384 0.30838081
-0.82800293 -1.2907429 0.1555354
-0.067575164 -0.045154288 7.8889728
-0.25047228 -0.36803728 2.8306189
-0.32274264 -0.48048261 2.8062258
-0.2305876 -0.34835625 1.3827057
-0.23017186 -0.35027972 1.0469925
-0.28999671 -0.44320861 1.037922
-0.36170575 -0.55439502 1.0448482
-0.43822229 -0.67314309 1.0382961
-0.30006599 -0.36797369 8.0509739
-0.51218909 -0.6783371 7.8846169
-0.39726067 -0.59431309 2.7898293
-0.22901532 -0.34618992 1.1829917
-0.25691774 -0.39061561 1.0305225
-0.3226659 -0.49215224 1.0327755
-0.39232758 -0.59992284 1.0239457
-0.48059961 -0.73624152 1.0314369
-0.92350268 -1.4249035 1.7484158
-0.90275288 -1.3944707 1.4218372
-0.8935113 -1.3817627 1.1634418
-0.88069409 -1.3629718 0.93599433
-0.86800104 -1.3443437 0.73484725
-0.86100644 -1.3345187 0.55676073
-0.84641492 -1.3128994 0.38804534
-0.83324295 -1.2934452 0.23107618
-0.91771442 -1.4116416 1.5807685
-0.89516133 -1.3785127 1.2803636
-0.88560236 -1.3648217 1.0416789
-0.87690949 -1.3529623 0.83278447
-0.86537832 -1.3361794 0.64320201
-0.85571241 -1.3222525 0.47058392
-0.83646166 -1.292992 0.30699944
-0.82979125 -1.2836491 0.15533386
-0.067732371 -0.044918135 7.8889728
-0.25219542 -0.36780113 2.8355582
-0.32441789 -0.47935307 2.8062258
-0.2318022 -0.3475492 1.3827057
-0.23031399 -0.34784558 1.04239
-0.29154202 -0.44219363 1.037922
-0.36363876 -0.55312908 1.0448482
-0.43881094 -0.6689294 1.0344586
-0.3009806 -0.36647913 8.0409908
-0.51455379 -0.67654508 7.8846169
-0.39933279 -0.59292281 2.7898293
-0.23118009 -0.34682393 1.1876845
-0.25827971 -0.38971642 1.0305225
-0.32438186 -0.49102291 1.0327755
-0.39441931 -0.59854972 1.0239457
-0.48316661 -0.73455936 1.0314369
-0.92067021 -1.4097279 1.7343976
-0.9033615 -1.3847911 1.4155602
-0.89376336 -1.3716289 1.1579589
-0.88061208 -1.3524649 0.93135673
-0.8701601 -1.3374199 0.73297417
-0.8630448 -1.3274834 0.55535072
-0.84564042 -1.3016983 0.3861801
-0.83232969 -1.2821747 0.23018204
-0.91649818 -1.3990601 1.5707921
-0.89332819 -1.3652332 1.2715342
-0.88564277 -1.3545063 1.0366125
-0.87666315 -1.3422934 0.82858837
-0.8648755 -1.3252414 0.63991499
-0.85501242 -1.3111145 0.46823925
-0.83826566 -1.2859159 0.30630878
-0.82881325 -1.2723725 0.1549308
-0.067888752 -0.04468143 7.8889728
-0.25347775 -0.36691856 2.8355582
-0.3266632 -0.47905865 2.811121
-0.23384714 -0.34797645 1.3874776
-0.23152679 -0.34703949 1.04239
-0.29308382 -0.44117326 1.037922
-0.3640129 -0.5495106 1.0407152
-0.4411433 -0.66739357 1.0344586
-0.30188844 -0.36498266 8.0310068
-0.51691222 -0.67474478 7.8846169
-0.4014 -0.59152526 2.7898293
-0.23238933 -0.34601483 1.1876845
-0.25963849 -0.38881248 1.0305225
-0.32609385 -0.48988762 1.0327755
-0.39650625 -0.59716928 1.0239457
-0.48385465 -0.7300427 1.0277618
-0.91774333 -1.3945897 1.7203795
-0.90391362 -1.3751246 1.4092834
-0.89166045 -1.3580149 1.1497345
-0.88046736 -1.3419752 0.92671913
-0.86973959 -1.3266203 0.72922814
-0.86241567 -1.3164374 0.55253065
-0.84748852 -1.2946285 0.38524747
-0.83407408 -1.275094 0.22973496
-0.91520512 -1.3865042 1.5608156
-0.89363819 -1.3553575 1.2656479
-0.88562191 -1.344207 1.0315461
-0.87635326 -1.3316429 0.82439226
-0.86690158 -1.318269 0.63827151
-0.85424531 -1.2999978 0.46589461
-0.83731163 -1.274704 0.30492741
-0.83050817 -1.265295 0.15472928
-0.068044305 -0.044444181 7.8889728
-0.25475702 -0.36603153 2.8355582
-0.32833344 -0.47791547 2.811121
-0.23506039 -0.34715807 1.3874776
-0.23273677 -0.3462292 1.04239
-0.29328933 -0.43815759 1.0335329
-0.36592883 -0.54823661 1.0407152
-0.44347027 -0.66584963 1.0344586
-0.30278951 -0.36348438 8.0210238
-0.5192644 -0.67293632 7.8846169
-0.40275261 -0.58908314 2.7849901
-0.23456344 -0.34663033 1.1923773
-0.26099411 -0.38790381 1.0305225
-0.32780191 -0.48874635 1.0327755
-0.39858836 -0.59578162 1.0239457
-0.48640001 -0.72834921 1.0277618
-0.89501268 -1.3497679 1.6713158
-0.90225977 -1.3622259 1.3998679
-0.89178079 -1.3479196 1.1442515
-0.88026035 -1.3315032 0.92208159
-0.86925435 -1.3158402 0.72548205
-0.86172009 -1.3054122 0.54971057
-0.84659278 -1.2834613 0.38338223
-0.83303863 -1.2638588 0.2288408
-0.91590357 -1.3770833 1.5541645
-0.89389014 -1.3454965 1.2597615
-0.88554001 -1.3339247 1.0264798
-0.87597966 -1.3210108 0.82019615
-0.86628103 -1.3073622 0.63498449
-0.85341096 -1.2889026 0.46355
-0.83628958 -1.2635145 0.30354607
-0.82940793 -1.2540543 0.15432622
-0.068199031 -0.044206392 7.8889728
-0.25603312 -0.36514005 2.8355582
-0.32999969 -0.47676647 2.811121
-0.23711258 -0.34756812 1.3922496
-0.23394394 -0.3454147 1.04239
-0.294817 -0.43713114 1.0335329
-0.36784029 -0.54695594 1.0407152
-0.44579181 -0.66429752 1.0344586
-0.30368373 -0.36198422 8.0110407
-0.5216102 -0.67111969 7.8846169
-0.40480644 -0.58767372 2.7849901
-0.23674469 -0.34723485 1.19707
-0.26234657 -0.3869904 1.0305225
-0.32950598 -0.48759916 1.0327755
-0.40066558 -0.59438664 1.0239457
-0.48893949 -0.72664696 1.0277618
-0.86999917 -1.302157 1.6187476
-0.90268791 -1.3525931 1.393591
-0.88952225 -1.3343611 1.1360271
-0.87999099 -1.3210491 0.91744399
-0.86870444 -1.3050797 0.72173601
-0.8609581 -1.294408 0.54689056
-0.84834874 -1.2764075 0.38244963
-0.83469015 -1.2567948 0.22839372
-0.914469 -1.3645731 1.5441881
-0.89408427 -1.3356504 1.2538751
-0.88539726 -1.3236593 1.0214134
-0.87806398 -1.3141713 0.81809807
-0.86559504 -1.2964758 0.63169748
-0.85250968 -1.2778291 0.46120536
-0.83519977 -1.2523478 0.3021647
-0.82823932 -1.2428368 0.15392315
-0.068352923 -0.043968063 7.8889728
-0.25685728 -0.36360988 2.8306189
-0.33107907 -0.47477677 2.8062258
-0.23832437 -0.34673831 1.3922496
-0.23625001 -0.34620932 1.0469925
-0.29634106 -0.43609938 1.0335329
-0.36974731 -0.5456686 1.0407152
-0.4481079 -0.66273743 1.0344586
-0.30457124 -0.36048225 8.0010567
-0.52394968 -0.66929477 7.8846169
-0.40685537 -0.5862571 2.7849901
-0.238933 -0.34782833 1.2017628
-0.26369581 -0.38607228 1.0305225
-0.33120596 -0.48644599 1.0327755
-0.40273795 -0.59298444 1.0239457
-0.49147296 -0.72493583 1.0277618
-0.90305972 -1.3429742 1.3873141
-0.88951147 -1.3243058 1.1305442
-0.87965935 -1.310613 0.91280639
-0.87067252 -1.2981893 0.719863
-0.85745919 -1.27944 0.54266042
-0.8473323 -1.2652754 0.38058439
-0.83353287 -1.2455961 0.22749956
-0.91504747 -1.3551838 1.537537
-0.89422053 -1.3258194 1.2479889
-0.88519365 -1.3134114 1.0163471
-0.87757665 -1.3035686 0.81390196
-0.8674795 -1.2895283 0.630054
-0.85425329 -1.2708116 0.46003303
-0.83404219 -1.2412044 0.30078334
-0.82978755 -1.2357905 0.15372162
-0.068505988 -0.043729201 7.8889728
-0.25812495 -0.36271107 2.8306189
-0.33273432 -0.47361821 2.8062258
-0.23953328 -0.34590429 1.3922496
-0.23745707 -0.34538254 1.0469925
-0.29786155 -0.43506229 1.0335329
-0.37164977 -0.54437464 1.0407152
-0.45041853 -0.66116917 1.0344586
-0.30545196 -0.35897851 7.9910736
-0.52628273 -0.66746181 7.8846169
-0.40889928 -0.58483326 2.7849901
-0.24014568 -0.34699214 1.2017628
-0.26504183 -0.38514948 1.0305225
-0.33290198 -0.48528689 1.0327755
-0.40310344 -0.58908844 1.0199556
-0.49400046 -0.72321582 1.0277618
-0.61080658 -0.90057391 1.1491385
-0.90119213 -1.3301467 1.3778987
-0.88944143 -1.314267 1.1250613
-0.87926561 -1.3001957 0.90816879
-0.87000728 -1.2874601 0.71611691
-0.85655087 -1.268488 0.53984034
-0.84624857 -1.2541659 0.37871915
-0.83509165 -1.2385498 0.22705248
-0.91557181 -1.3458074 1.5308859
-0.89429927 -1.3160039 1.2421026
-0.8849293 -1.3031811 1.0112808
-0.8770262 -1.2929854 0.80970585
-0.86667657 -1.2786747 0.62676698
-0.8532325 -1.2597731 0.45768842
-0.83559346 -1.2341849 0.30009267
-0.82849723 -1.2246106 0.15331855
-0.06865821 -0.043489803 7.8889728
-0.25938946 -0.36180785 2.8306189
-0.33438554 -0.47245386 2.8062258
-0.24159394 -0.34628987 1.3970217
-0.23866124 -0.34455156 1.0469925
-0.2993784 -0.43401992 1.0335329
-0.37354773 -0.54307401 1.0407152
-0.45272371 -0.65959287 1.0344586
-0.30632591 -0.35747302 7.9810901
-0.52827734 -0.66520363 7.8796449
-0.41093826 -0.58340245 2.7849901
-0.24234304 -0.34756693 1.2064556
-0.26638466 -0.38422197 1.0305225
-0.33459392 -0.48412189 1.0327755
-0.40515727 -0.58767778 1.0199556
-0.49652198 -0.72148705 1.0277618
-0.58577496 -0.85721576 1.1000748
-0.90144062 -1.3205636 1.3716217
-0.88931215 -1.304245 1.1195784
-0.88130438 -1.2934576 0.90584999
-0.86927778 -1.2767513 0.71237087
-0.85557663 -1.257558 0.53702027
-0.84785938 -1.247142 0.37778652
-0.83381307 -1.2273886 0.22615832
-0.91393077 -1.3333644 1.5209095
-0.89432031 -1.3062038 1.2362163
-0.88460445 -1.2929686 1.0062144
-0.87897336 -1.2861692 0.80760783
-0.86580843 -1.2678425 0.62347996
-0.85214514 -1.2487574 0.45534378
-0.83431524 -1.2230787 0.2987113
-0.82995296 -1.2175829 0.15311703
-0.068770789 -0.043229941 7.8839731
-0.26019534 -0.36027071 2.8256795
-0.33603266 -0.47128376 2.8062258
-0.24366018 -0.34666523 1.4017936
-0.2398625 -0.34371638 1.0469925
-0.30089155 -0.43297225 1.0335329
-0.37383801 -0.5394541 1.0365824
-0.45502338 -0.65800864 1.0344586
-0.30700365 -0.35574794 7.9661155
-0.53059614 -0.66335553 7.8796449
-0.41297218 -0.58196443 2.7849901
-0.24355479 -0.34671888 1.2064556
-0.26772422 -0.38328975 1.0305225
-0.33628181 -0.48295102 1.0327755
-0.40720621 -0.5862599 1.0199556
-0.49903738 -0.71974945 1.0277618
-0.57865101 -0.84047937 1.0825521
-0.9016332 -1.3109949 1.3653449
-0.88912386 -1.2942398 1.1140954
-0.88079983 -1.2830695 0.90121239
-0.87110674 -1.2698863 0.7104978
-0.8572489 -1.2506073 0.53561026
-0.84665567 -1.2360694 0.37592128
-0.83527952 -1.220361 0.22571123
-0.91433591 -1.3240215 1.5142586
-0.89428383 -1.2964199 1.23033
-0.88421911 -1.2827744 1.001148
-0.87830967 -1.275617 0.80341172
-0.86487526 -1.2570318 0.62019289
-0.85099143 -1.2377647 0.45299914
-0.8357746 -1.2160779 0.29802063
-0.82854146 -1.206442 0.15271397
-0.068921275 -0.042989623 7.8839731
-0.26145133 -0.35936025 2.8256795
-0.33767572 -0.47010791 2.8062258
-0.24573202 -0.3470304 1.4065655
-0.24106081 -0.342877 1.0469925
-0.3024011 -0.43191931 1.0335329
-0.37571877 -0.5381459 1.0365824
-0.45548499 -0.65378654 1.0306211
-0.30786327 -0.3542397 7.9561324
-0.53290844 -0.66149938 7.8796449
-0.41500112 -0.58051932 2.7849901
-0.24476358 -0.34586659 1.2064556
-0.26906049 -0.38235289 1.0305225
-0.33796558 -0.48177421 1.0327755
-0.40925011 -0.58483493 1.0199556
-0.50154674 -0.71800315 1.0277618
-0.5632866 -0.81208265 1.0510111
-0.90177006 -1.301441 1.3590679
-0.8888765 -1.2842519 1.1086124
-0.88023335 -1.2727007 0.8965748
-0.8702625 -1.2592103 0.70675176
-0.856157 -1.2397128 0.53279018
-0.84538502 -1.2250205 0.37405604
-0.83387995 -1.2092385 0.22481708
-0.91255444 -1.3116271 1.504282
-0.89188331 -1.2833331 1.2215005
