# .PCD v0.7 - Point Cloud Data file format
VERSION 0.7
FIELDS x y z
SIZE 4 4 4
TYPE F F F
COUNT 1 1 1
WIDTH 1498
HEIGHT 1
VIEWPOINT 0 0 0 1 0 0 0
POINTS 1498
DATA ascii
-0.9463582 1.304346 1.8252726
-0.93859076 1.2846677 1.6432794
-0.90025425 1.2308555 1.3119911
-0.87823325 1.1994444 1.0592661
-0.86486429 1.1803333 0.8525176
-0.85304004 1.1633561 0.6711641
-0.8430711 1.1489321 0.50881964
-0.82862312 1.1284245 0.35726887
-0.82557458 1.1234636 0.21811089
-0.91883308 1.2613252 1.471027
-0.88988411 1.2202569 1.1832393
-0.87015522 1.1923405 0.95301759
-0.86008906 1.1772645 0.76145065
-0.85036927 1.1631203 0.59060973
-0.81805789 1.1181175 0.42486352
-0.82177973 1.122802 0.28627905
-0.82937181 1.1323588 0.1502956
-0.015050007 0.058933645 5.5340629
-0.89444005 1.2953653 10.00736
-1.1458006 1.6370507 9.6301727
-1.5994263 2.2527533 8.8794928
-1.0246652 1.4325606 4.2089267
-0.65700722 0.91445625 2.1308026
-0.82290781 1.1420871 2.1400795
-0.95621175 1.3242261 2.0322096
-0.17073959 0.298343 5.7847605
-0.70050293 1.12901 12.349027
-1.4303337 2.0332203 9.6085787
-1.3178918 1.8548373 6.2417936
-0.64658457 0.90458125 2.3628819
-0.72899336 1.0165657 2.1163228
-0.89685321 1.2474982 2.1092322
-0.94774282 1.3158944 1.8362979
-0.94038165 1.296597 1.653793
-0.90052569 1.2402898 1.3182681
-0.87895781 1.2092676 1.064749
-0.86334461 1.1869274 0.85483634
-0.85443038 1.173823 0.67491019
-0.8418799 1.1557454 0.51022971
-0.83046639 1.1392492 0.35913411
-0.82458287 1.1303619 0.21855797
-0.91880023 1.2705761 1.4776781
-0.89035952 1.2299043 1.1891258
-0.8685168 1.1988616 0.95555079
-0.86130327 1.1876075 0.76564676
-0.85185122 1.173725 0.59389675
-0.8312878 1.1445632 0.43189743
-0.82076615 1.12967 0.28696972
-0.82835209 1.1392877 0.15049712
-0.014832824 0.058899298 5.5240631
-0.8899129 1.2984796 10.00736
-1.1400793 1.6410403 9.6301727
-1.6061697 2.2790661 8.9606161
-0.99025548 1.3947088 4.0892611
-0.65381116 0.91674405 2.1308026
-0.82055312 1.1472416 2.1442127
-0.96091956 1.340582 2.0513971
-0.16941458 0.29843366 5.7747774
-0.69934845 1.1359899 12.398742
-1.4232279 2.0382009 9.6085787
-1.3163816 1.8664777 6.2652574
-0.63712549 0.89795476 2.3403757
-0.7254405 1.0191041 2.1163228
-0.89424348 1.253074 2.1132224
-0.94708687 1.3247104 1.8436482
-0.94418424 1.3114488 1.6678112
-0.903018 1.2528988 1.3276834
-0.87717789 1.2157193 1.0674905
-0.86178923 1.1935252 0.85715514
-0.85304284 1.1805562 0.6767832
-0.84346217 1.1664517 0.51304972
-0.83224392 1.1501002 0.36099935
-0.82647377 1.1413002 0.21945213
-0.92089117 1.2828754 1.4876546
-0.89077824 1.2395695 1.1950121
-0.86936015 1.2088858 0.96061713
-0.85980421 1.1942903 0.76774484
-0.85050929 1.1805228 0.59554029
-0.83297265 1.1553435 0.43424204
-0.81681794 1.1325282 0.28696972
-0.82729399 1.1462232 0.15069866
-0.014616062 0.058864158 5.5140638
-0.88581175 1.3022206 10.0123
-1.134344 1.6450099 9.6301727
-1.6110376 2.3030069 9.032196
-1.0146391 1.4396791 4.2089267
-0.65060717 0.91902077 2.1308026
-0.8181724 1.1523933 2.1483455
-0.96738285 1.3595983 2.0744221
-0.1682314 0.29877093 5.7697859
-0.69510132 1.137969 12.39377
-1.4161046 2.0431564 9.6085787
-1.3197539 1.8851991 6.3121853
-0.72187865 1.0216302 2.1163228
-0.88986397 1.2561879 2.1132224
-0.94638091 1.3335379 1.8509985
-0.94582111 1.3234413 1.6783249
-0.9031685 1.2623745 1.3339603
-0.87779832 1.2255727 1.0729734
-0.86277896 1.2037272 0.86179274
-0.85432065 1.1910607 0.6805293
-0.84497982 1.1771829 0.5158698
-0.83109009 1.156988 0.36193198
-0.82539153 1.148222 0.21989921
-0.92074066 1.2921638 1.4943056
-0.89114034 1.2492528 1.2008984
-0.87014419 1.2189302 0.96568352
-0.86090767 1.2046696 0.77194095
-0.85187703 1.1911664 0.5988273
-0.83742112 1.1701021 0.43775901
-0.81574237 1.1393989 0.28766042
-0.8261975 1.1531652 0.15090019
-0.014399728 0.05882822 5.5040636
-0.88169545 1.3059489 10.01724
-1.1285949 1.6489595 9.6301727
-1.6089476 2.3171995 9.0655994
-1.0028893 1.4336066 4.1813116
-0.64739525 0.92128617 2.1308026
-0.8125239 1.1529421 2.1442127
-0.9644801 1.365585 2.0782597
-0.16690844 0.29885086 5.7598023
-0.69278026 1.1431251 12.423599
-1.4089639 2.0480871 9.6085787
-1.3062729 1.8798738 6.279336
-1.051109 1.5037016 3.8572848
-0.71830815 1.0241438 2.1163228
-0.88720667 1.2617514 2.1172123
-0.94757694 1.3451481 1.8620242
-0.94532239 1.3325522 1.685334
-0.90551734 1.2750401 1.3433758
-0.87836051 1.2354454 1.0784563
-0.86370796 1.2139506 0.86643034
-0.85553545 1.2015886 0.68427533
-0.84364909 1.1840321 0.51727986
-0.83275008 1.1678813 0.36379722
-0.82427108 1.1551498 0.22034629
-0.9226926 1.3045151 1.504282
-0.89144558 1.2589535 1.2067847
-0.87086856 1.228995 0.97074991
-0.8593232 1.211369 0.77403903
-0.85318083 1.201834 0.60211432
-0.8389616 1.1809431 0.44010365
-0.81176019 1.1422395 0.28766042
-0.82506269 1.1601135 0.15110172
-0.014189057 0.058834806 5.499064
-0.87756377 1.3096641 10.022179
-1.1228321 1.652889 9.6301727
-1.6101661 2.3363223 9.1180916
-0.98339504 1.4162358 4.121479
-0.64417535 0.92354035 2.1308026
-0.80688161 1.1534654 2.1400795
-0.9597075 1.3689433 2.0782597
-0.1657256 0.29917845 5.7548108
-0.84815681 1.4110892 15.312043
-1.4018062 2.0529928 9.6085787
-1.293825 1.8758984 6.2511792
-1.068189 1.5395577 3.9383068
-0.71472889 1.0266449 2.1163228
-0.88279694 1.2648407 2.1172123
-0.94870347 1.3567828 1.8730495
-0.94477141 1.3416759 1.6923431
-0.90554625 1.2845559 1.3496526
-0.87886447 1.2453368 1.0839393
-0.86457598 1.224195 0.87106794
-0.85401154 1.2083536 0.68614835
-0.84505093 1.1948029 0.52009988
-0.83150619 1.1747906 0.36472982
-0.82311225 1.1620839 0.22079337
-0.92456937 1.3168957 1.5142586
-0.89169401 1.2686715 1.212671
-0.86905318 1.2355533 0.97328311
-0.8603152 1.221783 0.77823514
-0.85170043 1.208665 0.6037578
-0.83763534 1.1878368 0.44127598
-0.80776805 1.1450661 0.28766042
-0.82388937 1.1670679 0.15130325
-0.013973433 0.058797307 5.4890647
-0.8734169 1.3133664 10.027118
-1.1164865 1.6559541 9.6252775
-1.6104277 2.3542497 9.1658115
-1.0028331 1.4550514 4.2227345
-0.6409477 0.92578334 2.1308026
-0.80124557 1.1539633 2.1359468
-0.95675367 1.374916 2.0820973
-0.16344051 0.29747176 5.7098861
-0.84513497 1.4172473 15.346843
-1.3946314 2.0578735 9.6085787
-1.2989655 1.8974919 6.3074927
-1.0714505 1.555828 3.969815
-0.71114081 1.0291336 2.1163228
-0.88009232 1.2703916 2.1212022
-0.94782734 1.3656564 1.8803998
-0.94212526 1.3478885 1.6958475
-0.9055196 1.2940873 1.3559296
-0.87931007 1.2552465 1.0894222
-0.86538291 1.23446 0.87570554
-0.85511309 1.2189177 0.68989444
-0.84363133 1.2016715 0.52150995
-0.83304816 1.1857249 0.36659506
-0.82191503 1.1690239 0.22124045
-0.92423618 1.3262417 1.5209095
-0.89188522 1.2784064 1.2185574
-0.86967033 1.2456486 0.97834945
-0.86384499 1.2359387 0.78452927
-0.85288918 1.2193698 0.60704482
-0.83905834 1.1987177 0.44362062
-0.80092567 1.1438223 0.28696972
-0.82267755 1.174028 0.15150478
-0.013763174 0.058802374 5.4840646
-0.86925489 1.3170558 10.032057
-1.1106994 1.6598413 9.6252775
-1.6105839 2.3722067 9.2135305
-0.99664503 1.4569306 4.218132
-0.63906848 0.9299891 2.1351919
-0.79561579 1.1544359 2.1318138
-0.95376998 1.3808848 2.0859349
-0.16144307 0.29626113 5.6749439
-0.83747178 1.4155992 15.297129
-1.3874396 2.0627291 9.6085787
-1.313668 1.9334182 6.4107337
-1.0660132 1.5595585 3.969815
-0.70754415 1.0316097 2.1163228
-0.87565243 1.273456 2.1212022
-0.94882399 1.3773324 1.8914254
-0.93944734 1.3540993 1.6993521
-0.90321714 1.3004371 1.3590679
-0.87969702 1.2651745 1.0949051
-0.86359859 1.2411095 0.87802434
-0.85350227 1.2256997 0.69176745
-0.84491676 1.2124804 0.52433002
-0.83171391 1.1926547 0.36752769
-0.82067937 1.1759696 0.22168753
-0.92597294 1.3386723 1.5308859
-0.89201945 1.2881581 1.2244437
-0.87022752 1.2557634 0.98341578
-0.86469936 1.2464046 0.78872538
-0.85132056 1.2262185 0.60868835
-0.83764225 1.205631 0.44479293
-0.79692811 1.1466111 0.28696972
-0.82142699 1.180994 0.15170631
-0.013553051 0.058806684 5.4790645
-0.86507779 1.3207322 10.036996
-1.1048987 1.6637082 9.6252775
-1.6106341 2.3901939 9.2612505
-1.0102069 1.4878795 4.2963748
-0.63581824 0.9322142 2.1351919
-0.78999269 1.1548835 2.1276808
-0.95075625 1.3868493 2.0897722
-0.15932013 0.29478556 5.6350107
-0.83522022 1.4231129 15.346843
-1.3802309 2.0675597 9.6085787
-1.318488 1.9551618 6.4670467
-1.065451 1.5704764 3.9878199
-0.7039389 1.0340731 2.1163228
-0.87120187 1.2765048 2.1212022
-0.94783717 1.3862332 1.8987757
-0.93875986 1.3632448 1.7063613
-0.90309042 1.3099914 1.3653449
-0.88002545 1.2751206 1.1003881
-0.86429572 1.2514066 0.88266194
-0.85449016 1.2362989 0.69551355
-0.84340799 1.2193676 0.52574003
-0.83313727 1.203629 0.36939296
-0.82224083 1.1870146 0.22258168
-0.9255209 1.3480527 1.537537
-0.89209628 1.2979262 1.23033
-0.87072462 1.2658969 0.98848218
-0.86291724 1.2531534 0.7908234
-0.84971446 1.2330711 0.61033183
-0.83618808 1.212549 0.44596523
-0.79573286 1.1534622 0.28766042
-0.82297629 1.1920768 0.15210937
-0.013343067 0.058810249 5.4740653
-0.86130893 1.3250469 10.046875
-1.0990845 1.6675549 9.6252775
-1.6114082 2.409451 9.3137426
-1.0497636 1.557826 4.4850783
-0.63256037 0.93442798 2.1351919
-0.78437608 1.1553056 2.1235478
-0.94771248 1.3928097 2.0936098
-0.15720946 0.29329881 5.5950775
-0.82944393 1.4246372 15.331929
-1.3730053 2.072365 9.6085787
-1.32989 1.9870014 6.5562091
-1.0563153 1.5687685 3.9743164
-0.70032495 1.0365241 2.1163228
-0.86674076 1.279538 2.1212022
-0.94870341 1.3979492 1.9098014
-0.93802011 1.372402 1.7133703
-0.90290809 1.3195605 1.3716217
-0.88029498 1.285084 1.105871
-0.86493152 1.2617235 0.88729954
-0.85541451 1.2469199 0.69925964
-0.84457654 1.230214 0.5285601
-0.83171242 1.2105787 0.37032557
-0.82091379 1.1939812 0.22302876
-0.92711705 1.3605319 1.5475135
-0.89211583 1.3077105 1.2362163
-0.87116146 1.2760491 0.99354851
-0.86365944 1.2636521 0.79501951
-0.84807092 1.2399274 0.61197537
-0.83469576 1.2194715 0.44713756
-0.79729724 1.1644047 0.28904179
-0.82163411 1.1990635 0.15231091
-0.013128744 0.058769666 5.4640656
-0.85709941 1.3286985 10.051814
-1.0938143 1.6722335 9.6301727
-1.6128925 2.4299858 9.371006
-1.0443194 1.5614809 4.4850783
-0.62929475 0.93663025 2.1351919
-0.78033847 1.1580366 2.1235478
-0.94463861 1.3987656 2.0974472
-0.15524533 0.29205656 5.5601363
-0.82366711 1.4261385 15.317015
-1.3657631 2.0771451 9.6085787
-1.3296292 2.0016942 6.5890589
-1.0447856 1.5633957 3.9518104
-0.6967026 1.0389622 2.1163228
-0.86058795 1.2800549 2.1172123
-0.94949913 1.4096879 1.9208267
-0.93722773 1.3815707 1.7203795
-0.90266979 1.3291442 1.3778987
-0.88285661 1.2985229 1.1140954
-0.86550564 1.2720599 0.89193714
-0.85366577 1.2537302 0.70113266
-0.84567952 1.241083 0.53138018
-0.83024901 1.217533 0.3712582
-0.82235509 1.2050663 0.22392292
-0.92654562 1.3699456 1.5541645
-0.89207786 1.3175106 1.2421026
-0.87395608 1.2897886 1.001148
-0.86179096 1.2704151 0.79711759
-0.849042 1.250694 0.61526239
-0.83589679 1.2304189 0.4494822
-0.79879475 1.1753722 0.29042313
-0.82306278 1.2101864 0.15271397
-0.012919194 0.058771715 5.4590654
-0.85329372 1.3329914 10.061693
-1.0879704 1.6760414 9.6301727
-1.6117899 2.4468205 9.4139538
-0.62734991 0.94081396 2.1395807
-0.77629149 1.1607535 2.1235478
-0.94153476 1.4047171 2.1012847
-0.15302518 0.29029205 5.5152111
-0.81815463 1.4280795 15.307072
-1.3585041 2.0818999 9.6085787
-1.3321307 2.0207317 6.6359863
-1.0501502 1.5833619 3.9923213
-0.69451642 1.0435592 2.1205888
-0.85611451 1.2830511 2.1172123
-0.95022458 1.4214492 1.9318523
-0.94036597 1.3966668 1.7343976
-0.90455109 1.3419701 1.3873141
-0.8829962 1.3085293 1.1195784
-0.86601818 1.2824157 0.8965748
-0.85447574 1.2643846 0.70487875
-0.84402955 1.2480012 0.53279018
-0.82874727 1.2244917 0.3721908
-0.82093632 1.2120527 0.22437
-0.92800069 1.382472 1.5641412
-0.89423662 1.3306813 1.250932
-0.87425965 1.2999858 1.0062144
-0.86242032 1.2809451 0.80131364
-0.84730965 1.2575665 0.61690587
-0.83431405 1.2373594 0.45065451
-0.80576366 1.1945752 0.29318586
-0.82162851 1.2171928 0.15291549
-0.012709789 0.058773018 5.4540653
-0.84988475 1.3379296 10.07651
-1.0826646 1.6806849 9.6350679
-1.6203898 2.4786708 9.5141659
-0.95817119 1.4545237 4.1629014
-0.62538362 0.94499546 2.14397
-0.77223498 1.1634562 2.1235478
-0.93840069 1.410664 2.1051223
-0.15161373 0.29005486 5.500236
-0.81263858 1.4299995 15.297129
-1.3505454 2.0855739 9.6037388
-1.338294 2.0455873 6.701685
-1.0470102 1.5906546 4.0013237
-0.69086957 1.0459771 2.1205888
-0.85163057 1.2860317 2.1172123
-0.95087928 1.4332324 1.9428777
-0.9414289 1.4088365 1.7449113
-0.90418947 1.3515898 1.393591
-0.88540334 1.3220264 1.1278027
-0.86646891 1.2927905 0.90121239
-0.85263926 1.2712096 0.70675176
-0.84501499 1.2589058 0.53561026
-0.82720703 1.2314548 0.37312344
-0.82225704 1.2231768 0.22526415
-0.92937928 1.3950251 1.5741175
-0.89407158 1.3405201 1.2568183
-0.87450272 1.3102007 1.0112808
-0.86046517 1.2877213 0.80341172
-0.84816444 1.2683673 0.62019289
-0.83539629 1.2483433 0.45299914
-0.80985337 1.2097259 0.2952579
-0.82293606 1.2283546 0.15331855
-0.012500534 0.058773581 5.4490662
-0.84603769 1.342203 10.086389
-1.0767913 1.684454 9.6350679
-1.6117277 2.4843121 9.5141659
-0.9530881 1.4578595 4.1629014
-0.62471026 0.95117664 2.1527481
-0.76816905 1.1661447 2.1235478
-0.93347085 1.4139309 2.1051223
-0.14954823 0.28852633 5.4603028
-0.80790347 1.433292 15.3021
-1.3432571 2.0902755 9.6037388
-1.3414813 2.0661681 6.7533054
-1.0533557 1.6125261 4.0463357
-0.68721414 1.0483824 2.1205888
-0.84713632 1.2889967 2.1172123
-0.95146334 1.4450377 1.9539032
-0.94438922 1.4240028 1.7589295
-0.90592456 1.3644661 1.4030064
-0.88541245 1.3320737 1.1332856
-0.86685753 1.303184 0.90584999
-0.85333437 1.2818964 0.7104978
-0.84327489 1.2658401 0.53702027
-0.82835305 1.2425094 0.37498868
-0.82351005 1.2343249 0.22615832
-0.93068177 1.4076047 1.584094
-0.89384878 1.3503741 1.2627047
-0.87706548 1.3240269 1.0188802
-0.86098158 1.298282 0.80760783
-0.84634316 1.2752548 0.62183642
-0.83641183 1.2593497 0.45534378
-0.81384695 1.2249193 0.29732993
-0.82417566 1.2395403 0.15372162
-0.012291428 0.058773395 5.444066
-0.84258294 1.3471246 10.101207
-1.0709049 1.6882024 9.6350679
-1.6062779 2.4949431 9.5332537
-0.94267744 1.4529824 4.1398888
-0.62400132 0.95736456 2.1615264
-0.76409376 1.168819 2.1235478
-0.92852962 1.4171808 2.1051223
-0.14814833 0.28827423 5.4453278
-0.80289543 1.4361033 15.3021
-1.335277 2.0938916 9.5988998
-1.3557557 2.1042044 6.861239
-1.0512726 1.6216733 4.0598392
-0.68355048 1.0507748 2.1205888
-0.84098583 1.289422 2.1132224
-0.95012212 1.4540262 1.9612535
-0.94529432 1.4362274 1.769443
-0.90758067 1.3773706 1.4124217
-0.88536197 1.3421371 1.1387686
-0.86718422 1.3135958 0.91048759
-0.85140991 1.2887354 0.71237087
-0.84414238 1.2767792 0.53984034
-0.82401079 1.2453933 0.37498868
-0.82469517 1.2454965 0.22705248
-0.93190742 1.4202102 1.5940706
-0.89578712 1.363621 1.2715342
-0.87717444 1.3342848 1.0239466
-0.85893947 1.3050706 0.80970585
-0.84708136 1.2860887 0.62512344
-0.83736074 1.2703784 0.45768842
-0.81774437 1.2401555 0.29940197
-0.82259548 1.2465795 0.15392315
-0.012086196 0.058815945 5.444066
-0.83910412 1.3520384 10.116024
-1.0650054 1.6919303 9.6350679
-1.6023805 2.5080829 9.5618858
-0.93759996 1.456264 4.1398888
-0.62455738 0.96557021 2.1746933
-0.76000911 1.1714791 2.1235478
-0.92183 1.417726 2.1012847
-0.14778973 0.29007912 5.4702859
-0.79813576 1.4393636 15.307072
-1.3279597 2.0985398 9.5988998
-1.0573823 1.6436422 4.1048517
-0.67987841 1.0531545 2.1205888
-0.83647978 1.2923497 2.1132224
-0.95057404 1.4658673 1.972279
-0.94807571 1.4514617 1.7834612
-0.90915775 1.3903035 1.4218372
-0.88525206 1.3522164 1.1442515
-0.86744875 1.3240258 0.91512519
-0.85198987 1.2994534 0.71611691
-0.84231198 1.2837287 0.54125035
-0.82505101 1.2564744 0.37685391
-0.82581222 1.2566913 0.22794664
-0.93305653 1.4328413 1.6040471
-0.89543647 1.3735117 1.2774205
-0.8772223 1.3445593 1.0290129
-0.85934228 1.3156605 0.81390196
-0.847754 1.2969431 0.62841046
-0.83824271 1.2814289 0.46003303
-0.82154518 1.2554336 0.30147403
-0.82371324 1.2578022 0.15432622
-0.011877247 0.058814283 5.4390664
-0.83519405 1.3562826 10.125903
-1.059093 1.6956376 9.6350679
-1.5952142 2.5161824 9.5714293
-1.1943868 1.8694848 5.2859173
-0.62635714 0.97580695 2.1922498
-0.75591534 1.1741248 2.1235478
-0.91687566 1.4209353 2.1012847
-0.14690508 0.29085159 5.4752779
-0.79310656 1.4421408 15.307072
-1.3206264 2.1031625 9.5988998
-1.5083505 2.3773704 7.7106295
-1.0586661 1.6583332 4.1318593
-0.67619801 1.0555212 2.1205888
-0.83196354 1.2952617 2.1132224
-0.95278937 1.4805803 1.9869798
-0.94882268 1.4637401 1.7939749
-0.90853661 1.3999987 1.4281141
-0.88508254 1.3623111 1.1497345
-0.86765093 1.3344734 0.91976279
-0.85250533 1.3101912 0.719863
-0.84306103 1.2947011 0.54407042
-0.82602388 1.2675778 0.37871915
-0.82686114 1.267909 0.2288408
-0.93210208 1.4423616 1.6106981
-0.89502752 1.3834164 1.2833068
-0.87720919 1.3548504 1.0340793
-0.85968167 1.3262691 0.81809807
-0.84836125 1.3078178 0.63169748
-0.83905774 1.2925009 0.46237767
-0.81985497 1.2624468 0.3021647
-0.82476246 1.2690479 0.15472928
-0.011668459 0.058811884 5.4340663
-0.83004975 1.3585266 10.120963
-1.0531677 1.6993241 9.6350679
-1.588011 2.5242624 9.5809736
-0.628093 0.98606801 2.209806
-0.75181222 1.1767564 2.1235478
-0.91191 1.4241271 2.1012847
-0.14614476 0.29188028 5.4852614
-0.78832263 1.4453685 15.312043
-1.3132769 2.1077595 9.5988998
-1.5101552 2.3986855 7.7622504
-1.0738385 1.6951216 4.2128806
-0.67250943 1.0578752 2.1205888
-0.8274371 1.2981579 2.1132224
-0.953089 1.4924692 1.9980052
-0.94756591 1.4730419 1.800984
-0.90996617 1.4129789 1.4375293
-0.88485324 1.3724211 1.1552174
-0.86538905 1.3412161 0.92208159
-0.85295612 1.320948 0.72360903
-0.84374362 1.3056943 0.54689056
-0.82692915 1.2787032 0.38058439
-0.82513601 1.2749683 0.22928788
-0.93310809 1.4550356 1.6206745
-0.8945604 1.393335 1.2891932
-0.8771348 1.3651578 1.0391457
-0.8599574 1.3368962 0.82229424
-0.84890294 1.3187124 0.63498449
-0.83717328 1.299508 0.46355
-0.82080829 1.273626 0.30354607
-0.82574326 1.280316 0.15513234
-0.011456569 0.058765244 5.424067
-0.82489991 1.3607512 10.116024
-1.0472295 1.7029901 9.6350679
-1.5783995 2.5285239 9.5762014
-1.2385169 1.968732 5.5390563
-0.6297648 0.99635285 2.2273624
-0.74619347 1.1769968 2.119415
-0.90693337 1.4273015 2.1012847
-0.14537902 0.29290712 5.4952445
-0.78352582 1.4485805 15.317015
-1.3059114 2.1123309 9.5988998
-1.5008588 2.4024787 7.7575574
-1.0876081 1.7301928 4.2894015
-0.66881275 1.0602163 2.1205888
-0.82290065 1.3010383 2.1132224
-0.95331717 1.5043781 2.0090308
-0.9481746 1.485359 1.8114977
-0.91131622 1.4259862 1.4469448
-0.88681757 1.3860682 1.1634418
-0.86547923 1.3516901 0.92671913
-0.85334218 1.3317242 0.72735512
-0.84435964 1.3167077 0.54971057
-0.83041978 1.2939844 0.38338223
-0.82337159 1.2820311 0.22973496
-0.93203247 1.4645841 1.6273257
-0.8940348 1.4032671 1.2950795
-0.8769992 1.375481 1.0442121
-0.86016917 1.3475411 0.82649034
-0.84937871 1.3296267 0.63827151
-0.83786815 1.3106129 0.46589461
-0.81902552 1.2806551 0.30423674
-0.82396221 1.2873985 0.15533386
-0.011248258 0.058761351 5.4190669
-0.81694257 1.3582948 10.07651
-1.0412786 1.7066352 9.6350679
-1.5695637 2.5340183 9.5762014
-1.2450846 1.9945885 5.5988894
-0.63264477 1.0086905 2.2493079
-0.74208045 1.1795943 2.119415
-0.90194559 1.4304587 2.1012847
-0.144734 0.29419187 5.5102191
-0.77846456 1.4513068 15.317015
-1.29853 2.1168766 9.5988998
-1.5215545 2.4546402 7.9077258
-1.0769541 1.7265902 4.2713966
-0.66510779 1.0625443 2.1205888
-0.81835413 1.3039027 2.1132224
-0.9552781 1.5191765 2.0237315
-0.94680053 1.4946851 1.8185068
-0.91050196 1.4357327 1.4532217
-0.88645607 1.3962156 1.1689247
-0.86788243 1.3659198 0.93367553
-0.85615075 1.346431 0.73297417
-0.84490901 1.3277414 0.55253065
-0.83117509 1.3051621 0.38524747
-0.82424438 1.2932966 0.2306291
-0.93289495 1.4772997 1.637302
-0.89561063 1.4166291 1.3039091
-0.87680203 1.3858198 1.0492785
-0.86031723 1.3582036 0.83068645
-0.84726048 1.3365718 0.63991499
-0.83589196 1.3176341 0.46706694
-0.81985712 1.2918687 0.30561811
-0.82482016 1.2987013 0.15573692
-0.011037154 0.05871319 5.4090676
-0.81100237 1.3591362 10.061693
-1.035315 1.7102594 9.6350679
-1.5599273 2.5382097 9.5714293
-1.2412003 2.0039053 5.6126966
-0.63544625 1.0210603 2.2712533
-0.73795831 1.1821774 2.119415
-0.89864683 1.4363155 2.1051223
-0.14395659 0.29521558 5.5202026
-0.77339381 1.4540153 15.317015
-1.2917862 2.1224701 9.6037388
-1.5373842 2.4996254 8.0344305
-1.0961224 1.7710644 4.3704233
-0.66277057 1.0670751 2.1248546
-0.81379771 1.3067515 2.1132224
-0.95714742 1.534007 2.0384321
-0.94727045 1.507039 1.8290204
-0.91170377 1.4487855 1.4626372
-0.88826334 1.4099151 1.1771491
-0.86783415 1.3764354 0.93831313
-0.85639316 1.3572527 0.73672026
-0.84539163 1.3387948 0.55535072
-0.83448666 1.3205132 0.38804534
-0.82238674 1.3003747 0.23107618
-0.93169737 1.4868751 1.6439531
-0.89495605 1.4265949 1.3097954
-0.87883532 1.3998249 1.056878
-0.86040121 1.3688836 0.8348825
-0.84761828 1.3475156 0.64320201
-0.83646619 1.3287708 0.46941158
-0.82062042 1.3031034 0.30699944
-0.82294559 1.3057992 0.15593846
-0.010829331 0.058707818 5.4040675
-0.80269235 1.3559402 10.01724
-1.0293387 1.713863 9.6350679
-1.5510578 2.5436394 9.5714293
-1.234198 2.0082257 5.6126966
-0.63691074 1.0314237 2.2888095
-0.73382723 1.1847463 2.119415
-0.89531809 1.4421669 2.1089599
-0.14329807 0.296498 5.5351777
-0.7678169 1.4557627 15.307072
-1.2843696 2.1269665 9.6037388
-1.5628052 2.5609548 8.2127552
-1.1195494 1.8231139 4.4874549
-0.65904176 1.0693821 2.1248546
-0.80923134 1.3095841 2.1132224
-0.95892477 1.5488687 2.0531328
-0.94577861 1.5163884 1.8360294
-0.91282523 1.4618638 1.4720525
-0.8877694 1.4200985 1.1826321
-0.86772305 1.3869672 0.94295073
-0.85657048 1.3680924 0.7404663
-0.84580719 1.3498677 0.5581708
-0.83509135 1.3317415 0.38991058
-0.82048959 1.3074557 0.23152326
-0.93241578 1.499631 1.6539296
-0.89637858 1.4400047 1.3186247
-0.87850225 1.410202 1.0619444
-0.86042106 1.3795805 0.83907861
-0.84790993 1.358478 0.64648902
-0.83697295 1.3399277 0.47175622
-0.82131505 1.3143592 0.30838081
-0.82368028 1.3171356 0.15634152
-0.010619025 0.05865816 5.3940678
-0.79362804 1.3513627 9.9629078
-1.02335 1.7174456 9.6350679
-1.541397 2.5477612 9.566658
-1.2312484 2.0191939 5.6311069
-0.6408127 1.0458944 2.3151441
-0.73116052 1.189698 2.1235478
-0.89195949 1.4480125 2.1127973
-0.14250898 0.2975184 5.5451612
-0.76223725 1.457489 15.297129
-1.2769371 2.1314366 9.6037388
-1.55475 2.5678706 8.2174482
-1.1516864 1.8902208 4.6404958
-0.65530491 1.071676 2.1248546
-0.80622995 1.3149698 2.1172123
-0.96060979 1.5637614 2.0678334
-0.94610947 1.5287783 1.8465432
-0.91181678 1.4716588 1.4783293
-0.88941908 1.4338489 1.1908565
-0.86988515 1.4012786 0.94990712
-0.85668254 1.37895 0.74421245
-0.8461557 1.3609596 0.56099087
-0.83562779 1.3429902 0.39177582
-0.82118541 1.3187665 0.23241742
-0.93501681 1.5155877 1.6672316
-0.89771855 1.4534419 1.3274543
-0.88037372 1.4242606 1.0695438
-0.86037666 1.3902942 0.84327471
-0.84813529 1.3694587 0.64977604
-0.83741188 1.3511039 0.47410086
-0.8219412 1.3256356 0.30976218
-0.82434583 1.328493 0.15674458
-0.0104117 0.058651309 5.3890686
-0.78499633 1.34741 9.9135151
-1.0173488 1.7210072 9.6350679
-1.5324942 2.5531261 9.566658
-1.226215 2.0268228 5.6403117
-0.63715798 1.0481249 2.3151441
-0.72700322 1.192243 2.1235478
-0.8885709 1.4538522 2.1166348
-0.14183696 0.29879832 5.5601363
-0.75689995 1.4596674 15.292157
-1.2694893 2.1358812 9.6037388
-1.5777639 2.6265385 8.3863878
-1.1495857 1.9016815 4.6585007
-0.65156007 1.073957 2.1248546
-0.80163497 1.3177761 2.1172123
-0.96749544 1.5873693 2.0935595
-0.9463653 1.5411887 1.8570567
-0.91278923 1.4847803 1.4877448
-0.88879192 1.444067 1.1963394
-0.86963475 1.41185 0.95454472
-0.85672915 1.3898249 0.74795848
-0.84391862 1.3679878 0.56240088
-0.83351535 1.3500786 0.39270842
-0.82181227 1.330098 0.23331158
-0.93556821 1.5283958 1.6772081
-0.9010874 1.4703521 1.339227
-0.88215774 1.4383494 1.0771434
-0.86026794 1.4010243 0.84747082
-0.84829438 1.3804574 0.65306306
-0.8377828 1.3622996 0.4764455
-0.82249838 1.3369322 0.31114352
-0.82232291 1.3356166 0.15694611
-0.010206906 0.058687296 5.3890686
-0.776402 1.3434135 9.8641224
-1.011335 1.724548 9.6350679
-1.5235728 2.55846 9.566658
-1.2211431 2.034441 5.6495166
-0.6458627 1.0708523 2.3590348
-0.72429359 1.1971812 2.1276808
-0.8851524 1.4596858 2.1204722
-0.14018534 0.29798234 5.5351777
-0.75131333 1.4613521 15.282214
-1.2620261 2.1402996 9.6037388
-1.5738862 2.6409245 8.4145441
-1.155256 1.9262197 4.7080145
-0.6478073 1.0762248 2.1248546
-0.79703015 1.3205662 2.1172123
-0.96194863 1.5907369 2.0935595
-0.94840133 1.5566652 1.8710749
-0.91368109 1.4979265 1.4971601
-0.89028329 1.4578665 1.2045637
-0.86932111 1.4224368 0.95918238
-0.85671008 1.4007167 0.75170451
-0.84414685 1.3791081 0.56522095
-0.83392948 1.3613576 0.39457369
-0.82236987 1.34145 0.23420574
-0.93797982 1.5444177 1.69051
-0.9022491 1.4838496 1.3480563
-0.88161325 1.4487851 1.0822097
-0.86245579 1.4156464 0.85376495
-0.84838688 1.3914739 0.65635008
-0.83808583 1.3735142 0.47879013
-0.82040668 1.3440219 0.31183422
-0.82286447 1.3470056 0.15734917
-0.0099997865 0.058678988 5.3840685
-0.76784533 1.3393738 9.8147297
-1.0053092 1.7280678 9.6350679
-1.5153919 2.5650477 9.5714293
-1.2160332 2.0420485 5.6587219
-0.63966167 1.0689898 2.3502567
-0.72011018 1.1997023 2.1276808
-0.88170409 1.4655132 2.1243098
-0.13890308 0.29794529 5.5251946
-0.74644947 1.4644409 15.287186
-1.2545472 2.1446917 9.6037388
-1.5787089 2.6701703 8.4896288
-1.1663342 1.9601746 4.7800336
-0.6440466 1.0784795 2.1248546
-0.79241562 1.3233404 2.1172123
-0.95639008 1.594085 2.0935595
-0.9484961 1.5691224 1.8815886
-0.91449237 1.511097 1.5065755
-0.89168912 1.4716942 1.2127882
-0.87124079 1.4368265 0.96613878
-0.85662538 1.4116251 0.75545061
-0.84430772 1.3902466 0.56804103
-0.83172369 1.368458 0.39550632
-0.82285821 1.3528218 0.2350999
-0.93836397 1.557277 1.7004865
-0.90123963 1.4939121 1.3539426
-0.88323462 1.462925 1.0898093
-0.86220443 1.4264166 0.85796106
-0.84841275 1.4025078 0.65963709
-0.83832073 1.3847474 0.48113477
-0.82084078 1.3553491 0.31321558
-0.82333654 1.3584146 0.15775223
-0.0097928504 0.058669951 5.3790684
-0.75971013 1.3359661 9.770277
-0.99927092 1.7315664 9.6350679
-1.5071837 2.5716097 9.5762014
-1.210885 2.0496449 5.6679268
-0.71591806 1.2022085 2.1276808
-0.87822568 1.4713343 2.1281471
-0.13762276 0.29790291 5.5152111
-0.74133307 1.4670376 15.287186
-1.2470531 2.1490579 9.6037388
-1.5798545 2.6935279 8.5459423
-1.1738695 1.9886056 4.8385496
-0.6402781 1.080721 2.1248546
-0.78779149 1.3260983 2.1172123
-0.95255363 1.6003269 2.0972347
-0.9485153 1.5815992 1.8921022
-0.91522253 1.524291 1.5159907
-0.89085495 1.4819655 1.2182711
-0.87078702 1.4474505 0.97077638
-0.85647506 1.4225501 0.75919664
-0.84192544 1.3972944 0.56945103
-0.83201498 1.3797662 0.39737156
-0.82327712 1.3642133 0.23599406
-0.93866956 1.5701573 1.7104629
-0.90224671 1.5074539 1.3627722
-0.88255274 1.4733953 1.0948756
-0.86188823 1.4372022 0.86215717
-0.84837186 1.4135587 0.66292417
-0.83848721 1.3959987 0.48347941
-0.82120574 1.3666956 0.31459692
-0.82116437 1.3655617 0.15795377
-0.0095879938 0.058703776 5.3790684
-0.75160819 1.3325181 9.7258234
-0.99322057 1.7350439 9.6350679
-1.4981979 2.5768549 9.5762014
-1.2066861 2.0589159 5.6817341
-0.71171725 1.2047002 2.1276808
-0.87308449 1.4743909 2.1281471
-0.13646324 0.29811838 5.5102191
-0.73644602 1.4700931 15.292157
-1.239544 2.1533978 9.6037388
-1.5808562 2.7169254 8.6022549
-1.1669208 1.9926913 4.8385496
-0.63650173 1.0829495 2.1248546
-0.78315777 1.3288401 2.1172123
-0.94696164 1.6036422 2.0972347
-0.94845891 1.594095 1.9026158
-0.9158718 1.5375086 1.5254062
-0.89210159 1.4958401 1.2264955
-0.87253988 1.4618928 0.97773278
-0.85625875 1.4334911 0.76294273
-0.8419655 1.4084597 0.57227111
-0.83223742 1.391093 0.3992368
-0.82106823 1.3713516 0.23644114
-0.94080138 1.5862703 1.7237651
-0.90110636 1.5175451 1.3686585
-0.88180858 1.483879 1.0999421
-0.86150724 1.4480028 0.86635327
-0.8482641 1.4246264 0.66621119
-0.83609736 1.4030926 0.48465171
-0.82150149 1.3780612 0.31597832
-0.82151192 1.3770007 0.15835683
-0.0093812784 0.058693286 5.3740687
-0.74353957 1.3290298 9.6813698
-0.98715806 1.7385004 9.6350679
-1.4899396 2.5833621 9.5809736
-1.2014555 2.0664935 5.6909394
-1.0560569 1.8077141 3.9039905
-0.70750773 1.2071773 2.1276808
-0.86955601 1.4801933 2.1319847
-0.1354218 0.29859293 5.5102191
-0.73154676 1.4731325 15.297129
-1.232643 2.1588032 9.6085787
-1.5834389 2.7433519 8.6679544
-1.1577711 1.9929873 4.8295469
-0.63271773 1.0851647 2.1248546
-0.77851444 1.3315657 2.1172123
-0.94135815 1.606938 2.0972347
-0.94832677 1.6066097 1.9131296
-0.91842008 1.5540999 1.5379601
-0.89326209 1.5097412 1.2347199
-0.87420243 1.4763647 0.98468918
-0.85597634 1.4444478 0.76668876
-0.8419379 1.4196422 0.57509118
-0.8323909 1.4024382 0.40110204
-0.82136279 1.3827723 0.23733529
-0.94093853 1.5991991 1.7337415
-0.90195811 1.5311296 1.377488
-0.88319117 1.4980887 1.1075416
-0.86336821 1.4627268 0.87264746
-0.84808946 1.4357103 0.66949821
-0.83614165 1.4143709 0.48699635
-0.82172775 1.3894453 0.31735966
-0.81924492 1.3841592 0.15855835
-0.009174752 0.058682073 5.3690691
-0.73927265 1.3322966 9.6863089
-0.98158306 1.7428229 9.6399632
-1.4809129 2.5885472 9.5809736
-1.1971625 2.075752 5.7047472
-1.0713539 1.8486898 3.9829941
-0.70187533 1.2072067 2.1235478
-0.86438388 1.4832195 2.1319847
-0.13426173 0.29879987 5.505228
-0.72663522 1.4761555 15.3021
-1.2250999 2.1630929 9.6085787
-1.5944295 2.7848055 8.7805805
-1.1453731 1.9875853 4.8070407
-0.6302315 1.0896244 2.1291206
-0.77386171 1.3342752 2.1172123
-0.93744648 1.6131454 2.1009099
-0.94811875 1.6191428 1.9236431
-0.91889501 1.5673701 1.5473754
-0.89433658 1.5236686 1.2429444
-0.87353098 1.4870466 0.98932678
-0.85562795 1.4554199 0.77043486
-0.84184235 1.4308416 0.5779112
-0.8324753 1.4138012 0.40296727
-0.82158762 1.394212 0.23822945
-0.94287896 1.6153725 1.7470435
-0.90272588 1.5447382 1.3863175
-0.88230884 1.5086048 1.112608
-0.86284357 1.4735647 0.87684357
-0.84784758 1.4468104 0.67278522
-0.83611715 1.4256666 0.48934099
-0.82188445 1.4008476 0.31874102
-0.81693798 1.3913187 0.15875989
-0.0089684175 0.058670137 5.3640695
-0.73049867 1.3273799 9.6319771
-0.97549349 1.7462386 9.6399632
-1.4718682 2.5937009 9.5809736
-1.1928197 2.0850055 5.7185545
-1.0672812 1.8565712 3.9917724
-0.69765711 1.2096494 2.1235478
-0.85920125 1.4862279 2.1319847
-0.1332179 0.29926673 5.505228
-0.72194487 1.4796413 15.312043
-1.2175418 2.167356 9.6085787
-1.6000372 2.8173654 8.8650503
-1.1470701 2.0066917 4.843051
-0.62772185 1.0940799 2.1333864
-0.76919949 1.3369683 2.1172123
-0.93180984 1.6164078 2.1009099
-0.94783479 1.6316938 1.9341568
-0.92124528 1.5840268 1.5599293
-0.89532429 1.5376217 1.2511686
-0.87502575 1.5015689 0.99628317
-0.85754871 1.4704118 0.77605397
-0.8416788 1.4420575 0.58073127
-0.83249038 1.4251817 0.40483251
-0.82174242 1.4056699 0.23912361
-0.94471782 1.631579 1.7603455
-0.9034096 1.5583707 1.395147
-0.88352704 1.5228616 1.1202074
-0.86225373 1.4844167 0.88103968
-0.84753847 1.4579259 0.67607224
-0.83602417 1.4369792 0.4916856
-0.82197165 1.4122678 0.32012239
-0.81710559 1.402796 0.15916295
-0.0087635666 0.058701083 5.3640695
-0.72586083 1.3299217 9.6319771
-0.96939206 1.749633 9.6399632
-1.4620734 2.597522 9.5762014
-1.1922832 2.1010513 5.7507725
-1.0572352 1.8540434 3.9786048
-0.69343042 1.2120773 2.1235478
-0.85400808 1.489218 2.1319847
-0.13205734 0.29946518 5.500236
-0.71700728 1.4826324 15.317015
-1.2105805 2.1726909 9.6134176
-1.6130586 2.8635294 8.9917545
-1.1636783 2.0523465 4.9420772
-0.62518883 1.0985312 2.1376524
-0.76452792 1.3396453 2.1172123
-0.92616183 1.6196506 2.1009099
-0.94925505 1.6473525 1.948175
-0.92349023 1.6007191 1.5724831
-0.89622563 1.5516003 1.2593931
-0.87421274 1.5122844 1.0009208
-0.8570537 1.4814217 0.7798
-0.84385079 1.4574411 0.58496141
-0.83243608 1.4365795 0.40669775
-0.81932908 1.4128377 0.23957069
-0.94645494 1.6478177 1.7736475
-0.90400898 1.5720266 1.4039763
-0.88250625 1.5334089 1.1252737
-0.86386442 1.4992149 0.88733381
-0.84952104 1.4731479 0.68100274
-0.83829182 1.4525182 0.49520257
-0.82198888 1.4237057 0.32150373
-0.8147034 1.4099654 0.15936449
-0.0085574733 0.058687698 5.3590693
-0.71936572 1.3290303 9.6072817
-0.96327877 1.7530062 9.6399632
-1.4529974 2.6026096 9.5762014
-1.1830255 2.101795 5.7415671
-1.0472201 1.8514686 3.9654377
-0.68780661 1.212043 2.119415
-0.85038912 1.4949759 2.1358223
-0.13101122 0.29992431 5.500236
-0.71228778 1.486088 15.326958
-1.2029891 2.1769035 9.6134176
-1.609786 2.8811948 9.0292969
-1.1714454 2.0829613 5.0050945
-0.62519598 1.1075205 2.1504502
-0.75984699 1.3423058 2.1172123
-0.92050248 1.6228735 2.1009099
-0.94880778 1.6599445 1.9586885
-0.92756307 1.6208242 1.5881753
-0.89704007 1.5656035 1.2676175
-0.87333554 1.5230126 1.0055584
-0.8587997 1.496467 0.78541911
-0.84353644 1.4686973 0.58778149
-0.83231229 1.4479941 0.40856299
-0.81935871 1.4243225 0.24046485
-0.94624197 1.6608443 1.7836241
-0.90452403 1.5857058 1.4128059
-0.88355976 1.5477114 1.1328733
-0.86538213 1.5140421 0.893628
-0.84906292 1.484302 0.68428975
-0.83804619 1.4638721 0.49754718
-0.82193637 1.4351609 0.3228851
-0.81474543 1.4214693 0.15976755
-0.0083525628 0.058717214 5.3590693
-0.71545672 1.3329027 9.6171589
-0.95764095 1.7572522 9.6448584
-1.4439038 2.6076658 9.5762014
-1.1747295 2.1042058 5.7369647
-1.0348924 1.8446689 3.9434922
-0.68357158 1.2144365 2.119415
-0.84516555 1.4979353 2.1358223
-0.12985021 0.30011424 5.4952445
-0.70686764 1.4880836 15.321986
-1.195383 2.1810894 9.6134176
-1.6114283 2.9079289 9.0949965
-1.1694692 2.0965438 5.0276008
-0.62387413 1.1142476 2.158982
-0.75515687 1.34495 2.1172123
-0.91483206 1.6260769 2.1009099
-0.9500429 1.675656 1.9727067
-0.92958522 1.6375922 1.6007291
-0.89776778 1.5796314 1.275842
-0.8745842 1.5376035 1.0125147
-0.85815763 1.5075135 0.78916514
-0.84315372 1.4799693 0.59060156
-0.83211893 1.4594253 0.41042823
-0.81931818 1.4358246 0.24135901
-0.94594944 1.673889 1.7936004
-0.90694493 1.6029254 1.4245785
-0.88452399 1.5620397 1.1404729
-0.86680686 1.5288982 0.89992213
-0.85086751 1.4995782 0.68922031
-0.83773148 1.4752421 0.49989185
-0.82181382 1.4466327 0.32426646
-0.81471705 1.4329909 0.16017061
-0.0081475507 0.05874601 5.3590693
-0.71079963 1.335392 9.6171589
-0.95150113 1.7605842 9.6448584
-1.435511 2.6139987 9.5809736
-1.166431 2.1065845 5.7323623
-1.0517352 1.8901277 4.0312743
-0.67932826 1.2168152 2.119415
-0.84149683 1.5036736 2.1396599
-0.12880182 0.30056569 5.4952445
-0.70166892 1.4905419 15.321986
-1.1877623 2.1852486 9.6134176
-1.6129029 2.9347091 9.1606941
-1.2042934 2.1768095 5.2076488
-0.62504488 1.1255392 2.1760459
-0.75045753 1.3475777 2.1172123
-0.90915036 1.6292603 2.1009099
-0.95117998 1.691396 1.986725
-0.92959207 1.6510023 1.6101445
-0.89840823 1.5936832 1.2840662
-0.87574154 1.5522215 1.0194712
-0.8597281 1.5226105 0.79478431
-0.84506249 1.4954324 0.59483165
-0.83427399 1.4751486 0.41322607
-0.81920719 1.4473437 0.24225317
-0.94557732 1.6869522 1.8035771
-0.90727836 1.6166561 1.4334079
-0.88750988 1.5801522 1.1506057
-0.86591369 1.5398265 0.90411824
-0.85257584 1.5148849 0.69415081
-0.83734757 1.4866275 0.50223649
-0.821621 1.4581212 0.3256478
-0.81461811 1.4445294 0.16057368
-0.0079424391 0.058774091 5.3590693
-0.70613396 1.3378649 9.6171589
-0.94534975 1.7638949 9.6448584
-1.4263777 2.6189935 9.5809736
-1.1562496 2.1055057 5.7185545
-1.071744 1.9420168 4.1322227
-0.67507666 1.2191792 2.119415
-0.83779824 1.5094042 2.1434972
-0.12775187 0.30101347 5.4952445
-0.69646168 1.4929821 15.321986
-1.180127 2.1893816 9.6134176
-1.6133845 2.9600198 9.2216997
-1.20297 2.1924517 5.2346563
-0.62488627 1.1345677 2.1888437
-0.745749 1.3501891 2.1172123
-0.9034577 1.632424 2.1009099
-0.95221865 1.7071644 2.0007432
-0.93141413 1.6678305 1.6226983
-0.8989616 1.6077588 1.2922907
-0.87680745 1.5668663 1.0264276
-0.8589384 1.5336919 0.79853034
-0.84452814 1.5067425 0.59765172
-0.8339262 1.4866203 0.41509131
-0.81902581 1.4588794 0.24314731
-0.94331133 1.6967694 1.810228
-0.90752697 1.6304088 1.4422375
-0.88618428 1.5907724 1.155672
-0.86716557 1.5547309 0.91041237
-0.8518858 1.5260983 0.69743782
-0.83689427 1.4980279 0.50458109
-0.82377398 1.4739485 0.32771987
-0.81444848 1.4560846 0.16097674
-0.0077367052 0.058757827 5.3540692
-0.70145965 1.3403217 9.6171589
-0.93918687 1.767184 9.6448584
-1.4179362 2.6252699 9.5857458
-1.1535646 2.1181078 5.7415671
-1.0638088 1.9436451 4.1278338
-0.67081678 1.2215282 2.119415
-0.83406997 1.5151275 2.1473348
-0.12614797 0.30012396 5.4702859
-0.69124597 1.4954042 15.321986
-1.1724775 2.1934876 9.6134176
-1.6128883 2.983851 9.2780132
-1.22132 2.2444432 5.3471866
-0.6259222 1.1458979 2.2059073
-0.73958397 1.3501413 2.1132224
-0.89775395 1.6355677 2.1009099
-0.95143235 1.7198396 2.0112567
-0.93124425 1.6812865 1.6321138
-0.89942753 1.6218574 1.3005152
-0.87778151 1.5815369 1.033384
-0.86033279 1.548839 0.80414945
-0.84392506 1.5180666 0.60047174
-0.83350831 1.4981073 0.41695657
-0.81877369 1.4704311 0.24404147
-0.94279104 1.709861 1.8202046
-0.90769064 1.6441826 1.4510671
-0.88688004 1.6051756 1.1632714
-0.86612701 1.5656911 0.91460848
-0.85341519 1.5414566 0.70236832
-0.83637154 1.5094433 0.50692576
-0.82342553 1.4854774 0.3291012
-0.81663162 1.4720248 0.16158132
-0.0075311824 0.058740843 5.3490701
-0.69677675 1.342762 9.6171589
-0.93301249 1.7704517 9.6448584
-1.4087636 2.6302035 9.5857458
-1.1470922 2.1238406 5.7461696
-1.0638723 1.9599764 4.1541681
-0.66654879 1.2238623 2.119415
-0.83031189 1.520843 2.1511722
-0.12455185 0.299227 5.4453278
-0.68624347 1.4982928 15.326958
-1.1648136 2.197567 9.6134176
-1.6114303 3.0061939 9.3296347
-1.2217479 2.2640195 5.3831964
-0.62812871 1.1595422 2.2272372
-0.73486662 1.3527148 2.1132224
-0.89366001 1.6416689 2.1045849
-0.95228446 1.7356566 2.025275
-0.92911768 1.6913499 1.6383907
-0.89980584 1.6359786 1.3087394
-0.87866396 1.5962337 1.0403403
-0.85939491 1.5599537 0.80789554
-0.84325308 1.529405 0.60329181
-0.83302033 1.5096096 0.41882181
-0.81845093 1.4819989 0.24493563
-0.94219077 1.7229695 1.830181
-0.90776896 1.6579772 1.4598964
-0.88748586 1.6196032 1.170871
-0.86720532 1.580642 0.92090267
-0.85030204 1.5485654 0.70401186
-0.83577925 1.5208732 0.50927037
-0.82300663 1.4970218 0.33048257
-0.81630498 1.4836205 0.16198438
-0.0073258714 0.058723144 5.34407
-0.69208539 1.345186 9.6171589
-0.92682678 1.7736976 9.6448584
-1.4002742 2.6364233 9.590518
-1.1424385 2.1329985 5.7599773
-1.0672399 1.9826585 4.1936703
-0.66227263 1.2261815 2.119415
-0.82652408 1.5265508 2.1550097
-0.12307213 0.29858997 5.4253612
-0.68122923 1.5011647 15.331929
-1.1571356 2.2016194 9.6134176
-1.6098355 3.0285623 9.3812542
-1.2210268 2.2817066 5.4147048
-0.62901342 1.1709181 2.2443008
-0.73014033 1.3552717 2.1132224
-0.88792408 1.6447785 2.1045849
-0.95133328 1.748368 2.0357885
-0.92879415 1.704837 1.6478059
-0.90209877 1.653793 1.3197054
-0.87945437 1.6109557 1.0472968
-0.86061263 1.5751489 0.81351459
-0.84481376 1.5449659 0.60752195
-0.83246225 1.5211265 0.42068705
-0.8180573 1.4935822 0.24582979
-0.94151038 1.7360946 1.8401576
-0.90969074 1.6753446 1.4716691
-0.88800174 1.6340541 1.1784705
-0.86818981 1.5956194 0.92719686
-0.84940797 1.5598184 0.70729887
-0.83511728 1.5323173 0.51161504
-0.82488745 1.5129288 0.33255461
-0.81830037 1.4996176 0.16258898
-0.0071208449 0.058748357 5.34407
-0.68738562 1.3475938 9.6171589
-0.9206298 1.7769221 9.6448584
-1.3910627 2.6412952 9.590518
-1.1368186 2.1404245 5.7691827
-1.0614402 1.9884846 4.1980586
-0.65798843 1.2284858 2.119415
-0.82119042 1.5294266 2.1550097
-0.12138304 0.29741064 5.3954115
-0.67598504 1.5035334 15.331929
-1.1494435 2.2056453 9.6134176
-1.6072997 3.0494297 9.4281816
-1.2283597 2.3148 5.482223
-0.63227832 1.186918 2.2698965
-0.7254051 1.357812 2.1132224
-0.88377726 1.6508567 2.1082602
-0.95199841 1.7642323 2.0498068
-0.92838776 1.7183422 1.6572214
-0.90228873 1.6679654 1.3279297
-0.87804365 1.6218069 1.0519344
-0.85952616 1.5862956 0.81726068
-0.84398913 1.5563393 0.61034197
-0.83183378 1.5326579 0.42255229
-0.81759274 1.5051808 0.24672395
-0.94251823 1.7525244 1.8534596
-0.90958595 1.6891865 1.4804987
-0.88638252 1.6447337 1.1835369
-0.86908025 1.6106229 0.93349099
-0.84844559 1.5710839 0.71058589
-0.83438563 1.5437751 0.51395965
-0.82431209 1.5245112 0.33393598
-0.81781614 1.5112525 0.16299205
-0.0069158152 0.058729224 5.3390703
-0.68267745 1.3499849 9.6171589
-0.91442156 1.7801249 9.6448584
-1.3825253 2.6474581 9.5952902
-1.1311607 2.1478367 5.7783871
-1.0634551 2.0091119 4.2331715
-0.65369624 1.2307751 2.119415
-0.80831546 1.5181375 2.1358223
-0.11970369 0.29622313 5.3654613
-0.67073256 1.5058839 15.331929
-1.1417373 2.2096441 9.6134176
-1.6062362 3.073375 9.4844952
-1.2253402 2.3287065 5.5047293
-0.6342212 1.2006487 2.2912261
-0.72066098 1.3603359 2.1132224
-0.87959874 1.656926 2.1119354
-0.9525643 1.7801224 2.0638249
-0.9297365 1.7352961 1.6697752
-0.90239066 1.6821591 1.3361541
-0.87866318 1.6365706 1.0588907
-0.86056644 1.6015373 0.82287979
-0.84309542 1.5677258 0.61316204
-0.83346301 1.5485288 0.42535016
-0.81941885 1.5211787 0.24806519
-0.94342273 1.7689819 1.8667616
-0.91129941 1.7066134 1.4922713
-0.88673121 1.6592236 1.1911365
-0.86987633 1.6256518 0.93978512
-0.84964418 1.5865246 0.71551645
-0.83588016 1.5595304 0.51747662
-0.82366568 1.536108 0.33531734
-0.81726068 1.5229021 0.16339511
-0.0067107701 0.058753002 5.3390703
-0.67830896 1.3530544 9.622098
-0.90820217 1.783306 9.6448584
-1.3732755 2.6522677 9.5952902
-1.1245606 2.1535039 5.78299
-1.0753553 2.0488639 4.307786
-0.649396 1.2330494 2.119415
-0.79852217 1.5124462 2.1243098
-0.11803412 0.29502755 5.3355117
-0.66525716 1.5077282 15.326958
-1.1340172 2.2136159 9.6134176
-1.6066128 3.100414 9.5501938
-1.2202247 2.3387601 5.5182328
-0.63970548 1.2213383 2.3253536
-0.71590817 1.3628433 2.1132224
-0.87380964 1.6599863 2.1119354
-0.95470226 1.7991881 2.0813477
-0.930978 1.7522804 1.6823291
-0.90436822 1.7000654 1.3471199
-0.87919033 1.6513584 1.0658472
-0.86151087 1.6168058 0.82849884
-0.84438968 1.5833576 0.61739212
-0.83267856 1.5600959 0.4272154
-0.81879681 1.532815 0.24895935
-0.9442237 1.785467 1.8800635
-0.91290212 1.7240728 1.5040439
-0.88900799 1.677545 1.2012691
-0.86845082 1.6366966 0.94398123
-0.85074526 1.6019925 0.72044694
-0.83499366 1.5710229 0.51982123
-0.8229484 1.5477186 0.33669871
-0.81663376 1.5345663 0.16379817
-0.0065052547 0.058819704 5.34407
-0.67358178 1.3554139 9.622098
-0.90197176 1.7864653 9.6448584
-1.364009 2.6570451 9.5952902
-1.1179349 2.1591513 5.7875924
-1.0980457 2.1099687 4.426291
-0.6450879 1.2353088 2.119415
-0.78580552 1.5010257 2.1051223
-0.11626948 0.29355496 5.3005695
-0.65956384 1.509064 15.317015
-1.1262834 2.217561 9.6134176
-1.5957805 3.1060033 9.5501938
-1.209053 2.3372042 5.5047293
-0.64986026 1.2513392 2.3765447
-0.71114659 1.3653339 2.1132224
-0.86957854 1.666032 2.1156106
-0.95505804 1.8151338 2.095366
-0.93211222 1.7692941 1.6948829
-0.90428084 1.7143073 1.3553444
-0.87962472 1.6661694 1.0728035
-0.86019331 1.628001 0.83224493
-0.84334254 1.5947767 0.62021226
-0.83182329 1.5716763 0.42908064
-0.82043439 1.5488659 0.25030059
-0.94492102 1.8019792 1.8933655
-0.91627288 1.7451426 1.5187596
-0.88916242 1.6920861 1.2088687
-0.86907214 1.6517677 0.95027542
-0.85174853 1.6174871 0.7253775
-0.83630323 1.5868281 0.5233382
-0.82216001 1.5593427 0.33808005
-0.81593531 1.5462447 0.16420123
-0.0062998957 0.058842055 5.34407
-0.66884643 1.3577569 9.622098
-0.89573032 1.7896029 9.6448584
-1.354049 2.66046 9.590518
-1.1103913 2.1630404 5.7875924
-1.1444803 2.2180812 4.641356
-0.64077193 1.237553 2.119415
-0.78056115 1.5037595 2.1051223
-0.11462051 0.29234302 5.2706199
-0.65408069 1.5108677 15.312043
-1.1185359 2.2214789 9.6134176
-1.5841457 3.1100168 9.5455008
-0.63713205 1.2373683 2.3466833
-0.70775878 1.3704852 2.1172123
-0.86375767 1.6690571 2.1156106
-0.94871622 1.8184565 2.095366
-0.93494099 1.7897872 1.7105752
-0.90604281 1.7322743 1.3663102
-0.8799665 1.6810037 1.07976
-0.86095947 1.6433132 0.83786404
-0.84445357 1.6104562 0.62444234
-0.83318007 1.5876193 0.43187848
-0.81965423 1.5605379 0.25119475
-0.94551456 1.8185179 1.9066676
-0.91764122 1.7626718 1.5305324
-0.89121789 1.7104716 1.2190014
-0.86959863 1.6668631 0.95656961
-0.85265398 1.6330082 0.730308
-0.83751249 1.6026613 0.52685511
-0.82130039 1.5709802 0.33946142
-0.8128491 1.55351 0.16440275
-0.0060944604 0.058863688 5.34407
-0.66410291 1.3600832 9.622098
-0.88993049 1.793631 9.6497536
-1.344754 2.6651702 9.590518
-1.1028341 2.1669033 5.7875924
-1.1585439 2.2647078 4.7291374
-0.6377331 1.2422856 2.1235478
-0.77677393 1.509325 2.1089599
-0.11287844 0.2908535 5.2356787
-0.64838338 1.5121616 15.3021
-1.1113359 2.2264946 9.6182575
-1.5748355 3.1186085 9.5548868
-1.2667032 2.4911275 5.84232
-0.70297056 1.3729475 2.1172123
-0.85792631 1.6720622 2.1156106
-0.94236284 1.8217571 2.095366
-0.93584794 1.8068649 1.723129
-0.90576535 1.7465626 1.3745347
-0.88021523 1.6958604 1.0867163
-0.86162913 1.6586505 0.84348315
-0.8454653 1.6261628 0.62867242
-0.8321681 1.5992332 0.43374372
-0.82110274 1.5766401 0.25253597
-0.94600397 1.8350824 1.9199696
-0.92075205 1.7838231 1.545248
-0.89315569 1.7288921 1.2291342
-0.87003016 1.6819818 0.96286368
-0.85346133 1.6485553 0.73523855
-0.8386215 1.6185223 0.53037208
-0.82264847 1.5870271 0.34153345
-0.81202275 1.5652072 0.16480581
-0.005888951 0.058884602 5.34407
-0.65901297 1.3616936 9.6171589
-0.88366407 1.7967263 9.6497536
-1.3354425 2.669848 9.590518
-1.0952635 2.1707397 5.7875924
-1.1614636 2.2900984 4.7730284
-0.63339281 1.2445041 2.1235478
-0.77150065 1.5120274 2.1089599
-0.11125021 0.28962541 5.2057285
-0.64268494 1.5134341 15.292157
-1.1035571 2.2303603 9.6182575
-1.5647124 3.1256299 9.5595798
-1.2687781 2.5169177 5.8918338
-1.0182394 2.0120454 3.7587075
-0.69817382 1.3753929 2.1172123
-0.85208452 1.6750467 2.1156106
-0.93599802 1.8250355 2.095366
-0.93842477 1.827433 1.7388211
-0.90731108 1.7645884 1.3855006
-0.88037097 1.7107393 1.0936728
-0.86220205 1.6740122 0.8491022
-0.84417963 1.6376319 0.6314925
-0.83333743 1.6152248 0.43654159
-0.82016385 1.5883465 0.25343013
-0.9463892 1.8516722 1.9332715
-0.92188495 1.8014193 1.5570207
-0.89497572 1.7473465 1.2392669
-0.87243772 1.7011623 0.9712559
-0.8541705 1.6641276 0.74016905
-0.83740866 1.6300867 0.53271675
-0.82163084 1.5986979 0.34291482
-0.80883938 1.5724748 0.16500735
-0.0056843664 0.058861174 5.3390703
-0.65425575 1.3639858 9.6171589
-0.87738699 1.7998 9.6497536
-1.3261149 2.6744933 9.590518
-1.0876795 2.1745496 5.7875924
-1.1523869 2.2919989 4.7686391
-0.63031232 1.24922 2.1276808
-0.76766467 1.5175713 2.1127973
-0.10953084 0.28811911 5.1707869
-0.63719183 1.5151768 15.287186
-1.095765 2.2341988 9.6182575
-1.5545595 3.1326187 9.5642729
-1.2950144 2.5914366 6.0538774
-1.018226 2.0295742 3.7843029
-0.69336849 1.3778216 2.1172123
-0.84623235 1.6780108 2.1156106
-0.9296217 1.8282915 2.095366
-0.93910354 1.8445723 1.7513751
-0.90684295 1.7789209 1.3937249
-0.88043344 1.7256397 1.1006291
-0.86267823 1.6893982 0.85472137
-0.84500724 1.6533831 0.63572258
-0.8321681 1.6268705 0.43840683
-0.81915325 1.6000655 0.25432429
-0.94667 1.868287 1.9465735
-0.92473501 1.8226495 1.5717366
-0.89472592 1.7619909 1.2468663
-0.87266505 1.7163343 0.97755009
-0.85263962 1.6755164 0.74345607
-0.83833128 1.6459936 0.53623366
-0.82054174 1.6103808 0.34429619
-0.81015444 1.5886406 0.16561194
-0.0054788683 0.058880661 5.3390703
-0.64949059 1.3662612 9.6171589
-0.87065625 1.8019348 9.6448584
-1.3167711 2.679106 9.590518
-1.0800823 2.1783333 5.7875924
-1.1411744 2.289577 4.7554722
-0.62594789 1.2514125 2.1276808
-0.76236266 1.5202417 2.1127973
-0.10832413 0.28795815 5.1608033
-0.63148981 1.5164071 15.277243
-1.0879595 2.2380099 9.6182575
-1.5443766 3.1395741 9.568965
-1.2936907 2.6115472 6.0898871
-1.0146191 2.0401218 3.7971005
-0.6872099 1.3775373 2.1132224
-0.84188563 1.6839868 2.1192856
-0.92483926 1.83471 2.0988705
