# .PCD v0.7 - Point Cloud Data file format
VERSION 0.7
FIELDS x y z
SIZE 4 4 4
TYPE F F F
COUNT 1 1 1
WIDTH 1499
HEIGHT 1
VIEWPOINT 0 0 0 1 0 0 0
POINTS 1499
DATA ascii
-0.82247698 1.2011789 0.2952579
-0.80469024 1.1743361 0.15110172
-0.019186884 0.11749324 12.228807
-0.47691691 0.73899692 5.5916643
-0.50592983 0.77316731 4.4657078
-1.085586 1.6231939 4.6599741
-1.187512 1.7676582 3.9698269
-1.1168237 1.6574603 3.0079987
-1.0415004 1.5422071 2.3046725
-0.33426276 0.63303441 12.219008
-0.67907369 1.1753923 12.617488
-0.62764919 0.95432872 4.4352341
-1.0012047 1.5071888 4.9747467
-1.2262021 1.8349048 4.6269922
-1.17162 1.7473152 3.5112834
-1.065678 1.585146 2.6039953
-0.99873775 1.4827971 2.016381
-0.97326291 1.4346944 1.7834612
-0.88954967 1.3098241 1.3590679
-0.8734529 1.2846911 1.1031295
-0.86052203 1.264735 0.88729954
-0.84583843 1.2422342 0.69551355
-0.83487469 1.225226 0.52574003
-0.82471412 1.209416 0.36939296
-0.81954807 1.2009529 0.22347584
-0.92445403 1.3668529 1.5508391
-0.87848121 1.2974285 1.2244437
-0.86186582 1.2719448 0.98848218
-0.85669541 1.2629032 0.79292148
-0.84108537 1.238973 0.61033183
-0.82770264 1.218357 0.44596523
-0.82106256 1.2081383 0.29594857
-0.80620533 1.1854 0.15150478
-0.018776638 0.1175595 12.228807
-0.4739157 0.74000263 5.5867248
-0.50267369 0.77407455 4.4608126
-1.0755922 1.6204622 4.6415639
-1.1893055 1.7837492 3.9961612
-1.1188524 1.6730448 3.0286636
-1.0432487 1.5564835 2.3200223
-0.33205101 0.63419741 12.219008
-0.67496669 1.1777555 12.617488
-0.62500089 0.9575665 4.440073
-0.99688733 1.5121154 4.9794397
-1.2258054 1.8482454 4.6494985
-1.1712928 1.7600795 3.528347
-1.0668275 1.5988826 2.6199553
-0.99920756 1.4947296 2.0274065
-0.97422391 1.4469579 1.7939749
-0.889323 1.3193766 1.3653449
-0.87364089 1.2946645 1.1086124
-0.85858101 1.2714021 0.88961834
-0.84409285 1.2490202 0.69738662
-0.83596754 1.2360802 0.5285601
-0.82599396 1.2204236 0.3712582
-0.81814361 1.2079295 0.22392292
-0.92591971 1.3793719 1.5608156
-0.8784557 1.3071969 1.23033
-0.86223179 1.2820998 0.99354851
-0.85735112 1.2734156 0.79711759
-0.84203249 1.249734 0.61361885
-0.82616204 1.225269 0.44713756
-0.8196094 1.2151023 0.29663923
-0.80765289 1.1964886 0.15190785
-0.018366165 0.11762433 12.228807
-0.4709132 0.74099642 5.5817857
-0.49941728 0.77496833 4.4559174
-1.0634816 1.6144173 4.6139488
-1.1896794 1.7978766 4.0181065
-1.1192298 1.686319 3.0451953
-1.0431346 1.5681221 2.3315351
-0.32983524 0.63535261 12.219008
-0.67111444 1.180568 12.622459
-0.62165463 0.95974231 4.440073
-0.9916029 1.5155859 4.9794397
-1.2265269 1.8634236 4.6765056
-1.1708906 1.7728624 3.5454109
-1.0678942 1.6126465 2.6359155
-1.0014803 1.5095086 2.0421071
-0.97511113 1.4592456 1.8044887
-0.8912046 1.3321785 1.3747603
-0.87376976 1.3046548 1.1140954
-0.85907018 1.2817509 0.89425594
-0.84489238 1.2596593 0.70113266
-0.83699465 1.2469567 0.53138018
-0.82720703 1.2314548 0.37312344
-0.81947881 1.219044 0.22481708
-0.92937928 1.3950251 1.5741175
-0.87837285 1.3169808 1.2362163
-0.86253732 1.2922729 0.99861485
-0.85542232 1.2801741 0.79921561
-0.84028989 1.256591 0.61526239
-0.82728654 1.2362245 0.4494822
-0.81811774 1.2220709 0.29732993
-0.80903274 1.2076018 0.15231091
-0.017955469 0.11768772 12.228807
-0.46790963 0.74197823 5.5768461
-0.49670908 0.77670687 4.4559174
-1.0524951 1.6099432 4.5909362
-1.1912838 1.8140304 4.0444412
-1.1210757 1.7019659 3.0658603
-1.0447178 1.5824536 2.346885
-0.32774696 0.63675708 12.224
-0.66725087 1.183368 12.627431
-0.61830068 0.96190649 4.440073
-0.98536688 1.5175905 4.9747467
-1.2271574 1.8786294 4.7035131
-1.1704133 1.785664 3.5624745
-1.0705324 1.6289554 2.6558657
-1.0017978 1.52149 2.0531328
-0.97592425 1.4715568 1.8150022
-0.8908546 1.3417667 1.3810372
-0.87383956 1.3146617 1.1195784
-0.85704416 1.2884305 0.8965748
-0.8456279 1.2703191 0.70487875
-0.83529633 1.2538631 0.53279018
-0.82835305 1.2425094 0.37498868
-0.81798232 1.2260396 0.22526415
-0.93274087 1.4107193 1.5874195
-0.87823224 1.3267801 1.2421026
-0.86516279 1.3060576 1.0062144
-0.85596502 1.2907171 0.80341172
-0.84112078 1.2673856 0.61854941
-0.82834452 1.2472028 0.45182684
-0.81658745 1.2290441 0.29802063
-0.81034476 1.2187389 0.15271397
-0.017540682 0.11770623 12.223808
-0.46531677 0.74360704 5.5768461
-0.49344954 0.77757609 4.4510221
-1.0404899 1.6037731 4.5633211
-1.1914823 1.8282107 4.0663867
-1.122826 1.7176461 3.086525
-1.0444571 1.5941342 2.3583977
-0.32552227 0.63789725 12.224
-0.66337591 1.1861554 12.632402
-0.61426353 0.96299899 4.4352341
-0.98193264 1.5239224 4.9841328
-1.2276968 1.8938624 4.7305207
-1.1727047 1.8028562 3.5880699
-1.0714238 1.6427782 2.6718256
-1.003898 1.5363299 2.0678334
-0.97666329 1.4838914 1.8255159
-0.89044863 1.3513688 1.3873141
-0.87384999 1.324685 1.1250613
-0.85742241 1.2988081 0.90121239
-0.84629917 1.2809992 0.70862478
-0.83620566 1.2647743 0.53561026
-0.82672137 1.24949 0.37592128
-0.81919646 1.237192 0.22615832
-0.93600398 1.4264537 1.6007215
-0.87803388 1.3365942 1.2479889
-0.86533451 1.3162739 1.0112808
-0.85644442 1.3012794 0.80760783
-0.84188652 1.2782015 0.62183642
-0.82933581 1.2582033 0.45417145
-0.81774437 1.2401555 0.29940197
-0.81158888 1.2298999 0.15311703
-0.017129702 0.11776674 12.223808
-0.46312785 0.74588704 5.5817857
-0.4912746 0.78015566 4.4559174
-1.0370003 1.6106807 4.572526
-1.1928966 1.844425 4.092721
-1.1244804 1.7333595 3.1071897
-1.0441275 1.6058319 2.36991
-0.3232936 0.63902962 12.224
-0.65923142 1.1884638 12.632402
-0.61022627 0.96407509 4.4303942
-0.98683155 1.5433341 5.0357528
-1.2281444 1.9091215 4.7575274
-1.1748903 1.820086 3.6136658
-1.0738686 1.6591566 2.6917758
-1.0059069 1.5512028 2.0825341
-0.97732794 1.496249 1.8360294
-0.88998634 1.3609842 1.393591
-0.87380105 1.3347241 1.1305442
-0.85773855 1.309204 0.90584999
-0.84690619 1.2916995 0.71237087
-0.83704877 1.2757071 0.53843033
-0.82774723 1.2605805 0.37778652
-0.8176077 1.2442058 0.2266054
-0.93916857 1.4422278 1.6140234
-0.87998492 1.3498092 1.2568183
-0.86780077 1.3301177 1.0188802
-0.8543787 1.3080609 0.80970585
-0.84258687 1.2890377 0.62512344
-0.83026034 1.2692258 0.45651609
-0.816122 1.2471461 0.30009267
-0.81276494 1.2410842 0.15352009
-0.016718516 0.11782581 12.223808
-0.46092871 0.7481609 5.5867248
-0.48854831 0.78186578 4.4559174
-1.0313716 1.6142908 4.572526
-1.1942122 1.8606716 4.1190557
-1.1260388 1.7491047 3.1278543
-1.0437289 1.6175468 2.3814225
-0.32118979 0.64041257 12.228992
-0.65559196 1.1916922 12.642345
-0.6068573 0.96619934 4.4303942
-0.98975801 1.5598842 5.0779877
-1.2296716 1.9262419 4.7890358
-1.1755632 1.835157 3.6349955
-1.0745839 1.6730366 2.7077358
-1.0078239 1.5661083 2.0972347
-0.97791833 1.5086292 1.8465432
-0.89158654 1.3738779 1.4030064
-0.87369263 1.3447789 1.1360271
-0.86040711 1.3233317 0.91280639
-0.84744871 1.3024194 0.71611691
-0.83782583 1.286661 0.54125035
-0.82870573 1.2716933 0.37965176
-0.81870025 1.2553949 0.22749956
-0.94223434 1.4580417 1.6273257
-0.87965894 1.3596603 1.2627047
-0.86783808 1.3403759 1.0239466
-0.85474461 1.3186522 0.81390196
-0.84322166 1.2998943 0.62841046
-0.83111805 1.2802701 0.45886073
-0.81715786 1.2582936 0.30147403
-0.81115025 1.2481029 0.15372162
-0.016307125 0.11788346 12.223808
-0.45871928 0.75042844 5.5916643
-0.48635244 0.78443199 4.4608126
-1.0267764 1.6195312 4.5771284
-1.1967152 1.8789698 4.1497793
-1.1305304 1.7696251 3.156785
-1.0449893 1.6319776 2.3967726
-0.31895238 0.64152986 12.228992
-0.65193808 1.1949097 12.652289
-0.60281628 0.9672448 4.4255548
-0.9898228 1.5720919 5.106144
-1.2310945 1.9433961 4.8205447
-1.1775441 1.8524557 3.6605909
-1.0752151 1.6869416 2.723696
-1.0096492 1.581046 2.1119354
-0.98036325 1.524031 1.8605614
-0.89100009 1.3835267 1.4092834
-0.8757903 1.3583636 1.1442515
-0.86058587 1.3337716 0.91744399
-0.84792674 1.3131589 0.719863
-0.8385365 1.297636 0.54407042
-0.82692915 1.2787032 0.38058439
-0.81701887 1.2624259 0.22794664
-0.9452011 1.473894 1.6406276
-0.87927479 1.3695253 1.268591
-0.86781418 1.3506507 1.0290129
-0.85504687 1.3292619 0.81809807
-0.84379101 1.3107711 0.63169748
-0.83190858 1.2913357 0.46120536
-0.81812578 1.2694635 0.30285537
-0.81220424 1.2593237 0.15412468
-0.0158988 0.11798317 12.228807
-0.45649958 0.7526896 5.5966034
-0.48414448 0.78699225 4.4657078
-1.021117 1.6231054 4.5771284
-1.1978258 1.8952836 4.1761136
-1.1333859 1.7878209 3.1815827
-1.0444429 1.6437314 2.4082851
-0.3167111 0.64263928 12.228992
-0.64902949 1.1995232 12.677146
-0.59877545 0.96827394 4.4207153
-0.98524338 1.5770012 5.110837
-1.2324122 1.9605833 4.8520532
-1.1780272 1.8675843 3.6819205
-1.0757624 1.7008715 2.739656
-1.0113823 1.5960155 2.126636
-0.98079365 1.5364621 1.8710749
-0.89245296 1.3964677 1.4186987
-0.87555033 1.368457 1.1497345
-0.86309057 1.3479594 0.92440039
-0.84833997 1.3239174 0.72360903
-0.83918077 1.3086315 0.54689056
-0.82776678 1.2898502 0.38244963
-0.81798941 1.2736505 0.2288408
-0.9480685 1.4897847 1.6539296
-0.88100427 1.3828132 1.2774205
-0.86772925 1.3609414 1.0340793
-0.85528547 1.3398899 0.82229424
-0.84429455 1.3216676 0.63498449
-0.83263206 1.3024223 0.46355
-0.81635749 1.2764833 0.30354607
-0.81049657 1.2663591 0.15432622
-0.015486864 0.11803794 12.228807
-0.45426971 0.7549445 5.6015425
-0.48139438 0.78867739 4.4657078
-1.015445 1.6266599 4.5771284
-1.200109 1.9136566 4.2068372
-1.1376264 1.8084406 3.2105134
-1.0455365 1.6582125 2.423635
-0.31446594 0.64374089 12.228992
-0.64282519 1.1980221 12.637374
-0.59539187 0.97035819 4.4207153
-0.97882348 1.5789639 5.106144
-1.2336249 1.9778033 4.8835616
-1.1784189 1.8827389 3.7032504
-1.0778272 1.7173778 2.7596061
-1.0130231 1.611016 2.1413364
-0.98114926 1.5489146 1.8815886
-0.89382631 1.4094359 1.4281141
-0.87749153 1.3820952 1.1579589
-0.86313128 1.3584418 0.92903793
-0.84868836 1.3346947 0.72735512
-0.83975834 1.3196471 0.54971057
-0.82853645 1.3010186 0.38431486
-0.81621498 1.2806977 0.22928788
-0.94884288 1.5025562 1.663906
-0.88049161 1.3927132 1.2833068
-0.86758298 1.371248 1.0391457
-0.85546017 1.3505354 0.82649034
-0.84473234 1.3325834 0.63827151
-0.83068448 1.3094252 0.46472231
-0.81720364 1.2876875 0.30492741
-0.81142801 1.277615 0.15472928
-0.015074741 0.11809128 12.228807
-0.45123371 0.75585818 5.5966034
-0.47916564 0.79122412 4.470603
-1.0097606 1.6301945 4.5771284
-1.2010132 1.930035 4.2331715
-1.1417364 1.8291107 3.239444
-1.0448418 1.670004 2.4351475
-0.31221694 0.6448347 12.228992
-0.63788939 1.1988463 12.622459
-0.59134769 0.97135675 4.4158759
-0.97059405 1.5779612 5.0920658
-1.2358779 1.9969068 4.9195709
-1.178719 1.8979188 3.72458
-1.0797896 1.733919 2.7795563
-1.016366 1.6289238 2.1597126
-0.98142976 1.5613881 1.8921022
-0.89511991 1.4224304 1.4375293
-0.87711942 1.3922256 1.1634418
-0.86310917 1.3689409 0.93367553
-0.84897184 1.3454906 0.73110116
-0.84026921 1.3306826 0.55253065
-0.82923836 1.3122081 0.3861801
-0.81706315 1.2919569 0.23018204
-0.95152193 1.518515 1.6772081
-0.87992066 1.4026264 1.2891932
-0.86737525 1.3815701 1.0442121
-0.85557097 1.3611984 0.83068645
-0.84510404 1.3435183 0.64155853
-0.83128744 1.3205439 0.46706694
-0.81798154 1.2989131 0.30630878
-0.80962712 1.2846662 0.1549308
-0.014662433 0.11814318 12.228807
-0.44938383 0.75876617 5.606482
-0.47535262 0.7911461 4.4608126
-1.0040642 1.6337093 4.5771284
-1.2030759 1.948481 4.263895
-1.145716 1.8498321 3.2683747
-1.0457678 1.6845338 2.4504976
-0.30996415 0.64592063 12.228992
-0.63196218 1.197764 12.587659
-0.58795345 0.97341502 4.4158759
-0.95968705 1.5725011 5.0639095
-1.2368734 2.014195 4.9510798
-1.1789274 1.9131236 3.7459095
-1.0816498 1.750495 2.7995064
-1.0178115 1.6439916 2.1744132
-0.98163509 1.5738823 1.9026158
-0.89633363 1.4354511 1.4469448
-0.87668711 1.4023701 1.1689247
-0.86302423 1.3794563 0.93831313
-0.84919024 1.3563044 0.73484725
-0.84071314 1.3417376 0.55535072
-0.82987207 1.323418 0.38804534
-0.81519544 1.2990192 0.2306291
-0.95212978 1.53134 1.6871846
-0.88142693 1.4159838 1.2980225
-0.8671059 1.3919073 1.0492785
-0.85561776 1.3718786 0.8348825
-0.8429094 1.350466 0.64320201
-0.82924777 1.3275601 0.46823925
-0.81869084 1.3101596 0.30769014
-0.81043565 1.2959563 0.15533386
-0.014249948 0.11819365 12.228807
-0.44791245 0.76234049 5.6212997
-0.47519338 0.79717439 4.4852891
-0.9993723 1.6388723 4.5817313
-1.2037731 1.9649222 4.2902293
-1.1480914 1.8682053 3.2931724
-1.046605 1.6990905 2.4658477
-0.30783096 0.64725971 12.233984
-0.62901098 1.2023255 12.612517
-0.58390605 0.97438312 4.4110365
-0.94883001 1.5669839 5.0357528
-1.2388957 2.0333731 4.9870896
-1.1804044 1.9305779 3.7715054
-1.083407 1.7671045 2.8194566
-1.0209388 1.6619781 2.1927891
-0.98176509 1.5863971 1.9131296
-0.89746726 1.4484973 1.4563601
-0.87619478 1.4125285 1.1744076
-0.86053997 1.386224 0.94063193
-0.84934336 1.3671362 0.73859328
-0.84109014 1.3528119 0.5581708
-0.82784253 1.3304777 0.38897794
-0.81592077 1.3103117 0.23152326
-0.95462006 1.5473652 1.7004865
-0.88072693 1.42593 1.3039091
-0.86904132 1.4059262 1.056878
-0.85560018 1.3825755 0.83907861
-0.84316278 1.3614295 0.64648902
-0.82973003 1.3387096 0.47058392
-0.81933171 1.3214269 0.30907148
-0.80854112 1.3030224 0.1555354
-0.013837287 0.11824267 12.228807
-1.0356042 1.7778246 13.079579
-0.47447988 0.80233467 4.5048699
-0.99364549 1.6423508 4.5817313
-1.2056143 1.9834388 4.3209534
-1.1503524 1.8866175 3.31797
-1.0473533 1.7136732 2.4811976
-0.3056922 0.6485917 12.238976
-0.62554544 1.2059338 12.627431
-0.58050132 0.9764154 4.4110365
-0.91936409 1.5303441 4.9090486
-1.239673 2.0507267 5.0185981
-1.1804212 1.9458359 3.792835
-1.0866276 1.7863221 2.8433967
-1.0221882 1.6771113 2.2074897
-0.98181957 1.5989317 1.9236431
-0.90055913 1.464885 1.468914
-0.87564206 1.4227005 1.1798905
-0.86034226 1.396763 0.94526953
-0.84699863 1.3740391 0.7404663
-0.84140003 1.363905 0.56099087
-0.8283543 1.3417189 0.39084318
-0.81395954 1.3173884 0.23197034
-0.95700967 1.5634263 1.7137885
-0.88207996 1.4393346 1.3127384
-0.86863577 1.4163008 1.0619444
-0.8555184 1.3932891 0.84327471
-0.84334987 1.3724109 0.64977604
-0.83014435 1.3498784 0.47292855
-0.81730884 1.3284966 0.30976218
-0.80922645 1.3143452 0.15593846
-0.013422108 0.11824668 12.223808
-1.0278378 1.7787374 13.059822
-0.47322112 0.80662119 4.5195556
-0.98891193 1.6474845 4.5863338
-1.2061038 1.9999409 4.3472877
-1.1524987 1.9050682 3.3427677
-1.0480123 1.7282819 2.4965477
-0.3034263 0.64965481 12.238976
-0.62206239 1.2095327 12.642345
-0.57708949 0.97843581 4.4110365
-0.89458275 1.5009303 4.8058076
-1.2414634 2.069977 5.0546079
-1.1803457 1.9611174 3.8141649
-1.0912838 1.8081635 2.8713269
-1.0250987 1.6951743 2.2258654
-0.98365384 1.6145316 1.9376613
-0.90152049 1.4779886 1.4783293
-0.87502897 1.4328859 1.1853735
-0.86008126 1.4073173 0.94990712
-0.84703487 1.3848971 0.74421245
-0.83913821 1.3709252 0.56240088
-0.82879764 1.3529799 0.39270842
-0.81456155 1.3287129 0.2328645
-0.9573608 1.5763315 1.7237651
-0.88125008 1.4493124 1.3186247
-0.87040913 1.430372 1.0695438
-0.85773337 1.4078947 0.8495689
-0.84347045 1.3834101 0.65306306
-0.83049071 1.3610665 0.47527319
-0.81782657 1.339795 0.31114352
-0.80984241 1.3256887 0.15634152
-0.013009269 0.11829282 12.223808
-1.0185325 1.776921 13.020308
-0.4739857 0.8144294 4.553822
-0.98315507 1.6509264 4.5863338
-1.2077224 2.0185258 4.3780112
-1.1545303 1.9235568 3.3675654
-1.0485822 1.7429159 2.5118976
-0.30115673 0.65070999 12.238976
-0.61807829 1.2121719 12.647317
-0.57367057 0.98044419 4.4110365
-0.88845992 1.5025584 4.8011146
-1.2420219 2.0873942 5.0861163
-1.1801778 1.9764218 3.835494
-1.0942527 1.8274736 2.895267
-1.0261512 1.7103708 2.240566
-0.98354644 1.6271116 1.948175
-0.90240139 1.4911165 1.4877448
-0.87435538 1.4430841 1.1908565
-0.86205381 1.4216748 0.95686358
-0.84700549 1.395772 0.74795848
-0.83932769 1.3820463 0.56522095
-0.82917243 1.3642603 0.39457369
-0.81509441 1.3400576 0.23375866
-0.95763338 1.5892581 1.7337415
-0.88244927 1.4627628 1.3274543
-0.86986691 1.4407824 1.0746102
-0.85750908 1.4186484 0.85376495
-0.84352452 1.3944269 0.65635008
-0.83076912 1.3722732 0.47761783
-0.81827545 1.3511133 0.31252488
-0.81038898 1.3370526 0.15674458
-0.01259627 0.11833751 12.223808
-1.0119398 1.77979 13.015369
-0.47012237 0.81431514 4.5440316
-0.97837991 1.6560302 4.5909362
-1.2080033 2.0350864 4.4043455
-1.1564466 1.9420823 3.3923631
-1.0474199 1.7548225 2.5234103
-0.2988835 0.65175724 12.238976
-0.61360317 1.2138461 12.642345
-0.57087541 0.98352802 4.4158759
-0.87535262 1.4922534 4.7588797
-1.2435801 2.106715 5.1221261
-1.1785883 1.9895049 3.8525579
-1.0971001 1.8468262 2.9192071
-1.0271101 1.7255952 2.2552667
-0.98519701 1.6427686 1.9621931
-0.90520501 1.5076058 1.5002986
-0.87577534 1.4568788 1.1990808
-0.86165303 1.4322671 0.96150118
-0.84930158 1.4106351 0.75357759
-0.8394497 1.3931855 0.56804103
-0.82694173 1.3713529 0.39550632
-0.8155579 1.3514222 0.23465282
-0.95782739 1.6022056 1.7437181
-0.88356501 1.4762391 1.3362837
-0.87147743 1.4549046 1.0822097
-0.85721999 1.4294176 0.85796106
-0.84351188 1.4054608 0.65963709
-0.82847655 1.3793316 0.47879013
-0.81865519 1.3624508 0.31390625
-0.810866 1.348436 0.15714765
-0.012183118 0.11838076 12.223808
-1.0061026 1.7839885 13.020308
-0.4667713 0.81506741 4.5391364
-0.97358102 1.6611209 4.5955386
-1.2081833 2.0516737 4.4306803
-1.1596788 1.9630678 3.421294
-1.0478202 1.7695 2.5387602
-0.29648784 0.65253347 12.233984
-0.60888541 1.215027 12.632402
-0.56743878 0.9855147 4.4158759
-0.87013841 1.4952998 4.7588797
-1.2439184 2.1241932 5.1536345
-1.1782429 2.0048497 3.8738875
-1.0998255 1.8662207 2.9431474
-1.0262514 1.7379279 2.2662921
-0.9867503 1.6584572 1.9762113
-0.90591246 1.5207883 1.5097139
-0.87496793 1.4671094 1.2045637
-0.86118871 1.4428737 0.96613878
-0.84912694 1.4215511 0.75732362
-0.83950424 1.4043422 0.57086104
-0.82719362 1.3826621 0.39737156
-0.81595188 1.3628062 0.23554698
-0.95794249 1.6151737 1.7536945
-0.88459748 1.489741 1.3451133
-0.87079781 1.4653494 1.0872761
-0.8568663 1.440202 0.86215717
-0.84343243 1.4165114 0.66292417
-0.82863301 1.3905661 0.48113477
-0.81896579 1.3738075 0.31528762
-0.8112734 1.359839 0.15755071
-0.011769818 0.11842256 12.223808
-0.99986911 1.7874895 13.020308
-0.46392334 0.81669182 4.5391364
-0.96875858 1.6661983 4.6001415
-1.2082622 2.0682867 4.4570146
-1.1627783 1.9840988 3.4502244
-1.0465074 1.781438 2.5502727
-0.29420829 0.65356445 12.233984
-0.60464048 1.2171451 12.632402
-0.56461841 0.988581 4.4207153
-0.86232579 1.4938442 4.7448015
-1.2452433 2.1435816 5.1896443
-1.1738647 2.0134566 3.8824196
-1.1024288 1.8856567 2.9670875
-1.0270327 1.7532005 2.2809927
-0.98820597 1.6741762 1.9902295
-0.90851915 1.5373451 1.5222677
-0.87409973 1.4773523 1.2100466
-0.86291772 1.4573061 0.97309518
-0.84888631 1.432483 0.76106972
-0.837044 1.4113899 0.57227111
-0.82737654 1.3939896 0.3992368
-0.81627631 1.3742092 0.23644114
-0.95797873 1.6281621 1.763671
-0.88554627 1.5032678 1.3539426
-0.87005597 1.4758074 1.0923425
-0.85644752 1.4510012 0.86635327
-0.84328616 1.4275787 0.66621119
-0.82872105 1.4018184 0.48347941
-0.81920695 1.3851829 0.31666899
-0.811611 1.3712612 0.15795377
-0.011356374 0.11846292 12.223808
-0.99400032 1.7916483 13.025248
-0.4610697 0.81830627 4.5391364
-0.96391255 1.6712621 4.604744
-1.2082397 2.0849252 4.4833493
-1.1643307 2.0027425 3.4750218
-1.0435102 1.7906189 2.5579479
-0.2919251 0.65458739 12.233984
-0.60038817 1.2192482 12.632402
-0.5611642 0.99054587 4.4207153
-0.85453403 1.4923524 4.7307234
-1.245361 2.161119 5.2211523
-1.1824963 2.0446343 3.9336109
-1.1064216 1.9077401 2.9950178
-1.0260166 1.7655686 2.2920184
-0.98956382 1.6899257 2.0042477
-0.91102105 1.5539385 1.5348215
-0.87528735 1.4912131 1.2182711
-0.86231285 1.4679487 0.97773278
-0.84857965 1.4434303 0.76481575
-0.8369773 1.4225724 0.57509118
-0.82749045 1.4053352 0.40110204
-0.816531 1.3856311 0.23733529
-0.95981795 1.644395 1.7769731
-0.88641149 1.5168195 1.3627722
-0.86707526 1.4825565 1.0948756
-0.8536706 1.4578986 0.86845136
-0.84307265 1.4386619 0.66949821
-0.82874048 1.4130882 0.48582402
-0.81937855 1.3965763 0.31805035
-0.80934912 1.3783941 0.15815529
-0.010942792 0.11850184 12.223808
-0.9881146 1.7957878 13.030187
-0.45821047 0.81991071 4.5391364
-0.95904285 1.6763123 4.6093459
-1.2081157 2.1015885 4.5096836
-1.1629559 2.0165458 3.491554
-1.0388573 1.7970254 2.5617852
-0.28975442 0.65586674 12.238976
-0.59612858 1.2213366 12.632402
-0.55831861 0.99359465 4.4255548
-0.84846735 1.4938256 4.7260303
-1.2475318 2.1824632 5.2616634
-1.1844358 2.0645854 3.9634721
-1.1087706 1.9272621 3.0189579
-1.0266194 1.7808878 2.3067191
-0.99082369 1.7057046 2.0182657
-0.91146159 1.5672033 1.5442369
-0.87428457 1.5014863 1.223754
-0.86164409 1.4786046 0.98237038
-0.84820688 1.454393 0.76856184
-0.83684266 1.4337714 0.5779112
-0.82753509 1.4166985 0.40296727
-0.8167159 1.3970714 0.23822945
-0.95968449 1.6574291 1.7869495
-0.88516557 1.5268981 1.3686585
-0.86622137 1.4930317 1.0999421
-0.85313553 1.4687185 0.87264746
-0.84279209 1.449761 0.67278522
-0.82869142 1.4243752 0.48816866
-0.81698966 1.403708 0.31874102
-0.80956185 1.3898449 0.15855835
-0.010529078 0.11853932 12.223808
-0.98221219 1.799908 13.035126
-0.45534566 0.82150513 4.5391364
-0.77024466 1.3682195 5.0666771
-0.95414972 1.6813492 4.6139488
-1.2090762 2.1203568 4.5404072
-1.1642931 2.0352485 3.5163515
-1.0325782 1.8006408 2.5617852
-0.28746325 0.65687418 12.238976
-0.59186167 1.22341 12.632402
-0.55607033 0.99773371 4.4352341
-0.84240091 1.4952745 4.7213373
-1.248495 2.2019548 5.2976732
-1.1926994 2.0959084 4.0146632
-1.1124903 1.9494407 3.0468879
-1.025445 1.7932898 2.3177445
-0.99198538 1.7215129 2.032284
-0.91376531 1.5838614 1.5567907
-0.87531215 1.5153917 1.2319785
-0.86312819 1.4931086 0.98932678
-0.84776789 1.4653707 0.77230787
-0.83663988 1.4449867 0.58073127
-0.82751048 1.428079 0.40483251
-0.81683081 1.4085298 0.23912361
-0.96133143 1.6737201 1.8002516
-0.88587505 1.5404907 1.377488
-0.86745501 1.5072551 1.1075416
-0.85253519 1.4795525 0.87684357
-0.84244418 1.4608755 0.67607224
-0.82857347 1.4356787 0.49051329
-0.81703681 1.4151285 0.32012239
-0.80970448 1.4013139 0.15896143
-0.010116368 0.11861896 12.228807
-0.97629303 1.8040091 13.040065
-0.45198509 0.82219714 4.5342412
-0.76109868 1.3630794 5.0380454
-0.94827491 1.6846695 4.6139488
-1.2110993 2.141242 4.57552
-1.164125 2.0515382 3.5370164
-1.024702 1.8014481 2.5579479
-0.28528279 0.65813881 12.243967
-0.58758754 1.2254685 12.632402
-0.55379993 1.0018691 4.4449124
-0.83633465 1.4966995 4.7166448
-1.2504042 2.223377 5.3381844
-1.1879399 2.1046014 4.0231953
-1.1160685 1.9716686 3.0748181
-1.0241964 1.805705 2.3287699
-0.99304861 1.7373499 2.0463021
-0.91596389 1.6005546 1.5693445
-0.87625313 1.5293221 1.2402028
-0.86231804 1.5037982 0.99396437
-0.8472625 1.4763627 0.77605397
-0.8363691 1.4562179 0.58355141
-0.82741642 1.4394765 0.40669775
-0.81687552 1.4200058 0.24001777
-0.9610278 1.6867982 1.810228
-0.88650024 1.5541066 1.3863175
-0.86646271 1.5177613 1.112608
-0.85412169 1.4943404 0.88313776
-0.84202898 1.4720052 0.67935926
-0.82838672 1.446999 0.49285793
-0.8145532 1.4222691 0.32081306
-0.8072924 1.4084662 0.15916295
-0.0097022494 0.11865355 12.228807
-0.9699899 1.8074061 13.040065
-0.44911236 0.82376987 4.5342412
-0.75633603 1.3657279 5.0380454
-0.94334078 1.6896752 4.6185513
-1.2129911 2.1621668 4.6106324
-1.1666176 2.0727556 3.5659468
-1.0184076 1.8050141 2.5579479
-0.28298372 0.65913063 12.243967
-0.58330631 1.2275121 12.632402
-0.55211139 1.0071031 4.4594307
-0.83110511 1.4996096 4.7166448
-1.2511187 2.242938 5.3741937
-1.1856818 2.1178381 4.0402594
-1.1195049 1.9939451 3.1027484
-1.0212115 1.8151785 2.3361204
-0.99401331 1.7532152 2.0603204
-0.91805685 1.6172822 1.5818983
-0.87710756 1.5432777 1.2484273
-0.8614437 1.5145001 0.99860191
-0.848984 1.4913979 0.78167301
-0.83603007 1.4674648 0.58637142
-0.82725281 1.4508905 0.40856299
-0.8143819 1.427174 0.24046485
-0.96248156 1.7031451 1.8235301
-0.88505071 1.5642276 1.3922038
-0.86753154 1.5320301 1.1202074
-0.85337692 1.5052092 0.88733381
-0.84154624 1.4831499 0.68264627
-0.82813096 1.4583352 0.49520257
-0.81447572 1.4337153 0.32219443
-0.80730939 1.4199617 0.15956602
-0.0092880111 0.11868669 12.228807
-0.96403986 1.8114669 13.045005
-0.44575009 0.8244366 4.5293455
-0.74222457 1.3513499 4.9760094
-0.93743694 1.6929578 4.6185513
-1.2147517 2.1831307 4.6457453
-1.1689762 2.0940151 3.5948777
-1.0105355 1.8057609 2.5541103
-0.28068119 0.66011441 12.243967
-0.57924461 1.2300231 12.637374
-0.55039304 1.0123376 4.4739494
-0.82669652 1.5040139 4.7213373
-1.2538192 2.2663407 5.4192061
-1.184612 2.1333649 4.0615888
-1.1242653 2.0189018 3.1346686
-1.016521 1.8216926 2.3397954
-0.99487936 1.7691084 2.0743387
-0.9219538 1.6374356 1.5975907
-0.87787509 1.5572575 1.2566516
-0.86268175 1.5290724 1.0055584
-0.84833151 1.502426 0.78541911
-0.83798254 1.4829034 0.59060156
-0.82701951 1.462321 0.41042823
-0.81430119 1.4386759 0.24135901
-0.96383268 1.7195228 1.836832
-0.88551944 1.5778822 1.4010333
-0.86851138 1.5463248 1.127807
-0.85479105 1.5200467 0.893628
-0.84099597 1.4943088 0.68593329
-0.82780606 1.4696871 0.49754718
-0.81432807 1.4451784 0.32357576
-0.80971003 1.4358261 0.16017061
-0.008873661 0.11871839 12.228807
-0.9577108 1.8148209 13.045005
-0.44238877 0.82509011 4.5244508
-0.73607522 1.3513106 4.9664655
-0.93246204 1.6979324 4.6231542
-1.2163804 2.2041333 4.6808577
-1.1712004 2.1153162 3.6238084
-1.0026705 1.8064747 2.5502727
-0.27848667 0.66135651 12.248959
-0.57539761 1.2330041 12.647317
-0.54804856 1.0164657 4.4836278
-0.82144147 1.5068905 4.7213373
-1.2511361 2.2802465 5.4417124
-1.1784159 2.1397712 4.0658545
-1.127408 2.0412779 3.1625988
-1.0101558 1.8252299 2.3397954
-0.99564648 1.7850289 2.088357
-0.92572093 1.6576353 1.6132829
-0.87855566 1.5712616 1.264876
-0.86166537 1.539806 1.010196
-0.84761232 1.5134678 0.78916514
-0.83749193 1.4941887 0.59342158
-0.82671648 1.4737675 0.41229346
-0.81171221 1.4458519 0.24180609
-0.96508121 1.7359304 1.850134
-0.88590348 1.5915589 1.4098626
-0.86940181 1.560645 1.1354066
-0.85390139 1.5309488 0.89782411
-0.84037787 1.5054817 0.68922031
-0.82741201 1.4810545 0.49989185
-0.81411034 1.4566574 0.32495713
-0.80957079 1.4473642 0.16057368
-0.008459202 0.11874864 12.228807
-0.95100999 1.8174644 13.040065
-0.43902826 0.82573009 4.5195556
-0.73277229 1.3564986 4.9760094
-0.92652947 1.7011768 4.6231542
-1.2178773 2.2251735 4.7159705
-1.1732901 2.1366582 3.6527388
-0.99481302 1.8071557 2.5464354
-0.27617642 0.66232461 12.248959
-0.5710901 1.2350051 12.647317
-0.54627436 1.0216982 4.4981461
-0.81699693 1.5112668 4.7260303
-1.2608559 2.3171079 5.5182328
-1.1859399 2.1713388 4.1170459
-1.1304082 2.0637004 3.1905289
-1.0037785 1.8287449 2.3397954
-0.99804062 1.8040963 2.1058795
-0.92935836 1.6778814 1.6289753
-0.87712133 1.5816324 1.2703589
-0.86273408 1.5544242 1.0171524
-0.84682637 1.5245228 0.79291129
-0.83693272 1.5054884 0.59624165
-0.82634354 1.4852295 0.4141587
-0.81150568 1.4573784 0.24270025
-0.96622676 1.7523674 1.863436
-0.88620287 1.6052576 1.4186922
-0.87020278 1.5749898 1.1430061
-0.85514271 1.5458341 0.90411824
-0.84197921 1.5208001 0.69415081
-0.82694864 1.4924369 0.50223649
-0.81382227 1.4681528 0.3263385
-0.8093608 1.4589187 0.16097674
-0.008045014 0.11882108 12.233807
-0.94466001 1.820773 13.040065
-0.4351941 0.82545584 4.5097647
-0.72873747 1.3603642 4.9807816
-0.9215138 1.7061194 4.6277561
-1.2192419 2.2462506 4.7510829
-1.1738993 2.1555691 3.6775367
-0.98696297 1.8078038 2.5425978
-0.27386278 0.6632846 12.248959
-0.56699729 1.237476 12.652289
-0.54329324 1.0247096 4.5029855
-0.81253195 1.5156305 4.7307234
-1.2568949 2.3291583 5.5362377
-1.1870477 2.1915185 4.1469073
-1.1318272 2.0835209 3.214469
-0.99576807 1.8292599 2.3361204
-0.9985984 1.8200758 2.1198976
-0.93286556 1.6981729 1.6446676
-0.87764013 1.5956761 1.2785833
-0.86157507 1.5651878 1.02179
-0.84821033 1.539651 0.79853034
-0.83630466 1.5168023 0.59906173
-0.82590061 1.4967068 0.41602394
-0.80882102 1.4645616 0.24314731
-0.96906072 1.7721095 1.8800635
-0.88641715 1.6189774 1.4275216
-0.86884266 1.5855788 1.1480724
-0.8541075 1.5567678 0.90831435
-0.84121096 1.5320083 0.69743782
-0.82641572 1.503834 0.50458109
-0.81346387 1.4796636 0.32771987
-0.81148833 1.4748664 0.16158132
-0.0076302015 0.11884844 12.233807
-0.93865389 1.8247504 13.045005
-0.43136722 0.82516491 4.4999747
-0.72398448 1.3628997 4.9807816
-0.91647506 1.7110481 4.632359
-1.2204741 2.2673645 4.7861953
-1.1730533 2.1720338 3.6982014
-0.97912067 1.8084193 2.5387602
-0.27154583 0.66423649 12.248959
-0.56267428 1.2394476 12.652289
-0.53971308 1.0265998 4.5029855
-0.80804628 1.5199813 4.7354155
-1.2538921 2.3431287 5.5587435
-1.189263 2.2140296 4.181035
-1.1345507 2.1060293 3.2423992
-0.98776627 1.8297414 2.3324451
-1.000761 1.8392135 2.1374204
-0.93624228 1.7185091 1.6603597
-0.87807173 1.6097425 1.2868078
-0.86247391 1.5798501 1.0287464
-0.84949905 1.5548074 0.80414945
-0.83560795 1.5281303 0.6018818
-0.82538754 1.508199 0.41788921
-0.80848825 1.4761113 0.24404147
-0.96998847 1.7886102 1.8933655
-0.88847518 1.6362704 1.4392942
-0.86947751 1.599965 1.155672
-0.85517538 1.5716997 0.91460848
-0.84037477 1.5432296 0.70072484
-0.82581335 1.5152454 0.50692576
-0.81303495 1.4911897 0.3291012
-0.81112123 1.4864609 0.16198438
-0.0072152973 0.11887435 12.233807
-0.93227857 1.8280159 13.045005
-0.42754772 0.82485735 4.4901838
-0.71922266 1.3654184 4.9807816
-0.91049683 1.7142369 4.632359
-1.2215738 2.2885141 4.8213081
-1.1734351 2.1909995 3.7229989
-0.97128606 1.809002 2.5349226
-0.26922554 0.66518033 12.248959
-0.55834436 1.2414041 12.652289
-0.53554547 1.0273627 4.4981461
-0.80354023 1.5243193 4.7401085
-1.2334614 2.3244152 5.5047293
-1.1913352 2.2365823 4.2151623
-1.1357108 2.1259236 3.2663393
-0.9797734 1.8301892 2.3287699
-1.0011086 1.8552495 2.1514387
-0.93948829 1.7388892 1.6760521
-0.87841558 1.6238314 1.2950323
-0.86117184 1.5906421 1.033384
-0.84848356 1.5659152 0.80789554
-0.83712894 1.5436885 0.60611188
-0.82480425 1.5197057 0.41975445
-0.80808473 1.4876766 0.24493563
-0.97081286 1.8051392 1.9066676
-0.88850701 1.6500386 1.4481238
-0.8700223 1.6143749 1.1632714
-0.85614932 1.5866578 0.92090267
-0.83947033 1.5544637 0.70401186
-0.8228302 1.5223949 0.50809807
-0.81253546 1.5027308 0.33048257
-0.81068295 1.498071 0.16238745
-0.0068003042 0.11889882 12.233807
-0.92624241 1.8319525 13.049944
-0.42327049 0.82362741 4.4754982
-0.71514297 1.369244 4.9855537
-0.90541768 1.7191331 4.6369615
-1.2225404 2.3096986 4.8564205
-1.172379 2.2075088 3.7436638
-0.96496552 1.8123815 2.5349226
-0.266902 0.66611606 12.248959
-0.55379105 1.2428584 12.647317
-0.53137916 1.0281092 4.4933071
-0.79821444 1.5271149 4.7401085
-1.1920465 2.2568705 4.2450237
-1.1381561 2.1485143 3.2942693
-0.9717893 1.8306036 2.3250947
-1.003039 1.874455 2.1689615
-0.94076514 1.7558818 1.6886059
-0.87867171 1.637942 1.3032565
-0.86190039 1.6053473 1.0403403
-0.84959513 1.5811187 0.81351459
-0.83627939 1.5550511 0.60893196
-0.82647878 1.5355521 0.42255229
-0.80761033 1.499257 0.24582979
-0.9732905 1.8249899 1.9232951
-0.89035726 1.6673923 1.4598964
-0.87047708 1.6288078 1.170871
-0.8570292 1.6016418 0.92719686
-0.83849776 1.5657104 0.70729887
-0.82210332 1.533826 0.51044267
-0.81430525 1.5186508 0.33255461
-0.8078112 1.5052937 0.16258898
-0.0063852286 0.11892182 12.233807
-0.92053813 1.8365639 13.059822
-0.41900712 0.8223778 4.4608126
-0.7103591 1.3717319 4.9855537
-0.90031552 1.7240151 4.6415639
-1.2244869 2.3330383 4.8959227
-1.1725328 2.226527 3.7684612
-0.95713687 1.8129042 2.5310853
-0.26457521 0.66704369 12.248959
-0.54966414 1.2452718 12.652289
-0.52721411 1.0288389 4.4884672
-0.79367286 1.531424 4.7448015
-1.1316189 2.1689117 5.1221261
-1.1926308 2.2771907 4.2748857
-1.1418587 2.1738155 3.3261895
-0.96539336 1.8339846 2.3250947
-1.0031759 1.890546 2.1829796
-0.94193476 1.7729044 1.7011597
-0.88080376 1.6557657 1.3142223
-0.86253661 1.6200769 1.0472968
-0.85061085 1.596349 0.8191337
-0.83761793 1.5706592 0.61316204
-0.82573962 1.5470949 0.42441753
-0.80941117 1.5152446 0.24717103
-0.97389579 1.841579 1.9365971
-0.892097 1.6847788 1.4716691
-0.87084156 1.6432635 1.1784705
-0.85781485 1.6166511 0.93349099
-0.83967155 1.5811396 0.71222943
-0.82358778 1.5495626 0.51395965
-0.81364894 1.530229 0.33393598
-0.80959278 1.5213354 0.16319357
-0.0059704632 0.11889976 12.228807
-0.91481292 1.8411578 13.0697
-0.41475758 0.82110828 4.4461269
-0.70624816 1.3755312 4.9903255
-0.89249575 1.7236773 4.632359
-1.2251798 2.354295 4.931035
-1.1725683 2.2455735 3.7932591
-0.94931632 1.8133944 2.5272477
-0.26224518 0.66796309 12.248959
-0.5455271 1.2476714 12.65726
-0.52361959 1.030673 4.4884672
-0.78832233 1.5341852 4.7448015
-1.1210406 2.1670477 5.1086221
-1.1942893 2.2998567 4.3090129
-1.1440067 2.196496 3.35412
-0.95741719 1.8343379 2.3214197
-1.004873 1.9098164 2.2005022
-0.94299686 1.7899563 1.7137135
-0.88282192 1.6736239 1.3251883
-0.86308032 1.63483 1.0542531
-0.85153049 1.6116052 0.82475281
-0.83661509 1.5820547 0.61598212
-0.82722771 1.562993 0.4272154
-0.80877912 1.5268621 0.24806519
-0.97613096 1.8615011 1.9532245
-0.89372617 1.7021976 1.4834417
-0.87312096 1.6615576 1.1886032
-0.85850608 1.631685 0.93978512
-0.83854753 1.5924175 0.71551645
-0.82270616 1.561028 0.51630425
-0.8129217 1.5418208 0.33531734
-0.80894053 1.5329891 0.16359663
-0.0055553894 0.11891987 12.228807
-0.90941 1.8464313 13.084518
-0.4105221 0.81981933 4.4314413
-0.70211923 1.3793182 4.9950972
-0.8882578 1.7302583 4.6415639
-1.2268372 2.3777132 4.9705367
-1.172485 2.264647 3.8180571
-0.94150412 1.8138524 2.5234103
-0.25991192 0.66887444 12.248959
-0.54138005 1.2500573 12.662231
-0.51945353 1.0313717 4.4836278
-0.7829622 1.5369276 4.7448015
-1.1224098 2.1883814 5.1491332
-1.1946101 2.3202429 4.3388743
-1.1473925 2.2218952 3.38604
-0.94945031 1.8346578 2.3177445
-1.0047983 1.9259599 2.2145205
-0.94575346 1.8104872 1.7294059
-0.88472599 1.6915164 1.3361541
-0.86353159 1.6496067 1.0612096
-0.85235393 1.6268872 0.83037192
-0.83777064 1.5977108 0.62021226
-0.82633203 1.5745703 0.42908064
-0.81039155 1.5429026 0.24940643
-0.97823882 1.881461 1.9698521
-0.89524448 1.7196481 1.4952143
-0.87329125 1.6760644 1.1962028
-0.85910273 1.6467435 0.94607931
-0.83954054 1.6078926 0.72044694
-0.8240056 1.5768139 0.51982123
-0.8144176 1.5578146 0.33738938
-0.81053299 1.5490835 0.16420123
-0.0051402478 0.11893854 12.228807
-0.90261847 1.848896 13.079579
-0.40630066 0.81851077 4.4167557
-0.69864494 1.3844262 5.0046415
-0.87423837 1.7176777 4.6001415
-1.2272551 2.399039 5.0056496
-1.1722825 2.2837467 3.8428545
-0.9337002 1.8142776 2.5195727
-0.25757554 0.66977769 12.248959
-0.53722298 1.2524296 12.667203
-0.51585019 1.0331787 4.4836278
-0.7775926 1.5396513 4.7448015
-1.1157507 2.1942265 5.1536345
-1.1959889 2.3429823 4.3730021
-1.1506149 2.2473445 3.4179602
-0.94149286 1.8349446 2.3140695
-1.0062615 1.9452937 2.2320433
-0.9465881 1.8276025 1.7419597
-0.88651586 1.7094425 1.3471199
-0.86388999 1.6644062 1.0681659
-0.85094386 1.6380806 0.83411795
-0.83882689 1.6133941 0.62444234
-0.82763314 1.590518 0.43187848
-0.81190169 1.5589726 0.25074768
-0.97850835 1.8981395 1.9831541
-0.89850569 1.7407216 1.5099303
-0.87337089 1.6905924 1.2038023
-0.8596046 1.6618258 0.95237339
-0.84043568 1.623394 0.7253775
-0.82520485 1.5926279 0.5233382
-0.81353265 1.569441 0.33877075
-0.81202275 1.5652072 0.16480581
-0.0047250437 0.11895576 12.228807
-0.89480597 1.8492376 13.059822
-0.40478873 0.82266527 4.4314413
-0.69447577 1.3881916 5.0094137
-0.97559071 1.9335195 5.1616492
-1.2286223 2.4225328 5.0451512
-1.1732371 2.3053808 3.8717849
-0.92590487 1.8146707 2.5157351
-0.25523603 0.67067266 12.248959
-0.53284794 1.2542971 12.667203
-0.51279789 1.0360997 4.4884672
-0.77221346 1.5423561 4.7448015
-1.1159233 2.2136595 5.1896443
-1.1972232 2.3657594 4.4071293
-1.1536732 2.2728429 3.4498804
-0.93354493 1.835198 2.310394
-1.0059744 1.9614877 2.2460613
-0.94909251 1.848208 1.7576519
-0.8881914 1.7274015 1.358086
-0.86415571 1.6792283 1.0751224
-0.85158879 1.6534052 0.83973712
-0.83758587 1.6248401 0.62726241
-0.82658064 1.6021283 0.43374372
-0.81330937 1.5750718 0.2520889
-0.98037243 1.9181671 1.9997816
-0.89978915 1.7582403 1.5217029
-0.87532467 1.7089781 1.2139351
-0.86001158 1.6769316 0.95866758
-0.84338903 1.6431221 0.73195153
-0.82630348 1.6084691 0.52685511
-0.81484008 1.5854845 0.34084278
-0.81112456 1.5769175 0.16520888
-0.0043097814 0.11897153 12.228807
-0.88666618 1.8488464 13.035126
-0.40236068 0.8249886 4.4363365
-0.69028884 1.3919446 5.014185
-1.007285 2.0137956 5.3641601
-1.2309161 2.4482048 5.0890422
-1.1740551 2.3270493 3.9007158
-0.91811812 1.8150315 2.5118976
-0.25289339 0.67155951 12.248959
-0.52846634 1.2561495 12.667203
-0.5091781 1.0378834 4.4884672
-0.7668249 1.5450424 4.7448015
-1.1081895 2.2175415 5.1896443
-1.1983131 2.3885734 4.441257
-1.1552131 2.2956979 3.4778104
-0.92560685 1.8354186 2.3067191
-1.0072027 1.9808819 2.2635841
-0.94969869 1.8653845 1.7702057
-0.89165109 1.7491181 1.3717932
-0.86432821 1.6940722 1.0820787
-0.85213691 1.6687541 0.84535617
-0.83845812 1.6405685 0.6314925
-0.82769412 1.6181239 0.43654159
-0.81461453 1.5911999 0.25343013
-0.98379606 1.9415613 2.0197346
-0.90279013 1.7793938 1.5364187
-0.87520897 1.7235541 1.2215346
-0.86032349 1.6920604 0.96496183
-0.84407318 1.658682 0.73688203
-0.82730174 1.6243374 0.53037208
-0.81604534 1.6015562 0.34291482
-0.81015444 1.5886406 0.16561194
-0.0038944671 0.11898585 12.228807
-0.87987369 1.8512282 13.030187
-0.40257829 0.83280611 4.470603
-0.68674254 1.3970251 5.0237293
-1.0479757 2.1135697 5.6172991
-1.2330452 2.4739218 5.1329327
-1.1734771 2.3462341 3.9255133
-0.91034031 1.8153602 2.5080602
-0.25064778 0.67270893 12.25395
-0.52407837 1.2579865 12.667203
-0.50555211 1.0396544 4.4884672
-0.76218867 1.5492581 4.7494941
-1.0994757 2.2194452 5.185143
-1.1992581 2.4114232 4.4753842
-1.1566075 2.3185916 3.5057409
-0.91767842 1.8356059 2.3030438
-1.0083078 2.0003085 2.2811067
-0.95195025 1.8860624 1.7858981
-0.89308393 1.7671475 1.3827591
-0.86640704 1.7128907 1.0913539
-0.85258818 1.6841267 0.85097528
-0.83923066 1.6563227 0.63572258
-0.8264842 1.6297655 0.43840683
-0.81356299 1.602915 0.25432429
-0.98539233 1.9616663 2.0363619
-0.90383792 1.7969782 1.5481913
-0.87694043 1.7420006 1.2316673
-0.86054015 1.7072115 0.9712559
-0.84465891 1.6742663 0.74181259
-0.82819903 1.640232 0.53388906
-0.81714827 1.6176553 0.34498686
-0.80911237 1.6003759 0.166015
-0.0034791054 0.11899872 12.228807
-0.87539208 1.8585063 13.059822
-0.40362552 0.84247202 4.5146599
-0.68186188 1.3994138 5.0237293
-1.0380064 2.1119545 5.6034913
-1.23501 2.4996836 5.1768236
-1.1740292 2.3679645 3.9544442
-0.90257132 1.8156565 2.5042226
-0.24829808 0.67357975 12.25395
-0.51968402 1.2598083 12.667203
-0.50246549 1.0425453 4.4933071
-0.75677609 1.5519093 4.7494941
-1.0850058 2.2095909 5.1536345
-1.198905 2.4319699 4.5052462
-1.1578559 2.3415225 3.5336709
-0.90976018 1.8357604 2.2993689
-1.0092896 2.019767 2.2986295
-0.95232737 1.9032977 1.7984519
-0.89440173 1.7852083 1.3937249
-0.86637938 1.7277844 1.0983104
-0.85086304 1.6953795 0.85472137
-0.83775026 1.6678154 0.63854265
-0.82740945 1.645807 0.4412047
-0.81467789 1.6190909 0.25566554
-0.9868601 1.9818058 2.0529895
-0.90657747 1.8182089 1.562907
-0.87662882 1.7566227 1.2392669
-0.86066163 1.7223848 0.97755009
-0.84514606 1.689875 0.74674314
-0.82681978 1.6518061 0.53623366
-0.8159312 1.6293536 0.34636822
-0.80575967 1.6076568 0.16621654
-0.0030622468 0.11905375 12.233807
-0.87021333 1.8643674 13.079579
-0.40199152 0.84663552 4.5293455
-0.67762178 1.4031297 5.0285015
-1.0263506 2.1067832 5.5804791
-1.2389163 2.5297909 5.2294927
-1.175685 2.3922527 3.9875078
-0.89622796 1.8187959 2.5042226
-0.24594533 0.67444229 12.25395
-0.51528329 1.2616147 12.667203
-0.49882329 1.0442928 4.4933071
-0.75210506 1.5560951 4.7541866
-1.0734758 2.2055352 5.1356297
-1.2007128 2.4572294 4.5436392
-1.1589583 2.36449 3.5616009
-0.90185201 1.8358819 2.2956934
-1.002233 2.0232778 2.2986295
-0.95432508 1.9240454 1.8141443
-0.89560413 1.8032997 1.4046907
-0.86625826 1.7426986 1.1052668
-0.8511346 1.710791 0.86034042
-0.83833796 1.6836121 0.64277273
-0.82604164 1.6574783 0.44306993
-0.81346697 1.6308376 0.2565597
-0.98819917 2.0019794 2.069617
-0.90917969 1.8394805 1.5776229
-0.87813705 1.7751276 1.2493995
-0.86068738 1.7375793 0.98384422
-0.84343702 1.7012765 0.75003016
-0.82753015 1.6677444 0.53975064
-0.81684434 1.6454988 0.34844026
-0.80458879 1.6194078 0.1666196
-0.002646653 0.11906371 12.233807
-0.8650043 1.8702148 13.099337
-0.67271984 1.4054865 5.0285015
-1.0121953 2.0962782 5.5436587
-1.2363526 2.5470276 5.255827
-1.1759533 2.4140511 4.0164385
-0.88846713 1.8190331 2.5003853
-0.24358958 0.67529672 12.25395
-0.5108763 1.2634057 12.667203
-0.495175 1.0460278 4.4933071
-0.74741411 1.5602674 4.7588797
-1.0619875 2.2014256 5.1176248
-1.1966751 2.4707947 4.5607028
-1.1599144 2.3874938 3.5895314
-0.89543813 1.8390188 2.2956934
-0.99516439 2.0267639 2.2986295
-0.95618933 1.9448297 1.8298365
-0.89669108 1.8214208 1.4156566
-0.86604333 1.7576325 1.1122231
-0.85130894 1.7262251 0.86595953
-0.83882552 1.6994331 0.64700282
-0.82677805 1.6735641 0.44586781
-0.81439108 1.6470593 0.25790092
-0.98940933 2.022186 2.0862446
-0.91342258 1.8644217 1.5952818
-0.8776288 1.7897936 1.256999
-0.86061758 1.7527952 0.99013841
-0.84374124 1.7169245 0.75496066
-0.82813931 1.6837077 0.54326761
-0.81546825 1.6572266 0.3498216
-0.80334568 1.6311702 0.16702266
-0.0022310268 0.11907222 12.233807
-0.86041224 1.8774614 13.128972
-0.73275459 1.5720996 8.3623085
-0.66717011 1.4064775 5.0237293
-0.99559623 2.0804131 5.493031
-1.2264161 2.5491698 5.2514381
-1.1773068 2.4384146 4.0495019
-0.88071555 1.8192383 2.4965477
-0.24123089 0.67614287 12.25395
-0.50646305 1.2651813 12.667203
-0.49205416 1.0488877 4.4981461
-0.74270314 1.5644258 4.7635722
-1.0524187 2.2011912 5.1086221
-1.2049712 2.5102253 4.624692
-1.1607237 2.4105327 3.6174614
-0.88753992 1.8390801 2.2920184
-0.98808366 2.0302253 2.2986295
-0.95792013 1.9656506 1.8455287
-0.89582878 1.8358135 1.4238811
-0.8676787 1.7765667 1.1214983
-0.85138583 1.7416813 0.87157869
-0.83921272 1.7152778 0.65123296
-0.82525176 1.6852634 0.44773304
-0.81302017 1.6588355 0.25879508
-0.99049032 2.0424254 2.1028721
-0.91573685 1.8857791 1.6099977
-0.87891328 1.808355 1.2671319
-0.86045188 1.7680312 0.99643254
-0.8439464 1.7325952 0.75989115
-0.82864702 1.6996955 0.54678452
-0.81619108 1.6734158 0.35189366
-0.80203021 1.6429436 0.16742572
-0.0018153737 0.11907929 12.233807
-0.35935032 0.79083306 5.5225143
-0.72640896 1.5727988 8.3525181
-0.66162163 1.4074466 5.0189571
-0.9816317 2.0697536 5.4562106
-1.218541 2.5555968 5.255827
-1.1785046 2.4628165 4.0825653
-0.87297344 1.8194119 2.4927104
-0.23886923 0.67698085 12.25395
-0.50204366 1.2669414 12.667203
-0.48838991 1.050599 4.4981461
-0.73797226 1.5685705 4.7682652
-1.0437968 2.2028842 5.1041212
-1.2074046 2.5379674 4.6673512
-1.1626841 2.4363258 3.6493816
-0.8811149 1.842167 2.2920184
-0.98254019 2.0368741 2.302134
-0.95951694 1.9865068 1.861221
-0.89669734 1.8539867 1.4348469
-0.8672623 1.7915463 1.1284548
-0.85136503 1.7571586 0.87719774
-0.83949953 1.7311457 0.65546304
-0.82579875 1.7013913 0.45053089
-0.81375289 1.6751016 0.26013631
-0.99144197 2.0626967 2.1194994
-0.91966569 1.910817 1.6276567
-0.88007867 1.8269467 1.2772646
-0.86216205 1.7873753 1.0048248
-0.84405237 1.7482882 0.76482171
-0.8290531 1.7157069 0.55030149
-0.8146553 1.6851715 0.35327503
-0.80281824 1.6592247 0.16803031
-0.0013996982 0.1190849 12.233807
-0.35658762 0.79208261 5.5225143
-0.71964383 1.5725472 8.3378325
-0.65607458 1.4083943 5.014185
-0.96609187 2.055486 5.4101858
-1.2096128 2.5598347 5.255827
-1.1783404 2.4847138 4.111496
-0.86524081 1.8195533 2.4888728
-0.23650467 0.67781049 12.25395
-0.49781242 1.2691826 12.672174
-0.48524532 1.0534393 4.5029855
-0.73322141 1.5727009 4.7729578
-1.0342505 2.2025731 5.0951185
-1.2096591 2.565757 4.7100105
-1.161902 2.4567137 3.673322
-0.87467921 1.8452314 2.2920184
-0.97542417 2.0402913 2.302134
-0.96097988 2.0073981 1.8769133
-0.89744985 1.8721881 1.4458128
-0.86866796 1.8105386 1.13773
-0.85124648 1.772657 0.88281685
-0.84176368 1.7513601 0.66110319
-0.82624322 1.7175436 0.45332876
-0.81222159 1.686906 0.2610305
-0.99386984 2.0863702 2.1394527
-0.92343086 1.9359051 1.6453156
-0.88112497 1.8455687 1.2873973
-0.86374754 1.806753 1.013217
-0.84405905 1.7640029 0.76975226
-0.82935739 1.7317419 0.55381846
-0.81518716 1.7014025 0.35534707
-0.80134213 1.6710265 0.16843337
-0.00098400575 0.11908906 12.233807
-0.35382056 0.7933225 5.5225143
-0.71330965 1.5731947 8.328042
-0.64990354 1.4079652 5.0046415
-0.95396274 2.0482197 5.3825703
-1.2016857 2.5662107 5.2602162
-1.1792346 2.5091865 4.1445599
-0.8575179 1.819663 2.4850352
-0.23413722 0.67863196 12.25395
-0.49337909 1.2709126 12.672174
-0.4831301 1.0585575 4.5175037
-0.72845078 1.5768175 4.7776508
-1.0256375 2.204196 5.0906172
-1.2161494 2.6030445 4.7697339
-1.1558766 2.4662111 3.6813018
-0.86823285 1.8482735 2.2920184
-0.96982318 2.0469067 2.3056388
-0.96230847 2.0283237 1.8926057
-0.89629197 1.8866402 1.4540372
-0.86995149 1.8295623 1.1470052
-0.85302222 1.7923619 0.89030898
-0.84183389 1.76728 0.66533327
-0.82658488 1.7337196 0.4561266
-0.81276238 1.7032143 0.26237172
-0.99614435 2.1100857 2.1594057
-0.92875922 1.9646966 1.6659176
-0.88205183 1.8642198 1.2975299
-0.86326492 1.8220613 1.0195111
-0.84598953 1.7840056 0.7763263
-0.82955986 1.7477998 0.55733538
-0.81349146 1.7131846 0.35672843
-0.8019377 1.6873503 0.16903797
-0.00056830142 0.11909177 12.233807
-0.35104918 0.79455268 5.5225143
-0.70864797 1.5775329 8.3378325
-0.64312291 1.4061527 4.9903255
-0.94189608 2.0408936 5.3549552
-1.1927205 2.5703895 5.2602162
-1.1811601 2.5362463 4.181756
-0.84980476 1.8197409 2.4811976
-0.23176694 0.67944509 12.25395
-0.48913053 1.2731247 12.677146
-0.48150277 1.0648191 4.5368614
-0.72366029 1.5809199 4.7823434
-1.0170258 2.205786 5.0861163
-1.2081512 2.6096406 4.7739997
-1.1536068 2.4838958 3.701252
-0.86177588 1.8512928 2.2920184
-0.96267223 2.0502794 2.3056388
-0.96350259 2.0492826 1.9082979
-0.89504391 1.9011067 1.4622616
-0.86922437 1.8446094 1.1539615
-0.85269308 1.8079073 0.89592803
-0.84180319 1.783222 0.66956335
-0.82682353 1.7499187 0.45892447
-0.81319916 1.7195468 0.26371297
-0.99826527 2.133842 2.1793587
-0.93218333 1.9898887 1.6835767
-0.88468897 1.8868026 1.3101958
-0.86461484 1.8414967 1.0279033
-0.84578204 1.7997689 0.78125679
-0.82966024 1.7638801 0.56085235
-0.81383181 1.7294561 0.35880047
-0.8024292 1.7036985 0.16964257
-0.00015259015 0.11909303 12.233807
-0.344228 0.78651774 5.4583039
-0.70313704 1.5799969 8.3378325
-0.63759464 1.4070294 4.9855537
-0.92989224 2.0335085 5.3273401
-1.1877426 2.5832415 5.2777724
-1.1829108 2.5633502 4.2189527
-0.84210151 1.8197873 2.4773602
-0.22939382 0.68024999 12.25395
-0.48487255 1.2753228 12.682117
-0.4885698 1.0905851 4.6384892
-0.71885008 1.5850079 4.7870364
-1.0084155 2.2073424 5.081615
-1.2218684 2.6636233 4.863584
-1.1449294 2.4879074 3.701252
-0.85530841 1.8542897 2.2920184
-0.95550954 2.0536275 2.3056388
-0.96291828 2.066746 1.9208517
-0.89370584 1.9155875 1.470486
-0.87027717 1.8636874 1.1632369
-0.85422873 1.8276722 0.90342015
-0.84167147 1.799185 0.67379349
-0.82695919 1.7661405 0.46172231
-0.81353176 1.7359029 0.2650542
-1.0002323 2.1576385 2.1993115
-0.93374074 2.011462 1.6982924
-0.88536292 1.905517 1.3203285
-0.86392498 1.8568485 1.0341976
-0.8454749 1.8155528 0.78618735
-0.83171177 1.7843877 0.56554163
-0.81406844 1.7457505 0.36087251
-0.80281615 1.7200705 0.17024715
0.00026312293 0.11909283 12.233807
-0.34240654 0.78985363 5.4731216
-0.69761753 1.5824418 8.3378325
-0.62840104 1.3997133 4.9521494
-0.91714543 2.0242851 5.2951226
-1.2144592 2.6658347 5.4357796
-1.1844866 2.5904968 4.2561493
-0.83440834 1.819802 2.4735227
-0.22710857 0.68132073 12.258942
-0.48041788 1.2770076 12.682117
-0.48730817 1.098029 4.6626863
-0.71402019 1.5890818 4.7917295
-1.0007043 2.2108488 5.081615
-1.2190375 2.6821187 4.8891802
-1.1349878 2.4891469 3.6972618
-0.84883052 1.857264 2.2920184
