# .PCD v0.7 - Point Cloud Data file format
VERSION 0.7
FIELDS x y z
SIZE 4 4 4
TYPE F F F
COUNT 1 1 1
WIDTH 1447
HEIGHT 1
VIEWPOINT 0 0 0 1 0 0 0
POINTS 1447
DATA ascii
-0.82533509 0.27340853 0.39174515
-0.81691813 0.27031168 0.29825324
-0.80856168 0.26739532 0.21099493
-0.82043636 0.2710129 0.12853025
-0.1198194 0.11736995 17.813595
-0.57366258 0.20711775 3.8777416
-0.72895044 0.25809392 3.7412143
-1.1379715 0.39450762 3.897541
-1.0211382 0.35005078 2.6026456
-0.92534816 0.31506944 1.8586799
-0.90942031 0.3082521 1.4829408
-0.88851249 0.30014497 1.1994712
-0.20079032 0.091761991 3.6583142
-0.36895218 0.15336005 3.6836958
-0.8937996 0.31414416 3.6851227
-1.0885223 0.3769623 3.1868029
-0.97138834 0.33338919 2.1873345
-0.91726291 0.31322256 1.6556019
-0.88974029 0.30262935 1.3192074
-0.88399833 0.29983154 1.0902396
-0.87951326 0.29506958 0.9914338
-0.86654425 0.29022375 0.81925344
-0.85468578 0.28576458 0.67546082
-0.85430652 0.28531435 0.55803001
-0.83194095 0.27752933 0.44265413
-0.82406241 0.27458936 0.34525582
-0.82496768 0.27457651 0.2565459
-0.81733984 0.27172887 0.17027344
-0.87727904 0.29568872 0.90569204
-0.86060095 0.28957531 0.74470848
-0.85162926 0.28623325 0.61357164
-0.86591482 0.29053891 0.50968438
-0.82437569 0.27628782 0.39174515
-0.81596959 0.27316165 0.29825324
-0.80762333 0.27021608 0.21099493
-0.81948531 0.27387512 0.12853025
-0.11940897 0.11778749 17.813595
-0.57366586 0.20938586 3.8826807
-0.72804511 0.2606369 3.7412143
-1.1379961 0.39897156 3.9023132
-1.0217559 0.35425335 2.6072483
-0.926507 0.31907767 1.8630688
-0.90833879 0.3114247 1.4829408
-0.89049238 0.30428126 1.2033087
-0.20046878 0.092462324 3.6583142
-0.36792371 0.15443933 3.6787243
-0.89269757 0.31726223 3.6851227
-1.090457 0.38190094 3.1961884
-0.97227514 0.33749208 2.1918356
-0.91862899 0.31727415 1.6598678
-0.88867849 0.30573329 1.3192074
-0.88294631 0.30291545 1.0902396
-0.87847793 0.29813781 0.9914338
-0.8655259 0.29324678 0.81925344
-0.85368311 0.28874624 0.67546082
-0.8533054 0.2882947 0.55803001
-0.83096713 0.28043166 0.44265413
-0.82309896 0.27746421 0.34525582
-0.82400423 0.27745453 0.2565459
-0.81638634 0.27458024 0.17027344
-0.87624156 0.29874918 0.90569204
-0.85958493 0.29257759 0.74470848
-0.85062498 0.28920424 0.61357164
-0.86489534 0.29355973 0.50968438
-0.82340622 0.27916372 0.39174515
-0.81501108 0.27600822 0.29825324
-0.81136584 0.27462125 0.21168561
-0.8185243 0.27673399 0.12853025
-0.11899708 0.11820359 17.813595
-0.57438898 0.21192591 3.8925595
-0.72713089 0.26317665 3.7412143
-1.1380032 0.40344048 3.9070849
-1.0223566 0.35846442 2.6118507
-0.92538762 0.32230985 1.8630688
-0.90990478 0.31551567 1.4870737
-0.8894248 0.30738783 1.2033087
-0.19988401 0.093037695 3.6533225
-0.36689219 0.15551329 3.6737528
-0.89276749 0.32080176 3.6899624
-1.090744 0.38628137 3.2008812
-0.97109115 0.34088388 2.1918356
-0.91751587 0.32047886 1.6598678
-0.89045173 0.30982393 1.3231975
-0.88188356 0.30599567 1.0902396
-0.88080478 0.30236056 0.99493837
-0.86817902 0.2975283 0.82239193
-0.85662621 0.29307815 0.67820227
-0.85229391 0.29127154 0.55803001
-0.83437043 0.28482836 0.44452715
-0.82212538 0.28033566 0.34525582
-0.82303071 0.28032917 0.2565459
-0.8201375 0.27903235 0.17072052
-0.87519342 0.301806 0.90569204
-0.85855836 0.29557633 0.74470848
-0.85368663 0.29357377 0.61610484
-0.86386532 0.29657701 0.50968438
-0.82242674 0.28203627 0.39174515
-0.81404269 0.27885148 0.29825324
-0.81040233 0.27745181 0.21168561
-0.81755334 0.2795895 0.12853025
-0.11855423 0.11858612 17.808596
-0.57291788 0.21365765 3.8876202
-0.72620779 0.26571321 3.7412143
-1.1379932 0.40791434 3.9118571
-1.0229404 0.36268407 2.6164534
-0.92651582 0.326334 1.867458
-0.90879786 0.31868988 1.4870737
-0.89137208 0.31154841 1.2071462
-0.19955803 0.093734853 3.6533225
-0.36536813 0.15637083 3.6638098
-0.89164227 0.32391614 3.6899624
-1.0910134 0.39066839 3.205574
-0.9698953 0.34427154 2.1918356
-0.9188506 0.32454848 1.6641337
-0.88936478 0.31293032 1.3231975
-0.88081008 0.30907214 1.0902396
-0.87974399 0.30543333 0.99493837
-0.86713517 0.30055702 0.82239193
-0.85559797 0.29606652 0.67820227
-0.85545868 0.29569215 0.56034881
-0.8333711 0.28773913 0.44452715
-0.82567668 0.28476784 0.34666586
-0.82669145 0.28480044 0.25747854
-0.81915849 0.28189349 0.17072052
-0.87765998 0.30608892 0.90901756
-0.85752136 0.29857147 0.74470848
-0.85265672 0.29655188 0.61610484
-0.86282486 0.29959065 0.50968438
-0.82589865 0.28645289 0.39338866
-0.81306434 0.28169131 0.29825324
-0.80942887 0.28027892 0.21168561
-0.81657243 0.28244159 0.12853025
-0.11813956 0.11899923 17.808596
-0.57144171 0.21538167 3.8826807
-0.72527587 0.26824653 3.7412143
-1.1393689 0.41290179 3.9214008
-1.0235071 0.3669121 2.6210558
-0.92762703 0.33036995 1.8718469
-0.90767992 0.32186025 1.4870737
-0.89027917 0.31465799 1.2071462
-0.19896972 0.094305232 3.6483309
-0.36433136 0.15743244 3.6588383
-0.89168602 0.3274602 3.6948018
-1.0912657 0.39506206 3.2102668
-0.96868765 0.347655 2.1918356
-0.91771221 0.32775387 1.6641337
-0.89110589 0.31704316 1.3271875
-0.87972587 0.31214488 1.0902396
-0.87867248 0.30850232 0.99493837
-0.86608076 0.30358204 0.82239193
-0.85850596 0.30043268 0.68094373
-0.85442132 0.29867646 0.56034881
-0.83673835 0.29217482 0.4464002
-0.82467765 0.28764826 0.34666586
-0.8256923 0.28768441 0.25747854
-0.81816953 0.28475115 0.17072052
-0.8765862 0.30915067 0.90901756
-0.85647398 0.30156296 0.74470848
-0.85568291 0.30095685 0.61863804
-0.86177379 0.30260065 0.50968438
-0.8293497 0.29089713 0.39503217
-0.81207609 0.28452772 0.29825324
-0.80377185 0.28146592 0.21099493
-0.81558156 0.28529024 0.12853025
-0.11772345 0.11941089 17.808596
-0.56996047 0.217098 3.8777416
-0.72528869 0.27113351 3.7461095
-1.1393223 0.41739017 3.926173
-1.0240568 0.37114853 2.6256583
-0.92646813 0.33360595 1.8718469
-0.90655088 0.32502669 1.4870737
-0.89219356 0.31884262 1.2109838
-0.19863932 0.094999187 3.6483309
-0.36182764 0.15784515 3.638952
-0.89289409 0.33144626 3.7044806
-1.08988 0.39886889 3.2102668
-0.96951455 0.35177705 2.196337
-0.91901541 0.33184132 1.6683997
-0.88999379 0.32015178 1.3271875
-0.88182187 0.31635883 1.0939147
-0.88095087 0.31276098 0.99844289
-0.86501575 0.30660337 0.82239193
-0.85745209 0.30342758 0.68094373
-0.85755002 0.30313361 0.56266761
-0.83571339 0.2950938 0.4464002
-0.82819247 0.29212096 0.3480759
-0.82468307 0.29056484 0.25747854
-0.81717056 0.28760538 0.17072052
-0.87550169 0.31220865 0.90901756
-0.85922384 0.30590662 0.74765164
-0.85462713 0.30394194 0.61863804
-0.86071229 0.30560696 0.50968438
-0.82832921 0.29379034 0.39503217
-0.81565946 0.28898394 0.29942557
-0.80278444 0.2842699 0.21099493
-0.81458068 0.28813541 0.12853025
-0.1173351 0.11985352 17.813595
-0.56847423 0.21880661 3.8728023
-0.72433788 0.27366358 3.7461095
-1.139258 0.42188323 3.9309452
-1.0245893 0.37539324 2.6302607
-0.92754853 0.33765745 1.8762361
-0.90805626 0.32914835 1.4912066
-0.89107513 0.321955 1.2109838
-0.1983065 0.095691994 3.6483309
-0.36273617 0.15975587 3.6538668
-0.89761537 0.33677021 3.7286777
-1.0900993 0.4032698 3.2149594
-0.96828073 0.35515913 2.196337
-0.91785151 0.33504725 1.6683997
-0.89170253 0.32428658 1.3311775
-0.88071221 0.31943506 1.0939147
-0.87985379 0.31583416 0.99844289
-0.8639403 0.30962098 0.82239193
-0.86032462 0.30782765 0.68368518
-0.86065793 0.30761626 0.56498641
-0.83904415 0.29956812 0.44827321
-0.82716769 0.29501009 0.3480759
-0.82829112 0.29509038 0.25841114
-0.82085335 0.29212579 0.1711676
-0.87440658 0.31526282 0.90901756
-0.85815078 0.30890402 0.74765164
-0.85356098 0.30692327 0.61863804
-0.8596403 0.30860955 0.50968438
-0.8317436 0.2982741 0.39667568
-0.81464577 0.29182938 0.29942557
-0.80178726 0.28707039 0.21099493
-0.81356996 0.29097706 0.12853025
-0.11691602 0.12026236 17.813595
-0.567707 0.22078963 3.8728023
-0.72337818 0.27619031 3.7461095
-1.1405742 0.42690432 3.9404888
-1.0251048 0.37964621 2.6348634
-0.92636424 0.34089315 1.8762361
-0.90690184 0.3323161 1.4912066
-0.88994586 0.3250635 1.2109838
-0.19797127 0.096383624 3.6483309
-0.36363575 0.16167484 3.6687813
-0.90113515 0.34168521 3.7480354
-1.0919176 0.4082818 3.2243452
-0.96703506 0.3585369 2.196337
-0.91667634 0.33824912 1.6683997
-0.8905651 0.32739723 1.3311775
-0.88277465 0.32367462 1.09759
-0.8820982 0.3201203 1.0019474
-0.86285424 0.31263483 0.82239193
-0.85924488 0.31082886 0.68368518
-0.85957891 0.31061864 0.56498641
-0.83799338 0.30249509 0.44827321
-0.8306455 0.29952297 0.34948593
-0.82725602 0.29797986 0.25841114
-0.81982869 0.29498932 0.1711676
-0.87330079 0.31831315 0.90901756
-0.86086559 0.31328011 0.75059479
-0.85248441 0.30990088 0.61863804
-0.86282396 0.3131569 0.51178247
-0.83069736 0.30117559 0.39667568
-0.81362212 0.29467124 0.29942557
-0.8007803 0.28986743 0.21099493
-0.81254929 0.29381517 0.12853025
-0.11652448 0.12070238 17.818596
-0.56693286 0.22276995 3.8728023
-0.72240967 0.2787137 3.7461095
-1.1404732 0.43141145 3.9452608
-1.0256028 0.38390729 2.6394658
-0.92741323 0.34495986 1.8806251
-0.90837502 0.33645743 1.4953396
-0.8918125 0.32927844 1.2148212
-0.19789174 0.097203344 3.6533225
-0.36404058 0.16338241 3.6787243
-0.90697879 0.34752893 3.777072
-1.0921 0.41270107 3.2290378
-0.96781605 0.36267442 2.2008381
-0.91304654 0.34053519 1.6641337
-0.8922413 0.33155373 1.3351675
-0.88163942 0.32675412 1.09759
-0.88097543 0.32319745 1.0019474
-0.8617577 0.31564483 0.82239193
-0.85815465 0.31382632 0.68368518
-0.86265022 0.31513742 0.56730521
-0.83693236 0.3054184 0.44827321
-0.82959491 0.30242062 0.34948593
-0.82621086 0.30086571 0.25841114
-0.81879395 0.29784927 0.1711676
-0.87218434 0.32135957 0.90901756
-0.85976678 0.31628317 0.75059479
-0.85139745 0.3128747 0.61863804
-0.86172557 0.31616682 0.51178247
-0.82964104 0.30407345 0.39667568
-0.81258857 0.29750952 0.29942557
-0.79976362 0.29266089 0.21099493
-0.81151873 0.29664969 0.12853025
-0.11613129 0.12114113 17.823595
-0.56542981 0.22446038 3.8678632
-0.72143239 0.28123367 3.7461095
-1.1417489 0.43645632 3.9548051
-1.0279108 0.38886803 2.6486709
-0.92620343 0.34819505 1.8806251
-0.90719503 0.33962616 1.4953396
-0.89065766 0.33238941 1.2148212
-0.19755124 0.097893521 3.6533225
-0.36637774 0.16598001 3.7085533
-0.90693223 0.35114694 3.7819114
-1.0938768 0.41774246 3.2384233
-0.97061563 0.36759308 2.2098405
-0.9118523 0.34372023 1.6641337
-0.89107853 0.33466622 1.3351675
-0.88366807 0.33101907 1.1012651
-0.87984186 0.32627067 1.0019474
-0.86430067 0.32000265 0.82553035
-0.85705394 0.31681991 0.68368518
-0.86154491 0.31814671 0.56730521
-0.83586115 0.30833799 0.44827321
-0.82853419 0.3053146 0.34948593
-0.82515556 0.30374789 0.25841114
-0.81774926 0.30070555 0.1711676
-0.87455624 0.32570547 0.91234308
-0.85865748 0.31928241 0.75059479
-0.85030013 0.31584474 0.61863804
-0.86061668 0.31917289 0.51178247
-0.82857454 0.30696759 0.39667568
-0.81610358 0.30203131 0.30059788
-0.80338168 0.29716885 0.21168561
-0.81047833 0.29948062 0.12853025
-0.11570772 0.12154576 17.823595
-0.56464285 0.22643274 3.8678632
-0.72139353 0.28412372 3.7510047
-1.1416106 0.44097716 3.9595766
-1.0283718 0.39315164 2.6532736
-0.92722118 0.35227686 1.8850143
-0.9086358 0.34378687 1.4994725
-0.88949203 0.3354964 1.2148212
-0.19720833 0.098582514 3.6533225
-0.36482778 0.1668119 3.6986103
-0.91155332 0.35660172 3.8061085
-1.0940218 0.42217979 3.2431161
-0.97135967 0.3717573 2.2143419
-0.91064692 0.34690109 1.6641337
-0.89272195 0.33884415 1.3391576
-0.88250721 0.33410165 1.1012651
-0.88203698 0.33059174 1.005452
-0.86317837 0.32301769 0.82553035
-0.85594279 0.31980968 0.68368518
-0.86042911 0.32115212 0.56730521
-0.83477974 0.31125379 0.44827321
-0.82746339 0.30820486 0.34948593
-0.8240903 0.30662635 0.25841114
-0.81669462 0.3035582 0.1711676
-0.87341398 0.32875624 0.91234308
-0.85753775 0.32227772 0.75059479
-0.85322815 0.32032624 0.62117118
-0.86374712 0.32376817 0.51388049
-0.82749802 0.30985796 0.39667568
-0.81504428 0.30487821 0.30059788
-0.80233943 0.29997137 0.21168561
-0.80942798 0.30230793 0.12853025
-0.11531135 0.12198185 17.828592
-0.56384897 0.22840233 3.8678632
-0.72039735 0.28664014 3.7510047
-1.1428453 0.4460454 3.969121
-1.0288156 0.39744321 2.657876
-0.92822152 0.35637 1.8894032
-0.90743023 0.34695652 1.4994725
-0.89131039 0.33974111 1.2186587
-0.19711977 0.099402256 3.6583142
-0.36375988 0.16785966 3.6936388
-0.92549819 0.36579153 3.8690209
-1.0957569 0.42725033 3.2525017
-0.97208631 0.37593117 2.218843
-0.91186434 0.35101494 1.6683997
-0.89153373 0.34195828 1.3391576
-0.88133562 0.33718014 1.1012651
-0.88087761 0.33366862 1.005452
-0.86568624 0.3274059 0.82866883
-0.858733 0.32427284 0.68642664
-0.85930288 0.32415363 0.56730521
-0.8336882 0.31416583 0.44827321
-0.82638252 0.31109136 0.34948593
-0.82301491 0.30950111 0.25841114
-0.81563002 0.30640715 0.1711676
-0.87575078 0.33313072 0.91566855
-0.85640758 0.32526913 0.75059479
-0.85210478 0.3233026 0.62117118
-0.86261165 0.32678124 0.51388049
-0.82641137 0.31274459 0.39667568
-0.81852168 0.30944026 0.30177018
-0.80591983 0.30452067 0.21237628
-0.80836779 0.30513149 0.12853025
-0.11491337 0.12241666 17.833593
-0.5630483 0.23036914 3.8678632
-0.71939236 0.28915304 3.7510047
-1.1440583 0.4511275 3.9786646
-1.0292417 0.40174264 2.6624784
-0.92697191 0.35960791 1.8894032
-0.90883845 0.35113633 1.5036055
-0.89011914 0.34285027 1.2186587
-0.19677159 0.10008973 3.6583142
-0.36220652 0.16867565 3.6836958
-0.94405884 0.37694851 3.9512913
-1.0958642 0.43170536 3.2571945
-0.97482324 0.38090718 2.2278454
-0.913064 0.35514146 1.6726656
-0.89314419 0.34615737 1.3431475
-0.88331532 0.34147719 1.1049403
-0.87970752 0.33674142 1.005452
-0.86453813 0.33042571 0.82866883
-0.8575958 0.32726839 0.68642664
-0.8581661 0.32715118 0.56730521
-0.83258647 0.31707403 0.44827321
-0.82529157 0.31397408 0.34948593
-0.82192957 0.31237209 0.25841114
-0.81455553 0.30925238 0.1711676
-0.87806767 0.33752552 0.91899407
-0.85904044 0.32970509 0.75353795
-0.85499614 0.32781851 0.62370437
-0.86146575 0.32979032 0.51388049
-0.82531464 0.3156274 0.39667568
-0.81743652 0.31229556 0.30177018
-0.80485195 0.30733198 0.21237628
-0.80729777 0.30795139 0.12853025
-0.11451373 0.12285016 17.838593
-0.56152278 0.23203592 3.8629239
-0.71932197 0.29204583 3.7558999
-1.1438633 0.45567089 3.9834368
-1.0296504 0.40604985 2.6670809
-0.92794079 0.36371574 1.8937924
-0.9076072 0.35430664 1.5036055
-0.89190376 0.34711805 1.2224963
-0.19667685 0.10090973 3.6633058
-0.36113372 0.1697109 3.6787243
-0.94157165 0.37977114 3.9464519
-1.0959539 0.43616638 3.2618873
-0.97551239 0.38510722 2.2323468
-0.9118188 0.35832649 1.6726656
-0.8919304 0.34927294 1.3431475
-0.88211793 0.34455848 1.1049403
-0.88185269 0.34109685 1.0089566
-0.86337942 0.3334415 0.82866883
-0.85644817 0.33025998 0.68642664
-0.85701895 0.33014473 0.56730521
-0.8314746 0.31997839 0.44827321
-0.82419056 0.31685299 0.34948593
-0.82083416 0.31523925 0.25841114
-0.81347108 0.31209382 0.1711676
-0.8768841 0.34058851 0.91899407
-0.85788429 0.33270171 0.75353795
-0.85384661 0.33080101 0.62370437
-0.86454213 0.33443296 0.51597857
-0.82420784 0.31850636 0.39667568
-0.81634146 0.31514704 0.30177018
-0.80839425 0.31192228 0.21306697
-0.81087953 0.3125644 0.12873179
-0.11408421 0.12324914 17.838593
-0.56070942 0.23399459 3.8629239
-0.71829814 0.29455495 3.7558999
-1.1450351 0.46077594 3.992981
-1.0282267 0.4096415 2.6670809
-0.9288922 0.36783472 1.8981816
-0.90898257 0.35850534 1.5077385
-0.89068669 0.35022926 1.2224963
-0.19632342 0.10159565 3.6633058
-0.36053914 0.17097045 3.6787243
-0.94955194 0.38685176 3.9851673
-1.0976268 0.44127718 3.2712729
-0.9782061 0.39012343 2.241349
-0.91298634 0.36246979 1.6769315
-0.8935076 0.35349301 1.3471376
-0.88406318 0.3488802 1.1086154
-0.88065666 0.34417298 1.0089566
-0.86583614 0.33786836 0.83180726
-0.85529017 0.33324754 0.68642664
-0.85586131 0.33313429 0.56730521
-0.83467335 0.32455903 0.45014626
-0.82307947 0.31972802 0.34948593
-0.82430828 0.31987977 0.25934377
-0.81237668 0.31493145 0.1711676
-0.87916553 0.3450115 0.92231953
-0.86048108 0.33716908 0.75648111
-0.85670084 0.33535096 0.62623757
-0.86336946 0.33744875 0.51597857
-0.82748973 0.32309911 0.39831915
-0.81523645 0.31799468 0.30177018
-0.80730051 0.31474221 0.21306697
-0.81443882 0.31720614 0.12893331
-0.11356883 0.12354663 17.823595
-0.5598892 0.23595041 3.8629239
-0.71726561 0.29706049 3.7558999
-1.1448025 0.46533239 3.9977524
-1.028603 0.41395786 2.6716835
-0.92760259 0.37107491 1.8981816
-0.90772563 0.36167607 1.5077385
-0.89243752 0.35451978 1.2263339
-0.19596758 0.10228033 3.6633058
-0.35945994 0.17199653 3.6737528
-0.94703346 0.38968536 3.9803278
-1.0976785 0.44575539 3.2759655
-0.97885746 0.39434934 2.2458501
-0.91413605 0.36662558 1.6811975
-0.89226824 0.35660976 1.3471376
-0.88284004 0.35196403 1.1086154
-0.8827669 0.34855491 1.0124611
-0.8646515 0.34088865 0.83180726
-0.85412174 0.33623102 0.68642664
-0.85469323 0.33611977 0.56730521
-0.83785009 0.32916591 0.45201927
-0.82195848 0.32259917 0.34948593
-0.82318664 0.32275519 0.25934377
-0.81127244 0.31776527 0.1711676
-0.87795585 0.34807825 0.92231953
-0.85929888 0.34017068 0.75648111
-0.85552502 0.33833936 0.62623757
-0.86640751 0.34212744 0.5180766
-0.82635683 0.32598561 0.39831915
-0.81412143 0.32083845 0.30177018
-0.80619693 0.31755829 0.21306697
-0.8133266 0.32004714 0.12893331
-0.11310884 0.12390887 17.818596
-0.55906218 0.23790334 3.8629239
-0.71622425 0.29956239 3.7558999
-1.144552 0.4698928 4.0025249
-1.0289613 0.41828179 2.676286
-0.92852199 0.37520814 1.9025706
-0.90906805 0.36589339 1.5118713
-0.89119458 0.35763282 1.2263339
-0.19560936 0.10296375 3.6633058
-0.35885736 0.17325023 3.6737528
-0.94450682 0.39250612 3.9754882
-1.0993087 0.4508945 3.285351
-0.97949123 0.39858457 2.2503514
-0.91526777 0.37079379 1.6854634
-0.89381206 0.36085048 1.3511276
-0.8847506 0.35631028 1.1122906
-0.88154483 0.3516342 1.0124611
-0.86345631 0.34390476 0.83180726
-0.85682821 0.34075579 0.6891681
-0.85351473 0.33910117 0.56730521
-0.83669603 0.33208856 0.45201927
-0.82082731 0.32546636 0.34948593
-0.82205504 0.3256267 0.25934377
-0.81015825 0.3205952 0.1711676
-0.88020146 0.35252917 0.92564505
-0.85810632 0.34316811 0.75648111
-0.85433882 0.34132364 0.62623757
-0.86520797 0.3451497 0.5180766
-0.82960051 0.33061644 0.39996269
-0.81299651 0.32367831 0.30177018
-0.80508351 0.32037053 0.21306697
-0.81684709 0.32472986 0.12913485
-0.11261978 0.12423589 17.808596
-0.55822831 0.23985338 3.8629239
-0.71517426 0.30206066 3.7558999
-1.1442835 0.47445714 4.0072966
-1.0293022 0.42261329 2.6808887
-0.92720664 0.378447 1.9025706
-0.91039199 0.37012449 1.5160043
-0.89291114 0.36194581 1.2301713
-0.19524877 0.10364594 3.6633058
-0.35872898 0.17473657 3.6787243
-0.94313097 0.39580068 3.9754882
-1.0993224 0.45538977 3.2900438
-0.98010731 0.40282899 2.2548525
-0.91396785 0.37398639 1.6854634
-0.89254701 0.36396828 1.3511276
-0.88350147 0.35939643 1.1122906
-0.88361979 0.3560423 1.0159656
-0.86586148 0.34836972 0.83494574
-0.85563356 0.34374464 0.6891681
-0.85643685 0.34372854 0.56962395
-0.83553171 0.33500713 0.45201927
-0.81968623 0.32832959 0.34948593
-0.82547402 0.33031926 0.26027638
-0.80903429 0.32342124 0.1711676
-0.87896556 0.35559952 0.92564505
-0.85690314 0.34616137 0.75648111
-0.85314214 0.34430376 0.62623757
-0.86820745 0.34986421 0.52017462
-0.82844144 0.33351028 0.39996269
-0.81186169 0.32651421 0.30177018
-0.80396038 0.32317883 0.21306697
-0.82034457 0.32944098 0.12933637
-0.11215762 0.12459461 17.803595
-0.55810028 0.24211021 3.8678632
-0.7141155 0.30455524 3.7558999
-1.1439973 0.4790253 4.0120687
-1.0296253 0.42695221 2.6854911
-0.92809415 0.38259432 1.9069598
-0.90909445 0.37330008 1.5160043
-0.89164227 0.36506045 1.2301713
-0.19488579 0.10432684 3.6633058
-0.35811687 0.17598771 3.6787243
-0.94174367 0.39909038 3.9754882
-1.0993179 0.45989051 3.2947366
-0.9807058 0.40708262 2.2593539
-0.91506708 0.37817082 1.6897295
-0.89405721 0.36822939 1.3551177
-0.88537735 0.36376688 1.1159657
-0.88237154 0.35912454 1.0159656
-0.86464018 0.35139 0.83494574
-0.85830301 0.34830177 0.69190961
-0.85523182 0.34671596 0.56962395
-0.8343572 0.33792165 0.45201927
-0.81853515 0.33118883 0.34948593
-0.82431597 0.3331987 0.26027638
-0.80790037 0.32624331 0.1711676
-0.87771893 0.3586655 0.92564505
-0.85943192 0.35067764 0.75942427
-0.85193509 0.34727967 0.62623757
-0.86698091 0.3528927 0.52017462
-0.8316465 0.33817893 0.4016062
-0.80621386 0.3275167 0.30059788
-0.8074156 0.32784632 0.21375765
-0.81918967 0.33230251 0.12933637
-0.11172201 0.12498537 17.803595
-0.55796331 0.24436906 3.8728023
-0.71304804 0.30704612 3.7558999
-1.143693 0.48359725 4.0168409
-1.0299306 0.43129855 2.6900938
-0.92896384 0.3867524 1.9113487
-0.91038513 0.37754941 1.5201373
-0.89332449 0.36939567 1.2340088
-0.19452043 0.10500649 3.6633058
-0.35750037 0.17723671 3.6787243
-0.94034481 0.40237525 3.9754882
-1.097706 0.46372503 3.2947366
-0.98128635 0.41134524 2.263855
-0.91374147 0.38136274 1.6897295
-0.89276636 0.37134799 1.3551177
-0.88410217 0.3668552 1.1159657
-0.88111258 0.36220238 1.0159656
-0.86340839 0.35440603 0.83494574
-0.85708201 0.35129565 0.69190961
-0.85401636 0.34969917 0.56962395
-0.83317256 0.34083205 0.45201927
-0.8218146 0.33585888 0.35089597
-0.82314789 0.33607408 0.26027638
-0.80675662 0.32906142 0.1711676
-0.87646163 0.36172712 0.92564505
-0.85820264 0.35367548 0.75942427
-0.85071766 0.35025138 0.62623757
-0.86574376 0.35591686 0.52017462
-0.83046097 0.34107986 0.4016062
-0.80506563 0.33032891 0.30059788
-0.80626631 0.33066273 0.21375765
-0.81802469 0.33515999 0.12933637
-0.11128505 0.12537459 17.803595
-0.55710691 0.24631523 3.8728023
-0.71290547 0.30993959 3.7607951
-1.1433706 0.48817286 4.0216126
-1.0320175 0.43641338 2.6992986
-0.92760819 0.38999274 1.9113487
-0.90906167 0.38072494 1.5201373
-0.89202958 0.37251171 1.2340088
-0.1941527 0.10568485 3.6633058
-0.3568795 0.17848353 3.6787243
-0.9377808 0.40515643 3.9706492
-1.0976677 0.46823126 3.2994294
-0.98184919 0.41561696 2.2683563
-0.91480786 0.38556308 1.6939954
-0.8942427 0.37562928 1.3591076
-0.88594282 0.3712495 1.1196409
-0.88313645 0.36664346 1.0194702
-0.86576146 0.3589085 0.83808416
-0.85585046 0.3542853 0.69190961
-0.85279047 0.35267809 0.56962395
-0.83197778 0.34373829 0.45201927
-0.82063723 0.33872551 0.35089597
-0.82196975 0.33894533 0.26027638
-0.81020772 0.33377245 0.17161468
-0.87864 0.36622104 0.92897052
-0.85696286 0.35666901 0.75942427
-0.85347021 0.35487404 0.62877071
-0.86030459 0.35719624 0.5180766
-0.8292653 0.34397665 0.4016062
-0.80390769 0.33313709 0.30059788
-0.80510718 0.33347511 0.21375765
-0.81684977 0.33801341 0.12933637
-0.11084674 0.12576227 17.803595
-0.55695301 0.24857554 3.8777416
-0.71181929 0.31242618 3.7607951
-1.144401 0.49334335 4.0311565
-1.0322845 0.44078058 2.7039013
-0.9284457 0.3941645 1.9157379
-0.90772718 0.38389581 1.5201373
-0.89367712 0.3768689 1.2378463
-0.1935306 0.10622108 3.6583142
-0.35625431 0.17972818 3.6787243
-0.93751281 0.40893024 3.9754882
-1.0960267 0.47205999 3.2994294
-0.98239398 0.41989753 2.2728574
-0.91345644 0.38875401 1.6939954
-0.89292604 0.37874848 1.3591076
-0.88464153 0.37433976 1.1196409
-0.88185126 0.36972395 1.0194702
-0.86450338 0.3619284 0.83808416
-0.8546086 0.35727063 0.69190961
-0.85155416 0.35565278 0.56962395
-0.83077282 0.34664032 0.45201927
-0.82387757 0.3434338 0.35230598
-0.82078159 0.34181246 0.26027638
-0.80903769 0.33659858 0.17161468
-0.87735623 0.36928582 0.92897052
-0.85571265 0.35965818 0.75942427
-0.85222626 0.35785106 0.62877071
-0.85905248 0.36019707 0.5180766
-0.82805955 0.3468692 0.4016062
-0.80722374 0.33781776 0.30177018
-0.80393821 0.33628345 0.21375765
-0.81105536 0.33893633 0.12913485
-0.11040707 0.12614843 17.803595
-0.55608195 0.25051814 3.8777416
-0.71072435 0.31490901 3.7607951
-1.1440406 0.49793097 4.0359287
-1.0325334 0.44515494 2.7085037
-0.92926526 0.39834681 1.9201269
-0.90896946 0.38816744 1.5242703
-0.89235616 0.37998611 1.2378463
-0.19315864 0.10689598 3.6583142
-0.35562477 0.18097064 3.6787243
-0.93377918 0.41118661 3.9658096
-1.0959547 0.47657132 3.304122
-0.98092234 0.42332417 2.2728574
-0.91448992 0.39297014 1.6982613
-0.89436835 0.38304964 1.3630977
-0.88644677 0.37875772 1.123316
-0.88383931 0.37419051 1.0229747
-0.86323476 0.36494386 0.83808416
-0.8533563 0.36025158 0.69190961
-0.85438907 0.36034468 0.57194275
-0.82955772 0.34953815 0.45201927
-0.82267374 0.34630758 0.35230598
-0.82411146 0.34657982 0.26120901
-0.81244898 0.3413496 0.17206176
-0.87949806 0.37380683 0.93229604
-0.85817266 0.36422235 0.76236743
-0.850972 0.36082366 0.62877071
-0.85778993 0.36319354 0.5180766
-0.83119279 0.35159734 0.40324971
-0.80603957 0.34063342 0.30177018
-0.80275947 0.33908767 0.21375765
-0.80986732 0.34176537 0.12913485
-0.10996605 0.12653306 17.803595
-0.55591118 0.25277981 3.8826807
-0.71055007 0.31780407 3.7656903
-1.1450285 0.50312275 4.0454726
-1.0327646 0.44953641 2.7131064
-0.93006694 0.4025397 1.9245161
-0.90760899 0.39133799 1.5242703
-0.89396876 0.38436496 1.2416838
-0.19253331 0.10742699 3.6533225
-0.3549909 0.18221091 3.6787243
-0.93004131 0.41342193 3.9561307
-1.0958643 0.48108792 3.308815
-0.9814344 0.42761546 2.2773588
-0.91550505 0.39719817 1.7025272
-0.89579147 0.38736546 1.3670877
-0.88511932 0.38184968 1.123316
-0.88252771 0.37727341 1.0229747
-0.86195558 0.36795488 0.83808416
-0.85594004 0.36486802 0.69465113
-0.85312605 0.36332482 0.57194275
-0.83259839 0.35424685 0.45389232
-0.82145995 0.34917712 0.35230598
-0.82289666 0.34945437 0.26120901
-0.81583691 0.34612855 0.17250884
-0.87818789 0.37687457 0.93229604
-0.8568961 0.36721572 0.76236743
-0.85367006 0.36548874 0.63130391
-0.8565169 0.36618558 0.5180766
-0.82996041 0.3544966 0.40324971
-0.80931622 0.34535274 0.30294251
-0.80612594 0.34383062 0.21444833
-0.80866939 0.34459025 0.12913485
-0.10955081 0.12695035 17.808596
-0.55502546 0.25471875 3.8826807
-0.70943642 0.3202824 3.7656903
-1.1446296 0.50772208 4.0502448
-1.034766 0.45471105 2.7223115
-0.92865616 0.40578377 1.9245161
-0.90881753 0.3956272 1.5284033
-0.8926217 0.38748315 1.2416838
-0.19215715 0.1080984 3.6533225
-0.35388002 0.18320256 3.6737528
-0.9285925 0.41666585 3.9561307
-1.0973336 0.48630911 3.3182003
-0.98192823 0.43191543 2.2818599
-0.91411299 0.40039149 1.7025272
-0.8944338 0.39048997 1.3670877
-0.88378102 0.38493699 1.123316
-0.88447964 0.38176519 1.0264792
-0.86424023 0.37250227 0.84122264
-0.85466123 0.36785358 0.69465113
-0.8518526 0.36630058 0.57194275
-0.83135676 0.357151 0.45389232
-0.82023603 0.35204244 0.35230598
-0.82167184 0.35232469 0.26120901
-0.81462377 0.34897423 0.17250884
-0.88029283 0.38142237 0.93562156
-0.855609 0.37020457 0.76236743
-0.85238904 0.36846638 0.63130391
-0.85523349 0.36917314 0.5180766
-0.83305401 0.35926166 0.40489322
-0.81256968 0.35009906 0.30411482
-0.80492091 0.34664243 0.21444833
-0.80746162 0.34741095 0.12913485
-0.10913397 0.12736627 17.813595
-0.55483776 0.25698164 3.8876202
-0.70831412 0.32275686 3.7656903
-1.1455749 0.51293492 4.0597882
-1.0349581 0.4591127 2.7269139
-0.92942524 0.4099898 1.928905
-0.90743095 0.39879715 1.5284033
-0.89419919 0.39188343 1.2455213
-0.19177864 0.10876849 3.6533225
-0.35276654 0.18418869 3.6687813
-0.91224885 0.41315952 3.8932183
-1.0972044 0.49084148 3.3228931
-0.98240417 0.4362241 2.2863612
-0.91509491 0.40463483 1.7067931
-0.89582253 0.39482525 1.3710777
-0.88243192 0.38801962 1.123316
-0.88314164 0.38485026 1.0264792
-0.86293471 0.37551677 0.84122264
-0.85337198 0.37083465 0.69465113
-0.85463208 0.37103611 0.57426155
-0.83010507 0.3600508 0.45389232
-0.82340372 0.35681093 0.35371602
-0.82043695 0.35519072 0.26120901
-0.81797141 0.35379267 0.17295592
-0.87895608 0.38449284 0.93562156
-0.85801548 0.37480715 0.76531059
-0.8510977 0.37143955 0.63130391
-0.85810018 0.37396958 0.52017462
-0.83179492 0.36216739 0.40489322
-0.81134266 0.35293332 0.30411482
-0.80370593 0.34945002 0.21444833
-0.81082624 0.35221791 0.12933637
-0.10874243 0.12781522 17.823595
-0.55464107 0.25924632 3.8925595
-0.70718318 0.32522738 3.7656903
-1.1451375 0.51754564 4.0645604
-1.0351322 0.4635213 2.7315164
-0.9301762 0.41420612 1.9332942
-0.90860552 0.40310365 1.5325361
-0.89575696 0.39629942 1.2493588
-0.19164732 0.10958248 3.6583142
-0.35165048 0.18516928 3.6638098
-0.91423029 0.41790989 3.9077363
-1.0986297 0.49608928 3.3322787
-0.98286194 0.44054133 2.2908626
-0.91605842 0.40888992 1.7110591
-0.89443886 0.39794984 1.3710777
-0.88417071 0.39247319 1.1269913
-0.8817929 0.38793066 1.0264792
-0.86518216 0.38009244 0.84436107
-0.85590136 0.37549126 0.69739258
-0.85333174 0.37401709 0.57426155
-0.83308977 0.36480594 0.45576534
-0.82215321 0.35968298 0.35371602
-0.82369316 0.3600198 0.26214162
-0.81673139 0.35664576 0.17295592
-0.881024 0.38906717 0.93894702
-0.85670197 0.37779993 0.76531059
-0.85374075 0.37614638 0.6338371
-0.85678953 0.37696263 0.52017462
-0.83052564 0.36506867 0.40489322
-0.81455606 0.35771778 0.30528715
-0.80701572 0.35424381 0.21513902
-0.80959183 0.35504606 0.12933637
-0.10832234 0.1282285 17.828592
-0.55443525 0.26151273 3.8974986
-0.7060436 0.32769391 3.7656903
-1.14604 0.52277923 4.0741048
-1.035288 0.46793664 2.7361188
-0.92872471 0.41745055 1.9332942
-0.90976101 0.40742326 1.5366691
-0.89436811 0.39942378 1.2493588
-0.19151263 0.11039688 3.6633058
-0.35006177 0.18589298 3.6538668
-1.1000319 0.50135303 3.3416643
-0.9833014 0.44486701 2.2953637
-0.91462547 0.41208509 1.7110591
-0.89304429 0.40106961 1.3710777
-0.88279527 0.39555711 1.1269913
-0.88369256 0.392454 1.0299838
-0.86385012 0.38311017 0.84436107
-0.85458547 0.37847665 0.69739258
-0.85202098 0.37699351 0.57426155
-0.83181119 0.36771172 0.45576534
-0.82089269 0.36255062 0.35371602
-0.8224315 0.36289284 0.26214162
-0.82003832 0.36150336 0.17340299
-0.87966061 0.39214015 0.93894702
-0.85907054 0.3824321 0.76825374
-0.85242254 0.37912419 0.6338371
-0.85546845 0.37995109 0.52017462
-0.82924622 0.36796552 0.40489322
-0.81330246 0.36055893 0.30528715
-0.80577427 0.35705864 0.21513902
-0.8129158 0.35989237 0.12953791
-0.10790071 0.12864043 17.833593
-0.55422038 0.26378086 3.9024379
-0.70489544 0.33015648 3.7656903
-1.145564 0.52740091 4.0788765
-1.0354257 0.47235873 2.7407215
-0.9294427 0.42167956 1.9376832
-0.9083333 0.41059643 1.5366691
-0.89589036 0.40386075 1.2531964
-0.1913746 0.11121167 3.6682975
-0.34894153 0.18686083 3.648895
-1.1014104 0.50663257 3.3510499
-0.98372275 0.4492012 2.299865
-0.91555542 0.41635507 1.715325
-0.89438325 0.40542883 1.3750678
-0.88140917 0.39863625 1.1269913
-0.8823173 0.39553627 1.0299838
-0.86250752 0.38612324 0.84436107
-0.85707635 0.38316411 0.70013404
-0.85069984 0.37996531 0.57426155
-0.8305226 0.37061304 0.45576534
-0.82400346 0.3673673 0.35512605
-0.82564694 0.36776021 0.26307425
-0.81877148 0.36436361 0.17340299
-0.87828642 0.39520833 0.93894702
-0.85773033 0.38542849 0.76825374
-0.85109395 0.38209739 0.6338371
-0.85827833 0.38479173 0.52227271
-0.8236472 0.36892742 0.40324971
-0.81203896 0.36339569 0.30528715
-0.80452299 0.35986915 0.21513902
-0.81165457 0.36272779 0.12953791
-0.10742451 0.12898161 17.828592
-0.55399638 0.26605064 3.9073772
-0.70373869 0.33261499 3.7656903
-1.1464232 0.53265482 4.0884204
-1.0373195 0.47760478 2.7499266
-0.93014258 0.42591876 1.9420724
-0.90945446 0.41493288 1.5408021
-0.89447516 0.40698552 1.2531964
-0.1912332 0.11202684 3.6732893
-0.34781885 0.18782313 3.6439238
-1.1027654 0.51192778 3.3604355
-0.98412567 0.45354366 2.3043661
-0.91409647 0.41954842 1.715325
-0.89296263 0.4085483 1.3750678
-0.88309616 0.40311855 1.1306664
-0.8809312 0.39861372 1.0299838
-0.86470139 0.39073455 0.84749955
-0.85573363 0.38615352 0.70013404
-0.85340661 0.38475332 0.57658035
-0.82922387 0.37350982 0.45576534
-0.82271612 0.37024134 0.35512605
-0.82435817 0.37064004 0.26307425
-0.81749463 0.36721945 0.17340299
-0.87690151 0.39827171 0.93894702
-0.86006075 0.39008996 0.7711969
-0.84975499 0.38506594 0.6338371
-0.8569299 0.38778535 0.52227271
-0.82235438 0.37180024 0.40324971
-0.8107655 0.36622801 0.30528715
-0.80326188 0.36267528 0.21513902
-0.81493753 0.36761308 0.12973943
-0.10697363 0.1293558 17.828592
-0.55446243 0.26866138 3.9172556
-0.70257336 0.33506951 3.7656903
-1.1459084 0.53728729 4.0931926
-1.0374175 0.48204622 2.754529
-0.93082404 0.43016788 1.9464613
-0.90800059 0.41810495 1.5408021
-0.89304906 0.41010532 1.2531964
-0.190841 0.11269368 3.6732893
-0.34716108 0.1890361 3.6439238
-1.1990333 0.56855679 5.1466289
-1.1040969 0.51723862 3.3698208
-0.98648405 0.45881274 2.3133683
-0.91499281 0.42383307 1.7195909
-0.89426661 0.41292626 1.3790579
-0.88168365 0.40619868 1.1306664
-0.88277823 0.40316805 1.0334884
-0.86333221 0.39375055 0.84749955
-0.85438043 0.38913828 0.70013404
-0.85205841 0.38772991 0.57658035
-0.8321352 0.3783209 0.45763838
-0.82578629 0.37509492 0.35653609
-0.82753253 0.37554538 0.26400685
-0.81620777 0.37007082 0.17340299
-0.87550592 0.40133026 0.93894702
-0.85869384 0.39308974 0.7711969
-0.84840566 0.38802981 0.6338371
-0.85969925 0.39265993 0.52437073
-0.82105154 0.37466854 0.40324971
-0.80948222 0.3690559 0.30528715
-0.80649722 0.36753058 0.21582969
-0.81364936 0.37045553 0.12973943
-0.10649519 0.12969357 17.823595
-0.55352122 0.27059516 3.9172556
-0.70139945 0.33751988 3.7656903
-1.1467242 0.54256117 4.1027365
-1.039266 0.48732388 2.7637341
-0.93148726 0.43442702 1.9508505
-0.90908736 0.42245802 1.544935
-0.89161211 0.41322017 1.2531964
-0.19044647 0.11335915 3.6732893
-0.34649912 0.19024676 3.6439238
-1.19364 0.57111055 5.1321106
-1.1054047 0.52256495 3.3792064
-0.9868471 0.4631786 2.3178697
-0.91587031 0.42812908 1.7238568
-0.89555097 0.41731831 1.3830478
-0.8833344 0.41070336 1.1343416
-0.8813656 0.40624705 1.0334884
-0.86195248 0.39676175 0.84749955
-0.85681611 0.39386484 0.70287549
-0.85472518 0.39255074 0.57889915
-0.83080959 0.38122329 0.45763838
-0.82447195 0.37797517 0.35653609
-0.82621664 0.37843174 0.26400685
-0.81491107 0.37291765 0.17340299
-0.87748837 0.40595183 0.94227254
-0.85731643 0.39608476 0.7711969
-0.84704602 0.39098892 0.6338371
-0.8583234 0.39565843 0.52437073
-0.82402784 0.37950775 0.40489322
-0.80818903 0.37187925 0.30528715
-0.80520934 0.37034354 0.21582969
-0.81235129 0.37329343 0.12973943
-0.1060157 0.13002957 17.818596
-0.55326992 0.27286983 3.922195
-0.70113283 0.34041125 3.7705855
-1.1461704 0.54720402 4.1075082
-1.0428562 0.49345618 2.7775416
-0.92996514 0.43767586 1.9508505
-0.9076072 0.42562875 1.544935
-0.89306754 0.4176881 1.2570338
-0.1900496 0.11402325 3.6732893
-0.34583291 0.19145511 3.6439238
-1.1950349 0.57691365 5.1466289
-1.1051313 0.52716357 3.3838992
-0.98719156 0.46755257 2.3223708
-0.91672891 0.43243638 1.7281228
-0.89681548 0.42172435 1.3870379
-0.88189542 0.41378427 1.1343416
-0.88317567 0.41082552 1.036993
-0.86409217 0.40140814 0.85063797
-0.85543609 0.3968533 0.70287549
-0.85736871 0.3973949 0.58121794
-0.82947379 0.38412103 0.45763838
-0.82314754 0.38085079 0.35653609
-0.82489061 0.38131344 0.26400685
-0.8136043 0.37575993 0.17340299
-0.87606597 0.40901235 0.94227254
-0.8595919 0.40078312 0.77414006
-0.84958363 0.39576373 0.63637024
-0.86105204 0.40056664 0.52646881
-0.82269806 0.38238183 0.40489322
-0.81129438 0.37674534 0.30645946
-0.80391175 0.37315199 0.21582969
-0.81104332 0.3761268 0.12973943
-0.10556116 0.13039885 17.818596
-0.55300951 0.27514601 3.9271343
-0.69994032 0.34285659 3.7705855
-1.1469426 0.55249763 4.1170521
-1.0446532 0.49877739 2.7867467
-0.9305951 0.44194704 1.9552395
-0.90865946 0.42999825 1.549068
-0.89160413 0.42080295 1.2570338
-0.18965043 0.11468595 3.6732893
-0.34516251 0.19266114 3.6439238
-1.1975335 0.58328408 5.1659865
-1.1063941 0.53251523 3.3932846
-0.9875176 0.47193459 2.3268721
-0.91521382 0.43563372 1.7281228
-0.895338 0.42485225 1.3870379
-0.8835097 0.41831109 1.1380167
-0.88496435 0.41542146 1.0404975
-0.8626858 0.40442193 0.85063797
-0.85404557 0.39983693 0.70287549
-0.85597634 0.40038523 0.58121794
-0.83232772 0.38897696 0.4595114
-0.8261596 0.38575137 0.35794613
-0.82800621 0.38626733 0.26493949
-0.81680149 0.38070148 0.17385007
-0.87801051 0.41365942 0.94559801
-0.85818768 0.40378124 0.77414006
-0.84819698 0.39872691 0.63637024
-0.86375678 0.40549862 0.52856684
-0.82563341 0.38725659 0.40653673
-0.80997437 0.37957498 0.30645946
-0.80260432 0.37595588 0.21582969
-0.8097254 0.37895557 0.12973943
-0.10510534 0.13076654 17.818596
-0.5520457 0.27707469 3.9271343
-0.7005645 0.34620064 3.780376
-1.1463495 0.55715054 4.1218243
-1.0464256 0.50411713 2.7959518
-0.93120646 0.446228 1.9596287
-0.90715295 0.43316743 1.549068
-0.89302355 0.42529103 1.2608713
-0.18900359 0.11519513 3.6682975
-0.34495169 0.19412753 3.648895
-1.1966182 0.58801526 5.170826
-1.1060808 0.53712809 3.3979776
-0.98782492 0.4763245 2.3313732
-0.91603839 0.43995509 1.7323887
-0.89656717 0.42927647 1.3910279
-0.88204414 0.42139256 1.1380167
-0.88350886 0.41850805 1.0404975
-0.86126882 0.4074308 0.85063797
-0.85642534 0.40460196 0.70561695
-0.85857946 0.40526175 0.58353674
-0.83515787 0.39385751 0.46138445
-0.82480806 0.38863286 0.35794613
-0.82665282 0.38915527 0.26493949
-0.8154676 0.38355035 0.17385007
-0.87656122 0.41672173 0.94559801
-0.85677302 0.4067744 0.77414006
-0.85069478 0.40353295 0.63890344
-0.8623361 0.40851125 0.52856684
-0.82427663 0.39013624 0.40653673
-0.81303853 0.384478 0.30763176
-0.80128706 0.37875521 0.21582969
-0.80839771 0.38177973 0.12973943
-0.104674 0.13116783 17.823595
-0.55176812 0.27935144 3.9320736
-0.69752967 0.34773469 3.7705855
-1.147078 0.56246352 4.1313686
-1.0481735 0.50947535 2.8051567
-0.92964315 0.4494758 1.9596287
-0.9081704 0.43755302 1.553201
-0.89442241 0.42979416 1.2647089
-0.18860033 0.11585417 3.6682975
-0.34427196 0.19533046 3.648895
-1.1968106 0.59330571 5.1805053
-1.1072983 0.54250467 3.4073629
-0.98811376 0.48072243 2.3358746
-0.91684395 0.44428754 1.7366546
-0.89506322 0.43240345 1.3910279
-0.88362151 0.4259412 1.1416919
-0.88526016 0.42312765 1.0440021
-0.85984141 0.41043472 0.85063797
-0.85500777 0.40758899 0.70561695
-0.85715961 0.40825626 0.58353674
-0.837964 0.39876252 0.46325746
-0.82777882 0.39356953 0.35935616
-0.82528943 0.39203843 0.26493949
-0.81412381 0.38639453 0.17385007
-0.87846762 0.42139405 0.94892353
-0.85899311 0.41150913 0.77708322
-0.84928095 0.40649998 0.63890344
-0.86090487 0.41151887 0.52856684
-0.82717085 0.39504629 0.40818024
-0.81169146 0.38731372 0.30763176
-0.79996008 0.38154992 0.21582969
-0.80706006 0.38459924 0.12973943
-0.1042155 0.13153242 17.823595
-0.55148143 0.28162962 3.9370127
-0.6972211 0.35062525 3.775481
-1.1464456 0.56712621 4.1361403
-1.0498966 0.51485187 2.8143618
-0.9302209 0.45376834 1.9640176
-0.9091683 0.44195095 1.5573338
-0.89291674 0.43291363 1.2647089
-0.18819477 0.1165118 3.6682975
-0.34405002 0.19679697 3.6538668
-1.1969805 0.59860456 5.1901836
-1.1069447 0.54713142 3.4120557
-0.99033791 0.4860875 2.344877
-0.91528749 0.44748524 1.7366546
-0.89625698 0.43684563 1.395018
-0.88212937 0.429023 1.1416919
-0.88377774 0.4262152 1.0440021
-0.8619101 0.41512278 0.85377645
-0.85734797 0.41238371 0.70835841
-0.85572928 0.41124585 0.58353674
-0.84074605 0.40369189 0.46513051
-0.82639992 0.39645663 0.35935616
-0.82834554 0.39704013 0.26587209
-0.81726158 0.39138499 0.17429715
-0.87699133 0.42445791 0.94892353
-0.8575514 0.41450506 0.77708322
-0.85173857 0.4113369 0.64143664
-0.8594631 0.41452146 0.52856684
-0.82578689 0.39793128 0.40818024
-0.81471401 0.39225331 0.30880409
-0.80308545 0.38648745 0.21652037
-0.81021518 0.38957903 0.12994097
-0.10378125 0.13193078 17.828592
-0.55118555 0.28390917 3.941952
-0.69599295 0.35305688 3.775481
-1.1471299 0.57245803 4.1456842
-1.0480931 0.51851356 2.8143618
-0.93078005 0.45807046 1.9684068
-0.91014642 0.44636115 1.5614668
-0.8942793 0.43743646 1.2685463
-0.18778694 0.11716802 3.6682975
-0.343822 0.19826432 3.6588383
-1.1982501 0.60447818 5.2047019
-1.1081166 0.55253261 3.4214413
-0.9905858 0.49050766 2.3493781
-0.91605884 0.4518314 1.7409205
-0.89472663 0.43997151 1.395018
-0.88366979 0.43359321 1.145367
-0.88549131 0.43085814 1.0475066
-0.86045581 0.41812888 0.85377645
-0.85590327 0.41537389 0.70835841
-0.85827446 0.41616324 0.58585554
-0.84350383 0.40864554 0.46700355
-0.82932878 0.40142897 0.3607662
-0.82695454 0.39992917 0.26587209
-0.81589037 0.39423537 0.17429715
-0.87885934 0.42915508 0.95224905
-0.85609931 0.41749594 0.77708322
-0.85029757 0.4143075 0.64143664
-0.85801095 0.41751906 0.52856684
-0.82863963 0.40287626 0.40982375
-0.81333977 0.39509478 0.30880409
-0.80173153 0.38928837 0.21652037
-0.80885035 0.39240482 0.12994097
-0.10334549 0.13232774 17.833593
-0.55088043 0.28619009 3.9468911
-1.3454515 0.68874836 7.2902541
-1.1477911 0.57780164 4.1552286
-1.0480248 0.52304155 2.8189645
-0.93132037 0.46238193 1.9727957
-0.91110492 0.45078358 1.5655998
-0.89274687 0.44055542 1.2685463
-0.1873768 0.1178228 3.6682975
-0.34312785 0.19946326 3.6588383
-1.1983731 0.60979772 5.2143812
-1.1077226 0.55717289 3.4261341
-0.99276233 0.49590856 2.3583806
-0.91447604 0.45502627 1.7409205
-0.89588463 0.44443133 1.3990079
-0.88215089 0.43667513 1.145367
-0.88398194 0.43394643 1.0475066
-0.86248583 0.42284349 0.85691494
-0.85444808 0.41835901 0.70835841
-0.85681659 0.41915664 0.58585554
-0.84623724 0.4136233 0.46887657
-0.82792246 0.4043214 0.3607662
-0.82555354 0.40281335 0.26587209
-0.81450927 0.39708096 0.17429715
-0.87735599 0.43222028 0.95224905
-0.85463673 0.42048177 0.77708322
-0.8488462 0.41727304 0.64143664
-0.85654831 0.42051151 0.52856684
-0.82722819 0.40576631 0.40982375
-0.81195575 0.39793149 0.30880409
-0.80036777 0.3920846 0.21652037
-0.80747569 0.39522585 0.12994097
-0.10285768 0.13265209 17.828592
-0.55125403 0.28883338 3.9567697
-1.3448483 0.69437522 7.3000441
-1.1484289 0.5831567 4.164772
-1.0479374 0.52757537 2.8235669
-0.93184203 0.46670282 1.977185
-0.90952581 0.45396119 1.5655998
-0.89407283 0.44509768 1.2723838
-0.18696436 0.11847614 3.6682975
-0.34242952 0.20065978 3.6588383
-1.1984735 0.61512542 5.2240596
-1.1088486 0.56259823 3.4355197
-0.99296927 0.50035077 2.3628819
-0.91521281 0.45938578 1.7451864
-0.89702231 0.44890457 1.402998
-0.88365418 0.44126657 1.1490422
-0.88246179 0.43702948 1.0475066
-0.86100453 0.42585152 0.85691494
-0.85298252 0.42133904 0.70835841
-0.85534817 0.42214495 0.58585554
-0.84478825 0.41657472 0.46887657
-0.82650608 0.40720895 0.3607662
-0.8241424 0.40569261 0.26587209
-0.81758696 0.40211961 0.17474423
-0.87918544 0.43694213 0.95557451
-0.85316378 0.42346242 0.77708322
-0.85124636 0.42214891 0.64396977
-0.85100824 0.42148441 0.52646881
-0.83003908 0.41074586 0.41146725
-0.81491876 0.40291768 0.3099764
-0.79899424 0.394876 0.21652037
-0.80609113 0.39804208 0.12994097
-0.10239401 0.13301033 17.828592
-0.55092919 0.29111934 3.961709
-1.3415134 0.69859493 7.2951493
-1.1490432 0.58852333 4.1743164
-1.0478313 0.53211498 2.8281696
-0.93234473 0.47103286 1.9815739
-0.91044897 0.458399 1.5697327
-0.89251369 0.44821587 1.2723838
-0.18654968 0.11912806 3.6682975
-0.34218517 0.20212625 3.6638098
-1.1985513 0.62046129 5.2337389
-1.1084142 0.5672518 3.4402122
-0.99315715 0.50480044 2.367383
-0.91593039 0.46375602 1.7494525
-0.89813977 0.45339116 1.406988
-0.88210851 0.44434839 1.1490422
-0.88412106 0.44170117 1.0510111
-0.86299568 0.43059242 0.86005342
-0.85524899 0.42617899 0.71109986
-0.85386944 0.4251281 0.58585554
-0.84747964 0.42158598 0.47074962
-0.82507962 0.41009149 0.3607662
-0.82712078 0.41075185 0.26680472
-0.81617832 0.40497109 0.17474423
-0.87765485 0.4400084 0.95557451
-0.8516804 0.42643794 0.77708322
-0.84976763 0.42511779 0.64396977
-0.84953183 0.42445242 0.52646881
-0.82860023 0.41364074 0.41146725
-0.81350738 0.40575981 0.3099764
-0.80204278 0.39987221 0.21721105
-0.8046968 0.40085343 0.12994097
-0.10190407 0.13333119 17.823595
-0.55128062 0.29377237 3.9715877
-1.339968 0.70374703 7.3000441
-1.1496341 0.59390128 4.1838603
-1.0477061 0.53666019 2.8327718
-0.93282866 0.4753722 1.9859631
-0.90884334 0.46157426 1.5697327
-0.89094371 0.45132858 1.2723838
-0.18589112 0.11962042 3.6633058
-0.34147754 0.20331948 3.6638098
-1.1997206 0.62638706 5.2482567
-1.109494 0.57270092 3.4495978
-0.99332613 0.50925756 2.3718843
-0.91662854 0.46813688 1.7537184
-0.89923674 0.45789102 1.410978
-0.88357431 0.44896075 1.1527174
-0.88257384 0.44478464 1.0510111
-0.86148739 0.43360221 0.86005342
-0.85375619 0.42916179 0.71109986
-0.85238022 0.42810607 0.58585554
-0.84600288 0.42454165 0.47074962
-0.82793128 0.41511923 0.36217624
-0.82568198 0.41363654 0.26680472
-0.81475973 0.4078176 0.17474423
-0.87944543 0.44475451 0.95890003
-0.85379452 0.43123069 0.78002638
-0.85212702 0.43002376 0.64650303
-0.84804505 0.42741525 0.52646881
-0.8271513 0.41653058 0.41146725
-0.81208605 0.40859699 0.3099764
-0.80506611 0.40489447 0.21790172
-0.80329269 0.40365991 0.12994097
-0.10141314 0.13365026 17.818596
-0.55162019 0.29643142 3.9814661
-1.3384029 0.70889688 7.3049397
-1.1502014 0.59929055 4.1934042
-1.0475621 0.54121113 2.8373744
-0.93329364 0.47972062 1.990352
-0.90973091 0.46602708 1.5738657
-0.89221698 0.45589444 1.2762213
-0.18547244 0.12026858 3.6633058
-0.34122205 0.20478579 3.6687813
-1.199751 0.63174278 5.257936
-1.1105492 0.57816446 3.4589834
-0.99347597 0.51372188 2.3763855
-0.91730726 0.47252822 1.7579843
-0.89763284 0.46102715 1.410978
-0.88501859 0.45358872 1.1563925
-0.88419485 0.44947898 1.0545157
-0.86343914 0.43836895 0.8631919
-0.85598224 0.43403053 0.71384138
-0.85088068 0.43107882 0.58585554
-0.8445158 0.42749217 0.47074962
-0.82647723 0.41800672 0.36217624
-0.82423306 0.41651616 0.26680472
-0.81333125 0.41065916 0.17474423
-0.88121349 0.44951847 0.9622255
-0.85228407 0.43420839 0.78002638
-0.85062075 0.43299562 0.64650303
-0.85059357 0.43242979 0.52856684
-0.82569236 0.41941532 0.41146725
-0.81065482 0.41142923 0.3099764
-0.80364788 0.40770221 0.21790172
-0.80187875 0.40646145 0.12994097
-0.10092123 0.13396752 17.813595
-0.55194795 0.29909641 3.9913447
-1.3368183 0.71404439 7.309835
-1.1494236 0.6039964 4.1981759
-1.047399 0.54576749 2.8419769
-0.93373948 0.48407805 1.9947413
-0.90809864 0.46919981 1.5738657
-0.89062017 0.4590061 1.2762213
-0.18529196 0.12107503 3.6682975
-0.34050512 0.20597564 3.6687813
-1.2008687 0.63769603 5.2724543
-1.1115798 0.58364236 3.468369
-0.99360687 0.51819354 2.3808868
-0.92028064 0.47813261 1.7665161
-0.89869356 0.46554387 1.414968
-0.88342988 0.45667526 1.1563925
-0.88579381 0.45419002 1.0580202
-0.86190361 0.44138023 0.8631919
-0.85446197 0.43701583 0.71384138
-0.84937078 0.43404633 0.58585554
-0.84301841 0.43043745 0.47074962
-0.82501304 0.42088914 0.36217624
-0.82277417 0.41939077 0.26680472
-0.81189281 0.41349572 0.17474423
-0.87963903 0.45259175 0.9622255
-0.8543582 0.43902835 0.78296953
-0.85293889 0.4379313 0.64903617
-0.85311735 0.43746728 0.53066492
-0.82422322 0.42229497 0.41146725
-0.80921376 0.41425642 0.3099764
-0.80662823 0.41276088 0.21859241
-0.80490327 0.41153237 0.1301425
-0.10042834 0.13428299 17.808596
-0.55226374 0.30176726 4.0012231
-1.3352141 0.71918947 7.3147302
-1.1499461 0.60940331 4.2077203
-1.0472169 0.55032933 2.8465796
-0.9362886 0.48955441 2.0035193
-0.90895075 0.4736675 1.5779986
-0.89185637 0.46359065 1.2800589
-0.1848682 0.12172109 3.6682975
-0.33978409 0.20716296 3.6687813
-1.1997434 0.64247757 5.2772937
-1.1125855 0.58913445 3.4777546
-0.99371845 0.5226723 2.3853879
-0.92091602 0.48255277 1.7707821
-0.89706308 0.46867809 1.414968
-0.88483644 0.46132374 1.1600677
-0.88420296 0.45727924 1.0580202
-0.86381584 0.44617257 0.86633033
-0.85664737 0.44191298 0.71658283
-0.85178792 0.43903819 0.58817434
-0.84151077 0.43337753 0.47074962
-0.82353884 0.4237664 0.36217624
-0.82567394 0.42450637 0.26773736
-0.81044447 0.41632724 0.17474423
-0.8813678 0.45737949 0.96555102
-0.85282052 0.44200796 0.78296953
-0.85140502 0.44090596 0.64903617
-0.85158509 0.44044256 0.53066492
-0.82693917 0.4273375 0.41311076
-0.8077628 0.41707858 0.3099764
-0.80958301 0.41784531 0.21928309
-0.80346185 0.41433951 0.1301425
-0.099959001 0.13463272 17.808596
-0.5525676 0.30444396 4.0111017
-1.3344848 0.72481811 7.3245206
-1.1491282 0.61411744 4.212492
-1.0470155 0.55489653 2.851182
-0.93669242 0.49393705 2.0079086
