# .PCD v0.7 - Point Cloud Data file format
VERSION 0.7
FIELDS x y z
SIZE 4 4 4
TYPE F F F
COUNT 1 1 1
WIDTH 1472
HEIGHT 1
VIEWPOINT 0 0 0 1 0 0 0
POINTS 1472
DATA ascii
-1.0886592 -4.5417414 2.8301034
-1.0104814 -4.2253313 2.0958121
-0.95648086 -4.0056825 1.5224793
-0.92888546 -3.8961036 1.0567427
-0.90199852 -3.7862387 0.63507247
-0.87857467 -3.6936009 0.2468289
-0.15896358 -0.18762799 26.778254
-0.50664884 -1.8937305 12.462172
-0.598638 -2.2961447 11.431616
-0.88111609 -3.475323 11.508856
-1.2864726 -5.148901 12.562509
-1.6230104 -6.5538688 12.440749
-1.4718666 -5.9792504 9.116497
-1.3614409 -5.5556746 6.9250274
-0.5180493 -1.420563 25.986002
-0.29462278 -0.91961825 8.9634333
-0.72192186 -2.7964776 11.157194
-1.0781498 -4.2583947 11.999818
-1.5334352 -6.1280289 13.125284
-1.5411474 -6.200078 10.520213
-1.3879603 -5.6130424 7.7311764
-1.3147849 -5.33705 6.0370111
-1.2767577 -5.2576675 5.3966484
-1.1967885 -4.9396052 4.1805406
-1.1313552 -4.6802115 3.241473
-1.04696 -4.3376932 2.4223452
-0.98749352 -4.0975614 1.7912377
-0.9472779 -3.9366922 1.2801076
-0.90657091 -3.7732942 0.82824206
-0.88865107 -3.7043691 0.43494424
-1.2237366 -5.00881 4.6734834
-1.172308 -4.8091969 3.6878691
-1.084116 -4.454143 2.7794394
-1.0091587 -4.1556234 2.0643411
-0.95265305 -3.9288926 1.4961833
-0.92875457 -3.8361478 1.0426749
-0.89890736 -3.7156823 0.62540299
-0.87738568 -3.6322365 0.24441053
-0.15958829 -0.1870396 26.773254
-0.51508838 -1.8986993 12.506625
-0.60430545 -2.2851822 11.387559
-0.89324182 -3.4722261 11.508856
-1.3039573 -5.1424847 12.557906
-1.6108462 -6.4087992 12.177404
-1.4572545 -5.8321123 8.9015837
-1.3545166 -5.4451332 6.7945523
-0.52400643 -1.4214536 26.035919
-0.29750106 -0.91757041 8.9534903
-0.72976786 -2.7866449 11.128158
-1.0925783 -4.2529335 11.995125
-1.5542806 -6.1205282 13.120783
-1.5289662 -6.0606346 10.294119
-1.3892061 -5.5350986 7.6314259
-1.3037984 -5.2140284 5.904705
-1.2686381 -5.1458392 5.2880073
-1.1879902 -4.8295679 4.0926638
-1.121771 -4.5706501 3.1701949
-1.0378437 -4.2350545 2.3690126
-0.98085481 -4.0085316 1.7556502
-0.95076656 -3.8914218 1.2674173
-0.90809423 -3.7223835 0.81891584
-0.87800425 -3.6044745 0.42600265
-1.2187418 -4.913909 4.5903459
-1.158016 -4.6795187 3.5936878
-1.0727704 -4.3415236 2.713577
-1.0073619 -4.0859771 2.0328705
-0.95846009 -3.8934467 1.4846787
-0.92821658 -3.7762411 1.028607
-0.89415354 -3.6403847 0.61504275
-0.87696922 -3.5757782 0.24219368
-0.1600346 -0.18625551 26.738255
-0.52068192 -1.8931439 12.481929
-0.61148685 -2.2801085 11.372873
-0.90497965 -3.4676425 11.504084
-1.3214132 -5.1360097 12.553304
-1.5982811 -6.2662172 11.918448
-1.4450923 -5.6987891 8.7073355
-1.3468376 -5.3347096 6.6640773
-0.52947062 -1.4209681 26.060879
-0.30070215 -0.91652638 8.9534903
-0.73755383 -2.7767916 11.099121
-1.1069819 -4.2474241 11.990433
-1.5750928 -6.1129584 13.116282
-1.5171243 -5.9264073 10.076556
-1.3765368 -5.4046545 7.4598546
-1.2903017 -5.0845776 5.7650485
-1.251096 -4.9995375 5.144321
-1.1784387 -4.7196536 4.004787
-1.1094143 -4.4530997 3.0934339
-1.0237463 -4.1153393 2.3064051
-0.97248906 -3.9150991 1.7181895
-0.94471228 -3.8089275 1.2434467
-0.91045415 -3.6762772 0.81052226
-0.88340795 -3.5723815 0.42332017
-1.2121881 -4.8154836 4.5038829
-1.1448028 -4.5578413 3.505393
-1.0585544 -4.2206759 2.6426477
-1.0028876 -4.0075889 1.9972036
-0.95830733 -3.8351016 1.4649566
-0.92491841 -3.7069535 1.0121946
-0.88648915 -3.5555568 0.60330123
-0.87496239 -3.5145197 0.23977531
-0.16089018 -0.18592091 26.773254
-0.52624297 -1.8875728 12.457232
-0.61890757 -2.275995 11.363083
-0.9170785 -3.4644628 11.504084
-1.3388397 -5.1294756 12.5487
-1.5805404 -6.1075721 11.62877
-1.4362249 -5.581975 8.5378847
-1.3384044 -5.2244067 6.5336018
-0.53514177 -1.4210016 26.095819
-0.30406815 -0.91597694 8.9584618
-0.74560708 -2.7681317 11.074924
-1.1213603 -4.2418656 11.98574
-1.5964215 -6.1074228 13.116282
-1.5037087 -5.789813 9.8547268
-1.3757915 -5.3239641 7.3561139
-1.2801445 -4.9717016 5.6437683
-1.2360598 -4.8672485 5.0146532
-1.1595293 -4.5759087 3.8886642
-1.0972761 -4.3397465 3.0194144
-1.0175012 -4.0301347 2.2623477
-0.96235001 -3.8172805 1.6788559
-0.94043612 -3.7358279 1.2222962
-0.91250348 -3.6302004 0.80212867
-0.88132429 -3.5113146 0.41795522
-1.2021902 -4.7063127 4.4074435
-1.1327512 -4.4441481 3.4229844
-1.0562681 -4.1501136 2.6021171
-0.99676156 -3.9248841 1.9594386
-0.9577592 -3.7768059 1.4452345
-0.92114812 -3.6377356 0.99578214
-0.89282101 -3.5284367 0.59984779
-0.87376273 -3.4581633 0.23755848
-0.16162696 -0.18545435 26.788254
-0.53113711 -1.8797429 12.417718
-0.62630707 -2.2718577 11.353292
-0.92877907 -3.4597988 11.499311
-1.3562368 -5.1228824 12.544098
-1.5708344 -5.9838767 11.404926
-1.4244275 -5.4571242 8.3560343
-1.3251866 -5.0987196 6.3839393
-0.54102564 -1.4215522 26.140745
-0.30743393 -0.91541505 8.9634333
-0.75460267 -2.7630875 11.065246
-1.1361604 -4.2379255 11.98574
-1.6115932 -6.0786662 13.066769
-1.4933453 -5.6685185 9.6584949
-1.3714435 -5.2316866 7.2364135
-1.2649311 -4.8425593 5.5041122
-1.2423633 -4.8214636 4.9725986
-1.1628942 -4.5228267 3.8478642
-1.0843602 -4.2265329 2.9453948
-1.015072 -3.9621906 2.227566
-0.96417904 -3.768985 1.6601255
-0.93684864 -3.6674531 1.2025558
-0.91424233 -3.5841546 0.79373515
-0.88005441 -3.4551318 0.41303736
-1.1961288 -4.6153431 4.3276315
-1.1229562 -4.3423352 3.3494053
-1.0513463 -4.0712714 2.5565197
-0.99007058 -3.842272 1.9216738
-0.95446235 -3.7094147 1.4222254
-0.91811568 -3.573298 0.980542
-0.8903538 -3.467741 0.59155965
-0.8721804 -3.4018588 0.23534164
-0.16239217 -0.18501687 26.808252
-0.53833759 -1.8801184 12.432536
-0.63341099 -2.266716 11.338607
-0.94085032 -3.4565356 11.499311
-1.3736039 -5.11623 12.539495
-1.5565872 -5.8464389 11.154749
-1.4132172 -5.3378673 8.1824503
-1.3200964 -5.0072813 6.2764893
-0.54515302 -1.4175001 26.100811
-0.31062743 -0.91433632 8.9634333
-0.76323646 -2.7568021 11.050727
-1.1504939 -4.2322683 11.981048
-1.6305407 -6.0645947 13.048763
-1.48148 -5.5448484 9.4579954
-1.371114 -5.1569777 7.1406531
-1.2670661 -4.7824039 5.4416342
-1.2303232 -4.706687 4.8604527
-1.1550961 -4.428349 3.772541
-1.0664545 -4.0972776 2.8604095
-1.0099519 -3.8857381 2.1881464
-0.96451813 -3.7162366 1.6395222
-0.92918497 -3.5852189 1.1785853
-0.91074789 -3.519119 0.78161103
-0.87840331 -3.3990018 0.4081195
-1.1828018 -4.499197 4.2245412
-1.111439 -4.2367368 3.2728834
-1.0284084 -3.9257944 2.4703918
-0.97937167 -3.746582 1.8776146
-0.94951415 -3.6375244 1.3975728
-0.91341871 -3.5042229 0.96412951
-0.88997042 -3.4166903 0.58465284
-0.87147343 -3.3504429 0.23332633
-0.1631861 -0.18460816 26.833252
-0.5418641 -1.8677812 12.363387
-0.64076424 -2.2625318 11.328816
-0.95251298 -3.4517913 11.494539
-1.3904282 -5.1076341 12.53029
-1.5438973 -5.7184238 10.922129
-1.4055703 -5.2350626 8.0336647
-1.3085886 -4.8942671 6.1421766
-0.54957336 -1.4142437 26.075853
-0.31416479 -0.91425419 8.9733753
-0.77319461 -2.7553313 11.055566
-1.1652602 -4.2282267 11.981048
-1.6322318 -5.9874563 12.895722
-1.4701346 -5.4263663 9.2660284
-1.3600818 -5.0445142 6.9930215
-1.2599996 -4.6895537 5.3424048
-1.2238953 -4.6161852 4.7728391
-1.1496395 -4.3452706 3.7066333
-1.0711435 -4.0571442 2.8357363
-1.0043111 -3.809371 2.1487267
-0.96450078 -3.6635325 1.6189187
-0.93071645 -3.5401988 1.1658949
-0.90681076 -3.4541521 0.76948696
-0.87510824 -3.3381085 0.40275452
-1.1840702 -4.4409246 4.1746588
-1.0981592 -4.1273665 3.193418
-1.0332497 -3.8888507 2.4501264
-0.97499603 -3.6773365 1.8461437
-0.94528466 -3.5702796 1.3745636
-0.90949333 -3.439924 0.94888943
-0.88671172 -3.3561099 0.5763647
-0.87041825 -3.2990742 0.23131102
-0.16379958 -0.18400565 26.828251
-0.54684579 -1.8606602 12.328812
-0.64753413 -2.2563667 11.309236
-0.96455616 -3.4484453 11.494539
-1.407209 -5.0989828 12.521086
-1.5385537 -5.6205993 10.746565
-1.3950056 -5.1242313 7.8724794
-1.3005021 -4.7968626 6.0270519
-0.55450666 -1.4123168 26.075853
-0.31717864 -0.91264874 8.9684048
-0.78280777 -2.7526157 11.055566
-1.179548 -4.2224717 11.976355
-1.6200658 -5.8621206 12.639153
-1.458671 -5.3105474 9.0783272
-1.3482816 -4.9321918 6.8453913
-1.254974 -4.6066241 5.2542009
-1.2122207 -4.5085669 4.6677027
-1.1395824 -4.2472482 3.6281719
-1.0517716 -3.9281669 2.7507505
-0.99814934 -3.7330914 2.1093071
-0.9641276 -3.6108747 1.5983154
-0.92823756 -3.4813068 1.1489745
-0.9036954 -3.3940034 0.75829554
-0.87651765 -3.2965314 0.39917791
-1.1820228 -4.3718863 4.1148
-1.0851828 -4.0220447 3.1168957
-1.0266305 -3.810298 2.4045291
-0.97839844 -3.6388478 1.8293593
-0.93202543 -3.4711852 1.3400499
-0.90009505 -3.3569169 0.92896003
-0.88304102 -3.2955942 0.56807649
-0.8690154 -3.2477543 0.22929572
-0.16441084 -0.18340112 26.823252
-0.55067515 -1.8498042 12.269541
-0.65426874 -2.2501819 11.289654
-0.97658765 -3.4450574 11.494539
-1.4244729 -5.0921583 12.516483
-1.526142 -5.4998064 10.527111
-1.3784436 -4.9945512 7.6823635
-1.2926012 -4.7026663 5.9157643
-0.55943316 -1.4103725 26.075853
-0.32018515 -0.91103333 8.9634333
-0.79241139 -2.7498665 11.055566
-1.1938099 -4.2166681 11.971662
-1.6052835 -5.7306557 12.36908
-1.4450181 -5.1898513 8.8820944
-1.3381286 -4.8287263 6.7097301
-1.2466774 -4.5139847 5.1549716
-1.2054384 -4.4217319 4.5835934
-1.1298772 -4.1531053 3.5528491
-1.0523297 -3.8760476 2.7178531
-0.98799002 -3.6440754 2.0629311
-0.95734078 -3.5358906 1.5683469
-0.92661107 -3.4271071 1.1334642
-0.89504933 -3.3149495 0.74337363
-0.87505472 -3.2453692 0.39470711
-1.1716111 -4.2741098 4.0283365
-1.081084 -3.9519534 3.0668619
-1.0217478 -3.7401567 2.3639984
-0.97676927 -3.5828662 1.8041826
-0.93669355 -3.4405727 1.3301889
-0.89905524 -3.3068511 0.91723686
-0.87766051 -3.2303669 0.55909771
-0.86857301 -3.2013063 0.22748193
-0.16505003 -0.1828261 26.823252
-0.55600667 -1.8441514 12.244845
-0.66096801 -2.2439773 11.270074
-0.98860723 -3.4416277 11.494539
-1.4411734 -5.083396 12.507277
-1.5161488 -5.390697 10.329602
-1.3746409 -4.9138303 7.5666413
-1.2840589 -4.6085849 5.8044767
-0.56402993 -1.4076078 26.060879
-0.32318422 -0.90940809 8.9584618
-0.80200541 -2.7470837 11.055566
-1.2080455 -4.2108164 11.966969
-1.5943601 -5.6161203 12.135017
-1.4347905 -5.0843759 8.7114563
-1.3215656 -4.7050858 6.5461392
-1.2386637 -4.4247251 5.0594172
-1.181914 -4.2765646 4.4399071
-1.1184939 -4.0553312 3.4743876
-1.0447688 -3.7957523 2.6657653
-0.98544055 -3.5850768 2.0327866
-0.94636083 -3.447587 1.5327592
-0.92334932 -3.3683352 1.1165438
-0.89753598 -3.2786396 0.73684525
-0.87587196 -3.2038658 0.39113048
-1.1605313 -4.1764603 3.9418736
-1.074349 -3.8741508 3.010942
-1.014087 -3.6617875 2.3184011
-0.97597033 -3.5313153 1.7811042
-0.9348774 -3.3872104 1.3121102
-0.90413481 -3.2802632 0.91137528
-0.88367099 -3.2081866 0.55633497
-0.86781722 -3.1549017 0.22566816
-0.1656872 -0.18224886 26.823252
-0.56221354 -1.8414563 12.239905
-0.66792327 -2.2387297 11.255387
-1.0006146 -3.4381559 11.494539
-1.4583696 -5.076457 12.502675
-1.5008168 -5.2656026 10.10137
-1.3741298 -4.846734 7.4715838
-1.2740049 -4.5115371 5.6893516
-0.56893992 -1.4056304 26.060879
-0.32617584 -0.90777296 8.9534903
-0.81158966 -2.7442672 11.055566
-1.2222549 -4.204917 11.962276
-1.5808512 -5.4954562 11.88745
-1.4245619 -4.981544 8.5450859
-1.3256063 -4.6569724 6.486289
-1.2272661 -4.3257928 4.9528375
-1.1872146 -4.2380729 4.4048619
-1.1085382 -3.9651852 3.4022033
-1.0400319 -3.7276409 2.621902
-0.98249137 -3.5261409 2.0026422
-0.94720417 -3.4040666 1.5159019
-0.9184044 -3.3050065 1.0982133
-0.88664436 -3.1950192 0.72099072
-0.87508017 -3.1575971 0.38710678
-1.1497968 -4.0825353 3.858736
-1.0638028 -3.7847707 2.9461925
-1.007057 -3.5876689 2.275337
-0.97237486 -3.4710732 1.7538295
-0.93524486 -3.3429985 1.2973186
-0.90511614 -3.2396367 0.90199673
-0.88287896 -3.1621559 0.55011886
-0.86674821 -3.1085422 0.22385438
-0.16626163 -0.18160674 26.813251
-0.5677194 -1.8365133 12.220148
-0.67455536 -2.232486 11.235807
-1.0121878 -3.4332104 11.489767
-1.4749886 -5.0675831 12.49347
-1.4939345 -5.1728959 9.9345856
-1.3653965 -4.752656 7.3351965
-1.2659348 -4.4238605 5.5857387
-0.57329524 -1.4023001 26.035919
-0.32934257 -0.90662885 8.9534903
-0.82116395 -2.7414176 11.055566
-1.2364379 -4.1989694 11.957582
-1.5726117 -5.3958559 11.684896
-1.4143591 -4.8813519 8.3829803
-1.3142954 -4.5567741 6.3546181
-1.2217505 -4.2498031 4.871984
-1.1815468 -4.161859 4.3312664
-1.0937226 -3.8601797 3.3174648
-1.0325567 -3.651562 2.5725553
-0.98034698 -3.4715331 1.9748167
-0.93768841 -3.3248875 1.4840603
-0.91562986 -3.250989 1.082703
-0.89513147 -3.1824472 0.71912551
-0.875323 -3.1161678 0.38353014
-1.1353467 -3.9779661 3.7656221
-1.049324 -3.68385 2.8726134
-0.99480373 -3.4970596 2.2221403
-0.96837103 -3.4109004 1.7265548
-0.93273902 -3.2897396 1.2792401
-0.90582496 -3.1990433 0.89261818
-0.88447309 -3.1256998 0.54528409
-0.86536616 -3.0622287 0.22204059
-0.16677262 -0.18090038 26.793251
-0.57435882 -1.8352619 12.225087
-0.68144983 -2.2271967 11.221122
-1.0241657 -3.429656 11.489767
-1.4921163 -5.0605307 12.488868
-1.4776797 -5.0504208 9.710743
-1.3615289 -4.6776118 7.2277398
-1.2599463 -4.3455319 5.4936385
-0.57929152 -1.4029577 26.085836
-0.33250529 -0.90547371 8.9534903
-0.83072835 -2.7385347 11.055566
-1.2505943 -4.1929741 11.95289
-1.5643129 -5.2984686 11.486842
-1.4020052 -4.7762876 8.2123423
-1.3056822 -4.4682822 6.2389073
-1.2138233 -4.1673946 4.7837796
-1.1773334 -4.0925918 4.2646799
-1.0878555 -3.7889979 3.2609727
-1.0234114 -3.5715618 2.5204673
-0.97661471 -3.412725 1.9446723
-0.94419295 -3.3037643 1.4765682
-0.90195674 -3.1601291 1.0559124
-0.89546221 -3.1415107 0.71166456
-0.87392378 -3.0699861 0.37950641
-1.130554 -3.9094167 3.7057631
-1.0476048 -3.6296794 2.8343523
-0.99506474 -3.4521449 2.1968086
-0.96395898 -3.3507984 1.69928
-0.93117684 -3.2410784 1.262805
-0.90492088 -3.1538131 0.88206732
-0.88309371 -3.0797515 0.53906798
-0.86367154 -3.0159633 0.22022682
-0.16728072 -0.18019266 26.773254
-0.57817858 -1.8250984 12.170755
-0.68831581 -2.2218869 11.206435
-1.0352669 -3.4232025 11.480223
-1.5092127 -5.0534191 12.484265
-1.4721591 -4.9671597 9.5615139
-1.3555626 -4.5972557 7.1120167
-1.2471031 -4.2457733 5.3746758
-0.58496505 -1.4027913 26.120777
-0.33566394 -0.90430748 8.9534903
-0.83991337 -2.7344167 11.050727
-1.2647238 -4.1869316 11.948198
-1.554106 -5.1970353 11.279787
-1.391909 -4.6813703 8.0587692
-1.3015994 -4.3972435 6.1471372
-1.2072549 -4.0915985 4.7029262
-1.1716532 -4.0199809 4.1945891
-1.0771559 -3.7029548 3.1919267
-1.0160522 -3.4997022 2.4738624
-0.97371757 -3.3582404 1.9168466
-0.94282454 -3.2559187 1.4578379
-0.90765125 -3.1385283 1.0502722
-0.89824432 -3.1100497 0.70606881
-0.87359333 -3.0286376 0.3759298
-1.1221471 -3.8302002 3.6359277
-1.0432516 -3.5678077 2.790205
-0.99260736 -3.3989944 2.1664102
-0.95913953 -3.2907696 1.6720055
-0.92928648 -3.1924684 1.2463698
-0.90371221 -3.1086285 0.87151647
-0.87864125 -3.0243402 0.53147048
-0.86166471 -2.9697478 0.21841304
-0.16772451 -0.1794216 26.743254
-0.58335888 -1.8193699 12.14606
-0.69515306 -2.2165563 11.191751
-1.0467726 -3.4181409 11.475451
-1.5262774 -5.0462499 12.479663
-1.463321 -4.8748236 9.3947287
-1.3506626 -4.5223913 7.00456
-1.2445483 -4.1830235 5.3017635
-0.58985817 -1.4007409 26.120777
-0.33881852 -0.90313029 8.9534903
-0.84907979 -2.730268 11.045887
-1.2788262 -4.180841 11.943505
-1.5400555 -5.0853214 11.050225
-1.3962085 -4.6365275 7.9905143
-1.2961713 -4.323401 6.0513759
-1.1992015 -4.012651 4.6183972
-1.1624511 -3.9372005 4.1139841
-1.0724708 -3.6394353 3.1417115
-0.99758524 -3.3918352 2.4025846
-0.96920365 -3.2995682 1.8867023
-0.94243884 -3.2125719 1.4409807
-0.90781099 -3.0985126 1.0389919
-0.89667904 -3.0644641 0.69767523
-0.87298489 -2.9873295 0.37235317
-1.1100144 -3.7403531 3.5561156
-1.0384793 -3.5060112 2.7460577
-0.98979139 -3.3459044 2.1360121
-0.95134252 -3.2221103 1.6405346
-0.92706829 -3.1439116 1.2299348
-0.90082622 -3.0588288 0.85979331
-0.87660921 -2.9784994 0.52525437
-0.85793686 -2.9187901 0.21639773
-0.16853461 -0.17902045 26.773254
-0.58802629 -1.8121494 12.111485
-0.70196128 -2.2112048 11.177064
-1.0582556 -3.4130404 11.470679
-1.5427386 -5.0371556 12.470458
-1.4531599 -4.7803202 9.2235546
-1.3452569 -4.447618 6.8971033
-1.2387965 -4.1111374 5.2173381
-0.59406447 -1.3970799 26.090828
-0.34196898 -0.90194213 8.9534903
-0.85822743 -2.7260883 11.041048
-1.2929018 -4.1747031 11.938812
-1.5329037 -4.998745 10.874677
-1.3895613 -4.556787 7.862536
-1.2911196 -4.2525353 5.9596057
-1.1906122 -3.9338109 4.5338688
-1.1526855 -3.8545341 4.03338
-1.0662425 -3.5722647 3.0883577
-1.007031 -3.3803174 2.3971014
-0.96429223 -3.2409689 1.856558
-0.94044155 -3.164824 1.4222503
-0.90906727 -3.0631332 1.0291218
-0.89201486 -3.0095086 0.68741637
-0.87209886 -2.9460628 0.36877653
-1.100493 -3.6613655 3.4862802
-1.0309657 -3.4365489 2.6960239
-0.9853797 -3.2887468 2.1030807
-0.94697917 -3.1665909 1.6153581
-0.92587388 -3.0999341 1.2151432
-0.89899313 -3.0137455 0.84924245
-0.86719435 -2.9089818 0.51558483
-0.85386407 -2.8678956 0.21438242
-0.16956034 -0.17883137 26.838251
-0.59289294 -1.8056567 12.081849
-0.70874071 -2.2058327 11.162378
-1.0692686 -3.4064772 11.461136
-1.5614694 -5.0354714 12.479663
-1.4430618 -4.6882372 9.0567694
-1.3393458 -4.3729386 6.7896466
-1.2334936 -4.0424094 5.1367507
-0.59882337 -1.3947327 26.085836
-0.34511527 -0.90074289 8.9534903
-0.86735624 -2.7218783 11.036208
-1.3074664 -4.1701646 11.938812
-1.5238756 -4.908124 10.690127
-1.3839139 -4.4821348 7.7430902
-1.2864743 -4.184638 5.8718252
-1.1814871 -3.8550801 4.4493399
-1.1413237 -3.7685716 3.949271
-1.0595583 -3.5051825 3.0350039
-0.98862767 -3.2767024 2.3285649
-0.95642751 -3.1739621 1.8217759
-0.93812257 -3.1171298 1.40352
-0.90870696 -3.0231893 1.0178415
-0.88132852 -2.9358044 0.6734271
-0.86950523 -2.900069 0.3647528
-1.0969576 -3.6039224 3.4363978
-1.0229799 -3.3671825 2.6459901
-0.97932953 -3.2275362 2.0676165
-0.93434662 -3.0850799 1.5775931
-0.92301685 -3.0514846 1.1987081
-0.89685637 -2.9687128 0.83869159
-0.87018669 -2.8822336 0.51213139
-0.85088885 -2.8218486 0.21256864
-0.16974926 -0.17780881 26.768253
-0.59772146 -1.7991523 12.052214
-0.71549129 -2.2004406 11.147693
-1.0807009 -3.4013016 11.456364
-1.5725998 -5.0094867 12.429035
-1.4316261 -4.593996 8.8855953
-1.3329302 -4.2983556 6.6821904
-1.2267802 -3.9707065 5.0523257
-0.60345799 -1.3921044 26.075853
-0.34845039 -0.90002972 8.9584618
-0.87646627 -2.717638 11.031369
-1.3214929 -4.1639304 11.934119
-1.5135809 -4.8155508 10.501077
-1.3777623 -4.4075785 7.6236439
-1.2724156 -4.0880551 5.7441444
-1.172832 -3.7797 4.3684864
-1.1283303 -3.6793268 3.8616571
-1.0524191 -3.4381912 2.9816501
-0.98906296 -3.237241 2.3038917
-0.95198566 -3.119761 1.7939503
-0.93413061 -3.0650558 1.3829166
-0.90807909 -2.9832854 1.0065612
-0.88585579 -2.9139109 0.66969663
-0.86804825 -2.8588951 0.36117619
-1.0908352 -3.539413 3.3798642
-1.0133339 -3.2940512 2.5930133
-0.97286415 -3.1664083 2.0321517
-0.93978703 -3.0644436 1.5692009
-0.919833 -3.003093 1.182273
-0.89441627 -2.9237318 0.82814074
-0.87155521 -2.8507645 0.50798732
-0.85635674 -2.8045268 0.21196406
-0.60201639 -1.7911631 12.012699
-0.72221285 -2.1950283 11.133007
-1.09211 -3.3960872 11.451591
-1.5906683 -5.0058289 12.433638
-1.4260359 -4.5204511 8.7539234
-1.3276962 -4.2292414 6.5829997
-1.2195812 -3.8991001 4.9679003
-0.60866177 -1.3907825 26.090828
-0.35158995 -0.89880788 8.9584618
-0.88555717 -2.7133672 11.02653
-1.3354919 -4.157649 11.929426
-1.503979 -4.7272596 10.321028
-1.3718941 -4.3356071 7.5084634
-1.2604156 -4.0002441 5.6284337
-1.158585 -3.6882565 4.2692571
-1.124246 -3.6208723 3.8055847
-1.0459777 -3.3750114 2.9314349
-0.99047083 -3.2018118 2.28196
-0.95502371 -3.0910249 1.7800375
-0.93115389 -3.0174789 1.3641863
-0.90577078 -2.9388394 0.99387085
-0.88590521 -2.8779368 0.66316831
-0.86631447 -2.8177671 0.35759956
-1.0842761 -3.4749908 3.3233306
-1.0079982 -3.2364657 2.5518088
-0.96598428 -3.105366 1.9966873
-0.93971127 -3.0264692 1.5524164
-0.91772133 -2.9592714 1.1674814
-0.89311159 -2.8834481 0.81876218
-0.8727147 -2.8193212 0.50384325
-0.85728705 -2.7728822 0.21075487
-0.6065132 -1.7839017 11.978125
-0.72922707 -2.190562 11.123217
-1.1039579 -3.3922544 11.451591
-1.594972 -4.9593301 12.332382
-1.4155785 -4.4333119 8.5959158
-1.321144 -4.1575346 6.4796758
-1.2109302 -3.824538 4.8796377
-0.61316192 -1.3878576 26.075853
-0.35472524 -0.89757514 8.9584618
-0.89502317 -2.7102594 11.02653
-1.3494631 -4.1513209 11.924733
-1.4937794 -4.6390953 10.14098
-1.3671316 -4.2686982 7.4018149
-1.2478179 -3.9125674 5.512723
-1.1529602 -3.6260359 4.2031035
-1.1165594 -3.5522854 3.7389979
-1.037943 -3.3082051 2.8780811
-0.98914391 -3.1584318 2.2545452
-0.95522767 -3.0538499 1.7614871
-0.92785656 -2.9699602 1.3454559
-0.90459234 -2.8990252 0.98259062
-0.8871761 -2.846688 0.65757257
-0.86430436 -2.7766864 0.35402292
-1.076156 -3.4070981 3.2634716
-1.0083505 -3.1982334 2.5253208
-0.96516448 -3.0649695 1.9738886
-0.94074303 -2.9928629 1.5377301
-0.91390073 -2.9109964 1.1510463
-0.89153659 -2.8432095 0.80938363
-0.87218457 -2.783179 0.49900851
-0.85949945 -2.7460339 0.20974721
-0.17163327 -0.17605186 26.773254
-0.60944957 -1.7722225 11.913915
-0.73654395 -2.1870382 11.118321
-1.1153253 -3.3869624 11.446819
-1.5953423 -4.9017158 12.203511
-1.4052672 -4.3485813 8.4422989
-1.3166925 -4.0939622 6.388751
-1.2017738 -3.7500844 4.7913752
-0.61871004 -1.38729 26.105803
-0.35785618 -0.89633143 8.9584618
-0.90407991 -2.7059267 11.02169
-1.3628671 -4.1433067 11.915348
-1.4843322 -4.5552001 9.9699326
-1.3611149 -4.1993957 7.2909007
-1.2355497 -3.8278964 5.4010019
-1.1458769 -3.5606737 4.133276
-1.109489 -3.4871955 3.675916
-1.0294547 -3.2414968 2.8247273
-0.98879009 -3.1190865 2.2298722
-0.95518392 -3.0167117 1.7429367
-0.92284101 -2.9180818 1.3248526
-0.90314704 -2.8592558 0.97131038
-0.88676172 -2.8107815 0.65104419
-0.86351484 -2.7404041 0.35089338
-1.0687125 -3.3428614 3.206938
-1.0059901 -3.1523366 2.4929457
-0.9680022 -3.0369387 1.9586896
-0.94155174 -2.9592869 1.5230438
-0.90975457 -2.8627851 1.1346112
-0.89116216 -2.8076501 0.80117744
-0.87291032 -2.7517962 0.49486443
-0.86002594 -2.7144413 0.20853803
-0.17249833 -0.17569366 26.813251
-0.61537665 -1.7693504 11.908976
-0.74384528 -2.18349 11.113426
-1.1266693 -3.3816323 11.442047
-1.5879961 -4.8218937 12.01941
-1.3973594 -4.2730823 8.3062372
-1.3065875 -4.0144181 6.2730284
-1.1931013 -3.678791 4.7069502
-0.6236676 -1.3853849 26.110794
-0.36078283 -0.89458263 8.9534903
-0.9135198 -2.7027543 11.02169
-1.3767767 -4.1368871 11.910656
-1.4729542 -4.4672937 9.7898846
-1.3562568 -4.1351442 7.188518
-1.2329981 -3.7748668 5.3331718
-1.1383516 -3.4954059 4.063448
-1.100885 -3.4188044 3.6093299
-1.0181315 -3.1674778 2.7650967
-0.98561871 -3.0718198 2.1997159
-0.9535408 -2.9753931 1.7220676
-0.9203015 -2.8751059 1.3079953
-0.90143538 -2.8195322 0.96003014
-0.88610774 -2.7749131 0.64451593
-0.86248261 -2.7041619 0.34776384
-1.0608341 -3.2787192 3.1504045
-1.0033221 -3.1064963 2.4605711
-0.96800905 -3.0007205 1.9384242
-0.93935531 -2.9171021 1.5041612
-0.90528309 -2.8146384 1.1181762
-0.88906384 -2.7675006 0.79179889
-0.87039995 -2.7110124 0.48933899
-0.86034226 -2.6828785 0.20732884
-0.17304745 -0.17503017 26.803251
-0.62051725 -1.7642599 11.889218
-0.7511307 -2.1799176 11.108531
-1.1384666 -3.3776789 11.442047
-1.5733182 -4.7217946 11.784681
-1.3919519 -4.2067881 8.1877327
-1.2977041 -3.94034 6.1655717
-1.1829467 -3.6045599 4.6186876
-0.62981659 -1.3860891 26.165703
-0.36390331 -0.89331788 8.9534903
-0.92254186 -2.6983597 11.01685
-1.3906579 -4.1304202 11.905963
-1.4630479 -4.3857179 9.6233397
-1.3501455 -4.0685029 7.0818701
-1.2263089 -3.7104585 5.2493815
-1.1293235 -3.4270144 3.9899442
-1.0918173 -3.3505166 3.5427437
-1.0063043 -3.0935781 2.7054658
-0.9821294 -3.0246134 2.1695597
-0.95298761 -2.9383368 1.7035172
-0.9203307 -2.8410037 1.2948841
-0.89945751 -2.7798555 0.9487499
-0.88521415 -2.7390835 0.63798755
-0.86273777 -2.6726995 0.34508133
-1.052521 -3.2146735 3.0938711
-1.0003464 -3.0607131 2.4281962
-0.96911281 -2.9686375 1.920692
-0.93828213 -2.8792837 1.4873768
-0.90048659 -2.7665582 1.1017411
-0.88819903 -2.7320235 0.78359264
-0.86914593 -2.6749899 0.48450425
-0.85890687 -2.6465955 0.20591813
-0.17365736 -0.17442505 26.803251
-0.62589031 -1.7598871 11.874401
-0.75873548 -2.1772823 11.108531
-1.1497681 -3.3722715 11.437275
-1.5660747 -4.6459246 11.609785
-1.3754539 -4.1087885 8.0077791
-1.2829821 -3.8503563 6.0333176
-1.1783493 -3.5486963 4.5534501
-0.63465112 -1.3838822 26.165703
-0.36681595 -0.89154941 8.9485178
-0.93195528 -2.695123 11.01685
-1.404511 -4.1239071 11.90127
-1.4539824 -4.3083925 9.4657974
-1.344416 -4.0044279 6.9794874
-1.2201408 -3.6490009 5.1695805
-1.1209047 -3.3619459 3.9201162
-1.0822865 -3.2823348 3.4761569
-1.0097948 -3.0678637 2.6866353
-0.97832298 -2.9774697 2.1394038
-0.95080608 -2.8971121 1.6826479
-0.91868919 -2.802532 1.2798998
-0.8987065 -2.7447867 0.93887961
-0.88408136 -2.7032943 0.63145918
-0.8612377 -2.6365352 0.34195179
-1.0437739 -3.1507263 3.0373375
-0.9970634 -3.0149891 2.3958213
-0.96459591 -2.9202108 1.892827
-0.93695664 -2.8415093 1.4705924
-0.8997975 -2.7320023 1.0902365
-0.8870976 -2.6965861 0.77538645
-0.86765116 -2.6390095 0.47966948
-0.85722882 -2.6103554 0.20450741
-0.17394757 -0.17351863 26.753254
-0.63124043 -1.7554983 11.859583
-0.76633096 -2.1746206 11.108531
-1.1610459 -3.3668265 11.432504
-1.5551684 -4.5609193 11.411878
-1.3759593 -4.0631309 7.9287767
-1.2667489 -3.7578571 5.8969302
-1.1703143 -3.483794 4.4766998
-0.63777626 -1.3779926 26.095819
-0.36992583 -0.89026362 8.9485178
-0.94094229 -2.6906669 11.012012
-1.4183353 -4.1173482 11.896577
-1.4472086 -4.2394247 9.3262596
-1.3390945 -3.9429128 6.8813715
-1.2125934 -3.5847781 5.0857902
-1.1120453 -3.2969782 3.8502879
-1.0689074 -3.2041118 3.3990569
-1.0081985 -3.0273912 2.6552505
-0.97551858 -2.9343574 2.111989
-0.94834846 -2.8559389 1.6617787
-0.91824979 -2.7685065 1.2667886
-0.89621305 -2.7052035 0.92759937
-0.88270974 -2.6675472 0.62493086
-0.86105859 -2.6051426 0.33926931
-1.0345935 -3.0868802 2.980804
-0.99347371 -2.9693263 2.3634467
-0.96111941 -2.8759408 1.8674953
-0.93394262 -2.7994742 1.4517099
-0.90335685 -2.7109246 1.0836625
-0.88575959 -2.66119 0.7671802
-0.86591595 -2.6030722 0.47483471
-0.85688353 -2.5789008 0.20329823
-0.63630193 -1.7503633 11.839826
-0.77391714 -2.1719325 11.108531
-1.1722995 -3.3613439 11.427732
-1.5424138 -4.472353 11.204763
-1.3746103 -4.0129881 7.8409948
-1.2571522 -3.6868272 5.7936063
-1.1639037 -3.4250617 4.4076247
-0.64037806 -1.3710521 26.00597
-0.3730312 -0.88896686 8.9485178
-0.95032877 -2.687366 11.012012
-1.4321313 -4.1107426 11.891885
-1.4399714 -4.170558 9.1867218
-1.3325129 -3.8790178 6.7789888
-1.2036372 -3.5178025 4.9980097
-1.1027466 -3.2321146 3.7804599
-1.0686809 -3.1665714 3.3640118
-1.006332 -2.9869676 2.6238658
-0.97242522 -2.8913016 2.0845745
-0.94702601 -2.8190179 1.6432283
-0.91758436 -2.7345192 1.2536774
-0.89497894 -2.6702199 0.91772914
-0.8810994 -2.6318429 0.61840254
-0.85909152 -2.5690606 0.33613977
-1.0213835 -3.0125294 2.914294
-0.99087322 -2.9275539 2.3340151
-0.95044237 -2.8113127 1.8294976
-0.93354934 -2.7660956 1.4370235
-0.90376318 -2.6809065 1.0738014
-0.88418549 -2.6258366 0.75897402
-0.86394054 -2.5671799 0.46999997
-0.85473746 -2.5427451 0.2018875
-0.17509077 -0.17224064 26.743254
-0.64160347 -1.7459438 11.825008
-0.7814939 -2.1692176 11.108531
-1.1835291 -3.3558235 11.422959
-1.5342077 -4.3986893 11.03447
-1.370576 -3.9561162 7.740046
-1.24157 -3.5999491 5.6654849
-1.1550136 -3.3603549 4.3308749
-0.64651722 -1.3716795 26.060879
-0.37613195 -0.88765937 8.9485178
-0.95928031 -2.6828487 11.007172
-1.4464716 -4.1057186 11.891885
-1.4322716 -4.1017942 9.047184
-1.3280697 -3.8226082 6.6894045
-1.1932429 -3.4480858 4.906239
-1.0952207 -3.1737659 3.7179821
-1.0612922 -3.1088219 3.3079391
-1.0016848 -2.9392264 2.5862045
-0.97039038 -2.8522627 2.0599012
-0.9454574 -2.7821412 1.6246779
-0.91520256 -2.6961803 1.238693
-0.89351177 -2.6352787 0.90785891
-0.87925053 -2.5961823 0.61187416
-0.85847908 -2.5377419 0.33345729
-1.0246253 -2.9877548 2.8943412
-0.9879936 -2.8858364 2.3045835
-0.95606512 -2.7957413 1.821898
-0.93146825 -2.7284591 1.4202391
-0.90397096 -2.650919 1.0639404
-0.8839426 -2.5951278 0.75194007
-0.86332119 -2.5360215 0.4658559
-0.85395795 -2.5113664 0.20067832
-0.17569095 -0.17162842 26.743254
-0.64688188 -1.7415085 11.81019
-0.78906107 -2.1664765 11.108531
-1.1947345 -3.350266 11.418188
-1.5255069 -4.325139 10.864177
-1.3669536 -3.9015822 7.6434855
-1.2392992 -3.553081 5.5993576
-1.1467386 -3.29878 4.2579622
-0.65018272 -1.3670692 26.015953
-0.37901792 -0.88585109 8.9435463
-0.96821189 -2.678302 11.002333
-1.4602152 -4.0990186 11.887192
-1.4226595 -4.0290298 8.8986444
-1.3197907 -3.7564349 6.582756
-1.1833724 -3.38133 4.818459
-1.0895355 -3.1219118 3.6628549
-1.0558414 -3.057905 3.2588751
-0.99164253 -2.8768349 2.5359893
-0.96945548 -2.8172271 2.0379694
-0.94364309 -2.7453103 1.6061275
-0.91256464 -2.657892 1.2237087
-0.89181149 -2.6003804 0.89798868
-0.87716383 -2.5605674 0.60534585
-0.85765862 -2.5064595 0.33077481
-1.0191414 -2.9383016 2.8511097
-0.98615736 -2.8479943 2.278095
-0.95454508 -2.7597952 1.8016325
-0.93061733 -2.6951616 1.4055529
-0.90398055 -2.6209626 1.0540793
-0.88349634 -2.5644534 0.74490619
-0.86410707 -2.5095811 0.46240246
-0.85296977 -2.4800241 0.19946913
-0.17673942 -0.1714267 26.813251
-0.65213716 -1.7370578 11.795372
-0.79626673 -2.1627533 11.103636
-1.2064219 -3.3460751 11.418188
-1.5189365 -4.2590642 10.712294
-1.3629675 -3.8471224 7.5469265
-1.2301641 -3.4876971 5.5043001
-1.1380482 -3.2373047 4.1850495
-0.65695387 -1.3689535 26.095819
-0.38210782 -0.88452268 8.9435463
-0.97755498 -2.674906 11.002333
-1.4739298 -4.0922732 11.882499
-1.4176815 -3.9707351 8.7816124
-1.3075737 -3.6805372 6.459044
-1.1680237 -3.3004823 4.7107282
-1.0823733 -3.0669391 3.6040523
-1.0476971 -3.0003312 3.2028024
-0.9939906 -2.8513038 2.5171585
-0.96828794 -2.7822332 2.0160377
-0.94303787 -2.7127104 1.589896
-0.90967059 -2.6196551 1.2087245
-0.8914507 -2.5700586 0.88952851
-0.87644744 -2.5296409 0.59975016
-0.85663027 -2.4752138 0.32809234
-1.0170326 -2.899493 2.8178544
-0.98273331 -2.8063862 2.2486634
-0.95420915 -2.727963 1.7839004
-0.9295454 -2.6619031 1.3908664
-0.90223676 -2.5865803 1.0425748
-0.88124758 -2.5292239 0.7367
-0.86309046 -2.4784899 0.45825839
-0.85341471 -2.4534388 0.19846149
-0.17733674 -0.17080872 26.813251
-0.65736932 -1.7325916 11.780555
-0.80381131 -2.1599607 11.103636
-1.2175832 -3.340441 11.413416
-1.5099355 -4.1875749 10.546602
-1.3594259 -3.7949936 7.4547563
-1.2243689 -3.4330225 5.4257736
-1.1289426 -3.1759307 4.1121368
-0.66235888 -1.3679503 26.120777
-0.3849794 -0.88269514 8.9385748
-0.9868862 -2.6714773 11.002333
-1.487615 -4.0854816 11.877806
-1.4115748 -3.9104772 8.66008
-1.2939614 -3.6023166 6.3310657
-1.1754764 -3.2850368 4.694768
-1.0759803 -3.0152483 3.5489244
-1.0367887 -2.9361265 3.1397207
-0.9935841 -2.8184495 2.4920509
-0.96688813 -2.7472823 1.9941061
-0.94221669 -2.6801486 1.5736643
-0.9065209 -2.5814717 1.1937402
-0.88930136 -2.5352445 0.87965822
-0.87552583 -2.4987504 0.59415436
-0.85539436 -2.4440062 0.32540986
-1.0121691 -2.853698 2.7779486
-0.97903103 -2.7648373 2.2192318
-0.95222527 -2.6921031 1.7636348
-0.9282527 -2.6286855 1.3761801
-0.90183508 -2.5566959 1.0327138
-0.88199419 -2.5032105 0.73083836
-0.86186749 -2.4474368 0.45411432
-0.85202664 -2.4221673 0.19725229
-0.17751095 -0.16980845 26.748253
-0.66257823 -1.7281102 11.765737
-0.81134605 -2.1571419 11.103636
-1.229236 -3.3361704 11.413416
-1.4991159 -4.1125302 10.371707
-1.3547214 -3.7406843 7.3581958
-1.2057978 -3.3440187 5.2935195
-1.1183387 -3.1116443 4.035387
-0.66585982 -1.3630373 26.07086
-0.38805822 -0.88134593 8.9385748
-0.99620545 -2.6680162 11.002333
-1.501271 -4.0786448 11.873114
-1.4050654 -3.8503115 8.5385475
-1.2780389 -3.5193338 6.1945558
-1.1531061 -3.1874082 4.563097
-1.0692401 -2.9636405 3.4937973
-1.0326405 -2.8921864 3.097666
-0.99426752 -2.7892997 2.4700816
-0.96525621 -2.7123754 1.9721743
-0.94117987 -2.6476259 1.5574328
-0.90466714 -2.5477107 1.180629
-0.88852364 -2.5049984 0.87119806
-0.87275892 -2.4632676 0.58762604
-0.8556127 -2.4175322 0.32317448
-1.0069985 -2.8079724 2.7380426
-0.97505081 -2.7233489 2.1898003
-0.95000285 -2.656291 1.7433695
-0.92826575 -2.5997841 1.3635917
-0.89964932 -2.5223982 1.0212091
-0.87930751 -2.4680655 0.72263211
-0.86209947 -2.4210875 0.45066091
-0.85210526 -2.3956432 0.19624464
-0.17787524 -0.16898385 26.713255
-0.66748297 -1.7228891 11.74598
-0.81887102 -2.1542966 11.103636
-1.2403529 -3.3304603 11.408644
-1.4918444 -4.0486116 10.224426
-1.3488311 -3.6842062 7.257247
-1.2078247 -3.3133509 5.2521901
-1.1094894 -3.0534968 3.9663119
-0.67048573 -1.3604461 26.065868
-0.39091527 -0.87949914 8.9336033
-1.0050685 -2.6633463 10.997493
-1.514897 -4.0717621 11.868421
-1.3989065 -3.7922812 8.4215164
-1.2669461 -3.4511974 6.0836415
-1.1580149 -3.1663837 4.5391569
-1.0621526 -2.9121163 3.4386694
-1.0281984 -2.8483121 3.0556116
-0.99212027 -2.7528567 2.4418356
-0.9633925 -2.6775136 1.9502426
-0.93992746 -2.6151435 1.5412011
-0.90415555 -2.5183582 1.1693908
-0.88916516 -2.4793046 0.8641479
-0.87306845 -2.437084 0.58296293
-0.85565662 -2.3910868 0.32093906
-0.99897575 -2.7552981 2.6914856
-0.97079289 -2.6819222 2.1603687
-0.94900799 -2.6245816 1.7256372
-0.92654741 -2.5666461 1.3489054
-0.89723533 -2.488147 1.0097045
-0.87968099 -2.4421165 0.71677059
-0.86215806 -2.3947668 0.44720748
-0.85031843 -2.3644476 0.19503546
-0.17872468 -0.16859409 26.753254
-0.67207599 -1.716931 11.721283
-0.82675117 -2.1523755 11.108531
-1.2519708 -3.3261106 11.408644
-1.4841453 -3.9847946 10.077145
-1.3433946 -3.6300616 7.1606879
-1.202841 -3.2642272 5.1819296
-1.0991428 -2.9924405 3.8933992
-0.67445761 -1.3565471 26.035919
-0.39398289 -0.87812918 8.9336033
-1.0143592 -2.6598217 10.997493
-1.5272785 -4.0616035 11.854342
-1.3908386 -3.7302618 8.2954817
-1.2617451 -3.4002972 6.0025887
-1.1575665 -3.1312335 4.4952669
-1.0558916 -2.8638597 3.3872175
-1.0295761 -2.821255 3.0310798
-0.98973072 -2.7164626 2.4135895
-0.96129733 -2.6426985 1.9283109
-0.93694717 -2.5785394 1.5226507
-0.90345007 -2.4890404 1.1581527
-0.88800311 -2.4491272 0.85568774
-0.87153327 -2.4063096 0.57736725
-0.85722083 -2.3693538 0.31915075
-0.99959254 -2.7272544 2.6682072
-0.96903604 -2.6481504 2.1368234
-0.94632339 -2.5888627 1.7053717
-0.92616516 -2.5378153 1.3363171
-0.89621073 -2.4583809 0.99984348
-0.8782208 -2.4116278 0.7097367
-0.86034983 -2.3638222 0.44306341
-0.85003126 -2.3379886 0.1940278
-0.17931208 -0.16796918 26.753254
-0.67663562 -1.7109623 11.696588
-0.83425927 -2.1494765 11.108531
-1.2630427 -3.3203249 11.403872
-1.4780841 -3.9265668 9.9436722
-1.3359184 -3.5715139 7.0553493
-1.1985118 -3.2178166 5.1158028
-1.0917307 -2.9405086 3.8319993
-0.67996699 -1.3557321 26.065868
-0.39704573 -0.87674862 8.9336033
-1.0236375 -2.6562648 10.997493
-1.54206 -4.0578604 11.859035
-1.3861936 -3.6785316 8.1919537
-1.2552885 -3.3470337 5.9172702
-1.1442299 -3.0622537 4.4034963
-1.0493069 -2.8156824 3.3357651
-1.0270743 -2.7841854 2.9960341
-0.98709935 -2.6801195 2.3853433
-0.9589709 -2.6079307 1.906379
-0.93677771 -2.5503042 1.5087379
-0.90414798 -2.4641106 1.1487875
-0.8866412 -2.4189882 0.84722745
-0.87148279 -2.3801892 0.57270414
-0.85864383 -2.3476393 0.31736243
-0.99872863 -2.695739 2.641603
-0.9684577 -2.6182151 2.1162212
-0.94489527 -2.5572383 1.6876395
-0.92402208 -2.504761 1.3216307
-0.89498937 -2.4286525 0.98998243
-0.87655872 -2.3811793 0.70270276
-0.86004633 -2.3375673 0.43961003
-0.84957004 -2.3115611 0.19302015
-0.1801596 -0.16757257 26.793251
-0.68058485 -1.7035395 11.662012
-0.84212917 -2.1474993 11.113426
-1.2740895 -3.3145025 11.399099
-1.47094 -3.8666048 9.8055964
-1.3288971 -3.5153036 6.954401
-1.1918902 -3.166209 5.0414095
-1.0828434 -2.8856647 3.7667615
-0.68469524 -1.3533503 26.065868
-0.40010375 -0.87535733 8.9336033
-1.0324472 -2.6515043 10.992653
-1.5562152 -4.052453 11.859035
-1.3765558 -3.6146731 8.0614185
-1.2494 -3.2962966 5.8362174
-1.135749 -3.0075002 4.331676
-1.0423988 -2.7675865 3.2843127
-1.0255727 -2.7505097 2.9644933
-0.98422652 -2.6438282 2.3570971
-0.95641363 -2.5732117 1.8844473
-0.93488061 -2.5179491 1.4925063
-0.90468317 -2.4392068 1.1394223
-0.88674653 -2.3933873 0.84017736
-0.87126064 -2.3540981 0.56804103
-0.85819888 -2.3212731 0.31512704
-0.99765706 -2.6642632 2.6149991
-0.96909779 -2.5921023 2.0985622
-0.94476652 -2.5296948 1.6724405
-0.92324549 -2.4760053 1.3090423
-0.8935715 -2.3989627 0.98012137
-0.87469482 -2.3507721 0.69566888
-0.85956991 -2.3113437 0.43615663
-0.84893459 -2.2851651 0.19201249
-0.1808092 -0.16700003 26.803251
-0.68710899 -1.7025943 11.67189
-0.84962016 -2.1445465 11.113426
-1.2851111 -3.3086441 11.394328
-1.4633955 -3.8067405 9.6675205
-1.3206451 -3.4569492 6.8490624
-1.1859241 -3.1173177 4.9711494
-1.0735869 -2.8309193 3.701524
-0.69007272 -1.352237 26.090828
-0.40315688 -0.87395537 8.9336033
-1.0412363 -2.6467147 10.987815
-1.5622351 -4.026082 11.798029
-1.3727447 -3.5671811 7.9668932
-1.2431729 -3.2456412 5.7551646
-1.1226022 -2.9415834 4.2438951
-1.033962 -2.7164056 3.2291853
-1.0225908 -2.7135422 2.9294479
-0.98111242 -2.60759 2.328851
-0.95362592 -2.538543 1.8625156
-0.9327693 -2.4856389 1.4762747
-0.90505534 -2.4143295 1.1300571
-0.88500172 -2.3633232 0.83171713
-0.87086707 -2.328038 0.56337792
-0.85932356 -2.2996037 0.31333873
-0.99637794 -2.6328282 2.5883951
-0.96813875 -2.5622363 2.07796
-0.94445688 -2.5021832 1.6572415
-0.92067879 -2.4430389 1.294356
-0.89362109 -2.3737319 0.9719038
-0.8743403 -2.3249567 0.6898073
-0.85717863 -2.2805164 0.43201256
-0.84812546 -2.2588024 0.19100484
-0.18178686 -0.16671063 26.863249
-0.69304794 -1.7001854 11.67189
-0.85747933 -2.142513 11.118321
-1.2961072 -3.3027484 11.389556
-1.4561588 -3.7487984 9.5340471
-1.3111396 -3.3964615 6.7393355
-1.1786213 -3.0658803 4.8967566
-1.0639616 -2.7762744 3.6362863
-0.69531834 -1.3508461 26.110794
-0.40620509 -0.87254274 8.9336033
-1.0500044 -2.641896 10.982975
-1.5586408 -3.9756198 11.666632
-1.370986 -3.525847 7.8858714
-1.2356662 -3.1926386 5.6698461
-1.1165993 -2.8954754 4.1840448
-1.0288321 -2.6748104 3.1850834
-1.0180942 -2.6732962 2.890898
-0.97775751 -2.5714056 2.3006048
-0.95209199 -2.5078344 1.8433253
-0.93358564 -2.461658 1.4646807
-0.90362263 -2.3851442 1.118819
-0.88305789 -2.3333008 0.82325697
-0.87030232 -2.3020101 0.55871487
-0.85854799 -2.2732961 0.31110334
-0.9948917 -2.6014349 2.5617909
-0.96698332 -2.532409 2.057358
-0.94243044 -2.4706771 1.6395091
-0.91950881 -2.4143624 1.2817677
-0.89182639 -2.3441172 0.96204275
-0.87381643 -2.2991726 0.68394566
-0.8563413 -2.2543638 0.42855912
-0.8471427 -2.2324736 0.18999718
-0.18236768 -0.16607505 26.863249
-0.69897848 -1.6977558 11.67189
-0.8649528 -2.1395068 11.118321
-1.307628 -3.2982039 11.389556
-1.4478217 -3.6891348 9.3959713
-1.3003577 -3.3338518 6.6252198
-1.1709741 -3.0145326 4.8223634
-1.0516533 -2.7157543 3.563374
-0.70122916 -1.3507154 26.15572
-0.40924838 -0.87111956 8.9336033
-1.0587513 -2.637048 10.978135
-1.5604336 -3.9396718 11.577469
-1.3673633 -3.4805164 7.7958465
-1.2297046 -3.1445858 5.5930591
-1.1113826 -2.8522537 4.1281843
-1.0258809 -2.6396041 3.1483316
-1.0146102 -2.6364431 2.8558524
-0.97416216 -2.5352774 2.2723589
-0.95035559 -2.4771683 1.8241352
-0.93266076 -2.4335659 1.450768
-0.90531254 -2.3646579 1.1113268
-0.88091534 -2.3033206 0.81479669
-0.86956668 -2.2760143 0.5540517
-0.85759932 -2.2470222 0.30886793
-0.99185276 -2.566602 2.5318615
-0.96563137 -2.5026209 2.036756
-0.94174612 -2.4432385 1.62431
-0.91651976 -2.3814883 1.2670813
-0.89153069 -2.3189516 0.95382529
-0.87312335 -2.2734213 0.67808414
-0.85000807 -2.2143757 0.42303368
-0.84777528 -2.210844 0.18919106
-0.18294628 -0.16543746 26.863249
-0.705199 -1.6960231 11.676829
-0.87241584 -2.1364744 11.118321
-1.3185778 -3.2922337 11.384784
-1.4405266 -3.633208 9.2671013
-1.2891551 -3.2713594 6.5111036
-1.1629831 -2.9632759 4.7479701
-1.050615 -2.6852028 3.5288363
-0.70567131 -1.3477482 26.145735
-0.41228664 -0.86968571 8.9336033
-1.0674773 -2.6321716 10.973296
-1.5485308 -3.8701153 11.389758
-1.3650478 -3.439302 7.7148256
-1.2224644 -3.0941887 5.5120063
-1.104774 -2.8063002 4.0683341
-1.0226967 -2.6044514 3.1115801
-1.0108814 -2.599648 2.820807
-0.97032654 -2.4992058 2.2441127
-0.94841671 -2.4465449 1.8049449
-0.93315095 -2.409641 1.4391739
-0.90519786 -2.3398652 1.1019617
-0.88030386 -2.2778592 0.80774659
-0.86866027 -2.2500522 0.54938865
-0.85647792 -2.220783 0.30663255
-0.98994088 -2.5352998 2.5052576
-0.96408337 -2.4728737 2.0161538
-0.94088185 -2.4158349 1.609111
-0.91495758 -2.352895 1.254493
-0.89107001 -2.293817 0.94560772
-0.87226117 -2.2477028 0.6722225
-0.85415095 -2.2021613 0.42165235
-0.84646219 -2.1845787 0.18818341
-0.7096101 -1.6899695 11.652134
-0.87986821 -2.1334162 11.118321
-1.3295019 -3.2862272 11.380012
-1.4335852 -3.5791914 9.1428328
-1.2766463 -3.2067614 6.3925986
-1.1536114 -2.9094968 4.6694441
-1.0470196 -2.6487308 3.486624
-0.71010143 -1.3447665 26.135752
-0.41531992 -0.86824125 8.9336033
-1.0761824 -2.6272662 10.968456
-1.5413352 -3.8134894 11.23959
-1.3600304 -3.3920841 7.6202993
-1.2148876 -3.0438809 5.4309535
-1.0967447 -2.7576282 4.0044937
-1.0217801 -2.5756562 3.0821788
-1.0082124 -2.5662303 2.7892661
-0.96340823 -2.4559455 2.2095897
-0.94627583 -2.4159656 1.7857547
-0.93187147 -2.3816178 1.4252611
-0.90492105 -2.3151021 1.0925965
-0.87952524 -2.25243 0.80069637
-0.8693682 -2.2287004 0.54565811
-0.85699201 -2.1992192 0.30484423
-0.9864524 -2.5005696 2.475328
-0.9623397 -2.4431684 1.9955517
-0.93983793 -2.3884678 1.5939119
-0.91486675 -2.3285661 1.2440028
-0.89217025 -2.2731097 0.93903369
-0.87300444 -2.2265434 0.66753322
-0.85821891 -2.189945 0.42027098
-0.84679753 -2.1630023 0.18737729
-0.18389651 -0.16398765 26.833252
-0.71338058 -1.6824753 11.617559
-0.88770151 -2.1312718 11.123217
-1.3404002 -3.2801847 11.375239
-1.4262846 -3.5252681 9.0185642
-1.2637026 -3.1422915 6.2740936
-1.1438787 -2.8558199 4.5909185
-1.0431826 -2.6123166 3.444411
-0.71479124 -1.3422796 26.135752
-0.4183481 -0.86678618 8.9336033
-1.084866 -2.6223321 10.963617
-1.5331112 -3.7553637 11.084729
-1.3579693 -3.3530152 7.5437789
-1.2069747 -2.9936647 5.3499007
-1.088389 -2.7090468 3.9406533
-1.0194139 -2.5437522 3.0491023
-1.004007 -2.5295486 2.7542205
-0.96480465 -2.4344752 2.1938975
-0.9454717 -2.3893192 1.7693057
-0.93203652 -2.3577526 1.4136672
-0.9044826 -2.29037 1.0832313
-0.8803404 -2.2314966 0.79505628
-0.86813688 -2.2028017 0.54099506
-0.85554165 -2.1730454 0.30260882
-0.98411602 -2.4693635 2.448724
-0.96189493 -2.4172606 1.9778926
-0.93861443 -2.3611372 1.5787128
-0.9146173 -2.3042667 1.2335125
-0.89313698 -2.2524233 0.93245965
-0.87182069 -2.2008877 0.66167164
-0.86221206 -2.1777272 0.41888961
-0.84699273 -2.1414504 0.18657117
-0.18466868 -0.16351262 26.863249
-0.71648145 -1.6727076 11.568167
-0.8955071 -2.1280038 11.123217
-1.3518438 -3.2738702 11.370467
-1.4199704 -3.4730005 8.8988991
-1.2625855 -3.1065767 6.212646
-1.1342747 -2.8020489 4.512392
-1.0395539 -2.5757806 3.4021988
-0.71980292 -1.3392709 26.130762
-0.42190731 -0.86565238 8.9385748
-1.094442 -2.6169877 10.958777
-1.524474 -3.6936202 10.920482
-1.3510339 -3.2994268 7.43575
-1.1997538 -2.9431224 5.2688484
-1.0761001 -2.6490142 3.8608527
-1.0189877 -2.5146835 3.019701
-1.0008851 -2.496238 2.7226796
-0.96606302 -2.4130254 2.1782053
-0.94449317 -2.3627083 1.752857
-0.92876035 -2.3256876 1.3974355
-0.9021647 -2.2613635 1.0719931
-0.87924427 -2.2061293 0.78800613
-0.8689332 -2.1813509 0.53726459
-0.85613519 -2.151387 0.30082053
-0.98060453 -2.4345696 2.4187946
-0.96019024 -2.3874686 1.9572906
-0.93761903 -2.3336809 1.5635138
-0.91500527 -2.2796786 1.2230222
-0.89513856 -2.2312891 0.92588562
-0.87341565 -2.179323 0.65698236
-0.86910558 -2.1696517 0.41819894
-0.84815764 -2.1194797 0.18576504
-0.72380823 -1.6712438 11.578045
-0.90444094 -2.1253288 11.128112
-1.3643998 -3.2670398 11.365696
-1.4100064 -3.4095018 8.7516184
-1.2568314 -3.0571821 6.1248646
-1.1252514 -2.7479949 4.433866
-1.0353463 -2.5359776 3.3561487
-0.72544926 -1.3368778 26.140745
-0.42537886 -0.8639518 8.9385748
-1.1044486 -2.6114154 10.953938
-1.5193437 -3.6396966 10.779698
-1.3526047 -3.2658198 7.3727331
-1.1926675 -2.8924723 5.1877952
-1.0741265 -2.6140153 3.8169627
-1.017501 -2.4823411 2.9866245
-0.99883252 -2.4624577 2.6911387
-0.96843547 -2.3910899 2.1625128
-0.94456357 -2.3356392 1.7364081
-0.92647266 -2.2931898 1.3812039
-0.90255946 -2.2362289 1.062628
-0.87912357 -2.180337 0.78095597
-0.87217414 -2.1641769 0.53446668
-0.85546499 -2.1248348 0.29858512
-0.97909784 -2.4029517 2.3921907
-0.95910317 -2.3573871 1.9366884
-0.93886334 -2.309931 1.5508479
-0.91390395 -2.2507563 1.2104338
-0.89698493 -2.2101758 0.91931158
-0.87302536 -2.1532772 0.65112078
-0.8685087 -2.1431975 0.41474554
-0.84915996 -2.0975344 0.18495892
-0.7301141 -1.664257 11.553349
-0.91484952 -2.121978 11.133007
-1.3791983 -3.2591991 11.360924
-1.41473 -3.3757925 8.68258
-1.2560903 -3.0134232 6.0502505
-1.1278757 -2.7164743 4.3925366
-1.0330142 -2.4953504 3.3100986
-0.7323457 -1.3334417 26.145735
-0.42974624 -0.86178762 8.9385748
-1.1176519 -2.6057918 10.953938
-1.5148684 -3.5779319 10.620145
-1.3443779 -3.1984875 7.2376966
-1.1896722 -2.8428829 5.1110082
-1.0738796 -2.5749829 3.7690823
-1.0187641 -2.4488091 2.953548
-0.99957645 -2.4313366 2.6631024
-0.96934485 -2.3612947 2.1405437
-0.94644636 -2.3077834 1.7199594
-0.92591184 -2.2599413 1.3649724
-0.90469623 -2.2103393 1.0532628
-0.88250571 -2.1582539 0.77531582
-0.87567991 -2.1415474 0.53073621
-0.85867578 -2.102037 0.2967968
-0.97983617 -2.3703611 2.3655865
-0.96063298 -2.3261814 1.9160864
-0.94108057 -2.2810738 1.5356488
-0.91875833 -2.229156 1.2020416
-0.89917034 -2.1837752 0.91109401
-0.87688845 -2.1306973 0.64643157
-0.86841524 -2.1111426 0.41060147
-0.85253507 -2.0745757 0.1841528
-0.18644963 -0.16107891 26.833252
-0.73531425 -1.6611161 11.548409
-0.92228758 -2.1198664 11.137902
-1.3894123 -3.2532351 11.356153
-1.4053655 -3.3225019 8.5583124
-1.2469815 -2.9653084 5.9624686
-1.1200945 -2.6739855 4.3305426
-1.0284947 -2.4625165 3.2717235
-0.73634648 -1.3318965 26.15572
-0.43215114 -0.8605842 8.9385748
-1.1244256 -2.6015072 10.9491
-1.5079209 -3.5340075 10.502826
-1.3272814 -3.1348181 7.1026602
-1.1788738 -2.7965012 5.0342216
-1.0596076 -2.5221581 3.6972618
-1.0133773 -2.4179938 2.9204717
-0.99574882 -2.3981903 2.6315615
-0.96863675 -2.3363237 2.1217129
-0.94449711 -2.2814517 1.7035106
-0.92324251 -2.2322974 1.3510596
-0.90493959 -2.1901889 1.0457706
-0.88050616 -2.1331449 0.76826566
-0.87453932 -2.1207747 0.52700573
-0.85542434 -2.0764573 0.29456142
-0.97537142 -2.3398728 2.3389826
-0.95469856 -2.2936368 1.8925409
-0.93751538 -2.2545545 1.5204496
-0.91588879 -2.2057855 1.1915514
-0.89764684 -2.1639664 0.90451998
-0.87464857 -2.1105871 0.64174229
-0.86220068 -2.0815637 0.40645739
-0.84996063 -2.0540211 0.18334667
-0.18701078 -0.16042709 26.833252
-0.7423768 -1.6613768 11.568167
-0.93009126 -2.1175663 11.142797
-1.4001687 -3.2469947 11.35138
-1.3970013 -3.2708642 8.4386463
-1.2395371 -2.9190531 5.879076
-1.1151688 -2.6363676 4.276814
-1.0271187 -2.4352853 3.2410235
-0.74099118 -1.329318 26.15572
-0.4351525 -0.85907054 8.9385748
-1.1329969 -2.5964141 10.94426
-1.5018104 -3.4859324 10.376121
-1.3116848 -3.0681145 6.9631224
-1.1692187 -2.7467761 4.9531689
-1.05899 -2.4962528 3.6653416
-1.0112406 -2.3894653 2.8910701
-0.99308109 -2.3683894 2.6035252
-0.96626288 -2.3077962 2.0997438
-0.94277734 -2.2549939 1.6870618
-0.91907763 -2.2004483 1.3348279
-0.90365267 -2.1656246 1.0364054
-0.88056368 -2.1123474 0.76262552
-0.87438267 -2.0995703 0.52327526
-0.85501546 -2.0550673 0.2927731
-0.97194368 -2.308924 2.3123786
-0.95173472 -2.2642071 1.8719389
-0.9353649 -2.227421 1.5052506
-0.91480726 -2.1816478 1.1810611
-0.89424747 -2.1346874 0.89465892
-0.87450445 -2.089586 0.63705301
-0.8599062 -2.0556989 0.40300399
-0.84941989 -2.0326033 0.18254055
