# .PCD v0.7 - Point Cloud Data file format
VERSION 0.7
FIELDS x y z
SIZE 4 4 4
TYPE F F F
COUNT 1 1 1
WIDTH 1437
HEIGHT 1
VIEWPOINT 0 0 0 1 0 0 0
POINTS 1437
DATA ascii
-0.87724268 0.27905577 0.98442477
-0.85986692 0.2730422 0.80983812
-0.85109717 0.26977721 0.66997784
-0.84601319 0.26784858 0.55107355
-0.84061766 0.26582542 0.44452715
-0.82369959 0.26016676 0.34384581
-0.81980944 0.2586287 0.25468066
-0.81200767 0.25586376 0.16937928
-0.87825876 0.28073543 0.90236646
-0.85349125 0.27233514 0.735879
-0.8478058 0.27020276 0.60850531
-0.8573969 0.27277362 0.50339019
-0.82411337 0.26187482 0.39010164
-0.81089371 0.2573702 0.2959086
-0.80232757 0.25450242 0.20961356
-0.80939829 0.25644255 0.12792566
-0.032703735 0.02385791 3.1791525
-0.32958472 0.11427897 2.2181509
-0.38027233 0.12927747 1.9544563
-0.65980059 0.21965338 2.2702947
-0.71545368 0.23548463 1.8340242
-0.80392915 0.26279539 1.6172805
-0.92649752 0.30147362 1.5036055
-0.89211303 0.28926763 1.1994712
-0.11954158 0.052117478 2.0959251
-0.23985216 0.095855705 2.3662472
-0.62012506 0.20939894 2.5575368
-0.67060918 0.22302766 1.9760692
-0.76037508 0.25059599 1.7192082
-0.87145871 0.28573602 1.5702833
-0.89909977 0.2936081 1.3271875
-0.88114846 0.28690967 1.0828893
-0.87965786 0.28320935 0.98792928
-0.85890859 0.27604204 0.80983812
-0.85413176 0.27402401 0.67271936
-0.84929156 0.27215207 0.55339235
-0.84409988 0.27017143 0.4464002
-0.82735562 0.26450127 0.34525582
-0.81890166 0.2614888 0.25468066
-0.8111096 0.25869665 0.16937928
-0.8772735 0.28379941 0.90236646
-0.85253537 0.27531272 0.735879
-0.85096002 0.27448401 0.61103851
-0.85211945 0.27437365 0.50129217
-0.82319421 0.26474991 0.39010164
-0.80999047 0.26019916 0.2959086
-0.80143428 0.25730154 0.20961356
-0.8084982 0.25926632 0.12792566
-0.032620255 0.023971923 3.1791525
-0.3313826 0.11620264 2.2329688
-0.37981877 0.13060409 1.9544563
-0.67034578 0.22577 2.3084705
-0.71277386 0.23736295 1.8294216
-0.80300695 0.26560003 1.6172805
-0.92811233 0.30558616 1.5077385
-0.8910979 0.29237992 1.1994712
-0.11962163 0.052654158 2.1009169
-0.23951611 0.096692353 2.3662472
-0.61582232 0.21034211 2.5430188
-0.66982657 0.22536717 1.9760692
-0.75949574 0.25324866 1.7192082
-0.8679806 0.28795472 1.5660173
-0.89806938 0.29674476 1.3271875
-0.88014156 0.28998369 1.0828893
-0.87866396 0.28627822 0.98792928
-0.86164117 0.28024259 0.81297654
-0.8531701 0.27700379 0.67271936
-0.8483364 0.27511501 0.55339235
-0.84756196 0.27454498 0.44827321
-0.82642728 0.26738769 0.34525582
-0.82265812 0.26585633 0.2556133
-0.81494081 0.26305616 0.16982636
-0.87982601 0.28802186 0.90569204
-0.85156918 0.27828696 0.735879
-0.84999675 0.27745277 0.61103851
-0.85115653 0.27734643 0.50129217
-0.82675529 0.26908335 0.39174515
-0.81369978 0.26452783 0.29708093
-0.80053127 0.26009747 0.20961356
-0.8123402 0.26362908 0.12812719
-0.032506347 0.024053985 3.1741526
-0.33317104 0.11814022 2.2477865
-0.37839913 0.13159391 1.9495611
-0.67944336 0.23148109 2.3418744
-0.711941 0.23984955 1.8294216
-0.80207497 0.26840141 1.6172805
-0.93237936 0.31060329 1.5160043
-0.89007187 0.29548863 1.1994712
-0.1194371 0.053071398 2.1009169
-0.23966986 0.097731233 2.3712187
-0.61152059 0.21125777 2.5285003
-0.67066938 0.22826037 1.9807621
-0.75860709 0.25589824 1.7192082
-0.86697018 0.29098281 1.5660173
-0.89988577 0.3008334 1.3311775
-0.87912393 0.29305419 1.0828893
-0.88104618 0.29046041 0.9914338
-0.86065769 0.28324857 0.81297654
-0.85219795 0.27998024 0.67271936
-0.85157979 0.27945596 0.55571121
-0.84659839 0.27750185 0.44827321
-0.83004779 0.27176356 0.34666586
-0.82172513 0.26872632 0.2556133
-0.81401765 0.26589924 0.16982636
-0.87881523 0.29109126 0.90569204
-0.8544302 0.28252694 0.73882216
-0.85311633 0.28177023 0.61357164
-0.85018325 0.28031582 0.50129217
-0.82581103 0.27196762 0.39174515
-0.81277144 0.26736656 0.29708093
-0.79961848 0.26289028 0.20961356
-0.81141496 0.26646307 0.12812719
-0.032422189 0.024167309 3.1741526
-0.33787435 0.12114398 2.2823613
-0.37793747 0.13291398 1.9495611
-0.67863119 0.23385137 2.3418744
-0.71109939 0.24233322 1.8294216
-0.80340159 0.2719678 1.6216695
-0.93395609 0.31475499 1.5201373
-0.89207333 0.29961452 1.2033087
-0.11925112 0.053487986 2.1009169
-0.23932727 0.098567247 2.3712187
-0.60722005 0.212146 2.5139823
-0.66986847 0.23060004 1.9807621
-0.75976938 0.25924808 1.7237095
-0.86594915 0.29400733 1.5660173
-0.89883018 0.30397275 1.3311775
-0.88130796 0.29720467 1.0865644
-0.88002694 0.29353404 0.9914338
-0.85966372 0.28625113 0.81297654
-0.85121542 0.28295329 0.67271936
-0.85059917 0.2824268 0.55571121
-0.84562463 0.28045535 0.44827321
-0.82909405 0.27465931 0.34666586
-0.82078207 0.27159303 0.2556133
-0.81308448 0.26873907 0.16982636
-0.87779379 0.29415712 0.90569204
-0.85343874 0.28550774 0.73882216
-0.85212749 0.28474644 0.61357164
-0.84919959 0.2832818 0.50129217
-0.82485664 0.27484858 0.39174515
-0.8118332 0.27020201 0.29708093
-0.80339485 0.267243 0.21030425
-0.81522101 0.27086914 0.12832873
-0.032337632 0.024280336 3.1741526
-0.34110039 0.12365076 2.3070576
-0.37747121 0.13423242 1.9495611
-0.67922014 0.23671044 2.3466463
-0.7120961 0.24545096 1.8340242
-0.80244732 0.27477053 1.6216695
-0.93551511 0.31892145 1.5242703
-0.89102209 0.30272663 1.2033087
-0.11906368 0.053903922 2.1009169
-0.23947303 0.099608868 2.3761902
-0.59699565 0.21091093 2.4752669
-0.67068905 0.23350471 1.9854547
-0.75885981 0.26189858 1.7237095
-0.86491764 0.29702824 1.5660173
-0.90061462 0.30808395 1.3351675
-0.88026518 0.3002792 1.0865644
-0.88237584 0.29774457 0.99493837
-0.86234784 0.29049292 0.81611502
-0.85022253 0.28592283 0.67271936
-0.85380727 0.28680497 0.55803001
-0.84464049 0.28340542 0.44827321
-0.8281303 0.27755171 0.34666586
-0.81982905 0.27445647 0.2556133
-0.81214148 0.27157563 0.16982636
-0.87676162 0.2972194 0.90569204
-0.85626554 0.28978097 0.74176532
-0.85521209 0.28909984 0.61610484
-0.84820557 0.28624433 0.50129217
-0.82389224 0.2777262 0.39174515
-0.81088513 0.27303419 0.29708093
-0.80245709 0.27004573 0.21030425
-0.8142705 0.27371311 0.12832873
-0.032252681 0.024393067 3.1741526
-0.35160553 0.12886322 2.3811467
-0.37700036 0.13554922 1.9495611
-0.6769821 0.23858339 2.3418744
-0.71123499 0.24793513 1.8340242
-0.80148333 0.27756992 1.6216695
-0.93705648 0.32310262 1.5284033
-0.88995999 0.30583504 1.2033087
-0.1188748 0.054319207 2.1009169
-0.23961444 0.10065272 2.3811617
-0.56903422 0.20325755 2.36396
-0.66986984 0.23584442 1.9854547
-0.75794101 0.26454592 1.7237095
-0.86633921 0.30090156 1.5702833
-0.89953369 0.3112258 1.3351675
-0.87921166 0.30335009 1.0865644
-0.88133115 0.30082282 0.99493837
-0.8613286 0.29350132 0.81611502
-0.85317785 0.29023576 0.67546082
-0.85280097 0.28978357 0.55803001
-0.84364611 0.28635204 0.44827321
-0.82715636 0.28044072 0.34666586
-0.82351869 0.27889225 0.2565459
-0.81118852 0.27440888 0.16982636
-0.87571877 0.30027807 0.90569204
-0.85524881 0.29276815 0.74176532
-0.85419774 0.29208335 0.61610484
-0.85149634 0.29066974 0.50339019
-0.8229177 0.28060043 0.39174515
-0.80992711 0.27586305 0.29708093
-0.80619746 0.27444106 0.21099493
-0.81331009 0.27655378 0.12832873
-0.03219692 0.024537573 3.1791525
-0.35989338 0.13333832 2.4404175
-0.3765249 0.13686436 1.9495611
-0.67755109 0.2414465 2.3466463
-0.71036518 0.25041631 1.8340242
-0.80050957 0.28036591 1.6216695
-0.93592292 0.32637158 1.5284033
-0.89191449 0.30999222 1.2071462
-0.11842389 0.054609537 2.0959251
-0.2397515 0.10169877 2.3861334
-0.51985669 0.18771781 2.1655436
-0.66904247 0.23818126 1.9854547
-0.75701296 0.26719001 1.7237095
-0.86528355 0.30392385 1.5702833
-0.89844185 0.31436387 1.3351675
-0.87814736 0.30641726 1.0865644
-0.88027573 0.30389741 0.99493837
-0.86029881 0.29650614 0.81611502
-0.85215956 0.29321215 0.67546082
-0.85178423 0.29275864 0.55803001
-0.84264135 0.28929514 0.44827321
-0.82163483 0.28177011 0.34525582
-0.82254016 0.28176519 0.2565459
-0.80551398 0.27562651 0.16937928
-0.87466532 0.30333307 0.90569204
-0.85422164 0.29575172 0.74176532
-0.85317302 0.29506329 0.61610484
-0.8504765 0.29364026 0.50339019
-0.82639736 0.28501096 0.39338866
-0.80895919 0.27868855 0.29708093
-0.80523455 0.27725354 0.21099493
-0.81233978 0.27939111 0.12832873
-0.032111071 0.024649812 3.1791525
-0.36815411 0.13787282 2.4996886
-0.37604484 0.13817784 1.9495611
-0.66687483 0.24026552 2.3132427
-0.71132684 0.25355074 1.8386267
-0.8017835 0.28395838 1.6260587
-0.9321242 0.32870048 1.5242703
-0.89385074 0.31416675 1.2109838
-0.11823255 0.055022582 2.0959251
-0.23988414 0.102747 2.3911047
-0.4944064 0.18046857 2.0639157
-0.66820699 0.2405152 1.9854547
-0.75607568 0.26983082 1.7237095
-0.8642174 0.30694237 1.5702833
-0.89733911 0.31749809 1.3351675
-0.88026929 0.31060898 1.0902396
-0.87920958 0.3069683 0.99493837
-0.85925859 0.29950732 0.81611502
-0.85113084 0.29618493 0.67546082
-0.85075712 0.29573014 0.55803001
-0.83724707 0.290714 0.4464002
-0.82064629 0.28463644 0.34525582
-0.82155162 0.28463465 0.2565459
-0.80454695 0.2784366 0.16937928
-0.87360114 0.30638435 0.90569204
-0.8531841 0.29873171 0.74176532
-0.84806883 0.29661626 0.61357164
-0.8537311 0.29810348 0.50548828
-0.82539743 0.28789389 0.39338866
-0.80798149 0.28151065 0.29708093
-0.80426186 0.28006265 0.21099493
-0.81135958 0.28222498 0.12832873
-0.032024831 0.024761749 3.1791525
-0.37057626 0.14026025 2.5194457
-0.37556025 0.13948965 1.9495611
-0.66042238 0.24054679 2.2941546
-0.71043748 0.2560322 1.8386267
-0.80078739 0.28675541 1.6260587
-0.92832059 0.33100682 1.5201373
-0.89274865 0.31728497 1.2109838
-0.11803976 0.055434953 2.0959251
-0.24098912 0.10422472 2.4060194
-0.47962493 0.17696519 2.0058427
-0.66736341 0.24284622 1.9854547
-0.75512916 0.27246839 1.7237095
-0.86559516 0.31083891 1.5745492
-0.89622533 0.32062849 1.3351675
-0.87917972 0.31367981 1.0902396
-0.88149548 0.31122294 0.99844289
-0.85820788 0.30250487 0.81611502
-0.85009176 0.29915413 0.67546082
-0.84971964 0.29869804 0.55803001
-0.83622718 0.29363474 0.4464002
-0.81964773 0.28749928 0.34525582
-0.82518893 0.28912506 0.25747854
-0.80827051 0.28288844 0.16982636
-0.87252635 0.30943194 0.90569204
-0.8559463 0.30305731 0.74470848
-0.84702826 0.29957476 0.61357164
-0.85268533 0.30108175 0.50548828
-0.82438749 0.29077333 0.39338866
-0.8069939 0.2843293 0.29708093
-0.80795026 0.28451324 0.21168561
-0.81036949 0.28505543 0.12832873
-0.031938203 0.024873387 3.1791525
-0.37080985 0.14183128 2.524385
-0.37507105 0.14079975 1.9495611
-0.6511749 0.23975365 2.2655225
-0.70953941 0.25851053 1.8386267
-0.79978156 0.2895489 1.6260587
-0.92451233 0.33329064 1.5160043
-0.89163572 0.32039928 1.2109838
-0.11784554 0.055846654 2.0959251
-0.24159904 0.10549603 2.4159625
-0.47429419 0.17687917 1.9864849
-0.66651165 0.24517426 1.9854547
-0.75417352 0.27510265 1.7237095
-0.86450487 0.31385851 1.5745492
-0.89793414 0.32478008 1.3391576
-0.87807941 0.31674683 1.0902396
-0.88040364 0.31429803 0.99844289
-0.85714668 0.30549875 0.81611502
-0.85298175 0.30352166 0.67820227
-0.84867179 0.3016623 0.55803001
-0.83519709 0.29655194 0.4464002
-0.81863916 0.29035863 0.34525582
-0.8241747 0.29200372 0.25747854
-0.80727816 0.2857081 0.16982636
-0.87495548 0.31373623 0.90901756
-0.85488319 0.30604327 0.74470848
-0.84597737 0.3025296 0.61357164
-0.85590333 0.30558252 0.5075863
-0.82781518 0.29523557 0.39503217
-0.81057519 0.2887758 0.29825324
-0.80695224 0.28733176 0.21168561
-0.8093695 0.28788242 0.12832873
-0.031851184 0.024984721 3.1791525
-0.36161891 0.13975449 2.4651136
-0.37457725 0.14210813 1.9495611
-0.64893526 0.24150418 2.2607508
-0.70863271 0.2609857 1.8386267
-0.79876596 0.29233891 1.6260587
-0.9233433 0.33651575 1.5160043
-0.89352441 0.32460442 1.2148212
-0.11764988 0.056257673 2.0959251
-0.24317676 0.10720699 2.4358485
-0.47367388 0.17853369 1.9864849
-0.66565174 0.24749933 1.9854547
-0.75320858 0.2777335 1.7237095
-0.86340398 0.31687427 1.5745492
-0.89679503 0.32791248 1.3391576
-0.88015336 0.3209717 1.0939147
-0.87930125 0.31736931 0.99844289
-0.85607511 0.30848888 0.81611502
-0.85191709 0.30649728 0.67820227
-0.84761363 0.30462286 0.55803001
-0.83415681 0.29946551 0.4464002
-0.81762064 0.29321447 0.34525582
-0.8231504 0.29487887 0.25747854
-0.8109647 0.2902022 0.17027344
-0.87385499 0.31678843 0.90901756
-0.85380971 0.30902553 0.74470848
-0.84897012 0.30694667 0.61610484
-0.85483146 0.30856833 0.5075863
-0.8267796 0.29812342 0.39503217
-0.80956221 0.29160351 0.29825324
-0.80594432 0.2901468 0.21168561
-0.80835968 0.29070589 0.12832873
-0.031763777 0.02509575 3.1791525
-0.34376535 0.13421473 2.3465717
-0.37407893 0.14341478 1.9495611
-0.63970637 0.24061234 2.2321188
-0.70954818 0.26413965 1.8432292
-0.79774064 0.29512537 1.6260587
-0.91952258 0.33876371 1.5118713
-0.8923859 0.32772142 1.2148212
-0.11745279 0.056668002 2.0959251
-0.24425934 0.10871148 2.4507627
-0.47187337 0.17973803 1.9816455
-0.66639906 0.25042886 1.9901476
-0.75427425 0.28112158 1.7282107
-0.86229265 0.31988621 1.5745492
-0.89847118 0.33208579 1.3431475
-0.87902755 0.32404202 1.0939147
-0.87818801 0.32043672 0.99844289
-0.85865021 0.31280777 0.81925344
-0.850842 0.30946916 0.67820227
-0.84654516 0.30757973 0.55803001
-0.8331064 0.30237544 0.4464002
-0.81659216 0.2960667 0.34525582
-0.82211608 0.29775038 0.25747854
-0.80994678 0.29303122 0.17027344
-0.87624961 0.32112184 0.91234308
-0.85652167 0.31339303 0.74765164
-0.84789348 0.30990824 0.61610484
-0.85374916 0.31155038 0.5075863
-0.83017045 0.30262497 0.39667568
-0.8131066 0.29609081 0.29942557
-0.80492663 0.29295832 0.21168561
-0.81203532 0.29523289 0.12853025
-0.031675983 0.025206473 3.1791525
-0.34401724 0.13569979 2.3515108
-0.37357605 0.14471969 1.9495611
-0.62491119 0.23753586 2.1843991
-0.7086218 0.26661482 1.8432292
-0.79894876 0.29874733 1.6304477
-0.92097151 0.34295365 1.5160043
-0.89424127 0.33195013 1.2186587
-0.11725426 0.057077643 2.0959251
-0.24581967 0.11044528 2.4706488
-0.47241595 0.18183617 1.9864849
-0.66713387 0.25336656 1.9948403
-0.75328839 0.2837528 1.7282107
-0.86117083 0.32289422 1.5745492
-0.8973065 0.33522004 1.3431475
-0.88106775 0.32829237 1.09759
-0.88041002 0.32473457 1.0019474
-0.85755301 0.31580311 0.81925344
-0.84975654 0.31243727 0.67820227
-0.84546638 0.31053284 0.55803001
-0.83204585 0.30528167 0.4464002
-0.82005775 0.30056626 0.34666586
-0.82568449 0.30230728 0.25841114
-0.81359595 0.29756728 0.17072052
-0.87512338 0.32417858 0.91234308
-0.8554225 0.31638095 0.74765164
-0.85085011 0.3143602 0.61863804
-0.85265642 0.31452861 0.5075863
-0.82910901 0.30552098 0.39667568
-0.81206805 0.29892728 0.29942557
-0.8085466 0.29747617 0.21237628
-0.81099975 0.29806563 0.12853025
-0.031559009 0.025284104 3.1741526
-0.34281999 0.13661139 2.3465717
-0.3730686 0.14602283 1.9495611
-0.59899914 0.23007375 2.0985031
-0.70768684 0.26908675 1.8432292
-0.79790109 0.30153432 1.6304477
-0.91976875 0.34616634 1.5160043
-0.89307708 0.33506957 1.2186587
-0.11705431 0.05748659 2.0959251
-0.24688634 0.11196916 2.4855633
-0.47294959 0.18394028 1.9913243
-0.6678564 0.25631249 1.9995332
-0.75432771 0.28715536 1.7327118
-0.85759974 0.32497385 1.5702833
-0.89894986 0.33941478 1.3471376
-0.87991649 0.33136588 1.09759
-0.87927109 0.32780576 1.0019474
-0.86009318 0.32015264 0.82239193
-0.84866077 0.31540155 0.67820227
-0.84853005 0.31502414 0.56034881
-0.83532172 0.30979636 0.44827321
-0.81900352 0.30342695 0.34666586
-0.82462418 0.30518761 0.25841114
-0.81255221 0.30040541 0.17072052
-0.87748307 0.32854077 0.91566855
-0.85431284 0.31936499 0.74765164
-0.8497476 0.31732833 0.61863804
-0.85155332 0.31750301 0.5075863
-0.83246267 0.31006157 0.39831915
-0.81557518 0.30345517 0.30059788
-0.80750328 0.30029672 0.21237628
-0.8146376 0.30263454 0.12873179
-0.03147056 0.025394112 3.1741526
-0.34378198 0.13838911 2.3564501
-0.37255663 0.14732419 1.9495611
-0.57036436 0.22135271 2.0030637
-0.70856678 0.27225649 1.8478317
-0.79908097 0.30517247 1.6348368
-0.9211849 0.3503755 1.5201373
-0.89190203 0.33818495 1.2186587
-0.11685293 0.057894837 2.0959251
-0.2484291 0.11372564 2.5054493
-0.47230461 0.18559007 1.9913243
-0.66856635 0.25926647 2.0042257
-0.75332075 0.28978673 1.7327118
-0.85646021 0.32796547 1.5702833
-0.89775956 0.34255064 1.3471376
-0.88192278 0.33564141 1.1012651
-0.8781215 0.33087301 1.0019474
-0.85897034 0.32315296 0.82239193
-0.85146898 0.31983253 0.68094373
-0.84742522 0.31798413 0.56034881
-0.83423525 0.31271029 0.44827321
-0.82243186 0.30796629 0.3480759
-0.82355386 0.30806422 0.25841114
-0.8114987 0.30323994 0.17072052
-0.87633091 0.33160174 0.91566855
-0.85697395 0.32377392 0.75059479
-0.85266775 0.32181492 0.62117118
-0.8546868 0.32207412 0.50968438
-0.8313753 0.31296551 0.39831915
-0.81451094 0.30630025 0.30059788
-0.81108546 0.30485591 0.21306697
-0.81357622 0.30547634 0.12873179
-0.031381726 0.025503809 3.1741526
-0.34185791 0.13900137 2.3465717
-0.37204009 0.14862376 1.9495611
-0.56125116 0.22007 1.9744316
-0.7076121 0.27472818 1.8478317
-0.79801083 0.30795994 1.6348368
-0.92258292 0.35459876 1.5242703
-0.89370906 0.34244332 1.2224963
-0.11665013 0.058302376 2.0959251
-0.2499626 0.11549426 2.5253353
-0.47165394 0.18723759 1.9913243
-0.6692639 0.26222858 2.0089185
-0.75433356 0.29320353 1.737213
-0.85531014 0.33095309 1.5702833
-0.89655834 0.34568229 1.3471376
-0.88074577 0.33871785 1.1012651
-0.88029391 0.33520553 1.005452
-0.86147523 0.32753283 0.82553035
-0.8503474 0.32280278 0.68094373
-0.84631008 0.32094026 0.56034881
-0.83747381 0.31726289 0.45014626
-0.82135183 0.31083521 0.3480759
-0.82706833 0.31267422 0.25934377
-0.81043524 0.30607077 0.17072052
-0.87516803 0.33465871 0.91566855
-0.8558386 0.32676333 0.75059479
-0.85153919 0.32478932 0.62117118
-0.85355735 0.32505557 0.50968438
-0.83027774 0.31586567 0.39831915
-0.81798035 0.31086838 0.30177018
-0.81001639 0.30768529 0.21306697
-0.81250495 0.30831435 0.12873179
-0.031292509 0.025613196 3.1741526
-0.34208906 0.1404898 2.3515108
-0.37246296 0.15030327 1.9544563
-0.55631679 0.22037712 1.9601157
-0.70664883 0.27719656 1.8478317
-0.79693103 0.31074363 1.6348368
-0.92133945 0.35781699 1.5242703
-0.89250827 0.34556085 1.2224963
-0.11644591 0.058709204 2.0959251
-0.24907574 0.11613888 2.520364
-0.47449675 0.1902881 2.0058427
-0.66994882 0.26519868 2.0136113
-0.75330549 0.29583487 1.737213
-0.8541497 0.33393663 1.5702833
-0.8981539 0.34990385 1.3511276
-0.88271797 0.34301835 1.1049403
-0.87911844 0.3382763 1.005452
-0.86032671 0.33053795 0.82553035
-0.85311937 0.3272669 0.68368518
-0.84932101 0.32547781 0.56266761
-0.83636129 0.32018429 0.45014626
-0.82474232 0.31541404 0.34948593
-0.82597184 0.31555933 0.25934377
-0.80936193 0.30889782 0.17072052
-0.87747723 0.33905751 0.91899407
-0.85846364 0.33120391 0.75353795
-0.85040033 0.32775977 0.62117118
-0.85241747 0.32803306 0.50968438
-0.82917017 0.31876194 0.39831915
-0.81689024 0.31372178 0.30177018
-0.80893743 0.3105109 0.21306697
-0.81142384 0.31114864 0.12873179
-0.031202912 0.025722273 3.1741526
-0.34159657 0.14168306 2.3515108
-0.37193602 0.15160249 1.9544563
-0.55415845 0.2217626 1.9553436
-0.70567685 0.27966151 1.8478317
-0.79584146 0.31352356 1.6348368
-0.9227044 0.36205906 1.5284033
-0.89129663 0.34867418 1.2224963
-0.11624027 0.05911532 2.0959251
-0.24818739 0.1167787 2.5153923
-0.4889718 0.19808568 2.0687551
-0.67062116 0.26817676 2.0183041
-0.75226825 0.2984626 1.737213
-0.85540432 0.3378745 1.5745492
-0.896927 0.35303685 1.3511276
-0.88151526 0.3460975 1.1049403
-0.87793231 0.34134293 1.005452
-0.8591677 0.33353901 0.82553035
-0.85197181 0.33024284 0.68368518
-0.8481797 0.32844049 0.56266761
-0.83956212 0.32477444 0.45201927
-0.82363629 0.31829098 0.34948593
-0.8202827 0.3166714 0.25841114
-0.80827874 0.31172115 0.17072052
-0.87628835 0.34211844 0.91899407
-0.85730231 0.33419847 0.75353795
-0.84925103 0.33072621 0.62117118
-0.85549718 0.3326515 0.51178247
-0.82805234 0.32165435 0.39831915
-0.81579018 0.31657133 0.30177018
-0.80784863 0.31333274 0.21306697
-0.81499124 0.31578419 0.12893331
-0.031141151 0.025864316 3.1791525
-0.34253258 0.14347653 2.3613894
-0.37234583 0.15328822 1.9593515
-0.55338097 0.22369564 1.9553436
-0.70650989 0.28284955 1.8524343
-0.79696727 0.31718558 1.6392258
-0.92143488 0.36527768 1.5284033
-0.8930549 0.35296166 1.2263339
-0.11603321 0.059520714 2.0959251
-0.24585584 0.11672202 2.4955063
-0.50572425 0.2069397 2.1413465
-0.67128092 0.27116278 2.0229971
-0.75324237 0.30189687 1.7417142
-0.85421973 0.34085837 1.5745492
-0.89848912 0.35727921 1.3551177
-0.88345295 0.35042265 1.1086154
-0.88005465 0.3457095 1.0089566
-0.86162168 0.33795753 0.82866883
-0.85470724 0.33473977 0.68642664
-0.84702808 0.33139917 0.56266761
-0.83842331 0.32770309 0.45201927
-0.82698864 0.32290897 0.35089597
-0.82374877 0.32131797 0.25934377
-0.80718571 0.31454068 0.17072052
-0.87508881 0.34517518 0.91899407
-0.85613054 0.33718899 0.75353795
-0.84809136 0.33368865 0.62117118
-0.85433084 0.33563569 0.51178247
-0.82692456 0.32454285 0.39831915
-0.81468016 0.31941706 0.30177018
-0.80675 0.31615075 0.21306697
-0.81388396 0.31862712 0.12893331
-0.031050676 0.025972862 3.1791525
-0.35418952 0.14983037 2.4453568
-0.37274835 0.15497862 1.9642467
-0.55259675 0.22562592 1.9553436
-0.70551825 0.28531399 1.8524343
-0.79585522 0.31996557 1.6392258
-0.92276645 0.36953825 1.5325361
-0.89181739 0.35607684 1.2263339
-0.11557008 0.059789408 2.0909336
-0.2420883 0.11595373 2.4607058
-0.50499886 0.20870374 2.1413465
-0.67192793 0.27415663 2.0276897
-0.75218397 0.30452436 1.7417142
-0.85302472 0.34383807 1.5745492
-0.89723653 0.36041337 1.3551177
-0.88222432 0.35350433 1.1086154
-0.87884253 0.34877938 1.0089566
-0.8604368 0.3409631 0.82866883
-0.85353357 0.33772123 0.68642664
-0.84998572 0.33598241 0.56498641
-0.83727431 0.33062774 0.45201927
-0.82585645 0.32579371 0.35089597
-0.81805199 0.32239029 0.25841114
-0.81071657 0.31918073 0.1711676
-0.87734699 0.34961003 0.92231953
-0.85870391 0.34166992 0.75648111
-0.85092735 0.33823955 0.62370437
-0.853154 0.33861583 0.51178247
-0.82578665 0.32742736 0.39831915
-0.81356019 0.32225889 0.30177018
-0.81024581 0.32078791 0.21375765
-0.81276679 0.32146618 0.12893331
-0.030959826 0.026081093 3.1791525
-0.3665204 0.15657325 2.5342636
-0.37314364 0.15667373 1.969142
-0.5559451 0.22926211 1.9696596
-0.70451802 0.28777498 1.8524343
-0.79473352 0.32274169 1.6392258
-0.92147088 0.37275708 1.5325361
-0.89056903 0.35918769 1.2263339
-0.11536066 0.060192458 2.0909336
-0.23785017 0.11492664 2.4209337
-0.50774652 0.21191923 2.1558647
-0.67256224 0.27715832 2.0323825
-0.75313121 0.3079724 1.7462155
-0.85181928 0.34681362 1.5745492
-0.89876503 0.3646763 1.3591076
-0.88098502 0.35658175 1.1086154
-0.88092977 0.35317224 1.0124611
-0.86285478 0.34541124 0.83180726
-0.85234952 0.34069857 0.68642664
-0.84880769 0.33894739 0.56498641
-0.83611512 0.33354837 0.45201927
-0.82471418 0.3286745 0.35089597
-0.81692159 0.32524386 0.25841114
-0.80959749 0.3220087 0.1711676
-0.87612128 0.35267043 0.92231953
-0.85750604 0.34466526 0.75648111
-0.84974146 0.34120774 0.62370437
-0.85196686 0.34159181 0.51178247
-0.82463866 0.3303079 0.39831915
-0.81243038 0.32509679 0.30177018
-0.80912119 0.32361421 0.21375765
-0.81163973 0.32430127 0.12893331
-0.030896463 0.026222575 3.1841521
-0.36597162 0.1578517 2.5342636
-0.37353158 0.15837345 1.9740372
-0.55927485 0.23292443 1.9839755
-0.70350921 0.29023245 1.8524343
-0.79360205 0.32551387 1.6392258
-0.92276901 0.37703595 1.5366691
-0.88930976 0.36229417 1.2263339
-0.11514985 0.060594779 2.0909336
-0.23410043 0.11410703 2.3861334
-0.51047796 0.21515647 2.170383
-0.67159063 0.2795043 2.0323825
-0.75205165 0.31059945 1.7462155
-0.85060352 0.34978491 1.5745492
-0.89748663 0.36781132 1.3591076
-0.87973493 0.35965475 1.1086154
-0.8796916 0.35624513 1.0124611
-0.86164385 0.34842107 0.83180726
-0.85115504 0.34367174 0.68642664
-0.85172755 0.34356549 0.56730521
-0.83924562 0.33819783 0.45389232
-0.82356191 0.33155128 0.35089597
-0.82033879 0.32992646 0.25934377
-0.80846858 0.32483277 0.1711676
-0.87834358 0.35713306 0.92564505
-0.85629767 0.34765643 0.75648111
-0.8525399 0.34579226 0.62623757
-0.85076928 0.34456366 0.51178247
-0.82348067 0.33318442 0.39831915
-0.81129062 0.32793069 0.30177018
-0.81257808 0.32829168 0.21444833
-0.81050271 0.32713246 0.12893331
-0.030804738 0.026330266 3.1841521
-0.3654184 0.1591282 2.5342636
-0.37297648 0.15967634 1.9740372
-0.57084024 0.24008773 2.0269234
-0.70249188 0.2926864 1.8524343
-0.7946735 0.32919896 1.643615
-0.92404836 0.3813284 1.5408021
-0.89100373 0.3666161 1.2301713
-0.11493763 0.060996354 2.0909336
-0.22988194 0.11302535 2.3463612
-0.51319283 0.21841528 2.1849012
-0.67220157 0.28251588 2.0370753
-0.75297189 0.31406105 1.7507167
-0.84937733 0.35275191 1.5745492
-0.89898127 0.37209454 1.3630977
-0.88160759 0.36401749 1.1122906
-0.88174343 0.36066401 1.0159656
-0.86402559 0.35289857 0.83494574
-0.85382193 0.34821996 0.6891681
-0.85462534 0.3482081 0.56962395
-0.84235376 0.34287316 0.45576534
-0.82239956 0.33442405 0.35089597
-0.81918216 0.33278799 0.25934377
-0.80732977 0.32765287 0.1711676
-0.87709159 0.36019689 0.92564505
-0.85507894 0.35064331 0.75648111
-0.85132766 0.34876606 0.62623757
-0.84956127 0.34753132 0.51178247
-0.82231265 0.33605686 0.39831915
-0.81014103 0.33076063 0.30177018
-0.81142718 0.33112612 0.21444833
-0.81398219 0.33184573 0.12913485
-0.030712644 0.026437633 3.1841521
-0.3677046 0.1616565 2.5540206
-0.37335116 0.161382 1.9789325
-0.60159469 0.25551009 2.1366789
-0.7014659 0.29513675 1.8524343
-0.79351956 0.33197087 1.643615
-0.92271167 0.38455164 1.5408021
-0.89267832 0.37095425 1.2340088
-0.11497676 0.061536707 2.0959251
-0.22615047 0.11215461 2.3115609
-0.50434494 0.21672787 2.1510253
-0.6712113 0.28486058 2.0370753
-0.75187105 0.31668749 1.7507167
-0.84814084 0.35571465 1.5745492
-0.90045702 0.37639266 1.3670877
-0.88033158 0.36709267 1.1122906
-0.8804791 0.36373967 1.0159656
-0.86278844 0.35591245 0.83494574
-0.85260129 0.35119826 0.6891681
-0.8534047 0.35118917 0.56962395
-0.84543943 0.34757429 0.45763838
-0.82122719 0.33729273 0.35089597
-0.81801546 0.33564544 0.25934377
-0.80618113 0.33046898 0.1711676
-0.87582898 0.36325631 0.92564505
-0.85384977 0.35362598 0.75648111
-0.85010505 0.35173562 0.62623757
-0.84834301 0.35049471 0.51178247
-0.82113457 0.33892521 0.39831915
-0.80898148 0.33358654 0.30177018
-0.81026638 0.33395651 0.21444833
-0.81281888 0.33468503 0.12913485
-0.030620171 0.026544681 3.1841521
-0.36855784 0.16357087 2.563899
-0.37278554 0.16268426 1.9789325
-0.62264621 0.26702863 2.2130308
-0.70043141 0.29758352 1.8524343
-0.7923559 0.33473876 1.643615
-0.92395723 0.38886195 1.544935
-0.89433354 0.37530857 1.2378463
-0.11476125 0.061937675 2.0959251
-0.22242789 0.11125918 2.2767601
-0.49666798 0.21548215 2.1219888
-0.67021286 0.28720179 2.0370753
-0.75276417 0.32016245 1.7552179
-0.84689397 0.35867304 1.5745492
-0.90191364 0.3807056 1.3710777
-0.88216919 0.3714793 1.1159657
-0.87920403 0.36681092 1.0159656
-0.86513376 0.36041901 0.83808416
-0.85523087 0.35577849 0.69190961
-0.85626411 0.35586616 0.57194275
-0.844221 0.35052332 0.45763838
-0.82004482 0.34015727 0.35089597
-0.81683886 0.3384988 0.25934377
-0.80502266 0.33328107 0.1711676
-0.87799942 0.36775401 0.92897052
-0.85261017 0.35660434 0.75648111
-0.84887207 0.35470089 0.62623757
-0.84711438 0.35345384 0.51178247
-0.81994653 0.34178945 0.39831915
-0.81229913 0.33827704 0.30294251
-0.80909574 0.33678284 0.21444833
-0.81164563 0.33752027 0.12913485
-0.030499933 0.026617441 3.1791525
-0.37011093 0.16581152 2.5787168
-0.37221539 0.16398454 1.9789325
-0.62581909 0.27098104 2.2273467
-0.69938838 0.30002668 1.8524343
-0.79338539 0.33844256 1.6480041
-0.92518407 0.3931857 1.549068
-0.89596909 0.37967891 1.2416838
-0.11479611 0.062479176 2.1009169
-0.21871434 0.11033916 2.2419596
-0.48325029 0.21166135 2.0687551
-0.66920626 0.28953955 2.0370753
-0.75164199 0.32278809 1.7552179
-0.84323901 0.36060134 1.5702833
-0.90057921 0.38385153 1.3710777
-0.88086712 0.37455639 1.1159657
-0.8779183 0.36987767 1.0159656
-0.86387038 0.3634367 0.83808416
-0.85398376 0.35876164 0.69190961
-0.85501671 0.35885292 0.57194275
-0.84299231 0.35346806 0.45763838
-0.81885242 0.3430177 0.35089597
-0.81565231 0.34134802 0.25934377
-0.80844897 0.3380101 0.17161468
-0.87671041 0.37081656 0.92897052
-0.85508358 0.36115116 0.75942427
-0.84762877 0.35766184 0.62623757
-0.85424018 0.3599335 0.51597857
-0.82310063 0.34648171 0.39996269
-0.81111336 0.34111047 0.30294251
-0.80791521 0.33960506 0.21444833
-0.81506872 0.34228575 0.12933637
-0.030406835 0.026723744 3.1791525
-0.37165287 0.16806504 2.5935345
-0.3707107 0.16486835 1.9740372
-0.62213439 0.27196729 2.2178028
-0.69833684 0.30246618 1.8524343
-0.79219919 0.34120995 1.6480041
-0.92639178 0.39752272 1.553201
-0.8946383 0.38280413 1.2416838
-0.11457732 0.062879503 2.1009169
-0.21501 0.1093946 2.207159
-0.4698655 0.20774959 2.0155215
-0.66977274 0.2925649 2.0417681
-0.75051069 0.32540986 1.7552179
-0.84197515 0.36354259 1.5702833
-0.90200168 0.38818422 1.3750678
-0.88266939 0.37896657 1.1196409
-0.87662184 0.37293994 1.0159656
-0.86259645 0.36644992 0.83808416
-0.85272622 0.36174041 0.69190961
-0.85375887 0.36183527 0.57194275
-0.84175336 0.35640851 0.45763838
-0.8220681 0.34774289 0.35230598
-0.81898057 0.34610537 0.26027638
-0.80726415 0.34083006 0.17161468
-0.87884432 0.37534127 0.93229604
-0.8538177 0.36413375 0.75942427
-0.8503409 0.36230835 0.62877071
-0.85715479 0.36469012 0.5180766
-0.82188624 0.34935278 0.39996269
-0.80991775 0.34393969 0.30294251
-0.80672485 0.34242314 0.21444833
-0.813869 0.34512877 0.12933637
-0.030313367 0.026829721 3.1791525
-0.36894435 0.16839133 2.5787168
-0.37013295 0.16616137 1.9740372
-0.61298847 0.27051875 2.1891708
-0.69727677 0.30490199 1.8524343
-0.79100335 0.34397316 1.6480041
-0.92499852 0.400754 1.553201
-0.89623886 0.38719606 1.2455213
-0.11435713 0.06327907 2.1009169
-0.2108418 0.10817999 2.1673872
-0.4633995 0.20682417 1.9913243
-0.66874748 0.29490107 2.0417681
-0.74937022 0.32802767 1.7552179
-0.84070098 0.36647943 1.5702833
-0.90064114 0.39133042 1.3750678
-0.88445151 0.38339391 1.123316
-0.8785913 0.37740535 1.0194702
-0.86131209 0.36945873 0.83808416
-0.85145831 0.3647148 0.69190961
-0.8524906 0.36481327 0.57194275
-0.84050411 0.3593446 0.45763838
-0.82084924 0.35061032 0.35230598
-0.81776744 0.34896204 0.26027638
-0.81065059 0.34559891 0.17206176
-0.87752873 0.37840673 0.93229604
-0.85625386 0.3687107 0.76236743
-0.84907103 0.3652744 0.62877071
-0.86004651 0.36947146 0.52017462
-0.82500106 0.35408208 0.4016062
-0.80871224 0.34676471 0.30294251
-0.80552471 0.34523705 0.21444833
-0.81725198 0.34993413 0.12953791
-0.030219529 0.026935371 3.1791525
-0.36694348 0.16902657 2.5688381
-0.36955068 0.16745237 1.9740372
-0.59977049 0.26718616 2.1462228
-0.69620818 0.30733407 1.8524343
-0.78979778 0.34673217 1.6480041
-0.92617214 0.40510836 1.5573338
-0.89488184 0.39032215 1.2455213
-0.11388528 0.063533954 2.0959251
-0.20999065 0.1086681 2.1624155
-0.46152896 0.20792361 1.9864849
-0.6692903 0.29793578 2.0464606
-0.75021166 0.33152166 1.7597191
-0.83941662 0.3694118 1.5702833
-0.90202898 0.39568254 1.3790579
-0.88310784 0.3864789 1.123316
-0.87726855 0.38046992 1.0194702
-0.86001718 0.37246302 0.83808416
-0.85018003 0.36768472 0.69190961
-0.85121197 0.36778679 0.57194275
-0.83924466 0.36227632 0.45763838
-0.81962037 0.35347348 0.35230598
-0.82105565 0.35375825 0.26120901
-0.80943924 0.34842646 0.17206176
-0.87620252 0.38146755 0.93229604
-0.85866833 0.37330908 0.76531059
-0.85174465 0.36995351 0.63130391
-0.86291528 0.37427744 0.52227271
-0.82376009 0.35695973 0.4016062
-0.80749685 0.34958556 0.30294251
-0.80431467 0.34804675 0.21444833
-0.8160255 0.35278472 0.12953791
-0.030125322 0.027040692 3.1791525
-0.36353418 0.16899341 2.5490811
-0.36803827 0.16831714 1.969142
-0.58658332 0.26376465 2.1032753
-0.69513118 0.30976242 1.8524343
-0.78858268 0.34948698 1.6480041
-0.92475235 0.40833884 1.5573338
-0.89351386 0.3934435 1.2455213
-0.11366281 0.063931108 2.0959251
-0.20678164 0.10790729 2.1325865
-0.4585124 0.20849167 1.976806
-0.66824621 0.30027023 2.0464606
-0.74904984 0.33413839 1.7597191
-0.83812201 0.37233967 1.5702833
-0.90339738 0.40004912 1.3830478
-0.88485432 0.39092943 1.1269913
-0.87920189 0.38496047 1.0229747
-0.86227798 0.3770223 0.84122264
-0.85272342 0.37232351 0.69465113
-0.84992301 0.37075582 0.57194275
-0.84222478 0.36705586 0.4595114
-0.82277977 0.35824749 0.35371602
-0.81981581 0.3566221 0.26120901
-0.80821812 0.35124981 0.17206176
-0.87828368 0.38602632 0.93562156
-0.85736001 0.37630412 0.76531059
-0.85044813 0.37292442 0.63130391
-0.86160356 0.37728733 0.52227271
-0.82683527 0.36172581 0.40324971
-0.80627161 0.35240209 0.30294251
-0.80309486 0.35085222 0.21444833
-0.81478906 0.35563105 0.12953791
-0.030030748 0.027145686 3.1791525
-0.36364523 0.17059208 2.5540206
-0.36744851 0.16960081 1.969142
-0.58022285 0.26334122 2.0841873
-0.69404566 0.31218699 1.8524343
-0.78954405 0.35321587 1.6523931
-0.92589146 0.41271025 1.5614668
-0.89213508 0.39656004 1.2455213
-0.1131897 0.06418182 2.0909336
-0.2064037 0.10862844 2.1325865
-0.45778185 0.21009091 1.976806
-0.66562265 0.30188787 2.0417681
-0.74787891 0.33675101 1.7597191
-0.8368172 0.37526298 1.5702833
-0.90474623 0.40443006 1.3870379
-0.8834843 0.39401576 1.1269913
-0.87785274 0.38802707 1.0229747
-0.86095673 0.38002992 0.84122264
-0.85141855 0.37529778 0.69465113
-0.84862357 0.37372038 0.57194275
-0.84093833 0.36999357 0.4595114
-0.82152426 0.36111733 0.35371602
-0.82306355 0.36145687 0.26214162
-0.80698705 0.35406888 0.17206176
-0.87693089 0.38908976 0.93562156
-0.85973668 0.38093215 0.76825374
-0.8530829 0.37763587 0.6338371
-0.86028129 0.38029256 0.52227271
-0.82556754 0.36460978 0.40324971
-0.80948359 0.35717663 0.30411482
-0.80186528 0.3536534 0.21444833
-0.81354272 0.35847303 0.12953791
-0.029909132 0.027215818 3.1741526
-0.36094168 0.1708609 2.5392027
-0.36685425 0.1708824 1.969142
-0.57794315 0.26474285 2.0794153
-0.69295168 0.31460777 1.8524343
-0.7883063 0.35596973 1.6523931
-0.92701137 0.41709456 1.5655998
-0.89366966 0.40098414 1.2493588
-0.11296498 0.064576536 2.0909336
-0.20649293 0.10960041 2.1375582
-0.45590538 0.21115874 1.9719666
-0.66456485 0.3042095 2.0417681
-0.74868059 0.3402606 1.7642204
-0.83550221 0.37818176 1.5702833
-0.90607554 0.40882525 1.3910279
-0.88210362 0.39709732 1.1269913
-0.8797496 0.39254239 1.0264792
-0.85962492 0.38303292 0.84122264
-0.85392362 0.3799676 0.69739258
-0.84731394 0.37668034 0.57194275
-0.84387845 0.37480864 0.46138445
-0.82025868 0.3639828 0.35371602
-0.82628757 0.36631864 0.26307425
-0.80574626 0.35688365 0.17206176
-0.87897485 0.39367485 0.93894702
-0.85840178 0.38393086 0.76825374
-0.85175955 0.38061139 0.6338371
-0.85480404 0.38144359 0.52017462
-0.82860273 0.36941227 0.40489322
-0.80823189 0.36000007 0.30411482
-0.80514979 0.35846448 0.21513902
-0.81228644 0.36131063 0.12953791
-0.029813951 0.027320053 3.1741526
-0.3659493 0.17480466 2.5787168
-0.36625552 0.17216192 1.969142
-0.57566082 0.26613182 2.0746434
-0.69184929 0.31702471 1.8524343
-0.7892381 0.35971284 1.6567822
-0.92811191 0.42149174 1.5697327
-0.89226449 0.40410116 1.2493588
-0.11273888 0.064970464 2.0909336
-0.20610911 0.11032053 2.1375582
-0.45516551 0.21274887 1.9719666
-0.66193241 0.30580327 2.0370753
-0.74748832 0.3428719 1.7642204
-0.83417702 0.38109586 1.5702833
-0.90464294 0.41198558 1.3910279
-0.88071209 0.40017399 1.1269913
-0.87837398 0.39561087 1.0264792
-0.86183232 0.38762802 0.84436107
-0.85259205 0.38294604 0.69739258
-0.85003537 0.38144949 0.57426155
-0.8467952 0.37964872 0.46325746
-0.8189832 0.36684382 0.35371602
-0.82500386 0.36920071 0.26307425
-0.80449557 0.35969406 0.17206176
-0.87759531 0.39674065 0.93894702
-0.85705632 0.38692492 0.76825374
-0.85042578 0.38358223 0.6338371
-0.85346735 0.38442507 0.52017462
-0.82730824 0.37230238 0.40489322
-0.81140345 0.36481243 0.30528715
-0.80389369 0.36127278 0.21513902
-0.81102026 0.36414385 0.12953791
-0.029718403 0.027423959 3.1741526
-0.37862945 0.182504 2.6725626
-0.36749157 0.17431347 1.9789325
-0.58284336 0.27192894 2.1032753
-0.6907385 0.31943777 1.8524343
-0.78797764 0.36246559 1.6567822
-0.92663497 0.4247289 1.5697327
-0.89376348 0.40854606 1.2531964
-0.11226369 0.065215342 2.0859418
-0.20619063 0.11129472 2.1425295
-0.45442012 0.2143364 1.9719666
-0.6577332 0.30665284 2.0276897
-0.74628693 0.34547904 1.7642204
-0.83284169 0.38400537 1.5702833
-0.90593714 0.41639951 1.395018
-0.88239133 0.40465921 1.1306664
-0.88023418 0.40015063 1.0299838
-0.86047405 0.390634 0.84436107
-0.85505831 0.3876465 0.70013404
-0.84869868 0.38441432 0.57426155
-0.84546477 0.38260227 0.46325746
-0.82206863 0.37167671 0.35512605
-0.82371002 0.37207824 0.26307425
-0.80777419 0.36454859 0.17250884
-0.87620503 0.39980158 0.93894702
-0.85570049 0.38991424 0.76825374
-0.84908164 0.38654846 0.6338371
-0.85212022 0.38740188 0.52017462
-0.82600361 0.37518796 0.40489322
-0.81012505 0.36764252 0.30528715
-0.80713743 0.36612242 0.21582969
-0.80974424 0.36697263 0.12953791
-0.029648809 0.027562333 3.1791525
-0.38986328 0.18961293 2.75653
-0.37514377 0.17955765 2.0229895
-0.58999252 0.2777794 2.1319072
-0.68961918 0.32184696 1.8524343
-0.78887975 0.36622271 1.6611712
-0.92770058 0.42914253 1.5738657
-0.89524233 0.41300631 1.2570338
-0.11203536 0.065606825 2.0859418
-0.20580088 0.11201379 2.1425295
-0.45366916 0.21592131 1.9719666
-0.65353614 0.30747685 2.0183041
-0.74507642 0.34808195 1.7642204
-0.83149612 0.3869102 1.5702833
-0.90447813 0.41955927 1.395018
-0.8809734 0.40773687 1.1306664
-0.87883204 0.4032208 1.0299838
-0.85910517 0.39363524 0.84436107
-0.85369998 0.39062884 0.70013404
-0.84735167 0.38737452 0.57426155
-0.84412414 0.38555115 0.46325746
-0.82076621 0.37454399 0.35512605
-0.82687587 0.37698913 0.26400685
-0.80649674 0.36736608 0.17250884
-0.87819558 0.40441972 0.94227254
-0.85800642 0.39458784 0.7711969
-0.84772718 0.38950995 0.6338371
-0.84663785 0.38848108 0.5180766
-0.82468891 0.37806898 0.40489322
-0.81325591 0.37249228 0.30645946
-0.8058545 0.36893761 0.21582969
-0.80845833 0.36979693 0.12953791
-0.029552419 0.02766566 3.1791525
-0.3933824 0.19303021 2.7861655
-0.38368031 0.18530083 2.0719419
-0.59710771 0.28368303 2.1605389
-0.68849152 0.32425222 1.8524343
-0.78759664 0.36897415 1.6611712
-0.92619687 0.43237817 1.5738657
-0.8967008 0.41748181 1.2608713
-0.11180566 0.065997496 2.0859418
-0.20540863 0.11273148 2.1425295
-0.45291272 0.21750361 1.9719666
-0.65090019 0.30901575 2.0136113
-0.74582589 0.35160926 1.7687216
-0.83014053 0.38981029 1.5702833
-0.90300804 0.42271397 1.395018
-0.88261622 0.41224441 1.1343416
-0.87741911 0.40628603 1.0299838
-0.86125869 0.39826554 0.84749955
-0.85233122 0.39360642 0.70013404
-0.84599429 0.39032996 0.57426155
-0.84698325 0.39043623 0.46513051
-0.81945384 0.37740672 0.35512605
-0.82555491 0.37987316 0.26400685
-0.80973423 0.37225917 0.17295592
-0.87677848 0.40748271 0.94227254
-0.85662383 0.39758044 0.7711969
-0.85027307 0.39428031 0.63637024
-0.84527659 0.39143404 0.5180766
-0.8233642 0.38094538 0.40489322
-0.81195068 0.37532881 0.30645946
-0.80456173 0.37174833 0.21582969
-0.8116985 0.37471068 0.12973943
-0.029481737 0.027803635 3.1841521
-0.39966649 0.1978558 2.8355582
-0.38486114 0.18753234 2.0817323
-0.60553473 0.29028541 2.193943
-0.68735552 0.32665351 1.8524343
-0.78630382 0.37172115 1.6611712
-0.92468196 0.4356086 1.5738657
-0.8952381 0.42060935 1.2608713
-0.11132846 0.066236526 2.0809503
-0.20501386 0.11344781 2.1425295
-0.45215073 0.21908323 1.9719666
-0.64826143 0.31054005 2.0089185
-0.74459398 0.35421056 1.7687216
-0.82877475 0.39270565 1.5702833
-0.90425146 0.42715073 1.3990079
-0.88117188 0.41532281 1.1343416
-0.87922639 0.41085628 1.0334884
-0.85986322 0.40126947 0.84749955
-0.85095209 0.39657921 0.70013404
-0.84864241 0.39515066 0.57658035
-0.84561521 0.39339039 0.46513051
-0.81813145 0.38026485 0.35512605
-0.82422382 0.38275257 0.26400685
-0.81294733 0.37717938 0.17340299
-0.87873107 0.41212636 0.94559801
-0.85523081 0.40056819 0.7711969
-0.84889156 0.39724594 0.63637024
-0.84801674 0.39630386 0.52017462
-0.81775069 0.38181919 0.40324971
-0.81504047 0.38021573 0.30763176
-0.80325925 0.37455449 0.21582969
-0.81038558 0.37754175 0.12973943
-0.029384503 0.027906377 3.1841521
-0.40105787 0.20029305 2.8503759
-0.38146386 0.187525 2.0670464
-0.61257917 0.29629961 2.2225749
-0.68621111 0.32905087 1.8524343
-0.78716296 0.37549505 1.6655604
-0.92315578 0.43883365 1.5738657
-0.89666057 0.42510509 1.2647089
-0.11085095 0.066473037 2.0759585
-0.20415236 0.11390083 2.1375582
-0.45138323 0.22066019 1.9719666
-0.65028048 0.31430367 2.0183041
-0.74335301 0.3568075 1.7687216
-0.82739896 0.39559624 1.5702833
-0.9027549 0.43030456 1.3990079
-0.88277823 0.41985247 1.1380167
-0.87778687 0.41392285 1.0334884
-0.86197859 0.405927 0.85063797
-0.85334641 0.40132689 0.70287549
-0.84725791 0.39811057 0.57658035
-0.84423685 0.39633971 0.46513051
-0.82114208 0.38515553 0.35653609
-0.82288277 0.3856273 0.26400685
-0.81613582 0.38212651 0.17385007
-0.87728721 0.4151912 0.94559801
-0.85748166 0.40527844 0.77414006
-0.84749979 0.40020669 0.63637024
-0.84662819 0.39926159 0.52017462
-0.81641293 0.38467136 0.40324971
-0.81370831 0.38305843 0.30763176
-0.80194688 0.37735611 0.21582969
-0.81358397 0.38249382 0.12994097
-0.029312739 0.028043948 3.1891522
-0.40104985 0.20204198 2.8553152
-0.38171884 0.18930849 2.0719419
-0.61422366 0.29974619 2.2321188
-0.6850583 0.33144417 1.8524343
-0.78584743 0.37824047 1.6655604
-0.92161834 0.44205341 1.5738657
-0.89806253 0.42961586 1.2685463
-0.11037314 0.066707015 2.0709667
-0.20329015 0.11434921 2.1325865
-0.45061022 0.22223449 1.9719666
-0.65073037 0.31732842 2.0229971
-0.74210298 0.35940012 1.7687216
-0.82601297 0.39848197 1.5702833
-0.90396279 0.43475938 1.402998
-0.8813073 0.4229314 1.1380167
-0.87955695 0.41851693 1.036993
-0.86407185 0.41060415 0.85377645
-0.85194033 0.40430319 0.70287549
-0.8458631 0.40106565 0.57658035
-0.84284824 0.39928427 0.46513051
-0.81979269 0.38801953 0.35653609
-0.82153165 0.38849735 0.26400685
-0.81479698 0.38497302 0.17385007
-0.87583256 0.41825098 0.94559801
-0.85606176 0.40826914 0.77414006
-0.84609759 0.40316257 0.63637024
-0.8493275 0.40416476 0.52227271
-0.81932986 0.38954657 0.40489322
-0.81675667 0.3879821 0.30880409
-0.80509812 0.38227722 0.21652037
-0.81675762 0.38747278 0.1301425
-0.029214669 0.028146097 3.1891522
-0.40103456 0.20379333 2.8602545
-0.38105571 0.19063978 2.0719419
-0.61049575 0.30056897 2.2225749
-0.68389714 0.33383346 1.8524343
-0.78452235 0.38098127 1.6655604
-0.92260259 0.44649386 1.5779986
-0.89944386 0.43414155 1.2723838
-0.11013962 0.067091882 2.0709667
-0.20242733 0.11479297 2.127615
-0.44983175 0.22380605 1.9719666
-0.65116692 0.32036009 2.0276897
-0.74084395 0.36198837 1.7687216
-0.82461697 0.40136287 1.5702833
-0.90515053 0.43922785 1.406988
-0.88287681 0.42748278 1.1416919
-0.87809074 0.42158461 1.036993
-0.86263329 0.41361782 0.85377645
-0.85429513 0.40908062 0.70561695
-0.84845382 0.40592775 0.57889915
-0.8456319 0.40422338 0.46700355
-0.81843323 0.39087877 0.35653609
-0.82017052 0.3913627 0.26400685
-0.81794339 0.38995799 0.17429715
-0.87773079 0.4229266 0.94892353
-0.85827357 0.41300774 0.77708322
-0.84857023 0.40798163 0.63890344
-0.84791154 0.40712699 0.52227271
-0.81796509 0.3924042 0.40489322
-0.81539738 0.39083079 0.30880409
-0.80375886 0.3850852 0.21652037
-0.81990635 0.39247856 0.13034403
-0.029116241 0.028247904 3.1891522
-0.40101185 0.20554699 2.8651936
-0.38038793 0.19196875 2.0719419
-0.60944277 0.30269814 2.2225749
-0.68272775 0.33621868 1.8524343
-0.78318775 0.38371742 1.6655604
-0.92103839 0.44971162 1.5779986
-0.90080452 0.43868214 1.2762213
-0.10966074 0.067321673 2.065975
-0.20110239 0.11496533 2.117672
-0.44792464 0.22481051 1.9671272
-0.65159029 0.32339874 2.0323825
-0.7395758 0.36457217 1.7687216
-0.82555181 0.40538868 1.5745492
-0.90361178 0.44238475 1.406988
-0.88137919 0.43056196 1.1416919
-0.87982309 0.42620209 1.0404975
-0.86468798 0.41832173 0.85691494
-0.85286194 0.41206017 0.70561695
-0.84703171 0.40888691 0.57889915
-0.84421575 0.40717271 0.46700355
-0.81706387 0.39373326 0.35653609
-0.81879944 0.39422324 0.26400685
-0.8165772 0.39281079 0.17429715
-0.87960708 0.42762056 0.95224905
-0.85682666 0.41600114 0.77708322
-0.84714091 0.41094121 0.63890344
-0.85056955 0.41206312 0.52437073
-0.82084072 0.39731449 0.40653673
-0.81840384 0.3957909 0.3099764
-0.80686814 0.39004382 0.21721105
-0.81853139 0.39533818 0.13034403
-0.029017461 0.028349366 3.1891522
-0.40098181 0.20730299 2.8701329
-0.38062254 0.19375794 2.0768368
-0.60704809 0.30415457 2.2178028
-0.68154991 0.33859977 1.8524343
-0.78399044 0.38751051 1.6699494
-0.9219873 0.45416766 1.5821315
-0.89926773 0.44182387 1.2762213
-0.10942508 0.067704044 2.065975
-0.2002393 0.11539824 2.1127005
-0.44713715 0.22637267 1.9671272
-0.65200031 0.32644418 2.0370753
-0.74024779 0.36812121 1.7732228
-0.82413167 0.40826792 1.5745492
-0.90476364 0.44687086 1.410978
-0.88291168 0.43513483 1.145367
-0.87833005 0.42927065 1.0404975
-0.86322248 0.42133752 0.85691494
-0.85517699 0.41686711 0.70835841
-0.84958178 0.41378093 0.58121794
-0.84695786 0.41214573 0.46887657
-0.81999862 0.39868057 0.35794613
-0.82183683 0.39922541 0.26493949
-0.8152011 0.39565876 0.17429715
-0.87810898 0.43068835 0.95224905
-0.85899913 0.42076772 0.78002638
-0.84957319 0.41579092 0.64143664
-0.84912604 0.41502967 0.52437073
-0.82369196 0.4022496 0.40818024
-0.81701732 0.39864525 0.3099764
-0.8055017 0.39285791 0.21721105
-0.82163745 0.40038145 0.13054556
-0.028918326 0.028450483 3.1891522
-0.40094438 0.20906126 2.8750722
-0.38084933 0.19555113 2.0817323
-0.60598272 0.3062717 2.2178028
-0.68036383 0.34097677 1.8524343
-0.78263301 0.39024478 1.6699494
-0.92039633 0.45738322 1.5821315
-0.90059173 0.44638386 1.2800589
-0.10894514 0.067929633 2.0609834
-0.19937564 0.11582651 2.107729
-0.44522506 0.22735988 1.9622878
-0.65239704 0.32949644 2.0417681
-0.7389583 0.37070289 1.7732228
-0.82270157 0.4111422 1.5745492
-0.90589517 0.45137039 1.414968
-0.88138741 0.43821409 1.145367
-0.88002473 0.43391129 1.0440021
-0.86174655 0.42434815 0.85691494
-0.85371667 0.41984966 0.70835841
-0.84813225 0.41674402 0.58121794
-0.845514 0.41509965 0.46887657
-0.81860191 0.40154046 0.35794613
-0.82043827 0.40209171 0.26493949
-0.813815 0.39850193 0.17429715
-0.87660027 0.4337509 0.95224905
-0.85752517 0.42376363 0.78002638
-0.84811664 0.41875395 0.64143664
-0.8476721 0.41799113 0.52437073
-0.82651877 0.40720949 0.40982375
-0.81562078 0.40149474 0.3099764
-0.80856878 0.39785364 0.21790172
-0.82023484 0.40324703 0.13054556
-0.02881884 0.028551254 3.1891522
-0.40089959 0.21082182 2.8800116
-0.38016441 0.19687936 2.0817323
-0.60623956 0.30906349 2.2225749
-0.67916948 0.34334961 1.8524343
-0.78340542 0.39405078 1.6743385
-0.91879416 0.46059322 1.5821315
-0.90189487 0.45095846 1.2838963
-0.10870735 0.068309508 2.0609834
-0.19851144 0.11625018 2.1027575
-0.44442874 0.22891262 1.9622878
-0.65278029 0.33255541 2.0464606
-0.73960209 0.37426332 1.777724
-0.8235901 0.41518572 1.5788151
-0.90700632 0.45588326 1.4189581
-0.88288265 0.44280818 1.1490422
-0.87850475 0.43698052 1.0440021
-0.86374587 0.42908555 0.86005342
-0.85599154 0.42468569 0.71109986
-0.85064125 0.4216696 0.58353674
-0.84821415 0.4201062 0.47074962
-0.81719536 0.40439546 0.35794613
-0.81902969 0.40495315 0.26493949
-0.812419 0.40134025 0.17429715
-0.87842149 0.43847594 0.95557451
-0.85604072 0.42675436 0.78002638
-0.84664971 0.42171189 0.64143664
-0.84620792 0.42094752 0.52437073
-0.82509232 0.41009206 0.40982375
-0.81421435 0.40433934 0.3099764
-0.8071751 0.40067363 0.21790172
-0.81882221 0.40610775 0.13054556
-0.028719002 0.028651677 3.1891522
-0.40016124 0.21221994 2.8800116
-0.37947488 0.19820517 2.0817323
-0.59984797 0.30844575 2.2034869
-0.67970705 0.34660611 1.8570368
-0.78202516 0.39678296 1.6743385
-0.91969192 0.46506771 1.5862645
-0.90031517 0.45410392 1.2838963
-0.10846825 0.068688549 2.0609834
-0.19810444 0.11694241 2.1027575
-0.44251183 0.22988257 1.9574484
-0.65315026 0.33562112 2.0511537
-0.73829114 0.37684274 1.777724
