# .PCD v0.7 - Point Cloud Data file format
VERSION 0.7
FIELDS x y z
SIZE 4 4 4
TYPE F F F
COUNT 1 1 1
WIDTH 1401
HEIGHT 1
VIEWPOINT 0 0 0 1 0 0 0
POINTS 1401
DATA ascii
-0.99744111 -0.76530731 3.4730618
-0.98542064 -0.76041257 2.6374559
-0.96029609 -0.743406 2.0565996
-0.94478673 -0.73322326 1.6583595
-0.9109149 -0.70819515 1.3291253
-0.91022623 -0.71250522 1.2157247
-0.88169181 -0.69090325 0.98559165
-0.8735612 -0.68525809 0.81253409
-0.86179304 -0.67650354 0.66005719
-0.84642595 -0.66490906 0.52319455
-0.84881061 -0.66725165 0.40729728
-0.83007103 -0.65298337 0.29198545
-0.81373739 -0.64058483 0.18592121
-0.90050077 -0.70286113 1.0985711
-0.8747527 -0.68349051 0.89186651
-0.87077624 -0.68086368 0.73516428
-0.85860974 -0.67206621 0.59150839
-0.83688146 -0.65552109 0.45912904
-0.82641912 -0.64778215 0.34397361
-0.81046081 -0.6354956 0.23585941
-0.80945826 -0.6351561 0.13518077
-0.364445 -0.2702789 2.8849509
-0.46606305 -0.35006142 2.8258069
-0.72313708 -0.55054325 2.9526882
-1.0132608 -0.77685094 3.0675008
-0.96618378 -0.74394244 2.3019767
-0.95825595 -0.7399435 1.8507732
-0.93435508 -0.72303104 1.4911215
-0.16339773 -0.10172192 3.1691318
-0.59168887 -0.44650257 2.8914573
-1.0014794 -0.7628665 3.4777546
-0.9863407 -0.75564438 2.6329546
-0.9628852 -0.74004942 2.0565996
-0.94495332 -0.728082 1.6543695
-0.91069764 -0.70293981 1.3254501
-0.90989178 -0.70713526 1.2122202
-0.88102597 -0.68543142 0.98245323
-0.87264889 -0.67963547 0.80979264
-0.86414927 -0.67349124 0.66005719
-0.84874183 -0.66195047 0.52319455
-0.84735286 -0.66133332 0.40588725
-0.82847387 -0.64705831 0.29105285
-0.81204474 -0.63467377 0.18547413
-0.90294868 -0.69971347 1.0985711
-0.87393939 -0.67795551 0.88892335
-0.86974233 -0.67517656 0.73263109
-0.85736674 -0.66628015 0.58941036
-0.83916456 -0.65259576 0.45912904
-0.82483929 -0.64190829 0.3428013
-0.80876654 -0.62962067 0.23516873
-0.81167042 -0.63232666 0.13518077
-0.3672646 -0.27038538 2.8997686
-0.46728218 -0.34843242 2.8258069
-0.72386342 -0.54711592 2.9479165
-1.012857 -0.77094322 3.0582957
-0.96496898 -0.73765659 2.2931986
-0.95636612 -0.73317021 1.8425074
-0.92924756 -0.71390748 1.479609
-0.16449262 -0.10159959 3.1841068
-0.59324384 -0.44443449 2.8914573
-1.0068892 -0.76144743 3.4871402
-0.98550665 -0.74956149 2.6239522
-0.9633891 -0.73510194 2.0523336
-0.94270211 -0.72111785 1.6463894
-0.91045481 -0.69769478 1.321775
-0.909531 -0.70177644 1.2087157
-0.88033271 -0.67997277 0.97931474
-0.87170798 -0.67402762 0.80705118
-0.86299121 -0.66775984 0.65773833
-0.84738165 -0.65614557 0.52132148
-0.8458643 -0.65543336 0.40447721
-0.83072746 -0.64416242 0.29105285
-0.81425524 -0.63183534 0.18547413
-0.90242624 -0.6942808 1.0952456
-0.87630057 -0.67490077 0.88892335
-0.86867934 -0.66950512 0.73009789
-0.85968733 -0.66328335 0.58941036
-0.83769971 -0.64677685 0.45748553
-0.8232286 -0.63605344 0.34162897
-0.81095946 -0.62679374 0.23516873
-0.80992085 -0.62643301 0.13497925
-0.37071708 -0.27093342 2.9195256
-0.46767685 -0.34619379 2.8209114
-0.7257688 -0.54458576 2.9479165
-1.0124242 -0.76504767 3.0490906
-0.96563011 -0.73283607 2.2888095
-0.95668012 -0.72812331 1.8383743
-0.92153931 -0.70288467 1.464259
-0.16534117 -0.10132215 3.1940901
-0.59479159 -0.44236094 2.8914573
-1.0123014 -0.75999987 3.4965255
-0.98464221 -0.74349356 2.6149497
-0.96387017 -0.73015994 2.0480678
-0.94041389 -0.71417838 1.6384094
-0.91018641 -0.69245988 1.3180997
-0.90914392 -0.69642878 1.2052112
-0.88270086 -0.67689568 0.97931474
-0.87405545 -0.67098069 0.80705118
-0.86531687 -0.66474336 0.65773833
-0.84966689 -0.65318364 0.52132148
-0.84434479 -0.64955181 0.4030672
-0.8290785 -0.63826221 0.29012021
-0.81251073 -0.62595004 0.18502705
-0.90187693 -0.68886024 1.09192
-0.87544012 -0.66938281 0.88598019
-0.86758739 -0.66384929 0.72756475
-0.85839432 -0.65751863 0.58731234
-0.83995223 -0.64384878 0.45748553
-0.8254438 -0.63317591 0.34162897
-0.80921364 -0.6209445 0.23447806
-0.81210262 -0.62360203 0.13497925
-0.37417784 -0.27146059 2.9392827
-0.46888247 -0.34455916 2.8209114
-0.72646809 -0.5411576 2.9431443
-1.0103998 -0.75799233 3.0352831
-0.96435642 -0.72657895 2.2800314
-0.95697069 -0.7230832 1.8342415
-0.91887635 -0.69579411 1.4565841
-0.16643776 -0.10118786 3.209065
-0.59633207 -0.44028208 2.8914573
-1.0177157 -0.75852376 3.5059111
-0.98548943 -0.7387464 2.6104486
-0.96224403 -0.72365624 2.039536
-0.94049495 -0.70907754 1.6344193
-0.90989262 -0.68723541 1.3144246
-0.90873069 -0.69109249 1.2017065
-0.88196129 -0.67145276 0.97617632
-0.87306643 -0.66539103 0.80430973
-0.86410964 -0.65903246 0.65541953
-0.84825647 -0.64740127 0.51944846
-0.83898216 -0.64077717 0.4002471
-0.83130139 -0.63536429 0.29012021
-0.81469077 -0.62311 0.18502705
-0.90130061 -0.68345195 1.0885946
-0.87455165 -0.66387904 0.88303697
-0.86646652 -0.65820926 0.72503155
-0.86068422 -0.65451837 0.58731234
-0.83843666 -0.63805324 0.45584202
-0.82378197 -0.62734598 0.34045666
-0.81137621 -0.61811602 0.23447806
-0.8103013 -0.61773461 0.13477771
-0.37638494 -0.27105987 2.9491611
-0.47008234 -0.34292039 2.8209114
-0.72835261 -0.53861845 2.9431443
-1.0099056 -0.75212729 3.026078
-0.96496868 -0.72177392 2.2756422
-0.95723766 -0.71804988 1.8301084
-0.92129946 -0.69258243 1.4565841
-0.16803241 -0.10134105 3.2340233
-0.59685123 -0.43745509 2.8866179
-1.0217446 -0.75599283 3.5106039
-0.98456901 -0.73270291 2.6014462
-0.96267426 -0.71873283 2.03527
-0.9381395 -0.70217949 1.6264393
-0.90957355 -0.68202156 1.3107494
-0.90829128 -0.68576747 1.198202
-0.88119441 -0.66602325 0.97303784
-0.87204921 -0.65981662 0.80156827
-0.86287314 -0.65333831 0.65310073
-0.85051113 -0.64443636 0.51944846
-0.8373912 -0.63494641 0.39883706
-0.82960087 -0.62948936 0.28918761
-0.81289464 -0.61725086 0.18457997
-0.90368086 -0.68030167 1.0885946
-0.87363559 -0.65838963 0.88009381
-0.86875892 -0.65518075 0.72503155
-0.85934144 -0.64877546 0.58521426
-0.836891 -0.63227624 0.45419851
-0.82208955 -0.62153536 0.33928433
-0.8135289 -0.61528003 0.23447806
-0.81245267 -0.61490238 0.13477771
-0.38049129 -0.27200097 2.9738574
-0.47127646 -0.34127739 2.8209114
-0.72902483 -0.53518969 2.9383724
-1.0078115 -0.74511367 3.0122702
-0.96555936 -0.7169736 2.2712533
-0.95748121 -0.71302354 1.8259755
-0.92371142 -0.68936229 1.4565841
-0.16838513 -0.10075388 3.2340233
-0.59634131 -0.43389064 2.8769391
-1.0257683 -0.75344312 3.5152967
-0.9836185 -0.72667497 2.5924437
-0.96098632 -0.71226251 2.0267382
-0.93816608 -0.6971035 1.6224493
-0.91194874 -0.67884243 1.3107494
-0.90497196 -0.67831528 1.191193
-0.88351393 -0.66294324 0.97303784
-0.87100369 -0.65425736 0.79882681
-0.86160737 -0.64766073 0.65078193
-0.8490507 -0.63867694 0.51757544
-0.83576995 -0.6291346 0.39742702
-0.83179319 -0.62658972 0.28918761
-0.81106764 -0.61141181 0.18413289
-0.90305912 -0.6749081 1.0852691
-0.87269205 -0.65291488 0.87715065
-0.86758977 -0.64956075 0.72249836
-0.86160082 -0.64577186 0.58521426
-0.83909291 -0.62935102 0.45419851
-0.82036668 -0.61574423 0.33811203
-0.81171161 -0.60946321 0.23378737
-0.81060004 -0.60906154 0.13457619
-0.3789022 -0.26887473 2.9541004
-0.47246489 -0.33963025 2.8209114
-0.72968197 -0.53176278 2.9336004
-1.007256 -0.73927969 3.0030653
-0.96612823 -0.71217793 2.2668641
-0.95770127 -0.7080043 1.8218426
-0.92611217 -0.68613368 1.4565841
-0.16698924 -0.099148966 3.1990817
-0.59683299 -0.43107072 2.8720996
-1.028392 -0.74985784 3.5152967
-0.98263794 -0.72066253 2.5834413
-0.961366 -0.7073583 2.0224721
-0.94059372 -0.69382441 1.6224493
-0.91158611 -0.67364025 1.3070743
-0.90447301 -0.67302334 1.1876884
-0.8827011 -0.65753013 0.96989942
-0.86992997 -0.64871347 0.7960853
-0.86031258 -0.64200002 0.64846313
-0.84756041 -0.63293552 0.51570243
-0.83411825 -0.62334186 0.39601701
-0.83004135 -0.62074047 0.28825498
-0.80920988 -0.6055932 0.18368581
-0.90241081 -0.66952711 1.0819435
-0.87172079 -0.64745468 0.8742075
-0.8663919 -0.6439569 0.71996522
-0.86020857 -0.64005125 0.58311623
-0.83749706 -0.6235981 0.452555
-0.81861335 -0.60997266 0.33693972
-0.81383407 -0.60662609 0.23378737
-0.81272113 -0.60622835 0.13457619
-0.37602469 -0.26486915 2.9244649
-0.47364753 -0.33797896 2.8209114
-0.73153377 -0.52921247 2.9336004
-1.0050932 -0.73230851 2.9892578
-0.96667534 -0.70738697 2.2624753
-0.95789814 -0.70299232 1.8177097
-0.9310838 -0.68479574 1.4604216
-0.16483419 -0.097122006 3.1491649
-0.59833407 -0.42898476 2.8720996
-1.0310032 -0.74626356 3.5152967
-0.98162735 -0.71466595 2.5744388
-0.95961696 -0.70092207 2.0139403
-0.94057858 -0.68875682 1.6184592
-0.91393203 -0.6704542 1.3070743
-0.90394819 -0.66774327 1.1841838
-0.88186121 -0.65213078 0.96676093
-0.86882836 -0.64318514 0.79334384
-0.85898882 -0.63635617 0.64614433
-0.84604037 -0.62721235 0.51382935
-0.83628905 -0.62042642 0.39601701
-0.82825893 -0.6149112 0.28732237
-0.81131893 -0.60276479 0.18368581
-0.90173602 -0.66415894 1.078618
-0.87397552 -0.64440793 0.8742075
-0.86516565 -0.63836944 0.71743202
-0.85878682 -0.63434821 0.58101815
-0.83966869 -0.62067086 0.452555
-0.8168298 -0.60422093 0.33576739
-0.81594664 -0.60378158 0.23378737
-0.81483227 -0.60338771 0.13457619
-0.37503541 -0.26222095 2.909647
-0.4748244 -0.33632359 2.8209114
-0.73337656 -0.52665573 2.9336004
-1.004477 -0.72650611 2.9800527
-0.96720082 -0.7026009 2.258086
-0.95807159 -0.6979875 1.8135767
-0.93346852 -0.68154144 1.4604216
-0.16692582 -0.097550347 3.1841068
-0.59880352 -0.42616507 2.8672602
-1.033602 -0.74266016 3.5152967
-0.9823516 -0.70996016 2.5699377
-0.95994622 -0.69603729 2.0096743
-0.94297707 -0.68546945 1.6184592
-0.91352618 -0.66526425 1.3033991
-0.90339756 -0.66247505 1.1806793
-0.88413227 -0.64904851 0.96676093
-0.86769873 -0.63767236 0.79060239
-0.85763609 -0.63072956 0.64382553
-0.84822458 -0.62425524 0.51382935
-0.83844966 -0.61750346 0.39601701
-0.826446 -0.60910201 0.28638974
-0.80941021 -0.59697318 0.18323873
-0.90103465 -0.65880358 1.0752926
-0.87295783 -0.63896596 0.87126434
-0.86738873 -0.63534558 0.71743202
-0.85733587 -0.62866294 0.57892013
-0.83802289 -0.61494249 0.45091146
-0.81893396 -0.60136598 0.33576739
-0.81405824 -0.59799808 0.23309669
-0.81693351 -0.60053974 0.13457619
-0.37275481 -0.25869805 2.8849509
-0.47599554 -0.33466408 2.8209114
-0.73521054 -0.52409256 2.9336004
-1.0022454 -0.71957779 2.9662452
-0.96576202 -0.69641924 2.2493079
-0.95822179 -0.69299006 1.8094438
-0.93843716 -0.68015969 1.464259
-0.16726531 -0.096967071 3.1841068
-0.27354679 -0.17137577 2.9677992
-0.60131437 -0.42479718 2.8720996
-1.036188 -0.73904771 3.5152967
-0.98128593 -0.70398915 2.5609353
-0.9581362 -0.68963546 2.0011425
-0.94292045 -0.68041056 1.6144693
-0.91584283 -0.66207141 1.3033991
-0.90282124 -0.65721899 1.1771748
-0.88324672 -0.64366615 0.96362251
-0.86654115 -0.63217533 0.78786093
-0.85983253 -0.62773198 0.64382553
-0.84665507 -0.61855584 0.51195633
-0.83672744 -0.61174172 0.39460698
-0.82460266 -0.60331297 0.28545713
-0.80747086 -0.59120226 0.18279165
-0.90030694 -0.65346128 1.071967
-0.87191284 -0.63353902 0.86832118
-0.86611456 -0.62977886 0.71489882
-0.85585558 -0.62299562 0.57682204
-0.8401643 -0.61201346 0.45091146
-0.81710029 -0.59564048 0.33459508
-0.81614071 -0.5951528 0.23309669
-0.81498921 -0.5947395 0.13437465
-0.37365556 -0.2573953 2.8849509
-0.47632551 -0.33241823 2.8160164
-0.73825413 -0.52238494 2.9383724
-1.0015689 -0.71380758 2.9570401
-0.96623957 -0.69165009 2.2449188
-0.95606285 -0.68635929 1.8011779
-0.93820375 -0.67500806 1.4604216
-0.16860883 -0.096949495 3.2040734
-0.27414331 -0.17041986 2.9677992
-0.60382295 -0.42341694 2.8769391
-1.0387615 -0.73542619 3.5152967
-0.98019052 -0.69803435 2.5519328
-0.95841551 -0.68477082 1.9968767
-0.94528979 -0.67711496 1.6144693
-0.91539389 -0.65689421 1.299724
-0.9022193 -0.65197486 1.1736702
-0.88548815 -0.6405791 0.96362251
-0.86535591 -0.62669426 0.78511947
-0.86201847 -0.62472677 0.64382553
-0.84880906 -0.61559665 0.51195633
-0.83497548 -0.60599977 0.39319694
-0.82670355 -0.60043085 0.28545713
-0.80952966 -0.5883801 0.18279165
-0.899553 -0.64813215 1.0686415
-0.87411898 -0.63049161 0.86832118
-0.86481214 -0.62422884 0.71236569
-0.85802507 -0.6200043 0.57682204
-0.83846897 -0.60631013 0.44926795
-0.81917447 -0.59278464 0.33459508
-0.81420183 -0.58939654 0.23240602
-0.81706023 -0.59189099 0.13437465
-0.37390998 -0.25565144 2.8800116
-0.47748297 -0.33075354 2.8160164
-0.74007314 -0.51980478 2.9383724
-1.0008644 -0.70805085 2.947835
-0.96669549 -0.68688595 2.2405298
-0.95616108 -0.68138486 1.7970449
-0.93272889 -0.66614103 1.448909
-0.17045824 -0.097205386 3.2340233
-0.27610052 -0.17029674 2.9827137
-0.60632914 -0.42202437 2.8817785
-1.0413222 -0.73179573 3.5152967
-0.97906566 -0.69209582 2.5429304
-0.95867246 -0.67991257 1.9926107
-0.94519168 -0.67206526 1.6104792
-0.91215855 -0.64976132 1.2923737
-0.90159172 -0.646743 1.1701657
-0.88455713 -0.63521403 0.96048403
-0.86753821 -0.62366974 0.78511947
-0.86059791 -0.61912709 0.64150673
-0.84719032 -0.60992151 0.51008332
-0.83708566 -0.60308146 0.39319694
-0.82480979 -0.59466869 0.2845245
-0.80754 -0.58263689 0.18234457
-0.89877284 -0.64281625 1.065316
-0.87302804 -0.62508368 0.86537802
-0.86698586 -0.62120628 0.71236569
-0.8564961 -0.61436021 0.57472402
-0.84058022 -0.60337967 0.44926795
-0.81729102 -0.58708596 0.33342275
-0.8162542 -0.58655089 0.23240602
-0.81912136 -0.58903533 0.13437465
-0.37480009 -0.2543447 2.8800116
-0.47863463 -0.32908478 2.8160164
-0.7406584 -0.51636487 2.9336004
-1.0001318 -0.70230788 2.9386299
-0.96517265 -0.68074691 2.2317514
-0.9562363 -0.67641819 1.792912
-0.92720366 -0.6573205 1.4373965
-0.1707965 -0.096609786 3.2340233
-0.27077022 -0.16573492 2.9180841
-0.60779858 -0.4199053 2.8817785
-1.0438703 -0.72815639 3.5152967
-0.97791123 -0.68617368 2.5339279
-0.95677453 -0.67355973 1.9840788
-0.94506991 -0.66702449 1.6064892
-0.91165292 -0.64461625 1.2886984
-0.90093857 -0.6415236 1.1666611
-0.88359946 -0.62986332 0.9573456
-0.86630625 -0.61820894 0.78237802
-0.86275381 -0.61611927 0.64150673
-0.84931415 -0.60696054 0.51008332
-0.83528376 -0.59736538 0.3917869
-0.82688051 -0.59178597 0.2845245
-0.80956888 -0.57981449 0.18234457
-0.89796656 -0.6375137 1.0619905
-0.87520468 -0.6220324 0.86537802
-0.86563593 -0.61567771 0.70983243
-0.85493821 -0.60873449 0.57262594
-0.83883548 -0.59770161 0.44762444
-0.81933534 -0.58422953 0.33342275
-0.81426513 -0.58082241 0.23171534
-0.81710619 -0.58326983 0.13417313
-0.37504074 -0.25260136 2.8750722
-0.48062176 -0.32798555 2.8209114
-0.74245632 -0.5137763 2.9336004
-0.99937159 -0.69657856 2.929425
-0.96558088 -0.6760003 2.2273624
-0.95398515 -0.66984236 1.7846459
-0.92424965 -0.65039116 1.4297215
-0.16986778 -0.095317617 3.209065
-0.26997736 -0.16396344 2.9031699
-0.60926062 -0.41778114 2.8817785
-1.0449867 -0.72352606 3.5106039
-0.97672749 -0.68026799 2.5249257
-0.95698202 -0.66872227 1.979813
-0.94492447 -0.66199273 1.6024991
-0.9111225 -0.63948268 1.2850233
-0.90317237 -0.63837475 1.1666611
-0.88261527 -0.6245271 0.95420712
-0.86845893 -0.61518127 0.78237802
-0.86128521 -0.61054224 0.63918799
-0.84764653 -0.60130996 0.5082103
-0.83345211 -0.5916692 0.39037687
-0.82894123 -0.58889598 0.2845245
-0.80752903 -0.57409954 0.18189749
-0.90018648 -0.63437539 1.0619905
-0.87406772 -0.61664361 0.86243486
-0.86425805 -0.61016619 0.70729923
-0.85705787 -0.60574645 0.57262594
-0.84091669 -0.59476984 0.44762444
-0.81740224 -0.57855785 0.33225045
-0.81628764 -0.57797652 0.23171534
-0.81506085 -0.57752573 0.13397159
-0.37527388 -0.25085947 2.8701329
-0.48176372 -0.32630584 2.8209114
-0.74424517 -0.51118153 2.9336004
-0.99858356 -0.69086325 2.9202199
-0.96596783 -0.67125922 2.2229733
-0.95400888 -0.66489953 1.780513
-0.91863084 -0.64165521 1.418209
-0.16842522 -0.093756728 3.1741235
-0.27146313 -0.16356705 2.9131126
-0.61071521 -0.41565186 2.8817785
-1.0446613 -0.71791959 3.5012183
-0.97551441 -0.67437899 2.5159233
-0.95502418 -0.66240537 1.9712811
-0.94228148 -0.65525001 1.5945191
-0.90778559 -0.63242292 1.277673
-0.90247571 -0.63317019 1.1631566
-0.88160467 -0.61920542 0.95106864
-0.86718029 -0.60974103 0.77963656
-0.86341119 -0.60753208 0.63918799
-0.84974027 -0.59834749 0.5082103
-0.8355124 -0.58875632 0.39037687
-0.8309918 -0.58599883 0.2845245
-0.80952811 -0.57127726 0.18189749
-0.89933574 -0.62908924 1.058665
-0.87290382 -0.61127043 0.85949171
-0.86285239 -0.6046719 0.70476609
-0.8554517 -0.60014474 0.57052791
-0.83912289 -0.58911765 0.44598094
-0.81543958 -0.57290685 0.33107814
-0.81424862 -0.57227612 0.23102465
-0.81298542 -0.57180303 0.13377006
-0.3754994 -0.24911901 2.8651936
-0.48289979 -0.32462221 2.8209114
-0.74479145 -0.50774002 2.9288285
-0.99776769 -0.68516189 2.9110148
-0.96436185 -0.66516405 2.2141953
-0.9516952 -0.65836376 1.7722472
-0.920865 -0.63844466 1.418209
-0.16646594 -0.091932468 3.1291983
-0.27249092 -0.16289037 2.9180841
-0.61320424 -0.41422081 2.8866179
-1.0443095 -0.71232426 3.4918327
-0.97427213 -0.66850668 2.5069206
-0.95518225 -0.6575889 1.967015
-0.94208294 -0.65024537 1.5905291
-0.90719903 -0.62732226 1.2739978
-0.90175372 -0.62797821 1.1596521
-0.88056755 -0.61389834 0.94793022
-0.86930341 -0.60671026 0.77963656
-0.86189491 -0.60197818 0.63686919
-0.84802389 -0.59272194 0.50633723
-0.83363152 -0.58308685 0.38896683
-0.83303225 -0.5830946 0.2845245
-0.8115173 -0.56844801 0.18189749
-0.90152621 -0.62594616 1.058665
-0.87503225 -0.60821968 0.85949171
-0.86495787 -0.60165632 0.70476609
-0.85754138 -0.59715497 0.57052791
-0.83729994 -0.58348531 0.44433743
-0.81344754 -0.56727672 0.32990581
-0.81217986 -0.56659716 0.23033397
-0.81088001 -0.56610179 0.13356853
-0.37636667 -0.24780676 2.8651936
-0.48403001 -0.3229346 2.8209114
-0.74655932 -0.50513709 2.9288285
-0.99530977 -0.67837453 2.8972073
-0.96470135 -0.66044092 2.209806
-0.95166755 -0.65344507 1.7681142
-0.92308795 -0.63522637 1.418209
-0.1665314 -0.091214404 3.1242065
-0.27351728 -0.16220851 2.9230556
-0.61360216 -0.41137818 2.8817785
-1.0439314 -0.70674008 3.4824471
-0.97480029 -0.66387665 2.5024195
-0.95531845 -0.65277958 1.9627492
-0.93937504 -0.64354724 1.5825491
-0.90658796 -0.62223351 1.2703226
-0.90394032 -0.62482667 1.1596521
-0.88270509 -0.61082083 0.94793022
-0.86797863 -0.60129118 0.77689505
-0.86035031 -0.59644222 0.63455039
-0.84627873 -0.58711582 0.50446421
-0.83172125 -0.5774377 0.38755682
-0.8310284 -0.57738042 0.2835919
-0.80940783 -0.56276894 0.18145041
-0.90063101 -0.62067682 1.0553395
-0.87382287 -0.60286629 0.85654855
-0.86350518 -0.59618425 0.7022329
-0.85588706 -0.59157753 0.56842989
-0.83544785 -0.57787275 0.44269392
-0.81542271 -0.56443381 0.32990581
-0.81415272 -0.56375861 0.23033397
-0.81285113 -0.56326783 0.13356853
-0.37657857 -0.24606706 2.8602545
-0.48515433 -0.32124305 2.8209114
-0.74707854 -0.50169611 2.9240563
-0.99443507 -0.67270726 2.8880022
-0.96501988 -0.65572369 2.2054172
-0.95161724 -0.6485346 1.7639813
-0.9252997 -0.63200033 1.418209
-0.16480958 -0.08954829 3.0842733
-0.27408183 -0.16125277 2.9230556
-0.61503434 -0.40923381 2.8817785
-1.0435269 -0.70116729 3.4730618
-0.97350436 -0.65803206 2.493417
-0.95543259 -0.64797717 1.9584832
-0.93912381 -0.63857019 1.578559
-0.90595245 -0.61715662 1.2666475
-0.90317506 -0.61965013 1.1561475
-0.88162339 -0.60553241 0.94479173
-0.87007231 -0.59825772 0.77689505
-0.86242706 -0.59343541 0.63455039
-0.84450471 -0.58152902 0.50259119
-0.82978177 -0.57180905 0.38614678
-0.83303881 -0.57447612 0.2835919
-0.81136733 -0.55994016 0.18145041
-0.90279216 -0.61752921 1.0553395
-0.87258679 -0.59752876 0.85360539
-0.86558098 -0.59316641 0.7022329
-0.85420424 -0.58601892 0.5663318
-0.83356678 -0.57228035 0.44105041
-0.81338179 -0.55883157 0.3287335
-0.81203449 -0.55810839 0.22964329
-0.81069607 -0.55759591 0.133367
-0.37743524 -0.24475105 2.8602545
-0.48627272 -0.31954756 2.8209114
-0.74758303 -0.49825776 2.9192846
-0.99353284 -0.6670543 2.8787971
-0.96333122 -0.64967322 2.1966388
-0.95154428 -0.64363247 1.7598482
-0.92750019 -0.62876654 1.418209
-0.16767487 -0.090318866 3.1341898
-0.27372041 -0.15976091 2.9131126
-0.61645913 -0.40708447 2.8817785
-1.0430964 -0.69560599 3.4636762
-0.97217941 -0.65220469 2.4844146
-0.95552504 -0.64318204 1.9542174
-0.93635142 -0.63191718 1.5705789
-0.90529263 -0.61209172 1.2629722
-0.90238464 -0.61448658 1.152643
-0.88051546 -0.60025901 0.94165331
-0.86870146 -0.59286004 0.77415359
-0.86083513 -0.58792317 0.63223159
-0.84270185 -0.57596171 0.50071812
-0.82781321 -0.56620097 0.38473675
-0.83098537 -0.5687902 0.28265926
-0.80920839 -0.55429029 0.18100333
-0.90185302 -0.61227703 1.052014
-0.87466723 -0.59447926 0.85360539
-0.86764628 -0.59014136 0.7022329
-0.85249311 -0.58047932 0.56423378
-0.83555931 -0.56936717 0.44105041
-0.81532753 -0.55598897 0.3287335
-0.80988681 -0.5524798 0.2289526
-0.81263751 -0.5547626 0.133367
-0.37763348 -0.24301217 2.8553152
-0.48738518 -0.31784824 2.8209114
-0.74807256 -0.49482191 2.9145124
-0.99260348 -0.66141593 2.869592
-0.96360266 -0.64497465 2.1922498
-0.95144862 -0.63873869 1.7557154
-0.92968929 -0.62552518 1.418209
-0.16594239 -0.088663027 3.0942566
-0.27473867 -0.15906994 2.9180841
-0.61577326 -0.40355283 2.8720996
-1.0426399 -0.69005626 3.4542906
-0.97263795 -0.64760089 2.4799132
-0.95559549 -0.63839418 1.9499513
-0.93604779 -0.6269682 1.5665889
-0.90742368 -0.60892797 1.2629722
-0.90156943 -0.6093362 1.1491385
-0.88260543 -0.59718174 0.94165331
-0.87076563 -0.58982408 0.77415359
-0.86288208 -0.58491468 0.63223159
-0.84087068 -0.57041419 0.49884507
-0.82581556 -0.56061357 0.38332671
-0.83296579 -0.56588602 0.28265926
-0.81113827 -0.55146229 0.18100333
-0.9008882 -0.60703897 1.0486885
-0.87338614 -0.58916229 0.85066223
-0.86612803 -0.58469731 0.6996997
-0.85451424 -0.57749999 0.56423378
-0.83754176 -0.56644708 0.44105041
-0.81726331 -0.55313951 0.3287335
-0.81181043 -0.54964942 0.2289526
-0.814569 -0.55192262 0.133367
-0.37847942 -0.24169251 2.8553152
-0.48763657 -0.3155922 2.8160164
-0.7485472 -0.4913888 2.9097404
-0.99164689 -0.65579224 2.8603871
-0.96185809 -0.63895708 2.1834717
-0.95367247 -0.63541365 1.7557154
-0.92920154 -0.62049639 1.4143715
-0.17009546 -0.090076074 3.1691318
-0.27205002 -0.15626287 2.8832836
-0.61612421 -0.40071601 2.8672602
-1.0421573 -0.68451822 3.444905
-0.97125989 -0.64180183 2.4709108
-0.95781815 -0.63505465 1.9499513
-0.93321162 -0.62036109 1.5586089
-0.90672207 -0.60387778 1.2592971
-0.90369087 -0.60618538 1.1491385
-0.88145316 -0.59192747 0.93851483
-0.86934888 -0.5844481 0.77141213
-0.86124301 -0.57942647 0.62991279
-0.84285671 -0.56747556 0.49884507
-0.82776743 -0.55772758 0.38332671
-0.83493596 -0.56297499 0.28265926
-0.80893022 -0.54584199 0.18055625
-0.89989793 -0.60181516 1.0453631
-0.87207848 -0.58386141 0.84771907
-0.86816376 -0.5816704 0.6996997
-0.85275555 -0.5719856 0.5621357
-0.83951384 -0.56352001 0.44105041
-0.81515425 -0.54757309 0.32756117
-0.80961376 -0.54405034 0.22826193
-0.81234491 -0.54628795 0.13316546
-0.37866411 -0.23995462 2.8503759
-0.48873523 -0.31388813 2.8160164
-0.74900699 -0.48795834 2.9049685
-0.99229658 -0.65125501 2.8557847
-0.96208298 -0.63427764 2.1790826
-0.95353729 -0.63052887 1.7515824
-0.9286899 -0.61547852 1.4105339
-0.17349005 -0.09106531 3.2290316
-0.27537841 -0.1568858 2.9131126
-0.61751926 -0.39856288 2.8672602
-1.0416486 -0.67899191 3.4355197
-0.97167373 -0.63721406 2.4664097
-0.95785022 -0.63027394 1.9456853
-0.93285608 -0.61544061 1.5546188
-0.90882444 -0.60070908 1.2592971
-0.90283269 -0.60105115 1.1456339
-0.88351405 -0.58884704 0.93851483
-0.86790544 -0.57908934 0.76867068
-0.86326039 -0.57641667 0.62991279
-0.84097779 -0.56195438 0.49697205
-0.8257215 -0.55216819 0.38191667
-0.83281356 -0.55732512 0.28172666
-0.80669284 -0.54024398 0.18010917
-0.89577115 -0.59454107 1.038712
-0.87074453 -0.57857692 0.84477592
-0.86659908 -0.5762496 0.69716656
-0.85474706 -0.56900549 0.5621357
-0.84147584 -0.56058615 0.44105041
-0.81706071 -0.54472435 0.32756117
-0.81150794 -0.54122096 0.22826193
-0.81424683 -0.54344904 0.13316546
-0.37949941 -0.23863135 2.8503759
-0.48896897 -0.31163341 2.811121
-0.74945194 -0.48453069 2.9001963
-0.99292666 -0.64672118 2.851182
-0.96228683 -0.62960446 2.1746933
-0.95573241 -0.62719661 1.7515824
-0.92547649 -0.60871077 1.402859
-0.17380686 -0.090459161 3.2290316
-0.27592435 -0.15592359 2.9131126
-0.61890674 -0.39640489 2.8672602
-1.0411143 -0.67347759 3.4261341
-0.9720673 -0.63263112 2.4619086
-0.95786071 -0.6255008 1.9414195
-0.93247765 -0.61053014 1.5506288
-0.90808094 -0.59567362 1.2556219
-0.9019497 -0.59593016 1.1421293
-0.88231766 -0.5836122 0.93537635
-0.86992151 -0.57605624 0.76867068
-0.86157453 -0.57095289 0.62759399
-0.84293425 -0.55901539 0.49697205
-0.82764393 -0.54928255 0.38191667
-0.83475387 -0.55441469 0.28172666
-0.80857372 -0.5374248 0.18010917
-0.89472282 -0.5893569 1.0353866
-0.87275887 -0.57553393 0.84477592
-0.86500734 -0.57084686 0.69463336
-0.85294122 -0.56351668 0.56003767
-0.83948845 -0.55504119 0.4394069
-0.81895715 -0.54186893 0.32756117
-0.81339222 -0.53838497 0.22826193
-0.81197381 -0.5378446 0.13296394
-0.37995961 -0.23643045 2.8454366
-0.49043205 -0.30932575 2.811121
-0.75172693 -0.48099363 2.9001963
-0.99432105 -0.64097667 2.8465796
-0.9632327 -0.62376118 2.1703045
-0.95642579 -0.6209864 1.7474495
-0.92575359 -0.60243273 1.3990214
-0.17194152 -0.088410459 3.1841068
-0.62203604 -0.3938309 2.8720996
-1.0417185 -0.6661582 3.4167485
-0.97353566 -0.62635511 2.4574075
-0.95893133 -0.61906254 1.9371535
-0.93566155 -0.6056394 1.5506288
-0.91129053 -0.59075177 1.2556219
-0.90166014 -0.58987892 1.1386248
-0.88170063 -0.57746989 0.93223786
-0.86902964 -0.56981009 0.76592922
-0.86425549 -0.56688643 0.62759399
-0.84555918 -0.55503696 0.49697205
-0.83022314 -0.5453763 0.38191667
-0.83334804 -0.54763103 0.28079402
-0.80702955 -0.53073066 0.17966209
-0.89456588 -0.58278286 1.032061
-0.87227499 -0.56890118 0.84183276
-0.86427552 -0.56410527 0.69210023
-0.85588008 -0.55904305 0.56003767
-0.84247917 -0.55049098 0.4394069
-0.82187694 -0.53743005 0.32756117
-0.81629324 -0.53397626 0.22826193
-0.81069207 -0.53070724 0.1327624
-0.38090566 -0.23490329 2.8454366
-0.49080619 -0.3068153 2.8062258
-0.75239098 -0.47717294 2.8954246
-0.99359322 -0.63487667 2.8373744
-0.96371323 -0.61859602 2.1659153
-0.95880318 -0.61730933 1.7474495
-0.92267334 -0.59539825 1.3913465
-0.1709726 -0.087135591 3.1591482
-0.28007802 -0.15504913 2.9429417
-0.62447155 -0.39232555 2.8769391
-1.041123 -0.66066897 3.4073629
-0.97571605 -0.62295306 2.4574075
-0.95889032 -0.61430484 1.9328877
-0.93523455 -0.60074133 1.5466388
-0.91324449 -0.58772659 1.2556219
-0.9011305 -0.58415717 1.1351203
-0.88084662 -0.57165277 0.92909944
-0.87140888 -0.56616491 0.76592922
-0.86281025 -0.56099802 0.62527519
-0.84389454 -0.54910988 0.49509901
-0.82838583 -0.53942162 0.38050666
-0.83132911 -0.54174531 0.27986142
-0.80906147 -0.52762794 0.17966209
-0.89355987 -0.57747376 1.0287355
-0.87096059 -0.56350487 0.8388896
-0.86271858 -0.55859095 0.68956703
-0.85401785 -0.55358356 0.55793959
-0.84033835 -0.54512441 0.43776339
-0.82365459 -0.5347017 0.32756117
-0.81390631 -0.52856928 0.22757125
-0.81244743 -0.52801597 0.1327624
-0.385039 -0.23559695 2.8701329
-0.49187419 -0.30510017 2.8062258
-0.75405198 -0.47454372 2.8954246
-0.9941532 -0.63035852 2.8327718
-0.96182632 -0.61265528 2.1571372
-0.95620918 -0.61092907 1.7391837
-0.92204666 -0.59044558 1.387509
-0.16946407 -0.085642882 3.1242065
-0.28061756 -0.15407053 2.9429417
-0.62690407 -0.39080793 2.8817785
-1.040502 -0.65519214 3.3979776
-0.97604549 -0.61837852 2.4529061
-0.95662671 -0.60815603 1.9243557
-0.93732578 -0.59747308 1.5466388
-0.91243315 -0.58271062 1.2519468
-0.90016472 -0.57907879 1.1316158
-0.87956429 -0.56646723 0.92596096
-0.87337983 -0.56311971 0.76592922
-0.8647632 -0.5579828 0.62527519
-0.84580612 -0.54616082 0.49509901
-0.83026373 -0.53652674 0.38050666
-0.82909018 -0.53617263 0.27892879
-0.80671751 -0.52209485 0.17921501
-0.89557016 -0.57435113 1.0287355
-0.8729223 -0.56046122 0.8388896
-0.86466318 -0.55557615 0.68956703
-0.85594505 -0.5505991 0.55793959
-0.8422361 -0.54218775 0.43776339
-0.82551605 -0.53182334 0.32756117
-0.81574643 -0.52572495 0.22757125
-0.81008714 -0.52246898 0.13256088
-0.38785267 -0.23545936 2.8849509
-0.49293619 -0.30338138 2.8062258
-0.75443757 -0.47111833 2.8906524
-0.99304003 -0.62480408 2.8235669
-0.96193445 -0.6080147 2.1527481
-0.9559592 -0.60608089 1.7350507
-0.92410213 -0.58722341 1.387509
-0.16872497 -0.084542796 3.1042399
-0.2792775 -0.15207689 2.9230556
-0.62933367 -0.38927811 2.8866179
-1.0398555 -0.6497277 3.388592
-0.97635502 -0.61380929 2.448405
-0.95653778 -0.60342169 1.9200897
-0.93685895 -0.59258699 1.5426488
-0.91446161 -0.57952213 1.2519468
-0.89917451 -0.57401437 1.1281111
-0.88153625 -0.56339353 0.92596096
-0.87181789 -0.55781412 0.76318777
-0.86297506 -0.55257219 0.6229564
-0.84380418 -0.54070395 0.49322599
-0.82809335 -0.53103584 0.37909663
-0.82682258 -0.53062224 0.27799615
-0.80853504 -0.51927572 0.17921501
-0.89441937 -0.56921691 1.0254101
-0.87146437 -0.55523896 0.83594644
-0.86296242 -0.55023706 0.68703383
-0.85403609 -0.54516602 0.55584157
-0.84014398 -0.53670245 0.43611988
-0.82736742 -0.52893847 0.32756117
-0.81340474 -0.52020633 0.22688057
-0.81190598 -0.51963806 0.13256088
-0.39067006 -0.23530498 2.8997686
-0.49399218 -0.30165887 2.8062258
-0.75480843 -0.46769607 2.8858805
-0.99190032 -0.61926508 2.8143618
-0.95999289 -0.6021086 2.14397
-0.95330489 -0.59974378 1.7267847
-0.92343491 -0.58228469 1.3836714
-0.16798028 -0.083448917 3.0842733
-0.28168631 -0.1521077 2.9429417
-0.63068873 -0.38707897 2.8866179
-1.0391836 -0.64427578 3.3792064
-0.97479743 -0.60809338 2.4394026
-0.95642751 -0.59869552 1.9158239
-0.93892175 -0.58931315 1.5426488
-0.91360903 -0.57452202 1.2482716
-0.9011727 -0.57087219 1.1281111
-0.8802104 -0.55822849 0.92282254
-0.87375975 -0.55476755 0.76318777
-0.8611598 -0.54718095 0.6206376
-0.84568644 -0.53775525 0.49322599
-0.82589477 -0.52556664 0.37768659
-0.82866973 -0.52773285 0.27799615
-0.81034267 -0.51645029 0.17921501
-0.89640087 -0.56609136 1.0254101
-0.87339717 -0.55219364 0.83594644
-0.8612349 -0.54491663 0.68450069
-0.85209978 -0.53975308 0.55374348
-0.84201235 -0.53376645 0.43611988
-0.8251043 -0.52344346 0.32638884
-0.81103444 -0.51471037 0.2261899
-0.81371492 -0.51680082 0.13256088
-0.39349112 -0.23513378 2.9145863
-0.49504215 -0.29993266 2.8062258
-0.75516456 -0.46427691 2.8811085
-0.99239504 -0.61477035 2.8097594
-0.96005523 -0.59748864 2.1395807
-0.95300537 -0.59492248 1.7226517
-0.92546189 -0.57905781 1.3836714
-0.17009147 -0.083738402 3.119215
-0.28080317 -0.15037347 2.9280272
-0.63203597 -0.38487512 2.8866179
-1.0384862 -0.63883644 3.3698208
-0.97506285 -0.60354143 2.4349012
-0.95629591 -0.59397739 1.9115579
-0.93841523 -0.58443934 1.5386587
-0.91273266 -0.56953496 1.2445965
-0.90014052 -0.56582528 1.1246065
-0.88215357 -0.5551526 0.92282254
-0.87215292 -0.54948533 0.76044625
-0.8593173 -0.54180908 0.6183188
-0.84363765 -0.53232622 0.49135295
-0.82366824 -0.52011937 0.37627655
-0.82635421 -0.52221286 0.27706355
-0.81214052 -0.51361853 0.17921501
-0.89520746 -0.56097645 1.0220846
-0.87189531 -0.54699361 0.83300328
-0.86313176 -0.54190707 0.68450069
-0.85397863 -0.53677541 0.55374348
-0.83987319 -0.52830988 0.43447638
-0.82281291 -0.51797068 0.32521653
-0.81282622 -0.51187617 0.2261899
-0.81551391 -0.51395726 0.13256088
-0.3949782 -0.23415443 2.9195256
-0.49521315 -0.29767868 2.8013306
-0.75678062 -0.46163809 2.8811085
-0.99120575 -0.60925674 2.800554
-0.96009719 -0.59287572 2.1351919
-0.95029151 -0.58862901 1.7143859
-0.92475426 -0.57413334 1.3798339
-0.17116444 -0.083517008 3.1341898
-0.28179803 -0.14964074 2.9329987
-0.63337559 -0.38266653 2.8866179
-1.0362905 -0.63251108 3.3557425
-0.97345334 -0.59785604 2.4258988
-0.95614314 -0.58926761 1.907292
-0.93788612 -0.57957625 1.5346687
-0.90895009 -0.56277651 1.2372462
-0.90211016 -0.56267971 1.1246065
-0.88078445 -0.55000854 0.91968405
-0.87052011 -0.54422116 0.75770479
-0.86120331 -0.5388062 0.6183188
-0.84549069 -0.52937812 0.49135295
-0.82547873 -0.51724106 0.37627655
-0.82817209 -0.5193252 0.27706355
-0.81392843 -0.51078045 0.17921501
-0.89716017 -0.55784816 1.0220846
-0.87379932 -0.54394674 0.83300328
-0.86135918 -0.53661162 0.6819675
-0.85199618 -0.53138947 0.55164546
-0.84171224 -0.52537489 0.43447638
-0.82049346 -0.51252037 0.32404423
-0.81040847 -0.50641161 0.22549921
-0.81306708 -0.50845855 0.13235934
-0.39713335 -0.23356089 2.929404
-0.4962492 -0.29594827 2.8013306
-0.75711024 -0.45822105 2.8763366
-0.99165839 -0.60477614 2.7959518
-0.96011847 -0.58826965 2.1308026
-0.94994283 -0.58383501 1.7102529
-0.92402363 -0.5692209 1.3759965
-0.17145492 -0.082919024 3.1341898
-0.28137359 -0.14816274 2.9230556
-0.63470751 -0.38045332 2.8866179
-1.0355396 -0.62710255 3.3463571
-0.97367525 -0.59332186 2.4213977
-0.95596915 -0.58456612 1.903026
-0.9373346 -0.57472402 1.5306787
-0.90802032 -0.55782586 1.2335709
-0.9010362 -0.55765074 1.121102
-0.88269901 -0.54693061 0.91968405
-0.86886102 -0.53897512 0.75496328
-0.85931522 -0.5334605 0.616
-0.84339547 -0.52397722 0.48947993
-0.82320535 -0.51182365 0.37486652
-0.82997978 -0.51643115 0.27706355
-0.81570643 -0.50793624 0.17921501
-0.89592421 -0.55275279 1.018759
-0.87225372 -0.53876936 0.83006012
-0.86322707 -0.53360164 0.6819675
-0.84998643 -0.52602392 0.54954737
-0.83952641 -0.51994735 0.43283287
-0.81814611 -0.5070926 0.32287189
-0.81217122 -0.50357962 0.22549921
-0.81483704 -0.50561732 0.13235934
-0.39794618 -0.23217322 2.929404
-0.49727926 -0.29421422 2.8013306
-0.75870514 -0.45557544 2.8763366
-0.99042028 -0.59928864 2.7867467
-0.96011943 -0.58367074 2.1264138
-0.94716954 -0.57758576 1.701987
-0.92326999 -0.56432062 1.3721589
-0.17095904 -0.081952646 3.119215
-0.28425601 -0.14840499 2.9479132
-0.63711226 -0.37887758 2.8914573
-1.0347636 -0.62170696 3.3369715
-0.97387731 -0.58879334 2.4168963
-0.95577395 -0.57987303 1.8987602
-0.9367606 -0.56988269 1.5266887
-0.90706706 -0.55288857 1.2298958
-0.90297723 -0.55450213 1.121102
-0.88128686 -0.54180777 0.91654563
-0.87073714 -0.53593892 0.75496328
-0.8574003 -0.52813452 0.6136812
-0.84521937 -0.52103001 0.48947993
-0.82498693 -0.50894701 0.37486652
-0.83177745 -0.51353085 0.27706355
-0.81323791 -0.50246817 0.17876793
-0.89784825 -0.54962206 1.018759
-0.87068284 -0.53360945 0.82711697
-0.8614096 -0.52833152 0.6794343
-0.85181743 -0.52305371 0.54954737
-0.84133625 -0.51701367 0.43283287
-0.8157708 -0.50168747 0.32169959
-0.81392407 -0.5007416 0.22549921
-0.8123427 -0.50015062 0.13215782
-0.39875421 -0.23078272 2.929404
-0.49742484 -0.2919617 2.7964354
-0.76029074 -0.45292428 2.8763366
-0.98915589 -0.59381711 2.7775416
-0.9601 -0.57907903 2.1220245
-0.94677228 -0.57281959 1.697854
-0.91975272 -0.55777079 1.364484
-0.17072035 -0.081112288 3.1092317
-0.27955565 -0.14473432 2.8932266
-0.63843089 -0.37665132 2.8914573
-1.0339626 -0.61632442 3.3275859
-0.97405976 -0.58427078 2.4123952
-0.95555758 -0.5751884 1.8944942
-0.93616432 -0.56505245 1.5226986
-0.90609044 -0.54796487 1.2262206
-0.90186173 -0.54949141 1.1175975
-0.87984979 -0.53670144 0.91340715
-0.86903393 -0.53071702 0.75222182
-0.85545874 -0.52282852 0.6113624
-0.84307808 -0.5156576 0.48760688
-0.8267585 -0.50606418 0.37486652
-0.82937604 -0.50805837 0.27613091
-0.81498694 -0.49962643 0.17876793
-0.89656997 -0.54454654 1.0154335
-0.87254012 -0.53056693 0.82711697
-0.86324859 -0.52532142 0.6794343
-0.84976214 -0.51771593 0.54744929
-0.84313577 -0.51407373 0.43283287
-0.81751704 -0.49883682 0.32169959
-0.81566703 -0.49789739 0.22549921
-0.81408358 -0.49731195 0.13215782
-0.39955738 -0.22938938 2.929404
-0.49844095 -0.29022357 2.7964354
-0.76186711 -0.45026761 2.8763366
-0.98786533 -0.58836174 2.7683365
-0.95800495 -0.57326502 2.1132464
-0.94635314 -0.56806314 1.6937212
-0.91894746 -0.55290449 1.3606465
-0.1704779 -0.080274597 3.0992484
-0.27910903 -0.1432741 2.8832836
-0.63974178 -0.37442049 2.8914573
-1.0331367 -0.61095512 3.3182003
-0.97235149 -0.578641 2.4033928
-0.95308107 -0.56917536 1.8859622
-0.93296039 -0.55868542 1.5147187
-0.90799767 -0.54479867 1.2262206
-0.90072227 -0.54449517 1.1140929
-0.87838781 -0.53161174 0.91026872
-0.87088114 -0.52768028 0.75222182
-0.85727859 -0.51983923 0.6113624
-0.84090966 -0.51030666 0.48573387
-0.82851994 -0.50317514 0.37486652
-0.83114451 -0.50516021 0.27613091
-0.81247121 -0.4941906 0.17832085
-0.89526725 -0.53948665 1.0121081
-0.87092578 -0.52543014 0.82417381
-0.86507702 -0.52230489 0.6794343
-0.85156411 -0.51474649 0.54744929
-0.84088469 -0.50868338 0.43118936
-0.81509531 -0.49346292 0.32052726
-0.81740004 -0.49504715 0.22549921
-0.81581461 -0.49446729 0.13215782
-0.40035564 -0.22799328 2.929404
-0.49856895 -0.28797308 2.7915401
-0.76343423 -0.44760549 2.8763366
-0.9865489 -0.58292258 2.7591317
-0.95794064 -0.56869501 2.1088572
-0.94833028 -0.56475633 1.6937212
-0.91811961 -0.54805082 1.3568089
-0.17049435 -0.079559311 3.0942566
-0.27342045 -0.13917775 2.8186541
-0.64104486 -0.37218508 2.8914573
-1.0322858 -0.60559911 3.308815
-0.97249067 -0.57413679 2.3988914
-0.95281827 -0.56451595 1.8816965
-0.93231422 -0.55388653 1.5107286
-0.90698057 -0.53989196 1.2225455
-0.90261745 -0.5413478 1.1140929
-0.88023812 -0.52854234 0.91026872
-0.86913401 -0.52248293 0.74948037
-0.85529202 -0.51456004 0.6090436
-0.84268582 -0.50736821 0.48573387
-0.8302713 -0.50028002 0.37486652
-0.83290279 -0.50225592 0.27613091
-0.8141914 -0.49135152 0.17832085
-0.89714491 -0.5363583 1.0121081
-0.87275457 -0.52238679 0.82417381
-0.87059313 -0.52149713 0.6819675
-0.85335577 -0.5117709 0.54744929
-0.84265518 -0.50574505 0.43118936
-0.81681281 -0.49061471 0.32052726
-0.81487834 -0.48964038 0.22480853
-0.81325418 -0.48904192 0.13195628
-0.40114906 -0.22659439 2.929404
-0.49957114 -0.28623101 2.7915401
-0.76628244 -0.44568804 2.8811085
-0.98520648 -0.57749993 2.7499266
-0.95579231 -0.56291729 2.1000791
-0.94787294 -0.56001133 1.6895882
-0.92002708 -0.54484266 1.3568089
-0.16971858 -0.078488484 3.07429
-0.27867222 -0.14060679 2.8683691
-0.64234006 -0.36994514 2.8914573
-1.0314102 -0.60025644 3.2994294
-0.97261018 -0.56963867 2.3943901
-0.95253438 -0.55986524 1.8774304
-0.93164593 -0.54909897 1.5067385
-0.90594035 -0.53499901 1.2188703
-0.90143669 -0.53637034 1.1105883
-0.87873369 -0.52347469 0.90713024
-0.87095255 -0.51944596 0.74948037
-0.85708296 -0.51157141 0.6090436
-0.84047174 -0.50204635 0.48386082
-0.82789499 -0.49491736 0.37345648
-0.8304354 -0.49682358 0.27519831
-0.81162888 -0.48594832 0.17787378
-0.89580023 -0.53131884 1.0087825
-0.87109721 -0.51727355 0.82123065
-0.87240821 -0.51845503 0.6819675
-0.85513693 -0.50878894 0.54744929
-0.84035802 -0.50038475 0.42954585
-0.81434494 -0.48527241 0.31935495
-0.8165825 -0.48679295 0.22480853
-0.81066591 -0.48364049 0.13175476
-0.40125939 -0.22481355 2.9244649
-0.49968174 -0.28398281 2.7866449
-0.76912665 -0.44375616 2.8858805
-0.98383832 -0.57209367 2.7407215
-0.95568347 -0.55836958 2.09569
-0.94982201 -0.55669928 1.6895882
-0.91915953 -0.54000437 1.3529714
-0.16999152 -0.077895589 3.07429
-0.28059405 -0.14034347 2.8832836
-0.64253598 -0.36707756 2.8866179
-1.0320047 -0.59578997 3.2947366
-0.97082782 -0.56405336 2.3853879
-0.95222974 -0.55522335 1.8731647
-0.93095559 -0.54432285 1.5027486
-0.90487713 -0.53011996 1.2151952
-0.90023237 -0.53140783 1.1070838
-0.88055563 -0.5204041 0.90713024
-0.86916167 -0.51427341 0.74673891
-0.85886347 -0.50857651 0.6090436
-0.84221911 -0.49910945 0.48386082
-0.82961756 -0.49202448 0.37345648
-0.82794034 -0.49141461 0.27426568
-0.81332022 -0.48311222 0.17787378
-0.89764947 -0.52818871 1.0087825
-0.86941481 -0.51217824 0.81828749
-0.87421268 -0.51540655 0.6819675
-0.85690778 -0.5058009 0.54744929
-0.84209955 -0.49744827 0.42954585
-0.8160339 -0.48242685 0.31935495
-0.81401432 -0.48141876 0.22411785
-0.81234914 -0.48080784 0.13175476
-0.40136215 -0.22303471 2.9195256
-0.50067002 -0.28223687 2.7866449
-0.77326244 -0.44255105 2.8954246
-0.98413682 -0.56767994 2.7361188
-0.95555437 -0.55382943 2.091301
-0.94932663 -0.55196619 1.6854552
-0.91826963 -0.5351789 1.349134
-0.17079027 -0.077535652 3.0842733
-0.2834743 -0.14053866 2.9081411
-0.64381337 -0.36483246 2.8866179
-1.0310829 -0.59046924 3.285351
-0.97090465 -0.55957431 2.3808868
-0.9519043 -0.55059046 1.8688986
-0.93024331 -0.53955823 1.4987586
-0.90379089 -0.52525485 1.2115201
-0.90208185 -0.5282622 1.1070838
-0.87900895 -0.51535881 0.90399176
-0.86734539 -0.50911975 0.74399745
-0.85681391 -0.50333178 0.6067248
-0.84395617 -0.49616653 0.48386082
-0.83133 -0.48912555 0.37345648
-0.82541764 -0.48602909 0.27333307
-0.81071115 -0.47774199 0.1774267
-0.89626294 -0.52316999 1.005457
-0.87119734 -0.50914031 0.81828749
-0.87600648 -0.51235187 0.6819675
-0.85475159 -0.50051337 0.54535127
-0.83975667 -0.49211836 0.42790234
-0.81352007 -0.47711653 0.31818265
-0.81141865 -0.4760685 0.22342718
-0.80971432 -0.47543964 0.13155322
-0.40145743 -0.2212579 2.9145863
-0.50076312 -0.27999106 2.7817497
-0.77869737 -0.44205907 2.9097404
-0.98272079 -0.56230122 2.7269139
-0.95748174 -0.55049056 2.091301
-0.94880986 -0.5472433 1.6813223
-0.91735715 -0.53036612 1.3452964
-0.17105988 -0.076939009 3.0842733
-0.28396314 -0.13954829 2.9081411
-0.64508295 -0.36258292 2.8866179
-1.0316372 -0.58601445 3.2806582
-0.97096193 -0.55510157 2.3763855
-0.95155823 -0.54596668 1.8646327
-0.93212104 -0.53630781 1.4987586
-0.90268171 -0.5204038 1.2078449
-0.90083659 -0.52331889 1.1035793
-0.88080257 -0.51228732 0.90399176
-0.8691172 -0.50608909 0.74399745
-0.85856569 -0.5003379 0.6067248
-0.84568298 -0.49321759 0.48386082
-0.82888925 -0.48380265 0.37204644
-0.82286751 -0.48066726 0.27240044
-0.81237388 -0.47490919 0.1774267
-0.89485246 -0.5181675 1.0021316
-0.86947232 -0.50406903 0.81534433
-0.87406075 -0.50712764 0.6794343
-0.85649347 -0.49752674 0.54535127
-0.84146935 -0.48918405 0.42790234
-0.8151806 -0.47427389 0.31818265
-0.80879557 -0.4707422 0.22273649
-0.80705202 -0.47009575 0.13135168
-0.40086308 -0.21911107 2.9047079
-0.50173742 -0.27824137 2.7817497
-0.78153652 -0.4400703 2.9145124
-0.9829784 -0.55790335 2.7223115
-0.95731699 -0.54595876 2.0869119
-0.94827163 -0.54253078 1.6771894
-0.91642231 -0.5255664 1.3414589
-0.17344539 -0.077262349 3.1242065
-0.28396851 -0.13832447 2.9031699
-0.64634466 -0.36032894 2.8866179
-1.0321728 -0.58156288 3.2759655
-0.97099996 -0.55063528 2.3718843
-0.95119143 -0.54135197 1.8603667
-0.93398744 -0.53305084 1.4987586
-0.90154976 -0.51556695 1.2041698
-0.90265781 -0.52017123 1.1035793
-0.87921387 -0.50726467 0.90085334
-0.8672576 -0.50096089 0.741256
-0.86030698 -0.49733788 0.6067248
-0.84739947 -0.49026257 0.48386082
-0.83057296 -0.48090634 0.37204644
-0.82029015 -0.47532922 0.27146783
-0.80971861 -0.46957228 0.17697962
-0.8966558 -0.5150407 1.0021316
-0.87122655 -0.50103092 0.81534433
-0.87208939 -0.50192332 0.67690116
-0.85429251 -0.49226817 0.54325318
-0.84317178 -0.48624375 0.42790234
-0.8126213 -0.46899593 0.31701031
-0.80614519 -0.46544006 0.22204581
-0.80868804 -0.46727574 0.13135168
-0.40094206 -0.21734078 2.8997686
-0.50270557 -0.27648827 2.7817497
-0.78176451 -0.43661201 2.9097404
-0.98321736 -0.55351055 2.7177088
-0.95713216 -0.54143476 2.0825229
-0.94771212 -0.53782868 1.6730564
-0.91546518 -0.52077961 1.3376215
-0.17503977 -0.077227406 3.1491649
-0.28493047 -0.13756247 2.9081411
-0.64759851 -0.35807058 2.8866179
-1.0311835 -0.57627308 3.2665799
-0.97101855 -0.54617542 2.367383
-0.95080405 -0.53674656 1.8561009
-0.93322009 -0.52830309 1.4947685
-0.90039504 -0.51074427 1.2004945
-0.90137184 -0.51524758 1.1000748
-0.87760097 -0.50225937 0.89771485
-0.8653729 -0.49585178 0.73851454
-0.85819483 -0.49212831 0.604406
-0.84910566 -0.48730162 0.48386082
-0.8322466 -0.47800416 0.37204644
-0.82194436 -0.47246301 0.27146783
-0.8070361 -0.46425977 0.17653254
-0.89520389 -0.51005942 0.99880606
-0.86945915 -0.49598411 0.81240118
-0.86634868 -0.49460191 0.67183477
-0.85600561 -0.48928311 0.54325318
-0.84486401 -0.48329762 0.42790234
-0.81425345 -0.46615645 0.31701031
-0.80346769 -0.46016219 0.22135513
-0.81031424 -0.46445006 0.13135168
-0.40032881 -0.21520531 2.88989
-0.50366765 -0.27473181 2.7817497
-0.79242527 -0.43894142 2.9431443
-0.98173165 -0.54817069 2.7085037
-0.9569276 -0.53691882 2.0781338
-0.9471314 -0.5331372 1.6689235
-0.91448587 -0.51600593 1.3337839
-0.17610492 -0.076955728 3.16414
-0.28685385 -0.13725223 2.9230556
-0.64994675 -0.35641184 2.8914573
-1.0316794 -0.57183379 3.2618873
-0.97101796 -0.5417223 2.3628819
-0.95039606 -0.53215039 1.8518349
-0.93505853 -0.52504236 1.4947685
-0.90217233 -0.50759822 1.2004945
-0.90316486 -0.51209807 1.1000748
-0.87596381 -0.49727151 0.89457643
-0.8634631 -0.49076205 0.73577309
-0.85990745 -0.48912966 0.604406
-0.84677255 -0.48204133 0.4819878
-0.83391005 -0.47509617 0.37204644
-0.82358855 -0.46959099 0.27146783
-0.80865175 -0.46143988 0.17653254
-0.89697891 -0.50693148 0.99880606
-0.87118518 -0.49294612 0.81240118
-0.86431861 -0.48945069 0.66930163
-0.85376018 -0.48405382 0.54115516
-0.84243876 -0.47801521 0.42625883
-0.81587565 -0.46331134 0.31701031
-0.80506909 -0.45735475 0.22135513
-0.81627357 -0.46408793 0.13155322
-0.40039164 -0.21344171 2.8849509
-0.50462359 -0.27297202 2.7817497
-0.82143003 -0.45125973 3.0433559
-0.98193002 -0.54379421 2.7039013
-0.95670301 -0.5324108 2.0737445
-0.94898665 -0.52982783 1.6689235
-0.91348433 -0.51124549 1.3299464
-0.17743622 -0.076789886 3.1841068
-0.28974342 -0.13738364 2.9479132
-0.65118694 -0.35414094 2.8914573
-1.0306444 -0.56656688 3.2525017
-0.9690932 -0.53622204 2.3538795
-0.94996774 -0.52756369 1.847569
-0.93425298 -0.52030927 1.4907786
-0.90097815 -0.50279409 1.1968194
-0.90183842 -0.50719428 1.0965703
-0.87769425 -0.49421078 0.89457643
-0.8615284 -0.4856917 0.73303157
-0.85775137 -0.48394841 0.6020872
-0.84845006 -0.47908261 0.4819878
-0.83138704 -0.46982238 0.3706364
-0.82522273 -0.46671325 0.27146783
-0.81025755 -0.45861432 0.17653254
-0.89548576 -0.50197172 0.99548054
-0.86937553 -0.48792392 0.80945796
-0.86226326 -0.48431972 0.66676843
-0.85148871 -0.47884613 0.53905708
-0.8441022 -0.47507167 0.42625883
-0.81748796 -0.4604606 0.31701031
-0.80666065 -0.45454177 0.22135513
-0.81788862 -0.46123579 0.13155322
-0.40044698 -0.21168028 2.8800116
-0.50557333 -0.27120888 2.7817497
-0.88199264 -0.48051333 3.2580953
-0.98210967 -0.53942305 2.6992986
-0.95645881 -0.52791095 2.0693557
-0.95083034 -0.52651203 1.6689235
-0.91246086 -0.50649834 1.3261089
-0.17690419 -0.075835817 3.1691318
-0.28345597 -0.13322105 2.8783121
-0.65241915 -0.35186574 2.8914573
-1.0280701 -0.5604884 3.2384233
-0.96905041 -0.53178889 2.3493781
-0.94951892 -0.52298641 1.843303
-0.93606347 -0.51704496 1.4907786
-0.90272772 -0.49964604 1.1968194
-0.90048873 -0.5023061 1.0930656
-0.87601566 -0.48924634 0.89143795
-0.85956877 -0.48064086 0.73029011
-0.8594355 -0.48095137 0.6020872
-0.84607232 -0.47385281 0.48011476
-0.82883734 -0.46457204 0.3692264
-0.82684684 -0.46382987 0.27146783
-0.81185347 -0.45578322 0.17653254
-0.89723253 -0.49884287 0.99548054
-0.87107342 -0.48488626 0.80945796
-0.8601827 -0.4792091 0.66423523
-0.85315496 -0.475871 0.53905708
-0.84575534 -0.47212228 0.42625883
-0.81484693 -0.45523369 0.31583801
-0.80391961 -0.44930729 0.22066444
-0.82385385 -0.46081686 0.13175476
-0.39980641 -0.20956096 2.8701329
-0.50561786 -0.26896477 2.7768545
-0.94539571 -0.51076782 3.4823785
-0.98227096 -0.53505725 2.6946962
-0.9582957 -0.52456909 2.0693557
-0.95266241 -0.52318978 1.6689235
-0.91422331 -0.50331014 1.3261089
-0.17716783 -0.075217843 3.1691318
-0.28101519 -0.13089074 2.8484831
-0.65364337 -0.34958622 2.8914573
-1.026984 -0.55525535 3.2290378
-0.9670763 -0.52632219 2.3403757
-0.94904971 -0.51841873 1.8390369
-0.93521976 -0.51232684 1.4867885
-0.90149444 -0.49486077 1.1931442
-0.90223664 -0.49915975 1.0930656
-0.87771815 -0.48618549 0.89143795
-0.86124128 -0.47763747 0.73029011
-0.85723585 -0.47579882 0.5997684
-0.84366864 -0.46864551 0.47824174
-0.82626116 -0.45934525 0.36781636
-0.82416826 -0.45855254 0.2705352
-0.81343955 -0.45294654 0.17653254
-0.89569861 -0.49390513 0.99215508
-0.8692221 -0.4798893 0.8065148
-0.85807699 -0.47411898 0.6617021
