# .PCD v0.7 - Point Cloud Data file format
VERSION 0.7
FIELDS x y z
SIZE 4 4 4
TYPE F F F
COUNT 1 1 1
WIDTH 1402
HEIGHT 1
VIEWPOINT 0 0 0 1 0 0 0
POINTS 1402
DATA ascii
-0.83788037 -0.48357338 0.32404423
-0.81472248 -0.47039217 0.22342718
-0.82599103 -0.47727367 0.13215782
-0.080322273 -0.0091202157 7.838975
-0.81099576 -0.43914855 5.8633232
-1.0345966 -0.56865609 5.6993051
-1.0554779 -0.58939719 3.9118571
-0.97810972 -0.55063611 2.7039013
-0.93836999 -0.53082395 2.0430212
-0.92078954 -0.52255315 1.6275939
-0.90153462 -0.51285625 1.3184339
-0.42560431 -0.18513757 7.8662825
-0.75423783 -0.36211485 7.7603292
-1.111891 -0.6145854 4.9288549
-1.0100921 -0.56449044 3.2008812
-0.95963347 -0.53977334 2.3403757
-0.92809147 -0.52392775 1.8134414
-0.90699667 -0.51346058 1.4548682
-0.89449728 -0.50739932 1.1931442
-0.89208311 -0.50993866 1.0895611
-0.87760097 -0.50225937 0.89771485
-0.87262923 -0.50000918 0.74399745
-0.86588055 -0.49653533 0.6090436
-0.85714734 -0.49191648 0.48760688
-0.84888589 -0.48756057 0.37768659
-0.83897972 -0.4822548 0.27519831
-0.81998622 -0.47170943 0.17787378
-0.88547111 -0.50451469 0.98882955
-0.86945915 -0.49598411 0.81240118
-0.87009239 -0.49673903 0.67436796
-0.85994601 -0.49153522 0.54535127
-0.84896296 -0.48564225 0.42954585
-0.83534497 -0.4782308 0.32287189
-0.8120622 -0.46508434 0.22273649
-0.82331759 -0.47190318 0.13195628
-0.080353618 -0.0088397823 7.838975
-0.81252372 -0.43631494 5.8633232
-1.0374694 -0.56552833 5.7042003
-1.0562228 -0.58498627 3.9070849
-0.97831988 -0.54626626 2.6992986
-0.93812835 -0.52637345 2.0386319
-0.92015558 -0.51795572 1.623461
-0.90052766 -0.50813133 1.3145963
-0.42571688 -0.18342426 7.8562989
-0.75549728 -0.35947987 7.7603292
-1.1107227 -0.60888839 4.9143367
-1.0105469 -0.5601247 3.1961884
-0.95961058 -0.53535998 2.3358746
-0.92763895 -0.51941097 1.8091755
-0.90615594 -0.50881636 1.4508783
-0.89330822 -0.5026117 1.1894691
-0.8907553 -0.50506276 1.0860566
-0.87934881 -0.49919289 0.89771485
-0.8743692 -0.4969601 0.74399745
-0.86375803 -0.49131975 0.6067248
-0.85885924 -0.48892149 0.48760688
-0.85058254 -0.48459446 0.37768659
-0.83639061 -0.47689021 0.27426568
-0.81730247 -0.46637616 0.1774267
-0.88722682 -0.50142074 0.98882955
-0.86766708 -0.49095565 0.80945796
-0.87182099 -0.49369881 0.67436796
-0.86165649 -0.48853046 0.54535127
-0.85065299 -0.48267585 0.42954585
-0.83700925 -0.47531199 0.32287189
-0.81368071 -0.46224687 0.22273649
-0.82061666 -0.46655717 0.13175476
-0.080383986 -0.0085592428 7.838975
-0.81472778 -0.43384096 5.8682623
-1.0394372 -0.56190348 5.7042003
-1.0556415 -0.57985902 3.897541
-0.97680235 -0.54095542 2.6900938
-0.93786716 -0.52193117 2.0342431
-0.91950083 -0.51336902 1.619328
-0.90229595 -0.5049848 1.3145963
-0.4260886 -0.18182479 7.8513074
-0.75674748 -0.35684049 7.7603292
-1.1095278 -0.60320699 4.8998184
-1.0094712 -0.55493164 3.1868029
-0.95766371 -0.5298996 2.3268721
-0.92716616 -0.51490372 1.8049095
-0.90529388 -0.50418425 1.4468882
-0.8950572 -0.49949041 1.1894691
-0.88940442 -0.50020236 1.0825521
-0.87769425 -0.49421078 0.89457643
-0.87245601 -0.49185163 0.741256
-0.86160958 -0.48612502 0.604406
-0.86056072 -0.48592052 0.48760688
-0.85226899 -0.4816224 0.37768659
-0.83377433 -0.47154957 0.27333307
-0.81892544 -0.46352038 0.1774267
-0.88571453 -0.4964951 0.98550397
-0.86937553 -0.48792392 0.80945796
-0.86978048 -0.48854163 0.67183477
-0.86335659 -0.48551971 0.54535127
-0.84821737 -0.47738761 0.42790234
-0.83442819 -0.47000206 0.32169959
-0.81528932 -0.45940378 0.22273649
-0.81788862 -0.46123579 0.13155322
-0.080413371 -0.0082785981 7.838975
-0.81623721 -0.43099439 5.8682623
-1.0422896 -0.55875248 5.7090955
-1.0550373 -0.57474285 3.8879972
-0.97697216 -0.53660214 2.6854911
-0.93758637 -0.51749712 2.0298538
-0.91882539 -0.50879329 1.615195
-0.90125054 -0.50027668 1.3107588
-0.42618802 -0.18011352 7.8413239
-0.75750518 -0.35397175 7.7553573
-1.1094136 -0.59813774 4.8901396
-1.009887 -0.55057877 3.1821103
-0.95759892 -0.52550638 2.3223708
-0.92667341 -0.5104062 1.8006437
-0.90441054 -0.49956438 1.4428982
-0.89382905 -0.4947215 1.1857939
-0.89114499 -0.49709475 1.0825521
-0.87941402 -0.49114406 0.89457643
-0.87051791 -0.48676261 0.73851454
-0.86330122 -0.48311451 0.604406
-0.86225158 -0.48291364 0.48760688
-0.85394496 -0.47864449 0.37768659
-0.83541524 -0.4686363 0.27333307
-0.81619591 -0.45822108 0.17697962
-0.88417882 -0.49158621 0.98217851
-0.86754167 -0.48292053 0.8065148
-0.86771452 -0.48340473 0.66930163
-0.86108238 -0.48029238 0.54325318
-0.84575534 -0.47212228 0.42625883
-0.83606374 -0.46708646 0.32169959
-0.81688797 -0.45655507 0.22273649
-0.81513345 -0.45593917 0.13135168
-0.08044178 -0.0079978518 7.838975
-0.81773674 -0.42814258 5.8682623
-1.045133 -0.55558854 5.7139907
-1.0544102 -0.56963801 3.8784533
-0.97712356 -0.53225434 2.6808887
-0.93728614 -0.51307148 2.025465
-0.91812915 -0.50422853 1.6110622
-0.90299135 -0.49712768 1.3107588
-0.42654744 -0.17851427 7.8363323
-0.75873613 -0.35132539 7.7553573
-1.1081691 -0.5924843 4.8756213
-1.0087664 -0.54540926 3.1727247
-0.95560294 -0.52007967 2.3133683
-0.92616045 -0.50591832 1.7963778
-0.90614885 -0.49640438 1.4428982
-0.89555049 -0.49159843 1.1857939
-0.88975424 -0.49225485 1.0790474
-0.87771815 -0.48618549 0.89143795
-0.87221169 -0.48372096 0.73851454
-0.86110908 -0.47794843 0.6020872
-0.85987943 -0.47764981 0.48573387
-0.85561055 -0.47566077 0.37768659
-0.83275342 -0.46332902 0.27240044
-0.81779045 -0.45536923 0.17697962
-0.88588941 -0.48849684 0.98217851
-0.8692221 -0.4798893 0.8065148
-0.86562341 -0.47828826 0.66676843
-0.86275363 -0.47728372 0.54325318
-0.84326696 -0.46687999 0.42461532
-0.83343744 -0.46180949 0.32052726
-0.81414539 -0.4513 0.22204581
-0.81671995 -0.45309103 0.13135168
-0.080469206 -0.0077170096 7.838975
-0.81991601 -0.42564321 5.8732018
-1.0479667 -0.55241156 5.7188859
-1.0537604 -0.56454456 3.8689091
-0.97725648 -0.52791196 2.676286
-0.9369663 -0.50865412 2.0210757
-0.91741228 -0.4996748 1.6069292
-0.90190786 -0.49243686 1.3069214
-0.42663381 -0.17680518 7.8263493
-0.75995791 -0.34867477 7.7553573
-1.1068984 -0.58684671 4.8611031
-1.0091431 -0.54106951 3.1680319
-0.95549679 -0.51570714 2.3088672
-0.92562759 -0.50144035 1.7921119
-0.90522826 -0.49180004 1.4389081
-0.89428347 -0.48684865 1.1821188
-0.89146709 -0.48914605 1.0790474
-0.87599832 -0.4812448 0.88829952
-0.87023109 -0.47865838 0.73577309
-0.86277217 -0.47493967 0.6020872
-0.86154145 -0.47464538 0.48573387
-0.85306478 -0.47035509 0.37627655
-0.83006477 -0.45804611 0.27146783
-0.81937498 -0.45251182 0.17697962
-0.88431323 -0.48361024 0.97885299
-0.86734647 -0.47491112 0.80357164
-0.8672877 -0.47526374 0.66676843
-0.86441439 -0.47426924 0.54325318
-0.84489155 -0.46393359 0.42461532
-0.83078462 -0.45655656 0.31935495
-0.81571579 -0.44845536 0.22204581
-0.81391948 -0.44782907 0.13115016
-0.080495656 -0.0074360725 7.838975
-0.82139677 -0.42277861 5.8732018
-1.0507913 -0.54922152 5.7237811
-1.0530879 -0.55946267 3.8593652
-0.97737104 -0.52357519 2.6716835
-0.93662727 -0.50424534 2.0166867
-0.91667479 -0.49513224 1.6027963
-0.90362126 -0.48928562 1.3069214
-0.42698088 -0.17520626 7.8213573
-0.76068479 -0.34579995 7.7503858
-1.1067147 -0.58181006 4.8514242
-1.0079781 -0.53592384 3.1586463
-0.95345223 -0.51031458 2.299865
-0.92737228 -0.49820626 1.7921119
-0.90693945 -0.48863718 1.4389081
-0.89299417 -0.48211369 1.1784436
-0.89003646 -0.48432684 1.0755429
-0.87767291 -0.47818407 0.88829952
-0.87189662 -0.47561783 0.73577309
-0.86053663 -0.46980262 0.5997684
-0.85912466 -0.46941242 0.48386082
-0.85470152 -0.46737447 0.37627655
-0.8316586 -0.45514587 0.27146783
-0.82094955 -0.44964892 0.17697962
-0.88599592 -0.48052046 0.97885299
-0.86899894 -0.47188064 0.80357164
-0.86515373 -0.47017518 0.66423523
-0.86207801 -0.46907991 0.54115516
-0.84235865 -0.45872325 0.42297181
-0.82810527 -0.4513278 0.31818265
-0.81727624 -0.44560522 0.22204581
-0.81547767 -0.44498521 0.13115016
-0.080477491 -0.0071549765 7.8339748
-0.82355982 -0.42026168 5.8781414
-1.053606 -0.54601848 5.7286763
-1.0523928 -0.55439228 3.8498213
-0.9757418 -0.51832777 2.6624784
-0.93838167 -0.50097287 2.0166867
-0.91839749 -0.49192944 1.6027963
-0.90249968 -0.48461226 1.3030838
-0.427322 -0.17360707 7.8163657
-0.76237357 -0.34336081 7.7553573
-1.1053947 -0.57620096 4.836906
-1.008316 -0.5315975 3.1539536
-0.95330471 -0.50596297 2.2953637
-0.92680383 -0.49374008 1.7878458
-0.90598172 -0.48404869 1.4349182
-0.89168262 -0.47739363 1.1747683
-0.89172173 -0.48121709 1.0755429
-0.87591219 -0.47326741 0.88516104
-0.86987364 -0.47058198 0.73303157
-0.86217129 -0.46679592 0.5997684
-0.86075801 -0.46641067 0.48386082
-0.8521108 -0.46210143 0.37486652
-0.82892489 -0.4498969 0.2705352
-0.81813806 -0.44440353 0.17653254
-0.88437945 -0.47565642 0.97552752
-0.86708194 -0.46692812 0.80062848
-0.8667897 -0.46715239 0.66423523
-0.86371022 -0.46606785 0.54115516
-0.84395474 -0.45578006 0.42297181
-0.82967567 -0.44843441 0.31818265
-0.81447065 -0.44039437 0.22135513
-0.81702602 -0.44213596 0.13115016
-0.080501974 -0.0068740137 7.8339748
-0.82571518 -0.4177348 5.88308
-1.0555056 -0.54233736 5.7286763
-1.0516752 -0.54933363 3.8402774
-0.97581655 -0.5140084 2.657876
-0.93800783 -0.4965739 2.0122976
-0.91762382 -0.48740089 1.5986633
-0.90135658 -0.47995278 1.2992463
-0.42792538 -0.17211437 7.8163657
-0.76356745 -0.34069753 7.7553573
-1.104049 -0.57060814 4.8223877
-1.0071067 -0.52647614 3.1445682
-0.95313847 -0.50161868 2.2908626
-0.92621541 -0.48928392 1.7835798
-0.90500313 -0.47947279 1.4309281
-0.89034915 -0.4726887 1.1710931
-0.89025158 -0.47641897 1.0720384
-0.87755889 -0.47020704 0.88516104
-0.87151098 -0.46754268 0.73303157
-0.86379552 -0.46378356 0.5997684
-0.85829711 -0.46120891 0.4819878
-0.85371864 -0.45912418 0.37486652
-0.83049029 -0.44700065 0.2705352
-0.81968433 -0.44154498 0.17653254
-0.88603437 -0.47256646 0.97552752
-0.86870658 -0.46389863 0.80062848
-0.86841506 -0.46412387 0.66423523
-0.86533183 -0.4630501 0.54115516
-0.84554058 -0.45283133 0.42297181
-0.8269518 -0.44323945 0.31701031
-0.81600291 -0.43754864 0.22135513
-0.81856441 -0.43928131 0.13115016
-0.08052548 -0.006592968 7.8339748
-0.82716835 -0.41484997 5.88308
-1.0582997 -0.53911161 5.7335715
-1.0509351 -0.54428679 3.8307333
-0.97414118 -0.50879061 2.6486709
-0.93761492 -0.49218372 2.0079086
-0.91931957 -0.48419479 1.5986633
-0.9001919 -0.47530714 1.2954088
-0.42825499 -0.17051379 7.8113742
-0.76475203 -0.3380301 7.7553573
-1.1037965 -0.56560487 4.8127089
-1.007406 -0.52216363 3.1398752
-0.95295352 -0.49728161 2.2863612
-0.92791766 -0.48604786 1.7835798
-0.90667123 -0.47631085 1.4309281
-0.89199376 -0.46957791 1.1710931
-0.89190918 -0.4733085 1.0720384
-0.87575758 -0.46531478 0.88202262
-0.87313771 -0.46449772 0.73303157
-0.86540914 -0.46076554 0.5997684
-0.8558104 -0.4560301 0.48011476
-0.85531604 -0.45614135 0.37486652
-0.83204556 -0.44409898 0.2705352
-0.82122064 -0.4386811 0.17653254
-0.88767856 -0.46947074 0.97552752
-0.86674833 -0.45897207 0.79768533
-0.87002987 -0.4610897 0.66423523
-0.86293375 -0.45789948 0.53905708
-0.84711611 -0.44987708 0.42297181
-0.82849395 -0.44035012 0.31701031
-0.81315285 -0.43237275 0.22066444
-0.8200928 -0.4364213 0.13115016
-0.080504373 -0.0063122297 7.8289752
-0.82930732 -0.41230568 5.8880196
-1.061084 -0.53587294 5.7384667
-1.0501726 -0.53925174 3.8211894
-0.97244138 -0.50359076 2.6394658
-0.93720263 -0.4878023 2.0035193
-0.9185096 -0.47968039 1.5945303
-0.89900589 -0.47067556 1.2915714
-0.42884761 -0.16901788 7.8113742
-0.76641601 -0.33557174 7.7603292
-1.1024019 -0.56004119 4.7981901
-1.0061525 -0.51706684 3.1304898
-0.95274991 -0.49295196 2.2818599
-0.92729402 -0.48160404 1.7793139
-0.90565586 -0.47175124 1.4269381
-0.89062196 -0.46489286 1.167418
-0.89355588 -0.47019228 1.0720384
-0.87737644 -0.462255 0.88202262
-0.87475383 -0.46144706 0.73303157
-0.86309469 -0.45567375 0.59744954
-0.85739708 -0.45303997 0.48011476
-0.85266238 -0.45091045 0.37345648
-0.83359069 -0.44119188 0.2705352
-0.8183462 -0.43348077 0.17608546
-0.88600516 -0.46463543 0.972202
-0.8683452 -0.45594376 0.79768533
-0.87163401 -0.45804992 0.66423523
-0.86452681 -0.4548845 0.53905708
-0.84868133 -0.44691736 0.42297181
-0.83002603 -0.43745548 0.31701031
-0.81465715 -0.42953169 0.22066444
-0.82161117 -0.43355599 0.13115016
-0.08052592 -0.0060311784 7.8289752
-0.83074147 -0.40940833 5.8880196
-1.0629482 -0.53216583 5.7384667
-1.0493879 -0.53422874 3.8116455
-0.9724552 -0.4993012 2.6348634
-0.93677121 -0.48342976 1.9991302
-0.92017841 -0.47647128 1.5945303
-0.90064329 -0.46753457 1.2915714
-0.42943498 -0.16751988 7.8113742
-0.76758271 -0.33289441 7.7603292
-1.1021045 -0.55505931 4.7885118
-1.0064137 -0.51276839 3.125797
-0.95252782 -0.48862991 2.2773588
-0.9266507 -0.47717047 1.775048
-0.90729707 -0.46858704 1.4269381
-0.8892284 -0.46022314 1.1637428
-0.89519173 -0.46707034 1.0720384
-0.87898469 -0.45918953 0.88202262
-0.87265396 -0.45645291 0.73029011
-0.86468005 -0.45265824 0.59744954
-0.8548668 -0.44789299 0.47824174
-0.85423112 -0.44793135 0.37345648
-0.83077598 -0.43599677 0.2696026
-0.81985432 -0.43062156 0.17608546
-0.88762164 -0.46153986 0.972202
-0.86993146 -0.45290986 0.79768533
-0.86940461 -0.45301276 0.6617021
-0.86610943 -0.45186397 0.53905708
-0.85023612 -0.44395217 0.42297181
-0.82724017 -0.43230435 0.31583801
-0.8161515 -0.42668539 0.22066444
-0.82311952 -0.4306854 0.13115016
-0.080546483 -0.005750054 7.8289752
-0.83216554 -0.40650603 5.8880196
-1.0657114 -0.52890462 5.7433624
-1.0485808 -0.52921778 3.8021016
-0.97070986 -0.49413159 2.6256583
-0.93845296 -0.4801569 1.9991302
-0.91933244 -0.47197136 1.5903975
-0.89941984 -0.46292129 1.2877338
-0.43001711 -0.16601986 7.8113742
-0.76874 -0.33021301 7.7603292
-1.1017859 -0.55008638 4.7788324
-1.006657 -0.50847441 3.1211042
-0.95228708 -0.48431534 2.2728574
-0.92598778 -0.47274736 1.7707821
-0.90624499 -0.46404397 1.4229481
-0.89082944 -0.45711634 1.1637428
-0.89364904 -0.46230423 1.0685339
-0.88058215 -0.45611849 0.88202262
-0.87424195 -0.45340398 0.73029011
-0.86232299 -0.44759649 0.59513074
-0.85642505 -0.4449062 0.47824174
-0.85578948 -0.4449468 0.37345648
-0.83229285 -0.43309414 0.2696026
-0.82135248 -0.42775711 0.17608546
-0.88590848 -0.45672789 0.96887648
-0.86791533 -0.44801664 0.79474217
-0.87098062 -0.44997519 0.6617021
-0.86365026 -0.44675279 0.53695905
-0.84758711 -0.43881065 0.42132831
-0.82874411 -0.42941409 0.31583801
-0.81763595 -0.42383388 0.22066444
-0.82461792 -0.42780954 0.13115016
-0.080566064 -0.0054688593 7.8289752
-0.83357936 -0.40359876 5.8880196
-1.0675513 -0.52518135 5.7433624
-1.0490867 -0.52488661 3.7973294
-0.97068441 -0.48986021 2.6210558
-0.93798733 -0.47579497 1.9947413
-0.92097437 -0.46875942 1.5903975
-0.89817506 -0.45832226 1.2838963
-0.4303239 -0.16441575 7.8063827
-0.76988804 -0.32752761 7.7603292
-1.1003193 -0.54456508 4.7643147
-1.0068825 -0.50418502 3.1164114
-0.95202792 -0.48000845 2.2683563
-0.92763233 -0.46951216 1.7707821
-0.90517229 -0.45951399 1.4189581
-0.88939798 -0.45246699 1.1600677
-0.89525735 -0.45918202 1.0685339
-0.87870646 -0.45126399 0.87888414
-0.87210053 -0.44843757 0.72754866
-0.86388022 -0.44458371 0.59513074
-0.8579728 -0.44191402 0.47824174
-0.85307354 -0.4397589 0.37204644
-0.83379954 -0.4301863 0.2696026
-0.81841576 -0.42260262 0.17563838
-0.88417268 -0.45193356 0.96555102
-0.86947387 -0.44498432 0.79474217
-0.86870921 -0.44496706 0.6591689
-0.86520445 -0.44373539 0.53695905
-0.84911364 -0.43584937 0.42132831
-0.82591444 -0.42429757 0.31466568
-0.81470603 -0.41871366 0.21997377
-0.82610619 -0.42492849 0.13115016
-0.08058466 -0.0051875976 7.8289752
-0.83428246 -0.40035069 5.88308
-1.0702933 -0.52189773 5.7482576
-1.0482377 -0.51989543 3.7877855
-0.9706412 -0.48559505 2.6164534
-0.93750262 -0.4714421 1.990352
-0.92009264 -0.46427435 1.5862645
-0.89976948 -0.45518425 1.2838963
-0.43089521 -0.16291264 7.8063827
-0.77053505 -0.32463187 7.7553573
-1.0999565 -0.53961426 4.7546358
-1.0055447 -0.49913323 3.1070261
-0.95175022 -0.47570929 2.263855
-0.92693442 -0.46510184 1.7665161
-0.90407902 -0.45499712 1.414968
-0.89097196 -0.44935969 1.1600677
-0.89367574 -0.45443791 1.0650293
-0.88027632 -0.44819397 0.87888414
-0.87366062 -0.44539064 0.72754866
-0.86542678 -0.44156548 0.59513074
-0.85538137 -0.43680817 0.4763687
-0.85460341 -0.43677843 0.37204644
-0.83529609 -0.42727315 0.2696026
-0.81988591 -0.41974324 0.17563838
-0.88574481 -0.44884446 0.96555102
-0.86741722 -0.44011781 0.79179901
-0.87025714 -0.44193199 0.6591689
-0.86270249 -0.43865564 0.53486103
-0.8464213 -0.4307411 0.4196848
-0.82739055 -0.42141202 0.31466568
-0.81616265 -0.41586724 0.21997377
-0.82758451 -0.42204225 0.13115016
-0.080602281 -0.0049062734 7.8289752
-0.83567488 -0.39743608 5.88308
-1.0721085 -0.51815856 5.7482576
-1.0473667 -0.5149166 3.7782414
-0.97057986 -0.48133615 2.6118507
-0.93699896 -0.46709847 1.9859631
-0.91919082 -0.45980108 1.5821315
-0.89848769 -0.45060402 1.2800589
-0.43146124 -0.16140755 7.8063827
-0.77166355 -0.32194021 7.7553573
-1.0984417 -0.534123 4.7401171
-1.0057324 -0.49485856 3.1023331
-0.95145422 -0.47141793 2.2593539
-0.92621702 -0.46070212 1.7622502
-0.90296531 -0.45049357 1.410978
-0.88950264 -0.444731 1.1563925
-0.89207202 -0.44971046 1.0615247
-0.87836057 -0.44336474 0.87574571
-0.87520999 -0.44233829 0.72754866
-0.86300999 -0.43654254 0.59281194
-0.85690087 -0.43381965 0.4763687
-0.85612285 -0.43379265 0.37204644
-0.83240134 -0.42213312 0.26866996
-0.8213461 -0.41687876 0.17563838
-0.88396966 -0.444074 0.9622255
-0.86533725 -0.43527117 0.78885585
-0.86794394 -0.43695322 0.6566357
-0.86422843 -0.43564159 0.53486103
-0.84370363 -0.42565703 0.41804129
-0.82451761 -0.41633052 0.31349337
-0.81318921 -0.41078302 0.21928309
-0.82459408 -0.41689673 0.13094862
-0.080618918 -0.0046248892 7.8289752
-0.83776009 -0.39484754 5.8880196
-1.0748291 -0.51485264 5.7531524
-1.0464737 -0.5099501 3.7686975
-0.97050077 -0.47708365 2.6072483
-0.93647641 -0.46276411 1.9815739
-0.92079026 -0.4565897 1.5821315
-0.89718485 -0.44603828 1.2762213
-0.43202204 -0.15990047 7.8063827
-0.77278262 -0.31924465 7.7553573
-1.0980346 -0.52919447 4.7304387
-1.0043513 -0.48983246 3.0929477
-0.95113987 -0.46713442 2.2548525
-0.92548031 -0.45631319 1.7579843
-0.90183121 -0.44600335 1.406988
-0.88801199 -0.4401181 1.1527174
-0.89363635 -0.44659385 1.0615247
-0.8799029 -0.44029599 0.87574571
-0.87301022 -0.43740761 0.7248072
-0.86452854 -0.43352744 0.59281194
-0.85840994 -0.43082586 0.4763687
-0.8576318 -0.4308016 0.37204644
-0.83386981 -0.41922492 0.26866996
-0.82279623 -0.41400915 0.17563838
-0.88551438 -0.44098568 0.9622255
-0.86323404 -0.43044436 0.78591269
-0.86946392 -0.43392089 0.6566357
-0.86168391 -0.43059361 0.53276294
-0.84518433 -0.42270935 0.41804129
-0.82596582 -0.41344988 0.31349337
-0.81461811 -0.40794194 0.21928309
-0.82604432 -0.41401586 0.13094862
-0.080634564 -0.0043434482 7.8289752
-0.83983743 -0.39224935 5.8929591
-1.0766197 -0.51109767 5.7531524
-1.045559 -0.50499618 3.7591536
-0.97040379 -0.47283754 2.6026456
-0.93593514 -0.45843911 1.977185
-0.91985279 -0.45213166 1.5779986
-0.89586121 -0.44148719 1.2723838
-0.43284905 -0.15848973 7.8113742
-0.77389222 -0.31654519 7.7553573
-1.0964723 -0.52373385 4.7159204
-1.0045012 -0.48557281 3.0882547
-0.95080727 -0.46285892 2.2503514
-0.92472422 -0.45193493 1.7537184
-0.90067685 -0.44152653 1.402998
-0.88954294 -0.43701568 1.1527174
-0.89199406 -0.44188884 1.0580202
-0.87794739 -0.43549246 0.87260723
-0.87453175 -0.43435758 0.7248072
-0.86206973 -0.42853528 0.59049314
-0.85990864 -0.42782685 0.4763687
-0.85483623 -0.42566708 0.3706364
-0.83532804 -0.41631162 0.26866996
-0.82423639 -0.41113457 0.17563838
-0.88370019 -0.43623939 0.95890003
-0.86473125 -0.42742851 0.78591269
-0.86710936 -0.42897192 0.65410256
-0.86318171 -0.42758313 0.53276294
-0.84242386 -0.4176591 0.41639778
-0.82740402 -0.41056421 0.31349337
-0.81160152 -0.40289405 0.21859241
-0.82301033 -0.40890694 0.13074709
-0.080649234 -0.0040619546 7.8289752
-0.84190685 -0.3896414 5.8978982
-1.0793186 -0.50776964 5.7580476
-1.0432758 -0.49941057 3.7448375
-0.96852964 -0.46774855 2.5934405
-0.93537509 -0.45412353 1.9727957
-0.91889554 -0.44768575 1.5738657
-0.89739674 -0.43835738 1.2723838
-0.43339965 -0.15697785 7.8113742
-0.77499247 -0.31384188 7.7553573
-1.0960212 -0.51882809 4.7062416
-1.0046337 -0.48131815 3.0835621
-0.95045632 -0.45859137 2.2458501
-0.92629611 -0.4487043 1.7537184
-0.9022125 -0.43837988 1.402998
-0.88801485 -0.43242389 1.1490422
-0.8903299 -0.43720075 1.0545157
-0.87596923 -0.43070793 0.86946881
-0.87229109 -0.42945546 0.72206575
-0.86356038 -0.42552349 0.59049314
-0.85723889 -0.4227722 0.47449568
-0.85201526 -0.42055735 0.3692264
-0.83237201 -0.41121754 0.26773736
-0.8212024 -0.40604767 0.1751913
-0.88521761 -0.43315205 0.95890003
-0.86258823 -0.42262921 0.78296953
-0.8686015 -0.42594251 0.65410256
-0.86059499 -0.42256722 0.53066492
-0.8438766 -0.41471595 0.41639778
-0.82447052 -0.40552831 0.31232107
-0.81300294 -0.40005857 0.21859241
-0.81995076 -0.4038243 0.13054556
-0.080706514 -0.003778653 7.8339748
-0.84467465 -0.38734737 5.9077764
-1.0820075 -0.50442904 5.7629433
-1.0423152 -0.49448672 3.7352936
-0.96839422 -0.46352169 2.5888383
-0.93479639 -0.44981751 1.9684068
-0.92045265 -0.44447547 1.5738657
-0.89603651 -0.43382567 1.2685463
-0.43394497 -0.15546405 7.8113742
-0.77608329 -0.31113473 7.7553573
-1.0955495 -0.51393193 4.6965628
-1.0047487 -0.47706845 3.0788693
-0.95008731 -0.45433196 2.241349
-0.92550552 -0.44433963 1.7494525
-0.90102232 -0.43392071 1.3990079
-0.88646561 -0.42784813 1.145367
-0.89185065 -0.43409029 1.0545157
-0.87746739 -0.42764759 0.86946881
-0.8737849 -0.42640799 0.72206575
-0.86105996 -0.42056254 0.58817434
-0.85870945 -0.41977727 0.47449568
-0.84916908 -0.41547254 0.36781636
-0.83380234 -0.40830949 0.26773736
-0.82261479 -0.40317866 0.1751913
-0.88336456 -0.42843026 0.95557451
-0.8640582 -0.41961563 0.78296953
-0.86620587 -0.42102364 0.65156937
-0.86206478 -0.41956061 0.53066492
-0.84107375 -0.40969989 0.41475427
-0.82588106 -0.40264791 0.31232107
-0.81439441 -0.39721823 0.21859241
-0.81686586 -0.39876807 0.13034403
-0.080719218 -0.0034969118 7.8339748
-0.8467291 -0.38471764 5.9127159
-1.0837617 -0.50064909 5.7629433
-1.041333 -0.48957559 3.7257495
-0.96824116 -0.45930153 2.5842357
-0.93419892 -0.445521 1.9640176
-0.91946024 -0.44004524 1.5697327
-0.89754534 -0.43069527 1.2685463
-0.43448499 -0.15394835 7.8113742
-0.77766037 -0.3086198 7.7603292
-1.0950568 -0.5090453 4.6868839
-1.0048462 -0.47282383 3.0741765
-0.94773281 -0.44914868 2.2323468
-0.92469573 -0.43998599 1.7451864
-0.9025315 -0.4307729 1.3990079
-0.8879537 -0.42475116 1.145367
-0.89014828 -0.42942515 1.0510111
-0.8754499 -0.42288923 0.86633033
-0.87150365 -0.42153478 0.71932429
-0.86252278 -0.41755429 0.58817434
-0.85599744 -0.41475594 0.47262263
-0.85061419 -0.41250587 0.36781636
-0.83080328 -0.40325156 0.26680472
-0.81953776 -0.39812872 0.17474423
-0.88485473 -0.42534414 0.95557451
-0.86551768 -0.41659695 0.78296953
-0.86767024 -0.41799745 0.65156937
-0.86352408 -0.41654891 0.53066492
-0.84249878 -0.4067615 0.41475427
-0.82290494 -0.39764783 0.31114873
-0.81577605 -0.39437303 0.21859241
-0.81825286 -0.39591423 0.13034403
-0.08073093 -0.0032151276 7.8339748
-0.84948426 -0.38239697 5.9225945
-1.0864286 -0.4972865 5.7678385
-1.0416825 -0.4853076 3.7209778
-0.96807045 -0.45508805 2.5796332
-0.93358302 -0.4412342 1.9596287
-0.91844803 -0.43562734 1.5655998
-0.89614862 -0.42618325 1.2647089
-0.43501973 -0.15243077 7.8113742
-0.7787329 -0.30590338 7.7603292
-1.0945433 -0.50416845 4.6772046
-1.0033623 -0.46785533 3.064791
-0.94732434 -0.44491258 2.2278454
-0.92386699 -0.43564346 1.7409205
-0.90130568 -0.42633164 1.395018
-0.8863675 -0.42019704 1.1416919
-0.89164186 -0.42631534 1.0510111
-0.87340987 -0.41815019 0.8631919
-0.86919916 -0.41668269 0.71658283
-0.85998118 -0.41262487 0.58585554
-0.85744005 -0.4117654 0.47262263
-0.84772533 -0.40745613 0.36640632
-0.83220583 -0.40034908 0.26680472
-0.81643552 -0.39310518 0.17429715
-0.88296312 -0.42064717 0.95224905
-0.86331832 -0.41183305 0.78002638
-0.86523384 -0.41310897 0.64903617
-0.86497283 -0.41353208 0.53066492
-0.83965379 -0.40177998 0.41311076
-0.81990421 -0.39267349 0.3099764
-0.81714773 -0.39152306 0.21859241
-0.81512511 -0.39089537 0.1301425
-0.080741659 -0.0029333043 7.8339748
-0.85081393 -0.3794294 5.9225945
-1.0881578 -0.49349114 5.7678385
-1.0406594 -0.48041767 3.7114339
-0.96788192 -0.45088133 2.5750306
-0.93294847 -0.43695712 1.9552395
-0.91996306 -0.4324187 1.5655998
-0.89763081 -0.42305252 1.2647089
-0.43554914 -0.15091135 7.8113742
-0.779796 -0.30318323 7.7603292
-1.0940094 -0.4993014 4.6675262
-1.0034227 -0.46362653 3.0600982
-0.9468978 -0.44068477 2.2233443
-0.92301905 -0.43131205 1.7366546
-0.90005994 -0.42190421 1.3910279
-0.88782889 -0.41710049 1.1416919
-0.8899017 -0.42167348 1.0475066
-0.87486422 -0.41509885 0.8631919
-0.87064838 -0.4136461 0.71658283
-0.86141628 -0.40962043 0.58585554
-0.85468608 -0.40677774 0.47074962
-0.84481162 -0.40243164 0.36499628
-0.8335982 -0.39744169 0.26680472
-0.81780273 -0.39025289 0.17429715
-0.88442606 -0.41756245 0.95224905
-0.86475062 -0.40881699 0.78002638
-0.86667061 -0.41008624 0.64903617
-0.86230963 -0.40856713 0.52856684
-0.84105122 -0.3988466 0.41311076
-0.8168788 -0.387725 0.30880409
-0.8185094 -0.3886683 0.21859241
-0.81648469 -0.38804764 0.1301425
-0.080751412 -0.0026514453 7.8339748
-0.8535549 -0.37708449 5.9324727
-1.0908027 -0.49010679 5.7727332
-1.0409725 -0.47616151 3.7066617
-0.96767604 -0.4466815 2.5704281
-0.9322955 -0.43268982 1.9508505
-0.91891581 -0.42801687 1.5614668
-0.8961978 -0.41856053 1.2608713
-0.43607327 -0.14939007 7.8113742
-0.78084958 -0.30045938 7.7603292
-1.0934547 -0.49444422 4.6578469
-1.0018966 -0.45868489 3.0507126
-0.94645339 -0.43646544 2.218843
-0.92215228 -0.42699188 1.7323887
-0.89879423 -0.41749066 1.3870379
-0.88927943 -0.41399884 1.1416919
-0.89136821 -0.41856456 1.0475066
-0.87278539 -0.41038644 0.86005342
-0.86830378 -0.4088234 0.71384138
-0.85883361 -0.40472284 0.58353674
-0.85610086 -0.40379184 0.47074962
-0.84621125 -0.39948022 0.36499628
-0.83498049 -0.39452946 0.26680472
-0.81465805 -0.38526684 0.17385007
-0.88587821 -0.41447273 0.95224905
-0.86251211 -0.40408137 0.77708322
-0.86419374 -0.40522847 0.64650303
-0.86373049 -0.40555462 0.52856684
-0.84243834 -0.39590836 0.41311076
-0.81822717 -0.38487118 0.30880409
-0.81538033 -0.38370028 0.21790172
-0.81783426 -0.38519523 0.1301425
-0.080760173 -0.0023695542 7.8339748
-0.8527301 -0.37316918 5.9176555
-1.0925068 -0.48629618 5.7727332
-1.0399089 -0.47129306 3.6971178
-0.96745259 -0.44248861 2.5658255
-0.93162411 -0.42843243 1.9464613
-0.91784918 -0.42362764 1.5573338
-0.89474452 -0.41408369 1.2570338
-0.43659207 -0.14786699 7.8113742
-0.78139514 -0.29754284 7.7553573
-1.0928797 -0.48959708 4.6481686
-1.0003483 -0.45375964 3.0413272
-0.94599104 -0.43225455 2.2143419
-0.92126662 -0.42268303 1.7281228
-0.90024608 -0.41435075 1.3870379
-0.88764066 -0.40947232 1.1380167
-0.88959044 -0.41394621 1.0440021
-0.87421256 -0.40733734 0.86005342
-0.86972553 -0.40578997 0.71384138
-0.86024112 -0.40172249 0.58353674
-0.85330522 -0.39883813 0.46887657
-0.8432554 -0.39449134 0.36358625
-0.83635259 -0.39161244 0.26680472
-0.81599796 -0.38242081 0.17385007
-0.88393211 -0.40980762 0.94892353
-0.86025107 -0.39936632 0.77414006
-0.86560291 -0.4022094 0.64650303
-0.86514091 -0.40253717 0.52856684
-0.8395344 -0.3909719 0.41146725
-0.81516004 -0.37995929 0.30763176
-0.81671476 -0.38085175 0.21790172
-0.81917381 -0.38233811 0.1301425
-0.080767952 -0.0020876343 7.8339748
-0.85474056 -0.37049904 5.9225945
-1.0951295 -0.48289028 5.7776289
-1.038824 -0.46643785 3.6875737
-0.9672116 -0.43830273 2.5612228
-0.93093443 -0.4241851 1.9420724
-0.91932237 -0.42042118 1.5573338
-0.89618444 -0.41095793 1.2570338
-0.4371056 -0.1463421 7.8113742
-0.78242898 -0.29481342 7.7553573
-1.092284 -0.4847599 4.6384892
-1.000352 -0.4495579 3.0366344
-0.94749409 -0.4289498 2.2143419
-0.92273641 -0.41946465 1.7281228
-0.89894521 -0.40995574 1.3830478
-0.88906455 -0.40637138 1.1380167
-0.89102995 -0.41083845 1.0440021
-0.87562913 -0.40428331 0.86005342
-0.87113672 -0.40275156 0.71384138
-0.85761786 -0.39685702 0.58121794
-0.85469222 -0.39585713 0.46887657
-0.84462726 -0.39154544 0.36358625
-0.83771449 -0.38869062 0.26680472
-0.8128112 -0.37747255 0.17340299
-0.8853572 -0.40671962 0.94892353
-0.86163992 -0.39636105 0.77414006
-0.86308575 -0.39738268 0.64396977
-0.86241913 -0.39761472 0.52646881
-0.84089404 -0.38803896 0.41146725
-0.81648141 -0.37711152 0.30763176
-0.8135438 -0.3759214 0.21721105
-0.81596899 -0.37737918 0.12994097
-0.080774747 -0.0018056887 7.8339748
-0.85817093 -0.36843181 5.9374123
-1.0977416 -0.47947189 5.7825241
-1.0377178 -0.46159598 3.6780298
-0.96695334 -0.43412396 2.5566204
-0.93240947 -0.42093295 1.9420724
-0.918221 -0.41604844 1.553201
-0.89469522 -0.40650153 1.2531964
-0.43788812 -0.14490509 7.8163657
-0.78345335 -0.29208043 7.7553573
-1.0916679 -0.4799329 4.6288109
-0.99876195 -0.44466004 3.0272489
-0.94699925 -0.42474917 2.2098405
-0.92181695 -0.4151704 1.7238568
-0.90037072 -0.40681532 1.3830478
-0.8873893 -0.40186715 1.1343416
-0.88921469 -0.40624392 1.0404975
-0.87349534 -0.39960521 0.85691494
-0.87253731 -0.3997083 0.71384138
-0.85899794 -0.39386097 0.58121794
-0.85606885 -0.39287129 0.46887657
-0.84598887 -0.38859475 0.36358625
-0.83906615 -0.38576409 0.26680472
-0.81412387 -0.37463301 0.17340299
-0.88677156 -0.40362668 0.94892353
-0.85934013 -0.39167479 0.7711969
-0.86446768 -0.39436755 0.64396977
-0.86380178 -0.39460185 0.52646881
-0.84224343 -0.38510135 0.41146725
-0.81779277 -0.37425914 0.30763176
-0.81485105 -0.3730793 0.21721105
-0.81728131 -0.37452862 0.12994097
-0.080780558 -0.0015237214 7.8339748
-1.1003432 -0.47604126 5.7874193
-1.0379567 -0.45736921 3.6732578
-0.96667761 -0.42995232 2.5520179
-0.9316867 -0.41669807 1.9376832
-0.91710037 -0.41168851 1.549068
-0.89318585 -0.40206057 1.2493588
-0.4383913 -0.14337569 7.8163657
-0.78396773 -0.2891601 7.7503858
-1.0910314 -0.4751161 4.6191316
-0.99872893 -0.4404749 3.0225561
-0.94648665 -0.42055723 2.2053394
-0.92326051 -0.41195014 1.7238568
-0.90178531 -0.40366995 1.3830478
-0.88569343 -0.39737958 1.1306664
-0.89062732 -0.40313751 1.0404975
-0.87488484 -0.39655373 0.85691494
-0.87011957 -0.39493209 0.71109986
-0.85633433 -0.38902801 0.57889915
-0.85743499 -0.38988063 0.46887657
-0.84734017 -0.38563931 0.36358625
-0.83593732 -0.38079658 0.26587209
-0.81542665 -0.37178892 0.17340299
-0.88817507 -0.40052879 0.94892353
-0.8607021 -0.38867274 0.7711969
-0.86583894 -0.39134759 0.64396977
-0.8610391 -0.38971296 0.52437073
-0.84358257 -0.38215902 0.41146725
-0.81909418 -0.37140226 0.30763176
-0.81163859 -0.36818695 0.21652037
-0.81858367 -0.37167349 0.12994097
-0.080785386 -0.0012417359 7.8339748
-1.1178508 -0.47057149 7.7106061
-1.1029341 -0.47259817 5.7923141
-1.0368105 -0.45254952 3.6637139
-0.96638459 -0.42578793 2.5474155
-0.93313557 -0.41344333 1.9376832
-0.91853184 -0.40848476 1.549068
-0.89458388 -0.39894029 1.2493588
-0.43888909 -0.14184456 7.8163657
-0.78547329 -0.28660387 7.7553573
-1.0903747 -0.47030962 4.6094532
-0.99867892 -0.43629539 3.0178635
-0.94595629 -0.41637403 2.2008381
-0.92230731 -0.40767068 1.7195909
-0.90318882 -0.4005197 1.3830478
-0.88707519 -0.3942855 1.1306664
-0.89202917 -0.40002617 1.0404975
-0.8762638 -0.39349738 0.85691494
-0.8714928 -0.3918924 0.71109986
-0.85768706 -0.38603649 0.57889915
-0.8587907 -0.38688529 0.46887657
-0.84430802 -0.38070741 0.36217624
-0.83726144 -0.37787631 0.26587209
-0.81671941 -0.36894029 0.17340299
-0.8861587 -0.39590323 0.94559801
-0.86205363 -0.38566598 0.7711969
-0.86719972 -0.38832283 0.64396977
-0.86239427 -0.38670498 0.52437073
-0.8449114 -0.37921202 0.41146725
-0.81595182 -0.3665491 0.30645946
-0.8129189 -0.36535156 0.21652037
-0.8153199 -0.36676431 0.12973943
-0.080789231 -0.00095973467 7.8339748
-1.1230729 -0.46816018 7.735302
-1.1055145 -0.46914288 5.7972097
-1.0356435 -0.44774342 3.65417
-0.9642837 -0.42084959 2.5382104
-0.93237996 -0.40922135 1.9332942
-0.91737676 -0.40414172 1.544935
-0.89303905 -0.39452019 1.2455213
-0.43938154 -0.14031167 7.8163657
-0.78646898 -0.2838603 7.7553573
-1.0896976 -0.46551353 4.5997739
-0.99861199 -0.4321216 3.0131705
-0.9454084 -0.41219971 2.196337
-0.92372477 -0.40444875 1.7195909
-0.90182251 -0.39615285 1.3790579
-0.88534331 -0.38982072 1.1269913
-0.89016092 -0.3954623 1.036993
-0.87407565 -0.38885435 0.85377645
-0.8690359 -0.38714656 0.70835841
-0.85498351 -0.38123637 0.57658035
-0.85590243 -0.38199589 0.46700355
-0.84125191 -0.37580141 0.3607662
-0.83857536 -0.37495139 0.26587209
-0.81345677 -0.36405289 0.17295592
-0.88753527 -0.39280754 0.94559801
-0.86339456 -0.38265449 0.7711969
-0.86460942 -0.38354555 0.64143664
-0.86373883 -0.38369229 0.52437073
-0.84191501 -0.37434202 0.40982375
-0.81722635 -0.36369866 0.30645946
-0.81418926 -0.36251172 0.21652037
-0.81659514 -0.36391607 0.12973943
-0.080792084 -0.0006777214 7.8339748
-1.123982 -0.46394086 7.7303629
-1.1080842 -0.46567529 5.8021049
-1.0344555 -0.44295099 3.6446261
-0.96395338 -0.41670609 2.5336077
-0.93160617 -0.4050096 1.928905
-0.91620266 -0.3998118 1.5408021
-0.89441067 -0.39140049 1.2455213
-0.43986863 -0.13877709 7.8163657
-0.78745502 -0.28111327 7.7553573
-1.0890005 -0.4607279 4.5900955
-0.99694175 -0.42727411 3.0037851
-0.94684142 -0.4088971 2.196337
-0.92273813 -0.40018445 1.715325
-0.90319985 -0.39300251 1.3790579
-0.8866986 -0.38672793 1.1269913
-0.89153594 -0.39235264 1.036993
-0.87542766 -0.3858009 0.85377645
-0.87038201 -0.38411069 0.70835841
-0.85630912 -0.37824959 0.57658035
-0.85723066 -0.37900591 0.46700355
-0.83817184 -0.37092143 0.35935616
-0.83538771 -0.37003258 0.26493949
-0.8147226 -0.36121118 0.17295592
-0.888901 -0.38970709 0.94559801
-0.86472505 -0.37963834 0.7711969
-0.86594301 -0.38052514 0.64143664
-0.86091882 -0.37884709 0.52227271
-0.84321654 -0.37140089 0.40982375
-0.81849092 -0.36084381 0.30645946
-0.81544971 -0.35966745 0.21652037
-0.81786048 -0.36106339 0.12973943
-0.080837443 -0.00039211821 7.838975
-1.1270332 -0.46060199 7.7402415
-1.1097029 -0.46180454 5.8021049
-1.0332466 -0.43817228 3.6350818
-0.96360606 -0.41257006 2.5290053
-0.93081445 -0.40080827 1.9245161
-0.9175927 -0.39661121 1.5408021
-0.89577144 -0.38827604 1.2455213
-0.44062632 -0.1373257 7.8213573
-0.78843153 -0.27836281 7.7553573
-1.0882832 -0.45595279 4.5804162
-0.99683863 -0.42311758 2.9990923
-0.94626129 -0.40473366 2.1918356
-0.92173302 -0.39593199 1.7110591
-0.90179884 -0.38865501 1.3750678
-0.88804317 -0.38363042 1.1269913
-0.88963073 -0.38781327 1.0334884
-0.87676907 -0.38274273 0.85377645
-0.86788607 -0.37939546 0.70561695
-0.85356581 -0.37348261 0.57426155
-0.85854846 -0.37601128 0.46700355
-0.83506793 -0.36606753 0.35794613
-0.83667427 -0.36711428 0.26493949
-0.81597847 -0.35836506 0.17295592
-0.88683105 -0.38511482 0.94227254
-0.86233819 -0.37500581 0.76825374
-0.86331332 -0.37577984 0.63890344
-0.86223602 -0.37583962 0.52227271
-0.84017968 -0.36656702 0.40818024
-0.81974554 -0.35798454 0.30645946
-0.81216234 -0.35483629 0.21582969
-0.81453848 -0.35620463 0.12953791
-0.080881797 -0.00010620519 7.8439746
-1.1279137 -0.4563739 7.735302
-1.1122497 -0.45831579 5.8070002
-1.032017 -0.43340743 3.6255379
-0.96324152 -0.40844148 2.5244026
-0.93000466 -0.39661741 1.9201269
-0.91638452 -0.39229861 1.5366691
-0.89712137 -0.38514683 1.2455213
-0.44110298 -0.1357868 7.8213573
-0.78889489 -0.27543396 7.7503858
-1.087546 -0.45118836 4.5707378
-0.99512762 -0.41829845 2.989707
-0.94566375 -0.4005793 2.1873345
-0.92070943 -0.39169142 1.7067931
-0.90315002 -0.38550478 1.3750678
-0.88937688 -0.38052824 1.1269913
-0.89097899 -0.38470551 1.0334884
-0.87809974 -0.37967992 0.85377645
-0.86920512 -0.37636364 0.70561695
-0.8548643 -0.37050086 0.57426155
-0.85560268 -0.37116724 0.46513051
-0.83194047 -0.36123985 0.35653609
-0.83795065 -0.3641915 0.26493949
-0.81722444 -0.35551459 0.17295592
-0.88816988 -0.38201684 0.94227254
-0.86364192 -0.37199342 0.76825374
-0.86461985 -0.37276402 0.63890344
-0.86354268 -0.37282756 0.52227271
-0.84145409 -0.36363199 0.40818024
-0.81652898 -0.35319132 0.30528715
-0.81339598 -0.35199916 0.21582969
-0.81577688 -0.35335916 0.12953791
-0.080881678 0.00017612577 7.8439746
-1.1294999 -0.45243397 7.735302
-1.1147856 -0.45481491 5.8118949
-1.0321454 -0.42922947 3.6207662
-0.96286005 -0.40432054 2.5198004
-0.92917711 -0.39243713 1.9157379
-0.91515738 -0.38799927 1.5325361
-0.89846033 -0.38201296 1.2455213
-0.44157431 -0.13424625 7.8213573
-0.78985155 -0.27267852 7.7503858
-1.0867887 -0.44643462 4.5610585
-0.99498832 -0.41415933 2.985014
-0.94504857 -0.39643404 2.1828332
-0.9220711 -0.38847515 1.7067931
-0.90171456 -0.3811768 1.3710777
-0.89069974 -0.37742144 1.1269913
-0.88903743 -0.38019109 1.0299838
-0.87584162 -0.37508038 0.85063797
-0.86667055 -0.37167934 0.70287549
-0.85615236 -0.36751455 0.57426155
-0.85689306 -0.36817837 0.46513051
-0.83319634 -0.35833362 0.35653609
-0.83470482 -0.35932207 0.26400685
-0.81388694 -0.35068917 0.17250884
-0.8860628 -0.37745112 0.93894702
-0.86493516 -0.36897647 0.76825374
-0.86195111 -0.36805096 0.63637024
-0.86066574 -0.3680267 0.52017462
-0.8427183 -0.36069256 0.40818024
-0.81775683 -0.35033894 0.30528715
-0.81461978 -0.34915772 0.21582969
-0.8170054 -0.35050943 0.12953791
-0.080880567 0.00045845445 7.8439746
-1.13035 -0.4482024 7.7303629
-1.1163664 -0.45092082 5.8118949
-1.0308765 -0.4244878 3.611222
-0.96246153 -0.40020725 2.5151978
-0.93054134 -0.3891913 1.9157379
-0.91391152 -0.38371328 1.5284033
-0.89683425 -0.37763083 1.2416838
-0.44204018 -0.13270405 7.8213573
-0.79079854 -0.26991975 7.7503858
-1.0860115 -0.4416917 4.5513802
-0.99323678 -0.40936902 2.9756284
-0.94441622 -0.39229795 2.1783321
-0.92101449 -0.38425022 1.7025272
-0.90026003 -0.37686357 1.3670877
-0.88888556 -0.37299842 1.123316
-0.88707513 -0.37569484 1.0264792
-0.87714559 -0.37202084 0.85063797
-0.86796266 -0.36865184 0.70287549
-0.85335326 -0.36279079 0.57194275
-0.85390723 -0.36336988 0.46325746
-0.83444214 -0.35542306 0.35653609
-0.83595401 -0.35640621 0.26400685
-0.81510609 -0.34784603 0.17250884
-0.88737494 -0.37435588 0.93894702
-0.86621785 -0.36595505 0.76825374
-0.86323059 -0.36503997 0.63637024
-0.86194515 -0.36502019 0.52017462
-0.83962446 -0.35590592 0.40653673
-0.81897479 -0.34748232 0.30528715
-0.81127518 -0.3443771 0.21513902
-0.81362575 -0.34570175 0.12933637
-0.080878474 0.00074077776 7.8439746
-1.1319077 -0.44425404 7.7303629
-1.1188791 -0.44739899 5.8167906
-1.0309696 -0.42032346 3.6064501
-0.96204609 -0.39610168 2.5105953
-0.9296813 -0.38502458 1.9113487
-0.91524535 -0.38052079 1.5284033
-0.89814693 -0.37449798 1.2416838
-0.44250071 -0.13116023 7.8213573
-0.79173595 -0.26715773 7.7503858
-1.0863806 -0.43742889 4.5465403
-0.99306184 -0.40524772 2.9709356
-0.94376636 -0.38817111 2.1738307
-0.92235017 -0.38103294 1.7025272
-0.90157002 -0.3737188 1.3670877
-0.89018214 -0.36989334 1.123316
-0.88838112 -0.37259611 1.0264792
-0.87485009 -0.36744967 0.84749955
-0.86924422 -0.36561984 0.70287549
-0.8546145 -0.35980982 0.57194275
-0.85517043 -0.36038697 0.46325746
-0.83567768 -0.35250816 0.35653609
-0.83266753 -0.35157531 0.26307425
-0.81172824 -0.34306005 0.17206176
-0.88523102 -0.36981702 0.93562156
-0.86376107 -0.36136931 0.76531059
-0.86052328 -0.36035955 0.6338371
-0.86321402 -0.36200923 0.52017462
-0.84086168 -0.35297289 0.40653673
-0.81570154 -0.34273863 0.30411482
-0.81247234 -0.34154314 0.21513902
-0.81482756 -0.34285954 0.12933637
-0.080875397 0.0010230918 7.8439746
-1.1334516 -0.44030023 7.7303629
-1.1204339 -0.44349065 5.8167906
-1.0310463 -0.41616374 3.6016781
-0.96161354 -0.39200383 2.5059927
-0.92880362 -0.38086864 1.9069598
-0.91396576 -0.37625271 1.5242703
-0.89648592 -0.37013763 1.2378463
-0.44267848 -0.12953475 7.8163657
-0.79266363 -0.26439241 7.7503858
-1.0855653 -0.43270367 4.5368614
-0.99287021 -0.40113264 2.966243
-0.94309938 -0.38405362 2.1693296
-0.9212606 -0.37682393 1.6982613
-0.9000814 -0.36942557 1.3630977
-0.88833266 -0.3654941 1.1196409
-0.8863827 -0.36812517 1.0229747
-0.87612742 -0.36439362 0.84749955
-0.87051517 -0.3625834 0.70287549
-0.85586524 -0.35682446 0.57194275
-0.85642326 -0.35739967 0.46325746
-0.83690304 -0.34958893 0.35653609
-0.83388972 -0.34866661 0.26307425
-0.81292081 -0.34022447 0.17206176
-0.88651651 -0.36672473 0.93562156
-0.86501724 -0.35835201 0.76531059
-0.86177593 -0.35735354 0.6338371
-0.86028087 -0.35725334 0.5180766
-0.8420887 -0.35003558 0.40653673
-0.81689298 -0.33988923 0.30411482
-0.81365961 -0.338705 0.21513902
-0.81601936 -0.34001318 0.12933637
-0.080871329 0.0013053932 7.8439746
-1.1349815 -0.43634105 7.7303629
-1.1219752 -0.43957689 5.8167906
-1.0311065 -0.41200855 3.5969059
-0.96297604 -0.38864481 2.5059927
-0.93012744 -0.37762418 1.9069598
-0.91527349 -0.37306005 1.5242703
-0.89777249 -0.36700603 1.2378463
-0.44312796 -0.12798873 7.8163657
-0.79408818 -0.2617901 7.7553573
-1.0858999 -0.42845064 4.5320225
-0.99266201 -0.39702386 2.96155
-0.94241506 -0.37994549 2.1648283
-0.92257035 -0.37360582 1.6982613
-0.90136546 -0.36628145 1.3630977
-0.88960308 -0.36239102 1.1196409
-0.88766229 -0.36502889 1.0229747
-0.87379491 -0.35985115 0.84436107
-0.87177551 -0.35954249 0.70287549
-0.85710549 -0.35383478 0.57194275
-0.85338098 -0.35263765 0.46138445
-0.8336854 -0.34483203 0.35512605
-0.83056301 -0.34387463 0.26214162
-0.8095029 -0.33547822 0.17161468
-0.88779122 -0.36362797 0.93562156
-0.86252314 -0.3537966 0.76236743
-0.8630181 -0.35434324 0.6338371
-0.86152267 -0.35424823 0.5180766
-0.84330541 -0.34709403 0.40653673
-0.81358021 -0.33518419 0.30294251
-0.81483692 -0.33586273 0.21513902
-0.81258303 -0.33525726 0.12913485
-0.080866277 0.0015876788 7.8439746
-1.137224 -0.43265259 7.735302
-1.1244522 -0.43602571 5.8216858
-1.0311501 -0.40785801 3.5921342
-0.96251255 -0.38455647 2.5013902
-0.92921758 -0.3734822 1.9025706
-0.91396046 -0.36881009 1.5201373
-0.89607698 -0.36266771 1.2340088
-0.44357201 -0.12644114 7.8163657
-0.79550427 -0.25918111 7.7603292
-1.085047 -0.42374355 4.5223432
-0.99243724 -0.39292142 2.9568574
-0.94171351 -0.37584683 2.1603272
-0.92144799 -0.36941293 1.6939954
-0.89984286 -0.36200848 1.3591076
-0.88771844 -0.35801575 1.1159657
-0.88893104 -0.36192814 1.0229747
-0.87504572 -0.35679889 0.84436107
-0.87302524 -0.35649726 0.70287549
-0.85833544 -0.35084075 0.57194275
-0.85460669 -0.34965667 0.46138445
-0.83488399 -0.34191981 0.35512605
-0.83175832 -0.34097332 0.26214162
-0.810669 -0.33265051 0.17161468
-0.8855949 -0.35912386 0.93229604
-0.8637529 -0.35078368 0.76236743
-0.86424971 -0.35132858 0.6338371
-0.86275399 -0.35123879 0.5180766
-0.84451181 -0.34414822 0.40653673
-0.81474531 -0.33234224 0.30294251
-0.81600434 -0.33301637 0.21513902
-0.81374836 -0.3324188 0.12913485
-0.08086025 0.0018699456 7.8439746
-1.1387273 -0.42868027 7.735302
-1.1259675 -0.43209797 5.8216858
-1.0311774 -0.40371221 3.5873621
-0.96384901 -0.38119432 2.5013902
-0.93051565 -0.37023637 1.9025706
-0.91524231 -0.36561751 1.5201373
-0.89733738 -0.35953763 1.2340088
-0.44428888 -0.12496916 7.8213573
-0.79640412 -0.2564027 7.7603292
-1.0853468 -0.41950047 4.5175037
-0.9921959 -0.38882539 2.9521646
-0.94301975 -0.37255734 2.1603272
-0.9203077 -0.36523247 1.6897295
-0.90110105 -0.3588652 1.3591076
-0.88896281 -0.35491487 1.1159657
-0.89018905 -0.35882297 1.0229747
-0.87267643 -0.35228539 0.84122264
-0.8742643 -0.35344765 0.70287549
-0.85544854 -0.34618089 0.56962395
-0.85582203 -0.3466714 0.46138445
-0.83162683 -0.337201 0.35371602
-0.8329435 -0.33806786 0.26214162
-0.81182522 -0.3298187 0.17161468
-0.88684309 -0.35603037 0.93229604
-0.86497211 -0.34776649 0.76236743
-0.86547083 -0.34830964 0.6338371
-0.85976529 -0.34652859 0.51597857
-0.84570801 -0.34119824 0.40653673
-0.81590039 -0.3294962 0.30294251
-0.8171618 -0.33016595 0.21513902
-0.8149038 -0.32957625 0.12913485
-0.080853224 0.0021521887 7.8439746
-1.1402167 -0.42470279 7.735302
-1.1284208 -0.42852622 5.826581
-1.0311885 -0.39957124 3.5825901
-0.96335435 -0.37711564 2.4967875
-0.92957389 -0.36610866 1.8981816
-0.91389596 -0.36138594 1.5160043
-0.89858699 -0.35640314 1.2340088
-0.44500086 -0.12349372 7.8263493
-0.79729426 -0.25362116 7.7603292
-1.0844564 -0.41481173 4.5078249
-0.99193829 -0.38473591 2.9474719
-0.94228691 -0.36847079 2.1558261
-0.92157698 -0.36201778 1.6897295
-0.89954484 -0.35461277 1.3551177
-0.88704324 -0.35056382 1.1122906
-0.89143616 -0.35571346 1.0229747
-0.87390089 -0.34923702 0.84122264
-0.87161064 -0.34884021 0.70013404
-0.85665172 -0.34319273 0.56962395
-0.85702693 -0.34368193 0.46138445
-0.83279884 -0.33429602 0.35371602
-0.83411849 -0.33515829 0.26214162
-0.81297153 -0.32698292 0.17161468
-0.88461059 -0.35155383 0.92897052
-0.86618072 -0.34474504 0.76236743
-0.86267662 -0.34369117 0.63130391
-0.86096966 -0.34352535 0.51597857
-0.84250849 -0.33649272 0.40489322
-0.81704557 -0.32664618 0.30294251
-0.81830937 -0.32731152 0.21513902
-0.81604922 -0.32672969 0.12913485
-0.080845222 0.0024344062 7.8439746
-1.1416923 -0.4207201 7.735302
-1.130863 -0.42494258 5.8314762
-1.0311831 -0.39543507 3.5778182
-0.96284312 -0.37304509 2.4921851
-0.93084621 -0.3628616 1.8981816
-0.91515189 -0.35819367 1.5160043
-0.89684194 -0.35209322 1.2301713
-0.44598666 -0.12209003 7.8363323
-0.79817474 -0.25083652 7.7603292
-1.0847222 -0.41057903 4.5029855
-0.99166393 -0.38065284 2.9427791
-0.9435674 -0.36517933 2.1558261
-0.92040414 -0.35785383 1.6854634
-0.90077722 -0.35147062 1.3551177
-0.88826156 -0.34746534 1.1122906
-0.88935536 -0.35128966 1.0194702
-0.87511456 -0.3461844 0.84122264
-0.872823 -0.3457956 0.70013404
-0.85784447 -0.34020036 0.56962395
-0.85391247 -0.33897787 0.4595114
-0.82950258 -0.32961562 0.35230598
-0.83528334 -0.33224463 0.26214162
-0.81410801 -0.32414311 0.17161468
-0.88583243 -0.3484638 0.92897052
-0.86361808 -0.340238 0.75942427
-0.8638711 -0.34067777 0.63130391
-0.86216354 -0.34051791 0.51597857
-0.84367794 -0.33354977 0.40489322
-0.8181808 -0.32379219 0.30294251
-0.81944692 -0.32445309 0.21513902
-0.81254023 -0.32203841 0.12893331
-0.080831364 0.0028576755 7.8439746
-1.1439519 -0.4145368 7.735302
-1.1341008 -0.41917062 5.8363714
-1.0319787 -0.38914335 3.5730462
-0.96126014 -0.36627105 2.4829803
-0.93062186 -0.35680002 1.8937924
-0.91457337 -0.3519066 1.5118713
-0.89885497 -0.34692198 1.2301713
-0.44672412 -0.1193634 7.8363323
-0.79973501 -0.24581654 7.7603292
-1.0849236 -0.40288085 4.4933071
-0.99242115 -0.37380663 2.9380865
-0.9438706 -0.35830614 2.1513247
-0.920259 -0.35097361 1.6811975
-0.90021384 -0.34456944 1.3511276
-0.88738108 -0.34035271 1.1086154
-0.89118254 -0.34662819 1.0194702
-0.87697476 -0.34144455 0.84122264
-0.87078542 -0.33954924 0.69739258
-0.85554588 -0.33394346 0.56730521
-0.85579234 -0.33420348 0.4595114
-0.8313306 -0.3249777 0.35230598
-0.83260822 -0.3256391 0.26120901
-0.81601715 -0.31930643 0.17161468
-0.88794446 -0.3430461 0.92897052
-0.86568034 -0.33495614 0.75942427
-0.86599451 -0.33524323 0.63130391
-0.86011255 -0.33330348 0.51388049
-0.84141171 -0.32638696 0.40324971
-0.82031029 -0.31835872 0.30294251
-0.82158071 -0.31901121 0.21513902
-0.81471348 -0.31650019 0.12893331
-0.080824673 0.0030410683 7.8439746
-1.1448176 -0.41214004 7.735302
-1.1359321 -0.41714519 5.8412666
-1.0298609 -0.38629362 3.5635023
-0.96007097 -0.3639006 2.4783776
-0.92894334 -0.35448411 1.8894032
-0.91243601 -0.34962264 1.5077385
-0.89634651 -0.3445169 1.2263339
-0.44626966 -0.118827 7.8263493
-0.79986358 -0.24539778 7.7603292
-1.0839556 -0.401876 4.4884672
-0.99100131 -0.37267974 2.9333935
-0.94393313 -0.35814142 2.1513247
-0.91788304 -0.3498843 1.6769315
-0.8973996 -0.34349254 1.3471376
-0.88732165 -0.3405076 1.1086154
-0.88864005 -0.34332031 1.0159656
-0.87399882 -0.33835524 0.83808416
-0.87143564 -0.33787683 0.69739258
-0.85618544 -0.33230031 0.56730521
-0.85199529 -0.33117932 0.45763838
-0.82736945 -0.32193199 0.35089597
-0.83306211 -0.32447624 0.26120901
-0.81640667 -0.31830925 0.17161468
