# .PCD v0.7 - Point Cloud Data file format
VERSION 0.7
FIELDS x y z
SIZE 4 4 4
TYPE F F F
COUNT 1 1 1
WIDTH 1406
HEIGHT 1
VIEWPOINT 0 0 0 1 0 0 0
POINTS 1406
DATA ascii
-0.81302118 -0.34712127 0.12933637
-1.348719 -0.53198314 9.2170792
-1.2125829 -0.48729613 6.306313
-1.0343786 -0.42381933 3.6207662
-0.9613533 -0.39778018 2.5105953
-0.93121922 -0.3875666 1.9157379
-0.91198313 -0.38103303 1.5242703
-0.888623 -0.37234956 1.2301713
-0.95877504 -0.28394774 17.130802
-1.6437175 -0.55657995 16.142284
-1.1287308 -0.45676148 4.7255993
-0.99874008 -0.40959853 2.989707
-0.94107556 -0.38898638 2.1693296
-0.91927493 -0.38164243 1.6982613
-0.89535308 -0.37297484 1.3591076
-0.88014984 -0.36752817 1.1122906
-0.87787032 -0.36999151 1.0159656
-0.86344928 -0.364436 0.83808416
-0.85319841 -0.36062533 0.69190961
-0.84990543 -0.359575 0.56962395
-0.85027117 -0.3600713 0.46138445
-0.83506119 -0.35396615 0.35653609
-0.82753056 -0.35110947 0.26214162
-0.82029575 -0.34836951 0.17295592
-0.87425584 -0.36702618 0.92564505
-0.85940289 -0.36130998 0.76236743
-0.85194623 -0.35851714 0.62877071
-0.85003382 -0.35822806 0.51388049
-0.85329723 -0.35994565 0.41146725
-0.81958002 -0.34605241 0.30528715
-0.81187499 -0.34296066 0.21513902
-0.80962646 -0.34233555 0.12913485
-1.3476723 -0.52614254 9.1973228
-1.2123842 -0.48230818 6.2965231
-1.0344683 -0.41964519 3.615994
-0.9609279 -0.39368159 2.5059927
-0.93035191 -0.38340139 1.9113487
-0.91330767 -0.37784728 1.5242703
-0.88991731 -0.36924541 1.2301713
-0.9614237 -0.28108251 17.160749
-1.6421113 -0.54965675 16.107483
-1.1268175 -0.45141706 4.711081
-0.9985646 -0.40546077 2.985014
-0.94041276 -0.38487473 2.1648283
-0.91818923 -0.37743992 1.6939954
-0.89386386 -0.36869845 1.3551177
-0.88142741 -0.36445364 1.1122906
-0.87915653 -0.36692491 1.0159656
-0.86471611 -0.3614198 0.83808416
-0.85445201 -0.35764492 0.69190961
-0.8511554 -0.35660607 0.56962395
-0.85152286 -0.35710111 0.46138445
-0.83629167 -0.35104907 0.35653609
-0.82875115 -0.34821871 0.26214162
-0.8215068 -0.34550402 0.17295592
-0.87553173 -0.36397222 0.92564505
-0.85692722 -0.35675457 0.75942427
-0.85319251 -0.35554111 0.62877071
-0.85127914 -0.35525867 0.51388049
-0.85019112 -0.35514486 0.40982375
-0.82078296 -0.34318942 0.30528715
-0.8130672 -0.34012458 0.21513902
-0.81081647 -0.33950734 0.12913485
-1.347326 -0.52059555 9.1825047
-1.2121655 -0.47732753 6.2867322
-1.0345416 -0.41547564 3.611222
-0.96048582 -0.38959089 2.5013902
-0.93168455 -0.38015151 1.9113487
-0.91201687 -0.3735905 1.5201373
-0.88823593 -0.36491898 1.2263339
-0.96156657 -0.27748609 17.145777
-1.6414889 -0.54308587 16.082626
-1.1260493 -0.44655478 4.7014017
-0.99997389 -0.40197265 2.985014
-0.93973273 -0.38077247 2.1603272
-0.91950113 -0.37423256 1.6939954
-0.89514542 -0.36557603 1.3551177
-0.87955678 -0.36009043 1.1086154
-0.87713593 -0.36249197 1.0124611
-0.86237592 -0.35691088 0.83494574
-0.85183227 -0.35305926 0.6891681
-0.852395 -0.35363281 0.56962395
-0.85276419 -0.35412657 0.46138445
-0.83751196 -0.34812772 0.35653609
-0.8299616 -0.34532371 0.26214162
-0.81811059 -0.34071976 0.17250884
-0.87334412 -0.35949284 0.92231953
-0.85816729 -0.35376117 0.75942427
-0.85044342 -0.35091662 0.62623757
-0.84831941 -0.35055184 0.51178247
-0.85142565 -0.35217497 0.40982375
-0.82197589 -0.34032226 0.30528715
-0.80967438 -0.33538929 0.21444833
-0.80738163 -0.33476147 0.12893331
-1.3462317 -0.51477998 9.1627474
-1.2119266 -0.47235429 6.2769423
-1.0345982 -0.4113107 3.6064501
-0.9600268 -0.38550803 2.4967875
-0.93078512 -0.37600023 1.9069598
-0.91331536 -0.37040469 1.5201373
-0.88950431 -0.36181623 1.2263339
-0.9625293 -0.2741279 17.145777
-1.6408409 -0.53652596 16.05777
-1.1252609 -0.44170332 4.6917233
-0.99816394 -0.3972041 2.9756284
-0.94105613 -0.37748986 2.1603272
-0.9183827 -0.37004617 1.6897295
-0.8936224 -0.3613199 1.3511276
-0.88080829 -0.35701802 1.1086154
-0.87839597 -0.35942799 1.0124611
-0.86361653 -0.35389847 0.83494574
-0.85305953 -0.35008368 0.6891681
-0.85362422 -0.35065526 0.56962395
-0.84970742 -0.34938484 0.4595114
-0.83872205 -0.34520215 0.35653609
-0.83116198 -0.34242448 0.26214162
-0.81929493 -0.33786193 0.17250884
-0.87459362 -0.35644209 0.92231953
-0.8556546 -0.34923622 0.75648111
-0.85166323 -0.3479459 0.62623757
-0.84953791 -0.34758854 0.51178247
-0.84827983 -0.34741122 0.40818024
-0.82315886 -0.33745095 0.30528715
-0.81084019 -0.33256099 0.21444833
-0.80854523 -0.33194116 0.12893331
-1.3458401 -0.50925338 9.1479301
-1.2116679 -0.46738854 6.2671514
-1.0332496 -0.40660405 3.5969059
-0.95955104 -0.38143319 2.4921851
-0.92986804 -0.37185985 1.9025706
-0.91199124 -0.36616611 1.5160043
-0.88778853 -0.357512 1.2224963
-0.9615339 -0.27022293 17.110834
-1.6386449 -0.52948648 16.017996
-1.1244525 -0.43686277 4.682044
-0.99793863 -0.39308524 2.9709356
-0.94034475 -0.37339953 2.1558261
-0.91724628 -0.36587214 1.6854634
-0.89487821 -0.35819837 1.3511276
-0.8820492 -0.35394126 1.1086154
-0.87633979 -0.35502079 1.0089566
-0.86123973 -0.34941858 0.83180726
-0.85427636 -0.3471038 0.6891681
-0.85073954 -0.34600466 0.56730521
-0.85092181 -0.34641668 0.4595114
-0.83992189 -0.34227234 0.35653609
-0.83235222 -0.33952111 0.26214162
-0.81585884 -0.33311754 0.17206176
-0.87236989 -0.35199016 0.91899407
-0.85686845 -0.34624729 0.75648111
-0.8488763 -0.34335464 0.62370437
-0.85074604 -0.34462097 0.51178247
-0.84511119 -0.34267375 0.40653673
-0.82433176 -0.33457553 0.30528715
-0.8119961 -0.32972857 0.21444833
-0.809699 -0.32911679 0.12893331
-1.3454263 -0.50373566 9.133112
-1.210438 -0.46206748 6.2524657
-1.0332714 -0.40245336 3.5921342
-0.95905858 -0.3773663 2.4875827
-0.9289335 -0.3677305 1.8981816
-0.91326386 -0.36298046 1.5160043
-0.88903105 -0.35441086 1.2224963
-0.9652546 -0.26763156 17.160749
-1.6404833 -0.5237633 16.017996
-1.1224505 -0.43158245 4.6675262
-0.99608886 -0.38834625 2.96155
-0.9396162 -0.36931872 2.1513247
-0.91609198 -0.36171061 1.6811975
-0.89332163 -0.35396275 1.3471376
-0.8801285 -0.34960887 1.1049403
-0.87757373 -0.35195965 1.0089566
-0.86245418 -0.34641019 0.83180726
-0.85548276 -0.34411973 0.6891681
-0.85194212 -0.34303293 0.56730521
-0.84782606 -0.3417114 0.45763838
-0.83666283 -0.3375437 0.35512605
-0.83353227 -0.3366136 0.26214162
-0.81701666 -0.33026764 0.17206176
-0.87359327 -0.34894285 0.91899407
-0.85431892 -0.3417531 0.75353795
-0.85006964 -0.34038943 0.62370437
-0.85194385 -0.34164923 0.51178247
-0.84630221 -0.33972168 0.40653673
-0.82549465 -0.33169603 0.30528715
-0.81314212 -0.32689217 0.21444833
-0.81547773 -0.32815349 0.12913485
-1.3449905 -0.49822712 9.1182947
-1.2101382 -0.45712027 6.2426753
-1.0318843 -0.39777088 3.5825901
-0.95854938 -0.37330756 2.4829803
-0.93021142 -0.36448568 1.8981816
-0.9119066 -0.35876039 1.5118713
-0.88728118 -0.3501291 1.2186587
-0.96841162 -0.26486608 17.200684
-1.6412846 -0.51771373 16.008053
-1.1216003 -0.42676815 4.6578469
-0.99421817 -0.38362497 2.9521646
-0.93887073 -0.36524761 2.1468236
-0.91491973 -0.35756156 1.6769315
-0.89455175 -0.35084233 1.3471376
-0.88134354 -0.34653452 1.1049403
-0.87879694 -0.34889418 1.0089566
-0.8600412 -0.34195966 0.82866883
-0.85667878 -0.34113142 0.6891681
-0.84901935 -0.33841693 0.56498641
-0.84901369 -0.33874986 0.45763838
-0.83783597 -0.33462113 0.35512605
-0.83014089 -0.33187851 0.26120901
-0.822788 -0.32926393 0.17250884
-0.87480599 -0.34589133 0.91899407
-0.85550666 -0.33876887 0.75353795
-0.85125262 -0.33742008 0.62370437
-0.85313123 -0.33867329 0.51178247
-0.84309447 -0.33502176 0.40489322
-0.82213098 -0.32701612 0.30411482
-0.81427819 -0.32405177 0.21444833
-0.8166182 -0.32530493 0.12913485
-1.3438027 -0.49246052 9.0985374
-1.2098188 -0.45218086 6.2328849
-1.030477 -0.39310294 3.5730462
-0.95802361 -0.36925697 2.4783776
-0.929245 -0.36037073 1.8937924
-0.91053098 -0.35455424 1.5077385
-0.88551223 -0.34586391 1.2148212
-0.96933031 -0.26148409 17.200684
-1.6415547 -0.51150668 15.993139
-1.1207304 -0.42196518 4.6481686
-0.99071467 -0.37830621 2.9380865
-0.94013995 -0.3619681 2.1468236
-0.91372973 -0.35342512 1.6726656
-0.8929618 -0.34662744 1.3431475
-0.88254774 -0.34345594 1.1049403
-0.87669027 -0.34452036 1.005452
-0.86122966 -0.33895546 0.82866883
-0.8539741 -0.33660579 0.68642664
-0.85019547 -0.33545122 0.56498641
-0.850191 -0.3357842 0.45763838
-0.8345378 -0.32993093 0.35371602
-0.8312943 -0.32897878 0.26120901
-0.82393235 -0.32638985 0.17250884
-0.87600803 -0.34283558 0.91899407
-0.85292065 -0.3343057 0.75059479
-0.84841216 -0.33287227 0.62117118
-0.85430819 -0.33569324 0.51178247
-0.84425884 -0.33207676 0.40489322
-0.82326746 -0.32414433 0.30411482
-0.81540442 -0.32120743 0.21444833
-0.81774879 -0.3224524 0.12913485
-1.3425914 -0.48670843 9.0787811
-1.2094798 -0.4472492 6.2230945
-1.0290496 -0.3884497 3.5635023
-0.95748127 -0.36521462 2.4737751
-0.93049723 -0.35712484 1.8937924
-0.90913719 -0.35036206 1.5036055
-0.88671416 -0.34277079 1.2148212
-0.96772516 -0.25743517 17.15576
-1.645878 -0.5065558 16.017996
-1.1198405 -0.41717339 4.6384892
-0.98880041 -0.37362626 2.9287009
-0.93936336 -0.35790938 2.1423223
-0.91252214 -0.34930137 1.6683997
-0.89416635 -0.3435083 1.3431475
-0.88057756 -0.33915496 1.1012651
-0.87788755 -0.34145802 1.005452
-0.86240757 -0.33594713 0.82866883
-0.85514385 -0.33362281 0.68642664
-0.84723485 -0.33087015 0.56266761
-0.85135788 -0.33281443 0.45763838
-0.83568436 -0.32701588 0.35371602
-0.82786375 -0.32428345 0.26027638
-0.82506663 -0.32351181 0.17250884
-0.87371767 -0.33842725 0.91566855
-0.85408235 -0.33132643 0.75059479
-0.84956896 -0.3299087 0.62117118
-0.85547477 -0.3327091 0.51178247
-0.84541279 -0.32912773 0.40489322
-0.81986499 -0.31950378 0.30294251
-0.81652069 -0.31835923 0.21444833
-0.81886935 -0.31959599 0.12913485
-1.3420877 -0.48123276 9.0639629
-1.209121 -0.44232547 6.213304
-1.0276024 -0.38381127 3.5539584
-0.95692229 -0.36118051 2.4691725
-0.92949909 -0.35302451 1.8894032
-0.90772527 -0.34618396 1.4994725
-0.88491154 -0.33852848 1.2109838
-0.96610355 -0.25340068 17.110834
-1.6399844 -0.49848711 15.943424
-1.1177514 -0.41195852 4.623971
-0.98686564 -0.36896431 2.9193153
-0.94060695 -0.35462824 2.1423223
-0.91129678 -0.34519038 1.6641337
-0.89254332 -0.33931449 1.3391576
-0.88175607 -0.33607909 1.1012651
-0.87574577 -0.33711061 1.0019474
-0.85994309 -0.33153474 0.82553035
-0.85240239 -0.32912982 0.68368518
-0.84425271 -0.32631388 0.56034881
-0.85251445 -0.3298406 0.45763838
-0.83682078 -0.32409677 0.35371602
-0.8289907 -0.3213917 0.26027638
-0.82154828 -0.31882814 0.17206176
-0.87489367 -0.33537534 0.91566855
-0.85523373 -0.32834309 0.75059479
-0.85071534 -0.32694116 0.62117118
-0.85663092 -0.32972091 0.51178247
-0.84655654 -0.32617471 0.40489322
-0.82097524 -0.31663996 0.30294251
-0.81300694 -0.31372434 0.21375765
-0.81531954 -0.31493548 0.12893331
-1.3408297 -0.47550705 9.0442047
-1.2077849 -0.43706337 6.1986179
-1.0261353 -0.37918761 3.5444143
-0.95634699 -0.35715485 2.46457
-0.93072569 -0.34977782 1.8894032
-0.90629524 -0.34201998 1.4953396
-0.88608783 -0.33543754 1.2109838
-0.96698219 -0.25002682 17.110834
-1.6457998 -0.49398279 15.983196
-1.1168206 -0.40719372 4.6142926
-0.98491037 -0.36432043 2.9099298
-0.94183916 -0.35134274 2.1423223
-0.91249621 -0.34200725 1.6641337
-0.8937223 -0.33619684 1.3391576
-0.87975174 -0.33180302 1.09759
-0.87691718 -0.33405164 1.0019474
-0.86109507 -0.32853097 0.82553035
-0.85354608 -0.32615238 0.68368518
-0.84538662 -0.32336488 0.56034881
-0.8493312 -0.32520515 0.45576534
-0.83794701 -0.32117376 0.35371602
-0.82552117 -0.3167364 0.25934377
-0.82265615 -0.31595844 0.17206176
-0.876059 -0.33231938 0.91566855
-0.85259604 -0.3239204 0.74765164
-0.8518514 -0.32396963 0.62117118
-0.85777664 -0.3267287 0.51178247
-0.84327763 -0.32153541 0.40324971
-0.81753445 -0.31203914 0.30177018
-0.81409711 -0.31088451 0.21375765
-0.81641394 -0.31208754 0.12893331
-1.3395482 -0.46979606 9.0244484
-1.2073859 -0.43215901 6.188828
-1.0246485 -0.37457892 3.5348704
-0.95758784 -0.35381436 2.46457
-0.92969608 -0.34569243 1.8850143
-0.90484726 -0.33787024 1.4912066
-0.88725334 -0.33234248 1.2109838
-0.96784902 -0.24664991 17.110834
-1.6383127 -0.48551455 15.893709
-1.1158701 -0.4024404 4.6046133
-0.98455524 -0.36028743 2.905237
-0.9430598 -0.34805295 2.1423223
-0.91123903 -0.33791342 1.6598678
-0.8920663 -0.33202431 1.3351675
-0.88090456 -0.32873011 1.09759
-0.87474078 -0.32973096 0.99844289
-0.86223662 -0.3255232 0.82553035
-0.85076815 -0.32169223 0.68094373
-0.84236723 -0.31884399 0.55803001
-0.85046118 -0.32223845 0.45576534
-0.83906299 -0.31824681 0.35371602
-0.82662183 -0.31385291 0.25934377
-0.82375407 -0.3130849 0.17206176
-0.87371796 -0.32794744 0.91234308
-0.85372156 -0.32094234 0.74765164
-0.8529771 -0.32099414 0.62117118
-0.85891193 -0.32373253 0.51178247
-0.8443948 -0.31858987 0.40324971
-0.81407154 -0.30746618 0.30059788
-0.81517732 -0.30804089 0.21375765
-0.8128255 -0.30746827 0.12873179
-1.3397115 -0.46460858 9.0145702
-1.206967 -0.42726263 6.1790371
-1.024546 -0.37049261 3.5300984
-0.95698196 -0.34979916 2.4599674
-0.9264015 -0.34079191 1.8762361
-0.90338135 -0.33373475 1.4870737
-0.88840801 -0.32924333 1.2109838
-0.97010469 -0.24361919 17.135792
-1.6297635 -0.47680598 15.794279
-1.1149001 -0.39769873 4.5949349
-0.98418427 -0.35626143 2.9005444
-0.944269 -0.34475893 2.1423223
-0.9099645 -0.33383259 1.6556019
-0.89321983 -0.32890838 1.3351675
-0.87886631 -0.32447922 1.0939147
-0.87588644 -0.3266755 0.99844289
-0.86336768 -0.32251143 0.82553035
-0.85188591 -0.31872052 0.68094373
-0.84347504 -0.31590164 0.55803001
-0.8515808 -0.31926784 0.45576534
-0.8356775 -0.31363052 0.35230598
-0.8277123 -0.31096554 0.25934377
-0.82018065 -0.30845457 0.17161468
-0.87485743 -0.32489562 0.91234308
-0.85483664 -0.31796032 0.74765164
-0.85005248 -0.31651068 0.61863804
-0.86003673 -0.32073238 0.51178247
-0.8410778 -0.31398901 0.4016062
-0.81513989 -0.30462268 0.30059788
-0.81160909 -0.30345926 0.21306697
-0.81389385 -0.30462912 0.12873179
-1.33912 -0.4591738 8.999752
-1.206529 -0.42237461 6.1692472
-1.0230218 -0.36590916 3.5205543
-0.95819724 -0.34645656 2.4599674
-0.92533463 -0.33673728 1.8718469
-0.90454084 -0.33057934 1.4870737
-0.88654244 -0.32503712 1.2071462
-0.9723509 -0.24057572 17.160749
-1.6262956 -0.46963856 15.744564
-1.1139107 -0.39296871 4.5852556
-0.98379695 -0.35224235 2.8958514
-0.94341916 -0.34072155 2.1378212
-0.91112423 -0.33065417 1.6556019
-0.89153117 -0.3247574 1.3311775
-0.87680906 -0.32024658 1.0902396
-0.87702137 -0.32361609 0.99844289
-0.86083722 -0.31814668 0.82239193
-0.84907174 -0.31429356 0.67820227
-0.8445726 -0.31295541 0.55803001
-0.84834349 -0.31468114 0.45389232
-0.8367672 -0.31071156 0.35230598
-0.82879269 -0.30807438 0.25934377
-0.82125241 -0.30558974 0.17161468
-0.87248135 -0.32055238 0.90901756
-0.852148 -0.31357878 0.74470848
-0.85115212 -0.31354153 0.61863804
-0.856893 -0.31615746 0.50968438
-0.84216863 -0.31105116 0.4016062
-0.81163919 -0.30008993 0.29942557
-0.81266344 -0.30062434 0.21306697
-0.81026721 -0.3000513 0.12853025
-1.3385069 -0.45374891 8.9849348
-1.2060714 -0.41749474 6.1594563
-1.0228856 -0.36183834 3.5157826
-0.95756108 -0.34245211 2.4553649
-0.92425096 -0.33269435 1.867458
-0.90304285 -0.32646346 1.4829408
-0.88767159 -0.32194054 1.2071462
-0.97290415 -0.23711222 17.15576
-1.6227976 -0.4625012 15.694849
-1.1129018 -0.3882505 4.5755773
-0.98339385 -0.34823039 2.8911588
-0.94255251 -0.33669427 2.1333199
-0.90981811 -0.32659087 1.651336
-0.88982439 -0.32062218 1.3271875
-0.87792158 -0.317184 1.0902396
-0.87814569 -0.32055277 0.99844289
-0.86194247 -0.31513983 0.82239193
-0.85016364 -0.31132784 0.67820227
-0.84565991 -0.3100054 0.55803001
-0.84943676 -0.31171799 0.45389232
-0.83334386 -0.30613476 0.35089597
-0.82525265 -0.30348408 0.25841114
-0.81764066 -0.30100077 0.1711676
-0.87359494 -0.31750491 0.90901756
-0.85323739 -0.31060234 0.74470848
-0.8522414 -0.31056854 0.61863804
-0.8579914 -0.31316444 0.50968438
-0.8388139 -0.30648905 0.39996269
-0.81268173 -0.29725495 0.29942557
-0.81370783 -0.29778579 0.21306697
-0.81130964 -0.29722112 0.12853025
-1.338609 -0.4485805 8.9750557
-1.2055945 -0.41262329 6.1496658
-1.0227332 -0.35777295 3.5110104
-0.95690864 -0.33845633 2.4507625
-0.92540663 -0.3294661 1.867458
-0.90417683 -0.32330927 1.4829408
-0.88577288 -0.31775796 1.2033087
-0.97204095 -0.23331329 17.125809
-1.1118735 -0.38354406 4.5658979
-0.98297465 -0.3442255 2.8864658
-0.9416694 -0.33267722 2.1288188
-0.90849477 -0.32254076 1.6470701
-0.89093822 -0.31751418 1.3271875
-0.87583089 -0.31297699 1.0865644
-0.87925929 -0.31748551 0.99844289
-0.86303729 -0.31212917 0.82239193
-0.85124522 -0.30835834 0.67820227
-0.84673685 -0.30705163 0.55803001
-0.85051972 -0.30875099 0.45389232
-0.83440739 -0.303224 0.35089597
-0.826307 -0.30060157 0.25841114
-0.81868637 -0.29814485 0.1711676
-0.87118423 -0.31319064 0.90569204
-0.85431641 -0.30762205 0.74470848
-0.84926486 -0.30613014 0.61610484
-0.85481048 -0.30862647 0.5075863
-0.83987868 -0.30355918 0.39996269
-0.80914378 -0.2927627 0.29825324
-0.81474233 -0.2949436 0.21306697
-0.81703919 -0.29608947 0.12873179
-1.3386912 -0.44341695 8.9651775
-1.2050984 -0.40776023 6.1398754
-1.0239758 -0.35420078 3.5110104
-0.95808423 -0.335114 2.4507625
-0.92429185 -0.32543868 1.8630688
-0.90264678 -0.31921315 1.4788078
-0.88385588 -0.31359258 1.1994712
-0.97172511 -0.22965512 17.105841
-1.1108261 -0.37884963 4.5562196
-0.98253947 -0.34022781 2.8817732
-0.94076961 -0.32867041 2.1243174
-0.9096151 -0.31936753 1.6470701
-0.88919908 -0.31340089 1.3231975
-0.87691802 -0.30991784 1.0865644
-0.87700361 -0.31321514 0.99493837
-0.86045665 -0.3078039 0.81925344
-0.85231644 -0.30538505 0.67820227
-0.84780353 -0.30409408 0.55803001
-0.85159224 -0.30578026 0.45389232
-0.83546072 -0.30030951 0.35089597
-0.82735121 -0.2977154 0.25841114
-0.81972212 -0.29528525 0.1711676
-0.87227219 -0.3101477 0.90569204
-0.85157716 -0.30328217 0.74176532
-0.85032833 -0.30316377 0.61610484
-0.85588259 -0.30564076 0.5075863
-0.84093314 -0.30062562 0.39996269
-0.81016076 -0.28993648 0.29825324
-0.81110471 -0.29042852 0.21237628
-0.81806779 -0.29323566 0.12873179
-1.3394924 -0.43849984 8.9602375
-1.2045829 -0.40290564 6.130085
-1.0237935 -0.3501415 3.5062382
-0.95740175 -0.33112931 2.4461598
-0.92316043 -0.32142311 1.8586799
-0.90375555 -0.31606036 1.4788078
-0.88494509 -0.31050545 1.1994712
-0.97111446 -0.22593705 17.080883
-1.614696 -0.44197252 15.570561
-1.1097593 -0.37416711 4.5465403
-0.98208833 -0.33623734 2.8770804
-0.93985349 -0.32467401 2.1198163
-0.90826046 -0.31533533 1.642804
-0.89028764 -0.3102951 1.3231975
-0.87799448 -0.30685493 1.0865644
-0.87809157 -0.3101519 0.99493837
-0.86152577 -0.30479848 0.81925344
-0.85337722 -0.30240807 0.67820227
-0.84885985 -0.30113283 0.55803001
-0.84828573 -0.30125442 0.45201927
-0.83650398 -0.29739136 0.35089597
-0.82838541 -0.29482558 0.25841114
-0.82074791 -0.29242212 0.1711676
-0.87334949 -0.30710101 0.90569204
-0.85263062 -0.30030775 0.74176532
-0.85138136 -0.30019373 0.61610484
-0.85694426 -0.30265132 0.5075863
-0.84197742 -0.29768839 0.39996269
-0.81574994 -0.28872842 0.29942557
-0.81211358 -0.28759548 0.21237628
-0.8237952 -0.29204762 0.12893331
-0.21910183 0.027625149 23.903362
-1.3395363 -0.43334356 8.9503603
-1.2050153 -0.39837909 6.1251898
-1.0235955 -0.34608784 3.5014665
-0.95670313 -0.32715353 2.4415574
-0.92427677 -0.31819871 1.8586799
-0.90485328 -0.31290376 1.4788078
-0.88299537 -0.30636412 1.1956338
-0.97189718 -0.22254585 17.080883
-1.6188024 -0.43702641 15.595418
-1.1086735 -0.36949664 4.5368614
-0.98162138 -0.33225417 2.8723876
-0.94098109 -0.32139131 2.1198163
-0.90935564 -0.312163 1.642804
-0.89136529 -0.30718553 1.3231975
-0.87906027 -0.3037883 1.0865644
-0.87580204 -0.30590916 0.9914338
-0.86258447 -0.30178934 0.81925344
-0.85442764 -0.29942736 0.67820227
-0.84572566 -0.29670164 0.55571121
-0.84933215 -0.29829156 0.45201927
-0.83753693 -0.29446962 0.35089597
-0.82477587 -0.29030132 0.25747854
-0.82176358 -0.28955537 0.1711676
-0.87088931 -0.30282447 0.90236646
-0.8536737 -0.29732969 0.74176532
-0.84835351 -0.29580092 0.61357164
-0.85799545 -0.29965815 0.5075863
-0.84301138 -0.2947475 0.39996269
-0.81675285 -0.28587914 0.29942557
-0.80843878 -0.28312218 0.21168561
-0.82480967 -0.28917027 0.12893331
-0.21930556 0.028438672 23.93836
-1.3388203 -0.42795601 8.9355421
-1.2044628 -0.39353839 6.1153998
-1.0233815 -0.34203982 3.4966943
-0.95598841 -0.32318661 2.4369547
-0.92311436 -0.31419897 1.8542906
-0.90327722 -0.30883324 1.4746748
-0.88405937 -0.30328003 1.1956338
-0.97407675 -0.21946682 17.105841
-1.1075687 -0.36483839 4.5271826
-0.98113853 -0.32827839 2.8676949
-0.94003457 -0.31740856 2.115315
-0.90797007 -0.30814895 1.6385381
-0.88957989 -0.30310065 1.3192074
-0.87690723 -0.29962209 1.0828893
-0.87686449 -0.30285019 0.9914338
-0.85995418 -0.29750416 0.81611502
-0.8515166 -0.29507411 0.67546082
-0.84675622 -0.29374769 0.55571121
-0.85036826 -0.29532498 0.45201927
-0.83855975 -0.29154426 0.35089597
-0.82578421 -0.28742057 0.25747854
-0.82276934 -0.28668511 0.1711676
-0.87194109 -0.29978266 0.90236646
-0.85470635 -0.294348 0.74176532
-0.84938085 -0.29283783 0.61357164
-0.86332619 -0.29814273 0.50968438
-0.83957207 -0.2902602 0.39831915
-0.8177458 -0.28302643 0.29942557
-0.80942214 -0.28029847 0.21168561
-0.82109362 -0.28465298 0.12873179
-1.3380829 -0.42257866 8.9207239
-1.20486 -0.38901898 6.1105042
-1.0231516 -0.3379975 3.4919224
-0.95525777 -0.31922868 2.4323523
-0.92420554 -0.31097481 1.8542906
-0.9043498 -0.30567831 1.4746748
-0.88511264 -0.30019224 1.1956338
-0.9765287 -0.21643728 17.135792
-1.1076401 -0.36058122 4.5223432
-0.98063999 -0.32430997 2.8630023
-0.94113678 -0.31412527 2.115315
-0.90904015 -0.30497769 1.6385381
-0.89063245 -0.29999357 1.3192074
-0.87794775 -0.29655927 1.0828893
-0.87454128 -0.2986353 0.98792928
-0.86098742 -0.29450056 0.81611502
-0.85254139 -0.29209995 0.67546082
-0.84358621 -0.28935307 0.55339235
-0.84700936 -0.29084939 0.45014626
-0.83957231 -0.28861538 0.35089597
-0.82678241 -0.28453627 0.25747854
-0.82376504 -0.28381139 0.1711676
-0.8729822 -0.29673719 0.90236646
-0.85190231 -0.29006013 0.73882216
-0.85039794 -0.28987116 0.61357164
-0.86436164 -0.29512733 0.50968438
-0.84058017 -0.2873278 0.39831915
-0.81872874 -0.28017023 0.29942557
-0.80571055 -0.27586731 0.21099493
-0.82208228 -0.2817851 0.12873179
-1.3373245 -0.41721174 8.9059067
-1.2042704 -0.38419241 6.1007137
-1.0229061 -0.33396095 3.4871504
-0.95451105 -0.31527981 2.4277496
-0.92528546 -0.30774683 1.8542906
-0.9054113 -0.30251968 1.4746748
-0.88615513 -0.29710078 1.1956338
-0.97586739 -0.2127222 17.110834
-1.1064988 -0.35594332 4.5126648
-0.98012573 -0.3203491 2.8583093
-0.9422276 -0.31083819 2.115315
-0.91009915 -0.30180266 1.6385381
-0.89167422 -0.29688287 1.3192074
-0.87576181 -0.29241934 1.0792141
-0.8755784 -0.29558074 0.98792928
-0.85832292 -0.29024673 0.81297654
-0.84959543 -0.28778097 0.67271936
-0.84459108 -0.28640664 0.55339235
-0.84801942 -0.28789103 0.45014626
-0.84057462 -0.28568298 0.35089597
-0.82777059 -0.28164852 0.25747854
-0.82003671 -0.27932847 0.17072052
-0.87401271 -0.29368812 0.90236646
-0.85290962 -0.28708467 0.73882216
-0.84731942 -0.28552455 0.61103851
-0.86538661 -0.29210836 0.50968438
-0.84157801 -0.28439188 0.39831915
-0.81970173 -0.27731061 0.29942557
-0.80666858 -0.27305317 0.21099493
-0.81832922 -0.27731037 0.12853025
-1.3358022 -0.41162667 8.8861494
-1.2046328 -0.37968051 6.095818
-1.022645 -0.32993031 3.4823785
-0.95374852 -0.31134003 2.4231472
-0.92407876 -0.30376747 1.8499017
-0.90378958 -0.29847518 1.470542
-0.88718683 -0.29400572 1.1956338
-0.97660398 -0.20931451 17.110834
-1.1053385 -0.35131776 4.5029855
-0.9795956 -0.31639573 2.8536165
-0.94123709 -0.30687279 2.1108139
-0.90866876 -0.29781201 1.6342722
-0.88984275 -0.29282689 1.3152174
-0.87677723 -0.28936058 1.0792141
-0.87322187 -0.29139397 0.98442477
-0.85933089 -0.28724885 0.81297654
-0.85059476 -0.28481355 0.67271936
-0.84138554 -0.28204891 0.55107355
-0.8446241 -0.28345427 0.44827321
-0.83701944 -0.28121939 0.34948593
-0.8287487 -0.27875736 0.25747854
-0.82100677 -0.27646431 0.17072052
-0.87503248 -0.29063547 0.90236646
-0.85390651 -0.28410572 0.73882216
-0.84831095 -0.28256512 0.61103851
-0.86640096 -0.28908581 0.50968438
-0.8425656 -0.28145248 0.39831915
-0.8206647 -0.27444765 0.29942557
-0.80761677 -0.27023572 0.21099493
-0.81929225 -0.27445215 0.12853025
-1.3342574 -0.40605736 8.8663921
-1.2040063 -0.37486839 6.0860281
-1.0223682 -0.32590547 3.4776065
-0.95482945 -0.30800897 2.4231472
-0.92513347 -0.30054 1.8499017
-0.90482593 -0.29531854 1.470542
-0.88516158 -0.28990966 1.1917962
-0.97648078 -0.20572712 17.095858
-1.1041595 -0.34670466 4.4933071
-0.98069406 -0.31297436 2.8536165
-0.94230253 -0.30358538 2.1108139
-0.90970278 -0.29463837 1.6342722
-0.89085948 -0.28971896 1.3152174
-0.87455881 -0.28524733 1.0755389
-0.87423372 -0.28834409 0.98442477
-0.85663241 -0.28302664 0.80983812
-0.84761405 -0.28052908 0.66997784
-0.84236497 -0.27911022 0.55107355
-0.84560841 -0.28050426 0.44827321
-0.83799595 -0.27829593 0.34948593
-0.82971674 -0.27586278 0.25747854
-0.82196677 -0.27359676 0.17072052
-0.87249416 -0.28641492 0.899041
-0.85105324 -0.27986085 0.735879
-0.84519744 -0.27825439 0.60850531
-0.86309457 -0.28463846 0.5075863
-0.83905876 -0.27702931 0.39667568
-0.82161772 -0.27158132 0.29942557
-0.80855519 -0.26741496 0.21099493
-0.81550252 -0.27002028 0.12832873
-1.3334341 -0.40072721 8.8515739
-1.2033609 -0.37006521 6.0762372
-1.0220757 -0.32188663 3.4728346
-0.95403731 -0.30408108 2.4185448
-0.92389649 -0.2965771 1.8455126
-0.90317303 -0.29129481 1.466409
-0.88616812 -0.28681812 1.1917962
-0.97436512 -0.20173682 17.045942
-1.1029617 -0.34210405 4.4836278
-0.98013479 -0.30903062 2.8489239
-0.94128197 -0.29963422 2.1063125
-0.91072571 -0.29146111 1.6342722
-0.89186537 -0.28660753 1.3152174
-0.8755492 -0.28219283 1.0755389
-0.8752349 -0.28529066 0.98442477
-0.85761517 -0.28003466 0.80983812
-0.84858811 -0.27756864 0.66997784
-0.84333408 -0.27616811 0.55107355
-0.84658241 -0.27755082 0.44827321
-0.83440447 -0.27387318 0.3480759
-0.83067459 -0.27296484 0.25747854
-0.81818622 -0.26916966 0.17027344
-0.87348861 -0.2833676 0.899041
-0.85202491 -0.2768884 0.735879
-0.84616357 -0.27530241 0.60850531
-0.86408287 -0.28162393 0.5075863
-0.84002066 -0.27409872 0.39667568
-0.81794041 -0.26720241 0.29825324
-0.80948371 -0.26459092 0.21099493
-0.81644011 -0.26717201 0.12832873
-1.32812 -0.39408293 8.8071213
-1.203671 -0.36556679 6.0713425
-1.0217676 -0.31787381 3.4680624
-0.95322943 -0.30016252 2.4139423
-0.9249261 -0.29335031 1.8455126
-0.9041844 -0.28814039 1.466409
-0.88716394 -0.28372309 1.1917962
-0.97449738 -0.1982203 17.035959
-1.1017454 -0.3375161 4.4739494
-0.98120755 -0.30560741 2.8489239
-0.94024545 -0.29569393 2.1018114
-0.91173756 -0.28828031 1.6342722
-0.88998836 -0.28258097 1.3112274
-0.87652886 -0.27913487 1.0755389
-0.87622541 -0.28223377 0.98442477
-0.85858744 -0.27703932 0.80983812
-0.8495518 -0.2746048 0.66997784
-0.84429294 -0.27322266 0.55107355
-0.84754604 -0.27459401 0.44827321
-0.8353554 -0.2709589 0.3480759
-0.82695025 -0.26854643 0.2565459
-0.81438488 -0.2647723 0.16982636
-0.87091678 -0.27917731 0.89571548
-0.85298628 -0.27391258 0.735879
-0.84711939 -0.27234709 0.60850531
-0.86074054 -0.27721483 0.50548828
-0.8409723 -0.27116486 0.39667568
-0.8188681 -0.26434565 0.29825324
-0.81040239 -0.26176369 0.21099493
-0.81736773 -0.26432046 0.12832873
-1.3227758 -0.38748065 8.7626677
-1.202989 -0.36077845 6.061552
-1.0214441 -0.31386709 3.4632907
-0.95427138 -0.29683328 2.4139423
-0.92365885 -0.28940409 1.8411236
-0.90250039 -0.28413764 1.462276
-0.8850925 -0.27965912 1.1879587
-0.97433376 -0.19464925 17.020985
-1.1017135 -0.33330452 4.4691095
-0.98226833 -0.30218053 2.8489239
-0.93919289 -0.2917645 2.0973101
-0.91273832 -0.28509599 1.6342722
-0.89096934 -0.27947262 1.3112274
-0.87426388 -0.2750563 1.0718638
-0.87720525 -0.27917346 0.98442477
-0.85954928 -0.27404064 0.80983812
-0.85050523 -0.27163765 0.66997784
-0.84102213 -0.26892483 0.54875475
-0.84849942 -0.27163383 0.44827321
-0.83172786 -0.26657727 0.34666586
-0.82788259 -0.2656582 0.2565459
-0.81530416 -0.26192796 0.16982636
-0.87188596 -0.27613553 0.89571548
-0.85393721 -0.27093345 0.735879
-0.84806496 -0.26938841 0.60850531
-0.86170298 -0.27420861 0.50548828
-0.83741438 -0.26679432 0.39503217
-0.81978589 -0.26148564 0.29825324
-0.81131113 -0.25893328 0.21099493
-0.81828541 -0.2614657 0.12832873
-1.318215 -0.38090605 8.7231531
-1.2023505 -0.35578954 6.0517616
-1.0211591 -0.30968827 3.4585185
-0.95348519 -0.29276055 2.4093397
-0.92471343 -0.28601676 1.8411236
-0.90358478 -0.2806702 1.462276
-0.88615978 -0.27625856 1.1879587
-0.97850829 -0.1913957 17.080883
-1.1006906 -0.32796937 4.4594307
-0.98352551 -0.29806334 2.8489239
-0.93832511 -0.28719103 2.092809
-0.91392452 -0.28127024 1.6342722
-0.89213216 -0.27573809 1.3112274
-0.87545574 -0.27123901 1.0718638
-0.87477225 -0.27504033 0.9809202
-0.86050057 -0.27103856 0.80983812
-0.85144824 -0.26866716 0.66997784
-0.84200215 -0.26584053 0.54875475
-0.84948927 -0.26852211 0.44827321
-0.83269936 -0.26352704 0.34666586
-0.82421345 -0.26099455 0.2556133
-0.81630391 -0.2587955 0.16982636
-0.86942339 -0.27152053 0.89239001
-0.85116017 -0.2662966 0.73293579
-0.84913945 -0.26598188 0.60850531
-0.85851347 -0.26923877 0.50339019
-0.83857054 -0.26313788 0.39503217
-0.8162818 -0.2564494 0.29708093
-0.81243318 -0.25539079 0.21099493
-0.81941849 -0.25789279 0.12832873
-1.3146975 -0.37343568 8.6885786
-1.2019972 -0.34976131 6.0419707
-1.0211234 -0.3046248 3.4537466
-0.95293367 -0.28786615 2.4047372
-0.92600173 -0.28181762 1.8411236
-0.90484905 -0.27656698 1.462276
-0.88740426 -0.27223447 1.1879587
-0.98248702 -0.18754357 17.135792
-1.5921088 -0.36812073 15.197699
-1.0997549 -0.32226482 4.4497519
-0.98652166 -0.29408988 2.8536165
-0.93961865 -0.28293011 2.092809
-0.91519141 -0.27712008 1.6342722
-0.89049119 -0.27081043 1.3072374
-0.87667757 -0.26726353 1.0718638
-0.87601137 -0.27106792 0.9809202
-0.8580038 -0.26597866 0.80669963
-0.8486653 -0.26356068 0.66723639
-0.84319979 -0.26201692 0.54875475
-0.84627235 -0.26328745 0.4464002
-0.83388662 -0.25974566 0.34666586
-0.82538933 -0.25725171 0.2556133
-0.81271589 -0.25360516 0.16937928
-0.87064654 -0.26757246 0.89239001
-0.85235977 -0.26243144 0.73293579
-0.85033768 -0.26212591 0.60850531
-0.85972637 -0.26534021 0.50339019
-0.83975595 -0.25932986 0.39503217
-0.81743711 -0.25274262 0.29708093
-0.81358379 -0.25170147 0.21099493
-0.8205803 -0.25417173 0.12832873
-1.311118 -0.36896062 8.6589432
-1.2018697 -0.34654132 6.0370755
-1.0204332 -0.30170587 3.4489746
-0.95171279 -0.28514284 2.4001346
-0.92663884 -0.27971587 1.8411236
-0.90273345 -0.27385461 1.4581431
-0.88485914 -0.26959634 1.1841213
-0.98281288 -0.18582851 17.135792
-1.5849541 -0.36355907 15.123126
-1.098997 -0.32037741 4.4449124
-0.98693132 -0.29271215 2.8536165
-0.94001281 -0.28161788 2.092809
-0.91303217 -0.27524924 1.6300063
-0.8908214 -0.26972228 1.3072374
-0.876957 -0.26634532 1.0718638
-0.87330836 -0.26772857 0.97741568
-0.85869718 -0.26373151 0.80669963
-0.8493067 -0.26148623 0.66723639
-0.8395589 -0.25879833 0.54643595
-0.84686756 -0.26136664 0.4464002
-0.83442879 -0.25799862 0.34666586
-0.8259263 -0.25552246 0.2556133
-0.8132453 -0.25190246 0.16937928
-0.87106574 -0.26620451 0.89239001
-0.84890598 -0.25990912 0.72999263
-0.85074842 -0.26078987 0.60850531
-0.86009604 -0.26413953 0.50339019
-0.84007215 -0.25830373 0.39503217
-0.81774527 -0.25174373 0.29708093
-0.81384689 -0.25084937 0.21099493
-0.82084602 -0.25331229 0.12832873
-1.3092862 -0.36105889 8.6342468
-1.201708 -0.33969024 6.0272856
-1.0206168 -0.29576519 3.4442027
-0.95329046 -0.27982304 2.4001346
-0.92588985 -0.27385721 1.8367344
-0.90429574 -0.26865074 1.4581431
-0.88644338 -0.26434079 1.1841213
-0.98026794 -0.17898187 17.0709
-1.5794015 -0.35186005 15.048553
-1.0986248 -0.31258634 4.4352341
-0.98885095 -0.28616017 2.8536165
-0.9418599 -0.27537733 2.092809
-0.91488457 -0.26902813 1.6300063
-0.88979268 -0.26264387 1.3032473
-0.87554431 -0.25925428 1.0681885
-0.87465227 -0.26330495 0.97741568
-0.85633957 -0.25810874 0.80356121
-0.85070908 -0.25688723 0.66723639
-0.84094685 -0.25425214 0.54643595
-0.84831411 -0.2566328 0.4464002
-0.8359009 -0.2531884 0.34666586
-0.82738429 -0.25076127 0.2556133
-0.81472576 -0.24707215 0.16937928
-0.8727212 -0.26072621 0.89239001
-0.85056669 -0.25442174 0.72999263
-0.85241479 -0.2552906 0.60850531
-0.86617625 -0.25973284 0.50548828
-0.84181094 -0.2525796 0.39503217
-0.81943995 -0.24617173 0.29708093
-0.8108359 -0.24373606 0.21030425
-0.82263768 -0.24743199 0.12832873
-1.2956128 -0.35510379 8.5404015
-1.2012007 -0.33773661 6.0223899
-1.0195429 -0.29410458 3.4394307
-0.95170772 -0.27827659 2.3955321
-0.92617613 -0.27288747 1.8367344
-0.9017849 -0.26722014 1.4540101
-0.88355541 -0.26280832 1.1802837
-0.97913152 -0.17877638 17.050934
-1.5872072 -0.35359338 15.123126
-1.0973613 -0.31243417 4.4303942
-0.98875099 -0.28650537 2.8536165
-0.9417156 -0.27587044 2.092809
-0.91224182 -0.26877034 1.6257404
-0.88956314 -0.26342025 1.3032473
-0.87531775 -0.26001823 1.0681885
-0.87511051 -0.261778 0.97741568
-0.85669917 -0.25691283 0.80356121
-0.85106695 -0.25569916 0.66723639
-0.8412568 -0.25322452 0.54643595
-0.84858239 -0.25574428 0.4464002
-0.83612156 -0.25245884 0.34666586
-0.83226126 -0.251605 0.2565459
-0.81485504 -0.24664553 0.16937928
-0.87276661 -0.26057389 0.89239001
-0.85052222 -0.25457019 0.72999263
-0.84824073 -0.25420204 0.60597211
-0.86608553 -0.26003516 0.50548828
-0.84163439 -0.25316721 0.39503217
-0.81461364 -0.24534211 0.2959086
-0.81062287 -0.24444354 0.21030425
-0.81759542 -0.24684934 0.12812719
-0.21800327 0.038402401 23.96336
-1.2900932 -0.34875619 8.4959478
-1.2004681 -0.33278823 6.0125999
-1.0191784 -0.28995761 3.4346588
-0.95089191 -0.27407944 2.3909295
-0.9249171 -0.26866141 1.8323452
-0.90285033 -0.263598 1.4540101
-0.88460326 -0.2592594 1.1802837
-0.97791213 -0.1741515 17.015991
-1.588735 -0.34666455 15.123126
-1.0963466 -0.30677438 4.4207153
-0.98838127 -0.28154317 2.8489239
-0.94300508 -0.27142969 2.092809
-0.91349822 -0.26446852 1.6257404
-0.88794637 -0.25822875 1.2992573
-0.87657797 -0.25573754 1.0681885
-0.87601894 -0.25872168 0.97741568
-0.85390264 -0.25266698 0.80042273
-0.84798944 -0.25138986 0.66449493
-0.84222293 -0.24999247 0.54643595
-0.84511423 -0.25116354 0.44452715
-0.83712822 -0.24910042 0.34666586
-0.83326459 -0.24826209 0.2565459
-0.81106639 -0.24194896 0.1689322
-0.87031287 -0.25571093 0.88906449
-0.85166872 -0.25070801 0.72999263
-0.84938556 -0.25035024 0.60597211
-0.86725664 -0.25610232 0.50548828
-0.84281802 -0.24919833 0.39503217
-0.81576073 -0.24150062 0.2959086
-0.81180775 -0.2404792 0.21030425
-0.81879193 -0.24285088 0.12812719
-0.2178679 0.039163139 23.96336
-1.2732826 -0.33945268 8.3774061
-1.2006402 -0.32832745 6.0077043
-1.0187471 -0.2859951 3.4298866
-0.95184284 -0.27075857 2.3909295
-0.92354697 -0.26477146 1.8279562
-0.90106094 -0.25966588 1.4498771
-0.88242382 -0.25527948 1.1764462
-0.9782297 -0.17068778 17.011002
-1.5899353 -0.34111673 15.123126
-1.096199 -0.30261132 4.4158759
-0.98769653 -0.27762464 2.8442309
-0.94185257 -0.26754174 2.0883076
-0.91441584 -0.26127821 1.6257404
-0.88884228 -0.25512764 1.2992573
-0.8742075 -0.25173831 1.0645134
-0.87691665 -0.25566223 0.97741568
-0.85477936 -0.24968477 0.80042273
-0.84886175 -0.2484283 0.66449493
-0.84309047 -0.24705106 0.54643595
-0.84598583 -0.24821201 0.44452715
-0.83799267 -0.24617676 0.34666586
-0.83412611 -0.24535193 0.2565459
-0.81190598 -0.23911634 0.1689322
-0.87120014 -0.25267139 0.88906449
-0.84865719 -0.24660595 0.72704947
-0.85025424 -0.24738379 0.60597211
-0.86378813 -0.25180349 0.50339019
-0.84368277 -0.24625482 0.39503217
-0.81193328 -0.23728822 0.29473627
-0.81264222 -0.23764399 0.21030425
-0.81484008 -0.23858742 0.12792566
-1.2744598 -0.335006 8.3774061
-1.1998125 -0.32360458 5.9979138
-1.0197392 -0.28243726 3.4298866
-0.95090115 -0.26690671 2.386327
-0.91985631 -0.26024267 1.8191781
-0.90196186 -0.25651902 1.4498771
-0.88330954 -0.25219771 1.1764462
-0.97881949 -0.16727208 17.011002
-1.094823 -0.29812306 4.4061971
-0.98533374 -0.2732535 2.8348453
-0.94278079 -0.26425242 2.0883076
-0.91281205 -0.25737724 1.6214744
-0.88682818 -0.25120249 1.2952673
-0.87508088 -0.24868523 1.0645134
-0.87437654 -0.25161368 0.97391111
-0.85564572 -0.2466995 0.80042273
-0.84972376 -0.2454637 0.66449493
-0.84394771 -0.24410659 0.54643595
-0.84684712 -0.24525747 0.44452715
-0.83884686 -0.24325012 0.34666586
-0.83025998 -0.24106914 0.2556133
-0.81273574 -0.23628081 0.1689322
-0.87207687 -0.24962881 0.88906449
-0.84951282 -0.24364208 0.72704947
-0.8511126 -0.24441433 0.60597211
-0.86466181 -0.24878676 0.50339019
-0.83999956 -0.24200115 0.39338866
-0.81275666 -0.23445261 0.29473627
-0.81346685 -0.2348059 0.21030425
-0.81566793 -0.23574165 0.12792566
-1.2786301 -0.33133399 8.3971624
-1.1989669 -0.31889158 5.9881234
-1.0192788 -0.27848282 3.4251149
-0.95182699 -0.26358584 2.386327
-0.9184522 -0.25638652 1.8147889
-0.90285176 -0.25336903 1.4498771
-0.88418448 -0.24911284 1.1764462
-0.97911268 -0.16380718 17.00601
-1.0946429 -0.29397383 4.4013577
-0.98295242 -0.26890224 2.82546
-0.94369739 -0.26095989 2.0883076
-0.91370487 -0.25418934 1.6214744
-0.88769966 -0.24810536 1.2952673
-0.87594366 -0.2456291 1.0645134
-0.87524951 -0.24856 0.97391111
-0.85275793 -0.2426462 0.79728431
-0.85057539 -0.2424961 0.66449493
-0.84479463 -0.2411592 0.54643595
-0.84324062 -0.24102598 0.44265413
-0.83969086 -0.24032052 0.34666586
-0.83109647 -0.23816952 0.2556133
-0.81834239 -0.23481588 0.16937928
-0.86934966 -0.24556844 0.88573903
-0.85035813 -0.24067524 0.72704947
-0.85196054 -0.24144192 0.60597211
-0.86115897 -0.24452744 0.50129217
-0.84083921 -0.23906754 0.39338866
-0.81357008 -0.23161413 0.29473627
-0.81428146 -0.23196493 0.21030425
-0.81168157 -0.23152265 0.12772413
-1.2811575 -0.32460171 8.4021015
-1.1996893 -0.31214374 5.9832282
-1.019376 -0.27240071 3.4203427
-0.95139849 -0.25775513 2.3817246
-0.91755944 -0.25062218 1.8103999
-0.90429604 -0.2481648 1.4498771
-0.88251442 -0.24316503 1.1726087
-0.98009503 -0.1578231 17.00601
-1.592752 -0.319684 15.108212
-1.0952523 -0.28677213 4.3965182
-0.98295516 -0.26227632 2.8207672
-0.94326103 -0.25429401 2.0838065
-0.91281021 -0.24760115 1.6172085
-0.88928336 -0.24236773 1.2952673
-0.87755346 -0.23981425 1.0645134
-0.87653893 -0.24397381 0.97391111
-0.85405827 -0.23802881 0.79728431
-0.85187495 -0.23789054 0.66449493
-0.84608704 -0.23658492 0.54643595
-0.84457362 -0.23631272 0.44265413
-0.84101999 -0.23562708 0.34666586
-0.82772452 -0.23205288 0.25468066
-0.8197214 -0.22995566 0.16937928
-0.87083352 -0.24025331 0.88573903
-0.85181242 -0.23547626 0.72704947
-0.85346079 -0.23608415 0.60597211
-0.85834622 -0.23774992 0.49919412
-0.8423655 -0.23363268 0.39338866
-0.81508827 -0.22621326 0.29473627
-0.81580204 -0.22655936 0.21030425
-0.81323868 -0.2259924 0.12772413
-1.2897657 -0.32223251 8.4514952
-1.198745 -0.30765796 5.9734378
-1.0187835 -0.26881635 3.4155707
-0.95220357 -0.25476497 2.3817246
-0.91834223 -0.24773836 1.8103999
-0.90231246 -0.24474421 1.4457443
-0.883232 -0.24054548 1.1726087
-0.97964919 -0.1551227 16.991034
-1.599281 -0.31692711 15.162898
-1.0935162 -0.28346479 4.3868394
-0.98192453 -0.25943321 2.8160744
-0.94173223 -0.25159156 2.0793054
-0.910851 -0.24485266 1.6129426
-0.88692194 -0.23956391 1.2912773
-0.87478161 -0.2370892 1.0608382
-0.8773852 -0.24091265 0.97391111
-0.8548429 -0.23519534 0.79728431
-0.85265917 -0.23506431 0.66449493
-0.84686697 -0.23377788 0.54643595
-0.84531182 -0.23365824 0.44265413
-0.83713281 -0.23170425 0.34525582
-0.82840931 -0.22959593 0.25468066
-0.82036036 -0.22766565 0.16937928
-0.87145954 -0.23797268 0.88573903
-0.85242599 -0.23324539 0.72704947
-0.84987754 -0.2328591 0.60343897
-0.85888344 -0.23580179 0.49919412
-0.84289342 -0.23172082 0.39338866
-0.81087399 -0.22321571 0.29356396
-0.81627476 -0.22485025 0.21030425
-0.80885494 -0.22310227 0.1275226
-0.21720342 0.043368127 23.978361
-1.3006917 -0.32013956 8.5157051
-1.1988245 -0.3032223 5.9685426
-1.0197157 -0.26525849 3.4155707
-0.95308703 -0.2514396 2.3817246
-0.91688687 -0.2439158 1.8060108
-0.90316123 -0.24159309 1.4457443
-0.88406628 -0.23746096 1.1726087
-0.97932857 -0.15157112 16.976059
-1.0932809 -0.27933505 4.382
-0.98282415 -0.25600407 2.8160744
-0.94049954 -0.24774852 2.0748043
-0.91170013 -0.24167173 1.6129426
-0.88775271 -0.2364665 1.2912773
-0.87560385 -0.23403421 1.0608382
-0.87477851 -0.2369165 0.97040659
-0.85565865 -0.23220997 0.79728431
-0.8534745 -0.23208652 0.66449493
-0.84767783 -0.23082033 0.54643595
-0.84612232 -0.23070613 0.44265413
-0.83793652 -0.2287807 0.34525582
-0.82446736 -0.22540747 0.25374803
-0.82115006 -0.22480068 0.16937928
-0.87228495 -0.23492925 0.88573903
-0.84933251 -0.22921549 0.72410631
-0.85068512 -0.22989108 0.60343897
-0.85970128 -0.23280227 0.49919412
-0.84369713 -0.22877716 0.39338866
-0.81164819 -0.22038385 0.29356396
-0.81227583 -0.22070116 0.20961356
-0.80962878 -0.22027749 0.1275226
-0.21705072 0.044126041 23.978361
-1.3123739 -0.31815708 8.5848551
-1.1988876 -0.29878974 5.9636474
-1.0191892 -0.26132697 3.4107988
-0.95206821 -0.2476197 2.3771222
-0.91773272 -0.24071379 1.8060108
-0.90399903 -0.23843898 1.4457443
-0.88179129 -0.23355316 1.1687713
-0.97785312 -0.14785302 16.941118
-1.0930303 -0.27521047 4.3771605
-0.98371184 -0.25257182 2.8160744
-0.93925148 -0.24391715 2.070303
-0.91001475 -0.23782863 1.6086767
-0.88857269 -0.23336622 1.2912773
-0.87313724 -0.23011264 1.0571631
-0.87560016 -0.23386152 0.97040659
-0.85646403 -0.22922173 0.79728431
-0.85024065 -0.22802301 0.66175348
-0.84847838 -0.22785997 0.54643595
-0.84692246 -0.22775121 0.44265413
-0.83873004 -0.22585435 0.34525582
-0.82524914 -0.22252817 0.25374803
-0.82192975 -0.22193296 0.16937928
-0.86949098 -0.23092479 0.88241351
-0.85012746 -0.22624937 0.72410631
-0.85148239 -0.22692022 0.60343897
-0.86050874 -0.22979996 0.49919412
-0.84449053 -0.22583073 0.39338866
-0.81241256 -0.21754934 0.29356396
-0.81304127 -0.21786444 0.20961356
-0.81039274 -0.21745002 0.1275226
-0.21591955 0.044648971 23.863363
-1.3187671 -0.31483549 8.6194296
-1.1989343 -0.29436052 5.9587522
-1.0186479 -0.2574023 3.4060268
-0.9529267 -0.24429487 2.3771222
-0.91856736 -0.23750885 1.8060108
-0.90210235 -0.23457408 1.4416113
-0.8826012 -0.23047373 1.1687713
-0.9795059 -0.14460547 16.961084
-1.5904597 -0.29791343 15.048553
-1.0927644 -0.27109101 4.3723211
-0.98458749 -0.24913648 2.8160744
-0.94009715 -0.24063705 2.070303
-0.91083938 -0.23465064 1.6086767
-0.88646483 -0.22950818 1.2872872
-0.8739351 -0.22706342 1.0571631
-0.87296247 -0.22989571 0.96690202
-0.85725898 -0.22623073 0.79728431
-0.85103142 -0.22505371 0.66175348
-0.84498632 -0.22376302 0.54411715
-0.84771228 -0.22479349 0.44265413
-0.83487689 -0.2216942 0.34384581
-0.8260209 -0.21964616 0.25374803
-0.82269943 -0.21906252 0.16937928
-0.87029177 -0.22788832 0.88241351
-0.85091203 -0.2232805 0.72410631
-0.85226935 -0.22394662 0.60343897
-0.85691667 -0.22563931 0.49709606
-0.84527367 -0.22288153 0.39338866
-0.81316692 -0.21471216 0.29356396
-0.80900908 -0.21376009 0.20892289
-0.80631715 -0.21334203 0.12732106
-0.21576238 0.045402396 23.863363
-1.3251531 -0.31147316 8.6540041
-1.1989647 -0.28993458 5.9538565
-1.0180917 -0.25348461 3.4012549
-0.95187938 -0.24048877 2.3725195
-0.9193908 -0.23430099 1.8060108
-0.90291566 -0.23142374 1.4416113
-0.88029623 -0.22659272 1.1649337
-0.98143375 -0.14138886 16.986042
-1.0924829 -0.26697677 4.3674817
-0.98377663 -0.24528092 2.8113818
-0.9388206 -0.23682187 2.0658019
-0.91165292 -0.2314698 1.6086767
-0.88726056 -0.22641243 1.2872872
-0.87472242 -0.22401144 1.0571631
-0.87375969 -0.2268471 0.96690202
-0.85804343 -0.22323693 0.79728431
-0.85181183 -0.22208168 0.66175348
-0.84576225 -0.22081213 0.54411715
-0.84849185 -0.22183307 0.44265413
-0.83564568 -0.21877861 0.34384581
-0.83153427 -0.21800716 0.25468066
-0.82345909 -0.21618943 0.16937928
-0.87108189 -0.22484903 0.88241351
-0.84777302 -0.21929687 0.72116315
-0.84887278 -0.21988948 0.60090578
-0.85769916 -0.22264674 0.49709606
-0.84147626 -0.21874167 0.39174515
-0.8139115 -0.21187237 0.29356396
-0.80975032 -0.21093483 0.20892289
-0.8070569 -0.21052614 0.12732106
-1.3232039 -0.30614591 8.6342468
-1.198979 -0.285512 5.9489617
-1.0175205 -0.24957401 3.3964829
-0.95081723 -0.23669299 2.3679171
-0.91788012 -0.23050724 1.8016218
-0.90098959 -0.22758169 1.4374783
-0.88108182 -0.22351854 1.1649337
-0.98478079 -0.13835895 17.035959
-1.0921861 -0.26286784 4.3626423
-0.98295087 -0.24143405 2.8066888
-0.93964154 -0.23354334 2.0658019
-0.91245532 -0.22828612 1.6086767
-0.88512313 -0.22257933 1.2832973
-0.87549901 -0.22095673 1.0571631
-0.87454617 -0.22379573 0.96690202
-0.8588174 -0.22024046 0.79728431
-0.85258186 -0.21910696 0.66175348
-0.84652787 -0.21785851 0.54411715
-0.84926099 -0.21886992 0.44265413
-0.83640426 -0.21586032 0.34384581
-0.83229017 -0.21510324 0.25468066
-0.81938756 -0.21206599 0.1689322
-0.87186146 -0.22180702 0.88241351
-0.84853333 -0.21633625 0.72116315
-0.84545827 -0.2158588 0.59837258
-0.85407412 -0.21852659 0.49499801
-0.84223467 -0.21580306 0.39174515
-0.81464612 -0.20903 0.29356396
-0.81048167 -0.20810699 0.20892289
-0.80778688 -0.2077077 0.12732106
-1.3242645 -0.30152521 8.6342468
-1.198977 -0.28109291 5.9440665
-1.0169345 -0.24567041 3.3917108
-0.94974011 -0.23290758 2.3633144
-0.91867912 -0.22730182 1.8016218
-0.90177858 -0.22443527 1.4374783
-0.87874705 -0.21966457 1.1610962
-0.98268294 -0.13457245 16.991034
-1.5856171 -0.27985778 14.97398
-1.0918738 -0.25876418 4.3578029
-0.98211032 -0.23759598 2.8019962
-0.94045103 -0.23026195 2.0658019
-0.91324663 -0.22509965 1.6086767
-0.88589472 -0.21948834 1.2832973
-0.87297487 -0.21708144 1.0534879
-0.87186396 -0.21986982 0.9633975
-0.85958093 -0.21724129 0.79728431
-0.84928799 -0.21510312 0.65901202
-0.84298933 -0.21381333 0.54179835
-0.85001981 -0.21590412 0.44265413
-0.8418017 -0.21412185 0.34525582
-0.83303595 -0.21219669 0.25468066
-0.81529742 -0.20797363 0.16848512
-0.86900866 -0.2178546 0.87908798
-0.84928334 -0.21337301 0.72116315
-0.84620661 -0.21290629 0.59837258
-0.85043091 -0.21443449 0.49289995
-0.83840436 -0.2117058 0.39010164
-0.82008314 -0.20737661 0.29473627
-0.81120318 -0.20527662 0.20892289
-0.80850697 -0.20488675 0.12732106
-0.21561335 0.047745608 23.903362
-1.325309 -0.29690081 8.6342468
-1.1989585 -0.27667725 5.9391713
-1.0163335 -0.24177398 3.3869388
-0.95054734 -0.22959094 2.3633144
-0.91946691 -0.22409365 1.8016218
-0.90255642 -0.22128612 1.4374783
-0.8795085 -0.21659584 1.1610962
-0.98572272 -0.13148056 17.035959
-1.5839578 -0.27386901 14.949123
-1.0903221 -0.25438061 4.348124
-0.98125488 -0.23376667 2.7973032
-0.94124907 -0.22697777 2.0658019
-0.91149241 -0.22129545 1.6044106
-0.88372803 -0.21568048 1.2793072
-0.87372732 -0.21403287 1.0534879
-0.87262613 -0.2168251 0.9633975
-0.85655707 -0.21329914 0.79414582
-0.85003364 -0.21213722 0.65901202
-0.84373051 -0.21086945 0.54179835
-0.85076833 -0.21293569 0.44265413
-0.84254396 -0.2111821 0.34525582
-0.83377159 -0.20928757 0.25468066
-0.8160184 -0.20512643 0.16848512
-0.86976385 -0.21481986 0.87908798
-0.85002297 -0.21040714 0.72116315
-0.84276044 -0.20891413 0.59583938
-0.84676957 -0.21037051 0.49080193
-0.83913827 -0.20877795 0.39010164
-0.82080203 -0.20451273 0.29473627
-0.81671971 -0.20364174 0.20961356
-0.80921721 -0.20206328 0.12732106
-0.21561435 0.048541676 23.923363
-1.3255785 -0.29210582 8.6293077
-1.1989242 -0.2722652 5.9342756
-1.015718 -0.23788476 3.3821669
-0.94944233 -0.22581977 2.358712
-0.91791469 -0.22032407 1.7972326
-0.90058792 -0.21747397 1.4333454
-0.88025922 -0.21352446 1.1610962
-0.98331219 -0.12767212 16.986042
-1.5796477 -0.26745206 14.899408
-1.0899782 -0.25029209 4.3432846
-0.9820649 -0.23034003 2.7973032
-0.9399175 -0.22318815 2.0613005
-0.91225928 -0.21811239 1.6044106
-0.88447553 -0.21259438 1.2793072
-0.8711735 -0.21018682 1.0498128
-0.87337768 -0.21377774 0.9633975
-0.85729635 -0.2103079 0.79414582
