# .PCD v0.7 - Point Cloud Data file format
VERSION 0.7
FIELDS x y z
SIZE 4 4 4
TYPE F F F
COUNT 1 1 1
WIDTH 1360
HEIGHT 1
VIEWPOINT 0 0 0 1 0 0 0
POINTS 1360
DATA ascii
-0.089450769 0.026130997 9.2589207
-0.51349205 -0.05718942 3.2850308
-0.65271908 -0.07675653 3.1831584
-0.67527604 -0.08395832 2.2225749
-0.66574281 -0.0850823 1.6407181
-0.84112608 -0.10921323 1.6216695
-0.93533927 -0.12273755 1.4581431
-0.92020828 -0.12171578 1.1879587
-0.20191342 -0.0059228931 3.3338563
-0.35565647 -0.022677595 3.281004
-0.63964874 -0.079735301 1.8071296
-0.75099701 -0.09567111 1.6291839
-0.93544489 -0.12060343 1.6129426
-0.9289515 -0.12090022 1.3152174
-0.90874487 -0.11906324 1.0718638
-0.9123565 -0.12260711 0.98442477
-0.88636267 -0.11957783 0.80356121
-0.87646627 -0.11870023 0.66449493
-0.86616439 -0.11760565 0.54411715
-0.85062248 -0.11579064 0.43516198
-0.83686465 -0.11420805 0.33820567
-0.84683555 -0.1158645 0.25374803
-0.82373238 -0.11298902 0.16759096
-0.90659052 -0.12053902 0.89571548
-0.87198496 -0.11639439 0.72410631
-0.86914152 -0.11631601 0.60090578
-0.86474079 -0.1161804 0.49080193
-0.86166066 -0.11606512 0.39174515
-0.82383651 -0.11125627 0.29121932
-0.81941175 -0.11079925 0.20754153
-0.81660229 -0.11070189 0.126918
-0.089359008 0.026443077 9.2589207
-0.5136885 -0.05539665 3.2850308
-0.65399468 -0.074592553 3.1880534
-0.67556494 -0.081600659 2.2225749
-0.66603577 -0.082757905 1.6407181
-0.84150213 -0.10627649 1.6216695
-0.93576199 -0.11947187 1.4581431
-0.92062753 -0.11850291 1.1879587
-0.20222151 -0.0052230861 3.3388481
-0.35679784 -0.021496797 3.290947
-0.73753369 -0.085844964 2.8962967
-0.63992316 -0.077502027 1.8071296
-0.75132638 -0.093049057 1.6291839
-0.93586016 -0.11733738 1.6129426
-0.92936784 -0.11765684 1.3152174
-0.90915495 -0.11589041 1.0718638
-0.91277891 -0.11942165 0.98442477
-0.88677466 -0.11648311 0.80356121
-0.87687528 -0.11564007 0.66449493
-0.86656964 -0.11458145 0.54411715
-0.85102147 -0.11282071 0.43516198
-0.83725828 -0.11128616 0.33820567
-0.84723479 -0.11290779 0.25374803
-0.82412177 -0.11011296 0.16759096
-0.90700573 -0.11737369 0.89571548
-0.87238598 -0.11334988 0.72410631
-0.86954224 -0.11328142 0.60090578
-0.86514109 -0.11316118 0.49080193
-0.85737854 -0.11244274 0.39010164
-0.81940067 -0.10774627 0.29004702
-0.81979352 -0.1079383 0.20754153
-0.81203085 -0.1071969 0.12671648
-0.089306898 0.026770486 9.2639208
-0.51465166 -0.05368321 3.2899699
-0.6542511 -0.072309233 3.1880534
-0.67436308 -0.079068616 2.2178028
-0.66632056 -0.080432497 1.6407181
-0.84186804 -0.10333845 1.6216695
-0.93617332 -0.11620472 1.4581431
-0.92103559 -0.1152886 1.1879587
-0.20252717 -0.0045212 3.3438396
-0.35527381 -0.020165564 3.2760322
-0.64018983 -0.075267807 1.8071296
-0.75164664 -0.090425871 1.6291839
-0.93626404 -0.11406991 1.6129426
-0.92977285 -0.11441202 1.3152174
-0.909554 -0.11271615 1.0718638
-0.91319025 -0.11623473 0.98442477
-0.88717586 -0.113387 0.80356121
-0.87312615 -0.11204647 0.66175348
-0.86696428 -0.11155586 0.54411715
-0.85141009 -0.10984941 0.43516198
-0.8376416 -0.1083629 0.33820567
-0.84275228 -0.10931786 0.25281543
-0.8245011 -0.10723557 0.16759096
-0.90370536 -0.11374091 0.89239001
-0.87277627 -0.11030399 0.72410631
-0.86993229 -0.11024547 0.60090578
-0.86553079 -0.11014058 0.49080193
-0.85776579 -0.10944926 0.39010164
-0.81977177 -0.10488537 0.29004702
-0.82016528 -0.10507602 0.20754153
-0.81240004 -0.10436174 0.12671648
-0.089212909 0.02708206 9.2639208
-0.51483589 -0.051886413 3.2899699
-0.65551203 -0.070132874 3.1929488
-0.67463493 -0.076714173 2.2178028
-0.66659725 -0.07810612 1.6407181
-0.84222358 -0.10039915 1.6216695
-0.93657321 -0.11293615 1.4581431
-0.92143244 -0.11207289 1.1879587
-0.20283039 -0.0038172437 3.3488314
-0.35480964 -0.018898614 3.2710609
-0.73811507 -0.08069396 2.8962967
-0.64044863 -0.073032662 1.8071296
-0.75195765 -0.087801583 1.6291839
-0.93665653 -0.11080104 1.6129426
-0.9301666 -0.11116581 1.3152174
-0.90994185 -0.10954054 1.0718638
-0.91005105 -0.11260869 0.9809202
-0.88756627 -0.11028948 0.80356121
-0.87351191 -0.108998 0.66175348
-0.86734837 -0.10852891 0.54411715
-0.85178834 -0.10687676 0.43516198
-0.83801472 -0.10543832 0.33820567
-0.84312874 -0.10637545 0.25281543
-0.82487035 -0.10435687 0.16759096
-0.9040969 -0.1105857 0.89239001
-0.87315601 -0.10725676 0.72410631
-0.87031186 -0.10720816 0.60090578
-0.86590999 -0.10711864 0.49080193
-0.85814261 -0.10645442 0.39010164
-0.82013291 -0.10202319 0.29004702
-0.82052708 -0.10221247 0.20754153
-0.8127594 -0.10152531 0.12671648
-0.089117832 0.027393306 9.2639208
-0.51501387 -0.050088987 3.2899699
-0.65575284 -0.067844287 3.1929488
-0.67489862 -0.074358784 2.2178028
-0.66686589 -0.075778782 1.6407181
-0.84494811 -0.09773349 1.6260587
-0.93696177 -0.10966621 1.4581431
-0.92181796 -0.1088558 1.1879587
-0.20284247 -0.0031092104 3.3488314
-0.35380849 -0.017610319 3.2611179
-0.73839217 -0.078116961 2.8962967
-0.64069968 -0.070796639 1.8071296
-0.75225961 -0.085176222 1.6291839
-0.93703759 -0.10753082 1.6129426
-0.93054897 -0.10791825 1.3152174
-0.91031873 -0.10636358 1.0718638
-0.91043866 -0.10943133 0.9809202
-0.88794583 -0.10719062 0.80356121
-0.87388706 -0.10594821 0.66175348
-0.86772197 -0.10550065 0.54411715
-0.84755439 -0.10334185 0.43328893
-0.83837765 -0.10251246 0.33820567
-0.83861923 -0.10283393 0.25188279
-0.82522964 -0.1014769 0.16759096
-0.90447742 -0.10742913 0.89239001
-0.87352514 -0.10420823 0.72410631
-0.86640048 -0.10365765 0.59837258
-0.86627865 -0.10409541 0.49080193
-0.85850894 -0.1034583 0.39010164
-0.82530957 -0.099742882 0.29121932
-0.82087886 -0.099347681 0.20754153
-0.81806833 -0.099289544 0.126918
-0.089021668 0.02770422 9.2639208
-0.51518559 -0.048290946 3.2899699
-0.65598565 -0.065554865 3.1929488
-0.67366976 -0.071844652 2.2130308
-0.6671263 -0.073450521 1.6407181
-0.8452841 -0.09478347 1.6260587
-0.93733889 -0.10639494 1.4581431
-0.92219234 -0.10563739 1.1879587
-0.2031408 -0.0024021468 3.3538229
-0.35386783 -0.016375188 3.2611179
-0.74366236 -0.076048858 2.9156544
-0.64094287 -0.068559743 1.8071296
-0.75255233 -0.082549833 1.6291839
-0.9374072 -0.1042593 1.6129426
-0.92792559 -0.10433296 1.3112274
-0.91068441 -0.10318533 1.0718638
-0.91081506 -0.10625264 0.9809202
-0.8883146 -0.10409046 0.80356121
-0.87425154 -0.10289713 0.66175348
-0.86808491 -0.10247108 0.54411715
-0.84790999 -0.1003827 0.43328893
-0.83396673 -0.099019848 0.33679563
-0.83897305 -0.099905975 0.25188279
-0.82557881 -0.098595694 0.16759096
-0.90113759 -0.10384405 0.88906449
-0.87388355 -0.10115842 0.72410631
-0.86675704 -0.10063272 0.59837258
-0.86663669 -0.1010709 0.49080193
-0.8588649 -0.10046091 0.39010164
-0.82565272 -0.0968614 0.29121932
-0.82122064 -0.096481666 0.20754153
-0.81840992 -0.096433349 0.126918
-0.088924415 0.028014796 9.2639208
-0.515351 -0.046492316 3.2899699
-0.65621048 -0.063264646 3.1929488
-0.67391646 -0.069492675 2.2130308
-0.66543597 -0.070914783 1.6361156
-0.84560978 -0.09183231 1.6260587
-0.9377045 -0.10312237 1.4581431
-0.92255545 -0.1024177 1.1879587
-0.20314793 -0.0016930385 3.3538229
-0.35339019 -0.015118747 3.2561464
-0.74642509 -0.073698722 2.9253333
-0.63946176 -0.066144928 1.8024369
-0.75283587 -0.07992243 1.6291839
-0.93776548 -0.1009865 1.6129426
-0.92828411 -0.10109325 1.3112274
-0.91440904 -0.10037549 1.0755389
-0.90763682 -0.10267204 0.97741568
-0.88867247 -0.10098904 0.80356121
-0.87460548 -0.099844798 0.66175348
-0.86843735 -0.099440284 0.54411715
-0.84825522 -0.097422339 0.43328893
-0.83430731 -0.096108153 0.33679563
-0.83443689 -0.096413054 0.25095019
-0.82591796 -0.09571328 0.16759096
-0.90149462 -0.10069787 0.88906449
-0.87423134 -0.098107383 0.72410631
-0.86710304 -0.097606555 0.59837258
-0.86698425 -0.098045148 0.49080193
-0.85921037 -0.097462304 0.39010164
-0.82598579 -0.09397874 0.29121932
-0.82155246 -0.093614481 0.20754153
-0.81874156 -0.093575977 0.126918
-0.08882609 0.028325029 9.2639208
-0.51551014 -0.044693124 3.2899699
-0.65642732 -0.060973663 3.1929488
-0.67266947 -0.066992365 2.2082589
-0.66762286 -0.068791352 1.6407181
-0.84592515 -0.088880017 1.6260587
-0.93805879 -0.099848539 1.4581431
-0.92290735 -0.099196754 1.1879587
-0.20344131 -0.00098290178 3.3588147
-0.35344082 -0.013885093 3.2561464
-0.75043184 -0.071448945 2.9398515
-0.63968873 -0.063912392 1.8024369
-0.75311029 -0.077294059 1.6291839
-0.93811226 -0.09771248 1.6129426
-0.92863131 -0.097852327 1.3112274
-0.91475385 -0.097182989 1.0755389
-0.90798968 -0.099503174 0.97741568
-0.88901961 -0.097886369 0.80356121
-0.87494862 -0.096791245 0.66175348
-0.86437631 -0.095919855 0.54179835
-0.84859014 -0.094460778 0.43328893
-0.8346377 -0.093195297 0.33679563
-0.8347683 -0.093499735 0.25095019
-0.82624698 -0.092829704 0.16759096
-0.89812851 -0.097149141 0.88573903
-0.87456846 -0.095055148 0.72410631
-0.86315304 -0.094112143 0.59583938
-0.86732119 -0.095018215 0.49080193
-0.85954529 -0.094462506 0.39010164
-0.82630885 -0.091094941 0.29121932
-0.82187426 -0.090746164 0.20754153
-0.81906325 -0.090717465 0.126918
-0.088686273 0.028618421 9.2589207
-0.51566303 -0.042893384 3.2899699
-0.65663618 -0.058681935 3.1929488
-0.67141336 -0.064501613 2.2034869
-0.6678589 -0.066460498 1.6407181
-0.84623027 -0.085926645 1.6260587
-0.93840164 -0.096573494 1.4581431
-0.92005992 -0.095643461 1.1841213
-0.2034435 -0.0002727531 3.3588147
-0.35348713 -0.01265127 3.2561464
-0.75318027 -0.06905774 2.9495306
-0.6399079 -0.061679069 1.8024369
-0.75337553 -0.074664742 1.6291839
-0.93844759 -0.094437256 1.6129426
-0.92896724 -0.094610207 1.3112274
-0.91508752 -0.093989305 1.0755389
-0.90833145 -0.096333086 0.97741568
-0.88548547 -0.094370253 0.80042273
-0.87528116 -0.093736514 0.66175348
-0.86470592 -0.092902035 0.54179835
-0.84891462 -0.091498069 0.43328893
-0.8349579 -0.090281293 0.33679563
-0.83508962 -0.090585284 0.25095019
-0.82656604 -0.089944996 0.16759096
-0.89846212 -0.094013497 0.88573903
-0.87489498 -0.092001751 0.72410631
-0.86347628 -0.091098599 0.59583938
-0.86313438 -0.091511779 0.48870388
-0.86456549 -0.091960892 0.39174515
-0.82662171 -0.088210031 0.29121932
-0.82218593 -0.08787673 0.20754153
-0.81937492 -0.08785785 0.126918
-0.088585839 0.02892782 9.2589207
-0.51503497 -0.041032027 3.2850308
-0.65785146 -0.056476101 3.197844
-0.67163438 -0.062157545 2.2034869
-0.66808683 -0.064128831 1.6407181
-0.84652507 -0.082972221 1.6260587
-0.9359327 -0.093019247 1.4540101
-0.92038816 -0.09243127 1.1841213
-0.20373188 0.00044042186 3.3638062
-0.35406196 -0.011432827 3.2611179
-0.75466883 -0.066538215 2.9543698
-0.64011931 -0.059445001 1.8024369
-0.75363153 -0.072034515 1.6291839
-0.93877155 -0.091160886 1.6129426
-0.92629302 -0.091072366 1.3072374
-0.91540998 -0.090794489 1.0755389
-0.9086622 -0.093161836 0.97741568
-0.88580948 -0.091278754 0.80042273
-0.87560308 -0.090680644 0.66175348
-0.86502492 -0.089883082 0.54179835
-0.84922886 -0.088534243 0.43328893
-0.8352679 -0.087366201 0.33679563
-0.84028614 -0.088182345 0.25188279
-0.82687491 -0.0870592 0.16759096
-0.89507002 -0.090501331 0.88241351
-0.8752107 -0.088947244 0.72410631
-0.86807764 -0.088521086 0.59837258
-0.86344856 -0.088498317 0.48870388
-0.86488122 -0.088942431 0.39174515
-0.82692462 -0.085324042 0.29121932
-0.82248771 -0.08500623 0.20754153
-0.81967658 -0.084997162 0.126918
-0.088484317 0.029236864 9.2589207
-0.5151751 -0.039233968 3.2850308
-0.65804458 -0.05417943 3.197844
-0.67036039 -0.059680808 2.1987147
-0.66830659 -0.061796378 1.6407181
-0.84680951 -0.080016792 1.6260587
-0.93625176 -0.089751668 1.4540101
-0.9207052 -0.089217946 1.1841213
-0.20372909 0.0011515761 3.3638062
-0.35409969 -0.01019685 3.2611179
-0.75239146 -0.063692287 2.9446909
-0.64032292 -0.057210207 1.8024369
-0.75387836 -0.06940341 1.6291839
-0.93908399 -0.087883413 1.6129426
-0.92660528 -0.087838434 1.3072374
-0.91234654 -0.087275974 1.0718638
-0.90898186 -0.089989439 0.97741568
-0.8861227 -0.088186152 0.80042273
-0.87591422 -0.087623671 0.66175348
-0.86533338 -0.086863026 0.54179835
-0.84953272 -0.085569344 0.43328893
-0.83556783 -0.084450036 0.33679563
-0.84058887 -0.085248657 0.25188279
-0.82717377 -0.084172338 0.16759096
-0.89538044 -0.087376408 0.88241351
-0.87551588 -0.085891642 0.72410631
-0.86838132 -0.085490391 0.59837258
-0.86375219 -0.085483782 0.48870388
-0.86518633 -0.085922897 0.39174515
-0.82721746 -0.082437016 0.29121932
-0.81785184 -0.081642859 0.20685086
-0.81499726 -0.081637517 0.12671648
-0.088381723 0.029545557 9.2589207
-0.51530892 -0.037435431 3.2850308
-0.65822971 -0.051882096 3.197844
-0.67056459 -0.057340454 2.1987147
-0.66851825 -0.059463177 1.6407181
-0.84708369 -0.077060394 1.6260587
-0.93655926 -0.086482994 1.4540101
-0.92101103 -0.086003549 1.1841213
-0.20372383 0.0018627162 3.3638062
-0.35466605 -0.0089725638 3.2660892
-0.75260919 -0.061065566 2.9446909
-0.63879937 -0.054827612 1.7977442
-0.75411606 -0.066771463 1.6291839
-0.93938506 -0.084604852 1.6129426
-0.92690623 -0.084603451 1.3072374
-0.91264564 -0.084090754 1.0718638
-0.90929043 -0.086815961 0.97741568
-0.88642514 -0.085092463 0.80042273
-0.87621474 -0.084565625 0.66175348
-0.86563134 -0.08384192 0.54179835
-0.84982622 -0.082603402 0.43328893
-0.83585751 -0.081532851 0.33679563
-0.84088129 -0.082313932 0.25188279
-0.82746255 -0.081284449 0.16759096
-0.89567995 -0.084250413 0.88241351
-0.87581038 -0.082834996 0.72410631
-0.86867446 -0.082458653 0.59837258
-0.86404532 -0.082468204 0.48870388
-0.87018174 -0.083352447 0.39338866
-0.8275001 -0.079548985 0.29121932
-0.81813186 -0.078787521 0.20685086
-0.81527728 -0.078792147 0.12671648
-0.088278055 0.029853884 9.2589207
-0.51543641 -0.03563644 3.2850308
-0.65942222 -0.049660116 3.2027392
-0.67076069 -0.054999392 2.1987147
-0.66872174 -0.057129253 1.6407181
-0.8473475 -0.07410305 1.6260587
-0.93685549 -0.083213262 1.4540101
-0.9213056 -0.082788095 1.1841213
-0.20400473 0.0025798797 3.368798
-0.3546952 -0.0077344934 3.2660892
-0.75281775 -0.058438096 2.9446909
-0.63898683 -0.052597452 1.7977442
-0.75434452 -0.064138696 1.6291839
-0.93967468 -0.081325278 1.6129426
-0.92719591 -0.081367426 1.3072374
-0.91293365 -0.080904521 1.0718638
-0.90958792 -0.08364141 0.97741568
-0.88671678 -0.081997745 0.80042273
-0.87650466 -0.08150655 0.66175348
-0.86591876 -0.0808198 0.54179835
-0.8501094 -0.079636447 0.43328893
-0.836137 -0.07861466 0.33679563
-0.84116352 -0.07937821 0.25188279
-0.82774127 -0.078395568 0.16759096
-0.89596862 -0.081123389 0.88241351
-0.87609422 -0.079777345 0.72410631
-0.87324995 -0.079818107 0.60090578
-0.86432791 -0.079451613 0.48870388
-0.87046736 -0.080314435 0.39338866
-0.82293284 -0.076211855 0.29004702
-0.81840187 -0.075931229 0.20685086
-0.81554735 -0.075945817 0.12671648
-0.088173307 0.03016185 9.2589207
-0.51555771 -0.033837013 3.2850308
-0.65959156 -0.047358003 3.2027392
-0.67094857 -0.052657668 2.1987147
-0.66891706 -0.054794624 1.6407181
-0.84760106 -0.071144804 1.6260587
-0.93714023 -0.079942524 1.4540101
-0.92158902 -0.079571627 1.1841213
-0.20399448 0.0032919734 3.368798
-0.35525307 -0.0065044235 3.2710609
-0.75301713 -0.055809915 2.9446909
-0.63916653 -0.050366648 1.7977442
-0.75456387 -0.06150515 1.6291839
-0.94255191 -0.078260213 1.6172085
-0.92747432 -0.078130409 1.3072374
-0.90983254 -0.077430077 1.0681885
-0.90987432 -0.080465846 0.97741568
-0.88699764 -0.078902036 0.80042273
-0.87678379 -0.078446478 0.66175348
-0.86619556 -0.077796683 0.54179835
-0.85038221 -0.076668531 0.43328893
-0.83640635 -0.075695522 0.33679563
-0.84143549 -0.076441519 0.25188279
-0.83296931 -0.075957954 0.16803804
-0.89996606 -0.078318849 0.88573903
-0.8723408 -0.076366439 0.72116315
-0.87352324 -0.076769412 0.60090578
-0.8646 -0.076434068 0.48870388
-0.86603874 -0.076858133 0.39174515
-0.82319385 -0.073338822 0.29004702
-0.81866193 -0.073074013 0.20685086
-0.81580746 -0.073098563 0.12671648
-0.088067487 0.030469449 9.2589207
-0.5164482 -0.032084744 3.2899699
-0.66076875 -0.04512421 3.2076344
-0.67112833 -0.050315298 2.1987147
-0.66910422 -0.052459337 1.6407181
-0.84784418 -0.068185687 1.6260587
-0.93741357 -0.076670803 1.4540101
-0.92186117 -0.076354206 1.1841213
-0.20398174 0.0040040272 3.368798
-0.3552736 -0.005264319 3.2710609
-0.75446129 -0.053269178 2.9495306
-0.63933849 -0.048135236 1.7977442
-0.75477397 -0.058870859 1.6291839
-0.94281936 -0.07496962 1.6172085
-0.92774135 -0.074892446 1.3072374
-0.91009724 -0.074253693 1.0681885
-0.91014963 -0.077289306 0.97741568
-0.88726759 -0.075805351 0.80042273
-0.87705231 -0.075385451 0.66175348
-0.86646187 -0.074772619 0.54179835
-0.85064465 -0.073699676 0.43328893
-0.84144461 -0.073191054 0.33820567
-0.84169716 -0.073503897 0.25188279
-0.83322936 -0.073049881 0.16803804
-0.90023398 -0.07517691 0.88573903
-0.87260199 -0.073320933 0.72116315
-0.87378585 -0.073719777 0.60090578
-0.86486149 -0.073415585 0.48870388
-0.86630172 -0.073834628 0.39174515
-0.82344484 -0.070464894 0.29004702
-0.82384598 -0.070638895 0.20754153
-0.81605768 -0.070250414 0.12671648
-0.087960586 0.030776676 9.2589207
-0.51733279 -0.030326674 3.2949092
-0.66092223 -0.042817421 3.2076344
-0.67129987 -0.047972318 2.1987147
-0.66928333 -0.050123408 1.6407181
-0.84807706 -0.065225743 1.6260587
-0.93767548 -0.073398151 1.4540101
-0.92212206 -0.073135845 1.1841213
-0.20396651 0.0047160313 3.368798
-0.35528982 -0.0040241508 3.2710609
-0.75338846 -0.050551549 2.9446909
-0.63778132 -0.045780152 1.7930514
-0.75497484 -0.056235846 1.6291839
-0.9430753 -0.071678109 1.6172085
-0.92799711 -0.071653567 1.3072374
-0.91035092 -0.071076408 1.0681885
-0.91041392 -0.074111819 0.97741568
-0.88752681 -0.07270775 0.80042273
-0.87731004 -0.072323509 0.66175348
-0.86671758 -0.071747653 0.54179835
-0.85089678 -0.070729926 0.43328893
-0.84647542 -0.070652321 0.3396157
-0.84194863 -0.07056538 0.25188279
-0.83347929 -0.070140921 0.16803804
-0.90049088 -0.072034046 0.88573903
-0.87285262 -0.070274539 0.72116315
-0.87403786 -0.070669249 0.60090578
-0.86511254 -0.070396207 0.48870388
-0.86655414 -0.070810221 0.39174515
-0.82368577 -0.067590103 0.29004702
-0.82408756 -0.06776271 0.20754153
-0.81131887 -0.066990316 0.12651494
-0.087852627 0.03108353 9.2589207
-0.51743549 -0.02852066 3.2949092
-0.66208398 -0.040571917 3.2125297
-0.67146325 -0.045628749 2.1987147
-0.66945416 -0.047786869 1.6407181
-0.84829962 -0.062265009 1.6260587
-0.93792599 -0.070124611 1.4540101
-0.92237169 -0.069916591 1.1841213
-0.20366029 0.0054179034 3.3638062
-0.35530171 -0.0027839332 3.2710609
-0.7535603 -0.047921423 2.9446909
-0.63793719 -0.043553606 1.7930514
-0.75516653 -0.053600151 1.6291839
-0.94331974 -0.06838572 1.6172085
-0.92523652 -0.068192609 1.3032473
-0.91059345 -0.067898259 1.0681885
-0.90711159 -0.070656724 0.97391111
-0.88777518 -0.069609262 0.80042273
-0.87755716 -0.069260687 0.66175348
-0.86696273 -0.068721808 0.54179835
-0.85113841 -0.067759313 0.43328893
-0.84671688 -0.067697138 0.3396157
-0.84218979 -0.067625992 0.25188279
-0.82875514 -0.066830851 0.16759096
-0.90073687 -0.068890311 0.88573903
-0.87309259 -0.067227289 0.72116315
-0.8742792 -0.067617856 0.60090578
-0.86535299 -0.067375973 0.48870388
-0.86679602 -0.06778495 0.39174515
-0.82391673 -0.064714491 0.29004702
-0.82431906 -0.064885691 0.20754153
-0.81154776 -0.064157873 0.12651494
-0.087743588 0.03139 9.2589207
-0.51830792 -0.026753746 3.2998483
-0.66222155 -0.038260568 3.2125297
-0.6716184 -0.043284629 2.1987147
-0.66961694 -0.045449745 1.6407181
-0.8485117 -0.059303511 1.6260587
-0.93535817 -0.06665048 1.4498771
-0.92261016 -0.066696487 1.1841213
-0.20364015 0.0061287777 3.3638062
-0.35530925 -0.0015436818 3.2710609
-0.75246823 -0.04521573 2.9398515
-0.63808537 -0.041326519 1.7930514
-0.75317699 -0.050817635 1.6246827
-0.94355273 -0.065092504 1.6172085
-0.92546886 -0.064962514 1.3032473
-0.91420656 -0.06495931 1.0718638
-0.90735269 -0.067489885 0.97391111
-0.88801277 -0.066509917 0.80042273
-0.87779361 -0.066197015 0.66175348
-0.86719733 -0.065695122 0.54179835
-0.8513698 -0.064787865 0.43328893
-0.85173112 -0.065106653 0.34102574
-0.84242076 -0.064685792 0.25188279
-0.82898337 -0.063937552 0.16759096
-0.90097183 -0.065745734 0.88573903
-0.87332195 -0.064179219 0.72116315
-0.87450993 -0.064565636 0.60090578
-0.86558288 -0.064354911 0.48870388
-0.8623184 -0.064407267 0.39010164
-0.82898462 -0.06220169 0.29121932
-0.82454056 -0.062007889 0.20754153
-0.81176674 -0.061324656 0.12651494
-0.087633476 0.031696096 9.2589207
-0.51839811 -0.024944352 3.2998483
-0.66336781 -0.036003456 3.2174249
-0.67176539 -0.040939979 2.1987147
-0.66977149 -0.043112069 1.6407181
-0.84871358 -0.056341287 1.6260587
-0.93558514 -0.063385062 1.4498771
-0.92283732 -0.063475564 1.1841213
-0.20361751 0.0068395771 3.3638062
-0.35584551 -0.00030220239 3.2760322
-0.75513148 -0.042730059 2.9495306
-0.63822573 -0.039098933 1.7930514
-0.75334978 -0.048188243 1.6246827
-0.94117177 -0.061628379 1.6129426
-0.92268342 -0.061531402 1.2992573
-0.91442776 -0.061767735 1.0718638
-0.90758276 -0.064322226 0.97391111
-0.8882395 -0.063409768 0.80042273
-0.87801933 -0.063132539 0.66175348
-0.86742139 -0.062667638 0.54179835
-0.85159075 -0.061815634 0.43328893
-0.85195315 -0.062133167 0.34102574
-0.84264141 -0.061744805 0.25188279
-0.82920158 -0.061043471 0.16759096
-0.90119582 -0.062600352 0.88573903
-0.87354064 -0.061130363 0.72116315
-0.87472999 -0.061512638 0.60090578
-0.86580229 -0.061333075 0.48870388
-0.86253792 -0.061396819 0.39010164
-0.82919663 -0.059307612 0.29121932
-0.81981254 -0.058775265 0.20685086
-0.81695896 -0.058849625 0.12671648
-0.087562039 0.032019831 9.2639208
-0.51848203 -0.023134653 3.2998483
-0.66450638 -0.033738811 3.2223201
-0.67190421 -0.038594831 2.1987147
-0.66991788 -0.040773869 1.6407181
-0.84890509 -0.053378385 1.6260587
-0.93580067 -0.06011888 1.4498771
-0.92305332 -0.060253881 1.1841213
-0.20359239 0.0075502931 3.3638062
-0.35584441 0.00093993195 3.2760322
-0.7565313 -0.04016012 2.9543698
-0.63835835 -0.036870874 1.7930514
-0.7535134 -0.04555827 1.6246827
-0.94138116 -0.058342703 1.6129426
-0.92289257 -0.058310263 1.2992573
-0.9146378 -0.058575414 1.0718638
-0.90780175 -0.061153777 0.97391111
-0.88845545 -0.060308848 0.80042273
-0.87823433 -0.060067296 0.66175348
-0.86763483 -0.059639391 0.54179835
-0.85180134 -0.058842652 0.43328893
-0.85216486 -0.05915891 0.34102574
-0.84285176 -0.058803059 0.25188279
-0.82940954 -0.058148649 0.16759096
-0.90140885 -0.059454214 0.88573903
-0.87374872 -0.058080766 0.72116315
-0.87493938 -0.058458887 0.60090578
-0.86601108 -0.05831049 0.48870388
-0.86274701 -0.058385622 0.39010164
-0.82939863 -0.05641282 0.29121932
-0.82001275 -0.055913225 0.20685086
-0.81715941 -0.05599755 0.12671648
-0.087449737 0.032325286 9.2639208
-0.51778322 -0.021293353 3.2949092
-0.6656372 -0.031466655 3.2272153
-0.67054433 -0.036169272 2.193943
-0.67005616 -0.038435169 1.6407181
-0.84908628 -0.050414827 1.6260587
-0.93600482 -0.056851957 1.4498771
-0.92325795 -0.057031453 1.1841213
-0.20356479 0.0082609169 3.3638062
-0.356372 0.0021869862 3.281004
-0.75792229 -0.037580933 2.9592094
-0.63676 -0.034549341 1.7883586
-0.75366789 -0.042927738 1.6246827
-0.94157904 -0.055056315 1.6129426
-0.92309046 -0.055088412 1.2992573
-0.91145271 -0.055177771 1.0681885
-0.90800965 -0.057984583 0.97391111
-0.88866055 -0.057207193 0.80042273
-0.87426603 -0.056730751 0.65901202
-0.86783779 -0.05661042 0.54179835
-0.85200155 -0.055868957 0.43328893
-0.85715294 -0.056499362 0.34243578
-0.84305191 -0.055860598 0.25188279
-0.82960749 -0.055253111 0.16759096
-0.90161091 -0.056307346 0.88573903
-0.87394613 -0.055030458 0.72116315
-0.8751381 -0.055404421 0.60090578
-0.86620933 -0.05528719 0.48870388
-0.86294556 -0.055373721 0.39010164
-0.82473999 -0.053204507 0.29004702
-0.82020295 -0.053050507 0.20685086
-0.81734991 -0.05314479 0.12671648
-0.087336369 0.032630347 9.2639208
-0.51785445 -0.019485822 3.2949092
-0.66574299 -0.029142957 3.2272153
-0.67066646 -0.033828415 2.193943
-0.67018622 -0.036096003 1.6407181
-0.84925699 -0.047450658 1.6260587
-0.93619758 -0.053584348 1.4498771
-0.92345142 -0.053808335 1.1841213
-0.20382302 0.0089865495 3.368798
-0.35636219 0.003430943 3.281004
-0.75930452 -0.034992516 2.9640486
-0.6368767 -0.032326423 1.7883586
-0.75381315 -0.040296685 1.6246827
-0.94436961 -0.05191211 1.6172085
-0.92628574 -0.05203462 1.3032473
-0.91163975 -0.051995873 1.0681885
-0.90820652 -0.054814685 0.97391111
-0.88885486 -0.054104842 0.80042273
-0.87445867 -0.05367865 0.65901202
-0.86803007 -0.053580754 0.54179835
-0.85219139 -0.052894574 0.43328893
-0.85734493 -0.053506993 0.34243578
-0.84324181 -0.052917462 0.25188279
-0.8297953 -0.052356906 0.16759096
-0.90180194 -0.053159796 0.88573903
-0.87413293 -0.051979482 0.72116315
-0.87532616 -0.052349281 0.60090578
-0.86639702 -0.052263219 0.48870388
-0.86313361 -0.052361138 0.39010164
-0.82492065 -0.050325304 0.29004702
-0.82038313 -0.050187141 0.20685086
-0.81753039 -0.050291382 0.12671648
-0.087221935 0.032935008 9.2639208
-0.51714271 -0.017652158 3.2899699
-0.66584063 -0.026818903 3.2272153
-0.67078048 -0.031487145 2.193943
-0.67030811 -0.033756398 1.6407181
-0.84941751 -0.044485908 1.6260587
-0.9363789 -0.050316084 1.4498771
-0.92363364 -0.050584558 1.1841213
-0.20379041 0.00969797 3.368798
-0.35688105 0.0046835109 3.2859755
-0.76067793 -0.032394916 2.9688883
-0.63698566 -0.030103112 1.7883586
-0.75394922 -0.03766514 1.6246827
-0.94454503 -0.048615329 1.6172085
-0.9264617 -0.048800964 1.3032473
-0.91181576 -0.048813339 1.0681885
-0.90839237 -0.05164412 0.97391111
-0.88515234 -0.05077913 0.79728431
-0.8746407 -0.050625894 0.65901202
-0.86821181 -0.050550438 0.54179835
-0.8523708 -0.049919549 0.43328893
-0.85752648 -0.050513975 0.34243578
-0.8434214 -0.049973674 0.25188279
-0.82997298 -0.049460061 0.16759096
-0.90198201 -0.050011594 0.88573903
-0.874309 -0.048927873 0.72116315
-0.87550354 -0.049293503 0.60090578
-0.86657423 -0.049238611 0.48870388
-0.86331111 -0.049347922 0.39010164
-0.8250913 -0.047445491 0.29004702
-0.8205533 -0.04732316 0.20685086
-0.81770098 -0.047437362 0.12671648
-0.087145917 0.033257853 9.2689209
-0.51720119 -0.015846884 3.2899699
-0.66694778 -0.024531478 3.2321105
-0.67088634 -0.029145492 2.193943
-0.6704219 -0.031416379 1.6407181
-0.84956759 -0.041520618 1.6260587
-0.93654883 -0.047047202 1.4498771
-0.92060357 -0.047196329 1.1802837
-0.20375532 0.010409272 3.368798
-0.35686255 0.0059292293 3.2859755
-0.76204228 -0.029788142 2.9737275
-0.63708687 -0.027879434 1.7883586
-0.75407606 -0.035033137 1.6246827
-0.94470894 -0.045317955 1.6172085
-0.92662638 -0.045566708 1.3032473
-0.91198057 -0.045630213 1.0681885
-0.90856707 -0.048472922 0.97391111
-0.88532424 -0.047689062 0.79728431
-0.87481213 -0.04757252 0.65901202
-0.86838299 -0.047519501 0.54179835
-0.8525399 -0.046943914 0.43328893
-0.85290778 -0.047255065 0.34102574
-0.84359062 -0.047029283 0.25188279
-0.83014059 -0.046562612 0.16759096
-0.90215111 -0.046862785 0.88573903
-0.87043798 -0.045664124 0.71822
-0.87567031 -0.046237126 0.60090578
-0.86674082 -0.0462134 0.48870388
-0.85876268 -0.046081204 0.38845813
-0.82039827 -0.044303082 0.28887469
-0.82071346 -0.044458609 0.20685086
-0.81786162 -0.044582762 0.12671648
-0.087029293 0.033561844 9.2689209
-0.51647663 -0.014020944 3.2850308
-0.66702932 -0.022203244 3.2321105
-0.67098391 -0.026803484 2.193943
-0.67052746 -0.029075978 1.6407181
-0.84970737 -0.038554817 1.6260587
-0.93670738 -0.043777749 1.4498771
-0.92076266 -0.043982536 1.1802837
-0.20371774 0.011120447 3.368798
-0.35683966 0.0071748756 3.2859755
-0.76214164 -0.027127936 2.9737275
-0.63718027 -0.025655415 1.7883586
-0.75419378 -0.032400709 1.6246827
-0.94225597 -0.041904453 1.6129426
-0.92677981 -0.0423319 1.3032473
-0.91213429 -0.042446528 1.0681885
-0.90873075 -0.045301136 0.97391111
-0.88548529 -0.044598412 0.79728431
-0.8791489 -0.044730846 0.66175348
-0.86854357 -0.04448799 0.54179835
-0.85269856 -0.043967709 0.43328893
-0.84827697 -0.044029027 0.3396157
-0.8437497 -0.044084314 0.25188279
-0.83029807 -0.043664597 0.16759096
-0.90230918 -0.043713402 0.88573903
-0.87059206 -0.04262545 0.71822
-0.87582636 -0.043180183 0.60090578
-0.86689687 -0.043187629 0.48870388
-0.85891831 -0.04308328 0.38845813
-0.82054794 -0.041439086 0.28887469
-0.82086366 -0.041593511 0.20685086
-0.81801224 -0.041727621 0.12671648
-0.086911611 0.033865429 9.2689209
-0.51729923 -0.012235782 3.2899699
-0.66710275 -0.019874744 3.2321105
-0.67107344 -0.02446115 2.193943
-0.67062485 -0.026735224 1.6407181
-0.84983677 -0.035588551 1.6260587
-0.93404305 -0.040386487 1.4457443
-0.9209106 -0.04076821 1.1802837
-0.20367768 0.011831488 3.368798
-0.35681245 0.0084204357 3.2859755
-0.76348805 -0.024507321 2.9785671
-0.63726598 -0.023431085 1.7883586
-0.75430226 -0.029767882 1.6246827
-0.94239652 -0.038615108 1.6129426
-0.92692196 -0.039096579 1.3032473
-0.91227692 -0.039262325 1.0681885
-0.90888333 -0.042128798 0.97391111
-0.88563555 -0.041507222 0.79728431
-0.8792997 -0.041661773 0.66175348
-0.86869353 -0.041455939 0.54179835
-0.8528468 -0.040990967 0.43328893
-0.84363401 -0.040835891 0.33820567
-0.84389842 -0.041138809 0.25188279
-0.82547146 -0.040521912 0.16714388
-0.90245628 -0.04056349 0.88573903
-0.86669779 -0.039402898 0.71527684
-0.87597173 -0.040122714 0.60090578
-0.8670423 -0.04016133 0.48870388
-0.85434645 -0.039864857 0.38681462
-0.82068759 -0.038574588 0.28887469
-0.82100385 -0.038727909 0.20685086
-0.81316257 -0.038634885 0.12651494
-0.086753592 0.034149606 9.2639208
-0.51733881 -0.010429996 3.2899699
-0.66818595 -0.017572299 3.2370059
-0.67115474 -0.022118518 2.193943
-0.67071414 -0.024394143 1.6407181
-0.84995586 -0.032621849 1.6260587
-0.93417829 -0.037125826 1.4457443
-0.92104727 -0.037553381 1.1802837
-0.20334716 0.012522245 3.3638062
-0.35678089 0.0096658925 3.2859755
-0.7648254 -0.021877637 2.9834063
-0.63734388 -0.02120647 1.7883586
-0.75440156 -0.027134696 1.6246827
-0.94252557 -0.035325296 1.6129426
-0.92705274 -0.035860781 1.3032473
-0.91240835 -0.036077648 1.0681885
-0.90902483 -0.038955946 0.97391111
-0.88577503 -0.038415525 0.79728431
-0.87943977 -0.03859219 0.66175348
-0.86440748 -0.038227838 0.53947955
-0.85298473 -0.038013726 0.43328893
-0.83897913 -0.037675709 0.33679563
-0.84403694 -0.038192801 0.25188279
-0.8256079 -0.037640233 0.16714388
-0.89886183 -0.037258681 0.88241351
-0.86682999 -0.036377318 0.71527684
-0.87179953 -0.03688274 0.59837258
-0.86717725 -0.037134543 0.48870388
-0.84976262 -0.03667888 0.38517112
-0.82081723 -0.03570962 0.28887469
-0.82113403 -0.035861839 0.20685086
-0.81329244 -0.035796184 0.12651494
-0.086633861 0.034452226 9.2639208
-0.51814896 -0.0086364234 3.2949092
-0.66824329 -0.015239786 3.2370059
-0.67122787 -0.019775616 2.193943
-0.67079514 -0.022052767 1.6407181
-0.85006452 -0.029654754 1.6260587
-0.93430221 -0.033864707 1.4457443
-0.92117274 -0.034338098 1.1802837
-0.20330219 0.013231982 3.3638062
-0.35674497 0.01091123 3.2859755
-0.76615375 -0.019238915 2.988246
-0.63741404 -0.018981595 1.7883586
-0.75449169 -0.024501177 1.6246827
-0.94264311 -0.032035053 1.6129426
-0.92717224 -0.032624543 1.3032473
-0.91252875 -0.032892525 1.0681885
-0.90559179 -0.035642609 0.97040659
-0.88590378 -0.035323359 0.79728431
-0.87956911 -0.035522137 0.66175348
-0.86453563 -0.035210256 0.53947955
-0.85311222 -0.035036024 0.43328893
-0.83910549 -0.034746893 0.33679563
-0.84416509 -0.035246331 0.25188279
-0.82573426 -0.034758091 0.16714388
-0.8989864 -0.034120843 0.88241351
-0.86291271 -0.033196133 0.71233368
-0.87192297 -0.033839367 0.59837258
-0.86730152 -0.034107305 0.48870388
-0.8498854 -0.033712432 0.38517112
-0.82579362 -0.033038434 0.29004702
-0.82125419 -0.032995328 0.20685086
-0.81341243 -0.032957043 0.12651494
-0.086513065 0.034754422 9.2639208
-0.51895291 -0.0068373224 3.2998483
-0.6682924 -0.01290709 3.2370059
-0.66980052 -0.017394179 2.1891708
-0.67086804 -0.019711118 1.6407181
-0.85016286 -0.026687294 1.6260587
-0.93441474 -0.03060318 1.4457443
-0.91808361 -0.031014448 1.1764462
-0.20325477 0.013941559 3.3638062
-0.35723737 0.012176247 3.290947
-0.76621622 -0.016564421 2.988246
-0.63747638 -0.01675649 1.7883586
-0.75674868 -0.021930043 1.6291839
-0.9427492 -0.02874442 1.6129426
-0.92728049 -0.029387912 1.3032473
-0.91263801 -0.029707007 1.0681885
-0.90571064 -0.032481287 0.97040659
-0.88602167 -0.032230761 0.79728431
-0.87968779 -0.032451648 0.66175348
-0.86465329 -0.032192249 0.53947955
-0.85322928 -0.032057893 0.43328893
-0.83442813 -0.031636018 0.33538559
-0.84428298 -0.032299429 0.25188279
-0.82585055 -0.031875532 0.16714388
-0.89536846 -0.030854234 0.87908798
-0.86302334 -0.030183801 0.71233368
-0.87203574 -0.030795582 0.59837258
-0.86741531 -0.031079652 0.48870388
-0.84527892 -0.030575009 0.38352761
-0.82590395 -0.030155677 0.29004702
-0.8213644 -0.030128412 0.20685086
-0.81352258 -0.030117504 0.12651494
-0.086391225 0.0350562 9.2639208
-0.51897359 -0.0050257971 3.2998483
-0.66833335 -0.010574236 3.2370059
-0.6698572 -0.015056034 2.1891708
-0.67093277 -0.017369233 1.6407181
-0.85025084 -0.023719508 1.6260587
-0.93451589 -0.027341275 1.4457443
-0.91818625 -0.027809549 1.1764462
-0.20320487 0.014650966 3.3638062
-0.3571927 0.013423165 3.290947
-0.76752609 -0.013912103 2.9930851
-0.63753098 -0.014531179 1.7883586
-0.75682062 -0.019288363 1.6291839
-0.94284379 -0.025453435 1.6129426
-0.92737746 -0.026150919 1.3032473
-0.91273618 -0.026521124 1.0681885
-0.90581852 -0.029319568 0.97040659
-0.88612878 -0.02913777 0.79728431
-0.87979567 -0.02938077 0.66175348
-0.8647604 -0.029173851 0.53947955
-0.84870279 -0.028921623 0.43141592
-0.83453345 -0.02872313 0.33538559
-0.84439057 -0.029352138 0.25188279
-0.82595676 -0.02899258 0.16714388
-0.89547074 -0.027728627 0.87908798
-0.86312336 -0.027171103 0.71233368
-0.8721379 -0.02775142 0.59837258
-0.86751854 -0.028051615 0.48870388
-0.84538049 -0.027624249 0.38352761
-0.82600421 -0.02727255 0.29004702
-0.82146454 -0.027261132 0.20685086
-0.81362271 -0.027277598 0.12651494
-0.086268328 0.035357546 9.2639208
-0.51976496 -0.003218415 3.3047879
-0.66938424 -0.008253336 3.2419009
-0.6699056 -0.012717703 2.1891708
-0.66903615 -0.014983835 1.6361156
-0.85032845 -0.020751433 1.6260587
-0.9346056 -0.02407904 1.4457443
-0.91827774 -0.024604311 1.1764462
-0.20315249 0.015360193 3.3638062
-0.35714367 0.014669918 3.290947
-0.76882684 -0.011250841 2.9979248
-0.63585246 -0.012272865 1.7836659
-0.75688332 -0.01664645 1.6291839
-0.94292688 -0.022162141 1.6129426
-0.92746305 -0.022913609 1.3032473
-0.91282314 -0.023334919 1.0681885
-0.90591538 -0.026157495 0.97040659
-0.88622504 -0.026044426 0.79728431
-0.87989289 -0.026309531 0.66175348
-0.86485696 -0.026155096 0.53947955
-0.84879857 -0.025958922 0.43141592
-0.83462858 -0.02580989 0.33538559
-0.83957803 -0.026251044 0.25095019
-0.8260529 -0.026109278 0.16714388
-0.89556205 -0.024602681 0.87908798
-0.863213 -0.024158075 0.71233368
-0.87222952 -0.024706921 0.59837258
-0.86761117 -0.025023241 0.48870388
-0.85019189 -0.024810767 0.38517112
-0.82609433 -0.02438909 0.29004702
-0.81660485 -0.024246611 0.20616017
-0.81870675 -0.024587315 0.12671648
-0.08614438 0.035658464 9.2639208
-0.518996 -0.0014025852 3.2998483
-0.66940904 -0.0059166984 3.2419009
-0.66845345 -0.010356555 2.1843991
-0.66908437 -0.01264837 1.6361156
-0.85039574 -0.017783107 1.6260587
-0.93468398 -0.020816512 1.4457443
-0.91835803 -0.021398775 1.1764462
-0.20338523 0.016094396 3.368798
-0.35762271 0.015941881 3.2959185
-0.77011836 -0.0085806679 3.002764
-0.63589144 -0.010053251 1.7836659
-0.75693685 -0.014004332 1.6291839
-0.94299853 -0.018870577 1.6129426
-0.92753744 -0.019676017 1.3032473
-0.91289908 -0.02014843 1.0681885
-0.90600115 -0.022995099 0.97040659
-0.88631058 -0.022950767 0.79728431
-0.87997937 -0.023237972 0.66175348
-0.86494303 -0.023136022 0.53947955
-0.84888399 -0.022995904 0.43141592
-0.83471364 -0.022896335 0.33538559
-0.83966452 -0.023320209 0.25095019
-0.82613903 -0.023225656 0.16714388
-0.89937514 -0.021565706 0.88241351
-0.86733288 -0.021243509 0.71527684
-0.87661994 -0.021768948 0.60090578
-0.86769325 -0.021994559 0.48870388
-0.85027325 -0.021842893 0.38517112
-0.82617444 -0.021505335 0.29004702
-0.81668448 -0.021395979 0.20616017
-0.81878757 -0.021729346 0.12671648
-0.086019389 0.035958946 9.2639208
-0.51977473 0.00041027798 3.3047879
-0.66942561 -0.0035799893 3.2419009
-0.66848552 -0.0080231531 2.1843991
-0.66912442 -0.010312754 1.6361156
-0.8504526 -0.014814564 1.6260587
-0.93475091 -0.017553728 1.4457443
-0.91842711 -0.018192977 1.1764462
-0.20332782 0.016804244 3.368798
-0.3575649 0.017190119 3.2959185
-0.77265745 -0.0059108292 3.0124428
-0.63592267 -0.0078335134 1.7836659
-0.75698107 -0.011362044 1.6291839
-0.94305861 -0.015578783 1.6129426
-0.92760044 -0.016438188 1.3032473
-0.91296387 -0.016961696 1.0681885
-0.90964133 -0.019910224 0.97391111
-0.88638532 -0.019856825 0.79728431
-0.87587476 -0.020070532 0.65901202
-0.86501849 -0.020116668 0.53947955
-0.84895909 -0.020032605 0.43141592
-0.83478844 -0.0199825 0.33538559
-0.83974081 -0.020389091 0.25095019
-0.82621509 -0.020341752 0.16714388
-0.89944494 -0.018426171 0.88241351
-0.86740172 -0.018215824 0.71527684
-0.87669057 -0.018708842 0.60090578
-0.86776471 -0.018965613 0.48870388
-0.85506541 -0.018979415 0.38681462
-0.82624447 -0.018621316 0.29004702
-0.81675422 -0.018545089 0.20616017
-0.81885844 -0.01887111 0.12671648
-0.085893348 0.036258988 9.2639208
-0.51977015 0.0022246279 3.3047879
-0.66943401 -0.0012432359 3.2419009
-0.66850948 -0.005689655 2.1843991
-0.66915637 -0.0079770107 1.6361156
-0.85049909 -0.011845841 1.6260587
-0.93480653 -0.014290732 1.4457443
-0.92168987 -0.015038979 1.1802837
-0.20326792 0.017513888 3.368798
-0.35750273 0.018438149 3.2959185
-0.77393037 -0.0032185419 3.0172825
-0.63767171 -0.0056284401 1.7883586
-0.7548393 -0.0086949216 1.6246827
-0.94310731 -0.012286799 1.6129426
-0.92765212 -0.013200159 1.3032473
-0.91301745 -0.013774753 1.0681885
-0.90970528 -0.016734861 0.97391111
-0.88644928 -0.01676264 0.79728431
-0.87593949 -0.017013038 0.65901202
-0.8650834 -0.017097067 0.53947955
-0.84902388 -0.017069064 0.43141592
-0.83485311 -0.017068423 0.33538559
-0.83980691 -0.017457724 0.25095019
-0.82628107 -0.017457597 0.16714388
-0.89950383 -0.015286408 0.88241351
-0.87150145 -0.015258458 0.71822
-0.87675047 -0.015648507 0.60090578
-0.86328787 -0.015853263 0.48660582
-0.85984772 -0.016082745 0.38845813
-0.82630444 -0.015737072 0.29004702
-0.81681395 -0.015693972 0.20616017
-0.8189193 -0.016012646 0.12671648
-0.085766248 0.036558595 9.2639208
-0.51898223 0.0040323059 3.2998483
-0.66841608 0.0010914 3.2370059
-0.66852528 -0.0033560863 2.1843991
-0.66918015 -0.0056411703 1.6361156
-0.85053527 -0.0088769728 1.6260587
-0.93485069 -0.011027561 1.4457443
-0.92173672 -0.01182159 1.1802837
-0.20320554 0.018223319 3.368798
-0.3579683 0.019716918 3.30089
-0.77519381 -0.00051744014 3.0221217
-0.63596183 -0.0033937816 1.7836659
-0.75486511 -0.0060599879 1.6246827
-0.94314444 -0.0089946659 1.6129426
-0.92769259 -0.0099619683 1.3032473
-0.91306001 -0.010587643 1.0681885
-0.90975815 -0.013559295 0.97391111
-0.88650233 -0.013668254 0.79728431
-0.87599355 -0.013955333 0.65901202
-0.86513782 -0.014077257 0.53947955
-0.85371357 -0.014182176 0.43328893
-0.83970398 -0.014235346 0.33679563
-0.84477425 -0.014611018 0.25188279
-0.82633692 -0.014573232 0.16714388
-0.89955169 -0.012146462 0.88241351
-0.87154937 -0.012216257 0.71822
-0.87679982 -0.01258798 0.60090578
-0.86333793 -0.01283973 0.48660582
-0.86462033 -0.013152921 0.39010164
-0.82635432 -0.012852635 0.29004702
-0.81686372 -0.012842663 0.20616017
-0.8189702 -0.013153987 0.12671648
-0.085638121 0.03685775 9.2639208
-0.51896501 0.0058438675 3.2998483
-0.66840822 0.0034246009 3.2370059
-0.66853285 -0.0010224774 2.1843991
-0.66919577 -0.0033052613 1.6361156
-0.85056108 -0.0059079961 1.6260587
-0.93769747 -0.0077873399 1.4498771
-0.92177236 -0.0086040581 1.1802837
-0.20314071 0.018932529 3.368798
-0.35789731 0.02096634 3.30089
-0.77644783 0.0021924432 3.0269613
-0.63596982 -0.0011738398 1.7836659
-0.75488162 -0.0034249802 1.6246827
-0.94056207 -0.0056869457 1.6086767
-0.92772168 -0.0067236563 1.3032473
-0.91309136 -0.0074004042 1.0681885
-0.90979993 -0.010383564 0.97391111
-0.88654464 -0.0105737 0.79728431
-0.87603688 -0.010897461 0.65901202
-0.86961114 -0.011113716 0.54179835
-0.85375786 -0.011202073 0.43328893
-0.83974856 -0.011304147 0.33679563
-0.84482008 -0.011662117 0.25188279
-0.82140332 -0.011618289 0.1666968
-0.89958858 -0.0090063661 0.88241351
-0.87158668 -0.0091739073 0.71822
-0.87683839 -0.0095273014 0.60090578
-0.86337745 -0.0098260399 0.48660582
-0.86466098 -0.010134752 0.39010164
-0.82639414 -0.0099680414 0.29004702
-0.81690359 -0.0099911988 0.20616017
-0.81401551 -0.010232388 0.12651494
-0.085508943 0.037156459 9.2639208
-0.51894146 0.0076553575 3.2998483
-0.66737401 0.0057485192 3.2321105
-0.66853237 0.0013111441 2.1843991
-0.66920316 -0.0009693121 1.6361156
-0.85057658 -0.0029389481 1.6260587
-0.93771893 -0.0045141173 1.4498771
-0.9217968 -0.0053864187 1.1802837
-0.20307337 0.019641506 3.368798
-0.35782194 0.022215508 3.30089
-0.77643549 0.0049027386 3.0269613
-0.63597006 0.0010461163 1.7836659
-0.75488901 -0.00078993075 1.6246827
-0.9405762 -0.0024037368 1.6086767
-0.9277395 -0.0034852619 1.3032473
-0.91311163 -0.0042130756 1.0681885
-0.90983069 -0.0072077066 0.97391111
-0.88657612 -0.0074790176 0.79728431
-0.87606961 -0.0078394553 0.65901202
-0.86964464 -0.0080781393 0.54179835
-0.85379177 -0.008221834 0.43328893
-0.83978289 -0.0083728079 0.33679563
-0.84485561 -0.008713074 0.25188279
-0.82143885 -0.0087509863 0.1666968
-0.89961457 -0.0058661611 0.88241351
-0.87565535 -0.0061596651 0.72116315
-0.87686628 -0.0064665065 0.60090578
-0.86340654 -0.0068122302 0.48660582
-0.86469108 -0.0071164602 0.39010164
-0.82156348 -0.0070417584 0.28887469
-0.82188541 -0.0071828263 0.20685086
-0.81404626 -0.0073908805 0.12651494
-0.085417233 0.037475206 9.2689209
-0.51813471 0.0094519742 3.2949092
-0.66734987 0.0080780545 3.2321105
-0.66852373 0.0036447493 2.1843991
-0.66920251 0.0013666489 1.6361156
-0.85058165 3.0136014e-05 1.6260587
-0.93772894 -0.0012408401 1.4498771
-0.92180997 -0.0021687148 1.1802837
-0.20329058 0.020381423 3.3737895
-0.35774222 0.023464402 3.30089
-0.7776705 0.0076256976 3.0318005
-0.63596249 0.0032660596 1.7836659
-0.75271022 0.0018394293 1.6201814
-0.94057882 0.00087950128 1.6086767
-0.92774606 -0.0002468256 1.3032473
-0.91312081 -0.0010256956 1.0681885
-0.90985024 -0.0040317611 0.97391111
-0.88659686 -0.0043842443 0.79728431
-0.8760916 -0.0047813542 0.65901202
-0.86523783 -0.0050169495 0.53947955
-0.85381526 -0.0052414946 0.43328893
-0.83501005 -0.0054103895 0.33538559
-0.83996874 -0.0057304879 0.25095019
-0.82146442 -0.0058835759 0.1666968
-0.89589578 -0.0027148062 0.87908798
-0.87567151 -0.0031030199 0.72116315
-0.87257278 -0.0033890798 0.59837258
-0.8588866 -0.0037785347 0.48450777
-0.85998851 -0.0040758285 0.38845813
-0.82158303 -0.0041739242 0.28887469
-0.82190543 -0.0043138675 0.20685086
-0.81406713 -0.0045492835 0.12651494
-0.085285902 0.037773136 9.2689209
-0.51809853 0.011260544 3.2949092
-0.66629952 0.010391142 3.2272153
-0.66850692 0.0059783109 2.1843991
-0.66919369 0.003702593 1.6361156
-0.84818137 0.0029904419 1.6216695
-0.93772763 0.0020324525 1.4498771
-0.92181194 0.0010490158 1.1802837
-0.20321819 0.021090915 3.3737895
-0.35818982 0.024751406 3.3058615
-0.77889603 0.01035734 3.0366402
-0.63594723 0.0054859635 1.7836659
-0.7526992 0.0044668671 1.6201814
-0.94057 0.0041627288 1.6086767
-0.92774129 0.0029916139 1.3032473
-0.91311884 0.002161697 1.0681885
-0.90629256 -0.00085265399 0.97040659
-0.88660675 -0.0012894169 0.79728431
-0.87610298 -0.0017231945 0.65901202
-0.86525005 -0.0019966755 0.53947955
-0.85382837 -0.0022610913 0.43328893
-0.83502388 -0.0024956276 0.33538559
-0.83998364 -0.0027984148 0.25095019
-0.82147992 -0.003016094 0.1666968
-0.89589983 0.00041247014 0.87908798
-0.87567699 -4.6337074e-05 0.72116315
-0.87257928 -0.00034321193 0.59837258
-0.85889459 -0.00078043784 0.48450777
-0.85527533 -0.0010681143 0.38681462
-0.82159263 -0.0013060386 0.28887469
-0.82686758 -0.0014534991 0.20754153
-0.81407803 -0.0017076315 0.12651494
-0.085153535 0.038070612 9.2689209
-0.51727933 0.013048773 3.2899699
-0.66625923 0.012716899 3.2272153
-0.66848201 0.0083117988 2.1843991
-0.66917664 0.0060384925 1.6361156
-0.84816575 0.0059511289 1.6216695
-0.93771482 0.00530572 1.4498771
-0.9218027 0.0042667333 1.1802837
-0.20314334 0.021800151 3.3737895
-0.35810125 0.026001573 3.3058615
-0.78011191 0.013097629 3.0414793
-0.63592422 0.0077057998 1.7836659
-0.75267905 0.0070942505 1.6201814
-0.94054973 0.0074459058 1.6086767
-0.92772514 0.0062300172 1.3032473
-0.91310573 0.0053490633 1.0681885
-0.90628999 0.0023109023 0.97040659
-0.88660586 0.001805426 0.79728431
-0.87610364 0.0013349861 0.65901202
-0.86525172 0.0010236229 0.53947955
-0.85383105 0.0007193397 0.43328893
-0.83023047 0.00041665326 0.33397555
-0.83507603 0.00013283527 0.25001755
-0.82148546 -0.00014857568 0.1666968
-0.89589292 0.0035397417 0.87908798
-0.87162983 0.0029962373 0.71822
-0.87257516 0.0027026604 0.59837258
-0.85889208 0.0022176683 0.48450777
-0.85055166 0.0019066463 0.38517112
-0.82159215 0.0015618628 0.28887469
-0.82686758 0.0014328161 0.20754153
-0.81407905 0.0011340415 0.12651494
-0.085020125 0.038367622 9.2689209
-0.51723063 0.014854335 3.2899699
-0.6672287 0.015065955 3.2321105
-0.66844893 0.010645186 2.1843991
-0.66915148 0.0083743175 1.6361156
-0.84813982 0.0089117438 1.6216695
-0.93769056 0.0085789235 1.4498771
-0.9217822 0.0074843992 1.1802837
-0.20306601 0.022509122 3.3737895
-0.35853967 0.02729352 3.310833
-0.78131813 0.015846534 3.046319
-0.63589346 0.0099255433 1.7836659
-0.75264972 0.0097215474 1.6201814
-0.94051808 0.010728992 1.6086767
-0.92769778 0.009468344 1.3032473
-0.91308147 0.0085363649 1.0681885
-0.9062764 0.0054744305 0.97040659
-0.88659412 0.0049002469 0.79728431
-0.87609369 0.0043931506 0.65901202
-0.8652429 0.0040439088 0.53947955
-0.8538233 0.0036997616 0.43328893
-0.83022392 0.0033146958 0.33397555
-0.83507049 0.0030477936 0.25001755
-0.82148099 0.0027189446 0.1666968
-0.89960879 0.0066949907 0.88241351
-0.87161404 0.0060387747 0.71822
-0.87256044 0.0057484992 0.59837258
-0.85887909 0.0052157477 0.48450777
-0.8458178 0.0048484169 0.38352761
-0.82158172 0.004429745 0.28887469
-0.82685757 0.0043191141 0.20754153
-0.81407017 0.0039757006 0.12651494
-0.084847443 0.038643137 9.2639208
-0.51639909 0.01663409 3.2850308
-0.66717207 0.017394926 3.2321105
-0.66840768 0.012978443 2.1843991
-0.66911823 0.010710042 1.6361156
-0.84810358 0.01187225 1.6216695
-0.93765485 0.011852021 1.4498771
-0.91854537 0.010664493 1.1764462
-0.2029862 0.023217818 3.3737895
-0.3589735 0.028588848 3.3158045
-0.78251469 0.018604018 3.0511582
-0.63585496 0.012145165 1.7836659
-0.75261116 0.012348725 1.6201814
-0.94047487 0.014011947 1.6086767
-0.92765903 0.012706555 1.3032473
-0.91304612 0.011723561 1.0681885
-0.90625179 0.008637893 0.97040659
-0.88657165 0.0079950076 0.79728431
-0.87607294 0.0074512609 0.65901202
-0.86522353 0.0070641455 0.53947955
-0.85380524 0.0066801384 0.43328893
-0.83020735 0.0062126978 0.33397555
-0.83505476 0.005962715 0.25001755
-0.82644629 0.0056203287 0.16714388
-0.89957994 0.0098351706 0.88241351
-0.87158763 0.0090812389 0.71822
-0.8768456 0.0088379057 0.60090578
-0.85885566 0.0082137641 0.48450777
-0.84579569 0.0078008426 0.38352761
-0.82642168 0.0073408382 0.29004702
-0.82683742 0.0072053596 0.20754153
-0.81405127 0.006817312 0.12651494
-0.084712043 0.038939074 9.2639208
-0.51633781 0.018436559 3.2850308
-0.66710728 0.019723685 3.2321105
-0.66835833 0.015311542 2.1843991
-0.67102998 0.013084162 1.6407181
-0.84805691 0.014832612 1.6216695
-0.93760782 0.015124976 1.4498771
-0.91850257 0.013870751 1.1764462
-0.20290391 0.02392623 3.3737895
-0.35887152 0.029841727 3.3158045
-0.78370148 0.021370048 3.0559978
-0.63580865 0.014364638 1.7836659
-0.75256348 0.014975753 1.6201814
-0.94042021 0.017294731 1.6086767
-0.92760909 0.015944613 1.3032473
-0.91299963 0.014910615 1.0681885
-0.90621608 0.011801249 0.97040659
-0.88653833 0.011089672 0.79728431
