# .PCD v0.7 - Point Cloud Data file format
VERSION 0.7
FIELDS x y z
SIZE 4 4 4
TYPE F F F
COUNT 1 1 1
WIDTH 1451
HEIGHT 1
VIEWPOINT 0 0 0 1 0 0 0
POINTS 1451
DATA ascii
-0.89652586 0.61443835 1.6689235
-0.89319777 0.61080509 1.3721589
-0.82353717 0.70612049 18.598349
-1.4962718 1.1857899 17.762995
-1.0367208 0.72777736 4.9143367
-0.95157266 0.66139352 3.205574
-0.91119325 0.62960494 2.3538795
-0.89493406 0.61632395 1.847569
-0.89138323 0.61229867 1.5067385
-0.88731223 0.60838139 1.2445965
-0.89361084 0.60836321 1.1421293
-0.86510903 0.58830673 0.92596096
-0.8526935 0.5792225 0.76044625
-0.85151577 0.57799751 0.62527519
-0.84473616 0.57297391 0.50071812
-0.82622701 0.56000704 0.38332671
-0.81343371 0.55092752 0.27799615
-0.79580051 0.53858858 0.17921501
-0.87862015 0.59995979 1.0287355
-0.85030699 0.57998395 0.83300328
-0.8492614 0.5788458 0.68956703
-0.84877646 0.57787389 0.5621357
-0.83988702 0.5714016 0.44269392
-0.82415968 0.56028992 0.33107814
-0.79038268 0.53713101 0.22549921
-0.80986053 0.54996431 0.13316546
-1.2721039 0.916632 9.9678469
-1.1199156 0.79609233 6.6293979
-0.97657681 0.68431747 3.8593652
-0.93107367 0.64765143 2.7315164
-0.90010005 0.62334728 2.0737445
-0.89669102 0.61916322 1.6730564
-0.89369965 0.61573792 1.3759965
-0.82128549 0.70917982 18.60334
-1.4937891 1.1923367 17.782881
-1.0372523 0.73356968 4.9288549
-0.95067173 0.66570127 3.2102668
-0.91256303 0.6352697 2.3628819
-0.89491981 0.62093091 1.8518349
-0.89171815 0.6171214 1.5107286
-0.88797241 0.61340207 1.2482716
-0.89442259 0.61349612 1.1456339
-0.86305016 0.59132296 0.92596096
-0.8506664 0.58219546 0.76044625
-0.85314941 0.58346713 0.62759399
-0.84655857 0.57853496 0.50259119
-0.82426715 0.56288773 0.38332671
-0.81556314 0.55653238 0.27892879
-0.79803008 0.54416883 0.17966209
-0.87959653 0.60513955 1.032061
-0.85160846 0.58523804 0.83594644
-0.84723562 0.58180672 0.68956703
-0.84675407 0.58083314 0.5621357
-0.83788729 0.57432985 0.44269392
-0.82219893 0.56316334 0.33107814
-0.78850293 0.53988665 0.22549921
-0.80793589 0.5527879 0.13316546
-1.270154 0.92198008 9.977726
-1.1212684 0.80296183 6.6538744
-0.97784007 0.69030541 3.8736811
-0.93360651 0.65426171 2.7453239
-0.89988267 0.62785608 2.0781338
-0.89683419 0.62389672 1.6771894
-0.89417773 0.62068164 1.3798339
-0.81967521 0.7128014 18.623306
-1.0377561 0.73937452 4.9433732
-0.94975203 0.67001057 3.2149594
-0.91212207 0.63970143 2.367383
-0.89488441 0.6255455 1.8561009
-0.88955855 0.62023032 1.5107286
-0.88860822 0.61843461 1.2519468
-0.89520937 0.61864221 1.1491385
-0.8641839 0.59654331 0.92909944
-0.85207134 0.58753514 0.76318777
-0.8511076 0.58644164 0.62759399
-0.84453392 0.58148652 0.50259119
-0.8262493 0.56848067 0.38473675
-0.8136155 0.55937588 0.27892879
-0.79612571 0.54695112 0.17966209
-0.8805474 0.61033332 1.0353866
-0.84956038 0.58820707 0.83594644
-0.84874457 0.5872134 0.69210023
-0.84845501 0.58636576 0.56423378
-0.83587742 0.5772512 0.44269392
-0.82422858 0.56879067 0.33225045
-0.79068977 0.54544777 0.2261899
-0.81011468 0.55844021 0.133367
-1.2681819 0.92732567 9.9876032
-1.1225868 0.80985039 6.6783504
-0.98028964 0.6971758 3.8927693
-0.93450868 0.65977061 2.754529
-0.89964473 0.63237089 2.0825229
-0.89695525 0.62863868 1.6813223
-0.89463228 0.62563616 1.3836714
-0.81631452 0.71489608 18.60334
-1.0392529 0.74592501 4.9627309
-0.95022047 0.67532158 3.2243452
-0.91166139 0.64413786 2.3718843
-0.89482754 0.63016725 1.8603667
-0.88985372 0.62506384 1.5147187
-0.88921982 0.62347913 1.2556219
-0.895971 0.62380105 1.152643
-0.86209631 0.59955621 0.92909944
-0.85001528 0.59050584 0.76318777
-0.85269415 0.59193522 0.62991279
-0.84630811 0.58707345 0.50446421
-0.82425988 0.57136136 0.38473675
-0.81569612 0.56500971 0.27986142
-0.79421169 0.54972684 0.17966209
-0.87841159 0.61340332 1.0353866
-0.85081702 0.59348166 0.8388896
-0.8466897 0.59017247 0.69210023
-0.84640306 0.58932382 0.56423378
-0.83773357 0.5828625 0.44433743
-0.82223809 0.57166433 0.33225045
-0.78878099 0.54820448 0.2261899
-0.80816042 0.56126463 0.133367
-1.2661883 0.93266881 9.9974823
-1.1238708 0.81675792 6.702827
-0.98148984 0.70320219 3.9070849
-0.93697566 0.6664263 2.7683365
-0.90134066 0.63827598 2.091301
-0.89475542 0.63176584 1.6813223
-0.89506304 0.63060147 1.387509
-0.81359792 0.71755004 18.598349
-1.0396984 0.75175834 4.9772491
-0.94926035 0.67963916 3.2290378
-0.91295415 0.64984149 2.3808868
-0.8947494 0.6347962 1.8646327
-0.89012593 0.62990701 1.5187087
-0.88980693 0.62853545 1.2592971
-0.89670765 0.62897289 1.1561475
-0.86318588 0.60479546 0.93223786
-0.85137451 0.5958671 0.76592922
-0.85062271 0.594908 0.62991279
-0.84425366 0.59002399 0.50446421
-0.82619333 0.57698172 0.38614678
-0.81371886 0.56785357 0.27986142
-0.79637271 0.55534434 0.18010917
-0.87931865 0.61861438 1.038712
-0.84874022 0.59644794 0.8388896
-0.84815222 0.59560192 0.69463336
-0.84805632 0.59488118 0.5663318
-0.8356939 0.58578312 0.44433743
-0.82421875 0.57731962 0.33342275
-0.79091913 0.55379492 0.22688057
-0.8102898 0.56694633 0.13356853
-1.2641728 0.9380092 10.00736
-1.1259416 0.82428586 6.7321978
-0.98265988 0.70924532 3.9214008
-0.93781954 0.67196912 2.7775416
-0.90105683 0.64280951 2.09569
-0.89483762 0.63651657 1.6854552
-0.89547008 0.63557732 1.3913465
-0.81065708 0.72000146 18.588366
-1.0401154 0.7576037 4.9917674
-0.94968116 0.68496794 3.2384233
-0.91244912 0.65429306 2.3853879
-0.89464962 0.63943231 1.8688986
-0.8903752 0.63475972 1.5226986
-0.89036953 0.63360333 1.2629722
-0.89741904 0.63415736 1.1596521
-0.8610695 0.60780489 0.93223786
-0.8492893 0.59883529 0.76592922
-0.84854096 0.59787369 0.62991279
-0.84597945 0.59563631 0.50633723
-0.82417423 0.57986218 0.38614678
-0.81575018 0.57351577 0.28079402
-0.79442936 0.55812079 0.18010917
-0.87715393 0.62167996 1.038712
-0.8499518 0.60174263 0.84183276
-0.84958702 0.60104865 0.69716656
-0.84597462 0.59783781 0.5663318
-0.83750129 0.59142071 0.44598094
-0.82219851 0.58019322 0.33342275
-0.7889812 0.55655229 0.22688057
-0.81238919 0.57264972 0.13377006
-1.2615131 0.94288164 10.0123
-1.1271541 0.83123368 6.7566743
-0.98259252 0.71442717 3.9309452
-0.93863612 0.67752594 2.7867467
-0.90269691 0.64874673 2.1044683
-0.89261031 0.63963628 1.6854552
-0.89585316 0.64056373 1.3951839
-0.80792409 0.72263408 18.583374
-1.0394911 0.76271731 5.0014462
-0.9500761 0.69030786 3.2478089
-0.91192418 0.6587491 2.389889
-0.89452851 0.64407545 1.8731647
-0.88815403 0.63786381 1.5226986
-0.89090759 0.6386829 1.2666475
-0.89519995 0.63728613 1.1596521
-0.86211467 0.6130628 0.93537635
-0.85060269 0.60421789 0.76867068
-0.850061 0.60339618 0.63223159
-0.84389508 0.59858572 0.50633723
-0.82605869 0.5855096 0.38755682
-0.81374329 0.57635981 0.28079402
-0.79654115 0.56376749 0.18055625
-0.8749786 0.62473804 1.038712
-0.85113686 0.6070531 0.84477592
-0.84748381 0.60401058 0.69716656
-0.84388262 0.60078722 0.5663318
-0.83543169 0.5943405 0.44598094
-0.8201682 0.58305967 0.33342275
-0.79107022 0.56217158 0.22757125
-0.81038541 0.57548201 0.13377006
-1.2588347 0.94774693 10.01724
-1.1283319 0.83819991 6.7811503
-0.98370498 0.7204994 3.9452608
-0.93942517 0.68309647 2.7959518
-0.90236658 0.65329838 2.1088572
-0.89265358 0.64439541 1.6895882
-0.89361167 0.64368689 1.3951839
-0.80518246 0.72525626 18.578381
-1.0398544 0.76858318 5.0159645
-0.95183796 0.6966784 3.2618873
-0.91137922 0.66320938 2.3943901
-0.89438587 0.64872551 1.8774304
-0.88836324 0.6427266 1.5266887
-0.89142102 0.64377385 1.2703226
-0.89586782 0.64248556 1.1631566
-0.85996938 0.61606842 0.93537635
-0.85188872 0.60961688 0.77141213
-0.84794962 0.60635978 0.63223159
-0.84557235 0.60422319 0.5082103
-0.8240099 0.58838952 0.38755682
-0.81172651 0.57919675 0.28079402
-0.79456842 0.56654453 0.18055625
-0.8758235 0.62996882 1.0420375
-0.84901267 0.6100204 0.84477592
-0.84887189 0.60947955 0.6996997
-0.84546828 0.60637444 0.56842989
-0.83719009 0.60000396 0.44762444
-0.81812799 0.58591902 0.33342275
-0.79312956 0.56781226 0.22826193
-0.81243479 0.58121407 0.13397159
-1.2555188 0.95213526 10.01724
-1.1294746 0.84518456 6.8056264
-0.98358607 0.72570169 3.9548051
-0.94018686 0.68868089 2.8051567
-0.90201557 0.65785575 2.1132464
-0.89267451 0.64916265 1.6937212
-0.8939535 0.64868498 1.3990214
-0.80243254 0.72786826 18.573391
-1.0401895 0.77446079 5.0304828
-0.95356655 0.70306945 3.2759655
-0.91081423 0.66767395 2.3988914
-0.89422166 0.65338242 1.8816965
-0.88854927 0.64759862 1.5306787
-0.89190972 0.64887619 1.2739978
-0.89361966 0.64560884 1.1631566
-0.86096978 0.62134439 0.93851483
-0.85314745 0.6150322 0.77415359
-0.84942204 0.61190534 0.63455039
-0.84722048 0.60987967 0.51008332
-0.82584518 0.59406358 0.38896683
-0.81368846 0.58489394 0.28172666
-0.79663062 0.57221997 0.18100333
-0.87361914 0.63302219 1.0420375
-0.85015231 0.61535043 0.84771907
-0.84673923 0.61243892 0.6996997
-0.84334648 0.60932201 0.56842989
-0.83891922 0.60568702 0.44926795
-0.81607777 0.58877128 0.33342275
-0.7911427 0.57057732 0.22826193
-0.81040108 0.58404648 0.13397159
-1.2521876 0.95651209 10.01724
-1.1305823 0.85218728 6.8301024
-0.98464066 0.73180246 3.969121
-0.94092095 0.6942789 2.8143618
-0.90164369 0.6624186 2.1176355
-0.89267302 0.65393794 1.697854
-0.89168376 0.65180147 1.3990214
-0.79967391 0.7304697 18.568398
-1.0404961 0.78035009 5.045001
-0.95526236 0.70948124 3.2900438
-0.91022921 0.67214257 2.4033928
-0.89403564 0.65804601 1.8859622
-0.88871211 0.65247983 1.5346687
-0.89237362 0.65398979 1.277673
-0.89424402 0.65082294 1.1666611
-0.85879564 0.62434596 0.93851483
-0.85099542 0.61800653 0.77415359
-0.84728092 0.61486667 0.63455039
-0.8450864 0.61283332 0.51008332
-0.82765079 0.59975761 0.39037687
-0.81164181 0.58773059 0.28172666
-0.79462832 0.57499719 0.18100333
-0.87441981 0.63826936 1.0453631
-0.84799922 0.61831421 0.84771907
-0.84808016 0.61792952 0.7022329
-0.84488386 0.61493301 0.57052791
-0.83679986 0.60861164 0.44926795
-0.81401759 0.59161633 0.33342275
-0.79315251 0.5762462 0.2289526
-0.81240022 0.58980685 0.13417313
-1.2488412 0.96087724 10.01724
-1.1324656 0.85982388 6.8594737
-0.98566437 0.73791933 3.9834368
-0.94005966 0.69872475 2.8189645
-0.90125084 0.66698676 2.1220245
-0.89264899 0.65872097 1.701987
-0.89198393 0.65681076 1.402859
-0.79733151 0.7334525 18.573391
-1.0407741 0.78625089 5.0595198
-0.95692474 0.71591324 3.304122
-0.90962398 0.6766153 2.4078939
-0.89382803 0.66271627 1.8902283
-0.88642913 0.65557796 1.5346687
-0.89008534 0.6571008 1.277673
-0.8919667 0.6539405 1.1666611
-0.85975116 0.62963986 0.94165331
-0.8522076 0.62344223 0.77689505
-0.84870559 0.62043494 0.63686919
-0.84668547 0.61851418 0.51195633
-0.82555217 0.60264295 0.39037687
-0.81355387 0.5934552 0.28265926
-0.79664069 0.58070093 0.18145041
-0.87218648 0.64131773 1.0453631
-0.84909326 0.62366349 0.85066223
-0.845918 0.62088609 0.7022329
-0.84273219 0.6178785 0.57052791
-0.8384794 0.6143198 0.45091146
-0.81194752 0.59445411 0.33342275
-0.79113621 0.57901132 0.2289526
-0.81033641 0.59263903 0.13417313
-1.2454795 0.96523064 10.01724
-1.1335007 0.86686528 6.8839502
-0.98665756 0.74405235 3.9977524
-0.94074237 0.70434415 2.8281696
-0.90083718 0.67156035 2.1264138
-0.8926025 0.66351187 1.70612
-0.88968581 0.65992033 1.402859
-0.79497778 0.73642772 18.578381
-1.0420239 0.79292458 5.0788774
-0.95717591 0.72132671 3.3135076
-0.90899867 0.6810919 2.4123952
-0.89359868 0.66739303 1.8944942
-0.88655162 0.66046858 1.5386587
-0.89050639 0.66222692 1.2813481
-0.89254725 0.65916878 1.1701657
-0.85754806 0.63263714 0.94165331
-0.85339218 0.62889391 0.77963656
-0.84653467 0.62339365 0.63686919
-0.84452128 0.62146598 0.51195633
-0.82730812 0.60836297 0.3917869
-0.81147736 0.59629142 0.28265926
-0.79862279 0.58642572 0.18189749
-0.87294286 0.64658082 1.0486885
-0.85016024 0.62902778 0.85360539
-0.84721178 0.62639815 0.70476609
-0.84422088 0.62351274 0.57262594
-0.83632994 0.61724293 0.45091146
-0.81377929 0.60016978 0.33459508
-0.79309613 0.58470803 0.22964329
-0.81228507 0.59842736 0.13437465
-1.2427149 0.97005057 10.022179
-1.1353068 0.87454581 6.913321
-0.98761988 0.75020128 4.0120687
-0.93983763 0.7088002 2.8327718
-0.90231758 0.67757744 2.1351919
-0.89253336 0.66831046 1.7102529
-0.88994437 0.6649406 1.4066964
-0.79240233 0.73919821 18.578381
-1.0422423 0.79885161 5.0933952
-0.95877534 0.72779423 3.3275859
-0.90835303 0.68557233 2.4168963
-0.89334762 0.6720764 1.8987602
-0.88665068 0.66536802 1.5426488
-0.89090264 0.667364 1.2850233
-0.89024091 0.66228038 1.1701657
-0.85845852 0.63794839 0.94479173
-0.85119176 0.63186896 0.77963656
-0.84791106 0.62898403 0.63918799
-0.84607106 0.62717092 0.51382935
-0.82517952 0.61124712 0.3917869
-0.81333923 0.60204297 0.2835919
-0.80057466 0.59217131 0.18234457
-0.87068051 0.64962405 1.0486885
-0.84795934 0.63199157 0.85360539
-0.84502006 0.62935162 0.70476609
-0.84568053 0.62916499 0.57472402
-0.83795989 0.62297601 0.452555
-0.8116793 0.60300678 0.33459508
-0.79105031 0.58747286 0.22964329
-0.81019127 0.60125911 0.13437465
-1.2399318 0.97486287 10.027118
-1.1370732 0.88224959 6.9426928
-0.9885512 0.7563659 4.0263848
-0.94046879 0.71444052 2.8419769
-0.90185672 0.68216795 2.1395807
-0.89244163 0.67311662 1.7143859
-0.89017868 0.66997057 1.4105339
-0.79002738 0.74215776 18.583374
-1.0444214 0.80632651 5.1175928
-0.95897043 0.73323333 3.3369715
-0.90942007 0.6913743 2.4258988
-0.89307463 0.67676598 1.903026
-0.8843227 0.66845894 1.5426488
-0.89127374 0.67251194 1.2886984
-0.88792366 0.66538388 1.1701657
-0.85622644 0.64094114 0.94479173
-0.85232967 0.63734055 0.78237802
-0.84571034 0.63194001 0.63918799
-0.84387666 0.6301204 0.51382935
-0.82688552 0.61699271 0.39319694
-0.81123275 0.60487843 0.2835919
-0.79850268 0.59496224 0.18234457
-0.87139225 0.6549027 1.052014
-0.84898043 0.63737458 0.85654855
-0.84626621 0.63488454 0.70729923
-0.84347916 0.63211316 0.57472402
-0.8357802 0.62589723 0.452555
-0.81346107 0.60874873 0.33576739
-0.79296011 0.59319699 0.23033397
-0.81208897 0.60707486 0.13457619
-1.2371304 0.97966754 10.032057
-1.1387994 0.88997626 6.972064
-0.98826945 0.76163477 4.0359287
-0.94107199 0.72009385 2.851182
-0.90327984 0.6882152 2.1483591
-0.89232701 0.67793024 1.7185189
-0.88783461 0.67307383 1.4105339
-0.7878508 0.74530828 18.593355
-1.0455691 0.8130545 5.1369505
-0.95913923 0.73868257 3.3463571
-0.90872949 0.69586831 2.4304001
-0.89277977 0.68146187 1.907292
-0.88438129 0.67336732 1.5466388
-0.88892084 0.67561895 1.2886984
-0.88844192 0.67062789 1.1736702
-0.85709161 0.64626956 0.94793022
-0.85343951 0.64282775 0.78511947
-0.84703851 0.63755226 0.64150673
-0.84537685 0.635849 0.51570243
-0.82472682 0.61987531 0.39319694
-0.81304407 0.6106565 0.2845245
-0.80040395 0.60073531 0.18279165
-0.8720777 0.66019428 1.0553395
-0.84675044 0.64033419 0.85654855
-0.84404486 0.63783467 0.70729923
-0.84488976 0.63778806 0.57682204
-0.83736014 0.63165474 0.45419851
-0.81133115 0.61158454 0.33576739
-0.79088461 0.59596133 0.23033397
-0.81395596 0.61291111 0.13477771
-1.2337031 0.98398 10.032057
-1.1404855 0.89772564 7.0014353
-0.9891417 0.76782638 4.0502448
-0.94164717 0.7257601 2.8603871
-0.90277183 0.6928224 2.1527481
-0.89442444 0.68446159 1.7267847
-0.88802707 0.67811435 1.4143715
-0.78524435 0.74805385 18.593355
-1.0476716 0.82057542 5.1611471
-0.95928156 0.74414188 3.3557425
-0.90974212 0.70169562 2.4394026
-0.89246303 0.6861639 1.9115579
-0.88441628 0.67828423 1.5506288
-0.88924873 0.68077868 1.2923737
-0.88609552 0.67372513 1.1736702
-0.8548305 0.64925742 0.94793022
-0.85119051 0.64580286 0.78511947
-0.84833777 0.6431815 0.64382553
-0.84315217 0.63879603 0.51570243
-0.82638252 0.625646 0.39460698
-0.81090748 0.61349082 0.2845245
-0.80227464 0.60652888 0.18323873
-0.87273693 0.66549861 1.058665
-0.84451008 0.64328599 0.85654855
-0.84524333 0.64338815 0.70983243
-0.84265828 0.64073342 0.57682204
-0.83890998 0.63743079 0.45584202
-0.81306255 0.61735225 0.33693972
-0.79274392 0.60171241 0.23102465
-0.81181151 0.61574858 0.13477771
-1.2308666 0.98876721 10.036996
-1.1429292 0.90613037 7.0357018
-0.98880702 0.77311361 4.0597882
-0.94219404 0.73143899 2.869592
-0.90413737 0.69889927 2.1615264
-0.89425844 0.68929774 1.7309177
-0.88565457 0.68121004 1.4143715
-0.78283644 0.75099051 18.598349
-1.0497344 0.82812095 5.1853442
-0.95939761 0.74961126 3.365128
-0.91072518 0.70753849 2.448405
-0.8921243 0.69087207 1.9158239
-0.88442767 0.68320954 1.5546188
-0.88955152 0.68594897 1.2960488
-0.88656962 0.67898262 1.1771748
-0.85565037 0.65460259 0.95106864
-0.8522532 0.65130919 0.78786093
-0.84608746 0.64613891 0.64382553
-0.84460253 0.64454782 0.51757544
-0.82419354 0.62852675 0.39460698
-0.81266814 0.61929512 0.28545713
-0.8001526 0.60932565 0.18323873
-0.87040859 0.66854095 1.058665
-0.8454662 0.64869058 0.85949171
-0.84641331 0.64895779 0.71236569
-0.84401971 0.64643073 0.57892013
-0.83667982 0.64035523 0.45584202
-0.81476349 0.62313956 0.33811203
-0.79063874 0.60447592 0.23102465
-0.81362712 0.62161165 0.13497925
-1.2274076 0.99305773 10.036996
-1.1445324 0.91392756 7.0650735
-0.98844749 0.77840793 4.0693326
-0.94271284 0.73713052 2.8787971
-0.90358186 0.70352262 2.1659153
-0.89406949 0.69414097 1.7350507
-0.88580495 0.68626046 1.418209
-0.7802102 0.75371855 18.598349
-1.0507733 0.83490872 5.2047019
-0.95948702 0.75509036 3.3745136
-0.91167843 0.71339673 2.4574075
-0.89176351 0.6955862 1.9200897
-0.88441551 0.68814319 1.5586089
-0.88982904 0.69112962 1.299724
-0.88701767 0.68425149 1.1806793
-0.85336012 0.65758538 0.95106864
-0.84997451 0.65428019 0.78786093
-0.84733796 0.65178931 0.64614433
-0.84602284 0.65031737 0.51944846
-0.82579887 0.63432217 0.39601701
-0.81439805 0.62511921 0.28638974
-0.80197215 0.61514592 0.18368581
-0.87102264 0.67385995 1.0619905
-0.84319669 0.65163785 0.85949171
-0.84755462 0.6545434 0.71489882
-0.84535152 0.65214521 0.58101815
-0.83817935 0.64615512 0.45748553
-0.81258339 0.62597978 0.33811203
-0.78852391 0.60723209 0.23102465
-0.81145233 0.624448 0.13497925
-1.2233315 0.99684519 10.032057
-1.1468884 0.92238516 7.09934
-0.98923236 0.78463691 4.0836482
-0.94320339 0.74283469 2.8880022
-0.90300512 0.70815057 2.1703045
-0.89385766 0.69899124 1.7391837
-0.88340408 0.6893484 1.418209
-0.77757448 0.75643742 18.598349
-1.0517775 0.84171379 5.2240596
-0.96090198 0.7616514 3.388592
-0.91260183 0.71927017 2.4664097
-0.89343137 0.70191753 1.9286216
-0.88437957 0.69308507 1.5625988
-0.88741112 0.69423157 1.299724
-0.88462377 0.6873436 1.1806793
-0.8541342 0.66294688 0.95420712
-0.85099 0.65980548 0.79060239
-0.84505761 0.65474308 0.64614433
-0.84374768 0.65326661 0.51944846
-0.82357961 0.63720089 0.39601701
-0.81221104 0.62795818 0.28638974
-0.79981995 0.61794156 0.18368581
-0.86866516 0.67689633 1.0619905
-0.84410644 0.65706015 0.86243486
-0.84526473 0.65749794 0.71489882
-0.84306997 0.65509212 0.58101815
-0.83964843 0.65197313 0.45912904
-0.81423342 0.63179219 0.33928433
-0.78639948 0.60998082 0.23102465
-0.81321633 0.6303373 0.13518077
-1.2198443 1.0011094 10.032057
-1.1491991 0.93087035 7.1336069
-0.98998559 0.79088074 4.0979643
-0.94366556 0.74855119 2.8972073
-0.90240693 0.71278292 2.1746933
-0.8936227 0.70384848 1.7433165
-0.88351232 0.69440866 1.4220465
-0.77472335 0.75894469 18.593355
-1.0517685 0.84774697 5.2385783
-0.9622829 0.76823151 3.4026701
-0.91179031 0.72380501 2.4709108
-0.89302081 0.7066505 1.9328877
-0.88195491 0.69616789 1.5625988
-0.88764501 0.69942325 1.3033991
-0.88502747 0.6926254 1.1841838
-0.85181487 0.66592437 0.95420712
-0.85197705 0.66534567 0.79334384
-0.84625918 0.66041434 0.64846313
-0.84511787 0.65905881 0.52132148
-0.8251341 0.64302063 0.39742702
-0.8138898 0.63380766 0.28732237
-0.80158824 0.62378812 0.18413289
-0.86629707 0.67992437 1.0619905
-0.84498852 0.66249669 0.86537802
-0.8463577 0.66310316 0.71743202
-0.84435213 0.66082829 0.58311623
-0.83736748 0.65490007 0.45912904
-0.81202316 0.63463056 0.33928433
-0.78816783 0.615771 0.23171534
-0.81101102 0.63317215 0.13518077
-1.2163424 1.0053612 10.032057
-1.1514647 0.93938285 7.1678734
-0.99187022 0.79807544 4.1170521
-0.94409925 0.75427991 2.9064121
-0.90178746 0.71741986 2.1790826
-0.89336485 0.70871264 1.7474495
-0.88359606 0.69947815 1.425884
-0.77206939 0.76164436 18.593355
-1.0517302 0.85379046 5.2530966
-0.96362942 0.77483046 3.4167485
-0.91265851 0.72970259 2.4799132
-0.89462751 0.71301478 1.9414195
-0.88187802 0.70111763 1.5665889
-0.88519818 0.70251745 1.3033991
-0.885405 0.69791836 1.1876884
-0.85254312 0.67130178 0.9573456
-0.84964937 0.66831559 0.79334384
-0.84394872 0.66336429 0.64846313
-0.84281218 0.66200489 0.52132148
-0.82665789 0.64885879 0.39883706
-0.81167245 0.63664478 0.28732237
-0.79940587 0.62658238 0.18413289
-0.86684734 0.68525982 1.065316
-0.84584284 0.66794735 0.86832118
-0.84742177 0.668724 0.71996522
-0.84560436 0.66658133 0.58521426
-0.83878571 0.66074115 0.46077254
-0.80980295 0.63746119 0.33928433
-0.78990519 0.62158084 0.23240602
-0.80879593 0.6359992 0.13518077
-1.2128257 1.009601 10.032057
-1.1536846 0.94792241 7.2021399
-0.99255711 0.80435288 4.1313686
-0.94450444 0.76002079 2.9156172
-0.90301538 0.72355884 2.1878607
-0.89308375 0.71358341 1.7515824
-0.88365495 0.70455652 1.4297215
-0.76940602 0.76433474 18.593355
-1.0516623 0.85984379 5.2676144
-0.96494168 0.78144813 3.4308267
-0.91349655 0.73561507 2.4889157
-0.89416671 0.71776605 1.9456853
-0.88177717 0.70607531 1.5705789
-0.88538855 0.70772004 1.3070743
-0.88296342 0.70100468 1.1876884
-0.85324425 0.67669231 0.96048403
-0.85058874 0.67387402 0.7960853
-0.84510112 0.669056 0.65078193
-0.84413183 0.66781914 0.52319455
-0.82815099 0.65471554 0.4002471
-0.81329972 0.64251935 0.28825498
-0.80112255 0.63245475 0.18457997
-0.8644501 0.68828154 1.065316
-0.84666944 0.67341202 0.87126434
-0.84508234 0.67167801 0.71996522
-0.84327233 0.6695289 0.58521426
-0.83647424 0.66366506 0.46077254
-0.80757278 0.64028406 0.33928433
-0.79161149 0.62741029 0.23309669
-0.81048733 0.64192045 0.13538231
-1.2098894 1.0143276 10.036996
-1.1566433 0.95713818 7.2413015
-0.99321216 0.81064475 4.1456842
-0.94488096 0.76577359 2.9248226
-0.90234774 0.72821081 2.1922498
-0.89277965 0.71846098 1.7557154
-0.88368934 0.70964396 1.4335591
-0.76652956 0.76681125 18.588366
-1.0505949 0.86510795 5.2772937
-0.96621937 0.78808439 3.444905
-0.91430444 0.74154222 2.4979181
-0.89571178 0.72416264 1.9542174
-0.88165253 0.71104079 1.574569
-0.88291281 0.71080631 1.3070743
-0.88329625 0.70630991 1.191193
-0.85087693 0.67966664 0.96048403
-0.85149962 0.67944723 0.79882681
-0.8427605 0.67200184 0.65078193
-0.84179562 0.67076164 0.52319455
-0.82961327 0.66059059 0.40165716
-0.81489575 0.64841306 0.28918761
-0.79891002 0.63524741 0.18457997
-0.86495495 0.69363081 1.0686415
-0.84746814 0.67889059 0.8742075
-0.84609783 0.67731792 0.72249836
-0.84447467 0.67530304 0.58731234
-0.83784145 0.66952884 0.46241605
-0.80913097 0.64613217 0.34045666
-0.79328674 0.63325924 0.23378737
-0.80824167 0.64474565 0.13538231
-1.2063414 1.0185448 10.036996
-1.1595516 0.96638608 7.2804632
-0.99383527 0.81695092 4.1599998
-0.94371545 0.77030277 2.929425
-0.90351707 0.73437774 2.2010279
-0.89245224 0.72334504 1.7598482
-0.88369876 0.71474004 1.4373965
-0.76384819 0.76948231 18.588366
-1.0533731 0.8735854 5.3063297
-0.96746242 0.79473901 3.4589834
-0.91508204 0.74748397 2.5069206
-0.89520073 0.72893173 1.9584832
-0.88150406 0.71601403 1.578559
-0.88305938 0.71601927 1.3107494
-0.88360274 0.71162599 1.1946975
-0.8515318 0.6850726 0.96362251
-0.85238194 0.68503487 0.80156827
-0.84386343 0.67771345 0.65310073
-0.84306455 0.67659777 0.52506757
-0.82730228 0.66348243 0.40165716
-0.82029366 0.65739763 0.29105285
-0.80057472 0.64114523 0.18502705
-0.86543298 0.69899207 1.071967
-0.84509319 0.68184471 0.8742075
-0.84372842 0.68026721 0.72249836
-0.8456468 0.68109363 0.58941036
-0.83917785 0.67541027 0.46405956
-0.80687058 0.6489526 0.34045666
-0.79493076 0.63912743 0.23447806
-0.80598617 0.64756304 0.13538231
-1.2033705 1.023253 10.041936
-1.1624093 0.97566587 7.3196249
-0.9955762 0.82422352 4.1790881
-0.94403887 0.77607387 2.9386299
-0.90465426 0.74056166 2.209806
-0.8899219 0.72645593 1.7598482
-0.88368344 0.71984488 1.441234
-0.76115751 0.77214396 18.588366
-1.0551401 0.88128668 5.3305273
-0.96867073 0.80141193 3.4730618
-0.9158293 0.75344014 2.5159233
-0.89466739 0.73370618 1.9627492
-0.88133144 0.72099477 1.5825491
-0.88055468 0.71909732 1.3107494
-0.88388288 0.71695268 1.198202
-0.85215932 0.69049138 0.96676093
-0.85323554 0.69063693 0.80430973
-0.84149259 0.680655 0.65310073
-0.84430295 0.68245083 0.52694058
-0.828713 0.66938061 0.4030672
-0.82181633 0.66334236 0.29198545
-0.79833186 0.64393586 0.18502705
-0.86588418 0.70436513 1.0752926
-0.84584481 0.68733966 0.87715065
-0.84469497 0.68592578 0.72503155
-0.84678882 0.68690062 0.59150839
-0.83681512 0.67833537 0.46405956
-0.80837733 0.65482467 0.34162897
-0.79654348 0.64501482 0.23516873
-0.80372083 0.65037245 0.13538231
-1.1997913 1.0274473 10.041936
-1.1644388 0.98431987 7.3538918
-0.99727839 0.83151805 4.1981759
-0.94282883 0.78061062 2.9432325
-0.90575922 0.74676245 2.2185843
-0.88955426 0.73134518 1.7639813
-0.88364315 0.72495824 1.4450716
-0.7584576 0.77479619 18.588366
-1.0568663 0.88901103 5.3547244
-0.96984428 0.80810285 3.4871402
-0.91654605 0.75941062 2.5249257
-0.89612216 0.7401467 1.9712811
-0.88113475 0.72598308 1.5865391
-0.88065726 0.72432029 1.3144246
-0.88413656 0.72229004 1.2017065
-0.85577476 0.69838399 0.97303784
-0.85406041 0.69625336 0.80705118
-0.84254581 0.68638605 0.65541953
-0.84191561 0.68539381 0.52694058
-0.83009255 0.6752966 0.40447721
-0.82330734 0.66930562 0.29291809
-0.79994446 0.64985871 0.18547413
-0.86630839 0.7097497 1.078618
-0.84656817 0.69284815 0.88009381
-0.84563237 0.69159937 0.72756475
-0.84790057 0.69272381 0.59360647
-0.83810002 0.68423873 0.46570307
-0.80985278 0.66071522 0.3428013
-0.79812461 0.65092117 0.23585941
-0.80531842 0.65633023 0.13558383
-1.1967858 1.0321368 10.046875
-1.1664221 0.99299997 7.3881583
-0.9989416 0.8388344 4.2172637
-0.94159853 0.78514826 2.947835
-0.90683186 0.75297987 2.2273624
-0.8891632 0.73624068 1.7681142
-0.883578 0.73008019 1.448909
-0.75574845 0.777439 18.588366
-1.0585513 0.8967582 5.3789215
-0.97098279 0.81481171 3.5012183
-0.91723222 0.76539522 2.5339279
-0.89553791 0.74493819 1.975547
-0.88323271 0.73290312 1.5945191
-0.87812358 0.72738993 1.3144246
-0.88436359 0.72763777 1.2052112
-0.85633862 0.70383853 0.97617632
-0.85162485 0.69923031 0.80705118
-0.84356928 0.69213283 0.65773833
-0.84310293 0.69126791 0.5288136
-0.83144087 0.68123031 0.40588725
-0.8247667 0.67528743 0.29385069
-0.80152541 0.65580058 0.18592121
-0.86670542 0.71514583 1.0819435
-0.84726346 0.69837004 0.88303697
-0.84654045 0.6972878 0.73009789
-0.84898186 0.6985631 0.5957045
-0.83935392 0.69015932 0.46734658
-0.811297 0.66662395 0.34397361
-0.79967427 0.65684646 0.23655009
-0.80302244 0.65913737 0.13558383
-1.1931757 1.0363081 10.046875
-1.1683588 1.0017056 7.4224248
-1.0017055 0.84713668 4.2411237
-0.94034809 0.78968686 2.9524376
-0.90787232 0.75921398 2.2361407
-0.88874888 0.74114239 1.7722472
-0.88348776 0.73521036 1.4527465
-0.75323027 0.78028035 18.593355
-1.0601951 0.9045276 5.4031181
-0.97076839 0.82042426 3.5106039
-0.91788769 0.77139384 2.5429304
-0.8949312 0.7497347 1.979813
-0.88298094 0.73791414 1.5985092
-0.87818229 0.73262268 1.3180997
-0.88456416 0.73299599 1.2087157
-0.8568747 0.70930552 0.97931474
-0.8524012 0.70486349 0.80979264
-0.84456295 0.69789523 0.66005719
-0.8442595 0.69715863 0.53068668
-0.82905781 0.6841284 0.40588725
-0.82619435 0.68128753 0.29478332
-0.80691785 0.66492844 0.18681537
-0.86707526 0.72055334 1.0852691
-0.84793049 0.70390528 0.88598019
-0.8474189 0.70299095 0.73263109
-0.85003263 0.70441836 0.59780258
-0.84057659 0.69609696 0.46899009
-0.81270975 0.6725508 0.34514591
-0.80119222 0.66279036 0.23724076
-0.80456722 0.66511953 0.13578537
-1.1901357 1.0409784 10.051814
-1.1710194 1.0111026 7.4615865
-1.0032873 0.85450035 4.2602119
-0.93907732 0.79422623 2.9570401
-0.90888 0.76546443 2.2449188
-0.89046592 0.74786007 1.780513
-0.88337237 0.74034882 1.4565841
-0.75050205 0.78290486 18.593355
-1.0608443 0.91150033 5.4224763
-0.97052664 0.82604527 3.5199893
-0.9185124 0.77740616 2.5519328
-0.89430177 0.75453597 1.9840788
-0.88270503 0.74293238 1.6024991
-0.87821513 0.73786455 1.321775
-0.88473803 0.73836446 1.2122202
-0.85738307 0.71478474 0.98245323
-0.84993559 0.70783472 0.80979264
-0.84552652 0.70367283 0.66237599
-0.84182078 0.70010138 0.53068668
-0.83035398 0.6900844 0.40729728
-0.82381123 0.68416733 0.29478332
-0.808424 0.67092139 0.18726245
-0.86741799 0.72597218 1.0885946
-0.8485691 0.70945346 0.88892335
-0.8449598 0.70594466 0.73263109
-0.84756857 0.70738119 0.59780258
-0.83814168 0.69902682 0.46899009
-0.81035715 0.67538357 0.34514591
-0.79887378 0.66558307 0.23724076
-0.80224055 0.66792393 0.13578537
-1.1870779 1.0456401 10.056753
-1.1728605 1.0198621 7.4958534
-1.0048299 0.86188531 4.2792997
-0.93778634 0.79876643 2.9616427
-0.90985507 0.77173108 2.2536969
-0.88999826 0.75278127 1.7846459
-0.88323194 0.74549544 1.4604216
-0.74776459 0.78551978 18.593355
-1.0624077 0.91931105 5.4466734
-0.97156745 0.83279777 3.5340676
-0.9191063 0.78343242 2.5609353
-0.89364994 0.75934207 1.9883448
-0.8824048 0.74795759 1.6064892
-0.87563413 0.74092561 1.321775
-0.88488519 0.743743 1.2157247
-0.85488284 0.71777326 0.98245323
-0.85066319 0.71348435 0.81253409
-0.84306514 0.70661998 0.66237599
-0.84292579 0.70601249 0.53255969
-0.83161867 0.69605774 0.40870732
-0.82518601 0.69019043 0.29571593
-0.80989808 0.67693293 0.18770951
-0.86487854 0.72899556 1.0885946
-0.84917927 0.71501476 0.89186651
-0.8457889 0.71166545 0.73516428
-0.84856838 0.71325582 0.5999006
-0.83931237 0.7049855 0.47063357
-0.81171763 0.68133312 0.34631824
-0.8003391 0.67155063 0.23793145
-0.80373251 0.67393023 0.13598689
-1.1840018 1.0502933 10.061693
-1.1754203 1.0293174 7.5350151
-1.0052037 0.86831552 4.2936158
-0.93795782 0.80457938 2.9708476
-0.91079748 0.77801383 2.2624753
-0.88950717 0.75770831 1.788779
-0.88306624 0.75064999 1.464259
-0.74501806 0.78812522 18.593355
-2.5723367 2.5201039 33.542549
-1.0639298 0.92714375 5.4708705
-0.97126675 0.83843976 3.5434532
-0.91801775 0.78805411 2.5654364
-0.89495659 0.76584858 1.9968767
-0.88208026 0.75298977 1.6104792
-0.87562263 0.7461766 1.3254501
-0.88228363 0.74682724 1.2157247
-0.85534412 0.7232663 0.98559165
-0.84816748 0.71644938 0.81253409
-0.84397835 0.71241599 0.66469479
-0.84045619 0.70895052 0.53255969
-0.83285153 0.70204812 0.41011736
-0.82277173 0.69306672 0.29571593
-0.81134009 0.68296295 0.18815659
-0.86517507 0.73442662 1.09192
-0.84667826 0.7179746 0.89186651
-0.84658819 0.71740043 0.73769742
-0.84953743 0.71914595 0.60199869
-0.83684635 0.70791101 0.47063357
-0.8093344 0.68416238 0.34631824
-0.80177242 0.67753667 0.23862213
-0.80137509 0.67673165 0.13598689
-1.1814868 1.0554553 10.07157
-1.1786921 1.0394768 7.5790725
-1.0055448 0.87475866 4.3079319
-0.93810016 0.81040329 2.9800527
-0.90989166 0.78275043 2.2668641
-0.89112824 0.76447356 1.7970449
-0.88287544 0.75581259 1.4680965
-0.74226248 0.790721 18.593355
-2.5692146 2.5346849 33.617123
-1.0663546 0.93582755 5.499907
-0.97224057 0.84522206 3.5575314
-0.91690797 0.79267758 2.5699377
-0.89425325 0.77067053 2.0011425
-0.88401604 0.75999331 1.6184592
-0.87558514 0.75143665 1.3291253
-0.88238531 0.75221628 1.2192293
-0.85281426 0.72624767 0.98559165
-0.84884626 0.72211522 0.81527555
-0.84486139 0.71822697 0.66701359
-0.84150934 0.71488142 0.53443271
-0.83405286 0.70805568 0.4115274
-0.82034749 0.69593447 0.29571593
-0.80895114 0.6857909 0.18815659
-0.86544406 0.73986852 1.0952456
-0.84724051 0.72355074 0.89480966
-0.84407884 0.72035116 0.73769742
-0.847022 0.72210705 0.60199869
-0.83796465 0.71389019 0.47227708
-0.80694127 0.68698335 0.34631824
-0.80317372 0.68354076 0.23931281
-0.80281371 0.68276149 0.13618843
-1.178373 1.0600928 10.07651
-1.1811458 1.048995 7.6182342
-1.0047303 0.88023096 4.3174753
-0.93821317 0.81623787 2.9892578
-0.91077369 0.78905863 2.2756422
-0.89058357 0.76941937 1.8011779
-0.8826592 0.76098281 1.4719341
-0.73930126 0.79309565 18.588366
-2.5546806 2.5380006 33.542549
-1.06779 0.94370693 5.5241041
-0.97317904 0.8520214 3.5716097
-0.91741878 0.79873264 2.5789402
-0.89352721 0.77549714 2.0054085
-0.88363564 0.76504701 1.6224493
-0.87295681 0.75448841 1.3291253
-0.88245982 0.75761491 1.2227339
-0.85322845 0.73175412 0.98873013
-0.84632045 0.72507387 0.81527555
-0.84571409 0.72405267 0.66933239
-0.84253138 0.72082835 0.53630573
-0.8352223 0.7140801 0.4129374
-0.81791323 0.69879383 0.29571593
-0.81033975 0.69184405 0.18860367
-0.86568552 0.74532127 1.0985711
-0.84777403 0.72913963 0.89775282
-0.84482843 0.72610313 0.74023062
-0.84793961 0.7280159 0.60409671
-0.83905137 0.71988583 0.47392058
-0.80822825 0.69295967 0.34749055
-0.80454272 0.68956286 0.24000348
-0.80042553 0.68555963 0.13618843
-1.1746655 1.0641997 10.07651
-1.1835475 1.0585431 7.6573958
-1.00389 0.88570827 4.3270197
-0.93829668 0.822083 2.9984629
-0.90981841 0.79380774 2.2800314
-0.89213794 0.77621788 1.8094438
-0.88241762 0.76616091 1.4757715
-0.73652834 0.79567146 18.588366
-2.5420384 2.5431314 33.492832
-1.0691833 0.9516077 5.5483012
-0.97278756 0.85769612 3.5809953
-0.91626179 0.80336553 2.5834413
-0.89474177 0.78204441 2.0139403
-0.88550168 0.77208757 1.6304293
-0.87287492 0.75975698 1.3328004
-0.8825075 0.76302326 1.2262385
-0.85361451 0.73727232 0.99186856
-0.84695011 0.73075533 0.81801701
-0.84653634 0.72989315 0.67165118
-0.84352207 0.72679108 0.5381788
-0.83635974 0.72012126 0.41434744
-0.81546903 0.70164454 0.29571593
-0.80791986 0.69466853 0.18860367
-0.86589956 0.75078464 1.1018965
-0.84522372 0.73209441 0.89775282
-0.84554797 0.7318691 0.74276382
-0.84539318 0.73097128 0.60409671
-0.84010649 0.72589773 0.47556409
-0.80948335 0.69895339 0.34866288
-0.80587947 0.69560283 0.24069417
-0.79802758 0.68834949 0.13618843
-1.1715174 1.0688174 10.08145
-1.1866533 1.0688022 7.7014532
-1.0030236 0.89119035 4.3365636
-0.93835092 0.8279388 3.0076678
-0.91063994 0.80014074 2.2888095
-0.89365566 0.78303671 1.8177097
-0.88215059 0.77134633 1.479609
-0.73355144 0.79802477 18.583374
-1.0705345 0.95952964 5.5724983
-0.97365844 0.86452442 3.5950737
-0.91671532 0.80944109 2.5924437
-0.89396399 0.78688616 2.0182061
-0.88506532 0.77716213 1.6344193
-0.87276673 0.76503396 1.3364756
-0.88252807 0.76844114 1.229743
-0.85397243 0.74280208 0.99500704
-0.84755039 0.73645008 0.82075852
-0.84398335 0.7328437 0.67165118
-0.84448141 0.73276949 0.54005182
-0.83746523 0.72617906 0.41575748
-0.81301481 0.70448679 0.29571593
-0.80925477 0.70074439 0.18905075
-0.86608583 0.75625861 1.105222
-0.84570903 0.73769742 0.90069598
-0.8462376 0.73764879 0.74529696
-0.84625918 0.73689836 0.60619479
-0.84112972 0.73192567 0.4772076
-0.80703861 0.70177478 0.34866288
-0.80718386 0.70166045 0.24138485
-0.79939163 0.69440722 0.13638996
-1.1683515 1.0734261 10.086389
-1.1889476 1.0784116 7.7406149
-1.0032436 0.89767271 4.3508797
-0.93837571 0.83380491 3.0168729
-0.90963471 0.80490184 2.2931986
-0.89302671 0.7880134 1.8218426
-0.88185817 0.77653939 1.4834466
-0.73056704 0.800367 18.578381
-1.0718431 0.96747255 5.5966954
-0.97320729 0.87021875 3.6044593
-0.91713756 0.81552958 2.6014462
-0.89511466 0.79346222 2.0267382
-0.88460428 0.78224313 1.6384094
-0.87263244 0.77031964 1.3401507
-0.87984037 0.7715171 1.229743
-0.85430205 0.74834335 0.99814546
-0.84812117 0.74215776 0.82349998
-0.84475476 0.7387014 0.67396998
-0.84540921 0.73876339 0.54192483
-0.83853847 0.73225325 0.41716751
-0.81055075 0.70732045 0.29571593
-0.8068037 0.70356494 0.18905075
-0.86624449 0.76174289 1.1085476
-0.84616542 0.74331272 0.90363914
-0.84689713 0.74344224 0.74783015
-0.84368181 0.7398479 0.60619479
-0.84212112 0.73796964 0.47885111
-0.80824077 0.7077899 0.34983522
-0.80845565 0.7077356 0.24207552
-0.7969628 0.69719338 0.13638996
-1.1651676 1.0780257 10.091329
-1.191941 1.0887369 7.7846723
-1.0034302 0.90416729 4.3651958
-0.93982661 0.84098417 3.0306804
-0.9103955 0.81125927 2.3019767
-0.89447737 0.79486465 1.8301084
-0.88393813 0.78386652 1.4911215
-0.72776878 0.80291224 18.578381
-2.5078125 2.5619905 33.393402
-1.0731095 0.97543627 5.620893
-0.97401029 0.87707525 3.6185374
-0.91752839 0.82163084 2.6104486
-0.89428514 0.79831898 2.0310042
-0.8841185 0.78733039 1.6423994
-0.87247181 0.77561355 1.3438259
-0.87981492 0.77694434 1.2332475
-0.85460341 0.75389588 1.0012839
-0.84866238 0.74787837 0.82624143
-0.8454954 0.74457341 0.67628878
-0.84282535 0.74170989 0.54192483
-0.83597732 0.73517579 0.41716751
-0.81176668 0.71338826 0.29664856
-0.80808479 0.70966297 0.18949783
-0.86358023 0.76476204 1.1085476
-0.8465929 0.74894023 0.9065823
-0.84752643 0.74924916 0.75036329
-0.84449589 0.74579275 0.60829288
-0.84308046 0.7440294 0.48049462
-0.80941069 0.71382189 0.35100752
-0.80969483 0.71382821 0.2427662
-0.79827297 0.70327365 0.13659149
-1.1619658 1.0826161 10.096268
-1.1948766 1.0990959 7.8287287
-1.0035837 0.91067415 4.3795114
-0.94123888 0.84818369 3.044488
-0.91112274 0.81763172 2.3107548
-0.89379412 0.79985887 1.8342415
-0.883587 0.78908235 1.494959
-0.72496164 0.80544776 18.578381
-2.5185401 2.5909934 33.656895
-1.0743332 0.98342049 5.6450896
-0.97477746 0.88394809 3.6326158
-0.91788787 0.82774478 2.6194508
-0.89537174 0.8049233 2.039536
-0.88585114 0.79443562 1.6503794
-0.87228471 0.78091574 1.347501
-0.87976235 0.78238088 1.236752
-0.8548764 0.75945961 1.0044224
-0.84917402 0.75361186 0.82898289
-0.84620541 0.75045955 0.67860758
-0.84370059 0.74772233 0.54379785
-0.83699709 0.74126995 0.41857755
-0.80927145 0.71621746 0.29664856
-0.80560267 0.71247941 0.18949783
-0.86369193 0.77025712 1.111873
-0.84699136 0.75457966 0.90952545
-0.84812552 0.75506961 0.75289649
-0.84188747 0.74873608 0.60829288
-0.84047824 0.74696773 0.48049462
-0.81054831 0.71987069 0.35217986
-0.80719823 0.71665019 0.2427662
-0.79955029 0.70937145 0.13679302
-1.1587461 1.0871974 10.101207
-1.1977545 1.1094888 7.8727856
-1.0037042 0.91719323 4.3938274
-0.94261223 0.8554033 3.0582957
-0.91181666 0.82401913 2.3195331
-0.89308685 0.80485791 1.8383743
-0.88321042 0.79430532 1.4987966
-0.72195369 0.80775791 18.573391
-2.4972675 2.5871086 33.492832
-1.0755142 0.99142516 5.6692867
-0.97423416 0.88967299 3.6420014
-0.91821569 0.83387113 2.6284533
-0.89642298 0.81154478 2.0480678
-0.88530874 0.79954273 1.6543695
-0.87207133 0.78622603 1.3511763
-0.87968242 0.7878263 1.2402567
-0.8551209 0.76503444 1.0075608
-0.84965593 0.75935799 0.83172441
-0.8435806 0.75340873 0.67860758
-0.84454405 0.75374979 0.54567093
-0.83798456 0.7473802 0.41998756
-0.81043369 0.72230649 0.2975812
-0.80682957 0.71859938 0.18994491
-0.86377573 0.77576226 1.1151985
-0.84435225 0.75753164 0.90952545
-0.84869421 0.76090324 0.75542969
-0.84264934 0.75469816 0.6103909
-0.84138429 0.75304627 0.48213813
-0.81165344 0.72593606 0.35335216
-0.80469173 0.71946353 0.2427662
-0.79706931 0.71215814 0.13679302
-1.1560733 1.092303 10.111085
-1.2013185 1.1206098 7.9217381
-1.0048894 0.92473501 4.4129157
-0.94250453 0.86132461 3.0675008
-0.91247696 0.83042121 2.3283112
-0.89235556 0.80986178 1.8425074
-0.88280791 0.79953521 1.502634
-0.71912974 0.81027311 18.573391
-2.491909 2.5996594 33.542549
-1.0766523 0.99944997 5.6934838
-0.97620291 0.89774144 3.6607723
-0.92011827 0.84147924 2.641957
-0.89743906 0.81818348 2.0565996
-0.88474149 0.80465573 1.6583595
-0.87183148 0.79154432 1.3548514
-0.87692708 0.79089224 1.2402567
-0.85533684 0.77062017 1.0106993
-0.85010797 0.76511657 0.83446586
-0.84423918 0.7593112 0.68092638
-0.8419078 0.75669324 0.54567093
-0.83893937 0.75350618 0.4213976
-0.80790746 0.72513103 0.2975812
-0.80802351 0.72473645 0.19039199
-0.86660075 0.78378201 1.1218495
-0.84470189 0.76318425 0.91246861
-0.84603292 0.76386106 0.75542969
-0.84338003 0.76067483 0.61248899
-0.83875054 0.75597864 0.48213813
-0.81272602 0.73201782 0.35452449
-0.8021754 0.72226804 0.2427662
-0.7982924 0.71827775 0.13699456
-1.153379 1.0974032 10.120963
-1.2048196 1.1317691 7.9706907
-1.0071288 0.93331093 4.4367752
-0.94380426 0.86857873 3.0813081
-0.9131037 0.83683801 2.3370893
-0.89367735 0.816769 1.8507732
-0.88237965 0.80477202 1.5064715
-0.71648747 0.81299525 18.578381
-2.4828193 2.6083419 33.542549
-1.0777476 1.0074948 5.7176814
-0.97686118 0.90466166 3.6748505
-0.92037767 0.84763575 2.6509595
-0.89649862 0.82307518 2.0608656
-0.88414925 0.80977452 1.6623495
-0.87156498 0.79687047 1.3585266
-0.87680078 0.79634625 1.2437612
-0.85552418 0.77621675 1.0138377
-0.84743202 0.76807934 0.83446586
-0.84486669 0.76522738 0.68324518
-0.8426984 0.76273847 0.54754394
-0.83630401 0.75643003 0.4213976
-0.80901557 0.73124075 0.29851383
-0.80548877 0.72755259 0.19039199
-0.86661983 0.78931659 1.125175
-0.84502226 0.76884836 0.91541177
-0.84655088 0.76970977 0.75796282
-0.84407908 0.7666657 0.61458701
-0.83960313 0.76207566 0.48378164
-0.81016588 0.73485023 0.35452449
-0.8033179 0.72839016 0.24345689
-0.7957803 0.72105986 0.13699456
-1.1501023 1.1019603 10.125903
-1.2075177 1.1422666 8.0147476
-1.0093207 0.94191384 4.4606352
-0.94506496 0.87585235 3.0951159
-0.91369677 0.84326929 2.3458676
-0.89289117 0.82178932 1.8549061
-0.88192558 0.81001544 1.5103091
-0.71364522 0.81549126 18.578381
-2.4736993 2.6169925 33.542549
-1.0787996 1.0155594 5.7418785
-0.97748297 0.91159737 3.6889291
-0.92060524 0.85380435 2.6599619
-0.89744973 0.82974082 2.0693977
-0.88353205 0.81489891 1.6663395
-0.87127197 0.80220443 1.3622017
-0.87664717 0.80180907 1.2472657
-0.85568285 0.78182393 1.0169762
-0.84783405 0.77385175 0.83720732
-0.8454631 0.77115709 0.68556398
-0.84345686 0.76879835 0.54941696
-0.83720487 0.76257503 0.42280763
-0.80645812 0.73406029 0.29851383
-0.80662817 0.73371077 0.19083907
-0.86661083 0.79486078 1.1285006
-0.84531343 0.77452415 0.91835493
-0.84703827 0.77557135 0.76049602
-0.84474665 0.77267069 0.61668509
-0.8369379 0.76500183 0.48378164
-0.81118459 0.74095196 0.3556968
-0.80077046 0.73118985 0.24345689
-0.79694891 0.72720075 0.13719608
-1.1468078 1.1065079 10.130842
-1.2108941 1.1534988 8.0636997
-1.0125523 0.95156562 4.4892673
-0.94485813 0.88181227 3.104321
-0.91425592 0.84971482 2.3546457
-0.89414454 0.82872713 1.8631719
-0.88144571 0.8152656 1.5141466
-0.71060526 0.81775928 18.573391
-2.4590788 2.6197798 33.467976
-1.0798084 1.0236435 5.7660751
-0.97806823 0.91854852 3.7030075
-0.92080092 0.8599847 2.6689644
-0.8983652 0.83642316 2.0779295
-0.88288993 0.82002884 1.6703296
-0.87095231 0.80754608 1.3658769
-0.87646586 0.80728036 1.2507702
-0.85581285 0.78744173 1.0201148
-0.84512764 0.77680653 0.83720732
-0.84602845 0.77710032 0.68788278
-0.8407681 0.77173787 0.54941696
-0.83807302 0.76873553 0.42421767
-0.80751199 0.74019009 0.29944643
-0.80406213 0.73652196 0.19083907
-0.86657363 0.8004145 1.131826
-0.84557521 0.78021127 0.92129809
-0.84432584 0.77852339 0.76049602
-0.84538251 0.77868962 0.61878312
-0.83426243 0.76791865 0.48378164
-0.80859327 0.74377906 0.3556968
-0.80185843 0.73733252 0.24414757
-0.79440564 0.72997826 0.13719608
-1.1440526 1.1115875 10.140721
-1.2142069 1.1647687 8.1126518
-1.0168127 0.96227765 4.5226707
-0.94604462 0.88911939 3.1181283
-0.91478109 0.85617441 2.3634241
-0.89330345 0.8337636 1.867305
-0.88328516 0.822707 1.5218216
-0.70793468 0.82045358 18.578381
-1.0807738 1.031747 5.7902722
-0.97861677 0.9255147 3.7170856
-0.92096466 0.8661769 2.6779668
-0.89734244 0.84133786 2.0821953
-0.8844232 0.82722276 1.6783097
-0.87308377 0.81520897 1.3732272
-0.87625712 0.81276029 1.2542748
-0.85591394 0.7930699 1.0232532
-0.84547955 0.78259242 0.83994877
-0.84656256 0.78305691 0.69020158
-0.84147346 0.77781498 0.55129004
-0.83538449 0.77165627 0.42421767
-0.8049233 0.74300438 0.29944643
-0.80148625 0.73932415 0.19083907
-0.86924195 0.80852062 1.138477
-0.84580755 0.78590959 0.92424124
-0.84476197 0.78439915 0.76302922
-0.84598655 0.78472239 0.6208812
-0.83503991 0.77403623 0.48542514
-0.80955786 0.74990016 0.35686913
-0.79927975 0.74012703 0.24414757
-0.79551959 0.73613995 0.13739762
-1.1407207 1.1161178 10.14566
-1.2167233 1.175368 8.1567087
-1.0210105 0.97303081 4.5560746
-0.9471916 0.89644545 3.1319361
-0.91527241 0.86264807 2.3722022
-0.89448828 0.8407315 1.8755709
-0.88274574 0.82797813 1.5256591
-0.70506638 0.82291967 18.578381
-1.0844139 1.0424834 5.8289876
-0.9791286 0.93249583 3.731164
-0.92109632 0.87238061 2.6869693
-0.89819247 0.84804624 2.0907271
-0.88372362 0.83237112 1.6822997
-0.87270248 0.82057405 1.3769025
-0.87602079 0.81824845 1.2577794
-0.85314035 0.79605275 1.0232532
-0.84580117 0.78839004 0.84269029
-0.84706539 0.78902668 0.69252038
-0.84214652 0.78390628 0.55316305
-0.83619815 0.77783483 0.42562771
-0.80592269 0.74915409 0.30037907
-0.80254936 0.7455067 0.19128615
-0.86913931 0.81410253 1.1418025
-0.84601033 0.791619 0.9271844
-0.8451674 0.79028755 0.76556236
-0.84324223 0.78767061 0.6208812
-0.83233291 0.77694643 0.48542514
-0.81048959 0.756037 0.35804144
-0.80031317 0.74628991 0.24483825
-0.79294509 0.73891234 0.13739762
-1.1373711 1.1206383 10.150599
-1.2206402 1.1874193 8.210557
-1.0240688 0.9827913 4.5847068
-0.94688475 0.90244234 3.1411412
-0.91572964 0.86913556 2.3809803
-0.89563537 0.84771788 1.8838367
-0.8845101 0.83545655 1.5333341
-0.70218962 0.8253758 18.578381
-1.0870892 1.0523834 5.862864
-0.97960353 0.93949193 3.7452421
-0.92277104 0.88009846 2.7004728
-0.89900661 0.85477084 2.0992589
-0.88518488 0.83959842 1.6902797
-0.87229449 0.82594645 1.3805776
-0.8757568 0.82374489 1.2612839
-0.85319281 0.80169135 1.0263916
-0.8460927 0.79419959 0.84543175
-0.8475368 0.79500937 0.69483918
-0.83940506 0.78684109 0.55316305
-0.83347785 0.78074896 0.42562771
-0.80330271 0.75196266 0.30037907
-0.79994214 0.74830353 0.19128615
-0.86900824 0.81969357 1.145128
-0.84618366 0.79733938 0.93012756
-0.8486802 0.79914355 0.77062875
-0.84379327 0.79371893 0.62297922
-0.83305639 0.78308141 0.48706865
-0.81138819 0.76218951 0.35921374
-0.79770327 0.74907899 0.24483825
-0.79400408 0.74509442 0.13759914
-1.1340039 1.1251489 10.155539
-1.2244874 1.1995121 8.2644043
-1.0195588 0.98532248 4.5799346
-0.94795692 0.90980089 3.1549485
-0.9161526 0.87563664 2.3897583
-0.89674437 0.85472238 1.8921027
-0.88391072 0.84074813 1.5371716
-0.69949019 0.82804281 18.583374
-1.0897084 1.0623146 5.89674
-0.98004156 0.94650257 3.7593205
-0.9228332 0.88633043 2.7094753
-0.89978468 0.86151135 2.1077909
-0.88442749 0.84476453 1.6942697
-0.87431282 0.83366549 1.3879279
-0.8754651 0.82924944 1.2647884
-0.85321635 0.80734003 1.02953
-0.84939247 0.80289304 0.85091466
-0.84475654 0.79796296 0.69483918
-0.84002447 0.79294872 0.55503613
-0.83423692 0.78694534 0.42703772
-0.80424738 0.75813168 0.30131167
-0.80095017 0.75450611 0.19173324
-0.86884874 0.82529354 1.1484535
-0.84632725 0.80307055 0.93307072
-0.84901357 0.80506748 0.77316189
-0.84431237 0.79978079 0.62507725
-0.83374721 0.78923094 0.48871216
-0.81225377 0.76835746 0.36038607
-0.79868168 0.75526148 0.24552894
-0.79139835 0.7478615 0.13759914
-1.1311685 1.1301992 10.165417
-1.2210176 1.2044942 8.2692986
-1.0193219 0.99199909 4.5942507
-0.94898933 0.91717798 3.1687562
-0.91654128 0.88215125 2.3985367
-0.89781535 0.86174482 1.9003686
-0.88559973 0.84826303 1.5448467
-0.69678062 0.83070076 18.588366
-1.094962 1.074919 5.9451342
-0.98044252 0.95352769 3.7733986
-0.92286295 0.89257354 2.7184777
-0.90240401 0.87007815 2.1205888
-0.883645 0.84993571 1.6982597
-0.87384272 0.83906049 1.3916031
-0.87514555 0.83476198 1.268293
-0.85321075 0.81299853 1.0326686
-0.84961331 0.80873615 0.85365611
-0.8451755 0.80396008 0.69715798
-0.84061146 0.79907024 0.55690914
-0.8349629 0.79315656 0.42844775
-0.80515879 0.76431644 0.30224431
-0.79831153 0.7572974 0.19173324
-0.86866075 0.83090246 1.1517791
-0.84644109 0.8088125 0.93601388
-0.84931576 0.81100333 0.77569515
-0.8447994 0.80585581 0.62717533
-0.83440512 0.79539466 0.49035567
-0.81308603 0.77454054 0.36155838
-0.79604048 0.75804478 0.24552894
-0.79240221 0.75406343 0.13780068
-1.127764 1.1346921 10.170357
-1.2204169 1.2123377 8.2937756
-1.019051 0.99868608 4.6085668
