# .PCD v0.7 - Point Cloud Data file format
VERSION 0.7
FIELDS x y z
SIZE 4 4 4
TYPE F F F
COUNT 1 1 1
WIDTH 1448
HEIGHT 1
VIEWPOINT 0 0 0 1 0 0 0
POINTS 1448
DATA ascii
-0.72591764 0.66102403 2.3725195
-0.60880727 0.55206656 1.5733896
-0.75394207 0.6818279 1.5655998
-0.91037476 0.82161725 1.5448467
-0.09684898 0.10653359 2.330533
-0.18017389 0.1858236 2.3712187
-0.44919991 0.41533619 2.3929965
-0.62921411 0.57653326 2.3749542
-0.6126855 0.55830157 1.777724
-0.67689228 0.61491877 1.5660173
-0.82586467 0.74847114 1.5506288
-0.91343284 0.82641524 1.4136541
-0.9101339 0.81796813 1.2823112
-0.89722723 0.80553216 1.0546377
-0.88256985 0.79155123 0.86188054
-0.87195271 0.78148967 0.69947678
-0.8604936 0.7706877 0.55503613
-0.8474021 0.75843942 0.42421767
-0.8348015 0.74664354 0.30410954
-0.82785237 0.73991847 0.19262739
-0.91234219 0.82226562 1.1750575
-0.88207811 0.7941643 0.94778651
-0.87941051 0.79121709 0.78076148
-0.86495888 0.77740514 0.62507725
-0.85763425 0.77029091 0.49035567
-0.83570588 0.75007844 0.36155838
-0.82923603 0.74401695 0.24760097
-0.81814331 0.73355907 0.1380022
-0.018071948 0.029817186 2.5241773
-0.48447812 0.45903197 4.2432466
-0.3617577 0.33834112 2.4048171
-0.54055893 0.49905765 2.3991382
-0.72504556 0.66487461 2.3771222
-0.60687643 0.55418837 1.5733896
-0.74947709 0.68256056 1.5614668
-0.90987301 0.82694584 1.5486841
-0.096476518 0.106871 2.330533
-0.17952414 0.18645139 2.3712187
-0.44774738 0.41690168 2.3929965
-0.6271978 0.57872617 2.3749542
-0.61554414 0.56485325 1.7912277
-0.67474169 0.6172778 1.5660173
-0.82324702 0.75134939 1.5506288
-0.91555429 0.83416539 1.4210044
-0.91256112 0.82592654 1.2893202
-0.89729697 0.8112697 1.0577762
-0.88290441 0.79742992 0.864622
-0.87250781 0.78749669 0.70179558
-0.86124063 0.77679181 0.55690914
-0.85187596 0.76781619 0.42703772
-0.83584011 0.75284058 0.30504215
-0.82896596 0.74613529 0.19307446
-0.91223097 0.82795477 1.1783831
-0.88229495 0.79995358 0.95072967
-0.87983781 0.79717654 0.78329468
-0.86560482 0.78346539 0.62717533
-0.85494018 0.77327991 0.49035567
-0.83668846 0.75625038 0.36273071
-0.83030814 0.75022697 0.24829166
-0.81928575 0.73975861 0.13820374
-0.017953271 0.029838933 2.5191777
-0.47893998 0.4569633 4.208672
-0.36057448 0.33960184 2.4048171
-0.53881359 0.50094146 2.3991382
-0.72272027 0.66740149 2.3771222
-0.60670096 0.55792481 1.5777787
-0.74708992 0.68517256 1.5614668
-0.90698087 0.83011693 1.5486841
-0.096102871 0.10720712 2.330533
-0.17923893 0.18746378 2.3761902
-0.44628939 0.41846207 2.3929965
-0.62390989 0.57973707 2.3702617
-0.62955439 0.58177549 1.8362398
-0.67258286 0.61962938 1.5660173
-0.82061934 0.75421852 1.5506288
-0.9176327 0.84194046 1.4283547
-0.91230816 0.83150941 1.2928247
-0.89733756 0.81701744 1.0609146
-0.88320863 0.80332053 0.86736345
-0.87303156 0.79351711 0.70411438
-0.85852385 0.77979332 0.55690914
-0.85274255 0.77400929 0.42844775
-0.83320713 0.75575358 0.30504215
-0.83004618 0.75236893 0.19352154
-0.91209126 0.83365315 1.1817086
-0.88248199 0.80575401 0.95367283
-0.88023406 0.80314851 0.78582788
-0.86621886 0.78953958 0.62927336
-0.85572678 0.77943945 0.49199918
-0.83763802 0.76243824 0.36390302
-0.82768434 0.75312072 0.24829166
-0.81669855 0.74261397 0.13820374
-0.017849006 0.029901421 2.5191777
-0.35938686 0.34085843 2.4048171
-0.53706169 0.50281924 2.3991382
-0.72324711 0.67258143 2.386327
-0.60474974 0.56003916 1.5777787
-0.7446937 0.68777627 1.5614668
-0.90407771 0.83327782 1.5486841
-0.09572807 0.10754193 2.330533
-0.17858347 0.1880883 2.3761902
-0.44482595 0.42001736 2.3929965
-0.62188244 0.58191133 2.3702617
-0.6737287 0.62698466 1.9667749
-0.67041594 0.62197334 1.5660173
-0.8179816 0.75707841 1.5506288
-0.91717815 0.84743923 1.4320298
-0.9120273 0.83710051 1.2963293
-0.897349 0.82277542 1.0640531
-0.88348258 0.80922312 0.87010491
-0.87025636 0.79655975 0.70411438
-0.85921741 0.78591436 0.55878216
-0.8535763 0.78021765 0.42985779
-0.83419085 0.7619704 0.30597478
-0.82741487 0.75526172 0.19352154
-0.91192275 0.83936059 1.185034
-0.88263935 0.81156546 0.95661598
-0.88059938 0.80913305 0.78836101
-0.87014455 0.79869664 0.63346946
-0.85648066 0.78561378 0.49364269
-0.83855462 0.76864189 0.36507532
-0.82505041 0.75600535 0.24829166
-0.81778598 0.74883413 0.13840528
-0.017730322 0.029922282 2.5141776
-0.29715288 0.28729507 2.6281095
-0.35819483 0.34211084 2.4048171
-0.53530324 0.50469089 2.3991382
-0.73087537 0.68445128 2.4185448
-0.60454249 0.56378043 1.5821677
-0.74228835 0.69037145 1.5614668
-0.90116352 0.83642852 1.5486841
-0.09516345 0.10765688 2.3255413
-0.17828985 0.18909992 2.3811617
-0.44335714 0.4215675 2.3929965
-0.61984742 0.58407855 2.3702617
-0.7461825 0.69930774 2.1783321
-0.66824067 0.62430978 1.5660173
-0.81533396 0.75992906 1.5506288
-0.91917801 0.85525453 1.4393802
-0.91171843 0.84269971 1.2998339
-0.90019071 0.83118385 1.07033
-0.88372588 0.81513721 0.87284636
-0.87072772 0.80259508 0.70643318
-0.8564688 0.78890884 0.55878216
-0.8508476 0.78319246 0.42985779
-0.83152604 0.76487768 0.30597478
-0.82477349 0.75814539 0.19352154
-0.91172564 0.84507704 1.1883595
-0.88276678 0.81738776 0.95955914
-0.8809337 0.81512982 0.79089421
-0.87068391 0.80480987 0.63556755
-0.85720193 0.79180294 0.49528623
-0.83943802 0.77486128 0.36624765
-0.82240641 0.75888067 0.24829166
-0.81883985 0.75507098 0.1386068
-0.017625766 0.02998399 2.5141776
-0.29392344 0.28616029 2.6083522
-0.35699847 0.34335905 2.4048171
-0.53353828 0.50655639 2.3991382
-0.73558736 0.69370139 2.4415574
-0.60257077 0.56588727 1.5821677
-0.73987395 0.69295835 1.5614668
-0.90057987 0.84175795 1.5525217
-0.094787076 0.1079884 2.3255413
-0.1776287 0.18972112 2.3811617
-0.44188288 0.42311257 2.3929965
-0.61780483 0.58623868 2.3702617
-0.78172916 0.73777288 2.2863612
-0.66605741 0.62663853 1.5660173
-0.81267631 0.76277047 1.5506288
-0.91866076 0.86077607 1.4430554
-0.91399199 0.85073698 1.306843
-0.90013415 0.83697164 1.0734684
-0.88087523 0.81821704 0.87284636
-0.87116742 0.80864334 0.70875198
-0.85710853 0.79504651 0.56065518
-0.85162663 0.78941888 0.43126783
-0.83245474 0.77111381 0.30690739
-0.82577658 0.76440269 0.19396862
-0.91149956 0.8508023 1.1916851
-0.88286436 0.82322097 0.96250236
-0.88123661 0.82113868 0.79342741
-0.87119132 0.81093657 0.63766557
-0.85789031 0.79800659 0.49692973
-0.8367281 0.77778673 0.36624765
-0.82337999 0.76511776 0.24898234
-0.81619912 0.75792462 0.1386068
-0.017520994 0.030045334 2.5141776
-0.28737986 0.28173941 2.5589597
-0.35579774 0.34460312 2.4048171
-0.53176683 0.5084157 2.3991382
-0.74024355 0.70299262 2.46457
-0.60233164 0.56963301 1.5865569
-0.73745054 0.69553679 1.5614668
-0.89763612 0.84489644 1.5525217
-0.094409548 0.10831862 2.3255413
-0.17696536 0.19034001 2.3811617
-0.44040325 0.42465243 2.3929965
-0.61700213 0.58958411 2.3749542
-0.79808259 0.75849581 2.3403757
-0.66386592 0.62895966 1.5660173
-0.81000882 0.76560265 1.5506288
-0.91811615 0.86630422 1.4467305
-0.91361868 0.85636115 1.3103476
-0.9000482 0.84276909 1.0766069
-0.88106734 0.82414329 0.87558782
-0.86833942 0.81167936 0.70875198
-0.85771579 0.80119812 0.56252825
-0.84886581 0.79238683 0.43126783
-0.83334994 0.77736568 0.30784002
-0.82310331 0.76728052 0.19396862
-0.91396505 0.85909355 1.198336
-0.88293189 0.82906467 0.96544552
-0.88150847 0.8271597 0.79596055
-0.87166649 0.81707656 0.63976365
-0.8550995 0.80099636 0.49692973
-0.83755648 0.78402448 0.36741996
-0.82070422 0.76798725 0.24898234
-0.81719756 0.76418144 0.13880834
-0.01741601 0.030106308 2.5141776
-0.28584227 0.28219444 2.5540206
-0.35459268 0.34584302 2.4048171
-0.52998888 0.51026881 2.3991382
-0.74060857 0.70827323 2.4737751
-0.60207367 0.57338399 1.590946
-0.73501825 0.69810671 1.5614668
-0.89468139 0.84802467 1.5525217
-0.094030865 0.1086475 2.3255413
-0.17629987 0.19095656 2.3811617
-0.43891823 0.42618713 2.3929965
-0.61494029 0.59173429 2.3749542
-0.80014771 0.7657932 2.3538795
-0.66166645 0.63127321 1.5660173
-0.80951387 0.77050298 1.5546188
-0.92000163 0.87417454 1.4540808
-0.91321713 0.86199313 1.3138521
-0.89993274 0.84857613 1.0797453
-0.88122886 0.83008105 0.87832928
-0.86872631 0.81774187 0.71107078
-0.85829049 0.80736363 0.56440127
-0.84958982 0.79863071 0.43267787
-0.83063132 0.78026986 0.30784002
-0.82405078 0.77355742 0.1944157
-0.91367221 0.86484551 1.2016616
-0.88296938 0.83491886 0.96838868
-0.87861574 0.83023167 0.79596055
-0.87210935 0.82322973 0.64186168
-0.85573322 0.80721664 0.49857324
-0.83835143 0.79027736 0.36859229
-0.82162249 0.77424359 0.24967301
-0.81816214 0.77045435 0.13900986
-0.017324435 0.030208372 2.5191777
-0.2826536 0.28099701 2.5342636
-0.3533833 0.34707865 2.4048171
-0.5282045 0.51211572 2.3991382
-0.74235272 0.71492028 2.4875827
-0.60179681 0.57714015 1.595335
-0.73461032 0.70261341 1.5655998
-0.89171576 0.85114253 1.5525217
-0.093651049 0.10897508 2.3255413
-0.17563224 0.1915708 2.3811617
-0.43742791 0.42771667 2.3929965
-0.61411005 0.59507835 2.3796473
-0.79746974 0.76858151 2.3538795
-0.65945882 0.63357902 1.5660173
-0.80681938 0.77332407 1.5546188
-0.91939384 0.87972444 1.457756
-0.91537207 0.87008977 1.3208612
-0.8997876 0.85439259 1.0828838
-0.88135952 0.83602977 0.88107073
-0.86908144 0.8238169 0.71338952
-0.8588326 0.8135429 0.56627429
-0.8502807 0.80488932 0.43408787
-0.8314712 0.78654033 0.30877262
-0.82496446 0.77985024 0.19486278
-0.91335028 0.87060583 1.204987
-0.88297677 0.84078336 0.97133183
-0.87883514 0.83626521 0.79849374
-0.87251985 0.82939601 0.6439597
-0.85291034 0.81019878 0.49857324
-0.83911294 0.79654539 0.3697646
-0.81891489 0.77710682 0.24967301
-0.81546783 0.77330559 0.13900986
-0.017218882 0.030268662 2.5191777
-0.28112242 0.28143165 2.5293241
-0.35216963 0.34831008 2.4048171
-0.52641368 0.51395631 2.3991382
-0.74265718 0.72022784 2.4967875
-0.60322368 0.58256531 1.6041132
-0.7321533 0.70517337 1.5655998
-0.88873929 0.85424995 1.5525217
-0.09345489 0.10952312 2.330533
-0.17496245 0.19218272 2.3811617
-0.43593222 0.42924097 2.3929965
-0.61202908 0.59721839 2.3796473
-0.79634398 0.77287686 2.3583806
-0.65724319 0.63587707 1.5660173
-0.80411506 0.77613568 1.5546188
-0.92119974 0.88763332 1.4651064
-0.91490543 0.87574583 1.3243657
-0.89961272 0.86021835 1.0860223
-0.88145936 0.84198952 0.88381225
-0.8726089 0.83296317 0.71802717
-0.85934192 0.81973583 0.5681473
-0.85093808 0.81116241 0.43549791
-0.8322773 0.79282612 0.30970526
-0.82584423 0.78615874 0.19530986
-0.91569275 0.87896007 1.211638
-0.88295376 0.84665793 0.97427499
-0.87902308 0.84231049 0.80102688
-0.87289786 0.83557504 0.64605778
-0.85348922 0.81643534 0.50021678
-0.83984089 0.80282837 0.3709369
-0.81977743 0.78338194 0.25036371
-0.81637663 0.77959776 0.1392114
-0.017113119 0.030328583 2.5191777
-0.27959171 0.28185904 2.524385
-0.35167265 0.35025623 2.4097126
-0.52355224 0.51474392 2.394366
-0.74433118 0.72691143 2.5105953
-0.60290319 0.58633739 1.6085023
-0.72968733 0.70772481 1.5655998
-0.88575202 0.85734701 1.5525217
-0.093072012 0.10984867 2.330533
-0.17429054 0.19279227 2.3811617
-0.43353897 0.42987463 2.3881571
-0.61117136 0.6005609 2.38434
-0.79519808 0.7771737 2.3628819
-0.65501958 0.63816738 1.5660173
-0.80356151 0.78103817 1.5586089
-0.92052865 0.89320451 1.4687816
-0.91441047 0.88140923 1.3278702
-0.89940822 0.86605322 1.0891607
-0.88454181 0.85085905 0.88929516
-0.87288952 0.83907402 0.72034597
-0.85981858 0.8259421 0.57002032
-0.8515619 0.81744981 0.43690795
-0.8330496 0.7991271 0.31063786
-0.82668996 0.79248297 0.19575694
-0.91530359 0.88474625 1.2149636
-0.8829006 0.8525427 0.97721815
-0.87917948 0.84836709 0.80356008
-0.87324327 0.84176672 0.64815581
-0.85063416 0.81940955 0.50021678
-0.8405351 0.80912608 0.37210923
-0.82060617 0.78967249 0.25105438
-0.81725138 0.7859056 0.13941292
-0.017007148 0.030388134 2.5191777
-0.27806145 0.28227919 2.5194457
-0.35044789 0.35148171 2.4097126
-0.5217523 0.5165683 2.394366
-0.74457461 0.73224527 2.5198004
-0.60427457 0.59179038 1.6172805
-0.72721249 0.71026754 1.5655998
-0.88275391 0.86043364 1.5525217
-0.092688002 0.11017288 2.330533
-0.17361651 0.19339949 2.3811617
-0.43203583 0.43138531 2.3881571
-0.61152405 0.60511875 2.3937256
-0.79403162 0.78147185 2.367383
-0.65278798 0.64044994 1.5660173
-0.8008303 0.78383839 1.5586089
-0.92225444 0.90115112 1.4761319
-0.91388708 0.88707978 1.3313749
-0.89917392 0.87189716 1.0922991
-0.88456964 0.85685086 0.89203662
-0.87313813 0.8451969 0.72266477
-0.86026222 0.83216172 0.57189339
-0.84870332 0.82041734 0.43690795
-0.8337881 0.80544311 0.3115705
-0.82750148 0.79882258 0.19620402
-0.9148851 0.89054036 1.218289
-0.88281703 0.85843736 0.98016131
-0.87930429 0.85443509 0.80609328
-0.87355614 0.84797108 0.65025389
-0.85115814 0.82566184 0.50186026
-0.84119558 0.81543833 0.37328154
-0.81784469 0.79253215 0.25105438
-0.81809205 0.79222906 0.13961446
-0.016887929 0.030405676 2.5141776
-0.2770744 0.2832481 2.5194457
-0.34921885 0.35270283 2.4097126
-0.51994592 0.51838642 2.394366
-0.74478996 0.73758972 2.5290053
-0.60391015 0.59557801 1.6216695
-0.7247287 0.71280169 1.5655998
-0.87974501 0.86350983 1.5525217
-0.092120387 0.11027202 2.3255413
-0.17258735 0.19360492 2.3761902
-0.43052736 0.43289077 2.3881571
-0.61063021 0.60846794 2.3984182
-0.79129899 0.78423882 2.367383
-0.6505484 0.64272475 1.5660173
-0.79808939 0.78662902 1.5586089
-0.92151964 0.90674275 1.479807
-0.9133352 0.89275742 1.3348794
-0.90169442 0.88046938 1.0985761
-0.88456649 0.86285329 0.89477807
-0.87335443 0.85133177 0.72498357
-0.8573522 0.83515948 0.57189339
-0.84927177 0.82672113 0.43831801
-0.83449256 0.8117739 0.3125031
-0.82470804 0.80170619 0.19620402
-0.91443729 0.89634228 1.2216145
-0.88270307 0.8643418 0.98310447
-0.87939739 0.86051434 0.80862641
-0.87383628 0.85418779 0.65235192
-0.85164875 0.83192766 0.5035038
-0.84182215 0.82176507 0.37445387
-0.8186174 0.79884076 0.25174505
-0.81889838 0.79856789 0.13981599
-0.016781691 0.030464441 2.5141776
-0.27608401 0.28421354 2.5194457
-0.34798554 0.35391968 2.4097126
-0.51708019 0.51914036 2.3895943
-0.74636012 0.74432427 2.5428128
-0.60522568 0.60105819 1.6304477
-0.72223622 0.71532708 1.5655998
-0.87672549 0.86657542 1.5525217
-0.091734901 0.11059291 2.3255413
-0.17191049 0.19420618 2.3761902
-0.4290137 0.43439099 2.3881571
-0.61093837 0.61304086 2.4078038
-0.79009736 0.78853422 2.3718843
-0.64830089 0.64499164 1.5660173
-0.79533863 0.78941005 1.5586089
-0.92316502 0.9147265 1.4871573
-0.9152962 0.90094376 1.3418884
-0.90139079 0.88634068 1.1017146
-0.88453203 0.86886597 0.89751953
-0.87353861 0.85747844 0.72730237
-0.85774112 0.84139365 0.57376641
-0.84638083 0.82968062 0.43831801
-0.83516294 0.81811941 0.31343573
-0.82546318 0.80806381 0.1966511
-0.91661721 0.9047749 1.2282655
-0.88543659 0.8730939 0.98899078
-0.87945873 0.86660451 0.81115961
-0.87408358 0.86041677 0.65445
-0.85210598 0.83820707 0.50514728
-0.83894849 0.82469851 0.37445387
-0.81935602 0.80516434 0.25243574
-0.8196705 0.80492193 0.14001752
-0.016675249 0.030522833 2.5141776
-0.27509022 0.28517553 2.5194457
-0.34674802 0.35513222 2.4097126
-0.51526487 0.52094215 2.3895943
-0.74513578 0.74830967 2.5474155
-0.60481721 0.60486102 1.6348368
-0.71973479 0.71784383 1.5655998
-0.87369525 0.86963052 1.5525217
-0.09116742 0.11068747 2.3205497
-0.17123154 0.19480509 2.3761902
-0.42837456 0.43678364 2.3929965
-0.61243552 0.61885017 2.4218822
-0.7873401 0.7912873 2.3718843
-0.64604557 0.64725071 1.5660173
-0.79257828 0.79218149 1.5586089
-0.92236614 0.92033809 1.4908326
-0.91467834 0.90664387 1.3453929
-0.90105706 0.89222056 1.104853
-0.88446647 0.87488902 0.90026098
-0.87684077 0.86675084 0.73193997
-0.85809696 0.84764063 0.57563943
-0.84689343 0.83600008 0.43972805
-0.8357991 0.82447946 0.31436834
-0.8226375 0.81094021 0.1966511
-0.91610134 0.91060126 1.231591
-0.88525164 0.87902749 0.99193394
-0.87948823 0.87270558 0.81369281
-0.87429804 0.86665785 0.65654802
-0.85252964 0.84449959 0.50679076
-0.8395189 0.83104146 0.37562618
-0.82006037 0.81150281 0.25312641
-0.82040811 0.8112911 0.14021905
-0.016555997 0.030539082 2.5091779
-0.27409309 0.28613403 2.5194457
-0.34550628 0.35634044 2.4097126
-0.51344329 0.52273756 2.3895943
-0.7507599 0.75924242 2.5750306
-0.60438943 0.60866821 1.6392258
-0.71722472 0.72035182 1.5655998
-0.87065434 0.87267494 1.5525217
-0.090780489 0.11100503 2.3205497
-0.1708993 0.1958047 2.3811617
-0.42684728 0.43827632 2.3929965
-0.61269027 0.62344629 2.4312677
-0.7845732 0.79403085 2.3718843
-0.64378226 0.64950186 1.5660173
-0.79193181 0.79708105 1.5625988
-0.92393053 0.92835826 1.4981829
-0.91655588 0.91487026 1.3524021
-0.9006933 0.89810878 1.1079915
-0.88436955 0.88092208 0.9030025
-0.87694937 0.8729316 0.73425877
-0.85841954 0.85390019 0.57751244
-0.84397012 0.83895117 0.43972805
-0.83640093 0.83085376 0.31530097
-0.82333606 0.81731528 0.19709818
-0.91555595 0.916435 1.2349164
-0.88789415 0.88782853 0.99782026
-0.87948585 0.87881732 0.81622595
-0.87447959 0.87291098 0.65864611
-0.8529197 0.85080534 0.5084343
-0.84005529 0.83739847 0.37679848
-0.82073039 0.81785583 0.25381708
-0.81757122 0.81414998 0.14021905
-0.016449295 0.030596688 2.5091779
-0.27309263 0.28708905 2.5194457
-0.34426031 0.35754433 2.4097126
-0.51161551 0.52452666 2.3895943
-0.76042253 0.77440584 2.6164534
-0.60562378 0.61418539 1.6480041
-0.71470582 0.72285104 1.5655998
-0.86760277 0.87570882 1.5525217
-0.090392455 0.11132123 2.3205497
-0.17021479 0.19640005 2.3811617
-0.42531481 0.43976361 2.3929965
-0.61412537 0.62928694 2.4453459
-0.78179669 0.79676467 2.3718843
-0.64151114 0.65174514 1.5660173
-0.79126078 0.80198574 1.5665889
-0.92545033 0.93640053 1.5055332
-0.91587198 0.92059237 1.3559066
-0.90029931 0.90400541 1.11113
-0.88424122 0.8869651 0.90574402
-0.87702549 0.87912357 0.73657757
-0.85870886 0.86017233 0.57938552
-0.84781694 0.84867966 0.4425481
-0.83696854 0.83724242 0.31623358
-0.82047808 0.82018423 0.19709818
-0.91498101 0.92227608 1.238242
-0.88763767 0.89379042 1.0007634
-0.87945139 0.88493973 0.81875914
-0.87462807 0.87917566 0.66074419
-0.85327619 0.85712415 0.51007777
-0.84055758 0.84376925 0.37797081
-0.82136607 0.82422346 0.25450778
-0.81825197 0.82053643 0.14042059
-0.016342394 0.03065392 2.5091779
-0.27208886 0.28804055 2.5194457
-0.34301016 0.35874382 2.4097126
-0.51081961 0.52738178 2.394366
-0.60515159 0.61800712 1.6523931
-0.71217823 0.72534138 1.5655998
-0.8645407 0.87873197 1.5525217
-0.090003319 0.11163609 2.3205497
-0.16952817 0.19699302 2.3811617
-0.42377716 0.44124556 2.3929965
-0.61432636 0.63390571 2.4547315
-0.77749157 0.79792941 2.367383
-0.63923222 0.65398043 1.5660173
-0.79478252 0.8112005 1.578559
-0.92455041 0.94204485 1.5092083
-0.91766548 0.92885792 1.3629158
-0.8998751 0.90991014 1.1142684
-0.88702321 0.8959896 0.91122693
-0.87706894 0.88532668 0.73889637
-0.8589648 0.86645693 0.58125854
-0.84822774 0.85503948 0.44395813
-0.83404088 0.84015888 0.31623358
-0.82111979 0.82657635 0.19754526
-0.91437632 0.92812425 1.2415675
-0.8873505 0.8997615 1.0037066
-0.87938505 0.89107263 0.82129234
-0.8747434 0.88545209 0.66284221
-0.85359877 0.86345559 0.51172131
-0.84102541 0.85015374 0.37914312
-0.82196724 0.83060545 0.25519845
-0.81538284 0.82338762 0.14042059
-0.016235292 0.030710779 2.5091779
-0.27108175 0.28898859 2.5194457
-0.34175581 0.35993898 2.4097126
-0.50897563 0.52916163 2.394366
-0.836528 0.8639167 2.8926048
-0.60466003 0.62183297 1.6567822
-0.70964199 0.7278229 1.5655998
-0.86146814 0.88174444 1.5525217
-0.089790821 0.11217707 2.3255413
-0.16883951 0.19758357 2.3811617
-0.42223433 0.44272211 2.3929965
-0.61450261 0.63853353 2.4641168
-0.7747016 0.8006385 2.367383
-0.63876188 0.6580795 1.5702833
-0.79824942 0.82044941 1.5905291
-0.92598861 0.95012242 1.5165586
-0.91691494 0.93460131 1.3664203
-0.89942062 0.91582286 1.1174068
-0.88682157 0.9020623 0.91396838
-0.87707978 0.89154077 0.74121517
-0.8591873 0.87275374 0.58313155
-0.85197091 0.86482996 0.44677821
-0.83455163 0.84656334 0.31716621
-0.82172674 0.83298284 0.19799234
-0.91374207 0.93397945 1.2448931
-0.88986045 0.90862924 1.0095929
-0.87928641 0.8972156 0.82382548
-0.87482548 0.89174002 0.6649403
-0.85388768 0.86979979 0.51336479
-0.84145904 0.85655183 0.38031548
-0.82253385 0.83700174 0.25588912
-0.8160066 0.82979089 0.14062211
-0.016127992 0.030767264 2.5091779
-0.27007133 0.28993309 2.5194457
-0.33979926 0.36038843 2.4048171
-0.50712544 0.53093511 2.394366
-0.60581255 0.62738603 1.6655604
-0.70709705 0.7302956 1.5655998
-0.85838497 0.88474613 1.5525217
-0.089398697 0.1124898 2.3255413
-0.16814879 0.19817173 2.3811617
-0.42068636 0.4441933 2.3929965
-0.614654 0.6431703 2.4735024
-0.77190208 0.80333787 2.367383
-0.63646084 0.6603052 1.5702833
-0.80166131 0.82973242 1.6024991
-0.92502391 0.95578504 1.5202339
-0.91613537 0.94035071 1.3699248
-0.90165335 0.92453021 1.1236838
-0.88658828 0.90814453 0.91670984
-0.87705791 0.8977657 0.74353397
-0.85937631 0.87906265 0.58500457
-0.85230136 0.87122768 0.44818825
-0.83502781 0.85298157 0.31809881
-0.82578397 0.84296101 0.1988865
-0.91307789 0.93984151 1.2482185
-0.88950127 0.91462761 1.012536
-0.87915558 0.90336895 0.82635868
-0.87170738 0.89478827 0.6649403
-0.85414261 0.87615645 0.51500833
-0.84185815 0.86296314 0.38148779
-0.82306576 0.84341198 0.25657982
-0.81659561 0.83620864 0.14082365
-0.016020497 0.030823374 2.5091779
-0.26905763 0.29087403 2.5194457
-0.33853918 0.36157238 2.4048171
-0.50424212 0.53161877 2.3895943
-1.1367009 1.1905173 3.9373775
-0.60527629 0.63122582 1.6699494
-0.70454359 0.73275936 1.5655998
-0.85529143 0.8877371 1.5525217
-0.089005493 0.11280119 2.3255413
-0.1671143 0.19834836 2.3761902
-0.4182725 0.44474304 2.3881571
-0.61596817 0.64906788 2.4875808
-0.76759064 0.80445224 2.3628819
-0.63415211 0.66252285 1.5702833
-0.80919003 0.84339809 1.6224493
-0.92403102 0.9614526 1.523909
-0.91780657 0.94866925 1.3769339
-0.90112841 0.93046808 1.1268222
-0.88923365 0.9172383 0.92219275
-0.87700319 0.90400124 0.74585277
-0.8595317 0.88538343 0.58687764
-0.85594016 0.8810792 0.45100829
-0.83889335 0.86293566 0.31996405
-0.82630897 0.84940791 0.19933358
-0.91238409 0.9457103 1.2515441
-0.88911104 0.92063457 1.0154792
-0.8789925 0.90953201 0.82889187
-0.87173432 0.9010877 0.66703832
-0.85436338 0.88252544 0.51665181
-0.84222263 0.86938763 0.38266009
-0.82356286 0.84983605 0.25727049
-0.81714964 0.84264046 0.14102517
-0.015912805 0.030879108 2.5091779
-0.26804066 0.29181147 2.5194457
-0.337275 0.36275187 2.4048171
-0.50238335 0.53337568 2.3895943
-1.1352265 1.1973137 3.9465828
-0.60637182 0.6368041 1.6787275
-0.70198148 0.73521423 1.5655998
-0.85218745 0.89071715 1.5525217
-0.088435866 0.11288185 2.3205497
-0.16642092 0.19893049 2.3761902
-0.4167175 0.44620037 2.3881571
-0.61606538 0.65372628 2.4969664
-0.7647779 0.80712676 2.3628819
-0.63183558 0.6647324 1.5702833
-0.80000591 0.83967227 1.6104792
-0.92300981 0.96712488 1.5275841
-0.91696006 0.9544391 1.3804384
-0.90057296 0.93641347 1.1299607
-0.88892645 0.9233492 0.92493427
-0.87691551 0.91024733 0.74817157
-0.85965335 0.89171594 0.58875066
-0.85618985 0.887514 0.45241833
-0.83928776 0.86939287 0.32089669
-0.82679892 0.85586882 0.19978066
-0.91166025 0.95158559 1.2548696
-0.88868964 0.92664993 1.0184224
-0.88178176 0.91881537 0.83395821
-0.87172776 0.9073981 0.6691364
-0.85455024 0.88890666 0.51829535
-0.84255254 0.87582517 0.38383242
-0.82059139 0.85270566 0.25727049
-0.81766874 0.84908634 0.14122671
-0.01580492 0.030934466 2.5091779
-0.26754344 0.29331991 2.524385
-0.3360067 0.36392701 2.4048171
-0.50051844 0.53512609 2.3895943
-1.1390747 1.2098041 3.9741976
-0.60743582 0.64239776 1.6875057
-0.70134681 0.7397024 1.5697327
-0.85128057 0.89601028 1.5563592
-0.088041298 0.11318986 2.3205497
-0.1657255 0.19951019 2.3761902
-0.41515744 0.44765228 2.3881571
-0.61731637 0.65965343 2.5110447
-0.76195586 0.80979145 2.3628819
-0.63130128 0.66883063 1.5745492
-0.78671628 0.83151478 1.5905291
-0.92196018 0.97280157 1.5312593
-0.91854614 0.9627949 1.3874475
-0.90267503 0.94518119 1.1362376
-0.8885873 0.92946899 0.92767572
-0.87679499 0.91650373 0.75049037
-0.85974127 0.89806008 0.59062368
-0.85640514 0.89396137 0.45382836
-0.83964735 0.87586343 0.32182932
-0.82380635 0.85874963 0.19978066
-0.91347992 0.96017247 1.2615205
-0.89102441 0.93560058 1.0243087
-0.88154304 0.92500854 0.83649141
-0.87168777 0.91371942 0.67123443
-0.85470277 0.89529979 0.51993883
-0.8428477 0.88227552 0.38500473
-0.82103121 0.85914505 0.25796115
-0.81815284 0.85554606 0.14142823
-0.015696842 0.030989446 2.5091779
-0.26651794 0.29425204 2.524385
-0.33473429 0.36509767 2.4048171
-0.499663 0.53796393 2.394366
-1.136179 1.2151999 3.9788003
-0.60846806 0.64800644 1.6962838
-0.69876051 0.74214607 1.5697327
-0.84814775 0.89897627 1.5563592
-0.087645657 0.1134965 2.3205497
-0.16536549 0.20050015 2.3811617
-0.41359231 0.44909871 2.3881571
-0.61970788 0.66686159 2.5298157
-0.75912452 0.81244618 2.3628819
-0.62896281 0.67103022 1.5745492
-0.77761966 0.82766718 1.578559
-0.92088217 0.97848284 1.5349344
-0.91763234 0.96858442 1.3909521
-0.90204853 0.95115072 1.139376
-0.88533747 0.93256509 0.92767572
-0.87664145 0.92277044 0.75280917
-0.85979521 0.90441561 0.59249669
-0.85327935 0.8969453 0.45382836
-0.83658487 0.87878901 0.32182932
-0.8242386 0.86522579 0.20022772
-0.91268671 0.96606946 1.2648461
-0.89053041 0.94164193 1.0272518
-0.88127184 0.93121123 0.83902454
-0.87161416 0.9200514 0.67333251
-0.85482115 0.90170485 0.52158237
-0.84310812 0.88873863 0.38617706
-0.82143599 0.86559778 0.25865185
-0.81860167 0.86201942 0.14162977
-0.015588573 0.031044049 2.5091779
-0.26548916 0.29518056 2.524385
-0.33345786 0.36626387 2.4048171
-0.49778208 0.5397048 2.394366
-1.1345886 1.2220223 3.9880056
-0.60946858 0.65363026 1.705062
-0.69616568 0.74458069 1.5697327
-0.84500456 0.90193141 1.5563592
-0.087248944 0.11380174 2.3205497
-0.16466461 0.20107616 2.3811617
-0.41202214 0.45053968 2.3881571
-0.62088645 0.67282587 2.5438941
-0.75628394 0.81509107 2.3628819
-0.62661666 0.67322159 1.5745492
-0.76239324 0.81715614 1.5546188
-0.91977572 0.98416835 1.5386096
-0.91913283 0.97697675 1.3979613
-0.90405977 0.95996088 1.1456529
-0.88494503 0.93869239 0.93041718
-0.87645471 0.92904717 0.75512797
-0.85981536 0.91078246 0.59436977
-0.85343742 0.90340549 0.4552384
-0.83688676 0.88527358 0.32276195
-0.82121342 0.86809766 0.20022772
-0.91186351 0.97197258 1.2681715
-0.89000499 0.94769126 1.030195
-0.88096797 0.93742311 0.8415578
-0.87150699 0.92639405 0.67543054
-0.85490519 0.90812165 0.52322584
-0.8433336 0.89521426 0.38734937
-0.82180572 0.87206393 0.25934252
-0.81901526 0.86850637 0.14183129
-0.015480114 0.031098275 2.5091779
-0.2644572 0.29610547 2.524385
-0.33217731 0.36742562 2.4048171
-0.49589515 0.54143906 2.394366
-0.61043715 0.6592688 1.7138401
-0.69356239 0.74700618 1.5697327
-0.84185112 0.90487558 1.5563592
-0.086851172 0.1141056 2.3205497
-0.16396171 0.20164971 2.3811617
-0.41129163 0.45290607 2.3929965
-0.62436223 0.68135166 2.5673578
-0.75343412 0.81772608 2.3628819
-0.62426281 0.67540485 1.5745492
-0.76158392 0.82202297 1.5586089
-0.91864067 0.98985797 1.5422847
-0.91815144 0.98278522 1.4014658
-0.90336186 0.96595377 1.1487914
-0.88452065 0.94482839 0.93315864
-0.87320638 0.93210089 0.75512797
-0.85980147 0.91716045 0.59624279
-0.85356075 0.90987766 0.45664841
-0.83715355 0.8917709 0.32369456
-0.82158786 0.87458855 0.2006748
-0.91101015 0.97788167 1.271497
-0.89220482 0.9567045 1.0360813
-0.88063151 0.94364429 0.844091
-0.87136614 0.93274707 0.67752856
-0.85495472 0.91454989 0.52486938
-0.84352416 0.90170217 0.3885217
-0.82214028 0.87854302 0.26003322
-0.81939346 0.87500662 0.14203283
-0.015371467 0.031152122 2.5091779
-0.26290703 0.29644495 2.5194457
-0.33089274 0.3685829 2.4048171
-0.4950062 0.54427141 2.3991382
-0.60975295 0.66315883 1.7182292
-0.69095063 0.74942267 1.5697327
-0.83868736 0.90780866 1.5563592
-0.086452335 0.11440808 2.3205497
-0.16325682 0.20222081 2.3811617
-0.40970817 0.454339 2.3929965
-0.62430239 0.68608004 2.5767434
-0.75057513 0.82035106 2.3628819
-0.62013817 0.67565823 1.5702833
-0.75870991 0.82467639 1.5586089
-0.91517985 0.99305856 1.5422847
-0.91956598 0.99121332 1.4084748
-0.90263307 0.97195339 1.1519299
-0.88406408 0.95097274 0.93590009
-0.87296468 0.93838674 0.75744677
-0.85975355 0.92354947 0.59811586
-0.85364926 0.91636163 0.45805845
-0.83738512 0.89828086 0.32462719
-0.82192689 0.88109267 0.20112188
-0.91012657 0.9837966 1.2748226
-0.89160621 0.96277875 1.0390246
-0.8831923 0.95303643 0.84915733
-0.8711915 0.9391104 0.67962664
-0.85818249 0.92445046 0.5281564
-0.84367949 0.90820229 0.38969401
-0.82243955 0.8850351 0.26072389
-0.81633413 0.8778615 0.14203283
-0.015262632 0.031205587 2.5091779
-0.26187062 0.29736087 2.5194457
-0.32960412 0.36973569 2.4048171
-0.49310333 0.54599601 2.3991382
-0.61066371 0.66882104 1.7270075
-0.68833041 0.75182992 1.5697327
-0.83551341 0.91073072 1.5563592
-0.086052455 0.11470915 2.3205497
-0.16254994 0.20278947 2.3811617
-0.40811974 0.45576638 2.3929965
-0.62306041 0.68953574 2.5814362
-0.74770695 0.82296604 2.3628819
-0.61777592 0.67781878 1.5702833
-0.75582659 0.82731974 1.5586089
-0.91399652 0.99874818 1.5459599
-0.92093271 0.99966311 1.415484
-0.90451211 0.98082113 1.1582067
-0.88357532 0.95712537 0.93864155
-0.8726896 0.94468224 0.75976557
-0.85967141 0.92994922 0.59998888
-0.85370278 0.92285722 0.45946848
-0.8375814 0.90480328 0.32555979
-0.82223058 0.88760972 0.20156896
-0.91173869 0.99246711 1.2814735
-0.89097595 0.96886057 1.0419677
-0.88277912 0.95928562 0.85169047
-0.870983 0.9454838 0.68172467
-0.85815084 0.93091244 0.52979988
-0.84379977 0.9147144 0.39086631
-0.82606167 0.89517915 0.26210526
-0.81665421 0.88437611 0.14223436
-0.01515361 0.031258672 2.5091779
-0.26083103 0.29827315 2.5194457
-0.3283115 0.37088397 2.4048171
-0.49119443 0.54771388 2.3991382
-0.65925753 0.73015672 2.3771222
-0.60993379 0.672723 1.7313966
-0.68570185 0.75422806 1.5697327
-0.83232927 0.91364163 1.5563592
-0.085821196 0.11524238 2.3255413
-0.16184109 0.20335563 2.3811617
-0.40652633 0.45718819 2.3929965
-0.61834526 0.6891371 2.5720506
-0.74482977 0.82557106 2.3628819
-0.6154061 0.67997104 1.5702833
-0.75090969 0.82772118 1.5546188
-0.91278452 1.0044416 1.5496351
-0.9222517 1.0081346 1.422493
-0.90371144 0.98684311 1.1613452
-0.88587999 0.96636862 0.94412446
-0.87238115 0.95098716 0.76208436
-0.85955501 0.93635958 0.60186189
-0.85372138 0.92936444 0.46087852
-0.83441794 0.90772146 0.32555979
-0.82249868 0.89413959 0.20201604
-0.91078496 0.99840212 1.2847991
-0.89303958 0.97793436 1.0478541
-0.88233316 0.96554363 0.85422367
-0.87074065 0.95186722 0.68382275
-0.85808462 0.9373855 0.53144342
-0.84388489 0.92123848 0.39203864
-0.82627755 0.90170836 0.26279593
-0.81693864 0.89090359 0.14243589
-0.015044406 0.031311382 2.5091779
-0.25978827 0.29918182 2.5194457
-0.32701486 0.37202772 2.4048171
-0.48927954 0.54942513 2.3991382
-0.65800869 0.73390824 2.3817246
-0.61078638 0.67840821 1.7401747
-0.68306494 0.75661701 1.5697327
-0.829135 0.91654146 1.5563592
-0.085418411 0.11554125 2.3255413
-0.16113026 0.20391932 2.3811617
-0.40492797 0.45860445 2.3929965
-0.61364043 0.68871403 2.562665
-0.74194348 0.82816589 2.3628819
-0.61302882 0.68211508 1.5702833
-0.74801582 0.83033729 1.5546188
-0.91154391 1.0101388 1.5533104
-0.92112488 1.0139874 1.4259976
-0.90287977 0.9928714 1.1644837
-0.88531595 0.97254717 0.94686598
-0.8720392 0.95730132 0.76440316
-0.86252731 0.94620657 0.60560799
-0.85693765 0.93942702 0.46369857
-0.83455592 0.91425657 0.32649243
-0.8260898 0.90435898 0.2029102
-0.91230756 1.0071099 1.29145
-0.89233571 0.98404008 1.0507972
-0.88185418 0.9718101 0.85675687
-0.87046415 0.95826024 0.68592077
-0.85798353 0.94386935 0.5330869
-0.8439346 0.92777425 0.39321095
-0.82645774 0.90824986 0.26348662
-0.81382382 0.89374977 0.14243589
-0.014935017 0.031363703 2.5091779
-0.25874236 0.30008683 2.5194457
-0.32571426 0.37316695 2.4048171
-0.4883472 0.55224818 2.4039102
-0.65544289 0.73620069 2.3817246
-0.61001056 0.68232179 1.7445638
-0.68041968 0.75899673 1.5697327
-0.8259306 0.91943002 1.5563592
-0.085014574 0.11583871 2.3255413
-0.16041748 0.20448054 2.3811617
-0.40332469 0.46001512 2.3929965
-0.60780299 0.68697393 2.5485868
-0.74049479 0.83237737 2.367383
-0.61064404 0.68425083 1.5702833
-0.74511284 0.83294326 1.5546188
-0.91027468 1.0158395 1.5569855
-0.92235702 1.022493 1.4330066
-0.902017 0.9989059 1.1676221
-0.88752353 0.98183566 0.95234889
-0.87166393 0.96362472 0.76672196
-0.86233014 0.95264864 0.607481
-0.85687369 0.94596797 0.4651086
-0.8346585 0.92080373 0.32742503
-0.82627392 0.91092575 0.20335729
-0.91378033 1.0158404 1.2981011
-0.89430457 0.99315649 1.0566835
-0.88134211 0.97808492 0.85929
-0.87015373 0.96466309 0.68801886
-0.85468358 0.94685858 0.5330869
-0.84394902 0.93432152 0.39438328
-0.82660234 0.91480345 0.26417729
-0.81404984 0.90029085 0.14263742
-0.014835698 0.031458057 2.5141776
-0.25769329 0.30098817 2.5194457
-0.32440969 0.37430164 2.4048171
-0.48641655 0.55394948 2.4039102
-0.65157533 0.73702025 2.3771222
-0.6092149 0.68623823 1.7489529
-0.67776614 0.7613672 1.5697327
-0.82271618 0.92230755 1.5563592
-0.084609702 0.11613476 2.3255413
-0.1600285 0.20546119 2.3861334
-0.40171647 0.46142018 2.3929965
-0.60312384 0.68649811 2.5392013
-0.73758471 0.83495706 2.367383
-0.6099813 0.68833029 1.5745492
-0.74220079 0.83553916 1.5546188
-0.90897661 1.0215435 1.5606607
-0.92354089 1.0310192 1.4400158
-0.90372151 1.0078444 1.1738991
-0.88688385 0.98803949 0.95509034
-0.87421513 0.97325271 0.77135956
-0.86209857 0.95910072 0.60935402
-0.85677445 0.95251989 0.46651864
-0.83801186 0.93101376 0.32929027
-0.82642204 0.91750473 0.20380437
-0.91271603 1.0218086 1.3014265
-0.89352638 0.99928534 1.0596267
-0.88079697 0.98436809 0.8618232
-0.86980921 0.9710753 0.69011688
-0.85452503 0.95335263 0.53473043
-0.84392804 0.94088018 0.39555559
-0.82671124 0.92136919 0.26486799
-0.81757766 0.91056156 0.14304048
-0.014725799 0.031509649 2.5141776
-0.25664106 0.30188584 2.5194457
-0.32310113 0.37543178 2.4048171
-0.4844799 0.55564398 2.4039102
-0.65028733 0.74075854 2.3817246
-0.61156636 0.69375098 1.7621201
-0.67510432 0.76372844 1.5697327
-0.8173666 0.92277426 1.5525217
-0.084203802 0.1164294 2.3255413
-0.15931033 0.20601855 2.3861334
-0.39928168 0.46186835 2.3881571
-0.59958959 0.6872986 2.5345085
-0.73466569 0.83752668 2.367383
-0.60757488 0.69045532 1.5745492
-0.73927963 0.83812481 1.5546188
-0.90540516 1.0247102 1.5606607
-0.92230642 1.0369015 1.4435203
-0.9027862 1.0138999 1.1770375
-0.88899392 0.99737233 0.96057326
-0.87376112 0.97960436 0.77367836
-0.86183244 0.96556288 0.6112271
-0.8566398 0.95908248 0.46792868
-0.83803046 0.93759584 0.3302229
-0.82653421 0.92409569 0.20425145
-0.91409868 1.0305752 1.3080776
-0.89540005 1.0084435 1.065513
-0.88308191 0.99388182 0.86688954
-0.87244666 0.98088819 0.69431299
-0.85433149 0.95985711 0.53637397
-0.8438713 0.94744992 0.39672789
-0.82678425 0.92794669 0.26555866
-0.81771898 0.91713887 0.14324202
-0.01461572 0.031560864 2.5141776
-0.25558573 0.30277985 2.5194457
-0.32178867 0.37655732 2.4048171
-0.48156071 0.55620301 2.3991382
-0.64769757 0.74302399 2.3817246
-0.61229545 0.69948608 1.7708982
-0.67057818 0.76396525 1.5655998
-0.81414062 0.92562175 1.5525217
-0.083796874 0.11672261 2.3255413
-0.15859021 0.2065734 2.3861334
-0.39766705 0.46325931 2.3881571
-0.59492755 0.68677825 2.5251229
-0.73173773 0.84008604 2.367383
-0.60687685 0.69453603 1.5788151
-0.73634958 0.84070027 1.5546188
-0.90182281 1.0278643 1.5606607
-0.92340279 1.0454607 1.4505293
-0.90439785 1.0228773 1.1833144
-0.88827825 1.0036006 0.96331471
-0.87327325 0.98596454 0.77599716
-0.86153162 0.97203475 0.61310011
-0.85646981 0.96565586 0.46933872
-0.83801329 0.94418937 0.33115551
-0.82661051 0.93069869 0.20469853
-0.91296351 1.0365617 1.311403
-0.89454746 1.0145948 1.0684562
-0.88245916 1.000191 0.86942273
-0.87202168 0.98732936 0.69641101
-0.85410291 0.96637177 0.53801745
-0.84377909 0.95403075 0.39790022
-0.82682145 0.93453598 0.26624933
-0.81782436 0.92372841 0.14344354
-0.014505464 0.031611688 2.5141776
-0.25452727 0.30367017 2.5194457
-0.3204723 0.37767825 2.4048171
-0.47961625 0.55788058 2.3991382
-0.64510006 0.74528033 2.3817246
-0.61770475 0.71065819 1.7928436
-0.6679073 0.76630139 1.5655998
-0.81090462 0.92845798 1.5525217
-0.08322417 0.11677736 2.3205497
-0.15786816 0.20712572 2.3861334
-0.39604753 0.46464458 2.3881571
-0.59140158 0.68754232 2.5204303
-0.72880083 0.84263515 2.367383
-0.6044488 0.69665021 1.5788151
-0.73341048 0.84326547 1.5546188
-0.89600259 1.0284498 1.5569855
-0.92445058 1.0540402 1.4575385
-0.90338969 1.028953 1.1864529
-0.8902902 1.012977 0.96879768
-0.87567723 0.99565971 0.78063476
-0.8611961 0.97851628 0.61497313
-0.85626429 0.97223955 0.47074872
-0.83796024 0.95079416 0.33208814
-0.82665062 0.93731338 0.2051456
-0.9142555 1.0453635 1.318054
-0.89632523 1.0237936 1.0743425
-0.88464367 1.0097501 0.87448907
-0.87455481 0.99719173 0.70060712
-0.85383928 0.97289658 0.53966099
-0.84365112 0.96062243 0.39907253
-0.8268227 0.94113678 0.26694003
-0.81789368 0.93032962 0.14364508
-0.01439503 0.031662129 2.5141776
-0.25346574 0.30455679 2.5194457
-0.31980759 0.3795737 2.4097126
-0.47766596 0.55955136 2.3991382
-0.64249462 0.7475276 2.3817246
-0.64651269 0.74907541 1.8806251
-0.66522837 0.76862812 1.5655998
-0.80765867 0.931283 1.5525217
-0.082816027 0.11706716 2.3205497
-0.1571442 0.20767552 2.3861334
-0.39442322 0.46602422 2.3881571
-0.586757 0.68697768 2.5110447
-0.72585499 0.84517401 2.367383
-0.60371542 0.70073199 1.583081
-0.73046249 0.84582043 1.5546188
-0.89018923 1.0290072 1.5533104
-0.92544979 1.0626396 1.4645475
-0.90490788 1.0379682 1.1927298
-0.89224756 1.0223796 0.97428066
-0.87511021 1.0020469 0.78295356
-0.86387634 0.98849803 0.61871922
-0.85602313 0.97883356 0.47215876
-0.83787119 0.95740998 0.33302075
-0.82665473 0.94393963 0.20559268
-0.91304904 1.0513676 1.3213795
-0.8953979 1.0299667 1.0772856
-0.88394284 1.0160844 0.87702227
-0.87404925 1.0036612 0.7027052
-0.85354036 0.97943109 0.54130447
-0.84348738 0.9672249 0.40024486
-0.82353246 0.94401717 0.26694003
-0.8179267 0.93694252 0.1438466
-0.01428442 0.031712182 2.5141776
-0.25240108 0.30543971 2.5194457
-0.3184807 0.38068771 2.4097126
-0.47570986 0.56121528 2.3991382
-0.63988131 0.74976581 2.3817246
-0.71090013 0.82953256 2.0693557
-0.66254133 0.77094549 1.5655998
-0.80440301 0.93409652 1.5525217
-0.082406893 0.11735553 2.3205497
-0.15641832 0.20822279 2.3861334
-0.39279407 0.4673982 2.3881571
-0.5832395 0.68770528 2.5063519
-0.72290039 0.84770256 2.367383
-0.60296088 0.704817 1.587347
-0.72750556 0.84836507 1.5546188
-0.88438296 1.0295365 1.5496351
-0.92406738 1.0685611 1.468052
-0.90382659 1.0440634 1.1958683
-0.8914116 1.0286479 0.97702211
-0.87450916 1.0084424 0.78527236
-0.86345887 0.99500889 0.62059224
-0.85574657 0.98543781 0.47356883
-0.8377462 0.96403682 0.33395338
-0.82662255 0.95057726 0.20603976
-0.91424996 1.0602039 1.3280305
-0.89707953 1.0392056 1.083172
-0.88602644 1.0256883 0.8820886
-0.8764776 1.0135721 0.70690131
-0.85320622 0.98597538 0.54294801
-0.84328783 0.97383779 0.40141717
-0.82347453 0.95062912 0.2676307
-0.81792355 0.94356698 0.14404814
-0.014173637 0.031761851 2.5141776
-0.25133336 0.30631888 2.5194457
-0.31714988 0.38179713 2.4097126
-0.47278702 0.56173009 2.394366
-0.63599747 0.7505042 2.3771222
-0.77938879 0.9159199 2.2712533
-0.66167259 0.77539432 1.5697327
-0.80113757 0.93689871 1.5525217
-0.081996746 0.11764247 2.3205497
-0.15569054 0.20876753 2.3861334
-0.39116019 0.46876645 2.3881571
-0.57861274 0.68709666 2.4969664
-0.71993697 0.8502208 2.367383
-0.60218519 0.70890534 1.5916129
-0.72453976 0.8508994 1.5546188
-0.8807838 1.0326173 1.5496351
-0.92497814 1.0771916 1.4750612
-0.90525085 1.0531156 1.2021452
-0.89327013 1.0380925 0.98250502
-0.8767646 1.0182025 0.78990996
-0.86300653 1.0015289 0.62246525
-0.85543406 0.9920519 0.47497886
-0.83758509 0.97067434 0.33488598
-0.826554 0.95722622 0.20648684
-0.91540033 1.0690613 1.3346816
-0.89607692 1.0453995 1.0861151
-0.88524729 1.0320469 0.8846218
-0.87589079 1.0200688 0.70899934
-0.85591424 0.99611092 0.54623502
-0.84305233 0.98046106 0.40258947
-0.82338035 0.95725203 0.26832137
-0.81788409 0.95020276 0.14424966
-0.014062681 0.031811133 2.5141776
-0.25026259 0.30719432 2.5194457
-0.31581524 0.38290188 2.4097126
-0.47082338 0.56337702 2.394366
-0.6333738 0.75271964 2.3771222
-0.80246115 0.94973737 2.3458676
-0.65896195 0.77769923 1.5697327
-0.79786223 0.93968952 1.5525217
-0.081585586 0.11792797 2.3205497
-0.15496086 0.20930971 2.3861334
-0.38952148 0.47012898 2.3881571
-0.57510412 0.68778807 2.4922736
-0.71556401 0.8510623 2.3628819
-0.60306954 0.7149905 1.6001447
-0.72156519 0.8534233 1.5546188
-0.87498301 1.0330983 1.5459599
-0.92352617 1.0831276 1.4785657
-0.90409607 1.0592297 1.2052836
-0.89235723 1.0443833 0.98524648
-0.87608379 1.0246238 0.79222876
-0.86553305 1.0115803 0.62621135
-0.85508585 0.99867582 0.4763889
-0.8373878 0.9773224 0.33581862
-0.82320768 0.9601056 0.20648684
-0.91649991 1.0779394 1.3413326
-0.89766175 1.0546774 1.0920014
-0.88443446 1.0384126 0.887155
-0.87526923 1.0265737 0.71109742
-0.85549688 1.0026851 0.5478785
-0.84278077 0.9870944 0.4037618
-0.82646608 0.96765149 0.26970273
-0.81780821 0.95684975 0.1444512
-0.013951555 0.031860031 2.5141776
-0.24918874 0.30806601 2.5194457
-0.31447673 0.38400191 2.4097126
-0.46790108 0.56386811 2.3895943
-0.63074255 0.75492597 2.3771222
-0.8006801 0.95436752 2.3502567
-0.65624326 0.77999473 1.5697327
-0.79457724 0.94246888 1.5525217
-0.08117345 0.11821204 2.3205497
-0.15422928 0.20984936 2.3861334
-0.38787806 0.47148579 2.3881571
-0.57049561 0.68713552 2.482888
-0.71258891 0.8535549 2.3628819
-0.60224438 0.71909088 1.6044106
-0.7185818 0.85593683 1.5546188
-0.87137145 1.0361463 1.5459599
-0.92434824 1.0917885 1.4855748
-0.9054262 1.068318 1.2115605
-0.89141119 1.0506804 0.987988
-0.87823558 1.0344296 0.79686636
-0.86499828 1.0181285 0.62808436
-0.85159463 1.0016545 0.4763889
-0.83715439 0.98398089 0.33675122
-0.82307947 0.96676517 0.20693392
-0.91514009 1.0839851 1.344658
-0.89658368 1.0608916 1.0949446
-0.8835879 1.0447851 0.88968813
-0.87461299 1.0330867 0.7131955
-0.85504401 1.0092682 0.54952204
-0.84247321 0.99373782 0.40493411
-0.82628632 0.97430724 0.2703934
-0.81769586 0.96350771 0.14465272
-0.013840257 0.031908534 2.5141776
-0.24762593 0.30832767 2.5145066
-0.31377625 0.38588768 2.4146075
-0.46592993 0.56549793 2.3895943
-0.62810349 0.75712305 2.3771222
-0.79734391 0.95715666 2.3502567
-0.65351659 0.78228068 1.5697327
-0.79128259 0.94523674 1.5525217
-0.080760315 0.11849467 2.3205497
-0.15349583 0.21038644 2.3861334
-0.3862299 0.47283688 2.3881571
-0.56589872 0.68645918 2.4735024
-0.7096051 0.85603708 2.3628819
-0.60306531 0.7251997 1.6129426
-0.71558958 0.85843992 1.5546188
-0.86774939 1.0391816 1.5459599
-0.92512101 1.1004683 1.492584
-0.90670371 1.0774285 1.2178375
-0.89312607 1.0601816 0.99347091
-0.87747449 1.0408758 0.79918516
-0.86442822 1.0246853 0.62995738
-0.85118741 1.0082866 0.47779894
-0.84005445 0.99440205 0.33861646
-0.8229149 0.97343546 0.207381
-0.91614783 1.092896 1.3513091
-0.89807135 1.0702075 1.1008309
-0.8827076 1.0511644 0.89222133
-0.8768422 1.0430816 0.71739161
-0.85759526 1.019474 0.55280906
-0.84525967 1.0041097 0.40727875
-0.82607001 0.9809736 0.2710841
-0.8175469 0.97017652 0.14485426
-0.013720024 0.03191391 2.5091779
-0.24654816 0.30919015 2.5145066
-0.31306651 0.38777328 2.419503
-0.46395317 0.56712091 2.3895943
-0.62545681 0.75931096 2.3771222
-0.7955243 0.96177965 2.3546457
-0.65078193 0.7845571 1.5697327
-0.7900269 0.95045805 1.5563592
-0.080346204 0.11877584 2.3205497
-0.15276051 0.21092094 2.3861334
-0.38457704 0.47418219 2.3881571
-0.56022078 0.68442369 2.4594243
-0.7052294 0.8568278 2.3583806
-0.60385078 0.73132282 1.6214744
-0.71258873 0.86093253 1.5546188
-0.86411661 1.0422044 1.5459599
-0.92584431 1.1091666 1.499593
-0.90792865 1.0865606 1.2241144
-0.89210266 1.0665002 0.99621236
-0.87952244 1.0507263 0.80382276
-0.863823 1.0312504 0.63183039
-0.85074419 1.014928 0.47920895
-0.83973503 1.0010918 0.33954909
-0.82271367 0.98011637 0.20782807
-0.9171043 1.1018269 1.3579601
-0.89950484 1.0795467 1.1067171
-0.88455409 1.0608611 0.89728767
-0.876104 1.0496204 0.71948963
-0.85705858 1.0260856 0.55445254
-0.84486675 1.0107836 0.40845108
-0.82581729 0.98765016 0.27177477
-0.81736135 0.97685593 0.14505579
-0.01360854 0.031961605 2.5091779
-0.24546739 0.31004891 2.5145066
-0.31234732 0.38965854 2.4243979
-0.46197069 0.56873691 2.3895943
-0.6228025 0.76148957 2.3771222
-0.79216218 0.96455079 2.3546457
-0.64803934 0.78682399 1.5697327
-0.78670442 0.95320994 1.5563592
-0.07993111 0.11905558 2.3205497
-0.15202333 0.2114529 2.3861334
-0.38291949 0.47552174 2.3881571
-0.55565208 0.68369627 2.4500387
-0.70223415 0.85928434 2.3583806
-0.60460091 0.73746032 1.6300063
-0.70957923 0.8634147 1.5546188
-0.86047339 1.0452143 1.5459599
-0.9265182 1.1178833 1.506602
-0.90910077 1.0957146 1.2303913
-0.89371753 1.0760411 1.0016953
-0.87868077 1.0571967 0.80614156
-0.86318237 1.0378237 0.63370347
-0.85333371 1.0252658 0.48202902
-0.83937919 1.0077916 0.3404817
-0.82566416 0.99063313 0.20872223
-0.91800964 1.1107779 1.364611
-0.89830738 1.0857943 1.1096603
-0.88359457 1.0672629 0.89982086
-0.87533087 1.0561666 0.72158772
-0.85950065 1.0363407 0.55773956
-0.84443754 1.0174669 0.40962341
-0.82552797 0.99433696 0.27246544
-0.81713909 0.98354578 0.14525732
-0.013488424 0.031966113 2.504178
-0.24438362 0.31090385 2.5145066
-0.31225243 0.39234066 2.4341886
-0.45904583 0.56918383 2.3848221
-0.62014061 0.76365894 2.3771222
-0.78879046 0.96731007 2.3546457
-0.64528888 0.78908128 1.5697327
-0.78337228 0.95595026 1.5563592
-0.07951504 0.11933387 2.3205497
-0.15128431 0.21198227 2.3861334
-0.38125727 0.47685546 2.3881571
-0.55001187 0.68160212 2.4359603
-0.69923043 0.86173034 2.3583806
-0.60531545 0.74361181 1.6385381
-0.70656097 0.86588633 1.5546188
-0.85681975 1.0482116 1.5459599
-0.92487645 1.1238645 1.5101067
-0.90774518 1.1018854 1.2335297
-0.89527649 1.0856063 1.0071782
-0.88062406 1.0670907 0.81077915
-0.86250633 1.044405 0.63557649
-0.85280544 1.0319359 0.48343906
-0.84211731 1.0182863 0.34234694
-0.82537621 0.99734575 0.20916931
-0.91649514 1.1168619 1.3679365
-0.89964306 1.0951703 1.1155467
-0.88533843 1.077001 0.9048872
-0.87740642 1.0662247 0.72578382
-0.85887957 1.0429798 0.55938309
-0.84706289 1.0279105 0.41196805
-0.82520193 1.0010337 0.27315614
-0.81688005 0.990246 0.14545885
-0.013376758 0.032012999 2.504178
-0.24329688 0.311755 2.5145066
-0.31277335 0.3958261 2.4488742
-0.45705622 0.57078272 2.3848221
-0.61869717 0.76734 2.3817246
-0.78540915 0.97005749 2.3546457
-0.64253056 0.79132897 1.5697327
-0.78003061 0.9586789 1.5563592
-0.079098001 0.1196107 2.3205497
-0.15084969 0.21294533 2.3911047
-0.37959042 0.47818342 2.3881571
-0.54439312 0.67947698 2.4218822
-0.69621819 0.86416584 2.3583806
-0.6059944 0.74977732 1.6470701
-0.70353419 0.86834747 1.5546188
-0.85315549 1.0511961 1.5459599
-0.92546058 1.1326095 1.5171157
-0.90882188 1.1110731 1.2398067
-0.89677966 1.0951954 1.0126611
-0.87970138 1.0735847 0.81309795
-0.86473435 1.054579 0.63932252
-0.85528404 1.0423235 0.4862591
-0.84167498 1.0250162 0.34327957
-0.82505149 1.0040684 0.20961639
-0.91730767 1.1258438 1.3745875
-0.89836937 1.1014363 1.1184899
-0.88702512 1.0867642 0.90995359
-0.87655073 1.0727956 0.72788185
-0.86121178 1.0532831 0.56267005
-0.84654766 1.0346229 0.41314036
-0.82483917 1.0077401 0.27384681
-0.81658411 0.99695641 0.14566039
-0.013264931 0.032059498 2.504178
-0.24220717 0.31260237 2.5145066
-0.31390172 0.40012142 2.4684551
-0.45506102 0.5723747 2.3848221
-0.61601484 0.76949495 2.3817246
-0.78201813 0.97279322 2.3546457
-0.63976437 0.79356694 1.5697327
-0.77667946 0.96139586 1.5563592
-0.078680001 0.11988608 2.3205497
-0.15010545 0.21347059 2.3911047
-0.37791893 0.47950548 2.3881571
-0.53879589 0.67732102 2.4078038
-0.69455707 0.86829102 2.3628819
-0.60500556 0.75392228 1.651336
-0.70049882 0.87079793 1.5546188
-0.84948099 1.0541676 1.5459599
-0.92599481 1.1413721 1.5241249
-0.90739173 1.1172602 1.2429451
