# .PCD v0.7 - Point Cloud Data file format
VERSION 0.7
FIELDS x y z
SIZE 4 4 4
TYPE F F F
COUNT 1 1 1
WIDTH 1602
HEIGHT 1
VIEWPOINT 0 0 0 1 0 0 0
POINTS 1602
DATA ascii
5.6670041 11.999573 7.8837953
5.0049839 10.61216 5.5114417
6.330595 13.434994 5.2581758
7.6581645 16.267099 4.4271555
6.4877505 13.7872 2.2174206
8.4299688 17.930851 0.892937
0.12310698 0.099117957 16.703636
2.1827271 4.3939185 23.610941
3.2128038 6.5789504 23.453131
4.3891735 9.0676727 23.792667
5.5586257 11.545091 23.549509
4.3140564 8.9922667 14.720776
4.5093336 9.4245481 12.585346
0.57548004 0.92775142 18.718147
2.5168202 5.0974364 21.924913
3.1755931 6.5084486 19.747574
5.0151391 10.351555 23.847178
4.0402722 8.3728609 15.27673
5.0027204 10.399728 15.356113
5.6057439 11.679322 14.122373
5.0957108 10.707563 11.732868
4.9801764 10.478908 9.4374552
7.0990028 14.957302 10.939509
9.9584703 21.076845 2.1857057
5.298028 11.107656 9.0444212
5.7904525 12.150943 7.9952545
5.0107918 10.529054 5.4778728
6.3754253 13.408549 5.2565322
6.5549545 13.80473 2.2236366
8.5053568 17.928398 0.8941462
0.12345222 0.098687626 16.703636
2.1980515 4.3862724 23.610941
3.2344296 6.5650172 23.443588
4.4405174 9.0926733 23.898525
5.5999379 11.527771 23.553898
4.3331585 8.9518251 14.679447
4.533843 9.3914309 12.562321
0.57764113 0.92402512 18.683207
2.5340381 5.0874949 21.920074
3.1975305 6.4957757 19.742882
5.0282979 10.287046 23.739147
4.0569162 8.3329134 15.229804
5.0429382 10.390334 15.368083
5.5947614 11.552893 13.993742
5.1207061 10.663992 11.704832
6.5567026 13.672768 12.309143
7.1240792 14.875862 10.898388
4.8760967 10.190969 6.0002532
10.031981 21.041954 2.1857057
6.3685527 13.215297 13.146858
5.3963656 11.21293 9.1444883
5.8814015 12.231667 8.0611172
5.076983 10.572867 5.5093436
6.4119782 13.364925 5.2483144
6.6052413 13.786231 2.2243273
8.5786715 17.921129 0.89515382
0.12379595 0.098256096 16.703636
2.2128899 4.3776655 23.606047
3.2566614 6.5523505 23.438814
4.4687762 9.0701075 23.880116
5.6411977 11.510304 23.558287
4.3619099 8.9315882 14.671181
4.5750189 9.3928375 12.585346
0.58040029 0.92127103 18.668232
2.5517812 5.0786185 21.920074
3.219418 6.4830294 19.73819
5.0478077 10.236241 23.662626
4.0606823 8.2672014 15.135953
5.0791764 10.372667 15.368083
5.7020268 11.670364 14.159125
5.1299105 10.588284 11.64175
6.6586385 13.761916 12.409574
4.7527461 9.8360052 7.2467551
4.9212694 10.193833 6.011847
10.133435 21.065147 2.1915178
6.4179091 13.199701 13.153509
5.4566593 11.237656 9.1798067
4.93998 10.182623 6.7362652
5.1514568 10.632685 5.5492067
6.7287593 13.919134 2.2485011
8.654213 17.918068 0.89636308
0.12410273 0.097797923 16.698637
2.2276947 4.3690071 23.601152
3.2781756 6.5382733 23.42927
4.509975 9.0736971 23.930742
5.6824036 11.492689 23.562675
4.4216666 8.9743662 14.766238
4.6798735 9.5235205 12.781058
0.58299214 0.91826558 18.648264
2.5689251 5.0685587 21.915236
3.2412553 6.4702086 19.733496
5.0679936 10.187372 23.590607
4.0964632 8.2669983 15.16155
5.1140184 10.352174 15.364093
4.8793645 9.8988867 12.04223
5.159008 10.554292 11.624227
5.1374464 10.524121 9.5253315
4.7302475 9.7028399 7.1617694
5.0867901 10.443419 6.1672068
6.8621893 14.12588 3.0730586
10.182985 20.980368 2.1866
6.4623008 13.173865 13.150183
5.6221075 11.476258 9.3887711
7.363368 15.043886 9.9280701
7.6179428 15.598421 6.1308789
6.7903304 13.922269 2.2526453
8.7407799 17.937153 0.8985799
0.12440784 0.097338796 16.693638
2.242466 4.3602986 23.596254
3.3050208 6.5347829 23.457903
4.5451231 9.0648842 23.949152
5.7235551 11.474928 23.567066
4.4642382 8.9815559 14.803435
4.7187829 9.5186129 12.796409
0.58572602 0.91549611 18.633289
2.5860298 5.0584416 21.910395
3.2630427 6.4573154 19.728804
5.0947356 10.152109 23.550097
4.1299605 8.2619791 15.178614
5.1514668 10.336955 15.368083
4.9229455 9.9000082 12.064281
5.1831999 10.510633 11.59619
5.4028707 10.970534 9.9427471
4.7751608 9.7087812 7.1782188
5.1290746 10.437527 6.1741633
6.8314672 13.938636 3.0385518
10.197025 20.823933 2.1745288
5.6692967 11.471058 9.4005432
7.4979072 15.184296 10.036997
7.6869545 15.601385 6.1423836
6.8388872 13.898481 2.2526453
8.8165627 17.933432 0.89978904
0.12474685 0.096903935 16.693638
2.2572038 4.3515406 23.59136
3.3312032 6.5298548 23.481762
4.5432305 8.9827166 23.774256
5.7646513 11.457018 23.571453
4.4968238 8.9684324 14.807568
0.58844769 0.91271883 18.618315
2.6030953 5.0482669 21.905556
3.2839956 6.442811 19.719419
5.1262088 10.126494 23.532091
4.1634712 8.2568264 15.195676
5.1888723 10.321604 15.372073
4.9544325 9.8767033 12.056931
5.2230344 10.498861 11.6032
5.5692906 11.209556 10.174993
4.8610616 9.7969322 7.2549791
5.0690665 10.225085 6.0605421
10.210098 20.667664 2.1624577
6.2522511 12.52378 12.548268
5.7093039 11.451199 9.4005432
4.9694543 9.9759922 6.6349378
6.8279095 13.754763 2.2339969
7.4606519 15.042579 0.77101082
0.12508436 0.096467897 16.693638
2.2723799 4.3436351 23.59136
3.3580744 6.5261507 23.510395
4.5470352 8.9128561 23.631578
5.8056931 11.438962 23.575844
4.5230217 8.9426365 14.791035
4.949698 9.8116722 13.233884
0.59115708 0.90993357 18.60334
2.6207011 5.0391493 21.905556
3.3056757 6.4297733 19.714725
5.1625152 10.110477 23.536592
4.1993628 8.2561922 15.221272
5.2262325 10.306115 15.376063
4.9536738 9.7897749 11.972402
5.2676477 10.496502 11.620723
5.3868928 10.748122 9.7764082
4.921432 9.8322535 7.2933602
5.0314155 10.060736 5.9747462
6.9110703 13.855438 3.031091
10.26663 20.600695 2.159328
6.2657003 12.441854 12.488409
5.7401605 11.413145 9.385828
4.9906979 9.9316216 6.6172056
7.3856974 14.761774 0.75952351
0.12542032 0.096030682 16.693638
2.2870526 4.3347759 23.586464
3.3994007 6.5501614 23.639238
4.5557709 8.8535004 23.516516
5.8455868 11.418627 23.575844
4.5184016 8.8566084 14.675313
5.0173512 9.8600388 13.322146
0.59385431 0.90714067 18.588366
2.6376908 5.0288572 21.900715
3.3265111 6.415132 19.705341
5.1977763 10.092396 23.536592
4.2257752 8.2368412 15.21274
5.2635479 10.290492 15.380053
4.886096 9.5731316 11.729841
10.463391 20.669298 22.845783
5.2926655 10.468733 9.5410242
5.0273404 9.9568539 7.3975358
5.1123939 10.134079 6.028079
6.5982428 13.102096 4.4019203
6.9660158 13.844394 3.0338886
7.3053522 14.531409 1.553089
6.2786536 12.359986 12.428551
5.8421421 11.515597 9.4858952
5.03508 9.9333649 6.6298714
5.3649364 10.59785 5.5785789
7.4449549 14.719405 5.8301163
7.43718 14.735904 0.75952351
0.12575477 0.095592305 16.693638
2.30217 4.326766 23.586464
3.4499342 6.5911541 23.830116
4.6100469 8.8826284 23.636181
5.8865085 11.40028 23.580233
4.5377016 8.8182621 14.638116
5.0517387 9.8424644 13.322146
0.59765458 0.90602529 18.608332
2.6552286 5.0196195 21.900715
3.348084 6.4019513 19.700647
5.2410021 10.089645 23.572603
4.2449131 8.2035112 15.178614
5.3021994 10.277411 15.388033
4.7984471 9.3209114 11.443178
10.535477 20.632647 22.845783
5.2902737 10.37391 9.4719782
5.0279074 9.8721762 7.3481894
5.1537642 10.128015 6.0350351
6.6461105 13.083261 4.4033303
7.3312554 14.456963 1.5481712
6.3251648 12.344641 12.435202
5.9541144 11.635465 9.6006784
5.3660493 10.495299 7.0123816
5.4307923 10.635646 5.6079516
7.62076 14.937299 5.9254403
7.4545531 14.624112 4.0496688
7.7650924 15.253022 0.78411031
0.12608768 0.095152751 16.693638
2.3177409 4.3196011 23.59136
3.4812834 6.5949121 23.887383
4.6718297 8.9253311 23.792667
5.9262667 11.379663 23.580233
7.3101745 14.084912 23.379303
0.60001266 0.90273261 18.583374
2.672143 5.0092115 21.895878
3.3696058 6.3886995 19.695955
5.2741694 10.067433 23.563601
4.2590423 8.1608982 15.127421
5.3422151 10.266861 15.400003
4.7872109 9.2198601 11.340273
10.66132 20.700373 22.961435
5.3264532 10.35538 9.4719782
5.0776224 9.8843203 7.370121
5.1971774 10.125727 6.0443106
6.6611142 13.000213 4.3835897
6.9931035 13.659875 3.0049775
6.3630743 12.312535 12.425224
6.0725555 11.765465 9.7242908
9.1460695 17.758265 9.3215046
7.7117467 14.986185 5.9550233
7.4922214 14.572067 4.0426354
7.7133121 15.021389 0.77483994
0.12638301 0.094687462 16.688637
2.3337741 4.3132758 23.601152
3.5119989 6.5972133 23.939873
4.7038689 8.910697 23.79727
5.9670668 11.361027 23.584621
7.3606005 14.061802 23.383436
4.927475 9.4375916 12.823272
0.6047703 0.90302879 18.633289
2.6896119 4.9998536 21.895878
3.3910754 6.3753743 19.691261
5.3133469 10.056661 23.581604
4.2923622 8.1552134 15.144485
5.3822212 10.256155 15.411973
4.7879105 9.1430283 11.26677
7.4045129 14.254433 15.864728
5.3536062 10.319449 9.4562864
5.1409483 9.922226 7.411243
5.592958 10.803826 6.4547381
7.5741224 14.643286 6.7491555
6.730679 13.023758 4.3990998
7.0227127 13.600464 2.9975164
10.240451 19.849026 2.0980783
6.4215465 12.320047 12.455153
6.1378508 11.790806 9.7625523
5.5645065 10.69852 7.1719718
7.545279 14.55014 4.0438075
9.3096724 17.975546 0.91026866
0.12671275 0.094245724 16.688637
2.345402 4.2988462 23.566885
3.5328879 6.5809689 23.925556
4.714747 8.8562841 23.696014
6.0078087 11.342245 23.58901
7.4109545 14.038512 23.387569
4.9753222 9.4486952 12.861648
0.60953724 0.90330279 18.683207
2.7070484 4.9904346 21.895878
3.4124932 6.3619781 19.686569
5.3473945 10.03613 23.577103
4.3195806 8.1378775 15.140221
5.4236269 10.247958 15.427934
4.8451276 9.1742239 11.325573
7.4542255 14.228498 15.864728
5.4004221 10.321392 9.4751167
5.1736164 9.9005156 7.4085016
5.7290483 10.972723 6.5660405
7.642345 14.649641 6.7641401
6.9800878 13.391541 4.5288229
7.0860271 13.606364 3.0040448
6.5183702 12.400011 12.558245
6.2297015 11.865935 9.8420172
5.6058226 10.686666 7.1770382
9.0844765 17.340199 9.1368761
9.3769894 17.951796 0.91067171
0.12704097 0.09380284 16.688637
2.3564665 4.2834959 23.527721
3.55797 6.5725346 23.939873
4.7289987 8.8087902 23.613169
6.0484924 11.323317 23.593399
7.4652023 14.022492 23.4041
4.9992542 9.4142847 12.838622
0.61398816 0.90307754 18.723141
2.725055 4.9820576 21.900715
3.4338586 6.3485093 19.681875
5.359726 9.975215 23.478075
4.3590379 8.1434431 15.178614
5.4650407 10.239596 15.443892
4.9504309 9.2948971 11.49463
7.5088439 14.211851 15.875241
5.4618483 10.350672 9.5190554
5.2022953 9.8712978 7.4002771
5.6145835 10.662608 6.3944492
7.7560329 14.741854 6.8184576
7.0513434 13.413803 4.5443335
7.7406626 14.75006 1.5884081
6.5668607 12.387078 12.568221
6.3070192 11.911989 9.8979368
5.6209173 10.625118 7.1491728
6.9674959 13.187195 6.9821758
6.5990052 12.51087 3.5021968
9.4465818 17.932217 0.9112764
0.12740393 0.093383014 16.693638
2.3714044 4.2752442 23.527721
3.5816061 6.5613852 23.944645
4.7532072 8.7802029 23.580952
6.0891171 11.304244 23.59779
7.5154357 13.998828 23.408234
4.9972835 9.331789 12.75036
2.7424288 4.9725151 21.900715
3.4551718 6.3349695 19.677183
5.3862171 9.9411335 23.442066
4.3923926 8.1373568 15.195676
5.5007505 10.220457 15.443892
4.9892626 9.2895069 11.509331
7.5500216 14.169816 15.857719
5.5930295 10.510219 9.6822548
5.1091638 9.6130772 7.2220821
5.5250335 10.404289 6.2530026
7.6039243 14.355286 3.175647
7.8480115 14.828588 1.5991381
6.6012583 12.347617 12.551594
6.3561773 11.904163 9.9097099
5.6072445 10.510348 7.0858436
6.9686675 13.07868 6.938117
8.1421452 15.293877 6.1193743
6.8663378 12.908303 3.617084
8.1918411 15.419604 0.79801595
0.12772912 0.09293773 16.693638
3.6023285 6.54492 23.93033
4.771657 8.7412643 23.521118
6.1296825 11.285025 23.602177
7.5588956 13.96261 23.391703
4.9947977 9.2494221 12.662097
2.7609916 4.9651093 21.910395
3.4772639 6.3228703 19.677183
5.413579 9.9088984 23.410559
4.4357333 8.1494646 15.246868
5.534956 10.198545 15.439903
5.0281167 9.2839584 11.524032
10.983831 20.442039 22.884335
5.6536098 10.535217 9.7230549
5.1387382 9.5878134 7.216599
5.5613174 10.38494 6.2530026
7.6771321 14.371984 3.1849732
7.8809657 14.765955 1.5955614
6.619513 12.278487 12.505036
6.3842773 11.856991 9.8891077
5.721508 10.63497 7.1821046
7.1539092 13.314141 7.0744905
8.2803602 15.423462 6.181828
6.9802833 13.012755 3.6522534
8.2597713 15.417338 0.79922515
0.12805276 0.092491306 16.693638
3.623704 6.5296955 23.920786
4.7870679 8.6971712 23.447477
6.170188 11.26566 23.606567
7.5900602 13.904031 23.337973
5.0147905 9.2094107 12.631396
2.7789209 4.9565377 21.915236
3.498477 6.3091846 19.672489
5.4145212 9.8289251 23.26652
6.766767 12.329306 23.074858
4.9954967 9.147336 11.377025
6.9250154 12.781011 14.364781
6.7240291 12.425574 11.474313
5.1960316 9.6139593 7.2494965
5.5554361 10.287508 6.2066264
7.7319117 14.353747 3.1868384
7.8144517 14.519097 1.5732074
6.648066 12.229062 12.478432
6.4371996 11.855947 9.9067669
5.8346539 10.755131 7.2758317
7.183043 13.257164 7.0577059
8.3296509 15.386159 6.1785407
6.8059692 12.582164 3.5408833
8.2802935 15.326877 0.79640371
0.12837483 0.09204375 16.693638
4.8164496 8.6787004 23.442875
6.2106323 11.24615 23.610956
7.600553 13.808425 23.222252
5.0453644 9.1890402 12.62756
2.7980611 4.9500895 21.929752
3.5204787 6.2969337 19.672489
5.4540825 9.8194799 23.289026
6.809763 12.305612 23.074858
5.3250518 9.6504736 14.669828
4.9701605 9.0259037 11.248394
7.1149268 13.022779 14.662669
6.7617683 12.391778 11.464898
5.3176022 9.7573118 7.370121
5.6400375 10.357533 6.2599592
6.6691761 12.166492 12.438526
5.8638859 10.719571 7.2656994
7.1814032 13.144387 7.0115485
8.3629436 15.319686 6.1637492
6.8707952 12.596734 3.5514343
8.1497145 14.960066 0.78088582
0.12869534 0.091595076 16.693638
3.4337616 6.0869117 22.388977
4.843853 8.6567211 23.42907
6.2510166 11.226495 23.615345
7.5776982 13.653865 23.007338
5.0867243 9.1881981 12.650583
2.8165679 4.9424763 21.939432
3.5424376 6.2846069 19.672489
5.5117278 9.8421688 23.388052
6.9365463 12.43208 23.356409
5.3557758 9.6265602 14.661848
5.0131569 9.0292482 11.27412
5.5927095 10.152236 11.470027
6.7993541 12.357869 11.455483
5.3556571 9.7460213 7.3756042
6.7322965 12.291727 2.7522376
8.0040808 14.625828 1.5897495
7.1155562 12.916504 6.9045482
6.9287782 12.598228 3.5584681
0.12901428 0.091145292 16.693638
3.4520361 6.0696988 22.36989
4.8692408 8.6312523 23.406055
6.2913384 11.206695 23.619734
7.6198163 13.617508 22.990805
2.8356819 4.935884 21.953949
3.5652061 6.2737036 19.677183
5.5621042 9.8513031 23.45557
7.0195398 12.478255 23.488653
5.3480692 9.5342216 14.550128
5.0578918 9.0353584 11.303522
5.6038694 10.089005 11.420963
6.8348966 12.320445 11.442929
5.3936973 9.7345819 7.3810868
6.0597935 10.945741 6.6356044
6.7751613 12.268152 2.7522376
8.0623035 14.610878 1.5910907
6.7775793 12.162037 12.481758
8.1925888 14.719275 12.34959
5.6368732 10.135869 6.9009213
7.2046757 12.970939 6.9465094
8.2442741 14.885325 0.78007972
0.12929484 0.090670958 16.688637
3.4732025 6.0576119 22.36989
4.8954763 8.6074095 23.387646
6.3315983 11.186749 23.624125
7.6908097 13.632492 23.061066
2.8547843 4.9292192 21.96847
3.5853679 6.2582259 19.667799
5.5953808 9.829936 23.451069
7.0772066 12.47863 23.535578
5.0960655 9.029458 11.318222
5.63731 10.06627 11.417459
8.245924 14.742366 13.702619
5.5214529 9.8836145 7.507194
6.0914869 10.912917 6.6286483
6.6348081 11.896012 5.5916214
8.236311 14.779555 5.0632253
6.7797079 12.17576 2.7373157
8.1132555 14.582646 1.5910907
6.8199916 12.138305 12.481758
8.2419395 14.687062 12.346646
5.701736 10.168772 6.9363861
7.2521262 12.94967 6.948607
8.2923193 14.819184 5.9993982
6.8244252 12.205903 3.4635105
0.12961057 0.090219073 16.688637
3.4965675 6.0493283 22.384207
4.9235487 8.5868797 23.378441
6.3717957 11.16666 23.628511
7.7439146 13.615347 23.077599
5.6366224 9.9345169 13.751948
2.8738742 4.9224806 21.982986
3.6106439 6.2516503 19.686569
5.6285758 9.8084564 23.446568
7.1220174 12.456115 23.539845
5.3831577 9.4416828 14.466338
5.127553 9.0116138 11.318222
5.6689072 10.04032 11.41045
8.2265921 14.588048 13.586494
5.5764399 9.900712 7.5346088
6.7183137 11.937768 7.2570429
6.7921782 12.078864 5.6871462
8.3113489 14.792538 5.0773258
6.798121 12.109185 2.7279894
8.0593462 14.367476 1.5718663
6.899127 12.179399 12.548268
8.2851954 14.644132 12.334875
5.7393179 10.152558 6.9389191
7.1477795 12.659487 6.8080382
8.3509579 14.802485 6.0043287
6.8622169 12.17354 3.4611657
7.671514 13.625872 0.72445714
0.1299247 0.089766107 16.688637
3.5154076 6.033217 22.36989
4.9554482 8.5730238 23.387646
6.4119296 11.146425 23.6329
7.8151898 13.629733 23.147858
5.7253752 10.009376 13.882423
2.89359 4.9167519 22.002344
3.6359174 6.2449737 19.705341
5.6518784 9.769906 23.401556
7.1641512 12.428918 23.535578
5.4596291 9.4985943 14.582047
5.1876554 9.0436535 11.3807
5.7321472 10.070061 11.466523
8.1947412 14.413746 13.451541
5.608901 9.8775511 7.5318675
6.8145947 12.010565 7.3150129
6.6696825 11.764712 5.5522876
6.886322 12.166607 2.7457092
8.1118994 14.343589 1.5723132
6.9082699 12.096882 12.488409
8.3322582 14.608101 12.328988
5.8323545 10.233584 7.0073152
7.1986609 12.646292 6.814332
8.3325386 14.650105 5.9550233
6.8854556 12.115705 3.4517872
7.7190304 13.59901 0.72445714
0.1302743 0.089335084 16.693638
3.5326657 6.0144734 22.346029
4.9873099 8.5590487 23.396849
6.4520006 11.126049 23.637291
7.854269 13.587751 23.12306
6.3383012 10.991704 15.267763
2.9126589 4.9098644 22.016863
3.6611884 6.2381964 19.724112
5.6969142 9.7689228 23.446568
7.2127337 12.412854 23.552641
5.5199451 9.5264091 14.653868
5.287077 9.1428804 11.527706
5.7974391 10.102573 11.526099
8.1869392 14.283746 13.357388
6.8564773 11.986704 7.3150129
6.7245111 11.765509 5.5635257
7.0163932 12.296089 2.7792833
8.0558558 14.129162 1.553089
7.5913019 13.185815 13.632381
5.8916645 10.254279 7.0351801
6.8835864 11.995199 6.4807415
8.3342991 14.534904 5.9205098
7.7019386 13.459244 0.71921742
0.13058534 0.088879801 16.693638
2.5154908 4.1837711 23.493456
3.5460334 5.9892612 22.298311
5.018146 8.543272 23.401453
6.4920073 11.105526 23.64168
7.898818 13.555389 23.114794
6.4297881 11.060956 15.3944
2.931715 4.902904 22.03138
3.686456 6.2313194 19.742882
5.736496 9.7583618 23.469074
7.2573376 12.389853 23.556908
5.9665551 10.214799 15.739155
5.3206668 9.1272984 11.531382
6.9559488 12.02394 13.730459
7.148191 12.371161 11.60299
5.8491092 10.135123 7.7566676
6.5508533 11.360213 6.9509616
6.8766327 11.934772 5.6534314
6.2997222 10.942329 3.8012462
8.2068758 14.277974 1.5714192
7.6110444 13.114026 13.585824
5.9252615 10.22992 7.0326471
6.968596 12.045739 6.5206046
8.384985 14.505723 5.9205098
6.153039 10.653116 3.0578885
7.7164187 13.376019 0.7165975
0.1308948 0.088423423 16.693638
2.5358849 4.1845431 23.547304
3.5462632 5.9422393 22.169466
5.0489321 8.5273848 23.406055
6.5331655 11.086925 23.650457
7.9603395 13.551999 23.156124
6.4618769 11.027382 15.379049
2.951407 4.8969464 22.050739
3.7117207 6.2243423 19.761654
5.7782927 9.7513876 23.500584
7.3031931 12.368937 23.565441
6.0480413 10.271806 15.858855
5.3576474 9.1174393 11.542408
6.8936758 11.820908 13.527195
7.1619449 12.295684 11.555914
5.8844519 10.114645 7.7566676
6.7351751 11.586209 7.1016831
6.9182515 11.910696 5.6534314
6.3402882 10.924422 3.8026562
8.3490458 14.408669 1.5879611
7.6492329 13.074488 13.572522
8.7111359 14.907419 12.65568
5.9631081 10.212898 7.0351801
7.262104 12.4526 6.7513905
8.4854946 14.562045 5.9550233
6.2195368 10.681979 3.0719564
7.735436 13.301496 0.71438062
0.13127722 0.088011302 16.703636
3.5400527 5.885056 22.002449
5.0786676 8.5097094 23.406055
6.5730495 11.066112 23.654848
8.0248013 13.553186 23.205719
6.5117416 11.024078 15.405911
2.9710934 4.8909116 22.070097
3.7369812 6.2172642 19.780426
5.8312731 9.762929 23.577103
7.3476586 12.34561 23.569706
6.0961637 10.271362 15.890777
5.2546744 8.8711672 11.255744
6.3619747 10.822199 12.416255
7.2127037 12.284034 11.568467
5.9260678 10.104863 7.7648921
6.6031265 11.268339 6.9231358
6.8731151 11.738452 5.5841293
6.4268317 10.985035 3.830857
8.3992901 14.379437 1.5879611
7.6474061 12.967303 13.489385
8.7692747 14.88737 12.664509
5.9003248 10.024842 6.9211869
7.2641263 12.35675 6.7136254
8.4956141 14.463118 5.9270835
6.2813902 10.702124 3.0836797
7.7969785 13.300273 0.71558982
0.13158363 0.087552525 16.703636
2.5532923 4.1476622 23.439608
3.5288424 5.8203301 21.806797
5.1093483 8.4936037 23.410658
6.6091766 11.03899 23.646069
8.1023464 13.575836 23.292511
2.9907734 4.8847985 22.089455
3.7622375 6.2100854 19.799194
5.8776679 9.763031 23.626616
7.3933911 12.324359 23.578238
6.1505437 10.28105 15.938656
5.2421603 8.7800016 11.163865
6.452436 10.888899 12.517887
7.2555385 12.258782 11.568467
5.9889674 10.130909 7.8005309
6.7122622 11.36346 6.9950185
6.89991 11.690435 5.5728912
6.4602633 10.954268 3.8280368
8.4645929 14.375777 1.5906435
7.7594008 13.052861 13.605777
8.7799149 14.787156 12.605645
5.8209052 9.8113995 6.7894621
9.266922 15.638412 8.4906759
7.8433585 13.272975 0.71558982
0.13188845 0.087092683 16.703636
2.5666809 4.1369939 23.429817
3.5429103 5.7977872 21.76862
5.136939 8.4723749 23.401453
6.640245 11.003549 23.619734
8.1845007 13.605343 23.391703
9.9433851 16.568371 23.211395
3.0104468 4.8786073 22.10881
3.7874892 6.2028055 19.817966
5.8846068 9.6977873 23.518587
7.4336681 12.294013 23.569706
5.4021344 8.9765978 11.435827
6.4501734 10.798951 12.440786
11.075295 18.56435 17.512705
6.1270361 10.282361 7.9321218
6.6453724 11.161067 6.886035
7.2891107 12.251947 5.848227
6.5033636 10.939898 3.830857
8.5782652 14.453204 1.6018205
7.8087549 13.032103 13.612428
8.7546768 14.628092 12.496748
5.7489185 9.6134348 6.6678691
8.334671 13.953903 7.6011014
7.7590313 13.000464 5.3584294
7.8347588 13.13775 3.780036
7.899868 13.262685 0.71639591
0.13215414 0.086609505 16.698637
2.5838053 4.1323261 23.454292
3.5443397 5.7548823 21.654093
5.1705575 8.4610605 23.419863
6.6537223 10.939379 23.531952
8.2377777 13.586315 23.408234
10.01775 16.560989 23.249771
3.0301132 4.8723388 22.12817
3.8127358 6.1954255 19.836739
5.9047933 9.6549025 23.464573
7.4656777 12.250172 23.535578
8.9906435 14.792993 22.997009
5.435194 8.9605846 11.439503
11.097907 18.455526 17.446796
6.1650429 10.264495 7.9348626
6.529283 10.879519 6.7283564
7.3437538 12.246307 5.8575921
8.6261082 14.4189 1.6013734
6.2404757 10.332831 10.832311
8.8933735 14.742807 12.62036
5.7668629 9.5674648 6.6501369
6.105628 10.141477 5.5596967
8.4713402 14.08202 5.8087511
7.8605371 13.076995 3.7706575
8.6588802 14.410821 2.4370568
7.9461155 13.235027 0.71639591
0.13245565 0.086147666 16.698637
2.5965858 4.1206975 23.439608
3.5392141 5.7018914 21.50139
5.2010851 8.4446239 23.424465
6.6843562 10.903835 23.505619
8.2983589 13.579088 23.445431
10.065485 16.509497 23.226746
0.80946523 1.0500944 22.766382
3.0497727 4.8659925 22.147528
3.8388867 6.1894116 19.860201
5.9396014 9.6360855 23.469074
7.4933786 12.199594 23.488653
9.0375032 14.753811 22.985039
5.4204631 8.866354 11.343948
5.9981346 9.8847418 11.441991
11.057351 18.243586 17.283598
6.2376485 10.303722 7.9814677
6.1384716 10.147877 6.2947412
7.3840599 12.216632 5.8557191
6.4233398 10.635535 3.7420247
8.6480989 14.34179 1.5964556
6.3638697 10.454504 10.981956
8.8607855 14.573524 12.502635
5.7867951 9.5251713 6.6349378
6.3693733 10.496465 5.7632074
8.5473747 14.096779 5.8268299
7.8431706 12.945547 3.7413495
8.7091303 14.380507 2.4370568
0.13268021 0.085640773 16.688637
2.6114995 4.1124682 23.444504
3.5480123 5.6717858 21.434582
5.2367129 8.4363766 23.452082
6.6682467 10.792826 23.316889
8.364893 13.581186 23.499159
10.094526 16.427837 23.161509
0.81649524 1.0515907 22.861225
3.0694246 4.8595681 22.166885
3.8641272 6.1818266 19.878973
5.9869862 9.6374836 23.523088
7.5194445 12.146751 23.437462
9.0968628 14.734994 23.00499
5.4780555 8.8906736 11.399076
5.9916668 9.796813 11.364891
6.282289 10.296165 7.992434
6.6327491 10.879059 6.7561822
7.4266582 12.190783 5.8557191
7.403275 12.161938 4.2750173
6.4081345 10.444957 10.995259
8.5251169 13.911819 11.964036
9.356493 15.298424 8.3773813
7.6903644 12.584065 5.2220182
7.8553805 12.864162 3.7261095
8.7386341 14.316205 2.4315314
10.912912 17.892271 0.93908757
0.13297834 0.085177109 16.688637
2.6252899 4.1024694 23.439608
3.5550513 5.639163 21.358229
6.6742311 10.718657 23.207161
8.4330273 13.585377 23.55702
10.084305 16.283501 23.008009
0.82158607 1.0505515 22.901157
3.0890691 4.853065 22.186241
3.8893619 6.1741414 19.897745
6.0148153 9.6073008 23.500584
7.5231442 12.058474 23.318016
9.1514263 14.708268 23.01297
5.5197873 8.8887777 11.421127
6.0164714 9.7606592 11.347368
11.190568 18.17589 17.293013
6.7750468 11.025679 6.860528
7.4449105 12.125278 5.8369889
7.3804598 12.02971 4.2383561
9.0445585 14.765176 1.6474226
6.456337 10.441579 11.015213
8.5587587 13.857903 11.943434
5.6652465 9.1800575 6.424684
6.4377346 10.444017 5.7590117
7.845685 12.738077 5.2959762
8.0046892 13.006382 3.7741745
8.7781754 14.268744 2.4287686
11.03286 17.947704 0.94352132
0.13327485 0.084712416 16.688637
2.6395943 4.0932803 23.439608
3.5603051 5.6040406 21.272333
4.542172 7.2047644 20.124456
6.7077856 10.689207 23.193993
8.4863672 13.565399 23.573551
10.090171 16.166628 22.892883
0.82041717 1.0415603 22.766382
3.1087053 4.8464847 22.205601
3.9145892 6.1663547 19.916513
6.054122 9.5954514 23.523088
7.5249319 11.968112 23.194304
9.209115 14.686444 23.028929
5.5399899 8.8522129 11.399076
6.0523868 9.7426262 11.350872
11.336033 18.269009 17.41855
5.953105 9.6051989 7.4934869
6.6502285 10.738338 6.6982121
7.4701133 12.071621 5.8238778
6.1180892 9.8944759 3.5093694
8.9801054 14.534384 3.335125
9.0960436 14.733514 1.6474226
6.4572005 10.361938 10.955354
5.6927023 9.1529045 6.4196177
7.8602152 12.662468 5.2762542
8.1550856 13.147715 3.8222396
8.8279295 14.238015 2.4287686
11.092812 17.904833 0.94331974
0.13356975 0.08424668 16.688637
2.6533117 4.0831881 23.434713
3.5661623 5.5702081 21.19121
4.5693889 7.192163 20.133661
6.7514586 10.67585 23.215939
8.5366697 13.540456 23.581818
10.139715 16.120457 22.877533
3.127651 4.8387704 22.220118
3.9407403 6.1599212 19.93998
6.0794034 9.5614014 23.491581
7.5485168 11.913135 23.138847
9.281251 14.687325 23.080801
5.5708566 8.8328209 11.399076
6.1469169 9.8181667 11.463017
11.434818 18.285431 17.471905
5.955584 9.5347099 7.4551063
6.3053594 10.102517 6.3202477
6.1424422 9.8567753 3.5037293
9.0281878 14.498777 3.3341923
6.4258146 10.231831 10.842286
9.2932272 14.814764 12.817553
5.8184862 9.2827339 6.523478
7.5942731 12.129871 6.7031355
6.3641229 10.172915 4.2654958
9.3165359 14.903819 4.3298531
8.8906956 14.22811 2.4322219
0.13390099 0.083801396 16.693638
2.6675487 4.0739017 23.434713
3.5710177 5.5351486 21.105314
4.5870919 7.1646519 20.101442
6.8015542 10.672414 23.25983
8.5748281 13.496324 23.55702
10.247406 16.16618 22.992659
0.82676607 1.0346807 22.741425
3.1465807 4.8309836 22.234636
3.9659584 6.1519289 19.95875
6.1338825 9.5731144 23.572603
7.5956693 11.895504 23.155909
9.3599787 14.698046 23.14863
5.6762147 8.9306288 11.549758
6.2115993 9.8449078 11.519091
5.9554172 9.460783 7.4139843
6.314642 10.0392 6.2947412
8.85182 14.083745 6.8090925
7.4881682 11.923327 4.2284861
9.1669331 14.619024 1.6420577
6.39959 10.111533 10.739196
9.3427229 14.778816 12.81461
5.8646665 9.284234 6.5386767
7.6002398 12.045712 6.6716642
6.4096675 10.166616 4.2720704
9.6042681 15.245451 4.4365339
8.9165573 14.159276 2.4260058
0.13419269 0.083333492 16.693638
2.6817527 4.0645652 23.434713
3.574858 5.4988723 21.014648
4.6110148 7.146955 20.09684
6.8491211 10.664729 23.294943
8.579401 13.399953 23.441298
10.412477 16.300484 23.234421
3.1648042 4.822072 22.244316
3.9921091 6.1452827 19.982212
6.1542716 9.5315275 23.523088
7.6653705 11.912782 23.241228
9.4323835 14.698251 23.2005
5.7530661 8.9821291 11.641637
6.2363586 9.8081179 11.501568
6.7992516 10.71812 8.406395
6.3520184 10.020838 6.29706
9.0621691 14.307328 6.93084
7.4758687 11.811994 4.1988754
9.2950573 14.709023 1.655023
6.424808 10.073394 10.722569
9.5354195 14.9677 13.005915
5.7928677 9.1000633 6.424684
7.7956591 12.260393 6.8038416
6.4527135 10.156137 4.2770004
9.4464073 14.879449 4.3415761
8.9208202 14.056987 2.4142644
0.13452089 0.082885772 16.698637
2.6959243 4.0551796 23.434713
3.5793066 5.4638848 20.928751
4.6359339 7.130816 20.09684
6.8889079 10.644776 23.30372
8.5117025 13.19258 23.131327
10.514421 16.33411 23.334196
0.83287692 1.0275395 22.711473
3.1836972 4.8141408 22.258833
4.0182619 6.1385303 20.005678
6.1875052 9.5099878 23.523088
7.740962 11.938471 23.343611
9.5016327 14.69307 23.24439
5.815639 9.0104151 11.704115
6.2763295 9.7952967 11.512081
6.9379721 10.852857 8.5297613
6.3869586 9.9986048 6.29706
7.291225 11.422972 5.5635257
6.7896137 10.645291 3.8012462
9.2393436 14.508467 1.6371398
6.5992274 10.267632 10.952027
9.629097 14.998949 13.061834
5.8781319 9.1632395 6.4829469
8.6684704 13.528544 7.5150814
6.5161343 10.177298 4.2950792
8.5447998 13.356027 3.9148526
8.9564934 14.004902 2.4108109
0.13480939 0.0824157 16.698637
2.7106299 4.0465899 23.439608
3.5835547 5.4289336 20.842855
4.6597261 7.112956 20.092239
6.9247155 10.61866 23.299332
9.2718773 14.293965 20.475256
0.83755565 1.0259664 22.741425
3.2004824 4.8029985 22.258833
4.0434651 6.130228 20.024448
6.2540846 9.5393066 23.649122
7.7911468 11.924477 23.369205
6.3278937 9.800293 11.543622
6.9463754 10.782876 8.4941225
6.4242196 9.9799738 6.2993789
7.3686728 11.455935 5.5916214
6.5206776 10.145347 3.6348622
8.676692 13.52054 1.5352057
6.6269097 10.231998 10.938726
9.5847912 14.815921 12.932336
5.9100819 9.1426649 6.4829469
8.8953571 13.776535 7.6682391
6.551621 10.15449 4.2950792
0.13509627 0.08194463 16.698637
2.7247386 4.0371037 23.439608
3.5876026 5.3940196 20.75696
4.682374 7.0933857 20.083033
6.9630537 10.596424 23.30372
7.9805908 12.181873 21.461615
10.645735 16.287138 23.372572
0.84517181 1.0279373 22.851242
3.2200313 4.7959714 22.278193
4.0696158 6.1232629 20.047913
6.3257432 9.5755405 23.793161
7.8355913 11.901564 23.377739
8.4743586 12.906044 20.519203
6.0902476 9.2928381 12.123083
6.3854041 9.8140163 11.585677
7.0408912 10.846244 8.5626593
6.3167853 9.7382202 6.1625695
7.3682723 11.367901 5.5616527
6.8037882 10.505026 3.7688155
8.8455267 13.678349 1.5553243
6.6564636 10.199423 10.928749
9.5967188 14.721425 12.879359
6.0101933 9.2267303 6.5564094
8.6018181 13.220427 7.3787079
6.6204872 10.183024 4.3164449
7.4276991 11.433314 3.3791034
0.13538148 0.081472553 16.698637
2.7388141 4.0275679 23.439608
3.5914514 5.3591447 20.671064
4.7049422 7.0737448 20.073828
6.9999995 10.572053 23.30372
7.9889588 12.102275 21.370689
9.3591003 14.210149 20.448393
0.84783268 1.0238701 22.826283
3.2480223 4.8013597 22.355623
4.0948057 6.1147547 20.066683
6.338623 9.5225954 23.71664
7.8626709 11.852407 23.335079
8.6008291 12.999522 20.714716
6.105835 9.2460613 12.090007
6.4196229 9.7916679 11.585677
7.1519556 10.933577 8.6503859
6.3531637 9.7198191 6.1648884
7.3749528 11.291654 5.5373034
6.9767494 10.690108 3.8421371
8.7028999 13.35533 1.5240288
6.6099639 10.05134 10.79573
9.818923 14.947969 13.105983
6.1369829 9.3498468 6.6577368
6.4555979 9.8464832 5.530324
6.8138456 10.400804 4.4166989
7.4702253 11.411385 3.3802757
0.13566504 0.080999494 16.698637
2.7522807 4.0171432 23.434713
3.5950997 5.3243079 20.585169
4.7274303 7.0540328 20.064623
7.0368605 10.547554 23.30372
8.0062199 12.036826 21.304564
9.4370031 14.220122 20.509792
0.84825343 1.0171394 22.741425
3.270426 4.7983012 22.394337
4.1209517 6.1075768 20.090147
6.3524232 9.4714842 23.644621
7.8851547 11.796702 23.279621
8.8166409 13.225152 21.121696
6.1530962 9.2472706 12.119408
6.440002 9.7483683 11.561145
7.1923795 10.912037 8.6531267
6.3456316 9.6346912 6.1254687
7.4143233 11.265841 5.5373034
7.0192938 10.673705 3.8449571
8.5635948 13.0418 1.4936274
6.6821322 10.084229 10.855589
9.9290438 15.001238 13.182504
6.3622031 9.619607 6.8629241
6.6706042 10.10503 4.3032966
0.13594696 0.080525436 16.698637
2.7662866 4.0075111 23.434713
3.5977094 5.2882776 20.494501
4.7498384 7.0342498 20.055418
7.0749722 10.524915 23.308109
8.0262547 11.97608 21.246702
9.456296 14.141801 20.444555
0.85198474 1.0143931 22.746416
4.1461267 6.0988626 20.108917
6.4098244 9.4853268 23.734646
7.9175429 11.756127 23.254026
8.775383 13.064227 20.914217
6.185338 9.2257357 12.119408
6.4581823 9.7020807 11.533109
11.376283 17.109819 16.64963
6.1593404 9.2741404 7.3838286
6.5090466 9.8081036 6.2483649
7.0538588 10.645139 3.8435473
8.5980759 12.995216 1.4918392
6.7504654 10.110528 10.908796
10.03293 15.043833 13.250197
6.3670559 9.5542936 6.8325257
6.8313694 10.270411 4.3821855
0.13622722 0.080050401 16.698637
2.7802587 3.9978309 23.434713
3.6001115 5.2522941 20.403831
4.7721648 7.0143962 20.046213
7.1130099 10.502137 23.312498
8.1026554 11.999295 21.337626
9.4088898 13.965161 20.237329
0.85421336 1.0098717 22.711473
3.4068346 4.9242001 23.091215
4.172267 6.0914721 20.132383
6.4465704 9.4682932 23.74815
7.9643888 11.73705 23.27109
8.6908855 12.841366 20.606985
6.2421746 9.2406092 12.167185
6.4721456 9.6498613 11.498064
11.457603 17.102341 16.681013
6.1916757 9.2525835 7.3838286
6.4324379 9.6196156 6.1440191
7.2506881 10.85147 5.3612385
7.0297089 10.528692 3.8111162
8.701395 13.052139 1.5012277
6.8690805 10.210821 11.041816
10.096654 15.025492 13.264914
6.2874236 9.3638039 6.7134662
6.3459988 9.4617252 5.3540874
6.9907408 10.430868 4.4594302
0.13646717 0.079554118 16.693638
2.793612 3.9872675 23.429817
3.6023061 5.2163587 20.313166
4.7955165 6.9960847 20.041611
7.1509767 10.479223 23.316889
8.2758751 12.164047 21.680662
9.4071741 13.857979 20.129881
0.85773331 1.0068837 22.711473
3.4225647 4.9102154 23.081537
4.1984053 6.083972 20.155846
6.5263777 9.5139484 23.919195
8.0053101 11.709177 23.27109
8.7034016 12.76365 20.531174
6.2839303 9.2327766 12.18556
6.5097828 9.6331186 11.505072
11.53683 17.091278 16.709259
6.2519865 9.2725172 7.4167256
6.2135072 9.2223787 5.9075012
7.2496877 10.768411 5.3331428
6.9619918 10.348862 3.7561252
6.9884782 10.31041 11.174836
10.144509 14.983463 13.259027
7.5520048 11.162727 8.0053873
6.4323525 9.5184841 5.3981466
7.5397835 11.165617 4.7782712
0.13674404 0.079077274 16.693638
2.8075132 3.9774916 23.429817
3.6042943 5.1804714 20.222498
4.8176875 6.9760876 20.032406
7.188869 10.456171 23.321276
8.3198757 12.137405 21.684793
9.5387259 13.946758 20.306404
0.861431 1.0041025 22.716467
1.4664222 1.8499612 21.973858
3.4281251 4.8817801 23.004107
4.2245417 6.076364 20.17931
6.5830641 9.525135 24.004719
8.05797 11.698346 23.305218
8.6728258 12.623913 20.355614
6.9315672 10.108278 13.36529
6.4811492 9.5189552 11.396432
10.103572 14.855891 14.568831
6.2631683 9.2195082 7.3920527
6.3078623 9.2922611 5.9654713
7.0790381 10.436115 5.1833005
6.9953818 10.320526 3.754715
7.0581164 10.335286 11.228045
7.5982084 11.146984 8.0129871
6.4578762 9.4847193 5.3918524
7.6584015 11.256357 4.8275762
0.13701925 0.078599468 16.693638
2.8213801 3.9676673 23.429817
3.6043625 5.1421905 20.122286
4.8397775 6.9560204 20.023201
7.2266884 10.432982 23.325666
8.3158169 12.041141 21.564938
9.6273623 13.97144 20.390831
0.86530888 1.0015259 22.72645
1.4688776 1.8398342 21.9142
3.4400628 4.8626013 22.97023
4.2506771 6.0686479 20.202774
6.6411529 9.5378275 24.094744
8.1091642 11.685144 23.335079
8.6482401 12.494456 20.196011
7.0727954 10.237428 13.567423
6.5203896 9.5050955 11.406945
10.161966 14.830165 14.578247
7.5588579 11.043643 8.858737
6.3727694 9.3177185 5.9956155
7.0866504 10.36924 5.1626968
7.0941501 10.310586 11.228045
9.4590158 13.763039 12.243636
7.5785012 11.035109 7.9521909
6.4883771 9.4583759 5.3897543
7.6789575 11.202291 4.8160715
0.13729277 0.078120701 16.693638
2.8346198 3.9569671 23.424923
3.609374 5.1112881 20.050707
4.8617868 6.9358845 20.013994
7.2658033 10.411621 23.334444
8.3224392 11.961222 21.474014
9.6614494 13.916685 20.36013
0.86879951 0.99849927 22.72645
1.4686062 1.8263905 21.81477
3.444613 4.8331628 22.887959
4.2698445 6.0509534 20.193388
6.671905 9.5110226 24.085741
8.1768026 11.695241 23.411867
8.986536 12.886841 20.878307
7.1046143 10.207111 13.560073
6.5900259 9.5350847 11.470027
10.17608 14.74015 14.524894
7.5498848 10.948344 8.8039074
6.4052553 9.2954168 5.9956155
7.3410211 10.661357 5.3181586
8.2528124 11.994493 4.3694897
7.125844 10.279623 11.221394
9.4701843 13.676768 12.196546
6.2949095 9.0978575 6.5868073
7.6697106 11.105477 4.7864885
0.13756463 0.077640988 16.693638
2.8484149 3.9470484 23.424923
3.6142137 5.0804133 19.979126
4.8837132 6.9156795 20.004789
7.3034801 10.388155 23.338833
8.3560658 11.920577 21.45335
0.86942148 0.99220717 22.651575
1.4816861 1.8295348 21.9142
3.4504657 4.8057942 22.815369
4.2909403 6.0360117 20.193388
6.6522946 9.4130087 23.896688
8.2446117 11.705007 23.488653
9.1024857 12.956483 21.041897
6.3479948 9.0525417 12.064281
6.6253071 9.5149498 11.473531
10.089675 14.506426 14.33031
7.64293 11.000906 8.8669615
6.5690284 9.4622221 6.1161933
7.3993311 10.66614 5.3331428
8.2837 11.949842 4.3638492
7.1381664 10.221013 11.184813
6.363606 9.1288729 6.624805
6.3778958 9.1595793 5.247087
7.5735774 10.884827 4.7043128
0.1378348 0.077160321 16.693638
2.8615763 3.9362576 23.420027
3.6188822 5.0495677 19.907547
4.9055586 6.8954067 19.995584
7.3410807 10.364552 23.343222
8.4560633 11.974087 21.602135
7.6388965 10.841009 15.954675
0.87441009 0.99089611 22.691509
1.4857035 1.8214611 21.8794
3.4554331 4.7774253 22.737936
4.3109794 6.0195937 20.188696
6.6068301 9.2797813 23.617613
8.3156042 11.718695 23.573971
9.0675793 12.811492 20.858355
6.2739239 8.8808079 11.865822
6.7117305 9.5676727 11.56465
9.9637918 14.219296 14.082371
7.6692939 10.957031 8.8532543
6.6020179 9.4392347 6.1161933
7.3116984 10.461654 5.2451105
7.1030903 10.170722 3.7363846
7.1630573 10.180766 11.168185
12.008142 17.085941 15.289807
6.3954325 9.1066046 6.624805
6.4124365 9.140976 5.2491851
10.438629 14.89135 6.4184928
0.13806425 0.076659255 16.688637
2.8746972 3.9254236 23.415133
3.6225054 5.0175414 19.831196
4.9273224 6.8750653 19.98638
7.3758245 10.336914 23.338833
8.5826368 12.063729 21.817047
7.6655607 10.798597 15.931651
1.4944224 1.8191462 21.9142
3.4609842 4.7500963 22.665346
4.330955 6.0031095 20.184002
6.5960431 9.196517 23.464573
8.3776941 11.7193 23.633696
8.6136713 12.08053 19.721199
6.2793307 8.8229475 11.818045
6.7430282 9.5412731 11.561145
11.232272 15.91106 15.786553
7.7099042 10.933611 8.8559952
7.2841158 10.345095 5.2001576
7.1385489 10.145865 3.7363846
7.1769605 10.125239 11.134931
12.312959 17.390299 15.59884
6.5417123 9.2461033 6.7413316
6.3788209 9.0258789 5.1967335
10.376137 14.692816 6.3494654
0.13833101 0.076176859 16.688637
2.8883822 3.915365 23.415133
3.6285834 4.9891725 19.769159
4.9490037 6.8546567 19.977175
7.4076681 10.305271 23.325666
8.6886282 12.122898 21.978233
7.7535486 10.842167 16.035263
1.4983834 1.8110446 21.8794
3.4656439 4.7217741 22.587915
4.3508692 5.9865594 20.17931
6.606431 9.1434402 23.388052
8.4276943 11.702682 23.65929
8.6927042 12.101783 19.804989
6.2745323 8.7513819 11.751892
6.7783608 9.5205832 11.56465
11.346396 15.954226 15.868153
7.7988772 10.978217 8.9135666
6.5780072 9.2664871 6.0350351
7.2826319 10.266667 5.1739349
7.2127585 10.175676 3.7561252
7.2144299 10.103164 11.138256
12.18581 17.08396 15.363386
6.6214871 9.2899094 6.7894621
6.5261097 9.1662331 5.2890482
0.13859607 0.075693525 16.688637
2.9014246 3.9044418 23.410236
3.6336257 4.9596186 19.702353
4.970602 6.8341789 19.96797
7.4379764 10.271591 23.308109
8.7308922 12.092496 21.978233
7.8363128 10.877451 16.127363
1.5036718 1.8045752 21.864487
3.4708946 4.6944871 22.515324
4.3707209 5.9699435 20.174618
6.628058 9.1062431 23.352041
8.4746199 11.681637 23.676353
8.7525597 12.095779 19.844891
6.3010721 8.7239294 11.744541
6.8219452 9.5113535 11.582172
11.286405 15.753156 15.708092
7.8736534 11.001933 8.954689
6.6051593 9.2362623 6.0303974
7.5367513 10.546702 5.3256512
7.2300291 10.05064 11.108326
6.6262174 9.2282219 6.7615967
7.7358193 10.793376 4.710887
0.1388202 0.075190224 16.683638
2.9144256 3.8934751 23.405342
3.6464837 4.9409003 19.678492
4.9921184 6.8136353 19.958765
7.4737859 10.245565 23.308109
7.8723521 10.847437 16.123526
1.5096188 1.7989073 21.859514
3.4744961 4.665206 22.433054
4.3894844 5.9518723 20.165232
6.6572294 9.0795403 23.343039
8.5230389 11.662513 23.697683
8.7627792 12.021322 19.773069
6.2955832 8.6525373 11.678389
6.8592825 9.4932652 11.589182
10.641997 14.744735 14.744586
7.9462447 11.021868 8.9930687
7.4082994 10.290824 5.2113957
7.2322035 9.97999 11.058443
12.063028 16.664503 15.063185
6.6331248 9.1701078 6.7362652
7.7458048 10.728022 4.6944518
0.13904248 0.074686274 16.678637
2.927386 3.8824654 23.400448
3.6610363 4.9245467 19.664175
5.0135517 6.7930241 19.94956
7.5066676 10.215554 23.299332
8.6155205 11.758857 21.482281
7.9215188 10.835416 16.146549
1.5145119 1.7919989 21.839626
3.4786899 4.6369624 22.355623
4.4092045 5.9351287 20.160538
6.6927633 9.0615005 23.356544
8.5652428 11.634791 23.70195
8.8011208 11.985804 19.765089
6.333765 8.6414471 11.693089
10.876516 14.959348 14.995662
8.0092411 11.027895 9.020483
6.4561234 8.8959427 5.8402557
8.7750635 12.100077 6.1273088
8.2224483 11.263496 12.50171
12.314029 16.886831 15.301579
6.6650934 9.1468973 6.7362652
6.6724844 9.1671085 5.3289108
9.5192184 13.087707 5.7216449
0.13926297 0.074181698 16.673639
2.940304 3.8714123 23.395552
3.6737301 4.9057636 19.640316
5.0349021 6.7723465 19.940355
7.5465546 10.195063 23.312498
8.6615267 11.735503 21.494678
7.9573922 10.805118 16.142714
1.5224863 1.7887303 21.864487
3.482729 4.6087461 22.278193
4.4288607 5.9183202 20.155846
6.7295504 9.0450687 23.374548
8.6104641 11.611107 23.714746
6.3739586 8.6329222 11.711465
7.695087 10.494882 12.868341
11.055162 15.093998 15.168277
8.0575628 11.013369 9.0314493
6.4871368 8.8733521 5.8402557
7.690537 10.527095 5.3556194
8.2108393 11.165544 12.425224
11.394195 15.511399 14.097827
6.6990767 9.1364422 5.3247151
10.307233 14.06763 6.1588182
0.13948159 0.073676482 16.668638
2.9531815 3.8603165 23.390657
3.6908321 4.8929105 19.640316
5.0561686 6.7516017 19.931149
7.7080812 10.337619 23.698738
8.712513 11.718747 21.519476
7.9836025 10.761829 16.119688
0.64485013 0.69642866 16.252268
1.5287209 1.7834049 21.864487
3.4866133 4.5805588 22.200762
4.4484539 5.9014463 20.151152
6.7689161 9.0319757 23.401556
8.6540642 11.585157 23.72328
6.4060779 8.6133404 11.71514
7.7634554 10.510985 12.920909
11.20715 15.189997 15.30323
8.0637074 10.941417 8.9958096
6.5732355 8.925559 5.8889508
8.7136908 11.840628 6.028038
8.2319851 11.112813 12.398621
11.359313 15.351312 13.988931
6.6980319 9.0585499 6.7058668
6.6931782 9.0618925 5.295342
10.266541 13.909986 6.106226
0.13973792 0.073189154 16.668638
2.9653955 3.8483715 23.380865
3.7060828 4.8776202 19.630772
5.077352 6.730792 19.921944
7.8376117 10.435124 23.984028
9.4331646 12.595978 23.185055
0.64865798 0.69564903 16.28721
1.5349368 1.7780577 21.864487
3.490344 4.5524006 22.123331
4.4669394 5.8831334 20.141768
6.8069606 9.0169792 23.424061
8.6960192 11.556963 23.727545
8.9062538 11.866473 19.721199
6.4381375 8.5936403 11.718815
7.8128715 10.500989 12.941936
11.406379 15.347597 15.500954
8.0769272 10.879629 8.9683952
6.6043515 8.9025593 5.8889508
8.7908592 11.858555 6.0523877
8.286355 11.104957 12.421899
10.352382 13.888865 12.696883
6.7270365 9.0316563 6.7033339
9.9036837 13.320786 5.8662739
0.13999255 0.072700925 16.668638
2.9781859 3.8371921 23.375969
3.7212718 4.8622832 19.621227
5.0984521 6.7099171 19.912739
7.9216738 10.470731 24.128866
9.5143595 12.612397 23.27598
0.64811248 0.690229 16.212336
1.5414841 1.7730911 21.869457
3.4939203 4.5242724 22.0459
4.4863997 5.8661346 20.137075
6.8423476 8.9983635 23.437567
8.7394581 11.530695 23.736076
8.9185457 11.796855 19.657358
6.4721804 8.5765266 11.726166
7.7617898 10.356649 12.79825
11.303592 15.098922 15.290676
8.1148548 10.851369 8.9683952
7.7421026 10.367978 5.3162856
7.3132977 9.7298794 10.922098
10.398371 13.84941 12.693939
6.766283 9.0184641 6.7109332
6.794384 9.0657902 5.3247151
9.6755466 12.919503 5.7068534
0.14028513 0.072230056 16.673639
2.9909351 3.8259711 23.371075
3.7373104 4.8480816 19.616457
5.1194687 6.6889777 19.903536
7.9712405 10.460159 24.168369
9.0370226 11.918922 17.984715
0.65051788 0.68796247 16.212336
1.5469612 1.7668977 21.859514
3.4965711 4.495182 21.963629
4.5036898 5.8463373 20.122997
6.8750396 8.9761515 23.442066
8.7812376 11.502192 23.740343
8.908555 11.698528 19.545639
6.5000267 8.5511837 11.72249
7.1360912 9.4528427 11.718849
11.34217 15.040729 15.271847
8.1778421 10.856376 8.9958096
6.5571151 8.7111292 5.7938805
7.7503786 10.303842 5.297555
7.3607392 9.7221527 10.942051
10.444213 13.809805 12.690997
6.8177848 9.0311508 5.3184204
7.8436475 10.397582 4.6221375
0.14057609 0.071758009 16.678637
3.0036421 3.8147078 23.366179
3.7523794 4.8326488 19.606913
5.1404004 6.6679711 19.894329
8.0047874 10.428471 24.15959
8.8256826 11.531156 21.39962
8.9618454 11.734467 17.754465
1.5524138 1.7606876 21.849571
3.5013874 4.4690981 21.895878
4.5219541 5.8278542 20.113611
6.90766 8.9538221 23.446568
8.8229237 11.473536 23.744608
8.9328299 11.645842 19.509727
6.5380802 8.5392084 11.737191
7.1474581 9.3994894 11.683805
8.2283268 10.84442 9.0095177
7.8086963 10.306285 5.3125396
7.4014235 9.7053061 10.952027
8.6406021 11.342491 10.465967
8.3409042 10.957001 8.1776438
6.8547621 9.0145235 5.3226171
7.882751 10.373899 4.6237812
0.14082572 0.071266867 16.678637
3.0163071 3.8034019 23.361284
3.768306 4.8183451 19.602139
5.1612482 6.6469011 19.885124
7.9473853 10.279202 23.878689
0.65330309 0.68132412 16.162418
1.557488 1.7540627 21.834656
3.5013921 4.4371142 21.799088
4.540144 5.8093147 20.104225
6.9415441 8.9330931 23.45557
8.8645163 11.44473 23.748875
8.9402666 11.571669 19.437908
6.576129 8.527072 11.751892
7.2192588 9.4254446 11.746886
11.491833 15.019913 15.331477
8.2686691 10.818954 9.0122595
8.7902498 11.509712 7.6674705
7.8558741 10.293707 5.3200316
8.6112452 11.222472 10.383559
8.4236927 10.985974 8.2207079
6.8861871 8.9905405 5.3226171
7.8758631 10.290071 4.5991282
0.14111347 0.070792675 16.683638
3.0289295 3.7920547 23.35639
3.7832551 4.8028169 19.592596
5.1832151 6.6273055 19.880522
7.9331861 10.187153 23.729462
1.5636014 1.7486154 21.834656
3.509038 4.4150252 21.750694
4.5571928 5.7893639 20.090147
6.9740262 8.9105225 23.460072
8.9060173 11.415774 23.753141
9.0324211 11.606976 19.549627
6.5975356 8.4933567 11.737191
7.2608299 9.4114819 11.760905
11.544192 14.979708 15.331477
8.2808771 10.756891 8.9848452
8.8978968 11.566736 7.7254405
8.7337208 11.361509 5.8781953
7.6380782 9.8719263 11.198115
8.6207056 11.153967 10.348242
7.6794 9.9432201 7.4683537
6.870399 8.9053602 5.2869501
7.8569541 10.19146 4.5679016
0.14135973 0.070299663 16.683638
3.0415094 3.7806649 23.351494
3.7990689 4.7884116 19.587824
5.2038994 6.6061029 19.871315
7.2778654 9.3254309 14.239311
0.66005993 0.6788128 16.212336
1.572194 1.7459185 21.869457
3.5000751 4.3723307 21.600672
4.5752292 5.7707162 20.080763
7.0064344 8.8878336 23.464573
8.947423 11.386667 23.757406
9.0821762 11.587234 19.569578
7.210484 9.2790718 11.627731
11.551064 14.880901 15.271847
9.6071873 12.390046 10.363802
8.1052589 10.460599 7.0135689
8.9010448 11.495904 5.962482
7.6793756 9.8540382 11.208091
8.6968317 11.171649 10.392388
7.7008276 9.8993406 7.455688
6.9933414 8.9995871 5.3561854
7.8924809 10.163973 4.5679016
0.14160426 0.069805801 16.683638
3.0540469 3.7692342 23.3466
3.8138967 4.7727895 19.578279
5.2257133 6.5863676 19.866714
8.8447714 11.227754 21.064852
7.3004684 9.2873697 14.220122
0.6624254 0.67650461 16.212336
1.58007 1.7423933 21.894314
3.4813898 4.3180108 21.392576
4.5931911 5.7520137 20.071377
7.0387702 8.8650284 23.469074
8.9887333 11.357411 23.761673
9.1748476 11.621682 19.681299
7.2274442 9.2341881 11.6032
11.55259 14.776095 15.205938
9.6580982 12.366321 10.372026
8.3379545 10.683678 7.1805224
9.0751143 11.636579 6.0505147
7.7367806 9.8565435 11.241346
8.7382698 11.144405 10.395332
6.9911456 8.9322329 5.3310089
7.9191842 10.125201 4.5629711
0.14184706 0.069311082 16.683638
3.0665414 3.7577615 23.341703
3.8295979 4.7582846 19.573507
5.246233 6.5650344 19.85751
8.1855707 10.287179 24.15959
8.8874073 11.201221 21.073118
1.5865023 1.7372608 21.899286
3.3680725 4.1477618 20.608589
4.6110783 5.7332559 20.061991
7.0710316 8.842104 23.473576
9.0299492 11.328004 23.765938
9.228487 11.606094 19.70923
7.6872449 9.6851053 13.482895
7.2463856 9.1920986 11.582172
11.575201 14.698984 15.168277
8.3751965 10.654508 7.1805224
9.0440855 11.513688 6.0036888
7.7364044 9.7855415 11.191463
8.7595816 11.091631 10.37473
7.6015053 9.6321497 7.2960978
7.0222821 8.9077749 5.3310089
