# .PCD v0.7 - Point Cloud Data file format
VERSION 0.7
FIELDS x y z
SIZE 4 4 4
TYPE F F F
COUNT 1 1 1
WIDTH 1368
HEIGHT 1
VIEWPOINT 0 0 0 1 0 0 0
POINTS 1368
DATA ascii
-1.0241952 -0.13268191 3.348763
-0.96546572 -0.12845923 2.3541093
-0.9307338 -0.12579414 1.7884545
-0.9151665 -0.12497015 1.4292125
-0.89415556 -0.12303898 1.1572587
-0.46882778 -0.013970325 7.9511404
-0.63424969 -0.042905286 5.8860717
-1.0959719 -0.13714783 4.290051
-0.99689209 -0.12947311 2.7879179
-0.94255382 -0.12505877 2.0297918
-0.91929132 -0.12341934 1.587347
-0.89844561 -0.12171997 1.2753172
-0.89467263 -0.12198877 1.0571631
-0.88697821 -0.12392979 0.95989293
-0.86645126 -0.12151536 0.78786892
-0.86341083 -0.12153976 0.65627056
-0.8567639 -0.12090162 0.53947955
-0.84541428 -0.11959368 0.43328893
-0.826756 -0.11724141 0.33538559
-0.83649051 -0.11891432 0.25188279
-0.81326914 -0.11589541 0.1666968
-0.88375539 -0.12221674 0.87576252
-0.85935271 -0.11929182 0.71527684
-0.85998118 -0.11967722 0.59583938
-0.85063595 -0.1188234 0.48450777
-0.85168803 -0.11926566 0.38845813
-0.81842917 -0.11489269 0.29004702
-0.8041088 -0.11302056 0.20546949
-0.8061173 -0.11358201 0.12651494
-0.077644803 0.021541409 7.8089757
-0.9095009 -0.10258637 5.8188701
-1.177339 -0.14028311 5.7237811
-1.0246521 -0.12910599 3.348763
-0.96397072 -0.12483773 2.3495069
-0.93116724 -0.1225445 1.7884545
-0.91559714 -0.12177486 1.4292125
-0.89457959 -0.11991705 1.1572587
-0.46916232 -0.012340276 7.9561324
-0.6343956 -0.040691081 5.8860717
-1.096444 -0.13332134 4.290051
-0.99905008 -0.1262085 2.7926106
-0.94298458 -0.12176789 2.0297918
-0.91713047 -0.11987195 1.583081
-0.89886504 -0.11858306 1.2753172
-0.89509296 -0.11886503 1.0571631
-0.8874054 -0.12083291 0.95989293
-0.86687016 -0.11849014 0.78786892
-0.86382985 -0.11852515 0.65627056
-0.85718077 -0.11791022 0.53947955
-0.84582663 -0.11664191 0.43328893
-0.82716024 -0.11435478 0.33538559
-0.83690047 -0.11599369 0.25188279
-0.81366867 -0.11305586 0.1666968
-0.88417661 -0.11913112 0.87576252
-0.85976386 -0.11629139 0.71527684
-0.86039364 -0.1166746 0.59583938
-0.85104555 -0.11585341 0.48450777
-0.84742033 -0.11565356 0.38681462
-0.81400949 -0.11137632 0.28887469
-0.80449837 -0.110213 0.20546949
-0.8065089 -0.11076744 0.12651494
-0.077569142 0.021812309 7.8089757
-0.91062582 -0.099495038 5.8238091
-1.1788329 -0.13628925 5.7286763
-1.0236149 -0.12534738 3.343991
-0.96440059 -0.12147208 2.3495069
-0.9292137 -0.11898948 1.7840655
-0.91601664 -0.11857808 1.4292125
-0.89499271 -0.11679365 1.1572587
-0.46949115 -0.010708059 7.9611235
-0.63506597 -0.038507715 5.8910437
-1.0956542 -0.12934612 4.2852116
-0.99948454 -0.12272039 2.7926106
-0.9434039 -0.11847551 2.0297918
-0.91754329 -0.11666984 1.583081
-0.89927351 -0.11544473 1.2753172
-0.89550251 -0.11573985 1.0571631
-0.88782179 -0.11773454 0.95989293
-0.87113678 -0.11597691 0.7910074
-0.86423832 -0.11550909 0.65627056
-0.85319656 -0.11432923 0.53716075
-0.8462286 -0.11368871 0.43328893
-0.8275544 -0.11146677 0.33538559
-0.83243221 -0.11241434 0.25095019
-0.8091234 -0.10954683 0.16624972
-0.88458705 -0.11604403 0.87576252
-0.86016452 -0.11328955 0.71527684
-0.86079568 -0.11367055 0.59583938
-0.85144472 -0.112882 0.48450777
-0.84781891 -0.11269481 0.38681462
-0.81439328 -0.10853422 0.28887469
-0.80487823 -0.10740412 0.20546949
-0.80689061 -0.10795153 0.12651494
-0.077492528 0.022082942 7.8089757
-0.9117403 -0.096397117 5.8287487
-1.1813253 -0.13239983 5.7384667
-1.0240463 -0.12177353 3.343991
-0.96481878 -0.11810496 2.3495069
-0.92962343 -0.11574519 1.7840655
-0.91363293 -0.11502863 1.4250796
-0.89539498 -0.11366883 1.1572587
-0.47010297 -0.0090782335 7.971107
-0.63519651 -0.036290687 5.8910437
-1.0948503 -0.12537806 4.2803721
-0.99990684 -0.1192308 2.7926106
-0.94165081 -0.11491828 2.0252907
-0.91794497 -0.11346631 1.583081
-0.89967102 -0.11230497 1.2753172
-0.89253724 -0.1121907 1.0534879
-0.88822734 -0.11463476 0.95989293
-0.87153631 -0.11293537 0.7910074
-0.86048973 -0.11195236 0.65352911
-0.85359043 -0.11135031 0.53716075
-0.84662032 -0.11073413 0.43328893
-0.82793844 -0.10857737 0.33538559
-0.83281952 -0.10950792 0.25095019
-0.80950093 -0.10672179 0.16624972
-0.88498676 -0.11295555 0.87576252
-0.86055475 -0.11028633 0.71527684
-0.86118722 -0.11066513 0.59583938
-0.85183358 -0.10990922 0.48450777
-0.84352392 -0.10912894 0.38517112
-0.81476718 -0.10569079 0.28887469
-0.80524826 -0.10459392 0.20546949
-0.8122167 -0.10577948 0.12671648
-0.077414967 0.022353306 7.8089757
-0.91284424 -0.093292616 5.8336878
-1.1827925 -0.12838504 5.7433624
-1.0229821 -0.1180274 3.3392189
-0.96328509 -0.11450609 2.3449044
-0.92764413 -0.11221219 1.7796764
-0.91402888 -0.11183876 1.4250796
-0.89260513 -0.11015035 1.1534212
-0.47042048 -0.0074407398 7.976099
-0.63585162 -0.034100834 5.8960152
-1.0940319 -0.12141718 4.2755322
-1.000317 -0.11573974 2.7926106
-0.94204623 -0.11163061 2.0252907
-0.91574597 -0.10995077 1.5788151
-0.89706618 -0.10880132 1.2713271
-0.89292341 -0.10907448 1.0534879
-0.88862211 -0.11153357 0.95989293
-0.87192518 -0.10989245 0.7910074
-0.86087525 -0.10894801 0.65352911
-0.85397393 -0.10837004 0.53716075
-0.84700167 -0.1077782 0.43328893
-0.8283124 -0.10568668 0.33538559
-0.8331967 -0.10660017 0.25095019
-0.80986851 -0.10389546 0.16624972
-0.88537568 -0.10986567 0.87576252
-0.8609345 -0.10728175 0.71527684
-0.86156827 -0.10765835 0.59583938
-0.85221207 -0.10693509 0.48450777
-0.84389973 -0.10618382 0.38517112
-0.81513113 -0.10284609 0.28887469
-0.80560839 -0.10178243 0.20546949
-0.81258094 -0.10294369 0.12671648
-0.077336475 0.022623399 7.8089757
-0.91471088 -0.090257533 5.8435659
-1.1842463 -0.12436162 5.7482576
-1.0233879 -0.1144558 3.3392189
-0.9636789 -0.1111429 2.3449044
-0.92803013 -0.10897342 1.7796764
-0.91441375 -0.10864753 1.4250796
-0.89298421 -0.1070339 1.1534212
-0.47044358 -0.0057986202 7.976099
-0.63596678 -0.03188109 5.8960152
-1.094449 -0.11759756 4.2755322
-0.99899989 -0.11205522 2.7879179
-0.94243014 -0.10834158 2.0252907
-0.91612417 -0.10675355 1.5788151
-0.89744049 -0.10566931 1.2713271
-0.89329875 -0.10595693 1.0534879
-0.88900602 -0.10843101 0.95989293
-0.86844003 -0.1063752 0.78786892
-0.86125034 -0.10594233 0.65352911
-0.85434699 -0.10538847 0.53716075
-0.84737271 -0.10482095 0.43328893
-0.82391572 -0.10220425 0.33397555
-0.82868904 -0.10308481 0.25001755
-0.8102262 -0.10106786 0.16624972
-0.8820467 -0.10632784 0.872437
-0.86130375 -0.10427588 0.71527684
-0.86193883 -0.10465026 0.59583938
-0.85258013 -0.10395966 0.48450777
-0.84895253 -0.10381045 0.38681462
-0.81548524 -0.10000011 0.28887469
-0.80595881 -0.098969713 0.20546949
-0.81293535 -0.10010662 0.12671648
-0.077297628 0.022909218 7.8139758
-0.9157939 -0.087137304 5.8485055
-1.1856861 -0.12032961 5.7531524
-1.0237812 -0.11088281 3.3392189
-0.96406096 -0.10777836 2.3449044
-0.92840487 -0.10573332 1.7796764
-0.91199189 -0.105133 1.4209466
-0.89335239 -0.10391615 1.1534212
-0.47074965 -0.0041579423 7.9810901
-0.63607419 -0.029660961 5.8960152
-1.0936028 -0.11364687 4.2706933
-0.99595368 -0.10819524 2.7785323
-0.94280261 -0.10505122 2.0252907
-0.91649121 -0.10355503 1.5788151
-0.8978039 -0.10253602 1.2713271
-0.89366311 -0.10283809 1.0534879
-0.88937908 -0.10532714 0.95989293
-0.86880606 -0.10334312 0.78786892
-0.86161488 -0.10293537 0.65352911
-0.85470968 -0.10240559 0.53716075
-0.8477335 -0.10186243 0.43328893
-0.82426739 -0.099327624 0.33397555
-0.82904387 -0.10019153 0.25001755
-0.81057405 -0.098239027 0.16624972
-0.88241249 -0.10324828 0.872437
-0.85764807 -0.10079715 0.71233368
-0.86229885 -0.10164089 0.59583938
-0.85293782 -0.10098296 0.48450777
-0.84930974 -0.10084642 0.38681462
-0.81582928 -0.097152933 0.28887469
-0.80629939 -0.096155792 0.20546949
-0.80831921 -0.096675053 0.12651494
-0.077217184 0.023178896 7.8139758
-0.91609251 -0.083940059 5.8485055
-1.1871122 -0.11628906 5.7580476
-1.0241619 -0.10730848 3.3392189
-0.96248907 -0.10420252 2.340302
-0.92876834 -0.10249195 1.7796764
-0.91235328 -0.10194891 1.4209466
-0.89370966 -0.10079714 1.1534212
-0.4707613 -0.0025146941 7.9810901
-0.63670641 -0.027462505 5.9009862
-1.0939927 -0.10982879 4.2706933
-0.99460906 -0.10453796 2.7738397
-0.94316351 -0.10175959 2.0252907
-0.91684711 -0.10035525 1.5788151
-0.89815634 -0.099401474 1.2713271
-0.89401668 -0.099718004 1.0534879
-0.88974136 -0.102222 0.95989293
-0.86916149 -0.10030979 0.78786892
-0.86196899 -0.099927135 0.65352911
-0.85506195 -0.099421479 0.53716075
-0.84808385 -0.098902665 0.43328893
-0.8246091 -0.096449785 0.33397555
-0.83426732 -0.097869277 0.25095019
-0.81091201 -0.095408991 0.16624972
-0.88276756 -0.10016745 0.872437
-0.85799474 -0.097802781 0.71233368
-0.85836554 -0.098140799 0.59330624
-0.85328513 -0.098005049 0.48450777
-0.84496546 -0.097340867 0.38517112
-0.81616348 -0.094304569 0.28887469
-0.80663007 -0.093340695 0.20546949
-0.80865175 -0.093852907 0.12651494
-0.077135809 0.023448294 7.8139758
-0.91715395 -0.080809638 5.8534451
-1.187511 -0.11214455 5.7580476
-1.0230453 -0.10358276 3.3344471
-0.96284688 -0.10084218 2.340302
-0.92912042 -0.099249311 1.7796764
-0.91270363 -0.098763578 1.4209466
-0.89086974 -0.097329058 1.1495837
-0.4710559 -0.00087091135 7.9860821
-0.63679838 -0.025239818 5.9009862
-1.0943695 -0.10600938 4.2706933
-0.99153423 -0.10071731 2.7644541
-0.94351304 -0.098466709 2.0252907
-0.91459829 -0.096879825 1.5745492
-0.89849782 -0.096265718 1.2713271
-0.89435929 -0.096596688 1.0534879
-0.89009273 -0.099115588 0.95989293
-0.86950636 -0.097275242 0.78786892
-0.8623125 -0.096917696 0.65352911
-0.85540378 -0.09643615 0.53716075
-0.84842396 -0.0959417 0.43328893
-0.8249408 -0.093570776 0.33397555
-0.83460391 -0.09495654 0.25095019
-0.8112402 -0.0925778 0.16624972
-0.88311183 -0.097085409 0.872437
-0.85833091 -0.094807222 0.71233368
-0.85870284 -0.095143944 0.59330624
-0.85362208 -0.095025927 0.48450777
-0.84530008 -0.094390795 0.38517112
-0.81648767 -0.09145505 0.28887469
-0.80695099 -0.090524465 0.20546949
-0.80897439 -0.091029614 0.12651494
-0.077053487 0.023717405 7.8139758
-0.91743046 -0.077607684 5.8534451
-1.1889093 -0.10809062 5.7629433
-1.0234007 -0.10001104 3.3344471
-0.96319306 -0.097480595 2.340302
-0.92946124 -0.09600547 1.7796764
-0.91304278 -0.095577046 1.4209466
-0.89120406 -0.094218753 1.1495837
-0.47105607 0.00077338592 7.9860821
-0.6368826 -0.023016823 5.9009862
-1.0947329 -0.10218867 4.2706933
-0.99016219 -0.097087495 2.7597613
-0.94385099 -0.095172636 2.0252907
-0.91493094 -0.093686685 1.5745492
-0.89882839 -0.093128785 1.2713271
-0.89469105 -0.093474202 1.0534879
-0.89043325 -0.096007988 0.95989293
-0.86984062 -0.094239511 0.78786892
-0.86264557 -0.093907073 0.65352911
-0.85573518 -0.093449645 0.53716075
-0.8441453 -0.09247487 0.43141592
-0.820494 -0.090166725 0.33256555
-0.83493024 -0.092042655 0.25095019
-0.81155837 -0.089745484 0.16624972
-0.88344538 -0.09400218 0.872437
-0.85865659 -0.09181051 0.71233368
-0.85902977 -0.092145935 0.59330624
-0.85394853 -0.092045657 0.48450777
-0.84092963 -0.090932041 0.38352761
-0.81680191 -0.08860442 0.28887469
-0.80726206 -0.087707125 0.20546949
-0.80432069 -0.087663919 0.12631342
-0.076970227 0.023986228 7.8139758
-0.91769576 -0.074404776 5.8534451
-1.1902937 -0.10402828 5.7678385
-1.0222573 -0.096298397 3.329675
-0.96352744 -0.094117835 2.340302
-0.9274075 -0.092523001 1.7752873
-0.91057098 -0.092106424 1.4168135
-0.89152753 -0.091107294 1.1495837
-0.4710505 0.0024176738 7.9860821
-0.63695908 -0.020793548 5.9009862
-1.0963347 -0.098478876 4.2755322
-0.9887771 -0.093468502 2.7550685
-0.94201064 -0.091666855 2.0207894
-0.91525239 -0.090492412 1.5745492
-0.89914799 -0.089990728 1.2713271
-0.89163888 -0.090010338 1.0498128
-0.88721597 -0.09252952 0.95638841
-0.86629319 -0.090797119 0.78473049
-0.86296809 -0.09089531 0.65352911
-0.85605615 -0.090461999 0.53716075
-0.84446293 -0.089527681 0.43141592
-0.82080376 -0.087302119 0.33256555
-0.83524644 -0.089127637 0.25095019
-0.8118667 -0.086912066 0.16624972
-0.88376808 -0.090917811 0.872437
-0.85897183 -0.088812687 0.71233368
-0.85934615 -0.0891468 0.59330624
-0.85426468 -0.089064255 0.48450777
-0.8412419 -0.087996095 0.38352761
-0.81710625 -0.085752711 0.28887469
-0.80756336 -0.084888719 0.20546949
-0.80462182 -0.08485578 0.12631342
-0.076886036 0.024254758 7.8139758
-0.91872466 -0.07126072 5.8583841
-1.1906496 -0.099872746 5.7678385
-1.0225872 -0.092729464 3.329675
-0.96190494 -0.090571076 2.3356993
-0.92772478 -0.089285187 1.7752873
-0.91088694 -0.088927388 1.4168135
-0.8918401 -0.087994732 1.1495837
-0.47103921 0.0040619322 7.9860821
-0.63756067 -0.018584626 5.9059577
-1.0966718 -0.094651349 4.2755322
-0.98737872 -0.08986035 2.7503757
-0.94232488 -0.088378064 2.0207894
-0.91556269 -0.087297037 1.5745492
-0.8964572 -0.086562224 1.2673371
-0.89194763 -0.086897396 1.0498128
-0.88753355 -0.089432001 0.95638841
-0.8666048 -0.087772638 0.78473049
-0.8674401 -0.088305719 0.65627056
-0.85195982 -0.087023288 0.53484195
-0.84477031 -0.086579412 0.43141592
-0.82110351 -0.084436446 0.33256555
-0.83555251 -0.08621154 0.25095019
-0.81216514 -0.084077597 0.16624972
-0.88408005 -0.087832332 0.872437
-0.85927659 -0.085813768 0.71233368
-0.8596521 -0.086146578 0.59330624
-0.85457033 -0.086081773 0.48450777
-0.84154397 -0.085059077 0.38352761
-0.81740057 -0.08289995 0.28887469
-0.80785471 -0.082069285 0.20546949
-0.8049131 -0.082046606 0.12631342
-0.076800898 0.024522992 7.8139758
-0.91974264 -0.068110377 5.8633232
-1.1920059 -0.095797293 5.7727332
-1.0229046 -0.089159399 3.329675
-0.96221524 -0.087212846 2.3356993
-0.92803079 -0.086046278 1.7752873
-0.91119182 -0.085747249 1.4168135
-0.89214188 -0.08488109 1.1495837
-0.47073349 0.0057016062 7.9810901
-0.63762164 -0.016359009 5.9059577
-1.0982484 -0.090926118 4.2803721
-0.98596728 -0.086263105 2.745683
-0.94262761 -0.085088193 2.0207894
-0.91586185 -0.084100597 1.5745492
-0.89675391 -0.083432473 1.2673371
-0.89224553 -0.083783381 1.0498128
-0.88784027 -0.086333387 0.95638841
-0.86690593 -0.084747083 0.78473049
-0.86774307 -0.085277252 0.65627056
-0.85225838 -0.08404886 0.53484195
-0.84506738 -0.083630085 0.43141592
-0.82139319 -0.081569746 0.33256555
-0.83584833 -0.083294392 0.25095019
-0.81245369 -0.081242099 0.16624972
-0.88438129 -0.08474578 0.872437
-0.85957092 -0.082813814 0.71233368
-0.85994762 -0.083145313 0.59330624
-0.85486561 -0.08309824 0.48450777
-0.84183574 -0.082121022 0.38352761
-0.81768495 -0.080046184 0.28887469
-0.80813628 -0.079248838 0.20546949
-0.80519456 -0.07923644 0.12631342
-0.076714829 0.024790928 7.8139758
-0.9207499 -0.064953804 5.8682623
-1.1933483 -0.0917136 5.7776289
-1.0232097 -0.085588261 3.329675
-0.9625138 -0.083853558 2.3356993
-0.92832553 -0.082806326 1.7752873
-0.91148555 -0.082566075 1.4168135
-0.89243269 -0.081766412 1.1495837
-0.47071072 0.0073447376 7.9810901
-0.63820779 -0.01414408 5.9109297
-1.098559 -0.08709196 4.2803721
-0.98626244 -0.082820922 2.745683
-0.94075012 -0.081609458 2.0162883
-0.91614985 -0.080903128 1.5745492
-0.89703965 -0.080301709 1.2673371
-0.89253253 -0.080668353 1.0498128
-0.88813621 -0.083233714 0.95638841
-0.86719644 -0.081720501 0.78473049
-0.86803544 -0.082247742 0.65627056
-0.85254657 -0.081073418 0.53484195
-0.84535414 -0.080679744 0.43141592
-0.82167298 -0.078702047 0.33256555
-0.83613396 -0.08037623 0.25095019
-0.81273234 -0.078405611 0.16624972
-0.88467169 -0.081658192 0.872437
-0.85985476 -0.079812847 0.71233368
-0.86023253 -0.08014302 0.59330624
-0.85515046 -0.080113694 0.48450777
-0.84681863 -0.079623893 0.38517112
-0.81795943 -0.077191442 0.28887469
-0.80840796 -0.076427437 0.20546949
-0.80546629 -0.076425299 0.12631342
-0.076627828 0.025058562 7.8139758
-0.92097098 -0.061739385 5.8682623
-1.1936612 -0.087547481 5.7776289
-1.0235022 -0.082016066 3.329675
-0.96085382 -0.080330789 2.3310966
-0.92860889 -0.079565361 1.7752873
-0.91176826 -0.079383895 1.4168135
-0.89271271 -0.07865075 1.1495837
-0.47068223 0.0089877807 7.9810901
-0.63878632 -0.011925257 5.9159012
-1.0988563 -0.083256744 4.2803721
-0.9865455 -0.079377711 2.745683
-0.94102931 -0.078325137 2.0162883
-0.91642666 -0.077704675 1.5745492
-0.89731449 -0.077169962 1.2673371
-0.89280868 -0.077552348 1.0498128
-0.88842136 -0.080133036 0.95638841
-0.8674764 -0.078692921 0.78473049
-0.86415309 -0.078837529 0.65352911
-0.85282439 -0.078096978 0.53484195
-0.84563059 -0.077728413 0.43141592
-0.82194269 -0.075833395 0.33256555
-0.83640945 -0.077457093 0.25095019
-0.80804241 -0.075107291 0.16580264
-0.88495135 -0.078569613 0.872437
-0.8601281 -0.076810911 0.71233368
-0.86050707 -0.077139758 0.59330624
-0.85542488 -0.077128172 0.48450777
-0.85179436 -0.077092983 0.38681462
-0.81822389 -0.074335769 0.28887469
-0.80866987 -0.073605098 0.20546949
-0.8107034 -0.074067764 0.12651494
-0.076539889 0.025325891 7.8139758
-0.92195642 -0.058573145 5.8732018
-1.1949753 -0.083450958 5.7825241
-1.0222938 -0.078329138 3.324903
-0.96112835 -0.076976292 2.3310966
-0.92888099 -0.076323427 1.7752873
-0.91203982 -0.076200746 1.4168135
-0.89298177 -0.07553412 1.1495837
-0.47064796 0.010630713 7.9810901
-0.638291 -0.0096882405 5.9109297
-1.0991403 -0.079420514 4.2803721
-0.98681659 -0.075933538 2.745683
-0.93912679 -0.074867152 2.0117872
-0.91669226 -0.074505277 1.5745492
-0.89757842 -0.074037284 1.2673371
-0.89307398 -0.074435383 1.0498128
-0.88869566 -0.077031381 0.95638841
-0.86774588 -0.075664386 0.78473049
-0.86442304 -0.075820595 0.65352911
-0.85309184 -0.075119592 0.53484195
-0.84589678 -0.074776143 0.43141592
-0.82220238 -0.072963819 0.33256555
-0.83178186 -0.074101187 0.25001755
-0.8082996 -0.072286241 0.16580264
-0.88522017 -0.075480081 0.872437
-0.86039096 -0.073808029 0.71233368
-0.86077112 -0.074135557 0.59330624
-0.85568893 -0.074141718 0.48450777
-0.85676277 -0.074528292 0.38845813
-0.81847835 -0.071479172 0.28887469
-0.80892187 -0.070781872 0.20546949
-0.81095695 -0.07123743 0.12651494
-0.076451018 0.025592908 7.8139758
-0.9221552 -0.055354562 5.8732018
-1.1952592 -0.079279214 5.7825241
-1.0225611 -0.074760191 3.324903
-0.96139115 -0.073620863 2.3310966
-0.92914176 -0.073080555 1.7752873
-0.91230023 -0.073016666 1.4168135
-0.89324003 -0.072416574 1.1495837
-0.470608 0.012273516 7.9810901
-0.63938695 -0.0074707358 5.9208722
-1.0994108 -0.075583316 4.2803721
-0.98879665 -0.072614528 2.7503757
-0.93938243 -0.071588531 2.0117872
-0.91694677 -0.071304969 1.5745492
-0.89783138 -0.070903704 1.2673371
-0.89332837 -0.071317524 1.0498128
-0.88540518 -0.073633477 0.95288384
-0.86800468 -0.072634928 0.78473049
-0.86468244 -0.07280273 0.65352911
-0.85334879 -0.072141282 0.53484195
-0.84615266 -0.071822949 0.43141592
-0.82245207 -0.070093356 0.33256555
-0.83203542 -0.071197279 0.25001755
-0.80854708 -0.069464304 0.16580264
-0.88547826 -0.072389625 0.872437
-0.86064339 -0.070804261 0.71233368
-0.86102468 -0.071130455 0.59330624
-0.85141951 -0.070778519 0.48240969
-0.8570177 -0.071537182 0.38845813
-0.8187229 -0.068621717 0.28887469
-0.8042292 -0.067543387 0.20477881
-0.81120074 -0.068406232 0.12651494
-0.076361217 0.025859617 7.8139758
-0.92311865 -0.052178811 5.8781414
-1.1945125 -0.075042918 5.7776289
-1.0228158 -0.071190327 3.324903
-0.96359074 -0.070406593 2.3356993
-0.92939121 -0.069836803 1.7752873
-0.90974373 -0.069617286 1.4126806
-0.89348733 -0.069298148 1.1495837
-0.47056228 0.013916169 7.9810901
-0.64047527 -0.0052456982 5.9308157
-1.0996679 -0.071745194 4.2803721
-0.98904401 -0.06916254 2.7503757
-0.93962657 -0.068309039 2.0117872
-0.91719007 -0.06810379 1.5745492
-0.89807338 -0.067769252 1.2673371
-0.89019156 -0.067941062 1.0461376
-0.88565683 -0.070542388 0.95288384
-0.86825293 -0.069604583 0.78473049
-0.86493129 -0.069783978 0.65352911
-0.8535955 -0.069162101 0.53484195
-0.84639823 -0.06886889 0.43141592
-0.81791055 -0.066831462 0.33115551
-0.83227885 -0.068292499 0.25001755
-0.8087846 -0.066641524 0.16580264
-0.88200319 -0.069007292 0.86911154
-0.86088526 -0.06779962 0.71233368
-0.86126769 -0.068124488 0.59330624
-0.85166138 -0.06780608 0.48240969
-0.85726219 -0.0685452 0.38845813
-0.81411248 -0.065374456 0.28770238
-0.80446005 -0.064735696 0.20477881
-0.81143457 -0.065574192 0.12651494
-0.076270483 0.02612601 7.8139758
-0.92329514 -0.048956208 5.8781414
-1.1947671 -0.070872836 5.7776289
-1.0215685 -0.06752146 3.3201311
-0.96383065 -0.067042604 2.3356993
-0.92962927 -0.066592194 1.7752873
-0.90998119 -0.066441268 1.4126806
-0.89372385 -0.066178866 1.1495837
-0.47022232 0.015548076 7.976099
-1.0986569 -0.06782902 4.2755322
-0.99100137 -0.065823779 2.7550685
-0.93985927 -0.065028712 2.0117872
-0.91482067 -0.064718045 1.5702833
-0.89830452 -0.06463398 1.2673371
-0.89042324 -0.064833298 1.0461376
-0.88589764 -0.067450434 0.95288384
-0.86849064 -0.066573389 0.78473049
-0.86100054 -0.066442862 0.65078765
-0.85824823 -0.066524245 0.53716075
-0.84201151 -0.065554291 0.42954287
-0.81813884 -0.06397602 0.33115551
-0.8325122 -0.065386884 0.25001755
-0.80901229 -0.063817941 0.16580264
-0.88223869 -0.065928109 0.86911154
-0.86111671 -0.06479416 0.71233368
-0.8615002 -0.065117687 0.59330624
-0.85189289 -0.064832814 0.48240969
-0.8574962 -0.065552376 0.38845813
-0.80948931 -0.062160216 0.28653008
-0.80468112 -0.061927211 0.20477881
-0.8116585 -0.062741362 0.12651494
-0.076178826 0.026392085 7.8139758
-0.92346042 -0.045733009 5.8781414
-1.1950073 -0.066701889 5.7776289
-1.021798 -0.063955106 3.3201311
-0.96600837 -0.063806266 2.340302
-0.92985606 -0.063346781 1.7752873
-0.91020757 -0.06326443 1.4126806
-0.89075202 -0.062833525 1.1457462
-0.47016519 0.017189363 7.976099
-1.0988871 -0.063993581 4.2755322
-0.9929474 -0.062472194 2.7597613
-0.94008058 -0.061747599 2.0117872
-0.91504103 -0.061524332 1.5702833
-0.89852464 -0.061497916 1.2673371
-0.89064413 -0.061724752 1.0461376
-0.88612771 -0.064357661 0.95288384
-0.86871767 -0.06354139 0.78473049
-0.86122721 -0.063437 0.65078765
-0.85847527 -0.063527994 0.53716075
-0.84223521 -0.062614724 0.42954287
-0.81835723 -0.061119795 0.33115551
-0.83273542 -0.062480476 0.25001755
-0.80923009 -0.060993571 0.16580264
-0.88246346 -0.062848113 0.86911154
-0.857306 -0.061498914 0.70939052
-0.85742259 -0.061800379 0.59077305
-0.85211396 -0.061858755 0.48240969
-0.85771978 -0.062558763 0.38845813
-0.80970138 -0.059334196 0.28653008
-0.79995364 -0.058755293 0.20408812
-0.81187254 -0.05990776 0.12651494
-0.076046467 0.026639873 7.8089757
-0.92361444 -0.04250925 5.8781414
-1.1952329 -0.06253013 5.7776289
-1.0220151 -0.060387973 3.3201311
-0.96622515 -0.060433876 2.340302
-0.93007153 -0.060100589 1.7752873
-0.91042286 -0.060086831 1.4126806
-0.89096594 -0.059723835 1.1457462
-0.47010234 0.018830441 7.976099
-0.83079451 0.0022254097 7.7056422
-1.0991037 -0.060157355 4.2755322
-0.99488211 -0.059107825 2.7644541
-0.93811768 -0.058330934 2.0072861
-0.91525018 -0.058329869 1.5702833
-0.89572692 -0.058166124 1.263347
-0.89085418 -0.058615446 1.0461376
-0.88634694 -0.061264105 0.95288384
-0.86893421 -0.060508609 0.78473049
-0.8614434 -0.060430374 0.65078765
-0.85869175 -0.060530964 0.53716075
-0.84244865 -0.059674393 0.42954287
-0.81856555 -0.058262821 0.33115551
-0.83294839 -0.059573304 0.25001755
-0.80943811 -0.058168456 0.16580264
-0.88267744 -0.059767358 0.86911154
-0.85751551 -0.058505982 0.70939052
-0.85763305 -0.058807041 0.59077305
-0.85232472 -0.058883946 0.48240969
-0.85322213 -0.059237439 0.38681462
-0.8099035 -0.056507446 0.28653008
-0.80015385 -0.055962574 0.20408812
-0.80709308 -0.056723192 0.12631342
-0.075953014 0.026905164 7.8089757
-0.92298084 -0.039252304 5.8732018
-1.1954439 -0.058357604 5.7776289
-1.0222195 -0.056820106 3.3201311
-0.96643025 -0.057060752 2.340302
-0.93027568 -0.056853671 1.7752873
-0.91062707 -0.056908496 1.4126806
-0.89116901 -0.056613419 1.1457462
-0.4703221 0.020484887 7.9810901
-0.83291388 0.0051414119 7.7255282
-1.0993071 -0.056320399 4.2755322
-0.99680525 -0.055730708 2.7691467
-0.93831557 -0.055055935 2.0072861
-0.91284484 -0.054978196 1.5660173
-0.89592445 -0.055039104 1.263347
-0.89105338 -0.055505428 1.0461376
-0.88655543 -0.058169808 0.95288384
-0.86914015 -0.057475094 0.78473049
-0.8616491 -0.057423003 0.65078765
-0.85447788 -0.057237308 0.53484195
-0.84265178 -0.056733336 0.42954287
-0.81876397 -0.055405136 0.33115551
-0.83315122 -0.056665413 0.25001755
-0.80963624 -0.055342637 0.16580264
-0.88288069 -0.056685876 0.86911154
-0.85771447 -0.055512339 0.70939052
-0.85783315 -0.055812985 0.59077305
-0.84799629 -0.055611588 0.48031163
-0.85342371 -0.056258779 0.38681462
-0.81009585 -0.05368001 0.28653008
-0.80034435 -0.053169176 0.20408812
-0.8072862 -0.053905565 0.12631342
-0.075858638 0.027170124 7.8089757
-0.9223358 -0.036000296 5.8682623
-1.1956403 -0.054184373 5.7776289
-1.0224117 -0.05325155 3.3201311
-0.96467274 -0.053578895 2.3356993
-0.9304685 -0.053606056 1.7752873
-0.91082019 -0.053729467 1.4126806
-0.89136118 -0.053502318 1.1457462
-0.47024775 0.022126494 7.9810901
-0.83182478 0.0080370698 7.7155852
-1.0994968 -0.052482761 4.2755322
-0.99871707 -0.05234088 2.7738397
-0.93850201 -0.051780269 2.0072861
-0.91303116 -0.051791437 1.5660173
-0.89611113 -0.051911406 1.263347
-0.89124173 -0.052394733 1.0461376
-0.88675308 -0.055074796 0.95288384
-0.86933547 -0.054440878 0.78473049
-0.8618443 -0.054414939 0.65078765
-0.85467249 -0.054254271 0.53484195
-0.84284472 -0.053791586 0.42954287
-0.81895232 -0.052546781 0.33115551
-0.83334404 -0.053756822 0.25001755
-0.80982447 -0.05251614 0.16580264
-0.88307321 -0.053603701 0.86911154
-0.857903 -0.052518018 0.70939052
-0.85802269 -0.052818246 0.59077305
-0.84818524 -0.052651189 0.48031163
-0.84890181 -0.052985393 0.38517112
-0.81027836 -0.050851926 0.28653008
-0.80052507 -0.050375126 0.20408812
-0.80746943 -0.051087283 0.12631342
-0.07576333 0.027434755 7.8089757
-0.92012626 -0.032698765 5.8534451
-1.1968395 -0.050052762 5.7825241
-1.0211005 -0.049610205 3.3153591
-0.9629029 -0.050110005 2.3310966
-0.9282583 -0.050228685 1.7708982
-0.9081924 -0.050394166 1.4085476
-0.89154255 -0.05039056 1.1457462
-0.47016764 0.023767831 7.9810901
-0.8339237 0.010971518 7.7354712
-1.0996734 -0.048644479 4.2755322
-0.99889368 -0.048854392 2.7738397
-0.93867707 -0.048503969 2.0072861
-0.9132064 -0.048604049 1.5660173
-0.8962869 -0.048783079 1.263347
-0.89141917 -0.0492834 1.0461376
-0.88693988 -0.051979113 0.95288384
-0.86952019 -0.051406 0.78473049
-0.86202896 -0.051406208 0.65078765
-0.85485667 -0.051270582 0.53484195
-0.84302729 -0.050849184 0.42954287
-0.81913078 -0.049687784 0.33115551
-0.83352661 -0.050847583 0.25001755
-0.81000286 -0.049689006 0.16580264
-0.88325495 -0.050520878 0.86911154
-0.8580811 -0.049523056 0.70939052
-0.85820186 -0.049822867 0.59077305
-0.84836382 -0.04969015 0.48031163
-0.84908164 -0.05002185 0.38517112
-0.81045091 -0.048023213 0.28653008
-0.80069602 -0.047580466 0.20408812
-0.80764282 -0.048268378 0.12631342
-0.075667106 0.02769905 7.8089757
-0.92411786 -0.029609438 5.8781414
-1.1970068 -0.045874704 5.7825241
-1.0212674 -0.046045601 3.3153591
-0.96112061 -0.046654131 2.3264942
-0.92842799 -0.046988152 1.7708982
-0.90836281 -0.04722368 1.4085476
-0.89491373 -0.047447614 1.1495837
-0.47008181 0.025408877 7.9810901
-0.83281434 0.013863224 7.7255282
-1.0998365 -0.044805609 4.2755322
-1.0007821 -0.045445282 2.7785323
-0.93884069 -0.045227081 2.0072861
-0.91337049 -0.045416068 1.5660173
-0.89645171 -0.045654159 1.263347
-0.88820004 -0.045996401 1.0424625
-0.88711596 -0.048882801 0.95288384
-0.86969435 -0.048370495 0.78473049
-0.86220318 -0.048396852 0.65078765
-0.85503048 -0.048286263 0.53484195
-0.84319973 -0.047906157 0.42954287
-0.81929922 -0.046828181 0.33115551
-0.83369899 -0.047937725 0.25001755
-0.81017137 -0.046861265 0.16580264
-0.88342589 -0.047437433 0.86911154
-0.85824871 -0.046527494 0.70939052
-0.8583706 -0.04682688 0.59077305
-0.84853208 -0.046728503 0.48031163
-0.84453613 -0.046796564 0.38352761
-0.81061357 -0.045193922 0.28653008
-0.80085725 -0.044785228 0.20408812
-0.80780637 -0.045448884 0.12631342
-0.07556995 0.027963009 7.8089757
-0.92499226 -0.026405312 5.88308
-1.1971596 -0.041696094 5.7825241
-1.0199305 -0.0424187 3.3105872
-0.9612776 -0.043298911 2.3264942
-0.92858636 -0.043747049 1.7708982
-0.90852207 -0.044052612 1.4085476
-0.89507395 -0.044323493 1.1495837
-0.46999025 0.027049614 7.9810901
-0.83276087 0.016770205 7.7255282
-1.0999862 -0.040966187 4.2755322
-1.0009346 -0.041951627 2.7785323
-0.936818 -0.04185278 2.0027847
-0.9135235 -0.042227533 1.5660173
-0.89660561 -0.04252468 1.263347
-0.8883552 -0.042895723 1.0424625
-0.88728118 -0.045785889 0.95288384
-0.86985791 -0.045334402 0.78473049
-0.86236686 -0.045386907 0.65078765
-0.85519373 -0.045301355 0.53484195
-0.83873248 -0.044715885 0.42766985
-0.81945771 -0.043968011 0.33115551
-0.83386123 -0.045027278 0.25001755
-0.81033003 -0.044032954 0.16580264
-0.88358605 -0.044353411 0.86911154
-0.85840589 -0.043531362 0.70939052
-0.85852879 -0.04383032 0.59077305
-0.84869003 -0.043766286 0.48031163
-0.83997858 -0.043603629 0.3818841
-0.81562042 -0.042617615 0.28770238
-0.80595398 -0.04224861 0.20477881
-0.80297112 -0.042365626 0.12611188
-0.075471886 0.028226629 7.8089757
-0.92740917 -0.023233688 5.8978982
-1.1972979 -0.037516974 5.7825241
-1.0200723 -0.03885822 3.3105872
-0.95947087 -0.039862368 2.3218915
-0.92873341 -0.040505409 1.7708982
-0.90867031 -0.040881012 1.4085476
-0.8952232 -0.041198831 1.1495837
-0.46960488 0.028671391 7.976099
-0.83269727 0.01967698 7.7255282
-1.1001226 -0.037126273 4.2755322
-1.0010749 -0.038457453 2.7785323
-0.93695837 -0.038582422 2.0027847
-0.91366529 -0.039038483 1.5660173
-0.8967486 -0.039394684 1.263347
-0.88849956 -0.039794523 1.0424625
-0.88743562 -0.042688422 0.95288384
-0.87001079 -0.042297754 0.78473049
-0.86252004 -0.04237641 0.65078765
-0.85534668 -0.042315897 0.53484195
-0.83888346 -0.041787889 0.42766985
-0.81960618 -0.041107297 0.33115551
-0.83401334 -0.042116284 0.25001755
-0.81047875 -0.041204106 0.16580264
-0.88373554 -0.041268852 0.86911154
-0.85855263 -0.040534701 0.70939052
-0.85867655 -0.040833231 0.59077305
-0.84883767 -0.04080354 0.48031163
-0.83540899 -0.040443081 0.38024059
-0.81576419 -0.039770309 0.28770238
-0.80609649 -0.039435051 0.20477881
-0.80311412 -0.039562479 0.12611188
-0.075372897 0.028489903 7.8089757
-1.1974216 -0.033337396 5.7825241
-1.0202018 -0.035297267 3.3105872
-0.9596042 -0.036512949 2.3218915
-0.92886913 -0.037263278 1.7708982
-0.90880752 -0.037708908 1.4085476
-0.89536154 -0.038073666 1.1495837
-0.46921393 0.030290807 7.971107
-0.83262348 0.022583516 7.7255282
-1.1002454 -0.033285901 4.2755322
-0.99947846 -0.034902897 2.7738397
-0.9370873 -0.035311591 2.0027847
-0.91379601 -0.035848957 1.5660173
-0.89688063 -0.036264207 1.263347
-0.8852458 -0.036553238 1.0387872
-0.8875792 -0.039590433 0.95288384
-0.87015319 -0.039260592 0.78473049
-0.86683983 -0.039555807 0.65352911
-0.85548919 -0.03932992 0.53484195
-0.83902419 -0.038859386 0.42766985
-0.81974471 -0.038246088 0.33115551
-0.83415526 -0.03920478 0.25001755
-0.81061769 -0.038374759 0.16580264
-0.88387424 -0.038183786 0.86911154
-0.85868895 -0.037537549 0.70939052
-0.85881382 -0.037835639 0.59077305
-0.84897494 -0.037840296 0.48031163
-0.83082759 -0.037314974 0.37859708
-0.81589806 -0.036922518 0.28770238
-0.8111763 -0.036845651 0.20546949
-0.80324727 -0.036758844 0.12611188
-0.075312234 0.028771896 7.8139758
-1.2064486 -0.021675562 7.6710916
-1.1965128 -0.02913289 5.7776289
-1.0203187 -0.031735886 3.3105872
-0.95972574 -0.033163082 2.3218915
-0.92660016 -0.033933349 1.7665092
-0.90893364 -0.034536351 1.4085476
-0.89548898 -0.03494804 1.1495837
-0.46881738 0.031907845 7.9661155
-0.83253956 0.025489775 7.7255282
-1.1003549 -0.029445127 4.2755322
-0.99786937 -0.031359948 2.7691467
-0.9372049 -0.032040332 2.0027847
-0.91391557 -0.032658998 1.5660173
-0.8970018 -0.033133287 1.263347
-0.88536799 -0.03346293 1.0387872
-0.887712 -0.036491964 0.95288384
-0.86639601 -0.036061317 0.78159201
-0.86697263 -0.036529731 0.65352911
-0.85562128 -0.036343466 0.53484195
-0.83915478 -0.03593041 0.42766985
-0.81987321 -0.035384413 0.33115551
-0.83428699 -0.036292795 0.25001755
-0.81074667 -0.035544939 0.16580264
-0.88027126 -0.034950368 0.86578602
-0.85881472 -0.034539934 0.70939052
-0.85894066 -0.034837592 0.59077305
-0.84910184 -0.034876592 0.48031163
-0.8262347 -0.034219343 0.37695354
-0.81116557 -0.033871584 0.28653008
-0.81129998 -0.034013893 0.20546949
-0.80337071 -0.033954766 0.12611188
-0.075211346 0.029034609 7.8139758
-1.2096246 -0.017508077 7.6908488
-1.1966072 -0.024956103 5.7776289
-1.0204233 -0.028174115 3.3105872
-0.95983565 -0.029812813 2.3218915
-0.92671299 -0.030698705 1.7665092
-0.911861 -0.031460106 1.4126806
-0.8956055 -0.031821992 1.1495837
-0.46841523 0.033522483 7.9611235
-0.83244556 0.028395727 7.7255282
-1.100451 -0.025603991 4.2755322
-0.99624777 -0.02782866 2.7644541
-0.93731105 -0.028768681 2.0027847
-0.91141737 -0.0293849 1.5617512
-0.89711195 -0.030001964 1.263347
-0.88547939 -0.030372219 1.0387872
-0.88783395 -0.033393048 0.95288384
-0.86651659 -0.033036809 0.78159201
-0.86709481 -0.033503208 0.65352911
-0.85574293 -0.03335657 0.53484195
-0.83927506 -0.033000994 0.42766985
-0.81999171 -0.032522306 0.33115551
-0.82950032 -0.033184089 0.24908495
-0.81086582 -0.032714691 0.16580264
-0.8803879 -0.031877436 0.86578602
-0.85893005 -0.031541903 0.70939052
-0.85905707 -0.031839114 0.59077305
-0.84468311 -0.031742193 0.47821358
-0.82634908 -0.031335037 0.37695354
-0.81127888 -0.031039879 0.28653008
-0.81141376 -0.031181721 0.20546949
-0.80348438 -0.031150272 0.12611188
-0.075109541 0.02929697 7.8139758
-1.2081244 -0.013269047 7.6809702
-1.196687 -0.020779014 5.7776289
-1.0220077 -0.024647688 3.3153591
-0.95993394 -0.026462181 2.3218915
-0.9268145 -0.027463686 1.7665092
-0.91196525 -0.028276926 1.4126806
-0.89250755 -0.028593192 1.1457462
-0.46800762 0.035134703 7.9561324
-0.83234131 0.031301331 7.7255282
-1.1005336 -0.021762544 4.2755322
-0.99461365 -0.024309075 2.7597613
-0.93958193 -0.025555566 2.0072861
-0.9115144 -0.02620328 1.5617512
-0.89721125 -0.026870277 1.263347
-0.88558 -0.027281132 1.0387872
-0.88794512 -0.030293725 0.95288384
-0.86662662 -0.030011902 0.78159201
-0.86302763 -0.030329619 0.65078765
-0.85142714 -0.03021235 0.53252316
-0.83938509 -0.030071177 0.42766985
-0.82010025 -0.029659804 0.33115551
-0.82961112 -0.030288393 0.24908495
-0.81097507 -0.029884038 0.16580264
-0.88049382 -0.028804116 0.86578602
-0.8590349 -0.028543483 0.70939052
-0.85916299 -0.028840255 0.59077305
-0.84478879 -0.028793506 0.47821358
-0.82645345 -0.028450349 0.37695354
-0.80652457 -0.028039014 0.28535774
-0.80656856 -0.028176341 0.20477881
-0.80358815 -0.028345397 0.12611188
-0.07500682 0.029558973 7.8139758
-1.2081634 -0.0090518249 7.6809702
-1.195734 -0.016587807 5.7727332
-1.0220876 -0.021080067 3.3153591
-0.96002042 -0.023111222 2.3218915
-0.92690474 -0.024228333 1.7665092
-0.91205841 -0.025093401 1.4126806
-0.89260191 -0.025477584 1.1457462
-0.46759439 0.036744487 7.9511404
-0.83222699 0.034206554 7.7255282
-1.0993463 -0.017900653 4.2706933
-0.99296725 -0.020801239 2.7550685
-0.93966544 -0.022275658 2.0072861
-0.91160029 -0.023021342 1.5617512
-0.89729953 -0.023738263 1.263347
-0.88566989 -0.024189716 1.0387872
-0.88804543 -0.027194034 0.95288384
-0.8667261 -0.026986627 0.78159201
-0.86312824 -0.027316907 0.65078765
-0.85152739 -0.027240129 0.53252316
-0.83948499 -0.02714099 0.42766985
-0.82019877 -0.026796939 0.33115551
-0.82971179 -0.027392324 0.24908495
-0.81107444 -0.027053026 0.16580264
-0.88058901 -0.02573044 0.86578602
-0.85912937 -0.02554472 0.70939052
-0.85494959 -0.02571165 0.58823985
-0.84488416 -0.02584447 0.47821358
-0.82654768 -0.025565315 0.37695354
-0.8066175 -0.025223546 0.28535774
-0.80666196 -0.025360718 0.20477881
-0.79868883 -0.025381509 0.12591036
-0.074903175 0.029820615 7.8139758
-1.2081876 -0.0048344922 7.6809702
-1.1957847 -0.012413815 5.7727332
-1.0221549 -0.017512185 3.3153591
-0.95814204 -0.019720096 2.3172891
-0.92698365 -0.020992683 1.7665092
-0.90932721 -0.021842288 1.4085476
-0.89268541 -0.022361668 1.1457462
-0.46717563 0.038351811 7.9461489
-0.83156997 0.037086897 7.7205567
-1.099402 -0.01406311 4.2706933
-0.99303377 -0.017335009 2.7550685
-0.93973744 -0.018995477 2.0072861
-0.9142825 -0.019895561 1.5660173
-0.89737695 -0.020605957 1.263347
-0.88574892 -0.021098003 1.0387872
-0.88813496 -0.024094012 0.95288384
-0.86681503 -0.023961024 0.78159201
-0.86321837 -0.024303861 0.65078765
-0.85161728 -0.024267578 0.53252316
-0.83957464 -0.024210477 0.42766985
-0.82028735 -0.023933746 0.33115551
-0.82489222 -0.024351051 0.24815233
-0.81116396 -0.024221685 0.16580264
-0.88440597 -0.02275224 0.86911154
-0.85921329 -0.022545641 0.70939052
-0.85503411 -0.022727164 0.58823985
-0.84950602 -0.023017878 0.48031163
-0.83135235 -0.022809349 0.37859708
-0.80670065 -0.022407772 0.28535774
-0.80674565 -0.022544788 0.20477881
-0.79877251 -0.022593409 0.12591036
-0.074798629 0.030081894 7.8139758
-1.2081972 -0.00061710103 7.6809702
-1.1958207 -0.0082396725 5.7727332
-1.0237023 -0.013964153 3.3201311
-0.95820504 -0.016375436 2.3172891
-0.92705131 -0.017756779 1.7665092
-0.9093979 -0.018668013 1.4085476
-0.89275801 -0.019245477 1.1457462
-0.46675137 0.039956663 7.9411569
-0.8314355 0.039989393 7.7205567
-1.0994444 -0.010225394 4.2706933
-0.99136263 -0.013844776 2.7503757
-0.93979806 -0.015715064 2.0072861
-0.91434634 -0.016703997 1.5660173
-0.89744341 -0.017473402 1.263347
-0.88581717 -0.018006034 1.0387872
-0.88821363 -0.020993695 0.95288384
-0.86689341 -0.020935129 0.78159201
-0.86329794 -0.021290518 0.65078765
-0.85169679 -0.021294732 0.53252316
-0.83965403 -0.021279667 0.42766985
-0.82036585 -0.021070264 0.33115551
-0.82497221 -0.021471491 0.24815233
-0.81124353 -0.021390047 0.16580264
-0.88448006 -0.019664949 0.86911154
-0.85928673 -0.019546291 0.70939052
-0.85510826 -0.019742398 0.58823985
-0.84958118 -0.020052409 0.48031163
-0.83614767 -0.02002015 0.38024059
-0.80677396 -0.019591725 0.28535774
-0.80681938 -0.019728584 0.20477881
-0.79884654 -0.019805036 0.12591036
-0.074693166 0.030342806 7.8139758
-1.208192 0.003600298 7.6809702
-1.1958421 -0.0040654289 5.7727332
-1.0237448 -0.010390679 3.3201311
-0.95825636 -0.013030576 2.3172891
-0.92710763 -0.014520658 1.7665092
-0.90945756 -0.015493507 1.4085476
-0.89281976 -0.016129054 1.1457462
-0.46632159 0.041559022 7.9361658
-0.83129078 0.042891398 7.7205567
-1.0994734 -0.0063875546 4.2706933
-0.99140489 -0.010384191 2.7503757
-0.93984717 -0.012434463 2.0072861
-0.91439909 -0.013512231 1.5660173
-0.89749891 -0.014340634 1.263347
-0.88587463 -0.014913846 1.0387872
-0.88828152 -0.017893123 0.95288384
-0.86696118 -0.017908979 0.78159201
-0.86336696 -0.018276915 0.65078765
-0.85176593 -0.018321626 0.53252316
-0.83972317 -0.018348599 0.42766985
-0.82043445 -0.018206526 0.33115551
-0.82504213 -0.01859167 0.24815233
-0.81131327 -0.018558146 0.16580264
-0.88454324 -0.016577417 0.86911154
-0.85934973 -0.016546702 0.70939052
-0.85517198 -0.016757393 0.58823985
-0.84964603 -0.017086696 0.48031163
-0.84093368 -0.017197751 0.3818841
-0.80683744 -0.016775439 0.28535774
-0.80688334 -0.01691214 0.20477881
-0.80390567 -0.01712279 0.12611188
-0.074548028 0.030583329 7.8089757
-1.208172 0.007817653 7.6809702
-1.1958491 0.00010886426 5.7727332
-1.0252676 -0.0068267197 3.324903
-0.9563424 -0.0096661216 2.3126867
-0.92715263 -0.01128436 1.7665092
-0.90950608 -0.012318814 1.4085476
-0.89287066 -0.013012432 1.1457462
-0.46588629 0.043158859 7.9311738
-0.83113605 0.045792885 7.7205567
-1.0982319 -0.0025470045 4.2658539
-0.99143511 -0.0069234776 2.7503757
-0.93988484 -0.0091537079 2.0072861
-0.91444069 -0.010320301 1.5660173
-0.89754355 -0.01120769 1.263347
-0.88592124 -0.011821475 1.0387872
-0.88833857 -0.014792331 0.95288384
-0.8670184 -0.014882612 0.78159201
-0.8592447 -0.015189385 0.64804614
-0.8518247 -0.015348297 0.53252316
-0.83978212 -0.015417306 0.42766985
-0.81569672 -0.015252982 0.32974547
-0.82510203 -0.015711622 0.24815233
-0.81137311 -0.015726022 0.16580264
-0.88459575 -0.013489684 0.86911154
-0.85940224 -0.01354691 0.70939052
-0.85522521 -0.013772184 0.58823985
-0.84970051 -0.014120772 0.48031163
-0.84098858 -0.014262239 0.3818841
-0.81175101 -0.01404293 0.28653008
-0.81188887 -0.014181915 0.20546949
-0.8039605 -0.014316533 0.12611188
-0.074440815 0.030843362 7.8089757
-1.2081374 0.012034913 7.6809702
-1.1968597 0.0042870659 5.7776289
-1.0252851 -0.0032478268 3.324903
-0.95637029 -0.0063278046 2.3126867
-0.92718637 -0.0080479244 1.7665092
-0.90954351 -0.00914397 1.4085476
-0.8929106 -0.0098956535 1.1457462
-0.46544555 0.04475617 7.9261823
-0.83097112 0.048693813 7.7205567
-1.0982342 0.0012865558 4.2658539
-0.99145329 -0.0034626811 2.7503757
-0.93991107 -0.0058728424 2.0072861
-0.91447115 -0.0071282443 1.5660173
-0.89757717 -0.0080746105 1.263347
-0.88595718 -0.0087289615 1.0387872
-0.88838482 -0.011691362 0.95288384
-0.86706507 -0.011856061 0.78159201
-0.85929251 -0.012189969 0.64804614
-0.8518731 -0.012374779 0.53252316
-0.83983082 -0.012485825 0.42766985
-0.81574506 -0.012405577 0.32974547
-0.82515186 -0.012831383 0.24815233
-0.81142306 -0.012893706 0.16580264
-0.88463748 -0.010401786 0.86911154
-0.85944432 -0.010546954 0.70939052
-0.85526806 -0.010786807 0.58823985
-0.84974462 -0.011154679 0.48031163
-0.84103328 -0.011326555 0.3818841
-0.81179506 -0.011209305 0.28653008
-0.8119334 -0.011347807 0.20546949
-0.80400556 -0.011510099 0.12611188
-0.074332692 0.031103022 7.8089757
-1.208088 0.016252026 7.6809702
-1.1968374 0.0084648598 5.7776289
-1.0252903 0.00033110578 3.324903
-0.95638657 -0.0029894109 2.3126867
-0.92720884 -0.0048113912 1.7665092
-0.90956992 -0.005969015 1.4085476
-0.89293975 -0.0067787534 1.1457462
-0.46471217 0.046321258 7.9161992
-0.83132809 0.0516279 7.7255282
-1.098223 0.0051201005 4.2658539
-0.99318504 -1.5413059e-06 2.7550685
-0.93992585 -0.0025919047 2.0072861
-0.91449046 -0.0039361012 1.5660173
-0.89759988 -0.0049414327 1.263347
-0.88598222 -0.00563634 1.0387872
-0.88842016 -0.0085902493 0.95288384
-0.86710113 -0.0088293673 0.78159201
-0.85932982 -0.0091904048 0.64804614
-0.85191113 -0.0094011119 0.53252316
-0.83986926 -0.0095541924 0.42766985
-0.81578338 -0.0095580202 0.32974547
-0.83010346 -0.010010144 0.24908495
-0.81146312 -0.010061233 0.16580264
-0.88466841 -0.0073137628 0.86911154
-0.8635177 -0.007582142 0.71233368
-0.85530055 -0.007801299 0.58823985
-0.84977835 -0.0081884479 0.48031163
-0.84106767 -0.0083907321 0.3818841
-0.81182921 -0.0083755441 0.28653008
-0.81196803 -0.0085135614 0.20546949
-0.80404085 -0.0087035261 0.12611188
-0.074223675 0.031362303 7.8089757
-1.2080239 0.020468941 7.6809702
-1.1978188 0.012653567 5.7825241
-1.0252829 0.0039100349 3.324903
-0.95639122 0.00034901945 2.3126867
-0.92721999 -0.001574799 1.7665092
-0.90677118 -0.0027856377 1.4044147
-0.89295793 -0.0036617711 1.1457462
-0.46397355 0.047881771 7.9062157
-0.83114284 0.054529458 7.7255282
-1.0981984 0.0089535834 4.2658539
-0.99490458 0.003471646 2.7597613
-0.93992919 0.00068906444 2.0072861
-0.91449863 -0.00074390956 1.5660173
-0.89761168 -0.0018081942 1.263347
-0.88599652 -0.002543651 1.0387872
-0.88487858 -0.0054672468 0.94937932
-0.87101895 -0.0058283806 0.78473049
-0.85935664 -0.0061907275 0.64804614
-0.85193872 -0.0064273304 0.53252316
-0.83989751 -0.0066224434 0.42766985
-0.81581181 -0.0067103468 0.32974547
-0.83013338 -0.0071124807 0.24908495
-0.81149328 -0.0072286366 0.16580264
-0.88468856 -0.0042256489 0.86911154
-0.86353886 -0.0045678569 0.71233368
-0.85532254 -0.0048156953 0.58823985
-0.84980178 -0.0052221185 0.48031163
-0.84109181 -0.0054548066 0.3818841
-0.80699301 -0.0055085942 0.28535774
-0.81199282 -0.005679212 0.20546949
-0.8040663 -0.0058968472 0.12611188
-0.074113749 0.031621203 7.8089757
-1.2079451 0.024685606 7.6809702
-1.1977673 0.016834658 5.7825241
-1.025263 0.0074889152 3.324903
-0.95638412 0.0036874455 2.3126867
-0.92721981 0.0016618124 1.7665092
-0.90677541 0.00037960129 1.4044147
-0.88976008 -0.00054306554 1.1419086
-0.46322972 0.049437691 7.8962326
-0.83094746 0.05743036 7.7255282
-1.0981604 0.012786957 4.2658539
-0.99661207 0.0069568385 2.7644541
-0.93992102 0.0039700251 2.0072861
-0.91449571 0.0024482908 1.5660173
-0.89761251 0.0013250662 1.263347
-0.88599998 0.00054906931 1.0387872
-0.88489228 -0.0023784109 0.94937932
-0.87103397 -0.0027879216 0.78473049
-0.85937303 -0.0031909752 0.64804614
-0.85195595 -0.0034534701 0.53252316
-0.83991551 -0.0036906139 0.42766985
-0.81583023 -0.0038625912 0.32974547
-0.83015317 -0.0042147315 0.24908495
-0.81151354 -0.0043959529 0.16580264
-0.8809641 -0.0011329221 0.86578602
-0.86354953 -0.0015535161 0.71233368
-0.85533416 -0.0018300334 0.58823985
-0.84981483 -0.0022557252 0.48031163
-0.84110576 -0.0025188152 0.3818841
-0.80700731 -0.0026916293 0.28535774
-0.81200773 -0.0028447937 0.20546949
-0.80408204 -0.0030900957 0.12611188
-0.074041337 0.031900406 7.8139758
-1.2086284 0.02892082 7.6859097
-1.1987194 0.021033671 5.7874193
-1.0252305 0.011067705 3.324903
-0.95636547 0.0070258263 2.3126867
-0.92481345 0.0048854458 1.7621201
-0.90676856 0.0035448358 1.4044147
-0.8897565 0.0025627799 1.1419086
-0.46219376 0.050956313 7.8812571
-0.83074194 0.060330555 7.7255282
-1.0981091 0.016620172 4.2658539
-0.99830729 0.010453993 2.7691467
-0.93990147 0.0072509372 2.0072861
-0.91448152 0.0056404616 1.5660173
-0.89760244 0.0044583105 1.263347
-0.88599265 0.0036417828 1.0387872
-0.88132888 0.00070734211 0.94587469
-0.87103838 0.00025257131 0.78473049
-0.85519755 -0.00019045404 0.64530468
-0.85196286 -0.00047956783 0.53252316
-0.83992332 -0.00075873919 0.42766985
-0.81583869 -0.0010147889 0.32974547
-0.83507496 -0.0013246468 0.25001755
-0.81152397 -0.0015632148 0.16580264
-0.88096273 0.0019422235 0.86578602
-0.86354971 0.0014608438 0.71233368
-0.85533535 0.0011556511 0.58823985
-0.85435605 0.00071465608 0.48240969
-0.84110945 0.00041720699 0.3818841
-0.80701178 0.00012536824 0.28535774
-0.81201267 -1.0340497e-05 0.20546949
-0.80408794 -0.00028330699 0.12611188
-0.073929533 0.032158665 7.8139758
-1.2085201 0.033139542 7.6859097
-1.1986386 0.025217853 5.7874193
-1.0251857 0.01464636 3.324903
-0.95633507 0.010364122 2.3126867
-0.92479074 0.0081136171 1.7621201
-0.90956461 0.0067311455 1.4085476
-0.88974214 0.005668594 1.1419086
-0.46115294 0.052468322 7.8662825
-0.83052623 0.063230023 7.7255282
-1.0980444 0.020453189 4.2658539
-0.99826473 0.013938672 2.7691467
-0.93987036 0.010531762 2.0072861
-0.91445631 0.0088325627 1.5660173
-0.89758134 0.0075914999 1.263347
-0.88597453 0.0067344522 1.0387872
-0.88132101 0.0037837494 0.94587469
-0.87103218 0.0032930612 0.78473049
-0.85519302 0.0027947435 0.64530468
-0.85195929 0.0024943403 0.53252316
-0.83528495 0.0021610081 0.42579681
-0.81583732 0.0018330259 0.32974547
-0.83507454 0.001590317 0.25001755
-0.81650448 0.0012773643 0.16624972
-0.88095057 0.0050173448 0.86578602
-0.8635394 0.0044751861 0.71233368
-0.85532612 0.0041413214 0.58823985
-0.8543483 0.0036969106 0.48240969
-0.84110284 0.0033532244 0.3818841
-0.80700642 0.0029423642 0.28535774
-0.81200778 0.0028241128 0.20546949
-0.804084 0.0025234853 0.12611188
-0.073816828 0.032416534 7.8139758
-1.208397 0.037357863 7.6859097
-1.1985433 0.029401729 5.7874193
-1.0266207 0.018251671 3.329675
-0.95824659 0.013730592 2.3172891
-0.92475682 0.01134169 1.7621201
-0.90953553 0.0099060768 1.4085476
-0.88971692 0.0087743383 1.1419086
-0.46010718 0.053973675 7.8513074
-0.83030051 0.066128708 7.7255282
-1.0979663 0.024285953 4.2658539
-0.99820995 0.017423183 2.7691467
-0.93982792 0.013812458 2.0072861
-0.91441989 0.012024558 1.5660173
-0.89754939 0.010724599 1.263347
-0.88594562 0.0098270392 1.0387872
-0.88130248 0.0068601104 0.94587469
-0.87101537 0.0063335109 0.78473049
-0.855178 0.0057799076 0.64530468
-0.84751576 0.0054396125 0.53020442
-0.83527225 0.0050766831 0.42579681
-0.81582594 0.0046808179 0.32974547
-0.83506387 0.0045052613 0.25001755
-0.81649506 0.0041274889 0.16624972
-0.88092768 0.0080924062 0.86578602
-0.86351848 0.007489474 0.71233368
-0.85530639 0.0071269413 0.58823985
-0.85433024 0.00667912 0.48240969
-0.84108603 0.0062892004 0.3818841
-0.80699122 0.0057593244 0.28535774
