# .PCD v0.7 - Point Cloud Data file format
VERSION 0.7
FIELDS x y z
SIZE 4 4 4
TYPE F F F
COUNT 1 1 1
WIDTH 1547
HEIGHT 1
VIEWPOINT 0 0 0 1 0 0 0
POINTS 1547
DATA ascii
9.5747604 -0.81239921 4.5295529
0.2897979 -0.18195234 37.812832
5.988328 -0.66917336 38.304371
7.9606485 -0.8377924 38.507118
12.084614 -1.1889591 38.866638
16.556231 -1.5707031 39.238739
2.1616499 -0.43767211 37.975967
4.0446048 -0.65540785 38.171017
9.9851885 -1.026337 38.683842
14.279943 -1.3974688 39.072388
8.7283812 -0.79734731 9.5798693
7.2830191 -0.64224339 7.2645712
9.8943968 -0.86733609 8.0910578
9.3332281 -0.81322759 6.2269297
7.2700047 -0.63089556 3.9063773
9.820323 -0.84705275 4.0707188
6.5599966 -0.58656138 5.9471502
10.479156 -0.92782748 6.2676268
9.5629711 -0.84334826 4.5253568
0.28912905 -0.18301328 37.812832
5.9873786 -0.6912955 38.314247
7.9595485 -0.8671847 38.516907
12.083145 -1.2335466 38.876183
16.556198 -1.6319494 39.252548
2.1602364 -0.44602764 37.980961
4.0425839 -0.67102063 38.175991
9.9849224 -1.0650697 38.698357
14.279369 -1.4553057 39.086464
8.7689819 -0.83656454 9.6276464
7.4652829 -0.68590117 7.4468079
9.8872757 -0.90324092 8.0879192
9.8257351 -0.89244157 6.553164
7.2499967 -0.65594047 3.8971019
9.4984102 -0.8560403 3.9414794
10.484102 -0.96885103 6.2726932
10.856732 -0.99947351 5.1274977
0.28848848 -0.18402143 37.812832
5.9864726 -0.71237493 38.324127
7.9584961 -0.89519101 38.526695
12.083219 -1.2761877 38.890495
16.556231 -1.6903268 39.266354
2.1587455 -0.45318878 37.980961
4.0408626 -0.68451184 38.180962
9.9838352 -1.0984501 38.708038
14.279613 -1.5031918 39.10054
7.4628434 -0.71195573 7.4468079
9.9189358 -0.94105726 8.1161652
9.943285 -0.93812495 6.6326671
8.6898518 -0.81680888 4.6553497
9.6015272 -0.89913255 3.9845593
6.5480876 -0.6339128 5.9404993
9.5903502 -0.92339921 7.0989919
10.424871 -1.0000896 6.2397623
11.12444 -1.0613337 5.2533813
0.28784436 -0.1850273 37.812832
5.9854918 -0.73345637 38.334003
7.957346 -0.92320073 38.536488
12.081658 -1.3186822 38.900043
16.558001 -1.7489294 39.284767
7.9265718 -0.80088133 9.615118
2.1571503 -0.46072143 37.980961
4.0389738 -0.69870389 38.185932
9.9836874 -1.133719 38.722557
14.279426 -1.5535879 39.114624
7.7568097 -0.80013472 10.400503
7.4745092 -0.73940605 7.4608264
9.8226252 -0.96652687 8.0408421
9.9024963 -0.96916199 6.6079936
9.0396576 -0.88153416 4.8408532
9.5060453 -0.92367548 3.9470985
6.5718403 -0.65937549 5.9637775
9.6071787 -0.95887744 7.113708
10.245442 -1.0189805 6.1359019
10.7187 -1.0603913 5.0666542
0.28719673 -0.18603095 37.812832
5.984436 -0.75453955 38.343884
7.9560966 -0.95121324 38.546276
12.081431 -1.3613485 38.91436
16.557619 -1.8073528 39.298573
7.9109764 -0.82721186 9.5997677
2.155529 -0.46824852 37.980961
4.037035 -0.71289104 38.190903
9.9821663 -1.1688541 38.732235
14.280774 -1.6041934 39.133392
7.7449803 -0.8262471 10.388533
7.1585178 -0.75737393 7.8819432
8.4865189 -0.86945009 8.4631262
10.028292 -1.0221218 8.2103186
9.8948936 -1.0033005 6.6052523
10.8171 -1.0930053 5.7776489
9.9178972 -0.99865389 4.1156716
9.6359386 -0.99573076 7.1372533
10.383331 -1.0693111 6.2194967
0.28650957 -0.18700773 37.807835
5.9840784 -0.77572453 38.358704
7.9547496 -0.97922838 38.556072
12.081055 -1.4040293 38.928673
16.558977 -1.8660141 39.316982
7.869801 -0.85068738 9.5537186
2.1535993 -0.47570729 37.975967
4.0350466 -0.72707331 38.195877
9.9805202 -1.2039924 38.741913
14.280232 -1.654629 39.147472
7.8109365 -0.86087012 10.480303
7.0884295 -0.77498746 7.8084402
8.6501122 -0.91673416 8.62784
10.105951 -1.0656934 8.276226
9.9786606 -1.0469973 6.6628227
11.544579 -1.2072393 6.1625695
10.513773 -1.0957407 4.3591657
7.372673 -0.79175913 6.6854115
9.7368994 -1.0405278 7.2137752
10.216647 -1.0881988 6.1232357
9.3390112 -0.98977923 4.4288464
0.28581908 -0.18798198 37.802834
5.9828739 -0.79681331 38.36858
7.9533033 -1.0072455 38.565861
12.080525 -1.4467239 38.942989
16.560123 -1.9247062 39.335388
7.0194364 -0.79098201 10.447307
7.8635979 -0.87779725 9.549881
2.1519256 -0.48322189 37.975967
4.0330081 -0.74125034 38.200848
9.9799995 -1.2392883 38.756432
14.27951 -1.70508 39.161549
7.7959085 -0.88676786 10.464343
8.982295 -1.0138062 9.8775578
8.441246 -0.92440468 8.4245758
10.044128 -1.0946374 8.2291498
9.9458456 -1.0786669 6.6436324
12.059982 -1.3037109 6.4361873
7.4737725 -0.82901645 6.7785254
9.7372265 -1.0749533 7.2167182
9.3039188 -1.0189137 4.4141603
11.539104 -1.2596382 4.1290846
0.28512532 -0.18895368 37.797832
5.9808264 -0.8177979 38.37352
7.9517584 -1.0352647 38.575653
12.079846 -1.4894321 38.957306
16.561062 -1.9834296 39.353802
7.0445848 -0.81872857 10.488636
7.7745128 -0.89533919 9.4462681
2.1519141 -0.49111724 38.005917
4.03092 -0.755422 38.205818
9.9781055 -1.274436 38.766109
14.278608 -1.7555462 39.175629
8.9686003 -1.0439781 9.8665323
6.7724395 -0.76557368 6.7774396
10.040246 -1.1296912 8.2291498
9.9627981 -1.1157048 6.6573396
7.4634142 -0.85425043 6.7718744
9.8980722 -1.1276963 7.3373876
10.530046 -1.195985 6.3132238
9.3995199 -1.0626007 4.4603171
11.53933 -1.3004383 4.1307282
0.28442824 -0.18992282 37.792835
5.9787045 -0.8387779 38.378456
7.9501147 -1.0632851 38.585442
12.079017 -1.5321532 38.971622
16.559856 -2.0419438 39.367611
7.0388899 -0.84297919 10.484503
7.7586088 -0.92096049 9.4309177
2.1515927 -0.49895301 38.030876
4.0287824 -0.76958811 38.210789
9.9760895 -1.3095857 38.775791
14.27753 -1.8060269 39.189705
7.1792626 -0.86742944 9.6503782
6.7626405 -0.78838325 6.7704306
9.8970528 -1.1485773 8.1161652
9.954689 -1.1499947 6.6545987
6.8665471 -0.79080969 3.7046413
10.874781 -1.2486131 4.5108814
7.438138 -0.87767202 6.7519217
9.8940754 -1.16224 7.3373876
10.62 -1.2437663 6.3689537
9.3912458 -1.094879 4.4582191
11.473743 -1.3336225 4.1093626
0.28372785 -0.19088942 37.787834
5.9765091 -0.85975301 38.383396
7.9483719 -1.0913068 38.595234
12.078036 -1.5748867 38.985939
16.558441 -2.1004736 39.381416
7.1783404 -0.88510901 10.695284
2.1518044 -0.50692534 38.065819
4.0265946 -0.78374845 38.215763
9.9739485 -1.3447367 38.785469
14.276272 -1.8565214 39.203785
7.1522694 -0.88950908 9.6184578
7.2687006 -0.89756566 8.0179243
6.7633882 -0.81240976 6.7739348
9.9084415 -1.1849664 8.1287184
9.9464617 -1.1842417 6.6518569
6.8549471 -0.81372923 3.7000036
10.87496 -1.2871104 4.5127544
8.2838163 -1.0067961 7.5134606
9.8939695 -1.1972553 7.3403311
11.469018 -1.3736652 4.1093626
0.28309539 -0.19190387 37.792835
5.9734716 -0.88060975 38.383396
7.9465299 -1.1193292 38.605022
12.076902 -1.6176318 39.000256
16.55682 -2.1590183 39.395226
7.1752071 -0.91016072 10.695284
9.1035643 -1.1451275 11.061857
2.1486182 -0.51409644 38.040855
4.0243568 -0.79790288 38.22073
9.9716845 -1.3798888 38.795147
14.276546 -1.9072578 39.222553
7.1670542 -0.91676384 9.6423979
7.2722492 -0.92378718 8.0252752
6.7534328 -0.83513808 6.7669258
9.9196978 -1.2214489 8.1412725
6.7905054 -0.8301267 3.6675408
10.902614 -1.32899 4.525866
8.3173008 -1.0403403 7.5467157
9.7854443 -1.2187948 7.2638087
8.1555252 -1.0128946 4.9149094
10.806703 -1.336439 5.1212034
11.351672 -1.3998206 4.0699182
0.28279561 -0.19242296 37.797832
5.9726939 -0.89114875 38.388336
7.9457703 -1.1319538 38.609917
12.078785 -1.6372017 39.014568
16.559601 -2.1829002 39.409031
7.1657157 -0.91785342 10.682884
9.1116982 -1.1574606 11.07337
2.1473269 -0.51576841 38.025883
4.0241818 -0.80151874 38.225704
9.9744539 -1.3873696 38.809666
14.282053 -1.9181432 39.241325
7.1816778 -0.92118263 9.6623478
7.2214818 -0.91989928 7.9701476
6.7908883 -0.85180646 6.8054762
10.033639 -1.2514824 8.2354259
8.8199625 -1.0954165 5.9116611
11.317542 -1.3996121 6.0559044
8.2682304 -1.0415313 7.5034842
9.6642723 -1.2105542 7.1755142
8.1548157 -1.0185881 4.9149094
10.859813 -1.3507054 5.1463804
11.41186 -1.4133092 4.0912843
0.28219312 -0.19345972 37.807835
5.970315 -0.91210932 38.393276
7.9435825 -1.1613636 38.619705
12.077138 -1.6820796 39.028885
16.556906 -2.2472565 39.42284
7.1312871 -0.94255471 10.637423
9.1101561 -1.1944447 11.077208
2.1442149 -0.5249263 38.01091
4.0216913 -0.81928307 38.235649
9.9705429 -1.4329753 38.819344
14.27833 -1.9836456 39.255405
6.784337 -0.87504965 6.8019714
10.05987 -1.2922164 8.2605333
8.8034449 -1.1261442 5.9034367
6.5839334 -0.83988398 3.5608759
8.1266193 -1.0597335 7.3804407
9.754879 -1.2668909 7.24615
8.0688839 -1.0450622 4.8667793
9.6652479 -1.2466896 4.5924945
11.442543 -1.4718902 4.1044321
0.28162229 -0.19452019 37.822834
5.9678626 -0.9330641 38.398212
7.9414949 -1.1893866 38.629501
12.074148 -1.7246486 39.038429
16.54896 -2.3050373 39.42284
7.1056457 -0.96441382 10.604359
9.1154613 -1.2275211 11.08872
2.1415293 -0.53219831 37.995934
4.0188069 -0.83331639 38.235649
9.967968 -1.4681368 38.829025
14.278152 -2.0344479 39.274174
8.6949596 -1.1817164 9.5908957
6.749423 -0.89450884 6.7704306
7.6666789 -1.0120082 6.3178296
8.803607 -1.1574123 5.906178
11.350901 -1.4882948 6.0790925
9.0978556 -1.1896534 3.795383
6.4575486 -0.86500543 5.883966
9.7584105 -1.3020033 7.2520361
8.0822792 -1.075496 4.8769116
9.678833 -1.2828051 4.6008868
11.535645 -1.5248184 4.1389456
0.28097686 -0.1955277 37.827835
5.9653368 -0.95401299 38.403156
7.9383011 -1.2172546 38.634392
12.071009 -1.767217 39.047974
16.562086 -2.365829 39.473469
7.1022363 -0.98921126 10.604359
9.0793695 -1.2549436 11.050344
2.1399381 -0.53974122 38.000923
4.0163951 -0.84744966 38.240616
9.9665108 -1.5034851 38.84354
14.276086 -2.0850236 39.288254
7.7580876 -1.0888617 10.448382
8.7344313 -1.2181482 9.6386719
7.0960932 -0.96567369 7.1173806
7.6322436 -1.0345808 6.2927217
8.811944 -1.189814 5.9144025
9.0890532 -1.2207866 3.79351
6.4766836 -0.89059323 5.9039187
8.078475 -1.1037017 4.8769116
9.597846 -1.3061785 4.5652199
11.478781 -1.5580894 4.1208673
0.28053907 -0.19668771 37.862831
5.9635034 -0.97508097 38.413036
7.9360156 -1.245273 38.644184
12.069195 -1.8100063 39.06229
16.569193 -2.4258912 39.510288
9.0527191 -1.2834793 11.023482
2.1386003 -0.5473513 38.01091
4.0134125 -0.86146438 38.240616
9.963686 -1.5386491 38.853218
14.27384 -2.1356099 39.30233
7.7751174 -1.1189406 10.476313
6.916081 -0.96577555 6.942153
7.6170197 -1.059607 6.2833061
8.7953119 -1.2188442 5.906178
9.0571804 -1.2487066 3.7822716
6.5031123 -0.91736823 5.9305224
10.053286 -1.4128504 7.4757166
8.0532284 -1.1289018 4.8642459
10.505694 -1.4670999 4.9911246
11.407794 -1.5890274 4.097858
0.27964005 -0.19751038 37.832832
5.9608302 -0.99601954 38.417973
7.9326253 -1.2731285 38.649078
12.065754 -1.8525778 39.071835
16.572216 -2.4854524 39.537903
9.0418406 -1.3141493 11.015807
2.1369565 -0.55488592 38.0159
4.0103807 -0.87546849 38.240616
9.9607382 -1.573812 38.8629
14.271417 -2.1862059 39.316414
7.7592402 -1.1443155 10.460353
9.5039129 -1.3931776 10.49131
6.619658 -0.94794893 6.6512756
9.8443298 -1.4045098 8.1004734
8.7951431 -1.2501265 5.9089193
9.1812935 -1.2984922 3.8347166
6.6033397 -0.95502818 6.0236368
10.076298 -1.45197 7.4963188
8.0492382 -1.1570061 4.8642459
10.558914 -1.5121269 5.0183992
11.369454 -1.6241637 4.0863533
0.27894893 -0.19848531 37.832832
5.9580827 -1.0169514 38.422913
7.9301434 -1.3011405 38.658871
12.066586 -1.8958423 39.095692
16.559576 -2.5426919 39.528698
6.5070796 -0.97587681 9.7364397
9.0689001 -1.3504242 11.054182
2.1352854 -0.5624156 38.020889
4.0078206 -0.88957775 38.24559
9.9564238 -1.6087724 38.867737
14.268813 -2.2368112 39.33049
7.7909517 -1.1767941 10.508233
9.5626907 -1.4359094 10.561138
6.5351543 -0.95913869 6.5706716
9.6121368 -1.405634 7.9153042
8.8031397 -1.2826284 5.9171443
6.9803443 -1.0145559 3.7788429
9.1721172 -1.3298677 3.8328435
6.6849151 -0.99066198 6.1001229
10.115153 -1.4936291 7.5286937
8.0536804 -1.1863527 4.8693123
11.125426 -1.6289504 4.0025344
0.27818453 -0.19940555 37.822834
5.9552627 -1.0378764 38.427853
7.9275613 -1.3291509 38.668659
12.06579 -1.9388983 39.11478
16.554461 -2.6010869 39.537903
6.492507 -0.9968763 9.7199078
9.035614 -1.3777237 11.019645
2.1327512 -0.56971627 38.01091
4.0057306 -0.90379703 38.255531
9.953229 -1.6439269 38.877419
14.26603 -2.2874246 39.344566
7.7748857 -1.2021405 10.492273
9.51406 -1.4625839 10.513361
6.5211864 -0.98035413 6.5601573
9.7111044 -1.4547479 8.000042
7.0118117 -1.0441353 3.7973933
6.6851077 -1.0145508 6.1034489
9.8620901 -1.4914542 7.3462172
8.045228 -1.213815 4.8667793
10.727622 -1.6127946 5.1023211
11.147693 -1.6719781 4.0123959
0.2774868 -0.20037538 37.822834
5.9531331 -1.0589299 38.437729
7.924881 -1.357159 38.678452
12.067787 -1.9824561 39.143414
16.551065 -2.6597865 39.551708
6.5001082 -1.0212806 9.7364397
2.1313069 -0.57730889 38.020889
4.0030713 -0.91789353 38.260506
9.9499073 -1.6790783 38.887096
14.263067 -2.3380458 39.358646
7.743855 -1.2250348 10.456363
9.5088968 -1.4957852 10.513361
6.517725 -1.0031114 6.5601573
9.8752499 -1.5146015 8.138134
8.752636 -1.3377364 5.8897295
7.0256414 -1.0712759 3.8066688
8.8692865 -1.3492453 3.7129695
6.5671506 -1.0201126 6.0003586
10.020597 -1.5512234 7.466887
8.0792837 -1.2478125 4.8895779
10.775757 -1.6585162 5.1274977
11.13712 -1.7101638 4.0107522
0.27682042 -0.20136915 37.827835
5.9509296 -1.0799814 38.447609
7.922101 -1.3851645 38.68824
12.066681 -2.025557 39.162498
16.553247 -2.7194448 39.579327
6.504838 -1.0453035 9.7488375
7.9970975 -1.2765551 9.7724562
2.1267738 -0.58405495 37.975967
4.0008812 -0.93210346 38.270451
9.9477024 -1.7144403 38.901611
14.261627 -2.3889594 39.377419
7.6711168 -1.2409899 10.364593
6.5670266 -1.0341786 6.6127262
9.804533 -1.5388033 8.0847807
7.8968868 -1.2351657 5.3249874
8.9836216 -1.3987406 3.7616684
6.4787364 -1.0295514 5.9238715
10.166826 -1.6102201 7.5787272
8.1770706 -1.2921559 4.9503741
0.27615044 -0.20236069 37.832832
5.9478869 -1.1008888 38.452545
7.9182191 -1.4129882 38.693134
12.058067 -2.0674131 39.15773
16.55714 -2.7794743 39.611546
6.5094805 -1.0693718 9.7612371
8.0052471 -1.3065277 9.7878065
2.1286149 -0.5925622 38.045849
3.9970846 -0.94594055 38.265476
9.9441338 -1.7495896 38.911293
14.260004 -2.4398916 39.396187
7.5002575 -1.2402287 10.141151
8.1668282 -1.3431542 9.0506458
6.5739388 -1.0587966 6.6232395
9.5108681 -1.5267475 7.8493962
7.9214292 -1.2673477 5.3441777
10.758118 -1.7173604 5.7892427
9.4685516 -1.5081166 3.9620829
9.0843868 -1.476174 8.2783251
10.388574 -1.6825349 7.7464876
8.2533655 -1.3337581 4.9985042
11.386743 -1.8340224 5.419127
0.27547699 -0.20335005 37.83783
5.9455357 -1.1219325 38.462425
7.9152422 -1.440984 38.702927
12.052246 -2.1097484 39.162498
16.558891 -2.8392336 39.63916
8.0196066 -1.3376274 9.8108311
2.1290336 -0.60069627 38.090775
3.9937582 -0.95988721 38.265476
9.9416771 -1.7849569 38.925812
14.2565 -2.4905441 39.410267
7.5404496 -1.2739317 10.201001
8.1654329 -1.3722154 9.0543213
6.5983539 -1.0863727 6.6512756
9.4939594 -1.5580463 7.8399811
7.7807798 -1.2727156 5.2537093
8.994462 -1.4938052 8.2018394
10.27098 -1.700303 7.6640787
8.2486601 -1.3625596 4.9985042
11.362358 -1.870809 5.4107351
0.27483439 -0.20436388 37.847828
5.9423456 -1.1428262 38.467365
7.9111652 -1.4687905 38.707821
12.046279 -2.1520681 39.167274
16.560425 -2.8990388 39.666771
8.0117292 -1.3650745 9.8069935
2.1269238 -0.60812432 38.090775
3.9898655 -0.97369564 38.260506
9.9378576 -1.8201016 38.93549
14.252817 -2.5412025 39.424343
7.657701 -1.3212522 10.364593
8.1639357 -1.4012833 9.0579958
6.6121063 -1.112357 6.6687989
9.6612043 -1.620146 7.9812112
6.874547 -1.1466707 3.7347858
9.7769604 -1.6588577 8.913496
10.141435 -1.7152485 7.5728407
8.2438526 -1.3913444 4.9985042
11.252819 -1.8931412 5.3624797
0.27405062 -0.20526828 37.83783
5.9390826 -1.1637113 38.472305
7.9079914 -1.4967757 38.717613
12.041631 -2.1946399 39.176819
16.557898 -2.9582021 39.685184
8.0763865 -1.4051195 9.8914185
2.1256199 -0.61578661 38.105751
3.9864423 -0.98761696 38.260506
9.9351521 -1.8554727 38.950008
14.250651 -2.5921738 39.443115
7.7598743 -1.3667927 10.508233
6.6433296 -1.1414702 6.7038441
9.7245464 -1.6656888 8.0377035
11.377105 -1.9385597 6.1277871
10.043354 -1.740147 9.159584
10.219029 -1.7650858 7.6346469
8.2177067 -1.4164513 4.9858384
8.5668354 -1.4720203 4.1057463
0.27333245 -0.20622364 37.83783
5.9365087 -1.1847398 38.482185
7.9037175 -1.5245633 38.722507
12.038299 -2.237478 39.191135
16.555161 -3.0173833 39.703594
8.377552 -1.4876657 10.263657
2.1209648 -0.62246907 38.060825
3.9834876 -1.0016564 38.265476
9.9310837 -1.8906119 38.959686
14.244908 -2.6425314 39.452499
5.917058 -1.0709378 9.9059191
7.8232684 -1.4061323 10.600004
6.348526 -1.1353475 7.0697322
6.6533551 -1.1671176 6.7178621
9.8106909 -1.7157166 8.1130266
8.2803869 -1.4406577 4.4860768
9.7026377 -1.716018 8.8569622
10.252612 -1.8077651 7.6640787
8.9429493 -1.5736254 5.421545
8.5839958 -1.505836 4.1162367
0.27254257 -0.20712228 37.827835
5.9323368 -1.2054549 38.482185
7.9003468 -1.5525361 38.7323
12.034816 -2.2803197 39.205448
16.55221 -3.0765815 39.722004
8.602541 -1.5586157 10.543795
2.1168425 -0.62929153 38.025883
3.9799669 -1.0155553 38.265476
9.9268932 -1.9257452 38.969368
14.240685 -2.6932018 39.466579
5.9030242 -1.0896916 9.888855
7.8479509 -1.4388665 10.639904
6.3445244 -1.157501 7.0697322
9.8391275 -1.756107 8.1412725
8.2971163 -1.4734256 4.4976711
9.5238905 -1.7187096 8.7006645
8.6106958 -1.5461668 5.2264905
8.5742197 -1.5349909 4.1141386
0.27181789 -0.20807238 37.827835
5.9288535 -1.2263126 38.487122
7.8968754 -1.5805036 38.742088
12.032645 -2.3234472 39.224537
16.549047 -3.1357958 39.740414
8.6663895 -1.6014487 10.628219
2.1151855 -0.63684368 38.035866
3.9769137 -1.0295755 38.270451
9.922575 -1.9608719 38.979046
14.234586 -2.7435477 39.475964
6.6681051 -1.2658459 14.097547
5.8991847 -1.1102903 9.888855
7.8191843 -1.4618218 10.607984
6.3337789 -1.1784002 7.0623817
9.8597441 -1.7953223 8.1632414
8.2922249 -1.5054159 5.6100998
8.2832041 -1.5007995 4.4930334
9.5535021 -1.7275285 4.0107818
6.9678226 -1.2787877 5.2418575
8.4017143 -1.5389326 5.1048975
8.5330925 -1.5583879 4.0973539
0.27105594 -0.20899257 37.822834
5.9252973 -1.2471609 38.492062
7.8933067 -1.6084661 38.751881
12.028854 -2.3662992 39.238853
16.545673 -3.1950254 39.758823
6.4401231 -1.2133032 7.9227786
2.1132257 -0.64430755 38.040855
3.9743264 -1.0437222 38.280392
9.9169035 -1.9957445 38.983887
14.231696 -2.7945492 39.494736
6.6892939 -1.2940763 14.151561
5.8875895 -1.1294014 9.8760576
6.3429499 -1.2030292 7.0770826
9.7730522 -1.8148047 8.0973349
8.3814869 -1.5518618 5.6731539
8.2953405 -1.5329242 4.5023088
9.56565 -1.7642292 4.0182738
8.3887329 -1.5743977 7.6830611
6.9633164 -1.3031021 5.2418575
8.188653 -1.5294671 4.980772
8.5276003 -1.5881644 4.0973539
0.27035865 -0.20996492 37.827835
5.9224272 -1.2681619 38.501938
7.8896375 -1.6364226 38.761669
12.024911 -2.409153 39.25317
16.542088 -3.2542694 39.777237
6.4106669 -1.2309406 7.8920789
2.1112397 -0.65176553 38.045849
3.971174 -1.0577261 38.285362
9.9123383 -2.0308533 38.993565
14.226932 -2.8452253 39.508812
6.6825995 -1.3169974 14.147059
5.8938494 -1.1519474 9.8931208
6.3387122 -1.2251629 7.0770826
7.0078001 -1.3304095 7.089344
9.6939945 -1.8351519 8.0377035
8.3719091 -1.5803335 5.6704121
9.0952816 -1.7136054 4.9312863
10.926251 -2.0546367 4.5801835
8.4198589 -1.6106859 7.7163162
6.974606 -1.3304302 5.2536302
8.1451521 -1.5507851 4.9579735
0.26962408 -0.21090738 37.827835
5.9187236 -1.2889926 38.506878
7.8868661 -1.6645834 38.776356
12.020817 -2.4520082 39.267483
16.538288 -3.3135273 39.795643
8.4192524 -1.656273 12.674966
6.3748751 -1.2471561 7.8537035
2.1092274 -0.6592176 38.050842
3.9679725 -1.071721 38.290337
9.9076509 -2.0659547 39.003242
14.221985 -2.8959022 39.522892
6.6864996 -1.3420298 14.165065
5.8974662 -1.1740415 9.9059191
7.3482289 -1.4535693 9.9935198
7.0101161 -1.3562181 7.0963535
9.6072712 -1.8534946 7.9717965
8.0337448 -1.5455593 5.4483533
9.398119 -1.8046556 5.0959215
8.4398394 -1.6450673 7.7395949
7.0492749 -1.3701931 5.3124933
6.768558 -1.3131833 4.1372237
11.247766 -2.1761279 5.38346
0.26891991 -0.21187493 37.832832
5.9157057 -1.3099811 38.516758
7.8829985 -1.6925311 38.786148
12.016568 -2.494864 39.281799
16.538107 -3.3735797 39.823261
8.4106598 -1.6850989 12.670833
6.3484788 -1.2650162 7.8268414
2.1071885 -0.66666341 38.055832
3.9652352 -1.085847 38.300278
9.904067 -2.1013091 39.017761
14.21855 -2.9469295 39.541664
7.3312941 -1.47683 9.97756
9.5176954 -1.9086632 10.601565
6.9738488 -1.374473 7.0648122
9.5587311 -1.8787613 7.937273
8.0283003 -1.5735929 5.4483533
9.5004473 -1.8587141 5.1538916
11.029941 -2.1539679 4.6288824
8.547576 -1.6970594 7.8426852
7.1871905 -1.4230547 5.4184475
6.810452 -1.3459961 4.1650887
11.440479 -2.2548711 5.4778728
0.26817873 -0.21281235 37.832832
5.9126129 -1.3309642 38.526634
7.8790312 -1.7204722 38.795937
12.010708 -2.5374117 39.291348
16.528145 -3.4316854 39.827862
8.3578539 -1.7048854 12.600574
6.3157535 -1.2814324 7.7923036
2.1051235 -0.67410302 38.060825
3.9619346 -1.0998244 38.305248
9.8991289 -2.1363981 39.027439
14.214931 -2.997968 39.560436
7.2286844 -1.4824344 9.8458891
9.5242605 -1.9445872 10.616266
6.9760013 -1.4002116 7.0718217
9.479599 -1.8975997 7.8776422
7.478106 -1.4901675 4.0779686
11.05873 -2.1996918 4.6438665
8.5159817 -1.721706 7.819407
7.2970843 -1.471303 5.503799
6.898685 -1.3884736 4.220818
10.818471 -2.1715317 5.1883411
0.26743424 -0.21374717 37.832832
5.9086885 -1.3517684 38.531578
7.8749661 -1.7484063 38.805729
12.006156 -2.5802624 39.30566
16.525621 -3.4913776 39.850876
8.2774601 -1.7186028 12.488983
6.289269 -1.2989323 7.7654414
2.1030321 -0.68153644 38.065819
3.9580712 -1.1136473 38.305248
9.8952942 -2.1717479 39.041958
14.209441 -3.0486555 39.574512
8.6669121 -1.8199787 14.555786
7.2500129 -1.5131993 9.8817987
8.7108393 -1.8102003 9.7232008
7.2951808 -1.4868209 6.0855837
8.2506857 -1.6770794 5.6046171
8.1891794 -1.6616085 4.4605703
11.04644 -2.2373602 4.6419935
7.3671336 -1.5122081 5.5597191
6.9022422 -1.4142768 4.2258849
11.393332 -2.3283241 5.4631863
0.2666865 -0.21467939 37.832832
5.9046912 -1.3725612 38.536518
7.8698077 -1.7761084 38.810619
11.999992 -2.6227934 39.315205
16.520973 -3.5506837 39.869286
8.260397 -1.745159 12.472451
6.2972431 -1.3235151 7.7807908
2.1009145 -0.68896341 38.070808
3.9546719 -1.1276031 38.310219
9.8913336 -2.2070971 39.056473
14.205457 -3.0997088 39.593285
6.5607009 -1.4123478 13.940004
8.7319202 -1.8654785 14.675233
8.6878834 -1.8370888 9.7048254
8.4534454 -1.7582561 8.5647583
7.2670789 -1.5075328 6.0667524
8.2529697 -1.7075636 5.6100998
8.1269312 -1.6785352 4.4304256
11.074885 -2.2833951 4.6569781
8.0324469 -1.6751001 4.90731
11.385136 -2.3680801 5.4631863
0.26590219 -0.21558084 37.827835
5.9006195 -1.3933426 38.541454
7.8655457 -1.8040239 38.820412
11.993678 -2.6653132 39.324749
8.2542553 -1.7739826 12.472451
6.3145261 -1.3501803 7.8076539
2.0987706 -0.69638383 38.075798
3.9512239 -1.1415486 38.315189
9.8860216 -2.242167 39.066154
14.199603 -3.1503973 39.607361
6.5642371 -1.4371028 13.958009
8.6387053 -1.8771178 14.530191
7.5868192 -1.6388555 10.352622
8.7311335 -1.8780985 9.7599525
8.4681902 -1.792184 8.5857859
7.2617722 -1.5328903 6.0667524
8.2510509 -1.737223 5.6128411
8.077673 -1.6977816 4.407238
9.5491962 -2.0349128 8.7771502
8.5266848 -1.8123555 6.4308944
7.4825683 -1.5876999 4.5805297
10.253438 -2.1700537 4.9323788
0.26511484 -0.21647942 37.822834
5.8964758 -1.4141124 38.546394
7.8611836 -1.8319308 38.8302
11.988669 -2.7081492 39.339066
5.4382734 -1.2084687 13.183848
8.2865009 -1.8111975 12.530313
6.3035102 -1.3708515 7.7999787
2.0966005 -0.7037977 38.080791
3.9477272 -1.1554841 38.320164
9.8818083 -2.277509 39.080673
14.19357 -3.2010829 39.621441
6.5783052 -1.4642648 13.99852
7.598711 -1.6692078 10.376562
8.817256 -1.9288508 9.8628578
7.2677941 -1.5606811 6.0761681
7.9330769 -1.6963259 4.3330359
7.5994086 -1.6222105 3.227854
9.6806984 -2.0982895 8.9035196
8.4649973 -1.8301499 6.3896904
9.3731737 -2.0230877 5.7204599
0.26449004 -0.21751714 37.842831
5.893013 -1.4350541 38.556271
7.855732 -1.8595949 38.835098
11.982053 -2.750649 39.348606
5.432117 -1.2270139 13.179247
6.9185514 -1.5476261 13.059609
8.3240795 -1.8498799 12.59644
6.3205938 -1.3976912 7.8268414
2.0944047 -0.71120507 38.085785
3.9441807 -1.1694089 38.325134
9.8762465 -2.3125625 39.090355
14.189037 -3.2521503 39.640209
6.573154 -1.4872185 13.99852
7.9739666 -1.7910542 13.438111
7.5310817 -1.6819291 10.292772
8.7806864 -1.9529924 9.8297806
7.3848305 -1.6087612 5.0398746
7.9271073 -1.7240071 4.3330359
7.5846386 -1.6467601 3.2241077
7.6022444 -1.6755773 7.0146356
8.5454063 -1.8787822 6.4544396
9.7618484 -2.1426702 5.9585791
0.26382822 -0.21852459 37.85783
5.8894768 -1.4559889 38.566151
7.8501835 -1.8872434 38.839996
11.975286 -2.7931356 39.358154
5.4487457 -1.2507766 13.229874
6.9014301 -1.5691119 13.037664
8.3011026 -1.8752044 12.571642
6.3344393 -1.4239637 7.8498659
2.0919094 -0.71851158 38.085785
3.9410954 -1.1834763 38.335075
9.8705597 -2.3476045 39.100029
14.180961 -3.3024426 39.649597
6.5742874 -1.5116175 14.012024
7.9803791 -1.82178 13.459442
7.5045953 -1.7035378 10.264842
7.0809083 -1.5762205 7.2084985
7.3465099 -1.6272947 5.0179429
7.5231128 -1.6636674 4.1197066
7.5245223 -1.6612322 3.2016315
7.5744891 -1.6972055 6.9946828
8.5111837 -1.9024277 6.4338374
9.7879677 -2.1842434 5.9788446
0.26326138 -0.21961597 37.887829
5.8858657 -1.4769164 38.576027
7.8455257 -1.9151171 38.849785
11.969821 -2.8359528 39.372467
5.4443464 -1.2697886 13.229874
6.8889108 -1.5915755 13.024497
8.2780504 -1.9003912 12.546844
2.0896609 -0.72590417 38.090775
3.9374502 -1.1973814 38.34005
9.864749 -2.3826351 39.109707
14.174384 -3.3531151 39.663677
6.5477724 -1.5296043 13.967011
8.0933771 -1.8773245 13.659941
7.5044756 -1.731078 10.272822
6.8273516 -1.5686182 7.6724591
7.057972 -1.5969927 7.1909761
8.0407829 -1.8149656 6.7289672
7.3326268 -1.6510918 5.0124602
7.5215816 -1.6908895 4.122025
7.5685186 -1.7236351 6.9946828
8.5399656 -1.9401851 6.4603262
9.8055077 -2.2241178 5.9940434
0.26249316 -0.22053358 37.887829
5.8814273 -1.4976448 38.580967
7.8397813 -1.9427364 38.854679
11.964202 -2.8787656 39.386784
5.4645944 -1.294641 13.289707
6.8390121 -1.6052136 12.941104
8.2549238 -1.9254401 12.522047
8.7627878 -2.0342493 10.846957
2.0871143 -0.73319405 38.090775
3.9337561 -1.2112753 38.34502
9.8588133 -2.4176538 39.119389
14.167627 -3.4037821 39.677753
6.5847549 -1.5625039 14.057035
8.1045446 -1.9097515 13.689802
6.7888212 -1.5847337 7.6357079
7.0523543 -1.6216199 7.1909761
8.0647497 -1.8499844 6.7540746
7.3268189 -1.6766775 5.0124602
7.5078917 -1.7374164 6.9448004
9.2617464 -2.138195 7.0048108
9.7976837 -2.258332 5.9940434
0.26155815 -0.22130421 37.862831
5.8769159 -1.5183601 38.585907
7.8349271 -1.9705873 38.864468
11.959881 -2.9219279 39.405872
5.4771366 -1.3178216 13.33113
8.2399378 -1.952297 12.509647
8.6402054 -2.0376024 10.704969
2.0845423 -0.740475 38.090775
3.9300129 -1.2251581 38.349991
9.8527527 -2.4526601 39.129066
14.162367 -3.4548516 39.696526
6.6110063 -1.5931304 14.124554
8.0090551 -1.916783 13.540494
6.7865462 -1.6092037 7.6393824
7.0362325 -1.6437932 7.1804624
8.0658245 -1.8798914 6.7603517
8.0214396 -1.8651294 5.4839926
8.0274 -1.8635701 4.4002814
7.3854709 -1.7362688 6.8383842
9.49821 -2.2277374 7.1872869
0.26065359 -0.22209999 37.842831
5.8730836 -1.5392592 38.595787
7.8289876 -1.9981761 38.869366
11.953956 -2.9647362 39.420189
5.4914818 -1.3415693 13.377154
8.2193928 -1.977756 12.488983
2.0819449 -0.74774683 38.090775
3.9262209 -1.2390295 38.354965
9.8465691 -2.4876535 39.138748
14.15022 -3.5042663 39.696526
7.8629322 -1.910853 13.305868
6.0712824 -1.4675888 8.3456402
6.7742958 -1.6312958 7.6320329
7.0478015 -1.6724616 7.1979856
8.2427692 -1.9469466 5.6375146
8.0725851 -1.9037813 4.4281073
7.2304668 -1.7264832 6.7020383
8.4941854 -2.0204277 5.2163577
0.25968155 -0.22283395 37.812832
5.8684254 -1.5599502 38.600727
7.823936 -2.0260029 38.879154
11.949324 -3.0079029 39.439278
5.5057273 -1.3654332 13.42318
5.2124028 -1.2811317 9.903862
8.2807798 -2.0231326 12.592307
6.4300866 -1.5638404 7.9995294
2.0793221 -0.75500965 38.090775
3.9218719 -1.2527269 38.354965
9.8414774 -2.5229459 39.153263
14.144597 -3.5553212 39.715298
4.5503697 -1.1301825 9.7583761
7.5397024 -1.8601941 12.772626
6.0631962 -1.4880544 8.34165
6.7685599 -1.6549327 7.6320329
7.0592551 -1.7012304 7.215508
9.40695 -2.2566302 6.4270568
7.8806486 -1.8875784 4.3283987
7.4042077 -1.7707341 3.1641707
7.1881104 -1.742913 6.6687841
8.146677 -1.9708409 6.1866121
8.4996529 -2.0531023 5.2239575
0.25890216 -0.22373903 37.812832
5.8636947 -1.5806277 38.605667
7.8187857 -2.0538182 38.888947
11.940197 -3.0499647 39.44405
5.5028219 -1.3851204 13.427783
5.2078991 -1.2993187 9.903862
8.27913 -2.0533805 12.600574
6.4245887 -1.5862759 7.9995294
2.0769448 -0.76236296 38.095764
3.9179823 -1.2665734 38.359936
9.8350439 -2.5579164 39.162941
5.3316851 -1.35984 15.017266
4.5295095 -1.141802 9.7223663
7.4876251 -1.8750966 12.695839
6.0608888 -1.5099382 8.3456402
6.7594514 -1.6777326 7.6283574
7.0602016 -1.7275568 7.222517
9.263258 -2.261512 7.7709346
9.533083 -2.3221099 6.5175252
7.8955326 -1.9203097 4.3399925
7.5646667 -1.8370482 3.2334731
7.2037358 -1.7733489 6.6887369
8.1397476 -1.9992661 6.1866121
8.5091801 -2.0868661 5.2340899
0.25815189 -0.22467072 37.817833
5.8596411 -1.601496 38.615543
7.8135362 -2.0816228 38.898735
11.932367 -3.0923741 39.45359
5.5017395 -1.4052875 13.436988
5.1917233 -1.31455 9.881916
8.490222 -2.1372249 12.931209
6.4034667 -1.6047962 7.9803414
2.0745418 -0.76970887 38.100758
3.913537 -1.280242 38.359936
9.8284874 -2.5928729 39.172623
5.3202233 -1.3767134 14.998496
4.5254965 -1.1576059 9.7223663
7.4709239 -1.8986523 12.678776
6.0438957 -1.5281309 8.3296804
6.7732787 -1.7062863 7.6504083
8.1201391 -2.0169892 8.3019171
9.4706545 -2.3472056 7.9498267
9.3787889 -2.319236 6.4188323
7.6909523 -1.8990107 4.2333279
7.513196 -1.852345 3.2147427
7.2192359 -1.8039148 6.7086897
8.132719 -2.027667 6.1866121
8.4767456 -2.1103077 5.2188907
7.6343718 -1.8963559 3.7239006
0.25739831 -0.22559993 37.822834
5.854764 -1.6221478 38.620483
7.8081889 -2.1094155 38.908527
11.922945 -3.1343865 39.458363
5.4911265 -1.4230131 13.42318
5.1940618 -1.3344526 9.8950834
8.4281807 -2.1529186 12.84855
6.3978262 -1.6271386 7.9803414
2.0721126 -0.77704722 38.105751
3.9090445 -1.2938949 38.359936
9.8230181 -2.6281397 39.187141
5.3270693 -1.3983434 15.031345
4.5129995 -1.1712084 9.7043619
7.4541488 -1.922114 12.661712
6.0414433 -1.5499675 8.3336697
6.7672815 -1.7299191 7.6504083
9.8628206 -2.4864578 10.075217
9.3491621 -2.3517637 7.8556733
8.1255579 -2.039449 5.5772023
7.667089 -1.921538 4.2240524
7.5066848 -1.8785597 3.2147427
8.1334295 -2.0580263 6.1924982
8.4066362 -2.1240442 5.1808934
7.6101027 -1.9185554 3.7155087
0.25660926 -0.22649702 37.822834
5.8498135 -1.6427848 38.62542
7.802742 -2.1371965 38.918316
11.916258 -3.1771402 39.472679
5.5087996 -1.448133 13.478411
5.1824193 -1.3507628 9.881916
8.2762413 -2.1449072 12.629503
6.4014177 -1.6518641 7.9918542
2.0693874 -0.78427553 38.105751
3.905009 -1.3077015 38.364906
9.8162107 -2.6630704 39.196819
5.3071475 -1.4129337 14.98911
4.5025687 -1.1852918 9.6908579
7.4272089 -1.9428418 12.627584
6.0359964 -1.5710467 8.3336697
9.7746172 -2.5005412 9.9946136
8.1021814 -2.0636718 5.566236
7.7161455 -1.9624842 4.2541971
7.3383231 -1.8636701 3.1473136
8.1222811 -2.0853994 6.1895552
7.9189596 -2.0302572 4.8895779
7.9067459 -2.0227222 3.8602741
0.25581706 -0.22739139 37.822834
5.8447909 -1.6634072 38.63036
7.7971969 -2.1649652 38.928108
11.907977 -3.2194955 39.482227
5.5188127 -1.4713802 13.515231
5.1915655 -1.3725178 9.9082508
8.3312988 -2.1902399 12.724562
6.3956127 -1.6741991 7.9918542
2.0669067 -0.79159766 38.110741
3.9004207 -1.3213246 38.364906
9.8092794 -2.6979864 39.206497
5.3021832 -1.4314506 14.98911
4.5005064 -1.201563 9.6953592
7.3850908 -1.9593918 12.567862
6.0304756 -1.5921067 8.3336697
9.8970003 -2.5686913 10.127786
9.961771 -2.5799463 8.3797951
9.2973108 -2.4026744 6.3804522
7.8765297 -2.0325751 4.3446302
10.410995 -2.711813 7.9171906
8.0703602 -2.0991235 4.9858384
7.9523535 -2.0639923 3.8854508
7.6389208 -1.9798031 2.8356433
0.25502175 -0.22828297 37.822834
5.8396955 -1.6840147 38.6353
7.7915521 -2.1927209 38.937897
11.900986 -3.2622266 39.49654
5.5325022 -1.4957347 13.561256
5.1798029 -1.3887706 9.8950834
5.6589565 -1.5088067 8.6742716
6.4083171 -1.701449 8.0148792
2.0644002 -0.79891211 38.115734
3.8967936 -1.3352776 38.374851
9.8022223 -2.7328856 39.216175
5.3187914 -1.4558734 15.050116
4.4983869 -1.2178344 9.6998606
7.3656139 -1.9817705 12.546532
6.0248814 -1.6131473 8.3336697
9.1792583 -2.4492033 10.37738
8.3463907 -2.1973577 8.5612535
9.9527044 -2.6147034 8.3797951
9.6812077 -2.5379689 6.6463742
7.6594028 -2.0050862 4.231009
10.432728 -2.7563977 7.9407358
8.4381189 -2.2262561 5.2138243
8.0241013 -2.1125376 3.9232159
7.6228299 -2.0040545 2.8323562
0.25422335 -0.22917177 37.822834
5.8345275 -1.7046068 38.64024
7.7858086 -2.2204638 38.947685
11.89384 -3.3049479 39.510857
5.5479732 -1.5207191 13.611883
5.1841679 -1.4093562 9.9126396
5.6264906 -1.5212061 8.6329422
6.4178138 -1.7279747 8.0340662
2.0615988 -0.8061133 38.115734
3.892612 -1.3490463 38.379818
9.7950439 -2.7677689 39.225857
5.3136773 -1.4744304 15.050116
4.4941082 -1.2335293 9.6998606
7.3737478 -2.0115879 12.572127
6.0075812 -1.6310098 8.3177099
9.1608362 -2.4785738 10.366355
8.3145514 -2.2200387 8.5367222
9.8645325 -2.6283836 8.3138876
9.4096231 -2.5019059 6.4681787
7.4939427 -1.9897484 4.1452131
7.4259505 -1.9689285 3.1922662
8.049243 -2.1567402 6.1512942
8.4261322 -2.2545831 5.2112913
8.0254488 -2.1428761 3.927412
7.5929732 -2.0245678 2.8241384
0.25342184 -0.23005779 37.822834
5.8292861 -1.725183 38.645176
7.7799673 -2.2481933 38.957478
11.886541 -3.3476589 39.525173
5.5482779 -1.5416452 13.625691
6.740026 -1.8576554 12.879658
5.6211467 -1.5408369 8.6329422
2.059041 -0.81341112 38.120724
3.8883824 -1.3628024 38.384792
9.7865295 -2.8022888 39.230694
5.3483672 -1.5041839 15.162744
4.4939694 -1.2503761 9.7088623
7.3792496 -2.0407908 12.593457
6.0163779 -1.6559688 8.3376598
9.5150299 -2.6100867 10.774298
8.1621752 -2.209903 8.3895311
9.7425718 -2.6323428 8.2197342
9.4129429 -2.5380018 6.4764028
7.5853329 -2.0423851 4.1985455
7.4190326 -1.994838 3.1922662
8.1469812 -2.2134378 6.2307596
7.43543 -2.0103862 2.7699027
0.25264883 -0.23097108 37.827835
5.8239732 -1.7457436 38.650116
7.7730498 -2.2756228 38.962376
11.879089 -3.3903592 39.539486
5.5372214 -1.5594139 13.611883
6.7473402 -1.8850379 12.905992
5.596755 -1.5551751 8.6040115
2.0561891 -0.82059354 38.120724
3.8841038 -1.3765452 38.389763
9.7791042 -2.8371341 39.240376
5.3878922 -1.5356164 15.289448
4.4895768 -1.2660555 9.7088623
7.4725294 -2.0946958 12.764094
8.116581 -2.2279963 8.3509808
9.4930687 -2.6005182 8.0188732
9.1942902 -2.5135057 6.333847
7.5610642 -2.064184 4.1892705
7.4254422 -2.0243814 3.1978855
8.111927 -2.2343488 6.2101574
7.2588577 -1.9966568 4.5096011
7.6601634 -2.1027384 3.7595675
7.4283676 -2.0363286 2.7699027
0.25187254 -0.23188177 37.832832
5.8185878 -1.7662884 38.655056
7.7670112 -2.3033211 38.972164
11.871485 -3.4330485 39.553802
5.5940008 -1.5754646 8.6081448
8.8589983 -2.4850676 11.092558
2.0535798 -0.827874 38.125713
3.8802788 -1.3904548 38.399704
9.7715521 -2.8719606 39.250053
5.3824992 -1.5544144 15.289448
4.4809446 -1.2805229 9.6998606
7.460155 -2.1193416 12.755562
8.4295635 -2.3757222 9.5725193
8.0194263 -2.2314577 8.2598629
9.221405 -2.5607352 7.799181
8.0894222 -2.241832 5.5881681
7.4598889 -2.0645697 4.138257
7.3200264 -2.0231187 3.1566789
8.0301094 -2.2419989 6.1542377
7.2227764 -2.0138779 4.4918685
7.6309152 -2.1233811 3.7490776
7.4849119 -2.0799468 2.792912
0.25112435 -0.2328202 37.842831
5.8138719 -1.7870448 38.664936
7.7598982 -2.3307116 38.977058
11.863727 -3.4757259 39.568123
5.5857615 -1.5942094 8.6040115
8.8533525 -2.5168529 11.096395
2.0506773 -0.83503735 38.125713
3.8759029 -1.4041728 38.404678
9.7638779 -2.9067702 39.259731
5.3472285 -1.5644701 15.204978
4.4764471 -1.2961565 9.6998606
7.344943 -2.1143456 12.572127
7.7627807 -2.2243869 10.767585
8.466856 -2.4181671 9.6239719
8.0424795 -2.2681496 8.2914038
7.0655355 -1.9886404 6.0008454
9.4341583 -2.6500027 6.5093007
7.4526362 -2.0905969 4.138257
7.3039913 -2.0461566 3.1529326
7.7373509 -2.1937671 7.2440953
7.9522276 -2.2502055 6.1012607
7.1783686 -2.0285273 4.46907
7.6234565 -2.1500051 3.7490776
7.4776053 -2.1060612 2.792912
0.25037268 -0.23375621 37.852829
5.8083405 -1.8075591 38.669876
7.7526898 -2.3580811 38.981953
11.855815 -3.5183914 39.582436
5.6405783 -1.6524688 13.906446
6.7686262 -1.9676259 12.984995
5.5801625 -1.6136978 8.6040115
8.8075523 -2.5370941 11.050344
2.04775 -0.84219044 38.125713
3.8709776 -1.4176936 38.404678
9.7560787 -2.9415603 39.269409
5.3682075 -1.5909722 15.280063
7.2398725 -2.1114917 12.405756
7.760756 -2.2531509 10.775564
9.0412827 -2.616399 10.281826
8.0448008 -2.2991495 8.3019171
6.0554199 -1.7271638 5.159739
7.5049467 -2.1335578 4.1707201
7.3057241 -2.0741725 3.1566789
7.7188802 -2.2176688 7.2341185
7.7111988 -2.2111025 5.9246707
7.2043972 -2.0630662 4.4893355
7.5329928 -2.1529064 3.7092144
7.4520445 -2.1269655 2.7863379
0.2495552 -0.23462877 37.852829
5.8027368 -1.8280567 38.674816
7.746357 -2.3857279 38.991745
11.846319 -3.5606136 39.59198
5.7714982 -1.712725 14.24243
6.780097 -1.9966537 13.020108
5.5771961 -1.6339574 8.6081448
8.666338 -2.5292091 10.885332
2.0445313 -0.84922242 38.120724
3.8665054 -1.4313824 38.409649
9.7481556 -2.9763317 39.279091
5.3642735 -1.6101972 15.284754
5.1915245 -1.533748 8.9247532
7.7499523 -2.279377 10.771575
9.0939074 -2.666065 10.351654
6.0568328 -1.7504519 5.1660161
8.1619253 -2.3542328 5.6539631
7.5017099 -2.1609681 4.173039
7.534565 -2.1675925 3.2559493
7.7146769 -2.2456427 7.2374444
6.9465384 -2.0181077 5.3507543
8.1576443 -2.3668871 5.077033
7.4382434 -2.15394 3.6672533
7.4536476 -2.1555891 2.7896249
0.24876574 -0.23552908 37.85783
5.7970605 -1.8485368 38.679752
7.7399259 -2.4133594 39.001534
11.836676 -3.6028128 39.601524
5.4885821 -1.6496282 13.561256
6.7730861 -2.0203085 13.020108
5.5741563 -1.6542162 8.612277
7.8890262 -2.332263 9.9259558
2.0415547 -0.856354 38.120724
3.8619845 -1.4450573 38.414623
9.7389069 -3.0107121 39.283928
5.3668756 -1.6314219 15.308218
6.447145 -1.9402335 13.985016
5.193635 -1.5541037 8.9375515
7.7477241 -2.308136 10.779554
8.9707985 -2.6640131 10.223023
7.7958541 -2.2869897 8.0636082
6.0469499 -1.7704898 5.1628776
8.1576719 -2.383882 5.6567044
7.5366454 -2.1995516 4.1962271
7.5091505 -2.1886909 3.2484574
7.6888847 -2.2672782 7.2208171
6.9316969 -2.040061 5.3448687
7.4306793 -2.1798913 3.6672533
0.24794206 -0.236396 37.85783
5.7920513 -1.8692384 38.689632
7.7324257 -2.4406686 39.006432
11.828306 -3.6454272 39.615841
5.584517 -1.6785239 8.6370754
7.8777661 -2.3588669 9.9221182
2.0388186 -0.86358786 38.125713
3.8569169 -1.4585294 38.414623
9.729538 -3.0450644 39.288769
5.3677459 -1.6521767 15.326989
6.4694867 -1.9716116 14.048034
5.1881785 -1.5722235 8.9375515
7.7396202 -2.3351665 10.779554
8.8900232 -2.6738286 10.14217
8.9227686 -2.6514521 9.2271175
6.0258064 -1.7871596 5.1503234
8.1212349 -2.4040346 5.6375146
7.5968904 -2.2459402 4.2333279
7.5014648 -2.2148895 3.2484574
7.6809239 -2.2941036 7.2208171
7.8541842 -2.3413858 6.0512266
8.3640261 -2.4902055 5.2138243
7.4882827 -2.2252083 3.6987243
0.24714622 -0.23729089 37.862831
5.7862301 -1.8896865 38.694572
7.7257986 -2.4682648 39.01622
11.819784 -3.6880276 39.630157
4.6834612 -1.4433469 11.605184
4.8006787 -1.4685073 9.2674456
5.5840077 -1.6996461 8.6453409
7.8694844 -2.3863513 9.9221182
2.0357916 -0.87069941 38.125713
3.8522997 -1.4721738 38.41959
9.720048 -3.0793881 39.29361
5.3619456 -1.6709037 15.326989
4.3886595 -1.354184 9.5603228
5.1751785 -1.5880286 8.9247532
7.1176109 -2.1746249 9.9296799
8.8806353 -2.7048442 10.14217
8.9646835 -2.6979988 9.279685
6.0195312 -1.8081827 5.1503234
8.0727406 -2.4203594 5.6100998
7.589004 -2.2724447 4.2333279
7.4803629 -2.2370758 3.2428381
7.644278 -2.3122523 7.1942129
7.8885279 -2.3816388 6.083602
8.3016291 -2.5032077 5.1808934
7.4804702 -2.2513337 3.6987243
0.24631642 -0.23815215 37.862831
5.7803364 -1.9101164 38.699509
7.7200432 -2.4961581 39.030907
11.812532 -3.7310624 39.649246
4.674665 -1.4585226 11.595978
4.7932358 -1.4845474 9.2630558
7.8917465 -2.4232149 9.9604931
2.033005 -0.87791502 38.130707
3.8481321 -1.4859965 38.429539
9.7104368 -3.1136823 39.298447
5.3445606 -1.6859757 15.29414
4.3755941 -1.3668984 9.5423183
5.1596417 -1.6029885 8.90769
7.0955834 -2.1950042 9.90973
8.7383165 -2.6948638 9.9914885
8.8801613 -2.7064016 9.2025862
5.99084 -1.8223871 5.1314926
8.0762463 -2.4521685 5.6183243
7.5683079 -2.2950649 4.2263713
7.4725084 -2.2631738 3.2428381
7.6004596 -2.3279867 7.1609578
7.9304156 -2.4245229 6.1218624
8.292841 -2.5321705 5.1808934
7.4986134 -2.2853703 3.7113125
0.24548362 -0.2390105 37.862831
5.7743707 -1.9305284 38.704449
7.7122498 -2.5234072 39.035801
11.805124 -3.7740912 39.668331
4.6695452 -1.4748313 11.595978
4.758316 -1.4919541 9.2059984
7.8863001 -2.451699 9.9643307
2.0301926 -0.88512176 38.1357
3.8439145 -1.4998076 38.43948
9.7018995 -3.148335 39.308125
5.3386431 -1.7046214 15.29414
4.3707962 -1.3821639 9.5423183
5.1465511 -1.6186414 8.8948917
7.0965047 -2.2224605 9.9216995
8.6253004 -2.6930165 9.8738823
8.8093224 -2.7184541 9.1395035
5.9770021 -1.8409961 5.1252155
8.0596437 -2.4778872 5.6128411
7.5433116 -2.3162677 4.2170959
7.1410151 -2.1900165 3.106107
7.6065521 -2.3589268 7.1742597
7.9141817 -2.4498 6.1159763
8.2798319 -2.559829 5.17836
7.4645705 -2.3035018 3.6987243
0.24467833 -0.23989713 37.867828
5.768332 -1.9509219 38.709389
7.7053285 -2.5509529 39.045593
11.793297 -3.8157353 39.673103
4.6643686 -1.491122 11.595978
4.7485137 -1.5071054 9.1972198
6.9853907 -2.2064073 10.831671
7.8929815 -2.4840238 9.9835186
2.0273547 -0.89231956 38.140694
3.8396475 -1.5136074 38.449425
9.6932402 -3.1829662 39.317802
5.3178816 -1.7184702 15.251905
4.3576517 -1.3947575 9.524313
5.1309295 -1.6334317 8.8778286
7.1432786 -2.2645202 9.99751
8.8906145 -2.8099525 10.186272
8.9121113 -2.7842829 9.2551537
6.0262775 -1.8792305 5.1722927
8.0549383 -2.5072484 5.6155825
7.5351801 -2.3425846 4.2170959
7.5448365 -2.3686881 7.1243773
9.8919601 -3.0999038 7.6317039
8.1803389 -2.5603867 5.1226301
0.2437482 -0.24065588 37.852829
5.7622223 -1.9712967 38.714325
7.6973429 -2.5781574 39.050488
11.781324 -3.857343 39.677876
4.6572762 -1.5067931 11.591375
4.7386632 -1.5222064 9.1884422
7.0017695 -2.2384899 10.868868
7.9667206 -2.5378284 10.087132
2.0242276 -0.89939094 38.140694
3.8358264 -1.5275931 38.464336
9.6856489 -3.2179718 39.332325
5.3102107 -1.7364862 15.247213
4.3444729 -1.4072765 9.5063086
5.1276789 -1.6521322 8.8820944
7.2300129 -2.3198223 10.129181
8.9388733 -2.8595626 10.252424
8.9499407 -2.8304298 9.3042173
6.1718626 -1.9482957 5.3009696
8.0461369 -2.5353503 5.6155825
7.379066 -2.3223283 4.1359382
7.0592132 -2.2189636 3.0780113
7.6503911 -2.4311972 7.230793
9.7963181 -3.1075265 7.5669546
8.1590233 -2.5850198 5.1150308
8.7767792 -2.7756984 4.3428264
0.24284607 -0.24144249 37.842831
5.7567749 -1.991907 38.724209
7.6902246 -2.605664 39.06028
11.770623 -3.8993828 39.68742
4.6519876 -1.5230408 11.591375
4.7242107 -1.5357763 9.170886
7.0126543 -2.2689812 10.897798
8.0127249 -2.5833259 10.156206
2.0213389 -0.90656954 38.145683
3.8299763 -1.5407743 38.459366
9.6767387 -3.2525623 39.342003
5.2762656 -1.7457954 15.167435
4.3271222 -1.4183643 9.4793015
5.1293187 -1.6724463 8.8948917
7.3164473 -2.375757 10.260852
8.890132 -2.8782167 10.208323
8.9162312 -2.8540432 9.279685
6.139071 -1.961535 5.2790003
8.0332537 -2.5621502 5.6128411
7.4046812 -2.3588288 4.1544886
7.0558424 -2.2449968 3.0798843
7.7058372 -2.4784658 7.2906523
6.1062336 -1.9604484 4.753293
8.1335306 -2.6082187 5.1048975
8.8664532 -2.8381417 4.3910813
0.24188103 -0.24216273 37.822834
5.7512531 -2.0125029 38.734085
7.6820459 -2.6328223 39.065174
11.75977 -3.941395 39.696964
4.6447887 -1.5386555 11.586773
4.7210956 -1.5530059 9.1752739
6.9752736 -2.283814 10.852335
8.0219412 -2.6172452 10.179231
2.018425 -0.91373909 38.150673
3.8245745 -1.5541341 38.459366
9.6688967 -3.2875345 39.356518
5.2701392 -1.7642025 15.167435
4.3242111 -1.4341453 9.4838018
5.1284032 -1.6919751 8.9034243
7.6287289 -2.5066338 10.707734
8.8768101 -2.9081764 10.204648
7.9901943 -2.5883999 8.3334579
6.1210761 -1.9793595 5.2695851
8.08395 -2.6094432 5.6539631
7.3964024 -2.3846614 4.1544886
6.9773588 -2.2468762 3.0499158
7.7361941 -2.5180612 7.3272328
6.0955086 -1.9805022 4.75035
8.1735802 -2.6525624 5.1352959
8.856493 -2.8690741 4.3910813
0.24103425 -0.24300557 37.822834
5.7463903 -2.033344 38.748901
7.6747327 -2.6602886 39.074963
11.748767 -3.9833786 39.706505
4.6356845 -1.5536178 11.577568
4.7133737 -1.5687199 9.170886
6.9886293 -2.315228 10.885399
8.1588526 -2.6934628 10.363432
2.0152233 -0.92077917 38.150673
3.8186333 -1.5672723 38.454391
9.662117 -3.3229003 39.375877
5.2982726 -1.7942126 15.265983
4.3212423 -1.4499235 9.4883032
5.1298876 -1.7123439 8.9162226
7.628511 -2.5360997 10.719705
8.7443218 -2.8986087 10.064991
7.8625021 -2.5773933 8.2107992
6.1511221 -2.0128193 5.3009696
7.9078526 -2.5831139 5.5388212
7.5522747 -2.4640527 4.2449217
7.7096248 -2.5392101 7.310605
6.0655193 -1.9941927 4.7326908
8.1642714 -2.6810775 5.1352959
0.24033438 -0.24400397 37.847828
5.7407212 -2.0539141 38.758781
7.6673212 -2.6877356 39.084755
11.737616 -4.0253339 39.716053
4.6302333 -1.56979 11.577568
4.7055993 -1.5843987 9.1664972
6.9725008 -2.336926 10.873
8.1342001 -2.7168489 10.344244
2.0119967 -0.92780799 38.150673
3.8136315 -1.5807966 38.459366
9.652833 -3.3574331 39.385555
5.326261 -1.8244406 15.364532
4.3182163 -1.4656984 9.4928045
5.1362338 -1.7344122 8.9375515
7.6881566 -2.5857673 10.815465
8.4995127 -2.8504238 9.7967043
6.25491 -2.070982 5.395123
7.7002792 -2.5450895 5.4017482
7.6475806 -2.5483999 7.2607226
6.0124969 -2.0000427 4.6973729
8.163044 -2.7122781 5.1403623
0.23954092 -0.24490504 37.85783
5.7379007 -2.0755265 38.788418
7.6588516 -2.7148235 39.089649
11.726312 -4.0672593 39.725594
4.6210299 -1.5846753 11.568363
4.7045741 -1.6023591 9.1752739
8.1342363 -2.7579346 12.687365
8.0851917 -2.7318871 10.294356
2.0084844 -0.93470347 38.145683
3.8085821 -1.5943049 38.464336
9.6422405 -3.3915246 39.390396
5.3198605 -1.8430215 15.364532
4.3130736 -1.480763 9.4928045
7.0087075 -2.3845038 9.8778095
7.3209143 -2.4836173 8.4589443
6.365746 -2.1323657 5.4955535
7.2313404 -2.4181256 5.0837383
8.2701721 -2.7623115 4.650712
7.705863 -2.5977423 7.3239074
5.9863248 -2.0145719 4.6826572
8.6968813 -2.9183447 4.3281398
0.23880358 -0.24586737 37.877831
5.7277012 -2.094475 38.768658
7.6512461 -2.7422285 39.099442
11.714862 -4.1091557 39.735142
4.6468482 -1.6116802 11.646606
4.7012167 -1.6195514 9.1796637
8.2656364 -2.8346953 12.906411
8.0756063 -2.7600932 10.294356
2.0049481 -0.9415859 38.140694
3.8034842 -1.6077971 38.469307
9.6327124 -3.4260042 39.400078
5.2938509 -1.8547324 15.308218
4.3078785 -1.4958093 9.4928045
7.0202861 -2.4158182 9.9057398
7.3122005 -2.5091569 8.4589443
8.7772608 -2.9794133 9.1885672
6.3840685 -2.1633177 5.5175228
7.1238322 -2.4098549 5.0152016
8.2562828 -2.7897446 4.6483932
7.6614084 -2.6125734 7.2906523
5.9792562 -2.0354559 4.6826572
8.6866417 -2.9486847 4.3281398
0.23794389 -0.24669945 37.877831
5.7210846 -2.1147254 38.773598
7.6425838 -2.7692664 39.104332
11.703259 -4.1510205 39.744682
4.6485677 -1.6304775 11.665016
4.7068429 -1.6398921 9.2016096
8.4869909 -2.9437611 13.265978
8.0780392 -2.7924542 10.309707
2.0013883 -0.94845486 38.1357
3.7983389 -1.6212734 38.474277
9.6171455 -3.4583313 39.385555
5.2499328 -1.8599446 15.200284
4.3046846 -1.5115587 9.4973059
7.9885516 -2.7911799 13.911631
7.3065996 -2.5357776 8.4626188
8.7668076 -3.0100336 9.1885672
6.3764782 -2.1855891 5.5175228
7.0837274 -2.4238772 4.9932699
8.5357237 -2.9174037 4.8083901
7.5745888 -2.6125174 7.2174916
5.9377184 -2.0444715 4.6561689
8.6848803 -2.9819365 4.3323359
0.23702225 -0.24746427 37.867828
5.7136679 -2.1346827 38.773598
7.6338272 -2.7962773 39.10923
11.69151 -4.1928558 39.75423
4.6502132 -1.6493067 11.683427
4.7101254 -1.6594957 9.2191648
8.5616369 -3.0031753 13.398232
1.9975448 -0.95518577 38.125713
3.7931461 -1.6347334 38.479252
9.6121035 -3.4944575 39.414593
