# .PCD v0.7 - Point Cloud Data file format
VERSION 0.7
FIELDS x y z
SIZE 4 4 4
TYPE F F F
COUNT 1 1 1
WIDTH 1412
HEIGHT 1
VIEWPOINT 0 0 0 1 0 0 0
POINTS 1412
DATA ascii
-0.88977528 -0.89325672 0.91122693
-0.8791821 -0.88322824 0.73889637
-0.86370867 -0.86827946 0.58313155
-0.85247892 -0.8575784 0.44536817
-0.84816355 -0.85382587 0.31996405
-0.81731534 -0.82333601 0.19709818
-0.9243598 -0.9234724 1.2448931
-0.89354479 -0.89361036 1.0037066
-0.88491172 -0.88558435 0.82129234
-0.87291098 -0.87447959 0.65864611
-0.8541404 -0.85626286 0.51007777
-0.83739847 -0.84005529 0.37679848
-0.82484692 -0.82774585 0.25519845
-0.81414998 -0.81757116 0.14021905
-1.14724 -1.1036707 7.6769767
-1.1198841 -1.0919921 5.0475893
-1.0490559 -1.0300379 3.5231504
-1.0013542 -0.98729092 2.644325
-0.98101139 -0.96990943 2.0987501
-0.95996165 -0.95106524 1.6945094
-0.16924012 -0.13629839 3.5984144
-0.26675001 -0.2306612 3.2462034
-1.1908901 -1.1511761 6.4145579
-1.083863 -1.0575727 4.1722836
-1.0158837 -0.99674875 3.0065553
-0.99192381 -0.97627097 2.3466833
-0.97145241 -0.95843595 1.8818009
-0.94122326 -0.93021607 1.5128835
-0.93323398 -0.92844743 1.3734293
-0.90400541 -0.90029925 1.11113
-0.88992649 -0.8871932 0.90848547
-0.87912357 -0.87702537 0.73657757
-0.86345339 -0.86198407 0.58125854
-0.85207343 -0.85120714 0.44395813
-0.84766471 -0.84738714 0.31903145
-0.82018435 -0.82047802 0.19709818
-0.92492682 -0.91761047 1.2415675
-0.89379054 -0.88763767 1.0007634
-0.88493979 -0.87945139 0.81875914
-0.87274051 -0.86822635 0.65654802
-0.85712415 -0.85327613 0.51007777
-0.83688217 -0.83369672 0.37562618
-0.82422352 -0.82136601 0.25450778
-0.81346124 -0.81119657 0.14001752
-0.3943333 -0.37228903 3.4480262
-1.154031 -1.1024722 7.696558
-1.1204715 -1.0849617 5.0332732
-1.0498471 -1.0236422 3.5139456
-0.99966007 -0.97876328 2.6311576
-0.98238283 -0.96450776 2.0946171
-0.95870566 -0.94321305 1.6868343
-0.26755351 -0.22972867 3.2462034
-1.1894597 -1.1417903 6.3855219
-1.0825903 -1.0489801 4.153513
-1.0146788 -0.98863941 2.9930518
-0.98972988 -0.96733433 2.3338854
-0.970487 -0.95082188 1.8738209
-0.94204491 -0.92455041 1.5092083
-0.93393201 -0.92267787 1.3699248
-0.9043749 -0.89440137 1.1079915
-0.89004636 -0.88113976 0.90574402
-0.87588549 -0.86771625 0.73193997
-0.8631646 -0.85570103 0.57938552
-0.85163391 -0.84484929 0.4425481
-0.85061747 -0.84442306 0.31903145
-0.81951028 -0.81410038 0.1966511
-0.92546439 -0.91175604 1.238242
-0.89400554 -0.88167429 0.99782026
-0.88493586 -0.87332904 0.81622595
-0.8757658 -0.86517459 0.65654802
-0.8567391 -0.84695917 0.5084343
-0.83633173 -0.82735217 0.37445387
-0.82356566 -0.81500065 0.25381708
-0.81628793 -0.80835205 0.14001752
-1.1608276 -1.1012397 7.7161388
-1.1199474 -1.076906 5.014185
-1.0492028 -1.0158948 3.5001378
-0.99963599 -0.97192913 2.6223795
-0.98171365 -0.95714414 2.0863512
-0.9574067 -0.93538117 1.6791594
-0.16632016 -0.13209204 3.513556
-0.26957396 -0.229827 3.2611179
-1.1879783 -1.1324284 6.3564849
-1.0812707 -1.0404093 4.1347418
-1.0149944 -0.98206431 2.9840493
-0.98935711 -0.96024096 2.3253536
-0.96948034 -0.94322616 1.8658408
-0.94283855 -0.91889042 1.5055332
-0.93205559 -0.91441751 1.3629158
-0.90471429 -0.8885119 1.104853
-0.89013481 -0.8750962 0.9030025
-0.87575114 -0.86154711 0.72962117
-0.86284256 -0.84943056 0.57751244
-0.85116041 -0.83850491 0.44113809
-0.8500616 -0.83800018 0.31809881
-0.81880182 -0.80773747 0.19620402
-0.92597228 -0.90590906 1.2349164
-0.89418983 -0.87572026 0.9948771
-0.88182122 -0.86420041 0.81115961
-0.87554067 -0.8589341 0.65445
-0.85632056 -0.84065545 0.50679076
-0.83921456 -0.82442772 0.37445387
-0.82287353 -0.80865008 0.25312641
-0.81554252 -0.80199486 0.13981599
-1.1676297 -1.0999732 7.7357197
-1.1193808 -1.0688672 4.9950972
-1.0471089 -1.0068104 3.4817278
-0.99785316 -0.96344364 2.6092124
-0.98100495 -0.94979692 2.0780854
-0.95376408 -0.92533815 1.6676468
-0.16860513 -0.13292621 3.5534894
-0.26711118 -0.2261395 3.2213459
-1.1864461 -1.123091 6.3274488
-1.0811524 -1.0330526 4.1206636
-1.0152762 -0.97549903 2.9750469
-0.98894709 -0.95316225 2.3168218
-0.96843249 -0.93564916 1.8578608
-0.94360405 -0.91323614 1.501858
-0.93268728 -0.90866995 1.3594111
-0.90502363 -0.882631 1.1017146
-0.89019185 -0.86906278 0.90026098
-0.87558442 -0.85538936 0.72730237
-0.86248738 -0.84317291 0.57563943
-0.85065305 -0.83217424 0.43972805
-0.84947133 -0.83159143 0.31716621
-0.81805891 -0.80138952 0.19575694
-0.92377263 -0.89746797 1.2282655
-0.89434338 -0.86977559 0.99193394
-0.88174307 -0.85811067 0.80862641
-0.87528259 -0.85270572 0.65235192
-0.85586846 -0.83436495 0.50514728
-0.83860797 -0.8180992 0.37328154
-0.82214707 -0.80231422 0.25243574
-0.81476265 -0.79565269 0.13961446
-0.38450769 -0.35549054 3.329484
-1.1736933 -1.097977 7.7504053
-1.1176885 -1.0598186 4.9712372
-1.0463777 -0.99910229 3.4679203
-0.99775243 -0.95663989 2.6004343
-0.98025715 -0.9424665 2.0698195
-0.9523716 -0.91755581 1.6599717
-0.17044047 -0.13339372 3.5834394
-0.26339859 -0.22144689 3.1666594
-1.1848632 -1.113778 6.2984118
-1.080996 -1.0257095 4.1065855
-1.0139498 -0.96744126 2.9615433
-0.98849976 -0.94609809 2.30829
-0.96951813 -0.93017691 1.8538706
-0.94434172 -0.90758771 1.4981829
-0.93072706 -0.90044951 1.3524021
-0.90530288 -0.87675869 1.0985761
-0.89021766 -0.86303973 0.89751953
-0.87538534 -0.8492434 0.72498357
-0.86209899 -0.83692795 0.57376641
-0.85011184 -0.82585722 0.43831801
-0.84884673 -0.82519716 0.31623358
-0.81728172 -0.79505652 0.19530986
-0.92421257 -0.89164567 1.2249401
-0.89446652 -0.86384064 0.98899078
-0.88163316 -0.85203189 0.80609328
-0.87825376 -0.84964514 0.65235192
-0.8553828 -0.82808787 0.5035038
-0.83796746 -0.81178492 0.37210923
-0.82138646 -0.79599327 0.25174505
-0.81394851 -0.78932583 0.13941292
-0.38746458 -0.35572129 3.3443017
-1.1805034 -1.0966448 7.7699862
-1.1170336 -1.0518181 4.9521494
-1.0456052 -0.99141139 3.4541125
-0.99588162 -0.94819725 2.5872669
-0.98150557 -0.937096 2.0656865
-0.95093644 -0.90979445 1.6522968
-0.26786277 -0.22358866 3.2114029
-1.1832298 -1.1044898 6.2693753
-1.0795454 -1.0171968 4.0878143
-1.0141597 -0.9609018 2.9525409
-0.98801506 -0.93904859 2.299758
-0.96839565 -0.92263025 1.8458906
-0.94259882 -0.89960486 1.4908326
-0.93129265 -0.89472467 1.3488976
-0.90555233 -0.87089527 1.0954376
-0.88719994 -0.85412711 0.89203662
-0.8751542 -0.84310919 0.72266477
-0.86167753 -0.83069617 0.57189339
-0.8495369 -0.81955415 0.43690795
-0.8481878 -0.81881744 0.31530097
-0.82005197 -0.79219884 0.19530986
-0.92192692 -0.88324833 1.218289
-0.89455914 -0.85791552 0.98604763
-0.88149154 -0.84596443 0.80356008
-0.87794119 -0.84343016 0.65025389
-0.85486394 -0.82182443 0.50186026
-0.84079599 -0.80885494 0.37210923
-0.82059175 -0.78968745 0.25105438
-0.81669879 -0.78647977 0.13941292
-0.39215153 -0.35750484 3.3739374
-1.1865698 -1.0945882 7.7846723
-1.1163365 -1.043835 4.9330616
-1.0447919 -0.98373824 3.4403052
-0.99570441 -0.94142461 2.5784888
-0.98068613 -0.92979211 2.0574207
-0.95178246 -0.90426201 1.6484592
-0.17251733 -0.1330733 3.6083977
-0.26946461 -0.22332998 3.2213459
-1.1815462 -1.0952266 6.2403388
-1.0780486 -1.0087067 4.0690432
-1.0143365 -0.95437264 2.9435384
-0.9874934 -0.93201423 2.2912261
-0.96942133 -0.91717368 1.8419007
-0.94327247 -0.89397717 1.4871573
-0.92924941 -0.88654524 1.3418884
-0.90577185 -0.86504084 1.0922991
-0.88715351 -0.84813559 0.88929516
-0.87489086 -0.83698702 0.72034597
-0.86122316 -0.82447749 0.57002032
-0.84892851 -0.81326532 0.43549791
-0.8474949 -0.81245244 0.31436834
-0.81921858 -0.78588402 0.19486278
-0.91959381 -0.87487787 1.211638
-0.89169407 -0.84921283 0.98016131
-0.88131851 -0.83990848 0.80102688
-0.87759602 -0.8372277 0.64815581
-0.8543117 -0.81557471 0.50021678
-0.84009963 -0.80255759 0.3709369
-0.82334328 -0.78681827 0.25105438
-0.8158285 -0.78017128 0.1392114
-0.39454991 -0.3571758 3.3838158
-1.1933872 -1.0931901 7.8042531
-1.1155974 -1.0358697 4.9139733
-1.0439379 -0.9760828 3.4264975
-0.99549228 -0.93466491 2.5697107
-0.97982782 -0.92250562 2.0491548
-0.95027012 -0.89653528 1.6407841
-0.17298079 -0.13247028 3.6083977
-0.27106789 -0.22306283 3.2312889
-1.1798122 -1.0859888 6.2113023
-1.0765055 -1.0002394 4.0502715
-1.0144801 -0.94785398 2.934536
-0.98693466 -0.92499489 2.2826943
-0.96822459 -0.90965801 1.8339207
-0.94144958 -0.88603252 1.479807
-0.92716032 -0.87839097 1.3348794
-0.90596151 -0.85919553 1.0891607
-0.88707608 -0.84215486 0.8865537
-0.87459546 -0.83087707 0.71802717
-0.86073583 -0.81827211 0.5681473
-0.84828645 -0.80699074 0.43408787
-0.84676778 -0.80610216 0.31343573
-0.82195681 -0.78301966 0.19486278
-0.91992795 -0.86909854 1.2083125
-0.89171612 -0.84331781 0.97721815
-0.88111383 -0.83386397 0.79849374
-0.87721837 -0.83103812 0.64605778
-0.85372633 -0.80933887 0.49857324
-0.83936954 -0.79627496 0.3697646
-0.82249266 -0.78053069 0.25036371
-0.81854683 -0.77731878 0.1392114
-0.39290309 -0.35320139 3.3591194
-1.1987025 -1.0903877 7.814043
-1.1148162 -1.0279224 4.8948855
-1.0430433 -0.96844536 3.4126902
-0.99524504 -0.92791814 2.5609324
-0.97893053 -0.91523641 2.040889
-0.95105469 -0.89102149 1.6369468
-0.27267256 -0.2227872 3.2412319
-1.1789563 -1.0776243 6.1871057
-1.074917 -0.99179542 4.0315008
-1.0145906 -0.94134599 2.9255335
-0.98633891 -0.9179908 2.2741623
-0.96698707 -0.90216178 1.8259404
-0.9420597 -0.88042611 1.4761319
-0.92762321 -0.87270564 1.3313749
-0.90612155 -0.85335952 1.0860223
-0.88696766 -0.83618498 0.88381225
-0.87426811 -0.82477933 0.71570832
-0.8635869 -0.81526256 0.5681473
-0.84761107 -0.80073053 0.43267787
-0.84600675 -0.79976696 0.3125031
-0.82106727 -0.77672344 0.1944157
-0.91750979 -0.86077309 1.2016616
-0.89170796 -0.83743298 0.97427499
-0.88087785 -0.82783121 0.79596055
-0.87680811 -0.82486123 0.6439597
-0.85654628 -0.80635393 0.49857324
-0.83860594 -0.79000723 0.36859229
-0.82160825 -0.77425861 0.24967301
-0.81762046 -0.77102923 0.13900986
-0.39355356 -0.35131073 3.3541803
-1.2100586 -1.0930206 7.8629956
-1.1139933 -1.0199932 4.8757977
-1.0421081 -0.96082616 3.3988824
-0.99320537 -0.91955763 2.5477653
-0.97799462 -0.90798473 2.0326231
-0.94946539 -0.88333005 1.6292717
-0.17042488 -0.12867755 3.5335228
-0.27427864 -0.22250311 3.2511749
-1.1771256 -1.0684346 6.1580687
-1.0745549 -0.98454028 4.0174227
-1.0146679 -0.9348489 2.9165311
-0.98570633 -0.91100216 2.2656305
-0.96791977 -0.89673311 1.8219506
-0.94264221 -0.87482643 1.4724567
-0.92805785 -0.86702788 1.3278702
-0.90625185 -0.84753287 1.0828838
-0.88682854 -0.83022624 0.88107073
-0.87390894 -0.81869406 0.71338952
-0.86304522 -0.80907255 0.56627429
-0.84690237 -0.79448497 0.43126783
-0.84521186 -0.79344696 0.3115705
-0.82377356 -0.77385265 0.1944157
-0.91777688 -0.85502017 1.198336
-0.89166957 -0.8315587 0.97133183
-0.88061047 -0.82181025 0.79342741
-0.8763656 -0.81869739 0.64186168
-0.85935575 -0.80335909 0.49857324
-0.83780897 -0.78375471 0.36741996
-0.8206901 -0.76800233 0.24898234
-0.82030684 -0.76817048 0.13900986
-0.3930319 -0.34838995 3.3393624
-1.2206895 -1.0949076 7.9070525
-1.1131285 -1.0120822 4.85671
-1.0411323 -0.95322531 3.3850746
-0.99288267 -0.91284335 2.5389869
-0.97908902 -0.90265805 2.0284901
-0.95018864 -0.87783551 1.6254343
-0.17319667 -0.12979503 3.5834394
-0.27630219 -0.22254354 3.2660892
-1.1761787 -1.0601121 6.1338716
-1.0728787 -0.97613871 3.9986515
-1.0163187 -0.92983198 2.91203
-0.9869588 -0.90579259 2.2613645
-0.9666087 -0.88926899 1.8139704
-0.94319707 -0.86923331 1.4687816
-0.92584962 -0.85893232 1.3208612
-0.90350044 -0.8390671 1.0766069
-0.88665855 -0.82427871 0.87832928
-0.87351787 -0.81262141 0.71107078
-0.86586416 -0.80605501 0.56627429
-0.84967053 -0.79152387 0.43126783
-0.84438312 -0.78714222 0.31063786
-0.82282829 -0.76757544 0.19396862
-0.91801494 -0.84927589 1.1950105
-0.89160109 -0.8256948 0.96838868
-0.88031185 -0.81580132 0.79089421
-0.87589067 -0.81254673 0.63976365
-0.85869396 -0.79714185 0.49692973
-0.83697844 -0.77751738 0.36624765
-0.81973833 -0.76176196 0.24829166
-0.81932479 -0.76190025 0.13880834
-0.3930783 -0.34599006 3.329484
-1.2305878 -1.0960566 7.9462142
-1.1111144 -1.0031897 4.8328495
-1.0401163 -0.94564307 3.3712673
-0.99429417 -0.9077574 2.5345981
-0.97808248 -0.8954348 2.0202241
-0.94852304 -0.87018013 1.6177592
-0.27832937 -0.22257257 3.281004
-1.1751883 -1.0518093 6.1096745
-1.0724378 -0.96891767 3.9845734
-1.0163354 -0.92335129 2.9030275
-0.9862591 -0.8988288 2.2528327
-0.96525729 -0.88182509 1.8059905
-0.94622546 -0.86593562 1.4687816
-0.92621922 -0.85327917 1.3173567
-0.90356237 -0.83326954 1.0734684
-0.88645786 -0.81834239 0.87558782
-0.87309521 -0.80656147 0.70875198
-0.86526829 -0.7998808 0.56440127
-0.84890682 -0.78529567 0.42985779
-0.83991593 -0.77751607 0.30877262
-0.82184923 -0.76131427 0.19352154
-0.91822416 -0.84354037 1.1916851
-0.8915025 -0.81984156 0.96544552
-0.87998194 -0.8098045 0.78836101
-0.87204534 -0.80333447 0.63556755
-0.86147124 -0.79413956 0.49692973
-0.8361147 -0.77129537 0.36507532
-0.818753 -0.75553763 0.24760097
-0.81830889 -0.75564629 0.1386068
-0.3925274 -0.34308323 3.3146663
-1.2420344 -1.0984985 7.9951663
-1.1101631 -0.99531996 4.8137617
-1.0390601 -0.93807948 3.3574595
-0.99390787 -0.90106428 2.5258198
-0.97911984 -0.89012247 2.0160913
-0.94918507 -0.86470532 1.6139216
-0.17082879 -0.1262071 3.513556
-0.27994162 -0.22225997 3.290947
-1.1741544 -1.0435264 6.0854774
-1.0719595 -0.96171153 3.9704952
-1.0179358 -0.91833991 2.8985264
-0.98552287 -0.89188105 2.2443008
-0.96386588 -0.87440139 1.7980103
-0.94673336 -0.86034751 1.4651064
-0.92392921 -0.84522682 1.3103476
-0.90359485 -0.82748187 1.07033
-0.88622671 -0.81241763 0.87284636
-0.87264085 -0.80051446 0.70643318
-0.86464 -0.79372078 0.56252825
-0.84811008 -0.77908254 0.42844775
-0.83900839 -0.77125508 0.30784002
-0.82083654 -0.75506943 0.19307446
-0.91840452 -0.83781379 1.1883595
-0.89137399 -0.81399906 0.96250236
-0.87962097 -0.80381989 0.78582788
-0.87149549 -0.79722238 0.63346946
-0.86075485 -0.78793913 0.49528623
-0.83521771 -0.76508886 0.36390302
-0.8177343 -0.74932951 0.2469103
-0.81725937 -0.74940884 0.13840528
-0.39196095 -0.34018445 3.2998483
-1.2512176 -1.0988586 8.0294333
-1.1091704 -0.98746908 4.7946739
-1.0379639 -0.93053496 3.3436522
-0.99348694 -0.89438486 2.5170417
-0.9780432 -0.88292831 2.0078254
-0.9474436 -0.8570866 1.6062467
-0.28239435 -0.22259621 3.310833
-1.1721344 -1.0344321 6.0564408
-1.0701554 -0.9533729 3.9517241
-1.017892 -0.91187626 2.889524
-0.98475015 -0.88494933 2.235769
-0.96243435 -0.86699826 1.7900304
-0.94469672 -0.85249537 1.457756
-0.92423421 -0.83959872 1.306843
-0.90359807 -0.82170415 1.0671915
-0.88596499 -0.80650455 0.87010491
-0.87215501 -0.79448044 0.70411438
-0.86397916 -0.78757477 0.56065518
-0.84728026 -0.77288449 0.42703772
-0.83806735 -0.76501 0.30690739
-0.8234672 -0.75219959 0.19307446
-0.91855603 -0.83209622 1.185034
-0.89121562 -0.80816752 0.95955914
-0.88242155 -0.80074459 0.78582788
-0.86755401 -0.78807235 0.62927336
-0.86000556 -0.78175348 0.49364269
-0.83428764 -0.75889814 0.36273071
-0.82034498 -0.74647045 0.2469103
-0.81617635 -0.74318784 0.13820374
-0.39079008 -0.33678702 3.2800913
-1.2542782 -1.0938151 8.024538
-1.1081367 -0.97963727 4.7755861
-1.0382869 -0.92430842 3.3344471
-0.99481714 -0.88931549 2.5126526
-0.97902364 -0.87763065 2.0036924
-0.94804502 -0.85163236 1.6024091
-0.17311414 -0.12601975 3.5435061
-0.28190726 -0.22062743 3.2959185
-1.1719562 -1.0270212 6.0370831
-1.0695987 -0.94620168 3.9376454
-1.0194422 -0.90687084 2.8850226
-0.98394114 -0.87803388 2.2272372
-0.96096295 -0.85961586 1.7820503
-0.94261694 -0.84466797 1.4504057
-0.92451102 -0.83397865 1.3033384
-0.90068299 -0.81332803 1.0609146
-0.88567269 -0.80060303 0.86736345
-0.87163764 -0.7884596 0.70179558
-0.86328596 -0.78144306 0.55878216
-0.84641755 -0.76670176 0.42562771
-0.83709311 -0.75878096 0.30597478
-0.82239932 -0.74597478 0.19262739
-0.918679 -0.82638788 1.1817086
-0.89102745 -0.802347 0.95661598
-0.88200873 -0.79477394 0.78329468
-0.86692941 -0.78199935 0.62717533
-0.85922384 -0.77558273 0.49199918
-0.83693153 -0.75598127 0.36273071
-0.81927139 -0.74028248 0.24621962
-0.81876558 -0.74033427 0.13820374
-0.39491707 -0.33794448 3.3047879
-1.2565491 -1.0880977 8.0147476
-1.1070617 -0.97182471 4.7564979
-1.0371155 -0.91679722 3.3206394
-0.99433273 -0.88265783 2.5038743
-0.97787708 -0.87046617 1.9954264
-0.94861996 -0.84618437 1.5985717
-0.17355298 -0.1254147 3.5435061
-0.28267565 -0.21964204 3.2959185
-1.1707922 -1.0187991 6.012886
-1.0690051 -0.93904626 3.9235673
-1.0193383 -0.90042472 2.8760202
-0.98309582 -0.87113494 2.2187052
-0.96170473 -0.85425526 1.7780602
-0.94049406 -0.83686554 1.4430554
-0.92476004 -0.82836711 1.2998339
-0.90061855 -0.80758065 1.0577762
-0.88535017 -0.79471362 0.864622
-0.87438464 -0.78541225 0.70179558
-0.86600852 -0.77842486 0.55878216
-0.84552217 -0.76053464 0.42421767
-0.83973664 -0.75585431 0.30597478
-0.82129794 -0.7397666 0.19218032
-0.91877335 -0.82068884 1.1783831
-0.89080948 -0.79653776 0.95367283
-0.88156503 -0.78881586 0.78076148
-0.86965388 -0.77896845 0.62717533
-0.8584094 -0.76942694 0.49035567
-0.83594692 -0.7498098 0.36155838
-0.81816459 -0.73411101 0.24552894
-0.81762749 -0.73413402 0.1380022
-0.39609432 -0.33656392 3.3047879
-1.2557064 -1.0797224 7.9853759
-1.1070713 -0.96501243 4.7421823
-1.0359043 -0.90930545 3.3068321
-0.99381423 -0.87601459 2.4950962
-0.97880095 -0.86518383 1.9912934
-0.94916844 -0.84074283 1.5947342
-0.28301758 -0.21832971 3.290947
-1.1695851 -1.0105977 5.9886889
-1.0683748 -0.9319064 3.9094892
-1.0192016 -0.8939904 2.8670177
-0.98221451 -0.86425269 2.2101734
-0.96242088 -0.84889996 1.7740703
-0.93578762 -0.82684368 1.4320298
-0.92498124 -0.82276404 1.2963293
-0.90052503 -0.80184376 1.0546377
-0.88499731 -0.78883618 0.86188054
-0.87381506 -0.77940679 0.69947678
-0.86526173 -0.77231014 0.55690914
-0.84817183 -0.75757855 0.42421767
-0.83870739 -0.74964494 0.30504215
-0.82016337 -0.73357528 0.19173324
-0.91883904 -0.81499928 1.1750575
-0.89056194 -0.79073983 0.95072967
-0.88431317 -0.78573382 0.78076148
-0.86897635 -0.77291185 0.62507725
-0.8575626 -0.76328641 0.48871216
-0.83855915 -0.74688727 0.36155838
-0.8207221 -0.73125058 0.24552894
-0.82018512 -0.7312755 0.1380022
-0.39786097 -0.33567983 3.309727
-1.2540463 -1.0707057 7.9511094
-1.105918 -0.95723522 4.7230945
-1.0361263 -0.90311694 3.297627
-0.9932614 -0.86938578 2.4863181
-0.97758502 -0.85804957 1.9830275
-0.94728369 -0.83319098 1.5870591
-0.17584318 -0.12519354 3.573456
-0.28377795 -0.21734047 3.290947
-1.1692892 -1.0032356 5.9693313
-1.069012 -0.92591208 3.9001033
-1.0190327 -0.88756794 2.8580153
-0.98326111 -0.85910302 2.2059073
-0.96537822 -0.84553528 1.7740703
-0.93357116 -0.81910062 1.4246795
-0.92250156 -0.81480879 1.2893202
-0.90040243 -0.79611737 1.0514992
-0.88461423 -0.78297085 0.85913903
-0.87321419 -0.77341485 0.69715798
-0.86448288 -0.7662102 0.55503613
-0.84722215 -0.75143027 0.42280763
-0.84131902 -0.74671268 0.30504215
-0.81899548 -0.7274009 0.19128615
-0.91887629 -0.80931926 1.1717321
-0.89028478 -0.78495336 0.94778651
-0.88381791 -0.77979034 0.77822834
-0.87166905 -0.76987386 0.62507725
-0.85668337 -0.75716114 0.48706865
-0.84116119 -0.74395555 0.36155838
-0.81956077 -0.72509992 0.24483825
-0.81899214 -0.72509634 0.13780068
-0.39843428 -0.33379048 3.3047879
-1.2523388 -1.0617136 7.9168429
-1.1047239 -0.94947785 4.7040062
-1.0348403 -0.89565951 3.2838192
-0.99267459 -0.86277151 2.47754
-0.97633123 -0.85093451 1.9747616
-0.94777209 -0.82777101 1.5832217
-0.17201206 -0.12161329 3.4836061
-0.28453487 -0.21634857 3.290947
-1.1689564 -0.99588788 5.9499736
-1.0683122 -0.9187997 3.8860252
-1.0171845 -0.87973374 2.8445115
-0.98231369 -0.8522476 2.1973755
-0.96832383 -0.84216028 1.7740703
-0.93386841 -0.81361002 1.4210044
-0.92265886 -0.80923229 1.2858157
-0.89732581 -0.78783369 1.0452224
-0.88420105 -0.77711797 0.85639757
-0.87590861 -0.77036202 0.69715798
-0.86367208 -0.76012522 0.55316305
-0.84983993 -0.74846834 0.42280763
-0.84023511 -0.74052352 0.30410954
-0.82152963 -0.72453761 0.19128615
-0.91888511 -0.80364889 1.1684066
-0.88997805 -0.77917844 0.94484335
-0.88329202 -0.77385986 0.77569515
-0.87093884 -0.763834 0.62297922
-0.85577196 -0.75105137 0.48542514
-0.84375292 -0.74101478 0.36155838
-0.81836647 -0.71896625 0.24414757
-0.81776607 -0.71893448 0.13759914
-0.39899924 -0.33190122 3.2998483
-1.2513627 -1.0534023 7.8874717
-1.1046249 -0.94270939 4.6896906
-1.0335151 -0.88822222 3.2700117
-0.99205351 -0.85617185 2.4687617
-0.97716767 -0.84567988 1.9706287
-0.94581252 -0.8202579 1.5755466
-0.28528833 -0.21535404 3.290947
-1.1676266 -0.98774314 5.9257765
-1.0688879 -0.91282392 3.8766394
-1.0169458 -0.8733415 2.8355093
-0.98133063 -0.84540939 2.1888437
-0.97125757 -0.83877516 1.7740703
-0.93157476 -0.80590957 1.4136541
-0.92278856 -0.80366462 1.2823112
-0.89713639 -0.78213894 1.0420839
-0.88375789 -0.77127755 0.85365611
-0.8752557 -0.764386 0.69483918
-0.86282933 -0.7540552 0.55129004
-0.8488363 -0.74233931 0.4213976
-0.83911836 -0.73435116 0.30317691
-0.82030731 -0.71838456 0.19083907
-0.91886562 -0.79798836 1.165081
-0.88964188 -0.77341533 0.94190019
-0.87948298 -0.76511323 0.77062875
-0.87359983 -0.76078916 0.62297922
-0.85482836 -0.74495727 0.48378164
-0.84633446 -0.738065 0.36155838
-0.81713945 -0.71284986 0.24345689
-0.81650704 -0.71279007 0.13739762
-0.39955592 -0.33001208 3.2949092
-1.2495626 -1.0444577 7.8532047
-1.103353 -0.9349882 4.6706028
-1.0321506 -0.88080519 3.2562041
-0.99139869 -0.8495872 2.4599836
-0.97584504 -0.83859605 1.9623629
-0.94624108 -0.81485999 1.5717092
-0.28603834 -0.21435688 3.290947
-1.1672168 -0.9804281 5.9064183
-1.0694352 -0.90685552 3.8672543
-1.0150185 -0.86554933 2.8220057
-0.98229378 -0.84028363 2.1845777
-0.97417957 -0.83537966 1.7740703
-0.93438226 -0.80265284 1.4136541
-0.9228906 -0.79810596 1.2788066
-0.89691824 -0.77645522 1.0389454
-0.88644475 -0.76818794 0.85365611
-0.87791854 -0.76132619 0.69483918
-0.86545628 -0.75103879 0.55129004
-0.84780043 -0.73622656 0.41998756
-0.83796877 -0.72819549 0.30224431
-0.8190521 -0.71224898 0.19039199
-0.91881782 -0.79233789 1.1617556
-0.88927639 -0.76766402 0.93895704
-0.8788861 -0.75922066 0.76809555
-0.87281716 -0.75476664 0.6208812
-0.85385257 -0.73887879 0.48213813
-0.84523118 -0.73192453 0.36038607
-0.8158797 -0.70675087 0.2427662
-0.81521511 -0.70666325 0.13719608
-0.40070546 -0.32861537 3.2949092
-1.248499 -1.0361888 7.8238339
-1.103183 -0.92824841 4.6562862
-1.0307469 -0.87340832 3.2423966
-0.99071002 -0.84301752 2.4512055
-0.9744848 -0.83153176 1.9540969
-0.94664353 -0.8094691 1.5678717
-0.28678486 -0.21335712 3.290947
-1.1667705 -0.97312808 5.8870606
-1.0686337 -0.89978302 3.8531759
-1.0147105 -0.85918778 2.8130033
-0.9812451 -0.83347315 2.1760459
-0.97250092 -0.82806736 1.7660903
-0.9345988 -0.79718637 1.4099789
-0.92296517 -0.79255646 1.2753021
-0.89667124 -0.77078241 1.035807
-0.88595116 -0.76236165 0.85091466
-0.87721384 -0.75536662 0.69252038
-0.86456048 -0.74498695 0.54941696
-0.84673214 -0.73013014 0.41857755
-0.84050548 -0.72526604 0.30224431
-0.81776404 -0.70613098 0.18994491
-0.91590548 -0.78426903 1.1551045
-0.88888174 -0.7619248 0.93601388
-0.87498671 -0.75053519 0.76302922
-0.87200308 -0.74875879 0.61878312
-0.85284501 -0.7328164 0.48049462
-0.84778094 -0.72896969 0.36038607
-0.81458747 -0.70066935 0.24207552
-0.81767684 -0.70381325 0.13719608
-0.40064427 -0.32623434 3.2850308
-1.247393 -1.0279402 7.7944622
-1.1018338 -0.92056429 4.6371984
-1.0307993 -0.86728984 3.2331915
-0.99181706 -0.83800858 2.4468162
-0.97308719 -0.82448709 1.9458311
-0.94701982 -0.80408537 1.5640341
-0.28709808 -0.21203943 3.2859755
-1.1653191 -0.96504152 5.862864
-1.0677958 -0.8927272 3.8390975
-1.0143708 -0.85283905 2.8040009
-0.98016089 -0.8266803 2.1675138
-0.97078311 -0.820777 1.7581102
-0.93478882 -0.79172832 1.4063038
-0.92301238 -0.78701621 1.2717975
-0.89639568 -0.76512092 1.0326686
-0.88542789 -0.75654829 0.8481732
-0.87647825 -0.74942124 0.69020158
-0.86363322 -0.73895079 0.54754394
-0.84563172 -0.7240501 0.41716751
-0.83930176 -0.71913153 0.30131167
-0.82022393 -0.7032721 0.18994491
-0.91579288 -0.77864867 1.1517791
-0.88845778 -0.75619763 0.93307072
-0.87431949 -0.7446813 0.76049602
-0.87115771 -0.74276584 0.61668509
-0.85180545 -0.7267701 0.47885111
-0.84662378 -0.72284985 0.35921374
-0.81702828 -0.69782168 0.24207552
-0.81633079 -0.69770879 0.13699456
-0.40117598 -0.3243458 3.2800913
-1.2462445 -1.0197119 7.7650909
-1.1015935 -0.91385394 4.6228828
-1.0293221 -0.85992926 3.219384
-0.99106622 -0.83146304 2.4380381
-0.97165239 -0.81746256 1.9375652
-0.94737023 -0.79870892 1.5601966
-0.28783649 -0.21103595 3.2859755
-1.1647965 -0.95777529 5.8435063
-1.0655937 -0.88458616 3.8203266
-1.0139989 -0.8465032 2.7949984
-0.98104107 -0.82157964 2.1632481
-0.96902645 -0.81350887 1.7501302
-0.93235725 -0.78409666 1.3989534
-0.92303205 -0.7814852 1.268293
-0.89609158 -0.75947076 1.02953
-0.88487476 -0.75074798 0.84543175
-0.87571192 -0.74349028 0.68788278
-0.86620736 -0.73593163 0.54754394
-0.84449929 -0.71798676 0.41575748
-0.84180689 -0.71619743 0.30131167
-0.81888193 -0.69717646 0.18949783
-0.9156521 -0.77303869 1.1484535
-0.89109194 -0.75309181 0.93307072
-0.87362194 -0.73884124 0.75796282
-0.87028116 -0.73678792 0.61458701
-0.85073406 -0.72073984 0.4772076
-0.8417266 -0.71360385 0.35686913
-0.81568235 -0.69176251 0.24138485
-0.81876129 -0.69485503 0.13699456
-0.40048683 -0.32148576 3.2652738
-1.2442636 -1.0108622 7.7308245
-1.1001676 -0.90620768 4.6037946
-1.0293099 -0.85383672 3.2101789
-0.990282 -0.82493311 2.42926
-0.97234005 -0.81226182 1.9334321
-0.94523674 -0.79128253 1.5525217
-0.28813943 -0.20971759 3.281004
-1.1632636 -0.94972968 5.8193092
-1.0646797 -0.8775689 3.8062482
-1.011919 -0.83879119 2.7814946
-0.97989196 -0.8148154 2.1547163
-0.9672308 -0.80626297 1.7421501
-0.93248636 -0.77866465 1.3952782
-0.92302442 -0.77596378 1.2647884
-0.89873713 -0.75633824 1.02953
-0.88429195 -0.74496067 0.84269029
-0.87491488 -0.7375738 0.68556398
-0.86522746 -0.72991431 0.54567093
-0.84333473 -0.71194017 0.41434744
-0.84054923 -0.71008462 0.30037907
-0.81750739 -0.69109875 0.18905075
-0.91548342 -0.76743919 1.145128
-0.89061892 -0.74737853 0.93012756
-0.87289429 -0.73301512 0.75542969
-0.8728478 -0.73374563 0.61458701
-0.85324472 -0.71776587 0.4772076
-0.84421241 -0.71066135 0.35686913
-0.81809211 -0.68891102 0.24138485
-0.82118183 -0.69199282 0.13699456
-0.40039054 -0.3191182 3.2553949
-1.2430289 -1.002678 7.7014532
-1.0987017 -0.8985824 4.5847068
-1.0277598 -0.84651297 3.1963713
-0.98946428 -0.81841868 2.4204819
-0.97083735 -0.80527008 1.9251662
-0.94552797 -0.7859295 1.5486841
-0.17324488 -0.11626191 3.4486644
-0.28843665 -0.20839968 3.2760322
-1.1626654 -0.94249773 5.7999516
-1.0637298 -0.87056875 3.7921698
-1.0114789 -0.83248729 2.7724922
-0.97870773 -0.80806941 2.1461844
-0.96539652 -0.79903954 1.7341701
-0.92997879 -0.77107745 1.3879279
-0.92298949 -0.7704519 1.2612839
-0.89838493 -0.75070077 1.0263916
-0.88367957 -0.73918664 0.83994877
-0.87408733 -0.73167205 0.68324518
-0.86421615 -0.72391284 0.54379785
-0.84213841 -0.7059105 0.4129374
-0.83925915 -0.70398939 0.29944643
-0.81991482 -0.68824089 0.18905075
-0.9152869 -0.76185042 1.1418025
-0.89011693 -0.74167776 0.9271844
-0.87544769 -0.72996366 0.75542969
-0.87191933 -0.72778612 0.61248899
-0.85212076 -0.71175599 0.47556409
-0.84295851 -0.70459294 0.3556968
-0.81669283 -0.68287468 0.24069417
-0.82359236 -0.68912214 0.13699456
-0.39906329 -0.31579193 3.2356379
-1.2417521 -0.99451482 7.6720815
-1.0983549 -0.89191937 4.5703912
-1.0276834 -0.84044695 3.1871662
-0.98861319 -0.81192023 2.4117036
-0.97147018 -0.80008763 1.9210334
-0.94579345 -0.78058416 1.5448467
-0.28829408 -0.20677292 3.2660892
-1.1620309 -0.93528181 5.7805939
-1.0614046 -0.86249787 3.7733986
-1.0093212 -0.82481951 2.7589886
-0.9774884 -0.80134165 2.1376524
-0.96352345 -0.79183859 1.7261899
-0.92742991 -0.76351738 1.3805776
-0.92018151 -0.76267415 1.2542748
-0.89800423 -0.74507505 1.0232532
-0.88625443 -0.73609751 0.83994877
-0.87322921 -0.72578514 0.68092638
-0.86673778 -0.72089171 0.54379785
-0.84459734 -0.70296663 0.4129374
-0.83793688 -0.6979118 0.29851383
-0.81848675 -0.68218631 0.18860367
-0.91506249 -0.75627238 1.138477
-0.88958615 -0.73598981 0.92424124
-0.87799042 -0.72690332 0.75542969
-0.8744545 -0.72473812 0.61248899
-0.85096514 -0.70576268 0.47392058
-0.84541285 -0.70164615 0.3556968
-0.81907147 -0.68001968 0.24069417
-0.82214999 -0.68305051 0.13679302
-0.40016317 -0.31439701 3.2356379
-1.2404335 -0.98637277 7.6427107
-1.097975 -0.88526964 4.5560746
-1.0275773 -0.83439189 3.1779611
-0.98772871 -0.80543756 2.4029255
-0.97207844 -0.79491031 1.9169004
-0.94355392 -0.77321512 1.5371716
-0.2885789 -0.20545752 3.2611179
-1.1613604 -0.92808169 5.7612362
-1.0617224 -0.85662085 3.7640131
-1.0071224 -0.81717682 2.7454851
-0.97825676 -0.79627836 2.1333864
-0.96394688 -0.78656566 1.7221999
-0.92483956 -0.75598454 1.3732272
-0.92008436 -0.75719142 1.2507702
-0.89759535 -0.73946112 1.0201148
-0.8855924 -0.73033911 0.83720732
-0.87234062 -0.71991301 0.67860758
-0.86567426 -0.71490997 0.54192483
-0.84334821 -0.6969583 0.4115274
-0.84036797 -0.69498259 0.29851383
-0.8170265 -0.67615008 0.18815659
-0.91481042 -0.75070512 1.1351515
-0.88902634 -0.73031449 0.92129809
-0.87719226 -0.72109681 0.75289649
-0.87347442 -0.71879745 0.6103909
-0.8534236 -0.702788 0.47392058
-0.84410578 -0.69559979 0.35452449
-0.81761909 -0.67400652 0.24000348
-0.82067543 -0.6769973 0.13659149
-0.4030973 -0.31443051 3.2504559
-1.2398726 -0.97888297 7.6182342
-1.0975623 -0.87863356 4.541759
-1.0274415 -0.82834786 3.1687562
-0.98681122 -0.79897106 2.3941474
-0.97266257 -0.78973871 1.9127675
-0.94376093 -0.76789409 1.5333341
-0.28842178 -0.20383641 3.2511749
-1.1606536 -0.92089766 5.7418785
-1.0606654 -0.84967327 3.7499349
-1.0048826 -0.80955958 2.7319813
-0.97697324 -0.7895804 2.1248546
-0.9643451 -0.78129923 1.7182097
-0.92220795 -0.74847913 1.3658769
-0.9199602 -0.75171882 1.2472657
-0.89414519 -0.73139483 1.0138377
-0.88490111 -0.72459435 0.83446586
-0.87484831 -0.71686363 0.67860758
-0.86457962 -0.70894438 0.54005182
-0.8457759 -0.6940102 0.4115274
-0.83899242 -0.68892765 0.2975812
-0.81553411 -0.67013234 0.18770951
-0.91453058 -0.74514896 1.131826
-0.88843787 -0.72465205 0.91835493
-0.87970406 -0.71803051 0.75289649
-0.87246364 -0.71287262 0.60829288
-0.85221583 -0.69681573 0.47227708
-0.84652871 -0.69264901 0.35452449
-0.81996685 -0.67114842 0.24000348
-0.81916869 -0.67096281 0.13638996
-0.40480709 -0.31349677 3.2553949
-1.2384731 -0.97078109 7.5888629
-1.0971165 -0.87201113 4.5274429
-1.027276 -0.82231492 3.1595511
-0.98586053 -0.79252082 2.3853693
-0.97322237 -0.78457278 1.9086344
-0.94394219 -0.76258093 1.5294967
-0.18239075 -0.11865341 3.603406
-0.28781947 -0.2019141 3.2362604
-1.1589235 -0.91295236 5.7176814
-1.0609233 -0.84381765 3.7405496
-1.002602 -0.80196816 2.7184777
-0.97565502 -0.78290123 2.1163228
-0.96237051 -0.77415127 1.7102298
-0.92217517 -0.74312842 1.3622017
-0.91980904 -0.74625623 1.2437612
-0.89367133 -0.72581553 1.0106993
-0.88742507 -0.72150105 0.83446586
-0.87390906 -0.71100992 0.67628878
-0.86345387 -0.70299518 0.5381788
-0.84447426 -0.68802369 0.41011736
-0.83758473 -0.68289071 0.29664856
-0.81786835 -0.66728157 0.18770951
-0.91422319 -0.73960394 1.1285006
-0.88782072 -0.71900266 0.91541177
-0.87885588 -0.71224123 0.75036329
-0.87142211 -0.70696354 0.60619479
-0.85097682 -0.69086045 0.47063357
-0.84516883 -0.68662512 0.35335216
-0.81846166 -0.66515905 0.23931281
-0.81762975 -0.66494709 0.13618843
-0.40713167 -0.3130281 3.2652738
-1.2370322 -0.9627009 7.5594916
-1.096638 -0.86540258 4.5131273
-1.027081 -0.8162933 3.150346
-0.98487705 -0.78608698 2.3765912
-0.97375816 -0.77941257 1.9045017
-0.94159746 -0.75527054 1.5218216
-0.28764573 -0.20030174 3.2263174
-1.1581423 -0.90580451 5.6983237
-1.059799 -0.83690131 3.7264709
-1.0002806 -0.79440236 2.7049739
-0.97634196 -0.77786583 2.112057
-0.96271241 -0.76890701 1.7062398
-0.92211622 -0.73778701 1.3585266
-0.919631 -0.74080384 1.2402567
-0.89316946 -0.7202484 1.0075608
-0.88668448 -0.71577263 0.83172441
-0.87293959 -0.70517147 0.67396998
-0.86229718 -0.69706255 0.53630573
-0.84687078 -0.68507177 0.41011736
-0.83614528 -0.67687207 0.29571593
-0.81632292 -0.6612879 0.18726245
-0.91388822 -0.73407012 1.125175
-0.88717508 -0.71336651 0.91246861
-0.87797815 -0.70646691 0.74783015
-0.87034988 -0.70107037 0.60409671
-0.85338318 -0.68788582 0.47063357
-0.84377712 -0.68061918 0.35217986
-0.82077849 -0.66229802 0.23931281
-0.81605887 -0.65895039 0.13598689
-0.40883985 -0.31207594 3.2702129
-1.2347442 -0.95402032 7.5252247
-1.0961266 -0.85880798 4.4988108
-1.0268565 -0.81028306 3.1411412
-0.98386049 -0.77966964 2.3678129
-0.9720664 -0.77250749 1.8962357
-0.94172066 -0.74998254 1.517984
-0.17442027 -0.11183907 3.4237063
-0.28746423 -0.19869307 3.2163744
-1.1563324 -0.89790255 5.6741261
-1.0599976 -0.83106768 3.7170856
-0.99962831 -0.78821045 2.6959715
-0.97496015 -0.77121741 2.1035249
-0.96302933 -0.76366967 1.7022496
-0.9220314 -0.73245519 1.3548514
-0.91942614 -0.73536193 1.236752
-0.89567816 -0.71712631 1.0075608
-0.88591468 -0.71005815 0.82898289
-0.87539577 -0.70212001 0.67396998
-0.86472511 -0.69404835 0.53630573
-0.84551686 -0.67910761 0.40870732
-0.83850288 -0.6739493 0.29571593
-0.81474578 -0.65531325 0.18681537
-0.91352582 -0.72854769 1.1218495
-0.88650084 -0.70774359 0.90952545
-0.88043886 -0.70339787 0.74783015
-0.86924732 -0.69519347 0.60199869
-0.85209227 -0.68195218 0.46899009
-0.84235394 -0.67463118 0.35100752
-0.8192206 -0.65633273 0.23862213
-0.81445616 -0.65297276 0.13578537
-0.41054639 -0.31111577 3.2751522
-1.2332188 -0.94598716 7.4958534
-1.0944042 -0.85131115 4.479723
-1.0250646 -0.80307978 3.1273334
-0.98281133 -0.77326912 2.3590348
-0.97254777 -0.76736671 1.8921027
-0.94181854 -0.74470294 1.5141466
-0.17236136 -0.10969972 3.3737895
-0.28771555 -0.19738826 3.2114029
-1.1554772 -0.89079159 5.6547685
-1.0588064 -0.82418317 3.7030075
-1.0006593 -0.78337461 2.6914704
-0.975595 -0.76619875 2.0992589
-0.96095377 -0.75657576 1.6942697
-0.92458254 -0.72923225 1.3548514
-0.91919452 -0.7299304 1.2332475
-0.89512891 -0.71157342 1.0044224
-0.88511574 -0.7043578 0.82624143
-0.87437588 -0.69630063 0.67165118
-0.86351693 -0.68813652 0.53443271
-0.84788227 -0.67615205 0.40870732
-0.83701074 -0.66795427 0.29478332
-0.81702828 -0.65246528 0.18681537
-0.91313595 -0.72303665 1.1185241
-0.88579828 -0.70213413 0.9065823
-0.8795113 -0.69764137 0.74529696
-0.86811435 -0.68933272 0.5999006
-0.85077041 -0.676036 0.46734658
-0.84089917 -0.66866159 0.34983522
-0.82150662 -0.65346909 0.23862213
-0.81282187 -0.64701444 0.13558383
-0.41225109 -0.3101474 3.2800913
-1.2308421 -0.93735945 7.4615865
-1.0938247 -0.84474927 4.4654074
-1.0247772 -0.7970981 3.1181283
-0.98172957 -0.76688546 2.3502567
-0.97078979 -0.76049685 1.8838367
-0.94189095 -0.73943168 1.5103091
-0.17961322 -0.11335696 3.513556
-0.28796124 -0.19608411 3.2064314
-1.1535881 -0.88293374 5.6305714
-1.0575801 -0.81731701 3.6889291
-0.99994981 -0.77720529 2.6824682
-0.97414982 -0.75958157 2.0907271
-0.96121484 -0.75136131 1.6902797
-0.92445308 -0.72391039 1.3511763
-0.92173684 -0.72671741 1.2332475
-0.89455193 -0.70603323 1.0012839
-0.88428807 -0.69867176 0.82349998
-0.87680113 -0.69324422 0.67165118
-0.86591375 -0.68511808 0.53443271
-0.84647632 -0.67021048 0.40729728
-0.83548701 -0.66197789 0.29385069
-0.81539863 -0.64651537 0.18636829
-0.91271883 -0.7175374 1.1151985
-0.88824373 -0.69903785 0.9065823
-0.8819412 -0.69456714 0.74529696
-0.87051523 -0.68629825 0.5999006
-0.84941763 -0.67013729 0.46570307
-0.83941299 -0.66271031 0.34866288
-0.82378262 -0.65059745 0.23862213
-0.81507546 -0.64417326 0.13558383
-0.41395411 -0.30917096 3.2850308
-1.2308573 -0.9306016 7.4420056
-1.0932127 -0.8382017 4.4510913
-1.0244606 -0.79112828 3.1089232
-0.98250782 -0.76198632 2.3458676
-0.97121698 -0.75537598 1.8797038
-0.94193822 -0.73416919 1.5064715
-0.28820136 -0.19478066 3.2014599
-1.1526593 -0.87586039 5.6112137
-1.0576881 -0.81151974 3.6795435
-1.0009331 -0.77238035 2.6779668
-0.97267061 -0.75298393 2.0821953
-0.96145111 -0.74615419 1.6862897
-0.92697436 -0.72067904 1.3511763
-0.92145956 -0.72129744 1.229743
-0.89394712 -0.70050573 0.99814546
-0.88343143 -0.69300014 0.82075852
-0.87573111 -0.68744421 0.66933239
-0.86465436 -0.67922765 0.53255969
-0.84881061 -0.66725165 0.40729728
-0.8339318 -0.6560204 0.29291809
-0.81765038 -0.64366513 0.18636829
-0.91227454 -0.7120499 1.111873
-0.88749325 -0.69344455 0.90363914
-0.88096434 -0.68882918 0.74276382
-0.8693316 -0.68045813 0.59780258
-0.84803414 -0.66425645 0.46405956
-0.84172118 -0.65977615 0.34866288
-0.82215166 -0.64466238 0.23793145
-0.81338865 -0.6382401 0.13538231
-0.41690436 -0.30911097 3.2998483
-1.230026 -0.92324418 7.4175301
-1.0925682 -0.83166873 4.4367752
-1.0241147 -0.78517044 3.0997183
-0.98136604 -0.75563014 2.3370893
-0.97162044 -0.75026155 1.8755709
-0.94196016 -0.72891527 1.502634
-0.28887951 -0.19377348 3.2014599
-1.1506916 -0.86804742 5.5870166
-1.0563956 -0.80468637 3.6654651
-1.0001667 -0.76623422 2.6689644
-0.97115713 -0.7464059 2.0736635
-0.96166277 -0.74095464 1.6822997
-0.92680049 -0.71536762 1.347501
-0.92115575 -0.71588826 1.2262385
-0.89331472 -0.69499105 0.99500704
-0.88254601 -0.687343 0.81801701
-0.87463146 -0.68166029 0.66701359
-0.8633644 -0.67335439 0.53068668
-0.8511346 -0.66428477 0.40729728
-0.83621669 -0.65310544 0.29291809
-0.81596845 -0.63774043 0.18592121
-0.91180301 -0.7065742 1.1085476
-0.8867147 -0.68786508 0.90069598
-0.88336349 -0.68574989 0.74276382
-0.86811793 -0.67463464 0.5957045
-0.85034764 -0.6612922 0.46405956
-0.84018308 -0.65384883 0.34749055
-0.82439697 -0.6417886 0.23793145
-0.81167042 -0.63232666 0.13518077
-0.41610244 -0.30627349 3.2850308
-1.2307913 -0.91712022 7.402844
-1.0918914 -0.82515055 4.4224591
-1.0237398 -0.77922469 3.0905132
-0.98209482 -0.75074553 2.3327003
-0.972 -0.74515349 1.8714379
-0.94195694 -0.7236703 1.4987966
-0.28910947 -0.19246992 3.1964884
-1.1486835 -0.860259 5.56282
-1.056445 -0.79891253 3.6560795
-1.0011023 -0.76142073 2.6644633
-0.97168314 -0.74142945 2.0693977
-0.95945632 -0.73393202 1.6743195
-0.92660099 -0.71006626 1.3438259
-0.92082548 -0.71049011 1.2227339
-0.89265472 -0.68948948 0.99186856
-0.88163197 -0.68170053 0.81527555
-0.87350202 -0.67589223 0.66469479
-0.8657096 -0.67033654 0.53068668
-0.85344815 -0.66130966 0.40729728
-0.83460945 -0.64717251 0.29198545
-0.81818968 -0.63488823 0.18592121
-0.91130447 -0.70111054 1.105222
-0.88911039 -0.6847657 0.90069598
-0.88233727 -0.6800307 0.74023062
-0.87046754 -0.67160028 0.5957045
-0.84891307 -0.65543413 0.46241605
-0.83861405 -0.6479404 0.34631824
-0.82271403 -0.63587868 0.23724076
-0.81387269 -0.62948954 0.13518077
-0.4146581 -0.30298752 3.2652738
-1.2307104 -0.91039693 7.3832631
-1.0911826 -0.81864721 4.4081435
-1.0217772 -0.7721135 3.0767057
-0.98089361 -0.74441749 2.3239222
-0.97011632 -0.73834783 1.8631719
-0.94447732 -0.72037774 1.4987966
-0.28977954 -0.19145958 3.1964884
-1.1476439 -0.85324484 5.5434618
-1.0550869 -0.79211241 3.6420014
-1.0002792 -0.75529826 2.6554608
-0.97010726 -0.7348839 2.0608656
-0.95721269 -0.72693396 1.6663395
-0.92637569 -0.70477492 1.3401507
-0.92329997 -0.70727146 1.2227339
-0.8919673 -0.68400091 0.98873013
-0.8806892 -0.67607278 0.81253409
-0.87234294 -0.67014056 0.66237599
-0.86436874 -0.66448522 0.5288136
-0.8557514 -0.65832657 0.40729728
-0.83297092 -0.64125872 0.29105285
-0.82040083 -0.6320284 0.18592121
-0.91077894 -0.69565892 1.1018965
-0.88828421 -0.67920285 0.89775282
-0.88128191 -0.67432714 0.73769742
-0.86920351 -0.66579789 0.59360647
-0.85119581 -0.65246689 0.46241605
-0.83701396 -0.6420508 0.34514591
-0.82099986 -0.62998843 0.23655009
-0.81210262 -0.62360203 0.13497925
-0.41382521 -0.30017108 3.2504559
-1.2297767 -0.90308279 7.3587871
-1.0904418 -0.81215894 4.3938274
-1.0213403 -0.76619768 3.0675008
-0.9815731 -0.73954797 2.3195331
-0.97044247 -0.73326081 1.8590392
-0.94443071 -0.71514171 1.494959
-0.29044613 -0.19044688 3.1964884
-1.145558 -0.84550244 5.5192647
-1.0550778 -0.78636247 3.6326158
-1.0011675 -0.75049651 2.6509595
-0.97058207 -0.72992575 2.0565996
-0.95493197 -0.71996057 1.6583595
-0.92612475 -0.69949389 1.3364756
-0.92292446 -0.7018857 1.2192293
-0.8912524 -0.67852557 0.98559165
-0.88304377 -0.67299443 0.81253409
-0.87467688 -0.66709137 0.66237599
-0.86299771 -0.65865147 0.52694058
-0.85423172 -0.65242374 0.40588725
-0.83130139 -0.63536429 0.29012021
-0.81864637 -0.62613541 0.18547413
-0.9102264 -0.69021964 1.0985711
-0.88743007 -0.67365426 0.89480966
-0.8801977 -0.6686393 0.73516428
-0.87152225 -0.66275978 0.59360647
-0.84971017 -0.64663208 0.46077254
-0.835383 -0.6361804 0.34397361
-0.8192547 -0.62411785 0.23585941
-0.81427443 -0.62076348 0.13497925
-0.41045409 -0.29555005 3.2158809
-1.22963 -0.89638609 7.3392057
-1.0896689 -0.80568576 4.3795114
-1.0208746 -0.7602945 3.0582957
-0.98031265 -0.73324847 2.3107548
-0.97074491 -0.72818035 1.8549061
-0.94435906 -0.70991492 1.4911215
-0.29110911 -0.18943188 3.1964884
-1.1454601 -0.83927023 5.5047464
-1.0536541 -0.77959603 3.6185374
-1.000288 -0.74439818 2.641957
-0.97103411 -0.72497314 2.0523336
-0.95261431 -0.71301198 1.6503794
-0.92584842 -0.69422328 1.3328004
-0.92252254 -0.69651097 1.2157247
-0.89361548 -0.67541039 0.98559165
-0.88205302 -0.66738516 0.80979264
-0.8734684 -0.66136014 0.66005719
-0.86159647 -0.65283531 0.52506757
-0.8565039 -0.64943796 0.40588725
-0.83351415 -0.63245863 0.29012021
-0.82082701 -0.62327397 0.18547413
-0.9126302 -0.68703812 1.0985711
-0.88654804 -0.66811985 0.89186651
-0.87908447 -0.66296726 0.73263109
-0.8702082 -0.65697902 0.59150839
-0.85196215 -0.6436621 0.46077254
-0.83372134 -0.63032919 0.3428013
-0.8174786 -0.61826712 0.23516873
-0.81245267 -0.61490238 0.13477771
-0.41274825 -0.29501811 3.2257595
-1.2286265 -0.88910466 7.3147302
-1.0900677 -0.80011111 4.3699675
-1.0203801 -0.75440383 3.0490906
-0.97902024 -0.72696686 2.3019767
-0.96876663 -0.72142625 1.8466402
-0.94169366 -0.70278043 1.4834466
-0.29176858 -0.18841457 3.1964884
-1.1443162 -0.83231002 5.4853888
-1.0535872 -0.77387059 3.6091518
-0.9993782 -0.73831528 2.6329546
-0.97146332 -0.72002643 2.0480678
-0.95025986 -0.70608842 1.6423994
-0.92554647 -0.68896312 1.3291253
-0.9220944 -0.6911478 1.2122202
-0.89285421 -0.66995108 0.98245323
-0.88103384 -0.66179097 0.80705118
-0.87223047 -0.65564549 0.65773833
-0.86016518 -0.64703709 0.52319455
-0.85493314 -0.64355934 0.40447721
-0.83179319 -0.62658972 0.28918761
-0.81902099 -0.61740726 0.18502705
-0.91203195 -0.68161327 1.0952456
-0.88563824 -0.66259992 0.88892335
-0.87794244 -0.6573112 0.73009789
-0.86886436 -0.65121561 0.58941036
-0.85042608 -0.63785094 0.45912904
-0.83202904 -0.62449741 0.34162897
-0.81963176 -0.61540991 0.23516873
-0.81060004 -0.60906154 0.13457619
-0.41377553 -0.29357558 3.2257595
-1.2275872 -0.88184112 7.2902541
-1.0892342 -0.79366452 4.3556514
-1.019857 -0.74852586 3.0398853
-0.97769588 -0.72070324 2.2931986
-0.96901602 -0.7163676 1.8425074
-0.94156551 -0.69758105 1.479609
-0.2924245 -0.18739495 3.1964884
-1.1431377 -0.82536805 5.4660311
-1.0520986 -0.76713866 3.5950737
-1.0001937 -0.73353499 2.6284533
-0.97186995 -0.71508557 2.0438018
-0.95029378 -0.70097852 1.6384094
-0.92521912 -0.68371344 1.3254501
-0.91877896 -0.68366724 1.2052112
-0.89518738 -0.6668303 0.98245323
-0.88333857 -0.65871155 0.80705118
-0.8745138 -0.65259689 0.65773833
-0.85870397 -0.64125681 0.52132148
-0.85333163 -0.6376996 0.4030672
-0.83397532 -0.62368238 0.28918761
-0.82117116 -0.61454457 0.18502705
-0.91440564 -0.67842555 1.0952456
-0.88470083 -0.65709454 0.88598019
-0.87677163 -0.65167117 0.72756475
-0.86749101 -0.64546949 0.58731234
-0.85264748 -0.63487852 0.45912904
-0.83030617 -0.61868507 0.34045666
-0.81780452 -0.60958558 0.23447806
-0.81272113 -0.60622835 0.13457619
-0.41543344 -0.29257637 3.2306988
-1.2273412 -0.87518668 7.2706733
-1.0895789 -0.78810835 4.3461075
-1.0193053 -0.74266076 3.0306804
-0.9782728 -0.71587193 2.2888095
-0.96924192 -0.71131605 1.8383743
-0.94141257 -0.69239128 1.4757715
-0.29262614 -0.18608846 3.1915169
-1.1429464 -0.8191765 5.4515128
-1.0519739 -0.76143819 3.5856881
-0.999228 -0.72747701 2.6194508
-0.97225404 -0.71015072 2.039536
-0.95030355 -0.69587702 1.6344193
-0.92486656 -0.67847461 1.321775
-0.91829127 -0.67833722 1.2017065
-0.89437985 -0.66138732 0.97931474
-0.88227165 -0.65313625 0.80430973
-0.87322694 -0.6469034 0.65541953
-0.8572129 -0.63549471 0.51944846
-0.85169971 -0.63185889 0.40165716
-0.83614725 -0.62076747 0.28918761
-0.81931388 -0.60870451 0.18457997
-0.91376185 -0.67301542 1.09192
-0.88373566 -0.6516037 0.88303697
-0.87557209 -0.64604735 0.72503155
-0.86973882 -0.64243746 0.58731234
-0.85106105 -0.6290915 0.45748553
-0.82855308 -0.61289251 0.33928433
-0.81992739 -0.60672718 0.23447806
-0.8108173 -0.60041463 0.13437465
-0.41645217 -0.29112443 3.2306988
-1.2262326 -0.8679567 7.2461967
-1.0886853 -0.78168899 4.3317919
-1.0187252 -0.73680872 3.0214753
-0.97882783 -0.71104532 2.2844205
-0.96944445 -0.70627159 1.8342415
-0.94123489 -0.68721104 1.4719341
-0.29282221 -0.18478285 3.1865454
-1.1417016 -0.81226796 5.4321551
-1.0504208 -0.75474125 3.5716097
-0.99999684 -0.72270972 2.6149497
-0.97261548 -0.70522177 2.03527
-0.95028937 -0.69078404 1.6304293
-0.9244886 -0.6732465 1.3180997
-0.91777754 -0.67301887 1.198202
-0.89354545 -0.65595812 0.97617632
-0.88117671 -0.64757651 0.80156827
-0.87191105 -0.64122707 0.65310073
-0.85569227 -0.62975079 0.51757544
-0.8461749 -0.62319273 0.39883706
-0.8343547 -0.61493069 0.28825498
-0.82143366 -0.60584086 0.18457997
-0.91309124 -0.66761798 1.0885946
-0.882743 -0.64612764 0.88009381
-0.87782192 -0.64298707 0.72503155
-0.86831599 -0.63671392 0.58521426
-0.85325176 -0.62611699 0.45748553
-0.82676965 -0.60711974 0.33811203
-0.81804919 -0.60092974 0.23378737
-0.81290817 -0.59758067 0.13437465
-0.41746584 -0.28966898 3.2306988
-1.225922 -0.86133033 7.2266159
-1.0889759 -0.7761516 4.3222475
-1.0197039 -0.73210907 3.0168729
-0.97741848 -0.70482302 2.2756422
-0.96962357 -0.7012344 1.8301084
-0.94103259 -0.68204051 1.4680965
-0.29346544 -0.18375957 3.1865454
-1.1404225 -0.80537802 5.4127975
-1.0502387 -0.74906629 3.5622244
-0.99897557 -0.71667707 2.6059475
-0.97295439 -0.70029908 2.0310042
-0.95025134 -0.68569976 1.6264393
-0.9240855 -0.66802931 1.3144246
-0.9143545 -0.66561377 1.191193
-0.89268392 -0.65054286 0.97303784
-0.88343179 -0.64449674 0.80156827
-0.87414408 -0.6381796 0.65310073
-0.8578853 -0.62676007 0.51757544
-0.84447259 -0.6174041 0.39742702
-0.83649617 -0.61201447 0.28825498
-0.81952524 -0.60002792 0.18413289
-0.91239429 -0.66223359 1.0852691
-0.88172305 -0.6406666 0.87715065
-0.87657446 -0.637384 0.72249836
-0.86686391 -0.63100827 0.58311623
-0.85161513 -0.62035441 0.45584202
-0.82495594 -0.60136688 0.33693972
-0.82014185 -0.5980705 0.23378737
-0.81498921 -0.5947395 0.13437465
-0.41783416 -0.28776976 3.2257595
-1.2247446 -0.85413444 7.2021399
-1.0880224 -0.76975983 4.3079319
-1.0206621 -0.72741151 3.0122702
-0.97792524 -0.7000131 2.2712533
-0.96977925 -0.69620466 1.8259755
-0.93820375 -0.67500806 1.4604216
-0.29410508 -0.18273407 3.1865454
-1.1401385 -0.79922831 5.3982792
-1.0486213 -0.74240476 3.5481458
-0.99969769 -0.71192306 2.6014462
-0.97327065 -0.69538254 2.0267382
-0.94773954 -0.67886949 1.6184592
-0.9236573 -0.66282332 1.3107494
-0.91378176 -0.66032934 1.1876884
-0.89179558 -0.6451416 0.96989942
-0.88228947 -0.63895661 0.79882681
-0.87277937 -0.63252497 0.65078193
-0.8563149 -0.62103999 0.51570243
-0.83885777 -0.60881734 0.39460698
-0.83465278 -0.60620415 0.28732237
-0.82161474 -0.59716362 0.18413289
-0.91167092 -0.6568622 1.0819435
-0.88395399 -0.63758487 0.87715065
-0.87879401 -0.63432026 0.72249836
-0.86906129 -0.6279785 0.58311623
-0.84994882 -0.61461097 0.45419851
-0.82705015 -0.59848356 0.33693972
-0.81821322 -0.5923003 0.23309669
-0.81301427 -0.58896005 0.13417313
-0.41883612 -0.28630948 3.2257595
-1.2243695 -0.84753668 7.182559
-1.0882592 -0.76424187 4.2983875
