# .PCD v0.7 - Point Cloud Data file format
VERSION 0.7
FIELDS x y z
SIZE 4 4 4
TYPE F F F
COUNT 1 1 1
WIDTH 1597
HEIGHT 1
VIEWPOINT 0 0 0 1 0 0 0
POINTS 1597
DATA ascii
0.19570428 0.4147931 7.771441
0.32802156 0.76851863 7.7503858
2.0324359 5.6336951 23.096054
1.746945 4.9146557 14.238268
1.7018728 4.8331261 10.658619
2.7127695 7.7424431 13.489304
2.6952996 7.7270775 10.911225
3.015352 8.6688681 10.028239
3.3105092 9.5874224 10.047181
4.0339909 11.709084 10.068285
4.8549957 14.156175 6.1348009
5.076004 14.817416 4.6937966
3.6645224 10.588663 10.060794
4.3341999 12.544886 9.7478361
7.0742216 20.533491 10.127157
6.6521368 19.330246 7.2040901
5.8985515 17.169621 4.4693589
0.054250494 0.059225604 7.7789774
1.7478861 4.6537976 31.601795
2.2363198 6.0724931 31.134907
1.4672027 4.0692344 13.875759
2.0144579 5.6483488 14.187199
2.7475221 7.7548189 15.144423
2.4573896 6.9667792 10.922595
2.7560441 7.8395462 10.025731
0.19736779 0.41400415 7.771441
0.33123782 0.76713783 7.7503858
2.0555849 5.6239519 23.091215
1.767516 4.9072948 14.238268
1.7258732 4.8338552 10.676624
2.7639892 7.7796831 13.574621
2.7333522 7.723289 10.923196
3.0557871 8.6582928 10.031915
3.3439555 9.5758085 10.047181
4.0794425 11.701571 10.074562
5.032517 14.459676 10.122553
4.3803139 12.599893 7.0692201
4.9017119 14.115533 6.1254363
5.1312895 14.793284 4.6923871
6.9586082 20.083971 4.1269193
3.7100797 10.576743 10.064119
4.4214435 12.625806 9.824358
5.6584172 16.176125 10.156056
6.7950702 19.458193 9.6152315
6.6739473 19.132782 7.1416368
6.0613728 17.39617 4.5338364
0.054456901 0.059035875 7.7789774
1.7641201 4.6476679 31.601795
2.2642529 6.0827799 31.227915
1.4773079 4.0528688 13.837584
2.0388012 5.6541476 14.219417
2.7753825 7.7474351 15.148811
2.7833927 7.8298779 10.025731
0.19881172 0.41331267 7.771441
0.33391362 0.76597697 7.7503858
2.0752037 5.6167426 23.091215
1.7805016 4.8897452 14.205419
2.2424347 6.211977 13.719444
2.8122904 7.8288951 13.677005
2.7643561 7.7250495 10.939157
3.0859919 8.6475725 10.031915
3.3785484 9.56744 10.050686
4.1228523 11.694601 10.080839
5.0787959 14.430188 10.114328
4.4227991 12.580346 7.0669012
4.9617066 14.128954 6.1385474
5.1828961 14.775283 4.6923871
7.0286717 20.059559 4.1269193
3.7482252 10.567247 10.067445
4.5410471 12.823665 9.9891758
5.7134104 16.15221 10.153523
6.8372598 19.361605 9.579565
6.7469764 19.127182 7.148211
0.054662637 0.058845423 7.7789774
1.7895175 4.665421 31.76479
2.2926435 6.0938983 31.325819
1.4935107 4.0532904 13.856671
2.0638785 5.6616797 14.256237
2.8032246 7.7399516 15.1532
2.7532086 7.6350689 11.99303
2.8117912 7.8231306 10.029569
0.20025325 0.41261616 7.771441
0.33658534 0.76480675 7.7503858
2.0943573 5.6082864 23.086374
1.7999436 4.8899775 14.224189
2.2603734 6.1938872 13.696939
2.8396013 7.8190308 13.677005
2.7943797 7.7238526 10.951126
3.1161587 8.6367483 10.031915
3.4131236 9.5589476 10.054191
4.1649556 11.683805 10.083978
5.1333408 14.424191 10.122553
4.4592671 12.543962 7.0553069
5.0109954 14.111548 6.1385474
5.2344398 14.757101 4.6923871
3.7863493 10.557613 10.07077
4.6361961 12.948536 10.098072
5.7683053 16.128111 10.15099
6.8121157 19.099068 7.1465678
6.9249153 19.436739 5.0672407
0.054867718 0.05865426 7.7789774
1.8133752 4.6787066 31.898153
2.3139012 6.0858583 31.325819
1.5102556 4.0550461 13.880531
2.082278 5.650775 14.247032
2.831872 7.7346177 15.161978
2.8106859 7.7100139 12.125283
2.8401766 7.8162804 10.033406
0.20169233 0.41191465 7.771441
0.33925295 0.76362711 7.7503858
2.1156967 5.6056457 23.105734
2.2834873 6.1900439 13.705941
2.8713713 7.821312 13.698334
2.8254642 7.7253718 10.967086
3.1462874 8.6258183 10.031915
3.4476805 9.5503292 10.057695
4.2070346 11.672857 10.087116
5.186491 14.414052 10.128036
4.5105186 12.549163 7.0669012
5.0508242 14.067792 6.1273088
5.2519116 14.643914 4.662776
6.9614534 19.431942 4.0103421
3.8244519 10.547843 10.074096
4.6854949 12.943677 10.106902
5.8289657 16.120037 10.158589
6.8691306 19.048519 7.1367064
6.8872948 19.119778 4.9922123
10.180405 28.277203 4.2839351
0.055072121 0.058462374 7.7789774
1.8296959 4.6723485 31.898153
2.3395133 6.08915 31.384562
1.5275565 4.0581312 13.909163
2.103354 5.6471334 14.256237
2.8630104 7.7359161 15.183925
2.846339 7.7239189 12.16248
2.8685482 7.8093276 10.037244
0.20312895 0.41120809 7.771441
0.34191644 0.7624383 7.7503858
2.135251 5.5982261 23.105734
1.889923 5.0258932 14.655924
2.3066018 6.1861153 13.714944
2.9086363 7.8381376 13.745259
2.8576381 7.7295933 10.987036
3.1775508 8.6179638 10.03559
3.4822192 9.5415859 10.061199
4.2490873 11.661757 10.090254
5.238204 14.399791 10.130777
4.552783 12.529178 7.0645823
5.1441889 14.172091 6.1797533
5.3095369 14.643532 4.668416
7.0225496 19.389051 4.0066118
3.8625324 10.537934 10.077421
4.7264805 12.915854 10.098072
5.8866792 16.103642 10.161122
5.6019039 15.349508 7.6409645
6.8805885 18.873583 7.0808268
7.00389 19.232637 5.0273819
10.30276 28.306641 4.2936049
0.055308543 0.058298688 7.783977
1.8525699 4.68255 32.011753
2.3607543 6.0809464 31.384562
2.0486274 5.3851352 18.466408
2.1203001 5.6324434 14.237827
2.8950312 7.7393346 15.210258
2.8969061 7.8022718 10.041081
0.2045631 0.41049656 7.771441
0.34435531 0.76075476 7.7454143
2.1651778 5.6177144 23.217039
1.9013242 5.0031347 14.608995
2.3251104 6.1698771 13.696939
2.9378111 7.8328209 13.753792
2.8898761 7.7336841 11.006986
3.2076139 8.6068201 10.03559
3.5167387 9.5327187 10.064704
4.292459 11.65416 10.096531
5.2913227 14.389268 10.136261
4.5980172 12.517367 7.0669012
5.1505084 14.036538 6.1291814
7.409399 20.236233 4.1828771
3.8992929 10.524386 10.077421
4.7785482 12.918233 10.112789
5.9443498 16.087038 10.163656
5.947629 16.121847 8.0312023
6.9431615 18.840586 7.0775399
7.1196775 19.340351 5.061379
10.377566 28.205441 4.2839351
0.055511706 0.058105268 7.783977
1.8709229 4.6811051 32.046329
2.3804789 6.0688767 31.364981
2.0706265 5.3863111 18.495039
2.1427267 5.6323113 14.256237
2.9237227 7.7336626 15.219036
2.9241235 7.7921119 10.041081
0.20599476 0.40978 7.771441
0.34700876 0.75954813 7.7454143
2.193898 5.6335478 23.313829
1.9163021 4.9900236 14.590225
2.3481829 6.1657925 13.705941
2.9734542 7.8444662 13.792185
2.9211128 7.7348251 11.022946
3.238833 8.5987434 10.039266
3.5499926 9.5203848 10.064704
4.3344712 11.642753 10.099669
5.3429751 14.374628 10.139002
4.6493931 12.522005 7.078495
5.1849651 13.979357 6.1123247
5.778296 15.595721 4.9786234
7.5209122 20.32081 4.2052593
3.9373155 10.514208 10.080747
4.8250275 12.905258 10.115731
6.0019765 16.070229 10.166189
6.011797 16.122252 8.0416927
6.982512 18.745434 7.0512438
7.1549382 19.228827 5.0391054
10.334414 27.788443 4.2272997
0.05571419 0.057911143 7.783977
1.8916157 4.6853528 32.120419
2.4016488 6.0605307 31.364981
2.0915778 5.3846159 18.514128
2.1420431 5.5719161 14.122764
2.9558289 7.7368331 15.245372
2.9524419 7.7848544 10.044919
0.2074239 0.40905842 7.771441
0.34965795 0.75833225 7.7454143
2.2167709 5.6340432 23.347704
1.9343331 4.9849129 14.594918
2.3900213 6.2103815 13.822973
3.0064161 7.8486519 13.81778
2.9534667 7.7386575 11.042896
3.2700346 8.5905542 10.04294
3.5844607 9.5112715 10.068209
4.3764567 11.631195 10.102808
5.3960605 14.36372 10.144485
4.6821795 12.476667 7.0622635
5.2011833 13.874353 6.0748639
5.831018 15.570964 4.9772139
7.3869877 19.746931 4.0942779
3.9739928 10.500401 10.080747
4.8729033 12.8959 10.121618
6.06108 16.057245 10.171255
5.6598978 15.0182 7.5066891
7.2083273 19.167336 5.0297265
10.568995 28.118397 4.2818632
0.055916004 0.05771631 7.783977
1.9006227 4.6607356 31.996937
2.4186263 6.0417128 31.311134
2.1059978 5.3661666 18.475952
2.143086 5.5170574 14.003098
2.979367 7.7175307 15.227815
2.9795983 7.7745008 10.044919
0.20898291 0.40858841 7.7764325
0.35230288 0.75710708 7.7454143
2.2350309 5.6227665 23.333187
1.9340836 4.933146 14.46352
2.4195747 6.22229 13.867984
3.028146 7.8235164 13.792185
2.9847984 7.7395463 11.058857
3.3012183 8.5822515 10.046616
3.6176395 9.498702 10.068209
4.4184136 11.619485 10.105947
5.4476504 14.348705 10.147226
4.7241316 12.456106 7.0599446
5.2446556 13.843108 6.0692449
5.8938251 15.572947 4.9842639
7.4576087 19.72562 4.0952101
4.010622 10.486465 10.080747
4.9193306 12.882587 10.12456
6.1186304 16.04002 10.173789
5.8092093 15.252834 7.6325727
7.2820973 19.160233 5.0344157
10.626637 27.974857 4.2659774
0.056117125 0.057520777 7.783977
1.9148085 4.6490436 31.962362
2.4416099 6.0379534 31.335609
2.1362712 5.3879218 18.576164
2.1473415 5.4713526 13.906446
2.7190652 6.9707747 13.779418
3.0078757 7.7670417 10.048756
0.21040788 0.40785643 7.7764325
0.35494354 0.75587267 7.7454143
2.2523022 5.609098 23.308989
1.9474785 4.9167385 14.435364
2.4548132 6.248251 13.944505
3.0161729 7.7403107 11.074817
3.3323841 8.5738354 10.050291
3.6520553 9.4893446 10.071713
4.4603424 11.607624 10.109085
5.500699 14.337409 10.152709
4.7628274 12.427132 7.0529885
5.2929449 13.824718 6.0692449
5.9464355 15.547798 4.9828534
7.4790821 19.575571 4.0700297
4.0472021 10.472401 10.080747
4.9657245 12.869109 10.127504
6.1776838 16.026609 10.178855
5.6015906 14.554756 7.2968836
5.7278662 14.898351 5.6444006
10.011756 26.067966 6.825717
0.056317572 0.05732454 7.783977
1.9271449 4.6330056 31.898153
2.460746 6.0246806 31.311134
2.1672771 5.4109173 18.681149
2.1376212 5.3911796 13.722344
2.7345998 6.9389591 13.735528
3.0349693 7.756495 10.048756
0.21183027 0.40711948 7.7764325
0.35780877 0.7551105 7.7503858
2.271868 5.601202 23.308989
1.9627059 4.9051042 14.421285
2.4758058 6.2376208 13.940004
3.0475886 7.7409496 11.090776
3.3635309 8.5653057 10.053966
3.6864498 9.4798632 10.075217
4.5008335 11.591984 10.109085
5.5522242 14.322021 10.155451
4.8045774 12.4063 7.0506697
5.3478608 13.823451 6.0767369
5.919395 15.316644 4.9165821
7.5349836 19.517267 4.0635014
4.0850911 10.461689 10.084072
5.012084 12.855463 10.130447
6.2351542 16.008963 10.181389
5.6852608 14.619714 7.3388453
5.7883859 14.900273 5.6526179
10.027072 25.838011 6.7753072
0.056484047 0.057099391 7.7789774
1.9387907 4.6155047 31.824062
2.4701109 5.9878168 31.164276
2.1811125 5.3908653 18.638201
2.154974 5.3800588 13.71314
2.7508311 6.9093451 13.696027
3.0632045 7.7488346 10.052593
0.2132501 0.40637758 7.7764325
0.36044243 0.7538569 7.7503858
2.290453 5.5909119 23.299311
1.9824028 4.9046226 14.440057
2.4675863 6.15418 13.773459
3.0790455 7.7414646 11.106736
3.3946593 8.5566645 10.057641
3.7208221 9.4702559 10.078722
4.5426912 11.579826 10.112224
5.6052332 14.310338 10.160933
4.8575387 12.414204 7.0645823
5.396081 13.804699 6.0767369
5.8122954 14.884789 4.786859
7.8387094 20.094929 4.1866069
4.1229548 10.450838 10.087398
5.0569277 12.837889 10.130447
6.2941542 15.995124 10.186455
5.6615725 14.409692 7.2444324
10.131397 25.839054 6.7846861
0.056683015 0.05690188 7.7789774
1.9533725 4.6051326 31.799366
1.643659 4.0221882 13.937796
2.1949921 5.4250226 13.846612
2.7651017 6.8752589 13.647746
3.091423 7.7410717 10.056431
0.21480331 0.4058854 7.781424
0.36330393 0.75307393 7.7553573
2.3104358 5.584044 23.30415
1.999511 4.8976731 14.440057
2.4555459 6.0628033 13.588909
3.1105433 7.7418532 11.122697
3.4257679 8.5479088 10.061316
3.755173 9.4605255 10.082227
4.5830846 11.563899 10.112224
5.6566901 14.294574 10.163675
4.9008431 12.397172 7.0645823
5.4680748 13.846145 6.1029592
5.8642178 14.864409 4.786859
7.8241539 19.852652 4.1427741
4.1607924 10.439851 10.090723
5.1032043 12.823915 10.13339
6.3515415 15.977061 10.188988
5.3786278 13.55039 6.8269205
5.8696389 14.802435 5.6312518
7.4862537 18.898527 4.9933848
0.056881297 0.056703672 7.7789774
1.9755552 4.6125708 31.898153
2.4466951 5.8155723 30.356565
1.6588283 4.019186 13.947339
2.2131763 5.4155188 13.84201
2.7881827 6.8633461 13.643357
3.1208239 7.7361784 10.064106
0.2162188 0.40513313 7.781424
0.36593041 0.75180119 7.7553573
2.3308828 5.5782647 23.313829
2.0198843 4.8986402 14.46352
2.4585595 6.0098681 13.489883
3.1432142 7.7449083 11.142647
3.4555852 8.5358992 10.061316
3.7895002 9.4506693 10.085732
4.6248689 11.551444 10.115361
5.7096577 14.282506 10.169158
4.9868035 12.48695 7.1248713
5.530117 13.861422 6.1179438
5.8823237 14.759181 4.7600684
7.5099993 18.862253 3.9459913
4.1999974 10.43219 10.097375
5.1494446 12.809773 10.136333
6.4104862 15.962792 10.194054
5.4258943 13.531533 6.8269205
5.937077 14.821308 5.6460438
7.4582705 18.637619 4.9324245
0.057078879 0.056504771 7.7789774
2.4677765 5.8088703 30.366356
1.669976 4.0064821 13.923479
2.2343028 5.4131784 13.855818
2.8103049 6.8491402 13.634579
3.1502283 7.7311745 10.071781
0.21763167 0.40437588 7.781424
0.36855248 0.75051928 7.7553573
2.3503404 5.5700941 23.313829
2.0568748 4.9393506 14.604303
2.5003059 6.0515485 13.602413
3.1748016 7.7450423 11.158607
3.4866428 8.5269232 10.064991
3.8224664 9.4373837 10.085732
4.6651626 11.53523 10.115361
5.7610435 14.266366 10.171899
5.0635061 12.551628 7.171247
5.6044617 13.906529 6.146039
5.8496032 14.52941 4.6937966
7.5446334 18.758446 3.9301364
4.2377939 10.420926 10.1007
5.1956482 12.795466 10.139277
6.4677882 15.944313 10.196587
5.4730954 13.51251 6.8269205
6.0507708 14.953703 5.703567
7.4886718 18.52585 4.9101501
0.057275772 0.056305189 7.7789774
2.4948628 5.8161283 30.449574
1.6897426 4.0143857 13.971199
2.2539365 5.4071493 13.86042
3.1796353 7.7260585 10.079456
0.21904187 0.40361378 7.781424
0.37117001 0.74922824 7.7553573
2.3717403 5.5664811 23.333187
2.0694208 4.9210062 14.571453
2.5197377 6.0387659 13.59341
3.2064278 7.745049 11.174567
3.5163863 8.5146999 10.064991
3.8567359 9.4272842 10.089235
4.7068715 11.522478 10.1185
5.812387 14.250043 10.174642
5.0955877 12.505162 7.1550155
5.6861806 13.968466 6.1816268
5.9689541 14.677763 4.7473783
7.6082182 18.727446 3.929204
4.2755623 10.409523 10.104025
5.2433476 12.78473 10.145163
6.5283084 15.933607 10.204187
5.5253844 13.505924 6.8332143
6.102932 14.932489 5.703567
7.5771785 18.558098 4.9253902
0.057471965 0.056104913 7.7789774
2.0237486 4.5916305 31.898153
2.521625 5.8223333 30.527897
1.7025771 4.0057154 13.961655
2.2758291 5.4064512 13.87883
3.2389982 7.7395887 15.442879
3.2090454 7.7208319 10.087132
0.2204494 0.40284669 7.781424
0.37378305 0.74792802 7.7553573
2.3901629 5.5558596 23.323507
2.0940058 4.9312243 14.623075
2.5357294 6.0178967 13.566402
3.2380931 7.7449298 11.190528
3.5473917 8.5055027 10.068666
3.8909817 9.4170599 10.09274
4.7485485 11.509577 10.121638
5.8636861 14.233531 10.177382
5.1880994 12.606096 7.222261
5.731379 13.939957 6.1778808
6.0547824 14.741147 4.7741685
4.3118725 10.394534 10.104025
5.2894902 12.770083 10.148107
6.5888324 15.922671 10.211786
5.5568967 13.448804 6.814332
6.0180845 14.579362 5.5786595
10.680872 25.900955 6.847991
0.057667457 0.055903956 7.7789774
2.0429232 4.5916371 31.947544
2.5704908 5.878799 30.870564
1.7088957 3.9819162 13.89962
2.3053875 5.4236455 13.943266
3.2715886 7.7414722 15.469213
3.2396984 7.7184496 10.098644
0.22185427 0.40207472 7.781424
0.37639153 0.74661869 7.7553573
2.0259194 4.6643677 19.616508
2.6511986 6.1831751 18.349131
2.5413783 5.9729519 13.485382
3.607106 8.5146036 15.195676
3.2697964 7.7446828 11.206487
3.57706 8.4930687 10.068666
3.9238296 9.4034214 10.09274
4.7901926 11.496523 10.124777
5.9149413 14.216838 10.180124
5.286478 12.718806 7.2964625
6.0933352 14.688906 4.7642984
7.5958462 18.328985 3.858325
4.3495722 10.382863 10.10735
5.3355937 12.755271 10.151049
5.3329163 12.761361 8.2131081
5.5898261 13.395818 6.7975473
6.0653052 14.549548 5.5753727
10.763743 25.845564 6.8433018
0.057862248 0.055702321 7.7789774
2.6033325 5.8977346 31.01742
1.7168492 3.9622302 13.851899
2.3281584 5.4245415 13.966278
3.3032918 7.7410192 15.491159
3.2703733 7.7159472 10.110156
0.22311513 0.40104613 7.7764325
0.37899542 0.74530035 7.7553573
2.0603631 4.698709 19.790728
2.6830502 6.1976371 18.419523
2.5673683 5.9760451 13.512389
3.6368053 8.5019608 15.195676
3.3015375 7.7443099 11.222447
3.6080115 8.4836502 10.072342
3.9580145 9.3929529 10.096245
4.833313 11.486908 10.131054
5.9661508 14.199959 10.182865
5.3565602 12.761544 7.3312445
5.690515 13.57041 6.0336571
7.6294365 18.229856 3.8434031
4.3857889 10.367618 10.10735
5.3832312 12.744016 10.156936
5.3874855 12.766499 8.2283077
5.6541762 13.418048 6.8185282
12.318017 29.30344 4.5256729
0.058056332 0.055500001 7.7789774
2.6164432 5.8718705 30.929306
2.2721484 5.1938429 18.170544
2.3797061 5.4916692 14.159584
3.3350317 7.7404394 15.513105
3.3023319 7.7162714 10.125506
0.22451368 0.40026483 7.7764325
0.38159469 0.74397284 7.7553573
2.0803139 4.6995339 19.824604
2.7254019 6.2356706 18.560305
2.588213 5.9670472 13.512389
3.6623244 8.4796371 15.178614
3.3333156 7.7438097 11.238408
3.6376026 8.4710045 10.072342
3.9921746 9.3823614 10.09975
4.8749022 11.473549 10.134192
6.0189476 14.186745 10.188349
6.2740798 14.802442 8.5022383
5.7378502 13.550463 6.0336571
6.0499544 14.301405 4.6543159
6.6699624 15.782367 3.3444512
4.4234185 10.35568 10.110676
5.4292693 12.728866 10.15988
5.4184966 12.715887 8.2080421
5.7009797 13.398229 6.8185282
5.9746046 14.054885 5.4044476
12.416361 29.251148 4.524292
0.058249708 0.05529701 7.7789774
2.0925105 4.573525 31.972242
2.6360886 5.8608451 30.919516
2.2920737 5.1899767 18.18486
2.4176552 5.5262856 14.270044
3.3677626 7.7419276 15.539439
3.3330607 7.7135243 10.137019
0.22576648 0.39922798 7.771441
0.38418934 0.74263632 7.7553573
2.0967057 4.6922436 19.824604
2.1563823 4.8872976 14.580839
2.5976732 5.9320531 13.453873
3.6887739 8.45963 15.165814
3.3663316 7.7459445 11.258358
3.66715 8.4582548 10.072342
4.0263081 9.371645 10.103254
4.9164577 11.460039 10.137331
6.0700784 14.169492 10.19109
6.2734237 14.658276 8.4326744
6.0998387 14.280199 4.6543159
6.7250128 15.758987 3.3444512
4.4610186 10.343604 10.114002
5.4736681 12.709836 10.15988
5.4747763 12.724615 8.2257738
7.5697217 17.619087 8.9522467
6.0254922 14.038284 5.4060912
7.6202335 17.770815 4.7542319
12.508636 29.18487 4.5208383
0.058442377 0.055093344 7.7789774
2.113349 4.5767736 32.046329
2.6565306 5.8516078 30.919516
2.3205097 5.2051206 18.265984
2.4495599 5.5464067 14.343685
3.4005449 7.7432818 15.565774
3.6366615 8.3123627 13.398232
3.3650923 7.7135935 10.152369
0.22715868 0.39843747 7.771441
0.38677925 0.74129069 7.7553573
2.1135886 4.6860414 19.829443
2.1804507 4.8955045 14.627768
2.6482921 5.9906449 13.606914
3.3981919 7.7451839 11.274318
3.6980119 8.4485083 10.076017
4.0589967 9.3575335 10.103254
4.9579773 11.44638 10.14047
6.1211619 14.152056 10.193831
5.7710471 13.355373 7.7022519
6.0381017 13.986774 6.2434368
6.117353 14.183936 4.6303453
6.7741499 15.721884 3.3416533
4.4985876 10.331392 10.117328
5.5196118 12.694359 10.162822
5.5157251 12.697519 8.2207079
7.5751896 17.463486 8.887208
6.0969901 14.06916 5.4258132
7.6744938 17.726265 4.7495427
0.058634333 0.054889005 7.7789774
2.131938 4.5750027 32.085842
2.6671841 5.8210092 30.806925
2.3356016 5.1901827 18.242125
2.4712923 5.5431747 14.357492
3.4324064 7.742311 15.587719
3.6599703 8.2867479 13.377567
3.3984571 7.7164674 10.171556
0.22840329 0.3973923 7.7664495
0.38936448 0.73993605 7.7553573
2.1273289 4.672915 19.805246
2.2003567 4.8941588 14.646539
2.7179823 6.0907021 13.854481
3.4313085 7.7470498 11.294269
3.7274802 8.4355488 10.076017
4.0930667 9.3465757 10.106759
4.9994621 11.43257 10.143608
6.1721978 14.134434 10.196572
5.8158603 13.331088 7.6999335
6.0405812 13.859367 6.1966109
6.1515059 14.127312 4.6190653
6.8270278 15.693636 3.3407207
4.5361261 10.319044 10.120653
5.56389 12.675014 10.162822
7.5978694 17.349634 8.8431492
6.1498489 14.056443 5.4291005
7.7343769 17.694914 4.7483706
12.791381 29.278349 4.5484657
0.058825575 0.054683998 7.7789774
2.1551704 4.5830016 32.194508
2.6823583 5.8005733 30.748182
2.3537045 5.1819983 18.242125
2.4906263 5.5345149 14.357492
3.4652817 7.7434001 15.614055
3.4305806 7.7162724 10.186906
0.22978905 0.39659262 7.7664495
0.391945 0.73857242 7.7553573
2.4931755 5.4261332 23.028303
2.2181401 4.8880196 14.651231
2.7839315 6.1804204 14.079542
3.5423253 7.8970313 14.22731
3.4644794 7.7487788 11.314218
3.7582841 8.4255829 10.079692
4.1256676 9.3322315 10.106759
5.0409112 11.41861 10.146747
6.223186 14.11663 10.199314
5.7909384 13.148543 7.6071811
6.0086374 13.655735 6.1160703
8.4555683 19.235003 6.2659836
6.8876939 15.683204 3.3435187
4.5751481 10.309974 10.127304
5.6097374 12.65921 10.165765
7.6914163 17.397722 8.8809137
7.8235679 17.730066 4.7647829
12.939467 29.337734 4.5643516
0.059016097 0.054478329 7.7789774
2.171155 4.5754509 32.194508
2.0557747 4.4053388 23.395552
2.373023 5.1764646 18.251669
2.4929626 5.4884338 14.260839
3.4982052 7.7443519 15.640388
3.464056 7.7188716 10.206094
0.23117203 0.3957881 7.7664495
0.3945207 0.73719978 7.7553573
2.5089281 5.4105549 22.999266
2.233752 4.8771095 14.641846
2.8190036 6.2003903 14.147059
3.5849295 7.9178796 14.287033
3.4977045 7.7503719 11.334168
3.7876718 8.4124117 10.079692
4.1596718 9.3210297 10.110263
5.0823231 11.404499 10.149885
6.2758245 14.102462 10.204798
5.8889899 13.245635 7.6744266
6.0844965 13.69823 6.144166
8.3767262 18.876516 6.1602311
6.9165139 15.600685 3.3313944
11.132638 25.134089 2.5608051
4.6126347 10.297347 10.130629
5.6555429 12.643242 10.168709
7.0519567 15.77972 10.242184
6.194736 13.88107 7.1143537
6.2362928 13.987289 5.419239
6.3981271 14.363725 3.8832002
13.045824 29.301434 4.5657325
0.059205905 0.054271989 7.7789774
2.1746955 4.5419149 32.011753
2.0737429 4.4036632 23.424923
2.3992267 5.1857615 18.313705
2.4941931 5.4406281 14.159584
3.5311785 7.7451687 15.666723
3.496269 7.7184114 10.221444
0.23269959 0.39522699 7.771441
0.3970916 0.73581815 7.7553573
2.5267336 5.399487 22.989586
2.2500384 4.8677163 14.637153
2.823379 6.1529198 14.061537
3.5309825 7.7518263 11.354118
3.8184166 8.4022264 10.083367
4.1936469 9.3097048 10.113768
5.1236982 11.390238 10.153024
6.326726 14.084283 10.207539
5.9551415 13.269455 7.6999335
6.0943413 13.592303 6.1067052
8.0464277 17.962826 5.8754044
7.0491862 15.751313 3.3677666
11.197945 25.045065 2.5558872
4.648551 10.281183 10.130629
5.7013044 12.627106 10.171651
7.1105399 15.762866 10.247251
6.2319674 13.834535 7.1017647
5.8277164 12.94918 5.0313711
6.4382615 14.319138 3.8773386
0.059394989 0.054064997 7.7789774
2.1878324 4.5286999 31.972242
2.0886645 4.3954778 23.420027
2.423629 5.1908803 18.361423
2.4901984 5.3822432 14.030713
3.5641999 7.7458506 15.693058
3.6087823 7.8716025 12.790689
3.5298536 7.7207346 10.240631
0.23407777 0.39441231 7.771441
0.39965767 0.73442757 7.7553573
2.5471761 5.3940444 23.004107
2.2662866 4.8582687 14.63246
2.8576474 6.1706824 14.124554
3.5643132 7.7531424 11.374068
3.8491356 8.3919268 10.087042
4.2261186 9.2950087 10.113768
5.1650348 11.375827 10.156161
6.3793039 14.069729 10.213021
6.0270143 13.305078 7.7323966
5.9964819 13.249961 5.964355
6.5102153 14.39847 4.7346878
7.1324368 15.789284 3.3808234
4.6859612 10.268292 10.133955
5.7470236 12.610807 10.174595
7.1708789 15.749722 10.25485
6.2614365 13.771381 7.0807848
5.8943653 12.976052 5.0494499
6.3777256 14.053139 3.812861
0.059583351 0.053857338 7.7789774
2.2036271 4.5210352 31.972242
2.1053159 4.3909149 23.434713
2.4493692 5.1985917 18.418688
2.502358 5.3593564 13.993893
3.5972683 7.7463942 15.719391
3.640964 7.869174 12.80722
3.5634975 7.722919 10.259819
0.23545311 0.39359283 7.771441
0.40221885 0.73302799 7.7553573
2.56653 5.3862548 23.008944
2.2832315 4.850328 14.63246
2.8856218 6.1744747 14.156062
3.9009635 8.3811674 15.191411
3.5976961 7.7543201 11.394019
3.8798296 8.3815165 10.090717
4.2600255 9.2834415 10.117271
5.2063346 11.361268 10.159301
6.4301176 14.051177 10.215762
6.073421 13.283958 7.7323966
6.0966287 13.347018 6.0167999
7.980442 17.487261 5.7400413
7.1406379 15.66149 3.3593731
4.721776 10.251872 10.133955
5.792697 12.594341 10.177538
7.225812 15.724595 10.25485
6.3094697 13.749442 7.0807848
5.9415922 12.959689 5.0510936
6.4105482 13.995438 3.8034825
0.059770983 0.053649023 7.7789774
2.2245388 4.5237737 32.046329
2.118413 4.3789563 23.410236
2.4668598 5.1886625 18.413916
2.5060608 5.3187776 13.911047
3.6303847 7.7468028 15.745727
3.6815064 7.8844628 12.852682
3.597199 7.7249608 10.279006
0.23697554 0.39301518 7.7764325
0.40477514 0.73161954 7.7553573
2.5983889 5.4044509 23.125092
2.2994077 4.8407698 14.627768
2.9210863 6.1938987 14.22358
3.9290869 8.365139 15.187146
3.6298525 7.7526298 11.409979
3.9104977 8.3709936 10.094393
4.2924051 9.2685146 10.117271
5.2475944 11.346557 10.162438
6.4826326 14.036239 10.221246
6.1067615 13.234521 7.7161651
6.0519605 13.127783 5.9287672
8.0113335 17.39394 5.7188907
7.1952624 15.63647 3.3593731
4.7591062 10.238713 10.13728
5.8383265 12.577711 10.180481
7.2842836 15.707097 10.259916
6.3326306 13.673795 7.0535097
6.0641294 13.10601 5.11519
6.447125 13.946504 3.7964487
0.059957892 0.053440057 7.7789774
0.54321605 1.0956954 7.774816
2.1336854 4.3715348 23.410236
2.5262895 5.3135262 13.920253
3.6574039 7.7340832 15.745727
3.7090061 7.8715639 12.852682
3.6295953 7.7239609 10.294356
0.23834597 0.3921856 7.7764325
0.40732652 0.7302022 7.7553573
2.6150434 5.3908238 23.105734
2.3147995 4.8296013 14.618382
2.9426894 6.1836643 14.22358
3.9359221 8.3042374 15.101827
3.6633289 7.7535348 11.429929
3.9411399 8.3603592 10.098067
4.326242 9.2567062 10.120776
5.288816 11.331698 10.165578
6.5333557 14.017316 10.223988
6.0977483 13.106577 5.9287672
8.2074747 17.657322 5.8133626
7.1132455 15.317209 3.2978201
4.794817 10.222039 10.13728
5.8839092 12.560914 10.183424
7.3408947 15.685478 10.26245
6.380322 13.651607 7.0535097
6.1478014 13.166059 5.1464171
6.5019326 13.937129 3.7999654
0.060108978 0.053204488 7.7739773
0.54668963 1.0930977 7.769877
2.1493816 4.3649735 23.415133
2.5036733 5.1726575 18.418688
3.6864414 7.7255917 15.754505
3.7437108 7.8738179 12.87748
3.6634011 7.7257242 10.313544
0.2397135 0.39135125 7.7764325
0.40987292 0.72877586 7.7553573
2.6338449 5.3816628 23.105734
2.3384058 4.835474 14.660616
2.9633141 6.1713924 14.219079
3.9412551 8.2410402 15.012241
3.6968553 7.7542996 11.449879
3.970299 8.3465509 10.098067
4.3600488 9.2447729 10.124281
5.3299966 11.316689 10.168715
6.5840249 13.998206 10.226728
7.6440501 16.266619 9.4946852
6.1040568 13.001284 5.8913064
8.1916485 17.463535 5.7597818
7.1124711 15.176639 3.2735722
4.832067 10.208614 10.140606
5.9311743 12.547608 10.18931
7.3992853 15.667556 10.267516
6.4356809 13.645672 7.061902
6.1917095 13.140247 5.1447735
6.5505428 13.914349 3.7999654
0.060294334 0.052994348 7.7739773
0.54910105 1.0884084 7.7501202
2.836478 5.7097383 30.674753
2.5171285 5.1544976 18.385283
2.5777936 5.325654 13.998496
3.7154646 7.7169929 15.763283
3.7760417 7.8708506 12.894012
3.6958807 7.7244558 10.328895
0.24107809 0.39051208 7.7764325
0.41241431 0.7273407 7.7553573
2.3598111 4.8365874 14.688773
2.9800923 6.1512156 14.196573
3.8351166 7.9477191 14.504596
3.7304316 7.7549253 11.46983
4.0008764 8.3356972 10.101743
4.3922925 9.2294979 10.124281
5.3711381 11.30153 10.171854
6.6364336 13.982695 10.232212
7.8241549 16.500006 9.6454067
6.1494026 12.979897 5.8913064
7.6984272 16.264149 5.3790727
7.2242055 15.276058 3.2996855
4.8692813 10.195054 10.143931
5.9766774 12.530476 10.192253
7.4557834 15.645521 10.270049
6.5339813 13.729673 7.1164513
6.2071233 13.054584 5.120121
6.5615306 13.812369 3.7788637
14.417641 30.390869 1.450573
0.060478952 0.052783556 7.7739773
0.5532496 1.0871773 7.7550588
2.8527415 5.6925197 30.635593
2.4955218 5.0653405 18.098965
2.5946531 5.3131127 13.98929
3.7434254 7.7061305 15.767672
3.8096232 7.870286 12.914677
3.7297888 7.7259398 10.348082
0.24228637 0.38942367 7.771441
0.4149507 0.72589672 7.7553573
2.256048 4.5294452 19.51972
2.3797281 4.8345132 14.707544
2.9938979 6.1251292 14.160563
3.859411 7.9272494 14.491798
3.7640569 7.7554107 11.489779
4.0314269 8.3247318 10.105418
4.4260263 9.2173252 10.127786
5.4122376 11.286222 10.174993
6.6870079 13.963215 10.234953
6.4993534 13.583526 7.9689145
6.2306643 13.033639 5.9250212
7.7076011 16.137617 5.346642
7.2711387 15.237449 3.2968876
4.9064598 10.181358 10.147257
6.0221338 12.51318 10.195197
7.5140882 15.627172 10.275116
6.6388407 13.82543 7.1772947
6.2506123 13.02858 5.1184773
6.6013017 13.77185 3.7741745
14.625021 30.552151 1.460045
0.060662832 0.05257212 7.7739773
0.55704117 1.0852395 7.7550588
2.8707573 5.6788931 30.616011
2.5138521 5.0579352 18.103737
2.5760548 5.2286668 13.791383
3.7776802 7.7080703 15.798395
3.8432472 7.8695831 12.935342
3.7637522 7.7272806 10.367269
0.24364424 0.38857555 7.771441
0.41748205 0.72444379 7.7553573
2.2707162 4.5192962 19.51004
2.3965893 4.8261771 14.707544
3.0191116 6.1224513 14.178568
3.8928075 7.9254332 14.513127
3.7990565 7.7584615 11.51372
4.0619493 8.3136549 10.109094
4.4597287 9.2050276 10.13129
5.451601 11.267262 10.174993
6.739346 13.947318 10.240436
6.5024333 13.469004 7.9155822
6.2882061 13.036864 5.9362593
7.6326842 15.838364 5.2578101
7.2944489 15.150012 3.2838311
4.9436026 10.167528 10.150582
6.0657759 12.492083 10.195197
7.5723538 15.608604 10.280182
6.6831021 13.794003 7.1730986
6.2857647 12.98543 5.1102595
6.6535668 13.757475 3.7765193
8.3322973 17.236214 2.762367
14.759828 30.559402 1.462665
0.060845971 0.052360054 7.7739773
0.56118339 1.0839784 7.7599983
2.8845491 5.6570454 30.552372
1.9540838 3.897577 13.985515
2.5638552 5.158412 13.630294
3.8066866 7.699131 15.807173
3.8769121 7.8687406 12.956006
3.797771 7.7284789 10.386456
0.24499914 0.38772273 7.771441
0.42000827 0.72298211 7.7553573
2.285341 4.5091 19.500362
2.398735 4.7884674 14.618382
3.0482218 6.1274676 14.214578
3.919291 7.9094601 14.508862
3.8327885 7.7586613 11.533669
4.0924435 8.3024664 10.112769
4.4933996 9.1926088 10.134795
5.4926057 11.251661 10.178131
6.7898226 13.927467 10.243177
6.5494089 13.446223 7.9155822
6.3965621 13.144058 5.9943237
6.2510514 12.856441 4.2919374
7.3472877 15.124457 3.2838311
4.9807081 10.153562 10.153908
6.1111226 12.474462 10.198139
7.6286874 15.585949 10.282715
6.7312112 13.770591 7.1730986
6.3434877 12.988869 5.120121
7.3282151 15.018454 4.1211805
8.3924122 17.207024 2.762367
14.859842 30.494219 1.4620602
0.061028372 0.05214734 7.7739773
0.56496382 1.0820129 7.7599983
2.9056756 5.6496587 30.56706
2.6636348 5.2667046 18.914974
2.5415642 5.0690956 13.418577
3.8485043 7.7157998 15.86862
3.911871 7.8702798 12.980803
3.8318436 7.7295337 10.405643
0.24635106 0.38686514 7.771441
0.4225294 0.7215116 7.7553573
2.3033555 4.5055718 19.51972
2.4310019 4.8108683 14.712237
3.0774035 6.1323552 14.250587
3.9550395 7.9120603 14.538724
3.8665681 7.758719 11.553619
4.1213994 8.2881308 10.112769
4.5270371 9.1800661 10.1383
5.5335674 11.235911 10.18127
6.8420892 13.911186 10.248661
6.4536858 13.133055 7.7463098
6.5282173 13.29643 6.0729909
6.2811022 12.804395 4.2820673
7.374094 15.045786 3.2726393
5.0177765 10.139461 10.157233
6.1564207 12.456678 10.201083
7.6868629 15.566955 10.287782
6.7892761 13.767365 7.1835895
7.9311423 16.096985 6.3346739
7.5458946 15.328568 4.2114487
8.4699163 17.213171 2.7678926
14.952971 30.415262 1.4608511
0.061210029 0.051933993 7.7739773
0.56873727 1.0800341 7.7599983
2.9263167 5.6412888 30.576851
2.6894648 5.2720008 18.967466
2.5433712 5.0288129 13.335732
3.8851023 7.7215743 15.908122
3.9456265 7.8691545 13.001469
3.8659699 7.7304449 10.424831
0.24769995 0.38600287 7.771441
0.42531696 0.72049105 7.7603292
2.3219495 4.5030899 19.543917
2.443078 4.7931285 14.684081
3.0958409 6.1157489 14.237084
3.9826336 7.8982067 14.538724
3.9003947 7.758636 11.573569
4.1518254 8.2767239 10.116444
4.5590544 9.1642075 10.1383
5.5744863 11.220013 10.184407
6.8924642 13.890963 10.251402
6.4581704 13.0271 7.6976151
6.7001081 13.526969 6.1872458
6.8449163 13.831443 4.6261153
7.4418097 15.050777 3.2791677
13.798776 27.931995 2.8898554
5.0548067 10.125223 10.160559
6.2034726 12.442348 10.20697
7.7449994 15.547745 10.292848
6.8453774 13.759833 7.1919813
7.9746723 16.043833 6.3248129
7.46099 15.023521 4.1364207
8.5123339 17.148014 2.762367
0.06139094 0.051720012 7.7739773
0.57286853 1.0787284 7.7649379
2.9384379 5.6166048 30.498526
2.7146811 5.2758532 19.015184
2.5538068 5.0059824 13.298912
3.9239557 7.7314582 15.956402
3.9794209 7.8678889 13.022134
3.9001486 7.7312112 10.444019
0.24904586 0.38513586 7.771441
0.42782933 0.71900201 7.7603292
2.3376541 4.4949574 19.543917
2.4290204 4.7247181 14.501062
3.9342678 7.7584105 11.59352
4.1806912 8.2621803 10.116444
4.5926156 9.1514254 10.141805
5.6153612 11.203965 10.187547
6.9446545 13.874298 10.256885
6.5036039 13.004478 7.6976151
6.7638626 13.536676 6.2022305
6.8910131 13.803174 4.6247058
7.9415927 15.921444 3.4694223
13.909521 27.9104 2.8925378
5.0917988 10.110852 10.163884
6.248682 12.424228 10.209912
7.8011603 15.524468 10.295382
6.9015098 13.752081 7.2003736
8.0031118 15.96102 6.3034472
7.1824598 14.336829 3.9582283
8.6453114 17.264317 2.7851596
0.061535314 0.051480446 7.7689772
0.57663047 1.0767223 7.7649379
2.9570754 5.6045127 30.488735
1.98562 3.8261929 13.828039
2.5703716 4.9953003 13.29431
3.962925 7.7411642 16.004683
4.0132551 7.8664837 13.042799
3.9343803 7.7318335 10.463206
0.25038871 0.3842642 7.771441
0.43033653 0.71750426 7.7603292
2.3609209 4.5012407 19.606829
2.3446064 4.5216541 13.905081
3.9681869 7.7580438 11.61347
4.209506 8.2475367 10.116444
4.626143 9.1385212 10.145308
5.6561923 11.18777 10.190684
6.9949269 13.853704 10.259626
6.616796 13.116168 7.7764544
6.7756004 13.442606 6.1703887
6.9326792 13.766182 4.6204753
8.1362209 16.170076 3.5281775
5.1270614 10.093017 10.163884
6.29567 12.40955 10.215799
7.859201 15.504832 10.300448
6.9576707 13.744103 7.208766
8.045989 15.907704 6.2935858
7.1469612 14.142483 3.912508
0.061714642 0.051265337 7.7689772
0.58038545 1.0747029 7.7649379
2.9670539 5.576179 30.390831
1.9975795 3.8165939 13.818496
2.5868926 4.9845634 13.289707
3.9998121 7.7464366 16.044184
4.0471277 7.8649373 13.063463
3.9686637 7.7323108 10.482394
0.2517285 0.38338783 7.771441
0.4331148 0.71645343 7.7653003
2.3777943 4.495194 19.616508
2.4091613 4.6067209 14.191339
4.0021515 7.757535 11.63342
4.2398214 8.2358065 10.120118
4.6596351 9.1254921 10.148813
5.696979 11.171426 10.193824
7.0470381 13.836655 10.265109
6.66254 13.092991 7.7764544
6.8750091 13.522184 6.2172141
6.9828629 13.746175 4.6218853
8.2148476 16.185381 3.5375035
5.1639638 10.078382 10.16721
6.3407903 12.391096 10.218741
7.9152369 15.481142 10.30298
7.0221157 13.752069 7.2255502
8.1014681 15.879522 6.2935858
7.08812 13.905256 3.8550644
0.061893214 0.051049598 7.7689772
0.58413333 1.0726703 7.7649379
2.9869819 5.5666852 30.395725
2.0115862 3.8109171 13.823267
2.6006522 4.9685798 13.271297
4.0378904 7.7536693 16.088074
4.0823345 7.8657479 13.088261
4.0029979 7.7326422 10.501581
0.25322542 0.38274696 7.7764325
0.43533513 0.71448243 7.7603292
2.8940153 5.4250913 23.710661
2.4292529 4.6059155 14.214804
4.0347691 7.754209 11.64938
4.2701063 8.2239656 10.123794
4.6930938 9.1123428 10.152317
5.73772 11.154933 10.196961
7.0972047 13.815692 10.267851
6.679883 13.01448 7.7439904
6.879859 13.415602 6.1797533
7.0439281 13.747333 4.6303453
8.2690563 16.152233 3.536571
5.2008266 10.063611 10.170535
6.3877125 12.376071 10.224628
7.9731798 15.461081 10.308047
7.1822925 13.945354 7.3388453
7.1655078 13.936625 3.8703046
13.298457 25.876028 4.1499434
0.062107079 0.05085782 7.7739773
0.58787405 1.0706248 7.7649379
3.0126948 5.5678668 30.459364
2.0276825 3.8091426 13.842356
2.6161556 4.9560161 13.262092
4.0738406 7.7564898 16.123188
4.1123767 7.8564367 13.096526
4.0373831 7.7328286 10.520769
0.25455993 0.38186067 7.7764325
0.43782651 0.71295851 7.7603292
2.9135303 5.4160633 23.7155
4.0688133 7.7534194 11.669331
4.2987871 8.2090101 10.123794
4.7265177 9.0990696 10.155822
5.7784162 11.138291 10.200101
7.1492348 13.79826 10.273335
6.9309058 13.39974 6.1834998
7.0962772 13.731183 4.6331654
8.6364079 16.725603 3.6652727
5.2376499 10.048707 10.173861
6.434607 12.360868 10.230515
8.0310783 15.440803 10.313114
7.3041525 14.061163 7.4122772
7.3898535 14.238275 5.6723399
7.205162 13.894268 3.8656151
13.404653 25.860226 4.154778
0.062284227 0.050640713 7.7739773
0.59160769 1.0685662 7.7649379
3.0325997 5.5582099 30.464258
2.0416729 3.8033569 13.847128
2.6205864 4.9227109 13.197657
4.109859 7.7591529 16.158298
4.1450305 7.8519883 13.113059
4.0718179 7.7328691 10.539957
0.25589132 0.38096979 7.7764325
0.4403125 0.71142584 7.7603292
2.9336169 5.4080696 23.72518
2.3789597 4.4352531 13.740834
4.101491 7.7498221 11.68529
4.328999 8.1969528 10.127469
4.7599053 9.0856743 10.159327
5.8172607 11.118053 10.200101
7.1992922 13.776924 10.276075
8.023283 15.366793 9.1607771
7.1685548 13.753122 4.6486759
8.9012156 17.091825 3.7501411
14.235893 27.358572 2.8616893
5.2744317 10.033669 10.177186
6.481473 12.34549 10.236401
8.0889339 15.420312 10.31818
7.3784647 14.083823 7.4374537
7.2708821 13.890251 5.5457892
7.8730998 15.053488 4.1880026
0.062496841 0.050447326 7.7789774
0.59533405 1.0664947 7.7649379
3.0568914 5.5565114 30.513212
2.0570683 3.8001449 13.861443
2.6571603 4.9496803 13.29431
4.1448178 7.7595472 16.189022
4.1803484 7.8523746 13.137856
4.1047993 7.7299318 10.555307
0.25721958 0.38007426 7.7764325
0.44279319 0.70988452 7.7603292
2.4415319 4.4637628 19.626188
2.3944271 4.4269218 13.740834
4.1327744 7.743433 11.697261
4.359179 8.1847839 10.131145
4.7915907 9.0690041 10.159327
5.8578506 11.101122 10.203238
7.2492881 13.755409 10.278816
8.0810022 15.346532 9.1654148
7.2187505 13.732261 4.6500854
8.9608231 17.060652 3.7501411
14.722395 28.053946 2.9372456
5.3111725 10.018495 10.180512
6.5264187 12.326362 10.239344
8.1467419 15.399601 10.323246
7.4615045 14.122188 7.4710226
7.4515972 14.115346 5.6444006
7.9346685 15.04311 4.1926918
0.062672555 0.050228864 7.7789774
0.5990532 1.06441 7.7649379
3.0678713 5.5306706 30.429993
2.0696058 3.7916315 13.856671
2.6623302 4.9180403 13.234477
4.1798291 7.7597914 16.219746
4.1347828 7.7212071 10.562982
0.25854471 0.37917405 7.7764325
0.44526845 0.70833462 7.7603292
2.4619551 4.4640179 19.664902
2.409039 4.4170222 13.736142
4.1654911 7.739573 11.713221
4.389327 8.1725044 10.13482
4.8248954 9.0553703 10.162831
5.8983932 11.084041 10.206376
7.3011847 13.737406 10.284299
8.0867367 15.228246 9.1120825
7.8487296 14.7925 6.8540459
7.2082214 13.596784 4.6134253
8.9651365 16.925085 3.7277582
14.925059 28.200453 2.9573643
5.3478718 10.003186 10.183838
6.5770216 12.317768 10.251117
8.2024775 15.374874 10.32578
7.6409416 14.340386 7.5990038
7.5074806 14.101753 5.6493306
7.4872255 14.075532 3.9359546
0.062883891 0.050033867 7.783977
0.60276502 1.0623124 7.7649379
3.0970995 5.5377011 30.527897
2.0828285 3.7843838 13.856671
2.679481 4.9087172 13.234477
4.2148924 7.7598858 16.250469
5.274684 9.743329 16.345024
4.1556177 7.6954465 10.547632
0.25986671 0.37826926 7.7764325
0.44773826 0.70677596 7.7603292
2.4653037 4.4334264 19.568113
2.4510541 4.4569726 13.88631
4.1896071 7.7196889 11.70524
4.4178276 8.1571331 10.13482
4.8581634 9.0416145 10.166336
5.938889 11.066815 10.209516
7.351068 13.715523 10.287042
8.1126585 15.149159 9.0819378
7.6794152 14.352167 6.6648688
7.2488546 13.558848 4.6091952
8.9639854 16.781034 3.70351
15.093751 28.279982 2.9707766
5.3863001 9.9910307 10.190488
6.618062 12.291177 10.248174
8.2601795 15.353742 10.330846
7.7253232 14.377595 7.6325727
7.5294189 14.03646 3.9324372
0.06305816 0.049814057 7.783977
0.60685551 1.0608763 7.769877
3.11391 5.5224218 30.503422
2.0953012 3.7757852 13.851899
4.3424077 7.8893394 21.275087
4.2511578 7.7619305 16.285583
5.3127074 9.7322674 16.357424
4.177856 7.6724486 10.536119
0.26118553 0.37735984 7.7764325
0.45049003 0.70565766 7.7653003
2.4826086 4.4280834 19.582632
2.4665971 4.4483895 13.88631
4.2237611 7.7182341 11.725191
4.4478993 8.1446381 10.138494
4.8896947 9.024601 10.166336
5.9793353 11.049439 10.212653
7.4028754 13.697136 10.292524
8.1739092 15.13634 9.0912132
7.885766 14.614947 6.7978549
7.7514281 14.377966 4.8912015
8.9945517 16.697744 3.6923184
5.4229259 9.9754486 10.193813
6.6647835 12.275105 10.254061
8.3157797 15.328604 10.333379
8.6576042 15.97863 8.4885778
7.3944197 13.658648 5.4948411
7.6107464 14.069947 3.9488499
13.889265 25.687687 4.1651382
0.063195109 0.049569819 7.7789774
0.61055499 1.0587515 7.769877
2.3984303 4.2191973 23.35639
2.1084685 3.7684481 13.851899
4.3670759 7.8690085 21.261278
4.2863307 7.7617192 16.316307
5.3452902 9.7111988 16.353291
4.2015266 7.6521993 10.528444
0.26250118 0.37644586 7.7764325
0.45295051 0.70408082 7.7653003
2.5104218 4.4412742 19.67942
2.4997947 4.4713826 13.984858
4.4763021 8.1290617 10.138494
4.9228768 9.0106077 10.169841
6.0197334 11.031919 10.215793
7.4546437 13.678554 10.298006
8.2309313 15.115497 9.0958509
7.8924217 14.505888 6.7603941
7.840519 14.422467 4.9151721
8.9824429 16.536749 3.6643398
5.4595084 9.9597321 10.19714
6.7192369 12.273038 10.271719
8.373374 15.307046 10.338446
9.2551594 16.940042 9.010993
7.4126377 13.57887 5.4734755
7.6598129 14.043295 3.9488499
13.9907 25.660788 4.1685915
0.063367754 0.049348924 7.7789774
0.61463773 1.0572854 7.774816
2.4121308 4.2090325 23.3466
2.1216099 3.7610652 13.851899
4.3907018 7.8468986 21.24287
4.3227191 7.7634501 16.351419
5.381887 9.697402 16.361557
4.2235551 7.6290741 10.516932
0.26381361 0.37552726 7.7764325
0.45511493 0.7020486 7.7603292
2.527777 4.435761 19.693939
2.5619946 4.5453105 14.24296
4.5046506 8.1133871 10.138494
4.9542999 8.9933691 10.169841
6.0582051 11.010839 10.215793
7.5043592 13.656114 10.300749
8.2836437 15.086673 9.0958509
8.0500402 14.673344 6.8502998
7.2682319 13.259252 4.5344634
9.0471907 16.518219 3.6671376
5.4942408 9.9406147 10.19714
3.2927465 5.9648972 5.0446658
8.4288368 15.281501 10.340979
9.5901632 17.40851 9.2753477
8.3480558 15.166294 6.1144443
7.7087865 14.016472 3.9488499
14.139828 25.72028 4.1858587
0.063539624 0.04912743 7.7789774
0.61832458 1.0551335 7.774816
2.4252801 4.1979413 23.331913
2.1339877 3.7523391 13.847128
2.85623 5.0631022 13.754561
4.3579998 7.7629328 16.382143
5.4157047 9.6785564 16.361557
4.2470355 7.6086869 10.509256
0.26529047 0.37483913 7.781424
0.45756274 0.70045573 7.7603292
2.5407405 4.4225507 19.674582
2.6017191 4.5783486 14.374357
3.2983713 5.8420081 13.935503
6.0438805 10.774651 16.43342
4.5346003 8.1005716 10.14217
4.9873939 8.9791374 10.173346
6.0984912 10.993027 10.21893
7.556036 13.637151 10.306231
8.3298197 15.046041 9.0888948
7.91047 14.30034 6.6910915
7.3051882 13.217006 4.5288229
9.221159 16.697243 3.7128363
13.177398 23.880682 2.5415807
5.5307245 9.9246378 10.200465
3.3214107 5.967494 5.0564384
8.4842224 15.255752 10.343512
9.6817255 17.430473 9.3047199
7.7576666 13.989478 3.9488499
14.258333 25.722742 4.1941466
0.063673913 0.048881896 7.7739773
0.62200397 1.0529686 7.774816
2.438894 4.1876907 23.322124
2.1441026 3.7396874 13.828039
2.8748522 5.0547991 13.759164
4.3945084 7.7643471 16.417255
5.4494557 9.6595936 16.361557
4.278285 7.6021957 10.520769
0.2665973 0.37391081 7.781424
0.46000502 0.69885421 7.7603292
2.6099639 4.5557632 14.332123
3.3122816 5.8191075 13.908495
4.5657053 8.0503912 15.208475
6.1066704 10.798076 16.501249
4.562849 8.0846939 10.14217
5.0187063 8.9616737 10.173346
6.136827 10.971672 10.21893
7.6056318 13.614343 10.308972
7.8429165 14.062105 6.5936942
7.3582854 13.203996 4.5330534
9.2793865 16.664953 3.7128363
13.260676 23.834539 2.5415807
5.5671635 9.9085264 10.203791
3.3501337 5.969964 5.0682111
8.5416403 15.233564 10.348578
9.7181177 17.353016 9.281642
8.3130722 14.856272 6.0141897
7.9037056 14.136257 3.9969151
14.348035 25.672813 4.1941466
0.063844159 0.048659332 7.7739773
0.62567574 1.050791 7.774816
2.4545279 4.1809077 23.331913
2.1646137 3.7451036 13.875759
2.8730433 5.0108376 13.667114
4.4322672 7.7676821 16.456757
5.4859233 9.6454039 16.369822
4.3079586 7.5927911 10.528444
0.26790088 0.37297794 7.781424
0.4621464 0.69680035 7.7553573
2.4016957 4.1137958 18.377615
2.6189458 4.5346704 14.294581
3.3314905 5.8056221 13.903994
4.6002517 8.0457258 15.229804
6.1443257 10.776693 16.501249
4.5927186 8.0716629 10.145844
5.0517111 8.9472055 10.176849
6.177 10.953575 10.22207
7.6572123 13.594997 10.314456
9.6752033 17.191833 10.41293
7.8010635 13.873008 6.5187726
7.8954372 14.052299 4.8277502
9.407239 16.75668 3.7398822
5.6017165 9.8890333 10.203791
3.3769233 5.9687872 5.0770407
8.5968838 15.207406 10.35111
9.7273073 17.228086 9.233386
8.1931782 14.522815 5.89257
7.9625483 14.125517 4.0016041
0.064013623 0.04843618 7.7739773
0.62933981 1.0486007 7.774816
2.4706628 4.1749434 23.3466
2.183686 3.7478428 13.913935
2.8914948 5.0024695 13.671717
4.4689083 7.7687712 16.491871
5.5181584 9.6237545 16.365688
4.3376193 7.5832715 10.536119
0.26920119 0.37204051 7.781424
0.46457592 0.69518292 7.7553573
2.4141285 4.1021376 18.363098
2.6391001 4.5329571 14.318045
3.3517354 5.7939577 13.903994
4.6048646 7.9889469 15.153017
6.1728954 10.739505 16.477308
4.6225524 8.0585232 10.14952
5.0829115 8.9295177 10.176849
6.2171206 10.935329 10.225207
7.706686 13.571822 10.317198
9.7460852 17.177219 10.424523
7.849442 13.845692 6.5187726
7.9751773 14.078914 4.8460808
9.463253 16.719465 3.7389495
5.6380534 9.8726616 10.207116
3.4017427 5.963985 5.0829268
8.6541843 15.184796 10.356177
9.7986126 17.213751 9.2438774
8.164444 14.354567 5.8366904
8.1318874 14.308931 4.0602198
0.064182304 0.048212435 7.7739773
0.63299632 1.0463974 7.774816
2.4831345 4.162796 23.327019
2.1967549 3.7401974 13.913935
2.9246767 5.0193534 13.745358
4.5056105 7.7696986 16.526981
5.548902 9.5995617 16.357424
4.3752713 7.5875206 10.562982
0.27049819 0.37109855 7.781424
0.46699971 0.69355702 7.7553573
2.420095 4.0796323 18.300184
2.6549072 4.5237174 14.318045
3.3412328 5.7295685 13.777961
4.6143789 7.9412546 15.093295
4.6506543 8.0423384 10.14952
5.1158261 8.914814 10.180354
6.2591257 10.920315 10.231484
7.7560906 13.548467 10.319939
9.8081837 17.146938 10.426842
7.9690375 13.94298 6.5768371
8.057579 14.109308 4.8658209
13.54654 23.759264 2.5482869
5.6724811 9.8529205 10.207116
3.4265702 5.9590826 5.0888133
8.7092848 15.158233 10.358711
8.2004089 14.301402 5.8268299
8.1793699 14.276241 4.0590477
14.328147 25.018381 4.113337
0.06435021 0.047988106 7.7739773
0.63624036 1.0435183 7.769877
2.4950268 4.1497402 23.302542
2.2082763 3.7299376 13.904391
2.9510853 5.0242748 13.78678
4.5423741 7.7704649 16.562096
5.5837941 9.5825653 16.361557
4.4210606 7.6054549 10.609032
0.27196366 0.37038413 7.7864161
0.46971771 0.69236344 7.7603292
2.4330306 4.0690022 18.290504
2.6759539 4.5233335 14.346201
3.3490765 5.6972265 13.728447
4.6486616 7.9363508 15.114624
4.6804066 8.028985 10.153195
5.1469131 8.8969021 10.180354
6.2991538 10.90177 10.234623
7.8054266 13.524932 10.32268
9.8768311 17.127951 10.436117
7.9574828 13.810639 6.5281377
8.0421572 13.968849 4.8277502
9.241724 16.065392 3.6102481
5.7087135 9.8362894 10.210442
3.4534318 5.9575763 5.0976429
8.7664652 15.135201 10.363777
11.282161 19.50202 10.502708
8.1864729 14.162307 5.782455
8.5184469 14.748473 4.1985536
14.489671 25.096872 4.1340575
0.064517327 0.047763187 7.7739773
0.63987905 1.041291 7.769877
2.5073855 4.1375222 23.282961
2.2166924 3.7145159 13.875759
2.9855266 5.0425215 13.865023
4.5791974 7.7710681 16.597208
4.4816122 7.6480494 10.689619
0.2732549 0.36943254 7.7864161
0.47213167 0.6907196 7.7603292
2.4478683 4.0615616 18.295345
2.7217786 4.5643578 14.505755
3.3889194 5.7192125 13.809469
4.6949 7.9515166 15.174347
4.7084036 8.012598 10.153195
5.1797342 8.8819618 10.183859
6.3391294 10.88308 10.237761
7.8546929 13.501218 10.325421
9.9410105 17.101028 10.440755
8.1383657 14.011276 6.6349006
8.1245794 13.998775 4.8474903
9.2657099 15.977792 3.598124
14.261366 24.612064 2.6466444
5.7448993 9.8195248 10.213766
3.4803243 5.9559546 5.106472
8.8235893 15.111951 10.368843
11.331876 19.431154 10.485924
8.1621571 14.007164 5.7315063
14.664372 25.19594 4.1582317
0.064720944 0.047560353 7.7789774
0.64350992 1.0390511 7.769877
2.5202208 4.1261377 23.268276
2.2250285 3.6990812 13.847128
2.9680665 4.9733534 13.703935
4.6160808 7.7715096 16.63232
4.5441451 7.6930737 10.774045
0.27454278 0.36847645 7.7864161
0.4748427 0.68950593 7.7653003
2.4600728 4.0497689 18.280827
2.7376947 4.5548291 14.505755
3.3965831 5.6867895 13.759955
4.7306309 7.9485269 15.199943
4.7380724 7.9990306 10.15687
5.2107067 8.8638277 10.183859
6.3790503 10.864242 10.2409
7.9038873 13.477324 10.328162
