# .PCD v0.7 - Point Cloud Data file format
VERSION 0.7
FIELDS x y z
SIZE 4 4 4
TYPE F F F
COUNT 1 1 1
WIDTH 1587
HEIGHT 1
VIEWPOINT 0 0 0 1 0 0 0
POINTS 1587
DATA ascii
3.3795884 2.9535754 9.344264
4.2842836 3.7560344 9.38974
5.4499655 4.789712 9.6822977
3.7031643 3.2602797 5.4269338
3.7527823 3.3261075 5.0076437
6.5707388 5.8297448 7.1652126
4.2659907 3.7889116 3.8254054
4.7226238 4.1974115 3.3939223
7.2162004 6.4181485 3.9901783
5.0273194 4.443182 6.0568919
5.6568837 5.0048504 5.5832644
4.8039908 4.2532554 3.8560405
7.5077538 6.6587014 3.5817962
0.094314955 0.029146494 9.8938971
1.1988956 1.00688 9.9530287
1.5723723 1.3376529 9.9483624
2.1849353 1.8842623 9.2707949
3.1087604 2.6997492 9.7595711
3.8160746 3.3279591 9.3464489
3.5252588 3.082999 6.9508324
6.0567207 5.3079667 9.7187309
0.47676045 0.33465707 9.9128628
0.85121626 0.64679873 9.9279041
1.9440553 1.6618791 9.8844252
2.3026762 1.987147 8.3253813
3.4063199 2.9560282 9.3892765
4.2678618 3.7153709 9.3257513
5.4666514 4.7706585 9.6822977
3.6889987 3.2250209 5.390182
3.8500385 3.3883822 5.1197896
6.8801842 6.061501 7.4759197
4.2509661 3.7491052 3.8007321
4.757175 4.1984882 3.407835
5.3482814 4.7234812 2.9712484
5.1410193 4.5118051 6.1732841
5.6773558 4.9877419 5.5862074
4.7637701 4.1880736 3.8129766
4.7842617 4.2105217 3.0336413
7.5309515 6.6324544 3.5817962
0.094416127 0.028817097 9.8938971
1.2024031 1.002689 9.9530287
1.5770321 1.3321562 9.9483624
2.1858301 1.8717699 9.2469349
3.1211243 2.6914327 9.7687759
3.8276682 3.3146181 9.3464489
3.533874 3.0688293 6.9466991
6.075212 5.2867923 9.7187309
0.47816303 0.33315516 9.9178543
0.85346884 0.64382344 9.9279041
1.9460108 1.6518295 9.8650675
2.3122199 1.9813429 8.3347673
3.4265125 2.9526458 9.4162836
4.272913 3.6936285 9.3086882
5.4832711 4.7515473 9.6822977
3.6951132 3.2076793 5.3828316
3.8752694 3.3866558 5.1373119
4.4815116 3.9205739 4.8835545
5.9123688 5.1777663 5.2372608
4.7384858 4.1526608 3.3846471
4.7687216 4.1820922 2.6509597
4.8749022 4.2782111 1.9964042
4.6021986 4.0105882 5.5181608
5.6947317 4.9678936 5.5862074
4.8010926 4.1912646 3.830709
5.18852 4.5342565 3.2728195
7.5362835 6.5905828 3.5735788
0.094473578 0.028477764 9.8888969
1.2058958 0.99848574 9.9530287
1.5816724 1.3266431 9.9483624
2.1866641 1.8592942 9.2230749
3.1349521 2.6843333 9.7825832
3.8392148 3.3012369 9.3464489
3.5530889 3.0638256 6.9632306
6.0936294 5.265554 9.7187309
0.47932306 0.33148405 9.9178543
0.85571098 0.64084041 9.9279041
1.9479202 1.6417868 9.8457098
2.3204362 1.9743779 8.3394604
3.4549937 2.9562352 9.4657974
4.2897377 3.6820879 9.3172197
5.5021081 4.7343435 9.6862879
6.7569261 5.8242884 9.7489271
3.8789868 3.3660958 5.1267982
6.7519035 5.8652725 7.293889
5.8673 5.1022201 5.1824312
4.8498616 4.2204261 3.4518921
4.7448335 4.1319313 2.6303566
4.8355584 4.2138948 1.9752538
4.5907593 3.9725106 5.4882312
4.3647113 3.7808938 4.2882738
4.8254652 4.1829505 3.8383083
5.2865849 4.5875063 3.3231726
7.562809 6.5673323 3.5752223
0.0945298 0.028138377 9.8838968
1.2099741 0.99476355 9.9579678
1.5870763 1.3217655 9.9532576
2.1885786 1.8477986 9.2039871
3.1487684 2.67717 9.7963915
3.8507149 3.2878156 9.3464489
3.5723128 3.0587254 6.9797626
6.1119728 5.2442513 9.7187309
0.48047721 0.32980886 9.9178543
0.85837084 0.63816702 9.9328756
1.9497831 1.6317507 9.8263521
2.3299506 1.9684932 8.3488464
3.4818828 2.9582517 9.5108099
4.3065348 3.6704748 9.3257513
5.5208917 4.7170663 9.6902781
6.777216 5.8006663 9.7489271
3.9177299 3.3758142 5.1618438
6.6780205 5.7603154 7.1934586
5.7363272 4.9532676 5.0535822
4.8645639 4.2034717 3.4518921
4.7627349 4.1183758 2.6322293
4.8393555 4.187573 1.9710236
4.0653152 3.4967844 3.9880712
4.7975636 4.1295223 3.805377
5.6807704 4.894907 3.5539584
7.5856867 6.5408936 3.5752223
0.37546435 0.32399824 0.21032943
0.094627447 0.027808234 9.8838968
1.2134391 0.99053395 9.9579678
1.5916804 1.3162177 9.9532576
2.1892953 1.835353 9.1801271
3.1655586 2.6724639 9.8194036
3.8621683 3.274354 9.3464489
3.582968 3.046237 6.9797626
6.1326814 5.2249627 9.7225685
0.48162556 0.32812965 9.9178543
0.8605932 0.63516694 9.9328756
1.9506332 1.6209185 9.8021555
3.5071633 2.9587126 9.551321
4.3153386 3.6520503 9.3172197
5.5373235 4.6977658 9.6902781
3.9454951 3.353225 5.6915455
3.9294896 3.3621185 5.1618438
6.7306056 5.7648215 7.2279816
5.6043868 4.8052926 4.9247332
4.7514548 4.0768518 3.3637779
4.7911506 4.1138053 2.6397216
5.046782 4.3363466 2.0457554
4.5938554 3.9235852 4.4825225
4.7693491 4.0763402 3.7724457
5.6254025 4.813086 3.5098991
0.3950485 0.33849832 0.21619101
0.094766609 0.027486894 9.8888969
1.2168893 0.98629212 9.9579678
1.5962652 1.3106534 9.9532576
2.1910994 1.8238803 9.1610394
3.1673818 2.6551223 9.7963915
3.8754063 3.2623947 9.3508377
3.5914292 3.0318964 6.9756298
6.1508827 5.2035241 9.7225685
0.482768 0.32644647 9.9178543
0.86280513 0.63215899 9.9328756
1.9524008 1.6109004 9.7827978
3.5408337 2.9660223 9.6143379
4.3260636 3.6352868 9.312953
3.9612343 3.3369627 6.9331713
3.9856763 3.3634822 5.7319722
3.9357662 3.3437631 5.1548347
4.153326 3.5323269 4.4786935
4.981462 4.244101 3.512181
5.0618877 4.3187037 2.0457554
3.3985362 2.8791852 4.0482893
4.989779 4.2317019 4.8474741
4.7408209 4.023406 3.7395144
4.7152052 4.0059052 2.9476213
0.37401503 0.31821951 0.20915711
0.094861977 0.027155928 9.8888969
1.2203246 0.98203844 9.9579678
1.6016198 1.3057169 9.9581528
2.191699 1.8114663 9.1371794
3.1766305 2.6440501 9.7963915
3.8867705 3.2488472 9.3508377
3.6019907 3.0193412 6.9756298
6.1714625 5.1840835 9.7264061
0.48390457 0.32475933 9.9178543
0.86500645 0.62914342 9.9328756
1.9531498 1.6000929 9.7586002
2.7041752 2.2365208 9.5971222
3.5528393 2.9550366 9.6188393
4.3467374 3.626847 9.3300171
3.965924 3.3173149 6.9212012
3.9818013 3.3364851 5.7099214
3.9228809 3.3093092 5.1232939
3.6362934 3.0707991 3.9200485
5.6761169 4.7984443 4.9576311
5.2769499 4.4641519 3.7046413
5.6264825 4.7632036 3.0667732
5.0622911 4.2886047 2.0401151
3.4142804 2.8721118 4.0549407
4.8066435 4.0476313 4.659112
4.692204 3.9540544 3.6913841
4.8575149 4.0976987 3.0252492
0.3825497 0.32318541 0.21150175
0.094998918 0.026833473 9.8938971
1.2237451 0.97777277 9.9579678
1.6069592 1.3007586 9.963048
2.1933935 1.8000176 9.1180916
3.1798167 2.6279676 9.7779808
3.8980875 3.23526 9.3508377
6.1919823 5.1645622 9.7302427
0.48479453 0.32290888 9.9128628
0.86719733 0.62612015 9.9328756
1.9538475 1.5893 9.7344036
2.714633 2.2292581 9.6065073
3.5614538 2.9412305 9.6143379
4.365396 3.6166439 9.3428154
3.9612532 3.2899749 6.893271
3.9673626 3.3008833 5.6731696
3.9152713 3.2795658 5.098762
3.6440074 3.0555863 3.9169099
5.8497639 4.9103298 5.0919628
5.3298116 4.4770455 3.7301481
5.6714644 4.7673988 3.0817575
5.0809016 4.2739959 2.0415251
3.415688 2.8529954 4.0449643
5.9308605 4.9590306 5.7127633
4.7092838 3.9404178 3.6939173
5.5328469 4.6344295 3.4238794
0.37995151 0.31872439 0.21032943
0.095092006 0.026501702 9.8938971
1.226542 0.97301239 9.9530287
1.61149 1.2951413 9.963048
2.195034 1.7885789 9.0990028
3.1950119 2.6218088 9.7963915
3.9112053 3.2231567 9.3552275
2.544898 2.1032033 4.9215541
6.2099729 5.1429172 9.7302427
0.48591873 0.32121465 9.9128628
0.86937761 0.62308919 9.9328756
1.9554714 1.5793115 9.7150459
2.7210605 2.218678 9.6018152
3.5733826 2.9301612 9.6188393
4.4021635 3.6212654 9.3940067
3.9750378 3.2780447 6.8972611
3.9788606 3.2870142 5.6731696
3.9075022 3.2499163 5.0742302
3.6636255 3.0503192 3.9263256
5.8251123 4.8550782 5.056324
5.318192 4.4357152 3.7115977
5.7094259 4.7653961 3.0929956
3.4170041 2.8339045 4.0349874
6.0258827 5.0028453 5.7863426
4.6301684 3.8468215 3.622988
5.5420113 4.6092834 3.419683
0.095183931 0.026169607 9.8938971
1.229931 0.96872503 9.9530287
1.616001 1.2895083 9.963048
2.1966219 1.7771508 9.079916
3.2238345 2.626682 9.8562241
3.9224324 3.2094843 9.3552275
2.5456979 2.0889521 4.9091554
6.2303624 5.1232443 9.7340803
0.48727885 0.31967416 9.9178543
0.87198204 0.6203593 9.9378471
1.9570496 1.569331 9.6956882
2.7314711 2.2113378 9.6111994
3.5835888 2.91767 9.6188393
4.4733558 3.6537201 9.5177183
3.9841247 3.2622402 6.893271
4.0007949 3.2817056 5.68787
3.9050734 3.2249029 5.0567074
3.6772504 3.0399923 3.9294639
5.6519623 4.6774263 4.8945775
5.7795668 4.7898092 3.1210911
3.4211109 2.8172128 4.0283365
4.6867976 3.8662972 3.6559193
0.095274702 0.025837194 9.8938971
1.2333049 0.9644258 9.9530287
1.6204925 1.2838596 9.963048
2.1981566 1.7657334 9.0608273
3.2405784 2.621556 9.8792372
3.9336116 3.1957729 9.3552275
2.5486112 2.0764987 4.9008894
6.2506909 5.1034923 9.7379179
0.48839176 0.31797129 9.9178543
0.87414217 0.61731178 9.9378471
1.9575982 1.5585759 9.6714907
2.7378285 2.2007089 9.6065073
3.5937517 2.9051433 9.6188393
4.5367236 3.6791503 9.6243668
3.9954879 3.2483132 6.893271
4.0017109 3.2591567 5.6731696
3.932853 3.2248187 5.0777345
3.6938567 3.0320766 3.9357409
4.4147558 3.6276658 3.8308885
5.7962513 4.7696061 3.1210911
3.4280331 2.8028903 4.0250111
6.0387669 4.9427342 5.7657404
4.7102699 3.8581088 3.6635191
5.9530897 4.8812699 3.6462729
0.09536431 0.025504466 9.8938971
1.2366638 0.9601149 9.9530287
1.624964 1.2781951 9.963048
2.1996386 1.7543271 9.0417395
3.9447432 3.1820228 9.3552275
2.5777221 2.0852871 4.9422188
6.2659774 5.0796237 9.7340803
0.4894987 0.31626454 9.9178543
0.87629163 0.61425668 9.9378471
1.9610546 1.5501744 9.6618128
2.7454937 2.1911385 9.6065073
3.6038706 2.892581 9.6188393
4.5942292 3.6992753 9.7182178
4.004457 3.2324536 6.8892808
4.013063 3.2451684 5.6731696
3.9440856 3.211071 5.0777345
3.6802807 2.9994924 3.9106333
7.8519979 6.4153862 4.1849737
3.4348974 2.788554 4.0216856
5.9242387 4.814559 5.6421275
4.6768866 3.8035645 3.6280546
5.9700923 4.8604603 3.6462729
0.095409885 0.025163332 9.8888969
1.2406232 0.95626652 9.9579678
1.6294159 1.2725153 9.963048
2.2010677 1.7429317 9.0226517
3.2557459 2.5964327 9.8700314
3.9558265 3.1682334 9.3552275
2.6025374 2.0903738 4.9752822
6.2861676 5.0597305 9.7379179
0.49059966 0.31455395 9.9178543
0.87843049 0.61119413 9.9378471
1.964476 1.5417677 9.652133
2.7531254 2.1815417 9.6065073
3.6139457 2.8799834 9.6188393
3.5091226 2.805445 7.418879
4.0157161 3.2184558 6.8892808
6.9745798 5.5997839 9.7746534
3.9580438 3.1995261 5.0812392
3.6695485 2.9694884 3.8886642
4.2320299 3.4283071 3.6554344
7.8275404 6.3499703 4.160624
14.033511 11.392555 5.4030433
3.4446106 2.776547 4.0216856
4.0756307 3.2886794 3.8968334
4.6129947 3.7249274 3.5697913
5.9199595 4.7853823 3.6064098
0.095497139 0.024830138 9.8888969
1.2439538 0.95193005 9.9579678
1.633848 1.2668198 9.963048
2.2024441 1.7315481 9.0035639
3.2555995 2.577776 9.8424168
3.9668615 3.1544056 9.3552275
2.6296196 2.0970666 5.0124788
6.2987828 5.0337543 9.7302427
0.49169469 0.31283954 9.9178543
0.8809976 0.60842663 9.9428186
1.9688543 1.5341285 9.647294
2.7607236 2.1719182 9.6065073
3.6239767 2.8673508 9.6188393
3.4412689 2.7315652 7.256773
4.0269265 3.2044189 6.8892808
6.9887824 5.5711775 9.7673035
3.9719698 3.1879227 5.084744
3.6768572 2.9542232 3.8855257
4.2700377 3.4344792 3.6773663
5.860662 4.7171917 4.0246358
7.849658 6.322608 4.160624
14.050786 11.325439 5.3945832
3.4542813 2.7645061 4.0216856
4.0681581 3.2592695 3.8791742
4.6461492 3.7249815 3.5849905
5.8799953 4.7192364 3.5728409
0.09558323 0.024496639 9.8888969
1.247269 0.94758207 9.9579678
1.63826 1.2611088 9.963048
2.2037678 1.7201759 8.9844761
3.2753289 2.5748475 9.8746338
3.9778483 3.1405396 9.3552275
2.6479549 2.0966084 5.0331435
6.3238487 5.017714 9.7417555
0.4927837 0.31112131 9.9178543
0.88311601 0.60534763 9.9428186
1.9732029 1.5264775 9.6424541
2.7696481 2.1633303 9.6111994
3.6339636 2.8546832 9.6188393
3.3872824 2.6694946 7.1245294
4.0380869 3.1903424 6.8892808
7.0028701 5.5425406 9.7599525
3.9886513 3.1784832 5.0917525
3.7054033 2.955934 3.9043562
4.2950697 3.4299903 3.6883321
5.6729207 4.5335422 3.8878264
7.8716803 6.2951694 4.160624
0.36807051 0.29479116 0.18100367
3.4668334 2.7547543 4.0250111
4.0700207 3.2375002 3.8703449
4.6793599 3.724849 3.6001897
5.8999825 4.7015104 3.574939
7.5469007 6.0181761 3.4486721
0.095668152 0.024162842 9.8888969
1.2505691 0.94322258 9.9579678
1.6426522 1.2553825 9.963048
2.205039 1.7088158 8.9653883
3.9906712 3.1281123 9.3596153
2.606586 2.0490935 4.9422188
6.3413248 4.9956088 9.7417555
0.49386671 0.30939925 9.9178543
0.88522369 0.60226125 9.9428186
1.9775223 1.5188148 9.6376152
2.7771828 2.1536493 9.6111994
3.6439061 2.8419809 9.6188393
3.3554993 2.6255124 7.0392103
4.0491991 3.1762276 6.8892808
7.0301714 5.5243464 9.770978
4.0081124 3.1711793 5.1022668
3.7309551 2.955065 3.9200485
4.3266754 3.4305639 3.7047811
5.2584109 4.1722937 3.6002955
7.9553266 6.3166599 4.1924658
0.36525238 0.29044726 0.18007106
3.4793599 2.7449489 4.0283365
4.1859746 3.3059435 3.9674692
4.753211 3.7566047 3.6457868
5.8843241 4.6555433 3.5560567
0.31424773 0.24908286 0.14814304
0.095751919 0.02382875 9.8888969
1.2538539 0.93885154 9.9579678
1.6462131 1.2490257 9.9581528
2.2074411 1.698378 8.9510717
4.0015659 3.1141632 9.3596153
2.6492171 2.0676835 5.0083461
6.3688235 4.9813418 9.7571058
0.49494374 0.30767345 9.9178543
0.88732058 0.59916764 9.9428186
1.9818122 1.5111407 9.6327753
2.7860508 2.1449947 9.6158924
3.6520827 2.8279111 9.6143379
3.3502264 2.6025844 7.0093489
4.0459971 3.1509657 6.8653412
7.0467391 5.4976873 9.7673035
4.0191579 3.1571691 5.1022668
3.7657244 2.9612713 3.9451561
4.2991972 3.384403 3.6718831
5.2729425 4.153913 3.6002955
7.8535452 6.1912708 4.1287827
0.38554174 0.30438974 0.18473415
3.4889202 2.7327869 4.0283365
4.1943083 3.2888176 3.9645259
4.8273401 3.78789 3.6913841
5.8577104 4.6013322 3.5308797
7.5627441 5.9449143 3.4371676
0.3151153 0.24798442 0.14814304
0.095834516 0.02349437 9.8888969
1.2571235 0.93446898 9.9579678
1.650563 1.2432718 9.9581528
2.208611 1.6870382 8.9319849
4.0143075 3.1016407 9.3640051
2.6586428 2.0601468 5.0124788
3.0900207 2.3995564 4.7606754
0.49576855 0.30579308 9.9128628
0.88940668 0.59606659 9.9428186
1.9860729 1.5034552 9.6279354
2.7935214 2.1352563 9.6158924
3.6619318 2.8151457 9.6143379
3.3489649 2.5829105 6.9880195
4.0498204 3.1312943 6.8533716
7.0685673 5.475132 9.770978
4.024529 3.1387339 5.0952573
3.7699025 2.9433181 3.9388795
4.3109846 3.3693752 3.6718831
5.3606863 4.1927924 3.6489904
7.7144799 6.038095 4.0463696
0.38273576 0.30001172 0.18380153
3.504333 2.7251756 4.0349874
4.1483526 3.2294638 3.9115491
4.8473339 3.7763147 3.6964502
5.888052 4.5920215 3.5392723
7.59834 5.9301 3.4437416
0.3471972 0.27127331 0.15366848
0.095915936 0.023159701 9.8888969
1.2603778 0.93007511 9.9579678
1.6548927 1.2375027 9.9581528
2.2097285 1.6757108 8.9128962
4.0251098 3.0876091 9.3640051
2.6858916 2.0662963 5.0496755
3.1009164 2.3907125 4.764513
0.49683294 0.30406067 9.9128628
0.89148188 0.59295839 9.9428186
1.9892991 1.4950031 9.6182575
2.8009577 2.1254921 9.6158924
3.6717362 2.8023462 9.6143379
3.3538189 2.5680337 6.9794874
5.78649 4.441843 9.734169
7.0876355 5.4504251 9.770978
4.0805774 3.1595995 5.15133
3.7801538 2.9301407 3.9388795
4.3062024 3.3414898 3.6581759
5.4557614 4.2365432 3.7023225
7.7208667 5.9997511 4.038877
0.37602726 0.29264021 0.18193629
0.32987416 0.25689909 0.1304834
3.5020025 2.7037995 4.0216856
4.0764489 3.150697 3.835027
4.884356 3.777833 3.7141826
5.8896904 4.5603256 3.5308797
7.6189933 5.9035411 3.4437416
0.34031624 0.26398942 0.15228713
0.095996201 0.022824751 9.8888969
1.2636167 0.92566991 9.9579678
1.6592023 1.2317184 9.9581528
2.210794 1.6643964 8.8938084
4.0377684 3.0749912 9.3683939
2.6908517 2.0552001 5.0455427
3.149967 2.4110436 4.825913
0.49789131 0.30232453 9.9128628
0.89354628 0.58984292 9.9428186
1.9934978 1.4872986 9.6134176
2.8083599 2.1157022 9.6158924
3.6814957 2.7895124 9.6143379
3.3606861 2.5547326 6.9752216
5.78758 4.4106588 9.7102289
7.1066179 5.4256511 9.770978
4.1509571 3.1909792 5.2249255
3.7996128 2.9240489 3.9482946
4.3178401 3.3264382 3.6581759
5.4705167 4.217473 3.7023225
7.7234111 5.9586058 4.0295119
0.37315926 0.28832257 0.18100367
0.30713043 0.23746958 0.12780093
3.4877119 2.6733871 3.9950817
4.0906286 3.1389089 3.83797
4.8769984 3.7450075 3.6989834
5.7436528 4.4152684 3.4364674
7.6545262 5.8884277 3.4503157
0.34515911 0.26582137 0.15297781
0.096075289 0.022489524 9.8888969
1.2674687 0.92171031 9.9629078
1.6634917 1.2259192 9.9581528
2.2118075 1.6530951 8.8747206
4.0484776 3.0608778 9.3683939
2.6823127 2.0338933 5.0166121
3.1583638 2.4000335 4.825913
0.49894357 0.30058473 9.9128628
0.89515352 0.58642858 9.9378471
1.996657 1.4788347 9.6037388
2.8157279 2.1058862 9.6158924
3.6912105 2.7766445 9.6143379
3.3654196 2.539844 6.9666896
5.8053436 4.3922477 9.7142181
7.1282153 5.4028592 9.7746534
4.1535654 3.1699796 5.2144122
3.788146 2.894227 3.9263256
4.3161402 3.3011844 3.6472101
5.3902273 4.1256571 3.6397152
7.6374316 5.8498592 3.975194
0.40144712 0.30794618 0.18753201
0.32375887 0.24852526 0.12958924
3.4821663 2.6498914 3.9784541
4.1079912 3.1295097 3.8438563
4.9826031 3.7985253 3.7673795
5.546165 4.2327394 3.3126824
7.6562696 5.8473411 3.4420979
0.34608489 0.26461491 0.15297781
0.096196309 0.022160765 9.8938971
1.2706784 0.91728038 9.9629078
1.6685826 1.2207061 9.963048
2.212769 1.6418067 8.8556318
4.0610528 3.0481653 9.3727837
2.680403 2.0177486 5.0000801
3.1871927 2.4044368 4.8566127
0.49998978 0.29884127 9.9128628
0.8971951 0.58330035 9.9378471
1.9997814 1.4703672 9.5940599
2.8230619 2.0960445 9.6158924
3.7008803 2.7637429 9.6143379
3.3721781 2.5265176 6.9624243
5.8206401 4.3719563 9.7142181
7.1497402 5.3799825 9.7783279
4.1646056 3.1554615 5.2144122
3.7982256 2.8809862 3.9263256
4.317646 3.2785122 3.6389856
5.3446355 4.0612545 3.6002955
7.7316093 5.8792863 4.0126548
0.39470345 0.30059084 0.18566677
0.3285853 0.25041211 0.13003632
5.0435448 3.8103254 5.7110395
4.128562 3.1224654 3.8526859
4.9923949 3.7785082 3.7648461
5.452383 4.1311293 3.2497408
7.6766338 5.82058 3.4420979
0.34700647 0.26340523 0.15297781
0.09627308 0.02182484 9.8938971
1.2738725 0.91283923 9.9629078
1.6728334 1.2148741 9.963048
2.2148809 1.6314175 8.8413162
4.0716681 3.0339708 9.3727837
2.6761591 1.9999577 4.9794154
3.1930008 2.3913753 4.8527751
0.50102985 0.29709417 9.9128628
0.89922571 0.58016497 9.9378471
2.002871 1.4618958 9.5843811
2.8303611 2.0861776 9.6158924
3.710505 2.7508073 9.6143379
3.3809769 2.5147312 6.9624243
5.8358655 4.3516116 9.7142181
7.1711922 5.3570213 9.7820034
3.7585092 2.8302486 3.8761103
4.7163882 3.5553968 3.956996
5.3340244 4.0238996 3.5840638
7.7372847 5.8410888 4.0051627
0.3294574 0.24926361 0.13003632
5.0866847 3.8150992 5.7442946
4.1523652 3.1177425 3.8644586
5.0744815 3.8128483 3.8155098
5.459516 4.1066155 3.2455447
7.7006774 5.7965875 3.4437416
0.3518787 0.26517257 0.15366848
0.096391819 0.021495093 9.8988962
1.2764179 0.90793687 9.9579678
1.6770641 1.2090276 9.963048
2.2169471 1.6210331 8.8270006
4.0822339 3.0197396 9.3727837
2.6989443 2.0023401 5.0083461
3.1987567 2.3783026 4.8489375
0.50206387 0.29534343 9.9128628
0.90079618 0.57673562 9.9328756
2.0069439 1.4541582 9.5795422
2.8390186 2.0773039 9.6205854
3.7235913 2.7404191 9.6233397
3.3834398 2.4982667 6.949626
2.9955852 2.2175317 5.0099797
7.1952944 5.3359957 9.7893543
3.7683654 2.8171115 3.8761103
5.3764038 4.0264988 3.6026144
7.7502079 5.808485 4.0014162
0.33032551 0.24811207 0.13003632
3.5756102 2.6623375 4.0516152
4.1761861 3.1128914 3.8762312
5.1879659 3.8698578 3.8889718
5.4956365 4.103826 3.2581332
7.7208643 5.7696724 3.4437416
0.35280219 0.26394266 0.15366848
0.096466266 0.02115849 9.8988962
1.2795794 0.90347582 9.9579678
1.6821022 1.2037586 9.9679432
2.2189677 1.6106546 8.812685
4.0927501 3.0054717 9.3727837
2.7081831 1.9945756 5.0124788
3.2044601 2.3652191 4.8451004
0.50309175 0.29358909 9.9128628
0.90280384 0.57358772 9.9328756
2.0099666 1.4456761 9.5698633
2.8462527 2.0673814 9.6205854
3.7348926 2.7286892 9.627841
3.394243 2.4879825 6.9538922
2.9935949 2.1999242 4.99402
7.219337 5.3148665 9.7967043
5.3204627 3.9442029 6.5881939
5.3784966 3.9915769 5.4830003
5.4082007 4.0209222 3.6142082
7.7629972 5.7758617 3.9976707
0.33118957 0.2469575 0.13003632
3.6119049 2.6698146 4.0815449
4.2130203 3.1175292 3.8997765
5.3296247 3.9466436 3.9826994
5.484406 4.0656977 3.2434466
7.6840696 5.7004838 3.4190888
0.35372135 0.26270953 0.15366848
0.096496351 0.020815494 9.8938971
1.2827253 0.89900368 9.9579678
1.686294 1.1978797 9.9679432
2.220943 1.6002815 8.7983685
4.1109576 2.99681 9.3903399
2.7174008 1.9867707 5.0166121
3.2126966 2.3540189 4.8451004
0.5041135 0.2918312 9.9128628
0.90480053 0.5704329 9.9328756
2.0139778 1.4379209 9.5650234
2.852052 2.0564241 9.6158924
3.770829 2.7348056 9.6953592
3.4134514 2.4837914 6.9752216
3.0158622 2.2001164 5.0179601
7.2323713 5.2856326 9.7893543
5.3456879 3.9340622 6.6022124
5.3955307 3.9750867 5.4861388
4.83076 3.562897 4.0200496
5.4970503 4.0572619 3.6629031
7.9210849 5.8506374 4.0669727
0.33204958 0.24579993 0.13003632
3.6272228 2.661608 4.0881953
4.243422 3.1171618 3.9174354
5.3537889 3.9356756 3.9902992
5.5460844 4.0814996 3.2707214
7.6773052 5.6540256 3.4075844
0.35463625 0.26147324 0.15366848
0.096568421 0.020478532 9.8938971
1.2858555 0.8945207 9.9579678
1.690465 1.1919861 9.9679432
2.2216587 1.5890458 8.7792807
4.1310945 2.9894619 9.4122849
2.7243192 1.9772733 5.0166121
3.2234862 2.3446753 4.8489375
0.50487828 0.28992668 9.9078712
0.9067862 0.56727105 9.9328756
2.0179589 1.4301553 9.5601845
2.8592129 2.0464561 9.6158924
3.8033202 2.7381611 9.7538748
3.4453571 2.4886587 7.0221472
3.0357263 2.1984122 5.03791
7.2590098 5.2663279 9.8003798
5.3709059 3.9237933 6.61623
5.4502158 3.9860988 5.5269384
4.8431673 3.5460126 4.0200496
5.6076589 4.1087389 3.7255106
8.1882067 6.0038753 4.1905928
0.33290556 0.24463935 0.13003632
3.6364915 2.6489303 4.0881953
4.2869368 3.1261458 3.9468672
5.3988338 3.9398336 4.0130978
5.5529685 4.0567613 3.2665253
7.6550622 5.5965352 3.3895056
0.35554677 0.26023373 0.15366848
0.096639313 0.02014132 9.8938971
1.2889701 0.89002675 9.9579678
1.6946155 1.1860781 9.9679432
2.2235405 1.578689 8.7649651
4.1590114 2.9875987 9.451787
2.7312045 1.9677516 5.0166121
3.2394471 2.3390381 4.8604503
0.50588727 0.28816256 9.9078712
0.90876079 0.56410229 9.9328756
2.0229387 1.4231025 9.5601845
2.8649321 2.0354638 9.6111994
3.8287952 2.7362592 9.7943859
3.4900553 2.5024519 7.0946679
5.9231567 4.2578931 9.734169
4.823441 3.4737456 6.5221329
5.4018922 3.9175837 6.6372581
5.5900865 4.0585194 5.6524763
4.8487506 3.5241685 4.0145664
5.6219668 4.0891395 3.7255106
8.3740349 6.0952978 4.2730064
0.33375749 0.24347581 0.13003632
5.1797237 3.7454336 5.7742243
4.3240156 3.1301234 3.9704125
5.5207758 3.9993618 4.0916262
5.8279538 4.2265301 3.4154871
7.6477981 5.550365 3.3780012
0.356453 0.25899106 0.15366848
0.09666577 0.019798176 9.8888969
1.2920692 0.88552201 9.9579678
1.6987454 1.1801555 9.9679432
2.2241566 1.5674785 8.7458763
4.1830649 2.982796 9.4825106
2.7403457 1.9598427 5.0207448
3.2501972 2.3295832 4.8642879
0.50689006 0.28639492 9.9078712
0.91117859 0.5612058 9.9378471
2.027894 1.4160324 9.5601845
2.8691993 2.0234621 9.6018152
3.8560793 2.7354729 9.8393984
3.5306416 2.5129378 7.1586571
5.9428892 4.2406921 9.7421494
4.8300219 3.4529445 6.5147824
5.4010625 3.8882856 6.6197348
3.9022152 2.8123605 3.9608486
4.8610229 3.5072217 4.0145664
8.5605965 6.1854939 4.3554196
0.33460534 0.24230929 0.13003632
5.1957994 3.7295077 5.7775497
4.3775878 3.1456738 4.0086732
5.5312023 3.9775493 4.0890932
5.8426719 4.206161 3.4154871
7.6326427 5.4987931 3.3632095
0.36137137 0.26064199 0.15435916
0.096734293 0.019460628 9.8888969
1.2951523 0.88100648 9.9579678
1.7028545 1.1742185 9.9679432
2.225945 1.5571386 8.7315607
4.2149549 2.9833961 9.5307903
2.7563488 1.9567809 5.0372767
3.2348039 2.3015008 4.8297505
0.50813895 0.2847642 9.9128628
0.91313201 0.55802178 9.9378471
2.0328245 1.4089451 9.5601845
2.8734176 2.0114553 9.5924292
3.8638244 2.7207429 9.834897
3.573473 2.5246758 7.2269115
5.9625735 4.2234054 9.7501287
4.8365154 3.4321392 6.507432
4.0069771 2.8666627 4.0550022
4.8664365 3.4853628 4.0090837
5.8412051 4.1865625 3.8484073
8.6386423 6.1961031 4.3835154
0.33544913 0.24113981 0.13003632
5.2148676 3.7156813 5.7842002
4.3786693 3.1233323 3.9998438
5.464355 3.9006138 4.0308299
5.6763816 4.0564413 3.3126824
7.6517911 5.472116 3.3632095
0.3542259 0.25361356 0.15297781
0.096844934 0.019128229 9.8938971
1.2982197 0.8764801 9.9579678
1.7069429 1.1682673 9.9679432
2.2264621 1.5459541 8.7124729
4.2135854 2.9604039 9.5044556
2.7700632 1.9520103 5.0496755
3.2166362 2.2717054 4.7913752
0.50912988 0.28298876 9.9128628
0.91553038 0.55510688 9.9428186
2.0377305 1.4018407 9.5601845
2.8775868 1.9994437 9.5830431
3.8804357 2.7122276 9.8529024
3.6121583 2.53315 7.2866344
5.9748139 4.2008328 9.7461386
7.3429174 5.1722717 9.8150797
5.0848436 3.6070125 6.2061987
4.0296535 2.8616731 4.0675559
4.875165 3.4659319 4.0063419
5.8413448 4.1558747 3.8391318
8.1428337 5.7975459 4.1269097
0.33628881 0.23996742 0.13003632
5.249145 3.7125473 5.8074794
4.3730507 3.0963502 3.9851279
5.4814544 3.8840079 4.0333629
5.6127706 3.9814599 3.2686234
7.6438923 5.4262395 3.3517051
0.35914555 0.25524414 0.15366848
0.09691111 0.018790061 9.8938971
1.3012713 0.87194324 9.9579678
1.7110106 1.1623019 9.9679432
2.2281575 1.5356319 8.6981564
4.2199645 2.9429381 9.4956779
2.7791662 1.9439418 5.0538087
3.2350447 2.2678227 4.8067255
0.51036781 0.28134844 9.9178543
0.91746253 0.55190772 9.9428186
2.0426111 1.3947191 9.5601845
2.8859694 1.9903663 9.5877361
3.8970339 2.703629 9.8709068
3.6274004 2.5249956 7.2994328
5.9968548 4.1851249 9.7581091
7.3692632 5.1524367 9.8261061
5.0594954 3.5625498 6.1606393
4.0873384 2.8812275 4.1146326
4.8564858 3.4271948 3.9816689
5.6278539 3.9744706 3.6930473
8.0002298 5.654036 4.0463696
0.33712441 0.23879211 0.13003632
5.2590165 3.6920567 5.8041539
4.4036746 3.0950117 4.0027871
5.5337653 3.8921301 4.0612283
5.6711645 3.9931984 3.2938001
7.6164641 5.3668842 3.3319829
0.35194123 0.24827988 0.15228713
0.097019434 0.018456746 9.8988962
1.304307 0.86739558 9.9579678
1.7150573 1.1563222 9.9679432
2.2298081 1.5253168 8.6838408
4.220365 2.9213743 9.473732
2.7882462 1.9358337 5.0579414
3.2560964 2.2656698 4.825913
0.51134676 0.27956522 9.9178543
0.91938347 0.54870182 9.9428186
2.0474672 1.3875806 9.5601845
2.9014435 1.9861284 9.6158924
3.9136198 2.694948 9.8889122
4.8506737 3.3513854 9.7139511
6.0213356 4.17103 9.7740688
7.3816333 5.1228156 9.8187551
5.0982084 3.5632541 6.1921806
4.1069384 2.873637 4.1240482
4.8478708 3.395828 3.9652202
5.59091 3.9192035 3.6605844
8.1793156 5.7378955 4.1250367
0.34202978 0.24047811 0.1304834
4.3912458 3.0634329 3.9821851
5.5049019 3.8431783 4.0308299
5.6367092 3.939579 3.2665253
7.6661086 5.361917 3.3451309
0.097083271 0.018117972 9.8988962
1.3073269 0.86283743 9.9579678
1.7199296 1.1508946 9.9728384
2.2314136 1.5150088 8.6695251
3.5000505 2.3940282 10.04953
4.222641 2.9011998 9.4561758
2.7880354 1.921299 5.0455427
3.2745347 2.2615759 4.8412628
0.51231956 0.27777857 9.9178543
0.9212932 0.54548919 9.9428186
2.0533416 1.3811266 9.5650234
2.9269156 1.988595 9.676899
3.9230032 2.6812701 9.8889122
4.8623428 3.3344326 9.7139511
6.0408244 4.1534004 9.7820482
7.4022622 5.0989408 9.8224306
5.1457782 3.5698295 6.2342353
4.1073532 2.8526225 4.1146326
4.8390961 3.364563 3.9487712
5.6663718 3.9426746 3.7000036
5.539969 3.8575854 2.8157868
0.34286711 0.23928273 0.1304834
5.042069 3.4874594 5.5414391
4.3952661 3.0434835 3.9762986
5.6802588 3.9405746 3.2833097
7.6809001 5.3324323 3.3434875
0.097145922 0.017778978 9.8988962
1.3103307 0.85826868 9.9579678
1.7239364 1.144884 9.9728384
2.2329748 1.5047084 8.6552095
3.5035372 2.3785045 10.035723
4.2248273 2.8810453 9.4386196
2.8109839 1.9226757 5.0744734
3.3273525 2.2809398 4.9065003
0.51354069 0.27612454 9.9228449
0.92319167 0.54227 9.9428186
2.0581503 1.3739507 9.5650234
2.9567323 1.9938017 9.7519827
3.9269333 2.6638937 9.8754082
4.8717961 3.3159721 9.7096853
6.0776858 4.1475749 9.8179588
7.4200158 5.0730715 9.8224306
5.2052045 3.5842059 6.290308
4.1108766 2.8338497 4.108356
4.8267202 3.3310258 3.9295812
5.5038228 3.8039587 2.7914374
7.7291212 5.3459353 2.8522942
0.34779406 0.24092016 0.13093048
5.0572906 3.4719517 5.5447645
4.3925385 3.018965 3.9645259
5.8248119 4.0108094 3.3567414
7.6994672 5.3055882 3.3434875
0.097164012 0.017435139 9.8938971
1.3133186 0.85368955 9.9579678
1.7279223 1.1388594 9.9728384
2.2344909 1.4944153 8.640893
3.4939957 2.3542526 9.985095
4.2249408 2.8595684 9.4166746
2.8409607 1.9286566 5.1158028
3.367095 2.2909474 4.9525504
0.51450139 0.27433026 9.9228449
0.92507893 0.53904414 9.9428186
2.0629334 1.3667582 9.5650234
2.9636738 1.9834688 9.7519827
3.9380143 2.6513858 9.8799095
4.8746972 3.2931068 9.6926222
6.0871377 4.1229553 9.8099794
7.4376788 5.0471396 9.8224306
5.1381869 3.5116835 6.1956849
4.1271682 2.8238783 4.1146326
4.8486681 3.3212461 3.9378054
8.1198683 5.5660791 5.239687
5.5552969 3.8109484 2.8101678
7.7437806 5.3162084 2.850884
0.3527365 0.24252607 0.13137756
5.1712022 3.5236583 5.6545062
4.3963718 2.9990582 3.9586399
5.9549351 4.0698385 3.4217813
7.7413259 5.2946749 3.3533485
0.09722428 0.017095868 9.8938971
1.3162906 0.84910011 9.9579678
1.7318871 1.1328208 9.9728384
2.2359626 1.4841301 8.6265764
3.5070646 2.3452997 9.9989023
4.2269444 2.8394613 9.3991175
2.8663459 1.931307 5.1488662
3.3856964 2.286355 4.9679003
0.51545584 0.27253264 9.9228449
0.92695487 0.53581172 9.9428186
2.0676918 1.3595488 9.5650234
2.9763296 1.9769301 9.7707539
4.8991599 3.2847848 9.7182178
6.0814857 4.088233 9.7780581
7.4524398 5.0192523 9.8187551
5.1504135 3.4937265 6.1956849
4.1692004 2.8313217 4.1460176
4.8533158 3.2995994 3.9323227
8.4395733 5.7420325 5.4298286
5.5685658 3.7915337 2.8101678
7.8177891 5.326961 2.8706243
0.36180782 0.2469074 0.13227172
5.180378 3.5034945 5.6511807
4.4402838 3.0063548 3.9880712
5.7543068 3.898936 4.170155
5.7888193 3.9267354 3.3210747
7.7949238 5.2914896 3.3681402
0.097283371 0.016756387 9.8938971
1.3192465 0.84450012 9.9579678
1.7358309 1.1267685 9.9728384
2.2361434 1.4730321 8.6074896
3.4777896 2.3081968 9.8930435
4.2288594 2.8193753 9.3815613
2.8988013 1.938496 5.1943288
3.3856692 2.2691696 4.956388
0.51640403 0.27073169 9.9228449
0.9288196 0.53257281 9.9428186
2.0724251 1.3523231 9.5650234
2.9932978 1.9731767 9.8036032
3.6100035 2.4022424 7.1629229
6.0781732 4.0552735 9.7501287
7.4755516 4.9969764 9.8261061
5.0797453 3.4199605 6.0975575
4.2145624 2.8406808 4.1805406
4.8752027 3.2896543 3.940547
8.7899714 5.9356513 5.6385207
5.631701 3.8058169 2.8345172
7.8403101 5.3023272 2.8720345
0.36266747 0.24564296 0.13227172
5.1677742 3.4687428 5.6245766
4.4977198 3.0223989 4.0292754
5.8179612 3.912504 4.2056193
7.7898493 5.2484169 3.358279
0.097341262 0.016416702 9.8938971
1.3221864 0.83989 9.9579678
1.7397535 1.1207025 9.9728384
2.2375231 1.4627674 8.593173
3.4727736 2.2874465 9.8562241
4.2306857 2.7993107 9.3640051
2.9172735 1.9361455 5.2149935
3.3828943 2.250237 4.9410381
0.51734591 0.26892745 9.9228449
0.93067294 0.52932733 9.9428186
2.0771329 1.3450806 9.5650234
3.0001674 1.9627162 9.8036032
3.6140144 2.3867519 7.1543908
6.0897789 4.0323682 9.7461386
7.492949 4.9708509 9.8261061
5.0323482 3.3625827 6.0274668
4.2276874 2.8281159 4.1836791
4.851913 3.2493496 3.9131322
8.9467897 5.996182 5.7243161
5.6218505 3.7706413 2.8232789
7.8388562 5.26156 2.8649845
0.37592161 0.25271034 0.13361296
5.2668586 3.5086441 5.7176909
5.8279977 3.8897784 4.2030859
7.6727238 5.1267886 4.3533163
7.8787799 5.2684402 3.3878622
0.097397976 0.016076818 9.8938971
1.3257674 0.83568376 9.9629078
1.7436548 1.1146227 9.9728384
2.2376063 1.4516989 8.5740852
3.4758313 2.2721035 9.8424168
4.2344255 2.780582 9.3508377
2.9287145 1.9290464 5.2232594
3.4228282 2.2596047 4.9870882
0.51802456 0.26698846 9.9178543
0.93251503 0.52607548 9.9428186
2.0818155 1.3378218 9.5650234
3.0098951 1.954111 9.8129883
3.6201425 2.3726928 7.150125
6.1012998 4.0094318 9.7421494
7.3969917 4.8700957 9.6790991
4.984612 3.3055768 5.957376
4.247262 2.8198001 4.1930943
4.8144722 3.1999893 3.8747518
8.7869349 5.8447013 5.6106949
5.5963869 3.725306 2.8045485
7.8571744 5.2341652 2.8649845
0.37680143 0.2513966 0.13361296
5.3569393 3.5417173 5.8008285
5.020925 3.3233345 4.4678063
5.8163829 3.8527477 4.1853538
7.7246146 5.1225491 4.3721991
7.8420391 5.2043505 3.3648531
0.097453505 0.015736736 9.8938971
1.3286765 0.83105087 9.9629078
1.747535 1.1085294 9.9728384
2.2376392 1.4406474 8.5549974
3.4821022 2.2588937 9.8378143
4.2380862 2.7618613 9.3376703
2.949563 1.928049 5.2480569
3.4441001 2.2564254 5.0062752
0.51895332 0.26517859 9.9178543
0.93481106 0.52307695 9.9477901
2.0864725 1.3305469 9.5650234
3.0195992 1.9454616 9.8223743
3.6327751 2.3628855 7.1586571
6.1278777 3.9963398 9.7620983
7.340157 4.7960334 9.5835447
4.9156876 3.2352223 5.8627529
4.2603297 2.8070986 4.1962328
4.7453322 3.1302087 3.811698
8.5928602 5.6724467 5.4762044
5.5668077 3.6776392 2.7839451
7.9274173 5.2410989 2.8833146
5.3692694 3.5229967 5.8008285
5.0966835 3.3479517 4.5237265
5.8153868 3.8229487 4.175221
7.7651958 5.1105247 4.3847871
0.097551301 0.015400184 9.8988962
1.3322296 0.82681745 9.9678469
1.7513938 1.1024227 9.9728384
2.2388806 1.4304171 8.5406809
3.4899659 2.2467251 9.8378143
4.2436781 2.7444496 9.3288918
2.9562752 1.9177414 5.2480569
3.4653916 2.253125 5.0254631
0.51961792 0.26323578 9.9128628
0.93663126 0.51981068 9.9477901
2.0921667 1.3239275 9.5698633
3.0292799 1.9367687 9.8317604
3.6431923 2.3516047 7.1629229
7.2516065 4.7021379 9.4475632
4.9269505 3.2180436 5.8627529
4.2635865 2.7879498 4.1899557
4.7912145 3.1365273 3.8391128
8.612608 5.6424179 5.4762044
5.5292106 3.6251414 2.7595956
7.9617071 5.2239218 2.8889549
5.4691448 3.5612798 5.8939424
5.2539401 3.4250562 4.6502824
8.2224026 5.364255 5.8547187
7.695591 5.0263057 4.3365321
9.5501709 6.2423463 4.0600572
0.097604461 0.015059573 9.8988962
1.3351076 0.82216197 9.9678469
1.7552313 1.0963025 9.9728384
2.2400777 1.4201957 8.5263653
3.4977872 2.2345293 9.8378143
4.2512169 2.7283263 9.3245029
2.9629512 1.9074104 5.2480569
3.5055554 2.2618673 5.0715127
0.52053362 0.26142037 9.9128628
0.93843997 0.51653808 9.9477901
2.0967751 1.3166165 9.5698633
3.0360222 1.9261825 9.8317604
3.6030633 2.3079269 7.0690727
3.2120259 2.0629771 5.1296806
7.2081065 4.6382723 9.3703852
5.5728045 3.6163187 5.4390612
4.9844689 3.2382388 3.9816689
9.4864454 6.167676 6.0095286
5.5418315 3.6058185 2.7595956
8.092453 5.2693911 2.928436
5.4094138 3.4955587 5.8174553
5.2998013 3.4286513 4.6797142
8.2157469 5.3191214 5.8369865
7.7168975 5.0018811 4.3386302
9.484746 6.1524367 4.0239005
0.097656436 0.014718778 9.8988962
1.3379693 0.8174966 9.9678469
1.7590474 1.090169 9.9728384
2.241231 1.4099835 8.5120497
3.507216 2.223352 9.8424168
4.2607145 2.7134705 9.3245029
2.9648485 1.8940266 5.2397914
3.5026317 2.2427034 5.0561628
0.52144301 0.25960177 9.9128628
0.94023734 0.51325917 9.9477901
2.1013584 1.3092893 9.5698633
3.0617125 1.9275241 9.892766
3.562674 2.2645578 6.9752216
3.2141252 2.0485134 5.1217003
7.2242532 4.6130834 9.3703852
5.5297618 3.5610189 5.3857074
4.9957423 3.2208202 3.9816689
9.6009741 6.1945639 6.0674987
5.5427008 3.5789082 2.7539766
8.2155523 5.3088021 2.9650967
5.3178616 3.4101441 5.7077141
5.2573152 3.3751922 4.6326237
0.097707219 0.014377804 9.8988962
1.3401502 0.81241858 9.9629078
1.7628421 1.084022 9.9728384
2.2423401 1.3997804 8.4977331
3.5166087 2.212136 9.8470182
4.2701607 2.698581 9.3245029
2.9595582 1.8761328 5.2191262
3.5077338 2.2287447 5.0523257
0.52234602 0.25778002 9.9128628
0.94202322 0.50997394 9.9477901
2.1069849 1.3026071 9.5747023
3.0801308 1.9241387 9.9303083
3.5749691 2.2548904 6.9837537
3.223803 2.0388923 5.1256905
7.2574935 4.5987248 9.392436
5.4536033 3.485105 5.3009696
4.904809 3.1380119 3.9021664
9.6710367 6.1920648 6.0976429
8.2865305 5.3137555 2.9834273
5.3549333 3.4075961 5.7343178
5.2452011 3.3416173 4.6120214
8.7288504 5.5652227 6.1688328
7.9008274 5.043119 4.420454
0.09775681 0.014036654 9.8988962
1.342978 0.80773574 9.9629078
1.7666153 1.077862 9.9728384
2.2434053 1.3895869 8.4834175
3.5259664 2.2008815 9.8516207
4.2815828 2.6849313 9.3288918
2.954179 1.8582993 5.1984615
3.5127807 2.2147772 5.0484881
0.52324265 0.25595513 9.9128628
0.94379759 0.50668257 9.9477901
2.1115191 1.2952445 9.5747023
3.0941629 1.9179208 9.9537725
4.0355358 2.5169437 9.8979139
3.5894511 2.2465489 6.9965515
3.228348 2.0260248 5.1217003
7.293592 4.5859957 9.4181623
4.0133457 2.5421107 4.7483072
5.5906458 3.5452564 5.4202309
4.9122028 3.1186311 3.899425
9.6925926 6.1582685 6.0976429
8.0790968 5.1370783 3.9564636
8.3009806 5.2822223 2.982017
5.3888946 3.4028378 5.7575965
5.2705002 3.3319278 4.6237941
8.813797 5.5762053 6.2144303
7.9145489 5.0130806 4.4183559
5.6400371 3.5751634 2.4132614
0.097805217 0.013695334 9.8988962
1.3457892 0.80304295 9.9629078
1.770367 1.0716888 9.9728384
2.244427 1.379403 8.469101
3.5369496 2.1906176 9.8608265
4.2827954 2.6649084 9.3113365
2.9558733 1.8449961 5.190196
3.5177732 2.2008021 5.0446506
0.52439302 0.25425228 9.9178543
0.94556057 0.50338507 9.9477901
2.1160274 1.287866 9.5747023
3.1272979 1.9233798 10.038241
4.0535531 2.5085695 9.9204206
3.6127803 2.2436366 7.026413
3.2354007 2.0147436 5.1217003
7.2894216 4.5479465 9.392436
4.0523891 2.5470634 4.7833529
5.6161647 3.5340121 5.432785
5.6661301 3.5750935 2.7951834
8.2990885 5.2404084 2.974967
5.4007401 3.3840065 5.7575965
5.2820983 3.3135099 4.6237941
8.6543093 5.4330959 6.0903044
7.6745491 4.8236079 4.2777863
5.6604767 3.560483 2.4165485
0.097852424 0.013353846 9.8988962
1.3485842 0.79834032 9.9629078
1.7740971 1.0655025 9.9728384
2.2441304 1.368452 8.4500141
3.5479038 2.1803036 9.8700314
4.2879958 2.6474264 9.3025579
2.9718649 1.8405933 5.2067275
3.5227106 2.1868188 5.040813
0.52527732 0.25242025 9.9178543
0.94731194 0.50008136 9.9477901
2.1205101 1.2804718 9.5747023
3.1369388 1.9142495 10.047627
4.06043 2.4932656 9.9159193
3.6383526 2.2419567 7.0605407
3.214216 1.9860154 5.0778103
7.2966051 4.5171204 9.3814106
4.076385 2.5423379 4.8008757
5.6185613 3.5082021 5.4233694
7.508009 4.693397 5.8897295
8.3132639 5.2088604 2.973557
5.3966651 3.3552768 5.7409692
5.3073587 3.3035955 4.6355667
8.596385 5.3549891 6.0371075
7.745254 4.8304133 4.3071594
5.6247988 3.510699 2.3968263
0.097898439 0.013012196 9.8988962
1.3520328 0.79402131 9.9678469
1.7786802 1.0598243 9.9777336
2.2450616 1.3582923 8.4356976
3.5571609 2.1689229 9.8746338
4.2829151 2.6236849 9.2718344
2.9878623 1.8361013 5.2232594
3.5330517 2.1761899 5.0446506
0.52641618 0.25070852 9.9228449
0.9490518 0.49677154 9.9477901
2.1260452 1.273708 9.5795422
3.1406491 1.9015005 10.038241
4.0728264 2.4813421 9.924921
3.6483817 2.2306035 7.0648065
6.2473483 3.8299809 9.7780581
7.3007731 4.4845252 9.3667097
4.0700722 2.5187101 4.7833529
5.6241555 3.4844682 5.4170923
7.5172396 4.6627526 5.8842463
8.3301306 5.1709814 5.2188182
5.6161304 3.4889684 2.7595956
5.263835 3.2510657 4.5884762
7.6926003 4.7603598 4.2693944
5.6570926 3.503475 2.4050438
0.097943261 0.012670388 9.8988962
1.3547963 0.78929704 9.9678469
1.7823689 1.053609 9.9777336
2.2459495 1.3481429 8.421381
3.5680535 2.1585155 9.8838396
4.2961407 2.6112068 9.2806129
3.0158772 1.8388445 5.2604561
3.5460963 2.167187 5.0523257
0.52728814 0.24886946 9.9228449
0.95078003 0.49345571 9.9477901
2.1304781 1.266279 9.5795422
3.1339538 1.8825295 9.996007
4.0833263 2.4682362 9.9294224
3.649456 2.2137966 7.0520086
6.2503824 3.8018866 9.7620983
3.9582951 2.4124441 5.1035194
4.0727611 2.5007558 4.7763438
4.2734499 2.6270494 4.1271868
7.5441532 4.6430588 5.8924708
8.2802391 5.1000562 5.1770797
8.1697674 5.0359387 3.9658289
5.2303476 3.2052164 4.5502148
7.6781173 4.7088904 5.3784809
7.7401114 4.7524767 4.2861786
5.6612411 3.4787619 2.4017568
0.097943336 0.012326073 9.8938971
1.3575431 0.78456312 9.9678469
1.7860359 1.047381 9.9777336
2.2455115 1.3372402 8.4022942
3.5772412 2.1470525 9.8884411
4.315484 2.6023781 9.3025579
3.0102386 1.8210235 5.2397914
3.5783064 2.1697519 5.086863
0.52789181 0.24690583 9.9178543
0.95297098 0.49037731 9.9527626
2.1348853 1.2588345 9.5795422
3.1256816 1.8627448 9.9490795
4.091917 2.4539678 9.9294224
3.621408 2.1795278 6.9837537
6.2661948 3.7816024 9.7660885
3.966692 2.3986125 5.1035194
4.0845113 2.4883795 4.7798486
4.2659793 2.6019824 4.1114941
7.5353336 4.6014423 5.8732805
8.2979908 5.0711217 5.1770797
8.0765591 4.9396634 3.913384
4.5219655 2.746223 4.7932019
5.2380505 3.1848397 4.5472717
7.6834607 4.6753383 5.3708816
7.7527766 4.7230682 4.2840805
5.6733499 3.4589796 2.4017568
0.097985767 0.011984112 9.8938971
1.3602735 0.77981961 9.9678469
1.789681 1.0411402 9.9777336
2.24631 1.3271161 8.3879776
3.5897503 2.1375511 9.9022493
4.3348179 2.5934463 9.3245029
3.0117512 1.8076085 5.2315249
3.6105776 2.1721184 5.1214004
0.52875042 0.24506164 9.9178543
0.95467693 0.48704782 9.9527626
2.1392665 1.2513747 9.5795422
3.1202805 1.8447974 9.9115372
4.1004581 2.4396694 9.9294224
3.602123 2.1508293 6.9325619
6.2741866 3.7566106 9.7581091
3.9488761 2.3690553 5.0704427
4.0718079 2.4611933 4.7553163
8.2644329 5.0012379 7.8713651
7.5549264 4.5772777 5.8760223
8.3535213 5.065093 5.2002678
7.9035139 4.7960014 3.8234785
8.180172 4.9677801 2.9030554
4.5283256 2.7284946 4.7898765
5.2560577 3.1707118 4.5531583
7.7108045 4.6551728 5.3784809
7.7692161 4.6959767 4.2840805
5.6571059 3.4220462 2.3902521
0.09798342 0.011639957 9.8888969
1.3629873 0.77506661 9.9678469
1.7933043 1.0348867 9.9777336
2.2470655 1.3170033 8.373662
3.5938253 2.1230199 9.8930435
4.3520827 2.5831888 9.3420601
3.0107892 1.7927657 5.2191262
3.626395 2.1644299 5.1329131
0.52960265 0.24321446 9.9178543
0.95637125 0.48371243 9.9527626
2.1425343 1.2432688 9.5747023
3.1311667 1.8365133 9.9256153
4.1089492 2.4253411 9.9294224
3.5737062 2.1169758 6.8643074
6.2924428 3.7377641 9.7660885
3.9542084 2.3535228 5.0667677
4.0711989 2.4414628 4.744803
8.1650429 4.9022355 7.7615199
7.5851936 4.5594954 5.8869877
8.5040064 5.1158252 5.281425
5.5530901 3.3432629 2.7071509
8.1933537 4.9367204 2.9016452
4.5089784 2.6954288 4.7599468
5.2774982 3.1585724 4.5619874
7.6493459 4.5817127 5.3252845
8.3110237 4.9839349 4.567318
5.7257023 3.4362981 2.4132614
0.098023452 0.01129786 9.8888969
1.3656845 0.77030414 9.9678469
1.7969059 1.0286206 9.9777336
2.2503586 1.3084012 8.3688898
3.6012139 2.1104624 9.8930435
4.3672647 2.5716267 9.3552275
3.0097599 1.7779515 5.2067275
3.6339278 2.1517584 5.1329131
0.53044844 0.24136433 9.9178543
0.95853066 0.48060957 9.9577341
2.1468611 1.2357824 9.5747023
3.1450164 1.8299112 9.9490795
4.1155109 2.4098833 9.924921
3.5743284 2.1005247 6.8515096
6.3054514 3.7157767 9.7660885
4.0766315 2.4254131 4.7412982
8.2690496 4.9254928 7.8431191
7.5615582 4.5094318 5.856832
8.5256166 5.0883799 5.2837439
5.6642261 3.3832903 2.7539766
8.2393579 4.9253187 2.9115155
4.5183597 2.6796734 4.7599468
5.2815409 3.1360044 4.5561013
7.628233 4.5329618 5.2999525
8.7457161 5.2031884 4.7918096
5.7417197 3.4187064 2.4149048
0.098062292 0.010955625 9.8888969
1.3683649 0.76553231 9.9678469
1.801371 1.0228446 9.9826288
2.2536185 1.2997922 8.3641176
3.6102483 2.098861 9.8976469
4.3906913 2.5648224 9.385951
3.0135198 1.7660121 5.2025948
3.6358893 2.1358135 5.1252379
0.53155118 0.23962912 9.9228449
0.96020252 0.47726074 9.9577341
2.1500702 1.2276578 9.5698633
3.1827719 1.837036 10.047627
4.122016 2.3944097 9.9204206
3.5636137 2.0775273 6.8173819
6.3209853 3.6952651 9.7700787
6.1089034 3.5784233 7.7533131
8.2694378 4.8866978 7.8274269
7.4764881 4.4233932 5.7800708
8.4937735 5.0292487 5.2535996
8.1487284 4.8287787 3.915257
8.5246935 5.0555801 3.0031676
4.5566492 2.6809251 4.7898765
8.252758 4.8613014 7.0577879
9.9612627 5.8723636 6.8806562
8.7677336 5.1749353 4.7939076
0.09809994 0.010613258 9.8888969
1.3710289 0.76075119 9.9678469
1.8049304 1.0165504 9.9826288
2.2568462 1.2911766 8.3593464
5.8921733 3.3979118 16.083439
4.4141226 2.5578856 9.4166746
3.019666 1.7554821 5.2025948
3.6350148 2.1182678 5.1137257
0.5323844 0.2377722 9.9228449
0.96138412 0.47367099 9.9527626
2.1543424 1.2201452 9.5698633
3.2221127 1.8447766 10.150868
4.1284628 2.3789198 9.9159193
3.5505247 2.0533249 6.7789888
6.3338456 3.6731782 9.7700787
6.1535997 3.5758131 7.7937393
4.3027353 2.5194273 4.9796076
8.2965193 4.863708 7.8368425
7.5856433 4.4522991 5.8513489
8.5074577 4.9973254 5.2512808
8.0896006 4.7556658 3.8796694
8.4802713 4.9893045 2.982017
4.5692048 2.6668856 4.7932019
7.993979 4.6713591 6.8252778
9.9556532 5.8223233 6.8629241
8.7896605 5.1465921 4.7960057
8.0918064 4.7417698 3.3533485
0.098179996 0.010272199 9.8938971
1.3736761 0.75596076 9.9678469
1.8084679 1.0102439 9.9826288
2.2613394 1.2832909 8.3593464
5.8989115 3.3744137 16.069632
4.4687052 2.5687191 9.5132332
3.0233374 1.743525 5.1984615
3.6423867 2.1055663 5.1137257
0.53321117 0.23591237 9.9228449
0.96303171 0.47031224 9.9527626
2.1574924 1.2120022 9.5650234
3.234535 1.8369266 10.169639
4.1348515 2.363414 9.911418
3.5440969 2.0331326 6.7533932
6.3492408 3.6525488 9.7740688
4.0366149 2.3268657 5.1292453
4.3115034 2.5043926 4.9796076
8.2326937 4.7877564 7.7615199
7.5469356 4.3942337 5.8102269
8.528677 4.9698286 5.2535996
5.7353868 3.3448095 2.770834
8.2739115 4.8290958 2.9058752
4.5687919 2.6453071 4.7832251
7.1919503 4.1690826 6.1365781
8.8585901 5.1455131 4.8232803
0.098215252 0.0099294242 9.8938971
1.3763064 0.75116116 9.9678469
1.8119832 1.003925 9.9826288
2.2658052 1.2753894 8.3593464
5.9072561 3.3518739 16.060427
4.5192566 2.5768301 9.6010151
3.0342906 1.7357554 5.2067275
3.6441531 2.0896504 5.1060505
0.53403139 0.23404969 9.9228449
0.96418744 0.46671602 9.9477901
2.1606116 1.2038519 9.5601845
3.2409272 1.8256247 10.169639
4.1411824 2.3478928 9.9069166
3.5443721 2.0168798 6.7405953
6.3619514 3.6303637 9.7740688
4.2985897 2.4768648 4.9550757
8.4381599 4.867908 7.937273
7.2363505 4.1796417 5.5634947
5.7590656 3.331733 2.776453
8.1827803 4.7376919 2.8692145
4.5488577 2.612607 4.7532954
7.139884 4.10567 6.0806584
9.2002325 5.2946887 6.3233571
9.8084898 5.6515617 5.320519
8.3456135 4.8125458 3.4420979
0.098249316 0.0095865289 9.8938971
1.3796035 0.74672204 9.9727859
1.8163689 0.99808401 9.987524
2.2702434 1.2674725 8.3593464
4.5469861 2.57165 9.6405172
3.0305409 1.7195985 5.190196
3.6597836 2.0816712 5.1175632
0.53484511 0.23218414 9.9228449
0.96581072 0.46334749 9.9477901
2.1637006 1.1956948 9.5553446
3.2518001 1.8168255 10.183718
4.1474552 2.3323557 9.9024153
3.5491192 2.0032132 6.7363296
6.3772068 3.6096182 9.7780581
6.2113504 3.5228853 7.8194661
4.2979207 2.4565358 4.944562
8.4145622 4.8152261 7.8996115
7.0767455 4.0545793 5.4319043
9.2779398 5.3200192 5.6848965
5.7545772 3.3023803 2.768961
8.286624 4.7592707 2.8988252
7.3901711 4.2102184 7.6564574
7.1155505 4.0586929 6.0482836
9.5219021 5.4356489 6.5285444
10.068518 5.7546659 5.4484997
8.3787575 4.7927637 3.4486721
8.8923035 5.0906291 2.5619981
0.098325796 0.0092444988 9.8988962
1.3822017 0.74190176 9.9727859
1.8198417 0.9917376 9.987524
2.27596 1.2602632 8.3641176
3.6292694 2.0260115 9.8516207
4.5663791 2.561621 9.6624622
3.0267158 1.7034889 5.1736641
3.7144849 2.0956571 5.1828008
0.53565234 0.23031576 9.9228449
0.96742219 0.45997339 9.9477901
2.1667588 1.1875308 9.5505047
3.258122 1.8054636 10.183718
4.1517692 2.3157437 9.8934135
5.1718478 2.8953102 9.7651434
6.392396 3.5888109 9.7820482
6.3033862 3.546061 7.918695
4.3126736 2.4450357 4.951571
5.1173882 2.9047787 4.8270626
9.6901474 5.5070558 7.3920527
9.250247 5.2613201 5.6570711
5.7539825 3.2753928 2.7633419
8.2823458 4.7184429 2.8917751
7.3853188 4.1733756 7.6365047
8.1252632 4.5971079 6.8811979
9.6496029 5.4639759 6.6020064
10.005632 5.6724811 5.4044409
8.3790073 4.7541656 3.4420979
8.9015656 5.0547576 2.5596535
0.098357461 0.0089012207 9.8988962
1.384783 0.73707247 9.9727859
1.8232925 0.98537916 9.987524
2.280345 1.252311 8.3641176
3.6363194 2.0133305 9.8516207
4.5815716 2.5491588 9.6756296
4.1580143 2.321089 7.0665541
3.9567342 2.2141528 5.5051508
0.53645307 0.22844459 9.9228449
0.96902192 0.45659363 9.9477901
2.1686823 1.1787599 9.5408268
3.2674294 1.7957418 10.193104
4.1579223 2.3001835 9.8889122
5.1910439 2.8823035 9.7822065
6.4048843 3.5664754 9.7820482
4.5838356 2.5577013 5.768724
4.3211823 2.4299667 4.951571
7.9493923 4.4756575 7.4382586
9.490757 5.349998 7.2275643
