# .PCD v0.7 - Point Cloud Data file format
VERSION 0.7
FIELDS x y z
SIZE 4 4 4
TYPE F F F
COUNT 1 1 1
WIDTH 1587
HEIGHT 1
VIEWPOINT 0 0 0 1 0 0 0
POINTS 1587
DATA ascii
0.33720094 16.658356 27.323727
0.49108952 25.815578 34.264839
0.23896593 16.111021 15.913792
0.16006368 12.229329 5.0297112
0.18898763 15.251365 2.9872577
0.57710755 37.574619 22.16839
0.20524779 15.076081 0.7018857
0.080029763 0.1569107 18.778559
0.15829676 3.8024166 24.192909
0.17790256 5.0527482 24.33054
0.21824494 7.6766701 24.598406
0.26275882 10.531888 24.878862
0.31368297 13.722472 25.221748
0.52635103 24.519236 36.092255
0.17863281 8.7503901 10.555307
0.18012415 1.3811507 23.924448
0.23443836 2.5733609 24.056919
0.13512065 4.1240597 15.924027
0.25487956 9.0743799 24.740679
0.30530974 12.066768 25.021992
0.39553308 16.664898 27.336525
0.58133537 25.819731 34.272816
0.61335206 28.339634 30.807621
0.30088797 16.420301 16.218687
0.20328909 12.261145 5.0428228
0.29149494 17.958176 5.3692026
0.24222368 15.250612 2.9872577
0.38673404 19.609482 17.54982
0.25676107 15.010336 0.69926578
0.080598496 0.15666838 18.783558
0.17149849 3.8002887 24.183031
0.19553888 5.0520964 24.33054
0.24508788 7.6773539 24.60318
0.29957595 10.53286 24.883467
0.36158144 13.721293 25.221748
0.61200619 24.520063 36.096386
0.20963606 8.7689381 10.578332
0.18498285 1.3807997 23.92944
0.24336918 2.5719962 24.051947
0.14951548 4.1235628 15.924027
0.28660801 9.0751591 24.745371
0.3474288 12.065628 25.021992
0.45249504 16.619097 27.264004
0.67161626 25.823568 34.2808
0.7124424 28.344097 30.81497
0.36209351 16.59742 16.393913
0.24757591 12.334519 5.0727916
0.35493568 17.995417 5.3804827
0.2954568 15.249674 2.9872577
0.45466161 19.585617 17.529867
0.32238269 15.263966 3.7730021
0.30884668 14.994364 0.69866121
0.08118812 0.15646186 18.793556
0.18468729 3.7981145 24.173153
0.21317276 5.051383 24.33054
0.27188534 7.6764517 24.60318
0.33640304 10.533702 24.888067
0.40961841 13.724735 25.230526
0.69767344 24.520588 36.100517
0.24015626 8.7649488 10.574494
0.18984129 1.3804313 23.934431
0.25224105 2.57007 24.042004
0.16385849 4.1217599 15.919188
0.31828445 9.0741034 24.745371
0.38954356 12.064342 25.021992
0.50810069 16.539209 27.136026
0.76184201 25.824078 34.284786
0.81176561 28.354994 30.82967
0.42201242 16.674486 16.471014
0.29215899 12.398464 5.0990138
0.41863999 18.032433 5.3917632
0.34879857 15.25346 2.9881902
0.52093178 19.505527 17.460032
0.3750639 15.238452 3.7671406
0.38642627 15.812052 2.2982302
0.36022237 14.953238 0.69704896
0.081755541 0.15621534 18.798557
0.19790351 3.7966704 24.168213
0.23080409 5.0506082 24.33054
0.2986795 7.6754556 24.60318
0.37337804 10.538321 24.901875
0.45744437 13.720828 25.226137
0.7833519 24.520817 36.104652
0.27124521 8.780076 10.593681
0.19478075 1.3806177 23.949406
0.26115659 2.5686438 24.037033
0.17819069 4.1199064 15.914348
0.3500236 9.0746613 24.750063
0.43212089 12.075962 25.049
0.56368941 16.474779 27.033644
0.85227841 25.830297 34.296761
0.50776565 15.808099 17.224213
0.48021469 16.672913 16.471014
0.33581212 12.411271 5.1046329
0.48042965 17.987705 5.3790727
0.40217042 15.25706 2.9891229
0.42510855 16.343508 1.5606892
0.59036833 19.548378 17.499939
0.88981146 30.89109 14.373615
0.42825377 15.23705 3.7671406
0.44148001 15.805657 2.2975395
0.40979946 14.857002 0.6932199
0.08232221 0.15596674 18.803556
0.21085249 3.7905262 24.133638
0.24843261 5.0497718 24.33054
0.32547 7.674366 24.60318
0.41000935 10.533049 24.89267
0.50498343 13.709574 25.20858
0.86943913 24.531996 36.125317
0.93258297 27.115023 32.559555
0.19934878 1.3782154 23.919456
0.26967326 2.5634756 23.997259
0.19251204 4.1180043 15.90951
0.38148025 9.0682125 24.735985
0.47341654 12.052628 25.003988
0.61903125 16.415377 26.939795
0.94265753 25.833185 34.304737
0.56354654 15.82317 17.242588
0.53806567 16.66044 16.460501
0.38196495 12.502699 5.1420937
0.54278105 17.971533 5.3748431
0.45557162 15.260474 2.9900556
0.48156795 16.322014 1.558901
0.66224796 19.654415 17.596376
0.99324059 30.751715 14.310675
0.4137837 12.951586 4.5991282
0.48128486 15.230604 3.7659683
0.49618268 15.78917 2.2954674
0.46165755 14.855481 0.6932199
0.082888164 0.15571611 18.808558
0.22440423 3.7951965 24.168213
0.26605809 5.0488739 24.33054
0.35239354 7.6761651 24.612722
0.44594574 10.512034 24.846645
0.55158079 13.676618 25.151524
0.95495695 24.525997 36.121185
1.026134 27.082775 32.525017
0.20403044 1.3766547 23.904482
0.27902475 2.5662282 24.032061
0.20682219 4.1160517 15.904669
0.41297472 9.0633774 24.726599
0.51455456 12.029152 24.958975
0.67364299 16.347971 26.833145
1.0322244 25.814684 34.284786
0.63666439 16.278427 17.738735
0.59481496 16.619257 16.421951
0.4265517 12.529089 5.1533318
0.60486388 17.950352 5.3692026
0.50900155 15.2637 2.9909883
0.53968924 16.355076 1.5620304
0.73501378 19.763918 17.696142
1.0944088 30.575705 14.230947
0.45597973 12.865117 4.5695453
0.53444666 15.228831 3.7659683
0.55250394 15.821985 2.300302
0.51040304 14.763906 0.6895923
0.083453365 0.15546341 18.813557
0.23769923 3.7951658 24.173153
0.28368032 5.0479145 24.33054
0.37896514 7.6704159 24.598406
0.48245761 10.506511 24.83744
0.59826893 13.650683 25.107632
1.0393698 24.4944 36.079857
1.1215923 27.101448 32.551884
0.20857263 1.3742219 23.874531
0.28810024 2.5662978 24.042004
0.22118863 4.1153045 15.904669
0.44460928 9.0618801 24.726599
0.55563515 12.00771 24.918465
0.72884017 16.303833 26.764891
1.122721 25.819956 34.296761
0.69550347 16.323524 17.790186
0.6549235 16.670532 16.474518
0.66716206 17.938543 5.3663826
0.56245959 15.26674 2.9919209
0.60004491 16.442671 1.5700779
0.81310594 19.985073 17.895672
1.2038039 30.639723 14.262419
0.50364077 12.934225 4.5941978
0.58760196 15.226872 3.7659683
0.60925043 15.859548 2.3058276
0.56193554 14.762035 0.6895923
0.084017813 0.15520869 18.818558
0.25104812 3.7958636 24.183031
0.30123839 5.0458775 24.325645
0.40510637 7.6571217 24.560232
0.51787525 10.479396 24.777607
0.64466947 13.622195 25.059351
1.1206038 24.397858 35.943466
1.2167618 27.110172 32.56723
0.21336827 1.3734854 23.874531
0.29724118 2.566865 24.056919
0.23548049 4.1132526 15.89983
0.47515106 9.0395937 24.670286
0.5964641 11.983956 24.873453
0.78273267 16.238668 26.662508
1.20959 25.746651 34.204987
0.75404054 16.354864 17.826939
0.71661681 16.750093 16.555122
0.72977519 17.936106 5.3663826
0.61574703 15.264683 2.9919209
0.65982473 16.500191 1.5754429
1.7593617 39.818954 35.580681
0.64075005 15.22473 3.7659683
0.66460687 15.857325 2.3058276
0.084491827 0.15480214 18.803556
0.26440474 3.796514 24.192909
0.31878561 5.0437784 24.320749
0.43141168 7.6482091 24.536371
0.55372912 10.463867 24.74539
0.69112158 13.598335 25.01985
1.2018712 24.315102 35.827744
1.3115416 27.108961 32.571068
0.21838962 1.3741575 23.899488
0.3063896 2.5673997 24.071833
0.24983698 4.1124058 15.89983
0.50583261 9.0223742 24.628052
0.63748145 11.966584 24.841944
0.83388978 16.129051 26.487604
1.2865416 25.486471 33.865837
1.4055778 28.335161 30.833345
0.77442163 16.733242 16.541105
1.0975052 24.644125 10.055059
0.7915324 17.914278 5.3607421
0.66924214 15.267348 2.9928534
0.7154699 16.453007 1.5714192
1.9001235 39.849869 35.613937
0.97680128 21.265678 7.4982786
0.69389033 15.2224 3.7659683
0.71681023 15.78565 2.2961581
0.084964044 0.15439419 18.788557
0.27765542 3.795568 24.192909
0.33632192 5.0416193 24.315855
0.45757046 7.6377163 24.50774
0.58926076 10.444316 24.703966
0.73728502 13.571926 24.97596
1.282277 24.226454 35.703754
1.4064938 27.110622 32.578747
0.22323167 1.3736719 23.904482
0.31534964 2.5663147 24.071833
0.26410973 4.1102538 15.89499
0.53619438 9.0016041 24.576431
0.6783849 11.949072 24.810436
1.3621792 25.235098 33.538654
1.5053762 28.347006 30.851721
1.4738337 29.606495 29.210041
1.1837449 24.644772 10.056931
0.85588795 17.949739 5.3720226
0.7227633 15.269826 2.9937861
0.77219605 16.435486 1.5700779
2.0392139 39.842995 35.613937
1.6134516 32.072395 18.95632
1.0517259 21.276289 7.5032086
0.74702221 15.219885 3.7659683
0.77239192 15.792945 2.2975395
0.82116669 16.911047 0.77665371
0.085434444 0.15398484 18.77356
0.29090273 3.7945757 24.192909
0.35377565 5.038383 24.306063
0.48366123 7.6271343 24.479107
0.62489653 10.428545 24.671749
0.7838257 13.554924 24.949625
1.3671525 24.227451 35.712025
1.5014733 27.111948 32.586418
0.22812058 1.3734536 23.914463
0.32430583 2.5651984 24.071833
0.27845559 4.1093068 15.89499
0.56663471 8.9841776 24.534197
0.71917379 11.931421 24.778927
1.4506036 25.236206 33.546631
1.6045082 28.344967 30.855396
1.5754627 29.569117 29.178499
1.2695255 24.63586 10.055059
0.91951972 17.965805 5.3776627
0.77630985 15.272116 2.9947186
0.8245402 16.333218 1.5611362
2.1782794 39.835632 35.613937
1.7291011 32.135441 18.996849
1.1267364 21.286634 7.5081396
0.80014497 15.217184 3.7659683
0.82751489 15.790153 2.2975395
0.87993252 16.903088 0.77645212
0.0858346 0.1534625 18.743559
0.30408433 3.7927625 24.187971
0.37121087 5.0350866 24.296272
0.50968373 7.6164627 24.450474
0.66067666 10.416552 24.648737
0.82849711 13.509074 24.870621
1.4523872 24.233768 35.728554
1.5962909 27.109741 32.590256
0.23296209 1.3729335 23.919456
0.33325806 2.5640507 24.071833
0.29270864 4.1070561 15.890151
0.59684521 8.9649267 24.487268
0.75957048 11.909284 24.738417
1.0461444 16.817036 27.630873
1.5383186 25.224972 33.538654
1.7026271 28.325657 30.840696
1.6784664 29.559875 29.174994
1.355513 24.631279 10.055059
0.98458385 18.005596 5.3903527
0.82988125 15.274218 2.9956512
0.88235414 16.34516 1.5624776
2.318403 39.84642 35.630566
1.2010338 21.282574 7.5081396
0.85325801 15.214299 3.7659683
0.93892992 16.899912 0.77645212
0.086553246 0.15345891 18.783558
0.31719193 3.7901294 24.178091
0.38854894 5.0307145 24.281588
0.53563762 7.6057038 24.421844
0.69611973 10.400537 24.61652
0.873478 13.472642 24.809174
1.5405331 24.284716 35.811214
1.691311 27.110399 32.597931
0.23775309 1.3721119 23.919456
0.34220624 2.5628717 24.071833
0.30704311 4.1060095 15.890151
0.62789363 8.9593458 24.477884
0.79835981 11.865292 24.652893
1.1053536 16.821091 27.643675
1.6269428 25.228472 33.550625
0.58715618 9.2308617 10.105418
1.7827125 29.571636 29.192518
1.4422965 24.64028 10.060678
1.0457573 17.973316 5.3818932
0.88347679 15.276133 2.9965839
0.93968982 16.346951 1.5629246
2.4579384 39.845539 35.637215
1.2753165 21.27825 7.5081396
0.90636063 15.211227 3.7659683
0.94536573 15.912518 2.3154972
1.0046905 17.01124 0.78108734
0.087111443 0.15319286 18.788557
0.33035246 3.7882254 24.173153
0.40577897 5.0252681 24.262007
0.56163263 7.5963445 24.397984
0.73200822 10.392198 24.602713
0.92246079 13.498184 24.861845
1.6348796 24.422386 36.021996
1.7863553 27.110731 32.605606
0.24254122 1.3712736 23.919456
0.35122281 2.5621893 24.076803
0.32137391 4.1049123 15.890151
0.65865701 8.9502153 24.459112
0.83808124 11.838546 24.603378
1.1642435 16.819731 27.647938
1.7219468 25.324852 33.686283
0.61778516 9.2050791 10.079692
1.8856987 29.561672 29.189013
1.5285854 24.639723 10.062551
1.1070127 17.945618 5.3748431
0.93709582 15.277858 2.9975164
0.99704874 16.348541 1.5633718
2.597739 39.847893 35.64719
1.3495836 21.273668 7.5081396
0.95914614 15.20312 3.764796
0.99903935 15.879466 2.311353
1.0665604 17.04752 0.78269964
0.087692037 0.15296178 18.798557
0.34343323 3.7855015 24.163275
0.42306131 5.0207772 24.247322
0.58756894 7.5868959 24.374123
0.76669413 10.368147 24.552084
0.98450637 13.70271 25.243694
1.7246683 24.481094 36.11705
1.8812003 27.107525 32.609444
0.24737799 1.3707027 23.924448
0.36023885 2.5614758 24.081776
0.33570075 4.103766 15.890151
0.68936437 8.940979 24.44034
0.88004577 11.844233 24.621384
1.2229482 16.815565 27.647938
1.8380607 25.706408 34.200996
0.64991307 9.2028666 10.079692
1.9893557 29.562027 29.196022
1.6151911 24.643488 10.066297
1.1683996 17.922497 5.3692026
0.99073768 15.279396 2.9984491
1.0537893 16.339993 1.5629246
2.7375863 39.849758 35.657166
1.4241499 21.273539 7.5097828
1.0122091 15.199679 3.764796
1.0505247 15.816589 2.3030648
1.1207912 16.96393 0.77947515
0.088225447 0.15265475 18.798557
0.35649905 3.7827325 24.153397
0.44022813 5.0152125 24.227739
0.61344606 7.5773602 24.350264
0.80137199 10.345928 24.506058
1.0380913 13.775614 25.384144
1.8092823 24.463697 36.100517
1.9762778 27.107189 32.617119
0.25216115 1.3698308 23.924448
0.36917791 2.5602026 24.081776
0.35002354 4.1025691 15.890151
0.71973777 8.9281979 24.412186
0.92830962 11.930074 24.805935
1.2814398 16.808594 27.643675
1.9354453 25.801998 34.336658
0.6800279 9.1734943 10.050291
2.0927861 29.55846 29.199526
1.7015226 24.642326 10.068171
1.2296385 17.899164 5.3635626
1.0444016 15.280746 2.9993818
1.1118336 16.35112 1.564266
2.8774779 39.851135 35.667145
1.4987314 21.273148 7.511426
1.0655996 15.200902 3.7659683
1.1057285 15.812826 2.3030648
1.1799995 16.959915 0.77947515
0.088781208 0.15238264 18.803556
0.36954966 3.7799182 24.143517
0.45736125 5.0095892 24.208158
0.63926387 7.5677357 24.326405
0.83811194 10.350859 24.524467
1.0882424 13.798168 25.432425
1.8946656 24.457232 36.100517
2.0713761 27.106516 32.624794
0.2569412 1.3689423 23.924448
0.37811244 2.5588982 24.081776
0.36434203 4.1013222 15.890151
0.7500304 8.9153137 24.384027
0.97171259 11.948459 24.850946
1.3401049 16.804018 27.643675
2.0259712 25.801092 34.344639
0.71073294 9.1541643 10.031915
2.1964803 29.558088 29.206535
1.7878655 24.64086 10.070043
1.2917653 17.889978 5.3621526
1.0980872 15.281907 3.0003145
1.1813345 16.520994 1.5799137
3.017694 39.855736 35.680447
1.5733278 21.272497 7.5130701
1.1186541 15.19709 3.7659683
1.1609188 15.80887 2.3030648
1.2362801 16.915831 0.77786285
0.089312591 0.1520718 18.803556
0.38258502 3.7770588 24.133638
0.47436434 5.0028944 24.183683
0.66502196 7.5580235 24.302544
0.87933749 10.408217 24.667147
1.1360072 13.789513 25.423645
1.9832057 24.489738 36.158379
2.1662383 27.102316 32.628632
0.26171812 1.3680371 23.924448
0.38704231 2.5575628 24.081776
0.37854049 4.098774 15.885313
0.77948838 8.8937302 24.332407
1.018384 12.003561 24.972481
1.3985373 16.796638 27.639408
2.1147895 25.778849 34.324688
0.74103719 9.1313543 10.009864
2.3001971 29.557352 29.213543
1.8742191 24.639093 10.071917
1.3538429 17.880577 5.3607421
1.1517934 15.282879 3.0012472
1.2393687 16.521734 1.5803607
3.157388 39.852406 35.687099
2.4975612 31.877317 18.875257
2.4178436 31.068661 14.493204
1.6483026 21.276291 7.5163569
1.1716951 15.193093 3.7659683
1.2168548 15.814596 2.3044462
1.296846 16.931337 0.778669
0.089842878 0.15175912 18.803556
0.39552385 3.7733827 24.11882
0.4914259 4.9971542 24.164101
0.69072002 7.5482235 24.278685
0.91977459 10.451792 24.777607
1.1835197 13.778304 25.410479
2.0691528 24.488276 36.166645
2.2613628 27.100977 32.636307
0.26649189 1.3671151 23.924448
0.39596757 2.5561962 24.081776
0.39284557 4.0974278 15.885313
0.81084186 8.894393 24.341793
1.0606612 12.00427 24.981482
1.4569346 16.789057 27.635139
2.204248 25.765305 34.316708
0.77147686 9.1118212 9.9914885
2.4039361 29.556253 29.220554
2.9845948 37.176754 24.537182
1.9609493 24.641642 10.075662
1.4158707 17.87096 5.3593326
1.2055198 15.283662 3.0021796
1.2982025 16.532204 1.581702
3.2983272 39.863468 35.70705
2.5174487 30.951466 14.442851
1.7229418 21.275116 7.5180006
1.2251124 15.193756 3.7671406
1.273242 15.82506 2.3065181
1.3563384 16.931686 0.77887046
0.090372071 0.15144458 18.803556
0.40852544 3.7704339 24.108942
0.50845319 4.9913564 24.14452
0.71649891 7.5398221 24.259596
0.95625252 10.448517 24.777607
1.232461 13.783631 25.428034
2.1538804 24.472494 36.154247
2.3562269 27.096111 32.640144
0.27131897 1.3664597 23.92944
0.40480426 2.5542719 24.076803
0.40702143 4.0947804 15.880472
0.84220958 8.8949442 24.351179
1.5152957 16.781269 27.630873
2.2923007 25.736443 34.288776
0.80178916 9.0921869 9.9731121
2.507695 29.554787 29.227562
3.101429 37.01194 24.435749
2.0469527 24.634645 10.075662
1.4782435 17.86591 5.3593326
1.2596692 15.289152 3.0040448
1.3534596 16.497791 1.5790195
3.4358521 39.833115 35.690426
2.5883932 30.317135 17.965847
2.6235554 30.919878 14.43236
1.797593 21.273678 7.5196443
1.2781411 15.189386 3.7671406
1.3259878 15.790911 2.3023741
1.4158491 16.931828 0.77907205
0.090924121 0.15116468 18.808558
0.42142481 3.7666683 24.094126
0.52555293 4.9865141 24.129835
0.74193484 7.5283623 24.230965
0.99401295 10.45873 24.809824
1.2807889 13.78163 25.432425
2.2390354 24.462023 36.150116
2.4510844 27.090916 32.643982
0.27620226 1.3660703 23.939423
0.41354683 2.551791 24.06686
0.42131239 4.0933347 15.880472
0.8756153 8.9159937 24.416878
1.5733769 16.770685 27.622343
2.3840685 25.749289 34.316708
0.83259308 9.0792046 9.9620867
2.6114731 29.552959 29.234573
3.2124205 36.79261 24.298676
2.1357317 24.659683 10.088774
1.540598 17.860641 5.3593326
1.3134511 15.289557 3.0049775
1.4017001 16.383804 1.5691837
3.5758762 39.832031 35.700401
2.7314699 30.91053 14.43236
1.872255 21.271975 7.5212874
1.3311542 15.184832 3.7671406
1.3849845 15.830584 2.3085902
1.4736427 16.911854 0.77846748
0.091424897 0.15086234 18.808558
0.43364608 3.7629344 24.079306
0.54164529 4.9806943 24.110254
0.76527995 7.5230241 24.22142
1.0270561 10.4575 24.814428
1.3221316 13.782537 25.441202
2.3113408 24.452469 36.145981
2.5270245 27.087156 32.64782
0.27989423 1.3659078 23.949406
0.41969407 2.5502472 24.06189
0.43131304 4.0922928 15.880472
0.89808655 8.936306 24.477884
1.1811821 12.091443 25.184036
1.6082487 16.764755 27.618076
2.4377084 25.741238 34.312717
0.84939021 9.0708389 9.9547367
2.7097855 29.547686 29.238075
2.2088888 24.653238 10.088774
1.5904683 17.85627 5.3593326
1.3596801 15.295378 3.0068429
1.4448167 16.350063 1.5665014
2.8758497 31.178854 27.968613
2.482687 27.227943 16.152092
2.8110955 30.948963 14.453341
1.9209396 21.272377 7.5229316
1.3656039 15.181773 3.7671406
1.4221145 15.87204 2.3148062
1.5099474 16.918678 0.77887046
0.091738522 0.15072286 18.813557
0.4405075 3.7590082 24.059551
0.5508703 4.9766092 24.095568
0.77925986 7.517087 24.207104
1.0477153 10.461342 24.828236
1.348823 13.782356 25.445591
2.3585522 24.450788 36.150116
2.5793271 27.085443 32.651657
0.2828103 1.3667812 23.974365
0.42450157 2.5489109 24.056919
0.43916887 4.0914574 15.880472
0.91541725 8.9362812 24.482576
1.2022355 12.067491 25.139025
1.640178 16.759045 27.613813
2.4882827 25.748507 34.328678
0.86615819 9.0624418 9.9473858
2.7671731 29.549534 29.245087
2.8752916 31.113258 20.57028
2.2557929 24.644333 10.0869
1.6251816 17.857958 5.3607421
1.3894869 15.297631 3.0077753
1.476204 16.34726 1.5665014
2.9353533 31.169556 27.965286
2.5221663 27.085777 16.07103
2.8759584 31.00226 14.480616
1.9622097 21.273352 7.5245748
1.3947483 15.179124 3.7671406
1.461612 15.967909 2.32862
1.5424262 16.915749 0.77887046
0.092264079 0.15040173 18.813557
0.45334658 3.7551334 24.044731
0.56800735 4.9726334 24.085777
0.80792189 7.524569 24.240507
1.0864546 10.461317 24.83744
1.4017334 13.777076 25.445591
2.4532616 24.449953 36.162514
2.6886678 27.081253 32.659332
0.28847292 1.3653021 23.969372
0.43543908 2.5459838 24.046976
0.45701697 4.0895023 15.880472
0.95761234 8.9474783 24.524811
1.2572092 12.064076 25.143524
1.7191346 16.751129 27.613813
2.6074638 25.715509 34.300747
0.91009605 9.0547276 9.9437103
2.8709931 29.546793 29.252094
2.9949088 31.160788 20.608662
2.372859 24.870853 10.182425
1.6977625 17.860842 5.3635626
1.4486784 15.297073 3.008708
1.5432173 16.356075 1.5678425
3.0786536 31.230766 28.031796
2.6450512 27.074053 16.07103
3.0160317 31.039106 14.503695
2.0591793 21.268927 7.5262179
1.4636143 15.172637 3.7671406
1.5335201 15.92634 2.3237851
1.6249852 16.938133 0.78007972
0.092812933 0.15011492 18.818558
0.46606809 3.7504439 24.024977
0.58500415 4.9675865 24.071093
0.83517009 7.5306053 24.26914
1.1235906 10.463288 24.851248
1.4498158 13.772099 25.445591
2.541791 24.472029 36.207977
2.783838 27.078077 32.667007
0.29311493 1.3637224 23.959389
0.4442316 2.5439229 24.042004
0.47128925 4.087882 15.880472
0.98902863 8.945796 24.529505
1.321702 12.267398 25.575644
1.777321 16.742432 27.609547
2.6984696 25.718241 34.316708
0.94099575 9.0447521 9.9363604
2.9748278 29.543688 29.259104
3.1173427 31.287447 20.699129
2.4797423 25.065409 10.264838
1.760569 17.859583 5.3649726
1.5025465 15.296813 3.0096407
1.614854 16.499277 1.5812548
3.1914434 31.256977 28.065052
2.7338972 27.0089 16.038097
3.126179 31.046453 14.512087
2.1343522 21.271008 7.5295048
1.5170515 15.172273 3.7683129
1.5895959 15.925817 2.324476
1.7122846 17.215727 0.79156697
0.093336366 0.14979002 18.818558
0.47876233 3.7457111 24.005219
0.60209537 4.9634924 24.061302
0.86247021 7.5365415 24.297771
1.1603229 10.461245 24.85585
1.4978806 13.766953 25.445591
2.6311052 24.49938 36.261703
2.8793578 27.077757 32.678516
0.29774943 1.3621271 23.949406
0.45301515 2.5418322 24.037033
0.48555571 4.0862117 15.880472
1.0202492 8.9422894 24.529505
1.3618667 12.238911 25.526129
1.8357521 16.736126 27.609547
2.7927752 25.750603 34.372566
0.97219944 9.0380421 9.9326849
3.0790455 29.543766 29.269617
3.2449884 31.455229 20.817011
2.5724194 25.10733 10.285442
1.8233871 17.858101 5.3663826
1.5564305 15.296362 3.0105731
1.6875092 16.642176 1.5946672
3.3126903 31.36075 28.168142
2.8286083 27.003477 16.04063
3.2378256 31.06695 14.526773
2.2095647 21.272821 7.5327921
1.5700033 15.166885 3.7683129
1.6395782 15.865988 2.3168786
1.7733918 17.219585 0.79197001
0.093858667 0.14946331 18.818558
0.49142927 3.7409358 23.98546
0.61903888 4.9583297 24.046618
0.88964713 7.5408978 24.321632
1.1972767 10.461012 24.865055
1.5456598 13.759262 25.441202
1.4585068 13.148746 19.502598
2.9749095 27.077099 32.690029
0.30243939 1.3607978 23.944414
0.46178943 2.539711 24.032061
0.4998163 4.0844922 15.880472
1.0516591 8.9403877 24.534197
1.4045802 12.234082 25.526129
1.894161 16.729616 27.609547
2.887675 25.785614 34.432419
1.0037422 9.0345926 9.9326849
3.1836817 29.547022 29.283636
3.3858206 31.73476 21.008915
2.6668465 25.07892 13.288241
2.6615105 25.112026 10.29106
1.8867202 17.861166 5.3692026
1.6108439 15.300606 3.0124383
1.7455908 16.636185 1.5946672
3.4237602 31.363844 28.181444
3.2490902 30.006321 17.821455
3.3520839 31.109606 14.551949
2.2853198 21.279064 7.5377221
1.6234533 15.166143 3.7694852
1.6896886 15.810927 2.3099716
1.8334886 17.213291 0.79197001
0.09437982 0.14913477 18.818558
0.50417268 3.7368877 23.970644
0.63595366 4.9531083 24.031931
0.91668469 7.543673 24.340719
1.2342433 10.46065 24.874262
1.5936791 13.753782 25.441202
1.5050358 13.149166 19.510864
3.0704918 27.076107 32.701546
0.30718762 1.3597338 23.944414
0.47055441 2.5375595 24.02709
0.51407081 4.0827227 15.880472
1.0828606 8.9366627 24.534197
1.4439502 12.201 25.467613
1.9525466 16.722902 27.609547
2.9780121 25.778374 34.436409
1.0368172 9.0445061 9.9473858
3.2883787 29.549906 29.297655
2.7606616 25.126703 13.318386
2.749656 25.107191 10.292933
1.9495761 17.85924 5.3706126
1.6647745 15.299773 3.013371
1.8036513 16.62999 1.5946672
3.3643506 30.089046 17.877186
3.4576447 31.07065 14.539361
2.3611457 21.28504 7.5426531
1.6769173 15.165215 3.7706575
1.7464991 15.8197 2.3120437
1.8941097 17.211752 0.7921716
0.094874896 0.14876857 18.813557
0.51689374 3.732796 23.955824
0.65283966 4.9478302 24.017244
0.94375259 7.5463519 24.359808
1.2712216 10.460157 24.883467
1.641679 13.748136 25.441202
1.554883 13.177368 19.560459
3.1661031 27.074772 32.713058
0.31193209 1.3586532 23.944414
0.47891307 2.5332828 24.002232
0.528319 4.0809035 15.880472
1.1140487 8.9328279 24.534197
1.4857407 12.189403 25.454109
2.0109086 16.715984 27.609547
3.0694022 25.779789 34.45237
1.0687801 9.044199 9.9510612
3.3935406 29.55596 29.315176
2.8409255 25.129688 10.306046
2.0119047 17.852325 5.3706126
1.7192675 15.303633 3.0152364
1.8627985 16.63349 1.5955614
3.4693604 30.07712 17.877186
2.4365041 21.286049 7.5459404
1.7303947 15.1641 3.7718298
1.8017095 15.813507 2.3120437
1.9553057 17.214962 0.79257458
0.095493764 0.14857945 18.833555
0.52970177 3.7294302 23.945946
0.66969645 4.9424944 24.00256
0.9714216 7.5533752 24.393211
1.3082114 10.459532 24.89267
1.6893666 13.739944 25.436813
1.6042665 13.199795 19.601789
3.2613592 27.06992 32.72073
0.31667277 1.3575561 23.944414
0.48744974 2.5300252 23.987316
0.54239506 4.0777884 15.875633
1.145443 8.9305973 24.538891
1.512023 12.054542 25.184036
2.0689254 16.706274 27.605278
3.160105 25.774899 34.46035
1.1028014 9.060605 9.9731121
3.4958513 29.536852 29.308168
2.3206391 19.844629 10.545101
2.928627 25.119619 10.306046
2.0747626 17.84996 5.3720226
1.7732421 15.302418 3.0161691
1.9214205 16.631836 1.5960085
3.5646586 29.983494 17.829056
2.5124514 21.291483 7.5508709
1.7844527 15.167623 3.7741745
1.85632 15.802202 2.311353
2.0159664 17.212994 0.79277617
0.096087284 0.14835216 18.848555
0.54249269 3.7260211 23.936069
0.68652403 4.9371014 23.987873
0.9969995 7.5440192 24.374123
1.3454618 10.460715 24.906479
1.7373177 13.733963 25.436813
1.6506817 13.196906 19.605921
3.3566201 27.064734 32.728409
0.32140958 1.3564423 23.944414
0.49586663 2.5262165 23.967432
0.55662584 4.07587 15.875633
1.1766096 8.9265442 24.538891
1.5476866 11.999532 25.080509
2.1272285 16.69895 27.605278
3.2508111 25.769691 34.46833
1.1369504 9.0768833 9.995163
3.5963438 29.503227 29.28714
2.3898957 19.836409 10.545101
3.0168457 25.113844 10.307919
2.1364875 17.837845 5.3706126
1.8278116 15.305889 3.018034
1.9806423 16.634918 1.5969027
3.6687748 29.966591 17.826523
2.688864 22.058435 10.360041
2.5878971 21.29196 7.5541577
1.8379716 15.166126 3.7753468
1.9120637 15.800544 2.3120437
2.0772359 17.215773 0.79317921
0.096680395 0.14812255 18.863556
0.55538088 3.723336 23.931129
0.70346594 4.9326587 23.978083
1.0235277 7.5419722 24.378897
1.3824806 10.459829 24.915684
1.7852476 13.727815 25.436813
1.7042769 13.249676 19.692713
3.4518843 27.059208 32.73608
0.32621038 1.3555927 23.949406
0.50426286 2.5223796 23.947546
0.57084984 4.0739026 15.875633
1.2077618 8.9223833 24.538891
1.5967139 12.048007 25.193039
2.1851671 16.688839 27.601011
3.3419075 25.767151 34.480301
1.1712264 9.0930338 10.017215
1.226442 9.7774 9.7633133
2.4247737 19.550991 10.399016
3.1050601 25.107759 10.309791
2.19874 17.830278 5.3706126
1.8818275 15.304291 3.0189667
2.0399091 16.637789 1.5977969
2.7630215 22.026398 10.34955
2.6633763 21.292168 7.557445
1.8915017 15.164441 3.7765193
1.9672064 15.793773 2.3120437
2.1385491 17.218334 0.79358232
0.097349279 0.14799699 18.893553
0.5683744 3.7213745 23.931129
0.72038519 4.9281583 23.968294
1.049848 7.5383534 24.378897
1.419772 10.460747 24.929491
1.8331558 13.721499 25.436813
1.7475667 13.221329 19.659649
3.5471513 27.053352 32.743759
0.33094028 1.3544458 23.949406
0.51285142 2.5195594 23.937603
0.58488816 4.0706406 15.870793
1.2388995 8.9181128 24.538891
1.639347 12.046675 25.202042
2.2430613 16.678524 27.596748
3.432627 25.761301 34.488277
1.2047392 9.1023331 10.031915
1.2445959 9.6492653 9.6406536
2.4924443 19.538013 10.396698
3.1926835 25.096769 10.309791
2.2597587 17.812977 5.3677926
1.936471 15.307376 3.0208321
2.0992198 16.640448 1.5986909
2.8416331 22.030123 10.355844
2.7388883 21.292109 7.5607319
1.9456607 15.167387 3.7788637
2.0525279 16.022583 2.3451962
2.1992722 17.215719 0.79378378
0.097712122 0.14744398 18.863556
0.58124089 3.7186005 23.926189
0.73743236 4.9246063 23.963398
1.0763663 7.5361204 24.383667
1.4570868 10.461532 24.943298
1.8810415 13.715017 25.436813
1.772511 13.058993 19.428204
3.6428466 27.050335 32.755272
0.33566615 1.3532823 23.949406
0.52131814 2.5161881 23.922688
0.59909374 4.068574 15.870793
1.2697784 8.9120245 24.534197
1.682893 12.05166 25.224546
2.3005533 16.665426 27.588215
3.5237548 25.758118 34.500248
1.2782705 9.6448622 9.6406536
2.5283787 19.28323 10.266845
3.2784648 25.071682 10.304172
2.3219235 17.804981 5.3677926
1.9905255 15.305394 3.0217648
2.1585741 16.642895 1.5995851
2.9131482 21.979578 10.336963
2.8144331 21.291782 7.5640192
1.9992282 15.165322 3.780036
2.1155548 16.069326 2.3527939
2.2606535 17.217842 0.79418689
0.098149233 0.14699611 18.848555
0.59397221 3.7150145 23.916311
0.75400054 4.9179764 23.943815
1.1030983 7.5352716 24.393211
1.4941481 10.460251 24.952503
1.9289043 13.708367 25.436813
3.4078922 24.465963 36.352627
3.7372475 27.037455 32.755272
0.34038797 1.3521024 23.949406
0.52998781 2.5138311 23.917715
0.6132921 4.0664582 15.870793
1.3006299 8.9058304 24.529505
1.7206304 12.015543 25.16153
2.3583465 16.654711 27.583948
3.6149027 25.754612 34.512218
3.9455407 28.289423 31.042831
1.2970214 9.530798 9.5320129
2.5939007 19.261118 10.259889
3.380156 25.165762 10.347252
2.3891561 17.834805 5.3790727
2.0452404 15.308091 3.0236299
2.2179711 16.645132 1.6004792
4.0850234 29.706152 26.788059
2.9916897 21.982765 10.343256
2.8900082 21.291185 7.5673056
2.053457 15.167886 3.7823808
2.1596913 15.973511 2.3403616
2.3220766 17.219749 0.79458994
0.098584428 0.146547 18.833555
0.60668552 3.7113848 23.906433
0.77163649 4.9183321 23.958504
1.1298374 7.534327 24.402756
1.5315011 10.46077 24.966311
1.9767437 13.701551 25.436813
3.4881003 24.417704 36.298901
3.8361032 27.055979 32.793644
0.34503382 1.3506263 23.944414
0.53853554 2.5109236 23.907772
0.62748295 4.0642924 15.870793
1.3314538 8.8995295 24.524811
1.7644588 12.022386 25.188538
2.4160933 16.643797 27.579685
3.706069 25.750788 34.524189
4.0461855 28.288904 31.057531
1.3248564 9.487361 9.4934626
4.1997733 30.189125 24.65897
2.6811347 19.396749 10.336409
2.9595416 21.466051 8.8432064
2.453357 17.840612 5.3833027
2.099998 15.310592 3.0254951
2.2767348 16.642223 1.6009264
4.2111201 29.850691 26.931055
3.0395305 21.765425 10.246746
2.9662654 21.295 7.5722365
2.1070595 15.165441 3.7835531
2.2133939 15.951158 2.3382895
2.3835404 17.221437 0.79499304
0.09901768 0.14609665 18.818558
0.61938071 3.7077117 23.896555
0.7888 4.9156089 23.958504
1.1565833 7.5332885 24.4123
1.5691657 10.463088 24.98472
2.024559 13.694568 25.436813
3.5798352 24.449928 36.365028
3.9296002 27.036079 32.785969
0.34967357 1.3491346 23.939423
0.54718316 2.5085077 23.902802
0.64166611 4.0620775 15.870793
1.3622495 8.8931217 24.520119
1.806414 12.016154 25.188538
2.4737928 16.632683 27.575418
3.7972524 25.746635 34.53616
4.1458902 28.281313 31.06488
1.3544265 9.4579668 9.4689312
4.3012791 30.147306 24.636999
3.7380743 26.298296 17.499838
2.7562885 19.439905 10.364235
3.0247159 21.386736 8.8151112
2.154798 15.312897 3.0273602
2.3361976 16.644035 1.6018205
4.3281202 29.924496 27.010866
3.0981157 21.633379 10.190099
3.0425839 21.298538 7.577167
2.1606696 15.162805 3.7847254
2.2516165 15.820768 2.3210225
2.4450445 17.222906 0.79539609
0.099527054 0.14575012 18.818558
0.63192695 3.7032292 23.881737
0.8074379 4.9218683 24.00256
1.1833358 7.5321546 24.421844
1.6065689 10.463342 24.998529
2.0723498 13.687417 25.436813
3.6651595 24.437283 36.365028
4.0263104 27.03805 32.805157
0.35423326 1.3473474 23.92944
0.55582052 2.506062 23.897829
0.6560421 4.0610538 15.875633
1.3930168 8.8866081 24.515425
1.8483471 12.009775 25.188538
2.5314436 16.621367 27.57115
3.8889022 25.745142 34.55212
2.0324817 13.535485 14.916208
1.3869148 9.4496527 9.4654264
4.4138088 30.182178 24.677801
3.8244236 26.247847 17.475164
3.0614338 21.114536 8.7083483
2.6822233 18.544695 5.5976281
2.2096398 15.315006 3.0292256
2.3949914 16.640711 1.6022676
4.43255 29.909204 27.010866
3.6258299 24.613804 14.705647
3.2006338 21.806538 10.276118
3.1189632 21.301805 7.5820971
2.2149892 15.164789 3.78707
2.3118315 15.847113 2.3258572
2.5065875 17.224152 0.79579908
0.10019206 0.14561141 18.848555
0.64458287 3.6994698 23.871859
0.82562399 4.925045 24.031931
1.2100943 7.5309258 24.431389
1.6439927 10.463459 25.012337
2.120115 13.680099 25.436813
3.7500126 24.421562 36.360897
1.9415796 12.733386 15.498013
0.35871002 1.3452661 23.914463
0.56444746 2.503587 23.892859
0.67021382 4.0587392 15.875633
1.4240284 8.881691 24.515425
1.8872099 11.983896 25.148027
2.5894477 16.612429 27.57115
3.9801269 25.740345 34.564091
2.0678689 13.45124 14.831679
1.4183011 9.4341736 9.4549131
3.9221959 26.275694 17.502581
2.7504563 18.558945 5.6046782
2.2638042 15.312059 3.0301583
2.4545171 16.642103 1.6031618
4.5498114 29.978456 27.087355
3.7136555 24.613785 14.713245
3.3023739 21.965782 10.355844
3.1954029 21.304798 7.587028
2.26863 15.161772 3.7882423
2.3671341 15.838946 2.3258572
2.5681691 17.22518 0.79620218
0.10077852 0.14536531 18.863556
0.65722024 3.6956675 23.861979
0.84349811 4.9261475 24.051512
1.2366168 7.5281286 24.436159
1.6814369 10.463443 25.026144
2.1682296 13.674982 25.441202
3.8374209 24.42222 36.381557
1.9874983 12.736032 15.509524
0.36325237 1.3434488 23.904482
0.57294464 2.5005622 23.882915
0.68458652 4.0576143 15.880472
1.4550226 8.8766661 24.515425
1.927299 11.96649 25.125521
2.646188 16.595562 27.558353
4.0718365 25.738199 34.580051
2.101639 13.360215 14.7398
1.4512239 9.4291658 9.4549131
3.1620395 20.736868 11.066832
2.8159423 18.553976 5.6060882
2.3187103 15.313778 3.0320234
2.5133376 16.638355 1.6036088
4.6727691 30.080456 27.193769
3.3810995 21.967577 10.362139
3.2733345 21.316851 7.5952454
2.3230128 15.16337 3.7905869
2.4231575 15.835484 2.3265479
2.6297886 17.225988 0.79660523
0.10139088 0.14515164 18.883553
0.66970009 3.6910572 23.847162
0.86103928 4.925179 24.061302
1.2653588 7.5384879 24.483881
1.7185843 10.461366 25.035349
2.2159512 13.66733 25.441202
2.0950599 13.036794 19.465401
2.0415437 12.789155 15.582438
0.36763299 1.3410591 23.884516
0.58154863 2.498028 23.877945
0.69895971 4.0564389 15.885313
1.4848586 8.8647251 24.496655
1.966936 11.9468 25.098513
2.7036817 16.583651 27.554087
4.1640606 25.738701 34.599998
2.1434155 13.322674 14.706724
1.4857936 9.4346113 9.4654264
3.2405531 20.765097 11.087701
3.9007409 25.052809 10.332268
2.8806908 18.544033 5.6060882
2.3736558 15.315298 3.0338886
2.5729227 16.639324 1.604503
4.7794991 30.075024 27.203747
3.3477244 21.305296 7.5952454
2.3774345 15.164773 3.7929316
2.4784186 15.826928 2.3265479
2.6914451 17.226576 0.79700828
0.10194994 0.14486615 18.893553
0.68229729 3.6871691 23.837284
0.87858397 4.9241481 24.071093
1.2931789 7.5428519 24.51251
1.7557378 10.459157 25.044554
2.2640371 13.661874 25.445591
2.1396418 13.023849 19.457134
2.0949509 12.835728 15.647675
0.3727777 1.3414359 23.914463
0.59014189 2.4954638 23.872972
0.71311498 4.0539746 15.885313
1.5157932 8.8594885 24.496655
2.006098 11.924834 25.067005
2.7594094 16.561249 27.532759
4.2553554 25.732929 34.611969
2.1981602 13.365289 14.761851
1.5198516 9.436409 9.472436
3.3011456 20.679293 11.048281
3.9830632 25.006992 10.319157
2.9484153 18.552813 5.6117282
2.4286401 15.316623 3.035754
2.6333237 16.644999 1.6058441
6.4780951 39.865082 36.052902
4.4945645 27.81205 16.640995
4.9987354 31.034918 14.619086
3.4235718 21.302805 7.5985327
2.4318941 15.16598 3.7952762
2.5344329 15.82307 2.3272386
2.7531374 17.226942 0.79741138
0.10250825 0.14457853 18.903553
0.69487548 3.683238 23.827404
0.89631426 4.9240565 24.085777
1.321045 7.5471144 24.541143
1.7928967 10.456815 25.053759
2.311712 13.653888 25.445591
2.1818292 12.996874 19.428204
2.1397433 12.828336 15.647675
0.37753654 1.3404044 23.919456
0.59859967 2.4923522 23.863029
0.72748381 4.0526972 15.890151
1.5431455 8.833744 24.44034
2.0473425 11.915613 25.062504
2.8154519 16.541233 27.515696
4.3461585 25.72386 34.619949
4.744565 28.23175 31.112659
1.5533608 9.4345646 9.4759398
3.3740234 20.672016 11.0506
4.0658584 24.965483 10.307919
3.0146978 18.55188 5.6145482
2.4836631 15.317749 3.0376191
2.6930003 16.645538 1.6067383
6.6208811 39.864326 36.072853
4.5600033 27.604799 16.527
5.1026134 30.990412 14.606499
3.4979117 21.290726 7.5985327
2.4856048 15.162195 3.7964487
2.5896504 15.814127 2.3272386
2.8148651 17.227089 0.79781443
0.1030658 0.14428878 18.913553
0.70743459 3.6792638 23.817526
0.91405463 4.9239006 24.100464
1.3489566 7.5512733 24.569775
1.8300607 10.454342 25.062965
2.3597672 13.648096 25.449982
2.2243299 12.972537 19.403406
2.1898932 12.852386 15.686049
0.38253143 1.3401885 23.939423
0.60729599 2.4902475 23.863029
0.74162591 4.0501332 15.890151
1.5779096 8.8503885 24.501347
2.0836573 11.878376 24.999487
2.878087 16.559568 27.56262
4.4318256 25.684776 34.588028
4.8482447 28.245087 31.145735
1.5880592 9.4396362 9.486454
3.4476192 20.668852 11.055238
4.1476517 24.919128 10.294807
3.0817955 18.555439 5.6187787
2.538723 15.318679 3.0394845
2.7535253 16.650776 1.6080797
6.7562456 39.818886 36.052902
3.7296522 22.168863 10.47963
3.5667365 21.245787 7.587028
2.5401216 15.163013 3.7987931
2.646471 15.81476 2.32862
2.8766274 17.227015 0.79821754
0.10356884 0.14392813 18.913553
0.72087109 3.679822 23.837284
0.93180501 4.9236817 24.11515
1.3769133 7.5553298 24.598406
1.8672295 10.451737 25.07217
2.4073935 13.639775 25.449982
2.0672441 11.808825 17.679966
2.2265022 12.797297 15.628488
0.38736826 1.3393993 23.949406
0.61585653 2.4875951 23.858059
0.755759 4.0475197 15.890151
1.6069404 8.8346395 24.47319
2.1182022 11.832458 24.918465
4.493751 25.511869 34.376556
4.9485645 28.238007 31.156759
1.6210001 9.4340353 9.486454
4.2229533 24.835943 10.266711
3.1481524 18.554029 5.6215987
2.5938196 15.319409 3.0413496
2.8141196 16.655794 1.6094209
6.9136848 39.901749 36.149342
3.7624347 21.896276 10.357943
3.6089532 21.047035 7.5212874
2.5954943 15.168427 3.8023102
2.7033277 15.815188 2.3300014
2.9392633 17.23164 0.7988221
0.10396265 0.14342858 18.893553
0.7334075 3.6757593 23.827404
0.9497577 4.9243979 24.134731
1.4051874 7.56075 24.631811
1.9044019 10.448998 25.081373
2.4549906 13.631289 25.449982
2.1079571 11.798767 17.675835
2.2672362 12.767356 15.601625
0.39163381 1.3366543 23.924448
0.62427586 2.4843962 23.848116
0.76988286 4.044857 15.890151
1.6399727 8.8408537 24.506041
2.1532347 11.790728 24.846445
4.5241375 25.169798 33.937656
1.6576182 9.4493942 9.5074806
4.2084031 24.188042 12.938103
4.3524466 25.067699 10.367855
3.2153556 18.557104 5.6258287
2.6514637 15.334465 3.0460129
2.8747821 16.660591 1.6107621
1.8850917 10.658582 9.7215929
3.6841266 20.936689 12.577775
3.7808127 21.552212 10.202687
3.6994996 21.13199 7.5558009
2.6434071 15.130548 3.7952762
3.0011096 17.231119 0.79922515
0.10440847 0.14299645 18.883553
0.74716252 3.6777453 23.85704
0.96772677 4.9250493 24.15431
1.4315708 7.555799 24.631811
1.941578 10.446129 25.090578
2.5025578 13.622637 25.449982
2.1375237 11.727662 17.580776
2.3083601 12.740441 15.5786
0.39604977 1.3344492 23.909473
0.63281232 2.4816859 23.843145
0.78399736 4.0421448 15.890151
1.6711437 8.836771 24.510733
2.1951761 11.78742 24.855448
2.253516 12.207025 20.374519
4.6011 25.094576 33.857853
2.4724596 13.551677 15.011763
1.6956204 9.4716339 9.5355167
4.286613 24.138311 12.919552
4.4383044 25.043224 10.364109
3.2817833 18.555218 5.6286488
2.7135131 15.373491 3.0553391
2.9346488 16.660263 1.6116563
1.9222857 10.651937 9.7215929
3.751092 20.889759 12.55751
3.8656189 21.592493 10.227863
3.6345408 20.34264 7.2813354
2.8692508 16.10795 2.3742049
3.0638623 17.235296 0.79982972
0.1048253 0.14252883 18.868555
0.76078278 3.6789196 23.881737
0.98571193 4.9256349 24.173893
1.4585028 7.5536871 24.641356
1.9783938 10.441207 25.095182
2.5505352 13.616172 25.454369
2.1758764 11.706297 17.56011
2.3528185 12.732306 15.5786
0.40045512 1.3322295 23.894499
0.64133745 2.4789457 23.838171
0.79834598 4.0406165 15.89499
1.7036128 8.8393564 24.534197
2.2517385 11.860958 25.026495
2.2951479 12.193958 20.36599
4.6881151 25.075399 33.853867
2.5253298 13.572961 15.04484
1.7344388 9.4972324 9.5670586
4.3653169 24.09269 12.90332
4.5190954 24.991085 10.349125
3.3490889 18.55781 5.6328788
2.8080842 15.591145 3.0991719
2.9945483 16.659721 1.6125504
1.9540486 10.615785 9.6949883
3.8131137 20.817173 12.522045
3.9295518 21.516361 10.198491
2.9969013 16.474634 4.1293864
2.9263461 16.102711 2.3748956
3.1266811 17.239243 0.80043435
0.10529484 0.14212807 18.863556
0.77586126 3.6868863 23.950886
1.0035096 4.9251571 24.188578
1.4854375 7.5514798 24.650898
2.0151987 10.436155 25.099783
2.5980489 13.607186 25.454369
2.4713497 13.042334 19.568724
2.3990285 12.733463 15.590112
0.40493423 1.3302714 23.884516
0.64971554 2.4756608 23.828228
0.81244552 4.0378056 15.89499
1.7324624 8.8231964 24.506041
2.287338 11.823104 24.963478
2.3376987 12.185872 20.36599
4.7750521 25.055923 33.849876
1.7128621 9.0308828 10.04294
1.7656209 9.4806023 9.5565453
4.6407776 25.162079 10.42592
3.4147162 18.550724 5.6342893
2.8624904 15.581248 3.0991719
3.0544794 16.658964 1.6134446
1.9924703 10.616239 9.7016401
3.8723009 20.731699 12.478982
3.9863522 21.404354 10.152333
3.9896247 21.463503 7.6872821
3.0561635 16.473631 4.1317315
2.9834397 16.097265 2.3755863
3.1886554 17.238049 0.80083734
0.10581777 0.14179355 18.868555
0.79051632 3.6925128 24.005219
1.0215229 4.925612 24.208158
1.5132543 7.5535665 24.674759
2.0519927 10.430975 25.104387
2.6455312 13.598034 25.454369
2.5072567 12.983894 19.494331
2.4452753 12.734456 15.601625
0.40948987 1.3285739 23.879522
0.65821594 2.472863 23.823257
0.82678753 4.0361767 15.89983
1.762235 8.8120174 24.491961
2.3812218 12.182756 20.374519
4.8647819 25.050934 33.865837
1.7450187 9.0281773 10.046616
5.5849729 29.417248 29.504421
3.8944824 20.670475 11.096976
4.7577114 25.300632 10.489603
3.4847586 18.56698 5.6427488
2.9195755 15.585647 3.10197
3.1144421 16.65799 1.6143388
2.0260079 10.590883 9.6850128
3.9454505 20.72229 12.481514
4.0695086 21.434898 10.173313
4.063643 21.444807 7.6856384
3.1163583 16.47719 4.1352482
3.0423696 16.101351 2.3776581
3.251586 17.241543 0.80144203
0.10631209 0.1414233 18.868555
0.80571628 3.7003596 24.074368
1.0393412 4.925005 24.222843
1.5411037 7.5555511 24.698618
2.0883911 10.423749 25.104387
2.692981 13.588717 25.454369
2.5514774 12.969542 19.486065
2.4897122 12.725842 15.601625
0.41412497 1.3271365 23.879522
0.6667046 2.4700353 23.818285
0.84087139 4.0332661 15.89983
1.7898852 8.7905951 24.449726
2.4288256 12.199949 20.417181
4.9586287 25.066315 33.909725
1.7725922 9.0020733 10.024564
5.695076 29.436089 29.542973
3.967447 20.661106 11.099295
4.8555975 25.333954 10.510206
3.5531535 18.573549 5.6483893
2.9748826 15.580185 3.1029024
3.1744349 16.656801 1.6152329
2.0508206 10.521444 9.628479
4.1167183 21.277973 10.106176
4.1429515 21.453672 7.6938558
3.1756954 16.475758 4.1375928
3.1004279 16.100359 2.3790395
3.3136361 17.239899 0.80184507
0.1068605 0.14111878 18.878555
0.81997228 3.7035933 24.11388
1.0573814 4.9253287 24.242426
1.5701993 7.5632787 24.741566
2.124764 10.416395 25.104387
2.7408719 13.581581 25.458757
2.6022625 12.988149 19.527395
2.5291071 12.691926 15.570925
0.41875502 1.3256828 23.879522
0.67504078 2.4666648 23.808344
0.85520583 4.0315356 15.904669
1.82161 8.7893629 24.463806
2.4729509 12.199064 20.429977
1.8026712 8.9891825 10.017215
5.8005509 29.430025 29.55699
4.6653237 23.801571 15.986548
4.0506015 20.703648 11.129439
4.9395566 25.294098 10.50084
3.6069524 18.504532 5.6314688
3.0320642 15.584173 3.1057005
3.2344575 16.655397 1.6161271
4.1198778 20.902794 9.9362345
4.2205482 21.452984 7.6987867
3.2359977 16.478882 4.1411099
3.1585166 16.099157 2.3804209
3.3766747 17.242935 0.80244964
0.10740808 0.14081214 18.888554
0.8337487 3.7044988 24.138578
1.0750021 4.9235973 24.252216
1.5965904 7.5577517 24.741566
2.1611111 10.408915 25.104387
2.7882636 13.571931 25.458757
2.3652239 11.594852 17.452656
2.57212 12.676739 15.56325
0.42337999 1.324213 23.879522
0.68350416 2.4637799 23.803371
0.8692733 4.0285258 15.904669
1.8533477 8.7880163 24.477884
2.517627 12.200575 20.447042
1.8320038 8.9728718 10.006188
5.9067545 29.42708 29.574512
4.7524719 23.805643 16.000257
4.0951424 20.550362 11.055238
5.0314374 25.294891 10.508332
3.6322863 18.29421 5.572247
3.0883543 15.583129 3.1075656
3.2954752 16.658661 1.6174684
2.0102754 9.9432735 9.1163521
4.1070709 20.461107 9.7348213
4.2981901 21.452009 7.7037172
3.2954059 16.477016 4.1434546
3.2166348 16.097746 2.3818023
3.438798 17.240843 0.80285269
0.10798276 0.1405369 18.903553
0.84771472 3.7061102 24.168213
1.0930651 4.9237914 24.271797
1.6229622 7.5521326 24.741566
2.1978357 10.40322 25.10899
2.8356214 13.562115 25.458757
2.3988178 11.553461 17.403059
5.5630507 26.934362 33.004707
0.42799976 1.3227271 23.879522
0.6918112 2.4603529 23.793428
0.88359976 4.0266948 15.90951
1.8861846 8.7916164 24.506041
2.5735996 12.255521 20.55369
1.859865 8.9498253 9.987813
6.0108666 29.413273 29.581522
4.8280439 23.752031 15.975584
4.1492338 20.449114 11.008862
5.1224627 25.290802 10.513951
3.6951721 18.276718 5.5708375
3.1446743 15.581885 3.1094308
3.355572 16.65682 1.6183625
2.0351865 9.8886528 9.0731201
6.2289853 30.399328 18.320492
4.3758769 21.450754 7.7086473
3.3558111 16.479702 4.1469717
3.2757683 16.100977 2.3838742
3.5019412 17.24342 0.80345726
0.10861292 0.1403262 18.928553
0.86011839 3.7008584 24.153397
1.1109182 4.9229255 24.286482
1.6493143 7.5464211 24.741566
2.2341363 10.395485 25.10899
2.8829448 13.552135 25.458757
2.4362237 11.531251 17.382395
5.6576948 26.917917 33.008545
0.43252417 1.3209509 23.874531
0.70010263 2.456898 23.783485
0.89792383 4.0248122 15.914348
1.9190691 8.7950954 24.534197
2.6267171 12.294922 20.634743
2.8536725 13.437422 18.264839
1.8931984 8.953229 9.9988384
6.1171322 29.409567 29.599043
4.9007573 23.685896 15.942685
4.1632428 20.156858 10.860458
5.2116494 25.277309 10.515825
3.7773206 18.35298 5.5976281
3.2010233 15.580437 3.1112962
3.4166956 16.659639 1.6197037
2.0650992 9.8595619 9.0531673
6.5585461 31.531597 14.975757
4.453608 21.449221 7.7135782
3.4152887 16.477407 4.1493163
3.3349643 16.103992 2.3859465
3.5651448 17.24577 0.80406183
0.10910209 0.13994622 18.928553
0.87338889 3.6993458 24.163275
1.1290063 4.9229875 24.306063
1.6756461 7.5406184 24.741566
2.2708271 10.389531 25.113592
2.930233 13.541988 25.458757
5.2225142 24.299236 36.575809
2.6765771 12.517465 15.402075
0.43722364 1.3197068 23.879522
0.70837837 2.4534149 23.773542
0.91224575 4.0228796 15.919188
1.9497578 8.7883425 24.534197
2.5778475 11.774323 24.985983
2.6707258 12.290774 20.643274
2.9024694 13.436215 18.276812
1.9223007 8.9366236 9.987813
6.2204919 29.391525 29.602549
4.8817477 23.185822 15.619192
4.2217331 20.085848 10.830314
5.311276 25.31341 10.538301
3.7253158 17.785652 5.4312439
3.2584059 15.583594 3.1140943
3.4778805 16.662237 1.6210449
2.0963902 9.8376865 9.0398655
5.7153816 26.935186 16.266085
4.1388011 19.555586 9.3277988
4.5313807 21.447405 7.7185087
3.474791 16.474897 4.1516609
3.3931997 16.101946 2.3873279
3.6284082 17.247889 0.80466652
0.10944851 0.13939843 18.903553
0.88502789 3.6909857 24.1287
1.1471084 4.9229832 24.325645
1.7022866 7.53618 24.74634
2.3075032 10.383449 25.118195
2.9774857 13.531677 25.458757
5.3121099 24.302851 36.608871
2.7025442 12.426613 15.302299
0.44173557 1.3178991 23.874531
0.71678823 2.4504158 23.768572
0.92656499 4.020896 15.924027
1.9823214 8.7898998 24.557659
2.623189 11.784376 25.026495
2.7079854 12.255911 20.600616
2.9506462 13.431888 18.28479
1.9404423 8.8702459 9.9216604
2.7427115 12.739656 12.885864
4.9530187 23.123667 15.589037
4.276999 20.001678 10.793213
5.4054108 25.321918 10.54954
3.8953576 18.279245 5.5835276
3.3148272 15.581733 3.1159592
3.539125 16.66461 1.6223862
2.1330903 9.8412561 9.0498419
6.5853438 30.458656 22.774265
5.8093681 26.915071 16.266085
4.2156343 19.58095 9.3466816
4.6091952 21.445307 7.7234392
3.5343177 16.472174 4.1540055
3.4524992 16.104528 2.3893998
3.6917286 17.249773 0.80527109
0.10990603 0.1389824 18.898554
0.89717084 3.684854 24.108942
1.1633474 4.9149857 24.306063
1.7285825 7.5301919 24.74634
2.343734 10.375331 25.118195
3.0247018 13.521202 25.458757
2.5464647 11.458409 17.312134
2.7313707 12.351381 15.221711
0.4463332 1.3163491 23.874531
0.725034 2.4468768 23.758627
0.94088137 4.0188603 15.928865
2.0114498 8.7761993 24.538891
2.6580625 11.747545 24.967978
2.7456059 12.223483 20.562222
2.9968572 13.418565 18.2808
1.9618242 8.8203964 9.8738823
2.7970808 12.775294 12.931423
5.0408254 23.13892 15.610968
4.3514986 20.00827 10.804807
5.5026202 25.343668 10.566397
4.0292573 18.589022 5.68082
3.3712752 15.57967 3.1178243
3.5993769 16.66189 1.6232804
2.166626 9.8301039 9.0465164
6.7332869 30.624975 22.915537
4.3528795 19.880894 9.4956427
4.6880589 21.447538 7.7300134
3.5949035 16.473982 4.1575222
3.5097482 16.097216 2.3900905
3.7551067 17.251427 0.80587566
0.11033348 0.13853186 18.888554
0.90928173 3.6786826 24.089186
