# .PCD v0.7 - Point Cloud Data file format
VERSION 0.7
FIELDS x y z
SIZE 4 4 4
TYPE F F F
COUNT 1 1 1
WIDTH 1452
HEIGHT 1
VIEWPOINT 0 0 0 1 0 0 0
POINTS 1452
DATA ascii
-0.85266411 -1.9676218 0.83549255
-0.83237684 -1.9226278 0.59602183
-0.82005537 -1.8950622 0.38021153
-0.81471306 -1.8845022 0.17649461
-0.071031407 -0.064606056 9.5839081
-0.63412601 -1.3614691 9.5480099
-0.83046818 -1.812969 9.6105909
-1.4601864 -3.245019 11.422959
-1.2413605 -2.78459 7.2419901
-1.2192277 -2.75034 5.5806189
-0.7471453 -1.6918414 2.7889526
-0.66862327 -1.5183158 2.0629098
-0.28066957 -0.48755637 9.5684376
-0.48069507 -0.91294014 9.5798998
-0.59705102 -1.3119174 5.5870166
-1.3936163 -3.0999167 9.2967844
-1.020519 -2.2966964 4.181035
-0.60628223 -1.3690082 2.0573621
-0.74171263 -1.6786849 2.0678334
-0.81700081 -1.8657554 2.0813477
-0.93065464 -2.1282878 1.9553747
-0.91281968 -2.0904593 1.5801446
-0.88975912 -2.039572 1.2513511
-0.86346638 -1.9811717 0.96148425
-0.84468979 -1.9399205 0.71186441
-0.82887179 -1.9053975 0.48597044
-0.81573087 -1.8769616 0.27667826
-0.89840299 -2.0438519 2.069617
-0.9221949 -2.100934 1.7542125
-0.90271407 -2.0584881 1.4064566
-0.8761375 -2.0007157 1.097139
-0.85195607 -1.9473286 0.82891852
-0.83324277 -1.9063492 0.59250492
-0.82071775 -1.8785746 0.37813953
-0.81529063 -1.8679103 0.17589001
-0.071256489 -0.064357713 9.5839081
-0.63920534 -1.3599504 9.552949
-0.83679157 -1.8100591 9.6105909
-1.4690353 -3.2344661 11.403872
-1.2438569 -2.7642057 7.2005672
-1.2278425 -2.7438812 5.57623
-0.68887526 -1.5452952 2.5575075
-0.67391914 -1.5159726 2.0629098
-0.28236976 -0.48657367 9.5684376
-0.48362842 -0.91078621 9.5749283
-0.60215169 -1.3109676 5.591856
-1.4051416 -3.0966046 9.3014774
-1.1494976 -2.5521097 5.8513227
-1.0327995 -2.3026383 4.1980987
-0.61105728 -1.3668836 2.0573621
-0.74756783 -1.6760856 2.0678334
-0.8235085 -1.8628923 2.0813477
-0.93021828 -2.1072223 1.9396824
-0.91167754 -2.0681295 1.5664372
-0.88973105 -2.0202377 1.2420759
-0.86290818 -1.9611721 0.95399201
-0.84373426 -1.9193941 0.7062242
-0.82959205 -1.8889998 0.48317263
-0.816275 -1.8604215 0.27533701
-0.90856087 -2.047529 2.0762682
-0.9229725 -2.0829203 1.7424399
-0.90291363 -2.0395575 1.3963239
-0.8757754 -1.9810414 1.0887468
-0.85111684 -1.9270643 0.82234448
-0.83400536 -1.8900882 0.58898795
-0.821275 -1.8621054 0.37606746
-0.81576246 -1.8513378 0.17528543
-0.07144618 -0.064081915 9.578908
-0.64394855 -1.3577108 9.552949
-0.84310478 -1.807127 9.6105909
-1.4765843 -3.2211773 11.375239
-1.2397623 -2.7296085 7.1223245
-1.2216376 -2.7046564 5.5060048
-0.629592 -1.3991781 2.3260624
-0.67920673 -1.513611 2.0629098
-0.28421301 -0.48583376 9.5734301
-0.48680472 -0.90909249 9.5749283
-0.60725296 -1.3099979 5.5966954
-1.4188168 -3.0979564 9.3202486
-1.1683105 -2.5698805 5.900836
-1.0505124 -2.3204019 4.2364922
-0.61458528 -1.3619957 2.0533719
-0.75341392 -1.6734658 2.0678334
-0.83000624 -1.8600063 2.0813477
-0.92964631 -2.0861864 1.9239902
-0.91039073 -2.0458333 1.55273
-0.889579 -2.0009284 1.2328007
-0.86222106 -1.941201 0.94649988
-0.842646 -1.8988985 0.70058405
-0.83020794 -1.8726203 0.48037472
-0.81469697 -1.8393477 0.27354869
-0.92180824 -2.0579753 2.08957
-0.92363584 -2.0649273 1.7306672
-0.90299213 -2.0206509 1.3861912
-0.87528682 -1.9613942 1.0803547
-0.85014659 -1.90683 0.81577051
-0.83268696 -1.8694055 0.58429867
-0.81971318 -1.8411314 0.37330475
-0.81612861 -1.8347847 0.17468084
-0.07166943 -0.063832127 9.578908
-0.64868391 -1.3554548 9.552949
-0.84940767 -1.8041731 9.6105909
-1.4878193 -3.2160032 11.375239
-1.2509114 -2.7288163 7.1315298
-1.1843736 -2.5979545 5.2997179
-0.61817861 -1.3611029 2.2682009
-0.6831634 -1.508311 2.0590723
-0.28590715 -0.48483872 9.5734301
-0.48997506 -0.90738761 9.5749283
-0.61235493 -1.3090088 5.6015353
-1.428898 -3.0914187 9.3155556
-1.1954329 -2.6053579 5.99086
-1.0477656 -2.293 4.1938329
-0.61933583 -1.3598421 2.0533719
-0.75925082 -1.6708258 2.0678334
-0.83649373 -1.8570977 2.0813477
-0.93053567 -2.0687299 1.9114364
-0.90895951 -2.0235717 1.5390227
-0.88748926 -1.9776036 1.2212067
-0.86140519 -1.9212588 0.93900776
-0.84338605 -1.8828119 0.69635403
-0.83071983 -1.8562599 0.47757691
-0.81501454 -1.8228542 0.27220747
-0.93360108 -2.0649514 2.0995464
-0.92418474 -2.0469551 1.7188946
-0.90117705 -1.997839 1.3735253
-0.87467182 -1.9417748 1.0719625
-0.84904557 -1.8866262 0.80919647
-0.83322752 -1.853188 0.58078176
-0.82004499 -1.8247083 0.37123269
-0.81638908 -1.8182517 0.17407624
-0.071857095 -0.063555136 9.5739088
-0.65341139 -1.3531823 9.552949
-0.85570019 -1.8011971 9.6105909
-1.4984046 -3.2094376 11.370467
-1.1463799 -2.4915464 5.093431
-0.61002558 -1.3307987 2.2227387
-0.68842429 -1.5059172 2.0590723
-0.2877461 -0.4840855 9.5784216
-0.49288401 -0.90520388 9.5699558
-0.61799401 -1.3091365 5.6112137
-1.2182428 -2.6308 6.0583787
-1.0513941 -2.2798553 4.1767688
-0.62407881 -1.357672 2.0533719
-0.76507843 -1.6681653 2.0678334
-0.84444714 -1.8574128 2.0848522
-0.93131453 -2.0512927 1.8988826
-0.90911084 -2.0051537 1.5280569
-0.8870756 -1.9583535 1.2119315
-0.86046064 -1.9013461 0.93151569
-0.84204781 -1.8623725 0.69071388
-0.8291052 -1.8354418 0.47384638
-0.81522685 -1.8063806 0.27086622
-0.95010424 -2.0820606 2.1194994
-0.92461962 -2.0290043 1.707122
-0.90100008 -1.9789878 1.3633926
-0.87205207 -1.9180522 1.0614722
-0.84976697 -1.8707528 0.80426592
-0.83366507 -1.8369898 0.57726479
-0.82027233 -1.8083055 0.36916068
-0.8186065 -1.8062901 0.17367318
-0.072078504 -0.063303918 9.5739088
-0.65813088 -1.3508933 9.552949
-0.86198241 -1.7981992 9.6105909
-1.5095985 -3.2041879 11.370467
-1.2079381 -2.5872531 6.7863402
-1.1278337 -2.4288809 4.974926
-0.60757709 -1.3133378 2.1979408
-0.69367671 -1.503505 2.0590723
-0.28943413 -0.48307812 9.5784216
-0.49604076 -0.90347785 9.5699558
-0.62255996 -1.3069713 5.6112137
-1.5283581 -3.246866 9.8129883
-1.2246532 -2.620615 6.0448747
-1.0560442 -2.2690783 4.1639714
-0.62881416 -1.3554852 2.0533719
-0.77089679 -1.6654847 2.0678334
-0.85092556 -1.8544538 2.0848522
-0.93198311 -2.0338755 1.8863287
-0.90740454 -1.9829568 1.5143495
-0.88469648 -1.9351015 1.2003375
-0.8593877 -1.8814636 0.92402357
-0.84256864 -1.8463293 0.68648374
-0.82939363 -1.8191279 0.47104853
-0.81739867 -1.7944601 0.26997206
-0.95736623 -2.0787313 2.1194994
-0.92494041 -2.0110755 1.6953493
-0.89890277 -1.9562457 1.3507267
-0.87117046 -1.8984966 1.05308
-0.84841996 -1.850605 0.79769188
-0.83399981 -1.8208112 0.57374781
-0.82039511 -1.7919232 0.36708862
-0.8186723 -1.7897921 0.17306858
-0.07226415 -0.063025743 9.5689087
-0.6631853 -1.3492849 9.557888
-0.86825401 -1.7951792 9.6105909
-1.520774 -3.1988988 11.370467
-1.216962 -2.5830209 6.7863402
-1.1434195 -2.4401095 5.0056496
-0.60501426 -1.2959106 2.1731431
-0.69892067 -1.5010743 2.0590723
-0.29111862 -0.48206487 9.5784216
-0.49945018 -0.90220696 9.5749283
-0.62929714 -1.3093214 5.6305714
-1.5433849 -3.2493052 9.8364534
-1.2282218 -2.6045105 6.0178676
-1.0584143 -2.2535753 4.1426415
-0.63354188 -1.353282 2.0533719
-0.77670574 -1.6627835 2.0678334
-0.85739362 -1.8514723 2.0848522
-0.93090761 -2.0129459 1.8706365
-0.90730792 -1.9645929 1.5033835
-0.88402194 -1.9159127 1.1910623
-0.85818648 -1.8616121 0.91653144
-0.84098119 -1.8259485 0.68084365
-0.82957804 -1.8028342 0.46825066
-0.81741691 -1.7780218 0.26863083
-0.95045221 -2.0449042 2.08957
-0.92344558 -1.9895034 1.6806335
-0.89847136 -1.9374533 1.3405941
-0.87016296 -1.8789709 1.0446877
-0.84892577 -1.8347753 0.79276139
-0.83423185 -1.8046529 0.5702309
-0.82041365 -1.7755625 0.36501658
-0.8186329 -1.7733157 0.172464
-0.072483703 -0.062773108 9.5689087
-0.66823649 -1.3476578 9.5628281
-0.87451506 -1.7921376 9.6105909
-1.531931 -3.1935709 11.370467
-1.236038 -2.5999298 6.8415704
-1.1642169 -2.4620845 5.0583181
-0.60233718 -1.2785172 2.1483455
-0.70415616 -1.4986255 2.0590723
-0.29279956 -0.48104575 9.5784216
-0.50259644 -0.9004581 9.5749283
-0.63441235 -1.3082478 5.6354108
-1.2232734 -2.5707219 5.9503493
-1.0618062 -2.2404399 4.1255779
-0.6382618 -1.3510623 2.0533719
-0.78250515 -1.6600621 2.0678334
-0.86385125 -1.8484682 2.0848522
-0.93134367 -1.9955759 1.8580827
-0.90886056 -1.9500439 1.4951591
-0.88322425 -1.8967521 1.1817871
-0.85881299 -1.8459955 0.91091239
-0.8412838 -1.8099517 0.67661357
-0.8296591 -1.7865617 0.46545282
-0.81733054 -1.7616054 0.26728958
-0.95124185 -2.0280526 2.0762682
-0.92352611 -1.9716265 1.6688609
-0.89609241 -1.9147832 1.3279281
-0.86902994 -1.8594757 1.0362955
-0.84933126 -1.8189646 0.78783083
-0.83436131 -1.7885152 0.56671393
-0.820328 -1.7592237 0.36294454
-0.8205983 -1.7613901 0.17206094
-0.072702385 -0.062519707 9.5689087
-0.67293668 -1.345317 9.5628281
-0.88076544 -1.7890741 9.6105909
-1.5437198 -3.1895475 11.375239
-1.2620072 -2.6308277 6.9336209
-1.1903386 -2.4947512 5.1329327
-0.59954619 -1.2611588 2.1235478
-0.70938307 -1.4961585 2.0590723
-0.29432523 -0.4797751 9.5734301
-0.50599843 -0.89916241 9.5798998
-0.64008027 -1.3082831 5.6450896
-1.4781251 -3.056689 9.2873993
-1.203027 -2.5056014 5.8108115
-1.0651194 -2.227309 4.1085138
-0.64297402 -1.3488261 2.0533719
-0.78829509 -1.6573206 2.0678334
-0.86877716 -1.8422161 2.0813477
-0.93001133 -1.9747063 1.8423903
-0.90854311 -1.9317243 1.4841932
-0.88230371 -1.8776207 1.1725119
-0.8573705 -1.8262005 0.90342015
-0.8394478 -1.7896318 0.67097336
-0.82963657 -1.7703105 0.46265495
-0.81713963 -1.7452115 0.26594836
-0.95032817 -2.0078456 2.0596406
-0.92176586 -1.9501193 1.654145
-0.89540726 -1.8960518 1.3177954
-0.86970741 -1.8441162 1.0300014
-0.84963703 -1.8031739 0.78290033
-0.83438838 -1.7723989 0.56319702
-0.82013839 -1.7429072 0.36087251
-0.82036495 -1.7449514 0.17145634
-0.072955348 -0.062291376 9.5739088
-0.67832893 -1.3443469 9.5727053
-0.88655216 -1.785077 9.6056967
-1.5535337 -3.1814568 11.365696
-1.272034 -2.6281648 6.9382238
-1.1990397 -2.490581 5.1329327
-0.59664148 -1.2438354 2.0987501
-0.71460128 -1.4936731 2.0590723
-0.29599813 -0.4787448 9.5734301
-0.50913399 -0.89739072 9.5798998
-0.65633035 -1.3297089 5.7467175
-1.488786 -3.0515108 9.2873993
-1.2089183 -2.4955094 5.797308
-1.0683539 -2.2141821 4.0914502
-0.64767838 -1.3465735 2.0533719
-0.79407543 -1.6545589 2.0678334
-0.8736698 -1.8359519 2.0778432
-0.9302156 -1.957386 1.8298365
-0.90990192 -1.9172086 1.475969
-0.88126045 -1.8585191 1.1632369
-0.8577854 -1.8106281 0.8978011
-0.83953273 -1.7736832 0.66674334
-0.83161098 -1.7585225 0.46078971
-0.81897163 -1.7333431 0.2650542
-0.94928509 -1.9876702 2.0430131
-0.92160684 -1.9322968 1.6423724
-0.89274776 -1.8734572 1.3051294
-0.86833817 -1.8246769 1.0216092
-0.84781522 -1.7831388 0.7763263
-0.83431309 -1.7563043 0.55968004
-0.81984496 -1.7266138 0.35880047
-0.82216829 -1.7330498 0.17105328
-0.073172331 -0.062036332 9.5739088
-0.68337011 -1.3426633 9.5776453
-0.89277786 -1.7819715 9.6056967
-1.5633103 -3.1733367 11.356153
-1.2786281 -2.6184421 6.9244156
-1.1867959 -2.4432955 5.0451512
-0.59239709 -1.224015 2.0698195
-0.71981084 -1.4911696 2.0590723
-0.29766747 -0.47770867 9.5734301
-0.51226336 -0.89560801 9.5798998
-0.66657257 -1.338661 5.7951121
-1.4948555 -3.0370059 9.2592421
-1.216666 -2.4893184 5.7928071
-1.0715096 -2.2010596 4.0743866
-0.65237486 -1.3443044 2.0533719
-0.79984605 -1.6517769 2.0678334
-0.87852955 -1.8296765 2.0743387
-0.92862737 -1.936579 1.8141443
-0.90936434 -1.8989356 1.4650031
-0.88200659 -1.8434438 1.1562804
-0.85810202 -1.7950752 0.89218199
-0.83951652 -1.7577559 0.6625132
-0.83139765 -1.7423089 0.45799184
-0.81858772 -1.7169881 0.26371297
-0.94811291 -1.9675268 2.0263855
-0.92308778 -1.9181416 1.633543
-0.8918097 -1.8547895 1.2949967
-0.86880827 -1.8093607 1.0153151
-0.84790653 -1.7673957 0.77139574
-0.83413577 -1.740232 0.55616307
-0.82158756 -1.7148094 0.3574191
-0.82174146 -1.7166505 0.17044869
-0.073423788 -0.061806113 9.578908
-0.68876278 -1.3416519 9.5875235
-0.8989926 -1.7788442 9.6056967
-1.5664047 -3.1518202 11.298888
-1.2903509 -2.6192205 6.9382238
-0.59543121 -1.2194111 2.0656865
-0.72641522 -1.4915297 2.0629098
-0.29933318 -0.47666669 9.5734301
-0.51538652 -0.89381438 9.5798998
-1.1600012 -2.3089626 9.9860535
-1.5054475 -3.0317693 9.2592421
-1.2234221 -2.4811513 5.7838044
-1.0757368 -2.1902835 4.0615888
-0.65573823 -1.3393129 2.049382
-0.80560702 -1.6489749 2.0678334
-0.88335586 -1.8233889 2.0708342
-0.92690521 -1.915807 1.7984519
-0.90871048 -1.8806902 1.4540372
-0.88073248 -1.8243968 1.1470052
-0.85630649 -1.7753665 0.88468987
-0.83939952 -1.7418505 0.65828311
-0.83108133 -1.7261182 0.455194
-0.81809968 -1.7006571 0.26237172
-0.94517899 -1.9440577 2.0064325
-0.92271549 -1.9003636 1.6217704
-0.89075214 -1.8361511 1.2848641
-0.86918229 -1.7940639 1.0090209
-0.8478983 -1.7516739 0.76646519
-0.83597267 -1.7285582 0.55381846
-0.82110244 -1.6985558 0.35534707
-0.82121027 -1.7002755 0.16984409
-0.07363908 -0.06154944 9.578908
-0.69379932 -1.3399296 9.5924635
-0.90519649 -1.7756953 9.6056967
-1.5713755 -3.1343238 11.25594
-1.2812247 -2.5779619 6.8415704
-1.0732566 -2.1708829 4.5052948
-0.59844035 -1.2148008 2.0615535
-0.73161727 -1.4889849 2.0629098
-0.30099523 -0.47561893 9.5734301
-0.51823503 -0.89154947 9.5749283
-1.1657807 -2.3004148 9.9666958
-1.5144755 -3.0234103 9.2498569
-1.2155917 -2.4437318 5.7072835
-1.0764277 -2.1724937 4.0359931
-0.66040933 -1.3370157 2.049382
-0.81135809 -1.6461527 2.0678334
-0.8881492 -1.8170904 2.0673294
-0.92675692 -1.8985684 1.7858981
-0.90794033 -1.8624725 1.4430714
-0.88127595 -1.8093638 1.1400487
-0.85641277 -1.7598614 0.87907082
-0.84127933 -1.7302815 0.65546304
-0.83280861 -1.7143698 0.45332876
-0.81968212 -1.6888307 0.26147756
-0.94373727 -1.9239857 1.9898051
-0.92045218 -1.8789821 1.6070545
-0.88957554 -1.817543 1.2747314
-0.86946005 -1.7787864 1.0027267
-0.84779072 -1.7359741 0.76153469
-0.83560687 -1.7125247 0.55030149
-0.82051396 -1.6823266 0.35327503
-0.82057476 -1.6839254 0.16923951
-0.073853478 -0.061292019 9.578908
-0.69883221 -1.3381883 9.5974026
-0.91138929 -1.7725247 9.6056967
-1.5823066 -3.1288197 11.25594
-1.2788318 -2.5507705 6.7817378
-1.0712068 -2.1478348 4.4657931
-0.60267711 -1.2127045 2.0615535
-0.73681033 -1.4864221 2.0629098
-0.30265361 -0.47456536 9.5734301
-0.521074 -0.88927531 9.5699558
-1.1720868 -2.2929738 9.952177
-1.5242414 -3.0165651 9.2451649
-1.2114207 -2.41418 5.6487679
-1.0595157 -2.1197345 3.9464085
-0.66507238 -1.3347024 2.049382
-0.81558973 -1.6402749 2.0641582
-0.89290935 -1.8107809 2.0638249
-0.92649972 -1.8813547 1.7733443
-0.90520865 -1.840531 1.429364
-0.87977165 -1.7903737 1.1307735
-0.85642105 -1.7443768 0.87345165
-0.84097594 -1.7144139 0.65123296
-0.83230227 -1.6982193 0.45053089
-0.81900185 -1.6725415 0.26013631
-0.94216716 -1.9039479 1.9731777
-0.91984183 -1.8612632 1.5952818
-0.89018869 -1.8028313 1.2671319
-0.86964178 -1.7635291 0.99643254
-0.84758401 -1.7202963 0.75660414
-0.83513927 -1.6965148 0.54678452
-0.82200873 -1.6705657 0.35189366
-0.81763113 -1.6631171 0.16843337
-0.074031368 -0.06100864 9.5739088
-0.70349914 -1.3357407 9.5974026
-0.91757101 -1.7693326 9.6056967
-1.5857565 -3.1086509 11.203448
-1.2762647 -2.5236273 6.7219048
-1.0743916 -2.1355247 4.4482365
-0.6056453 -1.208078 2.0574207
-0.74199438 -1.4838409 2.0629098
-0.3043083 -0.473506 9.5734301
-0.52390331 -0.88699234 9.5649843
-1.1789316 -2.2866344 9.9424992
-1.534762 -3.0112262 9.2451649
-1.1559304 -2.2836902 5.3561888
-1.0528172 -2.0880787 3.8952174
-0.66972727 -1.3323728 2.049382
-0.8213104 -1.637418 2.0641582
-0.89763618 -1.8044598 2.0603204
-0.92786556 -1.8676517 1.7639289
-0.90419352 -1.8223773 1.4183981
-0.88011318 -1.7753854 1.1238172
-0.85633188 -1.728914 0.8678326
-0.84057218 -1.6985698 0.64700282
-0.83169341 -1.6820936 0.44773304
-0.82042372 -1.6607428 0.25924215
-0.94213641 -1.887285 1.9598755
-0.91911918 -1.8435717 1.5835092
-0.88878775 -1.7842785 1.256999
-0.8677063 -1.744229 0.98804033
-0.8451764 -1.700413 0.75003016
-0.83457029 -1.6805294 0.54326761
-0.82122946 -1.6543792 0.3498216
-0.81455219 -1.64235 0.16762725
-0.074243873 -0.060749847 9.5739088
-0.70815742 -1.3332769 9.5974026
-0.92326951 -1.7652168 9.6008015
-1.583621 -3.0778787 11.112781
-1.285066 -2.5191569 6.7219048
-1.0634123 -2.0954552 4.3736224
-0.60985857 -1.2059566 2.0574207
-0.74716944 -1.4812419 2.0629098
-0.30595931 -0.47244087 9.5734301
-0.52699625 -0.88515812 9.5649843
-1.1857461 -2.2802746 9.9328203
-1.5460528 -3.007385 9.2498569
-0.67437404 -1.3300269 2.049382
-0.82702106 -1.6345412 2.0641582
-0.90392941 -1.8013155 2.0603204
-0.92914724 -1.8539624 1.7545135
-0.90119117 -1.800514 1.4046907
-0.87837946 -1.7564545 1.114542
-0.8561452 -1.7134732 0.86221349
-0.84221083 -1.6870415 0.6441828
-0.83317471 -1.6703888 0.44586781
-0.81955206 -1.6444975 0.25790092
-0.94200081 -1.8706456 1.9465735
-0.91646791 -1.8222969 1.5687933
-0.88726836 -1.765758 1.2468663
-0.8676824 -1.7290205 0.9817462
-0.84475696 -1.6847887 0.7450996
-0.83607709 -1.6689143 0.54092294
-0.82034731 -1.6382188 0.34774956
-0.81133848 -1.6216249 0.16682112
-0.074455477 -0.060490321 9.5739088
-0.71280712 -1.3307968 9.5974026
-0.9294256 -1.7619832 9.6008015
-1.583353 -3.0511339 11.036429
-1.2947457 -2.5163932 6.7265077
-0.79023093 -1.543842 3.2456288
-0.61406446 -1.2038203 2.0574207
-0.75233543 -1.4786248 2.0629098
-0.30760658 -0.47137001 9.5734301
-0.5298081 -0.88285649 9.5600128
-1.1884434 -2.2661037 9.8892651
-1.5493914 -2.9881825 9.2076225
-1.1897871 -2.310401 5.437211
-0.613787 -1.1965851 2.2698965
-0.67901266 -1.3276647 2.049382
-0.83272159 -1.6316444 2.0641582
-0.91021168 -1.7981491 2.0603204
-0.93034452 -1.840287 1.7450981
-0.89993203 -1.7824268 1.3937249
-0.87652433 -1.7375576 1.1052668
-0.85586119 -1.6980548 0.85659432
-0.84162164 -1.6712381 0.63995266
-0.83237654 -1.6543059 0.44306993
-0.82081372 -1.632728 0.25700676
-0.94006979 -1.8507018 1.9299461
-0.91550845 -1.8046682 1.5570207
-0.88757956 -1.7511151 1.2392669
-0.86551315 -1.7097843 0.97335398
-0.84423882 -1.6691881 0.74016905
-0.83532065 -1.6529714 0.53740603
-0.8193624 -1.6220849 0.34567752
-0.8102411 -1.6054028 0.16621654
-0.074666172 -0.060230058 9.5739088
-0.71744812 -1.3283006 9.5974026
-0.93557042 -1.7587283 9.6008015
-1.5815332 -3.0217836 10.950534
-1.3026216 -2.5101242 6.7219048
-0.79671401 -1.5432022 3.2500179
-0.61826283 -1.2016696 2.0574207
-0.75602853 -1.4731379 2.0590723
-0.30925009 -0.47029337 9.5734301
-0.53261024 -0.88054591 9.5550413
-1.1945829 -2.2586081 9.8747463
-1.555014 -2.9735808 9.1794653
-1.2369816 -2.3815758 5.6127582
-0.61436427 -1.1874863 2.2570984
-0.68226129 -1.3226085 2.0453918
-0.83841205 -1.6287276 2.0641582
-0.91648287 -1.7949611 2.0603204
-0.92968953 -1.8231584 1.7325443
-0.8985576 -1.7643706 1.3827591
-0.87655711 -1.7226431 1.0983104
-0.8575812 -1.6867919 0.85284829
-0.84093237 -1.6554595 0.63572258
-0.83369964 -1.6426296 0.4412047
-0.81975102 -1.6165283 0.25566554
-0.93971366 -1.8341173 1.9166441
-0.91443712 -1.7870686 1.545248
-0.88779944 -1.7364914 1.2316673
-0.86528414 -1.6946265 0.96705979
-0.84576821 -1.6578183 0.73688203
-0.8366707 -1.6413846 0.53506136
-0.8205232 -1.6103902 0.34429619
-0.81584007 -1.6025648 0.16621654
-0.074875966 -0.059969053 9.5739088
-0.72208041 -1.3257881 9.5974026
-0.94170386 -1.7554517 9.6008015
-1.5913746 -3.0149245 10.945762
-1.2977853 -2.479599 6.6528673
-0.80762708 -1.5510325 3.2719634
-0.62245369 -1.1995041 2.0574207
-0.7611661 -1.4704899 2.0590723
-0.31088984 -0.46921101 9.5734301
-0.53568065 -0.87868136 9.5550413
-1.1995014 -2.2488797 9.8505497
-1.5541129 -2.9467659 9.1137667
-1.2129594 -2.315537 5.4687195
-0.6185056 -1.1853346 2.2570984
-0.68687385 -1.3202189 2.0453918
-0.84253007 -1.6227825 2.060483
-0.9227429 -1.7917509 2.0603204
-0.9307068 -1.8095183 1.723129
-0.89897895 -1.7500653 1.3745347
-0.87447381 -1.703809 1.0890352
-0.85711759 -1.6714131 0.84722924
-0.84014338 -1.6397061 0.6314925
-0.83271283 -1.6265919 0.43840683
-0.81858534 -1.6003561 0.25432429
-0.93925333 -1.8175581 1.9033421
-0.91510803 -1.7730904 1.5364187
-0.88792813 -1.7218879 1.2240678
-0.86496013 -1.6794914 0.96076572
-0.84506786 -1.6422594 0.73195153
-0.83572739 -1.6254858 0.53154445
-0.82161236 -1.5987073 0.34291482
-0.81686497 -1.5908186 0.16581348
-0.075120889 -0.059731904 9.578908
-0.72670382 -1.3232595 9.5974026
-0.94782579 -1.7521539 9.6008015
-1.5976803 -3.0014458 10.91713
-1.3000484 -2.4629598 6.6206493
-0.81192267 -1.5460837 3.2675743
-0.62663692 -1.197324 2.0574207
-0.76629442 -1.467824 2.0590723
-0.31252578 -0.46812299 9.5734301
-0.53846508 -0.87635231 9.5500708
-1.2001977 -2.2313955 9.7924767
-1.5408875 -2.8971405 8.9776773
-1.1915424 -2.2554696 5.3381844
-0.61413634 -1.1670134 2.2272372
-0.69147813 -1.3178132 2.0453918
-0.84818947 -1.6198316 2.060483
-0.92734778 -1.7853545 2.0568159
-0.92984778 -1.7924385 1.7105752
-0.8973878 -1.732066 1.3635689
-0.8743062 -1.6889442 1.0820787
-0.85655713 -1.6560578 0.84161013
-0.84145713 -1.6282403 0.62867242
-0.8338781 -1.6149458 0.43654159
-0.81731677 -1.5842118 0.25298306
-0.93696296 -1.797713 1.8867146
-0.91382599 -1.7555438 1.5246459
-0.88597649 -1.7034802 1.2139351
-0.86454087 -1.664379 0.95447153
-0.84644461 -1.6309171 0.72866452
-0.8369211 -1.6139287 0.52919978
-0.82262999 -1.5870366 0.34153345
-0.82011533 -1.5835214 0.16561194
-0.075328931 -0.059469316 9.578908
-0.73131847 -1.3207148 9.5974026
-0.95393622 -1.7488346 9.6008015
-1.6032048 -2.986644 10.883725
-1.3003751 -2.4428866 6.579227
-0.76910907 -1.4522343 3.0788438
-0.63081259 -1.1951294 2.0574207
-0.77141339 -1.4651401 2.0590723
-0.31415793 -0.46702921 9.5734301
-0.54152083 -0.87446737 9.5500708
-1.2031845 -2.2183535 9.7537613
-1.5452807 -2.8810992 8.9448271
-1.173816 -2.2032659 5.2256536
-0.61209232 -1.1533445 2.2059073
-0.69607395 -1.3153914 2.0453918
-0.85225534 -1.6138631 2.0568078
-0.93191916 -1.7789476 2.0533113
-0.92888081 -1.7753867 1.6980213
-0.89568192 -1.7140992 1.3526028
-0.87404567 -1.6741019 1.0751224
-0.85589999 -1.640727 0.83599097
-0.84048384 -1.6125315 0.62444234
-0.8349722 -1.6033114 0.43467635
-0.81824422 -1.5725139 0.2520889
-0.93628311 -1.7812117 1.8734126
-0.91243285 -1.7380282 1.5128733
-0.8859098 -1.6889249 1.2063355
-0.86613303 -1.6533108 0.95027542
-0.84556258 -1.6154015 0.72373396
-0.83804435 -1.6023831 0.52685511
-0.82357621 -1.5753783 0.34015211
-0.8233248 -1.5762208 0.16541041
-0.075572282 -0.059230339 9.5839081
-0.73630309 -1.3188323 9.6023417
-0.96003491 -1.7454942 9.6008015
-1.6093566 -2.9731536 10.855093
-1.3015015 -2.4245622 6.5424061
-0.75499022 -1.4136285 3.0042293
-0.6349805 -1.1929202 2.0574207
-0.77652305 -1.4624386 2.0590723
-0.31578627 -0.46592975 9.5734301
-0.54428726 -0.87211984 9.5450993
-1.2048881 -2.2031124 9.7053661
-1.5389075 -2.845331 8.8509722
-1.1505879 -2.1416254 5.0906172
-0.60872954 -1.1374049 2.1803117
-0.70066124 -1.3129536 2.0453918
-0.85788363 -1.6108783 2.0568078
-0.93479115 -1.7693772 2.0463021
-0.92780632 -1.7583637 1.6854674
-0.89581126 -1.6998646 1.3443786
-0.87369215 -1.6592817 1.0681659
-0.85730487 -1.6295239 0.83224493
-0.84164327 -1.6010956 0.62162226
-0.83371121 -1.5873405 0.43187848
-0.81678599 -1.5564191 0.25074768
-0.93549961 -1.7647374 1.8601105
-0.91092867 -1.720544 1.5011007
-0.8857525 -1.674391 1.1987361
-0.86553818 -1.6382387 0.94398123
-0.84678715 -1.6040881 0.72044694
-0.8368296 -1.5865506 0.5233382
-0.82445109 -1.5637329 0.33877075
-0.82183635 -1.5600768 0.16480581
-0.075778574 -0.058966182 9.5839081
-0.74090219 -1.3162541 9.6023417
-0.96562797 -1.7412419 9.5959063
-1.6154337 -2.9596567 10.826462
-1.3053064 -2.4114141 6.5193939
-0.75992006 -1.4109844 3.0042293
-0.63914073 -1.1906965 2.0574207
-0.78162313 -1.4597191 2.0590723
-0.31741074 -0.46482462 9.5734301
-0.54732823 -0.87021464 9.5450993
-1.2077143 -2.190088 9.6666508
-1.5289984 -2.8035824 8.7383461
-1.1041287 -2.0380664 4.8565545
-0.60526311 -1.121503 2.1547163
-0.7066682 -1.3131534 2.049382
-0.86189729 -1.6048875 2.0531328
-0.93760771 -1.7598088 2.0392931
-0.92845303 -1.7448064 1.6760521
-0.89388978 -1.6819581 1.3334126
-0.87324601 -1.6444849 1.0612096
-0.85646915 -1.614236 0.82662582
-0.84048629 -1.5854331 0.61739212
-0.83464825 -1.5757389 0.43001324
-0.81755489 -1.5447556 0.24985351
-0.93461245 -1.7482901 1.8468086
-0.90740985 -1.699526 1.486385
-0.88550442 -1.6598786 1.1911365
-0.86484891 -1.6231914 0.9376871
-0.84794307 -1.592786 0.71715993
-0.83779722 -1.5750372 0.52099353
-0.82525486 -1.5521008 0.33738938
-0.82258922 -1.5483745 0.16440275
-0.075947553 -0.05867723 9.578908
-0.7451086 -1.3129842 9.5974026
-0.97170019 -1.7378607 9.5959063
-1.6250352 -2.952692 10.82169
-1.3090354 -2.3982692 6.4963813
-0.76598388 -1.4104277 3.0086186
-0.64195335 -1.1859834 2.0532877
-0.7851907 -1.4541615 2.0552347
-0.31903136 -0.46371379 9.5734301
-0.55036247 -0.86829877 9.5450993
-1.2098535 -2.1759725 9.6230965
-1.5146586 -2.7543781 8.6022549
-1.1028862 -2.0189164 4.8205447
-0.60293996 -1.1079301 2.1333864
-0.71124768 -1.3106786 2.049382
-0.86749417 -1.6018691 2.0531328
-0.94036895 -1.7502424 2.032284
-0.92717582 -1.7278361 1.6634983
-0.89382958 -1.6677711 1.3251883
-0.87270719 -1.6297113 1.0542531
-0.8555373 -1.5989739 0.82100672
-0.84149194 -1.5740286 0.61457211
-0.83320016 -1.5598174 0.4272154
-0.81825238 -1.5331056 0.24895935
-0.93539375 -1.7351571 1.836832
-0.90567166 -1.6821127 1.4746124
-0.88312352 -1.6415925 1.1810037
-0.86406505 -1.6081687 0.93139297
-0.84679687 -1.577335 0.71222943
-0.83639705 -1.5592533 0.51747662
-0.82598746 -1.5404822 0.33600801
-0.8232705 -1.5366863 0.16399969
-0.076151915 -0.05841177 9.578908
-0.74968719 -1.3103752 9.5974026
-0.97776055 -1.7344582 9.5959063
-1.6266396 -2.9313395 10.764425
-1.3155147 -2.3902621 6.4871759
-0.77090251 -1.4077454 3.0086186
-0.64608932 -1.1837354 2.0532877
-0.79026186 -1.4514117 2.0552347
-0.32064804 -0.46259737 9.5734301
-0.55339003 -0.86637235 9.5450993
-1.2155976 -2.168447 9.6085787
-1.5025048 -2.7098358 8.4802427
-1.1109772 -2.0169613 4.8250461
-0.59927469 -1.0921007 2.1077909
-0.71581846 -1.308188 2.049382
-0.87145543 -1.5958557 2.0494576
-0.94307482 -1.740678 2.025275
-0.9257915 -1.7108961 1.6509445
-0.89169312 -1.6499269 1.3142223
-0.87207603 -1.6149619 1.0472968
-0.85671073 -1.5878178 0.81726068
-0.84015185 -1.5584141 0.61034197
-0.83398062 -1.5482501 0.42535016
-0.81887853 -1.5214696 0.24806519
-0.93609506 -1.7220405 1.8268557
-0.90382314 -1.6647323 1.4628397
-0.88268155 -1.6271323 1.1734042
-0.86534911 -1.5971619 0.92719686
-0.84780127 -1.566064 0.70894241
-0.8372097 -1.5477738 0.51513195
-0.82664907 -1.5288773 0.33462667
-0.82150549 -1.5206167 0.16339511
-0.076318786 -0.058121767 9.5739088
-0.75425673 -1.3077505 9.5974026
-0.98380899 -1.7310346 9.5959063
-1.6361333 -2.9243412 10.759654
-1.3229022 -2.3839474 6.482574
-0.77581179 -1.4050459 3.0086186
-0.65021735 -1.1814729 2.0532877
-0.79532343 -1.4486444 2.0552347
-0.32226089 -0.46147525 9.5734301
-0.55641091 -0.86443537 9.5450993
-1.220685 -2.1598136 9.58922
-1.4883747 -2.6624005 8.3488464
-1.0715001 -1.9293354 4.6269922
-0.59550637 -1.0763108 2.0821953
-0.72038049 -1.3056813 2.049382
-0.87702072 -1.5928041 2.0494576
-0.94401562 -1.7279866 2.0147614
-0.92616475 -1.6974039 1.6415291
-0.89144409 -1.6357895 1.3059981
-0.87135249 -1.6002365 1.0403403
-0.85560113 -1.5726011 0.81164157
-0.84100431 -1.5470428 0.60752195
-0.8323459 -1.5323797 0.42255229
-0.81943351 -1.5098481 0.24717103
-0.93492132 -1.7056658 1.8135536
-0.90380538 -1.6509309 1.4540101
-0.88214946 -1.6126956 1.1658047
-0.86439091 -1.5821829 0.92090267
-0.84647477 -1.5506606 0.70401186
-0.83562487 -1.5320405 0.51161504
-0.82723981 -1.5172868 0.33324531
-0.82441843 -1.5133526 0.16319357
-0.076521203 -0.057855014 9.5739088
-0.75842631 -1.3044379 9.5924635
-0.9898454 -1.7275898 9.5959063
-1.6353291 -2.8991106 10.688074
-1.3254917 -2.3690856 6.4549584
-0.78187668 -1.4044216 3.0130074
-0.65297204 -1.1767355 2.0491548
-0.80037534 -1.4458594 2.0552347
-0.32386976 -0.46034753 9.5734301
-0.55942494 -0.86248785 9.5450993
-1.2282168 -2.1555395 9.58922
-1.4773215 -2.62111 8.2362194
-0.98249525 -1.75464 4.2218833
-0.592906 -1.0628381 2.0608656
-0.7249338 -1.3031588 2.049382
-0.88257527 -1.589733 2.0494576
-0.94487929 -1.71531 2.0042477
-0.92457885 -1.6805199 1.6289753
-0.89110732 -1.6216741 1.2977736
-0.87266898 -1.5894194 1.0357027
-0.85439593 -1.5574118 0.80602247
-0.8417877 -1.5356848 0.60470188
-0.83297038 -1.5208483 0.42068705
-0.81991738 -1.4982414 0.24627687
-0.93545091 -1.6925884 1.8035771
-0.90174907 -1.6336114 1.4422375
-0.88152736 -1.5982823 1.1582052
-0.86333877 -1.5672303 0.91460848
-0.84732825 -1.5394228 0.70072484
-0.83628285 -1.5205964 0.50927037
-0.82775968 -1.5057107 0.33186394
-0.82488543 -1.5017079 0.16279051
-0.076722689 -0.057587553 9.5739088
-0.76297498 -1.3017826 9.5924635
-0.99586987 -1.7241243 9.5959063
-1.6358452 -2.8765173 10.626039
-1.3270336 -2.3525336 6.4227409
-0.78560191 -1.3995955 3.0086186
-0.65707564 -1.1744491 2.0491548
-0.80541742 -1.4430567 2.0552347
-0.32547468 -0.45921421 9.5734301
-0.56243217 -0.8605299 9.5450993
-1.2363597 -2.152329 9.5940599
-1.4770828 -2.5994337 8.1845989
-0.93937927 -1.664 4.0148273
-0.5953337 -1.058489 2.0565996
-0.72947824 -1.3006203 2.049382
-0.88811916 -1.5866425 2.0494576
-0.94566607 -1.7026484 1.9937341
-0.92288649 -1.6636677 1.6164215
-0.89068294 -1.6075813 1.2895492
-0.87177503 -1.5747368 1.0287464
-0.85309505 -1.5422499 0.80040342
-0.842502 -1.5243402 0.6018818
-0.83352453 -1.5093312 0.41882181
-0.82033032 -1.4866499 0.24538271
-0.93408322 -1.6762668 1.7902751
-0.90154856 -1.6198584 1.4334079
-0.88081557 -1.5838935 1.1506057
-0.86219275 -1.5523045 0.90831435
-0.84811366 -1.5281978 0.69743782
-0.83687121 -1.5091664 0.50692576
-0.82820898 -1.4941499 0.33048257
-0.8252812 -1.4900786 0.16238745
-0.076923236 -0.057319392 9.5739088
-0.76751447 -1.2991114 9.5924635
-1.0018821 -1.7206376 9.5959063
-1.6414211 -2.8630199 10.597406
-1.3255786 -2.3309054 6.3767157
-0.79166228 -1.3989289 3.0130074
-0.6611712 -1.1721483 2.0491548
-0.81044978 -1.4402364 2.0552347
-0.32690722 -0.45784089 9.5684376
-0.56543255 -0.8585614 9.5450993
-1.2438653 -2.1480002 9.5940599
-1.4535481 -2.5373631 8.0062733
-0.95595121 -1.6796297 4.0598392
-0.59645158 -1.0518672 2.0480678
-0.7340138 -1.298066 2.049382
-0.89365214 -1.5835327 2.0494576
-0.94637603 -1.6900024 1.9832205
-0.92298788 -1.650245 1.607006
-0.89017099 -1.593511 1.2813249
-0.87294835 -1.5639482 1.0241088
-0.853957 -1.5311651 0.79665732
-0.84314746 -1.5130093 0.59906173
-0.83400851 -1.4978288 0.41695657
-0.82067239 -1.4750738 0.24448855
-0.93444192 -1.6632305 1.7802985
-0.90126318 -1.6061268 1.4245785
-0.8821224 -1.5732892 1.1455393
-0.86095327 -1.537406 0.90202022
-0.84883112 -1.5169864 0.69415081
-0.83738995 -1.4977509 0.50458109
-0.82858759 -1.4826043 0.3291012
-0.82804173 -1.4828269 0.16218592
-0.077122852 -0.057050526 9.5739088
-0.77204454 -1.2964243 9.5924635
-1.0073665 -1.7162517 9.591011
-1.6387054 -2.8353033 10.516283
-1.3142709 -2.2923677 6.2846651
-0.80247557 -1.4065578 3.0349529
-0.66525871 -1.1698333 2.0491548
-0.81547219 -1.4373988 2.0552347
-0.3285034 -0.45669699 9.5684376
-0.56842601 -0.85658246 9.5450993
-1.2519892 -2.1447306 9.5988998
-0.962892 -1.6781708 4.0643406
-0.5988251 -1.0475147 2.0438018
-0.73854047 -1.2954959 2.049382
-0.89917427 -1.5804037 2.0494576
-0.94525588 -1.6742669 1.9692023
-0.92109495 -1.6334517 1.5944521
-0.88957185 -1.5794642 1.2731004
-0.87188452 -1.5493102 1.0171524
-0.85475206 -1.5200932 0.79291129
-0.84372413 -1.5016928 0.59624165
-0.83442241 -1.4863418 0.41509131
-0.82094359 -1.4635135 0.24359439
-0.93472111 -1.6502124 1.7703221
-0.89890265 -1.5888991 1.4128059
-0.88124448 -1.5589423 1.1379397
-0.86185169 -1.5264871 0.89782411
-0.84948063 -1.5057884 0.69086379
-0.83783937 -1.4863503 0.50223649
-0.82646483 -1.46676 0.32702917
-0.82831079 -1.4712207 0.16178286
-0.077321529 -0.056780972 9.5739088
-0.77616501 -1.2930553 9.5875235
-1.0133512 -1.7127249 9.591011
-1.6531017 -2.8373041 10.544914
-1.2978219 -2.2454808 6.1696019
-0.83365369 -1.4494202 3.1315129
-0.66933817 -1.167504 2.0491548
-0.8204847 -1.4345435 2.0552347
-0.33009556 -0.45554748 9.5684376
-0.57141262 -0.85459304 9.5450993
-1.2594683 -2.1403472 9.5988998
-0.95130223 -1.6446501 3.9923213
-0.60247797 -1.045418 2.0438018
-0.74155641 -1.2902975 2.0453918
-0.90468538 -1.5772554 2.0494576
-0.9440375 -1.6585599 1.9551841
-0.91909617 -1.6166918 1.5818983
-0.88888556 -1.5654411 1.264876
-0.87291521 -1.5385517 1.0125147
-0.85548025 -1.5090345 0.78916514
-0.8418678 -1.4862167 0.59201157
-0.83718592 -1.4791451 0.4141587
-0.82114428 -1.4519695 0.24270025
-0.93492085 -1.6372126 1.7603455
-0.89843547 -1.5752186 1.4039763
-0.88241184 -1.5483662 1.1328733
-0.86043924 -1.5116366 0.89152992
-0.85006237 -1.4946047 0.68757677
-0.83821934 -1.4749649 0.49989185
-0.82668769 -1.4552546 0.3256478
-0.82850885 -1.4596308 0.1613798
-0.07751926 -0.056510724 9.5739088
-0.78067392 -1.2903382 9.5875235
-1.0193236 -1.7091773 9.591011
-0.91603464 -1.559878 5.8301945
-1.2918816 -2.2173054 6.1051664
-0.67340946 -1.1651604 2.0491548
-0.82548714 -1.4316707 2.0552347
-0.3316837 -0.45439246 9.5684376
-0.57409394 -0.85215151 9.5401278
-1.2675731 -2.1370189 9.6037388
-0.93400681 -1.6018285 3.8977957
-0.60481322 -1.0410538 2.039536
-0.7460559 -1.2877011 2.0453918
-0.91018558 -1.5740879 2.0494576
-0.94272107 -1.642882 1.9411659
-0.91699159 -1.5999659 1.5693445
-0.88811219 -1.5514421 1.2566516
-0.87168199 -1.5239596 1.0055584
-0.85614169 -1.4979892 0.78541911
-0.84229267 -1.4749378 0.5891915
-0.83747494 -1.4676807 0.41229346
-0.8212744 -1.4404418 0.24180609
-0.93504131 -1.6242317 1.7503691
-0.89788395 -1.561561 1.395147
-0.88136846 -1.5340631 1.1252737
-0.8611927 -1.5007511 0.88733381
-0.85057646 -1.4834353 0.68428975
-0.83611375 -1.4593774 0.49637488
-0.82437938 -1.4394684 0.32357576
-0.82863623 -1.4480575 0.16097674
-0.077753171 -0.056262705 9.578908
-0.7851733 -1.2876052 9.5875235
-1.0252836 -1.7056087 9.591011
-0.92147398 -1.556671 5.8301945
-1.2273803 -2.0898111 5.7691827
-0.67747253 -1.1628027 2.0491548
-0.83047956 -1.4287804 2.0552347
-0.33343953 -0.45346397 9.5734301
-0.57706505 -0.85014236 9.5401278
-1.2750249 -2.1325812 9.6037388
-1.2058929 -2.0385852 6.495203
-0.9285602 -1.5797915 3.8527834
-0.6084435 -1.0389363 2.039536
-0.75054622 -1.285089 2.0453918
-0.91567463 -1.570901 2.0494576
-0.94130683 -1.6272339 1.9271477
-0.91478163 -1.5832747 1.5567907
-0.88934225 -1.5410895 1.2511686
-0.87035763 -1.5093952 0.99860191
-0.85673654 -1.4869579 0.78167301
-0.84264916 -1.4636741 0.58637142
-0.83769405 -1.4562324 0.41042823
-0.82133406 -1.4289312 0.24091193
-0.93508255 -1.61127 1.7403926
-0.89724791 -1.5479264 1.3863175
-0.88023615 -1.5197866 1.1176742
-0.85960799 -1.4859505 0.88103968
-0.84865975 -1.4681923 0.67935926
-0.83634079 -1.448032 0.49403024
-0.82444698 -1.4280047 0.32219443
-0.82869291 -1.4365013 0.16057368
-0.077949092 -0.055990953 9.578908
-0.78966308 -1.2848566 9.5875235
-1.0312309 -1.7020195 9.591011
-0.92690217 -1.5534449 5.8301945
-1.1460793 -1.9358985 5.3595576
-0.60560393 -1.0279343 2.2536969
-0.68152732 -1.1604308 2.0491548
-0.83546185 -1.4258729 2.0552347
-0.33502039 -0.4522973 9.5734301
-0.58002907 -0.84812284 9.5401278
-1.2824613 -2.1281176 9.6037388
-1.2191889 -2.0447385 6.5280528
-0.93850815 -1.5840319 3.8707883
-0.61206627 -1.036806 2.039536
-0.75349861 -1.2798649 2.0414019
-0.92115247 -1.5676953 2.0494576
-0.93979478 -1.6116154 1.9131296
-0.91442555 -1.5699819 1.5473754
-0.88840818 -1.527133 1.2429444
-0.87116849 -1.4986883 0.99396437
-0.85726488 -1.4759409 0.77792698
-0.84293723 -1.4524258 0.58355141
-0.83784354 -1.4448006 0.40856299
-0.82132345 -1.4174378 0.24001777
-0.93504488 -1.598328 1.7304161
-0.89652789 -1.5343155 1.377488
-0.87901497 -1.5055367 1.1100746
-0.86021686 -1.4750996 0.87684357
-0.84902459 -1.4570611 0.67607224
-0.8364988 -1.4367028 0.4916856
-0.82195365 -1.4122783 0.32012239
-0.82867914 -1.4249623 0.16017061
-0.078144059 -0.055718519 9.578908
-0.79414326 -1.2820923 9.5875235
-1.0371659 -1.6984093 9.591011
-0.93462753 -1.5540373 5.8445106
-1.1107781 -1.8614275 5.1662517
-0.61163461 -1.0299324 2.2624753
-0.68557382 -1.1580448 2.0491548
-0.84043407 -1.4229479 2.0552347
-0.33659714 -0.45112509 9.5734301
-0.582986 -0.846093 9.5401278
-1.2898819 -2.1236279 9.6037388
-1.2280968 -2.0434282 6.5374379
-0.94961339 -1.590091 3.8932943
-0.61568171 -1.0346632 2.039536
-0.76103747 -1.2824093 2.049382
-0.92661917 -1.5644703 2.0494576
-0.93999267 -1.5991019 1.9026158
-0.91201687 -1.5533543 1.5348215
-0.88738739 -1.5132017 1.2347199
-0.8696757 -1.4841725 0.98700798
-0.85538429 -1.4609377 0.77230787
-0.84315717 -1.4411936 0.58073127
-0.83544445 -1.4291447 0.40576512
-0.82124269 -1.405962 0.23912361
-0.93682492 -1.588622 1.7237651
-0.89777517 -1.5242112 1.3716016
-0.87989181 -1.495029 1.1050084
-0.86076057 -1.4642628 0.87264746
-0.84932214 -1.4459453 0.67278522
-0.83658803 -1.4253904 0.48934099
-0.82186657 -1.4008582 0.31874102
-0.8285948 -1.4134412 0.15976755
-0.078338079 -0.05544541 9.578908
-0.79861373 -1.2793124 9.5875235
-1.0430882 -1.6947787 9.591011
-0.93772459 -1.5469362 5.8301945
-1.1454674 -1.9044132 5.2951226
-0.60169286 -1.0051879 2.2141953
-0.68961191 -1.1556447 2.0491548
-0.84539586 -1.4200056 2.0552347
-0.33799568 -0.44971713 9.5684376
-0.58593589 -0.84405285 9.5401278
-1.2966306 -2.1180406 9.5988998
-1.26026 -2.0804548 6.6688352
-0.95740372 -1.5904965 3.902297
-0.61928958 -1.0325078 2.039536
-0.76705623 -1.2823308 2.0533719
-0.93207455 -1.5612261 2.0494576
-0.94011474 -1.586607 1.8921022
-0.91148597 -1.5401126 1.5254062
-0.8884083 -1.502896 1.229237
-0.87034529 -1.4734995 0.98237038
-0.85576594 -1.4499582 0.76856184
-0.84330904 -1.4299775 0.5779112
-0.83544028 -1.4177558 0.40389988
-0.82109183 -1.3945041 0.23822945
-0.93664068 -1.5757138 1.7137885
-0.8968994 -1.5106416 1.3627722
-0.87850636 -1.4808263 1.0974088
-0.86123914 -1.4534403 0.86845136
-0.85195827 -1.4389085 0.67114168
-0.83660847 -1.4140949 0.48699635
-0.82170987 -1.3894559 0.31735966
-0.82589883 -1.397637 0.15916295
-0.078531139 -0.05517162 9.578908
-0.80348855 -1.2771746 9.5924635
-1.0489976 -1.6911273 9.591011
-0.94234025 -1.5423797 5.8254223
-1.1632501 -1.9187793 5.3457503
-0.60519803 -1.0030814 2.2141953
-0.69364172 -1.1532304 2.0491548
-0.85034746 -1.417046 2.0552347
-0.33956346 -0.44853461 9.5684376
-0.58918458 -0.84243888 9.5450993
-1.3040161 -2.1135015 9.5988998
-1.2675145 -2.0760431 6.6688352
-0.97085506 -1.6001726 3.9338055
-0.62289 -1.0303397 2.039536
-0.77930772 -1.2925476 2.0733221
-0.93577051 -1.5550585 2.0457823
-0.93833226 -1.5710689 1.8780839
-0.9088797 -1.5235511 1.5128524
-0.88722771 -1.4890095 1.2210126
-0.86868465 -1.4590338 0.97541398
-0.85608137 -1.4389938 0.76481575
-0.84339291 -1.4187783 0.57509118
-0.83536679 -1.4063842 0.40203464
-0.820871 -1.3830644 0.23733529
-0.93829697 -1.566029 1.7071376
-0.89801556 -1.5005649 1.3568859
-0.87924504 -1.4703512 1.0923425
-0.86165279 -1.4426326 0.86425525
-0.8521356 -1.4278159 0.66785467
-0.83656031 -1.4028167 0.48465171
-0.82401931 -1.3823255 0.31666899
-0.82565904 -1.3861611 0.15875989
-0.078723252 -0.054897159 9.578908
-0.80794179 -1.2743621 9.5924635
-1.0543544 -1.6865919 9.5861149
-0.94693571 -1.53781 5.8206506
-1.1699408 -1.9147071 5.3457503
-0.60247266 -0.9907316 2.1922498
-0.69766301 -1.1508021 2.0491548
-0.85528874 -1.4140691 2.0552347
-0.34095126 -0.44711751 9.563446
-0.59212166 -0.84037703 9.5450993
-1.3113856 -2.1089368 9.5988998
-1.2702311 -2.0642576 6.6453719
-0.96280485 -1.5744882 3.879791
-0.62648273 -1.0281591 2.039536
-0.79946482 -1.3155692 2.1132224
-0.94119298 -1.5517825 2.0457823
-0.93829238 -1.5586182 1.8675704
-0.90817475 -1.5103621 1.5034369
-0.8881138 -1.4787341 1.2155296
-0.86921322 -1.4483962 0.97077638
-0.85633075 -1.4280452 0.76106972
-0.84340888 -1.4075958 0.57227111
-0.83522409 -1.3950304 0.4001694
-0.82058048 -1.3716434 0.23644114
-0.93796682 -1.5531559 1.697161
-0.89698458 -1.4870379 1.3480563
-0.87992138 -1.4598891 1.0872761
-0.86200142 -1.4318395 0.86005914
-0.85224611 -1.4167399 0.66456765
-0.83644366 -1.391556 0.48230708
-0.8237384 -1.3709511 0.31528762
-0.82534945 -1.374704 0.15835683
-0.078876801 -0.054599885 9.5739088
-0.8123852 -1.2715342 9.5924635
-1.0602354 -1.6829013 9.5861149
-0.95151061 -1.5332271 5.8158784
-1.1899365 -1.9322363 5.4055829
-0.60217214 -0.9824971 2.1790826
-0.70167577 -1.1483598 2.0491548
-0.85855103 -1.4083382 2.0513971
-0.34250996 -0.44592464 9.563446
-0.59505147 -0.83830506 9.5450993
-1.3187391 -2.1043463 9.5988998
-1.2674233 -2.0436797 6.593751
-0.96486813 -1.5655583 3.8662875
-0.63143283 -1.0281883 2.0438018
-0.81979185 -1.3384655 2.1531224
-0.94306737 -1.5427029 2.0384321
-0.93817693 -1.5461869 1.8570567
-0.90738893 -1.497197 1.4940217
-0.88677382 -1.4648941 1.2073052
-0.86967832 -1.4377726 0.96613878
-0.8541162 -1.4131448 0.75545061
-0.84335721 -1.3964306 0.56945103
-0.83501244 -1.3836949 0.39830416
-0.82279181 -1.3645061 0.23599406
-0.93755847 -1.5403043 1.6871846
-0.89587015 -1.4735367 1.339227
-0.87829727 -1.4457562 1.0796765
-0.85993075 -1.4171817 0.85376495
-0.8522895 -1.4056805 0.66128063
-0.83877748 -1.3844707 0.48113477
-0.8259536 -1.3638315 0.31459692
-0.82755655 -1.3675404 0.15815529
-0.079066902 -0.054324225 9.5739088
-0.81639791 -1.2680373 9.5875235
-1.0661032 -1.6791902 9.5861149
-0.95606512 -1.5286307 5.8111067
-1.196674 -1.928071 5.4055829
-0.60182142 -0.97427672 2.1659153
-0.70568007 -1.1459035 2.0491548
-0.86346185 -1.4053327 2.0513971
-0.34406441 -0.44472635 9.563446
-0.59797412 -0.83622283 9.5450993
-1.3260766 -2.0997303 9.5988998
-1.271805 -2.0348535 6.5796728
-1.0151289 -1.6342981 4.0418344
-0.63501805 -1.0259778 2.0438018
-0.8355394 -1.3535436 2.1810527
-0.94488984 -1.5336291 2.0310817
-0.93798637 -1.5337757 1.8465432
-0.90652233 -1.4840556 1.4846063
-0.88752592 -1.4546509 1.2018223
-0.86777377 -1.4233813 0.95918238
-0.85421991 -1.4022366 0.75170451
-0.843238 -1.3852831 0.56663096
-0.83473188 -1.372378 0.39643893
-0.82237697 -1.3531145 0.2350999
-0.93707162 -1.5274746 1.6772081
-0.89467245 -1.4600614 1.3303974
-0.87883639 -1.435329 1.0746102
-0.86013651 -1.4064279 0.8495689
-0.85226625 -1.3946383 0.65799361
-0.83853877 -1.3732377 0.47879013
-0.82554907 -1.3524865 0.31321558
-0.82712215 -1.356113 0.15775223
-0.07925605 -0.054047897 9.5739088
-0.8208192 -1.2651799 9.5875235
-1.0719582 -1.6754584 9.5861149
-0.9613952 -1.5252842 5.8111067
-1.1982163 -1.9156008 5.3825703
-0.60015476 -0.96403778 2.1483591
-0.70967573 -1.1434332 2.0491548
-0.86836207 -1.4023101 2.0513971
-0.3456147 -0.4435226 9.563446
-0.60057741 -0.83369833 9.5401278
-1.333398 -2.0950887 9.5988998
-1.2715417 -2.0187209 6.5421309
-1.0300691 -1.6455059 4.0778441
-0.63859546 -1.0237551 2.0438018
-0.83866721 -1.3480604 2.1770625
-0.94666046 -1.5245614 2.0237315
-0.9377206 -1.5213846 1.8360294
-0.90557516 -1.4709389 1.475191
-0.88602704 -1.4408585 1.1935979
-0.86577952 -1.4090209 0.95222592
-0.85425812 -1.391345 0.74795848
-0.84305108 -1.3741535 0.56381088
-0.83438247 -1.3610799 0.39457369
-0.82449389 -1.345989 0.23465282
-0.93650687 -1.5146673 1.6672316
-0.89551568 -1.4500515 1.3245111
-0.87704951 -1.4212471 1.0670106
-0.86027765 -1.3956897 0.8453728
-0.85217637 -1.3836133 0.6547066
-0.83823186 -1.3620234 0.4764455
-0.82767034 -1.3453786 0.31252488
-0.82923448 -1.3489614 0.15755071
-0.07944423 -0.053770915 9.5739088
-0.82480508 -1.2616566 9.5825844
-1.0778002 -1.6717064 9.5861149
-0.96671355 -1.5219189 5.8111067
-1.186141 -1.8816592 5.2997246
-0.59969711 -0.9558512 2.1351919
-0.71366274 -1.140949 2.0491548
-0.87155461 -1.3965514 2.0475595
-0.34733972 -0.44254008 9.5684376
-0.60348392 -0.83159679 9.5401278
-1.3407031 -2.0904214 9.5988998
-1.0369684 -1.6437414 4.0823455
-0.64216512 -1.0215197 2.0438018
-0.84016609 -1.3400189 2.1690826
-0.9483794 -1.5155002 2.016381
-0.93737978 -1.5090142 1.8255159
-0.90659964 -1.4611542 1.468914
-0.88664562 -1.4306487 1.188115
-0.86602789 -1.398458 0.94758832
-0.85423058 -1.3804703 0.74421245
-0.84279692 -1.3630421 0.56099087
-0.8365466 -1.3539803 0.39364108
-0.82395506 -1.3346279 0.23375866
-0.93388945 -1.4987137 1.6539296
-0.89416391 -1.4366223 1.3156817
-0.87745178 -1.4108559 1.0619444
-0.86035424 -1.3849679 0.84117669
-0.85201997 -1.3726064 0.65141958
-0.83785701 -1.3508279 0.47410086
-0.82714254 -1.3340639 0.31114352
-0.82867593 -1.3375647 0.15714765
-0.079631448 -0.053493276 9.5739088
-0.82920414 -1.2587699 9.5825844
-1.0836289 -1.6679341 9.5861149
-0.97202009 -1.5185351 5.8111067
-1.1874635 -1.8692623 5.2767119
-0.59790951 -0.94565535 2.1176355
-0.71764106 -1.1384509 2.0491548
-0.87642425 -1.3935004 2.0475595
-0.34888238 -0.44132495 9.5684376
-0.60638303 -0.82948518 9.5401278
-1.3479919 -2.0857286 9.5988998
-1.2511942 -1.9560103 6.3684988
-1.0368594 -1.6309265 4.0598392
-0.64572704 -1.0192719 2.0438018
-0.8351804 -1.3217944 2.1451426
-0.94823807 -1.5035779 2.0053556
-0.93696415 -1.4966649 1.8150022
-0.90550315 -1.4480802 1.4594986
-0.88498849 -1.4169055 1.1798905
-0.8638677 -1.3841528 0.94063193
-0.85659093 -1.3735465 0.74233937
-0.84247559 -1.3519496 0.5581708
-0.83607453 -1.342712 0.39177582
-0.82334697 -1.3232869 0.2328645
-0.93117219 -1.482797 1.6406276
-0.89487749 -1.4266442 1.3097954
-0.87550277 -1.3968266 1.0543448
-0.8603667 -1.3742629 0.83698058
-0.85179716 -1.3616172 0.64813256
-0.83741421 -1.3396519 0.47175622
-0.82654583 -1.3227694 0.30976218
-0.8306939 -1.3304263 0.15694611
-0.079817683 -0.053214982 9.5739088
-0.83316314 -1.2552205 9.5776453
-1.0894445 -1.6641413 9.5861149
-0.97731495 -1.515133 5.8111067
-1.1918744 -1.8618153 5.2675071
-0.59605807 -0.93548363 2.1000791
-0.72161061 -1.1359389 2.0491548
-0.8812831 -1.3904327 2.0475595
-0.35042074 -0.44010442 9.5684376
-0.60895818 -0.82693458 9.5351562
-1.3552642 -2.0810108 9.5988998
-1.0700665 -1.6601046 5.4252524
-1.0354995 -1.6162996 4.0328321
-0.64787751 -1.0148135 2.039536
-0.83169627 -1.3061627 2.1251922
-0.94984365 -1.4945366 1.9980052
-0.93647379 -1.484337 1.8044887
-0.90640193 -1.4383247 1.4532217
-0.8832463 -1.4031917 1.1716661
-0.86397696 -1.3736295 0.93599433
-0.85644627 -1.3626977 0.73859328
-0.84463835 -1.344938 0.55676073
-0.83553421 -1.3314638 0.38991058
-0.82266986 -1.3119667 0.23197034
-0.92835522 -1.4669178 1.6273257
-0.89553219 -1.4166787 1.3039091
-0.87346661 -1.3828284 1.0467453
-0.86031485 -1.3635745 0.83278447
-0.85150802 -1.3506465 0.64484555
-0.83690363 -1.3284953 0.46941158
-0.82588047 -1.3114953 0.30838081
-0.83001149 -1.3190616 0.15654305
-0.080002956 -0.052936044 9.5739088
-0.83753961 -1.2523046 9.5776453
-1.0958077 -1.6611782 9.591011
-0.98178411 -1.5104607 5.8063345
-1.1814195 -1.8313777 5.1938667
-0.59414297 -0.92533648 2.0825229
-0.72557133 -1.1334131 2.0491548
-0.88440585 -1.384647 2.0437222
-0.35195485 -0.43887857 9.5684376
-0.61184102 -0.82480383 9.5351562
-1.36252 -2.0762672 9.5988998
-1.0711542 -1.6491238 5.4017887
-1.0482202 -1.623648 4.0598392
-0.65141582 -1.0125459 2.039536
-0.8281135 -1.2905718 2.1052423
-0.94956923 -1.4826477 1.9869798
-0.93590873 -1.4720306 1.7939749
-0.90515673 -1.425295 1.4438063
-0.88365918 -1.3930383 1.1661832
-0.86402327 -1.3631223 0.93135673
-0.85623658 -1.3518672 0.73484725
-0.84419703 -1.3338747 0.55394071
-0.83755124 -1.3243874 0.38897794
-0.82458419 -1.3048772 0.23152326
-0.92343098 -1.4479283 1.6106981
-0.89395654 -1.403317 1.2950795
-0.87365848 -1.372498 1.0416789
-0.86263412 -1.3567332 0.83068645
-0.85115272 -1.3396944 0.64155853
-0.83632553 -1.3173589 0.46706694
-0.82779992 -1.3044233 0.30769014
-0.83193529 -1.3119372 0.15634152
-0.080187246 -0.052656461 9.5739088
-0.84190589 -1.2493734 9.5776453
-1.1015996 -1.657343 9.591011
-0.98623264 -1.505776 5.8015628
-0.59346569 -0.91722512 2.0693557
-0.7295233 -1.1308734 2.0491548
-0.88923383 -1.3815514 2.0437222
-0.35348472 -0.43764734 9.5684376
-0.61471641 -0.82266313 9.5351562
-1.3690659 -2.0704501 9.5940599
-1.0863559 -1.6598128 5.4487162
-1.066941 -1.6400511 4.1093531
-0.65494639 -1.0102658 2.039536
-0.82606828 -1.2775522 2.0892823
-0.95106196 -1.4736273 1.9796295
-0.93526936 -1.4597465 1.7834612
-0.90592998 -1.41557 1.4375293
-0.88401192 -1.3828992 1.1607003
-0.86400676 -1.3526317 0.92671913
-0.8584559 -1.3449625 0.73297417
-0.84626836 -1.3268753 0.55253065
