# .PCD v0.7 - Point Cloud Data file format
VERSION 0.7
FIELDS x y z
SIZE 4 4 4
TYPE F F F
COUNT 1 1 1
WIDTH 1553
HEIGHT 1
VIEWPOINT 0 0 0 1 0 0 0
POINTS 1553
DATA ascii
-0.65094262 13.119575 21.556185
-1.3589444 26.731892 35.517704
-0.6712727 12.19642 12.083323
-0.51151574 9.2058468 7.5167198
-0.51902407 9.2536926 6.1611342
-0.75813329 13.43338 7.129509
-0.71153593 12.530069 5.1589508
-0.78262228 13.697598 4.1227336
-0.84659892 14.727173 2.8921306
-0.76569998 13.239331 1.2835002
-0.56235033 10.484089 9.4322748
-0.48195338 8.8981409 6.5721664
-0.53297192 9.7771111 5.83952
-0.4958854 9.0100584 4.2589045
-0.59490925 10.741201 3.8332531
-0.67649627 12.137732 3.0227191
-0.81022626 14.491747 2.1165812
-0.71333021 12.679362 0.60595697
0.09119913 0.20928663 24.758329
-0.11593334 4.1102138 26.138977
-0.19166796 5.535193 26.650877
-0.4077825 9.8476982 31.55596
-0.72282743 16.100542 38.028275
-0.44333714 9.4333992 17.374075
0.087888218 1.4646946 25.212296
0.058203354 2.7625115 25.727343
-0.2698788 7.2838073 28.100019
-0.60549313 14.502917 39.527584
-0.78734553 17.676144 36.648628
-0.60574341 13.134794 21.577515
-1.2646272 26.715403 35.489777
-0.62851161 12.195127 12.079819
-0.47775942 9.1764793 7.4916124
-0.48671946 9.2554483 6.1611342
-0.71217406 13.453639 7.1387839
-0.66779351 12.532476 5.1589508
-0.73377627 13.681085 4.1170936
-0.80816126 14.970388 2.9378288
-0.76595229 14.097218 1.3603978
-0.52556366 10.482259 9.4289494
-0.45109463 8.9038057 6.5751095
-0.49993822 9.800437 5.8521857
-0.46536568 9.0298653 4.2672963
-0.55741179 10.743214 3.8332531
-0.63412356 12.140019 3.0227191
-0.80395406 15.34013 2.2346876
-0.71407539 13.534895 0.64041877
0.092004277 0.20912452 24.77833
-0.10156617 4.1098166 26.134037
-0.17234537 5.5358281 26.650877
-0.37227473 9.8192282 31.460518
-0.66702563 16.112728 38.051289
-0.41061383 9.4396753 17.382853
0.092963152 1.4638027 25.202312
0.067845963 2.7622914 25.727343
-0.24449402 7.2859612 28.104858
-0.5547989 14.503218 39.522892
-0.72510386 17.665733 36.621624
-0.50393051 11.823575 19.427485
-1.1744004 26.788891 35.581543
-0.58593881 12.197247 12.079819
-0.44553584 9.1742029 7.4884739
-0.45440894 9.2570906 6.1611342
-0.66980076 13.548956 7.187479
-0.62404293 12.534731 5.1589508
-0.68649638 13.693145 4.1199136
-0.75763357 15.00746 2.9443572
-0.76148826 14.980124 1.4395308
-0.48862261 10.47657 9.4222975
-0.4202022 8.9093637 6.5780525
-0.46572524 9.8021231 5.8521857
-0.43449599 9.0450344 4.2735906
-0.52013582 10.749809 3.8348968
-0.59150648 12.137304 3.0215466
-0.71057653 14.425504 0.67629129
0.092733704 0.2088021 24.77833
-0.087219626 4.110146 26.134037
-0.15302068 5.536396 26.650877
-0.33774036 9.8130083 31.436661
-0.61085165 16.116911 38.055889
-0.37785211 9.445837 17.39163
0.098052569 1.4631813 25.197319
0.077487744 2.7620378 25.727343
-0.21909754 7.2880273 28.109697
-0.50416982 14.505066 39.522892
-0.66376114 17.676855 36.639626
-0.46326706 11.840898 19.453079
-1.0833117 26.853043 35.661346
-0.54335892 12.199218 12.079819
-0.41350913 9.1757021 7.4884739
-0.42209291 9.2586203 6.1611342
-0.61863989 13.467134 7.1434216
-0.58028477 12.536833 5.1589508
-0.63847065 13.690665 4.1185036
-0.70409054 14.98548 2.9396942
-0.75086921 15.863159 1.5186638
-0.71980727 16.685434 14.95593
-0.38910013 8.9107761 6.5780525
-0.43169615 9.8079948 5.8547187
-0.40352601 9.0600977 4.2798843
-0.48197353 10.737407 3.8299661
-0.5491358 12.139296 3.0215466
-0.71346444 15.711445 2.2857978
-0.6969859 15.231401 0.70873779
0.09346199 0.20847712 24.77833
-0.072899401 4.111979 26.143917
-0.13369411 5.5368967 26.650877
-0.30182469 9.760416 31.26487
-0.55458939 16.118944 38.055889
-0.34505233 9.4518852 17.40041
0.10309751 1.4619662 25.182346
0.087145612 2.7622833 25.732315
-0.19368957 7.2900033 28.114536
-0.45358852 14.508462 39.527584
-0.4202607 11.795528 19.376293
-0.99123472 26.901833 35.721199
-0.50091857 12.204603 12.083323
-0.38196239 9.1887579 7.497889
-0.38994753 9.2642145 6.1638761
-0.56993669 13.429379 7.1225524
-0.53671771 12.543413 5.1608238
-0.59067744 13.692811 4.1185036
-0.65305758 15.017291 2.9452899
-0.71337545 16.273649 1.5553243
-0.66155982 16.687845 14.95593
-0.35799333 8.9120798 6.5780525
-0.39780629 9.8180571 5.8597851
-0.37245622 9.0750551 4.2861786
-0.44449005 10.739024 3.8299661
-0.50655574 12.136282 3.0203743
-0.66027594 15.753421 2.2913232
-0.68874669 16.296928 0.75166386
0.094073929 0.20791453 24.748329
-0.058545474 4.1122084 26.143917
-0.11436591 5.5373297 26.650877
-0.312215 9.4578199 17.409187
0.10815681 1.4610217 25.172361
0.09669283 2.7592988 25.707458
-0.16829944 7.2931485 28.124216
-0.40294176 14.509957 39.527584
-0.29455885 9.6366625 19.998638
-0.3765718 11.718721 19.248314
-0.45844734 12.20984 12.086826
-0.35018143 9.197813 7.5041656
-0.35760701 9.2655191 6.1638761
-0.52115989 13.382595 7.0970454
-0.49292973 12.545211 5.1608238
-0.54287696 13.694789 4.1185036
-0.60004461 15.004754 2.942492
-0.66700315 16.534788 1.5785725
-0.60370892 16.701248 14.965906
-0.32688221 8.9132748 6.5780525
-0.36385137 9.828002 5.8648515
-0.34128693 9.0899057 4.2924733
-0.40503433 10.688604 3.8118875
-0.46400341 12.13312 3.019202
-0.60395151 15.720992 2.2864885
-0.6610781 17.053053 0.78209507
0.094644405 0.20727199 24.708332
-0.044223916 4.1154957 26.163673
-0.095018916 5.5366769 26.645981
-0.35594735 14.874832 47.613682
-0.13067915 4.7622738 11.283007
-0.27934039 9.4636393 17.417965
-0.43114299 13.948746 20.568897
0.11321076 1.4600596 25.162378
0.10622029 2.7562811 25.6826
-0.14286515 7.2949486 28.129057
-0.352332 14.513001 39.53228
-0.26127213 9.6506882 20.025644
-0.33499181 11.696503 19.209921
-0.41594559 12.214931 12.090332
-0.31847635 9.2106495 7.5135813
-0.32540882 9.2708902 6.1666174
-0.47428581 13.379906 7.0947266
-0.44913575 12.546855 5.1608238
-0.49489668 13.691807 4.1170936
-0.54784375 15.011666 2.9434245
-0.60891515 16.527063 1.5776783
-0.54516339 16.695789 14.959256
-0.29576707 8.914362 6.5780525
-0.32983184 9.8378277 5.8699179
-0.31001842 9.1046486 4.2987671
-0.36512437 10.614442 3.7855914
-0.42164809 12.134665 3.019202
-0.54907131 15.723004 2.2864885
-0.6136986 17.399761 0.79600066
0.09542577 0.20705749 24.723331
-0.029846765 4.1140709 26.153795
-0.075677872 5.5359564 26.641087
-0.30432716 14.890908 47.661407
-0.11414834 4.7666068 11.292212
-0.24636672 9.4669514 17.422354
-0.38406926 14.009239 20.655691
0.11828298 1.4593679 25.157387
0.11575045 2.7537632 25.662714
-0.11731943 7.2903757 28.109697
-0.30167001 14.514143 39.53228
-0.31795245 12.644016 20.758455
-0.37352282 12.223438 12.097341
-0.28680688 9.2272673 7.5261354
-0.29330951 9.2803278 6.1721005
-0.42729539 13.372624 7.0900893
-0.40533632 12.548347 5.1608238
-0.44710034 13.693451 4.1170936
-0.49543989 15.013488 2.9434245
-0.55122119 16.529087 1.5776783
-0.48698965 16.701323 14.962581
-0.26464835 8.9153404 6.5780525
-0.29574823 9.847538 5.8749843
-0.27865118 9.1192856 4.3050613
-0.3292377 10.653412 3.7987394
-0.37898397 12.126347 3.0168576
-0.49434006 15.729774 2.2871792
-0.55311698 17.40679 0.79620218
0.096167564 0.20676212 24.728333
-0.015480101 4.112596 26.143917
-0.0563327 5.5341506 26.631296
-0.252599 14.906805 47.709126
-0.097509086 4.7669764 11.292212
-0.21342723 9.4725428 17.431133
-0.33462727 13.987988 20.622625
0.12335175 1.4586585 25.152397
0.12526435 2.7512126 25.642828
-0.091854751 7.2894835 28.104858
-0.25097454 14.513382 39.527584
-0.35485056 17.670513 36.608116
-0.27257302 12.587686 20.664604
-0.33104575 12.231798 12.10435
-0.25502524 9.2437744 7.5386891
-0.2611483 9.2896547 6.1775832
-0.38036162 13.365178 7.0854516
-0.36259985 12.586757 5.175808
-0.39957818 13.704519 4.1199136
-0.44303003 15.015125 2.9434245
-0.49352062 16.530912 1.5776783
-0.4286882 16.702921 14.962581
-0.23342058 8.9121695 6.5751095
-0.26171514 9.8614378 5.8825841
-0.24718556 9.1338139 4.3113556
-0.29204834 10.654496 3.7987394
-0.33678767 12.132454 3.0180297
-0.43942985 15.731405 2.2871792
-0.49277636 17.423599 0.79680681
0.096908458 0.20646407 24.733332
-0.0011239606 4.1102943 26.129099
-0.037001058 5.5322771 26.621506
-0.20040254 14.895656 47.670948
-0.080604047 4.7516608 11.255391
-0.18045169 9.4780188 17.439911
-0.28562573 13.980631 20.610228
0.12839134 1.4576439 25.142414
0.13476183 2.7486289 25.622942
-0.066295072 7.2771907 28.056463
-0.20031185 14.514169 39.527584
-0.29359993 17.697765 36.662132
-0.21504641 11.840179 19.440281
-0.28851482 12.240009 12.11136
-0.22322559 9.2640648 7.5543809
-0.22892554 9.2988701 6.1830659
-0.33348504 13.357568 7.0808139
-0.31971744 12.629656 5.1926656
-0.3532148 13.763375 4.1368341
-0.39061478 15.016581 2.9434245
-0.43594518 16.537512 1.5781254
-0.3703815 16.704315 14.962581
-0.20230989 8.9129295 6.5751095
-0.22738999 9.8666 5.8851166
-0.21572879 9.1527691 4.3197474
-0.25621027 10.712101 3.8184617
-0.29455337 12.138415 3.019202
-0.3846353 15.737793 2.2878699
-0.43170607 17.415224 0.79640371
0.097648442 0.20616338 24.738329
0.013205614 4.1048341 26.094524
-0.017679987 5.5293179 26.606821
-0.14840578 14.896264 47.670948
-0.064043425 4.7538671 11.259995
-0.14744055 9.4833803 17.44869
-0.23482162 13.86337 20.436644
0.13342534 1.4566119 25.132429
0.14427099 2.7465446 25.608028
-0.040801264 7.2610373 27.993551
-0.14964674 14.514779 39.527584
-0.23179291 17.696505 36.657631
-0.17237695 11.749587 19.290974
-0.24607374 12.255203 12.125377
-0.19200881 9.3192692 7.59832
-0.19664164 9.3079739 6.188549
-0.28666621 13.349792 7.0761762
-0.27502298 12.602886 5.1814275
-0.30516949 13.764525 4.1368341
-0.33830532 15.022763 2.9443572
-0.37832969 16.543911 1.5785725
-0.31227949 16.716705 14.972557
-0.17104153 8.9054985 6.5692234
-0.19303201 9.871645 5.88765
-0.18405163 9.1670799 4.3260417
-0.22122703 10.830959 3.8595493
-0.25228155 12.144229 3.0203743
-0.32969782 15.739039 2.2878699
-0.3710193 17.421619 0.79660523
0.098307446 0.20570496 24.723331
0.027507635 4.1008782 26.069828
0.0016199758 5.5262914 26.592134
-0.096397571 14.895199 47.666176
-0.047410067 4.750154 11.250789
-0.11436532 9.4862318 17.453077
-0.18642801 13.864105 20.436644
0.13842605 1.4552752 25.117453
0.15376721 2.7444277 25.593113
-0.015426306 7.2473087 27.940317
-0.098991543 14.516939 39.53228
-0.17001916 17.697205 36.657631
-0.12958515 11.591037 19.030752
-0.20347098 12.266685 12.135891
-0.15947732 9.3198824 7.59832
-0.16422327 9.3127842 6.1912909
-0.23990576 13.341855 7.0715389
-0.23417231 12.77527 5.2507296
-0.25810584 13.818264 4.1523442
-0.28567713 15.01403 2.942492
-0.32067484 16.55011 1.5790195
-0.2537553 16.706493 14.962581
-0.14039893 8.9343328 6.5898252
-0.15864159 9.8765678 5.890183
-0.15227714 9.1812801 4.3323359
-0.18365838 10.845829 3.8644798
-0.21089652 12.203355 3.0344422
-0.27492917 15.749997 2.2892511
-0.31020424 17.422808 0.79660523
0.098964415 0.20524445 24.708332
0.041782197 4.0968723 26.04513
0.020894684 5.5221791 26.572554
-0.044434037 14.905892 47.699577
-0.030803416 4.7463837 11.241584
-0.081292458 9.4913635 17.461857
-0.13792014 13.853417 20.420113
0.14344773 1.4542086 25.107471
0.16325045 2.7422779 25.578197
0.0098505579 7.2322354 27.882244
-0.048323087 14.518921 39.536968
-0.10823006 17.695515 36.65313
-0.088843688 11.554908 18.971029
-0.16083774 12.281584 12.149908
-0.12784469 9.3865452 7.6516738
-0.13189191 9.3258429 6.1995149
-0.19320416 13.333752 7.0669012
-0.18882038 12.72502 5.2301264
-0.20986953 13.819081 4.1523442
-0.23418227 15.073875 2.9536834
-0.26313946 16.566065 1.5803607
-0.19543722 16.707277 14.962581
-0.10955711 8.9630594 6.6104274
-0.12416495 9.8770618 5.890183
-0.12052462 9.2044458 4.3428264
-0.14662325 10.907787 3.8858454
-0.17151441 12.437304 3.0907135
-0.2198806 15.745909 2.2885604
-0.2493854 17.423784 0.79660523
0.099680252 0.20489775 24.708332
0.05602913 4.0928168 26.020435
0.040140707 5.5180001 26.552973
0.0075857877 14.883568 47.628002
-0.014223662 4.7425547 11.232378
-0.04817304 9.4939842 17.466244
-0.089816265 13.893209 20.477974
0.1483746 1.4522632 25.082512
0.1727543 2.7406275 25.568254
0.035021998 7.2170734 27.824171
0.0023583015 14.522453 39.546356
-0.046466235 17.697962 36.657631
-0.049251877 11.732492 19.261112
-0.11830837 12.317733 12.184955
-0.099293321 9.3220663 6.1967735
-0.14651339 13.321056 7.0599446
-0.14350654 12.646795 5.1982846
-0.16286476 13.925259 4.1833653
-0.18185897 15.09916 2.9583464
-0.20524983 16.561905 1.5799137
-0.13714738 16.711594 14.965906
-0.078269519 8.9633875 6.6104274
-0.089686826 9.8774357 5.890183
-0.088437937 9.2093487 4.3449244
-0.10831219 10.884624 3.8776278
-0.12809907 12.437826 3.0907135
-0.16527878 15.781243 2.2933953
-0.18856353 17.424549 0.79660523
0.10029276 0.20435576 24.683334
0.070234835 4.087935 25.990801
0.059346788 5.5127358 26.528498
0.059604995 14.89987 47.680492
0.0023289833 4.7386684 11.223174
-0.015040085 9.4988842 17.475023
-0.041536454 13.966601 20.58543
0.15338169 1.4511622 25.072529
0.18224861 2.7389441 25.558311
0.060087714 7.2018242 27.7661
0.053076405 14.529259 39.565128
0.015311458 17.698015 36.657631
-0.0083102835 11.750849 19.290974
-0.074875034 12.246746 12.114863
-0.063344248 9.5428982 7.7772117
-0.066632949 9.3056307 6.1858077
-0.10004658 13.325916 7.0622635
-0.099396527 12.651855 5.2001576
-0.11425555 13.925742 4.1833653
-0.129278 15.114439 2.9611444
-0.14748105 16.567497 1.5803607
-0.046980981 8.9636059 6.6104274
-0.055592816 9.9466591 5.9307141
-0.056457121 9.2368326 4.3575125
-0.070317104 10.884934 3.8776278
-0.085112274 12.501384 3.1059535
-0.11070953 15.856003 2.3037555
-0.12777598 17.430098 0.79680681
0.10119051 0.2043508 24.728333
0.084423274 4.0837808 25.966103
0.078516603 5.5074043 26.504019
0.11149166 14.883153 47.628002
0.018854322 4.734724 11.213968
0.018121898 9.5012741 17.479412
0.0072531626 14.037013 20.688753
0.15819283 1.4483225 25.032597
0.19173327 2.7372277 25.548368
0.085032478 7.1852307 27.703186
0.10381736 14.532436 39.574512
0.077088967 17.697853 36.657631
0.032882668 11.813398 19.393356
-0.032190815 12.271896 12.139395
-0.034226459 9.3267126 6.1995149
-0.055050645 12.610402 5.1833005
-0.065283246 13.849303 4.1608047
-0.076915786 15.193394 2.9760664
-0.090079904 16.647591 1.5875139
-0.033309124 27.215235 24.320538
-0.020881183 9.9511032 5.9332471
-0.024226099 9.2415113 4.3596106
-0.041780047 12.593957 3.1282275
-0.05562038 15.930573 2.3141158
-0.066932812 17.430437 0.79680681
0.10211013 0.20438047 24.77833
0.098508187 4.0764704 25.92165
0.097649924 5.5020061 26.479544
0.035352156 4.7307224 11.204763
0.051326297 9.508338 17.49258
0.056477353 14.093183 20.771412
0.16334549 1.448622 25.047571
0.20120817 2.7354786 25.538427
0.11001657 7.1786065 27.678989
0.15445255 14.523358 39.551052
0.13888265 17.699656 36.662132
0.073348768 11.690638 19.192858
0.025971737 29.835718 29.399284
-0.0071794875 13.645236 7.2292171
-0.011052022 12.633698 5.1926656
-0.016845975 13.772694 4.1382442
-0.023880478 15.19357 2.9760664
-0.032064039 16.697605 1.5919849
0.061622206 27.185314 24.293934
0.013854777 9.9511166 5.9332471
0.0021796247 12.584305 3.1258829
-1.1966153e-05 15.97524 2.3203318
-0.0061027771 17.470531 0.798419
0.10267714 0.20375441 24.74333
0.11275869 4.0768785 25.92659
0.11674652 5.4965425 26.455069
0.13517164 9.3446541 29.923941
0.051843762 4.7286167 11.200161
0.084558919 9.5128908 17.501358
0.16843481 1.4483297 25.052563
0.21067321 2.7336967 25.528484
0.13493176 7.1706381 27.649952
0.20512317 14.521006 39.546356
0.20066512 17.699062 36.662132
0.11186217 11.455599 18.808924
0.13016437 29.846148 29.4098
0.042396482 14.300786 7.5723996
0.033047877 12.633659 5.1926656
0.031240683 13.777466 4.1396542
0.029060818 15.144438 2.9667401
0.026362468 16.787254 1.6000322
0.15673132 27.222269 24.327188
0.072963946 14.938545 8.8641348
0.04601796 12.559917 3.1200213
0.055561885 15.92067 2.3127344
0.054959267 17.495424 0.79942667
0.10336679 0.20335649 24.738329
0.12691614 4.0741301 25.911772
0.13583139 5.4920292 26.435486
0.16711891 9.3068132 29.804642
0.068292797 4.7244997 11.190955
0.11767554 9.505352 17.48819
0.17352407 1.4480195 25.057554
0.22012824 2.7318821 25.518541
0.15979266 7.1625838 27.620914
0.25550553 14.502946 39.499432
0.26247743 17.70043 36.666634
0.15046528 11.350825 18.638285
0.23400995 29.802715 29.367744
0.092601337 14.344848 7.5955873
0.077147372 12.633467 5.1926656
0.079940654 13.882807 4.1706748
0.081685401 15.100034 2.9583464
0.084960759 16.78706 1.6000322
0.25165021 27.210356 24.317213
0.1252532 14.955441 8.8742685
0.094650008 12.055055 5.6604033
0.089581721 12.520796 3.1106429
0.11085849 15.880764 2.307209
0.1160625 17.500124 0.7996282
0.10405491 0.20295624 24.733332
0.14110975 4.0728855 25.906832
0.15488619 5.4874506 26.415907
0.19989312 9.3196039 29.847589
0.084713727 4.7203259 11.181751
0.17857754 1.4474049 25.057554
0.22961807 2.7305658 25.513569
0.18459898 7.1544428 27.591879
0.30529055 14.462284 39.391495
0.32430175 17.701582 36.671131
0.18986766 11.337193 18.616955
0.3380799 29.805285 29.37125
0.14232111 14.309002 7.5770373
0.12137944 12.647028 5.1982846
0.12946515 13.997568 4.2045155
0.13417524 15.075097 2.9536834
0.14304695 16.726902 1.5946672
0.34663054 27.209312 24.317213
0.17750782 14.959223 8.8768005
0.1367809 12.059189 5.6625013
0.13318342 12.510687 3.1082981
0.16556603 15.810954 2.2975395
0.17740148 17.52459 0.80063587
0.10476273 0.20259178 24.733332
0.15529622 4.0715919 25.901894
0.17391068 5.4828062 26.396326
0.23223713 9.311389 29.823729
0.10110635 4.716095 11.172546
0.18366554 1.4470593 25.062546
0.23905466 2.7286859 25.503626
0.20927672 7.143703 27.553164
0.35381818 14.381773 39.175629
0.38613728 17.702518 36.675636
0.2292823 11.32864 18.604158
0.19226795 14.308417 7.5770373
0.16516097 12.618713 5.1870461
0.17844722 14.006623 4.2073359
0.18777025 15.153128 2.9686053
0.2001745 16.621731 1.5852786
0.44154608 27.204205 24.313889
0.14322497 9.1202421 6.7252102
0.22965799 14.954203 8.8742685
0.17894182 12.063176 5.6645994
0.19110453 13.192919 4.681304
0.17595978 12.446964 3.0930581
0.22075556 15.810281 2.2975395
0.23830061 17.503881 0.79982972
0.10546927 0.20222485 24.733332
0.16947538 4.0702481 25.896954
0.19294049 5.4791121 26.381639
0.11747047 4.7118073 11.163341
0.27097517 11.854867 21.798267
0.18871561 1.4464093 25.062546
0.2484809 2.7267728 25.493683
0.23384047 7.1316223 27.509609
0.40096331 14.271778 38.879986
0.44798338 17.703239 36.680138
0.49419606 26.967503 26.585135
0.17266925 9.7011566 7.9058886
0.24213748 14.303229 7.574718
0.20913063 12.613425 5.1851735
0.22461328 13.83804 4.1579847
0.24261378 15.27517 2.9919209
0.25842601 16.635868 1.58662
0.53650379 27.202497 24.313889
0.17505969 9.1196871 6.7252102
0.28169397 14.94469 8.8692017
0.22113225 12.067016 5.6666975
0.23724011 13.196893 4.6829476
0.21820726 12.378236 3.0766456
0.27637449 15.834169 2.3009927
0.29999721 17.53791 0.80124044
0.10606706 0.2016656 24.708332
0.18364707 4.0688558 25.892015
0.21194668 5.4753537 26.366953
0.47580117 14.898363 47.699577
0.13380587 4.7074623 11.154136
0.31210226 11.844272 21.78071
0.19372466 1.4454556 25.057554
0.25789669 2.7248275 25.48374
0.25841373 7.1219697 27.475733
0.45061511 14.265115 38.865902
0.50983924 17.703745 36.684639
0.34897694 12.818002 21.044273
0.20628294 9.6888199 7.8964729
0.20207909 9.730278 6.4654374
0.29197314 14.297869 7.5723996
0.25315842 12.612618 5.1851735
0.27187505 13.784414 4.1424742
0.29374394 15.16127 2.9704707
0.31639969 16.629887 1.5861727
0.63136828 27.196726 24.310562
0.207901 9.1634712 6.757585
0.33376271 14.939307 8.8666687
0.26325262 12.066171 5.6666975
0.28350717 13.205426 4.6862345
0.26141402 12.377398 3.0766456
0.3322666 15.862814 2.3051367
0.36224297 17.586706 0.8032558
0.10670549 0.20118046 24.693333
0.19781107 4.0674138 25.887075
0.23092894 5.4715285 26.352268
0.52806765 14.904072 47.723442
0.15011241 4.7030616 11.144931
0.19876906 1.4447705 25.057554
0.26735428 2.7233801 25.478767
0.28252238 7.1021852 27.403143
0.50058854 14.26863 38.879986
0.57177418 17.706207 36.693642
0.39772299 12.947045 21.25757
0.24270627 9.7931013 7.9812112
0.23817292 9.817296 6.5230079
0.34177431 14.292333 7.5700803
0.30166119 12.801678 5.2619677
0.31999001 13.783381 4.1424742
0.34621561 15.140508 2.9667401
0.37523168 16.66353 1.5893023
0.72629869 27.194357 24.310562
0.24009782 9.1707706 6.7634716
0.3857972 14.933741 8.8641348
0.30536982 12.065178 5.6666975
0.32971883 13.209077 4.6878777
0.30198634 12.269509 3.0508547
0.3869102 15.831854 2.3009927
0.4269987 17.72518 0.80889863
0.10723303 0.20050418 24.653334
0.21192673 4.0651464 25.877195
0.24988711 5.4676375 26.337584
0.57997322 14.899155 47.713898
0.16638982 4.6986041 11.135726
0.64183754 19.250185 35.36491
0.20377037 1.4437821 25.052563
0.27680489 2.7219002 25.473797
0.30742067 7.1036668 27.412819
0.55079156 14.277142 38.908142
0.63365489 17.706282 36.698143
0.44389534 12.974249 21.304493
0.27886978 9.8622284 8.0377035
0.26814738 9.6617517 6.4215741
0.39166179 14.291053 7.5700803
0.34647092 12.80518 5.2638407
0.36874145 13.806158 4.1495242
0.39828709 15.109744 2.9611444
0.43352553 16.667099 1.5897495
0.82110757 27.187923 24.307236
0.27678487 9.327446 6.8782549
0.43767056 14.923684 8.8590689
0.34761399 12.068575 5.6687956
0.38012338 13.358893 4.7404699
0.3459056 12.307251 3.0602331
0.44203308 15.825458 2.300302
0.48886853 17.723579 0.80889863
0.10793226 0.20012866 24.653334
0.22602899 4.0628309 25.867319
0.26877081 5.4626637 26.318003
0.63178754 14.892564 47.699577
0.18263796 4.6940904 11.12652
0.70911741 19.250219 35.369297
0.20880887 1.4430621 25.052563
0.28619239 2.719857 25.463854
0.33180383 7.0937614 27.378944
0.600407 14.26996 38.894062
0.69554287 17.706135 36.702644
0.48898464 12.967408 21.295963
0.81481206 25.644337 20.770422
0.30017358 9.6064243 6.3859344
0.44168133 14.294027 7.5723996
0.39286613 12.859498 5.2863169
0.41837987 13.852735 4.1636243
0.45088091 15.103352 2.9602118
0.4924362 16.690372 1.5919849
0.91600609 27.184891 24.307236
0.3100121 9.3466225 6.892971
0.48961988 14.917758 8.8565359
0.38988554 12.071824 5.6708937
0.42931587 13.437721 4.7684097
0.38886383 12.305967 3.0602331
0.49913806 15.883212 2.3085902
0.54545611 17.551985 0.8020466
0.10876232 0.19997668 24.683334
0.24011765 4.0604658 25.857441
0.28767651 5.458642 26.303316
0.68424791 14.900706 47.732983
0.19893944 4.6914721 11.121918
0.77621245 19.245235 35.36491
0.21384482 1.4423244 25.052563
0.295569 2.7177818 25.453911
0.35593212 7.0800066 27.330551
0.64982188 14.259157 38.870598
0.75743765 17.705774 36.707142
0.53306502 12.936958 21.249039
0.91412318 25.539871 25.193829
0.90514565 25.664673 20.789251
0.49172637 14.296824 7.574718
0.43648979 12.820982 5.2713327
0.46770176 13.879956 4.1720848
0.50425357 15.121324 2.9639421
0.55085772 16.693529 1.5924318
1.0107547 27.177795 24.303909
0.54153311 14.911649 8.854002
0.43218413 12.074926 5.6729918
0.47270691 13.337037 4.7338963
0.55665171 15.940763 2.3168786
0.60516721 17.505039 0.80023277
0.10945971 0.19959581 24.683334
0.25419253 4.0580521 25.847561
0.30632862 5.4504886 26.269049
0.73640436 14.90121 47.742527
0.21513523 4.6868458 11.112713
0.84349102 19.244801 35.369297
0.21883452 1.4412838 25.047571
0.30493468 2.7156742 25.443968
0.3814542 7.0937824 27.388622
0.70026845 14.270591 38.908142
0.81933832 17.705196 36.711647
0.57787073 12.927201 21.236238
1.0025685 25.518711 25.176308
0.9947266 25.661356 20.789251
0.65596503 17.154423 11.339765
0.54179633 14.299449 7.5770373
0.47776225 12.726727 5.2338719
0.51579243 13.868651 4.1692648
0.55703378 15.119472 2.9639421
0.61057866 16.731318 1.5960085
1.1053132 27.166641 24.29726
0.82101566 20.442711 14.980776
0.59358114 14.909667 8.854002
0.47433081 12.073344 5.6729918
0.51907527 13.330587 4.7322526
0.55686241 14.430323 3.5737081
0.61286229 15.953568 2.3189504
0.66778779 17.542759 0.80184507
0.11020032 0.19928753 24.693333
0.26820219 4.0548143 25.832745
0.32547399 5.4514184 26.278839
0.78920382 14.913454 47.790249
0.23139764 4.6841154 11.10811
0.91088927 19.246525 35.378078
0.2238642 1.4405111 25.047571
0.31428918 2.7135341 25.434025
0.41002548 7.1589184 27.645113
0.7501685 14.269784 38.912834
0.8812443 17.704405 36.716148
0.62387061 12.94334 21.2661
1.0914867 25.511492 25.172802
1.0831448 25.630505 20.767282
0.71514368 17.135317 11.328798
0.5920738 14.306322 7.5816751
0.51800197 12.623077 5.1926656
0.5610795 13.790076 4.1467042
0.61079717 15.141976 2.9686053
0.66858011 16.719133 1.5951144
1.2001358 27.162619 24.29726
0.89113486 20.411455 14.960174
0.64543545 14.903199 8.851469
0.51666576 12.076148 5.6750894
0.55919766 13.177721 4.6796603
0.60723025 14.428291 3.5737081
0.66937637 15.971123 2.3217132
0.72860456 17.530338 0.80144203
0.1109177 0.19893909 24.698332
0.28224635 4.0523028 25.822866
0.34392238 5.4411035 26.234783
0.84075207 14.901667 47.761616
0.24774684 4.683279 11.10811
0.97830975 19.248011 35.386856
0.22884549 1.4394358 25.04258
0.32363251 2.7113621 25.424084
0.43867457 7.2176666 27.877405
0.81292313 14.497954 39.541664
0.94315457 17.703394 36.720646
0.66918224 12.943689 21.270367
1.1785531 25.464777 25.130747
1.1727835 25.630459 20.770422
0.77589744 17.153601 11.342505
0.64240575 14.313017 7.5863118
0.56185532 12.616562 5.1907926
0.60942423 13.792828 4.1481142
0.66235811 15.110308 2.9630096
0.72607124 16.696796 1.593326
1.2970778 27.203018 24.337168
0.96314037 20.42437 14.971947
0.69745344 14.900855 8.851469
0.55881619 12.074271 5.6750894
0.60519314 13.175689 4.6796603
0.65803337 14.435795 3.5760529
0.71928126 15.840067 2.3037555
0.79001725 17.532679 0.80164349
0.11165655 0.19862542 24.708332
0.29621947 4.0489683 25.808046
0.36318466 5.443934 26.254364
0.8925848 14.89566 47.752071
0.26398295 4.6804357 11.103508
1.0456219 19.24687 35.391243
0.23382202 1.4383433 25.037586
0.33296445 2.7091577 25.414139
0.46668994 7.2599945 28.046785
0.86906826 14.58805 39.795074
1.0051922 17.704342 36.729652
0.71392876 12.933463 21.25757
1.269208 25.496128 25.165794
1.2622434 25.626209 20.770422
0.83475238 17.129906 11.328798
0.69343406 14.332812 7.5979066
0.60722643 12.642306 5.2020307
0.6591658 13.824157 4.1579847
0.71533108 15.112809 2.9639421
0.78294718 16.664312 1.5906435
1.3912628 27.183411 24.323864
1.0323838 20.380514 14.942515
0.74967945 14.902635 8.854002
0.60118556 12.07678 5.6771874
0.65141433 13.178213 4.681304
0.70841968 14.433411 3.5760529
0.77456903 15.83746 2.3037555
0.85097057 17.524824 0.80144203
0.11237187 0.19827172 24.713331
0.31017277 4.0455852 25.79323
0.38268498 5.4497428 26.28863
0.94438595 14.889475 47.742527
0.28031912 4.6794853 11.103508
1.1130761 19.247885 35.400021
0.2387937 1.4372337 25.032597
0.34228501 2.7069213 25.404196
0.49262461 7.2670994 28.080662
0.91987616 14.583204 39.790379
1.0672476 17.705069 36.738651
1.2193164 20.770163 34.102299
1.3581983 25.491543 25.165794
1.3525081 25.637196 20.782976
0.89497805 17.135241 11.334281
0.74070644 14.277218 7.5700803
0.65135258 12.640109 5.2020307
0.70741707 13.821772 4.1579847
0.76882839 15.124938 2.9667401
0.84060961 16.651531 1.5897495
1.103956 20.384857 14.9484
0.80169475 14.899926 8.854002
0.64357919 12.07914 5.6792855
0.69791013 13.185289 4.6845908
0.76288104 14.508512 3.5948098
0.82958823 15.829716 2.3030648
0.91551483 17.586605 0.80406183
0.11308609 0.19791548 24.718332
0.3240439 4.0413795 25.773472
0.40170583 5.4483738 26.28863
0.99595535 14.88013 47.723442
0.29652813 4.6765285 11.098906
1.1804037 19.246273 35.404411
0.24376051 1.4361068 25.027605
0.35159394 2.7046528 25.394253
0.5179885 7.2653356 28.080662
0.96561539 14.502422 39.579205
1.129182 17.703409 36.743153
1.2916484 20.763176 34.09803
1.4536419 25.600582 25.277941
1.4430835 25.651751 20.798668
0.95478576 17.132013 11.334281
0.7880891 14.230316 7.5468926
0.69572568 12.642388 5.2039037
0.90409797 16.74795 1.5986909
1.2875615 22.12977 19.824463
1.1744077 20.368776 14.939571
0.85370034 14.897037 8.854002
0.68599665 12.081351 5.6813836
0.74419719 13.187488 4.6862345
0.81406492 14.515467 3.5971546
0.88732708 15.871221 2.3092809
0.97939217 17.628195 0.80587566
0.11379919 0.19755664 24.723331
0.33795434 4.0379014 25.758656
0.42307582 5.4773936 26.435486
1.0487299 14.888475 47.761616
0.31285048 4.6754646 11.098906
1.2477335 19.244427 35.408802
0.2487223 1.4349627 25.022612
0.36074969 2.7012956 25.374367
0.54334605 7.2634835 28.080662
1.0167152 14.505849 39.597977
1.1911176 17.70153 36.747658
1.3639464 20.755939 34.093765
1.5389181 25.527716 25.211353
1.5321516 25.638783 20.792391
1.014829 17.13275 11.337022
0.83801776 14.231899 7.5492115
0.7403934 12.649138 5.2076497
0.80863023 13.897908 4.1819549
0.88064051 15.227092 2.9872577
0.96369696 16.76458 1.6004792
1.3618124 22.076694 19.781231
1.2455008 20.364552 14.939571
0.9056955 14.893967 8.854002
0.72843736 12.083413 5.6834817
0.79050809 13.189524 4.6878777
0.86270463 14.478572 3.5889485
0.94654053 15.932291 2.31826
1.0426874 17.654594 0.80708486
0.11446503 0.19712117 24.718332
0.35170928 4.0328269 25.733959
0.44440728 5.5032859 26.567657
1.1011343 14.890678 47.780704
0.32903168 4.6723957 11.094303
1.3149016 19.239954 35.408802
0.25367916 1.4338017 25.017622
0.36995888 2.6984355 25.359453
0.56879526 7.2627959 28.085501
1.0693706 14.529748 39.673061
1.2530539 17.699436 36.752155
1.4363898 20.751053 34.093765
1.6221298 25.64105 20.798668
1.0748891 17.133274 11.339765
0.89044964 14.2731 7.5723996
0.78368139 12.632596 5.2020307
0.85684264 13.890213 4.1805449
0.93348694 15.219022 2.9863253
1.0222104 16.761114 1.6004792
1.438866 22.071806 19.781231
1.3163179 20.356047 14.936628
0.95767963 14.890715 8.854002
0.77090085 12.085326 5.6855798
0.83773917 13.205534 4.6944518
0.91140282 14.446367 3.5819144
0.99966127 15.889351 2.3127344
1.1033711 17.635887 0.80648029
0.11515241 0.19672041 24.718332
0.36578432 4.0315747 25.733959
0.46660915 5.5372128 26.738993
1.153567 14.892697 47.799793
0.34505117 4.6673217 11.085097
1.3822253 19.237637 35.413193
2.0707586 29.393461 43.349712
0.25868249 1.4329073 25.017622
0.37922704 2.6960723 25.34951
0.59424621 7.2620187 28.09034
1.1212769 14.541412 39.715298
1.314829 17.694956 36.752155
1.5091944 20.751114 34.102299
1.5734236 23.381428 23.108625
1.7054002 25.542023 20.723345
1.1346889 17.129419 11.339765
0.94026661 14.269905 7.5723996
0.82868224 12.643662 5.2076497
0.90064228 13.815334 4.1593947
0.97961271 15.107827 2.9658074
1.0781474 16.717688 1.5969027
1.5156465 22.062923 19.777905
1.386541 20.33923 14.927798
1.009944 14.891583 8.8565359
0.8133865 12.08709 5.6876779
0.88446093 13.211953 4.6977391
0.96182448 14.443098 3.5819144
1.0554476 15.890707 2.3134251
1.1629491 17.602018 0.80527109
0.11581507 0.19628038 24.713331
0.38021985 4.0341411 25.758656
0.48691478 5.5467072 26.792837
1.2066295 14.90197 47.842739
0.36119017 4.6641412 11.080495
1.4495485 19.235081 35.417576
2.1741784 29.397278 43.366241
0.26363009 1.4317118 25.012629
0.38901731 2.6973701 25.374367
0.61969876 7.2611532 28.095181
1.1721677 14.539129 39.719986
1.3767568 17.692429 36.756657
1.5818181 20.74832 34.106564
1.6535193 23.35445 23.087599
1.7956396 25.551445 20.735899
1.1947657 17.129524 11.342505
0.98915195 14.253277 7.565443
0.87919885 12.733191 5.2451105
0.9488613 13.812106 4.1593947
1.0313381 15.089613 2.9630096
1.1334558 16.669104 1.5928791
1.7897581 24.787245 22.215496
1.4586858 20.350393 14.939571
1.0619191 14.887967 8.8565359
0.85557336 12.084177 5.6876779
0.9358837 13.284153 4.7240353
1.0159733 14.492988 3.5948098
1.1105646 15.881986 2.3127344
1.2205702 17.54303 0.80305421
0.11647606 0.19583811 24.708332
0.3937695 4.0273762 25.724079
0.50664401 5.5490298 26.81242
1.258514 14.896179 47.837967
0.37715346 4.6589575 11.071291
1.5168709 19.23229 35.421967
2.2776504 29.400732 43.382774
0.26857245 1.4304991 25.007639
0.3985087 2.696523 25.379339
0.64504111 7.2589455 28.095181
1.2208858 14.510875 39.654289
1.4388596 17.691856 36.765659
1.6546485 20.747871 34.115097
1.7360888 23.362761 23.101618
1.8859658 25.560549 20.748453
1.2545515 17.12525 11.342505
1.043731 14.31601 7.600225
0.92833745 12.794776 5.2713327
0.99672323 13.803926 4.1579847
1.087525 15.134917 2.9723358
1.1927005 16.679949 1.5942202
1.5309253 20.361301 14.951344
1.1142029 14.888468 8.8590689
0.89808619 12.085643 5.6897759
0.98782122 13.356154 4.7503314
1.0672708 14.499048 3.5971546
1.1659963 15.878012 2.3127344
1.2839842 17.568558 0.80426341
0.11715896 0.19543034 24.708332
0.4097065 4.0445294 25.842621
0.52581829 5.5452003 26.802629
1.3106347 14.893183 47.842739
0.39324948 4.6556659 11.066689
1.5841916 19.229265 35.426357
2.3773112 29.356142 43.329048
0.27345502 1.4289861 24.997654
0.40831879 2.6977506 25.404196
0.67049128 7.2579007 28.100019
1.2697223 14.485896 39.597977
1.5009749 17.691063 36.774662
1.7272782 20.744566 34.119358
1.8173525 23.353003 23.098112
1.975177 25.553808 20.748453
1.3146424 17.124937 11.345247
1.090659 14.272526 7.5793557
0.97826838 12.860797 5.2994285
1.0463506 13.819496 4.1636243
1.1399798 15.126131 2.9714031
1.2520345 16.69058 1.5955614
2.1476612 27.10791 24.300587
1.6032585 20.37195 14.963118
1.1665033 14.888786 8.8616028
0.94061959 12.08696 5.691874
1.0369902 13.385581 4.7618361
1.1242291 14.577621 3.617084
1.2217938 15.878784 2.3134251
1.3456837 17.568951 0.80446494
0.11784042 0.19502018 24.708332
0.42430854 4.0477114 25.872257
0.54537082 5.5453577 26.81242
1.3626136 14.888516 47.842739
0.40915579 4.6503725 11.057483
1.6517146 19.22839 35.435135
2.4724238 29.260738 43.200924
0.27838588 1.4277394 24.992662
0.41748774 2.6947284 25.38928
0.695822 7.2555161 28.100019
1.3246673 14.529493 39.729374
1.5632939 17.692221 36.788166
1.800131 20.74361 34.127892
1.9069538 23.446041 23.196238
2.064678 25.550638 20.751591
1.3747462 17.124411 11.347988
1.138355 14.242137 7.565443
1.0220517 12.843441 5.2938094
1.0949621 13.82054 4.1650348
1.1939318 15.136751 2.974201
1.3110677 16.696037 1.5964556
2.2345753 27.007221 24.217449
1.6760162 20.386372 14.977833
1.2188195 14.88892 8.8641348
0.98317319 12.088126 5.6939716
1.0837082 13.38188 4.7618361
1.1704197 14.515469 3.6030161
1.2772137 15.874422 2.3134251
1.405407 17.544226 0.80365884
0.11852045 0.19460766 24.708332
0.44011074 4.0616555 25.971043
0.56472445 5.5434198 26.81242
1.4147172 14.885157 47.847511
0.42520803 4.6469703 11.05288
1.7192508 19.22728 35.443913
2.5807159 29.322008 43.304249
0.28331137 1.4264759 24.987671
0.42680785 2.692728 25.38431
0.72114426 7.2530432 28.100019
1.3745631 14.516191 39.70591
1.6258386 17.69533 36.806171
1.8727632 20.739796 34.13216
1.9887841 23.439243 23.196238
2.1548352 25.554913 20.761007
1.4348623 17.123674 11.350729
1.061119 12.770494 5.2657137
1.1439893 13.826196 4.1678548
1.2463584 15.127595 2.9732683
1.369747 16.696325 1.5969027
1.7482034 20.392477 14.986662
1.2711509 14.88887 8.8666687
1.0257463 12.089143 5.6960697
1.122461 13.283907 4.7289658
1.2165978 14.458016 3.5901208
1.332618 15.869867 2.3134251
1.4716349 17.598957 0.80607718
0.11917508 0.1941563 24.703331
0.45653424 4.0801702 26.099463
0.58417797 5.542428 26.817316
1.4668139 14.881612 47.852283
0.4412415 4.6435127 11.048278
1.7867993 19.225931 35.45269
0.2883465 1.4257612 24.992662
0.43629014 2.6917481 25.38928
0.7464577 7.2504816 28.100019
1.4134171 14.391087 39.377419
1.6886308 17.700382 36.828678
1.9456345 20.738325 34.14069
2.0793798 23.531624 23.294365
2.2433441 25.53948 20.75473
1.4949901 17.122728 11.353472
1.2323825 14.172059 7.53298
1.1016898 12.720526 5.2469835
1.1922448 13.822119 4.1678548
1.299156 15.123152 2.9732683
1.4280198 16.691441 1.5969027
1.897907 21.141266 18.986435
1.8157828 20.345991 14.957231
1.3234966 14.888636 8.8692017
1.0683385 12.090009 5.6981678
1.1609572 13.190534 4.6977391
1.2649359 14.42947 3.584259
1.388006 15.865119 2.3134251
1.5339249 17.603664 0.80648029
0.11985208 0.19373912 24.703331
0.47380576 4.1047955 26.267397
0.60363138 5.5413671 26.82221
1.5187514 14.876401 47.852283
0.45725608 4.6400003 11.043675
1.8543594 19.224344 35.461472
2.139339 22.50709 33.277718
0.29332161 1.4247459 24.992662
0.44524676 2.6875796 25.364424
0.77202833 7.2503319 28.109697
1.4660884 14.410101 39.443115
1.750192 17.692211 36.824177
2.0185182 20.736601 34.149223
2.1683605 23.598801 23.36796
2.3331881 25.539246 20.761007
1.5555068 17.125732 11.358954
1.2854373 14.207377 7.5538492
1.1381794 12.628876 5.2113957
1.2404857 13.817872 4.1678548
1.3510625 15.10874 2.9714031
1.485833 16.681393 1.5964556
2.0407126 21.874321 19.648211
1.8890325 20.363676 14.974889
1.3758563 14.888217 8.8717346
1.1105341 12.086207 5.6981678
1.207424 13.191101 4.6993823
1.316179 14.434649 3.5866036
1.4442747 15.870038 2.3148062
1.6030319 17.682787 0.80990624
0.12052763 0.19331957 24.703331
0.48849875 4.1062026 26.287155
0.6229707 5.5392261 26.82221
1.5708274 14.872493 47.857056
0.47305298 4.6344886 11.03447
1.9219301 19.222521 35.470249
2.2236876 22.558294 33.36451
0.29829308 1.4237134 24.992662
0.45391208 2.6818049 25.324652
0.79788202 7.2525907 28.129057
1.5286664 14.521597 39.762222
1.8112731 17.679499 36.810673
2.091152 20.732021 34.153488
2.2646101 23.736645 23.511648
2.4234254 25.54257 20.770422
1.6156701 17.124361 11.361695
1.3312913 14.163111 7.53298
1.1835521 12.638673 5.2170148
1.2878202 13.803905 4.1650348
1.4056121 15.123497 2.9751337
1.5454305 16.690983 1.5977969
2.1087804 21.781588 19.571724
1.4282292 14.887615 8.8742685
1.1531471 12.086775 5.7002664
1.2534622 13.186806 4.6993823
1.367474 14.439644 3.5889485
1.5001287 15.869831 2.3154972
1.6614676 17.642267 0.80849558
0.12117737 0.19286147 24.698332
0.50528765 4.1245246 26.415575
0.64230239 5.5370178 26.82221
1.6227324 14.86692 47.857056
0.48902231 4.6308665 11.029868
1.9892641 19.218079 35.474636
2.3041322 22.56719 33.389305
0.30326095 1.4226635 24.992662
0.46490866 2.6896579 25.414139
0.82361895 7.2535081 28.143574
1.5791602 14.514456 39.75753
1.8720573 17.66441 36.792667
2.1640491 20.729784 34.162022
2.3664119 23.920237 23.700893
1.7208709 17.488485 14.251848
1.6754354 17.118616 11.361695
1.3807217 14.158377 7.53298
1.2281106 12.639079 5.2188878
1.3378463 13.818426 4.1706748
1.4640545 15.177173 2.9863253
1.6055892 16.705315 1.5995851
2.070493 20.744152 15.263318
1.480188 14.882539 8.8742685
1.1953309 12.082676 5.7002664
1.3008749 13.196449 4.7043128
1.7157539 17.561777 0.80547261
0.12184983 0.19243731 24.698332
0.52055705 4.129674 26.460028
0.6615054 5.5337315 26.817316
1.6746178 14.861165 47.857056
0.50475997 4.625247 11.020662
2.0568454 19.215778 35.483414
2.3808231 22.539419 33.360374
0.30816364 1.4213141 24.987671
0.47522286 2.6932678 25.463854
0.84951824 7.2555823 28.162931
1.6142102 14.36995 39.377419
1.9344171 17.664259 36.806171
2.236676 20.724695 34.166286
2.4535296 23.947308 23.735939
1.7811171 17.474627 14.245571
1.7356024 17.116825 11.364437
1.4336982 14.188731 7.5515304
1.2722217 12.634715 5.2188878
1.3918207 13.870948 4.1875949
1.5414606 15.416364 3.0329561
1.6653731 16.714474 1.6009264
2.2472904 21.636351 19.455332
2.1457992 20.764942 15.283921
1.5325702 14.881569 8.8768005
1.2379626 12.082945 5.7023644
1.3459718 13.182433 4.701026
1.5012143 14.753736 3.6674936
1.7770454 17.555681 0.80547261
0.12252082 0.19201079 24.698332
0.53706789 4.1440129 26.563755
0.68069321 5.5303774 26.81242
1.7266551 14.856712 47.861828
0.52068329 4.6215153 11.01606
2.1241717 19.210863 35.487804
2.4713955 22.640072 33.521561
0.31306061 1.419948 24.982679
0.48386389 2.687396 25.424084
0.87514102 7.2550693 28.172611
1.6683336 14.398511 39.471272
1.9967985 17.663887 36.819675
2.3095829 20.721949 34.17482
2.538234 23.949236 23.746452
2.6948507 25.554499 20.801805
1.7957768 17.11482 11.367179
1.4827565 14.179234 7.5492115
1.3172785 12.639419 5.2226338
1.4630284 14.08549 4.2524567
1.5952643 15.41089 3.0329561
1.7252405 16.723421 1.6022676
2.6545279 24.71711 22.222149
2.220417 20.777422 15.298637
1.5849639 14.880416 8.8793344
1.2806107 12.083063 5.7044625
1.3939632 13.196439 4.7076001
1.5532142 14.75324 3.6686659
1.8414381 17.579182 0.80668175
0.12319032 0.19158195 24.698332
0.55235088 4.1482744 26.603268
0.69973779 5.525948 26.802629
1.7783266 14.849112 47.857056
0.53636104 4.6157885 11.006855
2.1917603 19.20809 35.496582
2.5447366 22.580973 33.447166
0.31795177 1.4185649 24.977688
0.4956542 2.6987967 25.548368
0.90061539 7.2532167 28.17745
1.7294289 14.483416 39.719986
2.0594535 17.665459 36.837677
2.3824978 20.718941 34.18335
2.6218169 23.940229 23.746452
2.7625289 25.347599 20.641747
1.8555079 17.108448 11.367179
1.5417645 14.262054 7.5955873
1.3623835 12.643962 5.2263799
1.5106503 14.065988 4.2482266
1.6532314 15.444301 3.0404172
1.7841338 16.722246 1.6027147
2.7461419 24.755936 22.265379
2.2933738 20.773561 15.301579
1.6373682 14.879077 8.8818674
1.3232747 12.083031 5.7065606
1.4400189 13.191493 4.7076001
1.6026 14.728398 3.6639767
1.9221514 17.751457 0.81393689
0.12383347 0.1911149 24.693333
0.567249 4.1494002 26.623024
0.7188912 5.5224619 26.797735
1.8303316 14.844296 47.861828
0.55223757 4.6119485 11.002253
2.2590754 19.2027 35.500973
0.32290155 1.4174465 24.977688
0.50536674 2.698622 25.563284
0.92592835 7.2500291 28.17745
1.7843977 14.513259 39.818539
2.1213644 17.660322 36.842182
2.45542 20.715677 34.191883
2.6941504 23.831709 23.648325
1.9156815 17.106022 11.36992
1.5772859 14.128914 7.5283422
1.4065108 12.63913 5.2263799
1.5597404 14.060629 4.2482266
1.707132 15.438437 3.0404172
1.8424944 16.715916 1.6027147
2.8367858 24.783295 22.298634
2.3667881 20.77346 15.307467
1.6902688 14.881838 8.8869343
1.3659542 12.082848 5.7086587
1.4887011 13.209847 4.7158175
1.654002 14.722715 3.6639767
1.984104 17.744638 0.81393689
0.12449984 0.19068149 24.693333
0.58183771 4.1481647 26.627964
0.73802876 5.5189095 26.792837
1.8813853 14.831893 47.842739
0.56833291 4.609993 11.002253
2.3266678 19.199451 35.509747
0.32784739 1.4163107 24.977688
0.51568502 2.7015533 25.608028
0.95139372 7.2479992 28.182289
1.836347 14.517214 39.846695
2.1846006 17.665773 36.869186
2.5283484 20.712158 34.200413
2.7674108 23.737146 23.564217
2.0110168 17.328196 14.148278
1.9773004 17.115847 11.380886
1.6265954 14.123322 7.5283422
1.4516788 12.643354 5.2301264
1.6115395 14.078929 4.2552767
1.7621256 15.442143 3.0422823
1.9013958 16.714333 1.6031618
2.9219656 24.762117 22.288658
2.4402299 20.773102 15.313353
1.7427073 14.880128 8.8894663
1.4086484 12.082514 5.7107563
1.5473428 13.312453 4.7536182
1.7065027 14.726508 3.6663213
2.0363002 17.653234 0.81051093
0.12513958 0.19021004 24.688332
0.59675664 4.1491847 26.64772
0.75715035 5.5152912 26.787943
1.934691 14.837077 47.880917
0.58442134 4.6079807 11.002253
2.3939688 19.19359 35.514137
0.33278924 1.4151577 24.977688
0.52725375 2.7107244 25.712429
0.97668821 7.2446342 28.182289
1.8874553 14.514137 39.856079
2.2446039 17.645082 36.842182
2.6012821 20.708384 34.208946
2.8472745 23.702557 23.539684
1.9443827 16.258261 13.285203
2.0390112 17.125446 11.391851
1.5067014 12.730286 5.2675867
1.6612364 14.077981 4.2566867
1.816018 15.435899 3.0422823
1.960308 16.712538 1.6036088
3.0232503 24.874081 22.398399
2.5136976 20.772484 15.31924
1.7956709 14.882514 8.8945332
1.4518982 12.086535 5.7149525
1.6016647 13.372613 4.7766275
1.7584739 14.725288 3.6674936
2.0973189 17.641056 0.81030935
0.12580277 0.18977207 24.688332
0.61089629 4.1447701 26.632904
0.77611351 5.5105977 26.778152
1.9874611 14.837629 47.904774
0.60050261 4.6059127 11.002253
2.4615619 19.189869 35.522919
0.33765966 1.4137068 24.972696
0.53858137 2.7182786 25.801916
1.0035216 7.2523861 28.225843
1.9374223 14.502329 39.841999
2.3084412 17.654409 36.878193
2.6742198 20.704348 34.217476
2.9308701 23.699551 23.546694
3.1713483 25.754679 21.005806
2.1018312 17.143129 11.408301
1.5640311 12.830791 5.3106666
1.7121041 14.086383 4.2609167
1.8710704 15.439219 3.0441475
2.0198286 16.715483 1.604503
2.5866914 20.767591 15.322182
1.848672 14.88471 8.8995991
1.4946364 12.085898 5.7170506
1.6500678 13.381001 4.7815576
1.8104572 14.723885 3.6686659
2.1534207 17.588997 0.80849558
0.12646444 0.18933177 24.688332
0.62512839 4.1410756 26.623024
0.79519886 5.5068479 26.773258
2.0384288 14.824688 47.885689
0.61657661 4.6037884 11.002253
2.5291581 19.185907 35.531696
0.34252396 1.4122388 24.967705
0.54827791 2.717427 25.811859
1.0298911 7.2563062 28.254881
1.9877983 14.493768 39.837307
2.3732405 17.669977 36.927704
2.7471611 20.700056 34.226006
3.0270808 23.795309 23.651831
2.1982338 17.352524 14.18594
1.6122717 12.852853 5.3219047
1.7618597 14.08508 4.2623267
1.9249519 15.432593 3.0441475
2.078779 16.713274 1.6049502
2.5508728 19.830751 17.889021
2.6601954 20.766457 15.328069
1.9011645 14.882444 8.902133
1.5373876 12.08511 5.7191486
1.6896347 13.318944 4.7618361
1.8630623 14.72712 3.6710107
2.2216735 17.635899 0.8107124
0.12715003 0.1889246 24.693333
0.63934213 4.1373329 26.613146
0.81426728 5.5030308 26.768362
0.93539 6.6319313 21.458443
0.63290918 4.6035433 11.006855
2.5967562 19.181709 35.54047
0.34731281 1.4104742 24.95772
0.55904967 2.7217619 25.871517
1.0563003 7.2601309 28.283918
2.0378981 14.483324 39.827923
0.7092219 5.14502 10.802658
2.820106 20.695511 34.234543
2.0607445 15.824017 12.949389
2.3322525 17.982256 11.973042
1.6482306 12.77818 5.2938094
1.8122391 14.088361 4.2651472
1.98006 15.435525 3.0460129
2.1377382 16.710854 1.6053972
2.62693 19.873549 17.935577
2.7331951 20.761051 15.331012
1.9536636 14.879991 8.9046659
1.5801516 12.08417 5.7212467
1.7312309 13.275504 4.7486877
1.9150848 14.725347 3.6721828
2.2819371 17.618126 0.81030935
0.12780872 0.18847962 24.693333
0.65341598 4.1327739 26.59833
0.83331895 5.4991484 26.763468
0.95960248 6.6360126 21.482302
0.64924759 4.6032405 11.011457
2.6643567 19.177273 35.549252
0.35209349 1.4086932 24.947737
0.56876558 2.7208374 25.88146
1.0831193 7.266345 28.322632
2.0881953 14.474414 39.823227
0.72748196 5.1446691 10.807159
2.8930516 20.690706 34.243073
2.2950649 17.155432 14.038433
2.3972173 17.990583 11.984009
1.689779 12.74937 5.2844439
1.8620344 14.086705 4.2665572
2.0339282 15.428519 3.0460129
2.1967063 16.708227 1.6058441
2.8061895 20.755388 15.333955
2.0061688 14.877354 8.9071999
1.6229279 12.083078 5.7233448
1.7681557 13.199175 4.7240353
1.9677616 14.728208 3.6745274
2.1599715 16.188324 2.3700609
2.3407862 17.590244 0.8095032
0.12846586 0.18803233 24.693333
0.6678381 4.1304679 26.59833
0.85219717 5.4941936 26.753677
0.97794634 6.6001372 21.377317
0.66587126 4.6048136 11.020662
2.7319572 19.172598 35.558029
0.35686603 1.4068962 24.937756
0.57848185 2.7198782 25.891403
1.1077181 7.2575493 28.303274
2.1387079 14.467036 39.823227
0.7416873 5.1162457 10.753145
2.9659984 20.685644 34.251606
2.3782368 17.316986 14.176524
2.4622688 17.99868 11.994974
1.7198938 12.63774 5.2413645
1.9124851 14.089625 4.2693768
2.0917251 15.450533 3.0516086
2.2563481 16.710329 1.6067383
2.0604057 14.792072 13.382969
2.876956 20.733456 15.325126
2.0580881 14.870259 8.9071999
1.6657157 12.081836 5.7254429
1.8167919 13.211635 4.7306089
2.0198212 14.726065 3.6756999
2.2218425 16.219934 2.3755863
2.4028494 17.586918 0.80970478
0.1290956 0.18754759 24.688332
0.68136472 4.1227455 26.563755
0.87089145 5.4881692 26.738993
1.0007551 6.5952082 21.372547
0.68251389 4.6063261 11.029868
2.7999041 19.170055 35.571198
0.36155796 1.4048034 24.922779
0.58808529 2.718363 25.896374
1.1314926 7.2437034 28.264559
2.1891942 14.459483 39.823227
0.75954175 5.1136255 10.753145
3.038945 20.680326 34.260136
2.4479015 17.3741 14.229877
2.5250809 17.989977 11.994974
1.9859146 14.184654 7.5839934
1.7639971 12.63166 5.2413645
1.9623173 14.087615 4.2707872
2.1476731 15.457734 3.0544064
2.3153479 16.707283 1.6071855
2.1194193 14.836536 13.429525
2.9493115 20.723288 15.325126
2.1118002 14.875789 8.9147987
1.7085145 12.080441 5.7275405
1.862898 13.205213 4.7306089
2.072567 14.728551 3.6780446
2.4787896 17.682322 0.81393689
0.12974946 0.18709582 24.688332
0.69665772 4.1257048 26.59833
0.88971716 5.4830852 26.729202
1.0230832 6.5872488 21.358229
0.6994682 4.6097102 11.043675
2.8675115 19.1649 35.579975
0.36631292 1.4029741 24.912796
0.59768534 2.7168145 25.901346
1.1595482 7.2570868 28.332312
2.2399182 14.453459 39.827923
0.77542251 5.0980296 10.726137
3.111891 20.674751 34.268669
2.5257852 17.484873 14.32717
2.5902448 17.997606 12.00594
2.0391934 14.203946 7.5979066
1.8074219 12.620837 5.2394915
2.0128372 14.090178 4.2736073
2.3750548 16.70896 1.6080797
2.1733594 14.843825 13.442827
2.4626496 16.881184 12.505577
2.1649551 14.87686 8.9198656
