# .PCD v0.7 - Point Cloud Data file format
VERSION 0.7
FIELDS x y z
SIZE 4 4 4
TYPE F F F
COUNT 1 1 1
WIDTH 1522
HEIGHT 1
VIEWPOINT 0 0 0 1 0 0 0
POINTS 1522
DATA ascii
6.6820426 -23.044687 8.4400091
7.8049779 -26.882364 6.8421292
6.7697287 -23.301519 3.4765301
10.233107 -35.176735 1.5714916
-0.013595704 -0.09527009 9.6089067
0.15462683 -0.59158689 3.8876202
0.20649661 -0.77053976 3.8586998
0.41994214 -1.5065446 3.7440717
0.63947457 -2.2760909 4.3999567
0.79488295 -2.8143311 4.3677392
2.4216373 -8.5405302 10.704969
0.060214013 -0.34956688 5.9744439
0.21383145 -1.020798 9.6843004
0.3631278 -1.3185676 3.7733986
0.48262098 -1.7339069 3.7852654
0.63827205 -2.2794962 3.9421425
2.4257591 -8.5950937 9.7599525
2.3933482 -8.3739452 8.6383533
2.7322972 -9.5410337 8.0847807
3.5399976 -12.337162 8.4996052
4.5692654 -15.903367 8.7480316
7.2573566 -25.226208 10.693763
5.7578087 -19.987602 6.2039418
8.7334929 -30.277678 6.0742302
9.8760586 -34.193985 3.2882025
2.4259439 -8.5330896 7.9823561
3.0359895 -10.657755 8.1526432
3.9770453 -13.942909 8.605751
7.326262 -25.634003 12.411936
6.6028605 -23.072412 8.4416523
6.6269269 -23.1108 3.4454498
-0.013928177 -0.095222048 9.6089067
0.20380567 -0.77125585 3.8586998
0.41224751 -1.5196829 5.0809932
0.41519853 -1.509885 3.7486744
0.60913867 -2.1975296 4.2463388
0.82659733 -2.9661801 4.5950508
2.3892198 -8.5396709 10.693457
0.058993429 -0.34977496 5.9744439
0.21037382 -1.0220603 9.6892719
0.37163565 -1.3681233 3.9094892
0.47426051 -1.7271839 3.7672606
0.62614524 -2.2666268 3.9165471
2.3471832 -8.4576187 11.697261
2.3930135 -8.5937109 9.7489271
2.3621671 -8.3753843 8.6313438
2.6968591 -9.5430222 8.0785036
3.4957724 -12.34542 8.4968634
4.5100994 -15.906435 8.7410755
7.2528234 -25.545725 10.817384
5.6434035 -19.850697 6.1560006
8.6075764 -30.237114 6.0602407
9.7266073 -34.122894 3.278367
2.3951344 -8.5379105 7.9790306
2.9965808 -10.660504 8.1467571
3.9260149 -13.948408 8.6006842
6.5235658 -23.099865 8.4432964
7.2692623 -25.706093 6.5338101
6.4599195 -22.828833 3.4012461
-0.014260478 -0.095172852 9.6089067
0.20111224 -0.77196258 3.8586998
0.40347001 -1.5081341 5.0380454
0.40992552 -1.5113251 3.7486744
0.63114786 -2.3082223 4.4526253
0.81698418 -2.9717607 4.599184
2.3542798 -8.5294209 10.670432
0.057772126 -0.34997874 5.9744439
0.20690997 -1.023311 9.6942434
0.25885439 -0.98432153 3.9561307
0.36730406 -1.3710791 3.9141815
0.46993542 -1.7351327 3.7807641
0.61960059 -2.2738314 3.9250786
2.3176463 -8.4657602 11.697261
2.3603075 -8.592205 9.7379017
2.3310049 -8.3767071 8.6243353
2.6624863 -9.5486298 8.0753651
3.4515321 -12.35352 8.4941225
4.4521608 -15.913549 8.7364378
7.1636076 -25.570889 10.817384
5.57019 -19.856419 6.1517706
8.5152617 -30.314266 6.0695672
9.4550648 -33.614922 3.2278469
2.3643212 -8.5426207 7.9757051
2.9561105 -10.659215 8.137928
3.8761489 -13.957874 8.5981512
6.4454284 -23.131594 8.4465837
7.216063 -25.8624 6.5666347
9.7686739 -34.940353 1.5571829
-0.014602355 -0.095165022 9.6139069
0.21576498 -0.8630653 5.6558743
0.19841635 -0.7726599 3.8586998
0.3974421 -1.5066465 5.0285015
0.4046475 -1.5127468 3.7486744
0.62246341 -2.3080993 4.4482365
0.80366033 -2.9637308 4.5826521
2.3253341 -8.5406799 10.67427
0.056594785 -0.35046348 5.9794354
0.20343997 -1.02455 9.6992149
0.25730777 -0.99252003 3.9851673
0.37264794 -1.4107282 4.0221152
0.46556067 -1.7430724 3.7942681
0.6123364 -2.2784991 3.9293447
2.2872956 -8.4708891 11.693271
2.3285275 -8.5938473 9.7305517
2.2989187 -8.3744764 8.613822
2.6425591 -9.6066523 8.1161652
3.4072785 -12.361463 8.4913807
4.3930492 -15.916181 8.7294807
7.20892 -26.082794 11.021544
5.500845 -19.87574 6.1517706
8.4316959 -30.42428 6.0854216
9.2883978 -33.470173 3.2113051
2.3344874 -8.5508223 7.9757051
2.9242175 -10.688962 8.1526432
3.8262637 -13.96716 8.5956182
6.367147 -23.163057 8.4498701
7.3837323 -26.824696 6.8010983
7.0381327 -25.551739 3.7887175
9.6466503 -34.974239 1.5571829
-0.014934454 -0.095113471 9.6139069
0.21349292 -0.86683148 5.6756315
0.19546863 -0.77236062 3.8538043
0.39180499 -1.5065801 5.0237293
0.39886653 -1.512261 3.7440717
0.60824853 -2.2871122 4.4043455
0.78022587 -2.9175844 4.5082593
2.2955074 -8.5487442 10.67427
0.055371098 -0.35065889 5.9794354
0.19996381 -1.0257772 9.7041874
0.25415254 -0.99463004 3.9900069
0.37250301 -1.4303907 4.0737357
0.46335313 -1.7594231 3.8257763
0.60504717 -2.2831438 3.9336109
2.2577128 -8.4788218 11.693271
2.2932644 -8.5822716 9.7085009
2.267808 -8.3755646 8.6068125
2.6202209 -9.6571407 8.1506882
3.3630109 -12.369246 8.4886389
4.3351369 -15.92287 8.724843
9.1544151 -33.439949 3.205493
2.3036544 -8.5553131 7.9723797
2.8932061 -10.722519 8.1703024
3.775238 -13.97211 8.5905523
6.2874899 -23.189699 8.4515133
7.3690138 -27.141138 6.8737817
6.9605832 -25.61916 3.7949338
9.540247 -35.065548 1.5596013
-0.015266371 -0.095060758 9.6139069
0.20991729 -0.86530584 5.6608138
0.1927714 -0.77303821 3.8538043
0.38654366 -1.5079385 5.0237293
0.39211091 -1.5079716 3.7302639
0.75784099 -2.8740327 4.4379992
2.2681136 -8.566 10.685781
0.05418941 -0.35113561 5.9844275
0.19638196 -1.0264689 9.7041874
0.24975914 -0.99185407 3.9754882
0.46486536 -1.7905295 3.8887932
0.59773302 -2.287765 3.9378769
2.226572 -8.4808226 11.68529
2.2658837 -8.6000586 9.7195253
2.2367179 -8.3765383 8.599803
2.5915256 -9.6850271 8.1663799
3.3187308 -12.37687 8.485898
4.276083 -15.925071 8.7178869
8.2011862 -30.416002 6.0723653
9.0441227 -33.495739 3.2077286
2.2728186 -8.5596943 7.9690547
2.8526418 -10.720835 8.1614733
3.7253327 -13.981036 8.5880184
6.2126031 -23.234314 8.4597311
7.3094306 -27.298161 6.9066067
6.9108458 -25.791584 3.816345
9.4164925 -35.093811 1.5593997
-0.015587908 -0.094964467 9.6089067
0.20689553 -0.86603332 5.6608138
0.18982928 -0.77271742 3.8489091
0.38091218 -1.5078313 5.0189571
0.38587499 -1.5055461 3.7210591
0.52934521 -2.0478277 3.9434922
0.75488311 -2.9038959 4.4793286
2.2341514 -8.5583591 10.666595
0.052921709 -0.35103694 5.9794354
0.19279771 -1.0271481 9.7041874
0.24659778 -0.99393988 3.9803278
0.33670327 -1.3309023 3.787477
0.46724513 -1.8258858 3.9608128
0.58974361 -2.2898376 3.9378769
2.1999748 -8.5002117 11.701251
2.2486341 -8.657135 9.7746534
2.206557 -8.380847 8.5962992
2.5577028 -9.6940145 8.1663799
3.2744384 -12.384336 8.4831562
4.2182007 -15.931336 8.7132492
6.9330149 -26.147892 11.017797
6.1726127 -23.247292 7.1599445
8.0659332 -30.335258 6.0509148
8.9335508 -33.551163 3.2099638
2.2419803 -8.5639639 7.9657288
2.8152018 -10.730727 8.1614733
3.6743162 -13.985617 8.5829525
6.7681737 -25.707197 12.376268
6.129055 -23.246727 8.4564438
7.2302284 -27.384604 6.9218469
6.7954736 -25.719793 3.8025312
-0.015919304 -0.094909474 9.6089067
0.20422637 -0.86826319 5.6706924
0.18713084 -0.77337539 3.8489091
0.37528619 -1.5077032 5.014185
0.37918255 -1.5012013 3.7072515
0.51273525 -2.0125289 3.8732669
0.7468372 -2.9146907 4.4917274
2.202666 -8.5598965 10.658919
0.051696036 -0.35121953 5.9794354
0.18911518 -1.0272906 9.6992149
0.24402116 -0.99845797 3.9948459
0.33247268 -1.333744 3.7921698
0.46991578 -1.8633908 4.0373335
0.58302999 -2.2969379 3.9464085
2.1606081 -8.469882 11.64938
2.25876 -8.8225746 9.9510612
2.1754971 -8.3815947 8.5892897
2.5071919 -9.6388454 8.1130266
3.2301345 -12.391645 8.4804153
4.160327 -15.93739 8.7086115
6.0853519 -23.245491 7.152894
7.9512744 -30.329967 6.0443864
8.8138533 -33.572514 3.2090697
2.2120728 -8.5717373 7.9657288
2.7736793 -10.724835 8.1497002
3.6233134 -13.99001 8.5778856
6.6749768 -25.717487 12.369975
6.0478711 -23.267981 8.4564438
6.7293706 -25.83441 3.815654
-0.016240014 -0.094810985 9.6039076
0.20154415 -0.87048477 5.6805706
0.18419451 -0.77303332 3.8440139
0.37002105 -1.509004 5.014185
0.37252513 -1.4968281 3.6934438
0.50162578 -1.9980459 3.8425436
0.73596966 -2.914552 4.4875946
2.1775002 -8.586175 10.681945
0.050549094 -0.35196975 5.9894185
0.18552811 -1.0279446 9.6992149
0.32370162 -1.3181372 3.7452421
0.46655726 -1.877696 4.0643406
0.57500869 -2.298959 3.9464085
2.1324985 -8.4832163 11.65736
2.2544885 -8.9355946 10.068666
2.1444588 -8.3822269 8.5822811
2.4570975 -9.5834417 8.0596724
3.1858191 -12.398795 8.4776735
4.1024623 -15.943237 8.7039747
7.1470919 -27.735474 11.660248
6.0137625 -23.303749 7.1641746
7.8220015 -30.267172 6.0266666
8.6604252 -33.463261 3.1961043
2.1812181 -8.5757885 7.9624033
2.7332306 -10.722702 8.140871
3.5723248 -13.99422 8.5728188
6.6526561 -26.004448 12.495857
5.9666142 -23.288948 8.4564438
6.6933384 -26.068787 3.8460441
-0.016570868 -0.09475372 9.6039076
0.19867665 -0.87194067 5.6855102
0.181495 -0.77367163 3.8440139
0.36159927 -1.4972271 4.9712372
0.36729795 -1.4981192 3.6934438
0.49579802 -2.0044346 3.8513215
0.71763939 -2.8843338 4.4379992
2.1910303 -8.7678623 10.896845
0.0795298 -0.57557911 9.8879042
0.18193878 -1.0285858 9.6992149
0.29206729 -1.2325367 4.9143367
0.39573526 -1.6362795 4.632175
0.46206975 -1.8877715 4.0823455
0.56074154 -2.275629 3.903749
2.1130149 -8.5315571 11.713221
2.250273 -9.051981 10.189947
2.1134427 -8.3827457 8.5752716
2.42363 -9.59196 8.0596724
3.1425197 -12.40984 8.4776735
4.0435176 -15.944578 8.6970177
6.7272887 -26.488653 11.130179
5.9300156 -23.315302 7.1613541
7.795114 -30.60371 6.0872874
8.4955597 -33.305096 3.1786683
2.1512699 -8.5833492 7.9624033
2.6957848 -10.732178 8.140871
3.5213511 -13.998243 8.5677538
6.5773764 -26.089123 12.525231
6.9430661 -27.458817 6.9218469
6.6023006 -26.091993 3.8460441
-0.016901519 -0.0946953 9.6039076
0.1956318 -0.87262887 5.6855102
0.17879327 -0.7743004 3.8440139
0.35464492 -1.491219 4.9473777
0.36252472 -1.5012914 3.6980464
0.48879823 -2.0061531 3.8513215
0.69015175 -2.8157594 4.3305426
2.1864617 -8.8812761 11.02732
0.077520169 -0.57585323 9.8879042
0.17825678 -1.0286893 9.6942434
0.28976038 -1.2421176 4.9482126
0.39002118 -1.6376508 4.632175
0.45547742 -1.8893728 4.0823455
0.54787451 -2.2572968 3.8696215
2.0967906 -8.5945024 11.789031
2.2468848 -9.1750307 10.318578
2.0824492 -8.3831511 8.5682631
2.3901331 -9.6003618 8.0596724
3.09817 -12.416677 8.4749317
3.9856884 -15.95 8.69238
6.6246557 -26.4715 11.113322
5.857924 -23.373085 7.1726346
7.6882401 -30.630733 6.0872874
8.3913908 -33.382843 3.1831391
2.1204 -8.5871811 7.9590778
2.6583059 -10.741522 8.140871
3.4714293 -14.006266 8.5652199
5.8061624 -23.339201 8.4597311
6.8307238 -27.416855 6.9054346
6.5015979 -26.076439 3.8405185
-0.017231964 -0.094635725 9.6039076
0.19275156 -0.87406534 5.6904492
0.17631459 -0.77591276 3.8489091
0.34705672 -1.4822737 4.9139733
0.35773379 -1.5044483 3.7026489
0.48235121 -2.0101759 3.8557107
0.66381216 -2.7497644 4.2272186
2.1788619 -8.9854183 11.146282
0.075509593 -0.57612032 9.8879042
0.1746649 -1.0293052 9.6942434
0.28064501 -1.2222941 4.8659425
0.39139012 -1.6692449 4.7166448
0.44234496 -1.8634157 4.0238295
0.53574854 -2.2414396 3.8397601
2.1069021 -8.7687712 12.016462
2.2371006 -9.2750959 10.421482
2.0506308 -8.3799763 8.5577488
2.3538258 -9.5973063 8.0502577
3.0538108 -12.423356 8.4721909
3.9278703 -15.955213 8.6877422
5.7820506 -23.416677 7.1796846
2.0904121 -8.5945301 7.9590778
2.6198378 -10.746809 8.137928
3.421495 -14.01411 8.5626869
5.9722137 -24.40629 11.702794
5.7291541 -23.377672 8.4663048
6.6434503 -27.06761 6.8128214
6.2392554 -25.401651 3.7403698
-0.017562199 -0.094575003 9.6039076
0.18986365 -0.87549227 5.6953888
0.17382684 -0.77751726 3.8538043
0.34121045 -1.480567 4.9044299
0.35203499 -1.5037857 3.6980464
0.47423032 -2.0071857 3.8469329
0.64509964 -2.7137361 4.1693573
2.17205 -9.09585 11.27292
0.073640831 -0.57752627 9.9078712
0.17107089 -1.0299087 9.6942434
0.39487055 -1.7109572 4.8292713
0.43286622 -1.8522294 3.9968226
0.52851856 -2.2458346 3.8440261
2.0970917 -8.8640413 12.136163
2.2282114 -9.3818007 10.531737
2.0196958 -8.3801489 8.5507402
2.3221383 -9.6130304 8.0565338
3.0094426 -12.429875 8.469449
3.8690205 -15.955911 8.6807861
6.5687852 -27.048691 11.33434
2.0595293 -8.5981445 7.9557524
2.5851388 -10.767678 8.1467571
3.3715477 -14.021776 8.560154
5.8869834 -24.426989 11.702794
5.6508398 -23.411299 8.4712353
6.2005816 -25.649651 6.4552646
6.4824147 -26.795046 3.9372139
-0.017892221 -0.094513118 9.6039076
0.18680646 -0.87614965 5.6953888
0.17154834 -0.78010833 3.863595
0.33768997 -1.4890279 4.9282899
0.34897605 -1.5145245 3.7210591
0.46559379 -2.0018306 3.8337653
0.63754648 -2.7241914 4.181756
2.1644938 -9.2063417 11.399557
0.071555071 -0.57720661 9.8978872
0.16747479 -1.0304996 9.6942434
0.20616339 -0.92727059 3.6948018
0.39195198 -1.725788 4.8668137
0.41908026 -1.8219053 3.9293041
0.52302969 -2.2578287 3.8610899
2.0893757 -8.9710884 12.271824
2.217061 -9.4819536 10.634643
1.9887842 -8.380208 8.5437307
2.2876678 -9.6172905 8.0533953
2.9650662 -12.436237 8.4667072
3.8112426 -15.960701 8.6761484
6.3416972 -26.516876 11.103957
2.0295036 -8.6052809 7.9557524
2.5428877 -10.756969 8.132041
3.3225822 -14.03346 8.560154
5.8341675 -24.584282 11.767834
5.5679927 -23.426287 8.4695921
6.0322165 -25.340143 6.3732023
7.3344908 -30.786922 4.5063343
-0.018222025 -0.094450086 9.6039076
0.183906 -0.87755692 5.7003279
0.1694687 -0.78368831 3.8782806
0.33411452 -1.4974821 4.9521494
0.34671006 -1.5290706 3.7532768
0.45646614 -1.9941051 3.8162091
0.6280334 -2.7264004 4.181756
2.1561921 -9.3168907 11.526196
0.069607176 -0.57802629 9.9078712
0.16379353 -1.0305513 9.6892719
0.20158434 -0.92184442 3.6706047
0.39495304 -1.7675658 4.9794397
0.41463986 -1.8318502 3.947309
0.51572478 -2.2621837 3.865356
2.0694928 -9.0282574 12.339654
2.2075191 -9.5920525 10.748572
1.9578971 -8.3801537 8.5367222
2.2540832 -9.6252174 8.0533953
2.9216375 -12.446512 8.4667072
3.7534785 -15.965282 8.6715107
6.3224134 -26.850214 11.233196
8.6238327 -36.45293 3.4558573
1.9986089 -8.608676 7.9524264
2.5025749 -10.753969 8.1232119
3.273576 -14.044972 8.560154
5.4829583 -23.431787 8.4646616
5.9049082 -25.195414 6.3321714
-0.018551607 -0.0943859 9.6039076
0.18099801 -0.87895465 5.705267
0.16588669 -0.78029096 3.8586998
0.33879828 -1.543839 5.100081
0.34689781 -1.5550604 3.8131096
0.44792429 -1.9886769 3.8030419
0.61913466 -2.7313204 4.1858892
2.1478565 -9.4306173 11.656671
0.067556374 -0.57797891 9.9028788
0.16019525 -1.0311168 9.6892719
0.19968484 -0.92868727 3.6948018
0.39248341 -1.7857887 5.0263677
0.40587786 -1.8226619 3.9248033
0.50896651 -2.2690594 3.8738875
2.0677993 -9.1677008 12.519205
2.187501 -9.659215 10.814725
1.9270345 -8.3799858 8.5297127
2.2195971 -9.6292353 8.0502577
2.8791146 -12.460708 8.469449
3.6957288 -15.969657 8.666873
6.2370243 -26.908249 11.24818
8.5225163 -36.594372 3.46614
1.9685467 -8.6155996 7.9524264
2.4632168 -10.75476 8.1173258
3.22453 -14.056314 8.560154
5.4021926 -23.455385 8.4663048
5.9545879 -25.812635 6.4798832
-0.018892625 -0.094362609 9.6089067
0.1780825 -0.88034272 5.7102065
0.16212259 -0.77588141 3.8342235
0.35291746 -1.63548 5.3959441
0.33979344 -1.5486287 3.7946997
0.44253364 -1.9972432 3.8162091
0.60653466 -2.719732 4.1652246
2.1387527 -9.5443983 11.787146
0.065665163 -0.57935905 9.9228449
0.15659501 -1.0316697 9.6892719
0.19722077 -0.93306822 3.7093201
0.37203652 -1.721364 4.8433495
0.39904749 -1.8219409 3.9203019
0.5016048 -2.2733696 3.8781536
2.0357854 -9.1748629 12.519205
2.1906323 -9.8322439 10.998484
1.8961971 -8.3797045 8.5227032
2.1851101 -9.6331282 8.0471191
2.8365281 -12.47476 8.4721909
3.637995 -15.973824 8.6622362
6.0451117 -26.500475 11.070243
6.0125217 -26.315273 8.0242939
5.780489 -25.259136 5.0110431
8.34132 -36.3909 3.4446802
1.937642 -8.6187763 7.949101
2.4203289 -10.739635 8.0996666
3.1754444 -14.067483 8.560154
5.3098474 -23.428045 8.4498701
5.8644485 -25.833263 6.4798832
-0.019221898 -0.094296083 9.6089067
0.1751595 -0.88172114 5.7151456
0.1585957 -0.77245265 3.8146427
0.36330491 -1.7126349 5.6440873
0.33438569 -1.5498054 3.7946997
0.4365789 -2.0034561 3.8249874
2.1295707 -9.6613598 11.921458
0.06364242 -0.57958472 9.9228449
0.15299286 -1.03221 9.6892719
0.19472852 -0.93744326 3.7238383
0.36710098 -1.7277161 4.8574276
0.39085257 -1.81481 3.902297
0.49366617 -2.2751064 3.8781536
2.0024617 -9.1760244 12.511226
2.1911302 -9.998786 11.174891
1.8653851 -8.3793106 8.5156946
2.1506233 -9.636899 8.0439806
2.7938788 -12.488666 8.4749317
3.5793078 -15.973456 8.6552792
5.9830284 -26.657114 11.126433
5.9427233 -26.434385 8.0539045
5.7581086 -25.571489 5.0679331
1.9075449 -8.6254873 7.949101
2.3845756 -10.75591 8.1055527
3.125386 -14.074274 8.557621
5.5386715 -24.880417 11.870638
5.2177587 -23.400347 8.4334345
-0.019550936 -0.094228409 9.6089067
0.17208065 -0.8823272 5.7151456
0.15469293 -0.76701242 3.7852714
0.36097836 -1.7314285 5.7013512
0.32654268 -1.5394961 3.7670844
0.43008447 -2.0073097 3.8293765
2.1182399 -9.7721071 12.048096
0.06120345 -0.57578307 9.8529625
0.14946459 -1.0332655 9.6942434
0.19170608 -0.93934888 3.7286777
0.35789451 -1.7137836 4.8151927
0.38271227 -1.8076442 3.8842921
0.4862656 -2.2793665 3.8824196
1.9710515 -9.1859045 12.515216
2.1654983 -10.049458 11.222668
1.8345989 -8.3788033 8.5086861
2.1153021 -9.6367426 8.0377035
2.7493696 -12.494259 8.4721909
3.5206678 -15.972876 8.6483231
5.8899412 -26.677837 11.126433
5.9394941 -26.857784 8.175168
5.6826229 -25.65378 5.0800571
1.8766311 -8.6284437 7.9457755
2.3564875 -10.80761 8.137928
3.0753186 -14.080886 8.5550871
5.4663501 -24.966101 11.902109
5.1309862 -23.395355 8.4252176
6.0583653 -27.577898 6.9007449
-0.019879734 -0.094159596 9.6089067
0.16914542 -0.88368565 5.7200847
0.15201461 -0.76754773 3.7852714
0.35074097 -1.7122047 5.6345429
0.42356846 -2.0111423 3.8337653
0.62237662 -2.9351501 4.4793286
2.1101701 -9.901701 12.197759
0.05919322 -0.57599318 9.8529625
0.1458569 -1.0337809 9.6942434
0.18817925 -0.93877983 3.7238383
0.34705636 -1.6913557 4.7494941
0.37418354 -1.7983125 3.8617861
0.47777104 -2.2784975 3.8781536
1.9420838 -9.2074709 12.535165
2.1585073 -10.189617 11.369675
1.8038391 -8.3781834 8.5016766
2.0824718 -9.647872 8.0408421
2.7048552 -12.499692 8.469449
3.4630136 -15.976407 8.6436853
5.8203897 -26.806965 11.171387
5.842649 -26.86429 8.1709375
5.5386677 -25.423878 5.0315609
1.8457202 -8.6312923 7.9424505
2.3263733 -10.851338 8.1644163
3.0252438 -14.087321 8.5525541
5.4450793 -25.291172 12.046875
5.0343575 -23.343882 8.4005642
5.9723277 -27.646391 6.9124684
-0.02020829 -0.094089627 9.6089067
0.16605976 -0.88427073 5.7200847
0.14972231 -0.77007288 3.7950618
0.32798827 -1.6300043 5.3625402
0.41751623 -2.0172992 3.8425436
0.61384928 -2.9455693 4.4917274
2.0874217 -9.9654751 12.266833
0.056822564 -0.57246065 9.7880707
0.14224745 -1.0342838 9.6942434
0.18781024 -0.95423138 3.7819114
0.3425135 -1.6993237 4.7682652
0.36921158 -1.8060063 3.8752897
0.46928841 -2.2775967 3.8738875
1.9074858 -9.2023926 12.519205
2.1305263 -10.233599 11.410101
1.7738445 -8.3809404 8.4981718
2.0512056 -9.6665058 8.0502577
2.6594665 -12.500877 8.4639654
3.4044547 -15.975402 8.6367292
5.7237616 -26.767246 8.1356869
5.3778677 -25.106825 4.9662776
1.8148122 -8.6340284 7.9391251
2.2943151 -10.887078 8.1850185
2.9751611 -14.093577 8.5500212
4.9381509 -23.292023 8.3759127
5.830348 -27.453114 6.859714
-0.020536602 -0.094018511 9.6089067
0.16339327 -0.88713771 5.7349029
0.14722379 -0.77159101 3.7999568
0.30957308 -1.5667042 5.1525726
0.41381153 -2.0351732 3.8732669
0.60638559 -2.9614785 4.512392
2.0823455 -10.117115 12.443359
0.054637291 -0.57064331 9.75313
0.13863628 -1.0347739 9.6942434
0.18685938 -0.96722323 3.8303056
0.33590987 -1.6971232 4.7588797
0.36376205 -1.8115529 3.8842921
0.46081799 -2.2766647 3.8696215
1.8729467 -9.1971836 12.503245
2.0947914 -10.240973 11.410101
1.743126 -8.3800974 8.4911623
2.0198345 -9.6850376 8.0596724
2.6149583 -12.505991 8.4612246
3.3486693 -15.987188 8.6367292
5.1104603 -24.356064 10.143091
5.6677871 -26.965454 8.1892681
1.7846627 -8.6403103 7.9391251
2.2562981 -10.895021 8.1850185
2.9241958 -14.095435 8.5449553
5.6676512 -27.248125 12.953233
4.8452578 -23.253643 8.3561907
5.6510587 -27.073618 6.7612395
9.2029943 -43.97554 1.906033
-0.020864664 -0.093946256 9.6089067
0.1608465 -0.89076144 5.7546597
0.14490344 -0.77410197 3.8097472
0.29472858 -1.5194161 4.9950972
0.30350226 -1.5362386 3.7486744
0.41045591 -2.0553944 3.9083796
0.60214686 -2.9939239 4.5578547
2.0533695 -10.155739 12.481733
0.05226009 -0.56651723 9.6782541
0.13502339 -1.0352516 9.6942434
0.18652152 -0.98392504 3.8932183
0.32899684 -1.6932033 4.7448015
0.35785732 -1.8149474 3.8887932
0.45032644 -2.2654696 3.8482921
1.8426042 -9.2125301 12.515216
2.0563598 -10.234928 11.395401
1.7124352 -8.3791428 8.4841537
1.9899219 -9.7110949 8.0753651
2.5696054 -12.506852 8.4557419
3.29195 -15.99444 8.6344099
4.9757953 -24.133114 10.04382
5.5736256 -26.985075 8.1892681
7.4884334 -36.12849 3.4053373
1.7537489 -8.642827 7.9357996
2.2037485 -10.831535 8.132041
2.8741148 -14.101333 8.5424213
5.5779548 -27.294424 12.965822
4.7650051 -23.27504 8.3578339
5.5213647 -26.921766 6.7190361
9.0085468 -43.886158 6.3407803
9.0554733 -44.036758 1.9072422
-0.021205161 -0.093914598 9.6139069
0.15787123 -0.89208263 5.7595987
0.14220043 -0.77460307 3.8097472
0.28886518 -1.517503 4.9855537
0.29925326 -1.5430424 3.7624817
0.41249236 -2.1038201 3.9961612
0.59169245 -2.9960074 4.5578547
2.0185311 -10.165988 12.485572
0.050282259 -0.56669623 9.6782541
0.13140886 -1.0357165 9.6942434
0.18400383 -0.98951352 3.912576
0.32049996 -1.6807801 4.7072592
0.35276034 -1.8225975 3.902297
0.44491279 -2.2798262 3.8696215
2.0166838 -10.222087 11.373349
1.6817727 -8.3780775 8.4771452
1.9560119 -9.7179823 8.0753651
2.5242782 -12.507547 8.4502592
3.2369771 -16.010178 8.6367292
4.8887639 -24.136703 10.038201
5.40976 -26.661173 8.0863361
6.2399411 -30.697643 6.0387907
7.3702254 -36.193447 3.4089141
1.7228394 -8.6452351 7.9324737
2.1540456 -10.779708 8.0878944
2.8231819 -14.102824 8.5373545
5.4487042 -27.144638 12.886096
4.6837306 -23.291531 8.3578339
5.4273567 -26.940876 6.7190361
8.8601952 -43.941608 6.344234
8.9274197 -44.195423 1.912482
-0.021532854 -0.093840003 9.6139069
0.15886031 -0.91636306 5.9127159
0.13949569 -0.77509469 3.8097472
0.21292156 -1.1399188 3.7543814
0.29423028 -1.545997 3.7670844
0.41374311 -2.1499324 4.0795541
0.57801783 -2.9814787 4.5330567
1.9842591 -10.179263 12.493246
0.048138227 -0.56485426 9.6433125
0.12772804 -1.0356398 9.6892719
0.18144938 -0.99509639 3.9319336
0.31526527 -1.6852812 4.7166448
0.34477192 -1.8152627 3.8842921
0.43695199 -2.2813654 3.8696215
1.8039082 -9.3583155 12.694767
1.6518278 -8.3803968 8.4736404
1.9152856 -9.6903839 8.0471191
2.4773517 -12.499876 8.4392929
3.1810715 -16.021378 8.6367292
4.8270917 -24.267292 10.085028
5.3522873 -26.858667 8.1399164
6.1327481 -30.719236 6.0387907
7.2291923 -36.145706 3.4022079
1.6926514 -8.6511955 7.9324737
2.1148479 -10.779228 8.0820074
2.7722738 -14.104133 8.5322886
5.3504086 -27.145681 12.877704
4.6088033 -23.340168 8.369338
5.430439 -27.450781 6.8397846
8.7202215 -44.040276 6.3539033
8.7643452 -44.182213 1.9106681
-0.021860287 -0.093764268 9.6139069
0.17122622 -1.0088437 6.5054269
0.13678926 -0.77557689 3.8097472
0.20786642 -1.1347818 3.7352936
0.28632337 -1.5335711 3.7348666
0.40756866 -2.1584239 4.092721
1.9505216 -10.195573 12.504759
0.046030324 -0.56329203 9.6133633
0.1241122 -1.0360794 9.6892719
0.17797475 -0.99572361 3.9319336
0.31560501 -1.7203189 4.8105001
0.33843336 -1.8164552 3.8842921
0.42994902 -2.2880034 3.8781536
1.6212099 -8.3791094 8.4666309
1.8784826 -9.6817265 8.034565
2.4321067 -12.500238 8.4338102
3.1242793 -16.028036 8.6344099
4.7450194 -24.297646 10.090647
5.2778435 -26.976051 8.169528
5.972568 -30.470509 5.9865642
7.0569153 -35.936165 3.3807483
1.6617386 -8.6533852 7.9291482
2.0764441 -10.782575 8.0790644
2.7213914 -14.105261 8.5272226
4.5326948 -23.383928 8.379199
5.3280983 -27.436171 6.8315783
8.5560455 -44.016979 6.3463058
8.5957422 -44.138977 1.9076451
-0.022174323 -0.093645781 9.6089067
0.17316629 -1.0423967 6.7178149
0.13408116 -0.77604967 3.8097472
0.20364045 -1.1340312 3.7305217
0.28061676 -1.5326394 3.7302639
0.40352026 -2.1786733 4.1278338
1.8657446 -9.9979486 15.010082
1.9131466 -10.192867 12.493246
0.044063788 -0.56344926 9.6133633
0.12043387 -1.0359768 9.6843004
0.17428139 -0.99510062 3.927094
0.31081924 -1.7282039 4.8292713
0.33404627 -1.8283331 3.9067984
0.42290491 -2.2946198 3.8866854
1.8742921 -10.102468 13.680303
1.9107723 -10.24931 11.3807
1.5912863 -8.3812141 8.4631262
1.8403076 -9.6652832 8.0157347
2.3829682 -12.479901 8.4146194
3.0683119 -16.038843 8.6344099
4.6514497 -24.268532 10.071917
5.1601262 -26.871822 8.1328669
5.8986511 -30.660004 6.019206
6.9248328 -35.926342 3.3776183
1.6308314 -8.6554642 7.9258227
2.0387933 -10.789758 8.0790644
2.6697326 -14.101967 8.5196228
4.4501595 -23.39497 8.3775558
5.2677846 -27.640816 6.8772988
8.385643 -43.959015 6.3338737
-0.022501074 -0.093567811 9.6089067
0.17139201 -1.0544995 6.7919035
0.13120197 -0.775509 3.8048522
0.19942227 -1.1332649 3.7257495
0.2773349 -1.5451474 3.7578795
0.39420149 -2.1706424 4.1102772
1.8303273 -10.001632 15.005948
1.8769751 -10.196333 12.489408
0.042096715 -0.56359965 9.6133633
0.11681691 -1.0363909 9.6843004
0.39709973 -2.2173476 4.721518
0.41442901 -2.2935157 3.8824196
1.8384773 -10.105985 13.676313
1.8762033 -10.262589 11.388051
1.5607146 -8.3797054 8.4561167
1.8051289 -9.6639957 8.0094576
2.3417006 -12.500474 8.4228439
3.0114903 -16.045103 8.6320915
4.6146865 -24.539757 10.176805
5.0281029 -26.686964 8.0722351
5.7861238 -30.651443 6.0136099
6.7882791 -35.891579 3.3722537
1.5999298 -8.6574316 7.9224973
2.0011175 -10.796808 8.0790644
2.618917 -14.102722 8.5145559
5.1980662 -27.80237 6.9124684
8.2130165 -43.885803 6.3193693
7.4568944 -39.768764 1.7258643
-0.022827549 -0.093488693 9.6089067
0.16904861 -1.0635329 6.8462358
0.12832819 -0.77495766 3.7999568
0.19647843 -1.1398383 3.7448375
0.27126315 -1.5422577 3.7486744
0.38620254 -2.1696475 4.1058884
1.7963976 -10.0135 15.014215
1.8408026 -10.199668 12.485572
0.040168397 -0.56431925 9.6233463
0.11319851 -1.0367924 9.6843004
0.1976824 -1.1772832 4.6336503
0.40778875 -2.323786 4.9420772
0.40778461 -2.3026526 3.8952174
1.8319966 -10.222357 11.336598
1.5308141 -8.3815956 8.4526129
1.772787 -9.6778946 8.0157347
2.2972958 -12.504458 8.4201021
2.9538603 -16.046804 8.6274538
4.5390892 -24.610426 10.199282
4.9288154 -26.671333 8.0623655
6.6629529 -35.915058 3.3722537
1.5690341 -8.6592894 7.9191713
1.9626949 -10.799751 8.0761213
2.5681288 -14.103296 8.50949
4.5485272 -24.856138 8.8837566
5.0387473 -27.480898 6.8292336
7.3171277 -39.789639 1.7256627
-0.023140186 -0.093366981 9.6039076
0.16509713 -1.0625808 6.8363571
0.12562229 -0.77540088 3.7999568
0.19225031 -1.1390455 3.7400656
0.37081096 -2.1261537 4.0224957
1.763869 -10.033566 15.034879
1.8040714 -10.199719 12.477897
0.038198311 -0.56445605 9.6233463
0.10957874 -1.0371811 9.6843004
0.1935717 -1.177966 4.6336503
0.23520657 -1.3910527 3.890718
0.39930612 -2.32305 4.9375763
0.39662448 -2.2860744 3.865356
1.7673614 -10.115604 13.672322
1.7951299 -10.222011 11.329248
1.5009189 -8.3833771 8.4491081
1.739682 -9.6878557 8.0188732
2.2536333 -12.512402 8.4201021
2.896255 -16.048298 8.6228161
4.3987093 -24.325031 10.075662
4.8356848 -26.688375 8.0623655
4.8629951 -26.785831 5.2600532
1.538798 -8.6647139 7.9191713
1.9242758 -10.802556 8.0731783
2.517369 -14.103688 8.5044241
4.4742422 -24.941584 8.9084091
4.8722782 -27.106033 6.7331038
7.131228 -39.633633 5.7088084
7.1781907 -39.814938 1.7256627
-0.023465957 -0.093285635 9.6039076
0.16092174 -1.0600777 6.8166003
0.12275595 -0.77482897 3.7950618
0.18997431 -1.1500192 3.7734697
0.46251532 -2.7423763 6.6114445
0.35693717 -2.0896621 3.9522705
1.7331322 -10.064622 15.072076
1.7679095 -10.202796 12.474058
0.036245387 -0.56487411 9.6283379
0.10595764 -1.0375574 9.6843004
0.23260187 -1.4054857 3.9282601
0.38776866 -2.2823024 3.8568239
1.7320405 -10.121712 13.672322
1.7588627 -10.224874 11.325573
1.4710301 -8.3850517 8.4456034
1.7139491 -9.7398691 8.0565338
2.2092164 -12.516075 8.4173613
2.8386753 -16.049587 8.6181784
4.3137722 -24.340239 10.075662
4.999999 -28.155104 8.495245
4.7703257 -26.80748 5.2609854
7.0781808 -39.696514 3.7129276
1.5079031 -8.6663542 7.9158459
1.8858613 -10.805226 8.0702343
2.4666371 -14.103897 8.4993582
4.4402943 -25.259354 9.0152369
4.7759447 -27.113306 6.7307591
6.9868178 -39.624146 5.7039738
7.0322127 -39.800392 1.7240505
-0.023777589 -0.093161777 9.5989084
0.15676583 -1.0575584 6.7968431
0.11989512 -0.77424645 3.7901664
0.22544758 -1.3952975 4.565619
0.45071331 -2.7304814 6.579227
0.34055853 -2.0365641 3.8513215
1.731212 -10.202584 12.466383
0.034290001 -0.56528527 9.6333294
0.10233524 -1.0379208 9.6843004
0.15649815 -0.99550718 3.9174151
0.22300911 -1.3773292 3.8484831
0.29713511 -1.8038123 3.8437812
0.39092124 -2.3505328 3.9677382
1.7031707 -10.16633 13.724193
1.7225975 -10.227608 11.321898
1.4405439 -8.3831062 8.4385948
1.6905187 -9.8071651 8.1067495
2.1648011 -12.519589 8.4146194
2.7811217 -16.050669 8.6135406
4.3596382 -25.108799 10.384712
6.9344287 -39.691544 3.7102454
1.4776428 -8.6715651 7.9158459
1.8474514 -10.807759 8.0672922
2.4159346 -14.103923 8.4942913
6.8297815 -39.663887 14.096967
4.6705279 -27.067541 6.715519
6.8391891 -39.594612 5.6963763
6.8923888 -39.819775 1.7238491
-0.024102638 -0.093078211 9.5989084
0.15373906 -1.0627134 6.826479
0.11703985 -0.77365345 3.7852714
0.29920697 -1.8525561 4.4804754
0.32803476 -2.0046504 3.7898748
1.6907735 -10.245841 15.324185
1.6945374 -10.202241 12.458708
0.032316577 -0.56540155 9.6333294
0.098711595 -1.0382718 9.6843004
0.15092602 -0.98238063 3.8641818
0.21793032 -1.3763947 3.8437903
0.2925677 -1.8155847 3.8662875
0.39234567 -2.4110892 4.0658545
1.6720605 -10.198976 13.760103
1.6857831 -10.226868 11.314547
1.4106811 -8.3845673 8.4350901
1.6517406 -9.7861395 8.0847807
2.1203885 -12.522947 8.4118786
2.7235956 -16.051544 8.6089029
4.275074 -25.142145 10.392205
4.8758392 -28.614925 8.6221485
6.7966771 -39.720417 3.7106924
1.4467502 -8.6729879 7.9125209
1.8090469 -10.810156 8.0643492
2.3659749 -14.108018 8.4917574
6.6912875 -39.687485 14.096967
4.5816841 -27.117228 6.7237253
6.6951556 -39.584064 5.6915412
6.7450008 -39.794334 1.7218336
-0.024427395 -0.092993505 9.5989084
0.15035337 -1.0655518 6.8412967
0.11419021 -0.77304989 3.780376
0.22981176 -1.4883032 4.8614817
0.27385277 -1.7339441 4.1951189
0.32519734 -2.0317972 3.8381546
1.6554469 -10.254458 15.32832
1.6578865 -10.201768 12.451035
0.030342761 -0.56551093 9.6333294
0.095086753 -1.03861 9.6843004
0.14637859 -0.97544283 3.8351452
0.21312447 -1.3771472 3.8437903
0.28453499 -1.8058428 3.8437812
0.38597596 -2.4253221 4.0871844
1.6364491 -10.20475 13.760103
1.6489952 -10.225997 11.307198
1.3802462 -8.3824024 8.4280806
1.6169361 -9.7880058 8.0816422
2.0759785 -12.526148 8.4091368
2.6660974 -16.052214 8.6042662
5.2921047 -31.726294 9.5443096
6.6048274 -39.511169 7.6969891
6.6522264 -39.709522 3.7075629
1.4158653 -8.6742992 7.9091954
1.7719547 -10.820394 8.0672922
2.3160164 -14.111938 8.4892244
4.4862061 -27.12826 6.7225528
6.5569406 -39.607197 5.6915412
6.6027813 -39.797924 1.7210276
-0.024751853 -0.092907675 9.5989084
0.14694974 -1.0683795 6.8561139
0.11120131 -0.77142811 3.7705855
0.22506012 -1.4920485 4.871026
0.24843693 -1.6093866 3.8959553
0.32439506 -2.0731459 3.9127688
1.6240296 -10.287971 15.369648
1.6212593 -10.201161 12.443359
0.028368575 -0.56561339 9.6333294
0.091414563 -1.0384045 9.6793289
0.14315465 -0.97719151 3.8399844
0.20805828 -1.3761764 3.8390975
0.27922317 -1.8132796 3.8572848
0.37630528 -2.4189236 4.0743866
1.5994178 -10.201468 13.748132
1.6122339 -10.224994 11.299847
1.3504105 -8.3836479 8.4245758
1.5753083 -9.7474813 8.0439806
2.0315723 -12.52919 8.406395
2.6100485 -16.061424 8.6042662
5.1349621 -31.46051 9.4597073
6.5031004 -39.66861 3.7017508
1.3855778 -8.6791887 7.9091954
1.7412056 -10.870416 8.0996666
2.2653756 -14.111423 8.4841585
4.3876028 -27.119764 6.716691
6.4170618 -39.620064 5.6901598
6.4630194 -39.815796 1.720826
-0.025090441 -0.092861891 9.6039076
0.14373399 -1.0727367 6.8808107
0.10836649 -0.77080321 3.7656903
0.21963322 -1.4913481 4.8662539
0.43467173 -2.883328 6.9290185
0.32186055 -2.1050429 3.9698269
1.5893953 -10.301921 15.382047
1.5846568 -10.200424 12.435684
0.026394043 -0.56570899 9.6333294
0.087789297 -1.0387173 9.6793289
0.13974276 -0.97768527 3.8399844
0.20350505 -1.3786014 3.8437903
0.27418652 -1.8228543 3.8752897
0.3611989 -2.376389 4.0018659
1.5633421 -10.204011 13.744143
1.5754995 -10.223858 11.292497
1.3205831 -8.3847885 8.421072
1.5364133 -9.7221642 8.0188732
1.9871701 -12.532075 8.4036541
2.5497956 -16.044186 8.590353
4.2427173 -26.636827 10.985956
4.9842777 -31.222439 9.3835659
4.422811 -27.643339 5.4064746
6.3669567 -39.705822 3.7030921
1.3546976 -8.6802835 7.90587
1.7113796 -10.928341 8.137928
2.2154357 -14.114987 8.4816256
6.2613325 -39.666752 14.065741
4.2746816 -27.019691 6.6885557
6.2725248 -39.603092 5.6846342
6.3584609 -40.055218 1.7296934
-0.025414437 -0.092773743 9.6039076
0.14018898 -1.074773 6.8906889
0.10567523 -0.77117676 3.7656903
0.21400183 -1.4891504 4.85671
0.42232934 -2.869365 6.8921981
0.31451064 -2.1061537 3.9698269
1.5534252 -10.307405 15.382047
1.5480791 -10.199555 12.428009
0.024419188 -0.56579763 9.6333294
0.084078029 -1.0379547 9.6693869
0.13632914 -0.97816712 3.8399844
0.19869161 -1.3793035 3.8437903
0.26845416 -1.828108 3.8842921
0.34907362 -2.3518372 3.9592061
1.5268221 -10.203446 13.736162
1.5387927 -10.22259 11.285146
1.2902217 -8.3822966 8.4140625
1.4977142 -9.6966944 7.9937654
1.9421319 -12.530672 8.3981705
2.4883356 -16.017969 8.5718021
4.167542 -26.765993 11.032782
4.8035121 -30.779896 9.2467928
4.2640424 -27.260643 5.3299994
6.2684269 -39.983639 3.7263401
1.3243896 -8.6849594 7.90587
1.6726108 -10.930252 8.134984
2.1648445 -14.114113 8.4765587
4.0867686 -26.551952 12.506349
6.1228318 -39.68837 14.065741
4.2130208 -27.245806 6.7401376
6.1456108 -39.698154 5.6949944
6.2530742 -40.299328 1.7387623
-0.025738124 -0.09268447 9.6039076
0.13614391 -1.0729431 6.8758712
0.10284835 -0.77053165 3.7607951
0.20818152 -1.4854537 4.8423939
0.40648046 -2.8302112 6.7955451
0.31026474 -2.1285684 4.0093288
1.5170267 -10.309982 15.377914
1.5119969 -10.201727 12.424172
0.022433463 -0.56559104 9.6283379
0.080576226 -1.0398364 9.6843004
0.13291386 -0.97863704 3.8399844
0.19411559 -1.3816975 3.8484831
0.26423153 -1.8441185 3.9158006
0.34310475 -2.3685284 3.984802
1.4907607 -10.205733 13.732173
1.5021141 -10.22119 11.277795
1.2604238 -8.3832226 8.4105577
1.4638573 -9.7018633 7.9937654
1.8977538 -12.533239 8.3954296
4.5224915 -29.658337 8.9083853
4.1258121 -26.993719 5.2759075
6.1288199 -40.005276 3.7263401
1.2935153 -8.6858368 7.9025445
1.634447 -10.936025 8.134984
2.1142864 -14.113056 8.4714928
3.9313078 -26.148664 12.31123
5.9828491 -39.700165 14.062453
4.1570935 -27.519875 6.803443
6.0388427 -39.929909 5.7246938
6.110868 -40.311031 1.7383593
-0.026061498 -0.092594057 9.6039076
0.13230298 -1.0726407 6.8709316
0.10015807 -0.77088594 3.7607951
0.20360047 -1.4906081 4.85671
0.39524424 -2.821939 6.7725325
0.30047342 -2.1130402 3.9786048
1.4798292 -10.306858 15.365517
1.4754592 -10.200598 12.416497
0.020459047 -0.5656659 9.6283379
0.076829739 -1.0385163 9.6693869
0.12949698 -0.97909504 3.8399844
0.18952529 -1.3840765 3.8531759
0.25628734 -1.8342497 3.8932943
0.33957696 -2.4032826 4.0402594
1.4542766 -10.204907 13.724193
1.465464 -10.219661 11.270446
1.2311532 -8.3875713 8.4105577
1.4294153 -9.703063 7.9906268
1.8527701 -12.531516 8.3899469
2.3063128 -15.561701 8.321372
5.7279382 -38.55648 15.837111
4.4238825 -29.707157 8.9182549
4.0438905 -27.090551 5.2917624
6.017879 -40.218506 3.7437761
1.2631882 -8.690299 7.9025445
1.5875108 -10.881668 8.0908375
2.0637622 -14.111819 8.4664259
3.8162811 -26.000572 12.2357
5.8387341 -39.68343 14.049305
4.0844097 -27.692902 6.8421292
5.9312549 -40.166302 5.755084
5.9649978 -40.29752 1.7369485
-0.026384551 -0.092502527 9.6039076
0.12837371 -1.071553 6.8610535
0.09733931 -0.7702207 3.7558999
0.19878934 -1.4942693 4.8662539
0.35720482 -2.5766788 4.8344755
1.4430619 -10.306387 15.35725
1.4389479 -10.199338 12.408822
0.018484378 -0.56573385 9.6283379
0.032940071 -0.4586097 4.2454753
0.12575822 -0.97704762 3.8303056
0.1846928 -1.3847295 3.8531759
0.24900234 -1.8286618 3.879791
0.33830097 -2.4561262 4.1255779
1.4178168 -10.203953 13.716213
1.4293123 -10.221356 11.26677
1.2008564 -8.384757 8.4035492
1.3955365 -9.7079935 7.9906268
1.8078214 -12.529629 8.3844633
2.2519782 -15.569656 8.321372
4.3374085 -29.841099 8.9535055
3.9273458 -26.953812 5.2628508
5.8781734 -40.244194 3.7442234
1.2323216 -8.690959 7.8992186
1.5415437 -10.83112 8.049633
2.0132725 -14.110401 8.46136
3.7049098 -25.869968 12.168562
5.6974936 -39.684872 14.042731
3.9877188 -27.706989 6.8421292
5.7917185 -40.191662 5.7557745
5.8207254 -40.293373 1.7359408
-0.026707284 -0.092409857 9.6039076
0.12454306 -1.0712228 6.8561139
0.094526403 -0.76954508 3.7510047
0.19299771 -1.4905127 4.8519378
0.35906231 -2.7006853 6.4779711
0.35557944 -2.6324992 4.9354243
1.4063164 -10.305785 15.348984
1.4029002 -10.201123 12.404984
0.016509486 -0.56579494 9.6283379
0.031444173 -0.46031764 4.2603903
0.12172372 -0.97249162 3.8109479
0.18008001 -1.3870771 3.8578684
0.24318966 -1.833836 3.8887932
0.33666006 -2.5089896 4.2108965
1.3817855 -10.205854 13.712223
1.3927088 -10.219564 11.259419
1.1710877 -8.3853664 8.4000444
1.3616408 -9.7128057 7.9906268
1.7629083 -12.527581 8.3789806
2.1939034 -15.551105 8.3074589
4.6471243 -32.857735 13.495819
4.246686 -29.951048 8.9817066
3.839457 -27.011127 5.2712445
5.7362537 -40.254608 3.743329
1.201977 -8.6952076 7.8992186
1.5031708 -10.83243 8.046689
1.9634118 -14.113074 8.458827
3.6076796 -25.833302 12.145483
5.5569677 -39.690487 14.037801
3.8626027 -27.518576 6.792892
5.647253 -40.182209 5.7516303
5.6835251 -40.338181 1.7369485
-0.027044976 -0.092356928 9.6089067
0.12071628 -1.0708786 6.8511748
0.091719419 -0.76885933 3.7461095
0.23157659 -1.8392203 5.9733539
0.34938234 -2.6999846 6.4733686
0.3357735 -2.5529895 4.7861953
1.3692218 -10.302263 15.336586
1.3664318 -10.199604 12.397308
0.014534392 -0.56584913 9.6283379
0.029837172 -0.46042457 4.2603903
0.11787401 -0.96916711 3.7964296
0.17545313 -1.3894094 3.8625612
0.35709736 -2.767385 5.8333178
0.3275623 -2.5075636 4.2066302
1.3453643 -10.20464 13.704244
1.3565813 -10.221003 11.255744
1.1413293 -8.385869 8.3965397
1.3272017 -9.7136431 7.9874883
1.7186 -12.529516 8.3762388
2.1396067 -15.558668 8.3074589
5.3131046 -38.536278 15.805269
4.1565619 -30.07023 9.0127277
3.7741427 -27.233593 5.311347
5.5881653 -40.220123 3.7384112
1.1716176 -8.6993504 7.8992186
1.4621001 -10.813578 8.0290308
1.9129777 -14.111298 8.4537601
3.509526 -25.787273 12.118208
3.8370154 -28.04718 6.9183302
5.5035958 -40.177143 5.7481771
5.5406446 -40.342926 1.7363439
-0.027367197 -0.092261963 9.6089067
0.11689345 -1.0705212 6.8462358
0.088918358 -0.76816326 3.7412143
0.23113269 -1.8889126 6.1308293
0.33898014 -2.693434 6.4549584
0.27732348 -2.1669178 4.0707755
1.3325299 -10.301397 15.32832
1.3304058 -10.201134 12.393472
0.012559122 -0.56589639 9.6283379
0.049850967 -0.82769847 7.6907277
0.11404901 -0.9658277 3.7819114
0.17081212 -1.3917263 3.8672543
0.35231245 -2.8074946 5.9143395
0.31650651 -2.490581 4.1767688
1.3093517 -10.206285 13.700253
1.3204609 -10.222314 11.252069
1.1115817 -8.3862667 8.3930359
1.2927731 -9.7143583 7.9843497
1.6742997 -12.531295 8.373498
2.0905771 -15.605557 8.3283281
5.1760874 -38.536209 15.797777
4.0515718 -30.084557 9.0127277
3.6968048 -27.37804 5.3365278
5.4484053 -40.244324 3.7388582
1.1407586 -8.6996841 7.8958931
1.4248725 -10.822624 8.0319738
1.8625803 -14.109343 8.4486942
3.4612329 -26.114311 12.265072
5.2729001 -39.676823 14.019722
5.3606982 -40.176479 5.7454143
5.3898506 -40.287746 1.7333211
-0.027704656 -0.092206627 9.6139069
0.11307456 -1.0701499 6.8412967
0.086575858 -0.7715047 3.7558999
0.22260213 -1.8734028 6.0783377
0.32839084 -2.6849048 6.4319458
0.27123591 -2.1797562 4.092721
1.2972656 -10.311571 15.336586
1.2939823 -10.199355 12.385797
0.010579163 -0.56564808 9.6233463
0.046873022 -0.8262707 7.6758137
0.11010604 -0.96122462 3.7625537
0.16595304 -1.392314 3.8672543
0.34303716 -2.8130293 5.9233422
0.30429476 -2.4631987 4.1298437
1.2729713 -10.204813 13.692272
1.2843477 -10.223497 11.248394
1.081845 -8.3865595 8.3895311
1.2583559 -9.7149515 7.9812112
1.630547 -12.537063 8.373498
2.0418193 -15.656686 8.3515167
5.0397363 -38.540253 15.792158
3.9197154 -29.893993 8.952096
3.5326998 -26.869652 5.2367377
5.3078928 -40.263096 3.7388582
1.1103841 -8.7036133 7.8958931
1.3865721 -10.823522 8.0290308
1.8122196 -14.107206 8.4436274
3.3723783 -26.144239 12.273464
5.1373992 -39.718403 14.02794
5.4554067 -42.061649 10.320395
5.2153206 -40.155655 5.7398887
5.2491875 -40.306313 1.7333211
-0.02802635 -0.09210936 9.6139069
0.10918104 -1.0689921 6.8314176
0.084320731 -0.77585137 3.775481
0.17233887 -1.4945451 4.85671
0.31924713 -2.6879752 6.4365482
0.26764786 -2.2139776 4.1541681
1.2605805 -10.31045 15.32832
1.2579799 -10.20063 12.381959
0.0086046187 -0.56568158 9.6233463
0.043739945 -0.82163829 7.6310697
0.10661169 -0.96035373 3.7577143
0.16287434 -1.4083133 3.9094892
0.3321923 -2.8055623 5.9053373
0.28668714 -2.3891516 4.0061316
1.2369796 -10.206203 13.688283
1.2482425 -10.224553 11.24472
1.05212 -8.3867455 8.3860264
1.2224907 -9.7038374 7.968658
1.5862498 -12.538529 8.3707561
1.9832524 -15.632957 8.3352852
4.8905487 -38.442638 15.745333
3.8135204 -29.893215 8.9478655
3.4388859 -26.881819 5.2367377
5.1654153 -40.266563 3.7375171
1.0795366 -8.7037306 7.8925676
1.3487825 -10.828296 8.0290308
1.762431 -14.10917 8.4410944
2.2298219 -17.775343 8.368989
4.9904733 -39.670502 14.004931
5.306726 -42.065971 10.316878
5.0788436 -40.203098 5.7440329
-0.028347699 -0.092010967 9.6139069
0.10537294 -1.0685934 6.826479
0.082036301 -0.78019166 3.7950618
0.16778335 -1.5010716 4.8757977
0.3120977 -2.7084813 6.482574
0.26187107 -2.231549 4.1848917
1.221984 -10.201776 12.37812
0.006629969 -0.56570816 9.6233463
0.040742818 -0.81912374 7.6062121
0.10272276 -0.95572078 3.7383566
0.15546066 -1.3865788 3.8484831
0.20940951 -1.8226619 3.8572848
0.27201271 -2.3357363 3.9165471
1.2013458 -10.21046 13.688283
1.2121454 -10.225482 11.241044
1.0219754 -8.3832874 8.3790169
1.1900295 -9.719636 7.9780726
1.5419623 -12.53984 8.3680143
1.9221652 -15.587025 8.3074589
4.7779508 -38.634308 15.816507
3.6943898 -29.787331 8.9126148
3.3711009 -27.103271 5.2768402
1.0487016 -8.7037392 7.8892422
1.310491 -10.828925 8.0260878
1.7121313 -14.106677 8.4360285
2.1595232 -17.715443 8.3375187
4.8811913 -39.926731 14.088751
5.1486168 -41.992573 10.294604
4.9602036 -40.397522 5.7688971
-0.028668705 -0.09191145 9.6139069
0.10134918 -1.0658605 6.8067217
0.079825141 -0.78553838 3.8195379
0.16222173 -1.49868 4.8662539
0.30307493 -2.7134373 6.4917789
0.25407991 -2.2324495 4.1848917
0.33888486 -2.9415569 4.4214673
1.1859958 -10.202796 12.374284
0.0046552387 -0.56572789 9.6233463
0.037763782 -0.81659836 7.5813546
0.099904619 -0.96107459 3.7577143
0.20160133 -1.8104005 3.8302777
0.26064005 -2.3081641 3.8696215
1.1653556 -10.211596 13.684292
1.1760571 -10.226282 11.237369
0.9922868 -8.3832617 8.3755121
1.1597706 -9.7546511 8.0031805
1.4976848 -12.540995 8.3652735
1.8635302 -15.558454 8.288909
4.6541214 -38.742809 15.853969
3.5852258 -29.757181 8.8999243
3.2747042 -27.100241 5.2740421
1.01788 -8.7036381 7.8859172
1.2722113 -10.829419 8.0231438
1.6623747 -14.108285 8.4334946
2.0976717 -17.722872 8.3375187
4.7551513 -40.056068 14.128194
4.0308032 -33.853447 8.3133879
-0.028973222 -0.091770284 9.6089067
0.097416341 -1.0638864 6.7919035
0.077082612 -0.7858122 3.8195379
0.15683413 -1.4977525 4.8614817
0.2946513 -2.7241902 6.5147915
0.24549846 -2.2261813 4.1717248
0.33423468 -2.9930615 4.4958601
1.1496562 -10.200503 12.366609
0.0026804514 -0.56574064 9.6233463
0.034626532 -0.8098014 7.5167251
0.20378758 -2.0320253 7.9002614
0.19528063 -1.8110931 3.8302777
0.25598323 -2.3401711 3.9208131
1.1300346 -10.218597 13.688283
1.1399781 -10.226956 11.233694
0.96261096 -8.383132 8.3720083
1.1297276 -9.7934408 8.0314264
1.4534181 -12.541992 8.3625317
1.8056295 -15.534061 8.2726774
4.5333505 -38.883144 15.90454
3.4735315 -29.70281 8.8801842
3.1938214 -27.2286 5.2964253
0.98665094 -8.6997185 7.8792658
1.2339444 -10.82978 8.0202017
1.6126281 -14.10972 8.4309616
2.0394185 -17.761648 8.3522043
4.6120591 -40.044277 14.118334
5.1270905 -44.177044 1.8876936
-0.029293383 -0.091668591 9.6089067
0.093430668 -1.0611238 6.7721467
0.07424368 -0.78506279 3.8146427
0.15205525 -1.5027462 4.8757977
0.28696907 -2.7426901 6.5562143
0.23670982 -2.2174985 4.1541681
0.32378489 -2.99421 4.4958601
1.113695 -10.201268 12.362771
0.00070563145 -0.56574655 9.6233463
0.031597745 -0.80459064 7.4670105
0.1941541 -2.0064504 7.7986341
0.43044454 -4.2432823 11.652554
0.19076282 -1.8290854 3.8662875
0.25055715 -2.3669858 3.9634721
1.0943582 -10.22248 13.688283
1.1035447 -10.224131 11.226343
0.93334246 -8.3864412 8.3720083
1.1002929 -9.8398743 8.0659494
1.4091626 -12.542833 8.3597908
1.7499061 -15.527063 8.2657204
4.396554 -38.889523 15.900795
3.3887475 -29.881584 8.9295359
3.0909829 -27.171251 5.2833686
5.0109177 -43.912064 4.0607553
0.95586944 -8.699398 7.8759403
1.1970209 -10.842055 8.0260878
1.5628915 -14.110977 8.4284277
1.9743944 -17.741594 8.3396158
4.4722505 -40.060131 14.118334
4.9739695 -44.204601 1.8880966
-0.029613189 -0.09156578 9.6089067
0.089530639 -1.0591209 6.757329
0.071502842 -0.78531712 3.8146427
0.14680876 -1.5032679 4.8757977
0.28328592 -2.8019879 6.6942902
0.22577283 -2.187341 4.0971103
1.0777425 -10.201906 12.358933
-0.0012691969 -0.56574559 9.6233463
0.024189567 -0.67097807 6.2191625
0.18575057 -1.992097 7.7405605
0.39041564 -3.987139 10.948638
0.18437697 -1.82974 3.8662875
0.25370419 -2.4794092 4.1469073
1.0564965 -10.205256 13.660353
1.0674971 -10.22455 11.222668
0.90368056 -8.3861008 8.3685036
1.0671959 -9.8552656 8.0753651
1.3649193 -12.54352 8.357049
1.6952152 -15.528673 8.263402
4.2557302 -38.858547 15.882065
3.3006616 -30.041048 8.9732466
3.8276234 -34.725616 6.7242665
4.8816881 -44.147076 4.0804267
0.92510223 -8.6989698 7.8726149
1.162604 -10.878321 8.049633
1.5127065 -14.107776 8.4233627
1.9119667 -17.743866 8.3375187
4.3166533 -39.929958 14.067384
3.4664361 -31.960888 7.844461
4.7844973 -44.041935 6.2710218
4.8196363 -44.221695 1.8880966
-0.029916072 -0.091421492 9.6039076
0.08558327 -1.0563289 6.7375722
0.06876114 -0.78556198 3.8146427
0.14183988 -1.5067436 4.8853416
0.27521002 -2.8204591 6.7357125
0.21528676 -2.1595175 4.0444412
1.0401348 -10.292591 15.266325
1.0417989 -10.202416 12.355096
-0.0032414901 -0.565449 9.6183548
0.021896666 -0.67265683 6.234077
0.11160325 -1.2428133 4.8417454
0.39221931 -4.155128 11.403837
0.17798886 -1.8303725 3.8662875
0.25581294 -2.5892866 4.326077
1.0154707 -10.154913 13.588532
1.0314602 -10.22484 11.218992
0.87403244 -8.3856583 8.3649998
1.032788 -9.8589306 8.0753651
1.3202502 -12.539889 8.3515654
1.6396037 -15.521281 8.2564459
4.1102905 -38.780964 15.844603
3.1988223 -30.081011 8.9817066
4.2145 -39.501179 7.6335711
4.7254362 -44.144039 4.0786386
0.89434958 -8.698431 7.8692894
1.126702 -10.902415 8.0643492
1.4630073 -14.108682 8.4208288
1.8486059 -17.736889 8.3312235
4.1433568 -39.62072 13.953982
3.3563721 -31.987293 7.8479776
4.6302156 -44.053448 6.2703309
4.6631494 -44.218376 1.8872906
-0.030235009 -0.091316514 9.6039076
0.081656486 -1.0535223 6.7178149
0.066018596 -0.78579718 3.8146427
0.13617599 -1.5027697 4.871026
0.26865417 -2.8564141 6.8185577
0.20660165 -2.1483357 4.0224957
1.0055662 -10.310163 15.286989
1.0058651 -10.202802 12.351258
-0.005215256 -0.56543428 9.6183548
0.019694569 -0.67805773 6.2837925
0.10694093 -1.2394383 4.8272271
0.37896162 -4.1702209 11.44138
0.17038073 -1.8179779 3.8392799
0.25072908 -2.6317043 4.3943315
0.97741324 -10.131401 13.552622
0.99543399 -10.225004 11.215318
0.84475571 -8.3886585 8.3649998
0.99209571 -9.8005142 8.0251493
1.2764697 -12.544422 8.3515654
1.5845144 -15.518096 8.2518082
3.9455986 -38.509148 15.728476
2.7135825 -26.393763 7.8889313
4.0806222 -39.554745 7.6410322
0.86361212 -8.6977835 7.8659635
1.0938574 -10.958568 8.1026096
1.4128907 -14.105124 8.4157619
1.7857718 -17.734203 8.3270273
4.0050297 -39.634941 13.953982
