# .PCD v0.7 - Point Cloud Data file format
VERSION 0.7
FIELDS x y z
SIZE 4 4 4
TYPE F F F
COUNT 1 1 1
WIDTH 1557
HEIGHT 1
VIEWPOINT 0 0 0 1 0 0 0
POINTS 1557
DATA ascii
4.3939095 -10.271379 12.189237
3.3049407 -7.6554337 8.273881
5.1076279 -11.814214 10.460592
6.6694298 -15.40466 11.090291
9.3237782 -21.51498 12.360722
7.1510201 -16.485481 7.3485265
9.8316908 -22.643707 7.3460689
10.081594 -23.197119 4.8935332
10.594227 -24.353413 2.4772012
3.2835007 -7.6350622 7.483531
4.9301639 -11.447595 9.1592045
10.705621 -24.834209 15.977301
10.813229 -25.047766 12.699369
10.668878 -24.66609 6.5724964
11.395036 -26.332344 4.0939984
10.466663 -24.163879 1.1559349
2.2153962 -5.5349894 37.899353
3.0152485 -7.3952017 38.419006
4.7375741 -11.397573 39.506084
2.5282869 -6.0229912 15.448292
1.963985 -4.6513638 9.3201151
2.3537247 -5.552866 8.9305143
3.7864368 -8.9071188 11.664346
1.3090789 -3.8049042 37.484951
3.8300366 -9.3286657 38.8629
6.6320639 -15.939896 47.003162
1.9058658 -4.5446348 10.25351
3.9427638 -9.3608923 16.684488
2.5547724 -6.0448308 8.7645931
3.9864168 -9.4094906 11.156515
3.2964246 -7.7095513 8.3194399
4.9805598 -11.631598 10.284838
6.6040816 -15.400948 11.071101
9.234642 -21.51483 12.342172
7.144671 -16.629606 7.4009709
9.7374268 -22.642633 7.3347883
9.9869661 -23.200586 4.8870049
10.491417 -24.349083 2.4731777
3.2568295 -7.6464767 7.483531
4.8901744 -11.464735 9.1592045
10.60702 -24.843676 15.959569
10.913078 -25.523531 12.919664
6.958406 -16.258623 6.2442808
10.640132 -24.837217 6.6076655
11.386934 -26.56768 4.1236978
10.346797 -24.117622 1.1523074
2.1963482 -5.5434113 37.904289
2.9894161 -7.4056826 38.419006
4.6966243 -11.41128 39.49654
2.5019984 -6.0191517 15.416074
1.9468127 -4.6559811 9.3157253
2.3343272 -5.561048 8.9305143
3.7602971 -8.9320984 11.679695
1.2964753 -3.8114691 37.504837
3.8017099 -9.352459 38.906452
6.5776978 -15.966141 47.012547
1.8899904 -4.55126 10.25351
3.8950052 -9.3384924 16.620499
6.3190947 -15.098659 21.748133
3.9430554 -9.3983393 11.127113
3.2430718 -7.6586146 8.2528534
4.8958597 -11.544993 10.193824
6.5404749 -15.400814 11.054651
9.1473541 -21.518396 12.32594
9.6451731 -22.645592 7.3249183
9.8924351 -23.203674 4.8804765
10.390721 -24.348913 2.4696009
10.667972 -25.229952 16.182489
6.9218817 -16.330639 6.2623596
10.270362 -24.171984 1.1531134
2.1772683 -5.5517678 37.909229
2.9635472 -7.4160724 38.419006
4.6556358 -11.424839 39.486996
2.5501211 -6.1958652 15.844107
1.9314647 -4.6649618 9.3201151
2.3192215 -5.5795569 8.9470463
3.7438946 -8.9806709 11.725745
1.2836722 -3.8174875 37.519753
3.769979 -9.3680038 38.916134
6.5238805 -15.993797 47.026623
1.8732642 -4.5558157 10.249008
3.860393 -9.3472109 16.611967
2.5102022 -6.056952 8.7566128
3.902421 -9.393261 11.105062
3.1997693 -7.630424 8.2107992
4.8329244 -11.508183 10.146747
6.4720869 -15.38886 11.029979
9.0601549 -21.521618 12.309709
9.5511503 -22.643763 7.3136377
9.7980032 -23.206387 4.8739486
10.290156 -24.348339 2.4660244
3.0839243 -7.3830676 7.2075148
4.666512 -11.155536 8.8884335
10.678069 -25.501637 16.331947
9.7974043 -23.364077 11.799304
6.8703175 -16.367764 6.2672896
10.253193 -24.391354 3.7825015
10.081292 -23.959024 1.1422307
2.1581571 -5.5600586 37.914169
2.9380167 -7.4273186 38.423897
4.5967402 -11.393954 39.324749
2.5299523 -6.2083473 15.853312
1.9151691 -4.6716752 9.3201151
2.3082991 -5.6084366 8.9801102
3.7100773 -8.9877596 11.71807
1.2720189 -3.827004 37.569466
3.7349296 -9.375268 38.891933
6.4725351 -16.027672 47.059475
1.8565292 -4.5603108 10.244507
3.8257678 -9.3558016 16.603436
2.5439508 -6.1994867 8.9481335
3.903141 -9.4883432 11.200617
4.8764181 -11.726244 10.3225
6.4054699 -15.380478 11.008046
8.9730425 -21.52449 12.293477
9.8408947 -23.583134 10.412808
9.4591093 -22.645979 7.3037672
9.7036743 -23.208721 4.8674202
10.18972 -24.347357 2.4624476
3.0395825 -7.3489337 7.1642833
4.6368241 -11.194161 8.9060926
10.689701 -25.781662 16.486471
6.8131413 -16.391645 6.2672896
10.168473 -24.440168 6.475194
9.9860697 -23.966398 1.1410216
2.1387355 -5.5675583 37.914169
2.9124436 -7.4384766 38.428795
4.5320272 -11.347549 39.110008
2.5301931 -6.2714944 15.991389
1.9006515 -4.6827698 9.3288918
2.2972028 -5.6373076 9.0131731
3.6701937 -8.979887 11.691208
1.2574887 -3.8278751 37.534664
3.7026422 -9.3894176 38.896774
6.4421721 -16.114264 47.247185
1.8405995 -4.5667634 10.244507
3.7960224 -9.3763514 16.616234
2.531368 -6.2306623 8.9800539
3.8763905 -9.5176086 11.218992
3.0243711 -7.3557248 7.89539
4.8339739 -11.739594 10.319361
8.6647739 -21.011797 14.985914
8.8877125 -21.531113 12.279564
9.7390404 -23.570211 10.392205
9.3671684 -22.647829 7.2938972
9.6094484 -23.210684 4.8608918
10.091324 -24.350576 2.4593182
3.0209861 -7.3767748 7.1809106
4.623795 -11.273854 8.9561262
10.714242 -26.097965 16.663792
10.698895 -26.021812 13.093803
6.6300793 -16.109653 6.1522446
10.060882 -24.421583 6.4611259
10.165693 -24.66379 3.8128915
9.9328365 -24.075003 1.1442461
2.1195643 -5.5757165 37.919109
2.8860931 -7.447648 38.423897
4.522572 -11.43965 39.372467
2.511184 -6.2875447 16.009798
1.8860799 -4.693821 9.3376703
3.6256003 -8.95996 11.648995
1.2432969 -3.829706 37.509808
3.6693873 -9.4011145 38.891933
1.8238405 -4.5711379 10.240005
3.7642398 -9.3919649 16.620499
2.5006087 -6.2170954 8.9481335
3.8532863 -9.5562344 11.248394
3.0067439 -7.3860555 7.9164171
4.7371283 -11.619433 10.200101
8.5739889 -20.999331 14.955758
8.8007698 -21.533302 12.263332
9.6338854 -23.548283 10.367855
9.2753305 -22.649315 7.2840271
9.513463 -23.207722 4.8534307
9.9911404 -24.348797 2.4557416
3.0134556 -7.4322572 7.2241421
4.5844135 -11.289926 8.9561262
8.8651285 -21.81023 13.92036
10.248651 -25.176249 12.653212
6.568459 -16.119577 6.1473136
9.9755726 -24.456554 6.4611259
9.9953394 -24.492802 3.7818108
9.8695202 -24.160404 1.1464629
2.1000884 -5.5830808 37.919109
2.8600783 -7.4576774 38.423897
4.4744534 -11.434514 39.300888
2.4935308 -6.3071737 16.037415
1.8714544 -4.7048268 9.3464489
2.3705077 -5.9354467 9.4595318
3.6050296 -8.9993401 11.683533
1.2287824 -3.8304694 37.475006
3.636549 -9.413866 38.891933
1.8078731 -4.5774765 10.240005
3.7372034 -9.4195929 16.646095
2.48335 -6.2369843 8.9640942
3.7721472 -9.4499807 11.108738
2.9836097 -7.4031215 7.9234266
4.6572056 -11.538445 10.115361
8.4849653 -20.990366 14.928344
8.7139196 -21.535147 12.247101
10.977013 -27.100872 11.901869
9.1835947 -22.650434 7.2741566
9.4176178 -23.204376 4.8459697
9.8929653 -24.351227 2.4526119
3.0250466 -7.5362868 7.3139305
4.5660834 -11.358365 8.9973307
8.7776785 -21.813049 13.902628
10.136956 -25.152937 12.623839
6.4397182 -15.962857 6.0799298
9.8846827 -24.477705 6.4576092
9.9097824 -24.527544 3.7818108
9.7457886 -24.097445 1.1422307
2.0808578 -5.591105 37.924046
2.8340287 -7.4676156 38.423897
4.414567 -11.398561 39.124329
2.4764826 -6.3285747 16.069632
1.8576519 -4.7180157 9.3596153
2.3363256 -5.9096646 9.4058027
3.5854087 -9.0416641 11.721908
1.215404 -3.8347352 37.475006
3.6032171 -9.4253273 38.887096
1.7910912 -4.5817323 10.235505
3.6909537 -9.3985949 16.586372
2.4549348 -6.2287946 8.9401541
3.7329087 -9.4473267 11.090363
2.9749291 -7.4565516 7.9689851
4.5793509 -11.460655 10.033762
8.4054298 -21.004328 14.917377
8.6255169 -21.532536 12.22855
10.975517 -27.37138 12.003013
9.0919657 -22.65119 7.2642865
9.323741 -23.2052 4.8394413
9.7911797 -24.344028 2.4485884
3.0001006 -7.5502715 7.317256
4.5473304 -11.426811 9.0385351
8.6982918 -21.835545 13.897561
10.047413 -25.183952 12.621741
6.4767809 -16.217667 6.1670365
9.7811365 -24.466925 6.4458861
9.8737593 -24.686131 3.8004591
9.6616144 -24.131317 1.1422307
2.0615971 -5.5990644 37.928986
2.8075869 -7.4765096 38.419006
4.3250704 -11.284275 38.680531
2.460021 -6.3517556 16.106453
1.8446501 -4.733398 9.3771725
2.3177338 -5.9230251 9.4140692
3.544457 -9.0302553 11.691208
1.2028067 -3.8414984 37.499863
3.5707397 -9.439024 38.891933
1.7750871 -4.5879564 10.235505
3.6401725 -9.3652344 16.505318
3.698674 -9.4571409 11.086687
2.9423332 -7.4503059 7.9514627
4.5250015 -11.440375 10.002378
8.3505392 -21.080191 14.950274
8.5388718 -21.533686 12.212318
9.3662405 -23.59617 10.345379
9.0004444 -22.651583 7.2544165
9.2299747 -23.205654 4.8329129
9.6914053 -24.341043 2.4450116
2.97646 -7.567647 7.3239074
4.5118604 -11.453897 9.0473642
8.6030426 -21.817652 13.867164
9.9294357 -25.142889 12.583977
6.4340196 -16.275307 6.1801839
9.6831522 -24.469282 6.4376802
9.8075809 -24.771091 3.8080568
9.555232 -24.109161 1.1398124
2.0420401 -5.6062264 37.928986
2.7814717 -7.4862642 38.419006
4.2787733 -11.281159 38.618496
2.4413302 -6.3694248 16.129465
1.8307016 -4.7465119 9.3903399
2.2980607 -5.9337039 9.4182024
3.5047891 -9.0216589 11.664346
1.1904916 -3.8492384 37.534664
3.5377698 -9.4514303 38.891933
1.7575047 -4.5900588 10.226502
3.5906057 -9.3340702 16.428532
4.371357 -11.322515 16.146137
3.6901145 -9.5332251 11.16019
4.1510344 -10.619291 11.284286
4.4850397 -11.4561 10.002378
8.2906408 -21.144245 14.974948
8.452323 -21.534496 12.196087
8.9107847 -22.656076 7.2459559
9.1363182 -23.205736 4.8263845
9.5899458 -24.333025 2.4409878
7.2572579 -18.642584 17.898996
4.4806609 -11.492173 9.0650234
8.5205631 -21.831488 13.857031
9.8449144 -25.18585 12.588173
6.4029803 -16.36363 6.2048368
9.583497 -24.466728 6.4283013
9.751771 -24.883556 3.8197982
9.4126329 -23.993542 1.1333634
2.0227215 -5.6140518 37.933926
2.7556741 -7.4968834 38.423897
4.2440882 -11.308604 38.661446
2.4301667 -6.407135 16.203106
1.8158301 -4.7573481 9.3991175
2.2803555 -5.9495721 9.4306011
3.467525 -9.0188789 11.645158
1.1765813 -3.8518412 37.519753
3.5047565 -9.4637222 38.891933
1.7414716 -4.5961657 10.226502
3.5431561 -9.3075476 16.360275
4.3361096 -11.348965 16.162098
3.6774311 -9.5998678 11.222668
4.1319551 -10.680281 11.33335
4.4379916 -11.453539 9.9866848
8.2107334 -21.157463 14.963982
8.3658743 -21.534967 12.179855
8.8194656 -22.655752 7.2360859
9.0427752 -23.205446 4.8198562
9.4904718 -24.329237 2.4374113
7.0780411 -18.371649 17.616329
4.4259672 -11.470033 9.0355911
8.4349861 -21.836971 13.841832
9.7225513 -25.131174 12.544113
6.383338 -16.482756 6.2409935
9.4857359 -24.468306 6.420095
9.7543907 -25.148291 3.8543322
9.2456408 -23.812021 1.1240929
2.0031128 -5.621078 37.933926
2.729836 -7.5074134 38.428795
4.2030296 -11.319152 38.647129
2.4194558 -6.4466729 16.281347
1.8017513 -4.7703791 9.4122849
2.2635653 -5.9680204 9.4471331
3.4269044 -9.0069618 11.614458
1.1623596 -3.8533728 37.494892
3.4725649 -9.4782572 38.901611
1.7315309 -4.6185236 10.262512
3.5051296 -9.3052158 16.334681
4.322042 -11.431676 16.257858
3.6342859 -9.587286 11.193267
4.1252518 -10.77457 11.417459
4.3854418 -11.436253 9.9584389
8.0738649 -21.022053 14.848841
8.2795238 -21.535093 12.163624
8.5658064 -22.256542 9.7235317
8.7282562 -22.655064 7.2262158
8.9511118 -23.209373 4.814261
9.3893471 -24.320406 2.4333875
6.9806156 -18.309025 17.533192
4.3859024 -11.485413 9.0355911
8.3510122 -21.846146 13.829165
6.3257637 -16.504936 6.2409935
9.3880796 -24.469503 6.4118891
9.6488018 -25.135956 3.8474255
9.1463375 -23.802177 1.1222792
1.9839956 -5.6295009 37.943802
2.7036138 -7.5168967 38.428795
4.1604047 -11.325347 38.618496
2.3799372 -6.4092922 16.166285
1.7867653 -4.781127 9.4210634
2.2407415 -5.9706159 9.4388666
3.3954434 -9.0188694 11.614458
1.1484456 -3.8558736 37.479977
3.4394586 -9.4903221 38.901611
1.7191837 -4.6347451 10.285018
3.4717157 -9.31495 16.330414
4.3412342 -11.60474 16.4813
3.613894 -9.6348295 11.233694
4.2240734 -11.149076 11.79595
4.3731136 -11.524273 10.021208
7.9528975 -20.92503 14.761114
8.1932764 -21.534882 12.147392
8.4880638 -22.286306 9.7235317
8.6388683 -22.658501 7.2177558
8.8577805 -23.208349 4.8077321
9.2883997 -24.311163 2.429364
6.9153452 -18.329788 17.529867
4.3615003 -11.542244 9.0679665
8.2701292 -21.863066 13.821567
6.2831836 -16.566654 6.2557855
9.2905312 -24.470316 6.4036827
9.5416574 -25.118561 3.839828
9.1502075 -24.062777 1.1321542
1.9648443 -5.6378603 37.953686
2.6773584 -7.5262885 38.428795
4.1249247 -11.351025 38.65667
2.3171322 -6.3075304 15.890134
1.7708958 -4.7895813 9.4254522
2.2179277 -5.9731255 9.4306011
3.3471582 -8.9856119 11.556895
1.1348289 -3.8593476 37.475006
3.4067345 -9.5034533 38.906452
5.9051051 -16.232445 47.026623
3.4373755 -9.3221188 16.321884
2.3176749 -6.2618852 8.916213
3.6144454 -9.7395573 11.340273
4.2815228 -11.420881 12.0658
4.3465419 -11.575907 10.052593
7.9548731 -21.152267 14.900928
8.1086912 -21.538477 12.133479
8.3889647 -22.259403 9.6991825
8.5478706 -22.657099 7.2078857
8.7663012 -23.211555 4.8021364
9.1876316 -24.301516 2.4253402
6.8865757 -18.448261 17.619656
4.462738 -11.936001 9.3622828
8.1862068 -21.871616 13.808901
6.2253165 -16.588486 6.2557855
9.1948004 -24.475296 6.3966484
9.3859692 -24.970934 3.8128915
9.025691 -23.987024 1.127519
1.946418 -5.6483574 37.978378
2.6510706 -7.5355878 38.428795
4.0878015 -11.372377 38.680531
1.7558115 -4.8002315 9.4342299
2.1912422 -5.964982 9.4058027
3.3168809 -9.0002489 11.560733
1.1213503 -3.8632853 37.475006
3.3739607 -9.5164728 38.911293
5.8524971 -16.264324 47.059475
3.4083886 -9.3438597 16.338947
2.2719741 -6.2048573 8.8244429
3.6143095 -9.8444071 11.446854
4.2639532 -11.495944 12.128882
4.3169518 -11.620198 10.077701
7.8926549 -21.211258 14.92286
8.0226336 -21.53759 12.117248
8.3047352 -22.271177 9.6916904
8.4586639 -22.659834 7.1994252
8.6731882 -23.209805 4.795608
9.1010017 -24.328772 2.4248929
6.8531823 -18.55625 17.699467
4.4981742 -12.160009 9.5241566
8.0589142 -21.762613 13.722773
8.6668005 -23.366627 11.608381
6.1887426 -16.667667 6.2771511
9.097456 -24.475349 6.3884425
9.1899986 -24.711128 3.7693787
8.7641106 -23.540819 1.1069629
1.9227412 -5.6564612 37.978378
2.6194823 -7.5466266 38.428795
4.042624 -11.396434 38.704391
2.0839572 -5.8102283 14.601426
1.7365022 -4.8097968 9.4386196
2.1537673 -5.9397178 9.3520756
1.1046292 -3.868654 37.479977
3.3324051 -9.5311041 38.911293
5.7832069 -16.294586 47.073555
3.3640544 -9.3488274 16.321884
2.2284999 -6.1693673 8.760603
3.582866 -9.8919582 11.483605
2.6990592 -7.3673763 7.7902532
4.2716117 -11.641088 10.080839
7.8319664 -21.30949 14.969465
7.9269342 -21.544678 12.103334
8.2088556 -22.286932 9.6841974
8.3576765 -22.666601 7.1909647
8.5656891 -23.218279 4.7900124
8.9903879 -24.343325 2.4226577
6.775394 -18.584791 17.699467
4.4984961 -12.319225 9.6330528
8.0106058 -21.913593 13.796235
8.5663223 -23.408484 11.61048
6.0935607 -16.642368 6.2574291
8.9812784 -24.502689 6.3849258
9.0777693 -24.752579 3.7693787
8.657196 -23.580349 1.1069629
1.9010049 -5.6572452 37.938862
2.5931239 -7.5557241 38.428795
4.0047951 -11.41611 38.72348
2.0662756 -5.8248324 14.619837
1.7212766 -4.822896 9.451787
2.1177397 -5.9078364 9.290081
3.5291934 -9.8132305 12.562321
1.0899109 -3.8733807 37.484951
3.295784 -9.543829 38.911293
5.7223105 -16.321558 47.087631
2.9691229 -8.3981228 18.48173
2.1865077 -6.1300149 8.6927719
3.6184802 -10.116943 11.726166
2.6976271 -7.4438114 7.8603444
4.1950927 -11.557141 9.9961004
7.7466693 -21.318401 14.955758
7.83883 -21.548611 12.089422
8.1191835 -22.29509 9.6748333
8.2630415 -22.665533 7.1810946
8.4630146 -23.214077 4.7825518
8.7295313 -23.919205 2.3788438
6.7001872 -18.600132 17.689491
4.4517498 -12.34479 9.6389399
7.957705 -22.042885 13.857031
8.4506903 -23.382927 11.581107
6.0135479 -16.621235 6.2409935
8.8629923 -24.4837 6.3708577
8.9968834 -24.840036 3.7769761
8.5675783 -23.629 1.1075674
1.8735929 -5.6639276 37.924046
2.5574896 -7.5678606 38.428795
3.9548533 -11.446143 38.761654
2.0368705 -5.8289719 14.606029
1.6993247 -4.8332133 9.4561758
2.0861282 -5.9071364 9.2735491
3.4754179 -9.8086042 12.535459
1.071646 -3.8784738 37.484951
3.2507734 -9.5592537 38.911293
2.9338105 -8.4243565 18.508736
2.1595943 -6.1459365 8.7007523
3.568512 -10.127486 11.718815
3.8929358 -10.902332 11.456008
4.1222334 -11.525474 9.9521618
7.6433048 -21.3468 14.950274
7.7267346 -21.55612 12.073191
8.1464109 -22.677134 7.1726346
8.3435631 -23.22596 4.7769556
8.6757021 -24.124092 2.3944917
2.8198097 -7.9450951 7.5899472
4.4178858 -12.434188 9.6919165
7.895637 -22.197924 13.930493
8.3221369 -23.371181 11.55593
5.8733168 -16.475918 6.176897
8.7344551 -24.488569 6.3614793
8.7365866 -24.481054 3.7175777
8.4410067 -23.626768 1.1057537
1.8526267 -5.6634636 37.879593
2.5323794 -7.5762997 38.428795
3.9197714 -11.467669 38.790287
2.2032762 -6.3730083 15.945363
1.686494 -4.8453135 9.4693422
2.0610592 -5.8950667 9.2446184
3.4435251 -9.8164501 12.531622
1.0608112 -3.8814511 37.484951
3.223665 -9.5671024 38.906452
2.901798 -8.4032001 18.445721
3.2398236 -9.3346472 16.232298
2.1405225 -6.1430326 8.6887817
3.5207391 -10.075987 11.648987
3.8346682 -10.858688 11.396432
4.0469313 -11.440717 9.867424
7.5654922 -21.352322 14.936567
7.6522474 -21.573275 12.068553
8.0841999 -22.765842 9.8490248
8.0550976 -22.658823 7.158534
8.2597904 -23.208963 4.7685623
8.6341715 -24.234167 2.402539
4.3562937 -12.370226 9.6330528
7.8350511 -22.223951 13.933025
8.2533665 -23.371492 11.54544
7.9345498 -22.443745 8.3742685
8.6616182 -24.473179 6.3521004
8.6089678 -24.310942 3.6892598
8.3782425 -23.633196 1.1051491
1.8342799 -5.6743317 37.909229
2.5059178 -7.585093 38.428795
3.8878415 -11.505323 38.87141
2.181649 -6.3825092 15.949966
3.0661438 -8.9094152 17.334572
2.0432274 -5.9102039 9.2570171
1.0472558 -3.8851304 37.484951
3.1898522 -9.5771036 38.901611
2.8590841 -8.374135 18.360195
3.2021408 -9.3310986 16.206703
2.120048 -6.153316 8.6927719
3.4888668 -10.097828 11.660012
3.7932134 -10.861907 11.385918
4.0480967 -11.572341 9.9678545
7.4812336 -21.350975 14.917377
7.5622334 -21.558054 12.045364
8.010828 -22.811417 9.8565168
7.9743638 -22.682278 7.1571245
8.1722021 -23.21912 4.7648315
8.5991755 -24.405067 2.4159515
2.7598617 -7.9384518 7.5666685
4.3090992 -12.373906 9.6242237
7.7531695 -22.238953 13.925426
8.1597643 -23.365881 11.528656
7.8296647 -22.395527 8.3463287
8.5456295 -24.4161 6.3298264
8.6026173 -24.565184 3.7224123
8.2808208 -23.619869 1.1033353
1.8144617 -5.6806998 37.909229
2.4794257 -7.5937943 38.428795
3.8760309 -11.603774 39.15773
2.1762421 -6.4400582 16.074234
3.0404253 -8.935935 17.365295
2.0344162 -5.9519162 9.3107452
3.0130525 -8.7851543 11.19617
1.0335509 -3.8882468 37.479977
3.1560099 -9.5869875 38.896774
2.8312278 -8.3881884 18.369198
3.174577 -9.3570385 16.232298
3.3227298 -9.7546091 13.720202
6.0856047 -17.623711 18.40202
4.0204005 -11.623186 9.999239
7.36696 -21.262381 14.837874
7.4753218 -21.550837 12.026814
8.2079334 -23.636288 10.19741
7.8809624 -22.669195 7.144434
8.0846443 -23.228947 4.7611012
8.5122948 -24.430233 2.4155045
4.2777228 -12.423266 9.6507111
7.6642551 -22.23328 13.905162
8.088522 -23.424253 11.543343
7.7390985 -22.387014 8.3331804
8.4476318 -24.409035 6.3204484
8.5232983 -24.613783 3.7251751
8.1917753 -23.629747 1.1025292
1.7950889 -5.6884813 37.919109
2.4532161 -7.6033721 38.433689
3.8401818 -11.631407 39.205448
2.1698413 -6.4957948 16.193899
3.0015798 -8.9237938 17.321405
2.0208342 -5.9803095 9.3438091
2.977222 -8.7804403 11.176982
1.0197021 -3.8907998 37.470036
3.1221368 -9.5967503 38.891933
3.2675047 -9.7033234 13.632422
3.4508269 -10.218296 11.770267
6.0228968 -17.641472 18.398516
3.9810629 -11.640831 10.002378
7.174799 -20.943817 14.599367
8.1479607 -23.730566 10.225505
7.7893085 -22.660275 7.1331534
7.9939198 -23.229156 4.7555056
8.4139891 -24.422131 2.4119279
6.2677727 -18.442932 17.430101
4.236937 -12.445776 9.6565981
7.5949435 -22.284378 13.92036
7.6318893 -22.328995 8.3019543
8.4268961 -24.626926 6.3685131
8.4966784 -24.81673 3.7507303
8.0800829 -23.573128 1.0989016
1.7754525 -5.6954541 37.924046
2.4266605 -7.6118894 38.433689
3.8111324 -11.680219 39.324749
2.1514406 -6.516315 16.226118
1.6360568 -4.9206605 9.5702925
1.9919232 -5.963305 9.306613
2.9496102 -8.7998972 11.188495
1.0067804 -3.8969159 37.494892
3.0890038 -9.6087866 38.896774
2.7650993 -8.3850079 18.319685
2.0374146 -6.1208572 8.6169615
3.4044027 -10.198123 11.733517
5.9658418 -17.675903 18.412533
3.9005125 -11.536665 9.901947
7.1526179 -21.11923 14.703543
6.5067797 -19.190254 10.693504
6.6807103 -19.680655 8.4854574
8.3190536 -24.423067 2.4092453
6.1997895 -18.454082 17.420126
4.7903833 -14.23419 11.019281
7.4895825 -22.22905 13.869697
6.5706782 -19.46806 9.5858593
6.7360992 -19.93524 7.412816
8.408412 -24.841549 3.7500396
7.9753008 -23.534948 1.0960802
1.7553324 -5.7008748 37.919109
2.4003811 -7.621285 38.438587
3.7781246 -11.717602 39.405872
2.1098957 -6.4662089 16.083439
1.6353188 -4.976398 9.666852
1.9728595 -5.9755664 9.3148785
2.9309709 -8.8466501 11.234545
0.99356562 -3.9019561 37.509808
3.055444 -9.6195107 38.896774
3.901381 -11.971234 26.097784
3.5408723 -10.807416 18.672413
2.0150948 -6.1250696 8.6129723
5.8984613 -17.679705 18.39501
3.8750229 -11.594508 9.9396086
7.0788541 -21.144068 14.703543
6.4383454 -19.208649 10.691186
6.606071 -19.686274 8.4779654
6.7708335 -20.153969 6.3393054
6.9326744 -20.611881 4.2201815
8.2258043 -24.42836 2.4070098
6.1341586 -18.472067 17.416801
4.7534261 -14.289178 11.048713
6.312705 -18.954475 11.825421
6.4998093 -19.482265 9.5816631
6.657495 -19.931757 7.4029546
6.8242574 -20.407341 5.2806025
8.3043633 -24.819092 3.7424421
7.9057951 -23.600538 1.0976924
1.735422 -5.7069674 37.919109
2.3737631 -7.6296177 38.438587
3.7376525 -11.732141 39.410645
2.0777197 -6.4437838 16.009798
1.63717 -5.0413017 9.7809677
1.9502432 -5.977066 9.306613
2.9479475 -9.0030413 11.418746
0.98058724 -3.9079859 37.534664
3.022223 -9.6313162 38.901611
3.8849268 -12.063521 26.268829
3.4975026 -10.802341 18.642551
2.0058134 -6.1693192 8.6648417
3.2206676 -9.8767662 11.340273
5.8400631 -17.710348 18.405525
3.8723738 -11.722537 10.036901
7.0693727 -21.363167 14.837874
6.3615026 -19.201569 10.674953
6.5314751 -19.691612 8.4704723
6.7019544 -20.182034 6.3407154
6.8668823 -20.654602 4.2239118
8.0901556 -24.305721 2.3927033
6.070806 -18.496916 17.420126
6.7007298 -20.380234 15.704793
6.2357216 -18.94364 11.805156
6.4161296 -19.457424 9.5585852
6.5789971 -19.927971 7.3930941
6.7423029 -20.398731 5.2723961
8.2145672 -24.838524 3.7410607
7.9034538 -23.869873 1.1079705
1.7152669 -5.7122459 37.914169
2.3471162 -7.637857 38.438587
3.6989174 -11.752235 39.434502
2.0635161 -6.4770579 16.074234
1.6261482 -5.0675097 9.8204699
1.928504 -5.9811587 9.3024797
2.9165032 -9.0132771 11.418746
0.96732324 -3.9129379 37.54958
2.9889574 -9.6430082 38.906452
3.8632553 -12.141317 26.408367
3.4653368 -10.831872 18.672413
1.9907176 -6.1963654 8.6927719
3.1716158 -9.8427734 11.288821
5.7737861 -17.717064 18.391506
3.8628378 -11.832186 10.1185
7.0012565 -21.407585 14.851582
6.2861681 -19.1984 10.661041
6.4583664 -19.701075 8.4648533
6.6165061 -20.159727 6.3266153
6.780941 -20.636444 4.2155185
7.8714261 -23.926983 2.3542545
2.3729856 -7.3161478 6.9314981
6.604568 -20.326616 15.64593
6.1668901 -18.957092 11.80009
6.3467646 -19.475386 9.5564861
6.5020723 -19.928368 7.3848767
6.66502 -20.403662 5.2677069
8.1016607 -24.787027 3.7293191
7.8200846 -23.897316 1.1079705
1.695317 -5.7181988 37.914169
2.3201451 -7.6450291 38.433689
3.6560993 -11.759374 39.415417
2.037962 -6.4749041 16.051222
1.6120682 -5.0845704 9.8424149
1.907614 -5.987854 9.3024797
2.8801427 -9.0081367 11.399557
0.95290279 -3.913183 37.519753
2.9552789 -9.6533833 38.906452
3.8215036 -12.156805 26.412867
3.4227893 -10.828982 18.646816
1.9863969 -6.2578454 8.7685823
3.161922 -9.9313135 11.377025
5.7009749 -17.703163 18.356461
3.8525834 -11.941911 10.200101
4.5154533 -13.97164 9.7113323
6.2136602 -19.203367 10.651766
6.3809853 -19.697039 8.4536152
6.5475745 -20.187262 6.3280249
6.7058311 -20.650644 4.2136531
7.8355889 -24.101131 2.368114
2.3462937 -7.3208308 6.9281726
6.5224533 -20.314911 15.619442
6.0914459 -18.949776 11.782357
6.2703972 -19.471502 9.5438976
6.4252248 -19.928471 7.3766584
6.5907717 -20.417551 5.2653627
7.9511628 -24.617239 3.7003107
7.7350821 -23.919714 1.1077689
1.6755648 -5.7248273 37.919109
2.2934451 -7.6530809 38.433689
3.6150291 -11.772065 39.415417
2.0176678 -6.4894404 16.069632
1.5943099 -5.0901661 9.8424149
1.8867009 -5.9944763 9.3024797
2.8284066 -8.9539518 11.318971
0.93886489 -3.9149301 37.504837
2.9215641 -9.66364 38.906452
3.7725894 -12.149281 26.367855
3.3764179 -10.813479 18.599892
1.9645408 -6.2647414 8.7685823
3.1282532 -9.9455242 11.3807
5.6315756 -17.699165 18.331928
3.8108752 -11.955286 10.200101
4.4437599 -13.915618 9.6619864
6.1398449 -19.203842 10.640172
6.3065376 -19.701532 8.4461241
6.4682841 -20.182587 6.3195643
6.624701 -20.645863 4.2080574
7.7696905 -24.18523 2.3734789
2.3184707 -7.321857 6.9215217
6.4515014 -20.337555 15.619442
6.021347 -18.958597 11.774758
6.196887 -19.475973 9.5355062
6.3484554 -19.92828 7.3684411
6.5105982 -20.412647 5.2583284
7.7688265 -24.342913 3.6561072
7.6211276 -23.851391 1.1037384
1.6557865 -5.7313871 37.924046
2.266428 -7.6600633 38.428795
3.5730484 -11.781754 39.405872
1.5744088 -5.0888367 9.8292475
1.8666002 -6.0037131 9.306613
2.8057272 -8.9913082 11.353508
0.92482656 -3.9166274 37.489922
2.887814 -9.6737795 38.906452
3.7288811 -12.158214 26.358852
3.3148246 -10.747942 18.467649
1.9382031 -6.2571688 8.7486324
3.0985472 -9.9725704 11.399076
5.5633435 -17.698303 18.310902
3.7293689 -11.842287 10.093392
4.4165454 -13.998836 9.7085915
6.0674362 -19.208261 10.630897
6.2307386 -19.701324 8.436758
6.3920016 -20.186749 6.3139248
6.5451698 -20.645449 4.2033944
7.6852212 -24.212204 2.3734789
2.2917838 -7.3263426 6.9181967
6.3732185 -20.336809 15.601783
5.9486794 -18.958935 11.762092
6.1220608 -19.475838 9.5250158
6.2717657 -19.927797 7.3602238
6.4334626 -20.416706 5.2536392
7.7537942 -24.591856 3.6885688
7.5378242 -23.877848 1.1037384
1.6357702 -5.7371321 37.924046
2.2396753 -7.6679277 38.428795
3.5314729 -11.792725 39.4011
1.5538365 -5.0851393 9.8116913
1.845632 -6.0101924 9.306613
6.3740778 -20.680464 25.985912
0.9109081 -3.9187927 37.479977
2.8536732 -9.6825943 38.901611
3.6832633 -12.160738 26.336348
3.2636087 -10.71454 18.390862
1.9084164 -6.2379637 8.7127228
3.05775 -9.9638805 11.377025
5.4962435 -17.700586 18.293379
3.6799157 -11.829218 10.071424
4.3776069 -14.046103 9.7305231
5.9937525 -19.208181 10.619303
6.1550174 -19.700829 8.427393
6.3129053 -20.181469 6.3054643
6.4657235 -20.64473 4.1987314
7.6021476 -24.243633 2.3739259
2.2661963 -7.3342977 6.9181967
6.2998009 -20.35121 15.595896
5.8760834 -18.958996 11.749426
6.0473099 -19.475414 9.5145254
6.1965585 -19.931532 7.3536496
6.3549323 -20.415834 5.2477775
7.6885223 -24.684967 3.6982386
7.4440179 -23.870628 1.1023277
1.6157339 -5.7428069 37.924046
2.2128959 -7.6756988 38.428795
3.4898639 -11.803549 39.396328
1.534001 -5.0836535 9.7985239
1.8254578 -6.0192909 9.3107452
6.2953172 -20.681124 25.959049
0.89722335 -3.9219484 37.479977
2.8198571 -9.6924963 38.901611
3.6382971 -12.165178 26.318342
3.2449679 -10.788303 18.497511
1.8848873 -6.2388182 8.7047424
3.0091853 -9.9290705 11.325573
5.4302406 -17.706026 18.27936
5.9214478 -19.212053 10.610027
6.0793762 -19.700045 8.4180279
6.2367554 -20.185047 6.2998242
6.3878136 -20.648403 4.1950006
7.5012674 -24.217695 2.3690081
2.240581 -7.3421631 6.9181967
4.0188165 -13.144797 10.092186
5.8048215 -18.962904 11.739293
5.9726377 -19.47471 9.504035
6.1200161 -19.93047 7.3454323
6.2764869 -20.414661 5.2419162
7.6023092 -24.711655 3.6982386
7.3503537 -23.863047 1.100917
1.5956779 -5.7484117 37.924046
2.186089 -7.6833768 38.428795
3.4486403 -11.815659 39.396328
1.845997 -6.2434492 15.397663
1.5141951 -5.0820918 9.7853565
1.8052429 -6.0283222 9.3148785
0.88352782 -3.9250565 37.479977
2.7860067 -9.702281 38.901611
3.5933444 -12.169453 26.300337
3.2347612 -10.892069 18.65535
2.9618726 -9.8972921 11.277795
5.3632336 -17.707808 18.261839
3.4932642 -11.511955 9.7826853
4.3584971 -14.336364 9.9087191
5.847899 -19.211414 10.598433
6.0038157 -19.698975 8.4086628
6.1592584 -20.183752 6.2927742
6.3085217 -20.647085 4.1903377
7.4035745 -24.200872 2.3649843
2.213861 -7.3463645 6.9148707
3.9086537 -12.945925 9.9303122
5.7323561 -18.96242 11.726627
5.8980446 -19.473722 9.4935446
6.0449271 -19.933636 7.3388577
6.1981277 -20.413195 5.2360544
7.4915299 -24.65749 3.686497
7.2641034 -23.878998 1.1005139
1.5753975 -5.7531981 37.919109
2.1592557 -7.6909609 38.428795
3.4073749 -11.827624 39.396328
1.8263814 -6.2573571 15.416074
1.4950944 -5.0827508 9.7765789
1.7849869 -6.0372849 9.3190117
0.86982137 -3.9281166 37.479977
2.7521226 -9.7119465 38.901611
3.5484066 -12.173561 26.282333
3.9253185 -13.388462 22.891422
4.5244942 -15.362711 21.281298
2.9215431 -9.8880634 11.255744
5.2962799 -17.709337 18.244314
3.453059 -11.524078 9.7826853
4.3132367 -14.367511 9.9196844
5.7757025 -19.214741 10.589158
5.9283366 -19.697615 8.3992977
6.0818453 -20.182165 6.2857242
6.2293162 -20.645468 4.1856747
7.3075314 -24.188433 2.3614078
2.1871393 -7.3504686 6.9115453
3.8553572 -12.932375 9.9097099
5.659965 -18.96166 11.713962
5.8222303 -19.468103 9.4809561
5.9698915 -19.936522 7.3322845
6.119854 -20.411423 5.2301927
7.4167981 -24.721437 3.6920226
7.1577091 -23.827654 1.0972894
1.5551029 -5.7579122 37.914169
2.1323962 -7.698451 38.428795
3.3660681 -11.839447 39.396328
1.804528 -6.2636938 15.416074
1.4760077 -5.0833387 9.7678003
1.7646903 -6.0461807 9.3231449
4.7247787 -16.125856 20.195116
0.8562178 -3.9316504 37.484951
2.7185433 -9.7227049 38.906452
3.5028818 -12.175412 26.259827
3.8734856 -13.384545 22.861561
4.4691582 -15.372622 21.273319
2.8775175 -9.8656559 11.218992
5.2293806 -17.710615 18.226791
3.4128115 -11.536061 9.7826853
4.274941 -14.422568 9.9470987
5.7035542 -19.2178 10.579883
5.8529406 -19.695971 8.3899326
6.0058875 -20.184881 6.2800837
6.1501994 -20.643547 4.1810117
7.2102413 -24.170845 2.3573842
2.1604154 -7.354476 6.9082198
3.8101912 -12.945754 9.9097099
5.5888681 -18.964762 11.703829
5.7490973 -19.470898 9.4725647
5.894908 -19.939123 7.3257103
6.0430493 -20.414019 5.2255039
7.3206134 -24.71394 3.6871877
7.07165 -23.842915 1.0968863
1.5347946 -5.7625542 37.909229
2.1057789 -7.70683 38.433689
3.3247201 -11.851124 39.396328
1.7922689 -6.3037796 15.498918
1.4575946 -5.0861573 9.7634106
1.7443533 -6.0550075 9.3272781
4.6666794 -16.136095 20.187443
0.84260005 -3.9351366 37.489922
2.6845882 -9.7321358 38.906452
3.4591713 -12.183377 26.250824
3.8238761 -13.387955 22.844496
4.3971872 -15.32441 21.185539
2.8777635 -9.9961805 11.354974
5.1625381 -17.711643 18.209269
3.3757956 -11.559114 9.7921009
6.2807508 -21.464436 14.747406
5.6302094 -19.216337 10.568289
5.7750173 -19.685139 8.3768206
5.9286327 -20.182711 6.2730336
6.0711722 -20.641327 4.1763487
7.1145701 -24.157648 2.3538074
2.1326506 -7.3547997 6.9015689
3.7694895 -12.9745 9.921483
5.5178175 -18.967598 11.693696
5.6709366 -19.455988 9.45578
5.8186564 -19.936914 7.3174925
5.9622111 -20.402332 5.2172976
7.2287421 -24.720331 3.6844249
6.9869757 -23.862658 1.0966848
1.5144727 -5.7671247 37.904289
2.0788643 -7.7141337 38.433689
3.2833321 -11.862658 39.396328
1.7702535 -6.3099976 15.498918
1.4391803 -5.0889101 9.7590227
1.7239764 -6.063767 9.3314104
4.6068068 -16.139957 20.172092
0.82896829 -3.938575 37.494892
2.6509304 -9.7426605 38.911293
4.6133189 -16.645716 47.026623
3.4142733 -12.186994 26.232821
3.7764125 -13.398711 22.840231
1.8184075 -6.4215255 8.9122238
2.8372936 -9.986598 11.332923
5.0967374 -17.715847 18.195251
3.3397386 -11.585786 9.8046541
6.2069478 -21.490248 14.750148
5.5618668 -19.231617 10.56597
5.7049789 -19.700727 8.3749485
5.8554735 -20.194067 6.2702136
5.9922352 -20.638803 4.1716852
7.0190797 -24.144079 2.3502309
2.1038828 -7.3514304 6.891592
5.446816 -18.970169 11.683563
5.6029878 -19.475664 9.45578
5.7464137 -19.948029 7.3142056
5.8909574 -20.423019 5.2172976
7.1300483 -24.702591 3.6782088
6.8703461 -23.771713 1.091848
1.4945272 -5.7731285 37.909229
2.0516627 -7.7203593 38.428795
3.2422967 -11.875486 39.4011
1.7492591 -6.3199039 15.508123
1.4207641 -5.0915956 9.7546339
1.7035592 -6.0724564 9.3355427
4.5452261 -16.137428 20.149067
0.8154307 -3.9424889 37.504837
2.6169059 -9.7518539 38.911293
4.5551863 -16.661716 47.026623
3.3676527 -12.18415 26.201311
3.7240293 -13.391708 22.806103
1.8000351 -6.4423442 8.9321737
2.7950959 -9.9703274 11.303522
5.032918 -17.726667 18.188242
3.3003414 -11.601117 9.8077927
4.1145067 -14.434375 9.925168
5.4837599 -19.212578 10.545101
5.6272583 -19.689318 8.3618374
5.7730689 -20.172874 6.2575231
5.9160962 -20.64543 4.1688876
6.92377 -24.130138 2.3466542
2.0761793 -7.3515439 6.8849416
3.8284953 -13.529444 10.321753
5.3758645 -18.972477 11.67343
5.5300126 -19.47764 9.4473877
5.6689997 -19.940712 7.3043442
5.8076539 -20.401384 5.2067466
6.9881535 -24.532063 3.6498909
6.754437 -23.680246 1.0870113
1.4749423 -5.7805686 37.924046
2.0247011 -7.7274737 38.428795
3.2012117 -11.888173 39.405872
1.72513 -6.3184338 15.489715
1.4023467 -5.0942149 9.7502441
1.6831027 -6.0810781 9.3396759
0.80176979 -3.945833 37.509808
2.5828497 -9.7609301 38.911293
4.4956508 -16.672518 47.012547
3.3107862 -12.143324 26.088781
3.6772609 -13.404626 22.806103
1.7719316 -6.4282541 8.9042435
2.7638905 -9.9930925 11.318222
4.9690857 -17.737261 18.181234
3.2566702 -11.601325 9.798378
4.0414524 -14.368145 9.8703384
5.4142599 -19.223074 10.540463
5.5534616 -19.690992 8.3543444
5.701314 -20.18829 6.2561135
5.8346381 -20.632868 4.1623592
6.8300004 -24.120617 2.3435247
2.0485005 -7.3515525 6.8782902
3.7942891 -13.589442 10.357071
5.3049617 -18.97452 11.663298
5.4595404 -19.488085 9.4431915
5.5917058 -19.933098 7.2944832
5.7390332 -20.430889 5.2090907
6.885057 -24.494331 3.6409121
6.6582003 -23.65559 1.084996
1.4551343 -5.7871895 37.933926
1.997715 -7.7344942 38.428795
3.1600778 -11.900718 39.410645
1.7025558 -6.3225303 15.485111
1.3845562 -5.0990791 9.7502441
1.6626067 -6.0896311 9.3438091
4.3934746 -16.026571 19.972542
0.7884081 -3.9506991 37.529694
2.5484447 -9.7686691 38.906452
4.4219046 -16.629738 46.848301
3.2570727 -12.112761 25.998756
3.6365783 -13.440039 22.844496
2.7798519 -10.189105 11.527706
4.9042907 -17.744184 18.170719
3.2348535 -11.680141 9.8548698
3.9823279 -14.349929 9.8484058
5.3862653 -19.382702 10.616983
5.5257058 -19.857643 8.4161549
5.6797376 -20.383663 6.3096943
5.7572994 -20.634182 4.1586285
6.7337017 -24.101147 2.3395009
2.0208471 -7.3514576 6.8716393
3.727509 -13.53246 10.304093
5.2341108 -18.976299 11.653165
5.4470978 -19.708252 9.5397024
5.5850711 -20.18005 7.3766584
5.7157121 -20.624111 5.2524672
6.7995143 -24.518215 3.6409121
6.6023226 -23.774963 1.0890267
1.4358582 -5.7960043 37.958622
1.9707042 -7.7414207 38.428795
3.1185172 -11.911676 39.410645
1.6794728 -6.3246579 15.475905
1.3667486 -5.1038809 9.7502441
1.6420714 -6.098115 9.3479424
2.4585025 -9.0923862 11.353508
0.77491999 -3.9549971 37.544609
2.5143301 -9.7775059 38.906452
4.329258 -16.513201 46.47757
3.1846433 -12.010428 25.75569
1.4636117 -5.4848337 9.3556128
4.1236067 -15.378443 21.157608
2.7566004 -10.244579 11.57916
4.840446 -17.754314 18.16371
3.2145779 -11.766457 9.9176388
3.9233811 -14.33148 9.8264751
5.3537083 -19.529552 10.686548
5.4919448 -20.006458 8.4704723
5.6199937 -20.444996 6.3223848
5.6917553 -20.677834 4.1632915
6.6389461 -24.086098 2.3359244
1.9941962 -7.3548632 6.8683133
3.6717713 -13.514186 10.280549
5.1633134 -18.977818 11.643033
5.3985639 -19.801582 9.5753689
5.5195699 -20.217646 7.3832326
5.6616306 -20.709576 5.2688794
6.6851401 -24.436716 3.6257169
6.5008121 -23.730408 1.0862051
1.4152493 -5.7994719 37.948742
1.9436697 -7.7482524 38.428795
3.0757997 -11.918153 39.396328
1.6554065 -6.3229227 15.457497
1.3489244 -5.1086206 9.7502441
1.6214972 -6.1065297 9.3520756
2.4217942 -9.0823307 11.330482
0.76191378 -3.9618652 37.584377
2.479876 -9.7850037 38.901611
4.2625227 -16.493128 46.379025
3.1377442 -12.002515 25.715179
1.4411393 -5.4772987 9.3342838
4.0799136 -15.430614 21.209478
2.7373426 -10.316398 11.648987
4.7747388 -17.757328 18.149693
3.1785488 -11.796396 9.9333315
3.8591609 -14.292608 9.7908354
5.3213477 -19.680683 10.75843
5.4596343 -20.164225 8.5285368
5.5950394 -20.635794 6.3745556
5.6195416 -20.697577 4.1632915
6.5352306 -24.037041 2.3292181
1.9665819 -7.3545656 6.8616629
3.6203909 -13.511302 10.268776
5.0925679 -18.979069 11.6329
5.3741932 -19.986856 9.6550951
5.4993014 -20.423738 7.4506164
5.6310635 -20.884081 5.3075657
6.5997996 -24.459904 3.6257169
6.4166355 -23.748131 1.0860037
1.3946337 -5.8028646 37.938862
1.9166114 -7.7549896 38.428795
3.0338111 -11.927371 39.391556
1.638207 -6.347579 15.503521
1.3316872 -5.1156163 9.7546339
1.6001714 -6.1121526 9.3520756
2.3843713 -9.0690289 11.30362
0.74738884 -3.960834 37.54958
2.4454007 -9.7923813 38.896774
4.2104621 -16.529644 46.440029
3.1012611 -12.034477 25.760193
1.4220113 -5.4822955 9.3342838
4.023746 -15.436015 21.197508
2.7159009 -10.381646 11.711465
4.7099829 -17.763546 18.139177
3.1413503 -11.822468 9.9458857
5.7318592 -21.526628 14.689836
5.2628889 -19.737661 10.7793
5.3928032 -20.196596 8.5341558
5.5180168 -20.636663 6.368916
5.5523415 -20.736046 4.1670222
6.4512863 -24.059708 2.3292181
1.9399458 -7.3577747 6.8583374
3.5659778 -13.496502 10.248174
5.0207748 -18.975895 11.620234
5.2997398 -19.987946 9.6467028
5.4219165 -20.419991 7.442399
5.5506368 -20.875427 5.3005319
6.496552 -24.415794 3.6160476
6.3272676 -23.746246 1.084996
1.3741907 -5.806942 37.933926
1.8895297 -7.7616324 38.428795
2.9896181 -11.927752 39.358154
1.6328943 -6.4195266 15.664609
1.3144175 -5.1225533 9.7590227
1.5795295 -6.1204252 9.3562078
2.3575249 -9.0959129 11.326645
0.73307413 -3.960798 37.524723
2.4112041 -9.8008585 38.896774
1.3976983 -5.4670124 9.3001556
3.9683399 -15.44413 21.189528
2.6965764 -10.456719 11.784968
4.6434379 -17.762625 18.121656
3.099077 -11.829597 9.9427471
5.6503119 -21.52224 14.673388
5.1928325 -19.751629 10.776981
5.31991 -20.206329 8.5304098
5.4459481 -20.6558 6.368916
5.471148 -20.722055 4.1604939
6.3596253 -24.053192 2.3265357
1.912372 -7.3572745 6.8516865
3.5259767 -13.536248 10.268776
4.9501534 -18.976618 11.610101
5.2253451 -19.988758 9.6383104
5.3446245 -20.415951 7.4341817
5.4691062 -20.861763 5.292326
6.4188251 -24.467062 3.6201918
6.2354531 -23.734365 1.0835853
1.3537359 -5.8109465 37.928986
1.8621877 -7.7671909 38.423897
2.9497535 -11.945361 39.382015
1.611426 -6.4289775 15.673814
1.2977026 -5.1317539 9.7678003
1.5581557 -6.1259017 9.3562078
0.71886373 -3.9612346 37.504837
2.376682 -9.8079929 38.891933
2.269352 -9.0676126 19.390974
1.3792435 -5.4743867 9.3044224
3.9129262 -15.452044 21.181547
2.6600592 -10.466067 11.784968
4.5769572 -17.761459 18.104134
3.0587382 -11.84411 9.9458857
5.5646739 -21.50135 14.645972
5.114964 -19.735329 10.75843
5.2411923 -20.193367 8.5172987
5.3617449 -20.628256 6.3548155
5.3950696 -20.726767 4.1576962
6.2718568 -24.060789 2.3251944
1.885752 -7.3602881 6.8483605
6.0831933 -23.692286 17.894505
4.880662 -18.981256 11.602502
5.1476121 -19.976112 9.6236238
5.2686076 -20.416193 7.4276075
5.3950353 -20.876019 5.2911534
6.3271804 -24.465347 3.6167383
6.1437993 -23.722132 1.0821745
1.3334438 -5.8156366 37.928986
1.8350638 -7.773644 38.423897
2.9080384 -11.955585 39.382015
1.6109865 -6.5237079 15.890134
1.2803603 -5.138576 9.7721891
1.5360787 -6.1285739 9.3520756
4.1147795 -16.345078 20.256517
0.70437962 -3.9600461 37.470036
2.3421392 -9.8150063 38.887096
2.2408133 -9.0881615 19.417982
1.3588693 -5.4741054 9.2958899
3.8567765 -15.45684 21.169579
4.5114188 -17.7635 18.090115
3.0164158 -11.850944 9.9427471
5.4926877 -21.532801 14.654197
5.0416584 -19.735897 10.749156
5.1672249 -20.198065 8.5116796
5.2885156 -20.642199 6.3534055
5.3178034 -20.726439 4.1539655
6.1816339 -24.058418 2.3229589
1.8591342 -7.3632054 6.8450351
5.987565 -23.662436 17.856243
4.8101397 -18.981462 11.592369
5.0744996 -19.980762 9.6173306
5.1926541 -20.416155 7.4210334
5.3149333 -20.866465 5.2841196
6.2405186 -24.482485 3.6160476
6.0535417 -23.71439 1.0809654
1.3131353 -5.8202558 37.928986
1.8076872 -7.7790103 38.419006
2.8666356 -11.967114 39.386784
1.5858961 -6.5198002 15.867121
1.2635574 -5.1476665 9.7809677
1.5146767 -6.1338983 9.3520756
4.0530696 -16.340675 20.233492
0.69100899 -3.9651062 37.494892
2.3075769 -9.8218994 38.882259
3.9792619 -16.586819 46.440029
2.2054796 -9.0811205 19.386473
1.3397528 -5.4788151 9.2958899
3.7999213 -15.458504 21.153618
4.2436385 -17.198938 19.282305
4.437264 -17.730707 18.041052
2.9769239 -11.868952 9.9490242
5.4195285 -21.55995 14.659679
4.968411 -19.736193 10.739881
5.0921559 -20.197998 8.5041876
5.2117314 -20.64193 6.3477654
5.2418098 -20.730589 4.1511679
6.0915046 -24.055712 2.3207238
1.8316178 -7.3624034 6.8383842
5.9000421 -23.663582 17.841528
4.7396755 -18.981409 11.582236
4.9992142 -19.976341 9.6068401
5.1167645 -20.415833 7.4144592
5.2385135 -20.870745 5.2806025
6.151402 -24.489712 3.6139755
5.9634132 -23.706305 1.0797561
1.2926424 -5.8240452 37.924046
1.7805225 -7.7852731 38.419006
2.8248451 -11.977048 39.386784
1.5635831 -6.5271959 15.871723
1.2467065 -5.1567016 9.7897463
1.493921 -6.1418824 9.3562078
3.995244 -16.35161 20.229654
0.67680585 -3.9653921 37.475006
2.2727115 -9.827445 38.872578
3.917372 -16.583815 46.393101
2.1722481 -9.0824108 19.372969
1.3200094 -5.4809227 9.2916241
3.7445199 -15.465816 21.145638
4.1819758 -17.207058 19.274954
4.3753452 -17.746088 18.041052
2.967222 -12.007745 10.055732
5.3361959 -21.546267 14.637748
4.8941565 -19.731916 10.728287
5.0171504 -20.197655 8.4966955
5.1361718 -20.64603 6.3435354
5.1658511 -20.734459 4.1483698
6.0002637 -24.047838 2.3180411
1.8050184 -7.3651266 6.8350592
3.4243753 -13.941363 10.536603
4.6703 -18.985281 11.574636
4.9261937 -19.98045 9.6005449
5.0409412 -20.415232 7.4078856
5.1609616 -20.870031 5.2759132
6.0623102 -24.496613 3.6119037
5.8734159 -23.697882 1.078547
1.2723049 -5.8285217 37.924046
1.7533358 -7.791441 38.419006
2.78302 -11.986835 39.386784
1.5273361 -6.4755692 15.733647
1.2303625 -5.1680112 9.8029127
1.4731284 -6.149797 9.3603411
3.9351428 -16.352991 20.214306
0.66234601 -3.9640501 37.440205
2.2392302 -9.838995 38.887096
3.8621955 -16.609154 46.425949
2.1380365 -9.0793438 19.350464
1.3008693 -5.485497 9.2916241
3.6877158 -15.467068 21.129677
4.1195197 -17.21166 19.263927
4.3478789 -17.903339 18.184738
2.9252889 -12.018029 10.055732
5.250052 -21.520079 14.607592
4.8210435 -19.731667 10.719011
4.9433112 -20.201534 8.4910765
5.059505 -20.645195 6.3378949
5.0899305 -20.738054 4.1455717
5.9103408 -24.044456 2.3158057
1.7784222 -7.3677526 6.8317332
3.3424246 -13.81573 10.433593
4.5999398 -18.984707 11.564504
4.8521347 -19.979883 9.5921535
4.9662995 -20.418938 7.4029546
5.0846286 -20.873751 5.2723961
5.9755912 -24.512812 3.6112127
5.7835493 -23.689117 1.0773379
1.2521149 -5.8336873 37.928986
1.726128 -7.7975135 38.419006
2.7414939 -11.997932 39.391556
1.2139548 -5.1792703 9.8160801
1.4522985 -6.15764 9.3644743
3.874341 -16.351032 20.195116
0.64927769 -3.9710732 37.484951
2.2054214 -9.849205 38.896774
3.8041952 -16.622534 46.425949
1.2811207 -5.4874649 9.2873583
3.6144228 -15.397709 21.017958
4.0555263 -17.209436 19.245552
4.3044372 -17.998182 18.265343
3.1736629 -13.239393 11.060037
5.173924 -21.534206 14.604851
4.7490287 -19.735453 10.712054
4.8695064 -20.205147 8.4854574
4.9840326 -20.648743 6.3336654
5.0128932 -20.736595 4.1418414
5.8193426 -24.035898 2.3131232
1.7518299 -7.3702826 6.8284078
3.2932415 -13.82338 10.43065
4.5296412 -18.983877 11.554371
4.7791953 -19.983454 9.5858593
4.8916945 -20.422373 7.3980241
5.0083337 -20.877193 5.2688794
5.8818965 -24.499815 3.6063781
5.6926475 -23.675159 1.0759271
1.2319041 -5.8387833 37.933926
1.6988991 -7.8034916 38.419006
2.699924 -12.008885 39.396328
2.8597975 -12.515962 30.305239
1.1980218 -5.1928105 9.8336363
1.4314318 -6.1654129 9.3686066
3.8201542 -16.376944 20.210466
0.63558012 -3.9743679 37.494892
2.1723795 -9.8629808 38.920971
3.7404623 -16.61046 46.355556
1.2619579 -5.4919033 9.2873583
3.5321622 -15.286923 20.850376
3.9961958 -17.226791 19.249228
4.2571154 -18.07905 18.331928
3.1515703 -13.352673 11.144775
3.4487464 -14.577678 9.9059772
4.6770463 -19.738979 10.705098
4.7957358 -20.20849 8.4798384
4.9085965 -20.65201 6.3294349
4.9370656 -20.73963 4.1390433
5.7296319 -24.031845 2.3108878
1.7252413 -7.3727169 6.8250823
4.9072833 -20.922104 15.731281
4.459404 -18.982788 11.544239
4.7073302 -19.99118 9.5816631
4.8171258 -20.425537 7.3930941
4.932076 -20.880358 5.2653627
5.789505 -24.491282 3.6022339
5.6019144 -23.660856 1.0745164
1.2115155 -5.8430476 37.933926
1.6716495 -7.8093743 38.419006
2.6586332 -12.021152 39.405872
1.1809486 -5.2016325 9.8424149
1.4105285 -6.1731157 9.3727398
3.7629647 -16.390179 20.210466
0.62211412 -3.9791958 37.519753
2.1379383 -9.8705044 38.920971
3.7022383 -16.712711 46.604279
1.243355 -5.4988189 9.2916241
3.4513874 -15.178691 20.686787
3.9345298 -17.234026 19.241877
4.1915655 -18.083378 18.321415
3.0978949 -13.333262 11.119669
3.394994 -14.577409 9.8977528
4.6050973 -19.742245 10.698142
4.7230568 -20.216078 8.4760923
4.833199 -20.655006 6.3252048
4.8612785 -20.742392 4.1362457
5.6388822 -24.022612 2.3082056
1.6986572 -7.3750563 6.8217568
4.7405691 -20.533453 15.428136
4.3902011 -18.985638 11.536639
4.6344452 -19.994226 9.5753689
4.7425938 -20.428427 7.3881631
4.8569584 -20.887978 5.2630177
5.6972456 -24.482405 3.5980899
5.5090818 -23.636477 1.0727026
1.191267 -5.848002 37.938862
1.6441699 -7.8141656 38.414108
2.6166553 -12.030358 39.405872
1.1638284 -5.2103977 9.8511925
1.3895891 -6.180747 9.376873
3.6866591 -16.318798 20.106855
0.6082204 -3.981343 37.519753
2.1021619 -9.8717594 38.896774
3.6593051 -16.796349 46.801373
1.2247193 -5.5056715 9.2958899
3.4010143 -15.202408 20.702745
3.8728619 -17.241039 19.234526
4.1268315 -18.090946 18.314405
3.0695546 -13.423676 11.185575
4.9593496 -21.636116 14.637748
4.5331821 -19.745247 10.691186
4.6493435 -20.218887 8.4704723
4.7589169 -20.662403 6.3223848
4.7866359 -20.74966 4.1343803
5.5516295 -24.02759 2.3068643
1.6720778 -7.3772988 6.8184314
4.6312542 -20.384331 15.304523
4.3200755 -18.984032 11.526505
4.5626049 -20.001432 9.5711727
4.6691527 -20.43565 7.3848767
4.7807627 -20.890587 5.2595005
5.5929565 -24.42008 3.5863483
5.4220734 -23.636086 1.0718964
1.1708465 -5.8521247 37.938862
1.6168834 -7.8198571 38.414108
2.5737092 -12.035041 39.391556
1.1456336 -5.2144284 9.8511925
1.3686134 -6.1883078 9.3810053
3.5956004 -16.178253 19.918818
0.59408361 -3.9818602 37.504837
2.0635703 -9.8593521 38.819344
3.6114957 -16.859642 46.942154
1.2060509 -5.5124607 9.3001556
3.3550503 -15.246558 20.746635
3.8111928 -17.247831 19.227177
4.0620952 -18.09828 18.307396
2.9996099 -13.33178 11.100838
4.875515 -21.616583 14.613074
4.4613018 -19.747986 10.684229
4.5756688 -20.221428 8.4648533
4.6825209 -20.660173 6.3167443
4.7120018 -20.756662 4.1325154
5.4555783 -23.993406 2.3019462
1.6455034 -7.379446 6.8151054
4.5415545 -20.317532 15.242717
4.2500157 -18.982172 11.516374
4.489778 -20.003952 9.5648785
4.593648 -20.433395 7.3783026
4.7035413 -20.888182 5.2548118
5.5076804 -24.439455 3.5863483
5.3395352 -23.654867 1.0718964
1.150262 -5.8554144 37.933926
1.5893744 -7.8244553 38.40921
2.5310695 -12.04103 39.382015
1.3476018 -6.195797 9.3851385
3.5137808 -16.074846 19.776829
0.58002734 -3.9828546 37.494892
2.0185089 -9.814785 38.616089
3.5572445 -16.894098 47.003162
1.1878984 -5.5217366 9.3086882
3.3037212 -15.267011 20.758604
3.7488036 -17.251093 19.21615
3.9988954 -18.11235 18.307396
2.952214 -13.338368 11.097698
3.2611768 -14.697886 9.9553232
4.3904195 -19.754789 10.679591
4.5010257 -20.219175 8.4573612
4.6072431 -20.662348 6.3125143
4.6363068 -20.7586 4.1297174
5.3783159 -24.041464 2.3046288
1.6189343 -7.3814979 6.81178
4.4636617 -20.30168 15.219172
4.1809478 -18.984261 11.508774
4.4140525 -19.99291 9.55229
4.5202546 -20.440083 7.3750153
4.6274452 -20.890236 5.2512946
5.3998294 -24.357004 3.5718441
5.2536826 -23.65873 1.0712919
1.1296687 -5.8586302 37.928986
1.5618531 -7.8289566 38.404316
2.4887209 -12.048329 39.377243
2.1460717 -10.104574 18.998034
1.3259662 -6.2004633 9.3851385
3.4664032 -16.127752 19.826717
0.5660463 -3.9843273 37.489922
1.9568598 -9.6862421 38.083752
3.4982514 -16.906412 47.003162
1.1696957 -5.5309525 9.3172197
3.2529173 -15.290239 20.774565
3.6864383 -17.254128 19.205126
3.9295943 -18.09832 18.27936
2.5140619 -11.549654 9.6132088
4.6389027 -21.257906 14.349895
