# .PCD v0.7 - Point Cloud Data file format
VERSION 0.7
FIELDS x y z
SIZE 4 4 4
TYPE F F F
COUNT 1 1 1
WIDTH 1540
HEIGHT 1
VIEWPOINT 0 0 0 1 0 0 0
POINTS 1540
DATA ascii
7.1409812 -11.348371 10.8937
6.0390267 -9.5860233 7.5126772
6.3795466 -10.118731 6.3480735
6.2913184 -9.9710875 4.8517733
6.4569774 -10.225743 3.6447327
10.478232 -16.581306 3.8154242
5.596436 -8.9317617 9.4688549
8.2687511 -13.181431 11.413665
9.2722425 -14.769691 10.333379
9.5212927 -15.12538 4.4013643
12.983027 -20.616676 3.4903438
16.477461 -26.145515 1.3403356
0.012362566 -0.082481965 8.1339636
0.65749156 -1.1105171 8.2045317
1.7426546 -2.9019594 16.297472
6.5839896 -10.798622 40.479568
8.1024122 -13.185458 36.518646
10.508312 -17.020826 36.725525
5.3411903 -8.604248 12.201596
0.20842335 -0.433036 8.1508064
0.4111672 -0.77845728 8.1679926
2.1704812 -3.5947318 16.204714
6.9468246 -11.384857 36.322426
9.2718601 -15.100452 36.702644
5.3722386 -8.6948395 13.608482
4.8829322 -7.8875213 10.13482
4.3559237 -6.9843731 8.1687441
7.1013236 -11.373228 10.8937
6.0742378 -9.7169609 7.5976624
6.2055721 -9.9193668 6.2112641
6.1679106 -9.851531 4.7843442
6.4034128 -10.219764 3.6348622
10.355048 -16.513739 3.7921088
11.787368 -18.783381 2.0837717
5.55931 -8.9417305 9.4588785
8.2034645 -13.17933 11.387177
9.2023954 -14.772696 10.313114
5.3371716 -8.5578098 4.7498484
6.3535066 -10.179548 4.2654958
9.473587 -15.166767 4.4037089
12.467494 -19.952141 3.3736188
16.34901 -26.14357 1.3375143
0.012074576 -0.08252462 8.1339636
0.65361118 -1.1128055 8.2045317
1.738246 -2.9176474 16.351318
6.5400743 -10.81132 40.441391
8.0553198 -13.211992 36.514046
10.487617 -17.120716 36.861584
5.3228898 -8.6419439 12.228458
0.20703387 -0.43402189 8.1557989
0.40844738 -0.77988774 8.1679926
2.1572738 -3.601208 16.199875
6.907042 -11.409037 36.322426
9.2179594 -15.130866 36.698143
5.381227 -8.7777634 13.708233
4.85537 -7.9045177 10.13482
4.3258872 -6.9904385 8.1582308
7.0369816 -11.358242 10.856038
6.1593018 -9.9299879 7.7457018
5.8578472 -9.4366407 5.9005446
8.6361132 -13.901474 6.7004571
6.1448126 -9.8835516 3.5107794
10.292151 -16.541443 3.7902434
11.713832 -18.811729 2.0824304
5.5711913 -9.0309925 9.5320396
8.1701555 -13.22852 11.404836
9.080512 -14.691055 10.234585
5.3072667 -8.5763884 4.7498484
6.449707 -10.41444 4.352602
9.4180269 -15.195614 4.4025369
12.186401 -19.654631 3.3176737
16.22341 -26.145292 1.3348943
0.011786438 -0.082566261 8.1339636
0.64972275 -1.1150802 8.2045317
1.732713 -2.9315865 16.395376
6.4999914 -10.830244 40.427078
8.0081406 -13.238358 36.509441
10.447694 -17.189966 36.931812
5.2876773 -8.6522675 12.216947
0.20551759 -0.43474194 8.1557989
0.40572259 -0.78130877 8.1679926
2.1446903 -3.6087162 16.199875
6.8671741 -11.433078 36.322426
9.1639614 -15.161087 36.693642
6.6909595 -11.000205 17.123693
4.8065772 -7.8866796 10.090717
4.2958617 -6.9963784 8.1477175
5.9456744 -9.653163 6.0211225
8.5607777 -13.888124 6.6798534
6.1430173 -9.9580164 3.5291097
11.713535 -18.958418 2.0936074
5.5240393 -9.0249081 9.505435
8.2971087 -13.539561 11.646175
9.0156527 -14.700613 10.219385
5.2796721 -8.5987291 4.7519464
6.393537 -10.404705 4.3394542
9.257987 -15.0545 4.3532991
10.732088 -17.44474 2.9488506
16.097998 -26.14646 1.3322744
0.011498155 -0.082606897 8.1339636
0.64621508 -1.1180142 8.2094707
1.7240138 -2.9402521 16.410061
6.419383 -10.781044 40.159847
7.9618816 -13.266231 36.509441
10.393807 -17.236584 36.953754
5.2391624 -8.640523 12.174733
0.2039988 -0.43545669 8.1557989
0.40299284 -0.78272027 8.1679926
2.1314423 -3.615098 16.195036
6.8272238 -11.456979 36.322426
9.1098623 -15.191115 36.689137
6.6167121 -10.964157 17.031923
4.773756 -7.8947067 10.079692
4.2677021 -7.0052395 8.140708
5.8305039 -9.5480719 7.4194674
5.939662 -9.7192173 6.0489483
5.6967506 -9.3144379 4.4996433
8.9756603 -14.664142 5.1435971
11.652493 -19.007681 2.0945015
5.5060692 -9.0664749 9.5287132
8.2749949 -13.609884 11.681493
8.9553204 -14.717265 10.209253
5.2165666 -8.5628433 4.7225738
6.2637672 -10.273746 4.2770004
9.2332306 -15.132367 4.3661947
10.645329 -17.439829 2.9419439
15.970168 -26.142805 1.329453
0.011209733 -0.082646534 8.1339636
0.64230853 -1.1202631 8.2094707
1.7173232 -2.9524133 16.444328
6.3771567 -10.795674 40.131214
7.915525 -13.293942 36.509441
10.333577 -17.27276 36.953754
5.2205358 -8.6779842 12.201596
0.20247753 -0.43616614 8.1557989
0.40025818 -0.78412217 8.1679926
2.1188102 -3.6225162 16.195036
6.7863116 -11.479254 36.31773
9.0567799 -15.222822 36.689137
11.680861 -19.563555 37.340141
6.5876861 -11.002698 17.055862
4.6990805 -7.832829 9.980463
4.2395344 -7.0139899 8.1336985
5.9564233 -9.8428764 9.3589935
8.5857067 -14.171023 10.947735
5.6346836 -9.2929192 5.7753301
5.7892613 -9.5403585 4.5970411
9.1958303 -15.142304 5.2972908
11.606777 -19.082279 2.0980783
5.4589725 -9.0600548 9.5021095
8.227437 -13.638687 11.681493
8.8415108 -14.645103 10.138324
5.214818 -8.6276102 4.7477503
6.2278671 -10.295547 4.2770004
9.1803522 -15.164505 4.3661947
10.509994 -17.354042 2.9219141
15.850331 -26.151396 1.3272362
0.010921175 -0.082685158 8.1339636
0.63839418 -1.1224983 8.2094707
1.7064981 -2.9575081 16.439434
5.3726811 -9.1681013 34.018303
7.8700666 -13.323174 36.514046
10.276889 -17.314905 36.966923
0.2009538 -0.43687025 8.1557989
0.39751866 -0.78551459 8.1679926
2.1048906 -3.6277156 16.185356
6.7461996 -11.502872 36.31773
9.0024824 -15.25247 36.684639
11.637754 -19.646843 37.421196
6.5507789 -11.028217 17.059855
4.6422338 -7.7996593 9.917985
4.2113566 -7.0226288 8.1266899
5.9080043 -9.8402481 9.3370247
8.583581 -14.27975 11.008046
5.7176661 -9.4969616 4.5670724
9.024085 -14.977086 5.229609
11.178838 -18.538662 4.2015295
11.53495 -19.114151 2.0971842
5.4598818 -9.1335363 9.5586433
8.1777039 -13.663856 11.67855
5.6471577 -9.4281673 6.5437431
5.1870036 -8.6496534 4.7498484
6.1870313 -10.309127 4.2737136
9.137372 -15.213125 4.3708839
10.464657 -17.416094 2.9260583
15.728054 -26.155186 1.3248178
0.010634379 -0.082766376 8.1389637
0.63447201 -1.1247199 8.2094707
1.6976812 -2.9660981 16.454119
5.31739 -9.1467953 33.870373
7.8235121 -13.350564 36.514046
10.21274 -17.344481 36.953754
6.6295643 -11.196445 15.65535
0.1994276 -0.43756902 8.1557989
0.39453584 -0.78642064 8.1630211
2.0897067 -3.6306829 16.165998
6.7060065 -11.526352 36.31773
8.9491863 -15.283802 36.684639
11.559853 -19.671606 37.391335
6.4678788 -10.975731 16.944143
4.639111 -7.8566847 9.9694366
4.1849942 -7.0342221 8.1231852
5.827806 -9.7838984 9.2648401
8.527257 -14.298852 10.999822
5.4134731 -9.0631428 4.3535466
9.1292763 -15.272015 5.3198514
11.189715 -18.704035 4.2295079
11.475832 -19.167114 2.0985253
5.4641538 -9.2135582 9.6218281
5.6054049 -9.4329996 6.5336108
5.1567798 -8.6677065 4.7498484
6.1340966 -10.302258 4.2622089
9.1936903 -15.42865 4.4224658
10.46212 -17.55035 2.9419439
15.570109 -26.098379 1.3195779
0.010345406 -0.082802989 8.1389637
0.63054216 -1.1269277 8.2094707
1.68782 -2.9728916 16.459015
5.3033257 -9.1963348 33.984898
7.7788262 -13.381171 36.523251
10.150928 -17.377956 36.949368
6.4621925 -11.001185 15.352187
0.19789898 -0.43826249 8.1557989
0.3917883 -0.78779304 8.1630211
6.666594 -11.551185 36.322426
8.8957815 -15.314947 36.684639
11.48849 -19.707331 37.382801
6.4127989 -10.969625 16.900251
4.6185126 -7.884532 9.9841375
4.1586018 -7.0457158 8.1196804
5.7599554 -9.7472153 9.2114859
11.257962 -19.028513 14.580177
5.3487167 -9.0261478 4.3273244
5.980525 -10.08434 3.53616
11.444462 -19.266998 2.1047845
6.441113 -10.947832 11.39432
5.7577939 -9.774703 8.3439484
5.5812001 -9.4673615 6.5437431
5.204926 -8.8185434 4.8211823
9.1397781 -15.460648 4.4224658
10.468856 -17.701847 2.9605923
10.916374 -18.443878 0.95823306
0.010056307 -0.082838595 8.1389637
0.62660462 -1.1291219 8.2094707
1.678931 -2.981427 16.4737
6.2176509 -10.869409 40.078724
7.7281656 -13.401472 36.504841
10.089005 -17.411213 36.944977
0.19636798 -0.43895063 8.1557989
0.38903603 -0.78915584 8.1630211
2.0252907 -3.5762744 15.861115
6.6253743 -11.572886 36.31773
8.8411808 -15.344019 36.680138
11.3896 -19.695385 37.284683
6.3895845 -11.01801 16.940151
4.5994782 -7.9152617 10.002513
4.1321807 -7.0571117 8.1161766
11.269786 -19.201122 14.681611
6.0361252 -10.275928 6.3248854
5.3336229 -9.0727396 4.3404355
6.0133982 -10.220922 3.5756409
10.286216 -17.469473 3.9403954
11.377138 -19.306829 2.1047845
6.3614526 -10.899306 11.321158
5.7317958 -9.8087006 8.3557215
5.5829377 -9.5463247 6.5842743
5.1053152 -8.719162 4.7582407
6.1026115 -10.414093 4.2901487
10.399482 -17.725468 2.9585202
10.884813 -18.53788 0.96085298
0.0097656446 -0.08282958 8.1339636
0.62265939 -1.1313022 8.2094707
1.6704993 -2.9908252 16.49328
7.6793985 -13.424974 36.495632
10.026974 -17.444246 36.94059
5.6521711 -9.7778664 13.598448
0.19483455 -0.4396334 8.1557989
0.3865124 -0.79098821 8.1679926
2.0127947 -3.5833218 15.861115
6.5849371 -11.595943 36.31773
8.7875662 -15.374787 36.680138
6.3736238 -11.079426 17.000002
4.570128 -7.9283314 9.9988384
4.1075215 -7.0714931 8.1161766
5.6545897 -9.7232599 9.1518555
8.6779232 -14.904099 11.391851
5.9868379 -10.273973 6.3109727
5.6148715 -9.6279278 4.5914221
5.9607573 -10.21285 3.5657706
9.9922762 -17.106558 3.8527293
11.284542 -19.303434 2.1003137
6.3140135 -10.905289 11.304531
5.68536 -9.8076677 8.3380623
5.6252937 -9.6962614 6.6729355
5.298244 -9.1215324 4.9638495
6.0353708 -10.382259 4.2687831
9.2076082 -15.826576 4.5068731
10.3226 -17.735981 2.9543762
10.817523 -18.571444 0.9606514
0.0094764568 -0.082863167 8.1339636
0.61870664 -1.1334689 8.2094707
1.6615291 -2.9993103 16.507967
6.1394205 -10.908648 40.064404
7.6305618 -13.448301 36.486431
9.9660206 -17.479141 36.94059
5.6148162 -9.7919741 13.590773
0.19341387 -0.4405756 8.1607904
0.38374898 -0.79233259 8.1679926
1.9996626 -3.5892282 15.856276
6.5444198 -11.618858 36.31773
8.73277 -15.403472 36.675636
10.952592 -19.248531 36.294987
6.3244572 -11.083286 16.972073
4.5441074 -7.9471793 10.002513
4.0828128 -7.0857878 8.1161766
5.618669 -9.7395668 9.1487169
8.5212784 -14.753258 11.254779
5.6583061 -9.7885666 6.0048909
5.5789084 -9.6434565 4.5895491
5.82412 -10.059234 3.5065491
9.8832455 -17.056326 3.8340766
5.4632883 -9.5123577 9.8512878
5.7760134 -10.044702 8.5205383
5.6408672 -9.8017721 6.7311983
5.1258903 -8.8961601 4.8337708
6.0462713 -10.485077 4.3016529
9.1523066 -15.85862 4.5068731
10.173965 -17.621805 2.9302022
0.0091871517 -0.082895741 8.1339636
0.61474633 -1.1356217 8.2094707
6.099122 -10.926102 40.050091
7.5797391 -13.468043 36.468018
9.9049454 -17.513823 36.94059
5.5584168 -9.7725096 13.537047
0.19187479 -0.44124803 8.1607904
0.38098088 -0.79366732 8.1679926
1.9956318 -3.6115894 15.924027
6.5029817 -11.640126 36.313042
8.6789484 -15.433862 36.675636
10.904562 -19.320713 36.358974
6.2619824 -11.063338 16.908232
4.4862342 -7.9099126 9.9363604
4.059823 -7.1030922 8.1196804
5.6291018 -9.8368225 9.2209015
8.2868023 -14.463635 11.013529
5.6461382 -9.8466873 6.028079
5.810473 -10.11694 3.5192397
9.8456793 -17.129051 3.8424704
10.849037 -18.859426 2.0462172
5.4171124 -9.5086594 9.8280087
5.7509289 -10.082357 8.5352545
5.6728697 -9.9374599 6.8097272
5.4168544 -9.4774666 5.1337919
6.1456251 -10.743859 4.3969769
9.0413523 -15.79345 4.4799099
9.9598074 -17.390783 2.8873801
10.605623 -18.503475 0.95400089
0.0088977357 -0.082927309 8.1339636
0.61077851 -1.1377606 8.2094707
6.0515471 -10.930348 39.988056
7.534585 -13.497832 36.477222
9.8425789 -17.546202 36.936199
5.546319 -9.8309345 13.590773
0.19033338 -0.44191512 8.1607904
0.37843657 -0.79547399 8.1729641
1.9733486 -3.6008961 15.846597
6.4614739 -11.661245 36.308346
8.6250219 -15.464063 36.675636
10.840876 -19.365486 36.371777
4.4735556 -7.952116 9.9694366
4.0350037 -7.1172204 8.1196804
6.8609285 -12.087135 11.289145
5.4554038 -9.5992622 7.3235159
5.4168143 -9.5236359 5.8217058
5.1376257 -9.0254564 4.2842445
5.7751231 -10.13716 3.5192397
9.7906942 -17.17185 3.8443356
10.768332 -18.871227 2.0435345
5.3342924 -9.439743 9.7382202
5.6918149 -10.060154 8.4999361
5.6381469 -9.957201 6.8097272
5.5068464 -9.7134666 5.2491851
8.6248379 -15.200938 6.1719666
9.0965729 -16.019341 4.5338364
9.9014883 -17.42975 2.8880711
10.540969 -18.540382 0.95400089
0.0086082108 -0.082957856 8.1339636
0.6068033 -1.1398857 8.2094707
6.0176668 -10.959256 40.016685
7.4883695 -13.52576 36.481827
9.781271 -17.580452 36.936199
5.5542293 -9.9257565 13.694385
0.18878965 -0.4425768 8.1607904
0.37565753 -0.79679018 8.1729641
1.9553655 -3.5978224 15.803041
6.4198976 -11.682217 36.303654
8.5709896 -15.494076 36.675636
10.784605 -19.423733 36.410168
6.0673213 -10.896174 16.589031
4.4292521 -7.9380789 9.9326849
4.0101352 -7.1312618 8.1196804
6.8244243 -12.121188 11.29856
5.4095435 -9.5963917 7.3070674
6.4914417 -11.506294 7.0019746
5.0992522 -9.0312243 4.2786255
5.7373424 -10.153082 3.5178294
9.7331114 -17.210197 3.845268
10.474262 -18.505648 2.0019562
5.2794023 -9.4192209 9.6983147
5.6349049 -10.041186 8.4675617
5.6350198 -10.033199 6.8477249
5.6975837 -10.132183 5.4610882
8.6365709 -15.346177 6.2179847
9.155097 -16.25428 4.5901074
10.015616 -17.774834 2.9377997
10.456554 -18.54225 0.95238864
0.0083185816 -0.082987405 8.1339636
0.60282063 -1.1419969 8.2094707
5.980803 -10.982817 40.02623
7.4420509 -13.55353 36.486431
9.718688 -17.612392 36.931812
4.7394753 -8.5606098 14.443868
5.5319915 -9.9675055 13.725086
0.18713221 -0.44296679 8.1557989
0.37264889 -0.79761332 8.1679926
1.9427949 -3.6046259 15.803041
6.3790798 -11.704555 36.303654
8.5179005 -15.525809 36.680138
10.728061 -19.481819 36.448563
5.094039 -9.223855 14.027434
4.408082 -7.9653559 9.9473858
3.9869559 -7.1483312 8.1231852
5.4289999 -9.7219133 9.0608406
5.4188647 -9.6918592 7.3646379
5.0880828 -9.0853729 4.2954826
9.677783 -17.252636 3.8471334
10.409602 -18.542097 2.0019562
5.2718892 -9.4832802 9.7448711
5.5565734 -9.9830961 8.402812
5.6419187 -10.128126 6.8983884
5.7749271 -10.354158 5.568089
8.2008858 -14.691767 5.9451623
9.0698566 -16.235218 4.5760398
9.9583416 -17.818333 2.9391811
10.411277 -18.61352 0.95400089
0.0080288518 -0.083015934 8.1339636
0.59883064 -1.1440942 8.2094707
5.9438477 -11.006253 40.035774
7.3956294 -13.581141 36.491032
9.6560001 -17.644108 36.927422
4.7027922 -8.5647688 14.423203
5.4786167 -9.9530582 13.679034
0.18558483 -0.44361728 8.1557989
0.36986241 -0.79890925 8.1679926
1.9337554 -3.6180375 15.832079
6.3381848 -11.72675 36.303654
8.464695 -15.557362 36.684639
10.678741 -19.553482 36.512547
5.0893135 -9.2917938 14.103246
3.9619792 -7.1622047 8.1231852
5.4233189 -9.7918797 9.1079168
5.3464723 -9.6412373 7.3125505
6.0498157 -10.900622 6.6124163
5.0563378 -9.1030779 4.2954826
8.1113167 -14.591095 4.996954
9.6389961 -17.324945 3.8555269
10.276979 -18.456495 1.9894381
5.2694006 -9.55721 9.801405
5.5119252 -9.9847393 8.3880968
5.6148696 -10.162852 6.9085212
5.7673082 -10.425881 5.5953636
8.0489159 -14.538527 5.872848
8.5137138 -15.365438 4.3275084
10.365628 -18.684696 0.95561314
0.0077390224 -0.083043449 8.1339636
0.59483337 -1.1461775 8.2094707
5.9032779 -11.022986 40.021458
7.348177 -13.606874 36.491032
9.5932093 -17.6756 36.923031
4.7226605 -8.672574 14.576123
5.3977671 -9.887722 13.56391
0.1840352 -0.44426242 8.1557989
0.36707145 -0.80019546 8.1679926
1.9252341 -3.63254 15.865954
6.2972121 -11.748804 36.303654
8.4113703 -15.588727 36.689137
10.625326 -19.618158 36.56374
5.9054232 -10.871733 16.457359
3.9386694 -7.1791172 8.1266899
5.3366356 -9.7152281 9.0200405
7.9686327 -14.488812 10.925802
5.9796867 -10.863462 6.5776343
4.9261074 -8.942009 4.2130694
8.0371723 -14.577311 4.9828534
9.4906511 -17.199352 3.8210201
10.205269 -18.479177 1.988097
5.2377992 -9.5788212 9.8047304
5.6090302 -10.245007 8.5882311
5.5980034 -10.216413 6.9313197
7.9981174 -14.566534 5.872848
8.4764128 -15.424883 4.3357148
9.5593529 -17.388376 2.8597531
10.391861 -18.887098 0.96327132
0.0074490993 -0.083069965 8.1339636
0.59082884 -1.1482469 8.2094707
5.8675652 -11.048799 40.040546
7.3006353 -13.632441 36.491032
9.5314512 -17.708981 36.923031
4.7311349 -8.7608109 14.695977
5.2976031 -9.7853003 13.398897
0.18259192 -0.4451696 8.1607904
0.36427602 -0.80147189 8.1679926
1.9213125 -3.6559286 15.938544
6.2561626 -11.770714 36.303654
8.3579321 -15.619914 36.693642
10.602441 -19.740141 36.721581
5.8302836 -10.823306 16.353619
4.4580889 -8.2586918 10.252424
3.9152901 -7.1959553 8.1301947
5.6639233 -10.396894 9.6289015
7.8939824 -14.47249 10.892905
5.8589506 -10.732631 6.4872012
4.8948641 -8.9591503 4.2130694
8.1910686 -14.97987 5.1083465
9.3998995 -17.176355 3.8088958
5.2203503 -9.6265869 9.8346596
5.5867357 -10.28939 8.6088333
5.5746565 -10.258618 6.9465189
8.0059376 -14.702189 5.9155788
8.4108887 -15.433036 4.3298531
9.531785 -17.482508 2.8694224
10.234933 -18.756609 0.95561314
0.0071590864 -0.083095454 8.1339636
0.58681709 -1.1503023 8.2094707
5.8331347 -11.077138 40.06918
7.253005 -13.657841 36.491032
9.4684505 -17.74003 36.918644
4.7204518 -8.8144827 14.757972
5.2467365 -9.7726679 13.356685
0.18103687 -0.44580424 8.1607904
0.36147612 -0.80273855 8.1679926
1.9178319 -3.6804488 16.015976
6.2142334 -11.790954 36.298962
8.3064184 -15.654762 36.707142
10.569025 -19.843786 36.845295
5.769752 -10.801066 16.28978
4.4324331 -8.2801809 10.259775
3.8918409 -7.2127166 8.1336985
5.657198 -10.471395 9.6791162
5.9236145 -10.95084 8.2473907
5.8109059 -10.733539 6.4756069
5.0490761 -9.3185711 4.3704042
8.1387291 -15.008371 5.1083465
9.0751085 -16.721201 3.70351
10.221008 -18.816912 2.0153687
5.184947 -9.6414623 9.8313341
5.5871935 -10.376447 8.664753
5.5449486 -10.289399 6.9541187
6.0284991 -11.172704 5.9562283
7.9590554 -14.738356 5.9188662
8.2737675 -15.308364 4.2876496
9.6167316 -17.785749 2.9122446
10.128977 -18.717525 0.95218712
0.006868985 -0.083119944 8.1339636
0.58279824 -1.1523436 8.2094707
5.8006511 -11.109341 40.112129
7.205286 -13.683076 36.491032
9.4064684 -17.772974 36.918644
4.6949344 -8.840848 14.774505
5.2336793 -9.830533 13.410411
0.17958637 -0.44670171 8.165782
0.35867184 -0.80399543 8.1679926
1.9228569 -3.7217405 16.165998
6.1730375 -11.812574 36.298962
8.244626 -15.670176 36.675636
10.538667 -19.954353 36.981804
4.9731879 -9.3885727 14.143146
3.8683224 -7.2294016 8.1372032
5.6187735 -10.487648 9.6759777
5.8833761 -10.967765 8.2446489
5.7314968 -10.675699 6.4292312
5.0165176 -9.3361378 4.3704042
9.1447306 -16.990683 3.7548041
10.17888 -18.896318 2.0198395
5.6251888 -10.534944 8.7795372
5.5130615 -10.316296 6.9591846
6.0301452 -11.269711 5.9960914
8.3422718 -15.577801 6.2393503
8.1996145 -15.298594 4.2770987
9.8892231 -18.4433 3.0110118
10.058855 -18.743965 0.95178407
0.0065788007 -0.083143413 8.1339636
0.57877225 -1.1543709 8.2094707
5.7920313 -11.187847 40.322094
7.1565747 -13.706411 36.486431
9.3443718 -17.8057 36.918644
4.683712 -8.8945312 14.836497
5.200829 -9.8515768 13.414248
0.17802599 -0.44732583 8.165782
0.35586318 -0.8052426 8.1679926
1.928763 -3.7653499 16.325701
6.1317663 -11.83405 36.298962
8.1878643 -15.695 36.666634
10.497986 -20.046469 37.084187
4.9319782 -9.3898697 14.119205
4.1124001 -7.8129282 9.6496983
3.8447351 -7.2460113 8.140708
5.4816933 -10.318143 9.5033627
5.7488341 -10.807345 8.1103172
4.8792577 -9.1572056 4.2804985
7.9276638 -14.865884 5.0420752
9.1663198 -17.174177 3.7874458
10.058891 -18.830706 2.0095568
4.7893729 -9.0568943 9.2061405
5.6678181 -10.704546 8.9031487
5.4891286 -10.358332 6.9743838
5.935462 -11.186454 5.9415421
8.2967033 -15.623507 6.2459245
8.1051025 -15.249867 4.2559972
9.7085419 -18.259089 2.9764779
10.080203 -18.942144 0.95924067
0.0062885359 -0.083165869 8.1339636
0.57473922 -1.1563842 8.2094707
5.7536254 -11.209326 40.326866
7.1086869 -13.731309 36.486431
9.2810555 -17.836084 36.914257
4.6239829 -8.8559475 14.745574
5.1649222 -9.8668318 13.410411
0.17646345 -0.44794455 8.165782
0.35283706 -0.80599129 8.1630211
1.9173149 -3.7754214 16.340218
6.0904202 -11.855382 36.298962
8.1300278 -15.717684 36.65313
10.44958 -20.124653 37.160973
4.8671598 -9.3455601 14.027434
4.0803971 -7.8182187 9.6386719
3.8210788 -7.2625437 8.1442127
5.4039187 -10.25801 9.4311781
5.1980114 -9.8546476 7.3893113
5.4458857 -10.315873 6.1927137
4.7996173 -9.0840044 4.2392917
7.9003911 -14.940114 5.0575857
9.0098066 -17.023718 3.7482758
9.9814434 -18.8437 2.0073214
4.7525272 -9.0636358 9.1961641
5.6172657 -10.699214 8.8825474
5.4128346 -10.301108 6.9237204
5.6596994 -10.757253 5.7065606
7.9996982 -15.179165 4.2290339
9.2867622 -17.613888 2.8694224
10.014021 -18.977215 0.95924067
0.0059981947 -0.083187312 8.1339636
0.57069916 -1.1583834 8.2094707
5.7374797 -11.274574 40.489113
7.0607123 -13.75604 36.486431
9.2187395 -17.868372 36.914257
4.5839858 -8.8545418 14.716643
5.1009183 -9.8279028 13.33366
0.17489874 -0.44855779 8.165782
0.35002148 -0.80721802 8.1630211
1.9063853 -3.7865822 16.359575
6.0490003 -11.87657 36.298962
8.0741205 -15.744031 36.648628
10.376881 -20.15637 37.152439
4.7833557 -9.2634296 13.879804
4.0468497 -7.8203707 9.6239719
3.7973542 -7.2789993 8.1477175
5.2042766 -9.9505434 7.4468822
5.4098434 -10.33482 6.1927137
4.8238149 -9.2074718 4.2879906
7.8481922 -14.9676 5.0575857
8.9001083 -16.959372 3.7277582
9.9318151 -18.90929 2.0104508
5.0756607 -9.7626066 9.881216
5.5593538 -10.679318 8.850173
5.3569255 -10.281709 6.8983884
5.7711563 -11.062639 5.8555222
7.7940269 -14.927579 5.9500933
9.8443899 -18.838554 5.2172976
9.9986725 -19.109442 0.96367437
0.0057077799 -0.083207749 8.1339636
0.56665218 -1.1603684 8.2094707
5.6960716 -11.290534 40.474796
7.0117655 -13.778861 36.481827
9.15522 -17.89831 36.909866
4.536345 -8.837944 14.662914
5.0929799 -9.8969488 13.402736
0.17333193 -0.44916555 8.165782
0.34720165 -0.80843484 8.1630211
1.8942785 -3.7954631 16.369255
6.0075064 -11.897612 36.298962
8.0191145 -15.77212 36.648628
10.306459 -20.192469 37.152439
4.7729616 -9.3229847 13.943645
4.0210738 -7.8374653 9.6276464
3.7719226 -7.2922101 8.1477175
5.5416069 -10.699871 9.798378
5.1695108 -9.9686489 7.4468822
5.3431258 -10.294665 6.1579318
4.8044677 -9.2489376 4.2992287
7.6542768 -14.722505 4.9673429
8.9587631 -17.216932 3.7762544
9.8657494 -18.943842 2.0104508
5.1356435 -9.9627991 10.064119
5.460865 -10.580131 8.7530479
5.2873683 -10.235236 6.8553243
5.8013134 -11.215746 5.9247575
7.7310171 -14.933725 5.941875
9.8859034 -19.079956 5.2735686
8.9014902 -17.172691 2.7899942
9.7685595 -18.829365 0.94936574
0.0054181414 -0.083183542 8.1289635
0.56259829 -1.1623394 8.2094707
5.6559582 -11.309014 40.470028
6.9636259 -13.803252 36.481827
9.0916042 -17.928022 36.905476
4.4876003 -8.8186131 14.605054
5.1224942 -10.040292 13.571585
0.17176299 -0.44976786 8.165782
0.34458557 -0.81013268 8.1679926
1.8838049 -3.8076856 16.393452
5.9659395 -11.918509 36.298962
7.9649897 -15.801958 36.65313
10.234734 -20.225994 37.148174
4.7158408 -9.2912226 13.871823
4.1381688 -8.1354961 9.9731121
3.7480729 -7.308506 8.1512222
5.5042238 -10.71915 9.798378
5.17101 -10.057289 7.49897
5.3112121 -10.321131 6.1625695
4.750927 -9.2244377 4.2804985
7.6028395 -14.749134 4.9673429
8.9008627 -17.252464 3.7771869
9.7881374 -18.956039 2.0082154
5.0600557 -9.9008713 9.9843073
5.3336759 -10.422814 8.6088333
5.3066316 -10.361063 6.9262533
7.7133417 -15.027838 5.9681711
7.4627323 -14.527108 4.0297399
8.8165922 -17.15521 2.7823968
0.0051277434 -0.083201945 8.1289635
0.55853754 -1.1642962 8.2094707
5.6157846 -11.32735 40.465252
6.916275 -13.829224 36.486431
9.0278931 -17.95751 36.901089
4.4517202 -8.8241739 14.588521
5.1235824 -10.129616 13.667522
0.17009087 -0.45009428 8.1607904
0.34175557 -0.81133062 8.1679926
5.9235325 -11.937716 36.29427
7.9107547 -15.831612 36.657631
10.1629 -20.259266 37.143909
4.6156607 -9.1730423 13.672322
4.1097455 -8.1498909 9.9731121
3.7241545 -7.3247232 8.154726
5.5215149 -10.845827 9.8956699
5.6998687 -11.181706 8.3131857
5.3335333 -10.45404 6.2298145
4.6997247 -9.2038069 4.2636414
8.769002 -17.14348 3.7473431
9.669714 -18.888136 1.9979326
5.7511086 -11.350655 11.414273
5.3173766 -10.481019 8.6412077
5.2704325 -10.379523 6.9262533
6.8932571 -13.557947 7.1185498
7.6651216 -15.063088 5.9714584
7.4185948 -14.566061 4.0332565
8.7678967 -17.207943 2.78585
9.4757214 -18.581106 0.93505692
0.0048372834 -0.083219342 8.1289635
0.55447 -1.1662387 8.2094707
6.8670921 -13.85153 36.481827
8.9662228 -17.991056 36.905476
4.4145975 -8.827075 14.567857
5.0177956 -10.007043 13.479486
0.16851871 -0.45068526 8.1607904
0.33892143 -0.8125186 8.1679926
5.8810639 -11.956771 36.289577
7.8573771 -15.863031 36.666634
10.090959 -20.292282 37.139641
4.5553684 -9.132472 13.588532
4.0085106 -8.0186329 9.7967043
3.7017739 -7.3440475 8.1617346
5.3029866 -10.507126 9.5724087
5.6702323 -11.220193 8.3268929
5.3070064 -10.492357 6.2414088
4.6675687 -9.2201557 4.2636414
7.1896462 -14.189937 4.7657089
8.7091074 -17.173986 3.7473431
9.5541382 -18.82408 1.988097
5.6863136 -11.320612 11.36439
5.2971044 -10.532016 8.667696
5.239984 -10.409409 6.9338531
6.8990011 -13.687298 7.1730986
7.5210381 -14.908463 5.9007874
7.4509554 -14.756748 4.0778046
8.7524328 -17.326847 2.7996638
9.4716654 -18.734451 0.94049829
0.0045480663 -0.08319211 8.1239643
0.55039567 -1.1681671 8.2094707
5.0371757 -10.341009 36.819458
6.8186994 -13.875418 36.481827
8.8874569 -17.990036 36.839642
4.3650098 -8.8046131 14.505862
5.012794 -10.084773 13.560073
0.16694449 -0.45127076 8.1607904
0.33608314 -0.81369674 8.1679926
5.8392916 -11.977227 36.289577
7.803875 -15.894269 36.675636
10.018911 -20.325045 37.135376
4.5074358 -9.1159058 13.540652
3.9744749 -8.0204258 9.7820034
3.6777096 -7.3601141 8.1652393
5.1948719 -10.382855 9.4437323
5.5710983 -11.120286 8.2391653
5.1889405 -10.348462 6.1463375
4.6561494 -9.2778263 4.2823715
7.2068186 -14.347834 4.8094196
8.6446924 -17.195503 3.7454777
9.4906101 -18.861763 1.9885439
7.975049 -16.01634 16.016764
5.3180213 -10.666196 8.7618771
5.2170901 -10.454637 6.9515853
6.6260056 -13.260649 6.9402156
7.4351563 -14.867049 5.8744912
7.3515348 -14.687041 4.0520139
8.6852455 -17.344009 2.7975917
9.4196434 -18.794197 0.94170749
0.0042576436 -0.083207473 8.1239643
0.54664314 -1.1707853 8.2144108
4.9621096 -10.277874 36.533138
6.7702236 -13.899134 36.481827
8.7845802 -17.939213 36.672855
4.3354907 -8.8223219 14.509995
5.05406 -10.257469 13.767299
0.16536824 -0.45185077 8.1607904
0.33324075 -0.81486493 8.1679926
5.7966962 -11.995983 36.284882
7.7483463 -15.921412 36.675636
9.9467573 -20.357548 37.131111
4.4663053 -9.1126432 13.512722
3.946454 -8.0342503 9.7820034
3.653579 -7.3761034 8.1687441
5.1689739 -10.421847 9.4625626
5.2123508 -10.49552 7.7676339
5.3558736 -10.775093 6.3851743
4.6505799 -9.3479824 4.3067207
7.1545534 -14.368608 4.8080096
9.4024849 -18.850214 1.9840732
7.9190927 -16.044083 16.016764
5.3201571 -10.764415 8.8266277
5.2226138 -10.55779 7.0073152
6.5957918 -13.316232 6.9569993
7.2888312 -14.702526 5.8005333
8.5705643 -17.272823 4.7413363
8.622448 -17.369783 2.796901
9.3962183 -18.911974 0.94553655
0.0039655636 -0.083265431 8.1289635
0.54255301 -1.1726863 8.2144108
4.9262028 -10.295133 36.533138
6.7208152 -13.920922 36.477222
13.120276 -26.936119 44.07711
4.9788384 -10.194405 13.659847
0.16378999 -0.45242527 8.1607904
0.33039433 -0.81602317 8.1679926
5.7547874 -12.016144 36.284882
7.6851568 -15.932676 36.639626
9.8744993 -20.389799 37.126842
3.8842528 -7.9778709 9.6974745
3.6293807 -7.3920126 8.1722488
5.1325636 -10.439827 9.4625626
5.3677478 -10.903806 8.0527458
5.4494061 -11.059958 6.5405335
4.636375 -9.4015789 4.3235784
7.087368 -14.359081 4.7967291
8.5092058 -17.224606 3.7389495
9.3211765 -18.851671 1.9809437
5.2825499 -10.78292 8.8266277
5.2331748 -10.672719 7.0706444
6.7432923 -13.734351 7.160511
7.2395482 -14.732119 5.802177
8.5981731 -17.481461 4.7894015
8.4786825 -17.230932 2.7706554
9.3676691 -19.020847 0.94896263
0.0036748888 -0.083278768 8.1289635
0.53845626 -1.1745731 8.2144108
4.8947134 -10.321707 36.566544
6.670495 -13.940773 36.468018
8.6030636 -17.883558 36.435844
4.3227305 -8.9537401 14.675313
4.8957415 -10.113632 13.529372
0.16220972 -0.45299423 8.1607904
0.32754385 -0.81717145 8.1679926
5.7120681 -12.0346 36.280193
7.6276174 -15.955478 36.630623
9.8021364 -20.421791 37.122578
3.8328075 -7.9425287 9.6386719
3.6051166 -7.4078431 8.1757536
5.097795 -10.461178 9.4657011
5.1737919 -10.603054 7.8197217
5.4710302 -11.202307 6.6124163
4.6442461 -9.5010052 4.3610387
7.0350943 -14.379424 4.7953196
8.2545996 -16.857151 3.6550138
9.2180567 -18.808073 1.9733433
5.0242887 -10.360786 10.33681
5.1742558 -10.655852 8.7089005
5.197773 -10.694799 7.0731778
6.6734629 -13.712914 7.1374321
7.1860113 -14.753053 5.8005333
7.3102226 -14.994782 4.1141467
8.3924332 -17.207014 2.762367
9.2727261 -18.995066 0.94634271
0.003384169 -0.083291084 8.1289635
0.53435296 -1.1764455 8.2144108
4.8516703 -10.323869 36.51405
6.620955 -13.962207 36.463417
8.5045109 -17.837814 36.282227
4.292665 -8.9713144 14.679447
4.9075475 -10.228914 13.659847
0.1606275 -0.45355767 8.1607904
0.32468939 -0.81830984 8.1679926
5.6700249 -12.054465 36.280193
7.5644193 -15.966267 36.594612
9.7296715 -20.453529 37.118313
3.8065221 -7.9589181 9.6423473
3.5823352 -7.4268069 8.1827631
5.0764837 -10.510453 9.493947
5.4116507 -11.189458 8.2336826
5.5245376 -11.412724 6.7237191
4.6110535 -9.5171576 4.3610387
6.9618335 -14.356414 4.779809
8.1871271 -16.868185 3.6512833
9.1479959 -18.831177 1.9724491
4.9929442 -10.388357 10.346787
5.0809369 -10.557301 8.6147194
5.1735044 -10.740063 7.09091
6.7576613 -14.01001 7.2780013
7.1796355 -14.871603 5.8366904
7.2134266 -14.928302 4.0895276
8.3280077 -17.227287 2.7609859
9.093214 -18.793467 0.93586308
0.0030913451 -0.083345972 8.1339636
0.53024316 -1.1783035 8.2144108
4.816864 -10.343448 36.523594
6.5713463 -13.983464 36.458813
8.4370785 -17.856565 36.260284
4.252883 -8.9684439 14.650515
4.8718119 -10.245982 13.659847
0.15904331 -0.45411563 8.1607904
0.32183099 -0.81943822 8.1679926
5.6279125 -12.074184 36.280193
7.504015 -15.982723 36.572109
9.6582165 -20.487368 37.118313
3.5625412 -7.452136 8.1967802
6.9136186 -14.442651 12.993326
5.3472557 -11.155491 8.195302
5.4961624 -11.4559 6.7376318
4.5818176 -9.5415535 4.3647847
6.9095998 -14.376304 4.7783985
8.1537504 -16.94978 3.6624746
9.0822077 -18.862995 1.9724491
5.0112443 -10.520333 10.459854
4.8509002 -10.170015 8.2880287
5.1434121 -10.773618 7.1010427
5.6184125 -11.752769 6.1093864
7.1704822 -14.986029 5.8712044
7.161273 -14.95339 4.0895276
8.2678232 -17.256252 2.7609859
0.0028003948 -0.083356254 8.1339636
0.52612692 -1.1801473 8.2144108
4.7788529 -10.356133 36.509277
6.5208459 -14.002777 36.449608
8.3858662 -17.909763 36.308559
0.15745717 -0.45466802 8.1607904
0.31896865 -0.82055664 8.1679926
5.5857315 -12.093756 36.280193
7.4426689 -15.996975 36.545101
9.5855389 -20.518593 37.114048
4.0967822 -8.7217417 10.524386
3.5426145 -7.4774175 8.2107992
6.8314643 -14.399879 12.933696
5.2616339 -11.075889 8.1240244
5.3401065 -11.230979 6.5961847
4.5405149 -9.5407448 4.3572931
8.0945339 -16.978138 3.6624746
4.9936171 -10.578279 10.49976
4.7652764 -10.080911 8.2026768
5.1315846 -10.846059 7.136507
5.5637512 -11.743598 6.0946999
7.0796852 -14.929897 5.8399777
7.1298738 -15.022209 4.1012511
8.2351503 -17.343159 2.7699645
12.423026 -26.139273 1.261134
0.0025094103 -0.083365522 8.1339636
0.52200419 -1.1819766 8.2144108
4.7426744 -10.37275 36.509277
6.4711084 -14.023679 36.445004
12.656494 -27.178858 44.106041
4.6645522 -9.9893227 13.276097
0.15586913 -0.45521486 8.1607904
0.31610245 -0.82166505 8.1679926
5.5434823 -12.113179 36.280193
7.3813157 -16.010998 36.518093
9.5138569 -20.551928 37.114048
4.0734658 -8.7513571 10.542763
3.5255854 -7.5091076 8.2318258
6.8026862 -14.469431 12.974496
5.0448365 -10.715872 7.8498774
5.304647 -11.257565 6.6008224
4.9046688 -10.399325 4.7337723
7.3353491 -15.539062 5.1407776
7.9974465 -16.926344 3.6456873
13.576651 -28.708641 2.9439518
5.0009608 -10.690342 10.592874
4.7249146 -10.086502 8.1938477
5.0955234 -10.867809 7.1390405
5.5265822 -11.771165 6.098896
7.0114603 -14.920329 5.8268299
7.0753241 -15.042605 4.1000786
8.227273 -17.48382 2.7872314
8.9044294 -18.905735 0.93666923
0.002220914 -0.083330221 8.1289635
0.51787519 -1.1837915 8.2144108
4.7070541 -10.390602 36.51405
6.4221172 -14.046182 36.445004
12.562723 -27.225424 44.110176
4.6404223 -10.028816 13.306798
0.15427917 -0.45575619 8.1607904
0.31323236 -0.82276344 8.1679926
5.5011659 -12.132457 36.280193
7.3163366 -16.016863 36.473083
9.4420595 -20.585011 37.114048
4.4992919 -9.777463 14.326686
3.5008564 -7.5246015 8.2353306
4.9667411 -10.646261 7.7868237
5.2690673 -11.284041 6.6054602
5.0214438 -10.743971 4.879869
7.2891936 -15.581952 5.1464171
7.9841404 -17.052031 3.6662052
13.949732 -29.765949 3.0440974
4.9683247 -10.717896 10.60285
4.7254152 -10.179926 8.2556543
6.9732904 -14.97468 5.8383346
8.1766567 -17.534872 2.7906852
0.0019300239 -0.083337463 8.1289635
0.51373976 -1.1855921 8.2144108
4.6707549 -10.406969 36.51405
6.372242 -14.066734 36.440407
12.461761 -27.256313 44.089508
5.086277 -11.093856 14.688299
0.1525967 -0.45601785 8.1557989
0.31035846 -0.82385182 8.1679926
5.4587817 -12.151585 36.280193
7.2639737 -16.05024 36.491085
9.3701468 -20.617846 37.114048
4.4651346 -9.7931089 14.326686
4.5674586 -9.9944553 11.990777
3.4805415 -7.5497303 8.2493486
8.4781055 -18.365011 16.392275
5.2681808 -11.396066 8.3159266
5.1366367 -11.101351 6.4895201
6.4626074 -13.954309 6.3015008
7.2589679 -15.659529 5.1633382
7.9824576 -17.204563 3.6923184
13.912865 -29.958994 3.058404
4.9402328 -10.75553 10.622804
4.6898522 -10.196359 8.2556543
5.2466698 -11.396504 7.458221
4.6766315 -10.144323 5.2512832
6.8992128 -14.951763 5.8202558
8.2234106 -17.797066 2.8266001
12.102484 -26.168173 1.2567004
0.0016419331 -0.083300151 8.1239643
0.50959814 -1.187378 8.2144108
4.6356125 -10.425938 36.523594
6.323101 -14.088892 36.440407
12.358417 -27.281706 44.060577
5.0925922 -11.210764 14.818774
0.15100397 -0.45654774 8.1557989
0.30748081 -0.82493013 8.1679926
5.4163318 -12.170566 36.280193
7.217701 -16.097347 36.5406
9.2981205 -20.650427 37.114048
4.428442 -9.8031425 14.318706
4.5465264 -10.041221 12.027529
3.4660208 -7.5877848 8.2773857
8.4074717 -18.380335 16.379721
9.4214516 -20.568647 14.917377
4.747086 -10.354126 6.0489483
6.516335 -14.200094 6.4007716
7.2763429 -15.841702 5.2140989
11.884553 -25.850723 5.4932079
13.810286 -30.011904 3.058851
4.8686337 -10.697945 10.549643
4.6726704 -10.253127 8.2880287
5.2319026 -11.469657 7.4936852
4.629878 -10.135816 5.2386942
6.8018188 -14.87698 5.782455
13.861046 -30.289078 8.1246452
8.1859751 -17.879696 2.8348885
12.008985 -26.205717 1.2564988
0.0013511509 -0.083305374 8.1239643
0.50514662 -1.1884345 8.2094707
4.5955811 -10.43386 36.494965
6.2738833 -14.110878 36.440407
12.280392 -27.363188 44.122574
5.032382 -11.181706 14.757374
0.14940941 -0.45707205 8.1557989
0.3045994 -0.82599843 8.1679926
5.3731189 -12.187819 36.275497
7.1703033 -16.142338 36.585613
9.2249174 -20.680376 37.109779
4.4163518 -9.8680487 14.390527
5.1907597 -11.46941 12.4513
8.3239813 -18.367029 16.34206
9.3495951 -20.60141 14.917377
4.6925931 -10.330302 6.0257602
6.4782405 -14.248075 6.4120097
7.2229872 -15.871371 5.2155089
11.777954 -25.856287 5.4857469
4.8420048 -10.738701 10.572921
4.6451678 -10.287793 8.3027449
4.8598485 -10.753266 7.0199814
4.5944695 -10.151916 5.2386942
6.7693324 -14.943646 5.7988901
13.769283 -30.368263 8.1328506
8.1010103 -17.858553 2.827291
11.890586 -26.188339 1.2538788
0.0010603531 -0.083309583 8.1239643
0.50099516 -1.1901906 8.2094707
4.5561476 -10.442996 36.4711
6.2245889 -14.132692 36.440407
4.0290651 -9.0619602 14.638116
4.972436 -11.152365 14.695974
0.14781302 -0.45759079 8.1557989
0.30171424 -0.82705665 8.1679926
5.330543 -12.2065 36.275497
7.1209264 -16.18321 36.621624
9.151619 -20.710064 37.105515
4.3843217 -9.8889132 14.398506
5.1346426 -11.451664 12.412749
8.3012686 -18.488293 16.42366
4.631053 -10.290065 5.9932966
6.4284663 -14.270602 6.4120097
7.1576829 -15.874622 5.2084589
11.659338 -25.834558 5.4726901
12.665574 -28.038073 2.8549831
4.8456059 -10.847583 10.662709
4.5943742 -10.270739 8.2762556
4.6690226 -10.427869 6.7995944
4.646276 -10.362533 5.3373032
6.7113276 -14.954261 5.7939596
13.671161 -30.433878 8.1375408
7.9350948 -17.656361 2.7920661
11.774505 -26.175013 1.2514606
0.00076626259 -0.083356291 8.1289635
0.49683756 -1.1919321 8.2094707
4.5172987 -10.453356 36.452015
6.1752186 -14.154334 36.440407
8.0343189 -18.311077 36.712357
3.9951396 -9.0708179 14.62985
4.7599473 -10.776768 14.181748
0.14630164 -0.4583793 8.1607904
0.29882544 -0.82810479 8.1679926
5.2872171 -12.22345 36.270805
7.0609136 -16.199986 36.603619
9.0782261 -20.739494 37.10125
4.3643155 -9.9372644 14.446386
5.0512071 -11.371741 12.307613
8.2841396 -18.623846 16.517813
5.2872014 -11.869571 8.6037807
4.6221642 -10.366857 6.028079
6.3634987 -14.259086 6.3970251
7.0611401 -15.807532 5.1788478
11.545027 -25.821287 5.4614992
12.53711 -28.013929 2.8482769
4.8182878 -10.888332 10.685987
4.7026024 -10.611911 8.5352545
4.7514491 -10.712061 6.9718509
4.6100755 -10.378688 5.3373032
6.6955361 -15.059579 5.8251863
13.529271 -30.401478 8.1164389
7.8734145 -17.68395 2.7920661
11.666797 -26.179447 1.2498484
0.0004752902 -0.083358452 8.1289635
0.49267387 -1.1936591 8.2094707
4.4784331 -10.463572 36.43293
6.1265478 -14.177596 36.445004
3.9679532 -9.0950251 14.646382
4.7055988 -10.755142 14.131861
0.14470071 -0.45888722 8.1607904
0.29593301 -0.82914287 8.1679926
5.2438378 -12.240245 36.266113
7.0060482 -16.228531 36.612617
9.0047388 -20.768663 37.096981
4.3416219 -9.9800701 14.486288
5.0071726 -11.379512 12.2971
8.2504692 -18.723888 16.580582
5.2288556 -11.849698 8.5763655
4.8293543 -10.93402 6.3434358
6.3305569 -14.319373 6.4138827
7.068037 -15.972461 5.2239695
11.419014 -25.780584 5.4447117
12.241446 -27.611364 2.8044631
4.7727566 -10.887987 10.66936
4.8816133 -11.120509 8.9266949
4.7989984 -10.921967 7.0959764
4.5939255 -10.440413 5.3603821
6.6962214 -15.203864 5.8712044
11.557183 -26.178881 1.2480345
0.00018431213 -0.083359607 8.1289635
0.48850426 -1.1953716 8.2094707
4.4401331 -10.475017 36.41861
6.0762529 -14.1971 36.440407
7.7064838 -17.902555 35.786263
3.9350655 -9.1062384 14.64225
4.7215567 -10.895024 14.293036
0.14309801 -0.45938954 8.1607904
0.29303697 -0.83017081 8.1679926
5.2010794 -12.258474 36.266113
6.9493575 -16.252888 36.612617
8.931159 -20.797575 37.092716
4.2912579 -9.9591894 14.434417
4.3154774 -9.991436 11.876846
5.0785618 -11.65192 12.570455
4.875967 -11.155236 8.0664539
4.7964854 -10.962987 6.3503923
6.2954125 -14.375357 6.4288673
9.2597284 -21.124249 6.8694777
11.338821 -25.842779 5.4493747
12.163012 -27.694965 2.8084869
4.6202188 -10.640865 10.413297
4.8685532 -11.19679 8.9737854
4.7608442 -10.938651 7.0959764
4.5556402 -10.452225 5.3582835
6.6449981 -15.231474 5.872848
11.904508 -27.261271 7.265336
7.852859 -17.974457 2.8279815
11.449717 -26.182444 1.2464223
-0.00011040298 -0.083403207 8.1339636
0.48432863 -1.1970695 8.2094707
4.4018083 -10.486323 36.404293
6.026659 -14.218224 36.440407
7.6505203 -17.944769 35.816986
3.9132199 -9.1432028 14.679447
4.6771755 -10.896711 14.273849
0.1415775 -0.46016246 8.165782
0.29013732 -0.83118862 8.1679926
5.157589 -12.274964 36.261421
6.8934302 -16.279051 36.617119
8.8564653 -20.823822 37.084187
4.2564678 -9.9741077 14.434417
4.2752414 -9.9939718 11.862147
5.108532 -11.833285 12.745682
9.0694666 -20.978258 18.510735
4.8752079 -11.260444 8.1295071
4.6665945 -10.768306 6.2298145
9.0751238 -20.90123 6.7876954
11.228965 -25.837149 5.4400487
12.066264 -27.737253 2.8084869
4.5417447 -10.560887 10.320183
4.831038 -11.217427 8.9767284
4.6082969 -10.689975 6.9262533
4.5155301 -10.459729 5.3540874
6.5262294 -15.102858 5.8153248
11.871023 -27.445415 7.3028498
7.8077693 -18.042662 2.8341978
11.342368 -26.185577 1.24481
-0.00040153353 -0.083402321 8.1339636
0.48014715 -1.1987528 8.2094707
4.359448 -10.487841 36.356575
5.9769912 -14.239174 36.440407
7.5831761 -17.960333 35.79504
3.8911638 -9.1801243 14.716643
4.6391106 -10.912971 14.273849
0.13997036 -0.46065384 8.165782
0.28723419 -0.83219635 8.1679926
5.1147099 -12.292892 36.261421
6.8365636 -16.303015 36.617119
8.7837229 -20.85461 37.084187
4.2169337 -9.9778023 14.418456
4.2178478 -9.9557667 11.799668
5.1162667 -11.965815 12.868341
8.9839258 -20.981163 18.485626
4.5818024 -10.674621 6.1672068
6.2315011 -14.504145 6.4663281
8.9395695 -20.787357 6.7411647
11.101807 -25.790461 5.4223289
11.991046 -27.829512 2.8134048
4.5238733 -10.621334 10.363415
5.6212411 -13.178697 10.516002
4.5878806 -10.745641 6.9515853
4.4789915 -10.475429 5.3540874
6.430737 -15.025697 5.777524
11.796203 -27.535833 7.3157454
7.7486429 -18.078911 2.8355792
11.235137 -26.188278 1.2431978
-0.000692659 -0.083400406 8.1339636
0.47595978 -1.2004216 8.2094707
4.3188353 -10.493331 36.32317
5.9272509 -14.259951 36.440407
7.5204368 -17.986692 35.79504
4.574873 -10.867062 14.19326
0.13836153 -0.46113962 8.165782
0.28432751 -0.8331939 8.1679926
5.0717683 -12.310671 36.261421
6.779614 -16.326778 36.617119
8.7078619 -20.877924 37.071388
4.1832418 -9.9952412 14.422447
4.1673312 -9.9329157 11.755567
5.0883722 -12.016439 12.903386
8.893918 -20.972977 18.451101
5.1364503 -12.094743 8.6997318
4.4474654 -10.462252 6.037354
6.0900784 -14.312519 6.3726764
8.8425169 -20.761059 6.7228341
8.657567 -20.307167 4.2826672
11.880148 -27.839138 2.8102753
4.5186944 -10.712747 10.436575
5.5185823 -13.064194 10.410048
4.5604162 -10.785413 6.966784
6.3782482 -15.048053 5.777524
11.677232 -27.523148 7.3016777
7.6564651 -18.037474 2.8252192
11.126071 -26.185953 1.241384
-0.00098377734 -0.083397478 8.1339636
0.47176662 -1.2020757 8.2094707
4.2776742 -10.497284 36.284996
5.8766947 -14.278747 36.435802
7.4576058 -18.012835 35.79504
0.13666998 -0.46134272 8.1607904
0.28158715 -0.83468664 8.1729641
5.0281134 -12.326702 36.256725
6.7225819 -16.350346 36.617119
8.6379175 -20.915424 37.084187
4.1483264 -10.009783 14.422447
4.1365356 -9.9567938 11.766593
4.3899398 -10.468658 11.235222
8.8161335 -20.993128 18.441687
5.1298637 -12.197396 8.7600441
4.4109182 -10.477713 6.037354
6.0130773 -14.269608 6.3445807
10.841273 -25.702375 8.2893801
8.4719868 -20.065739 4.2267098
11.761574 -27.829977 2.8053575
4.4985414 -10.769798 10.476481
4.724226 -11.293506 8.9973307
4.5260701 -10.809219 6.9718509
4.4741988 -10.669673 5.4359117
11.564142 -27.523413 7.2911272
7.5953746 -18.068655 2.8259096
11.019096 -26.187794 1.2397717
-0.0012748829 -0.083393537 8.1339636
0.46756774 -1.2037151 8.2094707
4.2365379 -10.501077 36.246819
5.8268166 -14.299173 36.435802
7.3919587 -18.032108 35.781872
11.411622 -27.727615 44.110176
4.0439496 -9.7965918 12.76571
0.13497871 -0.46153957 8.1557989
0.27867186 -0.83566445 8.1729641
4.9850545 -12.344177 36.256725
6.6654673 -16.373711 36.617119
8.5530119 -20.916481 37.032993
4.1133609 -10.024202 14.422447
4.0991755 -9.9649019 11.759242
4.3670473 -10.516855 11.270267
5.2052178 -12.516912 11.012961
4.6451716 -11.153712 8.0061407
4.5089726 -10.816057 6.2205396
5.8525424 -14.025252 6.2284527
10.718208 -25.660385 8.2639999
8.3469419 -19.963758 4.1996641
11.64513 -27.824923 2.8008864
4.4894614 -10.854442 10.542992
4.638371 -11.197896 8.9090357
4.48666 -10.82097 6.9693174
11.458661 -27.54117 7.2852654
10.910323 -26.184593 1.237958
-0.0015659726 -0.083388582 8.1339636
0.46336314 -1.2053399 8.2094707
4.1959815 -10.506098 36.213413
5.7754054 -14.315801 36.426594
7.3352747 -18.073336 35.812595
11.302022 -27.73601 44.060577
4.010941 -9.8136139 12.769547
0.13328771 -0.4617303 8.1508064
0.27575314 -0.83663219 8.1729641
4.9412942 -12.3599 36.252033
6.6074581 -16.394859 36.612617
8.4828835 -20.953461 37.045792
4.0749426 -10.030125 14.410478
4.0643663 -9.9791498 11.759242
4.3547201 -10.591405 11.33335
6.6686759 -16.195328 14.204771
4.9919801 -12.105346 8.6695757
4.47119 -10.831731 6.2205396
5.9947467 -14.508328 6.4307399
10.613905 -25.66218 8.2527199
8.2208328 -19.856613 4.1716852
11.52124 -27.800997 2.7946274
4.4402251 -10.842404 10.516388
4.5624447 -11.124267 8.8383999
4.4210296 -10.768772 6.9262533
4.9277072 -11.985108 6.0779152
11.342089 -27.531567 7.2723699
10.803612 -26.185572 1.2363456
-0.0018616882 -0.083425999 8.1389637
0.45915291 -1.2069499 8.2094707
4.1543441 -10.508187 36.170467
5.7253985 -14.335874 36.426594
11.209348 -27.78573 44.07711
3.9658401 -9.8008146 12.735009
0.13167517 -0.46219271 8.1508064
0.27283108 -0.83758962 8.1729641
4.8981199 -12.377073 36.252033
6.5493822 -16.4158 36.608116
9.9639959 -24.86113 43.879818
4.0387816 -10.041492 14.406487
4.0130267 -9.9524021 11.711465
4.3298244 -10.63627 11.364891
6.6194501 -16.236526 14.220463
5.3875179 -13.195017 9.4289618
4.4048629 -10.777562 6.1811199
10.507901 -25.659121 8.2400293
8.1179333 -19.803377 4.1548982
11.31637 -27.578434 2.7691438
4.448647 -10.972023 10.626129
4.5114202 -11.110165 8.8148546
4.3347158 -10.664333 6.8502584
4.9234872 -12.094715 6.124073
5.9037962 -14.48843 5.5342851
11.196351 -27.449472 7.2407174
10.695137 -26.181498 1.2345319
-0.0021528883 -0.083418988 8.1389637
0.45493704 -1.2085453 8.2094707
4.1154628 -10.517064 36.151379
5.6746049 -14.353956 36.421993
11.102895 -27.801167 44.039913
3.8875053 -9.7045088 12.593021
0.13006102 -0.46264955 8.1508064
0.26990569 -0.83853692 8.1729641
4.8548861 -12.394096 36.252033
6.491241 -16.436539 36.603619
4.0248833 -10.108719 14.482297
3.9543827 -9.9065266 11.641637
4.3166656 -10.710857 11.427973
5.0592895 -12.534638 10.981576
5.3774686 -13.302905 9.4920158
4.3672152 -10.792873 6.1811199
5.7627845 -14.227563 6.2902622
10.40385 -25.660078 8.2287493
8.0192003 -19.758764 4.139976
11.296884 -27.806931 2.7874742
5.2912478 -13.162267 10.412991
4.2701063 -10.611414 6.8071942
4.8965073 -12.149713 6.1429553
5.8249197 -14.438881 5.5079889
11.020385 -27.290079 7.1891356
10.572044 -26.1667 4.0283837
10.590569 -26.186251 1.2331212
-0.0024440615 -0.083410963 8.1389637
0.45071566 -1.210126 8.2094707
4.0776482 -10.528583 36.141838
5.6251769 -14.375494 36.426594
11.005783 -27.839754 44.039913
3.813436 -9.6167145 12.462546
0.12844527 -0.46310073 8.1508064
0.26681608 -0.83896571 8.1679926
4.8115931 -12.410967 36.252033
6.4330349 -16.457071 36.599113
4.0006213 -10.150742 14.522198
3.9172871 -9.9139643 11.634287
4.3109665 -10.805356 11.512081
5.0169492 -12.555837 10.984715
4.2015862 -10.499289 7.49897
4.2998643 -10.734033 6.1393814
5.7199879 -14.264805 6.2977548
10.299921 -25.660624 8.2174692
7.9648318 -19.823103 4.1474371
11.199751 -27.846195 2.7874742
8.1579418 -20.531134 19.757952
5.2721715 -13.248257 10.465967
4.8927479 -12.263685 6.1912103
5.7744827 -14.459126 5.5079889
10.990012 -27.49086 7.2313385
10.436504 -26.093092 4.011807
10.484243 -26.185955 1.231509
-0.002735205 -0.083401926 8.1389637
0.4464888 -1.211692 8.2094707
4.0365977 -10.531601 36.103661
5.5756683 -14.396865 36.431198
7.2352648 -18.566742 36.585075
10.907513 -27.875383 44.035782
3.7447116 -9.5404587 12.347421
0.12690318 -0.46382499 8.1557989
0.26388589 -0.83989191 8.1679926
4.7688594 -12.429298 36.256725
6.3755498 -16.479425 36.599113
3.9629743 -10.159029 14.514217
3.8629003 -9.8770599 11.575484
4.412076 -11.171937 11.883563
5.0289226 -12.714433 11.107115
4.1756911 -10.541103 7.5181603
4.1986871 -10.58838 6.0489483
10.196115 -25.660757 8.2061882
10.306562 -25.912373 5.3859568
11.078533 -27.824972 2.781662
8.0165272 -20.382277 19.588352
4.1895957 -10.624924 6.797061
4.8515768 -12.28491 6.1933084
5.645854 -14.281578 5.434031
10.897561 -27.538095 7.2336831
10.381819 -26.221451 4.0256209
10.379889 -26.189882 1.2300982
-0.0030210654 -0.08334855 8.1339636
0.44225645 -1.2132431 8.2094707
4.0008698 -10.548418 36.113201
5.5260792 -14.418064 36.435802
7.2074685 -18.687973 36.773804
10.809126 -27.910664 44.031647
3.7125471 -9.5564594 12.351258
0.12528335 -0.46426514 8.1557989
0.26095253 -0.84080797 8.1679926
4.7254443 -12.44587 36.256725
6.3172083 -16.499546 36.594612
3.8247283 -9.8809996 11.564458
4.4769187 -11.452991 12.163927
5.0072131 -12.7899 11.15733
4.1251326 -10.520579 7.4934869
4.1617012 -10.602972 6.0489483
5.6863785 -14.472667 6.3708029
10.092434 -25.660479 8.1949081
10.219647 -25.957333 5.3878222
11.025163 -27.97467 2.792392
3.1789322 -8.1660147 7.8859172
10.399232 -26.67252 20.928904
4.1634531 -10.667595 6.8147936
4.8152742 -12.31868 6.2017007
