# .PCD v0.7 - Point Cloud Data file format
VERSION 0.7
FIELDS x y z
SIZE 4 4 4
TYPE F F F
COUNT 1 1 1
WIDTH 1499
HEIGHT 1
VIEWPOINT 0 0 0 1 0 0 0
POINTS 1499
DATA ascii
-0.42906034 1.5796266 4.5054703
-0.44026077 1.6033262 3.501689
-0.85874701 3.1087842 5.3456349
-0.85007328 3.0628707 4.2837954
-0.82884467 2.9763498 3.4276443
-1.0773666 3.8122211 3.2766647
-1.0339109 3.6511788 2.5725553
-1.0070059 3.5514607 2.0188739
-0.95873386 3.3767478 1.5065368
-0.9183588 3.2302752 1.0770628
-0.88497621 3.1087439 0.70513618
-0.84633768 2.9691048 0.37011778
-1.1123507 3.9650712 3.7489946
-1.0573298 3.7613983 2.9285336
-1.0143079 3.6035421 2.2854698
-0.99327469 3.5217714 1.7790061
-0.93832213 3.3225129 1.2907445
-0.90473831 3.1993508 0.89261818
-0.864268 3.0542195 0.53492385
-0.82664996 2.9174211 0.21599467
0.014183673 0.094832346 9.5689087
-0.35972995 1.4189411 9.3059864
-0.29851213 1.146422 5.7188859
-0.35295844 1.3192263 4.4129157
-0.40430203 1.4905838 3.6980464
-0.8475647 3.0830092 4.7686348
-0.84569627 3.0637226 3.8818867
-0.090372629 0.55351019 9.5384884
-0.062307782 0.30422103 2.8534546
-0.5772866 2.1963882 8.7810364
-0.42175838 1.5744468 4.4866991
-0.43523037 1.6069546 3.5061903
-0.84720451 3.1092467 5.3413692
-0.83858103 3.0629129 4.2798057
-0.81755221 2.9759555 3.423969
-0.85297036 3.0650902 3.2063072
-1.0776432 3.8646994 3.3174648
-1.0335366 3.6990645 2.6027114
-1.0089248 3.6061459 2.0466995
-0.9631986 3.4381063 1.5308862
-0.91873848 3.2750301 1.0897532
-0.88740355 3.1591065 0.7144624
-0.84675574 3.0103924 0.37369442
-1.1174258 4.0373015 3.8121791
-1.0614765 3.8273861 2.9756241
-1.019025 3.6693652 2.3234675
-0.99557561 3.5776858 1.8041826
-0.94066119 3.3758059 1.3088232
-0.90532166 3.2446256 0.90316904
-0.86292356 3.0906055 0.53975862
-0.82453239 2.9491575 0.21720386
0.014514613 0.094782263 9.5689087
-0.35496283 1.4209421 9.3109255
-0.29476145 1.1484433 5.7237811
-0.34759018 1.3175634 4.4033713
-0.39909643 1.4919859 3.6980464
-0.8360616 3.0832334 4.764502
-0.83836466 3.0790265 3.8972368
-0.088395298 0.55353701 9.5334969
-0.061245471 0.30443668 2.8534546
-0.56488901 2.1801374 8.7084455
-0.4175815 1.5809149 4.5007772
-0.43018001 1.6105672 3.5106914
-0.83566928 3.1096661 5.3371034
-0.82631344 3.0600033 4.2718253
-0.80627269 2.9755194 3.420294
-0.83848983 3.0542929 3.1922889
-1.082728 3.9359901 3.3739572
-1.0339514 3.7510233 2.6356089
-1.0116526 3.6651576 2.076844
-0.96601152 3.4950683 1.5533626
-0.91625762 3.3105798 1.0996233
-0.88949001 3.2095232 0.72378862
-0.84822744 3.0565174 0.37771809
-1.0915258 3.9979537 3.7722731
-1.0641087 3.8895493 3.0197713
-1.0232947 3.7352641 2.361465
-0.98788667 3.5986457 1.8125749
-0.93763304 3.4109418 1.3203278
-0.90559995 3.289943 0.91371989
-0.86133546 3.1270185 0.54459339
-0.83017349 3.0098109 0.21962222
0.014835479 0.09468852 9.5639086
-0.35000065 1.4221724 9.3109255
-0.29124966 1.1514395 5.7335715
-0.34261337 1.317324 4.3985991
-0.39388597 1.4933699 3.6980464
-0.82384014 3.0806959 4.7562361
-0.83259892 3.1005077 3.9202616
-0.086462565 0.55384219 9.5334969
-0.060182415 0.30464861 2.8534546
-0.55976266 2.1918392 8.7471609
-0.41206056 1.5823628 4.5007772
-0.42510974 1.6141642 3.5151925
-0.82480949 3.1125643 5.3371034
-0.8148517 3.0599575 4.2678356
-0.79588133 2.9783156 3.420294
-0.8287552 3.0606432 3.1957932
-1.0903857 4.0186319 3.4398646
-1.0318218 3.7949591 2.6630237
-1.0139805 3.7242312 2.1069882
-0.96721882 3.5476186 1.5739659
-0.92491031 3.3878014 1.1221839
-0.89123517 3.2599924 0.73311478
-0.85070229 3.1074922 0.38218892
-1.0673724 3.9556787 3.0668619
-1.025992 3.7970755 2.3969297
-0.99785554 3.6853073 1.852438
-0.94919956 3.5007885 1.3515544
-0.90557265 3.3353014 0.92427075
-0.85690671 3.1539001 0.54804677
-0.83146632 3.0560765 0.22143601
0.015165913 0.094636157 9.5639086
-0.34503421 1.4233855 9.3109255
-0.28772059 1.1544253 5.7433624
-0.33764255 1.3170661 4.3938274
-0.3876878 1.490954 3.6888416
-0.81236404 3.0808318 4.7521033
-0.82095081 3.1002967 3.9164243
-0.084528759 0.55414069 9.5334969
-0.059118625 0.30485684 2.8534546
-0.55456144 2.2035317 8.7858763
-0.9005878 3.5093963 9.9068441
-0.42056647 1.6198525 3.524195
-0.81393951 3.1154244 5.3371034
-0.80263519 3.0569541 4.2598553
-0.78461641 2.977797 3.4166188
-0.8171466 3.0600722 3.1922889
-1.093455 4.0863342 3.4932184
-1.0413104 3.8833518 2.7205946
-1.0159082 3.7833655 2.1371326
-0.96566337 3.5912652 1.5908233
-0.93054014 3.4558585 1.1419244
-0.8926385 3.3105118 0.742441
-0.85153317 3.1537127 0.38621262
-1.0701874 4.0218787 3.1139529
-1.02827 3.8589499 2.432394
-1.0025477 3.7545414 1.8839087
-0.95161134 3.5588233 1.3712766
-0.8989535 3.3572228 0.92896003
-0.86383599 3.2238388 0.55771631
-0.83374077 3.107213 0.22345132
0.015496163 0.09458264 9.5639086
-0.34006357 1.4245813 9.3109255
-0.28441674 1.1583893 5.7580476
-0.33267766 1.3167893 4.3890557
-0.81219304 3.1423063 6.0151377
-0.80160493 3.0836484 4.7521033
-0.80850452 3.096941 3.9087491
-0.082593933 0.55443233 9.5334969
-0.058054119 0.30506134 2.8534546
-0.5456568 2.2005742 8.7665186
-0.88664007 3.5058262 9.888073
-0.41598862 1.6255288 3.5331974
-0.80240935 3.115721 5.3328371
-0.79120457 3.0568199 4.2558651
-0.77421719 2.9805179 3.4166188
-0.80645996 3.0629058 3.1922889
-1.1030154 4.1804509 3.5685413
-1.0480565 3.9637706 2.7726822
-1.0174353 3.8425577 2.1672771
-0.96500313 3.639425 1.6095537
-0.9357062 3.5239952 1.1616648
-0.89369994 3.3610806 0.75176722
-0.853333 3.2047889 0.39068338
-0.84251755 3.2181258 3.0439887
-1.0756301 4.099874 3.1698728
-1.0268425 3.9083784 2.4602592
-1.0067686 3.8238523 1.9153794
-0.95724088 3.6306155 1.3959291
-0.90708202 3.4355338 0.94771707
-0.86775732 3.2842879 0.56600446
-0.8343904 3.1535718 0.2252651
0.015815884 0.094485588 9.5589094
-0.33491123 1.4250032 9.3059864
-0.28084964 1.1613545 5.7678385
-0.32807919 1.3179426 4.3890557
-0.80003709 3.1404803 6.0063596
-0.79013771 3.0837016 4.7479701
-0.79050058 3.0718071 3.8742115
-0.080658101 0.5547173 9.5334969
-0.056988902 0.30526212 2.8534546
-0.53677946 2.1975808 8.7471609
-0.8710596 3.4955039 9.8505306
-0.41084412 1.6290818 3.5376985
-0.79088706 3.1159749 5.3285713
-0.77978468 3.0566435 4.2518754
-0.76380855 2.9832022 3.4166188
-0.79576349 3.0657024 3.1922889
-1.1089923 4.263382 3.634449
-1.0531988 4.0402374 2.8220289
-1.0174423 3.8975201 2.1951027
-0.97691548 3.7369609 1.6488874
-0.93797785 3.5829287 1.1785853
-0.89441907 3.4116967 0.76109338
-0.85352188 3.2510986 0.39470711
-0.83034611 3.2174315 3.040663
-1.0805409 4.1779556 3.2257926
-1.0337286 3.9912281 2.5083895
-1.0093774 3.888845 1.9447522
-0.95881689 3.6887784 1.4156513
-0.90855265 3.490422 0.9606126
-0.87126678 3.3448026 0.57429266
-0.83598739 3.204807 0.22728041
0.016145604 0.094429806 9.5589094
-0.32993498 1.4261636 9.3059864
-0.2775009 1.1652995 5.7825241
-0.3234767 1.3190796 4.3890557
-0.78790373 3.138608 5.9975815
-0.77799106 3.0809844 4.7397046
-0.77347004 3.0496924 3.8435116
-0.078760967 0.5552814 9.5384884
-0.055828869 0.30493453 2.8484831
-0.52734214 2.1921086 8.7181244
-0.85885268 3.4985232 9.8505306
-0.40725428 1.6389569 3.5557036
-0.77937269 3.1161866 5.3243051
-0.76764113 3.0535021 4.2438951
-0.75256127 2.9825633 3.4129436
-0.78505737 3.0684614 3.1922889
-1.1134369 4.3426342 3.6972182
-1.0588605 4.1208363 2.8741164
-1.0181819 3.9568188 2.2252471
-0.98121744 3.8076868 1.6769828
-0.94104779 3.646564 1.1969156
-0.8960247 3.467114 0.77135223
-0.85464555 3.3022695 0.39917791
-0.81358802 3.1985991 3.0207102
-1.0859181 4.2600369 3.284656
-1.0368497 4.0616417 2.5489202
-1.0115446 3.9539015 1.974125
-0.95999837 3.7469959 1.4353734
-0.90602696 3.5312369 0.96999115
-0.87436432 3.4053814 0.5825808
-0.83474851 3.2464142 0.22889265
0.016475126 0.094372869 9.5589094
-0.32478246 1.4265488 9.3010464
-0.27412805 1.1692352 5.7972097
-0.31887028 1.3202008 4.3890557
-0.77694321 3.1413391 5.9975815
-0.76655239 3.0809505 4.7355714
-0.76048875 3.043045 3.8319993
-0.076822199 0.55555296 9.5384884
-0.054764111 0.30512753 2.8484831
-0.51997662 2.1951592 8.7229643
-0.84744626 3.5048547 9.8599167
-0.40101334 1.6382539 3.5512023
-0.76786661 3.1163559 5.3200393
-0.7562533 3.0532382 4.2399049
-0.7421456 2.985172 3.4129436
-0.77434164 3.071183 3.1922889
-1.1221088 4.4408374 3.7756796
-1.0639721 4.2015238 2.9262044
-1.0163419 4.0075812 2.2507539
-0.98389626 3.8739948 1.7032052
-0.94368488 3.7102644 1.2152461
-0.8899793 3.4940219 0.77601534
-0.84926772 3.32936 0.40141329
-0.80241787 3.2014198 3.0207102
-1.0927043 4.3500466 3.3494053
-1.0384403 4.1279449 2.5869181
-1.0132695 4.0190196 2.0034976
-0.96078485 3.8052659 1.4550955
-0.91395104 3.6144876 0.98992056
-0.87583452 3.4612212 0.59017825
-0.83813804 3.3074224 0.23131102
0.016804449 0.094314784 9.5589094
-0.31963125 1.4269156 9.2961073
-0.27095976 1.1741538 5.8167906
-0.31425998 1.3213059 4.3890557
-0.76313907 3.1323974 5.975636
-0.7544536 3.0781412 4.7273054
-0.74986196 3.0456812 3.8319993
-0.074882485 0.55581772 9.5384884
-0.053698685 0.30531687 2.8484831
-0.51288152 2.199409 8.7326431
-0.83560652 3.5094702 9.8646097
-0.39529231 1.6396438 3.5512023
-0.75636882 3.116483 5.3157735
-0.74416262 3.0500045 4.231925
-0.73172092 2.9877443 3.4129436
-0.7636165 3.0738673 3.1922889
-1.119765 4.4976053 3.819618
-1.0695454 4.2863531 2.9810338
-1.0130857 4.054081 2.2739418
-0.9861238 3.9403663 1.7294276
-0.94472229 3.7693739 1.2321664
-0.90289062 3.5971611 0.79560035
-0.85585153 3.4047501 0.4081195
-0.79571319 3.2223256 3.0373375
-1.0940202 4.420536 3.3994391
-1.0468395 4.223597 2.6426477
-1.013458 4.079793 2.0307724
-0.9600361 3.859004 1.4731741
-0.91072911 3.6553874 0.99929905
-0.87812346 3.5219169 0.59846646
-0.83990145 3.3636463 0.23352787
0.017144497 0.094297789 9.5639086
-0.31448147 1.4272637 9.2911682
-0.26776052 1.1790644 5.8363714
-0.30964583 1.3223947 4.3890557
-0.84879774 3.5705156 8.7055922
-0.74304402 3.0780208 4.7231727
-0.73695999 3.0389352 3.8204868
-0.072941862 0.55607575 9.5384884
-0.0526326 0.30550244 2.8484831
-0.50520104 2.2011859 8.7326431
-0.82374495 3.514046 9.8693027
-0.38604793 1.6261867 3.5196936
-0.7442733 3.1140308 5.3072414
-0.73210371 3.0467238 4.2239451
-0.72128725 2.9902802 3.4129436
-0.75288206 3.076514 3.1922889
-1.1022044 4.4939265 3.8133409
-1.0755372 4.3753319 3.0386045
-1.0264599 4.1694288 2.3342307
-0.98124141 3.979794 1.7444118
-0.94420838 3.8238776 1.2476767
-0.89150792 3.6050594 0.79653299
-0.85832763 3.465724 0.41348442
-0.7862252 3.2323396 3.0439887
-1.1015582 4.5185761 3.4700749
-1.0351573 4.239789 2.6502476
-1.0153919 4.1494327 2.0622432
-0.96004784 3.9173691 1.4928963
-0.92229444 3.7576749 1.0239178
-0.88118041 3.5874794 0.6074453
-0.84247565 3.424773 0.23594624
0.017473554 0.094237365 9.5639086
-0.30949748 1.4283528 9.2911682
-0.26430851 1.1829731 5.8510571
-0.30536297 1.3249222 4.3938274
-0.8385548 3.5829685 8.7286062
-0.73099363 3.0751197 4.7149067
-0.73974752 3.0976057 3.8895617
-0.071000353 0.55632699 9.5384884
-0.051565878 0.3056843 2.8484831
-0.81147361 3.5168998 9.8693027
-0.37690234 1.6126856 3.4881854
-0.73220408 3.1115324 5.2987099
-0.72077048 3.0463285 4.2199554
-0.71084481 2.99278 3.4129436
-0.74046725 3.0721893 3.1852796
-1.0799367 4.46034 3.0934339
-1.0296458 4.2461724 2.3736503
-0.990318 4.0777993 1.7837455
-0.94559276 3.8877451 1.2660072
-0.90565771 3.7179213 0.81798321
-0.85920799 3.5219178 0.41840231
-0.77754658 3.2459574 3.0539651
-1.0999327 4.5813489 3.5142226
-1.0576401 4.3984566 2.7439752
-1.0072815 4.1794248 2.0748315
-0.96631134 4.0033226 1.5224793
-0.92516166 3.8270152 1.0403302
-0.88262564 3.6482918 0.61573344
-0.8434568 3.4811029 0.23816307
0.017802397 0.094175801 9.5639086
-0.30434802 1.4286644 9.2862291
-0.26061416 1.1858777 5.8608475
-0.30073628 1.3259801 4.3938274
-0.82604283 3.5858738 8.7286062
-0.41297904 1.7755529 3.4080248
-0.71961391 3.074913 4.7107739
-0.72819692 3.097049 3.8857243
-0.069023289 0.55628479 9.5334969
-0.050498527 0.30586243 2.8484831
-0.54350144 2.4463935 9.6860094
-0.79957443 3.5213938 9.8739948
-0.36834359 1.601262 3.4611781
-0.72016144 3.1089878 5.2901778
-0.70876551 3.0429566 4.2119751
-0.70039374 2.9952431 3.4129436
-0.72891539 3.0712852 3.1817751
-0.81680304 3.4336731 2.9282963
-1.0847254 4.5494986 3.1510046
-1.0343658 4.3316054 2.4177074
-1.0051919 4.2029681 1.8343176
-0.9387207 3.919013 1.2744675
-0.90986282 3.7927108 0.83197254
-0.86203307 3.5878439 0.42421433
-0.76706839 3.2522857 3.0572906
-1.0876534 4.6008945 3.5259953
-1.0611501 4.481823 2.7921054
-1.0125974 4.2668171 2.1146946
-0.96980238 4.0801783 1.5487754
-0.92868155 3.9011488 1.057915
-0.88365692 3.7091577 0.62402159
-0.84521431 3.54234 0.24058144
0.018131021 0.094113082 9.5639086
-0.29920018 1.4289577 9.2812901
-0.25711754 1.189766 5.8755331
-0.29610589 1.3270217 4.3938274
-0.81352073 3.5887353 8.7286062
-0.40624443 1.7746491 3.4036357
-0.70761293 3.0719216 4.702508
-0.71882701 3.1058173 3.8933992
-0.067047387 0.55623555 9.5285044
-0.04943056 0.30603683 2.8484831
-0.54112732 2.4765205 9.7973156
-0.78727758 3.5241635 9.8739948
-0.35890833 1.5855516 3.4251683
-0.70872509 3.1089399 5.285912
-0.69746602 3.042475 4.2079849
-0.68917382 2.9943655 3.4092684
-0.71575618 3.0633926 3.1712615
-0.80481237 3.4365034 2.9282963
-1.0860379 4.6265316 3.2003512
-1.0395155 4.4214339 2.4640834
-0.99901509 4.2425518 1.8493018
-0.94925976 4.0249834 1.3054882
-0.91355669 3.8675742 0.84596181
-0.85638285 3.6199083 0.42689681
-0.75655556 3.2585809 3.0606163
-1.0725029 4.6086001 3.5289383
-1.0709406 4.594655 2.8579681
-1.0255753 4.3896527 2.1713419
-0.97492027 4.1663022 1.5783587
-0.93169481 3.9753525 1.0754998
-0.88427389 3.7700744 0.63230979
-0.8465544 3.6036315 0.24299981
0.018459428 0.094049223 9.5639086
-0.29421037 1.4299934 9.2812901
-0.25317428 1.1916523 5.8804283
-0.29179168 1.3295053 4.3985991
-0.80098879 3.5915532 8.7286062
-0.40004727 1.7760564 3.4036357
-0.69626361 3.0716283 4.6983747
-0.70299906 3.0864313 3.8665369
-0.065105356 0.55646622 9.5285044
-0.048361994 0.30620751 2.8484831
-0.53617406 2.4955995 9.8650675
-0.77497119 3.5268903 9.8739948
-0.35147941 1.5782952 3.4071634
-0.69672716 3.1063054 5.27738
-0.68551564 3.039012 4.2000051
-0.67871726 2.996753 3.4092684
-0.70346022 3.0589216 3.1642525
-0.79805738 3.4620492 2.9471271
-1.0943563 4.7362208 3.2716293
-1.0390568 4.4897718 2.4988656
-1.0103698 4.3589177 1.8961276
-0.95473075 4.1123824 1.3308687
-0.92452651 3.976001 0.86647946
-0.8685922 3.7295794 0.43673256
-0.74683964 3.2684815 3.0672669
-1.0761006 4.6908021 2.9136982
-1.0305879 4.4816675 2.2133029
-0.97838873 4.2479086 1.6062983
-0.92436796 4.0069976 1.0825336
-0.88336211 3.8262146 0.63990724
-0.84747666 3.6649745 0.24541819
0.018787609 0.093984209 9.5639086
-0.289217 1.4310117 9.2812901
-0.24922097 1.1935257 5.885324
-0.28746375 1.3319749 4.4033713
-0.78886551 3.5962355 8.7332087
-0.3933273 1.7751036 3.3992465
-0.68492502 3.0712938 4.694242
-0.68591356 3.0607171 3.8319993
-0.063162528 0.5566901 9.5285044
-0.047292832 0.30637446 2.8484831
-0.53005576 2.5097544 9.9134617
-0.76265526 3.5295739 9.8739948
-0.34131187 1.5582467 3.3621514
-0.68531805 3.1061714 5.2731137
-0.6742506 3.038445 4.1960149
-0.66825253 2.999104 3.4092684
-0.69120419 3.0544019 3.1572433
-0.79027265 3.4837928 2.9628191
-1.1009946 4.8419461 3.3401661
-1.0479701 4.6013517 2.5568354
-1.0198927 4.4708934 1.9410803
-0.96174008 4.2092218 1.3590695
-0.91612124 4.0031466 0.87114257
-0.87337029 3.8102541 0.4438858
-0.73624492 3.2747114 3.0705926
-0.97721094 4.3360143 3.3199739
-1.0815512 4.7912445 2.9719613
-1.0369738 4.5826225 2.2594602
-0.98025531 4.3249841 1.6325945
-0.93727624 4.1287003 1.1118416
-0.87987494 3.8727357 0.64612335
-0.85019803 3.7361102 0.24823962
0.019103749 0.093876064 9.5589094
-0.28422007 1.4320126 9.2812901
-0.24546203 1.1963832 5.8951139
-0.28312215 1.3344305 4.4081435
-0.77630752 3.5989671 8.7332087
-0.38559926 1.7694455 3.3860793
-0.67359716 3.0709171 4.6901093
-0.66832626 3.0317914 3.7936239
-0.061218932 0.55690718 9.5285044
-0.046223097 0.30653769 2.8484831
-0.22281456 1.0728271 4.2561746
-0.75033015 3.5322146 9.8739948
-0.33357957 1.5487878 3.3396454
-0.67391843 3.1059964 5.2688484
-0.6629979 3.0378358 4.1920247
-0.65777963 3.0014184 3.4092684
-0.68053812 3.0567961 3.1572433
-0.77810717 3.4865301 2.9628191
-1.1059949 4.9436932 3.405961
-1.0541798 4.7044015 2.6101677
-1.0235698 4.5603709 1.9766681
-0.96598017 4.2967973 1.38445
-0.91940767 4.0829959 0.88606447
-0.87430853 3.8764327 0.44969785
-0.72642207 3.2845531 3.0772438
-0.8623364 3.8895328 2.9844534
-1.0872478 4.8959894 3.0327575
-1.0416811 4.6792469 2.3035192
-0.98467851 4.4159498 1.6638212
-0.93981057 4.2078476 1.1305987
-0.88579601 3.9627745 0.65855563
-0.85352433 3.8121836 0.25126258
0.019431323 0.093808807 9.5589094
-0.27921966 1.4329959 9.2812901
-0.24148528 1.1982309 5.9000092
-0.27937585 1.3397945 4.4224591
-0.76374006 3.601655 8.7332087
-0.38092524 1.7778063 3.3992465
-0.66228032 3.0704989 4.685976
-0.65570229 3.0247085 3.7821116
-0.059274588 0.55711752 9.5285044
-0.045228552 0.30722481 2.8534546
-0.2195704 1.0760617 4.2658539
-0.73799586 3.5348122 9.8739948
-0.6625284 3.1057792 5.2645822
-0.65175778 3.0371854 4.188035
-0.64729869 3.003696 3.4092684
-0.66986376 3.0591528 3.1572433
-0.76676667 3.493027 2.9659576
-1.1147914 5.0659518 3.4854636
-1.0444264 4.7383351 2.6263995
-1.0246354 4.640873 2.0085094
-0.96962047 4.3844533 1.4098306
-0.90514976 4.0861802 0.88606447
-0.87371635 3.9378018 0.45506278
-0.71495241 3.2870686 3.0772438
-0.81258923 3.7266514 2.8608408
-1.0913067 4.9966202 3.0910206
-1.0437846 4.7670903 2.3433821
-0.98139715 4.4747109 1.6835433
-0.9449321 4.3013034 1.1528727
-0.89322549 4.062573 0.67236918
-0.85740423 3.893204 0.25448707
0.019758657 0.093740411 9.5589094
-0.27407014 1.4331986 9.276351
-0.23749864 1.2000655 5.9049048
-0.27559552 1.3451487 4.4367752
-0.7511633 3.6042991 8.7332087
-0.65039104 3.0672865 4.6777105
-0.64380401 3.0207095 3.7744367
-0.057358202 0.55760831 9.5334969
-0.044155862 0.3073808 2.8534546
-0.21507272 1.0731241 4.2513356
-0.72565258 3.5373666 9.8739948
-0.65061283 3.1029675 5.2560501
-0.64053011 3.0364935 4.1840448
-0.63680995 3.0059371 3.4092684
-0.65918124 3.0614724 3.1572433
-0.75539029 3.4994872 2.9690962
-1.1156726 5.1556358 3.5430343
-1.0672928 4.9237814 2.7237892
-1.0143315 4.6716037 2.0197477
-0.97266042 4.4721861 1.4352112
-0.91493022 4.199708 0.90751481
-0.87164462 3.9943476 0.45998064
-0.69878948 3.2676368 3.0572906
-0.79703397 3.7176087 2.8520114
-1.0955808 5.1015525 3.1518168
-1.0462426 4.8594422 2.3853433
-0.98767239 4.5796618 1.7197005
-0.9473598 4.3853431 1.1728021
-0.90101546 4.1673107 0.6868735
-0.85967124 3.9694142 0.25751004
0.02008575 0.093670867 9.5589094
-0.26906568 1.4341465 9.276351
-0.23350213 1.2018868 5.9098001
-0.27178127 1.3504928 4.4510913
-0.73896909 3.6088128 8.7378101
-0.63910615 3.066783 4.6735773
-0.63128453 3.0135267 3.762924
-0.055411436 0.55780512 9.5334969
-0.043082632 0.30753306 2.8534546
-0.21156792 1.0751015 4.2561746
-0.71330041 3.5398781 9.8739948
-0.63925135 3.1026654 5.2517843
-0.62992686 3.0387108 4.1840448
-0.62631339 3.0081418 3.4092684
-0.75609702 3.5630231 3.0193114
-1.1124607 5.2290277 3.5896394
-1.0741042 5.040122 2.7840779
-0.97610247 4.5646825 1.4620018
-0.92187095 4.3037453 0.92709976
-0.86605453 4.0363193 0.4635573
-0.68430698 3.2554405 3.0439887
-0.78738618 3.7361889 2.8637841
-1.0991354 5.206574 3.2126131
-1.046189 4.9429874 2.4231081
-0.99420607 4.6893301 1.7575012
-0.94820231 4.4646964 1.1915591
-0.90911448 4.2769957 0.70206845
-0.86349732 4.0554595 0.26093605
0.020412602 0.093600184 9.5589094
-0.26405793 1.4350771 9.276351
-0.22949576 1.2036946 5.9146948
-0.26793301 1.3558266 4.4654074
-0.72598243 3.6094553 8.7332087
-0.62783277 3.0662382 4.6694441
-0.62399226 3.031409 3.7821116
-0.053463995 0.55799514 9.5334969
-0.042008881 0.30768159 2.8534546
-0.20900443 1.0820047 4.2803721
-0.70093954 3.5423465 9.8739948
-0.62738252 3.0997655 5.2432523
-0.61871475 3.0379388 4.1800547
-0.61648858 3.0136311 3.4129436
-0.74365515 3.5656404 3.0193114
-1.021458 4.8849807 3.3566146
-1.0810244 5.1609054 2.8466854
-1.0340523 4.928113 2.1227646
-0.97792375 4.6525631 1.4873824
-0.93416882 4.4367218 0.95228052
-0.87868106 4.1660094 0.47518134
-0.66991824 3.2431827 3.0306866
-0.78499538 3.7903688 2.9020452
-1.1063483 5.3327856 3.2860754
-1.0566553 5.0799117 2.4860497
-1.0057653 4.8268356 1.805163
-0.94850224 4.5441084 1.2103162
-0.91240752 4.3673959 0.71450067
-0.8636629 4.1269093 0.2637575
0.020739203 0.09352836 9.5589094
-0.25904697 1.43599 9.276351
-0.22547963 1.2054894 5.9195905
-0.265187 1.3670114 4.4988108
-0.71224326 3.6062174 8.7194004
-0.61657107 3.0656524 4.6653113
-0.61404204 3.0367105 3.7859492
-0.051515903 0.55817837 9.5334969
-0.040934615 0.30782634 2.8534546
-0.68889922 3.5464656 9.8786879
-0.30734065 1.5586455 3.3486478
-0.61605018 3.0993783 5.2389865
-0.60751557 3.0371251 4.1760645
-0.60663301 3.0190885 3.4166188
-0.63137031 3.0891716 3.1782708
-0.74292415 3.625411 3.0663881
-0.90762651 4.4174905 3.0413461
-1.0871141 5.2817965 2.9092929
-1.0224605 4.9589348 2.1340027
-0.98399472 4.7639999 1.5198131
-0.93161505 4.5024905 0.96440458
-0.88030523 4.2470727 0.48233458
-0.65636593 3.234524 3.0207102
-0.78868246 3.8762643 2.9638515
-1.1101104 5.4464383 3.351938
-1.0534561 5.1547151 2.5196185
-1.0125879 4.945972 1.8462507
-0.94630611 4.6140532 1.2267287
-0.90512288 4.4093618 0.72002614
-0.8593148 4.1788344 0.26577282
0.021065552 0.093455397 9.5589094
-0.25403285 1.4368855 9.276351
-0.22145377 1.2072706 5.9244857
-0.25846109 1.3576641 4.4654074
-0.69890726 3.6048458 8.7101955
-0.60532111 3.0650253 4.6611786
-0.60468662 3.0451231 3.7936239
-0.049567182 0.55835479 9.5334969
-0.03985985 0.30796736 2.8534546
-0.46513635 2.5034182 9.8408709
-0.67651552 3.5488486 9.8786879
-0.3023116 1.561846 3.3531489
-0.60472816 3.0989504 5.2347207
-0.59632969 3.0362704 4.1720748
-0.59543461 3.0178616 3.4129436
-0.61847764 3.0808671 3.167757
-0.72258443 3.5898242 3.0350039
-1.0914948 5.3984494 2.9695818
-1.0373545 5.1215014 2.199559
-0.97594458 4.8097172 1.5325035
-0.92763484 4.5634809 0.97559601
-0.89131105 4.3769951 0.49395865
-0.64434159 3.2331338 3.0173848
-0.76405877 3.8235025 2.9226472
-1.1147844 5.568634 3.4228671
-1.0676112 5.318553 2.5951486
-1.0185908 5.0652142 1.8873384
-0.95707166 4.7507453 1.2595536
-0.90049285 4.4658923 0.72762364
-0.85263628 4.2209845 0.26738507
0.021404477 0.093422987 9.5639086
-0.24901563 1.4377635 9.276351
-0.2175982 1.2100407 5.9342756
-0.25317276 1.3556231 4.455863
-0.59408295 3.064357 4.6570454
-0.59466672 3.0503614 3.7974615
-0.04761786 0.55852443 9.5334969
-0.038784601 0.3081046 2.8534546
-0.45684528 2.5074997 9.8505497
-0.66412359 3.5511887 9.8786879
-0.29563975 1.5564756 3.3396454
-0.5929262 3.0959194 5.2261887
-0.58515722 3.0353746 4.1680846
-0.58747482 3.0332351 3.4276443
-0.60909897 3.0900054 3.1747661
-0.69948351 3.5388665 2.9910653
-1.098525 5.5325766 3.0391459
-1.0447948 5.2524033 2.2520039
-0.97133708 4.8742537 1.5508338
-0.92131662 4.6148629 0.98492229
-0.88481694 4.4240294 0.49798238
-0.63233501 3.2316988 3.0140591
-0.74526036 3.7983816 2.9020452
-1.1244385 5.7205367 3.5115283
-1.0718583 5.4380207 2.6496978
-1.021029 5.1706586 1.9234957
-0.95840472 4.8446536 1.2818277
-0.8964408 4.5273018 0.73591179
-0.85150641 4.2925415 0.27020648
0.021730455 0.093347706 9.5639086
-0.24399538 1.438624 9.276351
-0.21354948 1.2117956 5.9391713
-0.24736442 1.3506253 4.4367752
-0.3249366 1.7206866 3.2763524
-0.58285683 3.0636477 4.6529126
-0.58461761 3.0555668 3.8012991
-0.0456453 0.55839938 9.5285044
-0.037708879 0.30823812 2.8534546
-0.44875228 2.5127914 9.8650675
-0.65172362 3.5534852 9.8786879
-0.28621897 1.5360966 3.2946329
-0.58211577 3.0979702 5.2261887
-0.57399821 3.0344381 4.1640949
-0.57435161 3.021945 3.4129436
-0.59492201 3.0746059 3.1572433
-0.67526472 3.4801495 2.94085
-1.0953089 5.618989 3.0832031
-1.046002 5.3561172 2.2932105
-0.99576533 5.0894661 1.6142853
-0.92504454 4.7192822 1.0045073
-0.88472259 4.5052772 0.50513566
-0.62105042 3.2338862 3.0140591
-0.72129643 3.7453926 2.8608408
-1.1379451 5.8979697 3.6153886
-1.072698 5.5442147 2.6979532
-1.0290333 5.3086319 1.9711574
-0.96094692 4.9481702 1.3064463
-0.90614444 4.6616526 0.75456011
-0.84224737 4.3249106 0.27141568
0.022056166 0.093271278 9.5639086
-0.23897217 1.439467 9.276351
-0.20949121 1.2135372 5.9440665
-0.24159408 1.3456035 4.4176869
-0.66498816 3.633106 8.7608232
-0.3189283 1.7218103 3.2763524
-0.57164299 3.0628972 4.6487794
-0.57513064 3.063889 3.808974
-0.043695845 0.55855531 9.5285044
-0.036632698 0.30836788 2.8534546
-0.44106099 2.5205336 9.8892651
-0.63931566 3.5557384 9.8786879
-0.28124636 1.5392278 3.2991343
-0.5708257 3.0974183 5.2219229
-0.56340259 3.0364234 4.1640949
-0.58485121 3.0801675 3.160748
-0.6602006 3.467191 2.9282963
-0.79174769 4.1463332 2.8521848
-1.1098144 5.8011651 3.1782737
-1.0491158 5.4735622 2.3400364
-1.0033234 5.2248182 1.6537662
-0.93640673 4.8671956 1.0324858
-0.88407147 4.5865769 0.51228887
-0.60975826 3.2360346 3.0140591
-0.69470984 3.6763966 2.8078642
-1.1438115 6.0416794 3.6989834
-1.0880469 5.7307396 2.7839732
-1.0396161 5.4652781 2.0253932
-0.95367819 5.0040159 1.3193418
-0.90842521 4.762074 0.76837379
-0.79150689 4.1413541 0.2637575
0.022381609 0.093193725 9.5639086
-0.23394603 1.4402924 9.276351
-0.20542334 1.215265 5.9489617
-0.23586184 1.3405579 4.3985991
-0.65471685 3.6488657 8.7930412
-0.31163263 1.7158436 3.263185
-0.56094801 3.0648739 4.6487794
-0.56037039 3.0438123 3.7821116
-0.041745856 0.55870444 9.5285044
-0.035556071 0.30849388 2.8534546
-0.43183556 2.5195799 9.8795862
-0.62689996 3.5579484 9.8786879
-0.27548811 1.5380573 3.2946329
-0.56001019 3.0993922 5.2219229
-0.55226076 3.0354068 4.1601048
-0.57344288 3.0786843 3.1572433
-0.64809376 3.4694746 2.9282963
-0.78419852 4.1860609 2.876858
-1.1116208 5.9225554 3.2408814
-1.0282896 5.4680786 2.3362904
-0.99129665 5.2612882 1.6636366
-0.9385466 4.9718018 1.0520709
-0.87638521 4.6336741 0.5163126
-0.59845865 3.2381432 3.0140591
-0.68776536 3.7105939 2.8314095
-1.0904726 5.8549709 2.8406208
-1.0317934 5.5292206 2.0467589
-0.97282982 5.2032061 1.3674067
-0.91365951 4.8820376 0.78495008
-0.81571645 4.3503265 0.2722218
0.022706779 0.093115024 9.5639086
-0.22891705 1.4411002 9.276351
-0.20134597 1.2169791 5.9538565
-0.23016776 1.3354889 4.3795114
-0.64129949 3.6472805 8.7838354
-0.30522177 1.714563 3.2587962
-0.54974931 3.0640438 4.6446466
-0.54803437 3.0362868 3.7705991
-0.039775729 0.55855876 9.5235128
-0.034479011 0.3086161 2.8534546
-0.42345378 2.5235512 9.8892651
-0.61447656 3.5601151 9.8786879
-0.26786068 1.5261444 3.2676258
-0.54964256 3.1038961 5.2261887
-0.5416618 3.0373158 4.1601048
-0.56269276 3.0806673 3.1572433
-0.63527775 3.4678869 2.9251578
-0.77411509 4.213449 2.893307
-1.1206124 6.0875945 3.3266771
-1.0066736 5.4579573 2.3306713
-0.94265032 5.0909715 1.0744538
-0.88473171 4.768909 0.52838379
-0.58715183 3.2402124 3.0140591
-0.67697692 3.7249024 2.8402388
-1.2251669 6.7280874 4.1042924
-1.0724744 5.8721356 2.8469148
-1.054137 5.7603951 2.1272907
-0.96167409 5.2448168 1.3767853
-0.91359729 4.9777408 0.79807293
-0.84570485 4.598825 0.28229836
0.023045238 0.093076676 9.5689087
-0.22388528 1.4418905 9.276351
-0.19725914 1.2186798 5.9587522
-0.22451197 1.3303964 4.3604236
-0.66967303 3.8882368 9.3545485
-0.53856325 3.0631723 4.6405139
-0.5351994 3.0255563 3.7552493
-0.037825752 0.55869418 9.5235128
-0.033401527 0.30873457 2.8534546
-0.41504943 2.5274947 9.8989439
-0.60204566 3.5622382 9.8786879
-0.26437518 1.5377977 3.2901318
-0.53746748 3.0980868 5.2133913
-0.53105628 3.0391884 4.1601048
-0.55193585 3.0826125 3.1572433
-0.62316877 3.4700832 2.9251578
-0.75940263 4.2161255 2.893307
-0.98019123 5.4203811 2.3138139
-1.0323702 5.697619 1.7919495
-0.93979084 5.1763959 1.0903083
-0.88679671 4.8748593 0.53777242
-0.57583773 3.2422421 3.0140591
-0.66397047 3.7272429 2.8402388
-1.2062187 6.7577858 4.1194911
-1.0390258 5.7919269 2.1371517
-0.96141851 5.3486052 1.4014039
-0.92515498 5.1417346 0.82086539
-0.86333084 4.7885823 0.28995651
0.023369996 0.092995666 9.5689087
-0.21873446 1.4418949 9.2714119
-0.19300395 1.2193609 5.9587522
-0.21889456 1.325281 4.3413353
-0.67006284 3.9733889 9.5524569
-0.52738994 3.0622604 4.6363807
-0.52354056 3.0210896 3.7475741
-0.035892937 0.55911094 9.5285044
-0.03232364 0.30884928 2.8534546
-0.4066228 2.5314102 9.9086227
-0.58960748 3.5643182 9.8786879
-0.25900564 1.5387112 3.2901318
-0.52927029 3.1153712 5.2389865
-0.51993608 3.0380533 4.1561146
-0.54117209 3.0845203 3.1572433
-0.61105204 3.4722373 2.9251578
-0.73959321 4.1899257 2.8741164
-0.98781908 5.5849032 3.0553775
-0.95641059 5.3963809 2.3025758
-1.0183469 5.7342496 1.8018197
-0.94667357 5.3198962 1.1173543
-0.88550997 4.9661722 0.54581982
-0.56451672 3.2442327 3.0140591
-0.65165085 3.7335198 2.8431821
-1.0437496 5.9678874 3.6457868
-0.94362229 5.3788109 2.611933
-1.0286126 5.8513293 2.1568739
-0.98911875 5.6152096 1.4658815
-0.90720141 5.1449323 0.82086539
-0.86573374 4.8998003 0.2943902
0.023694467 0.092913523 9.5689087
-0.21369998 1.4426496 9.2714119
-0.18921265 1.2230459 5.9734378
-0.21355347 1.3216162 4.3270197
-0.67336512 4.0797935 9.8009939
-0.51622963 3.0613077 4.6322474
-0.51138324 3.0134184 3.7360616
-0.033941057 0.55923283 9.5285044
-0.031245356 0.30896023 2.8534546
-0.39856365 2.5377815 9.9279804
-0.57716209 3.5663545 9.8786879
-0.25434029 1.5439019 3.2991343
-0.51924789 3.1223452 5.2475185
-0.50883031 3.0368781 4.1521249
-0.53040189 3.0863907 3.1572433
-0.5982669 3.4705141 2.9220195
-0.71427661 4.1306777 2.8329947
-0.97966242 5.653789 3.0901597
-0.93360257 5.3768487 2.2932105
-1.0139478 5.8275652 1.8286104
-0.93822259 5.3812399 1.1285458
-0.88016826 5.0379124 0.55207896
-0.5531888 3.2461834 3.0140591
-0.63861454 3.7357719 2.8431821
-1.0265505 5.9927392 3.6584527
-0.92407244 5.3775992 2.6098349
-1.0081815 5.8548841 2.1568739
-1.0017451 5.8054323 1.5116018
-0.91199476 5.2798228 0.83951378
-0.86311036 4.9864793 0.29781622
0.024018653 0.092830248 9.5689087
-0.20855191 1.4426178 9.2664719
-0.18554993 1.2277265 5.9930191
-0.20893888 1.3223535 4.3270197
-0.65756309 4.0724759 9.7779808
-0.50508237 3.0603144 4.6281147
-0.49823552 2.9993756 3.7168739
-0.031988766 0.55934793 9.5285044
-0.030166695 0.30906743 2.8534546
-0.39008385 2.541642 9.9376593
-0.56524891 3.5717561 9.888073
-0.2492957 1.5469295 3.3036354
-0.49773908 3.0356622 4.1481347
-0.51962507 3.0882235 3.1572433
-0.58614886 3.4725811 2.9220195
-0.68519437 4.0465684 2.7754238
-0.95992094 5.6571741 3.0901597
-0.91482818 5.3800745 2.2932105
-0.99198806 5.8216109 1.8257903
-0.96986866 5.6798544 1.1854355
-0.89365476 5.2225733 0.56862086
-0.54185414 3.2480946 3.0140591
-0.62557036 3.7379782 2.8431821
-0.99992192 5.9622746 3.6381872
-0.90529543 5.3807921 2.6098349
-0.98616767 5.8490543 2.1535869
-0.99524015 5.8903689 1.5315312
-0.92328978 5.4587517 0.86437827
-0.86490148 5.1027527 0.30245143
0.024342544 0.092745841 9.5689087
-0.20351498 1.443337 9.2664719
-0.18081804 1.2253445 5.978333
-0.20500451 1.3275005 4.3413353
-0.64090663 4.0593081 9.7411604
-0.27222502 1.7007093 3.2236834
-0.49394837 3.0592811 4.623982
-0.48673451 2.9947691 3.7091992
-0.030036081 0.55945617 9.5285044
-0.029087665 0.30917084 2.8534546
-0.38120946 2.5429881 9.9376593
-0.55277771 3.5737073 9.888073
-0.24423306 1.5499407 3.3081367
-0.48713961 3.0373812 4.1481347
-0.50884199 3.0900185 3.1572433
-0.57338935 3.4707656 2.9188809
-0.67311603 4.0613108 2.7836483
-0.93436164 5.6255317 3.0716093
-0.89375913 5.3695159 2.2875915
-0.96929306 5.8108435 1.8215601
-0.97595346 5.8382459 1.2152793
-0.90010285 5.3730073 0.58203322
-0.53051287 3.2499664 3.0140591
-0.61251855 3.740139 2.8431821
-0.88282067 5.3615279 2.5993445
-0.96574467 5.8524609 2.1535869
-0.93900812 5.6720214 0.89407754
-0.852808 5.1402402 0.30386215
0.02466614 0.0926603 9.5689087
-0.19847555 1.4440386 9.2664719
-0.2715773 1.8871177 9.1896019
-0.19947964 1.3223039 4.3222475
-0.62405229 4.0441432 9.6997375
-0.26517642 1.6945508 3.2105162
-0.48282772 3.058207 4.6198487
-0.48130852 3.0281048 3.7475741
-0.028083032 0.55955762 9.5285044
-0.028008278 0.3092705 2.8534546
-0.3721486 2.5430596 9.9328203
-0.23915243 1.5529354 3.3126378
-0.47606751 3.0360861 4.1441445
-0.49805275 3.0917759 3.1572433
-0.56127059 3.4727459 2.9188809
-0.65960455 4.0677633 2.7863896
-0.87352031 5.363452 2.2838454
-0.94977617 5.8189254 1.8229702
-0.98411608 6.0161386 1.2488538
-0.89584363 5.4645753 0.59008068
-0.51975375 3.2554855 3.0173848
-0.59945929 3.7422543 2.8431821
-0.87423062 5.4455838 3.326606
-0.86121321 5.3466539 2.5909524
-0.94455737 5.8511348 2.1519434
-1.0216306 6.3146205 1.6335229
-0.94374734 5.8268037 0.91548854
-0.8740834 5.3848238 0.31373715
0.024989434 0.092573643 9.5689087
-0.19343372 1.4447225 9.2664719
-0.26527107 1.8900709 9.1993933
-0.19681829 1.3362833 4.3651958
-0.60789382 4.032774 9.6675205
-0.26034528 1.7025684 3.2236834
-0.47214967 3.0598738 4.6198487
-0.47073555 3.0297666 3.7475741
-0.026129639 0.55965221 9.5285044
-0.026928555 0.30936638 2.8534546
-0.36344695 2.5455873 9.9376593
-0.23470119 1.560219 3.3261416
-0.46546665 3.0377293 4.1441445
-0.48781219 3.0970182 3.160748
-0.54853743 3.4708393 2.9157424
-0.64540136 4.0700407 2.7863896
-0.85260528 5.3527341 2.2782264
-0.92870247 5.8174686 1.8215601
-0.99027216 6.1893067 1.2814955
-0.91382182 5.6987748 0.61109334
-0.50896257 3.2609692 3.0207102
-0.58639276 3.7443242 2.8431821
-0.85521662 5.4486022 3.326606
-0.8404265 5.3361778 2.5846584
-0.92412734 5.8543963 2.1519434
-0.99958223 6.3181481 1.6335229
-0.94974113 5.9963598 0.9389717
-0.85919785 5.4125133 0.31474483
0.025312424 0.092485845 9.5689087
-0.18838951 1.445389 9.2664719
-0.25894752 1.8930027 9.2091827
-0.19278897 1.3413949 4.3795114
-0.59040052 4.0116773 9.6122904
-0.25510779 1.7082043 3.2324615
-0.46146581 3.0615032 4.6198487
-0.45967585 3.0282223 3.7437367
-0.024175929 0.55974001 9.5285044
-0.025848499 0.30945849 2.8534546
-0.35455897 2.5468407 9.9376593
-0.22704063 1.5459517 3.2946329
-0.45441422 3.0363553 4.1401544
-0.47699863 3.0987022 3.160748
-0.53641862 3.472733 2.9157424
-0.63119036 4.072269 2.7863896
-0.86588126 5.5737252 3.0391459
-0.83106273 5.3373547 2.2707343
-0.90839005 5.8206749 1.8215601
-0.9967491 6.3722959 1.3160024
-0.91552067 5.8396869 0.62361163
-0.49813935 3.2664168 3.0240355
-0.57270765 3.7423525 2.8402388
-0.83357811 5.4345107 3.3164735
-0.8397454 5.4557071 2.6392076
-0.90368611 5.8575864 2.1519434
-0.99980468 6.4657044 1.6686924
-0.93562245 6.0436826 0.94518781
-0.87017459 5.608017 0.32260454
0.025635106 0.092396922 9.5689087
-0.18334301 1.4460378 9.2664719
-0.25233814 1.8938953 9.2091827
-0.18810546 1.3420596 4.3795114
-0.58083576 4.0446553 9.6859312
-0.24810755 1.7019745 3.2192943
-0.45077634 3.0630953 4.6198487
-0.45427144 3.0646853 3.7859492
-0.022221927 0.55982101 9.5285044
-0.024768131 0.30954683 2.8534546
-0.34566665 2.5480628 9.9376593
-0.22102563 1.5424248 3.2856307
-0.44381261 3.0379231 4.1401544
-0.44582319 3.0332832 3.4019182
-0.46776983 3.1109281 3.1712615
-0.52371258 3.4707353 2.9126039
-0.61697167 4.0744472 2.7863896
-0.83046705 5.471602 2.9834948
-0.80824333 5.3127232 2.259496
-0.88734329 5.819068 1.8201501
-1.0027026 6.5602589 1.351442
-0.9283126 6.0594387 0.64328307
-0.48728433 3.2718287 3.0273612
-0.55964082 3.744329 2.8402388
-0.81204838 5.4203343 3.3063407
-0.82069635 5.4586053 2.6392076
-0.88252997 5.8560352 2.1502998
-0.98231119 6.5027981 1.6768986
-0.96635604 6.3896585 0.9935354
-0.88578707 5.8431768 0.33207649
0.025957474 0.092306882 9.5689087
-0.1783891 1.4474403 9.2714119
-0.24611804 1.8977939 9.2238684
-0.41812369 3.0627859 9.929328
-0.56969345 4.0679402 9.736558
-0.24216503 1.7028302 3.2192943
-0.44088119 3.0702209 4.6281147
-0.45595905 3.1519024 3.8895617
-0.020277221 0.5601837 9.5334969
-0.023687458 0.30963141 2.8534546
-0.33677018 2.5492539 9.9376593
-0.47488618 3.4699671 9.5783501
-0.21353258 1.5280949 3.2541223
-0.43278053 3.0364711 4.1361647
-0.45794362 3.1195991 3.1782708
-0.51159424 3.4725423 2.9126039
-0.60274541 4.0765758 2.7863896
-0.81071311 5.4700851 2.9811759
-0.78901237 5.3109274 2.257623
-0.86631906 5.8173852 1.81874
-1.0080808 6.7531977 1.3878142
-0.93515956 6.2497973 0.66027206
-0.47532353 3.2698147 3.0240355
-0.54481685 3.7342606 2.8314095
-0.79312295 5.4231358 3.3063407
-0.79834187 5.4389849 2.6287174
-0.8620832 5.8590803 2.1502998
-0.96031535 6.5109959 1.6780708
-0.96864218 6.5595565 1.0170186
-0.89025766 6.0142641 0.33892852
0.026279528 0.092215709 9.5689087
-0.17333551 1.4480541 9.2714119
-0.23961927 1.8996515 9.2287636
-0.40526697 3.0479505 9.8768368
-0.55945212 4.0989404 9.8055964
-0.23589081 1.7012928 3.2149053
-0.42860076 3.0605938 4.6115828
-0.45972964 3.2582104 4.0161991
-0.018321693 0.56025112 9.5334969
-0.022606499 0.3097122 2.8534546
-0.32786953 2.5504138 9.9376593
-0.46299884 3.4733145 9.5830431
-0.20849082 1.530988 3.2586234
-0.42217866 3.0379632 4.1361647
-0.44856808 3.1317689 3.1887844
-0.49891594 3.4704547 2.9094658
-0.58851182 4.0786552 2.7863896
-0.81761265 5.6526332 3.0762467
-0.77046901 5.3136492 2.257623
-0.8453173 5.8156261 1.81733
-1.0029167 6.8830595 1.4120623
-0.93708974 6.4156375 0.6750257
-0.46652767 3.2899382 3.040663
-0.53633469 3.7681532 2.8549547
-0.773579 5.4216037 3.3038077
-0.77742124 5.4282608 2.6224234
-0.84095496 5.8573799 2.1486564
-0.93688941 6.5094976 1.6768986
-0.97469771 6.7638569 1.0453364
-0.89925885 6.2250085 0.34739283
0.026601262 0.092123419 9.5689087
-0.1682798 1.4486502 9.2714119
-0.23311053 1.9014872 9.2336597
-0.39481667 3.0508268 9.881609
-0.54694235 4.1144247 9.8378143
-0.22963028 1.6997324 3.2105162
-0.42248005 3.0955298 4.6611786
-0.44748026 3.2534447 4.0085244
-0.01636594 0.56031162 9.5334969
-0.021525264 0.30978924 2.8534546
-0.31896496 2.5515428 9.9376593
-0.46108207 3.5536311 9.7989111
-0.20343141 1.5338645 3.2631247
-0.41116732 3.0364323 4.1321745
-0.43911317 3.1439116 3.1992979
-0.48679873 3.4721749 2.9094658
-0.57485384 4.0848255 2.7891312
-0.81087124 5.7475667 3.1249413
-0.7532146 5.3254867 2.261369
-0.82501191 5.818542 1.81733
-1.0279659 7.2318168 1.4782783
-0.94419611 6.6259365 0.69380301
-0.45504075 3.2915466 3.040663
-0.52428919 3.7780094 2.8608408
-0.75464934 5.4242711 3.3038077
-0.75532967 5.4084663 2.611933
-0.82050377 5.8602796 2.1486564
-0.9161883 6.5271683 1.6804155
-0.99450082 7.0761623 1.0888493
-0.9054051 6.4259925 0.35545409
0.026922671 0.092029996 9.5689087
-0.16322204 1.4492289 9.2714119
-0.2265919 1.9033005 9.238555
-0.38360596 3.0477433 9.8672924
-0.53207576 4.1124334 9.8286085
-0.22369573 1.7005236 3.2105162
-0.40944776 3.0802486 4.6363807
-0.43356743 3.2359257 3.9854991
-0.014409988 0.56036538 9.5334969
-0.020443767 0.30986246 2.8534546
-0.31005645 2.5526407 9.9376593
-0.44997066 3.5654914 9.8270674
-0.19835448 1.5367243 3.2676258
-0.40056571 3.0378489 4.1321745
-0.40699667 3.0660977 3.4313195
-0.42861715 3.1489592 3.2028024
-0.47467563 3.4738531 2.9094658
-0.56059164 4.0868077 2.7891312
-0.81192577 5.9039602 3.2060995
-0.73652005 5.3418603 2.266988
-0.80469632 5.8213863 1.81733
-1.013505 7.3132133 1.4932003
-0.95532817 6.8758211 0.71615696
-0.44853172 3.3301187 3.0739181
-0.5159725 3.8158665 2.8873293
-0.73455232 5.4183288 3.2987413
-0.73950624 5.4335561 2.6224234
-0.80004257 5.8631082 2.1486564
-0.89405745 6.5351424 1.6815879
-0.98794043 7.2120595 1.1074977
-0.90947914 6.6221433 0.36331376
0.02724375 0.091935456 9.5689087
-0.1581623 1.4497899 9.2714119
-0.22006343 1.9050913 9.2434502
-0.37278387 3.0475819 9.8625212
-0.51796126 4.1162038 9.8332119
-0.2177584 1.7012942 3.2105162
-0.41812447 3.2056363 3.9471245
-0.012459403 0.56070089 9.5384884
-0.019362021 0.30993196 2.8534546
-0.30114418 2.5537074 9.9376593
-0.43899208 3.5790303 9.8599167
-0.19326007 1.5395674 3.2721272
-0.38995919 3.0392287 4.1321745
-0.4185597 3.1575065 3.2098114
-0.46254674 3.4754889 2.9094658
-0.54632258 4.0887394 2.7891312
-0.79601759 5.9418831 3.2246499
-0.71910334 5.3535881 2.2707343
-0.78373075 5.8194056 1.8159201
-1.0438435 7.7304926 1.5724729
-0.96004987 7.0913172 0.73538136
-0.44078806 3.3612807 3.100522
-0.5000115 3.7976072 2.8726134
-0.71055686 5.3823962 3.2759426
-0.7288835 5.4990921 2.6517959
-0.77957165 5.8658652 2.1486564
-0.87188202 6.5430408 1.6827601
-1.0125352 7.5885148 1.1599894
-0.91683179 6.8530612 0.37258419
0.027564498 0.091839798 9.5689087
-0.15310061 1.450333 9.2714119
-0.21341209 1.9058479 9.2434502
-0.36249548 3.0518293 9.8720646
-0.50382704 4.1199265 9.8378143
-0.21181846 1.702044 3.2105162
-0.010502115 0.56074101 9.5384884
-0.018280039 0.30999765 2.8534546
-0.29222825 2.5547431 9.9376593
-0.42608818 3.5771136 9.8505306
-0.18788481 1.5402327 3.2721272
-0.37934795 3.0405715 4.1321745
-0.38642663 3.0755916 3.4386694
-0.40799168 3.1624854 3.213316
-0.44991222 3.473222 2.9063272
-0.53312534 4.0989141 2.7946141
-0.78042722 5.984159 3.2455192
-0.70161355 5.3652592 2.2744801
-0.76403612 5.8268623 1.81733
-1.0174931 7.7389598 1.5734055
-0.96783471 7.3414874 0.75773525
-0.43094227 3.3776138 3.1138241
-0.48623875 3.79532 2.8696702
-0.68791974 5.3549147 3.2582104
-0.71723163 5.5601187 2.6790707
-0.7590912 5.8685508 2.1486564
-0.85028768 6.5556855 1.6851048
-1.0134658 7.8031683 1.1896886
-0.91806686 7.0494304 0.3804439
0.02788491 0.091743022 9.5689087
-0.14803709 1.4508586 9.2714119
-0.20675813 1.9065813 9.2434502
-0.35184041 3.0530763 9.8720646
-0.48944274 4.1216598 9.8378143
-0.20587592 1.702773 3.2105162
-0.0085447002 0.56077421 9.5384884
-0.017197832 0.31005958 2.8534546
-0.28330874 2.5557475 9.9376593
-0.41399527 3.5820076 9.8599167
-0.18276311 1.5430409 3.2766283
-0.36873204 3.041877 4.1321745
-0.37651008 3.0836523 3.4460201
-0.39695007 3.1638904 3.213316
-0.43778566 3.4747713 2.9063272
-0.76399392 6.0220032 3.2640696
-0.68405116 5.3768735 2.2782264
-0.74429893 5.8342519 1.81874
-1.0253789 8.0153275 1.6256323
-0.97515154 7.601675 0.78098339
-0.42006865 3.3865082 3.1204751
-0.47148886 3.7849612 2.8608408
-0.66601753 5.3316174 3.2430112
-0.70064336 5.5851045 2.6895609
-0.74154854 5.8945909 2.1568739
-0.82861555 6.5682583 1.6874495
-1.0296676 8.1505699 1.2380362
-0.90663975 7.1566749 0.38467607
0.028204983 0.091645129 9.5689087
-0.14304769 1.4521399 9.276351
-0.20010167 1.9072914 9.2434502
-0.34134665 3.0557692 9.8768368
-0.47527599 4.1252842 9.8424168
-0.19993088 1.7034812 3.2105162
-0.0065871808 0.56080061 9.5384884
-0.01611542 0.31011769 2.8534546
-0.27438581 2.556721 9.9376593
-0.4020654 3.5885761 9.8739948
-0.17737578 1.5436695 3.2766283
-0.35846376 3.0461383 4.1361647
-0.36494571 3.0782144 3.4386694
-0.3859036 3.1652567 3.213316
-0.42470774 3.4685514 2.9000502
-0.7429685 6.0246329 3.2640696
-0.6658473 5.3838296 2.2800994
-0.72392905 5.8368149 1.81874
-0.99860674 8.0286074 1.6274976
-0.98621094 7.9064751 0.8082552
-0.408245 3.3879538 3.1204751
-0.45778841 3.7825711 2.8578975
-0.64688331 5.3296309 3.2404783
-0.68334013 5.6055369 2.6979532
-0.74904668 6.1268196 2.2374058
-0.80627453 6.5759354 1.6886218
-1.0362139 8.4391937 1.2780956
-0.93965811 7.6308517 0.4038215
0.028524715 0.091546118 9.5689087
-0.13797791 1.4526303 9.276351
-0.19344276 1.9079782 9.2434502
-0.33083841 3.0584261 9.881609
-0.46087316 4.1269183 9.8424168
-0.19425412 1.7065483 3.2149053
-0.0046295812 0.56082022 9.5384884
-0.015032808 0.31017208 2.8534546
-0.26545951 2.5576632 9.9376593
-0.38842002 3.5796638 9.8458376
-0.17222707 1.5464427 3.2811296
-0.34817016 3.0503647 4.1401544
-0.35497311 3.0862055 3.4460201
-0.37485242 3.1665845 3.213316
-0.41213813 3.4661474 2.8969116
-0.49959391 4.1831594 2.8467021
-0.72456807 6.0491815 3.2756634
-0.64760298 5.3907237 2.2819724
-0.97057557 8.0320444 1.6274976
-0.98736489 8.147171 0.82971501
-0.39598271 3.3856502 3.1171498
-0.44411045 3.7801318 2.8549547
-0.62928432 5.3404183 3.2455444
-0.78332239 6.598321 2.4017568
-0.78503937 6.5931892 1.6921388
-1.0472071 8.7820482 1.3257526
-0.94861203 7.9317207 0.41591334
0.028844096 0.09144599 9.5689087
-0.13290645 1.4531031 9.276351
-0.1867815 1.9086418 9.2434502
-0.32016048 3.0595622 9.881609
-0.44646475 4.1285019 9.8424168
-0.18829595 1.707216 3.2149053
-0.0026719251 0.56083292 9.5384884
-0.013972057 0.31075528 2.8584261
-0.25652999 2.558574 9.9376593
-0.16682792 1.5470346 3.2811296
-0.33851382 3.0605464 4.1521249
-0.36379671 3.1678739 3.213316
-0.39780644 3.4482317 2.8812196
-0.48402619 4.1765699 2.8412189
-0.70498246 6.0648746 3.28262
-0.62878191 5.392951 2.2819724
-0.94596612 8.0646563 1.6330932
-1.0008154 8.50667 0.86190474
-0.38416216 3.3870118 3.1171498
-0.43091261 3.7816591 2.8549547
-0.6091705 5.3297334 3.2379451
-0.61157399 5.3261108 2.5657759
-0.79108208 6.8684115 2.4954367
-0.76202011 6.5958896 1.6921388
-1.0478503 9.0562077 1.36374
-0.95202076 8.2029657 0.42679602
0.029163126 0.091344751 9.5689087
-0.12783337 1.4535582 9.276351
-0.18011795 1.9092822 9.2434502
-0.30962873 3.0621464 9.8863811
-0.43205085 4.1300349 9.8424168
-0.18233551 1.7078629 3.2149053
-0.00071423646 0.56083888 9.5384884
-0.012887235 0.31080216 2.8584261
-0.24759732 2.559454 9.9376593
-0.16095267 1.5855706 4.3881512
-0.16142675 1.5476075 3.2811296
-0.35273656 3.1691241 3.213316
-0.38879508 3.4766769 2.9031887
-0.4694443 4.1782341 2.8412189
-0.68480003 6.0761023 3.2872574
-0.61047399 5.3997202 2.2838454
-0.92558271 8.1362391 1.6461499
-1.006686 8.8218269 0.89007068
-0.37029803 3.3697746 3.100522
-0.41770953 3.7831402 2.8549547
-0.59388429 5.3618197 3.2556772
-0.767102 6.8711309 2.4954367
-0.7389915 6.5985093 1.6921388
-1.033896 9.217289 1.3858416
-0.95354694 8.4743271 0.43767866
0.029465377 0.091201961 9.5639086
-0.12275872 1.4539956 9.276351
-0.17354412 1.9109131 9.2483444
-0.29893795 3.0632086 9.8863811
-0.41763172 4.1315179 9.8424168
-0.17612709 1.7061067 3.2105162
0.0012434608 0.56083792 9.5384884
-0.011802253 0.31084526 2.8584261
-0.23866166 2.5603027 9.9376593
-0.15575323 1.5895578 4.3975368
-0.15624171 1.5503275 3.2856307
-0.34129 3.1667902 3.2098114
-0.37833291 3.4934916 2.9157424
-0.45349973 4.167377 2.8329947
-0.65974051 6.0432267 3.268707
-0.5926311 5.4110351 2.2875915
-0.87445432 7.9587402 2.4433846
-0.89448535 8.1150074 1.6414869
-1.0213151 9.2361212 0.92717826
-0.35576934 3.3450568 3.0772438
-0.40493086 3.788594 2.8578975
-0.57700276 5.3810053 3.2658098
-0.73702228 6.8174291 2.4757147
-0.72014672 6.6397071 1.7015172
-0.96239203 8.8302279 0.45198739
0.029783553 0.091098554 9.5639086
-0.11768258 1.4544152 9.276351
-0.16687274 1.9115072 9.2483444
-0.28838322 3.0657191 9.8911524
-0.40339705 4.1348944 9.8470182
-0.17017059 1.7067111 3.2105162
0.0032011431 0.56083018 9.5384884
-0.010717129 0.31088454 2.8584261
-0.22972308 2.56112 9.9376593
-0.15036575 1.5918095 4.4022293
-0.15082911 1.5508634 3.2856307
-0.33097315 3.1750567 3.2168207
-0.36775807 3.5102754 2.9282963
-0.43982574 4.1772518 2.8384776
-0.62793869 5.9441714 3.2153747
-0.57422811 5.4176807 2.2894645
-0.84818959 7.9760547 2.4476149
-0.86511093 8.1083107 1.6396216
-1.0214024 9.5416832 0.95445007
-0.34294513 3.3351357 3.0672669
-0.3921192 3.7940054 2.8608408
-0.56310683 5.4301529 3.2936749
-0.72009647 6.8857121 2.4987237
-1.081331 10.288069 1.5350286
-0.97085941 9.2061625 0.4671022
0.030101363 0.09099403 9.5639086
-0.11260501 1.4548171 9.276351
-0.16011448 1.9110637 9.2434502
-0.2776801 3.0667071 9.8911524
-0.38859552 4.1323876 9.8378143
-0.16444114 1.7096785 3.2149053
0.0051587862 0.56081557 9.5384884
-0.009617269 0.31038719 2.8534546
-0.2207817 2.5619066 9.9376593
-0.1440279 1.583732 4.3787656
-0.14561765 1.553548 3.2901318
-0.32060269 3.1832891 3.2238295
-0.35667863 3.523155 2.9377115
-0.42566502 4.1829209 2.8412189
-0.82475817 8.0219135 2.460305
-0.83377784 8.0819635 1.6340259
-1.0455195 10.099982 1.0045229
-0.33019456 3.325166 3.0572906
-0.37887329 3.7953508 2.8608408
-0.53856319 5.3763237 3.2607436
-0.52441847 5.2076912 2.5070305
-0.69415748 6.86939 2.4921496
-0.72183025 7.1184835 1.8164043
-1.0454123 10.29178 1.5350286
-0.97367376 9.5524378 0.48100781
0.030418808 0.090888403 9.5639086
-0.10752606 1.4552014 9.276351
-0.15344265 1.9116108 9.2434502
-0.2671029 3.069145 9.8959246
-0.37487257 4.1415019 9.8562241
-0.15847225 1.7102422 3.2149053
0.0071163666 0.56079417 9.5384884
