# .PCD v0.7 - Point Cloud Data file format
VERSION 0.7
FIELDS x y z
SIZE 4 4 4
TYPE F F F
COUNT 1 1 1
WIDTH 1528
HEIGHT 1
VIEWPOINT 0 0 0 1 0 0 0
POINTS 1528
DATA ascii
0.2136818 -0.3134239 3.4947786
1.0292819 -1.4593331 6.9130192
0.91286927 -1.2852644 4.3412237
0.98937404 -1.3873996 3.5872121
1.2765979 -1.7856374 3.6605909
1.1628127 -1.6240937 2.7197061
1.4684523 -2.0480063 2.8102167
1.5694414 -2.1752048 2.7156706
1.0911984 -1.5106982 1.5850369
1.693508 -2.34374 1.9803987
1.5556487 -2.1513755 1.4762747
1.9753532 -2.7458892 3.0938711
1.704049 -2.366154 1.7990994
1.8718796 -2.5963447 1.5671029
1.7350471 -2.4056756 1.1214632
0.01690306 -0.042477079 3.7191319
0.64300013 -0.92982829 7.1870446
0.82810712 -1.1857948 6.9769592
1.2442075 -1.7635223 6.9468389
1.545473 -2.1793351 6.353703
2.1600914 -3.0371513 6.8973427
1.6500833 -2.3149252 4.2478838
1.6152899 -2.2636197 3.4060364
0.11824874 -0.18888339 3.6932559
0.20990232 -0.31019151 3.4500351
1.0241816 -1.462917 6.9130192
0.90837735 -1.288443 4.3412237
1.2748849 -1.7964634 3.6733885
1.1588821 -1.6305989 2.723696
1.4593288 -2.0503576 2.8065414
1.5639154 -2.183569 2.7191751
1.1857109 -1.6536813 1.723129
1.6122043 -2.2477033 1.8981547
1.566211 -2.1819835 1.4925063
2.076416 -2.9077356 3.2634716
1.7333838 -2.4246907 1.837097
1.836392 -2.5659559 1.5461223
0.016754685 -0.042535823 3.7191319
0.63887155 -0.93078572 7.177166
0.82338291 -1.1878413 6.972064
1.2440372 -1.7764138 6.9802423
1.5378562 -2.1847165 6.353703
2.1508577 -3.0466292 6.9017315
1.6273649 -2.2999961 4.2106872
1.6333152 -2.3058624 3.4597611
0.11758869 -0.18929501 3.6932559
0.20614806 -0.30693662 3.4052916
1.0197859 -1.4675152 6.9178581
0.90486348 -1.2930198 4.3459163
1.7530551 -2.4951053 6.3689623
1.2415727 -1.7625233 3.596602
1.1531832 -1.6346341 2.723696
1.4521626 -2.055439 2.8065414
1.5211555 -2.1396027 2.6595979
1.2025008 -1.6895217 1.7545135
1.6043485 -2.2533174 1.8981547
1.6408414 -2.3028843 1.566708
1.9431803 -2.7413356 3.0739181
1.7224147 -2.427211 1.8345639
1.8300524 -2.5760503 1.5482204
1.729152 -2.4331264 1.1280372
0.016606104 -0.042594049 3.7191319
0.63518125 -0.93236792 7.1722269
0.81807756 -1.1890304 6.9622736
1.2386807 -1.7819711 6.9850144
1.5302207 -2.1900711 6.353703
2.1402097 -3.0541186 6.9017315
0.11707757 -0.18995073 3.6982474
0.20418994 -0.30632263 3.3903768
1.0146571 -1.4710661 6.9178581
0.90428203 -1.3018401 4.364687
1.7480706 -2.506566 6.3824658
1.2040303 -1.7219608 3.5070174
1.1474702 -1.6386497 2.723696
1.4430326 -2.0577199 2.8028662
1.4766657 -2.0924513 2.5965159
1.2168088 -1.72232 1.7827597
1.5868201 -2.245245 1.8871889
1.6941824 -2.3953979 1.622359
1.1128579 -1.5816041 1.8035771
1.6444303 -2.3353946 2.1633117
1.7188965 -2.4402571 1.8396302
1.8864367 -2.6751499 1.6006716
1.7097602 -2.4237127 1.1214632
0.016457323 -0.042651758 3.7191319
0.63148779 -0.93393564 7.1672873
0.813348 -1.1910378 6.9573784
1.2477101 -1.8084008 7.0709105
1.5214536 -2.1937943 6.3491006
2.1281683 -3.0596046 6.8973427
1.3875858 -1.9904209 3.6362071
1.2576504 -1.8020302 2.7076104
0.11641382 -0.19035825 3.6982474
0.19812837 -0.29946995 3.3058615
1.009516 -1.4745989 6.9178581
0.89679396 -1.3007262 4.3506088
1.7467442 -2.5233927 6.4094729
1.177195 -1.6961565 3.4472942
1.1400236 -1.6401707 2.7197061
1.4358411 -2.0627444 2.8028662
1.2054152 -1.7207912 2.1444294
1.2309023 -1.7552385 1.8110057
1.5741702 -2.2439239 1.8817059
1.7138085 -2.4411788 1.6478659
1.8602064 -2.6487393 1.3960278
1.1329848 -1.6222126 1.843483
1.6362681 -2.3411205 2.1633117
1.6906072 -2.417979 1.8193648
1.7469602 -2.4958088 1.495769
1.6931638 -2.4180615 1.1165327
0.016308339 -0.042708945 3.7191319
0.6273582 -0.93484354 7.1574087
0.8080433 -1.1921839 6.947588
1.2236803 -1.7868804 6.9706988
1.5137867 -2.1990917 6.3491006
2.1174753 -3.0670147 6.8973427
1.3422016 -1.9397142 3.5370164
1.2166749 -1.7563472 2.6346979
0.11574862 -0.19076347 3.6982474
0.19708183 -0.30015972 3.3058615
1.0050689 -1.4791536 6.922698
0.91076279 -1.3309089 4.4397717
1.7317617 -2.520503 6.3869672
1.1771848 -1.7088464 3.4643579
1.1342913 -1.6441401 2.7197061
1.4267048 -2.0649545 2.799191
1.1668282 -1.6781394 2.088357
1.2937002 -1.8585573 1.9082979
1.4683627 -2.1087136 1.7693057
1.766059 -2.5343726 1.7035172
1.8509492 -2.6552165 1.3960278
1.6741648 -2.41324 2.2221751
1.6944453 -2.4415731 1.8320307
1.2514029 -1.8011674 1.1013352
1.6739328 -2.4084466 1.1099586
0.016159158 -0.04276561 3.7191319
0.62323016 -0.93573421 7.1475306
0.80330867 -1.1941521 6.9426928
1.2140794 -1.7862027 6.951611
1.506101 -2.2043624 6.3491006
2.1013415 -3.0664849 6.8797865
1.2653273 -1.842322 3.3551667
1.2087206 -1.757942 2.6308603
0.11493427 -0.19091836 3.6932559
0.19428998 -0.29816407 3.2760322
0.99989963 -1.4826529 6.922698
0.8838135 -1.3012447 4.3318381
1.7192736 -2.521137 6.3734636
1.2271467 -1.7947572 3.6264634
1.126843 -1.6456033 2.7157159
1.4214056 -2.0727181 2.8028662
1.1508352 -1.6675261 2.0708342
1.4133151 -2.0455966 2.0871899
1.3516325 -1.9555951 1.6431984
1.7723209 -2.5623813 1.71743
2.3613167 -3.4126873 1.7650154
1.3544407 -1.9684418 2.2092881
1.6611463 -2.412411 2.2162888
1.7128115 -2.4865239 1.8598957
1.3455925 -1.9512396 1.1831592
1.662834 -2.410388 1.1083151
0.01600978 -0.042821754 3.7191319
0.61953175 -0.93725568 7.142591
0.79800487 -1.1952552 6.9329023
1.2044979 -1.7854795 6.9325228
1.4973006 -2.2079892 6.3444982
2.0973589 -3.0837028 6.9017315
1.2557188 -1.8420771 3.3469007
1.1845099 -1.7356753 2.5924852
0.11426713 -0.19131838 3.6932559
0.19584829 -0.30287218 3.320776
0.99541718 -1.4871788 6.9275374
0.88023055 -1.305753 4.3365307
1.7068022 -2.5217144 6.3599601
1.2369829 -1.8227684 3.6733885
1.1193981 -1.6470344 2.711726
1.4275144 -2.0972855 2.8285925
1.1530688 -1.6833022 2.0848522
1.511827 -2.2046006 2.2378359
2.4044888 -3.5050466 2.8713753
1.7633657 -2.5685523 1.71743
2.3651366 -3.4438379 1.7762535
1.3517727 -1.9793245 2.215939
1.5386809 -2.2513397 2.0691307
1.7333171 -2.5351906 1.8902937
1.4720732 -2.1506772 1.292258
1.6490746 -2.408385 1.1050282
0.015860207 -0.042877376 3.7191319
0.61583024 -0.93876272 7.1376519
0.79326546 -1.1971846 6.9280071
0.68009758 -1.0156542 3.9548051
1.4895842 -2.2132022 6.3444982
2.0745225 -3.0731399 6.8622303
1.2366666 -1.8278035 3.3138371
1.165862 -1.7212228 2.5656228
0.11359861 -0.19171607 3.6932559
0.19622663 -0.30579886 3.3456335
0.99021983 -1.4906445 6.9275374
0.83728778 -1.2514439 4.1488199
1.6943479 -2.5222359 6.3464561
1.2160441 -1.8054436 3.6307294
1.113642 -1.6509318 2.711726
1.496093 -2.2146251 2.9755988
1.5304029 -2.248477 2.2754972
2.5193188 -3.7000604 3.0194144
1.7045012 -2.5014768 1.6710539
2.3165452 -3.3984439 1.7500311
1.3008621 -1.9191265 2.1461036
1.4128236 -2.0827544 1.9160864
1.7220366 -2.5376585 1.8877606
1.6353492 -2.4063156 1.1017411
0.015720692 -0.042974889 3.7241316
0.6125496 -0.9409067 7.1376519
0.78908175 -1.1999463 6.9280071
0.67985237 -1.0229952 3.9738929
1.4807645 -2.216764 6.3398952
1.2192978 -1.8157555 3.2849064
1.1544822 -1.7173017 2.5541103
0.1129287 -0.19211145 3.6932559
0.19544376 -0.30693191 3.350605
0.9850105 -1.4940919 6.9275374
0.83768666 -1.2615473 4.1722836
1.6843258 -2.5263233 6.3419552
1.193792 -1.7858267 3.5838039
1.1061962 -1.6523052 2.7077358
1.5846362 -2.3634424 3.1630323
1.4983474 -2.2204726 2.7121661
1.4855051 -2.1989744 2.2221434
2.4642453 -3.6464703 2.970068
1.5270102 -2.257889 1.5133755
2.2812889 -3.3719518 1.7331737
1.2649775 -1.880284 2.0995464
1.4980954 -2.2251441 2.036756
1.6987197 -2.5222013 1.8725616
1.6190177 -2.4002647 1.0968106
0.015570586 -0.043029502 3.7241316
0.60968298 -0.94369191 7.142591
0.78433198 -1.2018406 6.9231119
0.67874241 -1.0291005 3.9882088
1.471938 -2.2202907 6.3352928
1.0796863 -1.6236752 3.640646
1.2067101 -1.8106338 3.2683747
1.1484807 -1.7213212 2.5541103
0.11240172 -0.19275451 3.6982474
0.19437119 -0.30761227 3.350605
0.979101 -1.4964693 6.922698
0.82758135 -1.2558178 4.1441274
1.6754969 -2.5321875 6.3419552
1.1688085 -1.7617304 3.528347
1.1004219 -1.6561564 2.7077358
1.6233279 -2.4395199 3.2549114
1.4866185 -2.2197628 2.7051568
1.4301347 -2.1330221 2.1530976
1.643289 -2.4500325 2.0187793
1.4327123 -2.1344726 1.4322176
1.24804 -1.8691618 2.0829191
1.490319 -2.2303598 2.036756
1.634807 -2.4456861 1.8142985
1.6053755 -2.3980534 1.0935235
0.015420291 -0.04308359 3.7241316
0.60680443 -0.94646853 7.1475306
0.780132 -1.2045711 6.9231119
0.6759634 -1.0327126 3.992981
1.4631051 -2.223783 6.3306899
1.0753311 -1.6294332 3.6450353
1.2159058 -1.8383061 3.3097041
1.138926 -1.7199745 2.5464354
0.11172819 -0.19314568 3.6982474
0.19301361 -0.30783692 3.3456335
0.97387141 -1.4998778 6.922698
0.81185979 -1.2413672 4.0878143
1.6666477 -2.5380206 6.3419552
1.1411393 -1.7331247 3.4643579
1.0946342 -1.6599876 2.7077358
1.6521666 -2.5017509 3.3284149
1.5143939 -2.2783995 2.7682388
1.3644618 -2.0505078 2.0683591
1.699603 -2.5532155 2.0955403
1.3049127 -1.9588132 1.3185964
1.2394452 -1.8703943 2.0795937
1.5333208 -2.3112812 1.7155044
1.6377532 -2.4659131 1.455906
1.5917686 -2.3957763 1.0902365
0.015259999 -0.043094642 3.7191319
0.60391378 -0.94923657 7.1524696
0.77592248 -1.207287 6.9231119
0.66747653 -1.0275546 3.9643488
1.460674 -2.237056 6.353703
1.2202907 -1.859007 3.3386347
1.1329153 -1.7239398 2.5464354
0.11105331 -0.19353451 3.6982474
0.19221893 -0.30896172 3.350605
0.96863002 -1.5032681 6.922698
0.80000663 -1.2326126 4.0502715
1.6577783 -2.543823 6.3419552
2.2435012 -3.433522 6.7789888
1.090483 -1.6663197 2.711726
1.6787313 -2.5613766 3.398243
1.4907223 -2.2598565 2.7402024
1.2779343 -1.9350826 1.9522364
1.6906801 -2.5591326 2.0955403
1.4470925 -2.1887655 1.4600432
1.6678841 -2.5217774 1.3098683
1.2513731 -1.9027864 2.1095231
1.296944 -1.9705979 1.801303
1.6241401 -2.464036 1.4517099
1.5807966 -2.3973756 1.088593
0.015109478 -0.043147646 3.7191319
0.60142589 -0.95265317 7.1623483
0.77115619 -1.2091295 6.9182167
1.1676502 -1.8115678 6.937295
1.4549809 -2.2454202 6.3629079
1.5141914 -2.3297136 5.1592674
1.2291532 -1.8868341 3.3799641
1.1251397 -1.7251989 2.5425978
0.11037707 -0.19392097 3.6982474
0.19030088 -0.30826905 3.3356905
0.96269953 -1.5055809 6.9178581
0.79569918 -1.2353977 4.0502715
1.6500708 -2.5514221 6.3464561
2.235759 -3.4478972 6.7917867
1.0846597 -1.6701162 2.711726
1.7048998 -2.6212175 3.4680707
1.4925913 -2.2799652 2.7577252
1.2156992 -1.8548898 1.8706365
1.2461333 -1.9006128 1.5746617
1.4540242 -2.2160258 1.4739559
1.6565274 -2.5237086 1.3079953
1.2855365 -1.9696783 2.176033
1.2546926 -1.9209669 1.7542125
1.6586229 -2.5384555 1.8674953
1.6130447 -2.4658923 1.4496119
1.5672472 -2.3949764 1.0853059
0.014958772 -0.043200124 3.7191319
0.59892154 -0.95606387 7.1722269
0.76638645 -1.2109535 6.913321
1.1581025 -1.8106025 6.9182067
1.4503039 -2.2554154 6.3767157
1.5099442 -2.341023 5.1724343
1.2286702 -1.9005662 3.3964961
1.1313013 -1.7479522 2.5694602
0.1098403 -0.19455713 3.7032392
0.19144675 -0.3125706 3.3754625
0.956765 -1.507871 6.9130192
0.79045284 -1.2367138 4.0455794
1.6411546 -2.5571663 6.3464561
1.0565987 -1.6418989 3.263859
1.0788233 -1.6738921 2.711726
1.7380245 -2.6926653 3.5525999
1.5234804 -2.3449728 2.827816
1.1752622 -1.8069158 1.8204211
1.2098457 -1.8593879 1.5390227
1.3858505 -2.1282828 1.4159859
1.6401169 -2.517822 1.3023762
1.3395451 -2.0681703 2.2757981
1.2809567 -1.9762124 1.79836
1.6614784 -2.5623147 1.880161
1.5945425 -2.4562809 1.4412197
1.5563056 -2.3964722 1.0836625
0.014807884 -0.043252077 3.7191319
0.59640056 -0.95946866 7.1821051
0.76161343 -1.212759 6.9084263
1.1493759 -1.8108531 6.9038906
1.4455746 -2.2654049 6.390523
1.5056363 -2.3523309 5.1856017
1.2448199 -1.9403719 3.4584901
1.15637 -1.8004354 2.6385353
0.1091605 -0.19493936 3.7032392
0.1903545 -0.31323695 3.3754625
0.95149577 -1.5112015 6.9130192
0.78890347 -1.2438374 4.0596576
1.6333876 -2.5647156 6.3509574
1.0887581 -1.7049263 3.3790393
1.0729737 -1.6776478 2.711726
1.7542138 -2.7386827 3.6040523
1.5462039 -2.3982339 2.883889
1.1773908 -1.8240883 1.8329749
1.7046161 -2.6399271 2.1448867
1.3784128 -2.1331074 1.4159859
1.6262846 -2.5157452 1.2986301
1.3282801 -2.0665517 2.2691472
1.2827971 -1.9942695 1.8101326
1.652524 -2.5680988 1.880161
1.5785853 -2.4503856 1.4349256
1.5453728 -2.3979206 1.082019
0.014656817 -0.043303505 3.7191319
0.59386331 -0.96286756 7.1919837
0.75737548 -1.2154101 6.9084263
1.1446388 -1.8173803 6.913435
1.4407934 -2.275389 6.4043307
1.499984 -2.3616157 5.1943798
1.2017716 -1.8877329 3.3592994
0.10847936 -0.19531922 3.7032392
0.19008406 -0.31526998 3.3903768
0.94488299 -1.5123813 6.9033403
1.2404107 -1.9710277 6.3872695
1.6244252 -2.5704017 6.3509574
1.1442202 -1.8056483 3.5667403
1.0671111 -1.6813829 2.711726
1.7519175 -2.7562339 3.618753
1.5282135 -2.3885963 2.8663661
1.1941092 -1.864241 1.867498
1.6953907 -2.6458611 2.1448867
1.3518289 -2.1080744 1.3974355
1.6124867 -2.5136025 1.2948841
1.2286994 -1.9263686 2.116174
1.2714785 -1.9919211 1.8042463
1.6412297 -2.5702183 1.877628
1.565133 -2.4482331 1.4307294
1.5344491 -2.3993225 1.0803754
0.014505569 -0.043354403 3.7191319
0.59130937 -0.96626025 7.2018623
0.75259298 -1.2171804 6.9035311
1.1390789 -1.8226305 6.9182067
1.4359602 -2.2853675 6.4181385
1.4853468 -2.3567066 5.1724343
1.1891633 -1.8823998 3.3427677
1.4624277 -2.3123324 3.3523111
0.10793506 -0.19595017 3.7082307
0.19171348 -0.32050937 3.4400921
0.93959808 -1.5156704 6.9033403
1.228039 -1.9665626 6.3591127
1.6154429 -2.5760562 6.3509574
1.1767803 -1.8714519 3.6861866
1.0612355 -1.6850976 2.711726
1.8110101 -2.8712959 3.7584088
1.8792131 -2.9599378 3.5252209
1.2084734 -1.901247 1.8988826
1.6816573 -2.644706 2.1394038
1.3301932 -2.0903563 1.3835227
1.5937449 -2.5035729 1.2873919
1.2219677 -1.9306458 2.116174
1.2666805 -1.9997618 1.8071893
1.6299406 -2.5722902 1.8750948
1.5395591 -2.4268546 1.416043
1.521004 -2.3966899 1.0770885
0.014363062 -0.043447483 3.7241316
0.58833599 -0.96898276 7.2068014
0.74833959 -1.2198 6.9035311
1.1303501 -1.8227898 6.9038906
1.4321082 -2.2969973 6.4365482
1.4758413 -2.3598461 5.1680455
1.1825852 -1.8865392 3.3427677
1.4611622 -2.3282828 3.3676612
0.1072504 -0.19632573 3.7082307
0.19222255 -0.32392901 3.4699211
0.93364316 -1.5178703 6.8985004
1.2211671 -1.9708374 6.3591127
1.6052909 -2.5798311 6.3464561
1.1605771 -1.8600591 3.6563249
1.055347 -1.6887918 2.711726
1.7110505 -2.733912 3.5746505
1.8289506 -2.9031138 3.4516253
1.2142881 -1.9252069 1.9177133
1.6724154 -2.6505601 2.1394038
1.3110627 -2.0762589 1.3719287
1.5874718 -2.5130403 1.2892649
1.4972013 -2.3838921 2.5883951
1.2553904 -1.9973269 1.801303
1.6163625 -2.5706651 1.8700284
1.4730513 -2.3400326 1.3656898
1.5101124 -2.3979886 1.0754449
0.014211313 -0.043497354 3.7241316
0.58495003 -0.97103053 7.2068014
0.74407715 -1.2224048 6.9035311
0.69144768 -1.1236526 4.2649837
1.4302479 -2.3119512 6.4641638
1.4524417 -2.3405628 5.1153765
1.1135724 -1.790295 3.169184
1.4479433 -2.3252065 3.3561487
0.10656445 -0.19669892 3.7082307
0.19405963 -0.32965443 3.5246074
0.92768443 -1.5200469 6.893661
1.2070506 -1.9633273 6.3215709
1.5951322 -2.5835667 6.3419552
1.1266218 -1.819749 3.5710063
1.0494456 -1.6924653 2.711726
1.6406891 -2.6419477 3.4496953
1.2365769 -1.9780811 2.372225
1.1745218 -1.8766433 1.867498
1.6298693 -2.60322 2.0982819
1.3061593 -2.0845764 1.3742476
1.5565306 -2.4832137 1.2724077
1.4967699 -2.4017794 2.6016972
1.2591056 -2.0188451 1.8160189
1.6073793 -2.5762918 1.8700284
1.3831252 -2.2142839 1.294356
1.4967278 -2.395236 1.0721579
0.01406801 -0.043589469 3.7291315
0.58155698 -0.97306645 7.2068014
0.73927939 -1.2241229 6.8986359
0.68907666 -1.1286075 4.274528
1.4160373 -2.3069394 6.4365482
1.4279394 -2.3191059 5.0583181
1.1073164 -1.7941712 3.169184
1.4263403 -2.3084328 3.3254488
0.10587719 -0.1970697 3.7082307
0.19290774 -0.33032978 3.5246074
0.92237282 -1.523276 6.893661
1.1938998 -1.9572159 6.2887216
1.5849671 -2.5872626 6.3374538
1.0943277 -1.7814474 3.4899538
1.0419525 -1.6935518 2.7077358
1.5905534 -2.5812747 3.3651664
1.2221454 -1.970263 2.358207
1.1535902 -1.8575853 1.8455287
1.5832613 -2.548512 2.0516768
1.2404021 -1.9950731 1.3162776
1.5307143 -2.4610755 1.2592964
1.4726677 -2.3815837 2.5750933
1.2669395 -2.0472879 1.836621
1.6187981 -2.6148748 1.892827
1.3945149 -2.2499597 1.3111404
1.4858696 -2.3964329 1.0705144
0.013915769 -0.043638311 3.7291315
0.57815677 -0.9750905 7.2068014
0.7350018 -1.226696 6.8986359
0.68513286 -1.131006 4.274528
1.4059438 -2.3085308 6.4273434
1.4123445 -2.3118136 5.0319843
1.3881198 -2.2642102 3.2563736
0.10505405 -0.19718269 3.7032392
0.19308694 -0.33330888 3.5494652
0.91704994 -1.5264864 6.893661
1.1933146 -1.9717063 6.3215709
1.5759263 -2.5927794 6.3374538
1.0650293 -1.7473969 3.4174328
1.0360345 -1.6971785 2.7077358
1.6310464 -2.667799 3.4680707
1.2414292 -2.0170372 2.4072704
1.0450075 -1.6959126 1.6886059
1.5853266 -2.5718207 2.0653841
1.3125063 -2.1275756 1.3951167
1.5221143 -2.4664037 1.2592964
1.4721556 -2.3994398 2.5883951
1.27459 -2.0758095 1.857223
1.6231982 -2.6425486 1.9080261
1.4725466 -2.3935609 1.0672274
0.013763358 -0.043686621 3.7291315
0.57474953 -0.97710276 7.2068014
0.73071539 -1.2292541 6.8986359
0.68502474 -1.139788 4.2983875
1.394846 -2.308408 6.4135356
0.87047023 -1.4360218 3.14468
1.2058073 -1.9846362 3.483288
1.3552229 -2.2279651 3.1988111
0.10436512 -0.1975482 3.7032392
0.19139214 -0.33305591 3.5395222
0.91171598 -1.5296782 6.893661
1.187313 -1.9773391 6.3262634
1.565742 -2.5964005 6.3329525
1.0076433 -1.6662972 3.2553272
1.028543 -1.6982073 2.7037458
1.6305152 -2.6879692 3.4864466
1.2009265 -1.9665726 2.3441887
1.0472023 -1.7128335 1.7011597
1.5872477 -2.5951746 2.0790915
1.3466983 -2.2001526 1.4368552
1.4831855 -2.4364574 2.6216502
1.2925712 -2.1216686 1.8925409
1.636398 -2.6850092 1.9333578
1.5277014 -2.5037193 1.4433178
1.4617223 -2.3946557 1.0655838
0.013610779 -0.043734398 3.7291315
0.57133532 -0.97910309 7.2068014
0.7264201 -1.2317973 6.8986359
1.0731429 -1.7999277 6.7464156
1.3857751 -2.3115873 6.4089332
0.86545229 -1.4390516 3.14468
1.1872506 -1.9695526 3.4502244
1.2927866 -2.1421218 3.0721734
0.10367491 -0.19791131 3.7032392
0.19049186 -0.33418536 3.5444937
0.90637088 -1.5328513 6.893661
1.1821697 -1.9844365 6.335649
1.5555516 -2.599982 6.3284512
0.98169565 -1.6362575 3.1913381
1.0226089 -1.7017871 2.7037458
1.6281149 -2.7052634 3.5011473
1.1940546 -1.9707527 2.3441887
1.1724291 -1.9327943 1.9051595
1.586856 -2.6149983 2.0900574
1.3436089 -2.2124126 1.4414928
1.4727412 -2.4384236 2.6183245
1.3248837 -2.1918929 1.9484611
1.6180934 -2.6759493 1.9232252
1.5142518 -2.501272 1.4391216
1.4509082 -2.3957045 1.0639404
0.24439563 -0.40336639 0.20446785
0.013458035 -0.043781642 3.7291315
0.56830323 -0.98176396 7.211741
0.72211587 -1.2343255 6.8986359
1.0600147 -1.7920991 6.7034674
1.3766991 -2.3147314 6.4043307
0.85428846 -1.4317799 3.1227345
1.1760356 -1.9664397 3.4378257
1.3116452 -2.1906214 3.1335733
0.10298344 -0.19827199 3.7032392
0.1901097 -0.33624122 3.5594082
0.90101457 -1.5360057 6.893661
1.1761134 -1.9900367 6.3403416
1.5453554 -2.603524 6.3239503
1.3587952 -2.2828765 4.4156613
1.0166624 -1.7053463 2.7037458
1.6134481 -2.7021978 3.4901221
1.2165647 -2.0238135 2.4002614
1.1716962 -1.9468799 1.9145747
1.5949721 -2.6491799 2.111989
1.3244472 -2.1981177 1.4298987
0.24873458 -0.41215441 0.18286891
1.2569553 -2.0976458 2.2591705
1.3733509 -2.2900991 2.0279264
1.5932192 -2.6557047 1.9054928
1.4704587 -2.4481823 1.4076508
1.4425368 -2.4007545 1.0639404
0.25300264 -0.42088071 0.20915711
0.013297256 -0.043785434 3.7241316
0.56487274 -0.98374176 7.211741
0.71780282 -1.2368387 6.8986359
1.0529975 -1.7945009 6.6986957
1.3676181 -2.3178401 6.3997283
0.84318602 -1.424448 3.1007893
1.1691644 -1.9705328 3.4378257
1.4005673 -2.3577757 3.3599863
0.10229071 -0.19863026 3.7032392
0.18971549 -0.33829844 3.5743227
0.89564753 -1.5391417 6.893661
1.1700325 -1.9956189 6.3450346
1.5362581 -2.6089022 6.3239503
1.4038591 -2.3774362 4.5862985
1.0107033 -1.7088847 2.7037458
1.6091892 -2.7165637 3.5011473
1.1802671 -1.9790407 2.3441887
1.2048005 -2.017797 1.977344
1.5814267 -2.6475518 2.1065061
1.3372223 -2.2369475 1.450768
0.2422476 -0.40459093 0.18100367
1.2458096 -2.0956016 2.2525196
1.4149482 -2.3782487 2.0985622
1.5861441 -2.6649544 1.9080261
1.459581 -2.4494016 1.4055529
1.4365658 -2.4098315 1.0655838
0.24904238 -0.41758665 0.20798479
0.013144337 -0.043831583 3.7241316
0.56181979 -0.98638284 7.21668
0.71348113 -1.2393367 6.8986359
1.0459762 -1.7968756 6.693924
1.3585321 -2.3209138 6.3951254
0.83457071 -1.4211867 3.0876219
1.143723 -1.9430752 3.3840973
1.4102285 -2.3930261 3.4021988
0.10159674 -0.19898611 3.7032392
0.18982641 -0.34128925 3.5991802
0.89026946 -1.5422586 6.893661
1.1630595 -1.9996909 6.3450346
1.52824 -2.6161287 6.3284512
1.3533702 -2.3103099 4.449789
1.004732 -1.7124023 2.7037458
1.6082846 -2.7367787 3.5195234
1.2550675 -2.1212673 2.5018933
1.2394072 -2.0923171 2.0432515
2.6593227 -4.4876652 3.5046537
1.5508476 -2.6149976 1.6780103
0.25086847 -0.42232758 0.18473415
1.4333467 -2.4284253 2.1368234
1.5636812 -2.6482027 1.892827
1.4281452 -2.4148312 1.0655838
0.25500819 -0.43100339 0.21150175
0.012983686 -0.043834228 3.7191319
0.55837327 -0.98833787 7.21668
0.70915067 -1.2418197 6.8986359
1.0389512 -1.7992229 6.6891518
1.3484606 -2.3222625 6.385921
0.83081025 -1.4261607 3.092011
1.1312577 -1.9373351 3.3675654
1.37922 -2.3591945 3.3484735
0.10090153 -0.19933952 3.7032392
0.18940483 -0.34335089 3.6140947
0.88425601 -1.544266 6.8888221
1.1560721 -2.0037384 6.3450346
1.5190988 -2.6214473 6.3284512
1.0714414 -1.8437318 3.5582085
0.9987486 -1.7158991 2.7037458
1.3361092 -2.276341 2.6736159
1.2774516 -2.1738138 2.1154361
2.6394038 -4.4897122 3.499171
1.5462028 -2.6280313 1.6826479
1.48894 -2.5297017 1.2742807
0.24939272 -0.4232007 0.18473415
1.5139712 -2.5876582 2.7513447
1.5228938 -2.6008408 2.278095
1.517388 -2.5904107 1.8497629
1.9751085 -3.3677967 1.892301
1.4244863 -2.4279475 1.0688709
0.012830596 -0.043879282 3.7191319
0.5549199 -0.99028099 7.21668
0.70481163 -1.2442875 6.8986359
1.0289552 -1.7963622 6.6652918
1.339371 -2.3252628 6.3813181
0.82942158 -1.4352733 3.1051781
1.1216674 -1.936402 3.3592994
1.2455567 -2.1477211 3.0491483
0.10007676 -0.1994319 3.6982474
0.1869285 -0.34167033 3.5892372
0.87886012 -1.5473433 6.8888221
1.1490707 -2.0077617 6.3450346
1.5110238 -2.6286213 6.3329525
1.064999 -1.8474606 3.5582085
0.99275285 -1.7193749 2.7037458
1.3783993 -2.3672845 2.7717433
1.2541738 -2.1513584 2.0903282
2.6405673 -4.5277944 3.5211027
1.5571165 -2.6678452 1.7035172
1.4871132 -2.5468941 1.2798998
0.23551841 -0.40286475 0.18007106
1.5199231 -2.6187615 2.7779486
1.5442584 -2.6585686 2.3222425
1.4715176 -2.5323288 1.8066989
2.0569146 -3.535511 1.9783211
1.4088765 -2.4206614 1.0639404
0.012677352 -0.043923803 3.7191319
0.55145979 -0.992212 7.21668
0.70046389 -1.2467401 6.8986359
1.0138307 -1.7843679 6.6080279
1.3293078 -2.3265312 6.3721128
0.82678843 -1.4423155 3.1139565
1.0139641 -1.7646285 3.0617273
1.2204714 -2.1214943 3.0069356
0.099380009 -0.19978003 3.6982474
0.18548101 -0.34185195 3.5842657
0.87345356 -1.5504016 6.8888221
1.1420553 -2.0117607 6.3450346
1.5029172 -2.6357708 6.3374538
0.98674512 -1.7228297 2.7037458
1.3558581 -2.3473763 2.7437069
1.3051118 -2.2568078 2.1844821
2.716877 -4.6962376 3.6417272
1.5278181 -2.6387618 1.6826479
1.4758903 -2.5480578 1.2780267
0.24889645 -0.42918086 0.18566677
1.5107727 -2.6240511 2.7779486
1.5369868 -2.6674452 2.3251858
1.4174604 -2.4590199 1.7535021
1.3933349 -2.413296 1.0590098
0.012523952 -0.043967787 3.7191319
0.54761803 -0.99345028 7.211741
0.69610769 -1.2491777 6.8986359
0.99953538 -1.773591 6.5555363
1.3192523 -2.3277576 6.3629079
0.82293248 -1.4472747 3.1183455
0.98550415 -1.7290398 2.9956
1.3290228 -2.3289659 3.2870736
0.098682038 -0.20012571 3.6982474
0.18378247 -0.34155792 3.5743227
0.8674233 -1.5523437 6.8839827
1.1341792 -2.014231 6.3403416
1.4958507 -2.6447909 6.3464561
1.3274144 -2.3403237 4.4711185
0.98072523 -1.7262636 2.7037458
1.1205882 -1.9692904 2.5345793
1.3317002 -2.3242457 2.7121661
1.3262771 -2.3119936 2.231559
2.9065089 -5.0647349 3.9131322
1.4965359 -2.6056654 1.6594599
1.4531296 -2.5290761 1.2667886
0.24984625 -0.43430504 0.18659939
1.4775327 -2.5871589 2.7347171
1.5477234 -2.7078867 2.3546171
1.3778621 -2.4058516 1.0540793
0.012370399 -0.044011235 3.7191319
0.54414696 -0.99535584 7.211741
0.69125062 -1.2507086 6.8937402
0.99042547 -1.7718573 6.5364485
1.308247 -2.3272395 6.3491006
0.82140487 -1.4563969 3.1315129
0.93099332 -1.6467303 2.8509469
1.3272002 -2.3447485 3.3024235
0.097982869 -0.20046896 3.6982474
0.18258908 -0.34219736 3.5743227
0.86199933 -1.5553622 6.8839827
1.1271414 -2.0181775 6.3403416
1.4876745 -2.6518948 6.3509574
1.319237 -2.3449428 4.4711185
0.97469348 -1.7296765 2.7037458
1.1103747 -1.9672854 2.5272288
1.3218168 -2.3257794 2.7086616
1.3008742 -2.2861621 2.2033129
2.9984455 -5.2674475 4.0584302
1.5137446 -2.6570616 1.6872855
1.4419972 -2.5301054 1.2649156
0.23859049 -0.41810849 0.18286891
1.4408884 -2.5435696 2.6848347
1.2535187 -2.2101259 1.5787128
1.3647906 -2.4024346 1.0507922
0.012216696 -0.044054147 3.7191319
0.540299 -0.996566 7.2068014
0.68688059 -1.2531139 6.8937402
0.98495805 -1.7766092 6.5412197
1.2982128 -2.3283789 6.3398952
0.81631607 -1.4592552 3.1315129
0.92661583 -1.6524246 2.8550797
1.3190074 -2.3493669 3.3024235
0.097157814 -0.20054939 3.6932559
0.18089592 -0.34188974 3.5643797
0.85656482 -1.5583616 6.8839827
1.1192536 -2.0205903 6.335649
1.479467 -2.6589739 6.3554587
1.3008775 -2.3313136 4.4369907
0.96864986 -1.7330683 2.7037458
1.1018448 -1.9681909 2.5235536
1.3101878 -2.3241658 2.7016525
1.2909731 -2.2872994 2.2001743
1.0639803 -1.884351 1.5033835
1.5589435 -2.7587454 1.7452556
1.4331566 -2.5351236 1.2649156
1.3807904 -2.4574392 2.5917206
1.6377449 -2.9124007 2.5164909
1.2436829 -2.210731 1.5761796
1.35176 -2.3989561 1.0475053
0.012062844 -0.044096526 3.7191319
0.53681707 -0.99844593 7.2068014
0.68250221 -1.2555039 6.8937402
0.97731245 -1.7774204 6.5316763
1.2881866 -2.3294771 6.3306899
0.81818843 -1.4746616 3.1578474
0.93041605 -1.6728641 2.8840106
1.3014429 -2.3371549 3.2793987
0.096457176 -0.20088732 3.6932559
0.17970142 -0.3425191 3.5643797
0.85111994 -1.5613421 6.8839827
1.1113629 -2.0229726 6.3309565
1.4733317 -2.6698401 6.3689623
1.2851549 -2.3221488 4.4113955
0.96259445 -1.736439 2.7037458
1.0949677 -1.9720252 2.5235536
1.2985862 -2.3224995 2.6946433
1.282981 -2.2917917 2.2001743
1.1493373 -2.0522261 1.6267495
1.6965816 -3.026938 1.9029338
1.4129622 -2.5198925 1.2555504
1.3067712 -2.3448296 2.4720025
1.6315067 -2.9251599 2.5223775
1.3410741 -2.399538 1.0458617
0.011908845 -0.044138361 3.7191319
0.53332859 -1.0003136 7.2068014
0.67811555 -1.2578787 6.8937402
0.96967298 -1.7781999 6.5221319
1.2791079 -2.3322465 6.326088
0.80379969 -1.4607219 3.1227345
0.91913456 -1.6662455 2.8674786
1.2870786 -2.3304603 3.2640488
0.095878229 -0.20148401 3.6982474
0.17727731 -0.34077841 3.5395222
0.84566462 -1.5643035 6.8839827
1.1042948 -2.0268395 6.3309565
1.460868 -2.6692376 6.3554587
1.2795509 -2.3311932 4.4199271
0.95652729 -1.7397884 2.7037458
1.0897129 -1.9788051 2.5272288
1.2852829 -2.317662 2.6841297
1.2352957 -2.2247937 2.1342669
1.1807441 -2.1256781 1.6788374
1.5633217 -2.812151 1.7707623
1.3094153 -2.368984 2.4919558
1.6095469 -2.9096155 2.5047183
1.4223363 -2.5701342 1.8117652
1.3304007 -2.4000745 1.0442182
0.011754701 -0.044179663 3.7191319
0.52947062 -1.0014822 7.2018623
0.6737206 -1.2602381 6.8937402
0.96275002 -1.7802607 6.5173602
1.2700257 -2.334981 6.3214855
0.80213755 -1.469826 3.1359019
0.91601372 -1.6743813 2.8757446
1.2696975 -2.3180716 3.2410235
0.095174335 -0.20181747 3.6982474
0.177062 -0.34329128 3.5594082
0.84079283 -1.5683538 6.8888221
1.0963928 -2.0291636 6.3262634
1.4494649 -2.6704941 6.3464561
1.2689121 -2.3310642 4.4113955
0.95044845 -1.7431167 2.7037458
1.0860486 -1.9885473 2.5345793
1.272029 -2.3127596 2.6736159
1.1880945 -2.1574917 2.0683591
1.4871926 -2.6973341 1.6988796
1.3280594 -2.422652 2.5418379
1.4133562 -2.5750833 1.8117652
1.3220148 -2.4047039 1.0442182
0.011600413 -0.044220425 3.7191319
0.52597153 -1.0033244 7.2018623
0.66931742 -1.2625821 6.8937402
0.96076214 -1.7915035 6.5459919
1.2627947 -2.3411193 6.326088
0.80042154 -1.4789361 3.1490691
0.90345407 -1.6652012 2.8550797
1.2570086 -2.3140399 3.229511
0.094469279 -0.20214847 3.6982474
0.17658912 -0.34533185 3.5743227
0.83531314 -1.5712792 6.8888221
1.089303 -2.0329785 6.3262634
1.4421978 -2.6793714 6.3554587
0.94435805 -1.7464238 2.7037458
1.0968604 -2.0251174 2.575006
1.2571175 -2.3046627 2.6595979
1.1357816 -2.0796397 1.9930362
1.6771045 -3.069586 2.3779113
1.4798933 -2.7063954 1.7011983
1.3338614 -2.453516 2.5684421
1.1564767 -2.1254697 1.8454504
1.4167242 -2.6027186 1.8269643
1.3136127 -2.4093039 1.0442182
0.011452049 -0.044303857 3.7241316
0.52246606 -1.0051543 7.2018623
0.66490614 -1.2649108 6.8937402
0.95590436 -1.7974824 6.5555363
1.2546149 -2.3455131 6.326088
0.89496946 -1.6633883 2.8468139
1.2230824 -2.2704418 3.1642735
0.093883209 -0.20273951 3.7032392
0.17610413 -0.34737328 3.5892372
0.83040929 -1.5752974 6.893661
1.0821999 -2.0367684 6.3262634
0.99167353 -1.8524096 3.5070174
0.93683219 -1.747054 2.6997557
1.1266792 -2.0976267 2.6595349
1.2371879 -2.2870796 2.635066
1.1007104 -2.032253 1.9459594
1.6743474 -3.0901275 2.3888772
1.4641021 -2.6998622 1.6942419
1.3500948 -2.5041692 2.6149991
1.1548085 -2.1401651 1.85428
1.4342502 -2.6569626 1.8598957
1.3051947 -2.4138746 1.0442182
0.01129733 -0.044343561 3.7241316
0.51895428 -1.0069718 7.2018623
0.66048676 -1.2672241 6.8937402
0.60501611 -1.1472008 4.1934042
1.2473354 -2.351604 6.3306899
0.91046482 -1.7107136 3.6187005
0.88518393 -1.6590537 2.834415
1.1864558 -2.2209811 3.0913608
0.093174949 -0.20306599 3.7032392
0.1753682 -0.348939 3.5991802
0.82548755 -1.5793004 6.8985004
1.0742794 -2.0390067 6.3215709
0.98275578 -1.8512526 3.4984856
0.93072814 -1.7503135 2.6997557
1.1400679 -2.1404455 2.7073119
1.2106533 -2.2568147 2.5965159
1.0825595 -2.0155087 1.9271286
1.6635506 -3.095953 2.3888772
1.454669 -2.7049565 1.6942419
1.3483869 -2.5220375 2.6283011
1.145424 -2.1406193 1.8513367
1.4412423 -2.6923573 1.880161
1.2967608 -2.4184158 1.0442182
0.011136711 -0.044339478 3.7191319
0.51543611 -1.0087771 7.2018623
0.65605927 -1.2695218 6.8937402
0.60031635 -1.147983 4.188632
1.2391191 -2.3559439 6.3306899
0.8754397 -1.6546714 2.8220162
1.1366868 -2.1458011 2.9839108
0.092465542 -0.20338999 3.7032392
0.17462346 -0.35050377 3.6091232
0.81996977 -1.5821723 6.8985004
1.0671554 -2.0427444 6.3215709
0.89409983 -1.7035269 4.0418344
0.95442247 -1.8131305 3.4216986
0.92461276 -1.7535517 2.6997557
1.4239014 -2.6960008 3.3835423
0.98001939 -1.8422738 2.1304114
1.0791769 -2.0261462 1.9334055
1.6507673 -3.0980506 2.3861356
1.4431337 -2.7061093 1.6919231
1.2922331 -2.4221337 1.1974864
1.3395752 -2.5267289 2.6283011
1.3122381 -2.4730937 2.1221075
1.288311 -2.4229276 1.0442182
0.010981869 -0.044378083 3.7191319
0.51226258 -1.0112635 7.2068014
0.6511597 -1.2708981 6.8888454
0.59355772 -1.1447704 4.1695442
1.2317911 -2.3619871 6.3352928
0.86835122 -1.655225 2.8178833
1.0934196 -2.0816529 2.8918107
0.091755025 -0.20371152 3.7032392
0.17410545 -0.35254583 3.6240377
0.81444192 -1.585025 6.8985004
1.0600183 -2.0464568 6.3215709
0.88915282 -1.7085687 4.0463357
0.88534057 -1.6962224 3.1998701
0.91848606 -1.7567686 2.6997557
1.4113365 -2.694948 3.3761916
0.96526361 -1.8299118 2.1128886
1.0866396 -2.0574353 1.9585133
1.6340829 -3.0927029 2.3779113
1.4461035 -2.7346261 1.7058359
1.2750989 -2.4102383 1.1899942
1.3168483 -2.50495 2.6016972
1.3111254 -2.4919677 2.1338801
1.1212355 -2.1301551 1.5001842
1.2776433 -2.4232328 1.0425748
0.010826894 -0.044416144 3.7191319
0.50872952 -1.0130454 7.2068014
0.64671952 -1.2731633 6.8888454
0.58819342 -1.1441799 4.1599998
1.2226415 -2.364537 6.3306899
0.75904775 -1.462917 3.0876219
0.85997117 -1.6532531 2.8096173
1.0683805 -2.051343 2.8457606
0.091043375 -0.20403056 3.7032392
0.17334147 -0.35410947 3.6339808
0.80833375 -1.5867381 6.893661
1.05208 -2.0486093 6.3168778
0.85783947 -1.6576093 3.1230834
0.91234821 -1.7599639 2.6997557
1.3753626 -2.6487095 3.3137143
1.1372336 -2.1715558 2.0589437
1.4365491 -2.7396572 1.7058359
1.2602172 -2.4023583 1.184375
1.2666771 -2.4300673 2.5218852
4.2525191 -8.1515636 6.7781873
1.1337383 -2.1722724 1.5255162
1.266989 -2.4234929 1.0409312
0.010666477 -0.044410359 3.7141321
0.50553632 -1.0155108 7.211741
0.6422714 -1.275413 6.8888454
0.92100006 -1.8072416 6.5316763
1.2143803 -2.3687904 6.3306899
0.75284117 -1.463428 3.0832329
0.85290521 -1.6537439 2.8054843
1.0479782 -2.029428 2.811223
0.090330616 -0.20434712 3.7032392
0.1723365 -0.35519224 3.638952
0.80222356 -1.588428 6.8888221
1.0449226 -2.0522695 6.3168778
0.77013671 -1.5054181 3.5602047
0.84133351 -1.6397096 3.0846899
0.90619922 -1.7631378 2.6997557
1.3692119 -2.6595225 3.3210645
1.1970844 -2.3083231 2.635066
1.1852498 -2.2825985 2.1562359
1.0611778 -2.0427873 1.5938519
1.4535414 -2.7957497 1.7359804
1.2582414 -2.4190812 1.1899942
1.2444731 -2.4079382 2.495281
4.1924696 -8.1053247 6.7281537
1.4431338 -2.7887893 1.9308248
1.2541754 -2.4195158 1.0376441
0.010511391 -0.044447321 3.7141321
0.50198847 -1.0172693 7.211741
0.63781548 -1.2776471 6.8888454
0.57817221 -1.1442614 4.1456842
1.2052191 -2.3712735 6.326088
0.7444641 -1.4596462 3.0700655
0.84584635 -1.6542054 2.8013513
1.032124 -2.0159552 2.788198
0.089616768 -0.20466119 3.7032392
0.17155659 -0.3567529 3.648895
0.79554874 -1.5889704 6.8791428
1.0377525 -2.0559042 6.3168778
0.75798512 -1.4945062 3.5286961
0.83560473 -1.6426364 3.0846899
0.9000392 -1.7662904 2.6997557
1.192281 -2.318831 2.6420751
1.1950908 -2.3213286 2.1876206
1.0578698 -2.0539136 1.5993348
1.4214472 -2.7574944 1.7104735
1.2412902 -2.4069774 1.1825022
1.2292497 -2.3989758 2.4819791
4.158618 -8.1091204 6.7193246
1.4707782 -2.866684 1.9789551
1.2435637 -2.4196792 1.0360007
0.010356176 -0.044483744 3.7141321
0.49843445 -1.0190153 7.211741
0.63335174 -1.2798659 6.8888454
0.90568727 -1.8082883 6.5125885
1.1969345 -2.3754659 6.326088
0.73720318 -1.4579612 3.0612874
0.83879465 -1.6546379 2.7972186
1.0134755 -1.9966805 2.757498
0.088901818 -0.20497276 3.7032392
0.17076789 -0.35831249 3.6588383
0.78832132 -1.58836 6.864625
1.031342 -2.0610576 6.3215709
0.75178587 -1.4951981 3.524195
1.2091568 -2.397716 4.4625864
0.89386827 -1.7694213 2.6997557
0.90059829 -1.7796847 2.240566
1.1874187 -2.3293331 2.6490843
1.1852111 -2.3220191 2.1844821
1.2522615 -2.4523404 1.8899302
1.3856062 -2.7111607 1.6803291
1.2307702 -2.4071679 1.180629
1.2496158 -2.4598432 2.5385127
4.1321182 -8.1271906 6.7222672
1.4900782 -2.929435 2.0169528
1.2329658 -2.4197977 1.0343572
21.41868 -42.000271 1.9955126
0.010200836 -0.044519618 3.7141321
0.49487439 -1.0207489 7.211741
0.62888032 -1.2820688 6.8888454
0.89605111 -1.8047535 6.488728
1.1877624 -2.3778818 6.3214855
0.73318267 -1.4626667 3.0656767
0.83175021 -1.6550413 2.7930856
0.99641478 -1.9801633 2.7306354
0.088185787 -0.20528184 3.7032392
0.1695161 -0.35890642 3.6588383
0.78166252 -1.5888462 6.8549457
1.0241413 -2.0646453 6.3215709
0.74559104 -1.4958647 3.5196936
1.2171059 -2.4345813 4.5223098
0.88768637 -1.7725308 2.6997557
0.92478245 -1.843423 2.3140695
1.184106 -2.3430123 2.6595979
1.1612819 -2.2948852 2.1562359
1.2644678 -2.4977338 1.9200864
1.2181681 -2.4031794 1.176883
1.2981213 -2.5775721 2.6515796
4.1110015 -8.156002 6.7340398
1.5963011 -3.1655653 2.1689434
1.2223828 -2.419872 1.0327138
21.271942 -42.074776 1.9955126
0.010045371 -0.044554956 3.7141321
0.4913083 -1.0224701 7.211741
0.62440121 -1.2842562 6.8888454
0.88315547 -1.7944769 6.4410081
1.1794548 -2.3820133 6.3214855
0.73233509 -1.4737967 3.0832329
0.82596797 -1.6579347 2.7930856
0.96660596 -1.9377376 2.6692355
0.087468684 -0.20558842 3.7032392
0.16826226 -0.35949594 3.6588383
0.77445924 -1.5881754 6.8404274
1.0169281 -2.0682075 6.3215709
0.74132919 -1.5004101 3.524195
1.1877563 -2.3967516 4.4455228
0.88149369 -1.7756186 2.6997557
0.95004153 -1.9103864 2.3912477
1.183907 -2.3630738 2.6771207
1.1480285 -2.2884874 2.1468205
1.2669946 -2.5245554 1.9365352
1.6469988 -3.2789168 2.0072799
1.2056091 -2.3991325 1.1731369
21.204012 -42.141148 4.3281083
1.3241388 -2.6522403 2.721415
1.2767168 -2.5550365 2.1633117
1.6257191 -3.2520914 2.2221403
1.2139283 -2.4241242 1.0327138
21.13406 -42.185329 6.6729975
21.216726 -42.331898 2.0037756
0.0098897843 -0.04458975 3.7141321
0.4877362 -1.0241789 7.211741
0.61991453 -1.286428 6.8888454
0.87165129 -1.7868156 6.4028325
1.1780186 -2.4001467 6.3583055
0.73036057 -1.4827896 3.0964
0.81892979 -1.6582845 2.7889526
0.92005783 -1.8606502 2.5617852
0.086750515 -0.20589249 3.7032392
0.16723011 -0.36056489 3.6638098
0.76672322 -1.5863421 6.8210697
1.0097024 -2.0717447 6.3215709
0.73704463 -1.5049437 3.5286961
0.91147357 -1.8554587 3.4515603
0.87529022 -1.7786847 2.6997557
1.1962724 -2.408715 2.7226796
1.1400331 -2.2924807 2.1468205
1.1594632 -2.3305449 1.7912376
1.6079001 -3.2291298 1.9748167
1.1930929 -2.3950272 1.1693908
21.09902 -42.29958 4.3366032
1.3115604 -2.6501536 2.7147641
1.3072597 -2.6391628 2.2280614
1.5856467 -3.1998079 2.1841426
1.2033595 -2.4241168 1.0310701
20.995487 -42.276588 6.6757603
21.104397 -42.477287 2.007
0.0097340764 -0.044624001 3.7141321
0.48448965 -1.0265779 7.21668
0.61542028 -1.288584 6.8888454
0.86540884 -1.7898473 6.4028325
1.1747608 -2.4147849 6.385921
0.72938281 -1.4939389 3.1139565
0.81313628 -1.6611332 2.7889526
0.87547082 -1.7861404 2.4581726
0.08592131 -0.2059271 3.6982474
0.16574842 -0.36066186 3.6588383
0.75955248 -1.5856079 6.8065519
1.0024647 -2.0752566 6.3215709
0.73463857 -1.5133828 3.5421999
0.90727443 -1.8633187 3.4600921
0.86907613 -1.7817292 2.6997557
1.302797 -2.666292 3.2953384
1.2099081 -2.4576702 2.7717433
1.1767678 -2.3872178 2.2284205
1.0625498 -2.154568 1.6596472
1.1806203 -2.3908637 1.1656448
20.94511 -42.360577 9.0632782
21.030699 -42.53368 4.3526978
1.2973685 -2.644659 2.7047877
1.3746396 -2.7997258 2.3546171
1.1948904 -2.4283028 1.0310701
20.877272 -42.409508 11.491541
20.93746 -42.531776 6.7040782
20.944958 -42.52829 2.0059924
0.0095782503 -0.044657707 3.7141321
0.48090327 -1.0282629 7.21668
0.61091858 -1.2907244 6.8888454
0.85722095 -1.7888188 6.3885164
1.1756575 -2.4382291 6.4365482
0.72833604 -1.5050995 3.1315129
0.80733293 -1.6639614 2.7889526
0.83281624 -1.7142262 2.3583977
0.085201971 -0.20622577 3.6982474
0.16514958 -0.36269435 3.6737528
0.75185722 -1.5837073 6.7871943
0.99446934 -2.0771863 6.3168778
0.72746402 -1.5120144 3.5331974
1.1818616 -2.4489884 4.5180435
0.86285144 -1.784752 2.6997557
1.2890489 -2.6616695 3.2843127
1.2060136 -2.4714935 2.7822568
1.221398 -2.4997239 2.3257127
1.1046025 -2.2596931 1.7336668
1.2465812 -2.5479119 1.5713456
1.1681912 -2.3866425 1.1618987
20.829546 -42.499596 9.0772676
20.928123 -42.700737 4.3620868
1.3077211 -2.6894662 2.7446935
1.3630897 -2.8008723 2.3516741
1.2500231 -2.5674102 1.7636348
1.1843367 -2.4282148 1.0294267
20.73337 -42.49086 11.493885
20.847502 -42.724766 6.7227268
20.761312 -42.529305 2.0027678
0.0094223078 -0.044690866 3.7141321
0.47763756 -1.0306404 7.2216191
0.60640937 -1.2928491 6.8888454
0.84969109 -1.7891035 6.378973
1.1646123 -2.4370296 6.4227409
0.7272203 -1.5162709 3.1490691
0.80030024 -1.6642332 2.7848196
0.82682741 -1.7171229 2.3583977
0.084373496 -0.20625424 3.6932559
0.1643199 -0.36424085 3.6836958
0.74364942 -1.5806348 6.7629967
0.98721254 -2.0806451 6.3168778
0.72499216 -1.5204395 3.546701
1.7539345 -3.6671388 6.7192659
0.85661626 -1.7877531 2.6997557
1.281217 -2.6692092 3.2879879
1.197379 -2.4756882 2.7822568
1.2279334 -2.5355005 2.3539586
1.1915129 -2.4592128 1.876223
1.1951567 -2.4645584 1.520332
1.1578298 -2.3865347 1.1600257
20.646753 -42.539173 13.988733
20.747606 -42.709019 9.1061783
20.752831 -42.719776 4.3567214
1.3048091 -2.7074692 2.7579958
1.1618973 -2.4087853 2.0308697
1.257915 -2.6066997 1.7864335
1.1758534 -2.4323339 1.0294267
20.644178 -42.685493 11.52671
20.719799 -42.841858 6.7296333
20.549627 -42.4711 1.9969233
0.0092701968 -0.044766944 3.7191319
0.47436112 -1.0330075 7.2265587
0.60189277 -1.294958 6.8888454
0.84216958 -1.7893572 6.3694286
1.1485732 -2.4251888 6.3813181
0.72809136 -1.5317788 3.1754036
0.79448605 -1.6670166 2.7848196
0.84705597 -1.7749609 2.4313099
0.083653018 -0.2065475 3.6932559
0.16369842 -0.36627293 3.6986103
0.73547238 -1.5775247 6.7387996
0.97994369 -2.0840783 6.3168778
0.72433037 -1.5328023 3.5692072
1.738889 -3.6685252 6.7107339
0.85037059 -1.7907323 2.6997557
1.2806298 -2.692034 3.310039
1.185647 -2.4734209 2.7752478
1.2392865 -2.5818796 2.3916202
1.1847315 -2.4671264 1.8789644
1.1942223 -2.4846857 1.5296072
1.1454742 -2.3822057 1.1562797
20.491899 -42.598011 13.984503
20.662329 -42.91396 9.1341572
1.1499953 -2.4055328 2.0249834
1.2692673 -2.6538529 1.8142985
1.1653155 -2.4321651 1.0277832
20.574892 -42.923855 11.571259
20.396933 -42.533566 1.9965204
0.0091138752 -0.04479903 3.7191319
0.47107396 -1.0353644 7.2314978
0.59694302 -1.296126 6.8839502
0.83465672 -1.7895803 6.3598847
1.1392707 -2.4274149 6.3767157
0.72682196 -1.5429777 3.1929598
0.78746063 -1.6672354 2.7806866
0.84359562 -1.7837019 2.4389851
0.082931526 -0.20683825 3.6932559
0.16306473 -0.36830506 3.7135248
0.72732615 -1.5743766 6.7146025
0.97266293 -2.0874863 6.3168778
0.93406087 -1.9946883 4.61799
0.8441146 -1.7936898 2.6997557
1.2813443 -2.7179532 3.3357651
1.1708851 -2.4646597 2.7612295
1.2319386 -2.5897048 2.3947587
1.1509563 -2.4183874 1.8405839
1.2522165 -2.6288137 1.6107651
1.1351573 -2.3820045 1.1544065
20.456623 -42.90744 14.062055
20.474325 -42.906021 9.1173697
1.0957822 -2.3149109 2.3622611
1.1398609 -2.4058795 2.0220401
1.2433789 -2.6232085 1.7914999
1.1568185 -2.436218 1.0277832
20.462473 -43.074436 11.59236
20.194725 -42.491695 1.9914821
0.0089574419 -0.044830568 3.7191319
0.46777615 -1.0377109 7.2364373
0.59241503 -1.2982018 6.8839502
0.82777876 -1.7911279 6.355113
1.1242001 -2.4172049 6.3398952
0.7254833 -1.5541863 3.2105162
0.78163606 -1.6699739 2.7806866
0.84008455 -1.7924405 2.44666
0.082209021 -0.20712648 3.6932559
0.16156454 -0.36838365 3.7085533
0.71921086 -1.5711911 6.6904058
0.96537036 -2.0908689 6.3168778
0.76676303 -1.6471535 3.0420306
0.83784825 -1.7966253 2.6997557
1.2804585 -2.7408388 3.3578162
1.1668316 -2.4784117 2.7717433
1.2062942 -2.5587823 2.3633742
1.0889976 -2.3089325 1.7583399
1.1692829 -2.4769387 1.520332
1.124856 -2.3817606 1.1525337
20.337463 -43.043648 14.083205
20.307631 -42.9417 9.1099091
1.0781811 -2.2984397 2.342308
1.1314559 -2.4098439 2.0220401
1.1389129 -2.4246387 1.6597745
1.1483074 -2.4402413 1.0277832
20.262304 -43.040062 11.564224
20.01009 -42.485096 1.9880561
0.0088008996 -0.044861563 3.7191319
0.46478429 -1.0407565 7.2463155
0.5878799 -1.3002619 6.8839502
0.82090008 -1.7926491 6.3503408
1.1182084 -2.4264374 6.353703
0.71301633 -1.5414929 3.1797926
0.77461809 -1.6701392 2.7765536
0.81357223 -1.7517563 2.3890977
0.081485517 -0.20741217 3.6932559
0.15985391 -0.36796707 3.6986103
0.71112669 -1.567968 6.6662083
0.95806599 -2.0942259 6.3168778
0.71824205 -1.5620606 3.6187205
0.77193165 -1.6735027 3.0846899
0.83157176 -1.7995391 2.6997557
1.2837007 -2.7729802 3.3908927
1.1687274 -2.5050926 2.7962751
1.1380476 -2.436024 2.2503896
1.0756199 -2.3013556 1.7501155
1.1137042 -2.3806932 1.4623619
1.112605 -2.3772745 1.1487875
20.203363 -43.149132 14.094486
20.140936 -42.976742 9.1024475
1.0528394 -2.2649443 2.3057275
1.126447 -2.421108 2.0279264
1.1468142 -2.4637735 1.6825732
20.030983 -42.976112 22.006329
1.1397824 -2.4442346 1.0277832
20.107834 -43.101719 11.56188
19.82152 -42.468666 1.9842269
0.0086409096 -0.044848505 3.7141321
0.46146271 -1.0430833 7.251255
0.58333755 -1.3023061 6.8839502
0.8146376 -1.7955037 6.3503408
1.1105433 -2.4321032 6.3583055
0.70064694 -1.5287317 3.1490691
0.76878345 -1.672833 2.7765536
0.80477273 -1.748762 2.3814225
0.080761008 -0.20769535 3.6932559
0.15835834 -0.36803293 3.6936388
0.70358884 -1.5658543 6.6468506
0.95074993 -2.0975575 6.3168778
0.71188265 -1.5625771 3.6142192
1.0024009 -2.1932981 4.0146632
0.82528514 -1.8024307 2.6997557
1.2895608 -2.8113406 3.4313195
1.1599758 -2.5091569 2.7962751
1.1262672 -2.4329174 2.2441127
1.1273257 -2.4341016 1.8433253
1.1053871 -2.3845663 1.4623619
1.1023496 -2.3769383 1.1469145
20.032429 -43.175873 14.080384
19.945276 -42.948769 9.0819302
1.037117 -2.2516491 2.2891002
1.1247578 -2.4397082 2.0396991
1.1508452 -2.495163 1.7003053
19.964579 -43.227066 22.098644
1.1332242 -2.4524851 1.0294267
19.912386 -43.074581 11.536089
19.63331 -42.451443 1.9803978
0.0084843058 -0.044878393 3.7141321
0.45906568 -1.0475347 7.2710118
0.5787881 -1.3043343 6.8839502
0.80836511 -1.7983364 6.3503408
1.102852 -2.4377449 6.3629079
0.68936551 -1.5180835 3.1227345
0.76177347 -1.6729453 2.7724209
0.080035523 -0.207976 3.6932559
0.15686424 -0.36809283 3.6886673
0.6955635 -1.5625588 6.6226535
0.94342226 -2.1008635 6.3168778
0.70731944 -1.5670367 3.6187205
1.1152203 -2.462878 4.4924479
0.81774366 -1.8025564 2.6957657
1.2685184 -2.7911336 3.4019182
1.1556655 -2.5229175 2.8067887
1.1388637 -2.4828265 2.2849128
1.1362619 -2.4760261 1.8707401
1.0989058 -2.3924358 1.4646807
1.0921102 -2.3765595 1.1450413
19.869574 -43.219383 14.071925
19.768541 -42.960117 9.0698061
1.0121993 -2.217891 2.2525196
1.1263113 -2.4656794 2.057358
1.1869226 -2.5971844 1.7636348
19.875889 -43.432678 22.167881
1.1246566 -2.4564257 1.0294267
19.729519 -43.073116 11.517331
19.432976 -42.406178 1.9753596
0.0083275996 -0.044907738 3.7141321
0.45695233 -1.0526949 7.2957082
0.57423156 -1.3063468 6.8839502
0.80269003 -1.8025109 6.355113
1.096733 -2.446928 6.3767157
0.68013209 -1.5117439 3.1051781
0.75592917 -1.6755942 2.7724209
0.89678603 -1.9850993 2.6845856
0.079309069 -0.2082541 3.6932559
0.1555784 -0.36863819 3.6886673
0.68807667 -1.5603765 6.6032958
0.93608314 -2.1041436 6.3168778
0.69562513 -1.5555848 3.5872121
1.0148175 -2.2621119 4.1255779
0.81144661 -1.8053999 2.6957657
1.2378898 -2.7491755 3.3467906
1.1285796 -2.4832432 2.2817743
1.1293427 -2.4837835 1.8734815
1.1657786 -2.5615652 1.5597515
1.0799657 -2.3719187 1.1412953
19.674841 -43.19244 14.040904
19.598083 -42.984165 9.0604801
0.99983644 -2.2112043 2.2425432
1.1293634 -2.4953728 2.07796
1.1440662 -2.5266986 1.7155044
19.746649 -43.551395 22.193056
1.1160752 -2.4603364 1.0294267
19.544897 -43.066479 11.497402
19.253849 -42.405514 1.9723365
0.0081707919 -0.044936534 3.7141321
0.18735197 -0.43533108 3.0133715
0.56966811 -1.3083433 6.8839502
0.79639322 -1.8053019 6.355113
1.0945269 -2.4650259 6.4135356
0.66607696 -1.4944204 3.0656767
0.74892747 -1.6756535 2.7682879
0.89639777 -2.0028458 2.7037728
0.078682221 -0.20880027 3.6982474
0.15429066 -0.36917901 3.6886673
0.68011063 -1.5570092 6.5790987
0.92942858 -2.1089778 6.3215709
0.68754607 -1.5520324 3.5737085
0.83110178 -1.8700143 3.4174328
0.80513966 -1.8082215 2.6957657
1.2227615 -2.7410953 3.3320899
0.85430753 -1.8999205 2.1269066
1.1199046 -2.4871674 2.2817743
1.1206659 -2.4877107 1.8734815
1.0912808 -2.4202406 1.4762747
1.0697734 -2.3714483 1.1394223
19.490406 -43.186523 14.016933
19.373098 -42.886677 9.0259733
0.9997437 -2.2317183 2.2591705
1.1487589 -2.562 2.1279938
1.0717227 -2.3890815 1.62431
19.585207 -43.599358 22.182566
1.1074802 -2.4642174 1.0294267
19.370531 -43.081245 11.483335
19.011431 -42.262878 1.9630661
0.0080138845 -0.044964779 3.7141321
0.18522279 -0.43455246 3.0034931
0.56469458 -1.3093888 6.879055
0.79008663 -1.8080708 6.355113
1.074118 -2.4420066 6.3444982
0.66182363 -1.4989275 3.0700655
0.74307376 -1.6782576 2.7682879
0.89070022 -2.0088928 2.7076104
0.077952892 -0.20907365 3.6982474
0.15300104 -0.36971533 3.6886673
0.67217654 -1.5536054 6.5549016
0.92206115 -2.1122093 6.3215709
0.68562293 -1.5623969 3.5917132
0.82877225 -1.8824518 3.4344964
0.80003887 -1.8137779 2.6997557
1.1871512 -2.6864297 3.2622619
0.85492587 -1.9191794 2.1444294
1.1001166 -2.4661787 2.259805
1.1136793 -2.4954257 1.876223
1.057706 -2.366703 1.1356763
19.292545 -43.149193 13.983093
19.201204 -42.904716 9.0157137
1.0267808 -2.3136897 2.3356571
1.1660616 -2.625098 2.1750844
1.1631615 -2.6173501 1.7687012
19.410753 -43.617699 22.157389
