# .PCD v0.7 - Point Cloud Data file format
VERSION 0.7
FIELDS x y z
SIZE 4 4 4
TYPE F F F
COUNT 1 1 1
WIDTH 1596
HEIGHT 1
VIEWPOINT 0 0 0 1 0 0 0
POINTS 1596
DATA ascii
2.8393993 10.007678 7.6581922
3.6716764 12.949656 7.9952545
4.3589859 15.394156 7.4836102
5.9388332 20.973486 7.675777
5.7504272 20.321627 5.1844726
6.6608033 23.53882 3.5041575
0.20714299 0.68494439 4.5494804
0.22132207 0.74413288 3.7558999
0.26248714 0.89815849 3.0385842
0.84190303 2.905808 7.1867599
0.99108213 3.4384964 6.6252198
1.3599342 4.7366576 7.3103981
1.7698946 6.1766319 7.769279
0.75418413 2.57622 7.3539791
0.96602839 3.3232689 7.2196918
1.1219622 3.8772388 6.6723404
1.60173 5.5495486 7.723196
1.9360312 6.7253346 7.6651092
2.1511111 7.5567117 7.8007674
2.5452192 8.95893 7.5920429
3.2599244 11.482192 7.9101901
4.1414866 14.606599 8.0338402
5.7152267 20.170382 8.5585051
6.3158212 22.334555 4.4981022
2.4160833 8.4427176 7.9025445
2.8641608 10.021641 7.6729083
3.7012668 12.959162 8.0053873
4.3870921 15.390891 7.4857087
5.982121 21.000465 7.6889253
5.8235965 20.457491 5.2208142
6.5526962 23.018703 3.4302547
0.20953263 0.68421715 4.5494804
0.22391824 0.74335581 3.7558999
0.26731649 0.90296167 3.057672
0.85204107 2.9028513 7.1867599
1.0030787 3.4350159 6.6252198
1.37646 4.7318816 7.3103981
1.795019 6.1827288 7.7846284
0.7641536 2.5768805 7.3633652
0.97700793 3.3177881 7.2151904
1.1354896 3.8732986 6.6723404
1.6253204 5.5583849 7.7431469
1.9775305 6.7803721 7.7349367
2.1774757 7.5491571 7.8007674
2.577553 8.9537315 7.5951815
3.301141 11.474761 7.912931
4.1961184 14.604827 8.0407972
5.7472186 20.016632 8.5023146
2.446579 8.4378185 7.90587
2.9013743 10.019347 7.6787944
3.75367 12.971009 8.020587
4.4433084 15.384204 7.4899049
6.0658655 21.015749 7.7020731
5.8868876 20.409016 5.2137804
0.21215016 0.68422365 4.55442
0.22383545 0.73380524 3.7118428
0.27046677 0.90202302 3.057672
0.86216873 2.8998597 7.1867599
1.015063 3.4314935 6.6252198
1.3937644 4.7297478 7.3145313
1.8138765 6.1672006 7.7731166
0.77463335 2.5791557 7.3774433
0.98858315 3.3143578 7.2151904
1.1490029 3.8693116 6.6723404
1.6489918 5.5671225 7.7630963
2.0079105 6.7961864 7.760663
2.2118165 7.5688944 7.8288035
2.6098814 8.9484167 7.59832
3.3400054 11.459154 7.9101901
4.2495489 14.598598 8.045435
5.7626672 19.80949 8.4236469
11.87328 40.894768 3.9159017
2.4770696 8.4328089 7.9091954
2.9351931 10.00528 7.6758518
3.802563 12.970238 8.0281858
4.4982562 15.372955 7.492003
11.37434 38.897282 14.193934
6.1284456 20.971273 3.1394784
0.21500324 0.68496144 4.5642986
0.22820009 0.73885614 3.7412143
0.27361378 0.90107346 3.057672
0.87228584 2.8968322 7.1867599
1.027035 3.4279294 6.6252198
1.4102658 4.7248535 7.3145313
1.8189201 6.1055388 7.704041
0.78363156 2.5764358 7.3774433
1.0001464 3.3108866 7.2151904
1.1625023 3.8652773 6.6723404
1.6675488 5.5584464 7.7591062
2.0296779 6.7826409 7.7533131
2.247334 7.5919042 7.8603444
2.6411014 8.9392519 7.59832
3.3764324 11.435394 7.9019656
4.3042407 14.596421 8.0523911
5.8344007 19.798147 8.427393
12.122752 41.216175 3.9498796
2.5064905 8.4241114 7.9091954
2.9724023 10.002722 7.6817374
3.8600864 12.998209 8.0535183
11.544917 38.975056 14.236665
6.3112516 21.320127 3.1933515
0.21762848 0.68494713 4.5692377
0.23169023 0.74097025 3.7558999
0.67836517 2.2055595 7.424037
0.88182247 2.891901 7.1821575
1.0389944 3.4243233 6.6252198
1.4267499 4.719902 7.3145313
1.8328143 6.0746036 7.6733413
0.24394727 0.7833398 3.196341
0.79058826 2.5670879 7.3586721
1.0116974 3.3073754 7.2151904
1.1767474 3.8636904 6.6766062
1.6825614 5.5381765 7.7391567
2.0582573 6.7917366 7.7716885
2.2697241 7.5703492 7.8463259
2.6734049 8.9337063 7.6014585
3.4103384 11.403508 7.8882585
4.3577008 14.589797 8.0570288
5.9299932 19.866505 8.4648533
12.26655 41.173607 3.9498796
2.5348039 8.4117355 7.90587
3.0084651 9.9961557 7.6846809
3.897985 12.959887 8.0383186
12.306252 41.044945 6.0686526
12.380769 41.319672 1.8336834
0.2214471 0.68862092 4.5988731
0.23489034 0.74209827 3.7656903
0.6833964 2.194627 7.3954048
0.89191169 2.8888054 7.1821575
1.0516446 3.422965 6.6296086
1.4432168 4.7148933 7.3145313
1.8109243 5.9271622 7.4968157
0.2447892 0.77648979 3.1721437
0.79800302 2.5593703 7.344594
1.0238802 3.3059032 7.2196918
1.1909958 3.8620515 6.6808724
1.6992251 5.5236292 7.7271862
2.0660391 6.732655 7.7128859
2.2930276 7.5521431 7.8358126
2.7045729 8.9243202 7.6014585
3.4489112 11.387533 7.8855166
4.4111671 14.582976 8.0616665
6.0019875 19.854563 8.4686003
6.6748528 22.122168 4.4785171
12.421707 41.168678 3.9534564
2.563061 8.3992653 7.9025445
3.0445185 9.98946 7.687624
3.9419441 12.942078 8.0357857
12.473909 41.082291 6.0803943
12.532179 41.300106 1.834691
0.22264573 0.68414998 4.5741768
0.23810117 0.743213 3.775481
0.69195074 2.1950755 7.4049492
0.90199006 2.8856742 7.1821575
1.064298 3.42156 6.6339979
1.459666 4.7098265 7.3145313
1.8344448 5.9299912 7.5083284
0.25093949 0.78640717 3.2156987
0.80589306 2.553278 7.3352084
1.0354139 3.302309 7.2196918
1.2052469 3.8603601 6.6851382
1.7175996 5.5147877 7.723196
2.0895278 6.7254024 7.7128859
2.3183274 7.5406842 7.8323083
2.7368503 8.9185467 7.6045966
3.4984484 11.407405 7.9074488
4.4659367 14.580196 8.0686226
6.076684 19.851221 8.4760923
6.7520323 22.098732 4.4785171
12.588618 41.201267 3.9606094
2.5956709 8.4009695 7.9125209
3.0793698 9.9787722 7.687624
3.9845555 12.92 8.0307198
7.0745969 22.996397 8.4630184
6.3250256 20.572636 5.281775
12.609961 41.014828 6.0769405
12.689473 41.299091 1.8365048
0.22478916 0.6826306 4.5692377
0.24100831 0.7433458 3.780376
0.70097023 2.196913 7.4192653
0.91205746 2.8825083 7.1821575
1.0762349 3.4178243 6.6339979
1.4760975 4.7047029 7.3145313
1.8915359 6.0397835 7.6541533
0.25097719 0.77715403 3.1818225
0.81269979 2.5438743 7.3164372
1.0475932 3.3007495 7.2241926
1.2187146 3.8561296 6.6851382
1.732309 5.4943895 7.7032461
2.1231632 6.7504072 7.7496376
2.3446352 7.5325456 7.8323083
2.7679651 8.9089394 7.6045966
3.5432065 11.411097 7.9184141
4.5194283 14.572981 8.0732603
6.1459403 19.829889 8.4760923
7.0782824 22.852169 7.1218734
6.8436484 22.12196 4.4878435
12.736775 41.171349 3.9619505
2.628324 8.4025478 7.9224973
3.1153886 9.9718199 7.690567
4.0257759 12.893668 8.0231199
7.1548257 22.971563 8.4630184
6.4025779 20.568996 5.2864642
6.562686 21.083351 3.1719403
12.857301 41.330875 1.8397293
0.22692472 0.68110478 4.5642986
0.24360162 0.74249995 3.780376
0.707717 2.1916118 7.4097214
0.92211372 2.879307 7.1821575
1.0888863 3.4163287 6.6383872
1.492511 4.6995215 7.3145313
1.9377916 6.1125836 7.7539282
0.25525132 0.78105205 3.2011805
0.82210553 2.5426636 7.3211298
1.0591087 3.2970726 7.2241926
1.2329624 3.8543363 6.6894045
1.7578902 5.5084028 7.7311764
2.1487703 6.7494154 7.7569885
2.3741295 7.5345192 7.8428216
2.8002141 8.902935 7.6077347
3.5955558 11.43855 7.9458289
4.5742502 14.569796 8.0802164
6.2151222 19.808313 8.4760923
7.2139864 23.005836 7.1768646
6.9384446 22.154186 4.4990349
12.890833 41.159904 3.9650805
2.6317146 8.3114519 7.8460107
3.1501777 9.9608841 7.690567
4.0707583 12.879537 8.0231199
7.2605281 23.027512 8.4926014
4.6059632 14.617185 3.78707
6.6094508 20.975298 3.159508
13.004495 41.295273 1.8401324
0.22905236 0.67957234 4.5593591
0.24619193 0.7416451 3.780376
0.71536291 2.1891279 7.4097214
0.93215877 2.8760707 7.1821575
1.1008048 3.4125068 6.6383872
1.5089064 4.694283 7.3145313
1.973806 6.1515617 7.811491
0.25797614 0.78015625 3.2011805
0.83580637 2.5545394 7.3633652
1.0706112 3.2933555 7.2241926
1.2464091 3.850009 6.6894045
1.7632153 5.4592223 7.6713262
2.1775157 6.7580075 7.7753639
2.4004157 7.526186 7.8428216
2.8324547 8.8968153 7.6108732
3.635462 11.425929 7.9458289
4.6277637 14.562182 8.0848541
6.2856312 19.790916 8.4779654
7.2942472 22.980516 7.1768646
7.0142498 22.125149 4.4981022
13.044965 41.147888 3.96821
2.6413388 8.2417688 7.7894773
3.186161 9.9536781 7.6935105
4.1209464 12.881673 8.0332527
5.417851 16.966223 8.320734
7.3667068 23.083004 8.5221844
4.6407123 14.550079 3.7741745
6.6946669 20.989843 3.1650336
13.160701 41.287704 1.8417447
0.23092103 0.67729795 4.5494804
0.24910368 0.74174637 3.7852714
0.72299999 2.1866176 7.4097214
0.94219244 2.8727992 7.1821575
1.1134533 3.4109204 6.642776
1.5252833 4.6889877 7.3145313
1.9913073 6.1324406 7.7961411
0.26149592 0.78163493 3.2108593
0.84743047 2.5597973 7.3868289
1.0821005 3.2895982 7.2241926
1.2606523 3.8481131 6.6936698
1.7654102 5.4014797 7.5995054
2.2042456 6.760035 7.7863894
2.4190035 7.4940042 7.8182898
2.8634932 8.8868742 7.6108732
3.6535344 11.345507 7.8992238
4.6812797 14.554374 8.0894918
6.3546762 19.768856 8.4779654
7.3392057 22.845301 7.1430235
13.199169 41.135296 3.9713397
2.6597247 8.2005348 7.7595477
3.2221322 9.9463396 7.6964536
4.1844759 12.924626 8.068717
5.475646 16.942888 8.3186359
7.4472365 23.057148 8.5221844
4.6735554 14.478284 3.7601066
13.313946 41.270042 1.8429538
0.23277663 0.67501891 4.5396023
0.25136355 0.73990834 3.780376
0.73062831 2.1840804 7.4097214
0.95221466 2.869493 7.1821575
1.126104 3.409287 6.6471648
1.5416416 4.6836348 7.3145313
2.0107002 6.1193619 7.788466
0.26462594 0.78190792 3.2156987
0.85964942 2.5666416 7.4149852
1.0942644 3.2878666 7.228694
1.2748977 3.8461642 6.6979361
1.7634392 5.332346 7.5117254
2.2246423 6.742641 7.7753639
2.4418259 7.4753456 7.8077765
2.8957036 8.8805256 7.6140118
3.7125494 11.392319 7.9403458
4.7361689 14.550581 8.0964479
6.4250784 19.750963 8.4798384
7.4960313 23.056768 7.2163453
7.183712 22.122364 4.5074286
13.353443 41.122124 3.9744692
2.6766903 8.1557236 7.7262926
3.2580907 9.9388742 7.6993971
4.2510395 12.975486 8.1092482
5.5418077 16.945238 8.3291264
4.7195377 14.448022 3.7565899
13.470327 41.261311 1.844566
0.23487529 0.67346865 4.5346627
0.25361365 0.73806357 3.775481
0.73824769 2.1815169 7.4097214
0.9622252 2.8661516 7.1821575
1.1387569 3.4076068 6.6515541
1.5588703 4.6808944 7.3186646
2.0249701 6.0910153 7.7616034
0.26776108 0.78216857 3.2205381
0.86915725 2.5652595 7.4196782
1.1057345 3.2840269 7.228694
1.2899742 3.8466365 6.7064681
1.7638755 5.2718644 7.4359145
2.2470911 6.7316184 7.7716885
2.463428 7.4532313 7.7937579
2.9266849 8.8703632 7.6140118
3.7522933 11.379291 7.9403458
4.7910886 14.546584 8.103405
6.4954319 19.732817 8.4817114
7.6379304 23.217291 7.2741566
13.509341 41.113106 3.9780455
2.7098496 8.1605053 7.7395949
3.2940364 9.9312754 7.7023396
4.2922373 12.948292 8.1016483
5.5552979 16.78791 8.2619886
13.625244 41.247246 1.8459767
0.23541361 0.66751611 4.5000882
0.25618842 0.7371738 3.775481
0.74585813 2.1789265 7.4097214
0.97222406 2.8627751 7.1821575
1.1514118 3.40588 6.6559434
1.5752001 4.6754246 7.3186646
2.0370231 6.0565677 7.727066
0.27090123 0.78241682 3.2253776
0.87810642 2.5622101 7.4196782
1.1171912 3.2801473 7.228694
1.3042314 3.8445797 6.7107339
1.794826 5.3027797 7.4877844
2.2694905 6.7205215 7.7680135
2.4894295 7.4445868 7.7937579
2.9588625 8.8637848 7.6171503
4.8460379 14.542378 8.1103611
6.5642729 19.710024 8.4817114
7.7143831 23.176834 7.269927
13.665339 41.103504 3.9816222
2.7478311 8.1793118 7.7661986
3.3299687 9.9235497 7.7052827
4.345633 12.957753 8.116848
5.5735207 16.647913 8.2032423
9.1229486 27.281477 4.1043582
13.780225 41.232601 1.8473874
0.23904866 0.67034906 4.5247846
0.25876006 0.73627502 3.775481
0.75443637 2.179131 7.4192653
0.98284596 2.861212 7.1867599
1.1632936 3.40184 6.6559434
1.5924187 4.6725612 7.3227973
2.0581522 6.0494204 7.727066
0.27404639 0.78265274 3.230217
0.88761008 2.5607595 7.4243712
1.1286342 3.2762275 7.228694
1.3193367 3.8449373 6.7192659
1.8396784 5.3734536 7.5955153
2.2896481 6.7029347 7.7569885
2.5154009 7.4358521 7.7937579
2.9910307 8.857091 7.6202888
4.9010158 14.537968 8.1173172
6.6315536 19.682596 8.4798384
7.717164 22.917906 7.1980147
9.6418238 28.666685 5.8336143
13.819846 41.088596 3.9847517
2.7835741 8.1908808 7.7861519
3.3671868 9.9195204 7.7111692
4.3936076 12.950669 8.1219139
5.6257753 16.61116 8.1948509
5.4640121 16.152048 4.2032428
13.936871 41.222111 1.8489997
0.24165098 0.6702413 4.5297236
0.26098734 0.73440802 3.7705855
0.761545 2.1750753 7.4144931
0.99282748 2.8577638 7.1867599
1.1751611 3.3977585 6.6559434
1.6087193 4.6669741 7.3227973
2.0813417 6.0482607 7.7347412
0.27677667 0.78169137 3.230217
0.89654338 2.5576458 7.4243712
1.1393472 3.2702122 7.2241926
1.3336049 3.8427722 6.7235317
1.8771579 5.4210997 7.6713262
2.3207815 6.7173314 7.7827144
2.5424962 7.4304008 7.7972627
3.0219293 8.8465958 7.6202888
4.9574523 14.537542 8.1265926
6.6957316 19.646164 8.4742184
7.8265038 22.977106 7.2248058
9.7402487 28.628204 5.8326817
13.976022 41.077824 3.9883285
2.8157897 8.1917076 7.7961283
3.4031043 9.9115295 7.7141123
4.4429846 12.947486 8.1295137
5.7146134 16.681589 8.2389097
5.5172124 16.123678 4.2008982
9.7797298 28.580563 4.305346
14.093612 41.211029 1.850612
0.2445219 0.67085361 4.5396023
0.26354933 0.73349249 3.7705855
0.7681362 2.1695895 7.4049492
1.0034444 2.8561239 7.1913624
1.1870143 3.393636 6.6559434
1.6250002 4.6613302 7.3227973
2.1024415 6.0409589 7.7347412
0.27992752 0.78190374 3.2350564
0.9060424 2.5561273 7.4290638
1.1507554 3.2662151 7.2241926
1.3470106 3.8380938 6.7235317
1.9070249 5.445797 7.7152166
2.3486884 6.7219911 7.7974148
2.5567541 7.3877797 7.762217
3.0540624 8.8396721 7.6234274
5.0125003 14.532712 8.1335487
6.7295194 19.521866 8.431139
7.9504123 23.076637 7.2642865
14.133908 41.071167 3.992352
2.844367 8.1818285 7.7961283
3.4390078 9.903409 7.7170558
4.492393 12.944116 8.1371126
5.7757797 16.670116 8.2431059
5.5798202 16.122696 4.2055874
9.4421463 27.282724 4.1188626
14.250443 41.199352 1.8522241
0.24847569 0.67436975 4.5692377
0.26610807 0.73256809 3.7705855
0.7711761 2.1542468 7.3620014
1.0134081 2.8526037 7.1913624
1.198853 3.3894715 6.6559434
1.6412615 4.6556296 7.3227973
2.126708 6.0426531 7.746253
0.28265518 0.78092188 3.2350564
0.91554171 2.5545733 7.4337564
1.1621497 3.2621784 7.2241926
1.3603998 3.8333685 6.7235317
1.9270283 5.441947 7.7192059
2.3732674 6.716948 7.8010898
2.5683897 7.3384175 7.7201629
3.0848999 8.8289576 7.6234274
3.9282608 11.248909 7.8964825
5.0675759 14.527675 8.1405058
6.7381039 19.327536 8.3580914
9.7880936 28.123415 5.7450156
14.290283 41.059208 3.9959288
2.8741481 8.1753731 7.7994537
3.4601631 9.8532066 7.687624
4.5432596 12.944626 8.1472454
5.8414378 16.671268 8.2535963
5.6408811 16.116882 4.2091041
9.5667696 27.333731 4.1312947
14.409015 41.191799 1.854038
0.24919933 0.66913021 4.5396023
0.26866359 0.73163468 3.7705855
0.77411842 2.1389098 7.3190532
1.0233594 2.8490489 7.1913624
1.2098706 3.3830111 6.6515541
1.6575027 4.6498723 7.3227973
2.1434891 6.0231142 7.7309036
0.28537938 0.77993047 3.2350564
0.92445326 2.5513618 7.4337564
1.1735296 3.2581017 7.2241926
1.3728918 3.8261418 6.7192659
1.9419496 5.42384 7.7032461
2.4001212 6.7182007 7.8121157
2.5797112 7.2890639 7.6781077
3.1156998 8.8181353 7.6234274
3.9744649 11.254843 7.9101901
5.1226768 14.522429 8.1474619
6.7253761 19.076544 8.2606936
9.9041424 28.140045 5.7552743
14.448401 41.051353 3.9999526
2.9039187 8.1688089 7.8027797
3.4634271 9.7534618 7.6199312
4.5941849 12.944939 8.1573782
5.8995957 16.650776 8.2535963
5.6987271 16.101677 4.2102766
9.9958706 28.243168 4.270812
14.567706 41.183636 1.8558517
0.2498894 0.6638937 4.5099664
0.27015209 0.72782898 3.7558999
0.78106689 2.1347928 7.3142819
1.0332983 2.8454595 7.1913624
1.2208579 3.3765149 6.6471648
1.6746778 4.6467056 7.3269305
2.1590748 6.0005155 7.7117162
0.28766382 0.77775079 3.230217
0.93394715 2.5497398 7.4384494
1.1848954 3.2539854 7.2241926
1.3853496 3.8188744 6.7149997
1.9547168 5.4000287 7.6793065
2.4085851 6.6683311 7.764338
2.5967283 7.2565107 7.6535764
3.146462 8.8072062 7.6234274
4.0249758 11.272404 7.9321218
5.177803 14.516976 8.154418
6.6969681 18.786579 8.1464376
10.046779 28.230255 5.7804551
14.604965 41.0382 4.0035291
2.9324155 8.1586227 7.8027797
3.4933543 9.7299004 7.6111016
4.6437106 12.940995 8.164978
5.9607434 16.638626 8.2577925
5.7581735 16.090839 4.2126217
14.726519 41.174877 1.8576655
0.24971633 0.65648228 4.4655132
0.27197522 0.72497511 3.7461095
0.78903186 2.1334534 7.3190532
1.0432245 2.8418353 7.1913624
1.2318143 3.3699834 6.642776
1.6879975 4.6328993 7.3145313
2.1756244 5.9808936 7.6963658
0.29037693 0.77674192 3.230217
0.94104397 2.5416093 7.4243712
1.1962467 3.2498295 7.2241926
1.3977736 3.8115671 6.7107339
1.9683766 5.3790236 7.6593556
2.4237075 6.6375909 7.7386122
2.6111226 7.2172208 7.622035
3.1785078 8.7998304 7.6265659
4.1026349 11.364475 8.0061407
5.2299476 14.502981 8.1567373
6.7562184 18.745644 8.1389465
4.7716322 13.246506 4.2284861
10.163554 28.245857 5.7907138
14.763303 41.029144 4.0075531
2.9621513 8.151845 7.8061047
3.4845436 9.5998631 7.5198641
4.6932654 12.936863 8.1725779
6.0203319 16.621984 8.2598896
5.8143058 16.070642 4.2126217
10.310735 28.498663 4.31916
14.885446 41.165501 1.8594793
0.25256455 0.65705699 4.4753919
0.27378169 0.72211742 3.7363191
0.80065614 2.1418715 7.3572292
1.0524582 2.8363447 7.1867599
1.2427402 3.3634167 6.6383872
1.7031863 4.6243382 7.3103981
2.1887445 5.9522052 7.6695037
0.2930865 0.77572352 3.230217
0.94809532 2.5334604 7.4102926
1.2075834 3.2456341 7.2241926
1.4101635 3.8042195 6.7064681
1.9787778 5.3495111 7.6274357
2.4632974 6.6736159 7.7900643
2.6387494 7.2147608 7.6290445
3.2092056 8.788681 7.6265659
4.1422796 11.350085 8.0061407
5.2896438 14.509607 8.1706495
6.8247848 18.730656 8.1426916
4.8162007 13.225263 4.2270761
10.30575 28.330231 5.8149619
14.91324 40.996082 4.0093412
2.9905884 8.1414557 7.8061047
3.4651215 9.4434462 7.4080238
4.741363 12.928497 8.1776438
6.0814381 16.609392 8.2640858
5.8737059 16.059376 4.2149658
10.435666 28.532261 4.3295202
15.044488 41.155525 1.8612931
0.25457492 0.65544713 4.4704523
0.27557155 0.71925586 3.7265284
0.81076604 2.1460454 7.3810892
1.0623525 2.8326538 7.1867599
1.2544732 3.3590581 6.6383872
1.7075363 4.586719 7.2608032
2.2095084 5.9445286 7.6695037
0.29579249 0.77469575 3.230217
0.95388025 2.5220652 7.3868289
1.2189054 3.241399 7.2241926
1.422519 3.7968314 6.7022018
1.9984941 5.3453937 7.6314259
2.4794674 6.6459188 7.7680135
2.6651542 7.2088509 7.6325493
3.2398643 8.7774258 7.6265659
4.1847682 11.343403 8.0116243
5.3433232 14.499367 8.1752872
6.9013424 18.737173 8.1558037
4.8623362 13.208369 4.2270761
10.41814 28.330969 5.822423
15.08547 41.023232 4.0169415
3.0176899 8.1274672 7.8027797
3.439028 9.2721243 7.2844114
4.7804699 12.8957 8.167511
6.140954 16.592321 8.2661848
5.9465833 16.084368 4.2266893
8.0434866 21.756071 3.3273432
15.203639 41.144936 1.8631068
0.2568613 0.65455449 4.4704523
0.27808055 0.71828955 3.7265284
0.82144719 2.1515691 7.4097214
1.0722338 2.8289282 7.1867599
1.265345 3.3524179 6.6339979
1.7156084 4.5596604 7.2277398
2.2370083 5.954783 7.6925282
0.29849488 0.77365851 3.230217
0.95713252 2.5042131 7.344594
1.2302126 3.2371247 7.2241926
1.43484 3.7894032 6.6979361
2.0245967 5.3581161 7.6593556
2.5002587 6.6308794 7.760663
2.6903019 7.1995039 7.6325493
3.2718441 8.7697096 7.6297045
4.221416 11.32089 8.0061407
5.3830791 14.451571 8.1590557
6.9683223 18.717312 8.1576767
4.9552536 13.317203 4.2665572
10.595698 28.506233 5.8653235
15.249397 41.026337 4.0223064
3.0460417 8.1168842 7.8027797
3.433064 9.1578751 7.204946
4.8390675 12.915265 8.1903095
6.2004247 16.575033 8.2682819
6.0094986 16.081724 4.2313786
8.1211157 21.732502 3.3280342
15.362904 41.133736 1.8649207
0.25914457 0.65365392 4.4704523
0.2791014 0.7135219 3.7069476
0.8321768 2.1570444 7.4383531
1.0821021 2.8251681 7.1867599
1.2770394 3.3479807 6.6339979
1.7185115 4.5194502 7.1740108
2.2623317 5.9589243 7.7078786
0.3016504 0.77378291 3.2350564
0.95716286 2.4783201 7.2788949
1.2407244 3.2307787 7.2196918
1.4471269 3.7819362 6.6936698
2.0443625 5.3538313 7.6633458
2.5245967 6.6252794 7.764338
2.7154164 7.1900687 7.6325493
3.3024364 8.7582359 7.6297045
4.2609076 11.306086 8.0061407
5.4038377 14.353923 8.1149988
4.9932661 13.277373 4.2595067
5.8632336 15.607179 3.2567849
15.38901 40.963535 4.0214124
3.0650876 8.0817633 7.7795005
3.4378011 9.0740185 7.1490254
4.8871737 12.906357 8.1953764
6.258244 16.553289 8.2682819
6.0810533 16.101572 4.2419295
8.2021751 21.717918 3.330106
15.529328 41.140621 1.8675406
0.26113549 0.65202415 4.4655132
0.28346285 0.71727759 3.7314239
0.84078568 2.156908 7.447897
1.0919571 2.8213737 7.1867599
1.2887182 3.3435025 6.6339979
1.7100519 4.4503818 7.0748205
2.2888591 5.9659534 7.727066
0.3043496 0.77272522 3.2350564
0.96580797 2.4749639 7.2788949
1.2519944 3.2264278 7.2196918
1.4603194 3.7768617 6.6936698
2.0662928 5.3550963 7.6753163
2.522125 6.5499887 7.68716
2.7379544 7.173883 7.6255398
3.334374 8.7502918 7.6328425
4.3003478 11.291143 8.0061407
5.4350057 14.285287 8.0871725
5.0208354 13.210538 4.2439961
5.9141898 15.577432 3.2549198
3.0919437 8.0675297 7.7761755
3.4766803 9.0808363 7.1637411
4.9630089 12.969742 8.2460394
6.3176074 16.535582 8.27038
6.1493535 16.112036 4.2501354
8.2920609 21.726168 3.3356316
15.678182 41.100163 1.8681451
0.26340988 0.65110862 4.4655132
0.28672048 0.71817482 3.7412143
0.84995085 2.1581264 7.462213
1.1017989 2.8175449 7.1867599
1.3012507 3.3412156 6.6383872
1.6878905 4.3473263 6.9219017
2.30967 5.9579272 7.727066
0.30751002 0.77282596 3.2398958
0.97697341 2.477999 7.2976661
1.263249 3.222038 7.2196918
1.4725451 3.7693121 6.6894045
2.0871623 5.353466 7.6832967
2.5302219 6.5032315 7.6430578
2.7604127 7.1576276 7.6185308
3.3662965 8.7422314 7.6359811
4.3427391 11.283869 8.0116243
5.4530449 14.183536 8.0407972
5.0531592 13.157106 4.2327161
5.952693 15.515415 3.246526
3.10795 8.0253506 7.7462459
3.5112741 9.0761852 7.1696277
4.9833765 12.888007 8.2055092
6.3769236 16.517662 8.2724781
6.2212987 16.131289 4.2606864
8.3731947 21.710951 3.3377035
15.848508 41.115112 1.8711681
0.26538688 0.64946616 4.4605742
0.29113111 0.72189051 3.7656903
0.85692704 2.1537595 7.4574409
1.1123452 2.8154988 7.1913624
1.3129057 3.336653 6.6383872
1.6609199 4.2340016 6.75245
2.3292842 5.9468441 7.7232285
0.31020582 0.77174789 3.2398958
0.98434007 2.4713674 7.288281
1.2744884 3.2176087 7.2196918
1.4847358 3.761723 6.6851382
2.1069407 5.3489509 7.6872859
2.546706 6.4785848 7.6246819
2.7827909 7.1413016 7.6115212
3.3982036 8.7340555 7.6391196
4.3821006 11.268641 8.0116243
5.5025215 14.164414 8.0407972
5.0903778 13.117026 4.225666
6.0014887 15.480802 3.2437284
3.1305022 8.0005445 7.7329435
3.5473495 9.0751677 7.1784573
4.9922528 12.778182 8.1472454
6.4378414 16.503761 8.2766752
6.2987471 16.16382 4.274754
8.4543228 21.695433 3.3397756
15.961106 40.9804 1.8677421
0.26705888 0.64709955 4.4506955
0.2936492 0.7208699 3.7656903
0.86443985 2.1507552 7.4574409
1.1221664 2.8115988 7.1913624
1.3254294 3.3342752 6.642776
1.6746526 4.2255626 6.7483177
2.3488488 5.9356971 7.7193909
0.31337094 0.77182484 3.2447352
0.9936049 2.4695172 7.292973
1.2849034 3.2111192 7.2151904
1.4978577 3.7565174 6.6851382
2.1233711 5.3359652 7.6793065
2.5630481 6.4539008 7.6063061
2.805089 7.1249084 7.6045127
3.4286706 8.7221403 7.6391196
4.4244671 11.26106 8.017107
5.5794454 14.21522 8.0802164
5.1869164 13.228694 4.2665572
6.0662394 15.487201 3.2493238
3.1433113 7.9513731 7.696363
3.5834603 9.074008 7.1872869
5.0874739 12.888991 8.2283077
6.4937472 16.476965 8.2745762
6.3426671 16.110077 4.2665482
8.553586 21.725691 3.3487544
0.26931605 0.6461634 4.4506955
0.29383767 0.71419138 3.7363191
0.8719421 2.1477246 7.4574409
1.1319739 2.8076644 7.1913624
1.3370602 3.3296282 6.642776
1.6873003 4.2144661 6.7400517
2.3707438 5.930438 7.7232285
0.3160632 0.77072626 3.2447352
1.0015693 2.4644351 7.288281
1.2969203 3.2086327 7.2196918
1.5109614 3.7512658 6.6851382
2.1419842 5.3285203 7.6793065
2.5842988 6.4417691 7.6026316
2.8286242 7.1117592 7.6010079
3.4605322 8.7137356 7.6422582
4.4791756 11.284412 8.0445223
5.627399 14.191541 8.077898
5.4167976 13.674335 4.4132004
6.1202626 15.465931 3.2493238
3.1668932 7.9299507 7.6863871
3.618108 9.0689516 7.1931729
5.156384 12.931216 8.266305
6.5260406 16.390949 8.2431059
6.3916769 16.069771 4.2618585
8.5945978 21.608274 3.3356316
11.228596 28.244928 1.3197795
0.27126822 0.64450336 4.445756
0.29554692 0.71128106 3.7265284
0.87943369 2.1446679 7.4574409
1.1417675 2.8036959 7.1913624
1.3486747 3.3249409 6.642776
1.6988361 4.2007246 6.7276525
2.395031 5.9310427 7.7347412
0.3187516 0.76961827 3.2447352
1.0095103 2.4593277 7.2835879
1.3089354 3.2061014 7.2241926
1.5230637 3.7435532 6.6808724
2.1583037 5.3154273 7.6713262
2.6067691 6.4327092 7.6026316
2.8534319 7.1018424 7.6010079
3.4909277 8.7016029 7.6422582
4.518538 11.268708 8.0445223
5.6867857 14.196484 8.0918102
5.5179644 13.788954 4.4555011
6.1778588 15.453596 3.2511892
3.1917605 7.911922 7.6797357
3.6542752 9.0675144 7.2020025
5.1789417 12.857158 8.2308407
6.5408764 16.2628 8.1906548
6.4622302 16.083447 4.2712374
8.7512074 21.780323 3.3660214
11.215412 27.927395 1.3076876
0.27412477 0.64498246 4.4556351
0.29645097 0.70648986 3.7069476
0.88691467 2.1415849 7.4574409
1.1515473 2.7996936 7.1913624
1.3593647 3.3179967 6.6383872
1.7124248 4.1921635 6.7235193
2.4145091 5.9196787 7.7309036
0.32192141 0.76966047 3.2495747
1.0174279 2.4541948 7.2788949
1.3159693 3.1914504 7.2016869
1.5361218 3.738214 6.6808724
2.1779883 5.3106484 7.6753163
2.627923 6.420433 7.5989561
2.8782046 7.0918388 7.6010079
3.5212808 8.6893644 7.6422582
4.5201712 11.159853 7.9787269
5.7396293 14.184759 8.0964479
5.546288 13.720687 4.439991
6.233604 15.436493 3.2521219
3.6904764 9.0659351 7.2108321
5.1718025 12.711227 8.1497784
6.575398 16.185207 8.1633797
6.5238156 16.074299 4.274754
8.7899361 21.657871 3.3522077
11.23771 27.702896 1.2996264
0.27668121 0.64473557 4.4605742
0.29891527 0.70545077 3.7069476
0.89380878 2.137099 7.4526691
1.1613131 2.7956567 7.1913624
1.3709384 3.3132315 6.6383872
1.7259746 4.1835594 6.7193866
2.4498088 5.9467778 7.7769542
0.32509536 0.76968986 3.2544141
1.0253218 2.4490366 7.2742023
1.5491613 3.7328291 6.6808724
2.2011251 5.3141489 7.6912761
2.6490233 6.4080877 7.5952806
2.904295 7.0850492 7.6045127
3.5515907 8.6770201 7.6422582
4.5543489 11.132397 7.9705024
5.7907844 14.168738 8.0987673
9.8372698 24.093515 7.7394676
6.2911601 15.423738 3.2539873
3.3705471 8.1898403 7.9690547
3.7267108 9.0642118 7.2196612
5.2177801 12.697084 8.1523123
6.5491552 15.960614 8.0626736
6.5891037 16.073917 4.2806158
12.007864 29.292789 4.5077157
0.2798577 0.64590436 4.4753919
0.30177674 0.70533907 3.7118428
0.90068233 2.1325908 7.447897
1.1718204 2.7933874 7.1959648
1.3824953 3.3084259 6.6383872
1.7394851 4.1749115 6.7152543
2.4545457 5.8997188 7.727066
0.32827345 0.76970649 3.2592535
1.0331923 2.4438531 7.2695098
1.5621818 3.7273989 6.6808724
2.2231503 5.3147731 7.7032461
2.6687636 6.3925452 7.5879302
2.9290087 7.0748682 7.6045127
3.5833447 8.6681681 7.6453967
4.6219225 11.185992 8.0198488
5.841897 14.152533 8.1010857
9.0583086 21.955402 9.6841974
9.8719358 23.939291 7.7013965
6.3487024 15.410766 3.2558522
3.4191775 8.2262936 8.0156116
3.7629788 9.0623474 7.2284908
5.2405872 12.627033 8.11938
6.5388012 15.778331 7.9829469
5.7917547 13.98947 3.742522
0.2821106 0.64492351 4.4753919
0.30423698 0.70428139 3.7118428
0.90753531 2.1280608 7.4431252
1.181564 2.7892799 7.1959648
1.3940355 3.3035798 6.6383872
1.7529565 4.1662211 6.7111211
2.4676754 5.8733845 7.704041
0.33145562 0.7697103 3.2640929
1.0410391 2.4386446 7.2648168
1.3484664 3.1754911 7.1971855
1.5751834 3.7219231 6.6808724
2.2452064 5.3153076 7.7152166
2.6884272 6.3769422 7.5805798
2.9550622 7.0678897 7.608017
3.6150799 8.6591978 7.6485353
4.6641612 11.177508 8.0253315
5.891263 14.132054 8.1010857
9.1277609 21.906534 9.6767063
9.8281851 23.599129 7.6041045
6.4062314 15.397581 3.2577174
3.4478717 8.2143087 8.0156116
3.7977149 9.056612 7.2343774
5.2713008 12.576858 8.0991154
6.5675554 15.692611 7.9514766
5.836802 13.960197 3.7401772
9.0449047 21.633171 3.3625681
0.2827892 0.64038157 4.4506955
0.30710086 0.70414835 3.716738
0.91377723 2.1221383 7.4335814
1.1920615 2.7869346 7.2005672
1.4055586 3.2986934 6.6383872
1.7663879 4.1574864 6.7069883
0.33464181 0.76970124 3.2689323
1.0495452 2.4349959 7.2648168
1.3569689 3.1647625 7.183682
1.5881658 3.7164021 6.6808724
2.2684753 5.3185244 7.7311764
2.708015 6.3612809 7.5732303
2.9811027 7.0608172 7.6115212
3.6467962 8.6501131 7.6516738
5.942276 14.115488 8.103405
9.1933851 21.8489 9.6654682
10.098332 24.011292 7.7465181
6.45994 15.375125 3.2577174
3.4808955 8.2125368 8.025588
3.8340337 9.0544662 7.2432065
5.2966886 12.514713 8.07125
6.616992 15.657048 7.9451818
5.8703718 13.903915 3.7307987
0.28438956 0.63797146 4.4408174
0.3095569 0.70307207 3.716738
0.91998887 2.1161978 7.424037
1.2025571 2.7845502 7.2051702
1.4180112 3.2959673 6.642776
1.7808895 4.1512952 6.7069883
2.4896865 5.81182 7.6464787
0.33833742 0.77083021 3.2786112
1.0587271 2.4329 7.2695098
1.3671428 3.1580086 7.1791806
1.6011287 3.7108355 6.6808724
2.2894104 5.3161087 7.7391567
2.7288647 6.3486748 7.5695548
3.0071304 7.0536494 7.615026
3.678493 8.6409121 7.6548123
5.9915123 14.094659 8.103405
9.2695951 21.816675 9.6654682
10.095829 23.772785 7.6816564
6.5231619 15.375091 3.2623804
3.5212941 8.2277966 8.0521917
3.8687947 9.0484619 7.2490931
5.31493 12.436688 8.0332527
6.6787314 15.650555 7.9535747
5.9055262 13.852041 3.7225926
0.28597647 0.63555795 4.4309382
0.31200922 0.70198721 3.716738
0.92557019 2.1088729 7.4097214
1.2138314 2.7839172 7.214375
1.4295076 3.2909973 6.642776
1.7953695 4.1450534 6.7069883
2.5035958 5.7883849 7.6272907
0.34153548 0.7707935 3.2834506
1.0672132 2.4291894 7.2695098
1.3799016 3.1572065 7.1881828
1.6140721 3.7052243 6.6808724
2.2995424 5.2887421 7.7112265
2.7496593 6.3360004 7.5658793
3.0331438 7.0463853 7.6185308
3.7117071 8.63517 7.6610885
4.7925081 11.154946 8.0445223
6.0406756 14.073659 8.103405
9.3566608 21.80975 9.6767063
10.023726 23.375877 7.5660334
6.5632515 15.320621 3.2558522
3.555917 8.2291641 8.0654936
3.9051621 9.0460348 7.2579226
5.3361068 12.366605 8.0003214
6.738709 15.639649 7.9598684
5.9480777 13.81795 3.7190757
0.28787163 0.63384849 4.4259992
0.31445771 0.70089382 3.716738
0.92990214 2.0988057 7.3858614
1.224329 2.7814512 7.2189775
1.4409866 3.2859874 6.642776
1.8098274 4.138761 6.7069883
2.5212204 5.773735 7.6196156
0.3452509 0.7718913 3.2931294
1.0770855 2.4286041 7.2788949
1.3926717 3.156354 7.1971855
1.6322457 3.711504 6.7022018
2.3107224 5.2641273 7.6872859
2.7717593 6.326364 7.5658793
3.0591431 7.0390253 7.622035
3.7433765 8.6257324 7.664227
4.8247609 11.122805 8.033556
6.0897651 14.052487 8.103405
9.427206 21.764193 9.6710863
10.048085 23.208681 7.5237327
6.6615424 15.401316 3.2773027
3.56969 8.1824789 8.032239
3.9399445 9.0397577 7.2638087
5.3465295 12.272814 7.9521909
6.8005018 15.632679 7.9682608
5.9943376 13.792645 3.7179034
0.28943431 0.63142747 4.416121
0.31732267 0.70071936 3.7216334
0.9335655 2.0873713 7.3572292
1.2356174 2.7807314 7.2281828
1.4524481 3.2809374 6.642776
1.8242635 4.1324186 6.7069883
2.5400665 5.7619667 7.6157789
0.34897813 0.77297246 3.3028083
1.0855563 2.4248297 7.2788949
1.4054525 3.1554506 7.2061877
1.6494246 3.7153187 6.7192659
2.3303044 5.2587848 7.6912761
2.795197 6.3197503 7.5695548
3.0836954 7.0283041 7.622035
3.7765875 8.6197433 7.6705041
4.8752985 11.132708 8.0527458
6.1405554 14.035202 8.1057234
9.9215412 22.698751 7.3714495
6.6936383 15.328448 3.2670438
3.5907061 8.1528835 8.0156116
3.9763594 9.0370493 7.2726383
5.3823953 12.238292 7.9420581
6.0561166 13.802794 3.7261095
0.29098359 0.62900317 4.4062419
0.31807256 0.6959036 3.7020524
0.93777484 2.0772977 7.3333697
1.2469156 2.7799664 7.2373877
1.464869 3.2780337 6.6471648
1.8386772 4.1260252 6.7069883
2.5627701 5.7589216 7.6234531
0.35271707 0.77403694 3.3124871
1.0954353 2.4241707 7.288281
1.418244 3.1544964 7.2151904
1.6666496 3.719058 6.7363296
2.3498771 5.2533689 7.6952662
2.8186221 6.3130507 7.5732303
3.1082098 7.0174971 7.622035
3.8098018 8.6136274 7.6767812
4.8701701 11.016188 7.9814677
6.1895099 14.013682 8.1057234
9.7717638 22.134676 9.8640099
10.023953 22.716644 7.3883696
6.6381197 15.057773 3.2157495
9.6805515 21.959146 2.2474027
3.6297612 8.1641827 8.0388899
4.0128026 9.0341959 7.2814679
5.4425745 12.258829 7.9673901
5.379982 12.140661 4.710887
6.1042609 13.78157 3.7261095
0.29219046 0.62587184 4.3914247
0.31793916 0.68924236 3.6726811
0.94068706 2.0645034 7.2999654
1.2574177 2.7773764 7.2419901
1.4772873 3.2750835 6.6515541
1.8530685 4.1195822 6.7069883
2.5854838 5.7557888 7.6311283
0.35594228 0.77394295 3.3173265
1.1124847 2.4391727 7.344594
1.4301462 3.1515088 7.2196918
1.6849961 3.7250991 6.7576594
2.3843205 5.2808361 7.7471366
2.8420343 6.3062639 7.5769048
3.1297753 7.000093 7.615026
3.8446059 8.6109381 7.6861963
4.9529004 11.0984 8.0527458
6.2401929 13.996037 8.1080418
9.8376455 22.075022 9.8527708
10.138322 22.760391 7.4137502
6.2053189 13.943947 2.9891229
9.7672672 21.947969 2.2496381
4.0476203 9.0275097 7.287354
5.4941473 12.259425 7.9800558
5.4107585 12.095943 4.701026
7.170105 16.036509 4.3275084
12.933545 28.940413 1.3723791
0.29337907 0.62273985 4.3766069
0.31862319 0.6844365 3.6531003
0.94539285 2.0557828 7.2808776
1.2687289 2.7765238 7.251195
1.4897031 3.2720866 6.6559434
1.8674372 4.1130886 6.7069883
2.6082067 5.7525673 7.6388035
0.35917112 0.77383584 3.3221662
1.1325386 2.4603553 7.4196782
1.4429514 3.150456 7.228694
1.7012384 3.7263117 6.7704568
2.4027395 5.2724814 7.7471366
2.8668375 6.3024769 7.5842552
3.154191 6.9891257 7.615026
3.8778391 8.6045628 7.6924734
4.9916105 11.081044 8.0527458
6.2908282 13.978209 8.1103611
10.229512 22.751114 7.4222102
6.2096715 13.823621 2.9686053
9.8519831 21.931913 2.2514265
4.2413049 9.3630362 9.2360697
4.0841074 9.024374 7.2961836
5.5440145 12.255883 7.9901886
5.4548917 12.081287 4.7026696
10.503126 23.272707 6.2489367
13.040648 28.908751 1.3729837
0.29488322 0.6203087 4.3667278
0.31841111 0.67779142 3.6237288
0.94942063 2.0457003 7.2570176
1.2792313 2.7738526 7.2557979
1.5021157 3.269043 6.6603327
1.8817831 4.106545 6.7069883
2.6296048 5.7463422 7.6426411
0.36187011 0.77257735 3.3221662
1.1367573 2.4469969 7.3915215
1.4548533 3.1473758 7.2331953
1.7142353 3.7203507 6.7704568
2.4211295 5.2640619 7.7471366
2.8902342 6.2955122 7.5879302
3.1903949 7.0040359 7.6430621
3.9126861 8.6016035 7.701889
5.0302606 11.063552 8.0527458
6.3432474 13.964231 8.1149988
5.3169494 11.71033 5.2844439
10.340585 22.785158 7.4447708
11.394028 25.129681 5.3299994
10.027189 22.115095 2.2728863
4.2801728 9.3617573 9.2493715
4.1239805 9.0284452 7.3108993
5.5921326 12.248219 7.997788
5.4970303 12.062173 4.7026696
7.2436013 15.902017 4.3052344
13.153901 28.890335 1.3741928
0.29502869 0.61507308 4.3370929
0.31815654 0.67115617 3.5943573
0.95592254 2.0410221 7.2522459
1.2897304 2.7711415 7.2604003
1.5155329 3.2681253 6.6691103
1.8961062 4.0999513 6.7069883
2.6523349 5.7429476 7.6503158
0.36510205 0.77244574 3.3270054
1.146757 2.4461389 7.400907
1.4667512 3.1442513 7.2376966
1.7206129 3.700155 6.7448611
2.4306085 5.2364459 7.7192059
2.9150426 6.2915368 7.5952806
3.2252519 7.0155382 7.667594
3.9459355 8.5949678 7.7081661
5.0426898 10.98892 8.0116243
6.3808761 13.917843 8.1010857
5.3519998 11.679056 5.2788253
10.36612 22.63117 7.4067001
11.471457 25.067421 5.3253365
10.096035 22.061846 2.2710979
4.3206472 9.3637104 9.2659998
4.158855 9.0213366 7.3167858
5.6366572 12.232541 8.0003214
6.3082681 13.721496 3.7331433
0.29480237 0.60914463 4.3025179
0.31610104 0.66085744 3.5454051
0.9624033 2.0363233 7.2474737
1.3002262 2.7683909 7.2650027
1.528962 3.2671535 6.6778889
1.9104062 4.0933075 6.7069883
2.6737196 5.7365599 7.6541533
0.37158555 0.77910763 3.3608816
1.1530746 2.4374411 7.3868289
1.4786451 3.1410818 7.242198
1.7313023 3.6894042 6.7363296
2.4296992 5.1869993 7.6593556
2.9384222 6.2843943 7.5989561
3.2512219 7.0074725 7.6710987
3.9808221 8.5917358 7.7175808
5.0652022 10.937102 7.9869509
6.3847752 13.798999 8.045435
5.3460302 11.559317 5.2338719
10.443041 22.590492 7.4052901
11.569187 25.049524 5.3299994
10.133311 21.940571 2.2626035
4.3596106 9.3621111 9.2793016
5.6829576 12.220608 8.0053873
10.750349 23.170265 6.2512817
13.550746 29.219301 1.3929352
0.29522079 0.60462159 4.2778215
0.31220624 0.64691389 3.476872
0.96950549 2.0329516 7.2474737
1.3115554 2.7673659 7.2742076
1.5424026 3.2661276 6.686667
1.9246829 4.0866141 6.7069883
2.6937277 5.7271914 7.6541533
0.37648407 0.78233594 3.3802392
1.1645497 2.4396307 7.4056001
1.4896004 3.1359012 7.242198
1.736357 3.6668394 6.7064681
2.4310498 5.1430717 7.6074858
2.9632342 6.2802305 7.6063061
4.373548 9.3408804 10.2154
4.0140858 8.5848398 7.7238579
5.1015782 10.915566 7.9842091
6.3935442 13.692337 7.9967399
5.3745832 11.51538 5.2226338
10.582675 22.68432 7.4475908
11.662782 25.022343 5.3327975
10.186693 21.855413 2.2576854
4.390676 9.3434563 9.2759752
4.4794054 9.540905 7.7582598
5.7274127 12.204599 8.0079212
10.320406 22.03175 8.5566978
10.806429 23.079771 6.2372136
13.678071 29.22612 1.3953536
0.29286197 0.59452808 4.2136111
0.30911008 0.63483638 3.4181292
0.97594857 2.0282099 7.2427015
1.3220502 2.7645335 7.2788105
1.5558548 3.2650478 6.6954451
1.9389361 4.0798707 6.7069883
2.7150772 5.7206497 7.6579909
0.38195881 0.78667009 3.4044361
1.1797986 2.449543 7.447835
1.5005378 3.1306825 7.242198
1.7525192 3.6678154 6.7192659
2.4347181 5.1046371 7.5635953
2.9865956 6.2729096 7.6099811
4.401556 9.3158827 10.204885
4.0490112 8.581337 7.7332735
5.1360826 10.890129 7.9787269
6.3959842 13.573764 7.9410892
10.827297 22.998795 7.5618038
7.8654261 16.722479 3.5999892
10.231128 21.752125 2.2509792
3.6761672 7.752562 7.7229671
4.5144129 9.5288639 7.7612028
5.76998 12.184533 8.0079212
10.38514 21.969976 8.5468378
10.95545 23.186937 6.2758999
13.780005 29.178198 1.3953536
0.29666591 0.59698051 4.2383075
0.30548424 0.62187469 3.3544912
0.98302239 2.0247908 7.2427015
1.3333904 2.7634211 7.2880154
1.5682802 3.2617555 6.6998339
1.9531655 4.0730782 6.7069883
2.7350295 5.7111373 7.6579909
0.38636208 0.7887181 3.4189546
1.1958851 2.4609306 7.4947624
1.5114566 3.1254256 7.242198
1.7630463 3.6569772 6.7107339
2.4446814 5.0798168 7.5396552
3.0114102 6.268558 7.6173315
4.4355831 9.3036814 10.20839
4.0822873 8.5741796 7.7395501
5.1776586 10.879684 7.9842091
6.4090867 13.479344 7.8993506
5.8130112 12.236694 4.0719724
12.405876 26.138514 5.5846047
10.306994 21.71628 2.2509792
3.6951485 7.7228422 7.7063398
4.5493908 9.5166941 7.7641463
5.8087592 12.156538 8.0028543
10.480063 21.971951 8.5616293
11.034228 23.144165 6.2747273
0.29909647 0.59663576 4.2432466
0.30403385 0.61350715 3.3153296
0.98942751 2.0200064 7.2379298
1.3447387 2.7622628 7.2972202
1.5817472 3.260571 6.7086124
1.9673715 4.0662351 6.7069883
2.7549484 5.7015557 7.6579909
0.22918718 0.44535929 4.6282816
0.39189848 0.79299849 3.4431517
1.207507 2.462939 7.5135336
1.5233119 3.122087 7.2466989
1.7758008 3.6508005 6.7107339
2.472928 5.092937 7.5715756
3.0362306 6.2641096 7.6246819
4.4726696 9.2977829 10.218904
4.1172485 8.5704021 7.7489657
5.1703534 10.767311 7.9156728
6.3813701 13.301126 7.8089175
5.8536162 12.212002 4.0705624
7.8674035 16.427917 3.5496275
10.449416 21.819405 2.2648387
3.7204604 7.7065344 7.7030144
4.5843387 9.5043974 7.7670894
5.8492856 12.132305 8.0003214
10.556696 21.935236 8.5616293
0.30117729 0.59558809 4.2432466
0.30480674 0.60971028 3.3006437
0.99581128 2.0152023 7.2331581
1.3560953 2.7610593 7.3064256
1.5952247 3.2593319 6.7173901
1.9815533 4.0593433 6.7069883
2.7748337 5.6919041 7.6579909
0.23320012 0.44928572 4.6779966
0.3969084 0.79612488 3.4625094
1.2130363 2.452522 7.4947624
1.5342007 3.1167505 7.2466989
1.7873849 3.6422386 6.7064681
2.4959929 5.0950971 7.5875354
3.0521204 6.241291 7.6099811
4.5050974 9.2821131 10.218904
4.1522331 8.5664864 7.7583814
5.1969676 10.726619 7.8992238
6.4296904 13.282757 7.8112359
5.8774109 12.152629 4.0578718
12.699187 26.281261 5.633101
10.525517 21.782797 2.2648387
3.7538788 7.7069278 7.7163162
4.617487 9.4883366 7.7670894
5.8878284 12.104059 7.9952545
7.9398265 16.358721 4.4763927
0.30325443 0.59453315 4.2432466
0.30601561 0.60682464 3.2908533
1.0021735 2.0103781 7.2283859
1.3674598 2.7598097 7.3156304
1.608713 3.2580385 6.7261686
1.995711 4.0524015 6.7069883
2.7960999 5.6850595 7.6618285
0.23303363 0.44516456 4.6431961
0.39968497 0.7947346 3.4625094
1.2192782 2.4436405 7.4806843
1.5450708 3.111376 7.2466989
1.8000877 3.6359773 6.7064681
2.523109 5.1052632 7.6154661
3.0708883 6.2245188 7.6026316
4.5421762 9.2759399 10.229418
4.1872396 8.5624294 7.767796
5.21418 10.66709 7.8690677
6.4760165 13.260233 7.8112359
13.044542 26.721647 12.102284
5.9029665 12.097548 4.0465918
12.876952 26.413391 5.6704059
10.621129 21.786211 2.2688625
3.7807584 7.6937776 7.7163162
4.6505795 9.4721613 7.7670894
5.9281445 12.079563 7.9927216
7.8921366 16.117002 4.4189491
0.30710676 0.59692484 4.2679429
0.30859393 0.60666019 3.2957487
1.0085142 2.0055342 7.2236137
1.3779585 2.7567668 7.3202333
1.6222118 3.2566907 6.7349467
2.0098443 4.0454106 6.7069883
2.8073797 5.6580377 7.6388035
0.23533392 0.44576198 4.6581101
0.86439681 1.7034748 7.3921223
1.2254729 2.4347453 7.4666061
1.5559222 3.1059637 7.2466989
1.8116032 3.6273382 6.7022018
2.5516703 5.1179986 7.6473861
3.0880654 6.2046561 7.5916057
4.5776863 9.2664232 10.236426
4.2205467 8.5547419 7.7740731
5.2236419 10.592571 7.8279457
6.522264 13.237546 7.8112359
5.3872099 10.93866 5.0147271
5.9493961 12.085477 4.0494118
12.906202 26.240452 5.6433601
10.725686 21.807096 2.2746747
3.814225 7.6939135 7.7296181
4.6836152 9.4558697 7.7670894
5.9683614 12.054934 7.9901886
5.5705895 11.26633 5.8974833
0.30739763 0.59240156 4.2432466
0.31024456 0.6046735 3.2908533
1.0155087 2.0020015 7.2236137
1.3884526 2.7536845 7.3248358
1.6357206 3.2552884 6.7437248
2.0226922 4.0358539 6.7028551
2.8185048 5.6310067 7.6157789
0.23588485 0.44305652 4.6382241
0.86861932 1.6970904 7.3776035
1.2316206 2.4258368 7.4525275
1.5667545 3.1005137 7.2466989
1.8242539 3.6209922 6.7022018
2.5708735 5.111752 7.6513753
3.1066628 6.1877799 7.5842552
4.6163673 9.263155 10.250445
4.2555861 8.5504122 7.7834888
5.2475481 10.548067 7.8087554
6.5861773 13.2504 7.8321052
5.5140581 11.098312 5.0952678
12.995537 26.19084 5.642427
10.786247 21.738297 2.2715449
4.6727591 9.3435946 9.3857174
4.7165937 9.4394636 7.7670894
6.0104046 12.034026 7.9901886
5.5977273 11.222447 5.8848944
11.424504 22.914053 9.0004454
0.30585784 0.58444226 4.1938543
0.31188512 0.60268277 3.2859581
1.0218108 1.9971156 7.2188416
1.3989421 2.7505624 7.3294377
1.6492393 3.2538311 6.7525034
2.0367677 4.028769 6.7028551
2.8294752 5.6039662 7.5927534
0.23692486 0.4412916 4.6282816
0.87338459 1.6918144 7.3679247
1.2385074 2.4184508 7.4431419
1.5775678 3.0950258 7.2466989
1.8368824 3.6146026 6.7022018
2.5914278 5.1081214 7.6593556
4.6550803 9.2597284 10.264462
4.2888994 8.5424614 7.7897654
5.2955885 10.552108 7.8252044
6.652245 13.266927 7.8552928
5.5693822 11.112153 5.1102519
13.071489 26.114569 5.6358991
10.81971 21.615902 2.2630503
4.7087092 9.3338947 9.3923683
4.7495151 9.4229412 7.7670894
6.0543137 12.016823 7.9927216
11.50654 22.878252 9.0020885
0.30063635 0.56963092 4.0950689
0.31351557 0.60068786 3.2810628
1.0280913 1.9922104 7.2140698
1.4094267 2.747401 7.3340406
1.6638581 3.2544518 6.7656703
2.0508182 4.0216346 6.7028551
2.8402917 5.5769186 7.5697284
0.23795544 0.4395248 4.6183381
0.88044596 1.6909851 7.3776035
1.2453578 2.4110465 7.4337564
1.5883617 3.0895004 7.2466989
1.8506783 3.6104896 6.7064681
2.6064973 5.093679 7.6513753
4.7198071 9.2393217 11.325573
4.6938267 9.2561464 10.278481
4.3222094 8.5343838 7.7960424
5.3474989 10.563404 7.847136
6.6865191 13.219909 7.8413806
5.5474787 10.972666 5.055934
6.5429711 12.947298 4.3539791
13.408328 26.555517 5.7394199
10.946723 21.680246 2.2733333
4.741262 9.3174009 9.3923683
4.7842102 9.4099083 7.7700329
6.0962234 11.995616 7.9927216
5.7231817 11.276178 5.9331503
0.30810362 0.5788641 4.169158
0.31513587 0.5986889 3.2761676
1.0350391 1.9886096 7.2140698
1.4190084 2.7424643 7.3340406
1.6774036 3.2528811 6.7744484
2.0648439 4.0144515 6.7028551
2.8509538 5.5498638 7.5467033
0.23897658 0.43775621 4.6083956
0.88634324 1.6879015 7.3776035
1.2529689 2.4051542 7.4290638
1.6001387 3.0858698 7.2512002
1.86327 3.6040075 6.7064681
2.6242616 5.0845499 7.6513753
4.7504768 9.2197771 11.321898
4.7261086 9.239706 10.278481
4.353744 8.5227098 7.799181
5.3919458 10.559569 7.8581023
6.7285981 13.188597 7.8367429
6.5671916 12.877768 5.9287672
6.5990195 12.94575 4.3610291
11.063016 21.721781 2.2813807
4.7873969 9.3273687 9.418972
4.8188715 9.3967476 7.7729759
6.1400251 11.978099 7.9952545
5.7852583 11.30057 5.9562283
6.5419188 12.784067 5.0872507
0.30754793 0.57299387 4.134583
0.31626838 0.59578693 3.2663772
1.0398927 1.9810195 7.1997538
1.4276687 2.7357624 7.3294377
1.6920636 3.2533805 6.7876158
2.0801404 4.0097175 6.7069883
2.8688345 5.5370326 7.5428658
0.24024571 0.43645257 4.6034241
0.89281809 1.6859078 7.382443
1.2605542 2.3992383 7.4243712
1.6109006 3.0802653 7.2512002
1.8770448 3.5997939 6.7107339
2.6406031 5.0726862 7.6473861
4.7841945 9.2061462 11.325573
4.7681422 9.2421675 10.299508
4.387033 8.5143814 7.8054581
5.4402599 10.562988 7.8745508
10.388586 20.188051 11.971163
6.6417899 12.91248 5.9549899
6.6441679 12.922637 4.3610291
13.752759 26.771492 5.8056359
11.17063 21.745047 2.2876396
4.8267922 9.323864 9.4322748
4.8534999 9.3834591 7.7759185
6.1817994 11.956594 7.9952545
11.024158 21.349823 11.195065
6.5951672 12.777939 5.0938249
0.31361791 0.57943171 4.1889148
0.31786528 0.59378177 3.261482
1.0495954 1.9826542 7.2188416
1.4362997 2.7290332 7.3248358
1.7056347 3.2516959 6.7963939
2.0941243 4.0024323 6.7069883
2.8866603 5.5241437 7.5390282
0.24150866 0.43514544 4.5984521
0.89869761 1.6827811 7.382443
1.2689214 2.3948238 7.4243712
1.6226586 3.0765491 7.2557015
1.889599 3.59322 6.7107339
2.6582937 5.0634379 7.6473861
4.8273172 9.2104092 11.351298
4.4203172 8.5059233 7.8117352
5.4790263 10.547645 7.8772922
10.465115 20.163462 11.97812
6.6163716 12.75342 5.8931799
6.6958609 12.912141 4.3652592
6.2191129 12.003033 2.6580429
11.271667 21.754559 2.2925577
4.8679495 9.3235073 9.4489021
4.8880939 9.3700428 7.778862
6.219512 11.927298 7.9901886
11.088134 21.291084 11.184576
6.6397305 12.75484 5.0938249
0.31638366 0.57969713 4.1987934
0.31945208 0.59177279 3.2565868
1.0579158 1.981612 7.2283859
1.445817 2.7240031 7.3248358
1.7203346 3.2520735 6.8095608
2.1080825 3.9950979 6.7069883
2.9089146 5.5197048 7.5467033
0.24302612 0.43429977 4.5984521
0.90397 1.6785272 7.3776035
1.2780865 2.3919017 7.4290638
1.6333879 3.0708661 7.2557015
1.9021301 3.586602 6.7107339
2.6773622 5.0567904 7.6513753
4.8641911 9.2024946 11.362325
4.4535947 8.4973364 7.8180113
5.5158114 10.528455 7.8772922
10.531325 20.118959 11.973482
6.254148 11.968189 2.6552448
11.365988 21.750391 2.2961342
4.907424 9.3196735 9.462204
4.9245362 9.3600779 7.7847481
6.2570949 11.897884 7.9851222
11.210925 21.344664 11.232831
6.6600661 12.685594 5.0757461
0.31990495 0.58131152 4.2185502
0.32054159 0.58886576 3.2467964
1.0676572 1.9831644 7.2474737
1.4553167 2.7189398 7.3248358
1.7339308 3.2502747 6.8183393
2.1220152 3.987715 6.7069883
2.9296684 5.5123477 7.5505409
0.24427833 0.43298477 4.5934811
0.90922368 1.674257 7.3727646
1.2864281 2.3874257 7.4290638
1.6451263 3.0670643 7.2602029
1.9146382 3.5799403 6.7107339
2.6949973 5.0474138 7.6513753
4.9026628 9.1974258 11.377025
3.610173 6.8214097 7.6640902
4.4868665 8.4886208 7.8242884
5.554482 10.512835 7.880034
10.622169 20.12125 11.99667
14.189231 26.900923 9.0296478
11.451128 21.728205 2.2979226
4.9486814 9.3189745 9.4788313
4.960968 9.3499727 7.7906346
6.2622313 11.807421 7.9395251
11.321478 21.373579 11.268497
6.7020974 12.658096 5.0741024
15.063197 28.46147 7.8573565
0.32268673 0.58154976 4.2284288
0.32210493 0.58685082 3.2419009
1.0774223 1.9846725 7.2665615
1.4647988 2.7138429 7.3248358
1.7486697 3.2505295 6.8315063
2.135922 3.9802835 6.7069883
2.9504063 5.5049124 7.554378
0.24578825 0.43212944 4.5934811
0.91385472 1.6688681 7.3630853
1.2964017 2.3859532 7.4384494
1.6558223 3.0613029 7.2602029
1.9283608 3.5755305 6.7149997
2.7140281 5.0406289 7.6553655
4.9411583 9.1922007 11.391726
3.6222072 6.7867422 7.6395578
4.5219636 8.4832125 7.833704
5.591145 10.493382 7.880034
10.646544 19.998024 11.945657
