# .PCD v0.7 - Point Cloud Data file format
VERSION 0.7
FIELDS x y z
SIZE 4 4 4
TYPE F F F
COUNT 1 1 1
WIDTH 1439
HEIGHT 1
VIEWPOINT 0 0 0 1 0 0 0
POINTS 1439
DATA ascii
-0.87278807 0.61789274 1.4907786
-0.85912544 0.60733473 1.2188703
-0.85832435 0.60295999 1.1105883
-0.83726621 0.58752364 0.90713024
-0.82335907 0.57755589 0.74399745
-0.81371993 0.57037961 0.6067248
-0.81695151 0.5724386 0.49135295
-0.82538396 0.57813895 0.38614678
-0.8129223 0.56899339 0.27986142
-0.79948211 0.55958909 0.18055625
-0.84530407 0.59558344 1.0021316
-0.83168739 0.58556366 0.82417381
-0.82284606 0.57912987 0.67690116
-0.81029952 0.56967413 0.54535127
-0.81565595 0.57323366 0.43611988
-0.80750006 0.56729734 0.3287335
-0.80220282 0.5635789 0.2289526
-0.79703373 0.55974591 0.13296394
-0.021907233 0.022927705 2.0991936
-0.17747435 0.12976617 1.3982341
-0.25841159 0.187336 1.557943
-0.31752175 0.22798203 1.2968099
-0.41096291 0.29365402 1.2495036
-0.52106839 0.37129587 1.2398196
-0.65643752 0.46676865 1.2556286
-0.86910629 0.6173439 1.3529714
-0.080134444 0.063852236 1.6117342
-0.12971826 0.096787758 1.466405
-0.26858681 0.19427682 1.313805
-0.37069792 0.26641452 1.2956182
-0.46334273 0.33172607 1.2420795
-0.63594931 0.45419675 1.3484546
-0.87307912 0.62268537 1.4947685
-0.85700023 0.61032999 1.2188703
-0.85621434 0.60595244 1.1105883
-0.83521026 0.59044266 0.90713024
-0.82475275 0.58283967 0.74673891
-0.81534237 0.57577193 0.6090436
-0.81873566 0.57796043 0.49322599
-0.82336086 0.5810166 0.38614678
-0.81093121 0.57182753 0.27986142
-0.79752392 0.56237638 0.18055625
-0.8462646 0.60069174 1.005457
-0.83293509 0.59080178 0.82711697
-0.8208195 0.58199859 0.67690116
-0.80830604 0.57249916 0.54535127
-0.81365001 0.57607734 0.43611988
-0.80948234 0.57292068 0.32990581
-0.80023068 0.56637567 0.2289526
-0.79915339 0.5654102 0.13316546
-0.021827068 0.023004036 2.0991936
-0.17702031 0.13038486 1.3982341
-0.25857797 0.18883795 1.5628382
-0.32035145 0.23171486 1.3111259
-0.40993536 0.29508674 1.2495036
-0.51976919 0.37311247 1.2398196
-0.65251666 0.46741834 1.2514956
-0.86955261 0.62223935 1.3568089
-0.079911068 0.064131565 1.6117342
-0.12937962 0.097239964 1.466405
-0.26892251 0.19595397 1.3186444
-0.36836818 0.26669452 1.2909254
-0.46218199 0.33334142 1.2420795
-0.65341192 0.47012421 1.3868481
-0.87334722 0.62748754 1.4987586
-0.85761905 0.61529416 1.2225455
-0.85699773 0.61100793 1.1140929
-0.8363145 0.59561259 0.91026872
-0.8227132 0.58571512 0.74673891
-0.81693709 0.58118248 0.6113624
-0.81671321 0.58081484 0.49322599
-0.82132769 0.5838871 0.38614678
-0.80893022 0.5746547 0.27986142
-0.79555601 0.56515688 0.18055625
-0.84416264 0.60364211 1.005457
-0.83086777 0.59370565 0.82711697
-0.81878299 0.58486021 0.67690116
-0.8099972 0.57795328 0.54744929
-0.81163418 0.57891399 0.43611988
-0.80747753 0.57574284 0.32990581
-0.79824883 0.56916559 0.2289526
-0.79717487 0.5681963 0.13316546
-0.021722306 0.023043865 2.0941939
-0.1765641 0.13100199 1.3982341
-0.25791723 0.18973941 1.5628382
-0.32195285 0.23459065 1.3206699
-0.40890282 0.29651591 1.2495036
-0.51846361 0.37492454 1.2398196
-0.65088105 0.46969318 1.2514956
-0.86997521 0.62714529 1.3606465
-0.079686724 0.06441012 1.6117342
-0.12903939 0.097690992 1.466405
-0.26823688 0.1968915 1.3186444
-0.36743498 0.26797873 1.2909254
-0.46101555 0.33495271 1.2420795
-0.67710537 0.49077114 1.4380392
-0.87359238 0.63229918 1.5027486
-0.8582136 0.62027001 1.2262206
-0.85485965 0.61399567 1.1140929
-0.8342303 0.59852827 0.91026872
-0.82406145 0.59102035 0.74948037
-0.81850398 0.58661121 0.6136812
-0.81844926 0.58636212 0.49509901
-0.81928456 0.58675051 0.38614678
-0.80691934 0.57747495 0.27986142
-0.79357839 0.56793046 0.18055625
-0.84205031 0.60658509 1.005457
-0.83207059 0.59896386 0.83006012
-0.8167364 0.58771473 0.67690116
-0.81166005 0.5834263 0.54954737
-0.80960846 0.5817436 0.43611988
-0.80941063 0.5813936 0.33107814
-0.7962572 0.57194853 0.2289526
-0.79924476 0.57388937 0.133367
-0.021641737 0.023119552 2.0941939
-0.17610574 0.13161752 1.3982341
-0.25725335 0.19063856 1.5628382
-0.32474107 0.23836416 1.3349857
-0.40786529 0.29794145 1.2495036
-0.51715171 0.37673202 1.2398196
-0.64923757 0.4719623 1.2514956
-0.87037426 0.63206184 1.364484
-0.079461403 0.064687885 1.6117342
-0.12912062 0.098465174 1.4713765
-0.26855823 0.19857447 1.3234838
-0.36649734 0.26925969 1.2909254
-0.45984358 0.33655989 1.2420795
-0.73646754 0.53773689 1.5617512
-0.87624931 0.63889545 1.5107286
-0.85878378 0.62525749 1.2298958
-0.8527112 0.6169759 1.1140929
-0.83529049 0.60371667 0.91340715
-0.82199335 0.59389329 0.74948037
-0.82004279 0.59205788 0.616
-0.81639749 0.58921546 0.49509901
-0.81723142 0.58960676 0.38614678
-0.80489862 0.58028811 0.27986142
-0.79563063 0.57360941 0.18100333
-0.84294969 0.61171377 1.0087825
-0.82997471 0.60186464 0.83006012
-0.81467992 0.59056211 0.67690116
-0.80961853 0.58625597 0.54954737
-0.80757284 0.58456612 0.43611988
-0.81131405 0.58706486 0.33225045
-0.79425585 0.57472444 0.2289526
-0.79723668 0.57667583 0.133367
-0.021536825 0.023158565 2.0891941
-0.17564523 0.13223143 1.3982341
-0.25577077 0.19092572 1.557943
-0.32870671 0.24304783 1.3540736
-0.4068228 0.29936334 1.2495036
-0.5158335 0.37853491 1.2398196
-0.64758617 0.47422573 1.2514956
-0.87074941 0.6369887 1.3683214
-0.079235122 0.064964861 1.6117342
-0.12877612 0.098915294 1.4713765
-0.26786345 0.19951071 1.3234838
-0.36416838 0.26951039 1.2862326
-0.45866594 0.33816302 1.2420795
-0.80811417 0.59439528 1.7110591
-0.87887073 0.64551806 1.5187087
-0.85932964 0.63025653 1.2335709
-0.85343426 0.62204945 1.1175975
-0.83317804 0.60662872 0.91340715
-0.82329601 0.59921974 0.75222182
-0.82155359 0.59752238 0.6183188
-0.81808537 0.59478784 0.49697205
-0.8190487 0.59527618 0.38755682
-0.8068428 0.58598083 0.28079402
-0.79362357 0.57638323 0.18100333
-0.84080929 0.61465251 1.0087825
-0.83113259 0.60714251 0.83300328
-0.81261349 0.59340227 0.67690116
-0.81123388 0.59175324 0.55164546
-0.80934292 0.59016377 0.43776339
-0.80925989 0.58989328 0.33225045
-0.79624659 0.58041048 0.22964329
-0.7992565 0.58239734 0.13356853
-0.021455856 0.0232336 2.0891941
-0.17518258 0.13284375 1.3982341
-0.25510278 0.19181737 1.557943
-0.33264357 0.24776207 1.3731616
-0.40734458 0.30194533 1.2541062
-0.51450908 0.38033321 1.2398196
-0.64592689 0.47648335 1.2514956
-0.86852056 0.6400243 1.3683214
-0.079007864 0.065241054 1.6117342
-0.12843005 0.099364206 1.4713765
-0.26716539 0.20044449 1.3234838
-0.36322537 0.27077994 1.2862326
-0.45748273 0.339762 1.2420795
-0.8605147 0.63758463 1.8219732
-0.87903434 0.65037429 1.5226986
-0.85985106 0.63526696 1.2372462
-0.85125768 0.62502474 1.1175975
-0.83419394 0.61183548 0.91654563
-0.82119936 0.60208994 0.75222182
-0.81946284 0.6003865 0.6183188
-0.81600422 0.59763992 0.49697205
-0.82083642 0.60096538 0.38896683
-0.8047924 0.58879369 0.28079402
-0.79562593 0.5820905 0.18145041
-0.84166503 0.61979783 1.0121081
-0.82900822 0.61004001 0.83300328
-0.81400961 0.59878969 0.6794343
-0.81282061 0.59726894 0.55374348
-0.80727792 0.59298533 0.43776339
-0.81111366 0.59559143 0.33342275
-0.79421574 0.58318639 0.22964329
-0.79721868 0.58518368 0.13356853
-0.021398447 0.023344912 2.0941939
-0.17410098 0.13298199 1.3932948
-0.25280917 0.19147603 1.5481526
-0.33655149 0.25250673 1.3922496
-0.40628812 0.30336538 1.2541062
-0.51317829 0.38212687 1.2398196
-0.64425969 0.47873512 1.2514956
-0.86885476 0.64496261 1.3721589
-0.078779653 0.065516442 1.6117342
-0.12808242 0.099811904 1.4713765
-0.26646408 0.20137586 1.3234838
-0.36365762 0.27308279 1.2909254
-0.45629397 0.34135684 1.2420795
-0.88336349 0.65930557 1.8731647
-0.88159066 0.65704036 1.5306787
-0.86034787 0.64028865 1.2409213
-0.85193789 0.63011312 1.121102
-0.83205324 0.61474359 0.91654563
-0.82245606 0.60743701 0.75496328
-0.82092625 0.60587394 0.6206376
-0.81764352 0.60323703 0.49884507
-0.82259423 0.60667431 0.39037687
-0.80668658 0.59451365 0.28172666
-0.79759806 0.58781868 0.18189749
-0.83949643 0.62273204 1.0121081
-0.83012086 0.61533719 0.83594644
-0.8119145 0.60162747 0.6794343
-0.81073076 0.60010254 0.55374348
-0.80899906 0.59860849 0.4394069
-0.80902976 0.59841907 0.33342275
-0.79217523 0.58595514 0.22964329
-0.7951712 0.58796299 0.13356853
-0.021316826 0.023419462 2.0941939
-0.17363572 0.1335889 1.3932948
-0.25052106 0.19112104 1.538362
-0.3416208 0.25818202 1.4161096
-0.40678778 0.30595639 1.2587086
-0.5118413 0.38391587 1.2398196
-0.64483732 0.48266754 1.2556286
-0.869165 0.64991117 1.3759965
-0.078550473 0.065791041 1.6117342
-0.12773323 0.10025839 1.4713765
-0.26575953 0.20230475 1.3234838
-0.36270216 0.27435052 1.2909254
-0.45509961 0.34294754 1.2420795
-0.89147913 0.67022187 1.8944942
-0.88170141 0.66192293 1.5346687
-0.86082006 0.64532155 1.2445965
-0.85259295 0.63521391 1.1246065
-0.83302468 0.6199683 0.91968405
-0.82033074 0.61030424 0.75496328
-0.81880641 0.6087358 0.6206376
-0.81925374 0.60885274 0.50071812
-0.82432222 0.61240286 0.3917869
-0.80460644 0.59732586 0.28172666
-0.79554135 0.59059918 0.18189749
-0.84030843 0.62789363 1.0154335
-0.82796788 0.61823112 0.83594644
-0.81326401 0.60703659 0.6819675
-0.81226945 0.60564184 0.55584157
-0.81069064 0.60425085 0.44105041
-0.80693591 0.6012395 0.33342275
-0.79409599 0.59167558 0.23033397
-0.79712063 0.59371936 0.13377006
-0.021258514 0.023530452 2.0991936
-0.17316835 0.13419418 1.3932948
-0.24823852 0.19075239 1.5285715
-0.34546715 0.26299116 1.4351975
-0.40571734 0.30737448 1.2587086
-0.51049805 0.3857002 1.2398196
-0.6431486 0.48491549 1.2556286
-0.86945117 0.65486968 1.3798339
-0.078101508 0.065876529 1.6067425
-0.12738249 0.10070365 1.4713765
-0.26405466 0.20246583 1.3186444
-0.36311466 0.27666116 1.2956182
-0.45389974 0.34453404 1.2420795
-0.90160841 0.68277746 1.9200897
-0.88178885 0.66681421 1.5386587
-0.86126763 0.65036553 1.2482716
-0.85322267 0.64032692 1.1281111
-0.83085549 0.62287229 0.91968405
-0.82154143 0.61567175 0.75770479
-0.8166765 0.61159027 0.6206376
-0.81712341 0.61170882 0.50071812
-0.8221795 0.61527652 0.3917869
-0.80251646 0.60013086 0.28172666
-0.79746306 0.59635496 0.18234457
-0.83811158 0.63082302 1.0154335
-0.82903498 0.62354726 0.8388896
-0.81458551 0.6124624 0.68450069
-0.81015044 0.60847342 0.55584157
-0.81235272 0.60991234 0.44269392
-0.80483228 0.6040526 0.33342275
-0.7920258 0.59444392 0.23033397
-0.79504335 0.59649825 0.13377006
-0.021176247 0.023604514 2.0991936
-0.17269887 0.13479784 1.3932948
-0.24515687 0.18974638 1.5138859
-0.34809974 0.26692158 1.4495134
-0.40619472 0.30997431 1.2633111
-0.5091486 0.38747981 1.2398196
-0.64145201 0.48715755 1.2556286
-0.86971349 0.65983808 1.3836714
-0.077871077 0.066148758 1.6067425
-0.12703019 0.10114768 1.4713765
-0.26334631 0.20338632 1.3186444
-0.36214671 0.27792695 1.2956182
-0.45269433 0.34611636 1.2420795
-0.88885206 0.67801112 1.8987602
-0.88185281 0.67171413 1.5426488
-0.86169034 0.65542048 1.2519468
-0.85382712 0.64545202 1.1316158
-0.83178228 0.6281144 0.92282254
-0.81938732 0.61853564 0.75770479
-0.81453669 0.61443728 0.6206376
-0.8186847 0.61734873 0.50259119
-0.82385743 0.62103033 0.39319694
-0.80041671 0.60292852 0.28172666
-0.79537648 0.59913504 0.18234457
-0.83887976 0.63600057 1.018759
-0.82685339 0.62643731 0.8388896
-0.81587911 0.61790478 0.68703383
-0.81164092 0.61403608 0.55793959
-0.81398517 0.61559272 0.44433743
-0.8065961 0.60978955 0.33459508
-0.78994596 0.59720498 0.23033397
-0.796942 0.60228199 0.13397159
-0.021093724 0.02367829 2.0991936
-0.17283747 0.13588087 1.3982341
-0.24208531 0.18872121 1.4992001
-0.35070908 0.27087355 1.4638293
-0.40511027 0.31139034 1.2633111
-0.50969356 0.39071202 1.2442087
-0.63974762 0.48939365 1.2556286
-0.86995149 0.66481626 1.387509
-0.077639706 0.066420175 1.6067425
-0.12667635 0.10159048 1.4713765
-0.26263475 0.20430434 1.3186444
-0.36253935 0.28024516 1.300311
-0.4514834 0.34769443 1.2420795
-0.82030457 0.63025808 1.7622502
-0.88189328 0.67662263 1.5466388
-0.86208826 0.66048622 1.2556219
-0.85440612 0.65058911 1.1351203
-0.82958466 0.63101411 0.92282254
-0.82055157 0.62392306 0.76044625
-0.81238693 0.61727679 0.6206376
-0.8165248 0.62020272 0.50259119
-0.8216846 0.62390238 0.39319694
-0.7983073 0.60571879 0.28172666
-0.79724753 0.60491794 0.18279165
-0.8396219 0.64119124 1.0220846
-0.82787478 0.63177192 0.84183276
-0.81714445 0.62336361 0.68956703
-0.80949265 0.61686546 0.55793959
-0.81183136 0.61843026 0.44433743
-0.80446261 0.6126014 0.33459508
-0.79179627 0.60295892 0.23102465
-0.79483479 0.60506016 0.13397159
-0.020986058 0.023773765 2.0991936
-0.17280316 0.13717775 1.4031733
-0.23799483 0.18733844 1.4796193
-0.35178223 0.27435997 1.4733733
-0.40363836 0.3132959 1.2633111
-0.50784671 0.39310953 1.2442087
-0.63512182 0.49079338 1.2514956
-0.86922932 0.67101848 1.3913465
-0.077519074 0.067003205 1.6117342
-0.12616053 0.10223035 1.4713765
-0.2625491 0.20645417 1.3234838
-0.36106703 0.28213957 1.300311
-0.45137423 0.3513912 1.2465807
-0.70989263 0.55134887 1.5404216
-0.88071936 0.68307775 1.5506288
-0.86386168 0.66929376 1.2629722
-0.85427243 0.65663302 1.1386248
-0.82979983 0.6371426 0.92596096
-0.82102883 0.63018632 0.76318777
-0.81298339 0.62379485 0.6229564
-0.81359315 0.62404358 0.50259119
-0.82254213 0.6306864 0.39460698
-0.79923636 0.61260116 0.28265926
-0.79428184 0.60880679 0.18279165
-0.83932161 0.6477139 1.0254101
-0.8246665 0.63595402 0.84183276
-0.81397891 0.62749159 0.68956703
-0.80625165 0.62109548 0.55793959
-0.81221431 0.62569547 0.44598094
-0.80498737 0.61991066 0.33576739
-0.7885223 0.60723412 0.23102465
-0.79550821 0.61239928 0.13417313
-0.020863306 0.023824375 2.0941939
-0.17283291 0.13838683 1.4081125
-0.23322318 0.18516515 1.4551432
-0.3529757 0.27767771 1.4829172
-0.4023225 0.3149839 1.2633111
-0.50619555 0.39523336 1.2442087
-0.63314652 0.49333897 1.2514956
-0.86905783 0.67647123 1.3951839
-0.07724949 0.06731385 1.6117342
-0.12574914 0.10273596 1.4713765
-0.26175442 0.20746076 1.3234838
-0.35857639 0.28251836 1.2956182
-0.44996002 0.35320029 1.2465807
-0.64197153 0.50273263 1.4039118
-0.88034374 0.68846405 1.5546188
-0.86395735 0.67469257 1.2666475
-0.85433275 0.66239095 1.1421293
-0.83020091 0.64299637 0.92909944
-0.82168818 0.6361798 0.76592922
-0.81047279 0.62705332 0.6229564
-0.81108147 0.62730449 0.50259119
-0.81989312 0.63412631 0.39460698
-0.79666328 0.61594367 0.28265926
-0.79566449 0.61517465 0.18323873
-0.83966154 0.6533711 1.0287355
-0.82529777 0.64174062 0.84477592
-0.81485695 0.63339978 0.69210023
-0.80733603 0.62711108 0.56003767
-0.81353545 0.63170576 0.44762444
-0.80260116 0.62299705 0.33576739
-0.79009682 0.61329389 0.23171534
-0.79304349 0.61558777 0.13417313
-0.020780016 0.023897057 2.0941939
-0.17297731 0.13944766 1.4130518
-0.22942841 0.18339214 1.4355623
-0.35556242 0.28162825 1.4972332
-0.4028098 0.31752607 1.2679137
-0.50488216 0.39690977 1.2442087
-0.6315071 0.49543583 1.2514956
-0.86933249 0.68132681 1.3990214
-0.077252813 0.067748658 1.6167258
-0.12542576 0.1031305 1.4713765
-0.26208359 0.20906644 1.3283232
-0.35773656 0.28358102 1.2956182
-0.44891012 0.35453376 1.2465807
-0.61589622 0.48526415 1.3527206
-0.87829715 0.69107306 1.5546188
-0.86461735 0.67934763 1.2703226
-0.85763663 0.66975933 1.1491385
-0.83102018 0.64828455 0.93223786
-0.81946242 0.63904411 0.76592922
-0.81177306 0.63260162 0.62527519
-0.80888683 0.6301319 0.50259119
-0.82157058 0.63978916 0.39601701
-0.79860103 0.62146026 0.2835919
-0.79765815 0.62072974 0.18368581
-0.84054416 0.65830809 1.032061
-0.8264606 0.6468215 0.84771907
-0.81286299 0.63595659 0.69210023
-0.80547184 0.62950379 0.56003767
-0.81165767 0.63411671 0.44762444
-0.80457991 0.62836748 0.33693972
-0.79217649 0.61868358 0.23240602
-0.7952593 0.6208744 0.13437465
-0.020696472 0.023969447 2.0941939
-0.17309207 0.14054118 1.417991
-0.22482368 0.18099627 1.4110862
-0.35691038 0.28473026 1.5067773
-0.40169895 0.31893021 1.2679137
-0.50161618 0.39718276 1.2398196
-0.62977386 0.49763718 1.2514956
-0.86946464 0.68634319 1.402859
-0.077015854 0.068017915 1.6167258
-0.125065 0.1035677 1.4713765
-0.26135221 0.20998 1.3283232
-0.35674447 0.28482804 1.2956182
-0.4476698 0.35609862 1.2465807
-0.59989923 0.47606125 1.322859
-0.87824094 0.69600636 1.5586089
-0.86489904 0.68446559 1.2739978
-0.85809636 0.67495382 1.152643
-0.8318128 0.65358639 0.93537635
-0.8205151 0.64448375 0.76867068
-0.81304455 0.63816649 0.62759399
-0.80668229 0.63295162 0.50259119
-0.8193323 0.64265305 0.39601701
-0.80029297 0.62727445 0.2845245
-0.79940587 0.62658238 0.18413289
-0.84117252 0.66355062 1.0353866
-0.82737201 0.65220487 0.85066223
-0.81063813 0.63879007 0.69210023
-0.80683565 0.63511884 0.5621357
-0.81315023 0.63986635 0.44926795
-0.80238158 0.63117218 0.33693972
-0.79390419 0.62450677 0.23309669
-0.79308724 0.62364656 0.13437465
-0.020635273 0.02407887 2.0991936
-0.17260043 0.14114451 1.417991
-0.22102888 0.17921239 1.3915051
-0.36522084 0.29345703 1.5449531
-0.40058327 0.32033044 1.2679137
-0.50022668 0.39893129 1.2398196
-0.62803298 0.49983248 1.2514956
-0.86706358 0.68937409 1.402859
-0.076991789 0.06848029 1.6217175
-0.12470273 0.10400362 1.4713765
-0.26061767 0.21089101 1.3283232
-0.35440359 0.2849898 1.2909254
-0.44642404 0.3576591 1.2465807
-0.58601123 0.46838129 1.2972634
-0.87580615 0.69906777 1.5586089
-0.86515558 0.68959367 1.277673
-0.85853034 0.68015963 1.1561475
-0.8325783 0.65890157 0.93851483
-0.82153958 0.64993829 0.77141213
-0.81081194 0.64100069 0.62759399
-0.80810517 0.63863814 0.50446421
-0.82084817 0.64848292 0.39742702
-0.7980985 0.63006413 0.2845245
-0.79721379 0.62936896 0.18413289
-0.84177446 0.66880566 1.038712
-0.82825577 0.65760231 0.85360539
-0.81177998 0.64429587 0.69463336
-0.80817008 0.64075106 0.56423378
-0.81091166 0.64270085 0.44926795
-0.80398333 0.63698763 0.33811203
-0.79171944 0.62727416 0.23309669
-0.7948218 0.62951303 0.13457619
-0.020551097 0.024150755 2.0991936
-0.17270583 0.14224091 1.4229305
-0.21724936 0.17740428 1.3719243
-0.357234 0.28909376 1.5163212
-0.39946264 0.3217268 1.2679137
-0.49883109 0.400675 1.2398196
-0.6284799 0.50378186 1.2556286
-0.86465192 0.69239652 1.402859
-0.076752275 0.068748623 1.6217175
-0.12433892 0.10443828 1.4713765
-0.26085383 0.21259405 1.3331627
-0.35340661 0.28622517 1.2909254
-0.44517288 0.3592152 1.2465807
-0.57827854 0.46551716 1.2844657
-0.87336057 0.7021206 1.5586089
-0.86538661 0.69473183 1.2813481
-0.86172593 0.68760121 1.1631566
-0.83331686 0.66422999 0.94165331
-0.8192659 0.65280205 0.77141213
-0.81203485 0.64658648 0.62991279
-0.80587101 0.64145505 0.50446421
-0.81857949 0.6513443 0.39742702
-0.79973924 0.63590348 0.28545713
-0.79891002 0.63524741 0.18457997
-0.84526503 0.67640585 1.0453631
-0.82595533 0.66048944 0.85360539
-0.80952597 0.6471256 0.69463336
-0.809475 0.64640033 0.5663318
-0.80866331 0.6455276 0.44926795
-0.80175489 0.63979018 0.33811203
-0.79339564 0.63312274 0.23378737
-0.79261959 0.63228363 0.13457619
-0.020444335 0.024184862 2.0941939
-0.17220825 0.1428429 1.4229305
-0.21505699 0.17686677 1.3621339
-0.35622269 0.29033899 1.5163212
-0.39833719 0.32311922 1.2679137
-0.49742943 0.40241379 1.2398196
-0.62671757 0.50597262 1.2556286
-0.86472458 0.69742286 1.4066964
-0.076299362 0.068820678 1.6167258
-0.12437967 0.10521702 1.476348
-0.26011017 0.2135033 1.3331627
-0.35240534 0.28745705 1.2909254
-0.44391626 0.36076698 1.2465807
-0.57462436 0.4658902 1.2801996
-0.87090445 0.70516497 1.5586089
-0.86295629 0.69774836 1.2813481
-0.86210024 0.69283915 1.1666611
-0.8340283 0.66957158 0.94479173
-0.8202433 0.65827519 0.77415359
-0.81322861 0.6521886 0.63223159
-0.80724388 0.64716393 0.50633723
-0.82004404 0.65719765 0.39883706
-0.79751462 0.63869125 0.28545713
-0.79668766 0.63803226 0.18457997
-0.84580582 0.6816954 1.0486885
-0.8267926 0.6659041 0.85654855
-0.81061977 0.65265089 0.69716656
-0.81075025 0.65206641 0.56842989
-0.81008518 0.65130526 0.45091146
-0.80330533 0.64562994 0.33928433
-0.79118079 0.63588834 0.23378737
-0.79040766 0.63504654 0.13457619
-0.02035979 0.024256079 2.0941939
-0.17111294 0.14294422 1.417991
-0.21287102 0.17631613 1.3523433
-0.35290012 0.28968576 1.5067773
-0.39720684 0.32450771 1.2679137
-0.49787825 0.40566075 1.2442087
-0.62713075 0.5099327 1.2597616
-0.86477262 0.70245808 1.4105339
-0.076058671 0.069086589 1.6167258
-0.12401164 0.10565054 1.476348
-0.25936329 0.21440996 1.3331627
-0.35139978 0.28868541 1.2909254
-0.44265425 0.36231431 1.2465807
-0.57097471 0.46624339 1.2759337
-0.86843759 0.70820069 1.5586089
-0.86314416 0.70289725 1.2850233
-0.86244839 0.69808805 1.1701657
-0.83168596 0.6724788 0.94479173
-0.82119232 0.66376293 0.77689505
-0.81094706 0.65502334 0.63223159
-0.80497998 0.6499778 0.50633723
-0.81774503 0.66005611 0.39883706
-0.7991038 0.64455521 0.28638974
-0.79445571 0.6408093 0.18457997
-0.84631991 0.68699688 1.052014
-0.82760215 0.67133248 0.85949171
-0.81168491 0.65819174 0.6996997
-0.80846924 0.6548925 0.56842989
-0.80780679 0.65412909 0.45091146
-0.80104679 0.64843005 0.33928433
-0.79280531 0.64176196 0.23447806
-0.79206979 0.64094442 0.13477771
-0.020274995 0.024326999 2.0941939
-0.17001902 0.14303963 1.4130518
-0.2114729 0.17640527 1.3474481
-0.35073662 0.28996435 1.5020052
-0.39607167 0.32589224 1.2679137
-0.49645916 0.4073962 1.2442087
-0.62534696 0.5121187 1.2597616
-0.8623153 0.70547235 1.4105339
-0.075817049 0.069351658 1.6167258
-0.12404574 0.10643095 1.4813195
-0.25861329 0.215314 1.3331627
-0.3517192 0.29101071 1.2956182
-0.44138682 0.3638573 1.2465807
-0.56934369 0.46823362 1.2759337
-0.86363178 0.70931518 1.5546188
-0.86068529 0.70590585 1.2850233
-0.86277038 0.70334786 1.1736702
-0.83235162 0.67783582 0.94793022
-0.81887031 0.66662538 0.77689505
-0.81209195 0.66064566 0.63455039
-0.80630291 0.65570873 0.5082103
-0.81543601 0.66290653 0.39883706
-0.79684901 0.64734071 0.28638974
-0.79221404 0.64357859 0.18457997
-0.84680718 0.69231033 1.0553395
-0.82838386 0.67677474 0.86243486
-0.81272113 0.66374791 0.7022329
-0.80969489 0.66057974 0.57052791
-0.80917799 0.65992945 0.452555
-0.80254561 0.65429366 0.34045666
-0.79056031 0.64452553 0.23447806
-0.7898277 0.64370531 0.13477771
-0.020168014 0.02435991 2.0891941
-0.16892652 0.14312917 1.4081125
-0.21085584 0.17714237 1.3474481
-0.3485755 0.29023138 1.4972332
-0.3949317 0.3272728 1.2679137
-0.49503407 0.4091267 1.2442087
-0.62572622 0.51608914 1.2638944
-0.86232114 0.71051651 1.4143715
-0.075574502 0.069615893 1.6167258
-0.12367348 0.1068633 1.4813195
-0.25786015 0.21621542 1.3331627
-0.35202664 0.29334173 1.300311
-0.44011405 0.36539578 1.2465807
-0.56770581 0.47021815 1.2759337
-0.86115056 0.71232551 1.5546188
-0.86082971 0.71106505 1.2886984
-0.86306614 0.70861834 1.1771748
-0.82998037 0.68073708 0.94793022
-0.81977183 0.67213094 0.77963656
-0.81320745 0.66628391 0.63686919
-0.80400908 0.65851927 0.5082103
-0.81311709 0.66574889 0.39883706
-0.79838634 0.65322888 0.28732237
-0.79381692 0.64949352 0.18502705
-0.84726787 0.69763559 1.058665
-0.82601643 0.67966217 0.86243486
-0.81039923 0.6665808 0.7022329
-0.81089056 0.66628331 0.57262594
-0.80686945 0.66275001 0.452555
-0.80025679 0.65709108 0.34045666
-0.79213285 0.65042371 0.23516873
-0.79143751 0.64962816 0.13497925
-0.020082859 0.024430161 2.0891941
-0.16842587 0.14371796 1.4081125
-0.21023621 0.17787732 1.3474481
-0.34527329 0.28952736 1.4876893
-0.39378688 0.3286494 1.2679137
-0.49360293 0.41085219 1.2442087
-0.62824988 0.52186668 1.2721604
-0.85983568 0.7135222 1.4143715
-0.07533104 0.069879271 1.6167258
-0.1232997 0.10729435 1.4813195
-0.25614393 0.21630272 1.3283232
-0.35232213 0.29567844 1.3050036
-0.43883592 0.36692986 1.2465807
-0.56606096 0.47219697 1.2759337
-0.84708369 0.70568311 1.5346687
-0.85834241 0.71406561 1.2886984
-0.86058736 0.71162665 1.1771748
-0.83060002 0.68610913 0.95106864
-0.81742066 0.67498839 0.77963656
-0.81087673 0.6691184 0.63686919
-0.8052817 0.66427183 0.51008332
-0.81078821 0.66858315 0.39883706
-0.79610133 0.65601182 0.28732237
-0.79154491 0.65226048 0.18502705
-0.84770149 0.70297229 1.0619905
-0.82675111 0.68512058 0.86537802
-0.81138718 0.67215568 0.70476609
-0.80855983 0.66910982 0.57262594
-0.80818969 0.66857255 0.45419851
-0.79795825 0.65988046 0.34045666
-0.78985763 0.65318477 0.23516873
-0.79301566 0.65557003 0.13518077
-0.020019136 0.024537982 2.0941939
-0.16733456 0.1437978 1.4031733
-0.2103885 0.17927109 1.3523433
-0.34198031 0.28880388 1.4781452
-0.39263731 0.33002195 1.2679137
-0.4921658 0.41257268 1.2442087
-0.6285826 0.52586234 1.2762933
-0.85979903 0.71857476 1.418209
-0.075086653 0.0701418 1.6167258
-0.12292442 0.10772409 1.4813195
-0.25538734 0.21719551 1.3283232
-0.35128784 0.29690647 1.3050036
-0.43755239 0.36845943 1.2465807
-0.56640595 0.47584781 1.2801996
-0.82845718 0.69507742 1.5067385
-0.85844308 0.7192347 1.2923737
-0.86083835 0.71690863 1.1806793
-0.83119214 0.69149369 0.95420712
-0.81827444 0.68051142 0.78237802
-0.81194282 0.6747762 0.63918799
-0.80295807 0.66707873 0.51008332
-0.80844951 0.67140925 0.39883706
-0.79380655 0.65878671 0.28732237
-0.79309541 0.65819991 0.18547413
-0.84810811 0.70832056 1.065316
-0.82745761 0.69059229 0.86832118
-0.80903596 0.67498386 0.70476609
-0.80970567 0.67483389 0.57472402
-0.80947894 0.67441225 0.45584202
-0.79938489 0.66577256 0.34162897
-0.79137796 0.65910715 0.23585941
-0.79072243 0.6583342 0.13518077
-0.019976452 0.024683595 2.1041934
-0.16683158 0.14438103 1.4031733
-0.20976146 0.18000439 1.3523433
-0.33642313 0.28612602 1.4590573
-0.39297378 0.33265305 1.2725163
-0.49072263 0.41428813 1.2442087
-0.62889504 0.52986658 1.2804263
-0.85973763 0.72363585 1.4220465
-0.07484135 0.070403472 1.6167258
-0.12254764 0.10815252 1.4813195
-0.25462762 0.21808568 1.3283232
-0.3515631 0.2992498 1.3096964
-0.43626356 0.36998454 1.2465807
-0.56474155 0.47782204 1.2801996
-0.80301076 0.67851579 1.4668382
-0.85851818 0.72441328 1.2960488
-0.85833061 0.71990907 1.1806793
-0.83175677 0.69689071 0.9573456
-0.81589401 0.68336362 0.78237802
-0.80958253 0.67760634 0.63918799
-0.80418015 0.67285246 0.51195633
-0.80610096 0.67422718 0.39883706
-0.7952711 0.66470391 0.28825498
-0.790793 0.66096431 0.18547413
-0.84563047 0.71127671 1.065316
-0.82813603 0.69607729 0.87126434
-0.80997521 0.68057698 0.70729923
-0.80734515 0.67765617 0.57472402
-0.81073731 0.68026906 0.45748553
-0.79705602 0.66855884 0.34162897
-0.78907245 0.66186553 0.23585941
-0.79224789 0.66430032 0.13538231
-0.019911582 0.024791192 2.1091931
-0.16691165 0.14547379 1.4081125
-0.21067153 0.18206829 1.3621339
-0.33088884 0.28341299 1.4399694
-0.39181021 0.33402276 1.2725163
-0.48744908 0.41444695 1.2398196
-0.62704164 0.53205866 1.2804263
-0.86209625 0.73077786 1.4297215
-0.074802779 0.070864871 1.6217175
-0.12177187 0.10822447 1.476348
-0.25386479 0.21897316 1.3283232
-0.35051638 0.30047515 1.3096964
-0.43496943 0.37150514 1.2465807
-0.56108516 0.47809872 1.2759337
-0.75244856 0.64030272 1.3830478
-0.8585676 0.72960109 1.299724
-0.85581243 0.72290081 1.1806793
-0.83229375 0.70230013 0.96048403
-0.81669974 0.68890357 0.78511947
-0.80721223 0.68042815 0.63918799
-0.80182654 0.67565548 0.51195633
-0.80374253 0.67703694 0.39883706
-0.79294604 0.66747588 0.28825498
-0.79229087 0.6669277 0.18592121
-0.84599137 0.71663767 1.0686415
-0.82878625 0.7015754 0.8742075
-0.81088531 0.68618494 0.70983243
-0.80497479 0.68047023 0.57472402
-0.80835778 0.68309498 0.45748553
-0.79843056 0.6744737 0.3428013
-0.78675729 0.66461587 0.23585941
-0.78992414 0.66706169 0.13538231
-0.019910043 0.025012914 2.1291924
-0.16640285 0.14605553 1.4081125
-0.20849967 0.1814644 1.3523433
-0.32537764 0.28066483 1.4208815
-0.39064184 0.33538839 1.2725163
-0.48599944 0.41614595 1.2398196
-0.62731975 0.53607249 1.2845592
-0.86197782 0.73586392 1.4335591
-0.074554965 0.071125552 1.6217175
-0.12139335 0.10864888 1.476348
-0.25309891 0.21985798 1.3283232
-0.34815946 0.30056882 1.3050036
-0.43366998 0.37302119 1.2465807
-0.5574339 0.47835577 1.2716678
-0.7227543 0.619394 1.3351675
-0.85601556 0.73259366 1.299724
-0.85600001 0.72819465 1.1841838
-0.83280313 0.70772171 0.96362251
-0.81747675 0.69445747 0.78786093
-0.80483222 0.68324172 0.63918799
-0.80299783 0.68145001 0.51382935
-0.80137432 0.67983836 0.39883706
-0.79435831 0.67341626 0.28918761
-0.78995806 0.66968924 0.18592121
-0.8463251 0.72200972 1.071967
-0.82633227 0.7044642 0.8742075
-0.80848509 0.68901128 0.70983243
-0.8025946 0.68327594 0.57472402
-0.80956453 0.68897295 0.45912904
-0.79607135 0.67725664 0.3428013
-0.78820431 0.67056698 0.23655009
-0.79139662 0.67305166 0.13558383
-0.019843757 0.025120428 2.1341922
-0.165892 0.1466355 1.4081125
-0.20786497 0.18219109 1.3523433
-0.31876317 0.27690238 1.3970217
-0.39094633 0.33802804 1.2771187
-0.48454386 0.41783988 1.2398196
-0.62544465 0.53825897 1.2845592
-0.86426467 0.74304777 1.441234
-0.074512459 0.071587384 1.6267092
-0.12140837 0.10942988 1.4813195
-0.25232992 0.22074011 1.3283232
-0.34710816 0.30178228 1.3050036
-0.43236524 0.3745327 1.2465807
-0.55378771 0.47859314 1.2674019
-0.71146375 0.61403739 1.3192074
-0.85602093 0.73779052 1.3033991
-0.85345298 0.73117822 1.1841838
-0.83032763 0.7106244 0.96362251
-0.81822491 0.70002514 0.79060239
-0.80580932 0.68892562 0.64150673
-0.80413836 0.68726087 0.51570243
-0.80264354 0.68574768 0.4002471
-0.7957387 0.67937458 0.29012021
-0.79140294 0.67567623 0.18636829
-0.84663177 0.72739291 1.0752926
-0.82693487 0.70997745 0.87715065
-0.8093462 0.69463694 0.71236569
-0.80365008 0.68902755 0.57682204
-0.8071546 0.69179475 0.45912904
-0.7973935 0.68319386 0.34397361
-0.78585881 0.67331427 0.23655009
-0.78904241 0.67580998 0.13558383
-0.01965088 0.024998343 2.1091931
-0.16595882 0.14773107 1.4130518
-0.31217897 0.27309722 1.3731616
-0.38976398 0.33939064 1.2771187
-0.48308238 0.41952869 1.2398196
-0.62356198 0.54043889 1.2845592
-0.86651182 0.75025648 1.448909
-0.07426212 0.071847044 1.6267092
-0.12141941 0.11021231 1.4862911
-0.25155786 0.22161956 1.3283232
-0.34475458 0.30185494 1.300311
-0.43269548 0.37747103 1.2510819
-0.54817951 0.47709852 1.25887
-0.6956712 0.60465592 1.2952673
-0.85600054 0.74299657 1.3070743
-0.85359555 0.73648274 1.1876884
-0.83079022 0.71605968 0.96676093
-0.81894404 0.70560646 0.79334384
-0.80339956 0.69173419 0.64150673
-0.80524808 0.69308794 0.51757544
-0.80024499 0.68854523 0.4002471
-0.79336238 0.6821481 0.29012021
-0.78903955 0.67843467 0.18636829
-0.84408754 0.73034382 1.0752926
-0.82445157 0.71285963 0.87715065
-0.81017786 0.70027691 0.71489882
-0.80124003 0.69182861 0.57682204
-0.8083095 0.69769353 0.46077254
-0.79500389 0.68597317 0.34397361
-0.78725296 0.67928851 0.23724076
-0.79046154 0.68182325 0.13578537
-0.019521741 0.024990162 2.0991936
-0.16544214 0.14830948 1.4130518
-0.30786467 0.27122384 1.3588457
-0.38857692 0.34074911 1.2771187
-0.48161501 0.4212124 1.2398196
-0.61955178 0.54076165 1.2804263
-0.86871892 0.75748974 1.4565841
-0.074010871 0.072105825 1.6267092
-0.12103397 0.11063548 1.4862911
-0.25078273 0.22249632 1.3283232
-0.34240481 0.30191487 1.2956182
-0.43137524 0.37897912 1.2510819
-0.54258853 0.47557062 1.2503382
-0.69128907 0.60509574 1.2912773
-0.85340172 0.74598002 1.3070743
-0.85371137 0.74179703 1.191193
-0.83122504 0.72150689 0.96989942
-0.81963414 0.71120131 0.7960853
-0.80432689 0.69743651 0.64382553
-0.80632681 0.69893104 0.51944846
-0.80146194 0.69447589 0.40165716
-0.79468989 0.68812895 0.29105285
-0.79043126 0.68444473 0.18681537
-0.84434795 0.73573875 1.078618
-0.82500631 0.71838754 0.88009381
-0.81097996 0.70593113 0.71743202
-0.80224496 0.69759941 0.57892013
-0.8094331 0.70360887 0.46241605
-0.79627347 0.69193226 0.34514591
-0.78487694 0.68203235 0.23724076
-0.79184836 0.68785459 0.13598689
-0.019351406 0.024904611 2.0791943
-0.16492343 0.14888608 1.4130518
-0.20594572 0.18435782 1.3523433
-0.30356735 0.26932368 1.3445297
-0.38738513 0.34210345 1.2771187
-0.48014179 0.42289099 1.2398196
-0.61766046 0.54292095 1.2804263
-0.86847794 0.76263255 1.4604216
-0.073758721 0.072363734 1.6267092
-0.12064704 0.1110573 1.4862911
-0.25000453 0.22337036 1.3283232
-0.34005877 0.30196208 1.2909254
-0.43004969 0.38048255 1.2510819
-0.53701496 0.47400954 1.2418064
-0.68917269 0.60750514 1.2912773
-0.85333717 0.75119454 1.3107494
-0.85380059 0.7471211 1.1946975
-0.83163178 0.72696579 0.97303784
-0.81714654 0.71405804 0.7960853
-0.80522406 0.70315373 0.64614433
-0.80737454 0.70479012 0.52132148
-0.79903293 0.69726932 0.40165716
-0.792283 0.69089872 0.29105285
-0.78803724 0.68719965 0.18681537
-0.84458089 0.74114436 1.0819435
-0.82553267 0.72392809 0.88303697
-0.81175232 0.71159935 0.71996522
-0.80321932 0.70338559 0.58101815
-0.80697203 0.70643002 0.46241605
-0.7975111 0.69790858 0.34631824
-0.78621805 0.68802917 0.23793145
-0.79320264 0.69390392 0.13618843
-0.019305578 0.025048925 2.0891941
-0.16440271 0.14946087 1.4130518
-0.20681237 0.18644032 1.3621339
-0.30039984 0.26839182 1.3349857
-0.38618863 0.34345356 1.2771187
-0.47866267 0.42456442 1.2398196
-0.61576152 0.54507369 1.2804263
-0.8706125 0.76990634 1.4680965
-0.073505677 0.072620764 1.6267092
-0.12025864 0.11147776 1.4862911
-0.24922331 0.22424167 1.3283232
-0.33771661 0.30199659 1.2862326
-0.42871895 0.3819814 1.2510819
-0.53340799 0.47414824 1.2375402
-0.68930125 0.61190766 1.2952673
-0.85324645 0.75641769 1.3144246
-0.853863 0.75245482 1.198202
-0.83201063 0.73243624 0.97617632
-0.81778812 0.71966857 0.79882681
-0.80609113 0.70888561 0.64846313
-0.80839121 0.71066499 0.52319455
-0.80019748 0.7032209 0.4030672
-0.78986651 0.69366002 0.29105285
-0.78937554 0.6932323 0.18726245
-0.84198868 0.74408805 1.0819435
-0.82603031 0.7294811 0.88598019
-0.81249511 0.71728164 0.72249836
-0.8041631 0.70918703 0.58311623
-0.80804336 0.71236539 0.46405956
-0.7987166 0.70390183 0.34749055
-0.78381163 0.69076937 0.23793145
-0.79077566 0.69666851 0.13618843
-0.019238502 0.025154689 2.0941939
-0.16388001 0.15003383 1.4130518
-0.20390031 0.1851061 1.3474481
-0.29724252 0.26744115 1.3254418
-0.38498738 0.34479952 1.2771187
-0.47717777 0.4262327 1.2398196
-0.61385506 0.54721981 1.2804263
-0.87031317 0.77507246 1.4719341
-0.073251732 0.0728769 1.6267092
-0.11986878 0.11189686 1.4862911
-0.24843904 0.22511025 1.3283232
-0.33666039 0.3031736 1.2862326
-0.42738298 0.3834756 1.2510819
-0.52980661 0.4742676 1.2332743
-0.68716109 0.61431003 1.2952673
-0.8531298 0.76164937 1.3180997
-0.85123122 0.75543082 1.198202
-0.83236128 0.73791826 0.97931474
-0.81527102 0.72251886 0.79882681
-0.80692798 0.71463209 0.65078193
-0.80590558 0.7134825 0.52319455
-0.7977379 0.70600981 0.4030672
-0.79111999 0.69966727 0.29198545
-0.78695095 0.69598353 0.18726245
-0.84217525 0.74950492 1.0852691
-0.82649916 0.73504627 0.88892335
-0.80998635 0.7201134 0.72249836
-0.80507594 0.71500355 0.58521426
-0.80555183 0.71518159 0.46405956
-0.79625463 0.7066856 0.34749055
-0.78509933 0.69678837 0.23862213
-0.79207605 0.70274019 0.13638996
-0.019170921 0.025260292 2.0991936
-0.16335528 0.15060496 1.4130518
-0.20175104 0.18444145 1.3376577
-0.29520139 0.26747438 1.3206699
-0.38378143 0.34614131 1.2771187
-0.47746739 0.42949769 1.2442087
-0.61194122 0.5493592 1.2804263
-0.87237453 0.78238595 1.479609
-0.072996899 0.07313215 1.6267092
-0.11947745 0.1123146 1.4862911
-0.24765174 0.22597611 1.3283232
-0.33560008 0.30434692 1.2862326
-0.42604181 0.38496512 1.2510819
-0.52814788 0.47611409 1.2332743
-0.68725181 0.61872125 1.2992573
-0.85298693 0.76688945 1.321775
-0.85124803 0.76077408 1.2017065
-0.83268392 0.74341154 0.98245323
-0.81586355 0.72814453 0.80156827
-0.80773449 0.72039306 0.65310073
-0.8068704 0.71937644 0.52506757
-0.79884976 0.71198195 0.40447721
-0.78867292 0.70242459 0.29198545
-0.78823555 0.70203847 0.18770951
-0.83955383 0.75244009 1.0852691
-0.82693917 0.74062353 0.89186651
-0.81067932 0.7258119 0.72503155
-0.80595803 0.72083509 0.58731234
-0.80657071 0.72113663 0.46570307
-0.79740703 0.71269989 0.34866288
-0.78635448 0.70282471 0.23931281
-0.78961825 0.70550084 0.13638996
-0.019102838 0.025365727 2.1041934
-0.16339731 0.15170369 1.417991
-0.201106 0.18514457 1.3376577
-0.29316366 0.26749671 1.3158978
-0.38257083 0.34747881 1.2771187
-0.47596526 0.43116173 1.2442087
-0.61001986 0.55149198 1.2804263
-0.87201679 0.78757483 1.4834466
-0.072741173 0.073386513 1.6267092
-0.11908468 0.11273096 1.4862911
-0.24686143 0.2268392 1.3283232
-0.33580959 0.30668062 1.2909254
-0.42308554 0.38498455 1.2465807
-0.5264827 0.47795475 1.2332743
-0.68508792 0.62111634 1.2992573
-0.85533077 0.77441323 1.3291253
-0.85123783 0.76612657 1.2052112
-0.83297819 0.74891609 0.98559165
-0.81331682 0.73098803 0.80156827
-0.80851042 0.72616822 0.65541953
-0.80435443 0.72218859 0.52506757
-0.7999295 0.71797031 0.40588725
-0.78987288 0.70845312 0.29291809
-0.78578013 0.70478565 0.18770951
-0.8396939 0.75786787 1.0885946
-0.82735038 0.7462129 0.89480966
-0.80814081 0.72863728 0.72503155
-0.80680925 0.72668153 0.58941036
-0.80404854 0.7239477 0.46570307
-0.79491436 0.71547896 0.34866288
-0.78757697 0.70887816 0.24000348
-0.78715074 0.70825279 0.13638996
-0.019034252 0.025470996 2.1091931
-0.16286677 0.15227312 1.417991
-0.20045848 0.18584542 1.3376577
-0.29112935 0.26750803 1.3111259
-0.38135558 0.34881213 1.2771187
-0.47445732 0.43282053 1.2442087
-0.60809106 0.55361795 1.2804263
-0.87163335 0.79277068 1.4872841
-0.072484568 0.073639981 1.6267092
-0.11869045 0.11314596 1.4862911
-0.24699022 0.2285537 1.3331627
-0.334737 0.30785093 1.2909254
-0.42173913 0.38645902 1.2465807
-0.52481115 0.47978961 1.2332743
-0.68291563 0.62350404 1.2992573
-0.85512751 0.7796784 1.3328004
-0.85120064 0.77148843 1.2087157
-0.83035886 0.75181913 0.98559165
-0.81386036 0.73662859 0.80430973
-0.80597073 0.72898597 0.65541953
-0.80526727 0.72810119 0.52694058
-0.79741848 0.72075826 0.40588725
-0.78739512 0.71120596 0.29291809
-0.78701079 0.71086228 0.18815659
-0.83980632 0.76330578 1.09192
-0.82474053 0.74909627 0.89480966
-0.80878389 0.73435163 0.72756475
-0.8042677 0.72949332 0.58941036
-0.80501485 0.72992194 0.46734658
-0.79601347 0.72151387 0.34983522
-0.78509772 0.71162301 0.24000348
-0.78467375 0.71099615 0.13638996
-0.018925287 0.02549847 2.1041934
-0.16233425 0.15284069 1.417991
-0.19980855 0.18654403 1.3376577
-0.29019377 0.26852262 1.3111259
-0.38013569 0.3501412 1.2771187
-0.4729436 0.43447408 1.2442087
-0.60822892 0.55763906 1.2845592
-0.87122434 0.79797351 1.4911215
-0.072227076 0.073892549 1.6267092
-0.11829478 0.11355957 1.4862911
-0.24619091 0.22941446 1.3331627
-0.33492616 0.31019047 1.2956182
-0.42038757 0.38792881 1.2465807
-0.52313316 0.48161861 1.2332743
-0.68073505 0.625884 1.2992573
-0.85739487 0.78724456 1.3401507
-0.85113645 0.77685922 1.2122202
-0.83060563 0.75733566 0.98873013
-0.81128401 0.739465 0.80430973
-0.806696 0.73477793 0.65773833
-0.80614859 0.73402888 0.5288136
-0.79844522 0.72676647 0.40729728
-0.78854156 0.71725553 0.29385069
-0.78820854 0.71695608 0.18860367
-0.83713681 0.76623267 1.09192
-0.82510322 0.75469875 0.89775282
-0.80621564 0.73717034 0.72756475
-0.80506736 0.73535728 0.59150839
-0.80594915 0.73591167 0.46899009
-0.79349011 0.72428805 0.34983522
-0.78626645 0.71769774 0.24069417
-0.7821871 0.71373081 0.13638996
-0.018796561 0.025486616 2.0941939
-0.1623629 0.15394177 1.4229305
-0.19841491 0.18654232 1.3327625
-0.2892547 0.26953396 1.3111259
-0.37891117 0.35146597 1.2771187
-0.47142413 0.4361223 1.2442087
-0.60627872 0.55975872 1.2845592
-0.87078947 0.80318296 1.494959
-0.072167754 0.074353322 1.6317009
-0.11827993 0.11434329 1.4912626
-0.24630474 0.23113304 1.3380021
-0.33384132 0.31135768 1.2956182
-0.41903087 0.3893939 1.2465807
-0.52144879 0.4834418 1.2332743
-0.67854613 0.62825638 1.2992573
-0.85713077 0.79253429 1.3438259
-0.85104507 0.78223902 1.2157247
-0.82795697 0.76023036 0.98873013
-0.81177831 0.74512011 0.80705118
-0.80739081 0.7405839 0.66005719
-0.80358148 0.7368384 0.5288136
-0.79943967 0.73279059 0.40870732
-0.78603309 0.72000372 0.29385069
-0.78937328 0.72306687 0.18905075
-0.83720237 0.77168077 1.0952456
-0.82543671 0.76031286 0.90069598
-0.80680871 0.74290019 0.73009789
-0.8024956 0.73816299 0.59150839
-0.80685145 0.74191684 0.47063357
-0.79453552 0.73034292 0.35100752
-0.78375643 0.72043794 0.24069417
-0.7833696 0.71983719 0.13659149
-0.018687816 0.025513124 2.0891941
-0.16182455 0.15450758 1.4229305
-0.19776255 0.18723378 1.3327625
-0.28831208 0.27054203 1.3111259
-0.377682 0.35278648 1.2771187
-0.46989891 0.43776521 1.2442087
-0.60638183 0.56378794 1.2886921
-0.87032896 0.8083992 1.4987966
-0.071907774 0.074604779 1.6317009
-0.11788007 0.11475547 1.4912626
-0.24732271 0.23371902 1.3476809
-0.3314949 0.31133935 1.2909254
-0.41766906 0.39085418 1.2465807
-0.51975811 0.48525903 1.2332743
-0.67634898 0.63062119 1.2992573
-0.85932106 0.80014211 1.3511763
-0.85092658 0.78762764 1.2192293
-0.82815599 0.76575845 0.99186856
-0.80917245 0.74794918 0.80705118
-0.80805469 0.74640357 0.66237599
-0.80441046 0.74278396 0.53068668
-0.80040169 0.73883051 0.41011736
-0.78351498 0.72274309 0.29385069
-0.79050493 0.72919446 0.18949783
-0.83997655 0.77967888 1.1018965
-0.82277769 0.76318955 0.90069598
-0.80421054 0.74571204 0.73009789
-0.80324358 0.74404401 0.59360647
-0.8077215 0.74793714 0.47227708
-0.79554832 0.73641378 0.35217986
-0.78487092 0.72653341 0.24138485
-0.78451902 0.72596043 0.13679302
-0.018500993 0.025383111 2.0641949
-0.16128424 0.15507151 1.4229305
-0.19710778 0.18792295 1.3327625
-0.28845051 0.2725724 1.3158978
-0.37644827 0.3541027 1.2771187
-0.46836793 0.43940282 1.2442087
-0.60646415 0.56782466 1.2928251
-0.86984253 0.81362188 1.502634
-0.071646914 0.074855328 1.6317009
-0.11747878 0.11516625 1.4912626
-0.24741548 0.2354479 1.3525203
-0.33040613 0.31249461 1.2909254
-0.41630217 0.39230976 1.2465807
-0.519961 0.48885703 1.2375402
-0.67634016 0.63504094 1.3032473
-0.85899574 0.80545586 1.3548514
-0.85078061 0.79302472 1.2227339
-0.8283264 0.77129716 0.99500704
-0.80961722 0.75361818 0.80979264
-0.80868781 0.75223678 0.66469479
-0.80520761 0.74874437 0.53255969
-0.80133134 0.74488598 0.4115274
-0.78098744 0.72547364 0.29385069
-0.78795481 0.73194939 0.18949783
-0.83997738 0.78515595 1.105222
-0.8230623 0.76881605 0.90363914
-0.80475324 0.7514568 0.73263109
-0.80064148 0.74684328 0.59360647
-0.8085593 0.75397259 0.47392058
-0.79652828 0.7425006 0.35335216
-0.78233004 0.72926867 0.24138485
-0.78563511 0.73210043 0.13699456
-0.018470459 0.025564795 2.0791943
-0.16074196 0.15563355 1.4229305
-0.19645061 0.18860985 1.3327625
-0.28749731 0.2735776 1.3158978
-0.3752099 0.35541457 1.2771187
-0.4668313 0.44103503 1.2442087
-0.60447836 0.56993812 1.2928251
-0.86699712 0.81665325 1.502634
-0.071582034 0.075316139 1.6366925
-0.11707606 0.11557563 1.4912626
-0.24749918 0.23718028 1.3573598
-0.32806402 0.31245551 1.2862326
-0.41493025 0.39376053 1.2465807
-0.51825142 0.49066907 1.2375402
-0.67411929 0.63739794 1.3032473
-0.8611086 0.81310457 1.3622017
-0.85060728 0.7984305 1.2262385
-0.82846826 0.77684635 0.99814546
-0.81003231 0.75929934 0.81253409
-0.80928993 0.75808352 0.66701359
-0.80258912 0.7515505 0.53255969
-0.79872626 0.74767858 0.4115274
-0.78203762 0.73155117 0.29478332
-0.7890318 0.73809743 0.18994491
-0.84266889 0.79320174 1.111873
-0.82037359 0.77168441 0.90363914
-0.80212528 0.75426131 0.73263109
-0.80133748 0.75274092 0.5957045
-0.80936491 0.760023 0.47556409
-0.79747534 0.74860311 0.35452449
-0.7833901 0.73538435 0.24207552
-0.78671789 0.73825705 0.13719608
-0.018419623 0.02570742 2.0891941
-0.15964209 0.15565054 1.417991
-0.19579104 0.18929444 1.3327625
-0.2865406 0.27457947 1.3158978
-0.37396699 0.35672215 1.2771187
-0.46528897 0.44266188 1.2442087
-0.6045258 0.57398248 1.2969581
-0.86646664 0.82188064 1.5064715
-0.071318693 0.075565547 1.6366925
-0.11629487 0.11560681 1.4862911
-0.24757379 0.23891607 1.3621992
-0.32697135 0.31359878 1.2862326
-0.41355324 0.39520651 1.2465807
-0.51653546 0.49247509 1.2375402
-0.67189032 0.63974714 1.3032473
-0.86072177 0.81844163 1.3658769
-0.85299826 0.80629462 1.2332475
-0.82858145 0.78240591 1.0012839
-0.81041759 0.76499265 0.81527555
-0.80663878 0.76090384 0.66701359
-0.80333358 0.75752801 0.53443271
-0.79960215 0.75375265 0.4129374
-0.77947927 0.73427653 0.29478332
-0.78645056 0.74084717 0.18994491
-0.8426047 0.79870713 1.1151985
-0.82060933 0.77732319 0.9065823
-0.80261761 0.76002079 0.73516428
-0.7987051 0.75553352 0.5957045
-0.80670696 0.76284355 0.47556409
-0.79838961 0.75472134 0.3556968
-0.78441703 0.74151629 0.2427662
-0.78776723 0.74443012 0.13739762
-0.018368017 0.02585 2.0991936
-0.15909779 0.15620685 1.417991
-0.19585805 0.1906876 1.3376577
-0.2855804 0.27557802 1.3158978
-0.37271953 0.35802537 1.2771187
-0.46374094 0.44428337 1.2442087
-0.60455227 0.57803404 1.301091
-0.86591005 0.82711416 1.5103091
-0.071054488 0.075814031 1.6366925
-0.11589061 0.11601205 1.4862911
-0.24673831 0.23977882 1.3621992
-0.32587469 0.31473818 1.2862326
-0.41373953 0.39815745 1.2510819
-0.5148133 0.49427512 1.2375402
-0.6674782 0.64000297 1.2992573
-0.86030817 0.82378596 1.3695521
-0.85276163 0.81172609 1.236752
-0.82866585 0.78797561 1.0044224
-0.8107729 0.77069783 0.81801701
-0.80718946 0.76676583 0.66933239
-0.80068445 0.76032752 0.53443271
-0.79696625 0.75653923 0.4129374
-0.7804752 0.74037367 0.29571593
-0.78747267 0.74701524 0.19039199
-0.84521306 0.80679989 1.1218495
-0.82081562 0.78297287 0.90952545
-0.79995972 0.7628178 0.73516428
-0.79934895 0.76144725 0.59780258
-0.80745894 0.7689113 0.4772076
-0.79575026 0.75750363 0.3556968
-0.78182393 0.74424988 0.2427662
-0.78878307 0.75061941 0.13759914
-0.018296653 0.025953244 2.1041934
-0.15855154 0.15676126 1.417991
-0.19519123 0.1913701 1.3376577
-0.28354657 0.27553251 1.3111259
-0.3714675 0.35932422 1.2771187
-0.46218729 0.4458994 1.2442087
-0.60658485 0.58404469 1.3093569
-0.8653276 0.83235389 1.5141466
-0.070789412 0.076061599 1.6366925
-0.11548495 0.11641588 1.4862911
-0.24679774 0.24151824 1.3670386
-0.32477409 0.3158738 1.2862326
-0.41234717 0.39959925 1.2510819
-0.51308483 0.49606916 1.2375402
-0.66524011 0.64232904 1.2992573
-0.85986775 0.82913727 1.3732272
-0.8524974 0.81716579 1.2402567
-0.82872146 0.7935555 1.0075608
-0.81109828 0.77641487 0.82075852
-0.80450803 0.76957875 0.66933239
-0.80137599 0.7663219 0.53630573
-0.79778802 0.7626313 0.41434744
-0.78143805 0.74648672 0.29664856
-0.78486025 0.7497595 0.19039199
-0.84508342 0.81233293 1.125175
-0.82099253 0.78863347 0.91246861
-0.80040133 0.76859134 0.73769742
-0.79668611 0.76423287 0.59780258
-0.80817831 0.7749936 0.47885111
-0.79310125 0.76027673 0.3556968
-0.78279603 0.75040138 0.24345689
-0.78976518 0.75682485 0.13780068
-0.018243643 0.02609566 2.114193
-0.15800339 0.15731375 1.417991
-0.19452204 0.19205028 1.3376577
-0.28258303 0.27652061 1.3111259
-0.37021098 0.36061868 1.2771187
-0.46062797 0.44751 1.2442087
-0.60656267 0.5881176 1.3134899
-0.86471897 0.83759946 1.517984
-0.070717365 0.076522134 1.6416842
-0.11507788 0.11681829 1.4862911
-0.24595319 0.24237825 1.3670386
-0.324902 0.31821337 1.2909254
-0.4109498 0.40103617 1.2510819
-0.5113501 0.49785715 1.2375402
-0.66083366 0.64254647 1.2952673
-0.85940033 0.83449548 1.3769025
-0.85220551 0.82261348 1.2437612
-0.82874817 0.79914528 1.0106993
-0.8113935 0.78214335 0.82349998
-0.8050071 0.77545559 0.67165118
-0.79869616 0.76911449 0.53630573
-0.79512107 0.7654115 0.41434744
-0.78236777 0.75261557 0.2975812
-0.78223836 0.75249457 0.19039199
-0.8449254 0.81787479 1.1285006
-0.82113969 0.79430479 0.91541177
-0.80081248 0.77437729 0.74023062
-0.79727781 0.77016246 0.5999006
-0.80546814 0.77780992 0.47885111
-0.79393959 0.76641637 0.35686913
-0.78373468 0.75656861 0.24414757
-0.78711855 0.75957704 0.13780068
-0.018171148 0.026198599 2.1191928
-0.1574533 0.15786432 1.417991
-0.19385047 0.19272812 1.3376577
-0.28267893 0.27855343 1.3158978
-0.36894995 0.36190876 1.2771187
-0.45906308 0.44911519 1.2442087
-0.60651934 0.59219736 1.3176229
-0.86408436 0.84285104 1.5218216
-0.070449822 0.076768517 1.6416842
-0.11504116 0.11760129 1.4912626
-0.24599737 0.24412118 1.371878
-0.32624584 0.32176977 1.300311
-0.40954742 0.40246817 1.2510819
-0.50960916 0.49963903 1.2375402
-0.65428102 0.64063287 1.2872872
