# .PCD v0.7 - Point Cloud Data file format
VERSION 0.7
FIELDS x y z
SIZE 4 4 4
TYPE F F F
COUNT 1 1 1
WIDTH 1439
HEIGHT 1
VIEWPOINT 0 0 0 1 0 0 0
POINTS 1439
DATA ascii
-0.79720676 0.64532822 0.18502705
-0.84801424 0.6908313 1.0553395
-0.82956374 0.6753279 0.86243486
-0.81387836 0.66232842 0.7022329
-0.81084657 0.6591655 0.57052791
-0.80666387 0.65553796 0.45091146
-0.80368638 0.65289199 0.34045666
-0.78784049 0.64002228 0.23378737
-0.79094994 0.64232588 0.13477771
-0.020210499 0.024324672 2.0891941
-0.16976911 0.14333615 1.4130518
-0.2111647 0.1767741 1.3474481
-0.34908149 0.28962255 1.4972332
-0.39851466 0.32907152 1.2771187
-0.49574739 0.40826204 1.2442087
-0.62879992 0.51678318 1.2680274
-0.86108261 0.70697629 1.4105339
-0.075695887 0.069483884 1.6167258
-0.12385979 0.10664729 1.4813195
-0.25727296 0.21495861 1.3283232
-0.35253811 0.29272687 1.300311
-0.44075111 0.36462709 1.2465807
-0.56852561 0.46922663 1.2759337
-0.86006737 0.7089048 1.5506288
-0.86206943 0.70956159 1.2886984
-0.86154157 0.70485258 1.1736702
-0.83116728 0.67928743 0.94793022
-0.82094371 0.67069918 0.77963656
-0.8109377 0.66206199 0.63455039
-0.80515724 0.65711504 0.5082103
-0.81799477 0.66736132 0.4002471
-0.7995252 0.65183449 0.28732237
-0.79494923 0.64810711 0.18502705
-0.84848416 0.69615573 1.058665
-0.83032703 0.68078232 0.86537802
-0.81156141 0.66516536 0.7022329
-0.8085407 0.66199189 0.57052791
-0.80802494 0.66134071 0.452555
-0.80140245 0.65569335 0.34045666
-0.78943425 0.6459043 0.23447806
-0.79257017 0.64824587 0.13497925
-0.020191094 0.024508331 2.1041934
-0.16926774 0.14392789 1.4130518
-0.20976841 0.17685318 1.3425529
-0.34692323 0.2898818 1.4924612
-0.39736354 0.33046058 1.2771187
-0.49431926 0.40999004 1.2442087
-0.62915975 0.52076942 1.2721604
-0.86107969 0.7120204 1.4143715
-0.075662956 0.069945715 1.6217175
-0.12348677 0.10707899 1.4813195
-0.25652105 0.21585535 1.3283232
-0.35283762 0.29506308 1.3050036
-0.43947566 0.36616337 1.2465807
-0.56688428 0.47120827 1.2759337
-0.8459956 0.70227879 1.5306787
-0.85958737 0.71256644 1.2886984
-0.86182815 0.7101236 1.1771748
-0.83179623 0.68465841 0.95106864
-0.82182634 0.67621762 0.78237802
-0.8086217 0.66488862 0.63455039
-0.80285859 0.65992153 0.5082103
-0.81566024 0.67021257 0.4002471
-0.79724503 0.65462136 0.28732237
-0.79653084 0.65403825 0.18547413
-0.84892714 0.70149171 1.0619905
-0.82794565 0.6836766 0.86537802
-0.81255907 0.67073852 0.70476609
-0.80972642 0.66769761 0.57262594
-0.80571151 0.66415727 0.452555
-0.8028599 0.66157788 0.34162897
-0.79099649 0.65180522 0.23516873
-0.79030257 0.65100849 0.13497925
-0.020170651 0.024692148 2.1191928
-0.16935381 0.14502405 1.417991
-0.20914981 0.17758434 1.3425529
-0.34476745 0.29012954 1.4876893
-0.3962076 0.33184564 1.2771187
-0.49288511 0.41171303 1.2442087
-0.6294995 0.52476442 1.2762933
-0.85858905 0.71502185 1.4143715
-0.075627707 0.070408158 1.6267092
-0.12351283 0.10786106 1.4862911
-0.255766 0.21674946 1.3283232
-0.35312513 0.29740492 1.3096964
-0.43819484 0.36769518 1.2465807
-0.56523597 0.4731842 1.2759337
-0.83660406 0.69942904 1.5187087
-0.85969704 0.71773541 1.2923737
-0.86208826 0.71540505 1.1806793
-0.83239776 0.69004196 0.95420712
-0.81946093 0.67908227 0.78237802
-0.80970764 0.6705327 0.63686919
-0.80412114 0.6656763 0.51008332
-0.81701148 0.67611414 0.40165716
-0.79495507 0.65740025 0.28732237
-0.79808068 0.65998834 0.18592121
-0.84647328 0.70445073 1.0619905
-0.82866162 0.68914706 0.86832118
-0.81352758 0.67632669 0.70729923
-0.80739081 0.67052001 0.57262594
-0.80702156 0.66998208 0.45419851
-0.80054569 0.66437632 0.34162897
-0.7887165 0.65456235 0.23516873
-0.7918703 0.6569531 0.13518077
-0.020192396 0.024951929 2.144192
-0.16884656 0.14561431 1.417991
-0.20852865 0.17831331 1.3425529
-0.34033731 0.28843486 1.4733733
-0.39504683 0.33322665 1.2771187
-0.49144498 0.41343105 1.2442087
-0.62766385 0.52695858 1.2762933
-0.85854357 0.72007436 1.418209
-0.075590163 0.070871212 1.6317009
-0.12313558 0.10829155 1.4862911
-0.2559635 0.21845742 1.3331627
-0.35208485 0.29863575 1.3096964
-0.43690866 0.36922255 1.2465807
-0.56358081 0.47515437 1.2759337
-0.81110847 0.68293595 1.4788084
-0.8571865 0.72073191 1.2923737
-0.8595857 0.7184099 1.1806793
-0.82998395 0.69294339 0.95420712
-0.82029563 0.68461794 0.78511947
-0.80736214 0.67335498 0.63686919
-0.80535328 0.67144787 0.51195633
-0.81464642 0.67896187 0.40165716
-0.79265553 0.66017121 0.28732237
-0.79577202 0.66277021 0.18592121
-0.8468706 0.70979977 1.065316
-0.8293497 0.69463086 0.87126434
-0.81116176 0.67916232 0.70729923
-0.80504537 0.67333424 0.57262594
-0.80830061 0.67582399 0.45584202
-0.80195111 0.67028391 0.3428013
-0.7902264 0.66048735 0.23585941
-0.78957224 0.65971321 0.13518077
-0.020040737 0.024908323 2.1291924
-0.16833723 0.1462028 1.417991
-0.20790495 0.17904013 1.3425529
-0.33478814 0.28574333 1.4542854
-0.39388126 0.33460358 1.2771187
-0.48999882 0.415144 1.2442087
-0.62796926 0.53096342 1.2804263
-0.85847342 0.72513527 1.4220465
-0.075550295 0.071334854 1.6366925
-0.12275682 0.10872071 1.4862911
-0.2551994 0.21934955 1.3331627
-0.35104027 0.29986295 1.3096964
-0.43561718 0.37074539 1.2465807
-0.5619188 0.47711873 1.2759337
-0.77194977 0.65458006 1.414968
-0.85725254 0.7259106 1.2960488
-0.85980111 0.72370273 1.1841838
-0.83053917 0.69834137 0.9573456
-0.8179009 0.68747711 0.78511947
-0.80839866 0.67901826 0.63918799
-0.80655485 0.67723614 0.51382935
-0.81227148 0.68180138 0.40165716
-0.79034626 0.66293401 0.28732237
-0.79726911 0.66874427 0.18636829
-0.84724087 0.71516001 1.0686415
-0.82691991 0.69752163 0.87126434
-0.81208163 0.68476868 0.70983243
-0.80269009 0.67614031 0.57262594
-0.80954874 0.68168306 0.45748553
-0.80332506 0.67620939 0.34397361
-0.78791606 0.66324174 0.23585941
-0.79108721 0.66568202 0.13538231
-0.019825589 0.024749801 2.0991936
-0.16724169 0.1462772 1.4130518
-0.20727871 0.17976476 1.3425529
-0.32813033 0.28204328 1.4304255
-0.39271086 0.33597645 1.2771187
-0.48854673 0.41685185 1.2442087
-0.62611204 0.53315222 1.2804263
-0.86081952 0.73228139 1.4297215
-0.07550811 0.071799077 1.6416842
-0.12277345 0.10950439 1.4912626
-0.25443214 0.22023903 1.3331627
-0.34999141 0.30108646 1.3096964
-0.43432039 0.37226373 1.2465807
-0.55826795 0.47738215 1.2716678
-0.7284168 0.62204546 1.3431475
-0.85729289 0.73109847 1.299724
-0.8572697 0.72669953 1.1841838
-0.83106673 0.70375168 0.96048403
-0.8186875 0.69302958 0.78786093
-0.80602348 0.68183595 0.63918799
-0.80772579 0.68304098 0.51570243
-0.80988663 0.6846326 0.40165716
-0.79177994 0.66885883 0.28825498
-0.79492992 0.67152321 0.18636829
-0.84758401 0.72053152 1.071967
-0.82756054 0.70302093 0.8742075
-0.81297219 0.69038969 0.71236569
-0.80378592 0.68187416 0.57472402
-0.81076574 0.68755901 0.45912904
-0.80095977 0.67900938 0.34397361
-0.78937346 0.66919029 0.23655009
-0.7887587 0.66843939 0.13538231
-0.019633008 0.024628207 2.0741944
-0.16673006 0.14686009 1.4130518
-0.20664996 0.1804872 1.3425529
-0.32037422 0.27732295 1.4017936
-0.3915357 0.33734521 1.2771187
-0.48527241 0.41699353 1.2398196
-0.62424719 0.53533447 1.2804263
-0.8606922 0.73736727 1.4335591
-0.075050443 0.071860552 1.6366925
-0.12239045 0.10993229 1.4912626
-0.25366184 0.22112583 1.3331627
-0.34893832 0.30230632 1.3096964
-0.4330183 0.37377751 1.2465807
-0.55462217 0.47762591 1.2674019
-0.71481878 0.61475968 1.3231975
-0.85730731 0.7362954 1.3033991
-0.85744005 0.73200321 1.1876884
-0.83156663 0.70917416 0.96362251
-0.81626344 0.69588315 0.78786093
-0.80701047 0.68751818 0.64150673
-0.80886602 0.6888622 0.51757544
-0.80749184 0.68745548 0.40165716
-0.78944027 0.67161858 0.28825498
-0.79258096 0.67429394 0.18636829
-0.84506375 0.72348571 1.071967
-0.8281728 0.70853311 0.87715065
-0.81383336 0.69602525 0.71489882
-0.80140078 0.68467575 0.57472402
-0.81195146 0.69345164 0.46077254
-0.80228132 0.68495721 0.34514591
-0.78703278 0.67194164 0.23655009
-0.79022074 0.67443186 0.13558383
-0.019483678 0.024581982 2.059195
-0.16563582 0.14692482 1.4081125
-0.20601869 0.18120745 1.3425529
-0.31378001 0.27353323 1.3779337
-0.39035577 0.33870989 1.2771187
-0.48381385 0.41868493 1.2398196
-0.62237471 0.53751028 1.2804263
-0.86296648 0.74455506 1.441234
-0.074593276 0.071919702 1.6317009
-0.12200597 0.11035884 1.4912626
-0.25288841 0.22200993 1.3331627
-0.34658092 0.30238765 1.3050036
-0.4317109 0.37528676 1.2465807
-0.54901135 0.47614104 1.25887
-0.70583582 0.61133242 1.3112274
-0.85473198 0.7392835 1.3033991
-0.85487962 0.73499179 1.1876884
-0.8320387 0.71460861 0.96676093
-0.81700188 0.7014522 0.79060239
-0.8079676 0.69321555 0.64382553
-0.80645651 0.69168144 0.51757544
-0.80508727 0.69027001 0.40165716
-0.79082143 0.67756629 0.28918761
-0.79400414 0.68029666 0.18681537
-0.84536093 0.72886944 1.0752926
-0.82875645 0.71405804 0.88009381
-0.81466514 0.70167518 0.71743202
-0.80244631 0.69042909 0.57682204
-0.813106 0.69936109 0.46241605
-0.79988551 0.68775356 0.34514591
-0.78843737 0.67791343 0.23724076
-0.7878617 0.67718613 0.13558383
-0.019397752 0.024649842 2.059195
-0.16512194 0.14750209 1.4081125
-0.2053849 0.18192548 1.3425529
-0.30721617 0.26970088 1.3540736
-0.38917106 0.34007043 1.2771187
-0.48234943 0.4203712 1.2398196
-0.62049466 0.53967947 1.2804263
-0.865201 0.75176764 1.448909
-0.0741366 0.071976542 1.6267092
-0.12162001 0.11078405 1.4912626
-0.25117067 0.22205827 1.3283232
-0.34422725 0.30245617 1.300311
-0.43039829 0.37679142 1.2465807
-0.54341775 0.47462291 1.2503382
-0.69461483 0.60586911 1.2952673
-0.85470241 0.74448937 1.3070743
-0.85500479 0.7403059 1.191193
-0.83248299 0.72005498 0.96989942
-0.81771129 0.70703471 0.79334384
-0.80889475 0.69892794 0.64614433
-0.80754542 0.69752264 0.51944846
-0.80267286 0.69307601 0.40165716
-0.79217058 0.68353176 0.29012021
-0.79162467 0.6830641 0.18681537
-0.84281152 0.73181593 1.0752926
-0.82931179 0.71959573 0.88303697
-0.8122108 0.70451462 0.71743202
-0.80346125 0.69619817 0.57892013
-0.81065989 0.70219505 0.46241605
-0.79747993 0.69054151 0.34514591
-0.78606617 0.6806615 0.23724076
-0.78549308 0.67993218 0.13558383
-0.019415656 0.02490915 2.0841942
-0.16460606 0.14807759 1.4081125
-0.20550789 0.1833197 1.3474481
-0.30291897 0.26780438 1.3397578
-0.38651526 0.34013584 1.2725163
-0.48087913 0.42205235 1.2398196
-0.61860704 0.5418421 1.2804263
-0.86739558 0.75900477 1.4565841
-0.073884904 0.072234891 1.6267092
-0.12123255 0.11120791 1.4912626
-0.25039402 0.22293366 1.3283232
-0.34187734 0.30251202 1.2956182
-0.42908043 0.37829149 1.2465807
-0.53979957 0.47479424 1.2460723
-0.69249576 0.60829008 1.2952673
-0.85464698 0.74970406 1.3107494
-0.85510325 0.74562985 1.1946975
-0.83289933 0.72551316 0.97303784
-0.81523824 0.70988476 0.79334384
-0.8097918 0.70465523 0.64846313
-0.80860341 0.70337993 0.52132148
-0.80024868 0.69587368 0.40165716
-0.78977972 0.68629277 0.29012021
-0.78923547 0.6858232 0.18681537
-0.84306252 0.73721129 1.078618
-0.82679486 0.7224862 0.88303697
-0.81299311 0.71018153 0.71996522
-0.80786532 0.70496678 0.58311623
-0.80820382 0.70502049 0.46241605
-0.79506457 0.69332099 0.34514591
-0.78741765 0.68665594 0.23793145
-0.78311491 0.68266994 0.13558383
-0.019369949 0.025053613 2.0941939
-0.16466331 0.14917369 1.4130518
-0.20486672 0.18403594 1.3474481
-0.29975328 0.26687413 1.3302138
-0.38532558 0.34148297 1.2725163
-0.47940296 0.42372838 1.2398196
-0.61671191 0.54399818 1.2804263
-0.8671456 0.76414716 1.4604216
-0.073632315 0.072492354 1.6267092
-0.12084363 0.11163041 1.4912626
-0.2496143 0.22380635 1.3283232
-0.34081927 0.30370355 1.2956182
-0.42938501 0.38123259 1.2510819
-0.5342347 0.47321656 1.2375402
-0.69262499 0.61270034 1.2992573
-0.85456538 0.7549274 1.3144246
-0.85249531 0.74861008 1.1946975
-0.83328772 0.73098302 0.97617632
-0.81589907 0.71548313 0.7960853
-0.81065869 0.71039724 0.65078193
-0.80614322 0.70619822 0.52132148
-0.80142361 0.70182323 0.4030672
-0.79107594 0.69228047 0.29105285
-0.79058427 0.69185358 0.18726245
-0.84048402 0.74014962 1.078618
-0.82730228 0.72803831 0.88598019
-0.81050915 0.71301508 0.71996522
-0.80880862 0.71077836 0.58521426
-0.80928546 0.71095395 0.46405956
-0.79629183 0.6992994 0.34631824
-0.785016 0.68940032 0.23793145
-0.78448147 0.68869525 0.13578537
-0.019364556 0.025275046 2.114193
-0.16414161 0.14974757 1.4130518
-0.20346856 0.18406625 1.3425529
-0.29770887 0.26692197 1.3254418
-0.38413128 0.34282592 1.2725163
-0.47970968 0.42699179 1.2442087
-0.61480922 0.54614758 1.2804263
-0.8692674 0.77142471 1.4680965
-0.073581845 0.072954178 1.6317009
-0.12045323 0.11205155 1.4912626
-0.24883156 0.22467631 1.3283232
-0.33847305 0.30373847 1.2909254
-0.42805162 0.38272908 1.2510819
-0.53063357 0.47334221 1.2332743
-0.69048202 0.61511427 1.2992573
-0.85445786 0.76015919 1.3180997
-0.85254836 0.75394392 1.198202
-0.83364797 0.73646438 0.97931474
-0.81653076 0.72109479 0.79882681
-0.8114953 0.71615392 0.65310073
-0.80714965 0.71207488 0.52319455
-0.79896891 0.70461643 0.4030672
-0.78865463 0.69503754 0.29105285
-0.7881645 0.69460899 0.18726245
-0.84068871 0.74555647 1.0819435
-0.82778078 0.73360258 0.88892335
-0.81124198 0.71869862 0.72249836
-0.80972123 0.71660519 0.58731234
-0.80679882 0.71377462 0.46405956
-0.79384595 0.70207471 0.34631824
-0.78631425 0.69541705 0.23862213
-0.78207272 0.69142944 0.13578537
-0.0192558 0.025303921 2.1091931
-0.16418938 0.15084605 1.417991
-0.2028248 0.18477537 1.3425529
-0.29566777 0.26695877 1.3206699
-0.38293225 0.3441647 1.2725163
-0.47821629 0.42866367 1.2442087
-0.61289912 0.54829031 1.2804263
-0.86895907 0.77659023 1.4719341
-0.073326737 0.073210582 1.6317009
-0.12006136 0.11247133 1.4912626
-0.24804577 0.22554353 1.3283232
-0.33741075 0.30491814 1.2909254
-0.42671305 0.38422096 1.2510819
-0.52897805 0.47519156 1.2332743
-0.68833071 0.61752075 1.2992573
-0.8543241 0.76539952 1.321775
-0.85257459 0.75928724 1.2017065
-0.83398014 0.74195707 0.98245323
-0.81400871 0.72394067 0.79882681
-0.80899054 0.71898216 0.65310073
-0.80465907 0.71488798 0.52319455
-0.7965045 0.7074011 0.4030672
-0.78989762 0.70104706 0.29198545
-0.78945959 0.70066172 0.18770951
-0.84086579 0.7509737 1.0852691
-0.82823062 0.73917907 0.89186651
-0.81194478 0.72439587 0.72503155
-0.80721492 0.71942729 0.58731234
-0.80782807 0.71972775 0.46570307
-0.79502004 0.70807427 0.34749055
-0.78388202 0.69815755 0.23862213
-0.78338575 0.69747728 0.13598689
-0.019147079 0.025332347 2.1041934
-0.16366184 0.15141827 1.417991
-0.20142882 0.18479329 1.3376577
-0.29363006 0.26698461 1.3158978
-0.38172853 0.34549931 1.2725163
-0.47671703 0.43033037 1.2442087
-0.61098146 0.55042642 1.2804263
-0.87100762 0.78390735 1.479609
-0.073070742 0.073466092 1.6317009
-0.11966803 0.11288974 1.4912626
-0.24725696 0.22640797 1.3283232
-0.3363443 0.30609405 1.2909254
-0.42375684 0.38424551 1.2465807
-0.52731609 0.47703516 1.2332743
-0.68617094 0.61991972 1.2992573
-0.85416406 0.77064806 1.3254501
-0.84991896 0.76225865 1.2017065
-0.83428401 0.74746108 0.98559165
-0.81459141 0.72956741 0.80156827
-0.8097766 0.72475594 0.65541953
-0.8056137 0.72078365 0.52506757
-0.79760587 0.71337515 0.40447721
-0.79110813 0.70707345 0.29291809
-0.79072201 0.7067318 0.18815659
-0.8410154 0.75640118 1.0885946
-0.82564533 0.74206567 0.89186651
-0.80941123 0.72722566 0.72503155
-0.80807626 0.72527224 0.58941036
-0.80882567 0.72569692 0.46734658
-0.79616195 0.71409053 0.34866288
-0.78512669 0.70419604 0.23931281
-0.784666 0.70354271 0.13618843
-0.019038396 0.025360322 2.0991936
-0.16313228 0.15198863 1.417991
-0.20078255 0.18549529 1.3376577
-0.29269633 0.26800796 1.3158978
-0.38196382 0.34814602 1.2771187
-0.47698396 0.43360302 1.2485977
-0.60905641 0.5525558 1.2804263
-0.87064087 0.78909564 1.4834466
-0.072813854 0.073720716 1.6317009
-0.11965875 0.11367492 1.4962341
-0.24646515 0.22726969 1.3283232
-0.3352738 0.30726624 1.2909254
-0.42241296 0.38572237 1.2465807
-0.52564776 0.47887295 1.2332743
-0.68400282 0.62231112 1.2992573
-0.85397786 0.77590483 1.3291253
-0.84989941 0.76761115 1.2052112
-0.83166975 0.75036877 0.98559165
-0.81203979 0.73240644 0.80156827
-0.81053227 0.73054403 0.65773833
-0.80653685 0.72669458 0.52694058
-0.79511088 0.71615499 0.40447721
-0.78863519 0.70983058 0.29291809
-0.79195166 0.71281922 0.18860367
-0.83836991 0.75933224 1.0885946
-0.82604676 0.74765569 0.89480966
-0.81006438 0.73293895 0.72756475
-0.80553973 0.72808856 0.58941036
-0.80979127 0.73168164 0.46899009
-0.79727161 0.72012341 0.34983522
-0.78266376 0.70693237 0.23931281
-0.78591341 0.70962554 0.13638996
-0.018949756 0.025426624 2.0991936
-0.16260076 0.15255713 1.417991
-0.19938892 0.18550086 1.3327625
-0.29175901 0.26902804 1.3158978
-0.38074625 0.3494772 1.2771187
-0.4754675 0.43526536 1.2485977
-0.60920125 0.55657667 1.2845592
-0.87024838 0.79429072 1.4872841
-0.072355926 0.073766381 1.6267092
-0.11926123 0.11409191 1.4962341
-0.24659094 0.22898443 1.3331627
-0.33419922 0.3084347 1.2909254
-0.42106399 0.38719454 1.2465807
-0.52397293 0.48070487 1.2332743
-0.68182635 0.624695 1.2992573
-0.85626644 0.78345823 1.3364756
-0.84985292 0.77297282 1.2087157
-0.83192611 0.75588477 0.98873013
-0.81257337 0.7380479 0.80430973
-0.8079772 0.73336887 0.65773833
-0.80742848 0.73262078 0.5288136
-0.79615927 0.7221489 0.40588725
-0.78979218 0.71587819 0.29385069
-0.78945863 0.71557933 0.18860367
-0.83847278 0.76477039 1.09192
-0.82641912 0.75325757 0.89775282
-0.80750102 0.73576218 0.72756475
-0.80634958 0.73395103 0.59150839
-0.81072503 0.73768198 0.47063357
-0.79834867 0.72617269 0.35100752
-0.78385454 0.71299213 0.24000348
-0.78712791 0.7157256 0.13659149
-0.018860886 0.025492618 2.0991936
-0.16206723 0.1531238 1.417991
-0.19874018 0.18619573 1.3327625
-0.29081815 0.27004483 1.3158978
-0.37952402 0.35080412 1.2771187
-0.47394526 0.43692243 1.2485977
-0.60725474 0.55869973 1.2845592
-0.86983031 0.79949284 1.4911215
-0.072097994 0.074018501 1.6267092
-0.11847931 0.11413669 1.4912626
-0.24579012 0.22984378 1.3331627
-0.33312052 0.30959937 1.2909254
-0.41970986 0.38866195 1.2465807
-0.52229178 0.48253092 1.2332743
-0.67964166 0.62707114 1.2992573
-0.85851264 0.79103714 1.3438259
-0.84977931 0.77834356 1.2122202
-0.8321541 0.76141173 0.99186856
-0.81307763 0.74370211 0.80705118
-0.80868214 0.73917359 0.66005719
-0.80486625 0.73543477 0.5288136
-0.79717553 0.72815895 0.40729728
-0.79091662 0.72194242 0.29478332
-0.7906341 0.72168803 0.18905075
-0.83854789 0.77021837 1.0952456
-0.82378471 0.75613773 0.89775282
-0.80492777 0.73857641 0.72756475
-0.8037827 0.73676121 0.59150839
-0.80814511 0.74050748 0.47063357
-0.79939318 0.73223823 0.35217986
-0.7850126 0.71906894 0.24069417
-0.7883094 0.72184277 0.13679302
-0.018791519 0.025597213 2.1041934
-0.16096953 0.15315226 1.4130518
-0.19808903 0.18688834 1.3327625
-0.28987375 0.27105832 1.3158978
-0.37829715 0.35212678 1.2771187
-0.47066224 0.43694443 1.2442087
-0.60736489 0.56272876 1.2886921
-0.86938637 0.80470157 1.494959
-0.071839184 0.074269712 1.6267092
-0.11808018 0.11454956 1.4912626
-0.24590096 0.23156257 1.3380021
-0.33203781 0.31076032 1.2909254
-0.41835061 0.39012465 1.2465807
-0.52060425 0.48435113 1.2332743
-0.67744857 0.62943977 1.2992573
-0.85823119 0.79633498 1.347501
-0.85229987 0.78614128 1.2192293
-0.8294912 0.76431191 0.99186856
-0.8104766 0.74653578 0.80705118
-0.80935615 0.74499208 0.66237599
-0.80570561 0.7413789 0.53068668
-0.79815948 0.73418486 0.40870732
-0.78839177 0.72469884 0.29478332
-0.78811014 0.7244435 0.18905075
-0.83859509 0.77567619 1.0985711
-0.82410842 0.76175237 0.90069598
-0.8023448 0.74138159 0.72756475
-0.80454093 0.74264091 0.59360647
-0.80902565 0.74652624 0.47227708
-0.80040503 0.73831981 0.35335216
-0.78249776 0.72180474 0.24069417
-0.78945762 0.72797686 0.13699456
-0.018721653 0.025701635 2.1091931
-0.16043395 0.1537132 1.4130518
-0.19743547 0.18757865 1.3327625
-0.28892583 0.27206853 1.3158978
-0.37706569 0.35344514 1.2771187
-0.46913415 0.43858469 1.2442087
-0.60745424 0.56676531 1.2928251
-0.86657214 0.80773139 1.494959
-0.071777456 0.074730165 1.6317009
-0.11767961 0.11496104 1.4912626
-0.24600279 0.23328492 1.3428415
-0.33095104 0.31191745 1.2909254
-0.41698626 0.39158258 1.2465807
-0.52081341 0.48794878 1.2375402
-0.6774475 0.63385957 1.3032473
-0.8604002 0.80395538 1.3548514
-0.85216337 0.79153866 1.2227339
-0.82967138 0.76985025 0.99500704
-0.81093132 0.752204 0.80979264
-0.80675071 0.74781269 0.66237599
-0.8031128 0.74418688 0.53068668
-0.79911095 0.74022633 0.41011736
-0.78946215 0.7307834 0.29571593
-0.78923106 0.73057306 0.18949783
-0.84134644 0.78368872 1.105222
-0.82440287 0.76737839 0.90363914
-0.80290776 0.74711448 0.73009789
-0.80194372 0.74544477 0.59360647
-0.80641484 0.74934578 0.47227708
-0.80138415 0.74441731 0.35452449
-0.7836017 0.72790211 0.24138485
-0.79057264 0.7341277 0.13719608
-0.018651284 0.025805883 2.114193
-0.16045487 0.15481253 1.417991
-0.19677949 0.18826669 1.3327625
-0.28797436 0.2730754 1.3158978
-0.37582967 0.35475919 1.2771187
-0.46760032 0.44021961 1.2442087
-0.60752285 0.5708093 1.2969581
-0.86608422 0.81294513 1.4987966
-0.071713381 0.075191088 1.6366925
-0.11689858 0.11499631 1.4862911
-0.24609558 0.23501079 1.3476809
-0.32986021 0.3130708 1.2909254
-0.41561684 0.39303574 1.2465807
-0.51910698 0.4897638 1.2375402
-0.6752308 0.6362204 1.3032473
-0.86005753 0.80927712 1.3585266
-0.85460395 0.79938096 1.229743
-0.82982284 0.77539921 0.99814546
-0.81135625 0.75788444 0.81253409
-0.80737364 0.75364709 0.66469479
-0.80051023 0.74698567 0.53068668
-0.80003005 0.74628347 0.4115274
-0.78690642 0.73353469 0.29571593
-0.79031879 0.73671919 0.18994491
-0.84132892 0.78917527 1.1085476
-0.82171923 0.77025139 0.90363914
-0.800295 0.74991256 0.73009789
-0.80265003 0.7513411 0.5957045
-0.80724216 0.7553826 0.47392058
-0.80233037 0.7505306 0.3556968
-0.78467244 0.73401594 0.24207552
-0.78800523 0.73688287 0.13719608
-0.018580416 0.025909947 2.1191928
-0.1599135 0.15537168 1.417991
-0.19612113 0.18895243 1.3327625
-0.2870194 0.27407894 1.3158978
-0.37458903 0.35606891 1.2771187
-0.46606085 0.44184914 1.2442087
-0.60552669 0.57292652 1.2969581
-0.86557049 0.81816524 1.502634
-0.071450472 0.075440958 1.6366925
-0.11687417 0.11577979 1.4912626
-0.2461793 0.23674014 1.3525203
-0.32876536 0.31422031 1.2909254
-0.41424236 0.3944841 1.2465807
-0.51928484 0.49336943 1.2418064
-0.67300588 0.63857353 1.3032473
-0.8596881 0.81460619 1.3622017
-0.85440427 0.80480456 1.2332475
-0.82711118 0.77829111 0.99814546
-0.81175148 0.7635771 0.81527555
-0.80796564 0.75949484 0.66701359
-0.80127621 0.75295013 0.53255969
-0.79742008 0.74907154 0.4115274
-0.7879225 0.7396391 0.29664856
-0.79137313 0.74288183 0.19039199
-0.84399742 0.79723525 1.1151985
-0.8219648 0.77588969 0.9065823
-0.8008076 0.75566012 0.73263109
-0.80002248 0.75413835 0.5957045
-0.80803722 0.76143444 0.47556409
-0.8032437 0.75665963 0.35686913
-0.78210551 0.73675048 0.24207552
-0.7890653 0.74305403 0.13739762
-0.018509049 0.026013836 2.1241927
-0.15937017 0.15592894 1.417991
-0.19546035 0.18963586 1.3327625
-0.28606093 0.27507916 1.3158978
-0.37334383 0.35737431 1.2771187
-0.46451566 0.44347331 1.2442087
-0.60556018 0.57697797 1.301091
-0.86270928 0.8211816 1.502634
-0.071382441 0.075902104 1.6416842
-0.11646931 0.11618705 1.4912626
-0.24625392 0.23847292 1.3573598
-0.32642353 0.31416896 1.2862326
-0.41443381 0.39743474 1.2510819
-0.51755947 0.49517903 1.2418064
-0.66859424 0.63883704 1.2992573
-0.86174464 0.82228321 1.3695521
-0.85417706 0.81023651 1.236752
-0.8272146 0.78385079 1.0012839
-0.81211674 0.76928163 0.81801701
-0.80852652 0.76535583 0.66933239
-0.79864305 0.75574255 0.53255969
-0.79828542 0.7551471 0.4129374
-0.78890574 0.74575955 0.2975812
-0.79239416 0.74906075 0.19083907
-0.84391463 0.80274999 1.1185241
-0.81925142 0.77875417 0.9065823
-0.80128992 0.76142049 0.73516428
-0.80067676 0.76005095 0.59780258
-0.80537438 0.76425034 0.47556409
-0.80059755 0.75945884 0.35686913
-0.77952898 0.73947608 0.24207552
-0.78646678 0.74580389 0.13739762
-0.018418131 0.026078286 2.1241927
-0.15937768 0.15703036 1.4229305
-0.1947972 0.19031699 1.3327625
-0.28509897 0.27607602 1.3158978
-0.37209409 0.35867533 1.2771187
-0.46296483 0.44509208 1.2442087
-0.60760325 0.5829851 1.3093569
-0.86215144 0.82640618 1.5064715
-0.071117058 0.076150812 1.6416842
-0.11606303 0.1165929 1.4912626
-0.24631943 0.24020909 1.3621992
-0.32532489 0.31530648 1.2862326
-0.41304398 0.39887896 1.2510819
-0.51582783 0.49698266 1.2418064
-0.6663602 0.64116699 1.2992573
-0.86131352 0.82763529 1.3732272
-0.85392231 0.81567663 1.2402567
-0.82728934 0.78942072 1.0044224
-0.81245208 0.77499801 0.82075852
-0.80584997 0.76817346 0.66933239
-0.7993561 0.76172382 0.53443271
-0.79564458 0.75792903 0.4129374
-0.78629774 0.74850875 0.2975812
-0.7897746 0.75182211 0.19083907
-0.84649992 0.81085676 1.125175
-0.81944788 0.78440428 0.90952545
-0.8017416 0.7671932 0.73769742
-0.79801875 0.76284122 0.59780258
-0.80611569 0.77031934 0.4772076
-0.80145633 0.76560634 0.35804144
-0.78052378 0.74561328 0.2427662
-0.78385866 0.74854463 0.13739762
-0.018345905 0.026181739 2.1291924
-0.15882859 0.15758573 1.4229305
-0.19413169 0.19099581 1.3327625
-0.28413358 0.27706954 1.3158978
-0.3708398 0.359972 1.2771187
-0.46312881 0.4483715 1.2485977
-0.60758817 0.58705801 1.3134899
-0.86156744 0.83163673 1.5103091
-0.070656553 0.076185033 1.6366925
-0.1160291 0.11737739 1.4962341
-0.24547945 0.24106742 1.3621992
-0.32545692 0.31764585 1.2909254
-0.41164914 0.40031832 1.2510819
-0.51221824 0.49696392 1.2375402
-0.66195416 0.64139217 1.2952673
-0.86085546 0.83299422 1.3769025
-0.85363996 0.82112479 1.2437612
-0.82733518 0.79500067 1.0075608
-0.81275737 0.78072602 0.82349998
-0.80635929 0.7740494 0.67165118
-0.79669237 0.7645095 0.53443271
-0.79645574 0.76402259 0.41434744
-0.78722626 0.75464827 0.29851383
-0.79074043 0.75802064 0.19128615
-0.84635156 0.81639892 1.1285006
-0.81961483 0.79006517 0.91246861
-0.80216277 0.77297848 0.74023062
-0.79862076 0.7687698 0.5999006
-0.80682445 0.77640295 0.47885111
-0.79877895 0.7683993 0.35804144
-0.78148514 0.75176644 0.24345689
-0.78484201 0.75473917 0.13759914
-0.018235624 0.026206233 2.1241927
-0.15772858 0.15758927 1.417991
-0.1934638 0.19167228 1.3327625
-0.28316468 0.27805966 1.3158978
-0.36958101 0.36126429 1.2771187
-0.46156088 0.44998538 1.2485977
-0.60755199 0.59113783 1.3176229
-0.86325574 0.83910745 1.517984
-0.070390187 0.076431207 1.6366925
-0.11561867 0.1177817 1.4962341
-0.24552976 0.24280715 1.3670386
-0.32557654 0.31998992 1.2956182
-0.41024926 0.4017528 1.2510819
-0.5104804 0.49874887 1.2375402
-0.65755469 0.64159441 1.2912773
-0.86037052 0.83836019 1.3805776
-0.85333002 0.82658094 1.2472657
-0.83014917 0.80329722 1.0138377
-0.81303245 0.78646559 0.82624143
-0.80683738 0.77993834 0.67396998
-0.79735255 0.77050728 0.53630573
-0.79378396 0.76679808 0.41434744
-0.7881214 0.76080334 0.29944643
-0.78808957 0.76077622 0.19128615
-0.84617478 0.8219499 1.131826
-0.81975216 0.79573673 0.91541177
-0.80255336 0.77877599 0.74276382
-0.79919112 0.77471179 0.60199869
-0.80750048 0.78250074 0.48049462
-0.79958308 0.7745648 0.35921374
-0.78241307 0.75793535 0.24414757
-0.78220272 0.75747418 0.13759914
-0.018144036 0.026269728 2.1241927
-0.15717754 0.15813889 1.417991
-0.19351381 0.19306615 1.3376577
-0.28325334 0.28009632 1.3206699
-0.36831772 0.36255217 1.2771187
-0.45998734 0.45159379 1.2485977
-0.60548478 0.59325498 1.3176229
-0.86261195 0.84435791 1.5218216
-0.070122965 0.076676443 1.6366925
-0.11520682 0.11818457 1.4962341
-0.24468072 0.24366273 1.3670386
-0.32568374 0.3223387 1.300311
-0.40884438 0.40318239 1.2510819
-0.50687736 0.49869841 1.2332743
-0.65316194 0.64177382 1.2872872
-0.85985857 0.84373289 1.3842528
-0.85299218 0.83204478 1.2507702
-0.83012766 0.80890656 1.0169762
-0.81327742 0.7922166 0.82898289
-0.80728412 0.78583997 0.67628878
-0.79798061 0.77651906 0.5381788
-0.79454106 0.77290922 0.41575748
-0.78546089 0.76354975 0.29944643
-0.78542918 0.76352251 0.19128615
-0.84330046 0.8248986 1.131826
-0.82275033 0.80424446 0.92129809
-0.80291307 0.78458548 0.74529696
-0.79648197 0.77749681 0.60199869
-0.80814373 0.78861272 0.48213813
-0.80035377 0.78074533 0.36038607
-0.77976263 0.76066184 0.24414757
-0.78313065 0.76368797 0.13780068
-0.018033724 0.026293386 2.1191928
-0.15607947 0.15813285 1.4130518
-0.19283868 0.19374047 1.3376577
-0.28333122 0.28213704 1.3254418
-0.36843714 0.36521125 1.2817212
-0.45840818 0.45319667 1.2485977
-0.60541326 0.59734154 1.3217558
-0.86194205 0.84961402 1.5256591
-0.069854885 0.076920755 1.6366925
-0.11479358 0.11858599 1.4962341
-0.24471581 0.24540585 1.371878
-0.32700047 0.32591063 1.3096964
-0.40743449 0.40460706 1.2510819
-0.50513351 0.50046468 1.2332743
-0.64877588 0.64193034 1.2832973
-0.85931945 0.84911209 1.3879279
-0.85517073 0.84001559 1.2577794
-0.83007723 0.81452566 1.0201148
-0.81349218 0.79797894 0.83172441
-0.80453616 0.78865314 0.67628878
-0.79526514 0.7792998 0.5381788
-0.79183823 0.77567792 0.41575748
-0.78630108 0.76972324 0.30037907
-0.78631794 0.76974332 0.19173324
-0.84307575 0.83045751 1.1351515
-0.82281846 0.80994707 0.92424124
-0.80324203 0.790407 0.74783015
-0.79699969 0.78345394 0.60409671
-0.80538601 0.79142886 0.48213813
-0.8010909 0.78694046 0.36155838
-0.78063536 0.76684952 0.24483825
-0.78402466 0.76991737 0.1380022
-0.017941834 0.026356174 2.1191928
-0.15552653 0.15867671 1.4130518
-0.19287644 0.19513717 1.3425529
-0.28339833 0.28418165 1.3302138
-0.36716005 0.3664951 1.2817212
-0.45682344 0.45479408 1.2485977
-0.60132837 0.5974676 1.3176229
-0.86352056 0.85713381 1.5333341
-0.069585957 0.077164121 1.6366925
-0.11437894 0.11898597 1.4962341
-0.24474166 0.24715219 1.3767174
-0.32951388 0.33071846 1.3237747
-0.40601969 0.40602681 1.2510819
-0.50338352 0.50222486 1.2332743
-0.64439678 0.64206415 1.2793072
-0.85635024 0.85210645 1.3879279
-0.85476869 0.84550363 1.2612839
-0.82999748 0.82015413 1.0232532
-0.81367642 0.80375224 0.83446586
-0.80493081 0.79456872 0.67860758
-0.79583979 0.78532737 0.54005182
-0.79254079 0.78180605 0.41716751
-0.78360951 0.7724632 0.30037907
-0.78362626 0.77248335 0.19173324
-0.84017181 0.8333953 1.1351515
-0.82285666 0.81565988 0.9271844
-0.80354011 0.79624033 0.75036329
-0.79426008 0.78623122 0.60409671
-0.80597502 0.79755694 0.48378164
-0.80179465 0.79315037 0.36273071
-0.78147435 0.77305239 0.24552894
-0.78133237 0.77264941 0.1380022
-0.017849723 0.026418643 2.1191928
-0.1549717 0.15921864 1.4130518
-0.19290677 0.19653647 1.3474481
-0.28240463 0.28516915 1.3302138
-0.3672561 0.36915982 1.2863238
-0.4552331 0.45638591 1.2485977
-0.59923911 0.599563 1.3176229
-0.86279017 0.86240882 1.5371716
-0.069506682 0.077623472 1.6416842
-0.11396291 0.1193845 1.4962341
-0.24563918 0.24979837 1.3863963
-0.33078423 0.33432072 1.3331603
-0.40459988 0.40744162 1.2510819
-0.50346702 0.50582767 1.2375402
-0.64215165 0.64430958 1.2793072
-0.8557654 0.85749024 1.3916031
-0.85433865 0.850999 1.2647884
-0.82988852 0.82579184 1.0263916
-0.81383032 0.80953658 0.83720732
-0.80529398 0.80049664 0.68092638
-0.79309362 0.78810054 0.54005182
-0.79321021 0.78794855 0.41857755
-0.7843945 0.77865452 0.30131167
-0.78092504 0.77521402 0.19173324
-0.83989912 0.83896178 1.138477
-0.82286513 0.82138288 0.93012756
-0.8038072 0.8020854 0.75289649
-0.79472512 0.79220319 0.60619479
-0.80318612 0.80036545 0.48378164
-0.79902112 0.79594433 0.36273071
-0.78227949 0.77927047 0.24621962
-0.78217065 0.7788974 0.13820374
-0.017757397 0.026480788 2.1191928
-0.15441498 0.15975861 1.4130518
-0.19292964 0.19793837 1.3523433
-0.28245372 0.28721789 1.3349857
-0.36871073 0.37321973 1.2955288
-0.45363727 0.4579722 1.2485977
-0.59714264 0.60165107 1.3176229
-0.86203343 0.86768931 1.5410092
-0.069235303 0.07786563 1.6416842
-0.11354548 0.11978159 1.4962341
-0.24739893 0.25335357 1.4009147
-0.33203343 0.33793584 1.3425457
-0.40317518 0.40885144 1.2510819
-0.50169832 0.50758201 1.2375402
-0.63989866 0.64654714 1.2793072
-0.85515326 0.86288029 1.3952782
-0.8538807 0.85650176 1.268293
-0.82975036 0.83143884 1.02953
-0.8139537 0.81533176 0.83994877
-0.80249482 0.80330276 0.68092638
-0.79361475 0.79414344 0.54192483
-0.79384643 0.79410529 0.41998756
-0.78514582 0.78486073 0.30224431
-0.77821428 0.77793521 0.19173324
-0.83959782 0.84453642 1.1418025
-0.82284367 0.82711577 0.93307072
-0.80708396 0.81099755 0.75796282
-0.79515809 0.79818785 0.60829288
-0.80038744 0.80316418 0.48378164
-0.7996695 0.80217093 0.36390302
-0.78305066 0.78550345 0.2469103
-0.77944696 0.78162289 0.13820374
-0.017664853 0.026542611 2.1191928
-0.15385638 0.16029665 1.4130518
-0.19294512 0.1993428 1.3572387
-0.28040689 0.28713378 1.3302138
-0.36877361 0.3758994 1.3001313
-0.4520359 0.45955288 1.2485977
-0.59306371 0.60172749 1.3134899
-0.86125028 0.87297487 1.5448467
-0.068963081 0.078106828 1.6416842
-0.11312667 0.1201772 1.4962341
-0.25176054 0.2596325 1.4299512
-0.33446625 0.34279925 1.3566241
-0.40174559 0.4102563 1.2510819
-0.49992341 0.50933015 1.2375402
-0.63763791 0.64877689 1.2793072
-0.85213602 0.86586004 1.3952782
-0.85590351 0.86454594 1.2753021
-0.82958269 0.8370949 1.0326686
-0.81404644 0.82113755 0.84269029
-0.80280566 0.80924404 0.68324518
-0.79410332 0.80019945 0.54379785
-0.79444909 0.80027586 0.4213976
-0.78586328 0.79108161 0.30317691
-0.77900368 0.78417999 0.19218032
-0.83926779 0.85011917 1.145128
-0.82279211 0.83285856 0.93601388
-0.80727828 0.81687617 0.76049602
-0.79555875 0.80418509 0.6103909
-0.80090052 0.80930966 0.48542514
-0.80028409 0.80841178 0.36507532
-0.78030396 0.78823203 0.2469103
-0.77671391 0.78433889 0.13820374
-0.017589906 0.026643947 2.1241927
-0.1532959 0.16083273 1.4130518
-0.19224811 0.2000151 1.3572387
-0.27940291 0.28811082 1.3302138
-0.36882225 0.378584 1.3047339
-0.45042899 0.461128 1.2485977
-0.59095967 0.60379398 1.3134899
-0.86268377 0.88055521 1.5525217
-0.068878233 0.078565978 1.6466758
-0.11270648 0.12057135 1.4962341
-0.2569527 0.26685077 1.4638271
-0.3344681 0.34520432 1.3613169
-0.40031108 0.41165614 1.2510819
-0.49814251 0.5110721 1.2375402
-0.63536936 0.65099877 1.2793072
-0.8514778 0.87125391 1.3989534
-0.85538059 0.87007153 1.2788066
-0.82665569 0.83998555 1.0326686
-0.81410867 0.82695401 0.84543175
-0.80308461 0.81519705 0.68556398
-0.7945593 0.80626857 0.54567093
-0.79165077 0.80304414 0.4213976
-0.78654677 0.79731697 0.30410954
-0.77626163 0.7868945 0.19218032
-0.83890897 0.85570991 1.1484535
-0.81987983 0.83572561 0.93601388
-0.80744117 0.82276583 0.76302922
-0.79592729 0.81019485 0.61248899
-0.79807061 0.81210041 0.48542514
-0.80086482 0.81466663 0.36624765
-0.78101933 0.79448247 0.24760097
-0.77747428 0.79060751 0.13840528
-0.017496793 0.026705185 2.1241927
-0.15326695 0.16193187 1.417991
-0.19225116 0.20142205 1.3621339
-0.27736047 0.28800881 1.3254418
-0.36749846 0.37986913 1.3047339
-0.4488166 0.46269748 1.2485977
-0.58688724 0.60383499 1.3093569
-0.86183977 0.88585854 1.5563592
-0.068603568 0.078805923 1.6466758
-0.11228494 0.12096404 1.4962341
-0.26122922 0.27319944 1.4928637
-0.33445722 0.34761357 1.3660097
-0.39887169 0.41305098 1.2510819
-0.49635547 0.51280785 1.2375402
-0.63519001 0.65537649 1.2832973
-0.85079241 0.87665373 1.4026285
-0.85482943 0.87560403 1.2823112
-0.82643896 0.84564978 1.035807
-0.81414002 0.83278084 0.8481732
-0.80642962 0.8243286 0.69020158
-0.79498243 0.81235057 0.54754394
-0.7921986 0.80923057 0.42280763
-0.7871964 0.80356675 0.30504215
-0.77699506 0.7931568 0.19262739
-0.83852142 0.86130852 1.1517791
-0.81977803 0.84147763 0.93895704
-0.8075729 0.82866669 0.76556236
-0.79626358 0.81621695 0.61458701
-0.79852897 0.81826085 0.48706865
-0.80141157 0.82093531 0.36741996
-0.77824134 0.7972039 0.24760097
-0.77470976 0.7933166 0.13840528
-0.017403468 0.026766095 2.1241927
-0.15270077 0.16246589 1.417991
-0.1915469 0.20209192 1.3621339
-0.27532217 0.28789604 1.3206699
-0.3675234 0.3825587 1.3093363
-0.44719872 0.46426132 1.2485977
-0.58282179 0.60385507 1.3052239
-0.86319619 0.89347214 1.5640341
-0.06832806 0.079044916 1.6466758
-0.111862 0.12135525 1.4962341
-0.27065495 0.28505275 1.5509368
-0.32966635 0.34503484 1.3519313
-0.39742744 0.41444081 1.2510819
-0.49456242 0.51453733 1.2375402
-0.63289845 0.65758973 1.2832973
-0.85007954 0.8820594 1.4063038
-0.85425001 0.88114321 1.2858157
-0.82348204 0.84852946 1.035807
-0.81414062 0.83861786 0.85091466
-0.80663389 0.83031595 0.69252038
-0.79537272 0.81844521 0.54941696
-0.79271281 0.81543058 0.42421767
-0.78781193 0.80983067 0.30597478
-0.77769417 0.79943371 0.19307446
-0.83810484 0.86691469 1.1551045
-0.81964612 0.8472392 0.94190019
-0.8076731 0.83457828 0.76809555
-0.79656744 0.82225132 0.61668509
-0.79895413 0.8244344 0.48871216
-0.80192417 0.8272177 0.36859229
-0.77890062 0.80347121 0.24829166
-0.77541381 0.79960251 0.1386068
-0.01730993 0.026826683 2.1241927
-0.15266214 0.16356665 1.4229305
-0.1908403 0.2027593 1.3621339
-0.27328804 0.28777257 1.3158978
-0.36618578 0.38383925 1.3093363
-0.44557545 0.46581951 1.2485977
-0.57876343 0.60385406 1.301091
-0.86450994 0.90110582 1.5717092
-0.068051726 0.079282947 1.6466758
-0.1117966 0.12213912 1.5012056
-0.2696583 0.28599578 1.5509368
-0.32489768 0.34242699 1.3378531
-0.39597833 0.41582555 1.2510819
-0.49276334 0.51626056 1.2375402
-0.63059926 0.65979499 1.2832973
-0.84933931 0.88747066 1.4099789
-0.85364234 0.88668895 1.2893202
-0.82321608 0.85420161 1.0389454
-0.8141104 0.84446508 0.85365611
-0.80680621 0.83631474 0.69483918
-0.79573029 0.82455266 0.55129004
-0.79319328 0.82164395 0.42562771
-0.7883932 0.8161087 0.30690739
-0.77835888 0.80572522 0.19352154
-0.8376593 0.87252849 1.15843
-0.81668365 0.85009515 0.94190019
-0.80774194 0.84050077 0.77062875
-0.79683888 0.82829762 0.61878312
-0.79934579 0.83062083 0.49035567
-0.80240273 0.83351362 0.3697646
-0.77609122 0.80618519 0.24829166
-0.77608341 0.80590296 0.13880834
-0.017216183 0.026886944 2.1241927
-0.15209025 0.16409855 1.4229305
-0.1894367 0.2026798 1.3572387
-0.27125815 0.28763843 1.3111259
-0.3648437 0.38511518 1.3093363
-0.44394672 0.467372 1.2485977
-0.57471216 0.60383213 1.2969581
-0.86578077 0.90875953 1.5793842
-0.067774564 0.079520009 1.6466758
-0.11136958 0.12252863 1.5012056
-0.27209312 0.29060706 1.5702945
-0.32015121 0.33979008 1.3237747
-0.39601991 0.41878721 1.2555832
-0.49275222 0.51987052 1.2418064
-0.6282922 0.66199213 1.2832973
-0.85090703 0.89534503 1.4173292
-0.85300636 0.89224124 1.2928247
-0.82292044 0.85988212 1.0420839
-0.81115776 0.84730166 0.85365611
-0.8069464 0.84232479 0.69715798
-0.79926234 0.83401954 0.55503613
-0.79364002 0.82787067 0.42703772
-0.78553969 0.81885576 0.30690739
-0.77898914 0.81203097 0.19396862
-0.83718491 0.87814975 1.1617556
-0.81650132 0.85586542 0.94484335
-0.80777925 0.84643388 0.77316189
-0.80021268 0.83763748 0.62297922
-0.79970407 0.83682001 0.49199918
-0.80284709 0.83982295 0.3709369
-0.7732724 0.80888939 0.24829166
-0.7732656 0.80860704 0.13880834
-0.017122226 0.026946874 2.1241927
-0.15204196 0.16520084 1.4278697
-0.18872808 0.20333983 1.3572387
-0.26923251 0.28749362 1.3063539
-0.36349717 0.38638633 1.3093363
-0.44231257 0.46891886 1.2485977
-0.5706681 0.60378927 1.2928251
-0.86700875 0.9164331 1.5870591
-0.067496575 0.079756103 1.6466758
-0.11094119 0.12291663 1.5012056
-0.27364349 0.2943179 1.5848128
-0.31542715 0.33712426 1.3096964
-0.39455566 0.420167 1.2555832
-0.49093452 0.52158743 1.2418064
-0.62597764 0.66418129 1.2832973
-0.85010314 0.90077537 1.4210044
-0.84988666 0.89521331 1.2928247
-0.82259512 0.8655709 1.0452224
-0.8110761 0.85315859 0.85639757
-0.80705446 0.84834594 0.69947678
-0.79954207 0.84016275 0.55690914
-0.79405296 0.83411044 0.42844775
-0.78606468 0.82514954 0.30784002
-0.77614981 0.81474525 0.19396862
-0.83668137 0.88377827 1.165081
-0.81628865 0.86164474 0.94778651
-0.80481976 0.84924841 0.77316189
-0.80040747 0.84371835 0.62507725
-0.80002856 0.84303164 0.49364269
-0.79991066 0.84262031 0.3709369
-0.77385354 0.81517518 0.24898234
-0.77387857 0.81492406 0.13900986
-0.01702806 0.027006479 2.1241927
-0.15146437 0.16573057 1.4278697
-0.18801714 0.20399737 1.3572387
-0.26822731 0.28843164 1.3063539
-0.36081287 0.38622499 1.3047339
-0.44067305 0.47045994 1.2485977
-0.56663144 0.60372561 1.2886921
-0.8659991 0.92179006 1.5908966
-0.06721776 0.079991221 1.6466758
-0.1108662 0.12370101 1.5061771
-0.27176219 0.29434735 1.5799733
-0.31189993 0.33569416 1.300311
-0.39457098 0.42313409 1.2600844
-0.48911086 0.52329791 1.2418064
-0.62365544 0.66636229 1.2832973
-0.85158998 0.90868485 1.4283547
-0.84920287 0.90076947 1.2963293
-0.82224005 0.87126786 1.0483608
-0.81096345 0.85902512 0.85913903
-0.8071301 0.85437804 0.70179558
-0.79978859 0.84631795 0.55878216
-0.79443187 0.84036309 0.42985779
-0.78655541 0.8314569 0.30877262
-0.77672344 0.82106727 0.1944157
-0.83870602 0.89213437 1.1717321
-0.81604546 0.86743295 0.95072967
-0.80480468 0.85519201 0.77569515
-0.80056953 0.84981072 0.62717533
-0.79708099 0.84581918 0.49364269
-0.79696453 0.84540737 0.3709369
-0.77440023 0.82147479 0.24967301
-0.7744568 0.82125521 0.1392114
-0.016933685 0.027065752 2.1241927
-0.15088494 0.16625828 1.4278697
-0.18730392 0.20465243 1.3572387
-0.26721886 0.28936619 1.3063539
-0.3594625 0.38748211 1.3047339
-0.43902814 0.47199529 1.2485977
-0.56452054 0.60569984 1.2886921
-0.86714894 0.92949498 1.5985717
-0.067120947 0.080448806 1.6516675
-0.11043373 0.12408726 1.5061771
-0.26648793 0.29065979 1.5557762
-0.30955642 0.33551225 1.2956182
-0.39457041 0.42610639 1.2645856
-0.4872812 0.52500206 1.2418064
-0.61927438 0.66632783 1.2793072
-0.85072243 0.91413373 1.4320298
-0.84849054 0.90633172 1.2998339
-0.82185525 0.87697285 1.0514992
-0.81081969 0.86490136 0.86188054
-0.80717367 0.86042106 0.70411438
-0.80000186 0.85248512 0.56065518
-0.79477686 0.84662849 0.43126783
-0.78364831 0.8341974 0.30877262
-0.77726227 0.82740319 0.19486278
-0.83813459 0.8977859 1.1750575
-0.81577176 0.87322986 0.95367283
-0.80475783 0.86114573 0.77822834
-0.79759824 0.85260004 0.62717533
-0.79735029 0.85204434 0.49528623
-0.79400867 0.84818411 0.3709369
-0.7749123 0.82778817 0.25036371
-0.77158535 0.82395351 0.1392114
-0.016855795 0.027165011 2.1291924
-0.15030366 0.16678394 1.4278697
-0.18658839 0.205305 1.3572387
-0.26721564 0.29139772 1.3111259
-0.35810775 0.38873452 1.3047339
-0.43737793 0.47352493 1.2485977
-0.56049156 0.60560131 1.2845592
-0.86607724 0.93486762 1.6024091
-0.066839717 0.080682606 1.6516675
-0.10999992 0.12447199 1.5061771
-0.26378012 0.28972855 1.5460974
-0.30838338 0.33659074 1.2956182
-0.39308062 0.42748109 1.2645856
-0.48544565 0.52669978 1.2418064
-0.61694467 0.66848546 1.2793072
-0.85212791 0.92207748 1.4393802
-0.84774977 0.91190004 1.3033384
-0.82144058 0.88268572 1.0546377
-0.81064469 0.87078691 0.864622
-0.8041653 0.86323333 0.70411438
-0.80018175 0.8586641 0.56252825
-0.79181671 0.84939766 0.43126783
-0.78408241 0.84051985 0.30970526
-0.77776635 0.83375281 0.19530986
-0.83753395 0.90344429 1.1783831
-0.8154676 0.87903547 0.95661598
-0.80467916 0.86710948 0.78076148
-0.79770613 0.85870421 0.62927336
-0.79758573 0.85828161 0.49692973
-0.7910431 0.8509506 0.3709369
-0.77538961 0.83411515 0.25105438
-0.77210665 0.83030039 0.13941292
-0.016760869 0.027223684 2.1291924
-0.14972058 0.16730759 1.4278697
-0.1858706 0.20595506 1.3572387
-0.26720145 0.29343277 1.3158978
-0.35806695 0.39142391 1.3093363
-0.43572235 0.47504878 1.2485977
-0.55837423 0.60755408 1.2845592
-0.86497867 0.94024414 1.6062467
-0.066738926 0.081140131 1.6566591
-0.10956476 0.1248552 1.5061771
-0.26023954 0.28784919 1.5315791
-0.30720657 0.33766514 1.2956182
-0.39305365 0.43045843 1.2690868
-0.48360416 0.52839106 1.2418064
-0.61460751 0.67063493 1.2793072
-0.85119623 0.92754424 1.4430554
-0.84698051 0.91747421 1.306843
-0.82363766 0.89126509 1.0609146
-0.81043851 0.8766818 0.86736345
-0.80415523 0.86928701 0.70643318
-0.8003282 0.86485457 0.56440127
-0.79210562 0.85567671 0.43267787
-0.78448188 0.84685534 0.31063786
-0.7782355 0.84011602 0.19575694
-0.83690393 0.90910941 1.1817086
-0.81239414 0.88187665 0.95661598
-0.80456877 0.87308317 0.78329468
-0.79470384 0.8614834 0.62927336
-0.79778725 0.86453086 0.49857324
-0.79136479 0.85727823 0.37210923
-0.77583224 0.84045547 0.25174505
-0.77259302 0.83666092 0.13961446
-0.016665738 0.027282024 2.1291924
-0.14965101 0.16841069 1.432809
-0.18515056 0.20660262 1.3572387
-0.26617554 0.29436371 1.3158978
-0.35669845 0.39267141 1.3093363
-0.43406144 0.47656682 1.2485977
-0.5562501 0.60949945 1.2845592
-0.86169136 0.94325769 1.6062467
-0.066455282 0.081372596 1.6566591
-0.10912827 0.1252369 1.5061771
-0.25755462 0.2868844 1.5219003
-0.30718249 0.34001622 1.300311
-0.39154866 0.43182778 1.2690868
-0.48175681 0.53007591 1.2418064
-0.61429071 0.67500496 1.2832973
-0.85251999 0.93552154 1.4504057
-0.84618258 0.9230541 1.3103476
-0.8231532 0.89700252 1.0640531
-0.81020105 0.88258588 0.87010491
-0.80111599 0.87208873 0.70643318
-0.79730439 0.86764294 0.56440127
-0.79236037 0.86196816 0.43408787
-0.78484666 0.85320389 0.3115705
-0.77529824 0.8428275 0.19575694
-0.83624458 0.91478115 1.185034
-0.81203908 0.88768953 0.95955914
-0.80442631 0.87906653 0.78582788
-0.79169184 0.86425221 0.62927336
-0.79795486 0.87079191 0.50021678
-0.78836757 0.86003542 0.37210923
-0.77623999 0.84680897 0.25243574
-0.7696678 0.83935267 0.13961446
-0.016570404 0.027340032 2.1291924
-0.14906225 0.16893204 1.432809
-0.18510452 0.20800881 1.3621339
-0.26614326 0.29640204 1.3206699
-0.35532558 0.39391413 1.3093363
-0.43239528 0.47807908 1.2485977
-0.55411911 0.61143744 1.2845592
-0.86054695 0.94863391 1.6100842
-0.066170834 0.081604078 1.6566591
-0.10869044 0.12561706 1.5061771
-0.25571561 0.28684303 1.5170608
-0.30714577 0.34237128 1.3050036
-0.39003894 0.43319193 1.2690868
-0.47990355 0.53175431 1.2418064
-0.61395097 0.67938083 1.2872872
-0.85152382 0.94100553 1.4540808
-0.84775656 0.9312768 1.3173567
-0.82526022 0.90562451 1.07033
-0.80993211 0.88849884 0.87284636
-0.80105221 0.87815261 0.70875198
-0.79739577 0.87384528 0.56627429
-0.79258072 0.86827177 0.43549791
-0.78517663 0.8595652 0.3125031
-0.77571011 0.84920549 0.19620402
-0.83555591 0.92045933 1.1883595
-0.8116532 0.89351064 0.96250236
-0.80425191 0.8850596 0.78836101
-0.79172409 0.87036788 0.63137144
-0.79491031 0.87357205 0.50021678
-0.78863251 0.86637658 0.37328154
-0.77327931 0.84951341 0.25243574
-0.77009684 0.8457281 0.13981599
-0.016474869 0.027397707 2.1291924
-0.14898293 0.17003639 1.4377482
-0.18437731 0.20865369 1.3621339
-0.26510701 0.29732925 1.3206699
-0.35525161 0.39660755 1.3139389
-0.43072382 0.47958553 1.2485977
-0.55198145 0.61336792 1.2845592
-0.85723037 0.95163196 1.6100842
-0.065885581 0.081834555 1.6566591
-0.10859762 0.1264009 1.5111486
-0.25388005 0.28679231 1.5122213
-0.3070963 0.34473017 1.3096964
-0.38852444 0.43455076 1.2690868
-0.47804448 0.53342628 1.2418064
-0.61358804 0.68376255 1.2912773
-0.85276556 0.94901574 1.4614313
-0.84689194 0.93687594 1.3208612
-0.82731694 0.91427195 1.0766069
-0.80963176 0.89442068 0.87558782
-0.79798198 0.88094348 0.70875198
-0.79434055 0.87662339 0.56627429
-0.79276669 0.87458724 0.43690795
-0.78547174 0.8659392 0.31343573
-0.77608693 0.85559672 0.1966511
-0.83483756 0.92614383 1.1916851
-0.81394392 0.90234131 0.96838868
-0.80404544 0.89106214 0.79089421
-0.78868115 0.87312621 0.63137144
-0.79502207 0.8798452 0.50186026
-0.78560352 0.86912417 0.37328154
-0.77030927 0.85220748 0.25243574
-0.76714003 0.84841114 0.13981599
-0.016379133 0.027455049 2.1291924
-0.14838848 0.17055541 1.4377482
-0.18364786 0.209296 1.3621339
-0.26406753 0.29825285 1.3206699
-0.35386503 0.39784518 1.3139389
-0.42904714 0.48108608 1.2485977
-0.54796213 0.61319256 1.2804263
-0.85604006 0.95700747 1.6139216
-0.065599523 0.08206404 1.6566591
-0.10815574 0.12677921 1.5111486
-0.25121856 0.28578788 1.5025425
-0.30703413 0.3470929 1.3143892
-0.38700521 0.43590435 1.2690868
-0.47617954 0.53509176 1.2418064
-0.61320204 0.68814999 1.2952673
-0.85170472 0.95451623 1.4651064
-0.84599853 0.94248039 1.3243657
-0.82932335 0.92294484 1.0828838
-0.80929995 0.90035129 0.87832928
-0.7978645 0.88701719 0.71107078
-0.79437661 0.88283706 0.5681473
-0.79291838 0.88091481 0.43831801
