# .PCD v0.7 - Point Cloud Data file format
VERSION 0.7
FIELDS x y z
SIZE 4 4 4
TYPE F F F
COUNT 1 1 1
WIDTH 1363
HEIGHT 1
VIEWPOINT 0 0 0 1 0 0 0
POINTS 1363
DATA ascii
-0.87536591 -0.15121767 0.39831915
-0.86705333 -0.14993246 0.30294251
-0.86845344 -0.15017195 0.21513902
-0.86614752 -0.1499237 0.12913485
-0.031101761 0.0006623448 2.0291963
-0.21193327 -0.032537542 1.3636593
-0.27101904 -0.042761188 1.3425529
-0.39762735 -0.06455005 1.3349857
-0.52537197 -0.086519077 1.3139389
-0.676072 -0.11225151 1.3232121
-0.93323922 -0.15590365 1.462276
-0.91545701 -0.15341663 1.1879587
-0.099823371 -0.011131674 1.5767926
-0.15914865 -0.022857063 1.456462
-0.34104201 -0.05413435 1.3670386
-0.45404163 -0.073503703 1.3050036
-0.60532784 -0.099114187 1.3321038
-0.76849955 -0.12674874 1.3441887
-0.92716962 -0.15355454 1.3192074
-0.91078061 -0.15148167 1.0792141
-0.91114819 -0.15431976 0.98792928
-0.89326894 -0.15176325 0.81297654
-0.87606949 -0.14899392 0.66723639
-0.87478894 -0.14908256 0.55107355
-0.88737082 -0.1513806 0.45201927
-0.87985539 -0.15025149 0.35230598
-0.87153029 -0.14913784 0.25934377
-0.86371088 -0.14779724 0.17161468
-0.89825785 -0.15084212 0.89239001
-0.89143765 -0.15000927 0.74176532
-0.8732093 -0.14709404 0.60597211
-0.87373912 -0.14764598 0.49709606
-0.87588841 -0.14816116 0.39831915
-0.86757141 -0.14690496 0.30294251
-0.86408979 -0.14631286 0.21444833
-0.8666656 -0.14689937 0.12913485
-0.03109926 0.0007709061 2.0291963
-0.21204555 -0.031797558 1.3636593
-0.27116665 -0.041814897 1.3425529
-0.39785025 -0.063161686 1.3349857
-0.5237419 -0.084374323 1.3093363
-0.67645967 -0.10989089 1.3232121
-0.93377781 -0.1526451 1.462276
-0.91598696 -0.15022016 1.1879587
-0.099861622 -0.010783157 1.5767926
-0.15922746 -0.022301389 1.456462
-0.3412289 -0.052943561 1.3670386
-0.45429549 -0.071918346 1.3050036
-0.60567015 -0.097000591 1.3321038
-0.76893729 -0.1240654 1.3441887
-0.92769998 -0.15031718 1.3192074
-0.91130376 -0.14830154 1.0792141
-0.91168135 -0.15113831 0.98792928
-0.89379328 -0.14864422 0.81297654
-0.87245965 -0.14524843 0.66449493
-0.87530398 -0.14602807 0.55107355
-0.8878938 -0.14828219 0.45201927
-0.88037449 -0.14717931 0.35230598
-0.87204564 -0.14609474 0.25934377
-0.85930997 -0.14395863 0.1711676
-0.89877886 -0.1477057 0.89239001
-0.89195579 -0.14689666 0.74176532
-0.87371737 -0.14404508 0.60597211
-0.87424916 -0.14459516 0.49709606
-0.87174153 -0.14433156 0.39667568
-0.8728742 -0.14467038 0.30411482
-0.86459523 -0.14329572 0.21444833
-0.86717308 -0.14387324 0.12913485
-0.03109638 0.00087945821 2.0291963
-0.21215525 -0.031057186 1.3636593
-0.27131096 -0.040868096 1.3425529
-0.39806831 -0.06177254 1.3349857
-0.52403325 -0.082545608 1.3093363
-0.67683911 -0.10752894 1.3232121
-0.93430489 -0.14938466 1.462276
-0.91650569 -0.14702184 1.1879587
-0.09961123 -0.010407391 1.5718009
-0.15930434 -0.021745447 1.456462
-0.34016874 -0.051564381 1.3621992
-0.45454374 -0.070332125 1.3050036
-0.60600507 -0.094885826 1.3321038
-0.76936567 -0.12138055 1.3441887
-0.92821902 -0.14707799 1.3192074
-0.91181594 -0.14511959 1.0792141
-0.90868306 -0.14738424 0.98442477
-0.89430666 -0.1455234 0.81297654
-0.87296134 -0.14220209 0.66449493
-0.87143642 -0.14225821 0.54875475
-0.88840604 -0.14518194 0.45201927
-0.88088292 -0.14410533 0.35230598
-0.87255025 -0.14304984 0.25934377
-0.85980725 -0.1409582 0.1711676
-0.89560252 -0.143975 0.88906449
-0.89246315 -0.14378226 0.74176532
-0.86995906 -0.14030813 0.60343897
-0.87922877 -0.14226741 0.49919412
-0.87224001 -0.14128774 0.39667568
-0.87337387 -0.1416226 0.30411482
-0.86509019 -0.14027685 0.21444833
-0.86767 -0.14084537 0.12913485
-0.031093119 0.00098799961 2.0291963
-0.21226236 -0.030316437 1.3636593
-0.27145195 -0.039920792 1.3425529
-0.39828151 -0.060382642 1.3349857
-0.52238727 -0.080419041 1.3047339
-0.67484367 -0.10479844 1.3188231
-0.93204039 -0.14568804 1.4581431
-0.91701335 -0.14382175 1.1879587
-0.099646956 -0.01005962 1.5718009
-0.15885067 -0.021120397 1.4514905
-0.34034666 -0.050376654 1.3621992
-0.45478648 -0.068745047 1.3050036
-0.6063326 -0.092769891 1.3321038
-0.76978469 -0.11869422 1.3441887
-0.925749 -0.14337602 1.3152174
-0.91231692 -0.14193587 1.0792141
-0.90919197 -0.14421144 0.98442477
-0.89096522 -0.14178923 0.80983812
-0.87345243 -0.13915403 0.66449493
-0.87192768 -0.13921545 0.54875475
-0.88890737 -0.14207993 0.45201927
-0.88138056 -0.1410296 0.35230598
-0.87304425 -0.1400032 0.25934377
-0.86029404 -0.13795605 0.1711676
-0.89609963 -0.14084789 0.88906449
-0.8889668 -0.14003728 0.73882216
-0.87044352 -0.13727054 0.60343897
-0.87972003 -0.13919747 0.49919412
-0.87272787 -0.1382422 0.39667568
-0.87386286 -0.1385731 0.30411482
-0.86557454 -0.13725628 0.21444833
-0.86322212 -0.13703251 0.12893331
-0.031089481 0.0010965287 2.0291963
-0.21236691 -0.02957532 1.3636593
-0.27158967 -0.038973004 1.3425529
-0.39848986 -0.058992021 1.3349857
-0.52266479 -0.078595079 1.3047339
-0.67520535 -0.10244216 1.3188231
-0.93254328 -0.14243373 1.4581431
-0.91750979 -0.14061989 1.1879587
-0.099681459 -0.0097117256 1.5718009
-0.15892343 -0.020565778 1.4514905
-0.34052044 -0.04918832 1.3621992
-0.45502368 -0.067157127 1.3050036
-0.60665274 -0.090652831 1.3321038
-0.76761532 -0.11561825 1.3399227
-0.92624384 -0.14014368 1.3152174
-0.91280687 -0.13875042 1.0792141
-0.90968984 -0.1410369 0.98442477
-0.89145476 -0.13867831 0.80983812
-0.87393284 -0.13610426 0.66449493
-0.86803156 -0.13548797 0.54643595
-0.88939792 -0.13897622 0.45201927
-0.87712806 -0.13721083 0.35089597
-0.87352771 -0.13695484 0.25934377
-0.8607704 -0.13495222 0.1711676
-0.89289528 -0.13715237 0.88573903
-0.88945025 -0.13693336 0.73882216
-0.8666569 -0.13357477 0.60090578
-0.88020062 -0.13612582 0.49919412
-0.87320513 -0.13519496 0.39667568
-0.86953801 -0.13477746 0.30294251
-0.86115479 -0.13347557 0.21375765
-0.8636952 -0.13401847 0.12893331
-0.031085465 0.0012050447 2.0291963
-0.21246885 -0.02883384 1.3636593
-0.27172405 -0.038024742 1.3425529
-0.39869335 -0.057600666 1.3349857
-0.52293599 -0.076770157 1.3047339
-0.67555881 -0.10008463 1.3188231
-0.93303478 -0.13917768 1.4581431
-0.91482514 -0.13694201 1.1841213
-0.099714756 -0.0093637137 1.5718009
-0.15846521 -0.019945759 1.4465191
-0.34069008 -0.047999378 1.3621992
-0.45525533 -0.065568388 1.3050036
-0.60696542 -0.088534668 1.3321038
-0.76801419 -0.11293807 1.3399227
-0.92672735 -0.13690963 1.3152174
-0.91328555 -0.13556328 1.0792141
-0.91017658 -0.13786063 0.98442477
-0.88808531 -0.13498098 0.80669963
-0.87440258 -0.13305284 0.66449493
-0.86849922 -0.13245717 0.54643595
-0.88987762 -0.1358708 0.45201927
-0.87760168 -0.13414824 0.35089597
-0.878856 -0.13464871 0.26027638
-0.85631365 -0.13119262 0.17072052
-0.89336866 -0.13403474 0.88573903
-0.8899228 -0.13382778 0.73882216
-0.86711788 -0.13054876 0.60090578
-0.88067037 -0.13305251 0.49919412
-0.87367171 -0.13214608 0.39667568
-0.8700031 -0.13174137 0.30294251
-0.86161542 -0.13046876 0.21375765
-0.86415774 -0.1310028 0.12893331
-0.031081069 0.0013135459 2.0291963
-0.21256819 -0.02809201 1.3636593
-0.27185512 -0.037076019 1.3425529
-0.39889199 -0.056208618 1.3349857
-0.52320075 -0.074944302 1.3047339
-0.6759041 -0.097725868 1.3188231
-0.93351489 -0.13591993 1.4581431
-0.91529757 -0.13374785 1.1841213
-0.099459074 -0.0089924848 1.5668093
-0.15853386 -0.01939249 1.4465191
-0.34085557 -0.04680986 1.3621992
-0.45548141 -0.063978843 1.3050036
-0.60511553 -0.086109065 1.3276026
-0.76840377 -0.11025651 1.3399227
-0.92719966 -0.13367391 1.3152174
-0.91039813 -0.13188863 1.0755389
-0.91065228 -0.13468267 0.98442477
-0.888551 -0.13188016 0.80669963
-0.87486166 -0.12999979 0.66449493
-0.86895627 -0.12942474 0.54643595
-0.88576126 -0.13208008 0.45014626
-0.8733201 -0.1303758 0.34948593
-0.87932068 -0.13158011 0.26027638
-0.8567664 -0.12820274 0.17072052
-0.89383101 -0.13091549 0.88573903
-0.89038455 -0.13072054 0.73882216
-0.86756825 -0.12752116 0.60090578
-0.88112944 -0.12997758 0.49919412
-0.87412769 -0.1290956 0.39667568
-0.86564934 -0.12799281 0.30177018
-0.86206555 -0.12746036 0.21375765
-0.86460978 -0.12798552 0.12893331
-0.031076295 0.001422031 2.0291963
-0.21189418 -0.027251782 1.3587201
-0.27198288 -0.036126837 1.3425529
-0.39760685 -0.054613296 1.3302138
-0.52345914 -0.073117539 1.3047339
-0.6762411 -0.095365934 1.3188231
-0.93398368 -0.13266054 1.4581431
-0.91575885 -0.13055205 1.1841213
-0.09948986 -0.0086452523 1.5668093
-0.15860058 -0.018838987 1.4465191
-0.34101686 -0.045619767 1.3621992
-0.45399219 -0.062154926 1.300311
-0.60541242 -0.083996288 1.3276026
-0.76878393 -0.10757361 1.3399227
-0.92766058 -0.13043657 1.3152174
-0.91085291 -0.12870994 1.0755389
-0.9111169 -0.13150309 0.98442477
-0.88515383 -0.1282199 0.80356121
-0.87531012 -0.12694515 0.66449493
-0.86940277 -0.12639071 0.54643595
-0.88621694 -0.12898739 0.45014626
-0.87376988 -0.12732655 0.34948593
-0.87491393 -0.12779994 0.25934377
-0.85720867 -0.12521128 0.17072052
-0.89428264 -0.12779464 0.88573903
-0.8868342 -0.1270387 0.735879
-0.86800814 -0.124492 0.60090578
-0.88157779 -0.12690109 0.49919412
-0.87457299 -0.12604353 0.39667568
-0.86609089 -0.12497035 0.30177018
-0.86250526 -0.12445042 0.21375765
-0.86010665 -0.12425239 0.12873179
-0.031071141 0.0015304987 2.0291963
-0.21198802 -0.026511967 1.3587201
-0.27210733 -0.035177223 1.3425529
-0.39927468 -0.053422481 1.3349857
-0.5237112 -0.071289875 1.3047339
-0.67656988 -0.09300483 1.3188231
-0.93444103 -0.12939951 1.4581431
-0.91620892 -0.12735465 1.1841213
-0.099519432 -0.0082979156 1.5668093
-0.15866537 -0.018285252 1.4465191
-0.34117404 -0.044429112 1.3621992
-0.45420638 -0.060569815 1.300311
-0.60570192 -0.081882499 1.3276026
-0.77173895 -0.10524155 1.3441887
-0.92811024 -0.12719762 1.3152174
-0.91129667 -0.12552968 1.0755389
-0.90803885 -0.12782496 0.9809202
-0.88559604 -0.12512936 0.80356121
-0.87574792 -0.12388898 0.66449493
-0.86983865 -0.12335516 0.54643595
-0.88207185 -0.12524153 0.44827321
-0.86945975 -0.12360067 0.3480759
-0.87535471 -0.12474515 0.25934377
-0.85764056 -0.1222183 0.17072052
-0.89472318 -0.12467223 0.88573903
-0.88727224 -0.1239423 0.735879
-0.86843741 -0.12146133 0.60090578
-0.88201535 -0.12382302 0.49919412
-0.87500763 -0.12298994 0.39667568
-0.86652184 -0.12194638 0.30177018
-0.85803056 -0.12074891 0.21306697
-0.86053514 -0.12124931 0.12873179
-0.031067867 0.0015955706 2.0291963
-0.21127176 -0.025974171 1.3537807
-0.2711702 -0.034479626 1.3376577
-0.39937648 -0.052655827 1.3349857
-0.5238471 -0.070284292 1.3047339
-0.67435789 -0.091502137 1.3144341
-0.93466544 -0.1277684 1.4581431
-0.91640788 -0.12591532 1.1841213
-0.09953092 -0.008158952 1.5668093
-0.15869075 -0.018063696 1.4465191
-0.34122807 -0.04401226 1.3621992
-0.45428005 -0.060014855 1.300311
-0.60364383 -0.080853768 1.3231014
-0.77184874 -0.10443333 1.3441887
-0.92824298 -0.12622565 1.3152174
-0.90804696 -0.12427487 1.0718638
-0.90830457 -0.12592287 0.9809202
-0.88583463 -0.1234289 0.80356121
-0.8718428 -0.12162984 0.66175348
-0.87005258 -0.12183683 0.54643595
-0.88228911 -0.12370183 0.44827321
-0.86967409 -0.12208299 0.3480759
-0.87557107 -0.12321718 0.25934377
-0.85785252 -0.12072125 0.17072052
-0.89489645 -0.12342285 0.88573903
-0.8834191 -0.12230403 0.73293579
-0.86858511 -0.12040024 0.60090578
-0.88216603 -0.12274535 0.49919412
-0.87515724 -0.12192082 0.39667568
-0.86664903 -0.12103888 0.30177018
-0.85815656 -0.11985031 0.21306697
-0.86066163 -0.1203481 0.12873179
-0.031062702 0.0016931652 2.0291963
-0.21135673 -0.025273426 1.3537807
-0.27128306 -0.033580206 1.3376577
-0.39955786 -0.051261421 1.3349857
-0.52408922 -0.068455294 1.3047339
-0.6746887 -0.089029871 1.3144341
-0.9351275 -0.12434183 1.4581431
-0.9168846 -0.12239566 1.1841213
-0.099852249 -0.0077614523 1.5718009
-0.15876503 -0.017398817 1.4465191
-0.34141687 -0.042522959 1.3621992
-0.4545477 -0.057952788 1.300311
-0.6040045 -0.07811369 1.3231014
-0.77491838 -0.10113218 1.3484546
-0.92882746 -0.12185002 1.3152174
-0.90864342 -0.11983585 1.0718638
-0.9086957 -0.12306874 0.9809202
-0.88623905 -0.12049069 0.80356121
-0.87224138 -0.11873803 0.66175348
-0.87047261 -0.11879902 0.54643595
-0.88271552 -0.12062132 0.44827321
-0.86536282 -0.11824527 0.34666586
-0.87117088 -0.11918851 0.25841114
-0.85830975 -0.11742645 0.17072052
-0.89540559 -0.11967323 0.88573903
-0.88394433 -0.11844824 0.73293579
-0.86482972 -0.11603609 0.59837258
-0.88271391 -0.11874097 0.49919412
-0.87570149 -0.11794825 0.39667568
-0.86720985 -0.11695357 0.30177018
-0.85871184 -0.11580501 0.21306697
-0.85628837 -0.11547302 0.12853025
-0.031055337 0.001823265 2.0291963
-0.21146074 -0.024387877 1.3537807
-0.27142134 -0.032443568 1.3376577
-0.39976907 -0.049587313 1.3349857
-0.52437139 -0.066259399 1.3047339
-0.67505574 -0.086202972 1.3144341
-0.93564016 -0.12042369 1.4581431
-0.91738927 -0.11855395 1.1841213
-0.099883884 -0.0073431251 1.5718009
-0.15883651 -0.016733633 1.4465191
-0.34159195 -0.041092463 1.3621992
-0.45478645 -0.056048281 1.300311
-0.6021663 -0.075313143 1.3186002
-0.77533519 -0.097885333 1.3484546
-0.9263404 -0.11757907 1.3112274
-0.90913743 -0.1160287 1.0718638
-0.90920329 -0.11926133 0.9809202
-0.88673598 -0.11677738 0.80356121
-0.87273109 -0.11508336 0.66175348
-0.87096262 -0.11515176 0.54643595
-0.88321304 -0.11692277 0.44827321
-0.86585057 -0.11461942 0.34666586
-0.87166244 -0.11553832 0.25841114
-0.85879409 -0.11383015 0.17072052
-0.895899 -0.11592153 0.88573903
-0.88443273 -0.11474455 0.73293579
-0.86530817 -0.11241249 0.59837258
-0.88320357 -0.11504242 0.49919412
-0.87618786 -0.11427909 0.39667568
-0.86769211 -0.11331999 0.30177018
-0.85918939 -0.11220706 0.21306697
-0.85676455 -0.11188521 0.12853025
-0.031050125 0.0019099809 2.0291963
-0.21152386 -0.023834191 1.3537807
-0.27150536 -0.031732876 1.3376577
-0.39989755 -0.048540555 1.3349857
-0.52453172 -0.064977922 1.3047339
-0.6776408 -0.084850505 1.3188231
-0.93593156 -0.11813714 1.4581431
-0.91767615 -0.116312 1.1841213
-0.099899046 -0.0071339132 1.5718009
-0.15887122 -0.01640093 1.4465191
-0.34042895 -0.04023008 1.3573598
-0.45318007 -0.054967739 1.2956182
-0.60229683 -0.074262053 1.3186002
-0.77809304 -0.09685389 1.3527206
-0.92654425 -0.11596213 1.3112274
-0.90931851 -0.11460048 1.0718638
-0.90953273 -0.11672191 0.9809202
-0.88705868 -0.11430068 0.80356121
-0.86888242 -0.11226252 0.65901202
-0.87126106 -0.11287121 0.54643595
-0.88351613 -0.11461011 0.44827321
-0.86137092 -0.11188558 0.34525582
-0.8767935 -0.11419465 0.25934377
-0.85905015 -0.11188131 0.17072052
-0.89243591 -0.11357372 0.88241351
-0.88465136 -0.11304636 0.73293579
-0.86552238 -0.110751 0.59837258
-0.88342279 -0.11334659 0.49919412
-0.87640566 -0.11259672 0.39667568
-0.86788857 -0.11180542 0.30177018
-0.85938394 -0.11070731 0.21306697
-0.8569392 -0.11053928 0.12853025
-0.030999398 0.0020299514 2.0241964
-0.21239844 -0.022993589 1.3587201
-0.27164122 -0.030547913 1.3376577
-0.40010554 -0.046795215 1.3349857
-0.52482122 -0.062597014 1.3047339
-0.67801887 -0.081774607 1.3188231
-0.93645805 -0.11388882 1.4581431
-0.91819453 -0.11214653 1.1841213
-0.099932715 -0.006645631 1.5718009
-0.15894946 -0.015624346 1.4465191
-0.33937243 -0.038425189 1.3525203
-0.4534525 -0.052673291 1.2956182
-0.60051543 -0.070852689 1.3140991
-0.77858949 -0.092778496 1.3527206
-0.92713869 -0.11110918 1.3112274
-0.90992528 -0.10967894 1.0718638
-0.90647459 -0.11247211 0.97741568
-0.88752961 -0.11058399 0.80356121
-0.86936396 -0.10847024 0.65901202
-0.87174529 -0.10906854 0.54643595
-0.88400775 -0.11075397 0.44827321
-0.86186975 -0.10797565 0.34525582
-0.87732184 -0.11006162 0.25934377
-0.85956782 -0.10783191 0.17072052
-0.89298028 -0.10921111 0.88241351
-0.88521224 -0.1085673 0.73293579
-0.86179316 -0.10584344 0.59583938
-0.88398516 -0.10887375 0.49919412
-0.87227762 -0.10758147 0.39503217
-0.86846209 -0.10725965 0.30177018
-0.85995179 -0.1062061 0.21306697
-0.85752475 -0.1059012 0.12853025
-0.030992869 0.0021273287 2.0241964
-0.21246573 -0.02236329 1.3587201
-0.27173066 -0.029741803 1.3376577
-0.4002426 -0.045607876 1.3349857
-0.52500463 -0.061039567 1.3047339
-0.67825848 -0.079762526 1.3188231
-0.93677247 -0.11127329 1.4581431
-0.91850418 -0.10958201 1.1841213
-0.09994977 -0.0063839853 1.5718009
-0.15898983 -0.015208164 1.4465191
-0.33822241 -0.037399087 1.3476809
-0.45357984 -0.051565144 1.2956182
-0.59852415 -0.069135688 1.3095978
-0.77879804 -0.091011696 1.3527206
-0.92738843 -0.10900529 1.3112274
-0.91017181 -0.1076141 1.0718638
-0.90682346 -0.10962379 0.97741568
-0.8878727 -0.10779519 0.80356121
-0.86970043 -0.10573853 0.65901202
-0.87206501 -0.10648155 0.54643595
-0.88433248 -0.10813058 0.44827321
-0.86692941 -0.10615139 0.34666586
-0.87762582 -0.10761125 0.25934377
-0.86480856 -0.10603717 0.1711676
-0.8932631 -0.10687292 0.88241351
-0.88549346 -0.10624945 0.73293579
-0.86204916 -0.10373738 0.59583938
-0.88424861 -0.10671344 0.49919412
-0.87253791 -0.10544977 0.39503217
-0.87354696 -0.10572122 0.30294251
-0.86020869 -0.10410453 0.21306697
-0.85776281 -0.10395526 0.12853025
-0.03093973 0.0022683472 2.0191967
-0.21257621 -0.021287622 1.3587201
-0.27187774 -0.028366076 1.3376577
-0.40046832 -0.043581489 1.3349857
-0.52531701 -0.058289822 1.3047339
-0.67866683 -0.076210104 1.3188231
-0.9373607 -0.10620326 1.4581431
-0.91910177 -0.10445043 1.1841213
-0.099984884 -0.0058082133 1.5718009
-0.15960582 -0.014338474 1.4514905
-0.33718818 -0.035261307 1.3428415
-0.45387787 -0.048872653 1.2956182
-0.59892386 -0.065582775 1.3095978
-0.77935451 -0.086116597 1.3527206
-0.92506021 -0.10284348 1.3072374
-0.91083002 -0.10189324 1.0718638
-0.90734839 -0.10519092 0.97741568
-0.88838887 -0.10345496 0.80356121
-0.86607111 -0.10085174 0.65627056
-0.87261063 -0.10191399 0.54643595
-0.88488656 -0.10349877 0.44827321
-0.86749107 -0.10145932 0.34666586
-0.87331629 -0.10228986 0.25841114
-0.86536962 -0.10135657 0.1711676
-0.89757371 -0.10214838 0.88573903
-0.8860907 -0.10114764 0.73293579
-0.86264962 -0.098620072 0.59583938
-0.88488394 -0.10130993 0.49919412
-0.87316579 -0.10011781 0.39503217
-0.87417644 -0.10038308 0.30294251
-0.86084586 -0.098697655 0.21306697
-0.85839909 -0.098563761 0.12853025
-0.030931624 0.0023763331 2.0191967
-0.21264564 -0.020582577 1.3587201
-0.27197027 -0.027464341 1.3376577
-0.40061066 -0.042253248 1.3349857
-0.5235551 -0.056430247 1.3001313
-0.67890292 -0.074077636 1.3188231
-0.93489259 -0.10295011 1.4540101
-0.91940767 -0.10172295 1.1841213
-0.10000072 -0.0055289804 1.5718009
-0.15964523 -0.013892715 1.4514905
-0.33602878 -0.034251627 1.3380021
-0.45400426 -0.047684237 1.2956182
-0.59692883 -0.063783623 1.3050966
-0.77956253 -0.08421202 1.3527206
-0.9253087 -0.10058282 1.3072374
-0.91107625 -0.099667355 1.0718638
-0.90771002 -0.10202304 0.97741568
-0.88874453 -0.10035327 0.80356121
-0.86640084 -0.097979188 0.65627056
-0.87294382 -0.099019751 0.54643595
-0.88522488 -0.10056381 0.44827321
-0.86780554 -0.098733522 0.34666586
-0.87361592 -0.099698246 0.25841114
-0.86566657 -0.09878853 0.1711676
-0.8978554 -0.099641487 0.88573903
-0.88636971 -0.098672822 0.73293579
-0.86720592 -0.096688256 0.59837258
-0.88512886 -0.099147439 0.49919412
-0.87340784 -0.097983964 0.39503217
-0.87441909 -0.098246768 0.30294251
-0.86106753 -0.096744202 0.21306697
-0.85862046 -0.096615866 0.12853025
-0.030927429 0.0024303154 2.0191967
-0.21268122 -0.02021141 1.3587201
-0.2720131 -0.027037097 1.3376577
-0.39919177 -0.041470218 1.3302138
-0.52363336 -0.055699173 1.3001313
-0.67900568 -0.073129632 1.3188231
-0.9350177 -0.10180785 1.4540101
-0.91953129 -0.1005996 1.1841213
-0.099717095 -0.0054289177 1.5668093
-0.1596573 -0.013753394 1.4514905
-0.33605263 -0.034017023 1.3380021
-0.45403743 -0.047367271 1.2956182
-0.59696215 -0.063471064 1.3050966
-0.77960658 -0.083803833 1.3527206
-0.92534381 -0.10025983 1.3072374
-0.90774083 -0.098982021 1.0681885
-0.90788668 -0.10043864 0.97741568
-0.88890111 -0.098957114 0.80356121
-0.8665536 -0.096618138 0.65627056
-0.87308121 -0.097800791 0.54643595
-0.88997149 -0.099844471 0.45014626
-0.86792547 -0.09767323 0.34666586
-0.87373704 -0.098630846 0.25841114
-0.86083806 -0.097172283 0.17072052
-0.90165341 -0.099266343 0.88906449
-0.88643837 -0.098053999 0.73293579
-0.86727327 -0.096082807 0.59837258
-0.88519788 -0.09852948 0.49919412
-0.87345898 -0.09752664 0.39503217
-0.87447047 -0.097788908 0.30294251
-0.86110127 -0.096443623 0.21306697
-0.85865414 -0.096316144 0.12853025
-0.030961037 0.002549042 2.0241964
-0.21275048 -0.019468891 1.3587201
-0.27211037 -0.026039938 1.3376577
-0.39934105 -0.040006828 1.3302138
-0.52384341 -0.053688157 1.3001313
-0.67689925 -0.070274889 1.3144341
-0.93262017 -0.097760469 1.4498771
-0.91674006 -0.096571974 1.1802837
-0.099739827 -0.0049937693 1.5668093
-0.15971579 -0.013056627 1.4514905
-0.33620352 -0.032491721 1.3380021
-0.45424771 -0.045306433 1.2956182
-0.59942049 -0.060876865 1.3095978
-0.77999282 -0.080129102 1.3527206
-0.92582268 -0.095736563 1.3072374
-0.90821368 -0.094544798 1.0681885
-0.90823179 -0.097268909 0.97741568
-0.88925785 -0.095698461 0.80356121
-0.87105924 -0.093889371 0.65901202
-0.87345028 -0.094447687 0.54643595
-0.89034832 -0.096426494 0.45014626
-0.86831057 -0.094188377 0.34666586
-0.87412596 -0.09512265 0.25841114
-0.86122119 -0.093715876 0.17072052
-0.90207797 -0.095331207 0.88906449
-0.8868742 -0.09403047 0.73293579
-0.86770034 -0.09214627 0.59837258
-0.88563585 -0.094511576 0.49919412
-0.87390888 -0.093409486 0.39503217
-0.87008858 -0.093149647 0.30177018
-0.85663843 -0.091707274 0.21237628
-0.86408204 -0.092651457 0.12873179
-0.030909708 0.0026461687 2.0191967
-0.21281715 -0.018726133 1.3587201
-0.2721996 -0.025089936 1.3376577
-0.39947829 -0.038612626 1.3302138
-0.52402759 -0.051859275 1.3001313
-0.67714041 -0.067911647 1.3144341
-0.93295568 -0.094504423 1.4498771
-0.91707158 -0.093371361 1.1802837
-0.099756658 -0.0046455823 1.5668093
-0.15922886 -0.012458884 1.4465191
-0.33631486 -0.031317953 1.3380021
-0.4526853 -0.043555737 1.2909254
-0.60179591 -0.058996178 1.3140991
-0.78026778 -0.077405937 1.3527206
-0.92615122 -0.092504255 1.3072374
-0.90853816 -0.091373958 1.0681885
-0.90856576 -0.094097994 0.97741568
-0.88958645 -0.092593797 0.80356121
-0.8713817 -0.09084823 0.65901202
-0.87377459 -0.091398202 0.54643595
-0.89067948 -0.093318015 0.45014626
-0.86863405 -0.091156833 0.34666586
-0.87445265 -0.092070803 0.25841114
-0.86154306 -0.09070909 0.17072052
-0.9024052 -0.092181787 0.88906449
-0.88719702 -0.090934128 0.73293579
-0.86801672 -0.089116871 0.59837258
-0.8859604 -0.091419555 0.49919412
-0.87422961 -0.090358414 0.39503217
-0.87040848 -0.090111904 0.30177018
-0.85695338 -0.088716492 0.21237628
-0.86440021 -0.089634687 0.12873179
-0.030858079 0.0027429678 2.0141969
-0.21210688 -0.017918807 1.3537807
-0.27228552 -0.02413963 1.3376577
-0.39961064 -0.037217949 1.3302138
-0.52226061 -0.049844548 1.2955288
-0.67498952 -0.065317191 1.3100449
-0.93047917 -0.090973593 1.4457443
-0.91739196 -0.090169623 1.1802837
-0.099772267 -0.004297338 1.5668093
-0.15927139 -0.011902995 1.4465191
-0.33517012 -0.030032286 1.3331627
-0.45283458 -0.041975308 1.2909254
-0.60416549 -0.057099652 1.3186002
-0.78053319 -0.074681818 1.3527206
-0.92346913 -0.088982008 1.3032473
-0.90885156 -0.088202015 1.0681885
-0.9124372 -0.091280751 0.9809202
-0.88990426 -0.089487992 0.80356121
-0.87169349 -0.087805986 0.65901202
-0.87408835 -0.088347599 0.54643595
-0.89099979 -0.090208389 0.45014626
-0.86417443 -0.087640233 0.34525582
-0.87476873 -0.089017838 0.25841114
-0.86185443 -0.087701187 0.17072052
-0.90272146 -0.089031242 0.88906449
-0.88750905 -0.087836675 0.73293579
-0.86832249 -0.086086385 0.59837258
-0.8862741 -0.088326417 0.49919412
-0.86984086 -0.086837225 0.39338866
-0.8707177 -0.087073065 0.30177018
-0.85725778 -0.085724629 0.21237628
-0.86470783 -0.086616822 0.12873179
-0.030675717 0.0028485931 1.9941976
-0.21219486 -0.016845012 1.3537807
-0.27240422 -0.022761166 1.3376577
-0.39979389 -0.03519487 1.3302138
-0.5225144 -0.047109324 1.2955288
-0.67532229 -0.06178207 1.3100449
-0.93094277 -0.086100392 1.4457443
-0.91467482 -0.084908679 1.1764462
-0.099794708 -0.0037400406 1.5668093
-0.15933537 -0.011013276 1.4465191
-0.33533755 -0.028101357 1.3331627
-0.45306882 -0.039366487 1.2909254
-0.60882121 -0.054002982 1.3276026
-0.78096265 -0.070048749 1.3527206
-0.92398089 -0.083500497 1.3032473
-0.90935904 -0.082807258 1.0681885
-0.9093222 -0.086483203 0.97741568
-0.89033091 -0.085138045 0.80356121
-0.87212676 -0.083392844 0.65901202
-0.8745243 -0.083922334 0.54643595
-0.88683027 -0.085253969 0.44827321
-0.86462146 -0.083114244 0.34525582
-0.87523758 -0.084283598 0.25841114
-0.86231637 -0.08303684 0.17072052
-0.89948696 -0.083642602 0.88573903
-0.88798577 -0.082878552 0.73293579
-0.86878973 -0.081235439 0.59837258
-0.8822639 -0.082642473 0.49709606
-0.87034082 -0.08167398 0.39338866
-0.86637974 -0.081449717 0.30059788
-0.85776544 -0.080486365 0.21237628
-0.86522079 -0.081333034 0.12873179
-0.030917179 0.0030350424 2.0241964
-0.21148032 -0.016009584 1.3488415
-0.27248582 -0.0217626 1.3376577
-0.3999202 -0.033729319 1.3302138
-0.52266777 -0.045376349 1.2955288
-0.67552346 -0.05954228 1.3100449
-0.92842025 -0.082763143 1.4416113
-0.91493702 -0.082034729 1.1764462
-0.099804766 -0.003461347 1.5668093
-0.1593655 -0.010568284 1.4465191
-0.33540997 -0.027223349 1.3331627
-0.45317033 -0.038180221 1.2909254
-0.61112028 -0.052701894 1.3321038
-0.7785213 -0.068049766 1.3484546
-0.9211663 -0.081139646 1.2992573
-0.90953046 -0.080902524 1.0681885
-0.90964752 -0.082991026 0.97741568
-0.88677526 -0.081363328 0.80042273
-0.87241256 -0.080348045 0.65901202
-0.87481195 -0.080869161 0.54643595
-0.88712245 -0.082157835 0.44827321
-0.8648923 -0.080246598 0.34525582
-0.8706069 -0.08107809 0.25747854
-0.86257297 -0.080327392 0.17072052
-0.89971697 -0.08113043 0.88573903
-0.88819969 -0.080553524 0.73293579
-0.86899942 -0.078960679 0.59837258
-0.88246322 -0.080486454 0.49709606
-0.87053782 -0.0795471 0.39338866
-0.86656231 -0.079483762 0.30059788
-0.85300076 -0.078237429 0.21168561
-0.86538923 -0.07952074 0.12873179
-0.030950654 0.0031329326 2.0291963
-0.21152419 -0.015418958 1.3488415
-0.27254552 -0.021001594 1.3376577
-0.40001282 -0.032612402 1.3302138
-0.52279246 -0.043916609 1.2955288
-0.67568707 -0.057655636 1.3100449
-0.92864782 -0.080170184 1.4416113
-0.9119693 -0.079202302 1.1726087
-0.099814042 -0.0031826263 1.5668093
-0.1593944 -0.010123211 1.4465191
-0.33548468 -0.026286604 1.3331627
-0.45327517 -0.036914583 1.2909254
-0.61126506 -0.050995123 1.3321038
-0.77870828 -0.065875463 1.3484546
-0.91838694 -0.078311145 1.2952673
-0.90637517 -0.078071564 1.0645134
-0.90987575 -0.08045049 0.97741568
-0.88699901 -0.078886673 0.80042273
-0.87263352 -0.077911504 0.65901202
-0.87503433 -0.078425914 0.54643595
-0.88734847 -0.079680204 0.44827321
-0.86511302 -0.077831052 0.34525582
-0.86593759 -0.078204788 0.2565459
-0.86279392 -0.077918321 0.17072052
-0.89994001 -0.078617632 0.88573903
-0.88842118 -0.078072898 0.73293579
-0.86492229 -0.0761557 0.59583938
-0.87816358 -0.077622339 0.49499801
-0.87075657 -0.077115789 0.39338866
-0.86678094 -0.07706356 0.30059788
-0.85321593 -0.075855106 0.21168561
-0.8606317 -0.076660573 0.12853025
-0.031189399 0.0033329965 2.059195
-0.21081419 -0.01444383 1.3439022
-0.27263457 -0.019812193 1.3376577
-0.40015131 -0.030866709 1.3302138
-0.52298635 -0.041543808 1.2955288
-0.67594171 -0.05458888 1.3100449
-0.92619735 -0.075726196 1.4374783
-0.91231936 -0.075063124 1.1726087
-0.099828407 -0.0026948068 1.5668093
-0.15944196 -0.0093441457 1.4465191
-0.33560914 -0.024646809 1.3331627
-0.45517692 -0.034750778 1.2956182
-0.61369401 -0.04796315 1.3366051
-0.77644271 -0.06159129 1.3441887
-0.91578072 -0.073261335 1.2912773
-0.9067843 -0.07316649 1.0645134
-0.91020477 -0.076638512 0.97741568
-0.88732165 -0.075170532 0.80042273
-0.87296516 -0.074103184 0.65901202
-0.87536824 -0.074607126 0.54643595
-0.8830685 -0.075413294 0.4464002
-0.8654573 -0.073904514 0.34525582
-0.86629653 -0.074123308 0.2565459
-0.86315149 -0.07385166 0.17072052
-0.89659232 -0.073912188 0.88241351
-0.88880497 -0.073575206 0.73293579
-0.86529666 -0.071776979 0.59583938
-0.87854522 -0.07317657 0.49499801
-0.87113577 -0.072707526 0.39338866
-0.86232883 -0.072119027 0.29942557
-0.8536014 -0.071386658 0.21168561
-0.86103386 -0.072003007 0.12853025
-0.031009646 0.0033942969 2.0391958
-0.21086094 -0.013744665 1.3439022
-0.2737146 -0.018977605 1.3425529
-0.39876276 -0.029430268 1.3254418
-0.52312124 -0.039809294 1.2955288
-0.67611903 -0.052347079 1.3100449
-0.9264434 -0.072654404 1.4374783
-0.90936792 -0.071785308 1.1687713
-0.10012504 -0.0023851544 1.5718009
-0.15947054 -0.0088431984 1.4465191
-0.3356849 -0.023592342 1.3331627
-0.45527801 -0.033400092 1.2956182
-0.61383367 -0.046142075 1.3366051
-0.77662206 -0.059287269 1.3441887
-0.91298974 -0.070312679 1.2872872
-0.90361738 -0.070213236 1.0608382
-0.91046673 -0.07346084 0.97741568
-0.88369912 -0.071757883 0.79728431
-0.87321854 -0.071055517 0.65901202
-0.87120819 -0.071190402 0.54411715
-0.88332641 -0.072330356 0.4464002
-0.86569762 -0.071034148 0.34525582
-0.86162943 -0.070998035 0.2556133
-0.85841608 -0.070730709 0.17027344
-0.89682013 -0.071095102 0.88241351
-0.88500243 -0.070461936 0.72999263
-0.86551791 -0.069058225 0.59583938
-0.8742345 -0.070206359 0.49289995
-0.87134761 -0.070122503 0.39338866
-0.86253893 -0.069560133 0.29942557
-0.85380942 -0.068853654 0.21168561
-0.86123157 -0.069598265 0.12853025
-0.030913729 0.0034784519 2.0291963
-0.21090762 -0.01300854 1.3439022
-0.27377918 -0.018022047 1.3425529
-0.39886308 -0.028038148 1.3254418
-0.52325702 -0.037983019 1.2955288
-0.67629766 -0.04998666 1.3100449
-0.92669135 -0.069420069 1.4374783
-0.90961295 -0.068610586 1.1687713
-0.099844076 -0.0020326655 1.5668093
-0.15950043 -0.0082864892 1.4465191
-0.33576521 -0.022420438 1.3331627
-0.45539182 -0.031810671 1.2956182
-0.61399096 -0.043999113 1.3366051
-0.77682424 -0.056575991 1.3441887
-0.91022444 -0.066904634 1.2832973
-0.90385693 -0.067058593 1.0608382
-0.90716189 -0.070008047 0.97391111
-0.88394421 -0.068672761 0.79728431
-0.87346125 -0.068006985 0.65901202
-0.87145138 -0.068148881 0.54411715
-0.88357353 -0.069246531 0.4464002
-0.86594033 -0.068011865 0.34525582
-0.86187202 -0.067989953 0.2556133
-0.85865778 -0.067733847 0.17027344
-0.89333969 -0.067682281 0.87908798
-0.885243 -0.06737227 0.72999263
-0.86575371 -0.066036582 0.59583938
-0.87447429 -0.067154288 0.49289995
-0.8715871 -0.067080505 0.39338866
-0.86277652 -0.066548884 0.29942557
-0.85404456 -0.065872885 0.21168561
-0.85648817 -0.06620656 0.12832873
-0.030817602 0.0035619787 2.0191967
-0.21095176 -0.012272255 1.3439022
-0.27384043 -0.01706627 1.3425529
-0.39895853 -0.026645685 1.3254418
-0.52338636 -0.036156278 1.2955288
-0.67646801 -0.047625639 1.3100449
-0.92692804 -0.066184886 1.4374783
-0.90664995 -0.065205298 1.1649337
-0.099850565 -0.0016841323 1.5668093
-0.15952839 -0.0077296779 1.4465191
-0.33584145 -0.021248264 1.3331627
-0.4555001 -0.030220862 1.2956182
-0.61414081 -0.041855618 1.3366051
-0.777017 -0.053864025 1.3441887
-0.91045243 -0.063726954 1.2832973
-0.90408552 -0.063903138 1.0608382
-0.90740079 -0.066841036 0.97391111
-0.88417852 -0.065586798 0.79728431
-0.87369329 -0.064957619 0.65901202
-0.87168401 -0.065106533 0.54411715
-0.8838098 -0.066161856 0.4464002
-0.86617243 -0.064988755 0.34525582
-0.86210406 -0.064981043 0.2556133
-0.85888892 -0.064736158 0.17027344
-0.89357054 -0.064563528 0.87908798
-0.88547277 -0.064281784 0.72999263
-0.8659789 -0.063014135 0.59583938
-0.87017703 -0.063769795 0.49080193
-0.87181592 -0.064037688 0.39338866
-0.86300361 -0.06353683 0.29942557
-0.85426933 -0.062891312 0.21168561
-0.85671407 -0.063216455 0.12832873
-0.030763125 0.0036572039 2.0141969
-0.2109933 -0.011535821 1.3439022
-0.27389833 -0.016110284 1.3425529
-0.3990491 -0.025252895 1.3254418
-0.52350938 -0.034329098 1.2955288
-0.67663014 -0.045264035 1.3100449
-0.92715341 -0.062948905 1.4374783
-0.90687203 -0.062040102 1.1649337
-0.09985584 -0.0013355784 1.5668093
-0.15955439 -0.0071727731 1.4465191
-0.33591357 -0.020075828 1.3331627
-0.45560282 -0.028630687 1.2956182
-0.61211073 -0.039571505 1.3321038
-0.77720028 -0.051151402 1.3441887
-0.90766275 -0.060348794 1.2793072
-0.90430307 -0.060746901 1.0608382
-0.90407103 -0.06342382 0.97040659
-0.88440204 -0.062500045 0.79728431
-0.86974376 -0.061612152 0.65627056
-0.87190592 -0.062063392 0.54411715
-0.88403541 -0.063076384 0.4464002
-0.86160916 -0.061622709 0.34384581
-0.86722529 -0.062323414 0.2565459
-0.8591097 -0.061737679 0.17027344
-0.89379048 -0.061443992 0.87908798
-0.88569176 -0.061190516 0.72999263
-0.86619359 -0.05999092 0.59583938
-0.87039429 -0.060731921 0.49080193
-0.87203413 -0.060994092 0.39338866
-0.8632201 -0.060523998 0.29942557
-0.85448366 -0.059908975 0.21168561
-0.85692954 -0.060225584 0.12832873
-0.030791983 0.0037770381 2.0191967
-0.2110323 -0.010799247 1.3439022
-0.2739529 -0.015154102 1.3425529
-0.39913481 -0.023859801 1.3254418
-0.52362603 -0.032501504 1.2955288
-0.67678404 -0.042901877 1.3100449
-0.92736751 -0.059712149 1.4374783
-0.90388459 -0.058666747 1.1610962
-0.10014858 -0.00098695792 1.5718009
-0.15957846 -0.0066157808 1.4465191
-0.33598158 -0.018903149 1.3331627
-0.45397729 -0.02693842 1.2909254
-0.61224514 -0.0374346 1.3321038
-0.77477109 -0.048276208 1.3399227
-0.90786785 -0.057180088 1.2793072
-0.9045096 -0.057589926 1.0608382
-0.90428686 -0.060267635 0.97040659
-0.88073128 -0.059151851 0.79414582
-0.86995351 -0.058575802 0.65627056
-0.87211728 -0.059019495 0.54411715
-0.88425022 -0.059990142 0.4464002
-0.86181903 -0.058614761 0.34384581
-0.86743754 -0.059295852 0.2565459
-0.85931998 -0.058738451 0.17027344
-0.89399952 -0.058323711 0.87908798
-0.88589996 -0.058098506 0.72999263
-0.86639774 -0.056966975 0.59583938
-0.87512952 -0.057993297 0.49289995
-0.8722418 -0.057949755 0.39338866
-0.86342609 -0.057510424 0.29942557
-0.85468757 -0.056925904 0.21168561
-0.85713458 -0.057233974 0.12832873
-0.030820381 0.0038971177 2.0241964
-0.21106869 -0.010062541 1.3439022
-0.27400413 -0.014197736 1.3425529
-0.39921567 -0.022466416 1.3254418
-0.5237363 -0.030673508 1.2955288
-0.67932039 -0.040682074 1.3144341
-0.92757028 -0.056474671 1.4374783
-0.90408385 -0.055511247 1.1610962
-0.10015141 -0.00063736812 1.5718009
-0.15906785 -0.0060399179 1.4415476
-0.33479029 -0.017664675 1.3283232
-0.45406857 -0.025353579 1.2909254
-0.6123721 -0.035297241 1.3321038
-0.77493489 -0.045571461 1.3399227
-0.90806186 -0.054010689 1.2793072
-0.90470511 -0.054432243 1.0608382
-0.90449178 -0.057110716 0.97040659
-0.88093239 -0.056077164 0.79414582
-0.87015271 -0.05553874 0.65627056
-0.87231797 -0.055974878 0.54411715
-0.87982786 -0.056605611 0.44452715
-0.86201841 -0.05560609 0.34384581
-0.87254125 -0.05658542 0.25747854
-0.85951978 -0.055738505 0.17027344
-0.89419764 -0.055202711 0.87908798
-0.88609737 -0.055005785 0.72999263
-0.86659127 -0.053942338 0.59583938
-0.87532663 -0.054938175 0.49289995
-0.87243873 -0.054904707 0.39338866
-0.86847258 -0.054802205 0.30059788
-0.85488111 -0.05394214 0.21168561
-0.86231506 -0.054557104 0.12853025
-0.030848313 0.0040174406 2.0291963
-0.21032624 -0.0092924973 1.338963
-0.27405202 -0.013241197 1.3425529
-0.39929166 -0.021072755 1.3254418
-0.52384019 -0.028845141 1.2955288
-0.67706704 -0.038176026 1.3100449
-0.92776173 -0.053236503 1.4374783
-0.90427208 -0.052355066 1.1610962
-0.10015303 -0.00028777064 1.5718009
-0.15908797 -0.0054846308 1.4415476
-0.33484992 -0.016495932 1.3283232
-0.45415431 -0.023768431 1.2909254
-0.61249155 -0.033159446 1.3321038
-0.7724852 -0.042722389 1.3356568
-0.90824491 -0.050840635 1.2793072
-0.90150487 -0.051082298 1.0571631
-0.90468562 -0.053953104 0.97040659
-0.88112277 -0.053001791 0.79414582
-0.87034124 -0.052501004 0.65627056
-0.87250805 -0.05292958 0.54411715
-0.88002008 -0.053534094 0.44452715
-0.85741913 -0.05230473 0.34243578
-0.87273341 -0.053539343 0.25747854
-0.85473847 -0.052432995 0.16982636
-0.89065742 -0.051864162 0.87576252
-0.88224888 -0.051676199 0.72704947
-0.86677432 -0.050917041 0.59583938
-0.88004369 -0.052150752 0.49499801
-0.87262505 -0.051858995 0.39338866
-0.8686586 -0.051770337 0.30059788
-0.85506415 -0.050957721 0.21168561
-0.86250025 -0.05154673 0.12853025
-0.030875782 0.0041380068 2.0341961
-0.2103574 -0.0085582649 1.338963
-0.27307934 -0.012239726 1.3376577
-0.39936277 -0.019678839 1.3254418
-0.5239377 -0.02701642 1.2955288
-0.6771962 -0.035812389 1.3100449
-0.92794192 -0.049997687 1.4374783
-0.90124887 -0.049024358 1.1572587
-0.10015342 6.1830513e-05 1.5718009
-0.15910614 -0.0049292766 1.4415476
-0.33490548 -0.015326986 1.3283232
-0.45423451 -0.02218299 1.2909254
-0.61477774 -0.031131009 1.3366051
-0.77262962 -0.040025651 1.3356568
-0.90540767 -0.047512256 1.2753172
-0.90167773 -0.047935147 1.0571631
-0.90486842 -0.050794832 0.97040659
-0.88130242 -0.049925778 0.79414582
-0.86634451 -0.049225569 0.65352911
-0.87268752 -0.049883638 0.54411715
-0.88020158 -0.050461926 0.44452715
-0.85759646 -0.049311459 0.34243578
-0.87291497 -0.050492607 0.25747854
-0.85491627 -0.049449082 0.16982636
-0.89083308 -0.048754871 0.87576252
-0.88242388 -0.048596259 0.72704947
-0.86694676 -0.047891121 0.59583938
-0.8847518 -0.049331069 0.49709606
-0.87280077 -0.04881265 0.39338866
-0.86883402 -0.048737839 0.30059788
-0.85523683 -0.047972679 0.21168561
-0.86267489 -0.048535727 0.12853025
-0.030861149 0.0042457585 2.0341961
-0.21038599 -0.0078239292 1.338963
-0.27312037 -0.011286427 1.3376577
-0.39942905 -0.018284682 1.3254418
-0.52207738 -0.02509398 1.2909263
-0.67970914 -0.033566147 1.3144341
-0.92811084 -0.046758261 1.4374783
-0.90141451 -0.045878116 1.1572587
-0.099863939 0.0004073497 1.5668093
-0.15912238 -0.0043738624 1.4415476
-0.33495691 -0.014157855 1.3283232
-0.4543092 -0.020597281 1.2909254
-0.61488265 -0.028984845 1.3366051
-0.77276462 -0.037328426 1.3356568
-0.905568 -0.044351503 1.2753172
-0.90183955 -0.044787411 1.0571631
-0.9050402 -0.047635943 0.97040659
-0.87758446 -0.046642732 0.7910074
-0.86651105 -0.046201158 0.65352911
-0.87285626 -0.046837084 0.54411715
-0.87574321 -0.047140054 0.44265413
-0.85776335 -0.046317589 0.34243578
-0.87308592 -0.047445256 0.25747854
-0.8550837 -0.046464566 0.16982636
-0.89099783 -0.045644987 0.87576252
-0.88258815 -0.045515727 0.72704947
-0.86710864 -0.044864621 0.59583938
-0.88491863 -0.046242408 0.49709606
-0.87296581 -0.045765709 0.39338866
-0.86414492 -0.04544951 0.29942557
-0.85539907 -0.044987053 0.21168561
-0.8628391 -0.045524135 0.12853025
-0.030887727 0.0043666586 2.0391958
-0.21041203 -0.0070894966 1.338963
-0.27214062 -0.010295324 1.3327625
-0.39949042 -0.016890304 1.3254418
-0.52216178 -0.023271438 1.2909263
-0.67982215 -0.031193312 1.3144341
-0.92826837 -0.043518264 1.4374783
-0.90156919 -0.042731311 1.1572587
-0.099861905 0.00075593748 1.5668093
-0.15913668 -0.0038183951 1.4415476
-0.3350043 -0.012988551 1.3283232
-0.45437831 -0.019011321 1.2909254
-0.6149801 -0.026838327 1.3366051
-0.77289021 -0.034630749 1.3356568
-0.90571731 -0.041190211 1.2753172
-0.90199041 -0.041639131 1.0571631
-0.90163904 -0.044301644 0.96690202
-0.87774193 -0.043579105 0.7910074
-0.86666709 -0.043176189 0.65352911
-0.87301445 -0.04378996 0.54411715
-0.87590241 -0.044082854 0.44265413
-0.85791981 -0.043323152 0.34243578
-0.87324625 -0.044397332 0.25747854
-0.85026717 -0.043226663 0.16937928
-0.88742214 -0.042356707 0.872437
-0.88274169 -0.042434644 0.72704947
-0.8629542 -0.041629996 0.59330624
-0.88507468 -0.043153185 0.49709606
-0.86840373 -0.042487532 0.39174515
-0.86429828 -0.042432804 0.29942557
-0.85555089 -0.042000879 0.21168561
-0.85800284 -0.042266198 0.12832873
-0.030913841 0.0044877962 2.0441957
-0.21043549 -0.0063549788 1.338963
-0.27217489 -0.0093453145 1.3327625
-0.39954698 -0.015495719 1.3254418
-0.5222398 -0.02144861 1.2909263
-0.67992687 -0.028820103 1.3144341
-0.92841458 -0.040277738 1.4374783
-0.89851069 -0.03944362 1.1534212
-0.099570021 0.0010984194 1.5618175
-0.15914904 -0.0032628812 1.4415476
-0.3350476 -0.011819089 1.3283232
-0.45444191 -0.017425127 1.2909254
-0.61507004 -0.024691481 1.3366051
-0.77300638 -0.031932645 1.3356568
-0.90284497 -0.037902236 1.2713271
-0.90213025 -0.038490344 1.0571631
-0.90178823 -0.041154064 0.96690202
-0.87400055 -0.040335666 0.78786892
-0.86681247 -0.040150695 0.65352911
-0.86873698 -0.040535949 0.54179835
-0.87605095 -0.041025117 0.44265413
-0.85806584 -0.04032819 0.34243578
-0.87339586 -0.041348863 0.25747854
-0.85041285 -0.040258415 0.16937928
-0.8875646 -0.039258767 0.872437
-0.87884641 -0.039173204 0.72410631
-0.86309427 -0.038617473 0.59330624
-0.88521993 -0.040063433 0.49709606
-0.86854672 -0.03945598 0.39174515
-0.85958564 -0.039194245 0.29825324
-0.85074538 -0.038788691 0.21099493
-0.85814518 -0.039270949 0.12832873
-0.030897986 0.0045956783 2.0441957
-0.21045639 -0.0056203832 1.338963
-0.27118811 -0.0083646271 1.3278673
-0.39959863 -0.014100946 1.3254418
-0.52035922 -0.01955257 1.2863238
-0.68002337 -0.026446538 1.3144341
-0.92573774 -0.036924768 1.4333454
-0.89864284 -0.036306992 1.1534212
-0.09956558 0.0014459769 1.5618175
-0.15915945 -0.0027073275 1.4415476
-0.33508682 -0.010649482 1.3283232
-0.45449996 -0.015838724 1.2909254
-0.61297697 -0.022464946 1.3321038
-0.77050698 -0.029135861 1.3313909
-0.9029718 -0.034750488 1.2713271
-0.90225911 -0.035341088 1.0571631
-0.89836329 -0.037856024 0.9633975
-0.87413597 -0.03728459 0.78786892
-0.86694735 -0.037124708 0.65352911
-0.86887324 -0.037503242 0.54179835
-0.87618881 -0.037966877 0.44265413
-0.85820132 -0.037332736 0.34243578
-0.87353492 -0.038299892 0.25747854
-0.85054821 -0.037289675 0.16937928
-0.88769621 -0.036160346 0.872437
-0.87897778 -0.036105223 0.72410631
-0.85891664 -0.035426963 0.59077305
-0.8808198 -0.036783934 0.49499801
-0.86396116 -0.036226202 0.39010164
-0.85971719 -0.03619349 0.29825324
-0.85087562 -0.035818797 0.21099493
-0.85328549 -0.036064275 0.12812719
-0.030923204 0.0047171395 2.0491955
-0.20969792 -0.0048687691 1.3340238
-0.27121565 -0.0074179531 1.3278673
-0.39964539 -0.012706 1.3254418
-0.52042431 -0.017736059 1.2863238
-0.68011153 -0.024072653 1.3144341
-0.925861 -0.033693116 1.4333454
-0.89876413 -0.033169918 1.1534212
-0.099271357 0.0017854059 1.5568259
-0.15863492 -0.0021459726 1.4365761
-0.33512193 -0.0094797462 1.3283232
-0.45455247 -0.014252126 1.2909254
-0.61305165 -0.020325121 1.3321038
-0.77060401 -0.026446113 1.3313909
-0.90308762 -0.031598315 1.2713271
-0.90237701 -0.032191403 1.0571631
-0.89848995 -0.034719922 0.9633975
-0.87037146 -0.034080926 0.78473049
-0.86707163 -0.034098271 0.65352911
-0.86899877 -0.034470085 0.54179835
-0.87631601 -0.034908175 0.44265413
-0.85832644 -0.034336828 0.34243578
-0.87366325 -0.035250451 0.25747854
-0.85067314 -0.034320481 0.16937928
-0.88781703 -0.033061489 0.872437
-0.87909842 -0.033036798 0.72410631
-0.85903502 -0.03242857 0.59077305
-0.87640762 -0.033535641 0.49289995
-0.8640824 -0.033210196 0.39010164
-0.85983831 -0.033192299 0.29825324
-0.85099542 -0.03284847 0.21099493
-0.85340625 -0.033085532 0.12812719
-0.030906549 0.0048250528 2.0491955
-0.20971364 -0.004136757 1.3340238
-0.27123988 -0.0064711883 1.3278673
-0.39968732 -0.0113109 1.3254418
-0.52048302 -0.015919331 1.2863238
-0.68258518 -0.021774538 1.3188231
-0.92597294 -0.030461051 1.4333454
-0.89887446 -0.030032447 1.1534212
-0.099264517 0.0021319168 1.5568259
-0.15864143 -0.0015922205 1.4365761
-0.33515298 -0.0083098942 1.3283232
-0.45459944 -0.012665356 1.2909254
-0.6109429 -0.018120844 1.3276026
-0.77069163 -0.02375604 1.3313909
-0.90319234 -0.028445758 1.2713271
-0.89909542 -0.028932467 1.0534879
-0.89860564 -0.031583395 0.9633975
-0.87048513 -0.031042557 0.78473049
-0.86718541 -0.031071421 0.65352911
-0.86911386 -0.031436503 0.54179835
-0.87643254 -0.031849049 0.44265413
-0.85844105 -0.031340502 0.34243578
-0.86887205 -0.032019719 0.2565459
-0.85078782 -0.031350866 0.16937928
-0.88419539 -0.029836481 0.86911154
-0.8751688 -0.029830432 0.72116315
-0.85914296 -0.02942978 0.59077305
-0.87651932 -0.030476203 0.49289995
-0.86419308 -0.030193781 0.39010164
-0.85994893 -0.030190701 0.29825324
-0.85110486 -0.029877743 0.21099493
-0.85351652 -0.030106386 0.12812719
-0.030889519 0.0049329074 2.0491955
-0.20894988 -0.0033931679 1.3290845
-0.27126083 -0.0055243452 1.3278673
-0.40121663 -0.0099521317 1.3302138
-0.51858246 -0.014049904 1.2817212
-0.682657 -0.019391738 1.3188231
-0.92607361 -0.027228618 1.4333454
-0.89897382 -0.026894607 1.1534212
-0.099256471 0.0024784014 1.5568259
-0.15864602 -0.0010384488 1.4365761
-0.33517995 -0.0071399412 1.3283232
-0.4546409 -0.01107843 1.2909254
-0.61100239 -0.015988145 1.3276026
-0.77076989 -0.02106568 1.3313909
-0.90328622 -0.025292855 1.2713271
-0.89919096 -0.025793862 1.0534879
-0.89514595 -0.028333845 0.95989293
-0.87058818 -0.028003806 0.78473049
-0.86728859 -0.028044188 0.65352911
-0.86921829 -0.028402537 0.54179835
-0.87653834 -0.028789535 0.44265413
-0.85854524 -0.028343791 0.34243578
-0.86897856 -0.028986597 0.2565459
-0.85089207 -0.028380873 0.16937928
-0.88429415 -0.026749883 0.86911154
-0.87526757 -0.026775341 0.72116315
-0.85924047 -0.026430631 0.59077305
-0.87662035 -0.027416393 0.49289995
-0.86429316 -0.027177 0.39010164
-0.86004907 -0.027188737 0.29825324
-0.85120398 -0.026906651 0.21099493
-0.84862304 -0.026968205 0.12792566
-0.03087211 0.0050407019 2.0491955
-0.20896044 -0.002663776 1.3290845
-0.27127844 -0.0045774346 1.3278673
-0.40124893 -0.008551565 1.3302138
-0.51862836 -0.012239628 1.2817212
-0.6827206 -0.017008701 1.3188231
-0.92616302 -0.023995852 1.4333454
-0.89906222 -0.023756439 1.1534212
-0.099535689 0.0028359885 1.5618175
-0.15811563 -0.00048447837 1.4316046
-0.33520284 -0.0059699011 1.3283232
-0.45467678 -0.0094913701 1.2909254
-0.61105448 -0.013855251 1.3276026
-0.77083874 -0.018375061 1.3313909
-0.90336901 -0.022139644 1.2713271
-0.89927554 -0.022654943 1.0534879
-0.89523941 -0.025209028 0.95989293
-0.87068069 -0.024964716 0.78473049
-0.86738122 -0.025016617 0.65352911
-0.86931211 -0.025368225 0.54179835
-0.87663347 -0.025729671 0.44265413
-0.85863894 -0.025346737 0.34243578
-0.86416435 -0.025806535 0.2556133
-0.85098594 -0.025410533 0.16937928
-0.88438219 -0.023662956 0.86911154
-0.87131518 -0.02361059 0.71822
-0.85501838 -0.023313805 0.58823985
-0.87671071 -0.024356252 0.49289995
-0.8643828 -0.02415989 0.39010164
-0.86013877 -0.024186438 0.29825324
-0.85129273 -0.02393523 0.21099493
-0.84871197 -0.024005793 0.12792566
-0.03077182 0.0051200092 2.0391958
-0.20974547 -0.0019404544 1.3340238
-0.27129278 -0.0036304682 1.3278673
-0.40127635 -0.0071508922 1.3302138
-0.51866794 -0.010429204 1.2817212
-0.68038136 -0.014574466 1.3144341
-0.92624122 -0.020762794 1.4333454
-0.89913964 -0.020617981 1.1534212
-0.099525183 0.0031834159 1.5618175
-0.15811636 6.7451081e-05 1.4316046
-0.33522162 -0.0047997888 1.3283232
-0.45470715 -0.0079041943 1.2909254
-0.61109912 -0.011722188 1.3276026
-0.77089816 -0.015684221 1.3313909
-0.900428 -0.018923057 1.2673371
-0.89934909 -0.019515747 1.0534879
-0.89532191 -0.022083906 0.95989293
-0.87076253 -0.021925323 0.78473049
-0.86746323 -0.021988738 0.65352911
-0.8738237 -0.022447245 0.54411715
-0.87671798 -0.022669492 0.44265413
-0.85872221 -0.022349374 0.34243578
-0.86424917 -0.022789881 0.2556133
-0.85106945 -0.022439884 0.16937928
-0.88445938 -0.020575743 0.86911154
-0.87139225 -0.020568989 0.71822
-0.85509449 -0.020329092 0.58823985
-0.8767904 -0.02129581 0.49289995
-0.86446184 -0.021142483 0.39010164
-0.86507702 -0.021303451 0.29942557
-0.85137111 -0.020963518 0.21099493
-0.84879065 -0.02104309 0.12792566
-0.030712558 0.0052130357 2.0341961
-0.20975095 -0.0012082943 1.3340238
-0.27232197 -0.0026926985 1.3327625
-0.40129885 -0.0057501327 1.3302138
-0.5187012 -0.008618651 1.2817212
-0.68042803 -0.012199404 1.3144341
-0.92630804 -0.01752948 1.4333454
-0.89920616 -0.017479273 1.1534212
-0.099513464 0.0035308041 1.5618175
-0.15811515 0.00061937969 1.4316046
-0.33523634 -0.0036296179 1.3283232
-0.45473197 -0.0063169217 1.2909254
-0.61113632 -0.0095889829 1.3276026
-0.77094817 -0.01299319 1.3313909
-0.90048862 -0.01577986 1.2673371
