# .PCD v0.7 - Point Cloud Data file format
VERSION 0.7
FIELDS x y z
SIZE 4 4 4
TYPE F F F
COUNT 1 1 1
WIDTH 1455
HEIGHT 1
VIEWPOINT 0 0 0 1 0 0 0
POINTS 1455
DATA ascii
-0.10741899 -0.15033552 1.6801797
-0.25445807 -0.36765867 1.7590319
-0.33389324 -0.48567691 1.6569612
-1.2618328 -1.8423389 4.6810069
-1.1690203 -1.7112845 3.4600921
-1.1119808 -1.6302124 2.6877859
-1.0636444 -1.5616722 2.126636
-1.0496261 -1.5509571 1.9201386
-1.0371472 -1.5342304 1.5756215
-1.0290073 -1.5227532 1.2895492
-1.0097553 -1.4953758 1.0310652
-1.0119938 -1.4992456 0.8191337
-1.0224693 -1.5153257 0.62726241
-1.0298094 -1.5273441 0.4412047
-0.99656618 -1.4780358 0.25298306
-1.0399992 -1.5321108 1.7304161
-1.0406477 -1.5342045 1.4334079
-1.0170891 -1.5000283 1.1506057
-1.0059333 -1.4852357 0.91670656
-1.0142695 -1.4980974 0.71880347
-1.0189825 -1.5056154 0.52919978
-1.0241213 -1.5132035 0.34705889
-0.9544735 -1.4108167 0.16238745
-0.023111718 -0.02270736 2.1791906
-0.14593206 -0.20699689 1.6106222
-0.18454877 -0.26414451 1.5726286
-0.30653271 -0.44294691 1.7692363
-1.4079843 -2.0442314 5.9072585
-1.1946368 -1.7396579 3.9347143
-1.1503514 -1.6789069 3.0617273
-1.0890776 -1.5912536 2.3852601
-0.070639923 -0.091685526 1.8413506
-0.10794311 -0.14995964 1.6801797
-0.2557399 -0.36676821 1.7590319
-0.33460364 -0.48309004 1.6522684
-1.2633102 -1.8307563 4.663002
-1.1749867 -1.7071935 3.4600921
-1.114251 -1.6213543 2.6798058
-1.0652528 -1.5523593 2.1192856
-1.046997 -1.535498 1.9061204
-1.0359228 -1.5209498 1.5662062
-1.0296097 -1.5122392 1.2840662
-1.0124772 -1.4881793 1.0287464
-1.0120068 -1.4880371 0.81538767
-1.0223584 -1.5038133 0.62444234
-1.0268534 -1.5115502 0.43840683
-0.97093654 -1.4292356 0.24806519
-1.0411252 -1.5223073 1.7237651
-1.0414354 -1.5238883 1.4275216
-1.0174556 -1.4893498 1.1455393
-1.0085534 -1.4779665 0.91460848
-1.0141706 -1.486746 0.71551645
-1.0214934 -1.4980334 0.52802747
-1.0238173 -1.5014367 0.34567752
-0.9537645 -1.3992201 0.16198438
-0.023190839 -0.022626545 2.1791906
-0.14665373 -0.20648624 1.6106222
-0.18546969 -0.26349872 1.5726286
-0.30636892 -0.43942571 1.7596924
-1.395062 -2.0104136 5.8244128
-1.1952511 -1.7275991 3.9171581
-1.14981 -1.6656183 3.0451953
-1.0909861 -1.582165 2.3775849
-0.070780568 -0.09121187 1.8363589
-0.1084659 -0.14958194 1.6801797
-0.25774151 -0.36690152 1.7638713
-0.33628792 -0.48191911 1.6522684
-1.260994 -1.8138238 4.6314936
-1.1764802 -1.6966523 3.4472942
-1.1181884 -1.6149777 2.6758156
-1.0668091 -1.5430543 2.1119354
-1.0483116 -1.5259552 1.8991114
-1.0346184 -1.5076965 1.5567907
-1.0301514 -1.5017399 1.2785833
-1.0126565 -1.4773285 1.0241088
-1.0119537 -1.4768471 0.81164157
-1.0221798 -1.4923199 0.62162226
-1.0265744 -1.4998492 0.43654159
-0.970294 -1.4176185 0.24717103
-1.0421956 -1.5125147 1.7171141
-1.0444561 -1.5169147 1.4245785
-1.0177598 -1.4786872 1.1404729
-1.0085638 -1.4669572 0.91041237
-1.0140047 -1.4754134 0.71222943
-1.0239639 -1.4904523 0.52685511
-1.0206395 -1.4856089 0.34360549
-0.95298636 -1.387646 0.16158132
-0.023233889 -0.022520497 2.1741908
-0.14692074 -0.20534168 1.605683
-0.18579878 -0.26201952 1.5677334
-0.30618432 -0.43591109 1.7501484
-1.3852792 -1.9815149 5.7553749
-1.1944264 -1.7135928 3.8952124
-1.1491898 -1.6523538 3.0286636
-1.0910161 -1.5704503 2.3660727
-0.070918769 -0.090738341 1.8313673
-0.10898738 -0.14920241 1.6801797
-0.25902069 -0.36599961 1.7638713
-0.33796805 -0.48074231 1.6522684
-1.2598239 -1.7987128 4.6044865
-1.1809018 -1.6903974 3.4430282
-1.1220949 -1.6085933 2.6718256
-1.0683134 -1.5337576 2.1045849
-1.0475427 -1.5134896 1.8885976
-1.0332342 -1.4944712 1.5473754
-1.0330098 -1.4946951 1.275842
-1.0127724 -1.4664948 1.0194712
-1.0118351 -1.4656756 0.80789554
-1.0192087 -1.4768983 0.61739212
-1.0234374 -1.4841249 0.43374372
-0.9695822 -1.4060236 0.24627687
-1.0432101 -1.5027333 1.7104629
-1.0451369 -1.5066175 1.4186922
-1.0180022 -1.4680408 1.1354066
-1.0085095 -1.455966 0.90621626
-1.0137722 -1.4641004 0.70894241
-1.0236276 -1.4788756 0.5245105
-1.0173638 -1.4698217 0.34153345
-0.95213914 -1.3760942 0.16117826
-0.023312358 -0.022439258 2.1741908
-0.14718157 -0.20419776 1.6007437
-0.18611984 -0.26054126 1.5628382
-0.30770406 -0.43483964 1.7501484
-1.3764369 -1.9543065 5.6909394
-1.1948948 -1.7015731 3.8776562
-1.1484913 -1.639114 3.0121319
-1.0909772 -1.5587547 2.3545601
-0.071054541 -0.090264961 1.8263756
-0.10919061 -0.14839245 1.6752082
-0.2610268 -0.36611646 1.7687109
-0.34064183 -0.48096767 1.6569612
-1.2573087 -1.7818537 4.572978
-1.1807908 -1.6777343 3.4259646
-1.1242379 -1.5997361 2.6638458
-1.0697659 -1.5244691 2.0972347
-1.0507795 -1.5068984 1.885093
-1.0339952 -1.4844679 1.5410986
-1.0334421 -1.4842172 1.2703589
-1.0128251 -1.4556782 1.0148336
-1.0116509 -1.454523 0.80414945
-1.0188808 -1.4654543 0.61457211
-1.0230062 -1.4724749 0.43187848
-0.96596003 -1.3903612 0.24493563
-1.0420294 -1.4899038 1.7004865
-1.0457586 -1.4963341 1.4128059
-1.0181825 -1.4574107 1.1303401
-1.008391 -1.4449931 0.90202022
-1.0107714 -1.448934 0.70401186
-1.0260035 -1.4713067 0.5233382
-1.0139905 -1.4540757 0.33946142
-0.95407981 -1.3686637 0.16097674
-0.023390545 -0.022357747 2.1741908
-0.14743619 -0.20305456 1.5958045
-0.18702815 -0.25988999 1.5628382
-0.30835325 -0.43254769 1.7453765
-1.3640301 -1.9224043 5.6126966
-1.1952939 -1.6895713 3.8601
-1.1460913 -1.6236005 2.991467
-1.0908701 -1.5470785 2.3430474
-0.071369186 -0.090016387 1.8263756
-0.10970793 -0.14801042 1.6752082
-0.2623032 -0.36520305 1.7687109
-0.34231859 -0.4797757 1.6569612
-1.2534299 -1.7632599 4.5369682
-1.1790971 -1.6629648 3.404635
-1.1263326 -1.5908835 2.6558657
-1.0711665 -1.5151892 2.0898843
-1.0539831 -1.5003034 1.8815886
-1.0346988 -1.4744772 1.5348215
-1.0338141 -1.4737544 1.264876
-1.0102721 -1.4412519 1.0078771
-1.0114013 -1.4433895 0.80040342
-1.0157336 -1.4501017 0.61034197
-1.0196892 -1.4568219 0.42908064
-0.96509594 -1.3788211 0.24404147
-1.0429225 -1.4801531 1.6938356
-1.0463213 -1.4860647 1.4069196
-1.0183012 -1.4467974 1.1252737
-1.0082082 -1.434039 0.89782411
-1.0103924 -1.4376699 0.70072484
-1.0255446 -1.459762 0.52099353
-1.0105199 -1.4383714 0.33738938
-0.95310897 -1.3571483 0.16057368
-0.023468444 -0.022275962 2.1741908
-0.14768463 -0.20191208 1.5908651
-0.187336 -0.25841159 1.557943
-0.30899015 -0.43025646 1.7406044
-1.3525538 -1.8922023 5.5390563
-1.1831131 -1.660035 3.8030419
-1.1435972 -1.608124 2.9708023
-1.0888388 -1.5328093 2.3276975
-0.071500853 -0.089542709 1.821384
-0.10990401 -0.14720017 1.6702367
-0.26357639 -0.36428523 1.7687109
-0.33693883 -0.46877056 1.6241118
-1.2494369 -1.7447151 4.5009584
-1.1773149 -1.648228 3.3833053
-1.1283792 -1.5820358 2.6478853
-1.0705488 -1.5031569 2.0788589
-1.0571533 -1.4937041 1.8780839
-1.0353453 -1.4645 1.5285445
-1.0341256 -1.4633074 1.2593931
-1.0101861 -1.4304795 1.0032395
-1.0084126 -1.4284885 0.79478431
-1.0152575 -1.4387085 0.60752195
-1.0191066 -1.4452248 0.4272154
-0.96416336 -1.3673043 0.24314731
-1.0459214 -1.4734589 1.69051
-1.0468252 -1.4758097 1.4010333
-1.0183583 -1.4362011 1.1202074
-1.0079612 -1.4231037 0.893628
-1.0072185 -1.4225724 0.69579428
-1.0222096 -1.4442708 0.51747662
-1.0069519 -1.422709 0.33531734
-0.9520694 -1.3456562 0.16017061
-0.023546059 -0.022193905 2.1741908
-0.14838855 -0.20139532 1.5908651
-0.18823689 -0.25775608 1.557943
-0.31049016 -0.42917526 1.7406044
-1.3374581 -1.857348 5.4516082
-1.1735346 -1.6344955 3.7547622
-1.141009 -1.5926849 2.9501376
-1.0867211 -1.518573 2.3123474
-0.07181298 -0.089292578 1.821384
-0.11041716 -0.14681563 1.6702367
-0.26484638 -0.36336297 1.7687109
-0.33452356 -0.46200153 1.6053408
-1.2440557 -1.7244543 4.4604473
-1.1754442 -1.6335241 3.3619757
-1.1286197 -1.5707464 2.6359155
-1.0718365 -1.493902 2.0715086
-1.0602905 -1.4871013 1.8745794
-1.033677 -1.4513661 1.5191293
-1.0343766 -1.4528761 1.2539102
-1.0100373 -1.4197257 0.99860191
-1.0080192 -1.4174039 0.79103822
-1.0119348 -1.4234266 0.60329181
-1.0184555 -1.4336494 0.42535016
-0.96316212 -1.3558109 0.24225317
-1.0467145 -1.4637247 1.683859
-1.0472702 -1.4655694 1.395147
-1.0183539 -1.4256221 1.115141
-1.0076503 -1.4121877 0.88943189
-1.0039514 -1.4075147 0.69086379
-1.0216011 -1.4327788 0.51513195
-1.003287 -1.4070892 0.33324531
-0.95386112 -1.3382564 0.15996908
-0.023623388 -0.02211158 2.1741908
-0.14862683 -0.20025274 1.5859259
-0.18913548 -0.25709745 1.557943
-0.31110689 -0.42688277 1.7358323
-1.3290194 -1.8321106 5.3917751
-1.1665999 -1.6129242 3.7152603
-1.1366804 -1.5750016 2.9253399
-1.0863919 -1.5069705 2.3008351
-0.072124228 -0.08904136 1.821384
-0.11060609 -0.14600517 1.6652652
-0.26536879 -0.36142334 1.7638713
-0.3290135 -0.4510732 1.5724913
-1.2436682 -1.7112964 4.4379416
-1.175016 -1.6209649 3.3449118
-1.128795 -1.5594746 2.6239452
-1.0710868 -1.4819087 2.060483
-1.0613139 -1.4775982 1.8675704
-1.0341986 -1.4414241 1.5128524
-1.0345677 -1.442461 1.2484273
-1.0098257 -1.4089903 0.99396437
-1.0048606 -1.4025711 0.78541911
-1.0113109 -1.4120857 0.60047174
-1.017736 -1.4220963 0.42348492
-0.96499062 -1.3483907 0.24180609
-1.0474524 -1.4540032 1.6772081
-1.0476564 -1.455344 1.3892606
-1.0182883 -1.4150609 1.1100746
-1.0072755 -1.4012914 0.88523579
-0.99783611 -1.3886625 0.68428975
-1.0180892 -1.4173608 0.51161504
-0.99952537 -1.3915125 0.33117324
-0.95269883 -1.3268024 0.15956602
-0.023736732 -0.022053188 2.1791906
-0.14979091 -0.20035447 1.5908651
-0.19003177 -0.25643569 1.557943
-0.31347877 -0.42699718 1.7406044
-1.3331013 -1.8243057 5.3825703
-1.1736333 -1.6107779 3.7196496
-1.1322422 -1.557368 2.9005423
-1.0859948 -1.4953889 2.2893224
-0.072250158 -0.088566959 1.8163922
-0.11111508 -0.14561819 1.6652652
-0.26662877 -0.36049482 1.7638713
-0.33263028 -0.45270279 1.5818769
-1.2457762 -1.7016753 4.424438
-1.1745148 -1.6084287 3.3278482
-1.130681 -1.5506555 2.6159654
-1.0722619 -1.4726796 2.0531328
-1.062284 -1.4681062 1.8605614
-1.0346637 -1.4314963 1.5065755
-1.0346988 -1.4320624 1.2429444
-1.0121447 -1.4018652 0.99164557
-1.0043242 -1.3915367 0.78167301
-1.0134271 -1.4046566 0.59906173
-1.0169483 -1.4105656 0.42161968
-0.96386683 -1.3369349 0.24091193
-1.0481354 -1.4442945 1.670557
-1.0479842 -1.4451339 1.3833743
-1.0181611 -1.4045174 1.1050084
-1.006837 -1.390415 0.88103968
-0.99437058 -1.3736955 0.67935926
-1.0173316 -1.4059228 0.50927037
-0.9956674 -1.3759794 0.3291012
-0.95146841 -1.3153729 0.15916295
-0.023813568 -0.021970198 2.1791906
-0.15048937 -0.19983038 1.5908651
-0.1903161 -0.25495526 1.5530478
-0.31585529 -0.4271003 1.7453765
-1.329037 -1.8054816 5.3411474
-1.1778316 -1.6047407 3.7152603
-1.1409971 -1.5579468 2.9088082
-1.0855304 -1.4838284 2.2778101
-0.07255888 -0.088314228 1.8163922
-0.11129686 -0.14480755 1.6602937
-0.26788554 -0.35956192 1.7638713
-0.33420846 -0.45153895 1.5818769
-1.2465401 -1.6903086 4.4064331
-1.1754856 -1.5980166 3.3150501
-1.1325191 -1.5418423 2.6079853
-1.0713806 -1.4607269 2.0421071
-1.0610999 -1.4557434 1.8500476
-1.035072 -1.4215827 1.5002986
-1.0347698 -1.4216805 1.2374614
-1.0118207 -1.3911588 0.98700798
-1.0009968 -1.3767737 0.77605397
-1.0126835 -1.3933498 0.59624165
-1.0160924 -1.399058 0.41975445
-0.96267474 -1.3255035 0.24001777
-1.0487634 -1.4345986 1.663906
-1.050638 -1.4382031 1.3804312
-1.0179729 -1.3939922 1.0999421
-1.0063349 -1.3795588 0.87684357
-0.99359506 -1.3625852 0.67607224
-1.0165067 -1.3945073 0.50692576
-0.99171329 -1.3604902 0.32702917
-0.95016962 -1.3039682 0.15875989
-0.023926584 -0.021910887 2.1841903
-0.15118599 -0.19930387 1.5908651
-0.19120489 -0.25428939 1.5530478
-0.31823629 -0.42719197 1.7501484
-1.327185 -1.7898467 5.3089299
-1.1805781 -1.5967679 3.7064819
-1.1464283 -1.5539545 2.9088082
-1.0888017 -1.47745 2.2739725
-0.072680712 -0.087839611 1.8114005
-0.11180166 -0.14441817 1.6602937
-0.26838413 -0.35761958 1.7590319
-0.33681434 -0.45175284 1.5865697
-1.2485379 -1.6807047 4.3929296
-1.1763985 -1.5876175 3.3022525
-1.1307249 -1.5281909 2.592025
-1.0724437 -1.451525 2.0347569
-1.0619534 -1.4462817 1.8430386
-1.0354236 -1.4116839 1.4940217
-1.034781 -1.4113156 1.2319785
-1.0114343 -1.3804719 0.98237038
-1.0003178 -1.3657911 0.77230787
-1.0118734 -1.3820653 0.59342158
-1.0151689 -1.3875737 0.41788921
-0.96141475 -1.3140967 0.23912361
-1.0493364 -1.4249161 1.6572551
-1.0508603 -1.4280161 1.3745449
-1.0177237 -1.3834854 1.0948756
-1.0057693 -1.368723 0.87264746
-0.99275416 -1.3514972 0.67278522
-1.0156144 -1.3831149 0.50458109
-0.98766321 -1.3450457 0.32495713
-0.95175928 -1.2966162 0.15855835
-0.024002923 -0.021827234 2.1841903
-0.15140831 -0.19815807 1.5859259
-0.19147605 -0.25280917 1.5481526
-0.31972551 -0.4260785 1.7501484
-1.3240713 -1.7726818 5.27211
-1.1832834 -1.5887959 3.6977041
-1.1518457 -1.5499432 2.9088082
-1.0901312 -1.4684932 2.2662973
-0.07280013 -0.08736524 1.8064088
-0.11197633 -0.14360744 1.6553222
-0.2703892 -0.35768297 1.7638713
-0.33838925 -0.4505744 1.5865697
-1.2517884 -1.6728503 4.3839269
-1.1772528 -1.5772315 3.2894547
-1.121646 -1.5049069 2.5601048
-1.0714315 -1.4396139 2.0237315
-1.0606332 -1.4339646 1.832525
-1.0357189 -1.4018 1.4877448
-1.0347326 -1.400968 1.2264955
-1.0136162 -1.3733687 0.98005158
-0.99957454 -1.35483 0.76856184
-1.0109968 -1.3708036 0.59060156
-1.0141776 -1.3761129 0.41602394
-0.96008694 -1.3027151 0.23822945
-1.0498546 -1.4152471 1.650604
-1.0510243 -1.4178449 1.3686585
-1.0174136 -1.3729975 1.0898093
-1.0051403 -1.3579082 0.86845136
-0.99184805 -1.3404318 0.66949821
-1.0146552 -1.3717459 0.50223649
-0.98351765 -1.3296461 0.3228851
-0.9503389 -1.2852519 0.15815529
-0.024078967 -0.021743314 2.1841903
-0.15209909 -0.19762835 1.5859259
-0.19235735 -0.25213924 1.5481526
-0.32211128 -0.42615044 1.7549204
-1.3149804 -1.7477549 5.2122769
-1.1859474 -1.5808241 3.6889257
-1.157249 -1.5459131 2.9088082
-1.0914114 -1.4595454 2.2586224
-0.072917119 -0.086891092 1.8014171
-0.11247693 -0.1432157 1.6553222
-0.26935047 -0.35373771 1.7493531
-0.34100136 -0.45076644 1.5912623
-1.2445159 -1.6510872 4.3389144
-1.1686448 -1.5543519 3.2510612
-1.1142277 -1.4841149 2.5321748
-1.0723829 -1.4304402 2.016381
-1.0613706 -1.4245342 1.8255159
-1.0382818 -1.3950537 1.4846063
-1.0346246 -1.3906381 1.2210126
-1.013118 -1.3627123 0.97541398
-1.0015324 -1.3476118 0.76668876
-1.0129148 -1.3634156 0.5891915
-1.0101906 -1.360732 0.41322607
-0.95572293 -1.2873601 0.23688821
-1.0503184 -1.4055921 1.6439531
-1.0511303 -1.4076902 1.3627722
-1.0170428 -1.3625288 1.0847429
-1.0017353 -1.3434762 0.86215717
-0.99369889 -1.3331753 0.66785467
-1.0165333 -1.3642981 0.50106418
-0.98223543 -1.3182629 0.32150373
-0.94885087 -1.2739134 0.15775223
-0.024154717 -0.021659132 2.1841903
-0.15278801 -0.19709621 1.5859259
-0.19323631 -0.25146624 1.5481526
-0.3226923 -0.42383602 1.7501484
-1.3080922 -1.7260275 5.1616492
-1.1900142 -1.574764 3.6845365
-1.1575552 -1.5351237 2.8964093
-1.0926424 -1.4506063 2.2509475
-0.073031686 -0.086417198 1.7964255
-0.11264447 -0.14240491 1.6503507
-0.27134895 -0.35379243 1.7541925
-0.34257278 -0.44957337 1.5912623
-1.242373 -1.6363302 4.3119073
-1.1646155 -1.537789 3.2254655
-1.1030428 -1.4585866 2.4962647
-1.0712403 -1.4185721 2.0053556
-1.0620551 -1.4151162 1.8185068
-1.0408102 -1.3883067 1.4814678
-1.034457 -1.3803259 1.2155296
-1.0125577 -1.3520762 0.97077638
-1.0006738 -1.3366854 0.76294273
-1.0119195 -1.3521901 0.58637142
-1.0061086 -1.3453958 0.41042823
-0.95424598 -1.27604 0.23599406
-1.052973 -1.3989342 1.6406276
-1.0511781 -1.397552 1.3568859
-1.0166112 -1.3520794 1.0796765
-1.0009675 -1.3327134 0.85796106
-0.99551117 -1.3259223 0.66621119
-1.0154537 -1.3529664 0.49871951
-0.98088568 -1.3069052 0.32012239
-0.9502936 -1.2665973 0.15755071
-0.024193374 -0.021551248 2.1791906
-0.15299617 -0.19594981 1.5809867
-0.1941129 -0.25079021 1.5481526
-0.32416978 -0.42270705 1.7501484
-1.299883 -1.7028167 5.1064186
-1.1838986 -1.5553552 3.6494238
-1.1509918 -1.5153877 2.8674786
-1.0957619 -1.44423 2.2471099
-0.073332898 -0.086161748 1.7964255
-0.11314087 -0.14201085 1.6503507
-0.27488881 -0.35582635 1.7687109
-0.34413999 -0.44837484 1.5912623
-1.2374971 -1.6181504 4.275898
-1.1589032 -1.5192 3.1956041
-1.0989976 -1.4427426 2.4763145
-1.0720805 -1.4094276 1.9980052
-1.0626869 -1.4057107 1.8114977
-1.0433043 -1.3815591 1.4783293
-1.0342302 -1.3700322 1.2100466
-1.0119357 -1.3414607 0.96613878
-1.0025423 -1.3294828 0.76106972
-1.0108581 -1.3409885 0.58355141
-1.0048876 -1.3340282 0.40856299
-0.94970536 -1.2607681 0.23465282
-1.0533379 -1.3892995 1.6339766
-1.0536091 -1.3906524 1.3539426
-1.0161192 -1.3416498 1.0746102
-1.0001367 -1.3219725 0.85376495
-0.99728501 -1.3186729 0.66456765
-1.0143076 -1.3416589 0.49637488
-0.97946876 -1.2955728 0.31874102
-0.95169687 -1.2592866 0.15734917
-0.024268454 -0.021466665 2.1791906
-0.15367924 -0.19541456 1.5809867
-0.19498713 -0.2501111 1.5481526
-0.32564333 -0.42157292 1.7501484
-1.2939098 -1.6827821 5.0603938
-1.1805769 -1.5398098 3.6230896
-1.1477247 -1.5001862 2.8468139
-1.0969039 -1.435303 2.2394347
-0.07344339 -0.085687727 1.7914338
-0.11363589 -0.14161505 1.6503507
-0.34464726 -0.44580585 1.5865697
-1.2351665 -1.6034735 4.2488904
-1.1546645 -1.5027374 3.1700087
-1.1095301 -1.4460692 2.4882846
-1.0708081 -1.3976038 1.9869798
-1.063266 -1.3963182 1.8044887
-1.045764 -1.3748109 1.475191
-1.0339442 -1.3597568 1.2045637
-1.0112519 -1.3308661 0.96150118
-1.0015686 -1.3185917 0.75732362
-1.012632 -1.3336313 0.58214134
-1.0006304 -1.3187726 0.40576512
-0.94808018 -1.2495109 0.23375866
-1.0536486 -1.3796796 1.6273257
-1.0535525 -1.3805399 1.3480563
-1.0155669 -1.3312401 1.0695438
-0.9992435 -1.3112538 0.8495689
-0.9990204 -1.3114272 0.66292417
-1.0130951 -1.3303763 0.49403024
-0.98098505 -1.2882061 0.31805035
-0.95003468 -1.2480067 0.15694611
-0.024306271 -0.021358641 2.1741908
-0.15387727 -0.19426844 1.5760474
-0.19585901 -0.24942894 1.5481526
-0.32711291 -0.42043364 1.7501484
-1.2937943 -1.6705326 5.0373812
-1.177161 -1.5243065 3.5967553
-1.142648 -1.4827973 2.8220162
-1.0979968 -1.4263856 2.2317598
-0.073742047 -0.085430838 1.7914338
-0.11412953 -0.14121751 1.6503507
-0.34408021 -0.44187739 1.5771841
-1.2367525 -1.5939926 4.2353868
-1.1503249 -1.4863231 3.1444128
-1.1127284 -1.4398034 2.4842944
-1.0715375 -1.3884898 1.9796295
-1.0637926 -1.3869388 1.7974794
-1.045822 -1.3649729 1.468914
-1.0335991 -1.3495003 1.1990808
-1.0105065 -1.3202926 0.95686358
-1.0005312 -1.3077239 0.75357759
-1.0114523 -1.3224676 0.57932127
-0.99926198 -1.307466 0.40389988
-0.94941199 -1.2422371 0.23331158
-1.0539049 -1.3700744 1.6206745
-1.0534383 -1.3704447 1.34217
-1.0175811 -1.3242687 1.0670106
-0.99828744 -1.3005575 0.8453728
-0.99784261 -1.3004394 0.65963709
-1.0118163 -1.3191183 0.4916856
-0.9794479 -1.2769156 0.31666899
-0.95134538 -1.2407182 0.15674458
-0.02438068 -0.021273665 2.1741908
-0.15455444 -0.19373012 1.5760474
-0.1967285 -0.24874376 1.5481526
-0.32765746 -0.41811457 1.7453765
-1.2972142 -1.6629255 5.0281758
-1.1736512 -1.5088459 3.5704205
-1.1409148 -1.4699081 2.8054843
-1.1010051 -1.4200114 2.2279224
-0.074039809 -0.085172907 1.7914338
-0.11462178 -0.14081827 1.6503507
-0.34455529 -0.439316 1.5724913
-1.2369467 -1.5828048 4.217382
-1.1506959 -1.4761282 3.1316152
-1.1158966 -1.4335328 2.4803045
-1.0701357 -1.3767111 1.9686038
-1.0642667 -1.3775728 1.7904702
-1.048202 -1.3582326 1.4657755
-1.0331951 -1.3392628 1.1935979
-1.0096997 -1.3097407 0.95222592
-0.99943018 -1.2968794 0.7498315
-1.0102073 -1.3113285 0.57650119
-1.0008231 -1.3000776 0.40296727
-0.9476667 -1.2310233 0.23241742
-1.0563941 -1.3634357 1.617349
-1.0532665 -1.3603672 1.3362837
-1.0169203 -1.3138908 1.0619444
-0.99726903 -1.2898839 0.84117669
-0.99948823 -1.2932119 0.65799361
-1.0104712 -1.3078856 0.48934099
-0.97784394 -1.2656513 0.31528762
-0.94956291 -1.2294819 0.15634152
-0.024417663 -0.021165513 2.1691911
-0.15522975 -0.19318944 1.5760474
-0.19759557 -0.24805552 1.5481526
-0.32911497 -0.41696829 1.7453765
-1.2969755 -1.6507065 5.0051637
-1.1759567 -1.5009695 3.5616424
-1.1425723 -1.4614828 2.7972186
-1.1020094 -1.4111074 2.2202475
-0.074336663 -0.084913947 1.7914338
-0.11511262 -0.14041731 1.6503507
-0.34501669 -0.43675673 1.5677986
-1.2384248 -1.5733459 4.2038784
-1.1493987 -1.4638977 3.1145513
-1.1208936 -1.4296288 2.4803045
-1.0686649 -1.3649595 1.9575783
-1.0646884 -1.3682204 1.7834612
-1.0481591 -1.3484193 1.4594986
-1.0327325 -1.3290447 1.188115
-1.0115485 -1.3027093 0.94990712
-0.99826574 -1.2860588 0.74608546
-1.0088969 -1.3002145 0.57368112
-0.99933505 -1.2888122 0.40110204
-0.94585484 -1.2198368 0.23152326
-1.0565525 -1.3538531 1.6106981
-1.0530372 -1.3503077 1.3303974
-1.0161996 -1.3035334 1.056878
-0.9961884 -1.2792333 0.83698058
-0.99529397 -1.2785367 0.65306306
-1.0090603 -1.2966787 0.48699635
-0.97617322 -1.2544141 0.31390625
-0.94771367 -1.2182732 0.15593846
-0.024491394 -0.021080147 2.1691911
-0.15541366 -0.19204299 1.5711082
-0.19846024 -0.24736428 1.5481526
-0.32778072 -0.4123123 1.7310604
-1.303942 -1.647701 5.0097656
-1.1797051 -1.4949756 3.5572534
-1.1424439 -1.4508531 2.7848196
-1.1049466 -1.4047327 2.2164099
-0.074825458 -0.084868789 1.7964255
-0.11560206 -0.14001463 1.6503507
-0.34546441 -0.43419957 1.5631058
-1.238499 -1.5621902 4.1858735
-1.1496481 -1.4537399 3.1017535
-1.1202744 -1.4186132 2.4683344
-1.0671251 -1.3532349 1.946553
-1.0628579 -1.3560754 1.7729477
-1.05046 -1.3416877 1.4563601
-1.0322109 -1.3188461 1.1826321
-1.0106314 -1.2921919 0.94526953
-0.99703795 -1.275262 0.74233937
-1.0075214 -1.2891257 0.57086104
-1.0008042 -1.2814445 0.4001694
-0.94397658 -1.2086782 0.2306291
-1.0589644 -1.3472213 1.6073725
-1.0527506 -1.3402665 1.3245111
-1.015419 -1.2931975 1.0518116
-0.99504566 -1.2686061 0.83278447
-0.99100959 -1.2639065 0.64813256
-1.0075833 -1.2854974 0.48465171
-0.97749108 -1.2471014 0.31321558
-0.94579786 -1.2070925 0.1555354
-0.024527544 -0.020971868 2.164191
-0.15608306 -0.19149932 1.5711082
-0.19868198 -0.24587849 1.5432572
-0.33295119 -0.41582543 1.7501484
-1.2926368 -1.621752 4.9453306
-1.1819359 -1.4870987 3.5484753
-1.144004 -1.4424468 2.7765536
-1.1058624 -1.3958427 2.2087348
-0.075121246 -0.08460708 1.7964255
-0.11574832 -0.13920119 1.6453792
-0.34697795 -0.43299106 1.5631058
-1.2398692 -1.5527542 4.1723695
-1.1482158 -1.4415581 3.0846899
-1.1214679 -1.4099777 2.4603543
-1.0655166 -1.3415378 1.9355273
-1.0631654 -1.346759 1.7659385
-1.0503165 -1.3319001 1.4500831
-1.0316308 -1.3086674 1.1771491
-1.0096534 -1.2816967 0.94063193
-0.99861515 -1.2681316 0.7404663
-1.0031135 -1.2742931 0.56663096
-0.99919695 -1.2702216 0.39830416
-0.94203198 -1.1975476 0.22973496
-1.0590253 -1.337662 1.6007215
-1.0524067 -1.3302437 1.3186247
-1.0145787 -1.2828829 1.0467453
-0.99384081 -1.2580025 0.82858837
-0.98956203 -1.2530278 0.64484555
-1.0030289 -1.2705274 0.48113477
-0.97570133 -1.2359082 0.31183422
-0.94072056 -1.1920184 0.1549308
-0.024600599 -0.020886123 2.164191
-0.15625685 -0.19035335 1.5661689
-0.19953904 -0.24518345 1.5432572
-0.33908752 -0.42046916 1.7740083
-1.2823894 -1.5974257 4.8854976
-1.184126 -1.4792247 3.5396972
-1.1455193 -1.4340477 2.7682879
-1.1067296 -1.3869634 2.2010598
-0.075416125 -0.084344342 1.7964255
-0.1158903 -0.13838844 1.6404077
-0.34848726 -0.43177724 1.5631058
-1.2398244 -1.5416315 4.1543651
-1.1467125 -1.4294045 3.067626
-1.1207308 -1.3989996 2.4483843
-1.0659572 -1.3325156 1.928177
-1.0634209 -1.3374568 1.7589295
-1.0525385 -1.325178 1.4469448
-1.0283922 -1.2952343 1.1689247
-1.0086145 -1.2712243 0.93599433
-0.99727398 -1.2573737 0.73672026
-1.0015948 -1.263266 0.56381088
-0.99752367 -1.2590256 0.39643893
-0.94002122 -1.1864454 0.2288408
-1.0613602 -1.3310379 1.5973961
-1.0520058 -1.3202398 1.3127384
-1.0136789 -1.2725899 1.0416789
-0.99257416 -1.2474231 0.82439226
-0.97335255 -1.2236968 0.63334101
-1.0014074 -1.2594094 0.47879013
-0.97692746 -1.2286187 0.31114352
-0.93865854 -1.1809056 0.15452774
-0.024635913 -0.020777725 2.1591914
-0.15692036 -0.18980674 1.5661689
-0.19974767 -0.24369842 1.538362
-0.33208042 -0.40885726 1.7310604
-1.2879577 -1.5929395 4.8854976
-1.1877789 -1.4732178 3.5353079
-1.145226 -1.4234629 2.7558892
-1.1075484 -1.3780951 2.1933849
-0.075710081 -0.084080577 1.7964255
-0.11637266 -0.13798307 1.6404077
-0.25604972 -0.31300029 1.5944916
-0.34999233 -0.43055812 1.5631058
-1.2397169 -1.5305279 4.1363602
-1.1451385 -1.4172789 3.0505624
-1.1199307 -1.3880438 2.4364142
-1.066348 -1.323507 1.9208267
-1.0636245 -1.3281695 1.7519203
-1.0522947 -1.3154172 1.4406679
-1.0276841 -1.2851055 1.1634418
-1.0075147 -1.2607747 0.93135673
-0.99876344 -1.250263 0.73484725
-1.0000114 -1.2522651 0.56099087
-0.99578446 -1.2478567 0.39457369
-0.93794459 -1.1753719 0.22794664
-1.0613238 -1.3215028 1.5907451
-1.0515479 -1.3102551 1.3068521
-1.0127196 -1.2623191 1.0366125
-0.99124593 -1.2368677 0.82019615
-0.98352307 -1.2276623 0.63662797
-0.99972063 -1.2483184 0.4764455
-0.9750191 -1.2174706 0.30976218
-0.93653029 -1.1698217 0.15412468
-0.024708292 -0.020691602 2.1591914
-0.15758194 -0.18925783 1.5661689
-0.20059711 -0.24299969 1.538362
-1.2885755 -1.5823748 4.8670878
-1.1898947 -1.4653444 3.5265298
-1.1448727 -1.4128977 2.7434902
-1.106302 -1.3667469 2.1818724
-0.075807296 -0.083603658 1.7914338
-0.11650757 -0.13717055 1.6354362
-0.25874016 -0.31404415 1.6041704
-0.35149312 -0.42933384 1.5631058
-1.2381709 -1.5177574 4.1138539
-1.1402014 -1.4011362 3.0249667
-1.1190679 -1.3771107 2.424444
-1.0688251 -1.3171443 1.9171517
-1.0637761 -1.318897 1.7449113
-1.0519958 -1.3056742 1.434391
-1.0269178 -1.2749975 1.1579589
-1.003577 -1.2468976 0.92440039
-0.99730927 -1.2395451 0.73110116
-0.99836361 -1.2412908 0.5581708
-0.99090207 -1.2328867 0.39177582
-0.9358021 -1.1643275 0.22705248
-1.0612339 -1.3119842 1.584094
-1.0510331 -1.3002896 1.3009658
-1.011701 -1.2520703 1.0315461
-0.98985595 -1.2263367 0.81600004
-0.98780245 -1.2242217 0.63662797
-0.99796879 -1.2372546 0.47410086
-0.97615385 -1.2102053 0.30907148
-0.93433625 -1.1587672 0.15372162
-0.024780367 -0.020605225 2.1591914
-0.15774167 -0.18811184 1.5612297
-0.20144412 -0.24229799 1.538362
-1.2891352 -1.5718251 4.8486776
-1.1904535 -1.4556204 3.5133626
-1.1426804 -1.4001724 2.7269583
-1.1070153 -1.3579084 2.1741974
-0.075902112 -0.083127089 1.7864422
-0.11663821 -0.13635878 1.6304647
-0.25742555 -0.31023815 1.5896522
-0.35189149 -0.42677307 1.558413
-1.2379332 -1.5066983 4.095849
-1.1434319 -1.3951304 3.0207007
-1.1162339 -1.363869 2.408484
-1.0691255 -1.3081555 1.9098014
-1.0661248 -1.3124077 1.7414067
-1.0516417 -1.2959495 1.4281141
-1.0260935 -1.2649105 1.152476
-1.0023443 -1.2365046 0.91976279
-0.99871129 -1.2324547 0.72922814
-0.99665135 -1.2303433 0.55535072
-0.9890182 -1.2217841 0.38991058
-0.93359399 -1.1533123 0.22615832
-1.0610904 -1.3024824 1.5774431
-1.0504618 -1.2903438 1.2950795
-1.0106232 -1.2418443 1.0264798
-0.98840475 -1.2158309 0.81180394
-0.99206984 -1.2207662 0.63662797
-0.99615186 -1.2262182 0.47175622
-0.97724986 -1.2029469 0.30838081
-0.93207639 -1.1477423 0.15331855
-0.024852142 -0.020518601 2.1591914
-0.15839733 -0.18756008 1.5612297
-0.20163444 -0.24081311 1.5334667
-1.2946141 -1.5673156 4.8486776
-1.1924818 -1.4477589 3.5045846
-1.1422002 -1.3896537 2.7145593
-1.1056464 -1.3466043 2.1626849
-0.075994521 -0.082650878 1.7814505
-0.1167646 -0.13554777 1.6254932
-0.26011983 -0.31126603 1.599331
-0.35337907 -0.42554212 1.558413
-1.2362454 -1.4939824 4.0733433
-1.1466346 -1.3891194 3.0164349
-1.115238 -1.352989 2.3965139
-1.0715307 -1.3017981 1.906126
-1.0661829 -1.303158 1.7343976
-1.0536957 -1.2892568 1.4249755
-1.0252113 -1.254845 1.146993
-1.0010512 -1.2261354 0.91512519
-1.0000759 -1.2253693 0.72735512
-0.99790734 -1.22314 0.55394071
-0.98706889 -1.2107097 0.38804534
-0.93132037 -1.1423268 0.22526415
-1.0608937 -1.2929977 1.5707921
-1.0472709 -1.2772921 1.2862499
-1.0122192 -1.2349749 1.0239466
-0.98689234 -1.2053502 0.80760783
-0.99632502 -1.2172958 0.63662797
-0.99427009 -1.2152096 0.46941158
-0.97830707 -1.1956956 0.30769014
-0.93291414 -1.1406145 0.15311703
-0.024885859 -0.02040985 2.1541915
-0.15905108 -0.18700601 1.5612297
-0.20247382 -0.2401078 1.5334667
-0.32913911 -0.39387447 1.6881126
-1.2888315 -1.5492703 4.8072548
-1.1929405 -1.4380579 3.4914172
-1.1398662 -1.3769877 2.6980276
-1.1021695 -1.3328565 2.1473348
-0.076084547 -0.082175039 1.7764589
-0.11723703 -0.13513936 1.6254932
-0.26120475 -0.31035614 1.599331
-0.35486236 -0.42430604 1.558413
-1.2358779 -1.482969 4.0553384
-1.1514765 -1.3851084 3.0164349
-1.1141796 -1.3421326 2.3845439
-1.0695772 -1.2902203 1.8951007
-1.0639215 -1.2911718 1.7238841
-1.0532422 -1.2795607 1.4186987
-1.0242716 -1.244801 1.14151
-0.99969804 -1.2157904 0.91048759
-0.99845958 -1.2147084 0.72360903
-0.99607998 -1.2122365 0.55112064
-0.98505443 -1.199664 0.3861801
-0.9321419 -1.1352203 0.22481708
-1.0606436 -1.2835301 1.5641412
-1.0465755 -1.2673953 1.2803636
-1.0110352 -1.2247852 1.0188802
-0.98820627 -1.1983963 0.80550975
-0.99756444 -1.2101668 0.63498449
-0.99232376 -1.2042295 0.46706694
-0.97932559 -1.1884518 0.30699944
-0.93371338 -1.133495 0.15291549
-0.024956951 -0.020322857 2.1541915
-0.1591967 -0.18586019 1.5562904
-0.2033107 -0.23939958 1.5334667
-0.33339649 -0.39614859 1.7024286
-1.282939 -1.5312849 4.7658319
-1.1918105 -1.4265335 3.473861
-1.1392598 -1.3665164 2.6856289
-1.1006615 -1.3216124 2.1358223
-0.076370925 -0.081908949 1.7764589
-0.11735637 -0.13432872 1.6205217
-0.26228651 -0.30944246 1.599331
-0.3563413 -0.42306474 1.558413
-1.2354484 -1.4719764 4.0373335
-1.1563045 -1.3810806 3.0164349
-1.1130593 -1.3313003 2.3725739
-1.0697289 -1.2812742 1.8877504
-1.063867 -1.2819617 1.716875
-1.0527339 -1.2698834 1.4124217
-1.020606 -1.2315595 1.1332856
-0.99828488 -1.2054698 0.90584999
-0.99973732 -1.2076447 0.72173601
-0.99418849 -1.2013608 0.54830056
-0.97984451 -1.1848618 0.38338223
-0.93292522 -1.1281219 0.22437
-1.0603405 -1.2740803 1.5574901
-1.0432395 -1.2544115 1.2715342
-1.0097926 -1.214619 1.013814
-0.98658413 -1.1879566 0.80131364
-0.99574989 -1.1994108 0.63169748
-0.98720878 -1.1895373 0.46355
-0.98030561 -1.1812154 0.30630878
-0.93128455 -1.1225388 0.15251243
-0.025027741 -0.020235619 2.1541915
-0.15984452 -0.18530335 1.5562904
-0.20414513 -0.23868844 1.5334667
-0.33477727 -0.3949824 1.7024286
-1.2756768 -1.5118666 4.7198071
-1.1921567 -1.416867 3.4606936
-1.1404036 -1.3582212 2.6773629
-1.0970287 -1.3079395 2.1204722
-0.076456882 -0.081433184 1.7714672
-0.11782454 -0.13391824 1.6205217
-0.26336506 -0.30852503 1.599331
-0.3589325 -0.42313403 1.5631058
-1.2349573 -1.4610049 4.0193286
-1.1611183 -1.377036 3.0164349
-1.111877 -1.3204921 2.3606038
-1.0676491 -1.2697481 1.8767248
-1.0614741 -1.2700313 1.7063613
-1.052171 -1.2602254 1.4061449
-1.01954 -1.2215691 1.1278027
-0.99681211 -1.1951742 0.90121239
-0.99800932 -1.1970264 0.71798992
-0.98916215 -1.1868283 0.54407042
-0.97454333 -1.1701106 0.38058439
-0.93048328 -1.1172053 0.22347584
-1.0599843 -1.2646483 1.5508391
-1.0424209 -1.244565 1.2656479
-1.0057238 -1.2011714 1.0062144
-0.98490125 -1.1775432 0.79711759
-0.99084347 -1.1850597 0.62676698
-0.98200351 -1.1748958 0.46003303
-0.97807115 -1.1701871 0.30492741
-0.93199408 -1.1154475 0.15231091
-0.025060246 -0.020126654 2.1491919
-0.16049038 -0.18474425 1.5562904
-0.20497707 -0.23797438 1.5334667
-0.33615398 -0.3938114 1.7024286
-1.2720902 -1.4969838 4.6875892
-1.1909015 -1.4053884 3.4431372
-1.1396866 -1.3477861 2.664964
-1.0953823 -1.2967566 2.1089599
-0.076940887 -0.081373796 1.7764589
-0.11793683 -0.13310803 1.6155502
-0.26444042 -0.30760381 1.599331
-0.36040732 -0.42187855 1.5631058
-1.235816 -1.4517123 4.0058246
-1.1642296 -1.3709866 3.0121689
-1.1125816 -1.3120067 2.3526237
-1.0676931 -1.2608395 1.8693745
-1.0590109 -1.2581334 1.6958475
-1.0515535 -1.2505867 1.3998679
-1.0184166 -1.2116011 1.1223198
-0.99812877 -1.1882955 0.89889359
-0.9992004 -1.189985 0.71611691
-0.98713058 -1.1760195 0.54125035
-0.96915126 -1.1554111 0.37778652
-0.93117702 -1.1101351 0.22302876
-1.0571667 -1.2523813 1.5408626
-1.0389402 -1.23165 1.2568183
-1.0043526 -1.1910625 1.001148
-0.98315758 -1.1671557 0.79292148
-0.98889077 -1.1743696 0.62347996
-0.97670805 -1.1603051 0.45651609
-0.96620458 -1.1478235 0.30147403
-0.92944866 -1.1045423 0.15190785
-0.025130346 -0.020039054 2.1491919
-0.16113427 -0.1841829 1.5562904
-0.20580651 -0.23725744 1.5334667
-0.3326596 -0.38697723 1.6785686
-1.2760375 -1.49105 4.6829863
-1.1895809 -1.3939359 3.425581
-1.1389105 -1.3373725 2.6525652
-1.0936713 -1.2856014 2.0974472
-0.077224463 -0.081104726 1.7764589
-0.11840075 -0.13269554 1.6155502
-0.26468939 -0.30572894 1.5944916
-0.36187774 -0.42061791 1.5631058
-1.2352079 -1.4407792 3.9878199
-1.1656179 -1.3629504 3.0036371
-1.1132407 -1.3035325 2.3446436
-1.0676877 -1.2519459 1.8620242
-1.0587839 -1.2489886 1.6888385
-1.0508816 -1.240968 1.393591
-1.0145346 -1.1984646 1.1140954
-0.99654841 -1.1780401 0.89425594
-0.9943676 -1.1758704 0.7104978
-0.98193884 -1.1615764 0.53702027
-0.96366847 -1.1407634 0.37498868
-0.93183273 -1.1030736 0.22258168
-1.0566951 -1.2429942 1.5342115
-1.037999 -1.221855 1.250932
-1.0029231 -1.1809778 0.99608171
-0.98135358 -1.156795 0.78872538
-0.98382121 -1.1601062 0.61854941
-0.97132289 -1.145766 0.45299914
-0.95739615 -1.1293343 0.2987113
-0.92683858 -1.0936683 0.15150478
-0.02523827 -0.019972423 2.1541915
-0.1617762 -0.18361932 1.5562904
-0.20663343 -0.23653759 1.5334667
-0.33107638 -0.38242888 1.6642526
-1.2748569 -1.4791877 4.6599741
-1.1866338 -1.3806937 3.4036357
-1.1399078 -1.3291169 2.6442995
-1.0939813 -1.2769079 2.0897722
-0.077708766 -0.081041239 1.7814505
-0.11886322 -0.13228144 1.6155502
-0.26492849 -0.30385607 1.5896522
-0.36447409 -0.42065611 1.5677986
-1.2331158 -1.4282203 3.9653139
-1.1652622 -1.3529452 2.9908392
-1.1138542 -1.2950697 2.3366637
-1.0698425 -1.2456396 1.8583488
-1.058506 -1.2398608 1.6818293
-1.0476296 -1.2284077 1.3841758
-1.0132861 -1.1885519 1.1086124
-0.99490881 -1.1678103 0.88961834
-0.99245435 -1.1653334 0.70675176
-0.97665846 -1.147184 0.53279018
-0.95809537 -1.1261685 0.3721908
-0.93245053 -1.0960213 0.22213461
-1.0561708 -1.2336255 1.5275606
-1.0343745 -1.2090106 1.2421026
-1.0014354 -1.1709177 0.99101532
-0.97948939 -1.1464612 0.78452927
-0.9786644 -1.1458926 0.61361885
-0.96584821 -1.1312786 0.4494822
-0.94847059 -1.1109209 0.29594857
-0.92740732 -1.0866263 0.15130325
-0.025307834 -0.019884204 2.1541915
-0.16241618 -0.18305349 1.5562904
-0.20745784 -0.23581485 1.5334667
-0.32946551 -0.37789634 1.6499368
-1.277451 -1.4717778 4.6507688
-1.1851761 -1.3693 3.3860793
-1.139022 -1.3187411 2.6319005
-1.0942439 -1.2682279 2.0820973
-0.07799118 -0.080769494 1.7814505
-0.11968285 -0.1322601 1.6205217
-0.26515779 -0.30198529 1.5848128
-0.36594024 -0.41938132 1.5677986
-1.2323798 -1.4173363 3.947309
-1.1648508 -1.342959 2.9780414
-1.1144222 -1.2866186 2.3286836
-1.0719663 -1.2393336 1.8546739
-1.0581772 -1.2307501 1.6748203
-1.0443028 -1.2158853 1.3747603
-1.0119809 -1.1786628 1.1031295
-0.99321014 -1.1576066 0.88498074
-0.98746163 -1.1513054 0.70113266
-0.97128958 -1.1328428 0.5285601
-0.95562845 -1.1153567 0.37032557
-0.93303055 -1.0889781 0.22168753
-1.0555941 -1.2242758 1.5209095
-1.0333116 -1.1992685 1.2362163
-0.99988997 -1.1608825 0.98594898
-0.97756499 -1.1361545 0.78033316
-0.97342038 -1.1317294 0.60868835
-0.96345323 -1.1205292 0.44713756
-0.94265693 -1.0963386 0.29387653
-0.92468166 -1.0758049 0.15090019
-0.025377087 -0.019795742 2.1541915
-0.16305417 -0.18248545 1.5562904
-0.20827973 -0.23508926 1.5334667
-0.32881221 -0.37450114 1.6403928
-1.2697226 -1.4526013 4.604744
-1.1836536 -1.3579333 3.3685231
-1.1362306 -1.3062646 2.6153688
-1.0944594 -1.2595618 2.0744221
-0.078272641 -0.080496758 1.7814505
-0.1201438 -0.13184153 1.6205217
-0.26537725 -0.30011663 1.5799733
-0.36740196 -0.41810137 1.5677986
-1.2301488 -1.4048374 3.9248033
-1.1643841 -1.3329926 2.9652438
-1.112964 -1.2759086 2.3167133
-1.0740589 -1.2330279 1.8509985
-1.0577979 -1.2216568 1.6678112
-1.0434479 -1.206345 1.3684834
-1.010619 -1.1687973 1.0976466
-0.98855603 -1.1440771 0.87802434
-0.98238319 -1.1373266 0.69551355
-0.96896768 -1.1221837 0.52574003
-0.94988847 -1.1008567 0.36752769
-0.93357271 -1.0819441 0.22124045
-1.0574129 -1.2177644 1.517584
-1.0295441 -1.1864957 1.2273868
-0.99828666 -1.1508725 0.98088264
-0.97558063 -1.1258755 0.77613705
-0.97118127 -1.121186 0.60540134
-0.95781338 -1.1061358 0.44362062
-0.93675309 -1.0818107 0.29180449
-0.92516148 -1.0687933 0.15069866
-0.025484383 -0.019727852 2.1591914
-0.16369016 -0.18191516 1.5562904
-0.20909907 -0.23436078 1.5334667
-0.33011746 -0.3733511 1.6403928
-1.2734944 -1.4466939 4.6001415
-1.1804862 -1.3447943 3.3465776
-1.1352204 -1.2959405 2.6029699
-1.0946277 -1.2509097 2.0667472
-0.078553148 -0.080223046 1.7814505
-0.12060328 -0.13142134 1.6205217
-0.26642323 -0.29918846 1.5799733
-0.37000307 -0.4181084 1.5724913
-1.2292855 -1.394004 3.9067984
-1.1655848 -1.3250037 2.9567118
-1.1134335 -1.2674884 2.3087335
-1.073885 -1.2241743 1.8436482
-1.0597121 -1.2152693 1.6643068
-1.0399824 -1.1938906 1.3590679
-1.0092008 -1.1589557 1.0921637
-0.98672765 -1.133936 0.87338674
-0.98026186 -1.1268951 0.69176745
-0.96343559 -1.107935 0.52150995
-0.95050329 -1.0938264 0.36659506
-0.93734372 -1.0786787 0.22124045
-1.0567415 -1.2084447 1.510933
-1.0257001 -1.1737639 1.2185574
-0.99662572 -1.1408879 0.97581625
-0.97652066 -1.1190437 0.77403903
-0.96577638 -1.1071138 0.60047078
-0.95527941 -1.095459 0.44127598
-0.93401414 -1.0710697 0.29042313
-0.92560375 -1.0617914 0.15049712
-0.02555309 -0.019638775 2.1591914
-0.16380174 -0.18076754 1.5513512
-0.20991586 -0.23362948 1.5334667
-0.33042571 -0.37108201 1.6356208
-1.2785364 -1.4422398 4.6001415
-1.1788276 -1.3334881 3.3290212
-1.1322905 -1.2835292 2.5864379
-1.0947491 -1.2422718 2.0590723
-0.078832708 -0.079948358 1.7814505
-0.12069857 -0.13060896 1.6155502
-0.26662636 -0.2973212 1.5751339
-0.37146029 -0.41681433 1.5724913
-1.2283614 -1.3831937 3.8887932
-1.1650143 -1.3150706 2.9439139
-1.1098645 -1.2545668 2.2927732
-1.0736624 -1.2153369 1.8362979
-1.0592412 -1.2062037 1.6572976
-1.036443 -1.1814754 1.3496526
-1.0077262 -1.1491383 1.0866808
-0.98776025 -1.1271534 0.87106794
-0.97502482 -1.1130053 0.68614835
-0.96097642 -1.0973476 0.51868987
-0.94784564 -1.0831087 0.36472982
-0.93782365 -1.0716527 0.22079337
-1.0560178 -1.1991446 1.504282
-1.02178 -1.1610734 1.2097279
-0.99490738 -1.130929 0.97074991
-0.97442883 -1.1088099 0.76984292
-0.96340179 -1.0966407 0.59718376
-0.95589012 -1.0884657 0.44010365
-0.93447948 -1.064082 0.28973246
-0.92271245 -1.0510453 0.15009406
-0.025621487 -0.019549459 2.1591914
-0.16443174 -0.18019466 1.5513512
-0.21073012 -0.2328953 1.5334667
-0.33171901 -0.36992633 1.6356208
-1.1850678 -1.3311539 3.3334103
-1.1292878 -1.2711543 2.5699062
-1.0948235 -1.2336484 2.0513971
-0.079111293 -0.079672694 1.7814505
-0.12115374 -0.13018684 1.6155502
-0.26766258 -0.29638869 1.5751339
-0.37291297 -0.41551512 1.5724913
-1.2273769 -1.3724072 3.8707883
-1.1661251 -1.307104 2.9353821
-1.1082236 -1.2439357 2.2808034
-1.0733913 -1.2065163 1.8289475
-1.0587199 -1.1971561 1.6502886
-1.0328295 -1.1690993 1.3402373
-1.0061952 -1.1393454 1.0811977
-0.98582625 -1.1170559 0.86643034
-0.97277009 -1.1026422 0.68240231
-0.95845509 -1.0867909 0.5158698
-0.94837278 -1.0761081 0.36379722
-0.9382661 -1.0646363 0.22034629
-1.0527648 -1.1870708 1.4943056
-1.0177838 -1.1484249 1.2008984
-0.99313158 -1.1209959 0.96568352
-0.97528547 -1.1020032 0.76774484
-0.96096587 -1.0861976 0.59389675
-0.95324349 -1.0778404 0.43775901
-0.93490756 -1.0571042 0.28904179
-0.92306662 -1.0440751 0.14989254
-0.025689572 -0.019459903 2.1591914
-0.16453329 -0.17904809 1.5464118
-0.21154179 -0.2321583 1.5334667
-0.33300829 -0.36876619 1.6356208
-1.1881084 -1.3252258 3.3290212
-1.128089 -1.2609133 2.5575075
-1.0948513 -1.2250396 2.0437222
-0.079388924 -0.079396054 1.7814505
-0.12124199 -0.12937507 1.6105787
-0.27208 -0.29917073 1.5944916
-0.37320372 -0.41293091 1.5677986
-1.2277893 -1.3632619 3.8572848
-1.1654514 -1.2972056 2.9225843
-1.1065217 -1.2333312 2.2688332
-1.0730716 -1.1977122 1.8215973
-1.0581485 -1.1881269 1.6432794
-1.0317296 -1.1596711 1.3339603
-1.0046085 -1.1295774 1.0757148
-0.98383391 -1.1069858 0.86179274
-0.97045481 -1.0923085 0.67865622
-0.95905721 -1.079852 0.51445979
-0.94560182 -1.0654433 0.36193198
-0.93867099 -1.0576302 0.21989921
-1.0519276 -1.1778194 1.4876546
-1.0164033 -1.138834 1.1950121
-0.99129856 -1.1110891 0.96061713
-0.9730866 -1.0918158 0.76354873
-0.96161026 -1.079311 0.59225327
-0.95376718 -1.0708766 0.43658668
-0.93200451 -1.0464383 0.28766042
-0.9233833 -1.0371153 0.149691
-0.025757344 -0.019370113 2.1591914
-0.16462885 -0.17790301 1.5414726
-0.21166192 -0.23066872 1.5285715
-0.33328888 -0.36649746 1.6308489
-1.1927271 -1.3210706 3.3290212
-1.1249489 -1.2486055 2.5409758
-1.0948322 -1.2164458 2.0360472
-0.079458937 -0.078916863 1.7764589
-0.12132606 -0.12856428 1.6056072
-0.37464288 -0.41162565 1.5677986
-1.2281529 -1.3541306 3.8437812
-1.1664726 -1.2892617 2.9140525
-1.1047598 -1.2227541 2.2568631
-1.0704327 -1.1864083 1.8105719
-1.0575271 -1.1791165 1.6362704
-1.0279791 -1.1473658 1.3245449
-1.0029658 -1.1198343 1.0702319
-0.98473769 -1.100244 0.85947394
-0.97117066 -1.0854596 0.6767832
-0.95642477 -1.0693467 0.51163971
-0.94604164 -1.0584733 0.36099935
-0.93903846 -1.0506341 0.21945213
-1.0510386 -1.1685882 1.4810036
-1.0122664 -1.1262608 1.1861825
-0.98940879 -1.1012089 0.95555079
-0.97386032 -1.085035 0.76145065
-0.9590646 -1.0689182 0.58896625
-0.95100856 -1.0603042 0.43424204
-0.93234515 -1.0394922 0.28696972
-0.92366278 -1.0301661 0.14948948
-0.025786094 -0.019259941 2.1541915
-0.16524884 -0.17732726 1.5414726
-0.21246582 -0.22992846 1.5285715
-0.3335577 -0.36423129 1.6260768
-1.1973312 -1.3168992 3.3290212
-1.1236274 -1.2384191 2.5285769
-1.0947664 -1.207867 2.0283723
-0.079733923 -0.078639023 1.7764589
-0.12177409 -0.12813999 1.6056072
-0.37491113 -0.40904349 1.5631058
-1.2299356 -1.3466207 3.8347785
-1.1656961 -1.2793988 2.9012547
-1.1029373 -1.2122041 2.2448931
-1.0700078 -1.1776464 1.8032216
-1.0568556 -1.1701248 1.6292613
-1.026763 -1.137991 1.3182681
-1.0012673 -1.1101165 1.064749
-0.98264062 -1.0902191 0.85483634
-0.9687472 -1.0751747 0.67303717
-0.95694119 -1.0624372 0.51022971
-0.94315809 -1.0478625 0.35913411
-0.93936849 -1.0436485 0.21900505
-1.0475917 -1.1566103 1.471027
-1.0107666 -1.116727 1.1802962
-0.98746198 -1.0913556 0.95048445
-0.97155517 -1.074895 0.75725454
-0.95962423 -1.0620602 0.58732271
-0.95144588 -1.053371 0.43306974
-0.92932922 -1.0288815 0.28558838
-0.92725313 -1.0269357 0.14948948
-0.025814392 -0.01914981 2.1491919
-0.16533445 -0.17618343 1.5365332
-0.21257298 -0.22844052 1.5236763
-0.3348271 -0.36306474 1.6260768
-1.1889814 -1.2985809 3.2939088
-1.1222488 -1.2282573 2.5161779
-1.0946542 -1.1993036 2.0206971
-0.079799883 -0.078160077 1.7714672
-0.12185115 -0.1273299 1.6006356
-0.37516594 -0.40646452 1.558413
-1.2316812 -1.3391148 3.8257763
-1.1631018 -1.2676356 2.884191
-1.1010548 -1.201682 2.2329228
-1.0718234 -1.1714031 1.7995464
-1.0561343 -1.1611524 1.6222522
-1.0254939 -1.1286385 1.3119911
-0.99951333 -1.1004243 1.0592661
-0.98048562 -1.0802224 0.85019881
-0.96937913 -1.0683534 0.6711641
-0.957421 -1.0555372 0.50881964
-0.94351101 -1.0409243 0.3582015
-0.93966126 -1.0366733 0.21855797
-1.0440738 -1.1446708 1.4610506
-1.0092127 -1.1072174 1.1744099
-0.98545867 -1.0815293 0.94541812
-0.96919119 -1.0647845 0.75305843
-0.9569695 -1.0517187 0.58403569
-0.94857579 -1.0428522 0.4307251
-0.92958289 -1.0219681 0.28489769
-0.92747104 -1.0199964 0.14928794
-0.02588108 -0.019059585 2.1491919
-0.16594844 -0.17560522 1.5365332
-0.21336909 -0.22769712 1.5236763
-0.33507621 -0.36080027 1.6213048
-0.4396725 -0.4756276 1.5854878
-1.1886363 -1.2891407 3.2807415
-1.1227185 -1.2201909 2.5079119
-1.0923264 -1.188396 2.0091846
-0.080072224 -0.077881046 1.7714672
-0.12229487 -0.12690379 1.6006356
-0.37540734 -0.40388876 1.5537202
-1.23191 -1.3300163 3.8122728
-1.1622096 -1.2578216 2.871393
-1.1011559 -1.1934022 2.2249429
-1.0713111 -1.1626685 1.792196
-1.0553632 -1.152199 1.615243
-1.0215446 -1.1164374 1.3025758
-0.99770391 -1.0907581 1.0537832
-0.9782728 -1.0702538 0.84556121
-0.96684802 -1.0581185 0.66741806
-0.954629 -1.045105 0.50599957
-0.9405154 -1.0303684 0.35633627
-0.9365595 -1.0260309 0.21766382
-1.0430113 -1.1355199 1.4543995
-1.0076048 -1.0977327 1.1685236
-0.98339885 -1.0717305 0.94035172
-0.96983534 -1.0580492 0.75096041
-0.95744455 -1.0448904 0.58239222
-0.94892704 -1.0359504 0.42955279
-0.92979956 -1.0150653 0.28420702
-0.92427808 -1.0093836 0.14888488
-0.025908535 -0.018949393 2.144192
-0.16602407 -0.17446266 1.531594
-0.2141626 -0.22695093 1.5236763
-0.33531368 -0.35853851 1.6165328
-0.43600446 -0.46837097 1.5670778
-1.1849805 -1.2762088 3.2587962
-1.1212329 -1.2100723 2.4955132
-1.0921133 -1.1798714 2.0015097
-0.080134153 -0.077402383 1.7664756
-0.1227371 -0.12647612 1.6006356
-0.37445578 -0.40005666 1.5443348
-1.2320902 -1.3209323 3.798769
-1.1594865 -1.24612 2.8543293
-1.1012124 -1.1851366 2.2169628
-1.0730572 -1.1564368 1.7885209
-1.0545425 -1.1432655 1.6082339
-1.0201601 -1.1071399 1.2962989
-0.9958393 -1.0811179 1.0483003
-0.97900254 -1.0635734 0.84324241
-0.9673965 -1.0513258 0.66554505
-0.95502377 -1.0382359 0.5045895
-0.93745756 -1.0198461 0.35447103
-0.93676513 -1.019089 0.21721675
-1.0418978 -1.1263903 1.4477484
-1.0059431 -1.0882725 1.1626372
-0.98420829 -1.0651251 0.93781859
-0.96736586 -1.0479878 0.7467643
-0.95468134 -1.0346011 0.5791052
-0.94594604 -1.0254862 0.42720816
-0.92662179 -1.0045336 0.28282565
-0.92440903 -1.0024782 0.14868335
-0.025974523 -0.018858839 2.144192
-0.16663206 -0.17388208 1.531594
-0.21495351 -0.22620197 1.5236763
-0.33656317 -0.35736585 1.6165328
-0.43763673 -0.4668462 1.5670778
-1.1861565 -1.268566 3.2500179
-1.1216103 -1.2020364 2.4872472
-1.0896685 -1.1690185 1.9899971
-0.080403849 -0.077122189 1.7664756
-0.12280437 -0.1256666 1.5956641
-0.27222791 -0.28702575 1.5606157
-0.37466604 -0.39749163 1.539642
-1.2307316 -1.3102767 3.7807641
-1.1584791 -1.236356 2.8415318
-1.1012249 -1.176885 2.2089827
-1.0724578 -1.14773 1.7811704
-1.0560998 -1.1369647 1.6047294
-1.0187235 -1.0978659 1.290022
-0.99391967 -1.071504 1.0428174
-0.97668624 -1.0536522 0.83860481
-0.9679094 -1.0445421 0.66367197
-0.95212221 -1.0278575 0.50176948
-0.93433785 -1.0093579 0.35260579
-0.9369337 -1.0121584 0.21676967
-1.0381882 -1.1145505 1.437772
-1.0042276 -1.0788374 1.1567509
-0.98204696 -1.0553715 0.93275219
-0.96792811 -1.0412805 0.74466628
-0.95507228 -1.0278029 0.57746166
-0.94621181 -1.0186168 0.42603585
-0.92675233 -0.99766481 0.28213498
-0.92110354 -0.99192345 0.14828028
-0.02600114 -0.018748594 2.1391919
-0.16669776 -0.17274091 1.5266547
-0.21503727 -0.22471511 1.5187811
-0.33883607 -0.35727164 1.6213048
-0.44194642 -0.46815655 1.5762829
-1.1856515 -1.259187 3.2368507
-1.1219451 -1.1940125 2.4789815
-1.0893551 -1.1605339 1.9823222
-0.08046174 -0.076643839 1.7614839
-0.12324227 -0.12523717 1.5956641
-0.27322814 -0.28607374 1.5606157
-0.37367463 -0.39367869 1.5302565
-1.2278177 -1.2980655 3.7582579
-1.1556278 -1.2247173 2.8244677
-1.1011932 -1.1686479 2.2010028
-1.071811 -1.1390417 1.77382
-1.0551896 -1.1280626 1.5977204
-1.0172344 -1.0886155 1.2837451
-0.99194497 -1.0619167 1.0373343
-0.97733533 -1.0469983 0.83628595
-0.96838689 -1.0377678 0.66179895
-0.9524321 -1.0210199 0.50035942
-0.93450594 -1.0024971 0.35167316
-0.93706536 -1.0052389 0.21632259
-1.0369635 -1.1054734 1.4311211
-1.0024586 -1.0694275 1.1508646
-0.98277718 -1.0487915 0.93021905
-0.96845531 -1.0345821 0.74256819
-0.95542771 -1.021015 0.57581812
-0.94312072 -1.0082085 0.42369121
-0.92684627 -0.99080747 0.28144431
-0.921148 -0.98505312 0.14807875
-0.026066428 -0.018657718 2.1391919
-0.16729973 -0.17215797 1.5266547
-0.21582037 -0.22396311 1.5187811
-0.34111243 -0.3571659 1.6260768
-0.44357792 -0.46661106 1.5762829
-1.1867437 -1.251565 3.2280724
-1.1203035 -1.1839571 2.4665825
-1.0867938 -1.1497366 1.9708096
-0.080728784 -0.076362513 1.7614839
-0.12367868 -0.12480621 1.5956641
-0.27771202 -0.28874052 1.5799733
-0.37385386 -0.39112476 1.5255637
