# .PCD v0.7 - Point Cloud Data file format
VERSION 0.7
FIELDS x y z
SIZE 4 4 4
TYPE F F F
COUNT 1 1 1
WIDTH 1598
HEIGHT 1
VIEWPOINT 0 0 0 1 0 0 0
POINTS 1598
DATA ascii
2.9661276 6.2863626 7.6136565
3.2847366 7.01546 7.6921263
4.0124373 8.581315 7.7207193
5.0944967 10.900414 7.9732437
6.3991675 13.704379 8.0036964
5.3785043 11.523782 5.2263799
10.568479 22.653891 7.4377208
11.637878 24.968916 5.3216062
10.214045 21.914093 2.2634976
4.3954401 9.3535938 9.2859526
4.4622273 9.5043173 7.728828
5.7237496 12.196794 8.0028543
10.308387 22.006094 8.5468378
10.759024 22.978525 6.2102499
0.30179706 0.6126467 4.3420315
0.31089422 0.63849765 3.4377103
0.97530127 2.0268648 7.2379298
1.3220502 2.7645335 7.2788105
1.553794 3.2607236 6.686667
1.9389361 4.0798707 6.7069883
2.7164516 5.7235451 7.6618285
0.38305733 0.78893137 3.414115
1.1775519 2.4448791 7.4337564
1.5005378 3.1306825 7.242198
1.7457726 3.6536961 6.6936698
2.4373126 5.1100769 7.5715756
2.990968 6.282093 7.621007
4.40308 9.319108 10.20839
4.0473504 8.577817 7.730135
5.1271639 10.871219 7.9650192
6.4016485 13.585785 7.9480453
5.422648 11.513326 5.2301264
10.808908 22.959734 7.5491133
10.235367 21.761137 2.2518735
3.6841664 7.7694306 7.7395949
4.5144129 9.5288639 7.7612028
5.7662897 12.17674 8.0028543
10.383122 21.965708 8.5451937
10.959603 23.195726 6.278245
0.29493546 0.59350216 4.2136111
0.30458578 0.62004721 3.3447008
0.98237038 2.023448 7.2379298
1.3333904 2.7634211 7.2880154
1.5662045 3.2574384 6.6910558
1.9531655 4.0730782 6.7069883
2.736414 5.7140284 7.6618285
0.38968116 0.79549026 3.4479911
1.1921135 2.4531703 7.4712982
1.5114566 3.1254256 7.242198
1.7596482 3.649929 6.6979361
2.4446814 5.0798168 7.5396552
3.0128782 6.2716141 7.621007
4.4340477 9.3004618 10.204885
4.0822873 8.5741796 7.7395501
5.1740651 10.872134 7.9787269
6.4090867 13.479344 7.8993506
10.917804 22.982525 7.5688539
12.452214 26.236145 5.6051226
10.311265 21.725277 2.2518735
3.6967604 7.7262111 7.7096653
4.5476475 9.5130482 7.7612028
5.806901 12.152648 8.0003214
10.459733 21.929329 8.5451937
11.053054 23.183653 6.2852783
0.30083904 0.60010803 4.2679429
0.30312899 0.61168277 3.3055391
0.98877078 2.018666 7.2331581
1.3438835 2.7605062 7.2926178
1.5807017 3.2584159 6.7042232
1.9661456 4.0637021 6.7028551
2.7563429 5.7044415 7.6618285
0.39245561 0.7941252 3.4479911
1.2090265 2.466038 7.5229192
1.5223572 3.1201305 7.242198
1.7735192 3.6461098 6.7022018
2.4742441 5.0956473 7.5755658
3.0391879 6.2702107 7.6320329
4.4649401 9.2817144 10.201382
4.1155629 8.5668945 7.7458272
5.1757836 10.778619 7.9238973
6.3928661 13.325089 7.8228297
5.8432488 12.190373 4.0635123
12.626467 26.365303 5.6414948
10.415001 21.747541 2.2576854
3.7237074 7.7132597 7.7096653
4.5843387 9.5043974 7.7670894
5.8474135 12.128421 7.997788
10.556696 21.935236 8.5616293
0.30117729 0.59558809 4.2432466
0.30571795 0.6115315 3.3104341
0.99581128 2.0152023 7.2331581
1.3552339 2.7593055 7.3018231
1.5941719 3.2571809 6.7130013
1.9803187 4.0568142 6.7028551
2.7762382 5.6947851 7.6618285
0.23221621 0.44739404 4.6581101
0.39578629 0.79387528 3.4528306
1.2153318 2.4571624 7.5088406
1.5342007 3.1167505 7.2466989
1.7873849 3.6422386 6.7064681
2.49997 5.1032152 7.5995054
3.0565886 6.2504277 7.621007
4.5050974 9.2821131 10.218904
4.1505351 8.5629835 7.7552428
5.198791 10.730383 7.9019656
6.4374108 13.298706 7.8205113
5.8565249 12.109444 4.0437717
12.682089 26.245876 5.6256399
10.508183 21.746925 2.2612622
3.7506089 7.7002144 7.7096653
4.617487 9.4883366 7.7670894
5.8859425 12.100183 7.9927216
10.957035 22.565166 8.8196602
7.9674168 16.415567 4.4916329
0.30254775 0.59314919 4.2333684
0.30555686 0.60591567 3.2859581
1.0021735 2.0103781 7.2283859
1.3665923 2.758059 7.311028
1.6076525 3.2558911 6.7217793
1.995711 4.0524015 6.7069883
2.7960999 5.6850595 7.6618285
0.23377649 0.44658071 4.6581101
0.40194485 0.79922593 3.4818671
1.2192782 2.4436405 7.4806843
1.5450708 3.111376 7.2466989
1.8000877 3.6359773 6.7064681
2.5257788 5.1106653 7.6234455
3.0798881 6.2427607 7.6246819
4.5374708 9.2663307 10.218904
4.1838202 8.5554371 7.7615199
5.2196889 10.678361 7.8772922
6.4799047 13.268193 7.8158736
13.05471 26.742476 12.111649
5.9134851 12.119105 4.0536423
12.90709 26.475208 5.6834626
10.599306 21.741446 2.2643917
3.7741714 7.6803727 7.7030144
4.6505795 9.4721613 7.7670894
5.9262457 12.075694 7.9901886
7.911376 16.156292 4.4295001
0.3031933 0.58932638 4.2136111
0.30813196 0.60575277 3.2908533
1.009185 2.0068676 7.2283859
1.3779585 2.7567668 7.3202333
1.6211438 3.2545469 6.7305579
2.0098443 4.0454106 6.7069883
2.8088043 5.6609087 7.6426411
0.23333977 0.44199249 4.6183381
0.86553454 1.7057165 7.4018006
1.2254729 2.4347453 7.4666061
1.5559222 3.1059637 7.2466989
1.8127686 3.6296716 6.7064681
2.5503256 5.1153016 7.6433959
3.0971289 6.2228661 7.6136565
4.576107 9.2632265 10.232923
4.2188249 8.5512524 7.7709346
5.2236419 10.592571 7.8279457
6.522264 13.237546 7.8112359
5.9493961 12.085477 4.0494118
12.997259 26.425585 5.6825299
10.692718 21.740067 2.2679684
3.8125668 7.690568 7.7262926
4.6836152 9.4558697 7.7670894
5.9664488 12.05107 7.9876556
5.49616 11.1158 5.8198552
0.30417404 0.58619583 4.1987934
0.30977947 0.60376775 3.2859581
1.0155087 2.0020015 7.2236137
1.3884526 2.7536845 7.3248358
1.6346452 3.2531483 6.7393355
2.0239532 4.0383701 6.7069883
2.8213739 5.6367388 7.6234531
0.2368885 0.4449378 4.6581101
0.86861932 1.6970904 7.3776035
1.2316206 2.4258368 7.4525275
1.5667545 3.1005137 7.2466989
1.8254274 3.6233215 6.7064681
2.5681658 5.1063681 7.6433959
3.1081839 6.1908097 7.5879302
4.6131859 9.2567711 10.243436
4.2538519 8.5469265 7.7803502
5.2494106 10.551811 7.8114972
6.5861773 13.2504 7.8321052
5.499619 11.069251 5.0821567
5.99368 12.068933 4.0508218
10.784033 21.733835 2.2710979
4.6744294 9.3469353 9.3890429
4.7184005 9.443079 7.7700329
6.0084782 12.03017 7.9876556
5.5349278 11.096546 5.8198552
11.45611 22.977444 9.0250988
0.30405492 0.58100098 4.169158
0.31141686 0.60177857 3.2810628
1.0218108 1.9971156 7.2188416
1.3989421 2.7505624 7.3294377
1.6481565 3.2516952 6.7481141
2.0380373 4.0312805 6.7069883
2.83092 5.6068273 7.596591
0.23717742 0.44176105 4.6332531
0.87626815 1.6973987 7.3921223
1.2377207 2.4169149 7.4384494
1.5785564 3.0969653 7.2512002
1.8380641 3.6169279 6.7064681
2.5859747 5.0973725 7.6433959
3.1420286 6.2041173 7.6173315
4.6518774 9.2533569 10.257454
4.2871532 8.5389833 7.7866273
5.2974644 10.555845 7.8279457
6.6482744 13.259007 7.850656
5.5818458 11.13702 5.1214905
13.084682 26.140926 5.6414948
10.875437 21.727234 2.2742274
4.7019825 9.3205614 9.3790665
4.7513342 9.4265509 7.7700329
6.0523744 12.012973 7.9901886
5.6327872 11.194732 5.8806987
11.50654 22.878252 9.0020885
0.30499217 0.57787508 4.1543403
0.31351557 0.60068786 3.2810628
1.0280913 1.9922104 7.2140698
1.4085348 2.7456625 7.3294377
1.6627678 3.2523191 6.761281
2.0533752 4.026649 6.7111211
2.8417463 5.5797749 7.573566
0.238718 0.44093046 4.6332531
0.88102657 1.6920998 7.382443
1.2453578 2.4110465 7.4337564
1.5893571 3.0914364 7.2512002
1.8506783 3.6104896 6.7064681
2.6037521 5.0883145 7.6433959
4.6906009 9.2497854 10.271472
4.3204503 8.5309105 7.7929039
5.3512759 10.570866 7.8526192
6.6765223 13.200144 7.8297868
5.5642123 11.005764 5.0709186
13.288768 26.318726 5.6890583
10.973659 21.733593 2.2786982
4.7480359 9.3307123 9.4056702
4.7860417 9.4135113 7.7729759
6.0942707 11.991774 7.9901886
5.7129111 11.255942 5.9226594
0.30262291 0.56857806 4.0950689
0.31513587 0.5986889 3.2761676
1.0343498 1.9872855 7.2092981
1.4181104 2.7407291 7.3294377
1.676306 3.2507527 6.7700596
2.0674183 4.0194569 6.7111211
2.8509538 5.5498638 7.5467033
0.23974405 0.43915915 4.6233101
0.88751221 1.690127 7.3872824
1.2537663 2.4066849 7.4337564
1.6001387 3.0858698 7.2512002
1.8644677 3.606324 6.7107339
2.62288 5.0818725 7.6473861
4.7504768 9.2197771 11.321898
4.7277322 9.2428799 10.281986
4.353744 8.5227098 7.799181
5.3919458 10.559569 7.8581023
6.7326245 13.196488 7.8413806
6.5840402 12.910807 5.9437518
6.6033764 12.954298 4.3638492
13.5433 26.591719 5.7571392
11.069797 21.735094 2.282722
4.7942166 9.3406563 9.4322748
4.8207159 9.4003439 7.7759185
6.1400251 11.978099 7.9952545
5.7873263 11.30461 5.9583263
6.5419188 12.784067 5.0872507
0.30975455 0.57710057 4.1642184
0.31674606 0.59668607 3.2712724
1.0419743 1.9849845 7.2140698
1.4267647 2.7340302 7.3248358
1.6909584 3.2512555 6.7832265
2.0814364 4.0122156 6.7111211
2.8703091 5.5398784 7.5467033
0.24101807 0.43785286 4.6183381
0.89340645 1.6870186 7.3872824
1.2613569 2.4007661 7.4290638
1.6119096 3.0821943 7.2557015
1.8770448 3.5997939 6.7107339
2.6406031 5.0726862 7.6473861
4.7841945 9.2061462 11.325573
4.7681422 9.2421675 10.299508
4.387033 8.5143814 7.8054581
5.4402599 10.562988 7.8745508
6.6290674 12.887746 5.9437518
6.6463614 12.926903 4.3624392
13.71909 26.70595 5.7916465
11.168354 21.740616 2.2871928
4.8302255 9.3304958 9.4389248
4.8553567 9.3870487 7.778862
6.1817994 11.956594 7.9952545
5.6893206 11.018186 5.8198552
6.5951672 12.777939 5.0938249
0.31028652 0.5732832 4.1444616
0.31834614 0.5946793 3.2663772
1.0474999 1.9786968 7.2045259
1.4362997 2.7290332 7.3248358
1.704522 3.2495749 6.7920046
2.0941243 4.0024323 6.7069883
2.8866603 5.5241437 7.5390282
0.24228594 0.43654308 4.6133671
0.89928985 1.6838897 7.3872824
1.2697295 2.3963485 7.4290638
1.6226586 3.0765491 7.2557015
1.8908128 3.5955279 6.7149997
2.6596942 5.0661054 7.6513753
4.8178744 9.1923933 11.329248
4.823421 9.2697582 10.348573
4.4203172 8.5059233 7.8117352
5.4790263 10.547645 7.8772922
10.48144 20.194916 11.99667
5.6706176 10.930431 5.063426
6.7002773 12.920658 4.3680792
11.267084 21.745716 2.2916634
4.869678 9.3268175 9.4522276
4.8899641 9.3736277 7.781805
6.225491 11.938765 7.997788
11.083941 21.283033 11.18038
6.6397305 12.75484 5.0938249
0.31489354 0.57696968 4.1790361
0.31945208 0.59177279 3.2565868
1.0565096 1.9789784 7.2188416
1.445817 2.7240031 7.3248358
1.7192147 3.2499566 6.805172
2.1080825 3.9950979 6.7069883
2.9074202 5.5168691 7.5428658
0.24354756 0.43522969 4.6083956
0.90516216 1.6807405 7.3872824
1.2780865 2.3919017 7.4290638
1.6344103 3.072788 7.2602029
1.903352 3.5889058 6.7149997
2.678772 5.0594535 7.6553655
4.8626065 9.1994972 11.358649
4.8789496 9.2970743 10.397636
4.4535947 8.4973364 7.8180113
5.5158114 10.528455 7.8772922
10.547759 20.150354 11.992032
6.7319994 12.871686 4.3596191
11.365988 21.750391 2.2961342
4.907424 9.3196735 9.462204
4.9245362 9.3600779 7.7847481
6.269134 11.920776 8.0003214
11.145502 21.220104 11.16779
6.679822 12.723223 5.0905375
0.31803036 0.57790869 4.1938543
0.32102865 0.58975989 3.2516916
1.0634111 1.9752785 7.2188416
1.4562387 2.7206621 7.3294377
1.7328033 3.2481616 6.8139501
2.1220152 3.987715 6.7069883
2.9296684 5.5123477 7.5505409
0.24454065 0.43344876 4.5984521
0.91162354 1.6786753 7.3921223
1.2856094 2.3859065 7.4243712
1.6451263 3.0670643 7.2602029
1.915868 3.5822399 6.7149997
2.6964166 5.0500717 7.6553655
4.8994732 9.1914425 11.369675
3.6151774 6.8308654 7.6746035
4.4868665 8.4886208 7.8242884
5.5525284 10.509137 7.8772922
10.665599 20.203516 12.045364
14.20042 26.922138 9.0366974
11.465059 21.754639 2.3006051
4.9469299 9.3156757 9.4755058
4.9590735 9.3464022 7.7876916
6.2602115 11.803612 7.9369917
11.319354 21.36957 11.266399
6.7153554 12.683136 5.0839634
15.063197 28.46147 7.8573565
0.32230943 0.58087051 4.2234898
0.32259518 0.58774328 3.2467964
1.07671 1.9833608 7.2617898
1.4657267 2.7155621 7.3294377
1.747535 3.2484205 6.827117
2.135922 3.9802835 6.7069883
2.9519205 5.5077376 7.5582156
0.24578825 0.43212944 4.5934811
0.91506243 1.6710731 7.3727646
1.293106 2.3798883 7.4196782
1.6558223 3.0613029 7.2602029
1.9295989 3.5778263 6.7192659
2.7154567 5.043282 7.6593556
4.9395537 9.1892147 11.388051
3.6238866 6.7898884 7.6430621
4.5201321 8.4797764 7.8305655
5.591145 10.493382 7.880034
10.644462 19.994112 11.943337
14.384423 27.041811 9.0930996
11.568973 21.767256 2.30597
4.9864683 9.3115177 9.4888077
4.9954824 9.3361626 7.7935781
6.2790117 11.739874 7.9091268
11.421679 21.381968 11.293674
6.853003 12.83457 5.1529908
15.217381 28.511629 7.8854918
0.32775205 0.58584332 4.2679429
0.32365817 0.58483225 3.2370059
1.0857772 1.9835184 7.2761054
1.476131 2.7121453 7.3340406
1.7600055 3.244406 6.8315063
2.1498027 3.9728036 6.7069883
2.972652 5.5002198 7.5620532
0.2470296 0.43080664 4.5885096
0.9184593 1.6634674 7.3534069
1.3005762 2.3738465 7.4149852
1.6675404 3.0574155 7.2647038
1.9420761 3.571069 6.7192659
2.7330446 5.0337725 7.6593556
4.9764462 9.1808577 11.399076
3.6391151 6.7614965 7.6255398
4.5552335 8.4742327 7.8399811
5.6277394 10.473801 7.880034
10.764479 20.050507 11.998989
14.750838 27.498707 9.2623024
11.666058 21.766243 2.3099937
5.0260382 9.3071966 9.5021095
5.0299606 9.3222256 7.7965212
6.2810731 11.645797 7.8609967
11.534987 21.413891 11.331439
6.9537301 12.914515 5.1940784
15.220062 28.278576 7.8362546
0.3263568 0.57860625 4.2234898
0.32520118 0.58280987 3.2321105
1.0963013 1.9862502 7.2999654
1.4855891 2.7069762 7.3340406
1.7782165 3.2508497 6.857841
2.1650054 3.9677455 6.7111211
2.9964349 5.4982529 7.573566
0.24826472 0.42948046 4.5835381
0.92242575 1.6569567 7.3388882
1.3080201 2.3677816 7.4102926
1.6782027 3.0515761 7.2647038
1.9545296 3.5642681 6.7192659
2.7520461 5.026845 7.6633458
5.014967 9.1753302 11.413776
3.6609938 6.7456174 7.622035
4.5903506 8.468545 7.8493962
5.6662574 10.457768 7.8827753
10.836511 20.016705 12.001307
15.481226 28.620022 9.6542921
11.756172 21.751677 2.3126762
5.0674238 9.3059921 9.5187378
5.0644026 9.3081617 7.7994642
6.2784343 11.544273 7.8077993
11.588003 21.333614 11.310458
6.9672227 12.832064 5.1710696
0.32760578 0.57611305 4.2136111
0.32673407 0.5807839 3.2272153
1.1046799 1.9850198 7.3095098
1.4959751 2.7034833 7.3386431
1.7964934 3.2572055 6.8841753
2.1869812 3.9749565 6.7359185
3.0125217 5.482142 7.5658908
0.24949357 0.42815089 4.5785661
0.92574269 1.6493424 7.3195305
1.3145976 2.3601863 7.400907
1.6899003 3.0476034 7.2692051
1.9682213 3.559706 6.7235317
2.7695763 5.0172076 7.6633458
5.0535097 9.1696453 11.428477
5.0558715 9.2386656 10.429177
4.625484 8.4627171 7.8588119
5.7027273 10.437926 7.8827753
10.961503 20.079849 12.061597
7.6952653 14.108287 4.8136497
11.827262 21.701759 2.3117821
5.105268 9.2980642 9.5287132
5.0988069 9.2939701 7.8024073
6.2689466 11.431573 7.7470031
11.666761 21.300997 11.314654
7.5562201 13.801755 5.5655122
0.3288413 0.57361811 4.2037325
0.32825673 0.57875431 3.2223201
1.1123327 1.9824536 7.3142819
1.5054029 2.698245 7.3386431
1.8136725 3.2613802 6.9061208
2.2322409 4.0238953 6.8309765
3.0331931 5.4743962 7.5697284
0.25071624 0.42681804 4.573595
0.9296369 1.6428193 7.3050122
1.3202931 2.3510695 7.3868289
1.700528 3.0416858 7.2692051
1.980635 3.5528138 6.7235317
2.7870727 5.0075097 7.6633458
5.0937204 9.1667662 11.446854
5.0846438 9.214715 10.422168
4.6606321 8.4567461 7.8682265
5.7411456 10.421619 7.8855166
11.050752 20.076389 12.082465
5.1449275 9.2932549 9.542016
5.1331744 9.2796526 7.8053503
6.2670932 11.334171 7.6963401
11.714715 21.212467 11.289478
7.7161756 13.977863 5.6460438
0.3300634 0.57112163 4.1938543
0.32976925 0.57672119 3.2174249
1.1207161 1.9811571 7.3238254
1.5157703 2.6946764 7.343246
1.8391018 3.2800975 6.9587898
2.327322 4.1609793 7.0748205
3.0460308 5.4525824 7.554378
0.25220457 0.42594028 4.573595
0.93411988 1.6373808 7.2953339
1.325941 2.3419414 7.3727503
1.7111351 3.0357316 7.2692051
1.9930245 3.5458786 6.7235317
2.8045352 4.9977508 7.6633458
5.1323152 9.1607599 11.461554
5.1271811 9.2156086 10.443194
4.6976857 8.4540348 7.8807807
5.7774887 10.401515 7.8855166
11.112166 20.0222 12.073191
12.376371 22.30924 10.395951
6.3279438 11.411245 3.9253292
5.180975 9.2817593 9.548667
5.1655354 9.2616777 7.8053503
6.2940235 11.289635 7.6811404
11.835056 21.254717 11.333537
7.6914306 13.818809 5.5934515
0.33127213 0.5686236 4.1839757
0.33178037 0.57556659 3.2174249
1.129104 1.9798263 7.3333697
1.5270947 2.6927676 7.3524508
1.8446472 3.2632332 6.9368443
2.4137104 4.2802892 7.2897339
3.0540345 5.4223671 7.5275154
0.25341624 0.42459983 4.5686235
0.93794924 1.6308414 7.2808151
1.3409519 2.3492882 7.4102926
1.7217214 3.0297401 7.2692051
2.0053899 3.5388999 6.7235317
2.8234475 4.9905529 7.667336
5.1725974 9.157548 11.47993
5.1697869 9.2163172 10.464223
4.734777 8.451169 7.8933349
5.8137617 10.381285 7.8855166
12.460959 22.27804 10.401569
6.2389812 11.158798 3.8477771
5.2188363 9.2733784 9.5586433
5.1998143 9.2471132 7.8082933
6.3270564 11.256323 7.6735415
6.1843538 11.020423 4.48737
0.33246747 0.56612414 4.1740975
0.33327562 0.57352477 3.2125297
1.1389843 1.9810489 7.3524575
1.5384245 2.6908128 7.3616557
1.8583986 3.2609358 6.9456224
2.4508898 4.3109784 7.3558607
3.3388398 5.8799257 8.1722164
0.25489682 0.42371264 4.5686235
0.94237506 1.6253828 7.2711363
1.3551695 2.3550627 7.4431419
1.7322867 3.0237114 7.2692051
2.0177307 3.5318785 6.7235317
2.8408506 4.9806671 7.667336
5.2145977 9.1571121 11.501981
5.2089481 9.2106314 10.47824
4.7738199 8.4515352 7.9090271
5.8499641 10.360928 7.8855166
5.6882148 10.082658 6.1463375
12.818744 22.731091 10.631953
7.9904342 14.174982 4.8728709
5.2530169 9.2583523 9.5619688
5.234055 9.2324228 7.8112369
6.3620591 11.226666 7.6684747
6.248363 11.043979 4.5054483
6.4341612 11.376998 3.2431147
0.33364934 0.56362325 4.1642184
0.33527553 0.57235795 3.2125297
1.1488868 1.9822266 7.3715453
1.549759 2.6888113 7.3708606
1.8721564 3.2585824 6.954401
2.4673223 4.3048382 7.3599939
0.25609753 0.42236471 4.563652
0.9467743 1.6199131 7.2614574
1.3729075 2.3667374 7.4947624
1.7428309 3.0176463 7.2692051
2.0287454 3.5225539 6.7192659
2.8582191 4.9707203 7.667336
5.2515941 9.1476746 11.513006
5.2481337 9.2047863 10.492259
4.812923 8.4517317 7.9247189
5.8840256 10.33681 7.8827753
5.7189956 10.05504 6.1417003
6.294539 11.071433 5.2338719
6.1863713 10.885588 3.7702255
5.2908645 9.2496824 9.5719452
5.2662501 9.2140961 7.8112369
6.4033475 11.208135 7.6710081
13.591228 23.827997 9.6364832
6.473835 11.354469 3.2431147
0.33441943 0.56045395 4.1494007
0.33727142 0.57118416 3.2125297
1.1588117 1.9833596 7.3906336
1.56208 2.6884527 7.3846684
1.8823191 3.2499549 6.9500117
2.4823341 4.2961993 7.3599939
3.4919574 6.0508008 8.4408417
0.2575703 0.4214682 4.563652
0.95178491 1.6155154 7.256618
1.3811607 2.3619306 7.4947624
1.7533538 3.0115442 7.2692051
2.041029 3.5154507 6.7192659
2.8740413 4.9581056 7.6633458
5.2987771 9.1556959 11.546082
5.2891178 9.201869 10.509781
4.854023 8.4551325 7.9435501
5.9200721 10.316208 7.8827753
5.7254138 9.9850588 6.1115556
6.266293 10.932754 5.1795545
8.0367346 14.027282 4.8418503
5.3380413 9.2570343 9.5985498
5.3003988 9.1991596 7.8141799
6.4445834 11.18945 7.6735415
6.9934649 12.157143 6.5709577
13.754355 23.919594 9.6923628
6.515852 11.336016 3.244287
0.33557218 0.55795187 4.1395221
0.33926314 0.57000339 3.2125297
1.1687582 1.984447 7.4097214
1.5684927 2.6779265 7.3708606
1.9033129 3.2599106 6.9851241
2.4973156 4.2875085 7.3599939
3.5211163 6.0524268 8.4600296
0.25903994 0.42056653 4.563652
0.9567765 1.6111026 7.2517786
1.3885207 2.3556085 7.4900694
1.7638555 3.0054057 7.2692051
2.0532877 3.5083048 6.7192659
2.8943715 4.9532471 7.6713262
5.3426619 9.1576405 11.571809
5.3301463 9.1987791 10.527304
4.8796077 8.4314003 7.937273
5.9560461 10.29548 7.8827753
5.7291965 9.9113197 6.0790925
12.995773 22.491245 10.583254
8.1192389 14.057298 4.8615904
5.3815808 9.2577124 9.6185026
5.332478 9.1806021 7.8141799
6.4879313 11.174342 7.6786075
7.0108142 12.089471 6.5478797
13.873289 23.932716 9.7170162
6.5821891 11.359465 3.2571826
0.33671159 0.55544859 4.1296439
0.34177485 0.56968856 3.2174249
1.175678 1.980355 7.4097214
1.5738573 2.6657059 7.3524508
1.9207549 3.2635672 7.0070696
2.5108418 4.2763386 7.3558607
3.543843 6.0428643 8.4638672
0.26050639 0.41965976 4.563652
0.96174866 1.6066744 7.2469392
1.3967347 2.3507471 7.4900694
1.7743354 2.9992301 7.2692051
2.0641961 3.4988694 6.7149997
2.9039969 4.9301319 7.6513753
5.3712173 9.1955147 10.544827
4.909009 8.4143152 7.937273
5.9919481 10.274627 7.8827753
5.7436862 9.8568144 6.0582232
13.151203 22.577938 10.645064
5.4251895 9.2581978 9.6384554
5.3665338 9.1654196 7.8171229
6.5312529 11.159067 7.6836739
7.0483904 12.057088 6.5436835
14.002011 23.961609 9.7482424
6.562963 11.23569 3.2290468
8.4746513 14.508459 2.4356754
0.33783758 0.55294412 4.1197653
0.34376135 0.56849205 3.2174249
1.1825837 1.9762391 7.4097214
1.5801554 2.6551597 7.3386431
1.9394672 3.2692008 7.0334039
2.5257535 4.2675481 7.3558607
3.5730708 6.0442524 8.4830542
0.26196969 0.41874787 4.563652
0.96670181 1.6022314 7.2420998
1.4049318 2.3458574 7.4900694
1.7859089 2.9948881 7.2737064
2.0750639 3.4894016 6.7107339
2.9150352 4.9096012 7.635416
5.4123302 9.1920748 10.562349
4.9146729 8.3568678 7.8996115
6.0277767 10.253649 7.8827753
13.087807 22.280939 13.612873
13.084401 22.284037 10.528936
6.1434989 10.467181 3.6574228
5.4688683 9.2584944 9.6584082
5.3984942 9.1466312 7.8171229
6.567975 11.132487 7.6811404
14.013668 23.790525 9.6989374
6.5355549 11.099623 3.1973944
8.5528812 14.525727 2.4432728
0.33854255 0.54977721 4.1049476
0.34627387 0.56815791 3.2223201
1.1894748 1.9720992 7.4097214
1.5853938 2.6429265 7.3202333
1.957013 3.2726886 7.0553493
2.5406346 4.2587056 7.3558607
3.5990696 6.0400038 8.4945669
0.26371449 0.41828156 4.5686235
0.97228873 1.5988472 7.2420998
1.4140038 2.3424163 7.4947624
1.7963521 2.988636 7.2737064
2.0858908 3.4799001 6.7064681
2.9089439 4.8606124 7.5755658
3.5567181 5.9523664 7.5952806
5.4534845 9.1884604 10.579872
4.9259501 8.3095274 7.8713651
6.0635319 10.232546 7.8827753
13.183556 22.26561 13.631423
13.155023 22.226261 10.523317
5.5107031 9.2553883 9.6750355
5.432456 9.1312056 7.8200665
11.527066 19.383015 13.337729
14.103859 23.753643 9.703867
6.4626217 10.888648 3.14464
8.5908966 14.474492 2.4398196
0.33840942 0.54529202 4.0802512
0.34878823 0.56781322 3.2272153
1.197127 1.9692105 7.4144931
1.5905663 2.6306891 7.3018231
1.9746069 3.2760935 7.0772948
2.555485 4.2498112 7.3558607
3.6267326 6.0383949 8.5099173
0.26517296 0.41735846 4.5686235
0.97786379 1.5954435 7.2420998
1.4230688 2.3389404 7.499455
1.8067735 2.9823472 7.2737064
2.0966766 3.4703653 6.7022018
2.9009898 4.8091464 7.5117254
3.5827212 5.9486265 7.6063061
5.4983411 9.1907911 10.604404
4.9349604 8.2588701 7.8399811
6.0992131 10.211317 7.8827753
13.265737 22.227064 13.636061
13.341785 22.36334 10.609477
5.5525837 9.2521038 9.6916628
5.4642968 9.1121874 7.8200665
11.59244 19.338963 13.335196
14.138189 23.623228 9.6709976
8.6693354 14.491162 2.447417
0.33948618 0.54279035 4.0703731
0.35130444 0.5674578 3.2321105
1.2039936 1.9650198 7.4144931
1.6027895 2.6301258 7.3156304
1.9922483 3.2794151 7.0992403
2.5703039 4.2408648 7.3558607
3.6494482 6.02844 8.5137539
0.26662821 0.41643029 4.5686235
0.98342699 1.5920204 7.2420998
1.4321266 2.3354299 7.504148
1.8171729 2.9760222 7.2737064
2.1074209 3.4607978 6.6979361
2.8895812 4.7526455 7.4399047
3.6105015 5.9476771 7.621007
5.5340724 9.1776505 10.611414
4.9476943 8.2149191 7.8148737
6.1369772 10.193547 7.8855166
13.343244 22.180622 13.636061
13.414989 22.308687 10.60573
6.2725434 10.435167 3.6687033
5.5945086 9.2486391 9.7082911
5.4960713 9.0930576 7.8200665
11.99649 19.855515 13.717706
6.2968168 10.434277 5.7212467
14.142511 23.444344 9.6184044
0.33723259 0.5350306 4.0209799
0.35382235 0.56709176 3.2370059
1.2116297 1.9620752 7.4192653
1.6150281 2.629509 7.3294377
2.0099368 3.2826533 7.1211858
2.5850918 4.2318668 7.3558607
3.6821556 6.0348182 8.540617
0.26779079 0.41504937 4.563652
0.98897815 1.588578 7.2420998
1.4420848 2.3333526 7.5135336
1.8275501 2.969661 7.2737064
2.1181242 3.4511979 6.6936698
2.8919835 4.7194076 7.4039946
3.6312406 5.9350381 7.621007
5.580893 9.1826572 10.63945
4.9763398 8.1975985 7.8148737
6.1638441 10.157763 7.8745508
13.471115 22.217243 13.687075
13.572074 22.392553 10.667541
5.6267581 9.2290545 9.7082911
5.523572 9.0669136 7.8141799
12.141959 19.938702 13.803834
6.311974 10.377336 5.7023644
15.117247 24.863537 10.216642
0.34159961 0.53778434 4.0506158
0.35634199 0.566715 3.2419009
1.2184713 1.9578338 7.4192653
1.6437353 2.6554167 7.4168863
2.0276721 3.2858078 7.1431308
2.599848 4.2228174 7.3558607
3.7031987 6.0219278 8.540617
0.26865608 0.4132188 4.553709
0.99451727 1.585116 7.2420998
1.4511334 2.3297691 7.5182261
1.8379049 2.9632635 7.2737064
2.1301584 3.4437833 6.6936698
2.9084399 4.7092838 7.4039946
3.6679502 5.9482965 7.6540833
5.6110497 9.16008 10.635945
4.9947667 8.1635771 7.799181
6.1665392 10.082679 7.8334289
13.555516 22.181425 13.694031
13.650157 22.345043 10.667541
5.6745777 9.2348061 9.7348948
5.5509582 9.0406876 7.8082933
12.240797 19.943958 13.836765
6.345787 10.35137 5.7002664
15.282899 24.939459 10.269235
0.34431311 0.53789705 4.0604939
0.35886329 0.56632757 3.2467964
1.2252979 1.9535687 7.4192653
1.6736766 2.6828127 7.5089359
2.0454535 3.2888782 7.1650763
2.6145723 4.2137165 7.3558607
3.7225082 6.0062399 8.5367794
0.26980433 0.41183284 4.5487375
1.0000443 1.5816349 7.2420998
1.461092 2.3276126 7.5276117
1.8493913 2.9586761 7.2782078
2.1435461 3.4385397 6.6979361
2.9296372 4.7067771 7.4159646
3.7012174 5.9556122 7.6798096
5.6205077 9.104022 10.59389
5.023232 8.1460915 7.799181
6.1797562 10.025497 7.8060141
13.57246 22.035908 13.633742
13.764531 22.356474 10.695636
5.689085 9.1863718 9.7049656
5.5761018 9.0109463 7.7994642
12.317143 19.912107 13.844365
6.2053518 10.043441 5.5450101
0.34703162 0.53799742 4.0703731
0.36138621 0.56592941 3.2516916
1.2329074 1.9505414 7.424037
1.6840712 2.6786084 7.5135388
2.0632815 3.2918651 7.1870217
2.6292651 4.2045646 7.3558607
0.27124023 0.41088855 4.5487375
1.0048835 1.5770744 7.2372603
1.4673628 2.3195815 7.5182261
1.8597078 2.9522026 7.2782078
2.1583109 3.4354534 6.7064681
2.9428468 4.6914172 7.4079847
3.7255833 5.9484029 7.68716
5.6315284 9.0510406 10.55534
5.0228734 8.0822258 7.7552428
6.1749959 9.9399319 7.7566676
13.67266 22.026033 13.65693
13.827818 22.284655 10.684398
5.721117 9.1664572 9.7049656
5.6053829 8.9879961 7.7965212
12.386575 19.868992 13.844365
6.2283773 10.002457 5.5345201
0.34933117 0.53743404 4.0753117
0.36391079 0.56552064 3.2565868
1.2405106 1.9474849 7.4288092
1.7017765 2.6859157 7.5503588
2.0798757 3.292742 7.2045779
2.6439259 4.1953611 7.3558607
5.4923611 8.7252064 12.420334
0.27237725 0.40949568 4.543766
1.009024 1.5714418 7.2275815
1.4745229 2.3129902 7.5135336
1.8700016 2.945693 7.2782078
2.1814506 3.4455261 6.7405953
2.9592049 4.6811156 7.4079847
3.7445149 5.9324951 7.6834846
5.6308808 8.9799633 10.495763
5.0324607 8.034955 7.7269964
6.1763711 9.8651533 7.7155457
13.782352 22.030746 13.689393
7.7161913 12.338939 5.968101
5.7033801 9.0674191 9.6218281
5.6345716 8.9649534 7.7935781
12.460443 19.832933 13.849431
0.34992698 0.534262 4.0604939
0.36643684 0.56510103 3.261482
1.2473011 1.9431428 7.4288092
1.7132446 2.6832521 7.5595641
2.0965016 3.2935436 7.2221346
2.6585541 4.1861062 7.3558607
5.4884448 8.6518507 12.343584
0.27380499 0.40854239 4.543766
1.0131373 1.5657995 7.2179027
1.481655 2.3063774 7.5088406
1.8802727 2.9391475 7.2782078
2.2650087 3.5500197 6.958158
2.9739079 4.6682167 7.4039946
3.7652001 5.9193883 7.6834846
5.6450467 8.9331217 10.464223
5.0355468 7.9778419 7.6893349
6.1795316 9.7940254 7.6771655
13.863896 21.99 13.694031
7.6578736 12.151125 5.8913064
10.087332 16.012241 5.6526189
5.7030125 8.9969978 9.5686197
5.6636677 8.9418154 7.7906346
12.557268 19.833023 13.879829
6.2446861 9.874342 5.4883628
0.34836346 0.52785081 4.0209799
0.36896443 0.56467068 3.2663772
1.254887 1.9400303 7.4335814
1.7257719 2.6821845 7.5733719
2.111865 3.292253 7.235302
2.6746669 4.1791706 7.3599939
5.5048003 8.6110344 12.312884
0.2755281 0.40802565 4.5487375
1.0158504 1.5580422 7.198545
1.4793804 2.2852569 7.4572201
1.8905207 2.9325662 7.2782078
2.3535535 3.6605513 7.188518
2.990185 4.6578074 7.4039946
3.7858396 5.906209 7.6834846
5.6359663 8.8501921 10.390627
5.0487399 7.9372258 7.6673656
6.1665654 9.6982956 7.6195941
13.959576 21.971384 13.712582
10.156018 15.997181 5.6596689
5.7002125 8.9235439 9.5120869
5.6926708 8.9185839 7.7876916
12.72149 19.938066 13.983689
6.3815632 10.013231 5.5764809
8.8045702 13.82575 2.3783491
0.34374565 0.51692957 3.9468911
0.37149343 0.56422949 3.2712724
1.2616514 1.9356382 7.4335814
1.7372499 2.6794224 7.5825772
2.1285448 3.2929063 7.2528582
2.6892388 4.1698089 7.3599939
5.4983726 8.535182 12.232296
0.27695072 0.4070614 4.5487375
1.0212828 1.5544866 7.198545
1.4769764 2.2641807 7.4056001
1.9007459 2.9259491 7.2782078
2.4017701 3.7070324 7.2951665
3.0064254 4.6473413 7.4039946
3.8064332 5.8929582 7.6834846
5.6360073 8.7824421 10.334554
5.0680137 7.9064469 7.6548123
6.1755672 9.6379843 7.5894384
14.205775 22.187397 13.877216
6.7104053 10.48474 5.117744
10.260917 16.038408 5.68646
14.213552 22.233677 2.4620006
5.6969709 8.8502197 9.4555531
5.7237682 8.8986588 7.7876916
12.898252 20.060331 14.100216
6.4238348 10.002351 5.5827751
8.9169674 13.894956 2.3949251
0.34121993 0.50927353 3.8974986
0.37515023 0.56547421 3.2859581
1.2692198 1.9324698 7.4383531
1.7487293 2.6766129 7.5917816
2.1426408 3.28947 7.2616363
2.7037778 4.1603966 7.3599939
5.4967179 8.4675446 12.16322
0.27836993 0.40609217 4.5487375
1.0280906 1.5530083 7.2082238
1.484871 2.2590113 7.4056001
1.9097553 2.917475 7.2737064
2.4232507 3.7117295 7.3207626
3.0242751 4.6393428 7.4079847
3.8251309 5.8767939 7.6798096
5.6317716 8.7088127 10.271472
5.0998049 7.895247 7.6610885
6.1910267 9.5882664 7.5675068
14.501685 22.476404 14.088227
6.704248 10.395021 5.0859027
10.335033 16.030716 5.6963301
14.291077 22.183928 2.4620006
5.6953182 8.7801609 9.4023447
5.7525969 8.8752327 7.7847481
13.134625 20.272051 14.280072
6.4241881 9.9265242 5.5534024
9.2223253 14.261024 4.1868305
9.0299549 13.963546 2.4115016
0.34299555 0.50807935 3.8974986
0.37882018 0.56670016 3.3006437
1.2759576 1.9280277 7.4383531
1.7602104 2.6737559 7.600987
2.1567385 3.2859752 7.2704148
2.7198257 4.1532874 7.3641272
0.27948248 0.40467966 4.543766
1.0349005 1.5515013 7.2179027
1.4908414 2.250937 7.396214
1.9199276 2.9107909 7.2737064
2.4390585 3.7076054 7.3292942
3.040451 4.628758 7.4079847
3.8456213 5.8634057 7.6798096
5.6290369 8.6383076 10.211895
5.1337037 7.8871841 7.6705041
6.2244577 9.566597 7.5675068
7.5261593 11.580454 5.668416
10.409223 16.022701 5.7062006
14.528407 22.38035 2.4883783
5.6891613 8.70397 9.3424854
5.7835417 8.8550978 7.7847481
13.273651 20.330755 14.353534
6.5480485 10.040895 5.6289325
9.274703 14.232818 4.1880026
0.33602098 0.49403378 3.7987137
0.38079605 0.56537437 3.3006437
1.2835082 1.9248039 7.4431252
1.7706128 2.6692233 7.6055894
2.1708379 3.2824216 7.279192
2.7343066 4.1437683 7.3641272
0.28089336 0.40370163 4.543766
1.0424138 1.5510091 7.2324209
1.4977316 2.2442839 7.3915215
1.9300765 2.9040716 7.2737064
2.4505446 3.6968951 7.3250279
3.0565896 4.6181164 7.4079847
3.8679342 5.8527751 7.6834846
5.6239219 8.5649462 10.148813
5.1740122 7.8887444 7.6893349
6.2578139 9.5448112 7.5675068
7.5030417 11.457154 5.6215901
14.671866 22.429522 2.4991081
5.6907568 8.6404037 9.295929
5.8144169 8.834856 7.7847481
9.3510075 14.240986 4.1997261
8.5537043 13.026742 2.2657681
0.33115035 0.48324686 3.7246246
0.8409586 1.2387564 7.2217207
1.2868891 1.915356 7.424037
1.7831765 2.6678991 7.6193976
2.1822824 3.2748241 7.279192
2.7503123 4.1365414 7.3682599
0.28199446 0.40228242 4.5387945
1.0492312 1.5494423 7.2420998
1.5103714 2.2462022 7.4149852
1.9402018 2.8973165 7.2737064
2.4634342 3.6883185 7.3250279
3.0726914 4.6074185 7.4079847
3.8883405 5.8392372 7.6834846
5.6183639 8.4917288 10.085732
5.2165394 7.8933659 7.7113037
6.2910933 9.5229092 7.5675068
14.911969 22.589491 14.255181
9.7375774 14.773439 3.4507699
14.780218 22.423908 2.5040259
5.6754608 8.552043 9.2227678
5.845221 8.8145056 7.7847481
8.5909262 12.984415 2.2636962
0.32355794 0.46866494 3.6209002
0.84240276 1.2316117 7.1972442
1.2893826 1.9046719 7.400177
1.7902956 2.6584175 7.6101923
2.1950355 3.2691748 7.2835813
2.764735 4.1269159 7.3682599
0.28308907 0.40086046 4.5338225
1.0567589 1.548885 7.256618
1.5201389 2.2437735 7.4243712
1.9503036 2.8905263 7.2737064
2.4762938 3.6796968 7.3250279
3.0887556 4.5966649 7.4079847
3.9087 5.8256292 7.6834846
5.6084075 8.4127188 10.01564
5.24406 7.8751082 7.7113037
6.324296 9.5008907 7.5675068
7.7410889 11.638096 7.4031272
9.7646284 14.702531 3.4423761
15.054019 22.666718 2.5357687
5.6513171 8.4514818 9.1363049
5.8781996 8.7974091 7.7876916
11.581002 17.365013 7.3536496
8.6142235 12.921386 2.2581706
0.31453589 0.45222914 3.502358
0.84265149 1.2227954 7.1629782
1.2934998 1.8964604 7.3858614
1.7995642 2.6521521 7.6101923
2.2064338 3.2614927 7.2835813
2.7791238 4.11724 7.3682599
3.5023599 5.19452 7.5774035
0.28417724 0.39943582 4.5288515
1.0635834 1.5472584 7.2662969
1.5328267 2.24558 7.447835
1.9616053 2.8855011 7.2782078
2.4891231 3.6710305 7.3250279
3.1047821 4.585855 7.4079847
3.9290113 5.8119497 7.6834846
5.6198425 8.3664465 9.9840994
5.2736869 7.8599882 7.7144423
6.3574224 9.4787569 7.5675068
7.7496071 11.563167 7.372983
9.8268185 14.684687 3.4461067
5.9088726 8.7768373 7.7876916
6.8673754 10.215919 5.777894
11.644181 17.328402 7.3552933
8.6620359 12.895348 2.2588613
0.31254277 0.44603974 3.4628439
0.8492381 1.2231919 7.182559
1.2950388 1.8845524 7.3572292
1.8077084 2.6442413 7.6055894
2.2178049 3.2537711 7.2835813
2.7934787 4.1075139 7.3682599
3.5150673 5.1743083 7.5658908
0.28525889 0.39800841 4.52388
1.071125 1.5466362 7.2808151
1.5416337 2.2416372 7.4525275
1.9716657 2.8786364 7.2782078
2.5019224 3.6623197 7.3250279
3.1207709 4.5749898 7.4079847
3.9492745 5.7981997 7.6834846
5.61903 8.3024788 9.931531
5.3010912 7.8415313 7.7144423
6.3904705 9.4565077 7.5675068
7.814713 11.572757 7.3961711
9.8890028 14.666588 3.4498372
4.84409 7.1359711 7.7628732
5.9394736 8.7561579 7.7876916
6.8902669 10.173097 5.7674036
8.4591894 12.498891 3.7307987
0.30243832 0.4284482 3.3344233
0.85116762 1.2168828 7.1629782
1.3024591 1.8812476 7.3620014
1.8025204 2.6169996 7.5457573
2.2305052 3.2479839 7.2879705
2.8077993 4.0977378 7.3682599
3.5421598 5.1752324 7.5850787
0.28633404 0.39657831 4.5189085
1.0779561 1.5449495 7.290494
1.5465004 2.2319872 7.4384494
1.9817021 2.8717365 7.2782078
2.5146911 3.653564 7.3250279
3.1367214 4.5640683 7.4079847
3.9694901 5.7843785 7.6834846
5.6218572 8.2445097 9.885972
5.3306217 7.8261962 7.7175808
6.4281473 9.4410563 7.5729895
7.8924389 11.600345 7.430953
9.9456596 14.640105 3.4517026
4.860538 7.1066909 7.7495708
5.9700022 8.7353725 7.7876916
6.925736 10.148983 5.7674036
8.5191975 12.493382 3.7378328
0.29897484 0.42042729 3.2800913
0.85482359 1.2130722 7.1580825
1.3141422 1.8840353 7.3906336
1.8060751 2.6026666 7.5227442
2.2418292 3.2401781 7.2879705
2.8220863 4.0879121 7.3682599
3.5602028 5.1628361 7.5850787
0.28740266 0.39514562 4.5139365
1.0847882 1.5432339 7.3001728
1.5473673 2.2166705 7.4056001
1.9917141 2.8648014 7.2782078
2.5274291 3.6447637 7.3250279
3.1526339 4.553091 7.4079847
3.9896572 5.7704873 7.6834846
5.6223297 8.1836843 9.8369083
5.3579078 7.8075414 7.7175808
6.4492369 9.4013195 7.5592823
7.8502321 11.45215 7.3544326
10.005026 14.61746 3.4545004
4.8916712 7.0989051 7.7595477
6.0027494 8.7178087 7.7906346
0.29862913 0.41685557 3.2603343
0.85787362 1.2084205 7.1482925
1.3275774 1.8892068 7.4288092
1.7983572 2.5723295 7.4537063
2.2531259 3.2323329 7.2879705
2.8363385 4.0780363 7.3682599
3.5708876 5.1398482 7.5697284
0.28878024 0.39413998 4.5139365
1.0916215 1.5414894 7.3098516
1.5481461 2.201375 7.3727503
2.0017021 2.8578317 7.2782078
2.5401363 3.6359193 7.3250279
3.1702321 4.5445304 7.4119749
4.0097756 5.7565255 7.6834846
5.6224465 8.1229563 9.7878447
5.3873425 7.7919931 7.7207193
7.824708 11.329907 7.2941437
10.069932 14.602666 3.4591634
4.9164214 7.0817866 7.7595477
6.033144 8.6968021 7.7906346
0.30235773 0.41895965 3.2850308
0.86149424 1.2045906 7.1433969
1.3402019 1.8930889 7.462213
1.8152008 2.5772169 7.4859238
2.264395 3.2244484 7.2879705
2.8489416 4.0658064 7.3641272
3.592483 5.1326036 7.5774035
0.29015428 0.39312953 4.5139365
1.0977259 1.5386926 7.3146915
1.549835 2.1875095 7.344594
2.0129206 2.8526056 7.2827086
2.5483096 3.6206326 7.3122306
3.1860764 4.5334363 7.4119749
4.0298452 5.7424936 7.6834846
5.6222076 8.0623264 9.738781
5.4145088 7.77314 7.7207193
10.112435 14.555326 3.4563656
4.938971 7.061522 7.7562222
6.047256 8.6524982 7.7700329
0.30244654 0.41601706 3.2702129
0.86569375 1.201576 7.1433969
1.3537362 1.8981209 7.5003886
1.8366225 2.5883908 7.536552
2.2742531 3.2145693 7.2835813
2.8631165 4.0558367 7.3641272
3.6196132 5.1331296 7.596591
0.29184321 0.3925418 4.5189085
1.1045575 1.5368928 7.3243699
1.5474353 2.1680405 7.2976661
2.0228658 2.8455617 7.2827086
2.5594234 3.6095877 7.3079648
3.2018816 4.5222874 7.4119749
4.0518231 5.7311606 7.68716
5.6216149 8.0017996 9.6897173
5.4416094 7.7541928 7.7207193
10.211067 14.58835 3.4722199
4.9592891 7.0381341 7.7495708
6.0611329 8.6082029 7.7494307
0.30435637 0.41558543 3.2751522
0.86928451 1.1977228 7.1385016
1.3612247 1.8945962 7.5051608
1.8592802 2.6010356 7.5917816
2.2854605 3.2066112 7.2835813
2.8772566 4.0458179 7.3641272
3.6208026 5.0969467 7.5620532
0.29321164 0.39152071 4.5189085
1.11139 1.535064 7.3340492
1.5549939 2.162626 7.2976661
2.0327864 2.8384831 7.2827086
2.5583639 3.581532 7.2695713
3.2193973 4.513536 7.4159646
4.0718036 5.7169819 7.68716
5.6186085 7.9384646 9.6371498
5.4686432 7.7351508 7.7207193
8.1318283 11.523357 4.2355361
10.239282 14.520503 3.4647591
4.962214 6.9903345 7.7163162
6.0607429 8.5441341 7.7111692
0.30534351 0.41389546 3.2702129
0.87346005 1.1946812 7.1385016
1.3704556 1.8934606 7.5194769
1.8717732 2.5992858 7.6055894
2.2952428 3.1966686 7.279192
2.8913615 4.0357499 7.3641272
0.29457656 0.39049482 4.5189085
1.1182232 1.533206 7.3437276
1.5574714 2.1501973 7.2742023
2.0426819 2.8313704 7.2827086
2.5632336 3.5619955 7.2482419
3.2333746 4.499824 7.4119749
4.0917349 5.702734 7.68716
5.6172981 7.8781514 9.5880861
5.4956102 7.7160144 7.7207193
8.1581049 11.475353 4.2284861
4.9713807 6.9517107 7.693038
6.0670295 8.4900398 7.6817374
9.9599009 13.963297 6.0585647
0.30678642 0.41282707 3.2702129
0.87702107 1.1908052 7.1336069
1.3770567 1.8886653 7.5194769
1.8762461 2.5864108 7.5871792
2.3063874 3.1886373 7.279192
2.907078 4.027914 7.3682599
5.4876599 7.6117263 11.311296
0.29593781 0.38946417 4.5189085
1.1250569 1.5313191 7.3534069
1.5659847 2.1461415 7.2788949
2.0525529 2.8242228 7.2827086
2.5649359 3.5382452 7.2183795
3.2490623 4.4885101 7.4119749
4.1136022 5.691164 7.690835
5.613555 7.8150477 9.5355167
5.522511 7.696784 7.7207193
8.1645947 11.400005 4.2115655
4.9803386 6.9131088 7.6697588
6.0682898 8.4294453 7.64642
10.000314 13.91694 6.0536337
0.30822557 0.41175368 3.2702129
0.88117242 1.1877365 7.1336069
1.3845247 1.8850499 7.5242486
1.8783466 2.5703819 7.5595641
2.3175035 3.180567 7.279192
2.9211204 4.0177422 7.3682599
5.5010114 7.5743709 11.284432
0.29729551 0.38842878 4.5189085
1.1318909 1.5294031 7.3630853
1.5724446 2.1392717 7.2742023
2.0623989 2.8170407 7.2827086
2.5680428 3.5166335 7.1927843
3.2558331 4.4649677 7.392024
4.1334434 5.6767702 7.690835
5.6094413 7.7520685 9.4829493
5.5493441 7.6774597 7.7207193
8.1622362 11.313084 4.1904154
4.993474 6.8805728 7.653132
6.0692015 8.368947 7.6111016
10.048833 13.881948 6.0536337
0.30919287 0.41005513 3.2652738
0.88531303 1.1846535 7.1336069
1.3910964 1.8802055 7.5242486
1.8849909 2.560663 7.5503588
2.3285918 3.1724579 7.279192
2.935127 4.0075207 7.3682599
5.4895658 7.5033855 11.207683
0.29832372 0.38696679 4.5139365
1.1387255 1.5274582 7.3727646
1.5819564 2.1365435 7.2835879
2.0722196 2.8098245 7.2827086
2.574121 3.4992452 7.1757212
3.2392888 4.409863 7.3202033
4.1532335 5.6623073 7.690835
5.6007547 7.6834488 9.4233723
5.5761099 7.6580429 7.7207193
8.1791143 11.253479 4.1791348
4.9976292 6.8359733 7.6232023
6.0673804 8.3052797 7.5728407
10.010978 13.728507 6.0026855
0.31062233 0.40897337 3.2652738
0.8894428 1.1815559 7.1336069
1.3985431 1.8765351 7.5290208
1.8892629 2.5477905 7.531949
2.3410752 3.1662359 7.2835813
2.9490979 3.997251 7.3682599
5.4891019 7.4480553 11.153957
0.2993454 0.38550237 4.5089655
1.1448053 1.524479 7.3776035
1.596627 2.140691 7.3164372
2.0820153 2.8025739 7.2827086
2.5816615 3.4839518 7.1629229
4.1729736 5.6477752 7.690835
5.5958796 7.6207342 9.3708038
5.602807 7.6385317 7.7207193
8.2155132 11.220989 4.1777248
5.0192466 6.8154802 7.6198769
6.0603981 8.235218 7.5286937
0.31157553 0.40726972 3.2603343
0.89417708 1.1792552 7.1385016
1.4050848 1.8716419 7.5290208
1.8958067 2.5380499 7.5227442
2.3521132 3.1580448 7.2835813
2.9613547 3.984674 7.3641272
5.4825869 7.3850985 11.08872
0.30003166 0.38361591 4.4990225
1.1501197 1.5204737 7.3776035
1.619639 2.1557992 7.3868289
2.090481 2.7935464 7.2782078
2.5984874 3.481189 7.1757212
3.053901 4.0972266 6.8414011
4.1926622 5.6331744 7.690835
5.5906353 7.5581479 9.3182354
5.6271234 7.6157966 7.7175808
9.8373499 13.333344 6.7828703
8.2574787 11.196104 4.1791348
5.0363331 6.7889223 7.6099005
6.072257 8.1912842 7.508091
10.033546 13.559588 5.9599538
0.31252065 0.40556446 3.2553949
0.89828801 1.1761267 7.1385016
1.4116095 1.8667258 7.5290208
1.8964318 2.5204892 7.4905267
2.3631225 3.1498153 7.2835813
2.9718726 3.9698071 7.3558607
5.4756994 7.322279 11.023482
0.3007085 0.38172939 4.4890795
1.1554202 1.5164497 7.3776035
1.641734 2.1693966 7.4525275
2.1002195 2.7862322 7.2782078
2.61219 3.4741817 7.179986
3.0573292 4.072084 6.817461
4.2123003 5.618505 7.690835
4.6006007 6.1745067 7.6465669
5.6536727 7.596108 7.7175808
9.9529667 13.391946 6.8296962
8.2965107 11.167212 4.1791348
5.07341 6.7892461 7.6298532
6.0838842 8.1473665 7.4874887
10.120325 13.577486 5.9829631
0.31345767 0.40385756 3.2504559
0.90238798 1.172984 7.1385016
1.4181172 1.8617871 7.5290208
1.9087589 2.5185254 7.5043344
2.3741033 3.1415472 7.2835813
2.980629 3.9526684 7.343462
5.4877257 7.2851992 10.99662
0.30137572 0.37984279 4.4791365
1.1599411 1.5114102 7.3727646
1.6576666 2.1746316 7.4900694
2.1086161 2.7771504 7.2737064
2.6274509 3.4692006 7.188518
3.0751595 4.0661931 6.8254404
4.2318869 5.6037669 7.690835
4.6285477 6.1669664 7.6570807
5.6778193 7.5732131 7.7144423
10.124678 13.524124 6.9139829
8.3584337 11.168909 4.1904154
5.1015697 6.7774615 7.6365047
6.1074276 8.1196213 7.4816031
10.167658 13.542077 5.9829631
0.3148655 0.40276092 3.2504559
0.9071008 1.1706318 7.1433969
1.4246073 1.8568256 7.5290208
1.916353 2.5102942 7.4997315
2.3850546 3.1332409 7.2835813
2.9893014 3.9355178 7.3310633
5.4898734 7.2353582 10.950569
0.30170038 0.37754011 4.464222
1.1652099 1.507352 7.3727646
1.6652472 2.1688321 7.4900694
2.1182973 2.769773 7.2737064
2.6411264 3.4620814 7.1927843
3.1550708 4.1417251 6.9690819
4.2534747 5.5916591 7.6945105
4.6521969 6.1536169 7.6605854
5.7042203 7.5533471 7.7144423
8.4002571 11.143496 4.1918254
5.1319637 6.768538 7.6464806
6.1284108 8.0885868 7.4727736
10.306017 13.627026 6.0355549
9.1750193 12.135973 3.7601066
0.31578842 0.40104917 3.2455165
0.91118151 1.1674583 7.1433969
1.4310802 1.8518413 7.5290208
1.9262949 2.5051384 7.5043344
2.3959773 3.1248965 7.2835813
2.9961812 3.9161193 7.3145313
5.4956326 7.1906843 10.912194
0.30201262 0.37523979 4.4493074
1.1704644 1.5032755 7.3727646
1.6770309 2.1684661 7.5088406
2.1279526 2.762362 7.2737064
2.6547844 3.4549091 7.1970501
3.3180909 4.3243232 7.2922735
4.2729673 5.5767779 7.6945105
4.6736484 6.1373405 7.6605854
5.7305512 7.5333896 7.7144423
8.5145302 11.213438 4.2284861
5.1600909 6.7565174 7.653132
6.1615114 8.0735712 7.4786596
10.373553 13.617264 6.0470595
9.1702099 12.042001 3.7413495
0.31718642 0.39994442 3.2455165
0.91588056 1.1650709 7.1482925
1.4375355 1.8468347 7.5290208
1.9362237 2.4999433 7.5089359
2.4068706 3.116514 7.2835813
3.014986 3.9123242 7.3269305
5.4972367 7.1409802 10.866145
0.30231246 0.37294188 4.4343925
1.1764805 1.5001698 7.3776035
1.6856505 2.1639602 7.5135336
2.1375821 2.7549174 7.2737064
2.6668284 3.445621 7.1970501
3.3884468 4.3842397 7.4119749
4.3027644 5.5752473 7.7128859
4.7015548 6.129478 7.6710987
5.756813 7.513341 7.7144423
8.6264772 11.278907 4.2637372
5.1881976 6.7443838 7.6597829
6.1896563 8.0520153 7.4786596
10.429646 13.592209 6.0519905
8.6649961 11.29654 2.077903
0.31809527 0.39822799 3.2405775
0.92057407 1.162665 7.1531878
1.4448944 1.84298 7.5337925
1.9485438 2.4977906 7.5227442
2.4177346 3.1080933 7.2835813
3.0320752 3.9062216 7.3351965
5.4965973 7.0888186 10.816257
0.30428743 0.37270957 4.4443359
1.1817099 1.4960539 7.3776035
1.6953245 2.1607783 7.5229192
2.1471856 2.7474389 7.2737064
2.6820467 3.4404049 7.2055826
3.4055808 4.3747625 7.4159646
4.3097153 5.5441346 7.690835
4.7251024 6.1158509 7.6746035
5.7830043 7.4931998 7.7144423
11.820834 15.338621 7.9123087
8.6950703 11.286728 4.2778373
5.2139955 6.7291837 7.6631083
6.2202001 8.0335569 7.4816031
10.430826 13.495939 6.0256944
9.2689133 11.99692 3.7472112
8.6559343 11.203526 2.0668523
0.31948343 0.39711523 3.2405775
0.92526186 1.1602404 7.1580825
1.4476182 1.8332396 7.5147047
1.9500084 2.4817569 7.4951291
2.4285691 3.0996349 7.2835813
3.045692 3.8956141 7.3351965
5.497633 7.0392752 10.770207
0.30185843 0.36711934 4.3896489
1.1869248 1.4919199 7.3776035
1.7049966 2.1575551 7.5323043
2.1581094 2.7416377 7.2782078
2.6924286 3.4289706 7.2013164
3.420831 4.3628483 7.4159646
4.3332214 5.5343952 7.698185
4.7508025 6.1049495 7.6816125
5.8091254 7.4729676 7.7144423
8.7726469 11.305577 4.2961679
5.237453 6.7109423 7.6631083
6.2482047 8.011795 7.4816031
10.405354 13.366293 5.9846067
8.691947 11.169334 2.0661616
0.32037815 0.39539415 3.2356379
0.92994386 1.1577973 7.1629782
1.4493625 1.8223342 7.4908452
1.955022 2.4703393 7.4813213
2.4393742 3.0911388 7.2835813
3.0592718 3.884959 7.3351965
5.4944272 6.9847736 10.716482
0.30381879 0.36688393 4.3995924
1.1921254 1.4877677 7.3776035
1.7146671 2.1542909 7.5416903
2.1676664 2.7340877 7.2782078
2.7108524 3.4277332 7.2183795
3.4341717 4.348516 7.4119749
4.3399181 5.503264 7.6761341
4.7742839 6.0911355 7.6851172
5.8351755 7.4526443 7.7144423
11.970461 15.310507 7.9404049
8.7086658 11.142599 4.2468166
9.1313696 11.691837 1.4247773
5.2631536 6.6955543 7.6664333
6.2761331 7.9899359 7.4816031
8.0772419 10.301316 4.6451464
8.6942244 11.092156 2.0578735
0.32126477 0.39367175 3.2306988
0.93462026 1.1553358 7.1678734
1.4501151 1.8102742 7.462213
1.9526732 2.4497507 7.439899
2.4501493 3.0826049 7.2835813
3.0465834 3.8411849 7.2732015
5.4928994 6.9328923 10.666595
1.1973114 1.4835973 7.3776035
1.7254146 2.1523316 7.5557685
2.1785553 2.7282054 7.2827086
2.7276762 3.4243698 7.2311778
3.4512057 4.33886 7.4159646
4.3527761 5.4801173 7.6651092
4.7933068 6.0716343 7.6816125
5.8611546 7.4322305 7.7144423
11.851743 15.050099 7.828023
8.5902472 10.91236 4.1720848
9.3907137 11.937772 2.9751337
9.1259413 11.60118 1.418071
5.2864933 6.6771412 7.6664333
6.3064923 7.971149 7.4845457
10.507193 13.304441 5.9895372
0.32164958 0.39134794 3.2208204
0.9392907 1.1528555 7.1727686
1.4498637 1.7970695 7.4288092
1.9697741 2.4535835 7.472116
2.4608946 3.0740335 7.2835813
3.0336273 3.7975483 7.2112074
5.4910765 6.8811073 10.616707
1.2024828 1.4794089 7.3776035
1.7361696 2.1503234 7.5698466
2.1894295 2.7222807 7.28721
2.7526693 3.4311013 7.265305
3.4663303 4.326787 7.4159646
4.3591714 5.4490061 7.6430578
4.812252 6.0520735 7.6781077
5.8870621 7.411726 7.7144423
11.88692 14.986842 7.8167844
8.4494658 10.656774 4.0874829
9.2584457 11.685455 2.9219744
5.3074412 6.6557293 7.6631083
6.3267217 7.9396033 7.4757166
8.5840254 10.791626 4.8883862
9.5020657 11.950034 3.7730021
0.32251787 0.38962454 3.2158809
0.94395512 1.1503568 7.1776633
1.4504793 1.7850469 7.400177
1.9832406 2.4527693 7.4905267
2.4716101 3.0654244 7.2835813
3.0433366 3.7825506 7.2029414
5.484942 6.8244224 10.559144
1.2076396 1.4752024 7.3776035
1.7458427 2.1469276 7.5792322
2.200289 2.7163131 7.2917113
2.7761035 3.4356716 7.2951665
3.4814122 4.314661 7.4159646
4.3781652 5.4337568 7.6430578
4.8288898 6.0296712 7.6710987
5.9128981 7.3911314 7.7144423
11.942053 14.94888 7.8186574
5.3306417 6.6371617 7.6631083
6.346808 7.9080138 7.466887
10.534863 13.149686 5.9533796
11.409305 14.246254 4.4928055
