# .PCD v0.7 - Point Cloud Data file format
VERSION 0.7
FIELDS x y z
SIZE 4 4 4
TYPE F F F
COUNT 1 1 1
WIDTH 1392
HEIGHT 1
VIEWPOINT 0 0 0 1 0 0 0
POINTS 1392
DATA ascii
-0.39398029 -0.17887832 1.4304255
-0.51274323 -0.23422173 1.3875793
-0.66653472 -0.3055383 1.4109938
-0.96966505 -0.4456597 1.6399928
-0.94803005 -0.43630791 1.3261089
-0.095838405 -0.037845552 1.6217175
-0.15101732 -0.065255642 1.4912626
-0.34816903 -0.15659481 1.5073819
-0.4377473 -0.1985251 1.3613169
-0.62750286 -0.28594187 1.4896463
-0.96693814 -0.44196463 1.8091755
-0.9503653 -0.43517914 1.4588583
-0.9439714 -0.43303508 1.2041698
-0.94239932 -0.4357003 1.1000748
-0.92466271 -0.42807752 0.90399176
-0.90500814 -0.41916531 0.73851454
-0.90155405 -0.41793942 0.6067248
-0.91336733 -0.42360345 0.49509901
-0.89235926 -0.41404429 0.37909663
-0.89104414 -0.41380653 0.27799615
-0.89411157 -0.41522819 0.18145041
-0.93241614 -0.42950049 0.99548054
-0.92370135 -0.42586905 0.82417381
-0.90195763 -0.41603026 0.66930163
-0.8868674 -0.40962517 0.53905708
-0.90070742 -0.41620231 0.43447638
-0.88694406 -0.41002494 0.32638884
-0.87640947 -0.4051522 0.22688057
-0.87491703 -0.40464202 0.13256088
-0.030648584 -0.0074418318 2.0791943
-0.2062549 -0.090644918 1.432809
-0.25909367 -0.11516461 1.3866099
-0.3946023 -0.17750198 1.4304255
-0.5117777 -0.23162529 1.3829768
-0.66759723 -0.30320978 1.4109938
-0.96865368 -0.44110614 1.63586
-0.94663084 -0.43166628 1.3222713
-0.09596993 -0.037510782 1.6217175
-0.15124419 -0.064728096 1.4912626
-0.34871352 -0.15537852 1.5073819
-0.43843764 -0.19699587 1.3613169
-0.63048142 -0.28464523 1.4941475
-0.94709253 -0.42890513 1.7707821
-0.94913447 -0.43061429 1.4548682
-0.9423908 -0.42833468 1.2004945
-0.94067216 -0.43092293 1.0965703
-0.9226135 -0.42322445 0.90085334
-0.90646583 -0.41600367 0.73851454
-0.89898193 -0.41294089 0.604406
-0.90641558 -0.41654116 0.49135295
-0.89379907 -0.41092685 0.37909663
-0.89248317 -0.41069368 0.27799615
-0.89103156 -0.41002285 0.18100333
-0.93051291 -0.42469299 0.99215508
-0.92150563 -0.42096269 0.82123065
-0.89948356 -0.41108754 0.66676843
-0.88416493 -0.40463835 0.53695905
-0.90215474 -0.41305572 0.43447638
-0.88836986 -0.40692642 0.32638884
-0.87331611 -0.40002826 0.2261899
-0.87632418 -0.40158549 0.13256088
-0.030674374 -0.0073348028 2.0791943
-0.20657004 -0.089924403 1.432809
-0.25856191 -0.11384991 1.3817147
-0.39521948 -0.17612348 1.4304255
-0.51258308 -0.22983745 1.3829768
-0.66646731 -0.29989505 1.4066046
-0.96762234 -0.4365651 1.631727
-0.94813186 -0.4283593 1.3222713
-0.096100278 -0.037175559 1.6217175
-0.1514692 -0.064199761 1.4912626
-0.34810361 -0.15365331 1.5025425
-0.4375459 -0.1947629 1.3566241
-0.63544577 -0.28421977 1.50315
-0.91764933 -0.41171995 1.715325
-0.94788337 -0.42606339 1.4508783
-0.94388026 -0.42504254 1.2004945
-0.93892312 -0.4261629 1.0930656
-0.92054164 -0.41839096 0.89771485
-0.90410596 -0.41110632 0.73577309
-0.89638597 -0.40796542 0.6020872
-0.90364486 -0.41145363 0.48947993
-0.89522803 -0.40780443 0.37909663
-0.89391136 -0.40757585 0.27799615
-0.88792616 -0.40484414 0.18055625
-0.92858756 -0.41990405 0.98882955
-0.92296946 -0.41774347 0.82123065
-0.90091306 -0.40794525 0.66676843
-0.88557196 -0.40154958 0.53695905
-0.89929074 -0.40795338 0.43283287
-0.88535875 -0.40181422 0.32521653
-0.87470716 -0.39697737 0.2261899
-0.87772065 -0.39852411 0.13256088
-0.03069979 -0.0072276848 2.0791943
-0.20688269 -0.089202791 1.432809
-0.25895774 -0.11294667 1.3817147
-0.3944661 -0.17414047 1.4256535
-0.51338226 -0.22804679 1.3829768
-0.66751009 -0.2975668 1.4066046
-0.96657121 -0.43203664 1.6275939
-0.94669563 -0.42373776 1.3184339
-0.096229456 -0.036839876 1.6217175
-0.15169239 -0.063670643 1.4912626
-0.3474859 -0.15193424 1.4977031
-0.43822309 -0.1932344 1.3566241
-0.64041489 -0.28376317 1.5121523
-0.88571483 -0.39368662 1.6556019
-0.94661206 -0.42152646 1.4468882
-0.94226199 -0.42036411 1.1968194
-0.93715239 -0.42142043 1.0895611
-0.91844738 -0.41357711 0.89457643
-0.90553546 -0.40794793 0.73577309
-0.89780456 -0.40483397 0.6020872
-0.89662391 -0.4044843 0.48573387
-0.89664608 -0.40467703 0.37909663
-0.89085191 -0.40243077 0.27706355
-0.8893339 -0.40174225 0.18055625
-0.92664009 -0.41513366 0.98550397
-0.92073387 -0.41286549 0.81828749
-0.89839834 -0.40303364 0.66423523
-0.88282835 -0.39659622 0.53486103
-0.89640212 -0.40287605 0.43118936
-0.88675594 -0.39872131 0.32521653
-0.87608755 -0.39392167 0.2261899
-0.87455022 -0.39340833 0.13235934
-0.030724833 -0.0071204789 2.0791943
-0.20719281 -0.088480093 1.432809
-0.2584154 -0.11163897 1.3768195
-0.39507157 -0.17276245 1.4256535
-0.51596349 -0.22703989 1.3875793
-0.66635376 -0.29426771 1.4022156
-0.96550024 -0.42752081 1.623461
-0.94816899 -0.4204306 1.3184339
-0.096357472 -0.036503751 1.6217175
-0.15191372 -0.063140742 1.4912626
-0.34686047 -0.15022135 1.4928637
-0.43889493 -0.19170353 1.3566241
-0.64738196 -0.28415 1.525656
-0.85366601 -0.3758814 1.5958788
-0.94532073 -0.4170036 1.4428982
-0.94372362 -0.41707245 1.1968194
-0.93536007 -0.41669548 1.0860566
-0.9163307 -0.40878299 0.89143795
-0.90695399 -0.4047845 0.73577309
-0.89516771 -0.3998909 0.5997684
-0.89379787 -0.39946052 0.48386082
-0.8936739 -0.39958662 0.37768659
-0.89225119 -0.39931867 0.27706355
-0.88618529 -0.39660117 0.18010917
-0.9246707 -0.41038206 0.98217851
-0.92216939 -0.40964901 0.81828749
-0.8997997 -0.39989519 0.66423523
-0.88420731 -0.39351216 0.53486103
-0.893489 -0.3978239 0.42954585
-0.88370228 -0.39364576 0.32404423
-0.87745726 -0.39086115 0.2261899
-0.87591815 -0.39035317 0.13235934
-0.030749502 -0.0070131854 2.0791943
-0.20750038 -0.087756313 1.432809
-0.25880352 -0.11073625 1.3768195
-0.3956722 -0.17138235 1.4256535
-0.51675284 -0.22523746 1.3875793
-0.66737694 -0.29193991 1.4022156
-0.96440959 -0.42301783 1.619328
-0.94963074 -0.41711831 1.3184339
-0.096213005 -0.036068484 1.6167258
-0.1521332 -0.062610082 1.4912626
-0.34391648 -0.14752474 1.4783454
-0.43956143 -0.19017035 1.3566241
-0.64437687 -0.2801531 1.5166535
-0.82150406 -0.35830495 1.5361557
-0.94677055 -0.4137013 1.4428982
-0.94206816 -0.41241631 1.1931442
-0.93680888 -0.41342792 1.0860566
-0.91419184 -0.40400869 0.88829952
-0.90453702 -0.39992544 0.73303157
-0.89250708 -0.3949711 0.59744954
-0.89518678 -0.39633814 0.48386082
-0.89506328 -0.39646468 0.37768659
-0.88914895 -0.39421076 0.27613091
-0.8830117 -0.391487 0.17966209
-0.92267948 -0.40564933 0.97885299
-0.91989404 -0.40479961 0.81534433
-0.89724469 -0.395015 0.6617021
-0.88557553 -0.3904233 0.53486103
-0.89487225 -0.39470261 0.42954585
-0.88507098 -0.39055866 0.32404423
-0.87881625 -0.38779587 0.2261899
-0.87727541 -0.38729328 0.13235934
-0.030730229 -0.0069033792 2.0741944
-0.20708838 -0.086732246 1.4278697
-0.25825065 -0.10943566 1.3719243
-0.39626804 -0.17000015 1.4256535
-0.51753592 -0.22343227 1.3875793
-0.6661942 -0.28865662 1.3978266
-0.96588033 -0.4196488 1.619328
-0.94814193 -0.41252238 1.3145963
-0.096338317 -0.035732418 1.6167258
-0.15185666 -0.061878804 1.4862911
-0.3421151 -0.1453415 1.4686666
-0.44022256 -0.18863483 1.3566241
-0.64135176 -0.27618062 1.5076511
-0.81556708 -0.35233286 1.5233579
-0.94544345 -0.40919721 1.4389081
-0.9403916 -0.40777677 1.1894691
-0.9349786 -0.40872702 1.0825521
-0.91203088 -0.39925432 0.88516104
-0.90592754 -0.39676559 0.73303157
-0.89388037 -0.39185327 0.59744954
-0.8923192 -0.39134905 0.4819878
-0.8920489 -0.39141053 0.37627655
-0.89051956 -0.39110464 0.27613091
-0.88437283 -0.38840231 0.17966209
-0.92066658 -0.40093544 0.97552752
-0.92130142 -0.40158612 0.81534433
-0.89466667 -0.39015761 0.6591689
-0.8827737 -0.3855134 0.53276294
-0.89191735 -0.38968599 0.42790234
-0.88642889 -0.38746682 0.32404423
-0.88016456 -0.3847259 0.2261899
-0.8740446 -0.38222694 0.13215782
-0.030754138 -0.0067960685 2.0741944
-0.20738986 -0.086008839 1.4278697
-0.25863108 -0.10853352 1.3719243
-0.39685902 -0.16861588 1.4256535
-0.52010918 -0.22239213 1.3921819
-0.66719776 -0.28632942 1.3978266
-0.9647544 -0.41516256 1.615195
-0.94957608 -0.40921021 1.3145963
-0.096190482 -0.035299126 1.6117342
-0.15207173 -0.061348349 1.4862911
-0.34030268 -0.14317262 1.4589877
-0.44087836 -0.18709703 1.3566241
-0.6383068 -0.27223271 1.4986488
-0.81199634 -0.3474324 1.5148261
-0.9468661 -0.40589452 1.4389081
-0.93869418 -0.40315402 1.1857939
-0.93639958 -0.40546083 1.0825521
-0.90984792 -0.39451998 0.88202262
-0.90347093 -0.39193687 0.73029011
-0.89117938 -0.38696641 0.59513074
-0.89367986 -0.38823184 0.4819878
-0.88901025 -0.38638228 0.37486652
-0.88737488 -0.38603422 0.27519831
-0.88115668 -0.38332638 0.17921501
-0.92206043 -0.39771929 0.97552752
-0.91898668 -0.39676571 0.81240118
-0.89602315 -0.38703224 0.6591689
-0.88411403 -0.3824296 0.53276294
-0.89327216 -0.38657025 0.42790234
-0.8833155 -0.38243908 0.32287189
-0.88150215 -0.38165116 0.2261899
-0.87537342 -0.37917361 0.13215782
-0.030734094 -0.006686551 2.0691948
-0.20768884 -0.08528439 1.4278697
-0.25900838 -0.10763007 1.3719243
-0.3974452 -0.16722956 1.4256535
-0.52088231 -0.22057526 1.3921819
-0.66598892 -0.28306216 1.3934375
-0.96619773 -0.41179243 1.615195
-0.94805062 -0.40463501 1.3107588
-0.096313111 -0.034963142 1.6117342
-0.15228495 -0.060817149 1.4862911
-0.33731878 -0.14053534 1.4444695
-0.44152874 -0.18555692 1.3566241
-0.63724768 -0.26915622 1.4941475
-0.80359846 -0.34052646 1.4977623
-0.94550341 -0.40140948 1.4349182
-0.93697602 -0.3985481 1.1821188
-0.93453169 -0.40078428 1.0790474
-0.91121948 -0.39134163 0.88202262
-0.9048335 -0.3887808 0.73029011
-0.89252466 -0.38385323 0.59513074
-0.89502954 -0.38510996 0.4819878
-0.89035356 -0.3832767 0.37486652
-0.88420564 -0.38099054 0.27426568
-0.88248932 -0.38024822 0.17921501
-0.92000949 -0.3930316 0.972202
-0.9166494 -0.39196631 0.80945796
-0.8934052 -0.38220674 0.6566357
-0.88127172 -0.37755394 0.53066492
-0.89461613 -0.38344979 0.42790234
-0.8846451 -0.37935337 0.32287189
-0.87827772 -0.3766202 0.22549921
-0.8766917 -0.37611571 0.13215782
-0.030713657 -0.0065772566 2.0641949
-0.20798527 -0.084558904 1.4278697
-0.25844058 -0.10633862 1.3670291
-0.39664844 -0.16526756 1.4208815
-0.52164912 -0.21875569 1.3921819
-0.66697294 -0.2807357 1.3934375
-0.96503663 -0.40732315 1.6110622
-0.94945729 -0.40132326 1.3107588
-0.096434571 -0.034626734 1.6117342
-0.15200007 -0.060090531 1.4813195
-0.33548287 -0.13839944 1.4347906
-0.44217375 -0.18401457 1.3566241
-0.63818336 -0.26693016 1.4941475
-0.79756743 -0.33469236 1.4849646
-0.94689882 -0.3981066 1.4349182
-0.93523717 -0.39395908 1.1784436
-0.93592501 -0.39751974 1.0790474
-0.90899813 -0.38663515 0.87888414
-0.90233749 -0.38398278 0.72754866
-0.88978368 -0.37899959 0.59281194
-0.89636838 -0.3819834 0.4819878
-0.88727319 -0.37828511 0.37345648
-0.88553017 -0.37790179 0.27426568
-0.8838113 -0.37716547 0.17921501
-0.92137587 -0.38981777 0.972202
-0.91801202 -0.38876423 0.80945796
-0.89473391 -0.37908584 0.6566357
-0.88258427 -0.37447542 0.53066492
-0.8916024 -0.3784796 0.42625883
-0.88148999 -0.37436312 0.32169959
-0.87958699 -0.37355217 0.22549921
-0.87799925 -0.37305319 0.13215782
-0.03073643 -0.006470006 2.0641949
-0.20900035 -0.08412157 1.432809
-0.25881019 -0.10543585 1.3670291
-0.39722291 -0.16388199 1.4208815
-0.5224095 -0.21693346 1.3921819
-0.66794884 -0.27840582 1.3934375
-0.96645254 -0.40395206 1.6110622
-0.95085239 -0.39800656 1.3107588
-0.096554853 -0.034289904 1.6117342
-0.15220891 -0.05955958 1.4813195
-0.33480006 -0.1367528 1.4299512
-0.4428134 -0.18246996 1.3566241
-0.64112252 -0.26553357 1.4986488
-0.7939139 -0.32990515 1.4764327
-0.94550085 -0.39364091 1.4309281
-0.93347764 -0.38938707 1.1747683
-0.93401951 -0.39286777 1.0755429
-0.91034222 -0.38345981 0.87888414
-0.90367234 -0.38083071 0.72754866
-0.89110118 -0.37589136 0.59281194
-0.90196753 -0.38065463 0.48386082
-0.88858825 -0.37518564 0.37345648
-0.88231915 -0.37289613 0.27333307
-0.88512242 -0.37407809 0.17921501
-0.91928709 -0.38515648 0.96887648
-0.91563594 -0.38399434 0.8065148
-0.89605176 -0.37596032 0.6566357
-0.88388604 -0.37139234 0.53066492
-0.89291811 -0.37536499 0.42625883
-0.8827914 -0.37128386 0.32169959
-0.8808856 -0.37047955 0.22549921
-0.87929606 -0.36998612 0.13215782
-0.030715225 -0.0063610086 2.059195
-0.20929271 -0.08339151 1.432809
-0.25917667 -0.10453179 1.3670291
-0.39641047 -0.16193041 1.4161096
-0.52316362 -0.21510859 1.3921819
-0.66891658 -0.27607253 1.3934375
-0.96785671 -0.40057603 1.6110622
-0.9492749 -0.39345795 1.3069214
-0.096400648 -0.033859666 1.6067425
-0.15191828 -0.058836706 1.476348
-0.33410984 -0.13511263 1.4251118
-0.44344765 -0.18092316 1.3566241
-0.64405978 -0.26411971 1.50315
-0.78782493 -0.32415539 1.4636348
-0.94686913 -0.39033812 1.4309281
-0.93483114 -0.38612625 1.1747683
-0.93538517 -0.38960505 1.0755429
-0.90808278 -0.37878147 0.87574571
-0.90499622 -0.37767395 0.72754866
-0.88832033 -0.37107119 0.59049314
-0.90329069 -0.37750384 0.48386082
-0.88989246 -0.37208161 0.37345648
-0.88361543 -0.36981398 0.27333307
-0.89101672 -0.37290874 0.17966209
-0.92062593 -0.38194522 0.96887648
-0.91323775 -0.37924573 0.80357164
-0.89337772 -0.37117636 0.65410256
-0.88098681 -0.36656135 0.52856684
-0.88986337 -0.37043115 0.42461532
-0.88408202 -0.36820009 0.32169959
-0.87760192 -0.3654986 0.22480853
-0.87597054 -0.36499304 0.13195628
-0.030737242 -0.0062537538 2.059195
-0.20958252 -0.082660429 1.432809
-0.25953996 -0.10362645 1.3670291
-0.39697328 -0.16054569 1.4161096
-0.52391124 -0.21328111 1.3921819
-0.66987622 -0.27373591 1.3934375
-0.96924907 -0.39719513 1.6110622
-0.95064259 -0.39014196 1.3069214
-0.096518256 -0.03352296 1.6067425
-0.15212274 -0.058306053 1.476348
-0.33341226 -0.13347895 1.4202724
-0.44407648 -0.17937413 1.3566241
-0.65102923 -0.26432592 1.5166535
-0.7865361 -0.32041964 1.4593688
-0.94822592 -0.38703054 1.4309281
-0.93303537 -0.38157761 1.1710931
-0.93344253 -0.38497797 1.0720384
-0.90939945 -0.37560937 0.87574571
-0.90244448 -0.37291586 0.7248072
-0.88961023 -0.36796811 0.59049314
-0.90460294 -0.37434846 0.48386082
-0.89118582 -0.36897302 0.37345648
-0.88490093 -0.36672732 0.27333307
-0.89231294 -0.36979622 0.17966209
-0.92195356 -0.37872931 0.96887648
-0.91455597 -0.37605566 0.80357164
-0.89466792 -0.36805564 0.65410256
-0.88226098 -0.36348391 0.52856684
-0.89115101 -0.36732268 0.42461532
-0.88086832 -0.36325878 0.32052726
-0.87887245 -0.36243296 0.22480853
-0.87723929 -0.36193308 0.13195628
-0.030715274 -0.0061450601 2.0541952
-0.20986979 -0.08192835 1.432809
-0.25990009 -0.10271986 1.3670291
-0.3975313 -0.15915903 1.4161096
-0.52465254 -0.21145101 1.3921819
-0.67082763 -0.27139592 1.3934375
-0.96802199 -0.3927516 1.6069292
-0.94902903 -0.38561481 1.3030838
-0.096360743 -0.033094767 1.6017509
-0.15232533 -0.057774693 1.476348
-0.33270741 -0.13185181 1.4154329
-0.44469991 -0.17782292 1.3566241
-0.63578814 -0.25555885 1.4806439
-0.78281224 -0.3157216 1.450837
-0.94677728 -0.38258946 1.4269381
-0.93436164 -0.37831837 1.1710931
-0.93478066 -0.38171732 1.0720384
-0.90710223 -0.37095949 0.87260723
-0.90374076 -0.36976349 0.7248072
-0.8867898 -0.36318177 0.58817434
-0.90590417 -0.37118852 0.48386082
-0.88802981 -0.36404046 0.37204644
-0.88617569 -0.36363623 0.27333307
-0.89359838 -0.36667925 0.17966209
-0.92326999 -0.37550879 0.96887648
-0.91211945 -0.371337 0.80062848
-0.89594722 -0.36493045 0.65410256
-0.88352442 -0.36040202 0.52856684
-0.89242774 -0.36420974 0.42461532
-0.88213098 -0.36018178 0.32052726
-0.87554759 -0.35749102 0.22411785
-0.87849736 -0.35886875 0.13195628
-0.030692922 -0.0060365954 2.0491955
-0.21015449 -0.081195265 1.432809
-0.26025707 -0.10181201 1.3670291
-0.39808446 -0.15777041 1.4161096
-0.52538747 -0.20961834 1.3921819
-0.67177087 -0.26905265 1.3934375
-0.96938705 -0.3893702 1.6069292
-0.9503693 -0.38229975 1.3030838
-0.096475676 -0.032758202 1.6017509
-0.15252608 -0.057242621 1.476348
-0.33199525 -0.1302312 1.4105935
-0.44531789 -0.17626955 1.3566241
-0.62453949 -0.2485106 1.4536366
-0.78148735 -0.3120203 1.4465711
-0.948107 -0.37928227 1.4269381
-0.93567652 -0.37505454 1.1710931
-0.93280107 -0.37711546 1.0685339
-0.90839165 -0.36779085 0.87260723
-0.90115035 -0.36503682 0.72206575
-0.88805217 -0.36008409 0.58817434
-0.90289843 -0.36628142 0.4819878
-0.8892951 -0.36093846 0.37204644
-0.88288862 -0.35869178 0.27240044
-0.8948729 -0.36355776 0.17966209
-0.92457515 -0.3722837 0.96887648
-0.90966105 -0.36663994 0.79768533
-0.89321756 -0.36018872 0.65156937
-0.88477707 -0.35731575 0.52856684
-0.89369363 -0.36109236 0.42461532
-0.88338286 -0.35710037 0.32052726
-0.87679011 -0.35443258 0.22411785
-0.87511319 -0.3539269 0.13175476
-0.030713806 -0.0059294202 2.0491955
-0.21043664 -0.080461197 1.432809
-0.26061088 -0.10090292 1.3670291
-0.39863274 -0.15637988 1.4161096
-0.52429879 -0.20706584 1.3875793
-0.67270595 -0.26670611 1.3934375
-0.96812534 -0.38494447 1.6027963
-0.94872016 -0.37779436 1.2992463
-0.096589439 -0.032421242 1.6017509
-0.15272497 -0.05670986 1.476348
-0.33244783 -0.12907153 1.4105935
-0.44593051 -0.17471401 1.3566241
-0.61932629 -0.24393654 1.440133
-0.78257173 -0.3092905 1.4465711
-0.94662356 -0.37486118 1.4229481
-0.93698001 -0.37178615 1.1710931
-0.93411177 -0.37385708 1.0685339
-0.90966988 -0.36461774 0.87260723
-0.89853799 -0.36033276 0.71932429
-0.88930368 -0.35698199 0.58817434
-0.90417147 -0.3631275 0.4819878
-0.88609844 -0.35604358 0.3706364
-0.88413525 -0.35560775 0.27240044
-0.89151621 -0.35857359 0.17921501
-0.92586899 -0.36905405 0.96887648
-0.91093534 -0.36346239 0.79768533
-0.89446944 -0.35706863 0.65156937
-0.88601893 -0.35422513 0.52856684
-0.89494866 -0.35797063 0.42461532
-0.88011134 -0.35220876 0.31935495
-0.87802196 -0.35136986 0.22411785
-0.87634325 -0.35087001 0.13175476
-0.030734317 -0.0058221733 2.0491955
-0.20998913 -0.079452135 1.4278697
-0.2609615 -0.099992611 1.3670291
-0.3977845 -0.15444764 1.4113376
-0.52501833 -0.20523442 1.3875793
-0.6736328 -0.26435632 1.3934375
-0.96946317 -0.38156271 1.6027963
-0.95003313 -0.3744804 1.2992463
-0.096976899 -0.032172084 1.6067425
-0.15292199 -0.056176405 1.476348
-0.33172277 -0.12746003 1.4057541
-0.4449285 -0.17253286 1.3519313
-0.62828755 -0.24493489 1.4581379
-0.78121775 -0.30560702 1.4423052
-0.94792628 -0.37155458 1.4229481
-0.93827206 -0.3685132 1.1710931
-0.93541104 -0.37059414 1.0685339
-0.91093713 -0.36144018 0.87260723
-0.89979035 -0.35719407 0.71932429
-0.88642764 -0.35223988 0.58585554
-0.90543354 -0.35996914 0.4819878
-0.88733584 -0.35294834 0.3706364
-0.88080746 -0.35070229 0.27146783
-0.89276248 -0.35545942 0.17921501
-0.92367834 -0.36444965 0.96555102
-0.9084391 -0.35879576 0.79474217
-0.89170122 -0.35236004 0.64903617
-0.89147007 -0.35280019 0.53066492
-0.89619279 -0.35484445 0.42461532
-0.88133538 -0.34913445 0.31935495
-0.87463915 -0.34647909 0.22342718
-0.8775627 -0.3478089 0.13175476
-0.030754453 -0.0057148547 2.0491955
-0.2102652 -0.078718647 1.4278697
-0.26130897 -0.099081069 1.3670291
-0.39832121 -0.15305819 1.4113376
-0.52390933 -0.20269594 1.3829768
-0.67231888 -0.26113638 1.3890483
-0.97078913 -0.37817633 1.6027963
-0.9483484 -0.36999705 1.2954088
-0.097363815 -0.031920623 1.6117342
-0.15311715 -0.055642266 1.476348
-0.33216569 -0.12630133 1.4057541
-0.44552803 -0.17097872 1.3519313
-0.62304533 -0.24039024 1.4446342
-0.7798475 -0.30193675 1.4380392
-0.94921744 -0.36824343 1.4229481
-0.93639278 -0.36400759 1.167418
-0.93337882 -0.36602488 1.0650293
-0.91219324 -0.35825822 0.87260723
-0.89713991 -0.35252193 0.71658283
-0.88765186 -0.34914351 0.58585554
-0.90668458 -0.3568064 0.4819878
-0.88856244 -0.34984881 0.3706364
-0.88202626 -0.34762555 0.27146783
-0.88936466 -0.35051495 0.17876793
-0.92494488 -0.36122322 0.96555102
-0.90968597 -0.35562253 0.79474217
-0.89292574 -0.34924528 0.64903617
-0.89269614 -0.34968621 0.53066492
-0.89302933 -0.34999099 0.42297181
-0.87802351 -0.34428158 0.31818265
-0.87584323 -0.34342393 0.22342718
-0.87877142 -0.34474352 0.13175476
-0.030817842 -0.0056080688 2.0541952
-0.20980971 -0.07771527 1.4229305
-0.26165321 -0.098168328 1.3670291
-0.39745763 -0.15113677 1.4065655
-0.52278912 -0.2001677 1.3783742
-0.67099065 -0.25792888 1.3846592
-0.96947765 -0.37377325 1.5986633
-0.94664401 -0.36553007 1.2915714
-0.097750135 -0.031666845 1.6167258
-0.15331045 -0.055107448 1.476348
-0.33260453 -0.12514108 1.4057541
-0.44450873 -0.16881026 1.3472385
-0.77846134 -0.29827982 1.4337733
-0.95049709 -0.3649278 1.4229481
-0.93765771 -0.36073676 1.167418
-0.93465078 -0.36276454 1.0650293
-0.91343826 -0.35507187 0.87260723
-0.89836496 -0.34938818 0.71658283
-0.88886511 -0.3460429 0.58585554
-0.90792447 -0.35363927 0.4819878
-0.88530856 -0.34500325 0.3692264
-0.88323432 -0.34454462 0.27146783
-0.8905828 -0.34740838 0.17876793
-0.92620021 -0.35799235 0.96555102
-0.91092181 -0.35244495 0.79474217
-0.89413941 -0.34612626 0.64903617
-0.8939113 -0.34656802 0.53066492
-0.89424556 -0.34687161 0.42297181
-0.87921995 -0.3412146 0.31818265
-0.87242007 -0.33857298 0.22273649
-0.87996948 -0.34167391 0.13175476
-0.030837229 -0.00550046 2.0541952
-0.2100797 -0.076982424 1.4229305
-0.26103944 -0.096900798 1.3621339
-0.39798281 -0.14974847 1.4065655
-0.51983052 -0.19695793 1.3691692
-0.67188686 -0.2555851 1.3846592
-0.97077644 -0.37038687 1.5986633
-0.94791418 -0.36222345 1.2915714
-0.097860076 -0.031325441 1.6167258
-0.15350187 -0.05457196 1.476348
-0.33303931 -0.12397932 1.4057541
-0.44509527 -0.16725761 1.3472385
-0.77949774 -0.29556066 1.4337733
-0.94894826 -0.36053768 1.4189581
-0.93574286 -0.35625544 1.1637428
-0.93591136 -0.35949978 1.0650293
-0.91467214 -0.35188121 0.87260723
-0.89567667 -0.34474829 0.71384138
-0.885934 -0.34134552 0.58353674
-0.9091534 -0.35046789 0.4819878
-0.88650745 -0.34191084 0.3692264
-0.8844316 -0.34145945 0.27146783
-0.88714427 -0.34250396 0.17832085
-0.92744416 -0.35475713 0.96555102
-0.90837169 -0.34781787 0.79179901
-0.89534217 -0.34300303 0.64903617
-0.89511561 -0.34344554 0.53066492
-0.89545095 -0.343748 0.42297181
-0.88040566 -0.33814347 0.31818265
-0.86897367 -0.3337501 0.22204581
-0.87649328 -0.33680815 0.13155322
-0.030856242 -0.0053927847 2.0541952
-0.21034715 -0.076248638 1.4229305
-0.26137608 -0.095989011 1.3621339
-0.39850309 -0.14835835 1.4065655
-0.51868546 -0.19445673 1.3645667
-0.67053342 -0.2523948 1.3802701
-0.96943069 -0.36600217 1.5945303
-0.94617468 -0.35777891 1.2877338
-0.097968824 -0.030983655 1.6167258
-0.15369143 -0.054035805 1.476348
-0.33347008 -0.12281604 1.4057541
-0.44567639 -0.16570291 1.3472385
-0.64999902 -0.24299696 1.4986488
-0.77808285 -0.291922 1.4295074
-0.95020103 -0.35722306 1.4189581
-0.93380821 -0.35179189 1.1600677
-0.93716061 -0.35623068 1.0650293
-0.91589487 -0.34868625 0.87260723
-0.89687467 -0.3416197 0.71384138
-0.88712013 -0.33825094 0.58353674
-0.91037118 -0.34729221 0.4819878
-0.88321382 -0.33710378 0.36781636
-0.88561815 -0.33837011 0.27146783
-0.88833439 -0.33940515 0.17832085
-0.92867684 -0.35151759 0.96555102
-0.90958029 -0.34464493 0.79179901
-0.89653397 -0.33987561 0.64903617
-0.89630908 -0.34031895 0.53066492
-0.89223099 -0.3389433 0.42132831
-0.88158065 -0.33506823 0.31818265
-0.87013346 -0.33071479 0.22204581
-0.87766361 -0.33374655 0.13155322
-0.030918512 -0.0052851886 2.059195
-0.21061203 -0.075513929 1.4229305
-0.26075229 -0.094729148 1.3572387
-0.39761764 -0.14645097 1.4017936
-0.51752919 -0.19196591 1.3599641
-0.67141038 -0.25005266 1.3802701
-0.97070235 -0.36261603 1.5945303
-0.94441581 -0.35335091 1.2838963
-0.097800002 -0.030558098 1.6117342
-0.15387911 -0.053498991 1.476348
-0.33271548 -0.12122156 1.4009147
-0.44625211 -0.16414621 1.3472385
-0.65084326 -0.24072656 1.4986488
-0.77909708 -0.28920421 1.4295074
-0.95144212 -0.35390407 1.4189581
-0.93503046 -0.34853017 1.1600677
-0.93506038 -0.35170186 1.0615247
-0.91710639 -0.34548706 0.87260723
-0.89414883 -0.33701232 0.71109986
-0.88829541 -0.33515224 0.58353674
-0.90724069 -0.34247515 0.48011476
-0.88438511 -0.33401871 0.36781636
-0.88219905 -0.33353952 0.2705352
-0.88951373 -0.33630222 0.17832085
-0.92989826 -0.34827375 0.96555102
-0.91077775 -0.34146783 0.79179901
-0.89367872 -0.33523014 0.64650303
-0.89749151 -0.33718815 0.53066492
-0.89340872 -0.33582678 0.42132831
-0.87819535 -0.33027789 0.31701031
-0.87128252 -0.32767543 0.22204581
-0.87414736 -0.3289215 0.13135168
-0.030936772 -0.0051772306 2.059195
-0.21014167 -0.07451956 1.417991
-0.26108137 -0.093818374 1.3572387
-0.39812642 -0.14506213 1.4017936
-0.51819617 -0.19015823 1.3599641
-0.67227912 -0.24770747 1.3802701
-0.96932262 -0.35825005 1.5903975
-0.9426375 -0.3489396 1.2800589
-0.097629398 -0.0301341 1.6067425
-0.15406492 -0.052961528 1.476348
-0.33313659 -0.12005942 1.4009147
-0.44682238 -0.16258751 1.3472385
-0.65576851 -0.23994876 1.5076511
-0.77765352 -0.28558403 1.4252415
-0.95267171 -0.35058075 1.4189581
-0.93306059 -0.34409136 1.1563925
-0.93628234 -0.34843576 1.0615247
-0.9146595 -0.34092435 0.86946881
-0.89531982 -0.3338891 0.71109986
-0.88945997 -0.33204949 0.58353674
-0.90843064 -0.33930621 0.48011476
-0.88554573 -0.33092961 0.36781636
-0.88335794 -0.33045802 0.2705352
-0.89068228 -0.33319518 0.17832085
-0.92760712 -0.34372848 0.9622255
-0.91196412 -0.33828652 0.79179901
-0.89484346 -0.33210859 0.64650303
-0.89866304 -0.33405328 0.53066492
-0.89014947 -0.33106014 0.4196848
-0.87934285 -0.32721043 0.31701031
-0.87242103 -0.32463211 0.22204581
-0.87060821 -0.32412505 0.13115016
-0.030954653 -0.0050692093 2.059195
-0.21040051 -0.073785573 1.417991
-0.26140729 -0.09290646 1.3572387
-0.39722589 -0.14316589 1.3970217
-0.51702023 -0.18768196 1.3553617
-0.67313969 -0.24535927 1.3802701
-0.96792436 -0.3538982 1.5862645
-0.94083989 -0.34454501 1.2762213
-0.097457029 -0.029711666 1.6017509
-0.1537437 -0.05225322 1.4713765
-0.33236945 -0.11847439 1.3960752
-0.44738716 -0.16102681 1.3472385
-0.77619433 -0.2819775 1.4209754
-0.95105809 -0.34622258 1.414968
-0.93425596 -0.34083223 1.1563925
-0.93414623 -0.3439334 1.0580202
-0.91584402 -0.33772954 0.86946881
-0.89255685 -0.32931456 0.70835841
-0.89061356 -0.32894266 0.58353674
-0.90526104 -0.3345263 0.47824174
-0.88219613 -0.32617298 0.36640632
-0.8798992 -0.32566747 0.2696026
-0.88716954 -0.32835555 0.17787378
-0.9288013 -0.34048843 0.9622255
-0.9131394 -0.33510113 0.79179901
-0.89195049 -0.32749724 0.64396977
-0.89982367 -0.33091432 0.53066492
-0.89129966 -0.32795092 0.4196848
-0.88047963 -0.32413897 0.31701031
-0.87819612 -0.32329559 0.22273649
-0.8670463 -0.31935737 0.13094862
-0.03097216 -0.0049611265 2.059195
-0.21065678 -0.073050693 1.417991
-0.26172999 -0.091993406 1.3572387
-0.3977232 -0.14177844 1.3970217
-0.51767218 -0.18587607 1.3553617
-0.67173892 -0.24219604 1.3758811
-0.96386111 -0.34860349 1.5779986
-0.93902326 -0.34016725 1.2723838
-0.097560152 -0.029371295 1.6017509
-0.15392517 -0.051716231 1.4713765
-0.33159527 -0.11689615 1.3912357
-0.44632065 -0.15888584 1.3425457
-0.77717388 -0.27926636 1.4209754
-0.94942576 -0.3418799 1.410978
-0.9322511 -0.33641842 1.1527174
-0.93534106 -0.34067053 1.0580202
-0.91336071 -0.33319676 0.86633033
-0.89370096 -0.32619694 0.70835841
-0.89175636 -0.32583183 0.58353674
-0.90206909 -0.32977265 0.4763687
-0.88332927 -0.32309154 0.36640632
-0.88103062 -0.32259408 0.2696026
-0.88831025 -0.32525674 0.17787378
-0.92647398 -0.3359715 0.95890003
-0.91050416 -0.33053249 0.78885585
-0.89308822 -0.32438177 0.64396977
-0.89670819 -0.32621983 0.52856684
-0.88800162 -0.32322264 0.41804129
-0.8770386 -0.31940034 0.31583801
-0.87931931 -0.32022813 0.22273649
-0.86815578 -0.31632888 0.13094862
-0.030989289 -0.0048529827 2.059195
-0.2109105 -0.072314918 1.417991
-0.2620495 -0.091079243 1.3572387
-0.39680773 -0.13989344 1.3922496
-0.51831788 -0.18406793 1.3553617
-0.6725803 -0.23984975 1.3758811
-0.96242243 -0.34428918 1.5738657
-0.93718743 -0.33580637 1.2685463
-0.097662084 -0.029030567 1.6017509
-0.15359843 -0.051011954 1.466405
-0.33081418 -0.1153248 1.3863963
-0.44687253 -0.15732692 1.3425457
-0.64593214 -0.22871064 1.4806439
-0.77568644 -0.27567863 1.4167095
-0.94777465 -0.33755293 1.406988
-0.9302268 -0.33202273 1.1490422
-0.93316931 -0.33619487 1.0545157
-0.91451818 -0.33000651 0.86633033
-0.89090115 -0.32165554 0.70561695
-0.89288831 -0.32271704 0.58353674
-0.89885503 -0.32504535 0.47449568
-0.88445169 -0.32000619 0.36640632
-0.87753272 -0.31784391 0.26866996
-0.88475794 -0.32045808 0.1774267
-0.92412657 -0.33147499 0.95557451
-0.91165239 -0.32735226 0.78885585
-0.89015812 -0.31980494 0.64143664
-0.89784145 -0.32308772 0.52856684
-0.88912445 -0.32012093 0.41804129
-0.87814814 -0.31633693 0.31583801
-0.88043171 -0.31715676 0.22273649
-0.86925465 -0.31329653 0.13094862
-0.031006042 -0.0047447807 2.059195
-0.21116164 -0.071578264 1.417991
-0.26236582 -0.090163969 1.3572387
-0.39729363 -0.13850749 1.3922496
-0.51895726 -0.18225755 1.3553617
-0.6734134 -0.23750055 1.3758811
-0.95831245 -0.3390508 1.5655998
-0.93533272 -0.3314625 1.2647089
-0.098040618 -0.028768042 1.6067425
-0.15377556 -0.050475486 1.466405
-0.33121473 -0.11416934 1.3863963
-0.44741899 -0.1557661 1.3425457
-0.65083599 -0.22789282 1.4896463
-0.77418351 -0.27210477 1.4124436
-0.94894713 -0.33424252 1.406988
-0.93138015 -0.32877365 1.1490422
-0.9343372 -0.33293545 1.0545157
-0.91199869 -0.325504 0.8631919
-0.89201856 -0.31854373 0.70561695
-0.89818066 -0.32108942 0.58585554
-0.89998424 -0.32190579 0.47449568
-0.88104677 -0.31530064 0.36499628
-0.87863684 -0.3147788 0.26866996
-0.88587117 -0.31736776 0.1774267
-0.92175901 -0.32699895 0.95224905
-0.90898049 -0.32281539 0.78591269
-0.89126903 -0.31669575 0.64143664
-0.89896381 -0.31995171 0.52856684
-0.8857879 -0.31543133 0.41639778
-0.87924707 -0.3132697 0.31583801
-0.87686861 -0.31241956 0.22204581
-0.87034297 -0.31026036 0.13094862
-0.031022415 -0.004636521 2.059195
-0.21141021 -0.070840739 1.417991
-0.26267895 -0.089247592 1.3572387
-0.39636332 -0.13663383 1.3874776
-0.51959026 -0.18044494 1.3553617
-0.67197686 -0.23436002 1.371492
-0.95683396 -0.33477446 1.5614668
-0.9334591 -0.32713565 1.2608713
-0.098418511 -0.028503228 1.6117342
-0.15395081 -0.049938403 1.466405
-0.33042127 -0.11260761 1.3815569
-0.44632819 -0.1536421 1.3378531
-0.64545584 -0.22348368 1.4761426
-0.7751286 -0.26940069 1.4124436
-0.94726247 -0.3299371 1.402998
-0.92932123 -0.32440335 1.145367
-0.9321301 -0.32848683 1.0510111
-0.90945899 -0.32102314 0.86005342
-0.89312506 -0.31542808 0.70561695
-0.89929605 -0.31795222 0.58585554
-0.89673179 -0.31721631 0.47262263
-0.88214201 -0.31222332 0.36499628
-0.87973022 -0.31170988 0.26866996
-0.88227952 -0.31261039 0.17697962
-0.91937155 -0.3225435 0.94892353
-0.90628815 -0.31830126 0.78296953
-0.89236909 -0.31358272 0.64143664
-0.90007514 -0.3168118 0.52856684
-0.88688356 -0.31233743 0.41639778
-0.88033521 -0.31019866 0.31583801
-0.87328315 -0.30771112 0.22135513
-0.87142068 -0.3072204 0.13094862
-0.031038409 -0.0045282035 2.059195
-0.2116562 -0.070102349 1.417991
-0.26395437 -0.088653535 1.3621339
-0.39683783 -0.13524944 1.3874776
-0.520217 -0.17863013 1.3553617
-0.67279083 -0.23201296 1.371492
-0.95533729 -0.33051255 1.5573338
-0.93156672 -0.32282594 1.2570338
-0.098795742 -0.028236127 1.6167258
-0.15412419 -0.04940071 1.466405
-0.33081234 -0.11145355 1.3815569
-0.44686174 -0.1520832 1.3378531
-0.6524111 -0.22334361 1.4896463
-0.77359772 -0.26584601 1.4081777
-0.94555926 -0.32564747 1.3990079
-0.92724329 -0.32005146 1.1416919
-0.93327105 -0.32523108 1.0510111
-0.90689898 -0.3165639 0.85691494
-0.89027297 -0.31092998 0.70287549
-0.9004004 -0.31481114 0.58585554
-0.89345777 -0.31255352 0.47074962
-0.88322651 -0.30914214 0.36499628
-0.88081294 -0.30863714 0.26866996
-0.88336533 -0.30952874 0.17697962
-0.92049181 -0.31933233 0.94892353
-0.90357536 -0.31380981 0.78002638
-0.89345825 -0.31046584 0.64143664
-0.89688921 -0.3121762 0.52646881
-0.88350892 -0.30768678 0.41475427
-0.88141268 -0.30712381 0.31583801
-0.86967564 -0.30303153 0.22066444
-0.87248778 -0.30417669 0.13094862
-0.031054027 -0.004419832 2.059195
-0.21189962 -0.069363095 1.417991
-0.2642622 -0.087731622 1.3621339
-0.3958928 -0.13338728 1.3827057
-0.52083737 -0.17681314 1.3553617
-0.67359662 -0.22966309 1.371492
-0.95115989 -0.32535464 1.549068
-0.92965567 -0.31853342 1.2531964
-0.098615102 -0.027815448 1.6117342
-0.1542957 -0.048862413 1.466405
-0.33000657 -0.10990156 1.3767174
-0.4473899 -0.15052244 1.3378531
-0.64906245 -0.21966971 1.4806439
-0.77452105 -0.26314402 1.4081777
-0.94383776 -0.32137382 1.395018
-0.9283548 -0.31681284 1.1416919
-0.93440056 -0.32197139 1.0510111
-0.9079985 -0.3133963 0.85691494
-0.89135289 -0.30782047 0.70287549
-0.90149379 -0.31166622 0.58585554
-0.89016211 -0.30791742 0.46887657
-0.88430023 -0.30605724 0.36499628
-0.88188493 -0.30556065 0.26866996
-0.88444036 -0.30644333 0.17697962
-0.91806906 -0.314906 0.94559801
-0.90466529 -0.31065384 0.78002638
-0.8945365 -0.30734524 0.64143664
-0.89797342 -0.30904356 0.52646881
-0.88457757 -0.30460083 0.41475427
-0.88247931 -0.30404526 0.31583801
-0.86604613 -0.29838091 0.21997377
-0.87354422 -0.30112928 0.13094862
-0.031025652 -0.0043126321 2.0541952
-0.21288005 -0.068861179 1.4229305
-0.26456684 -0.086808644 1.3621339
-0.39635599 -0.13200456 1.3827057
-0.52145135 -0.17499401 1.3553617
-0.67439419 -0.22731039 1.371492
-0.949624 -0.3211312 1.544935
-0.92772603 -0.31425822 1.2493588
-0.098711595 -0.027471049 1.6117342
-0.1544653 -0.048323523 1.466405
-0.32919401 -0.10835657 1.371878
-0.4479126 -0.14895985 1.3378531
-0.64982527 -0.21740274 1.4806439
-0.77296239 -0.25960869 1.4039118
-0.94209796 -0.31711614 1.3910279
-0.92624277 -0.3124868 1.1380167
-0.93214309 -0.3175579 1.0475066
-0.90540314 -0.30896798 0.85377645
-0.8924219 -0.30470717 0.70287549
-0.89838445 -0.30708486 0.58353674
-0.89123154 -0.30480829 0.46887657
-0.88536316 -0.30296859 0.36499628
-0.88294613 -0.30248043 0.26866996
-0.88079345 -0.30174026 0.17653254
-0.91916269 -0.31169942 0.94559801
-0.90191668 -0.30619481 0.77708322
-0.89152217 -0.30283445 0.63890344
-0.89904672 -0.30590716 0.52646881
-0.88563544 -0.30151123 0.41475427
-0.88353527 -0.30096295 0.31583801
-0.86708242 -0.29535601 0.21997377
-0.87459004 -0.29807824 0.13094862
-0.031040516 -0.0042043058 2.0541952
-0.21311912 -0.068117671 1.4229305
-0.26486826 -0.085884608 1.3621339
-0.39681438 -0.13062021 1.3827057
-0.52205902 -0.17317274 1.3553617
-0.67291117 -0.22419813 1.3671029
-0.9507392 -0.31781444 1.544935
-0.92881739 -0.31101793 1.2493588
-0.098248631 -0.026978919 1.6017509
-0.15463305 -0.047784045 1.466405
-0.32957026 -0.10720681 1.371878
-0.44842985 -0.14739542 1.3378531
-0.64851326 -0.21444991 1.4761426
-0.77386391 -0.25690898 1.4039118
-0.94033992 -0.31287456 1.3870379
-0.92732787 -0.3092517 1.1380167
-0.9332459 -0.31430218 1.0475066
-0.90278798 -0.30456159 0.85063797
-0.88951826 -0.30025303 0.70013404
-0.89945096 -0.30394703 0.58353674
-0.88789839 -0.30021068 0.46700355
-0.88641536 -0.29987624 0.36499628
-0.87934399 -0.29782081 0.26773736
-0.88184142 -0.29866388 0.17653254
-0.91670495 -0.30730245 0.94227254
-0.90298003 -0.30304468 0.77708322
-0.89257383 -0.29972062 0.63890344
-0.89580733 -0.3013202 0.52437073
-0.88668251 -0.29841796 0.41475427
-0.87997395 -0.29632586 0.31466568
-0.86810809 -0.29232755 0.21997377
-0.87562519 -0.29502353 0.13094862
-0.031011397 -0.0040974594 2.0491955
-0.2133556 -0.067373335 1.4229305
-0.26516643 -0.084959514 1.3621339
-0.39584824 -0.128773 1.3779337
-0.52080381 -0.1707411 1.3507591
-0.67368972 -0.22184788 1.3671029
-0.94917077 -0.31361118 1.5408021
-0.92685437 -0.3067669 1.2455213
-0.098342203 -0.026635805 1.6017509
-0.15479891 -0.047243983 1.466405
-0.3287456 -0.1056717 1.3670386
-0.44894162 -0.14582922 1.3378531
-0.64925784 -0.21218488 1.4761426
-0.77475595 -0.25420612 1.4039118
-0.93856382 -0.30864912 1.3830478
-0.92518193 -0.30495173 1.1343416
-0.93095356 -0.30991635 1.0440021
-0.90384561 -0.30140841 0.85063797
-0.89056093 -0.2971462 0.70013404
-0.89630485 -0.29940209 0.58121794
-0.88454401 -0.29564002 0.46513051
-0.88745666 -0.29678026 0.36499628
-0.88037819 -0.2947495 0.26773736
-0.88287854 -0.29558387 0.17653254
-0.91777211 -0.30410069 0.94227254
-0.90019584 -0.29861832 0.77414006
-0.89361459 -0.29660314 0.63890344
-0.89685369 -0.2981914 0.52437073
-0.88771874 -0.29532105 0.41475427
-0.88100296 -0.29325238 0.31466568
-0.86912322 -0.28929549 0.21997377
-0.87190968 -0.29038659 0.13074709
-0.031069111 -0.0039875014 2.0541952
-0.21358949 -0.066628173 1.4229305
-0.26449043 -0.083726883 1.3572387
-0.39629534 -0.12739044 1.3779337
-0.52139664 -0.16892211 1.3507591
-0.6721825 -0.21875404 1.3627138
-0.94758463 -0.3094227 1.5366691
-0.92487317 -0.30253342 1.2416838
-0.098154947 -0.026220618 1.5967592
-0.15496287 -0.046703346 1.466405
-0.32911247 -0.10452352 1.3670386
-0.4494479 -0.14426123 1.3378531
-0.64792287 -0.20924853 1.4716414
-0.77315772 -0.25069597 1.3996458
-0.93676972 -0.3044399 1.3790579
-0.92624074 -0.30172035 1.1343416
-0.93202966 -0.30666482 1.0440021
-0.90119547 -0.29703328 0.84749955
-0.8876217 -0.29272628 0.69739258
-0.89313793 -0.29488286 0.57889915
-0.8811686 -0.29109648 0.46325746
-0.88393253 -0.2921752 0.36358625
-0.87673807 -0.29013136 0.26680472
-0.88390493 -0.29250026 0.17653254
-0.91527957 -0.29973334 0.93894702
-0.90123272 -0.29547423 0.77414006
-0.8946445 -0.29348204 0.63890344
-0.8935774 -0.29364219 0.52227271
-0.88874424 -0.29222053 0.41475427
-0.87740403 -0.28865635 0.31349337
-0.87012774 -0.28625992 0.21997377
-0.86817259 -0.28577924 0.13054556
-0.031082841 -0.0038790256 2.0541952
-0.21382074 -0.065882199 1.4229305
-0.26478106 -0.082803123 1.3572387
-0.39673761 -0.12600635 1.3779337
-0.52012229 -0.1665058 1.3461566
-0.67294198 -0.21640635 1.3627138
-0.948659 -0.30611312 1.5366691
-0.92592359 -0.29930314 1.2416838
-0.098245874 -0.025877832 1.5967592
-0.15461364 -0.046011459 1.4614335
-0.3282758 -0.10299838 1.3621992
-0.44994873 -0.14269148 1.3378531
-0.64450133 -0.20566256 1.4626391
-0.77402806 -0.24799563 1.3996458
-0.93495768 -0.30024695 1.3750678
-0.92406118 -0.29744676 1.1306664
-0.92970294 -0.30230692 1.0404975
-0.90222681 -0.29388571 0.84749955
-0.88863808 -0.28962612 0.69739258
-0.88995057 -0.29038942 0.57658035
-0.88217938 -0.28801885 0.46325746
-0.88494706 -0.28908792 0.36358625
-0.87774551 -0.2870692 0.26680472
-0.8849206 -0.28941306 0.17653254
-0.9163202 -0.29653659 0.93894702
-0.89841336 -0.29108086 0.7711969
-0.8956635 -0.29035735 0.63890344
-0.89028037 -0.28911954 0.52017462
-0.88526779 -0.28765723 0.41311076
-0.87840629 -0.28559187 0.31349337
-0.8711217 -0.28322086 0.21997377
-0.86916488 -0.282747 0.13054556
-0.031096192 -0.0037705032 2.0541952
-0.21330577 -0.064910196 1.417991
-0.2640954 -0.08157862 1.3523433
-0.39717504 -0.12462071 1.3779337
-0.52070034 -0.16468921 1.3461566
-0.67141068 -0.21333106 1.3583248
-0.94972175 -0.30279985 1.5366691
-0.92390937 -0.29509422 1.2378463
-0.098335609 -0.025534734 1.5967592
-0.15477329 -0.045471475 1.4614335
-0.32863334 -0.10185186 1.3621992
-0.4504441 -0.14112 1.3378531
-0.643139 -0.20275733 1.4581379
-0.77488899 -0.24529226 1.3996458
-0.93312782 -0.29607037 1.3710777
-0.92509383 -0.29421934 1.1306664
-0.93075252 -0.29905981 1.0404975
-0.90324718 -0.29073456 0.84749955
-0.88566345 -0.28524068 0.69465113
-0.88674265 -0.28592181 0.57426155
-0.87876737 -0.28351435 0.46138445
-0.88595074 -0.28599712 0.36358625
-0.87406802 -0.28249294 0.26587209
-0.88118678 -0.28479087 0.17608546
-0.91734976 -0.29333624 0.93894702
-0.89942402 -0.28794304 0.7711969
-0.89667159 -0.28722915 0.63890344
-0.88696259 -0.28462344 0.5180766
-0.88626653 -0.2845653 0.41311076
-0.87477022 -0.28103727 0.31232107
-0.87210506 -0.28017837 0.21997377
-0.8653903 -0.27818245 0.13034403
-0.031022003 -0.0036662123 2.0441957
-0.21353106 -0.064165227 1.417991
-0.26437852 -0.08065626 1.3523433
-0.39760762 -0.12323355 1.3779337
-0.51940721 -0.16228835 1.3415542
-0.67215127 -0.21098609 1.3583248
-0.95077288 -0.29948285 1.5366691
-0.92493379 -0.29186735 1.2378463
-0.098143779 -0.02512251 1.5917675
-0.1549311 -0.044930935 1.4614335
-0.32778478 -0.10033681 1.3573598
-0.45093396 -0.13954678 1.3378531
-0.63968569 -0.1992171 1.4491354
-0.77325124 -0.2418077 1.3953799
-0.93128026 -0.29191026 1.3670877
-0.92288089 -0.28997234 1.1269913
-0.93179077 -0.29580906 1.0404975
-0.90054727 -0.28640035 0.84436107
-0.88266915 -0.28087959 0.69190961
-0.88351452 -0.28148016 0.57194275
-0.87975162 -0.28044519 0.46138445
-0.88694364 -0.28290281 0.36358625
-0.87504882 -0.27944016 0.26587209
-0.88217556 -0.28171325 0.17608546
-0.91480774 -0.28900766 0.93562156
-0.89656973 -0.2835829 0.76825374
-0.89766872 -0.28409743 0.63890344
-0.87929815 -0.27878255 0.51388049
-0.88725442 -0.28146994 0.41311076
-0.87574589 -0.27798206 0.31232107
-0.87307775 -0.27713245 0.21997377
-0.86635607 -0.27515998 0.13034403
-0.030991038 -0.003560194 2.0391958
-0.21375373 -0.063419469 1.417991
-0.26465848 -0.079732917 1.3523433
-0.39803535 -0.12184489 1.3779337
-0.51997054 -0.1604743 1.3415542
-0.67059594 -0.20792954 1.3539357
-0.94912541 -0.29532632 1.5325361
-0.92594701 -0.28863695 1.2378463
-0.098230876 -0.024779771 1.5917675
-0.15508698 -0.044389855 1.4614335
-0.32813302 -0.099192016 1.3573598
-0.45141831 -0.13797189 1.3378531
-0.63621557 -0.19570349 1.440133
-0.77409065 -0.23910707 1.3953799
-0.92941505 -0.28776667 1.3630977
-0.92388749 -0.28674912 1.1269913
-0.92941487 -0.29148766 1.036993
-0.90154147 -0.28325513 0.84436107
-0.88364422 -0.2777968 0.69190961
-0.88449168 -0.2783944 0.57194275
-0.8807252 -0.27737257 0.46138445
-0.88335043 -0.27836338 0.36217624
-0.87601888 -0.27638394 0.26587209
-0.8831535 -0.27863216 0.17608546
-0.915811 -0.28581265 0.93562156
-0.89755416 -0.28045154 0.76825374
-0.89454043 -0.27967599 0.63637024
-0.87160373 -0.2729986 0.50968438
-0.88372552 -0.276959 0.41146725
-0.87671089 -0.27492341 0.31232107
-0.87403977 -0.27408314 0.21997377
-0.86254454 -0.2706385 0.1301425
-0.030916149 -0.0034568796 2.0291963
-0.21322784 -0.06245552 1.4130518
-0.26493517 -0.078808598 1.3523433
-0.39845827 -0.12045474 1.3779337
-0.51865864 -0.15808906 1.3369516
-0.6713177 -0.20558745 1.3539357
-0.95015055 -0.29201147 1.5325361
-0.92694885 -0.28540304 1.2378463
-0.098316774 -0.024436731 1.5917675
-0.15524098 -0.043848231 1.4614335
-0.32847726 -0.09804602 1.3573598
-0.45024496 -0.1358971 1.3331603
-0.63481182 -0.192849 1.4356318
-0.77242601 -0.23564278 1.391114
-0.93041384 -0.28452066 1.3630977
-0.92488283 -0.2835224 1.1269913
-0.93042666 -0.28824162 1.036993
-0.90252477 -0.28010643 0.84436107
-0.88061517 -0.27347061 0.6891681
-0.88122803 -0.27399015 0.56962395
-0.87726134 -0.27291951 0.4595114
-0.88431674 -0.27527821 0.36217624
-0.87697834 -0.2733244 0.26587209
-0.87936634 -0.27406594 0.17563838
-0.91680306 -0.28261411 0.93562156
-0.89852762 -0.27731681 0.76825374
-0.89551127 -0.27655175 0.63637024
-0.86821556 -0.26861316 0.5075863
-0.88468689 -0.27387255 0.41146725
-0.87766522 -0.27186146 0.31232107
-0.87026083 -0.26956531 0.21928309
-0.86348391 -0.26762602 0.1301425
-0.030928027 -0.0033489414 2.0291963
-0.21344455 -0.061710835 1.4130518
-0.26520866 -0.077883326 1.3523433
-0.39887631 -0.11906312 1.3779337
-0.51920736 -0.15627764 1.3369516
-0.66973871 -0.20254983 1.3495466
-0.95116407 -0.28869304 1.5325361
-0.92487282 -0.28123334 1.2340088
-0.098120399 -0.024027519 1.5867759
-0.15539309 -0.043306068 1.4614335
-0.32881752 -0.096898817 1.3573598
-0.45071661 -0.13432463 1.3331603
-0.63131064 -0.18938152 1.4266294
-0.77324378 -0.23294508 1.391114
-0.92851675 -0.28040025 1.3591076
-0.92586684 -0.28029221 1.1269913
-0.92801678 -0.28394878 1.0334884
-0.89977556 -0.27581373 0.84122264
-0.88156432 -0.27039504 0.6891681
-0.88217902 -0.27091244 0.56962395
-0.8782087 -0.26985565 0.4595114
-0.88527226 -0.27218971 0.36217624
-0.87792706 -0.2702615 0.26587209
-0.88031763 -0.27099469 0.17563838
-0.91421211 -0.27832487 0.93229604
-0.89562374 -0.27300027 0.76531059
-0.89647114 -0.27342415 0.63637024
-0.86480743 -0.26425469 0.50548828
-0.88112164 -0.26940212 0.40982375
-0.87860882 -0.26879618 0.31232107
-0.87119651 -0.26652589 0.21928309
-0.86441284 -0.26461026 0.1301425
-0.030983074 -0.0032382149 2.0341961
-0.21291119 -0.060753182 1.4081125
-0.26547891 -0.076957099 1.3523433
-0.39928946 -0.11767006 1.3779337
-0.51787686 -0.15390813 1.3323491
-0.67044163 -0.20021078 1.3495466
-0.95216596 -0.28537109 1.5325361
-0.92584884 -0.27800322 1.2340088
-0.098203674 -0.023684869 1.5867759
-0.15554331 -0.042763378 1.4614335
-0.32915375 -0.095750436 1.3573598
-0.44952711 -0.13226387 1.3284675
-0.62779301 -0.18594082 1.4176269
-0.77155238 -0.22950122 1.3868481
-0.92948985 -0.2771574 1.3591076
-0.92683959 -0.27705866 1.1269913
-0.92900229 -0.28070766 1.0334884
-0.90073282 -0.27267125 0.84122264
-0.87850094 -0.2661041 0.68642664
-0.88311934 -0.26783139 0.56962395
-0.87470913 -0.26544237 0.45763838
-0.88162684 -0.26770413 0.3607662
-0.87886512 -0.26719531 0.26587209
-0.87649357 -0.26647165 0.1751913
-0.91517806 -0.275132 0.93229604
-0.89657122 -0.26987228 0.76531059
-0.89742011 -0.27029324 0.63637024
-0.86572462 -0.26123434 0.50548828
-0.88205671 -0.26632479 0.40982375
-0.87954175 -0.26572761 0.31232107
-0.87212151 -0.26348323 0.21928309
-0.87011349 -0.26303694 0.13034403
-0.031081263 -0.0031242452 2.0441957
-0.21312197 -0.060009614 1.4081125
-0.26574591 -0.076029934 1.3523433
-0.39826432 -0.1158591 1.3731616
-0.51841092 -0.15209948 1.3323491
-0.67113644 -0.19786929 1.3495466
-0.95315635 -0.28204569 1.5325361
-0.92681366 -0.27476972 1.2340088
-0.098285757 -0.02334193 1.5867759
-0.15569164 -0.042220175 1.4614335
-0.32948598 -0.094600894 1.3573598
-0.44998604 -0.13069391 1.3284675
-0.62425911 -0.18252702 1.4086244
-0.77234882 -0.2268066 1.3868481
-0.92756093 -0.27306041 1.3551177
-0.92780107 -0.27382168 1.1269913
-0.92655909 -0.27644372 1.0299838
-0.89794981 -0.26841086 0.83808416
-0.87942445 -0.26303595 0.68642664
-0.87980527 -0.2634764 0.56730521
-0.87563038 -0.26238742 0.45763838
-0.88255596 -0.26462507 0.3607662
-0.87979245 -0.26412588 0.26587209
-0.8774184 -0.26341048 0.1751913
-0.91613287 -0.27193576 0.93229604
-0.89363325 -0.26558965 0.76236743
-0.89422619 -0.26593035 0.6338371
-0.86663121 -0.25821084 0.50548828
-0.88298094 -0.26324421 0.40982375
-0.88046396 -0.26265582 0.31232107
-0.86829048 -0.25902176 0.21859241
-0.87102634 -0.25999808 0.13034403
-0.031135505 -0.0030126814 2.0491955
-0.21333013 -0.059265312 1.4081125
-0.26600969 -0.075101852 1.3523433
-0.39866632 -0.11446819 1.3731616
-0.51893872 -0.15028895 1.3323491
-0.66952336 -0.19485639 1.3451575
-0.9514339 -0.27792796 1.5284033
-0.9277671 -0.27153286 1.2340088
-0.098366633 -0.022998706 1.5867759
-0.15583807 -0.041676451 1.4614335
-0.3298142 -0.093450204 1.3573598
-0.45043951 -0.12912238 1.3284675
-0.62070918 -0.17914018 1.399622
-0.77313578 -0.22410922 1.3868481
-0.92850846 -0.26982096 1.3551177
-0.92875123 -0.27058136 1.1269913
-0.92751837 -0.27320772 1.0299838
-0.89888138 -0.26527476 0.83808416
-0.88033724 -0.25996456 0.68642664
-0.88071954 -0.26040369 0.56730521
-0.87654096 -0.25932932 0.45763838
-0.87887454 -0.26018113 0.35935616
-0.87599933 -0.25965726 0.26493949
-0.87833256 -0.26034614 0.1751913
-0.91707653 -0.26873618 0.93229604
-0.89455491 -0.26246867 0.76236743
-0.89514899 -0.26280728 0.6338371
-0.86752725 -0.25518414 0.50548828
-0.87936437 -0.25882715 0.40818024
-0.88137543 -0.25958082 0.31232107
-0.86918932 -0.25598928 0.21859241
-0.87192857 -0.25695604 0.13034403
-0.031145832 -0.0029039795 2.0491955
-0.21353571 -0.058520287 1.4081125
-0.26627022 -0.07417284 1.3523433
-0.39906347 -0.11307589 1.3731616
-0.51758158 -0.14794005 1.3277464
-0.67019951 -0.19251812 1.3451575
-0.95239824 -0.27460515 1.5284033
-0.92870927 -0.2682927 1.2340088
-0.098164342 -0.022593258 1.5817842
-0.15546679 -0.040997673 1.456462
-0.33013836 -0.092298366 1.3573598
-0.45088747 -0.12754926 1.3284675
-0.61714315 -0.17578036 1.3906196
-0.77140582 -0.22069196 1.3825821
-0.92944467 -0.26657823 1.3551177
-0.92643183 -0.26640105 1.123316
-0.92846644 -0.26996842 1.0299838
-0.89606488 -0.26104695 0.83494574
-0.8812393 -0.25689006 0.68642664
-0.87737077 -0.25608674 0.56498641
-0.87744087 -0.25626805 0.45763838
-0.87977743 -0.2571117 0.35935616
-0.87690037 -0.25659785 0.26493949
