# .PCD v0.7 - Point Cloud Data file format
VERSION 0.7
FIELDS x y z
SIZE 4 4 4
TYPE F F F
COUNT 1 1 1
WIDTH 1529
HEIGHT 1
VIEWPOINT 0 0 0 1 0 0 0
POINTS 1529
DATA ascii
0.67803538 -0.90750962 7.2018623
0.87345505 -1.1579053 6.9965401
1.6266694 -2.124342 6.3629079
1.6923109 -2.2037296 5.1592674
1.3837006 -1.7979603 3.404762
1.7773527 -2.3070138 3.563374
0.12315901 -0.1815477 3.6333559
0.22552708 -0.30831993 3.5196362
1.0786165 -1.42641 6.922698
0.92675853 -1.2172178 4.2145185
1.0361515 -1.3555636 3.5917132
1.1431662 -1.4918361 3.1444128
1.2031801 -1.5679134 2.6917758
1.364096 -1.775077 2.505178
1.6777806 -2.1699359 2.7752478
1.5337822 -1.9815627 2.1028821
1.9725196 -2.5474939 2.1969745
2.7141259 -3.5027776 2.4061134
2.2697649 -2.9282439 1.5852042
1.3472048 -1.7474202 2.0463386
1.6237525 -2.1046288 2.0190971
1.9948995 -2.5847793 2.004287
1.4879915 -1.9258968 1.2125319
0.018314924 -0.041935004 3.7241316
0.67578888 -0.91111928 7.211741
0.86940789 -1.1609472 6.9965401
1.6145151 -2.123786 6.3444982
1.3739994 -1.7983071 3.3964961
1.7264498 -2.2571929 3.4789488
0.12284482 -0.18245693 3.6433392
0.22507489 -0.30996865 3.5295792
1.0728762 -1.429161 6.9178581
0.91938263 -1.2163152 4.2004404
1.0406245 -1.3713117 3.6232216
1.12532 -1.4792118 3.1102853
1.1940478 -1.5673099 2.6837957
1.3784543 -1.8067811 2.5419295
1.6571671 -2.1588058 2.7542205
1.7071011 -2.2214653 2.3414049
1.9636152 -2.5543635 2.1969745
2.2535186 -2.9293871 2.0211926
2.2962847 -2.9839108 1.6095537
1.3842148 -1.8084466 2.1095231
1.6213117 -2.1167016 2.0249834
2.090739 -2.7285998 2.1056142
1.4674482 -1.9130733 1.2020416
0.018168431 -0.041998681 3.7241316
0.67352545 -0.91472435 7.2216191
0.86474282 -1.1631577 6.9916453
1.2941844 -1.7234477 6.937295
1.6188601 -2.1450028 6.390523
1.1710141 -1.5470947 3.6230896
1.3558097 -1.7873979 3.3675654
1.6681635 -2.1968346 3.3791735
0.12236647 -0.18312538 3.6483309
0.22461395 -0.31161797 3.5395222
1.067881 -1.4328973 6.9178581
1.3770298 -1.8351554 6.2934146
1.038451 -1.3784134 3.6322241
1.1201497 -1.4831309 3.1102853
1.1940224 -1.5786784 2.6957657
1.3803264 -1.8223917 2.5566301
1.5653189 -2.0539546 2.6175432
1.6851711 -2.208843 2.3225741
1.9572237 -2.5645266 2.1997159
2.1384196 -2.7999358 1.9307594
2.3168139 -3.0324302 1.630157
1.3824116 -1.8192132 2.116174
1.60902 -2.1159134 2.0190971
2.1673284 -2.8491025 2.1892087
1.4497629 -1.903741 1.1936494
0.018009188 -0.042020053 3.7191319
0.67032838 -0.91706979 7.2216191
0.86067736 -1.1661692 6.9916453
1.2845922 -1.7231673 6.9182067
1.6160483 -2.1568949 6.4089332
1.1627293 -1.5473433 3.6143112
1.3258638 -1.760648 3.3097041
1.6103206 -2.1360979 3.2793987
0.12188495 -0.18379273 3.6533225
0.22383454 -0.31283399 3.5444937
1.0621253 -1.4356058 6.9130192
1.3829854 -1.8565586 6.3497276
1.0336331 -1.3820299 3.6322241
1.1196592 -1.4932919 3.1230834
1.1921229 -1.5876559 2.7037458
1.4513783 -1.9301652 2.6962864
1.4720721 -1.9456456 2.4773614
1.2003924 -1.5848426 1.6854674
1.9482598 -2.5713429 2.1997159
2.0403118 -2.6908977 1.8542391
1.376053 -1.8240277 2.116174
3.1553814 -4.1796827 3.8968334
2.0508559 -2.7156091 2.0853486
1.4403716 -1.9051697 1.1915514
0.0178624 -0.04208266 3.7191319
0.66712314 -0.91940409 7.2216191
0.85660142 -1.1691664 6.9916453
1.2794573 -1.7288408 6.9229789
1.5758641 -2.1186297 6.2800627
1.1573209 -1.5513924 3.6143112
1.2893822 -1.7246959 3.235311
0.12140027 -0.18445894 3.6583142
0.2239739 -0.31535316 3.5643797
1.0571077 -1.4393045 6.9130192
0.88812751 -1.2009002 4.1159706
1.0262073 -1.3821337 3.6232216
1.1191113 -1.5034676 3.1358809
1.1901753 -1.5966394 2.711726
1.4588276 -1.9542367 2.7220125
1.5445166 -2.056278 2.6070297
1.1808178 -1.5703571 1.6666367
1.9267045 -2.5614195 2.1860087
1.9669685 -2.6130624 1.7985879
2.6915789 -3.5744112 1.8961276
1.362963 -1.8198541 2.1061976
2.5129352 -3.3529499 3.1345549
1.8706957 -2.4951115 1.9181588
1.4309882 -1.906556 1.1894534
0.017715396 -0.042144753 3.7191319
0.66345578 -0.92109662 7.21668
0.8525151 -1.1721494 6.9916453
1.2734147 -1.7332965 6.9229789
1.5800632 -2.1398342 6.326088
2.2194238 -2.9970479 6.9017315
1.266584 -1.7065889 3.1939816
1.3124676 -1.7665001 2.711448
0.12106919 -0.18536642 3.6682975
0.22287175 -0.31613305 3.5643797
1.0520772 -1.4429858 6.9130192
0.89312041 -1.2165132 4.1582055
1.0187935 -1.3822025 3.6142192
1.1200558 -1.5157552 3.1529448
1.1863872 -1.6032064 2.7157159
1.4802554 -1.9974502 2.7734649
1.6226004 -2.1760151 2.7472115
1.1404042 -1.5276823 1.6195598
1.8752204 -2.511173 2.1394038
1.7695646 -2.3679709 1.6339531
2.7290487 -3.6506202 1.9298422
1.3632854 -1.8335899 2.116174
2.8197021 -3.7897623 3.523052
1.8336626 -2.463587 1.8902937
0.017568175 -0.042206336 3.7191319
0.65978479 -0.92277467 7.211741
0.84782243 -1.1742924 6.9867501
1.2708747 -1.7425555 6.9420667
1.5795138 -2.1547909 6.353703
2.2089486 -3.004777 6.9017315
1.2706338 -1.7245929 3.2187793
1.3024886 -1.7659117 2.7037728
0.12057733 -0.18603086 3.6732893
0.21963093 -0.31384951 3.5295792
1.0470338 -1.4466493 6.9130192
1.0113916 -1.3822365 3.6052167
1.1240131 -1.5322734 3.1785405
1.1807836 -1.607338 2.7157159
1.4993898 -2.0381055 2.8212419
1.6192384 -2.1873987 2.7542205
1.1281126 -1.5222721 1.6101445
1.7618573 -2.376621 2.0242622
1.6214054 -2.1855752 1.5110567
1.3790493 -1.8683788 2.1494291
2.8400769 -3.8451004 3.5642562
1.8045579 -2.4422364 1.8700284
0.017432686 -0.04230937 3.7241316
0.65611011 -0.92443842 7.2068014
0.84371817 -1.1772448 6.9867501
1.2682854 -1.7518175 6.9611545
1.5719826 -2.1602914 6.353703
2.1984465 -3.0124691 6.9017315
1.2563002 -1.717661 3.1981144
1.2963164 -1.7704475 2.7037728
0.12008228 -0.18669412 3.6782808
0.21731961 -0.31286171 3.5096931
1.0419776 -1.4502953 6.9130192
0.91899341 -1.2702581 4.3177595
1.0040021 -1.3822358 3.5962143
1.1938809 -1.6394958 3.3875711
1.1769413 -1.6138846 2.7197061
1.4922664 -2.0433271 2.8212419
1.6094813 -2.1901639 2.750716
1.0720491 -1.4572238 1.5410986
1.6742418 -2.2749879 1.9365352
1.5901246 -2.1591196 1.4901875
2.3127708 -3.1541646 2.9314766
1.8011211 -2.4554725 1.8750948
0.017284892 -0.042369962 3.7241316
0.65243185 -0.92608774 7.2018623
0.83960372 -1.1801828 6.9867501
1.2621626 -1.756234 6.9611545
1.5690079 -2.1721003 6.3721128
2.1808927 -3.0104275 6.8797865
1.2602162 -1.7356988 3.2229121
1.3033196 -1.793111 2.7306354
0.1195841 -0.18735622 3.6832726
0.21501787 -0.31186157 3.4898071
1.0369087 -1.4539237 6.9130192
0.92159933 -1.2832704 4.3506088
0.99789798 -1.3839661 3.5917132
1.224818 -1.6943816 3.4899538
1.1713005 -1.6179829 2.7197061
1.4811453 -2.0430341 2.8138916
1.5850128 -2.1727197 2.7226796
1.0692514 -1.4641004 1.5442369
1.6736903 -2.2909477 1.9447596
1.5773494 -2.157505 1.4855499
1.5306898 -2.1044257 2.3988416
2.4492252 -3.3648336 3.1139529
1.7697018 -2.4303811 1.8522962
0.017136889 -0.042430039 3.7241316
0.64875019 -0.92772269 7.1969233
0.8348918 -1.1822745 6.9818544
1.2508236 -1.7533377 6.9325228
1.5591395 -2.1743886 6.3629079
2.1731675 -3.0219104 6.8885646
1.6111774 -2.2354827 4.1197619
1.3420616 -1.8600334 2.8227355
0.11908273 -0.18801707 3.6882641
0.21332687 -0.31172973 3.4798641
1.0318273 -1.4575343 6.9130192
0.91711426 -1.2864795 4.3506088
1.0019295 -1.399833 3.6232216
1.2797124 -1.7834066 3.6605909
1.1674039 -1.6245087 2.723696
1.4720247 -2.0454402 2.8102167
1.5627772 -2.1580198 2.6981478
1.0778415 -1.4867319 1.5630677
1.6828669 -2.3204708 1.9639498
1.5646049 -2.1558273 1.4809123
1.9036437 -2.6364858 2.9774787
2.238615 -3.0981565 2.8667274
1.7107015 -2.3666699 1.8016325
1.88439 -2.6041043 1.5733969
0.016988676 -0.042489596 3.7241316
0.64506501 -0.92934316 7.1919837
0.83017546 -1.1843477 6.9769592
1.2446957 -1.7576932 6.9325228
1.55154 -2.1798179 6.3629079
2.1639972 -3.0314271 6.8929534
1.6606703 -2.3211961 4.2644153
0.1184257 -0.18843159 3.6882641
0.21193843 -0.31203118 3.4748926
1.0267333 -1.4611273 6.9130192
0.9076345 -1.2826294 4.3271451
0.98695111 -1.3891243 3.5872121
1.2810444 -1.7984841 3.6819205
1.1617262 -1.6285738 2.723696
1.4629049 -2.0478075 2.8065414
1.5760503 -2.1924191 2.7331932
1.6478838 -2.2890022 1.9337938
1.549302 -2.1504929 1.4739559
2.001009 -2.7918196 3.1404281
1.9262426 -2.6855352 2.4900024
1.737613 -2.4216616 1.837097
1.8594019 -2.5885496 1.5608087
1.7528903 -2.4393785 1.1346112
0.016840255 -0.042548642 3.7241316
0.64137632 -0.93094915 7.1870446
0.82603621 -1.1872383 6.9769592
1.2351196 -1.7571423 6.913435
1.5427942 -2.1836247 6.3583055
2.1561716 -3.0428705 6.9017315
1.644411 -2.3155069 4.2437506
1.6391945 -2.3056207 3.4635987
0.11791889 -0.18908949 3.6932559
0.21025302 -0.3118844 3.4649496
1.0223458 -1.4657332 6.9178581
0.90414357 -1.2872019 4.3318381
1.2687365 -1.7944267 3.6648569
1.1560344 -1.632619 2.723696
1.4557478 -2.0529015 2.8065414
1.5580306 -2.1833925 2.7156706
1.2009227 -1.6810859 1.7482367
1.6374526 -2.2913382 1.9310523
1.5907452 -2.2243495 1.5180131
2.0799959 -2.9235244 3.2767737
1.6308482 -2.2905326 2.1309371
1.7241474 -2.4206898 1.8320307
1.8819735 -2.6393683 1.5859853
1.7580754 -2.4647043 1.1428287
0.016691631 -0.042607166 3.7241316
0.63724607 -0.93189943 7.177166
0.82130843 -1.1892766 6.972064
1.2315404 -1.7651156 6.9277511
1.5351627 -2.1889968 6.3583055
2.1482925 -3.0542967 6.9105101
1.584437 -2.2476318 4.111496
1.621896 -2.2982342 3.444411
0.11725813 -0.18949994 3.6932559
0.20531611 -0.30685255 3.4003198
1.017223 -1.469293 6.9178581
0.90556604 -1.2988442 4.3599949
1.749946 -2.4999444 6.3734636
1.2250115 -1.7454743 3.5582085
1.1503285 -1.6366444 2.723696
1.4466218 -2.0551982 2.8028662
1.5503997 -2.1888177 2.7156706
1.2108072 -1.7074931 1.7702057
1.597994 -2.2527034 1.8954132
1.6675901 -2.3490911 1.5945336
2.4216223 -3.410043 1.7781265
1.1220783 -1.5888093 1.8135536
1.6508367 -2.3358221 2.166255
1.7181758 -2.4302132 1.8345639
1.8727491 -2.6459215 1.5859853
1.7221738 -2.4322865 1.1263937
0.016542803 -0.042665172 3.7241316
0.63311684 -0.93283206 7.1672873
0.81600106 -1.1904564 6.9622736
0.70701385 -1.0208002 4.0168409
1.5263962 -2.1927385 6.353703
2.1431019 -3.0696321 6.9280663
1.4491346 -2.0710003 3.7849929
0.11659595 -0.1899081 3.6932559
0.20041695 -0.30179009 3.3356905
1.0120882 -1.4728347 6.9178581
0.90004468 -1.3005781 4.3553019
1.7461772 -2.5131888 6.3914685
1.1786629 -1.6919593 3.4430282
1.1428844 -1.6381785 2.7197061
1.4374973 -2.057456 2.799191
1.2104678 -1.7216021 2.147934
1.2182816 -1.7308069 1.7890366
1.5804914 -2.244592 1.8844473
1.6951022 -2.4055934 1.6269966
2.3910079 -3.3919513 1.7650154
1.1229551 -1.6018884 1.8235301
1.6357093 -2.3316431 2.1574254
1.7022535 -2.4256103 1.8269643
1.7082427 -2.4305563 1.1231067
0.016382856 -0.042680413 3.7191319
0.62942284 -0.9343918 7.1623483
0.81126803 -1.1924555 6.9573784
0.69921887 -1.0171111 3.992981
1.5176224 -2.1964462 6.3491006
2.1241891 -3.0652826 6.9017315
1.3712682 -1.9743494 3.6031435
1.2471843 -1.7936958 2.6922605
0.11608139 -0.19056116 3.6982474
0.19906949 -0.30204242 3.330719
1.0069407 -1.4763585 6.9178581
0.89647633 -1.3051345 4.3599949
1.737394 -2.519269 6.3914685
1.1786823 -1.704644 3.4600921
1.1371592 -1.6421579 2.7197061
1.4322387 -2.0652473 2.8028662
1.1901646 -1.7053454 2.1234024
1.2523582 -1.7924821 1.8455287
1.5630653 -2.2363861 1.8734815
1.7476293 -2.4986162 1.6826479
2.007071 -2.8684936 1.5027907
1.1322842 -1.6272526 1.8468086
1.655277 -2.3771434 2.1927433
1.6863846 -2.4209259 1.8193648
1.2493528 -1.7915353 1.097139
1.6889409 -2.4210129 1.1165327
0.016233774 -0.042737339 3.7191319
0.62529403 -0.93529111 7.1524696
0.80596131 -1.1935923 6.947588
1.2138302 -1.7791483 6.9325228
1.5088412 -2.200119 6.3444982
2.1094048 -3.0667591 6.8885646
1.3084688 -1.8980329 3.4584901
1.2445567 -1.8033143 2.6999354
0.11541551 -0.19096519 3.6982474
0.19801395 -0.30273548 3.330719
1.0017812 -1.4798645 6.9178581
1.7261304 -2.5217252 6.3824658
1.1948605 -1.7410036 3.524081
1.1297133 -1.6436341 2.7157159
1.4230987 -2.0674415 2.799191
1.1578052 -1.6713784 2.0778432
1.36365 -1.966363 2.0118668
1.3884112 -2.0013323 1.6815789
1.7767904 -2.5592842 1.71743
1.8251565 -2.6279812 1.3810436
1.3515087 -1.956858 2.1993115
1.6837392 -2.4361088 2.2398341
1.6975361 -2.4551642 1.8396302
1.2663387 -1.8294713 1.1160215
1.6751033 -2.4191291 1.1132456
0.016073871 -0.042751424 3.7141321
0.62159604 -0.93682051 7.1475306
0.8006565 -1.1947064 6.9377975
1.21096 -1.788319 6.951611
1.5011522 -2.2053723 6.3444982
2.1000373 -3.0760815 6.8929534
1.2859453 -1.8793643 3.4171607
1.1893488 -1.7362498 2.5963228
0.11489556 -0.19161518 3.7032392
0.1966663 -0.30297738 3.3257475
0.99731034 -1.4843959 6.922698
1.2344888 -1.8244791 6.0446973
1.711201 -2.5187318 6.3599601
1.2372261 -1.8162959 3.6648569
1.1239691 -1.6475674 2.7157159
1.4216106 -2.0807946 2.8102167
1.1539845 -1.6783485 2.0813477
1.4715351 -2.1378341 2.1750667
1.3553314 -1.9682829 1.6514227
1.7753866 -2.5764136 1.7243863
2.1553898 -3.126718 1.6226648
1.3573364 -1.980042 2.2192645
1.6683658 -2.431972 2.2310045
1.7206651 -2.5072813 1.8725616
1.4244246 -2.0732894 1.2502968
1.6586246 -2.4132867 1.1083151
0.015914068 -0.042764913 3.7091324
0.61789495 -0.93833554 7.142591
0.79591751 -1.1966461 6.9329023
1.1997148 -1.7851012 6.9229789
1.4923511 -2.2089801 6.3398952
2.0852568 -3.0774455 6.8797865
1.2509209 -1.8419379 3.3427677
1.1796768 -1.7350895 2.5886478
0.11422601 -0.19201507 3.7032392
0.19589564 -0.30411047 3.330719
0.99212277 -1.4878681 6.922698
1.2829459 -1.9104393 6.3121853
1.6926624 -2.5102499 6.3239503
1.216272 -1.7989973 3.6221974
1.1165218 -1.6489857 2.711726
1.4485855 -2.1362507 2.8763695
1.150129 -1.685312 2.0848522
1.5233464 -2.229733 2.259805
2.488023 -3.6404221 2.9755509
1.7563792 -2.5679696 1.7151111
2.351269 -3.4364822 1.7706344
1.3210121 -1.9415495 2.1727076
1.4141815 -2.0769444 1.9131432
1.7313166 -2.541775 1.892827
1.4555326 -2.1344945 1.2817677
1.6422075 -2.4073584 1.1033846
0.015764693 -0.042820204 3.7091324
0.61419088 -0.93983614 7.1376519
0.79117483 -1.1985673 6.9280071
0.67998034 -1.0193233 3.9643488
1.4846313 -2.2141762 6.3398952
2.0771747 -3.0886803 6.8885646
1.2429111 -1.8439599 3.3386347
1.1592705 -1.7179413 2.5579479
0.11355505 -0.19241263 3.7032392
0.19511949 -0.30524191 3.3356905
0.98692304 -1.4913222 6.922698
0.83510232 -1.2529032 4.1488199
1.6863111 -2.5197616 6.3329525
1.2070787 -1.7989004 3.6136658
1.1107589 -1.652873 2.711726
1.5414386 -2.2903593 3.0711532
1.148239 -1.6952219 2.0918612
1.5308449 -2.2575877 2.2817743
2.4964261 -3.6802285 3.0002239
1.6429087 -2.4201503 1.6177214
2.2793572 -3.3564599 1.7275547
1.2724364 -1.8842618 2.1061976
1.4227654 -2.1053112 1.9337454
1.7103621 -2.5299463 1.880161
1.6284994 -2.4052558 1.1000975
0.015615127 -0.04287497 3.7091324
0.61090654 -0.94197434 7.1376519
0.78698623 -1.2013217 6.9280071
0.67806584 -1.0241802 3.9738929
1.4768933 -2.2193449 6.3398952
1.0838481 -1.6237805 3.6450353
1.2114331 -1.810864 3.2725077
1.1496996 -1.7166508 2.5502727
0.11273797 -0.19255802 3.6982474
0.1940528 -0.30592114 3.3356905
0.98171139 -1.4947581 6.922698
0.84690708 -1.2802796 4.2285967
1.6787095 -2.5274458 6.3374538
1.1718813 -1.7596878 3.528347
1.1049826 -1.6567402 2.711726
1.6012216 -2.3972151 3.2034593
1.4707992 -2.1854181 2.2064514
1.6475626 -2.4471605 2.0187793
1.4710881 -2.1834016 1.4646807
2.262445 -3.3567071 1.7238085
1.2575365 -1.8762856 2.0928955
1.4649403 -2.1841161 1.9984947
1.614826 -2.4030869 1.0968106
0.01546537 -0.042929217 3.7091324
0.60803503 -0.94475454 7.142591
0.78278804 -1.2040615 6.9280071
0.67858428 -1.0327787 3.9977524
1.470214 -2.2261169 6.3444982
1.0755281 -1.6235604 3.6362567
1.2019917 -1.8103927 3.2642415
1.1454747 -1.7233231 2.5541103
0.11206513 -0.19295038 3.6982474
0.19383402 -0.30795103 3.350605
0.97580147 -1.4971226 6.9178581
0.82633507 -1.2587029 4.1488199
1.6698768 -2.5332901 6.3374538
1.1657318 -1.7637677 3.528347
1.0991927 -1.6605872 2.711726
1.6340528 -2.4649551 3.2843127
1.5104513 -2.2638867 2.7542205
1.3853337 -2.074017 2.0934668
1.6808257 -2.5154779 2.0681255
1.2689317 -1.8976146 1.2814956
1.2406399 -1.8651195 2.0762682
1.4505882 -2.1791222 1.9896654
1.6209786 -2.4341836 1.8041657
1.6470896 -2.4706035 1.4601021
1.6011876 -2.4008517 1.0935235
0.015315426 -0.04298294 3.7091324
0.60515153 -0.94752616 7.1475306
0.77858031 -1.2067865 6.9280071
0.67089927 -1.0288891 3.9738929
1.4635053 -2.2328696 6.3491006
1.2204369 -1.8521746 3.330369
1.1341574 -1.7192842 2.5425978
0.11139093 -0.19334039 3.6982474
0.19134867 -0.30636352 3.3257475
0.96988708 -1.4994643 6.9130192
0.80498242 -1.2355524 4.0643501
1.6622155 -2.5409257 6.3419552
2.2509205 -3.431782 6.7832546
1.0933895 -1.6644139 2.711726
1.6645668 -2.5301204 3.3614912
1.4986019 -2.2631984 2.7472115
1.3372246 -2.0171995 2.0338361
1.6859004 -2.5422385 2.0845745
1.4411125 -2.1714725 1.450768
1.674847 -2.5227249 1.3117414
1.2444071 -1.8850191 2.0928955
1.6259339 -2.4574127 1.4496119
1.5875846 -2.3985507 1.0902365
0.015175027 -0.043078672 3.7141321
0.60267186 -0.9509455 7.1574087
0.7738142 -1.2086394 6.9231119
1.1764858 -1.8183004 6.9706988
1.4578326 -2.2412398 6.3583055
1.5090948 -2.3130262 5.1285434
1.2216643 -1.8681995 3.3510334
1.1263937 -1.720551 2.5387602
0.11071536 -0.19372804 3.6982474
0.1902781 -0.30702958 3.3257475
0.96396816 -1.5017828 6.9081798
0.79879105 -1.2354563 4.0549645
1.6545212 -2.5485384 6.3464561
2.2332368 -3.4308751 6.766191
1.0875731 -1.6682205 2.711726
1.6964988 -2.598367 3.4423449
1.4848174 -2.2594745 2.7366979
1.2424663 -1.8885339 1.9051595
1.6172487 -2.4572937 2.0132964
1.4432702 -2.1912878 1.4600432
1.666031 -2.5285559 1.3117414
1.2644188 -1.929953 2.136127
1.253611 -1.9120135 1.7483262
1.6204948 -2.4706733 1.821898
1.6148548 -2.4592793 1.4475138
1.57661 -2.4001307 1.088593
0.015024562 -0.043131381 3.7141321
0.6001758 -0.95435929 7.1672873
0.76904464 -1.2104735 6.9182167
1.1660995 -1.8161154 6.9468389
1.4531786 -2.2512391 6.3721128
1.5127261 -2.3363736 5.1680455
1.2273902 -1.8913373 3.3840973
1.1256194 -1.7325358 2.5502727
0.11003844 -0.19411333 3.6982474
0.18725443 -0.30451104 3.290947
0.95804483 -1.5040783 6.9033403
0.79447359 -1.2382371 4.0549645
1.6456152 -2.5542982 6.3464561
1.0608779 -1.642243 3.2681251
1.0817431 -1.6720067 2.711726
1.6966355 -2.6184988 3.4607208
1.5100384 -2.3154259 2.7962751
1.1933091 -1.8276759 1.8423903
1.4137994 -2.1629405 1.4391739
1.6546574 -2.5304759 1.3098683
1.3411175 -2.0626991 2.2724726
1.2491335 -1.9197657 1.7512692
1.6565415 -2.5449595 1.8700284
1.6211276 -2.487716 1.4601021
1.5630647 -2.3977082 1.0853059
0.014883351 -0.043226168 3.7191319
0.59807432 -0.95842624 7.1821051
0.7642718 -1.2122893 6.913321
1.1525347 -1.8088442 6.9038906
1.4474189 -2.2595885 6.3813181
1.505856 -2.3436549 5.1724343
1.2360162 -1.9192691 3.4254265
0.10950056 -0.19474854 3.7032392
0.18674453 -0.30607358 3.30089
0.95211732 -1.5063506 6.8985004
0.78921974 -1.239547 4.0502715
1.6378614 -2.5618608 6.3509574
1.0579537 -1.6503274 3.2766569
1.0759002 -1.6757725 2.711726
1.7718254 -2.7555778 3.6297784
1.5348862 -2.3715799 2.8558524
1.1721066 -1.8089643 1.8204211
1.6591862 -2.5597537 2.0845745
1.4062407 -2.1678624 1.4391739
1.6483378 -2.5401254 1.3117414
1.339982 -2.0767801 2.282449
1.2884682 -1.9954232 1.8130757
1.6570038 -2.5652106 1.880161
1.6001114 -2.4743044 1.4496119
1.5521207 -2.3991849 1.0836625
0.014732373 -0.043277856 3.7191319
0.59554291 -0.96182966 7.1919837
0.75949556 -1.2140864 6.9084263
1.1470113 -1.814118 6.9086628
1.4426665 -2.2695732 6.3951254
1.4963784 -2.3468773 5.1680455
1.2353702 -1.9330566 3.4419582
1.1791364 -1.8429502 2.6960979
0.1088201 -0.19512959 3.7032392
0.19035852 -0.31448141 3.3854055
0.94685328 -1.509665 6.8985004
0.78857464 -1.2481304 4.0690432
1.6289089 -2.5675626 6.3509574
1.0700442 -1.6795179 2.711726
1.7676665 -2.7703197 3.6408036
1.5034727 -2.3409147 2.8137977
1.1868358 -1.8457842 1.8518057
1.3722903 -2.1317854 1.4136672
1.6269113 -2.5263751 1.3023762
1.2803787 -1.9996884 2.195986
1.2836758 -2.0033119 1.8160189
1.645713 -2.5673499 1.877628
1.5914648 -2.4798748 1.4496119
1.5386344 -2.3966408 1.0803754
0.014581216 -0.043329019 3.7191319
0.59299493 -0.96522683 7.2018623
0.75471616 -1.215865 6.9035311
1.1454312 -1.8256978 6.937295
1.43682 -2.2779002 6.4043307
1.9670752 -3.1090431 6.8095608
1.2045032 -1.8993336 3.3758314
1.4578716 -2.2962465 3.3331234
0.1081383 -0.19550824 3.7032392
0.18980742 -0.31605858 3.3953485
0.9409138 -1.5118936 6.893661
1.2333026 -1.9673409 6.3684988
1.6199366 -2.5732327 6.3509574
1.159164 -1.8363135 3.6221974
1.064175 -1.6832428 2.711726
1.7706802 -2.7965231 3.6665297
1.8728763 -2.9386089 3.5041933
1.2013217 -1.8827286 1.8831903
1.3433782 -2.1029642 1.3927979
1.6080973 -2.516413 1.2948841
1.2173263 -1.9159044 2.1028721
1.2723374 -2.0009587 1.8101326
1.6344275 -2.5694416 1.8750948
1.5291651 -2.4011948 1.4034547
1.5277219 -2.3980141 1.0787319
0.014429879 -0.043379653 3.7191319
0.59002626 -0.9679544 7.2068014
0.75046748 -1.218492 6.9035311
1.1343185 -1.8220814 6.9086628
1.4330056 -2.2895262 6.4227409
1.9676714 -3.134146 6.8490624
1.1484088 -1.8249291 3.239444
1.4481388 -2.2986095 3.3292859
0.10745519 -0.19588453 3.7032392
0.19088148 -0.32038522 3.4351206
0.93563056 -1.5151689 6.893661
1.2218708 -1.9643072 6.3450346
1.6097912 -2.5770254 6.3464561
1.172128 -1.8712926 3.6819205
1.0582929 -1.6869472 2.711726
1.7645148 -2.8084283 3.6738801
1.8511703 -2.9270439 3.4831662
1.2134819 -1.9165076 1.9114364
1.6613768 -2.6229098 2.1202135
1.3217994 -2.085192 1.3788851
1.5868902 -2.5024354 1.2855189
1.22457 -1.9422508 2.1261506
1.2610315 -1.9985512 1.8042463
1.6208467 -2.5678401 1.8700284
1.5086516 -2.3873348 1.3929645
1.5142953 -2.3953493 1.0754449
0.014278369 -0.043429758 3.7191319
0.58704585 -0.97067308 7.211741
0.74567872 -1.2202352 6.8986359
1.1263826 -1.8234899 6.8991189
1.4260356 -2.296174 6.4273434
1.4590573 -2.3420901 5.1241546
1.1375605 -1.8217659 3.2270451
1.4570963 -2.3308294 3.3676612
0.10677078 -0.19625843 3.7032392
0.19165692 -0.32426399 3.4699211
0.930336 -1.5184256 6.893661
1.213194 -1.965623 6.335649
1.600786 -2.582629 6.3464561
1.1435626 -1.839931 3.6136658
1.0508056 -1.6880729 2.7077358
1.7404733 -2.7733896 3.297425
1.2026434 -1.9141402 1.9051595
1.652211 -2.6286931 2.1202135
1.3074369 -2.0785439 1.3719287
1.5732075 -2.5001121 1.2817729
1.4969989 -2.3928325 2.595046
1.2561924 -2.0063667 1.8071893
1.6118734 -2.5734825 1.8700284
1.4159207 -2.2580078 1.3195326
1.5034155 -2.3966205 1.0738014
0.014126684 -0.043479335 3.7191319
0.58365393 -0.97271633 7.211741
0.74141473 -1.2228308 6.8986359
0.68714577 -1.1210394 4.250668
1.4251858 -2.3127806 6.4595613
1.43954 -2.3288336 5.0846529
1.107482 -1.7874515 3.1609178
1.4388146 -2.3195589 3.3446362
0.10608505 -0.19662993 3.7032392
0.19321486 -0.32953247 3.5196362
0.92503005 -1.5216638 6.893661
1.210831 -1.9772043 6.3591127
1.5917611 -2.588201 6.3464561
1.1056484 -1.792854 3.5155489
1.0449067 -1.6917306 2.7077358
1.6004065 -2.5871441 3.3761916
1.2218121 -1.9620724 2.3511977
1.177422 -1.8885992 1.8769133
1.6341742 -2.6202524 2.1092477
1.2814096 -2.0530317 1.3533783
1.5399177 -2.4662647 1.2630424
1.4886372 -2.3980434 2.595046
1.2619789 -2.0313399 1.8248483
1.6051559 -2.5827549 1.8725616
1.3840537 -2.2244015 1.298552
1.4900498 -2.3938358 1.0705144
0.013974826 -0.043528378 3.7191319
0.58025503 -0.97474778 7.211741
0.73714173 -1.2254113 6.8986359
0.68710583 -1.1298084 4.274528
1.4099706 -2.3060734 6.4273434
1.4126207 -2.3032198 5.0188165
1.1071306 -1.8008957 3.1774499
1.3954295 -2.2672436 3.2640488
0.10539804 -0.19699904 3.7032392
0.19206341 -0.3302049 3.5196362
0.91971278 -1.5248835 6.893661
1.1842099 -1.9489729 6.2558722
1.5815829 -2.5918832 6.3419552
1.0816888 -1.7677819 3.4600921
1.0374207 -1.6927985 2.7037458
1.5895926 -2.5898256 3.3725169
1.2168304 -1.9693593 2.3547022
1.0807276 -1.7470491 1.7388211
1.5766107 -2.5477157 2.0489352
1.5239751 -2.4598026 1.2574234
1.4685088 -2.3841505 2.5750933
1.2718483 -2.0632594 1.8483937
1.6210197 -2.6287038 1.9004265
1.4168119 -2.2948706 1.334219
1.4792033 -2.3950047 1.0688709
0.013814406 -0.043534074 3.7141321
0.57684898 -0.9767673 7.211741
0.73285973 -1.2279769 6.8986359
0.68932617 -1.1424253 4.3127041
1.4019123 -2.3109813 6.4273434
0.87297523 -1.4345003 3.14468
1.1755675 -1.9272728 3.3882301
1.3791547 -2.2584229 3.2448611
0.10470974 -0.19736575 3.7032392
0.19090961 -0.33087334 3.5196362
0.91438431 -1.5280846 6.893661
1.186308 -1.9678742 6.3027997
1.572526 -2.597388 6.3419552
1.0430307 -1.7180414 3.3577094
1.0315055 -1.6964095 2.7037458
1.6369675 -2.688015 3.4901221
1.2490903 -2.0374432 2.4282978
1.0501901 -1.7110032 1.7011597
1.5939628 -2.595964 2.0818329
1.3412596 -2.1827021 1.42758
1.5056684 -2.4493098 1.2499313
1.4835416 -2.4274933 2.6149991
1.2815099 -2.0952721 1.8719389
1.6320823 -2.6674402 1.9232252
1.5273275 -2.4933093 1.4391216
1.4683669 -2.3961272 1.0672274
0.01366236 -0.043582033 3.7141321
0.5734359 -0.97877491 7.211741
0.72856879 -1.2305276 6.8986359
1.0801157 -1.8044562 6.7702756
1.3908148 -2.3108389 6.4135356
0.87043822 -1.4416395 3.1534581
1.1950573 -1.9747002 3.4626231
1.3081495 -2.1590517 3.099036
0.10402016 -0.19773005 3.7032392
0.19001774 -0.33200064 3.5246074
0.90904474 -1.5312672 6.893661
1.1829743 -1.9779273 6.3215709
1.561208 -2.5991292 6.3329525
0.99666005 -1.6546487 3.2297316
1.0255775 -1.6999998 2.7037458
1.6258214 -2.6908109 3.4864466
1.2623569 -2.0753069 2.4668479
1.5870667 -2.6050828 2.0845745
1.3474683 -2.2100642 1.4414928
1.4731232 -2.4294641 2.6116736
1.3035445 -2.1481104 1.9131432
1.6339463 -2.6915462 1.935891
1.5539726 -2.5568013 1.4705924
1.4575406 -2.3972032 1.0655838
0.24004743 -0.39463365 0.20212321
0.013510146 -0.043629456 3.7141321
0.57001585 -0.98077059 7.211741
0.72426909 -1.2330633 6.8986359
1.0692376 -1.8005143 6.7416434
1.3817385 -2.3140023 6.4089332
0.86047804 -1.4364507 3.1359019
1.1780175 -1.9619715 3.4336927
1.2494147 -2.0784435 2.9800732
0.10332933 -0.19809194 3.7032392
0.18912034 -0.33312574 3.5295792
0.90369409 -1.5344309 6.893661
1.1787044 -1.9864968 6.335649
1.5510116 -2.6026928 6.3284512
0.98017609 -1.6402073 3.1956041
1.0196372 -1.7035693 2.7037458
1.6251339 -2.7110085 3.5048227
1.2256229 -2.0308471 2.4107749
1.1992464 -1.9848094 1.9522364
1.5952675 -2.6392353 2.1065061
1.3374525 -2.2109637 1.4391739
1.2875605 -2.1402411 2.3057275
1.3377345 -2.2219048 1.9720063
1.6223168 -2.6935403 1.9333578
1.4864476 -2.465045 1.4181411
1.449164 -2.4022765 1.0655838
0.24620265 -0.40795386 0.20564015
0.013357768 -0.04367635 3.7141321
0.56658888 -0.98275435 7.211741
0.71944797 -1.234704 6.8937402
1.0568854 -1.7939464 6.7034674
1.3726572 -2.3171306 6.4043307
0.85056478 -1.4312098 3.1183455
1.1726018 -1.9684892 3.4378257
1.3505042 -2.2644825 3.2333484
0.10263723 -0.19845141 3.7032392
0.18873946 -0.3351782 3.5444937
0.89833242 -1.5375761 6.893661
1.1735139 -1.9935738 6.3450346
1.5419171 -2.6080911 6.3284512
1.3747579 -2.3188963 4.4796505
1.0136844 -1.7071182 2.7037458
1.6069964 -2.7020957 3.4864466
1.1928791 -1.9922763 2.3617113
1.2163252 -2.0290451 1.9898978
1.5881954 -2.6483736 2.1092477
1.3183291 -2.1966276 1.42758
0.24801485 -0.41258788 0.18286891
1.2513788 -2.0966303 2.2558451
1.3797156 -2.3098433 2.0426424
1.5885814 -2.6584814 1.9054928
1.4638537 -2.4468503 1.4055529
1.4407696 -2.4073203 1.0655838
0.24727397 -0.41298106 0.20681247
0.013205228 -0.043722712 3.7141321
0.56354052 -0.98540074 7.21668
0.71513367 -1.2372079 6.8937402
1.0506169 -1.7976246 6.7034674
1.3625807 -2.3185389 6.3951254
0.83948243 -1.4238542 3.0964
1.155702 -1.9556117 3.4088948
1.4274596 -2.4126301 3.4328988
0.10194388 -0.19880848 3.7032392
0.18808714 -0.33676633 3.5544367
0.89295983 -1.5407025 6.893661
1.1665477 -1.9976579 6.3450346
1.5328035 -2.6134574 6.3284512
1.3851645 -2.355154 4.5393734
1.0077193 -1.7106462 2.7037458
1.606168 -2.7222879 3.5048227
1.1968452 -2.0148251 2.3827386
1.1714339 -1.9697154 1.9302671
1.5832173 -2.6610885 2.1147306
1.351446 -2.2697279 1.4693183
0.24908914 -0.4176701 0.18380153
1.2611735 -2.1299009 2.2857745
1.4314011 -2.4154878 2.1279938
1.5792921 -2.6640103 1.9054928
1.462253 -2.4636536 1.4118469
1.4323577 -2.4123349 1.0655838
0.24583091 -0.41384169 0.20681247
0.013052527 -0.04376854 3.7141321
0.5600974 -0.98736185 7.21668
0.7108106 -1.2396966 6.8937402
1.0443355 -1.8012811 6.7034674
1.3534955 -2.3215935 6.390523
0.83208895 -1.4226412 3.0876219
1.1374836 -1.9402131 3.3758314
1.4174069 -2.4148338 3.4290612
0.10124929 -0.19916312 3.7032392
0.18794157 -0.33928716 3.5743227
0.88757634 -1.54381 6.893661
1.1595675 -2.0017178 6.3450346
1.5236717 -2.6187921 6.3284512
1.0017418 -1.7141533 2.7037458
1.5898058 -2.7161748 3.4901221
1.2839532 -2.1787589 2.564975
1.2575096 -2.1313527 2.0777745
2.6302326 -4.4562907 3.4772394
1.4957114 -2.5310903 1.2761538
0.24512841 -0.41430929 0.18286891
1.4516389 -2.4692528 2.169198
1.5393891 -2.617485 1.8700284
1.4444332 -2.4530993 1.4034547
1.426325 -2.4213889 1.0672274
0.24932018 -0.42307252 0.20915711
0.012899667 -0.043813836 3.7141321
0.55664742 -0.98931098 7.21668
0.70647895 -1.2421702 6.8937402
1.0283684 -1.7880933 6.6414318
1.3434273 -2.3229215 6.3813181
0.82711792 -1.425537 3.0876219
1.1250454 -1.9344414 3.3592994
1.2912357 -2.2175622 3.1489234
0.10055346 -0.19951533 3.7032392
0.18752453 -0.34134355 3.5892372
0.882182 -1.546899 6.893661
1.1525731 -2.0057533 6.3450346
1.5156093 -2.6259801 6.3329525
1.0643027 -1.8388275 3.5454109
0.99575222 -1.7176396 2.7037458
1.3465326 -2.3032997 2.7016525
1.2559606 -2.145807 2.0871899
2.6400149 -4.5087452 3.5101368
1.5684891 -2.676589 1.7104735
1.4892116 -2.5402954 1.2780267
0.24616723 -0.41939887 0.18380153
1.5207318 -2.6096528 2.7712977
1.5509323 -2.6593611 2.3251858
1.5020028 -2.5744381 1.837097
1.4107167 -2.4141214 1.0622969
0.012753994 -0.043901611 3.7191319
0.55319071 -0.99124795 7.21668
0.70213866 -1.2446288 6.8937402
1.0125061 -1.7748163 6.5793962
1.3333663 -2.3242073 6.3721128
0.82810986 -1.4387945 3.1095674
1.1140674 -1.9310441 3.3469007
1.2353939 -2.1387897 3.0337982
0.099856414 -0.19986512 3.7032392
0.18709542 -0.34340116 3.6041517
0.87677693 -1.5499688 6.893661
1.1455648 -2.0097642 6.3450346
1.5085967 -2.6350331 6.3419552
1.059176 -1.844793 3.5496764
0.9897505 -1.721105 2.7037458
1.1410359 -1.9810225 2.5566301
1.3849996 -2.3881967 2.7927706
1.2660522 -2.1804726 2.1154361
2.6851659 -4.6227899 3.5896394
1.5524577 -2.6705589 1.7035172
1.4710131 -2.529448 1.2705346
0.24223004 -0.41601053 0.18286891
1.5209559 -2.6311078 2.787925
1.5497364 -2.6787536 2.3369584
1.4584583 -2.5199692 1.7965661
1.3999128 -2.4149456 1.0606533
0.012600671 -0.04394586 3.7191319
0.54972726 -0.99317294 7.21668
0.69778979 -1.2470721 6.8937402
1.0063047 -1.7783399 6.5793962
1.3223468 -2.3237536 6.3583055
0.82545722 -1.4458363 3.1183455
0.98292989 -1.7175477 2.9790683
1.2789097 -2.232085 3.1565986
0.099158138 -0.20021246 3.7032392
0.18513696 -0.34264439 3.5892372
0.87074625 -1.5519236 6.8888221
1.137693 -2.0122483 6.3403416
1.4993895 -2.6402829 6.3419552
0.98373669 -1.7245493 2.7037458
1.1257051 -1.9702752 2.5382543
1.3730984 -2.3868341 2.7857616
1.3244823 -2.2995567 2.2221434
2.8485425 -4.9437165 3.8254054
1.5143586 -2.6260741 1.6733727
1.4621745 -2.5345674 1.2705346
0.23831955 -0.4125998 0.18193629
1.496904 -2.6104884 2.7613211
1.5685418 -2.7332275 2.3781624
1.3844129 -2.4075367 1.0557228
0.012447194 -0.043989576 3.7191319
0.54588336 -0.99440455 7.211741
0.69343245 -1.2495003 6.8937402
0.99351645 -1.7701259 6.5364485
1.3123069 -2.3249526 6.3491006
0.82394552 -1.4549611 3.1315129
0.94497889 -1.6646811 2.8840106
1.3328743 -2.3452153 3.3062611
0.098458663 -0.20055737 3.7032392
0.18393977 -0.34328854 3.5892372
0.86532378 -1.5549537 6.8888221
1.1306621 -2.0162072 6.3403416
1.4912324 -2.6473975 6.3464561
0.9777109 -1.7279727 2.7037458
1.1154779 -1.9682938 2.5309041
1.3205717 -2.3141763 2.6981478
1.3222399 -2.3143048 2.231559
2.9474623 -5.1569271 3.9789276
1.5007838 -2.6236539 1.6687351
1.4510159 -2.5356324 1.2686616
1.4619391 -2.5702605 2.7147641
1.5789872 -2.7738135 2.407594
1.3448359 -2.3615203 1.6825732
1.3713213 -2.404151 1.0524358
0.012293567 -0.04403276 3.7191319
0.54240888 -0.99630404 7.211741
0.68857592 -1.2510213 6.8888454
0.98805737 -1.7748873 6.5412197
1.3022746 -2.3261096 6.3398952
0.8200345 -1.4599165 3.1359019
0.92259556 -1.6385442 2.834415
1.3246799 -2.3498538 3.3062611
0.097757995 -0.20089982 3.7032392
0.18249077 -0.34345752 3.5842657
0.85989064 -1.5579648 6.8888221
1.1227785 -2.0186336 6.335649
1.4841056 -2.6563876 6.3554587
1.3074939 -2.3335903 4.4455228
0.97167319 -1.731375 2.7037458
1.1069394 -1.9692203 2.5272288
1.3230255 -2.3373935 2.7191751
1.3103154 -2.3121336 2.225282
1.063143 -1.875216 1.4979006
1.4307138 -2.5205233 1.2592964
1.4162657 -2.5103087 2.6482542
1.6309019 -2.8884196 2.4988322
1.3408246 -2.3737071 1.6876395
1.3582704 -2.4007032 1.0491488
0.012139789 -0.044075403 3.7191319
0.53855884 -0.99750751 7.2068014
0.68420482 -1.2534173 6.8888454
0.98113453 -1.7770188 6.5364485
1.2922503 -2.3272252 6.3306899
0.81376791 -1.4606777 3.1315129
0.92647433 -1.6589531 2.8633456
1.3055199 -2.3348799 3.2793987
0.097056121 -0.20123984 3.7032392
0.18129076 -0.34409246 3.5842657
0.85444713 -1.5609568 6.8888221
1.114892 -2.0210297 6.3309565
1.4748241 -2.661552 6.3554587
1.2930062 -2.3267415 4.4241929
0.96562362 -1.7347562 2.7037458
1.098408 -1.970111 2.5235536
1.3043836 -2.3233392 2.6981478
1.2927005 -2.2997282 2.2095897
1.0893828 -1.9372311 1.541764
1.6801361 -2.9853678 1.879746
1.4196324 -2.5214624 1.2574234
1.3254478 -2.3686121 2.4986067
1.6366096 -2.9223082 2.5223775
1.3452601 -2.3971937 1.0458617
0.011985863 -0.04411751 3.7191319
0.53507364 -0.9993813 7.2068014
0.67982543 -1.2557979 6.8888454
0.97349185 -1.777814 6.5269041
1.2831765 -2.3300104 6.326088
0.80866432 -1.4635094 3.1315129
0.9220413 -1.6646388 2.8674786
1.2942529 -2.3338165 3.2717235
0.096353069 -0.20157741 3.7032392
0.18008855 -0.34472317 3.5842657
0.84899318 -1.5639299 6.8888221
1.1070024 -2.0233953 6.3262634
1.4707665 -2.6762233 6.377965
1.2836176 -2.3289564 4.4199271
0.95956236 -1.7381164 2.7037458
1.0915242 -1.9739332 2.5235536
1.2927958 -2.3216467 2.6911387
1.2657118 -2.2702298 2.1782053
1.1783421 -2.1126587 1.6706131
1.6934552 -3.0337627 1.9052527
1.4017812 -2.5102122 1.2499313
1.297241 -2.3373127 2.4620261
1.6263988 -2.9280031 2.5223775
1.424726 -2.5638797 1.8092321
1.3345876 -2.3977487 1.0442182
0.011831791 -0.044159081 3.7191319
0.53158188 -1.001243 7.2068014
0.67543775 -1.2581632 6.8888454
0.96799254 -1.7825131 6.5316763
1.2750354 -2.3344753 6.326088
0.80124897 -1.4621226 3.1227345
0.91622502 -1.6678472 2.8674786
1.2783753 -2.3242774 3.2525358
0.095648855 -0.20191252 3.7032392
0.17912878 -0.34582329 3.5892372
0.84352887 -1.566884 6.8888221
1.0999327 -2.027247 6.3262634
1.4593323 -2.6775177 6.3689623
1.2767311 -2.3357115 4.4241929
0.9534893 -1.7414552 2.7037458
1.0862575 -1.9807039 2.5272288
1.2795117 -2.3167799 2.680625
1.2088093 -2.1860709 2.0966053
1.1750083 -2.1240768 1.676096
1.5090628 -2.7257383 1.71743
1.3250839 -2.4072466 2.5285361
1.5791116 -2.8663957 2.4664571
1.4178483 -2.5726128 1.8117652
1.3262098 -2.4023929 1.0442182
0.011677574 -0.044200111 3.7191319
0.52808362 -1.0030925 7.2068014
0.67152005 -1.261412 6.8937402
0.96459514 -1.7911384 6.5507641
1.2659484 -2.337194 6.3214855
0.80185801 -1.4754324 3.14468
0.90905136 -1.668564 2.8633456
1.2671847 -2.3230979 3.2448611
0.094943464 -0.20224516 3.7032392
0.17816356 -0.34692094 3.5942087
0.83864611 -1.5709277 6.893661
1.092032 -2.0295544 6.3215709
1.4520473 -2.6864257 6.377965
0.94740468 -1.7447729 2.7037458
1.0922946 -2.0083091 2.5566301
1.261138 -2.302465 2.6595979
1.1562537 -2.1083696 2.0212824
1.4846146 -2.7038083 1.7011983
1.3363523 -2.447907 2.5651166
1.1097974 -2.0312228 1.7689284
1.4150623 -2.5888944 1.8193648
1.3178158 -2.4070075 1.0442182
0.011523217 -0.044240605 3.7191319
0.52457899 -1.0049297 7.2068014
0.66711277 -1.2637484 6.8937402
0.95833701 -1.7944945 6.5507641
1.2577823 -2.3415987 6.3214855
0.79897523 -1.482439 3.1534581
0.89920878 -1.6642995 2.8509469
1.242293 -2.2964957 3.2026484
0.09423691 -0.20257534 3.7032392
0.17719282 -0.34801599 3.5991802
0.83315742 -1.5738456 6.893661
1.0849408 -2.033354 6.3215709
0.99490511 -1.8506761 3.5070174
0.93987995 -1.7454163 2.6997557
1.2513911 -2.3037195 2.6560934
1.1154135 -2.0508449 1.9647902
1.6777396 -3.0835273 2.3861356
1.4730492 -2.7050838 1.6988796
1.3455753 -2.4853916 2.5983715
1.1508398 -2.1239312 1.8425074
1.422451 -2.6241367 1.8396302
1.3094057 -2.4115927 1.0442182
0.011368718 -0.044280559 3.7191319
0.52106792 -1.0067546 7.2068014
0.66269743 -1.2660694 6.8937402
0.60911286 -1.1501007 4.2077203
1.249601 -2.3459749 6.3214855
0.88940716 -1.6599869 2.8385479
1.2054816 -2.2471521 3.1297359
0.093529224 -0.20290306 3.7032392
0.17645629 -0.34958464 3.6091232
0.82824272 -1.5778573 6.8985004
1.0778365 -2.0371287 6.3215709
1.0007069 -1.8771522 3.5496764
0.93378162 -1.7486864 2.6997557
1.1406043 -2.1324737 2.6999617
1.2230467 -2.2703969 2.6140387
1.0897709 -2.0204678 1.9334055
1.666966 -3.0893648 2.3861356
1.457283 -2.6985159 1.6919231
1.3527867 -2.5196803 2.6283011
1.1587241 -2.1564198 1.8660526
1.4438982 -2.6860409 1.877628
1.3032184 -2.4203067 1.0458617
0.011214081 -0.044319972 3.7191319
0.51755053 -1.0085675 7.2068014
0.65827399 -1.2683748 6.8937402
0.60162514 -1.1456118 4.1838603
1.2423167 -2.3520501 6.326088
0.88096678 -1.6581111 2.830282
1.1584934 -2.1777716 3.0299606
0.092820391 -0.20322829 3.7032392
0.17547296 -0.35067546 3.6140947
0.82272989 -1.5807388 6.8985004
1.070719 -2.0408785 6.3215709
0.93970007 -1.7828498 4.2308855
0.96733552 -1.8299077 3.455826
0.92767185 -1.7519354 2.6997557
1.4238394 -2.6845264 3.3725169
1.0808759 -2.0208273 1.9302671
1.6719537 -3.1246595 2.4080672
1.4478545 -2.7035863 1.6919231
1.352756 -2.5408659 2.6449285
1.1511898 -2.1604512 1.8660526
1.4162633 -2.6568277 1.8548293
1.294762 -2.4248409 1.0458617
0.011059307 -0.044358846 3.7191319
0.51402682 -1.0103679 7.2068014
0.65384257 -1.2706649 6.8937402
0.59762251 -1.1477048 4.1838603
1.234099 -2.3563724 6.326088
0.87255043 -1.6561968 2.8220162
1.1090142 -2.1024215 2.9225106
0.092110425 -0.20355107 3.7032392
0.1742478 -0.35128585 3.6140947
0.81778347 -1.5847181 6.9033403
1.0635885 -2.0446038 6.3215709
0.87196887 -1.6684264 3.9563117
0.94036013 -1.7940036 3.3833053
0.92155087 -1.7551628 2.6997557
1.4144599 -2.6894803 3.3725169
0.97513306 -1.8408298 2.1269066
1.075639 -2.0280263 1.9334055
1.6375184 -3.0861523 2.3751698
1.4467189 -2.7242732 1.7011983
1.2836537 -2.4161973 1.1937402
1.3421355 -2.5422707 2.641603
1.324914 -2.5075445 2.148596
1.0625024 -2.0100493 1.4216557
1.2840803 -2.4251726 1.0442182
0.010904398 -0.044397183 3.7191319
0.51084656 -1.0128498 7.211741
0.6494031 -1.2729396 6.8937402
0.59155881 -1.1458046 4.1695442
1.2258663 -2.3606656 6.326088
0.7582801 -1.4552181 3.0744548
0.86415815 -1.6542439 2.8137503
1.0808719 -2.0665164 2.8687856
0.091282412 -0.20360738 3.6982474
0.17348988 -0.35284916 3.6240377
0.8122468 -1.587563 6.9033403
1.056445 -2.0483038 6.3215709
0.81606519 -1.5748153 3.731251
0.86914974 -1.672309 3.1529448
0.91541851 -1.758369 2.6997557
1.3972259 -2.6793711 3.354141
0.97367644 -1.8536946 2.1374204
1.102976 -2.0972233 1.9930362
1.6208949 -3.0807483 2.3669455
1.4351367 -2.7253873 1.6988796
1.2795331 -2.4288664 1.1974864
1.2968901 -2.4774725 2.5717676
4.2648635 -8.1405487 6.7752442
1.0915008 -2.0824728 1.467253
1.273412 -2.4254591 1.0425748
0.010749357 -0.044434976 3.7191319
0.50765526 -1.0153219 7.21668
0.64449644 -1.2742901 6.8888454
0.58891553 -1.1505201 4.1790881
1.2176185 -2.3649304 6.326088
0.75979096 -1.4706231 3.1007893
0.85708433 -1.6547514 2.8096173
1.0603719 -2.0446682 2.8342481
0.090571135 -0.20392478 3.6982474
0.17225716 -0.35345259 3.6240377
0.80556315 -1.5881464 6.893661
1.0492886 -2.0519791 6.3215709
0.78668928 -1.531181 3.6232216
0.84777778 -1.6451938 3.0974877
0.90927511 -1.7615536 2.6997557
1.3645096 -2.63906 3.2990136
1.160437 -2.225306 2.1060207
1.446117 -2.7696478 1.7220676
1.2581688 -2.4086635 1.1862482
1.2521138 -2.4123907 2.5019321
4.2382851 -8.1589737 6.7781873
1.2034951 -2.3157773 1.6192437
1.2627572 -2.4257004 1.0409312
0.010594184 -0.044472225 3.7191319
0.50445288 -1.0177841 7.2216191
0.64004439 -1.2765321 6.8888454
0.58219445 -1.1472441 4.1599998
1.209356 -2.3691664 6.326088
0.74591875 -1.456213 3.0656767
0.85001761 -1.6552299 2.8054843
1.042969 -2.0284033 2.8073854
0.089858748 -0.20423968 3.6982474
0.17125365 -0.35453197 3.629009
0.79888541 -1.5887027 6.8839827
1.0421195 -2.0556293 6.3215709
0.7625683 -1.4970608 3.5376985
0.82660592 -1.6179502 3.0420306
0.90312058 -1.7647169 2.6997557
1.3630215 -2.6588912 3.3173892
1.1946901 -2.3135777 2.6385705
1.200928 -2.3226964 2.1907589
1.0576109 -2.0446362 1.5938519
1.4384769 -2.7786129 1.7243863
1.2454892 -2.4048073 1.1825022
1.2402686 -2.4101067 2.495281
4.1820188 -8.1198168 6.7340398
1.4678813 -2.8487842 1.9688224
1.2499506 -2.4217012 1.0376441
0.0104338 -0.044465598 3.7141321
0.50089711 -1.0195388 7.2216191
0.63558459 -1.2787584 6.8888454
0.91353685 -1.8160396 6.5459919
1.2001966 -2.3716302 6.3214855
0.74083108 -1.4588078 3.0656767
0.84295791 -1.6556793 2.8013513
1.0271484 -2.0148978 2.7843604
0.089031138 -0.20428695 3.6932559
0.17024472 -0.35560867 3.6339808
0.79221362 -1.5892316 6.8743033
1.0349376 -2.0592544 6.3215709
0.75439435 -1.4938837 3.524195
0.82095319 -1.6208258 3.0420306
0.89695507 -1.7678586 2.6997557
1.1898571 -2.3240824 2.6455796
1.1874863 -2.3164833 2.1813436
1.0790886 -2.104126 1.634974
1.3883132 -2.704797 1.6780103
1.2349697 -2.4050162 1.180629
1.2369387 -2.4243991 2.5052576
4.1481347 -8.1235657 6.7252102
1.4677337 -2.8730853 1.9814882
1.2393385 -2.4218459 1.0360007
0.010278521 -0.044501748 3.7141321
0.4973352 -1.021281 7.2216191
0.63111699 -1.2809693 6.8888454
0.89853358 -1.801851 6.4839563
1.1901587 -2.3723125 6.3122802
0.7378881 -1.4656634 3.0744548
0.83590549 -1.6560993 2.7972186
1.0042063 -1.9870031 2.7421479
0.088430718 -0.20486203 3.6982474
0.16923036 -0.3566826 3.638952
0.7849912 -1.5886065 6.8597851
1.0277432 -2.0628545 6.3215709
0.7472263 -1.4926145 3.5151925
1.209651 -2.4091458 4.4796505
0.89077866 -1.7709788 2.6997557
0.90511763 -1.796392 2.2589419
1.1865796 -2.3377624 2.6560934
1.1688124 -2.2997947 2.1625128
1.335153 -2.6259799 2.0160377
1.2223606 -2.4010496 1.176883
1.2672284 -2.5053341 2.5817442
4.1270556 -8.152421 6.7369833
1.5803992 -3.1204715 2.1410785
1.2287406 -2.421946 1.0343572
21.36344 -42.073227 1.9971249
0.010123119 -0.044537358 3.7141321
0.49376723 -1.0230108 7.2216191
0.62664175 -1.2831644 6.8888454
0.89025432 -1.8009619 6.4696403
1.1836103 -2.3799512 6.3214855
0.73383683 -1.4703733 3.0788438
0.83011955 -1.6590072 2.7972186
0.98434323 -1.964705 2.7076104
0.087715074 -0.20516947 3.6982474
0.16821055 -0.35775378 3.6439238
0.77778268 -1.5879502 6.8452673
1.0213003 -2.0679767 6.3262634
0.74201155 -1.4952137 3.5151925
1.2047203 -2.4203579 4.4924479
0.88459134 -1.7740774 2.6997557
0.91701913 -1.8359354 2.3030438
1.1848236 -2.3546326 2.6701114
1.1520208 -2.2864802 2.1468205
1.3165681 -2.6119547 2.0023305
1.574905 -3.1217909 1.9168466
1.2118832 -2.4011631 1.17501
21.270794 -42.09074 4.3267674
1.3203979 -2.6332369 2.7047877
4.1094508 -8.1884527 6.754642
1.5733654 -3.1336741 2.1461449
1.2181574 -2.4220018 1.0327138
21.247894 -42.210014 1.9999464
0.0099675925 -0.04457242 3.7141321
0.48985812 -1.0240271 7.21668
0.62215883 -1.285344 6.8888454
0.87673873 -1.7893131 6.4171486
1.1761594 -2.3858206 6.326088
0.73082358 -1.4772192 3.0876219
0.82307309 -1.6593738 2.7930856
0.94896579 -1.9107144 2.6308603
0.08710973 -0.20574076 3.7032392
0.16740994 -0.35930565 3.6538668
0.77058846 -1.5872632 6.830749
1.0140755 -2.0715292 6.3262634
0.7396701 -1.5036551 3.5286961
1.1697246 -2.3707547 4.3943315
0.87839329 -1.7771543 2.6997557
0.91361338 -1.8452016 2.310394
1.1941073 -2.3938582 2.7086616
1.147511 -2.297452 2.1530976
1.2308133 -2.4631748 1.8899302
1.659106 -3.3174438 2.0281491
1.1993457 -2.3970871 1.1712639
21.121508 -42.160278 4.3263202
1.3145219 -2.6445169 2.7114387
4.082643 -8.2063665 6.757585
1.6200407 -3.2549238 2.2221403
1.2075886 -2.422013 1.0310701
21.020613 -42.142387 6.6605654
21.156193 -42.395683 2.0049846
0.0098164231 -0.044650346 3.7191319
0.48594797 -1.0250286 7.211741
0.61766839 -1.287508 6.8888454
0.86787945 -1.7869915 6.3980608
1.178116 -2.4109757 6.3813181
0.72882593 -1.4862125 3.1007893
0.81727582 -1.6622367 2.7930856
0.90406823 -1.8363719 2.5272477
0.086391032 -0.20604359 3.7032392
0.16637763 -0.36037204 3.6588383
0.76286364 -1.5854124 6.8113914
1.0068383 -2.0750563 6.3262634
0.73537087 -1.5081847 3.5331974
0.87218451 -1.7802097 2.6997557
1.2969933 -2.64271 3.2696121
1.1999698 -2.4267833 2.7402024
1.1550274 -2.3328373 2.1813436
1.1089952 -2.2388906 1.722701
1.4566617 -2.9382355 1.8032255
1.1868513 -2.3929527 1.1675179
20.997162 -42.279961 9.0539522
21.084965 -42.456764 4.3486743
1.3036325 -2.6457398 2.708113
1.306227 -2.6486907 2.2339478
1.5209335 -3.0827274 2.1056142
1.1991267 -2.4262135 1.0310701
20.980932 -42.433022 6.6944084
21.032442 -42.518536 2.0072014
0.0096605048 -0.044684339 3.7191319
0.48203677 -1.0260153 7.2068014
0.61317033 -1.2896562 6.8888454
0.86163634 -1.7900101 6.3980608
1.1790596 -2.4344149 6.4319458
0.72363359 -1.4887475 3.1007893
0.8102358 -1.6625497 2.7889526
0.8484571 -1.7386954 2.392935
0.085780777 -0.20661099 3.7082307
0.16556114 -0.36192057 3.6687813
0.75570202 -1.5846617 6.7968726
0.99884111 -2.077003 6.3215709
0.7338903 -1.5185828 3.5512023
1.1599704 -2.3929441 4.4199271
0.86596513 -1.7832433 2.6997557
1.2966584 -2.6655128 3.2916632
1.2087559 -2.4661827 2.7787523
1.1914625 -2.4277043 2.2629435
1.0495735 -2.1376522 1.6459398
1.3330817 -2.7127118 1.6687351
1.1744004 -2.3887603 1.1637717
20.84511 -42.344177 9.0520859
20.987223 -42.63287 4.3589573
1.2993048 -2.6603396 2.7180896
1.3449003 -2.7512815 2.3134131
1.3359351 -2.7317441 1.8725616
1.1885729 -2.4261439 1.0294267
20.813917 -42.467701 11.497402
20.887169 -42.617165 6.7116756
20.870701 -42.564777 2.0059924
0.0095044682 -0.044717789 3.7191319
0.47845235 -1.0276916 7.2068014
0.60866487 -1.2917886 6.8888454
0.85474014 -1.7916595 6.3932886
1.1798539 -2.4578898 6.482574
0.72570807 -1.5063684 3.1315129
0.8044275 -1.6653678 2.7889526
0.82703197 -1.7099061 2.3507226
0.085059047 -0.20690916 3.7082307
0.16473585 -0.36346778 3.6787243
0.74801797 -1.582744 6.7775149
0.9915849 -2.080477 6.3215709
0.72482389 -1.5132817 3.5331974
1.1809735 -2.4581001 4.5308414
0.85973513 -1.7862554 2.6997557
1.2829292 -2.6608617 3.2806377
1.2016982 -2.4735947 2.7822568
1.2204386 -2.5088522 2.3319895
1.1793357 -2.4232907 1.8515497
1.2169148 -2.498311 1.5412011
1.1619933 -2.3845103 1.1600257
20.819962 -42.668324 9.1052456
20.842646 -42.714821 4.3598509
1.3095325 -2.7051878 2.7579958
1.301803 -2.6868455 2.257493
1.2662231 -2.6122582 1.7914999
1.1800969 -2.4302781 1.0294267
20.640064 -42.487637 11.483335
20.783722 -42.78336 6.7261796
20.663033 -42.516048 2.000551
0.0093523385 -0.044794142 3.7241316
0.47518742 -1.0300611 7.211741
0.60372132 -1.2929827 6.8839502
0.84720504 -1.7919331 6.3837447
1.1570003 -2.4320016 6.4043307
0.72560459 -1.519699 3.1534581
0.79739439 -1.6656275 2.7848196
0.83352721 -1.7387956 2.3852601
0.084336281 -0.20720482 3.7082307
0.16390176 -0.36501363 3.6886673
0.73982358 -1.5796536 6.7533178
0.98431665 -2.0839255 6.3215709
0.72607112 -1.5295693 3.5647061
0.8534947 -1.7892454 2.6997557
1.2780181 -2.6745002 3.2916632
1.1930563 -2.4777744 2.7822568
1.2404101 -2.5727007 2.3853433
1.1835859 -2.4537563 1.8707401
1.1850758 -2.4546728 1.5133755
1.1516464 -2.3843772 1.1581527
20.564129 -42.557865 13.983093
20.698698 -42.798233 9.1173697
1.2693951 -2.6457806 2.6948111
1.1769378 -2.4508901 2.0632443
1.262697 -2.6283195 1.7990994
1.1716064 -2.4343827 1.0294267
20.607601 -42.800289 11.547812
20.606325 -42.797646 6.7172012
20.479809 -42.515903 1.9973265
0.009195921 -0.044826511 3.7241316
0.47191179 -1.0324203 7.21668
0.5992043 -1.2950822 6.8839502
0.83967847 -1.7921761 6.3742008
1.1443387 -2.4271898 6.3813181
0.72644109 -1.535212 3.1797926
0.79157537 -1.6684008 2.7848196
0.83708006 -1.7619609 2.4121227
0.083612487 -0.20749794 3.7082307
0.16327503 -0.36704534 3.7035818
0.73165989 -1.5765254 6.7291212
0.97630483 -2.0857854 6.3168778
1.2701732 -2.7002552 6.2339258
0.84724385 -1.7922138 2.6997557
