# .PCD v0.7 - Point Cloud Data file format
VERSION 0.7
FIELDS x y z
SIZE 4 4 4
TYPE F F F
COUNT 1 1 1
WIDTH 1470
HEIGHT 1
VIEWPOINT 0 0 0 1 0 0 0
POINTS 1470
DATA ascii
-0.21992691 0.67179966 1.3627138
-0.28737053 0.87485725 1.4250796
-0.91013932 2.7663951 3.563374
-0.030220287 0.112923 1.8613172
-0.053721465 0.17734396 1.6851511
-0.11235486 0.35168266 1.4589877
-0.15246297 0.47218797 1.4035518
-0.21306846 0.65583873 1.4896463
-0.24800244 0.76032126 1.3783162
-0.32292509 0.9877916 1.4508783
-0.8722465 2.6621883 3.1152554
-0.73066968 2.2079 2.365216
-0.79952294 2.4117692 2.1311283
-0.7760781 2.3396935 1.7007691
-0.74876565 2.2547395 1.3301903
-0.73701757 2.2180836 1.0326594
-0.71898121 2.1625559 0.75980544
-0.70277196 2.1113548 0.5139491
-0.68408412 2.055218 0.28740814
-0.73701108 2.23755 2.1793587
-0.7932443 2.4054816 1.9278591
-0.76643795 2.3228421 1.5229828
-0.74243456 2.2461636 1.1810611
-0.72672725 2.1973703 0.89465892
-0.7070598 2.1366668 0.63353604
-0.68760145 2.0778728 0.39747855
-0.67516869 2.0391247 0.18032371
-0.0038910627 0.032122359 2.1741908
-0.074274413 0.23969126 1.5958045
-0.091800235 0.29183838 1.4943049
-0.13441373 0.42069179 1.4590573
-0.17818673 0.5533058 1.429002
-0.21831745 0.674842 1.3671029
-0.28518361 0.87853163 1.4292125
-0.90939629 2.796989 3.5979116
-0.029897185 0.11330755 1.8663088
-0.053253673 0.17804147 1.6901227
-0.11112656 0.35207272 1.4589877
-0.1508138 0.47271729 1.4035518
-0.21476854 0.66901553 1.5166535
-0.2453469 0.76118231 1.3783162
-0.31947508 0.98891276 1.4508783
-0.87547934 2.7039206 3.1593573
-0.72184968 2.2070475 2.3617113
-0.7717101 2.3553636 2.0809131
-0.77311665 2.3582821 1.711735
-0.75056022 2.2868018 1.346422
-0.73650271 2.2426655 1.0420246
-0.71741807 2.1832819 0.76544559
-0.70153803 2.1324601 0.51767957
-0.68313092 2.0765159 0.28919646
-0.72919607 2.240109 2.1793587
-0.79360968 2.4351375 1.9484611
-0.76634347 2.3500936 1.5381819
-0.74163586 2.2703125 1.1915514
-0.72492075 2.2178473 0.90123296
-0.70564067 2.1576011 0.63822532
-0.68804067 2.1037939 0.40093195
-0.67426187 2.0604618 0.18112983
-0.0037693572 0.032353703 2.1991899
-0.073663801 0.2406923 1.6007437
-0.090780973 0.29215705 1.4943049
-0.13339329 0.42258203 1.4638293
-0.17625424 0.55392438 1.429002
-0.21596047 0.67559999 1.3671029
-0.28297451 0.88220131 1.4333454
-0.91041142 2.8337142 3.6401241
-0.029571768 0.11369123 1.8713005
-0.052781656 0.17873785 1.6950942
-0.11027052 0.35365865 1.4638271
-0.1491628 0.47324088 1.4035518
-0.21177407 0.66768593 1.5121523
-0.24268839 0.76203412 1.3783162
-0.3160212 0.99002194 1.4508783
-0.88359612 2.7618523 3.2218351
-0.71414125 2.2095537 2.3617113
-0.74549997 2.3024971 2.0338361
-0.77003455 2.3768778 1.722701
-0.75077331 2.3146901 1.3603348
-0.73582506 2.2672701 1.0513897
-0.71571892 2.2040229 0.77108568
-0.70168394 2.1582537 0.52234262
-0.68203723 2.0978317 0.29098478
-0.72137213 2.2426407 2.1793587
-0.79625547 2.4725199 1.9749496
-0.76739007 2.3814757 1.5559143
-0.74067736 2.2944827 1.2020416
-0.72443163 2.2428324 0.90945053
-0.70408392 2.1785514 0.64291459
-0.68678439 2.1250312 0.40369466
-0.67321414 2.0818172 0.18193595
-0.0036543356 0.032410245 2.2041895
-0.072823174 0.24094798 1.6007437
-0.089760602 0.29247215 1.4943049
-0.13191739 0.4230451 1.4638293
-0.17431962 0.55453622 1.429002
-0.21432187 0.67863369 1.371492
-0.28074327 0.88586634 1.4374783
-0.90827191 2.861315 3.6708241
-0.029174732 0.11379376 1.8713005
-0.052157421 0.178921 1.6950942
-0.10940474 0.35524288 1.4686666
-0.14802258 0.47540644 1.4082446
-0.21009275 0.67049855 1.5166535
-0.24002691 0.76287663 1.3783162
-0.31256342 0.99111909 1.4508783
-0.87701511 2.7746174 3.2328606
-0.70642406 2.212033 2.3617113
-0.73508626 2.2976711 2.0275593
-0.77065641 2.407428 1.7418911
-0.75350463 2.3510442 1.3788851
-0.73498446 2.2918973 1.0607549
-0.71534932 2.2293463 0.7781359
-0.70015591 2.1793976 0.52607316
-0.680803 2.1191649 0.2927731
-0.71467024 2.2487035 2.1826839
-0.79252195 2.4906909 1.9867221
-0.76561129 2.4046781 1.56858
-0.73955923 2.3186738 1.2125319
-0.72234106 2.2633421 0.91602457
-0.70386809 2.2041471 0.64877617
-0.68538809 2.1462851 0.40645739
-0.67202544 2.1031899 0.18274207
-0.0035345352 0.032553535 2.2191892
-0.071981668 0.2412007 1.6007437
-0.089033775 0.29375836 1.4992001
-0.13087881 0.42492968 1.4686013
-0.17238286 0.55514133 1.429002
-0.21195169 0.67937762 1.371492
-0.27848989 0.88952649 1.4416113
-0.91266394 2.9103441 3.7283864
-0.028777339 0.1138949 1.8713005
-0.051678766 0.17961459 1.7000657
-0.10816404 0.35562262 1.4686666
-0.14636219 0.47592023 1.4082446
-0.20775099 0.67122781 1.5166535
-0.2373625 0.76370984 1.3783162
-0.30999795 0.99508101 1.4548682
-0.87338692 2.7970781 3.2549114
-0.69869834 2.2144856 2.3617113
-0.72706139 2.3002229 2.0275593
-0.76224822 2.4101033 1.7418911
-0.75331676 2.3789992 1.3927979
-0.73398089 2.316546 1.0701201
-0.71336192 2.2501209 0.78377604
-0.69997478 2.2052383 0.53073621
-0.6794281 2.1405149 0.29456142
-0.70793492 2.2547469 2.1860096
-0.78745937 2.5050104 1.9955517
-0.76497322 2.4320092 1.5837791
-0.73828107 2.342885 1.2230222
-0.72153592 2.2883677 0.92424208
-0.70201963 2.2251325 0.65346545
-0.68385178 2.1675551 0.4092201
-0.67219973 2.129344 0.18374974
-0.0034208808 0.032565676 2.2191892
-0.07135801 0.24219608 1.605683
-0.08800783 0.29406735 1.4992001
-0.12939472 0.42538399 1.4686013
-0.17044401 0.5557397 1.429002
-0.21028396 0.68240219 1.3758811
-0.27704552 0.89587009 1.4498771
-0.91198295 2.9441295 3.7667615
-0.028379595 0.11399467 1.8713005
-0.051051483 0.17979388 1.7000657
-0.10728302 0.35720202 1.473506
-0.14520112 0.47807956 1.4129373
-0.20604281 0.67403084 1.5211548
-0.23546034 0.76702696 1.3825821
-0.3074086 0.99903703 1.4588583
-0.8766064 2.8422246 3.3026886
-0.69202518 2.2203157 2.365216
-0.71438742 2.2878852 2.0150054
-0.75881845 2.428714 1.752857
-0.7529428 2.4069808 1.4067107
-0.73281413 2.3412154 1.0794853
-0.71267182 2.2754865 0.7908262
-0.69962168 2.2311044 0.53539932
-0.67791235 2.1618807 0.29634973
-0.69895411 2.253638 2.1826839
-0.78710073 2.534765 2.0161538
-0.76287454 2.4552481 1.5964451
-0.73954058 2.3757818 1.2377086
-0.72056502 2.3134153 0.93245965
-0.70147926 2.2507718 0.65932697
-0.68364865 2.193568 0.41267353
-0.67071217 2.1507549 0.18455586
-0.0033071844 0.032577418 2.2191892
-0.070728287 0.24319004 1.6106222
-0.087268628 0.29534945 1.5040954
-0.12833801 0.42726278 1.4733733
-0.16850308 0.55633128 1.429002
-0.20790063 0.68313205 1.3758811
-0.27473846 0.89952302 1.4540101
-0.89044857 2.9105148 3.7207115
-0.028047871 0.11437399 1.8762921
-0.05042357 0.17997099 1.7000657
-0.10603549 0.35757434 1.473506
-0.14353141 0.47858348 1.4129373
-0.20431758 0.67683011 1.525656
-0.23278147 0.7678442 1.3825821
-0.30479538 1.0029871 1.4628483
-0.87754565 2.8809412 3.3431156
-0.68427068 2.2227178 2.365216
-0.70295554 2.2792065 2.00559
-0.76883107 2.4912808 1.7939789
-0.75238252 2.4349887 1.4206235
-0.73148388 2.3659043 1.0888505
-0.7103954 2.2962914 0.79646635
-0.69909644 2.2569942 0.54006243
-0.67625564 2.1832619 0.29813805
-0.69108319 2.2560639 2.1826839
-0.78891426 2.5722764 2.0426424
-0.76188749 2.4826226 1.6116441
-0.73924547 2.4043772 1.2502968
-0.72081631 2.3429968 0.9423207
-0.70076853 2.2764342 0.66518861
-0.68181521 2.2148724 0.41543624
-0.67055392 2.1769559 0.1855635
-0.0031961193 0.032545213 2.2141891
-0.069878958 0.24343544 1.6106222
-0.086237125 0.29565227 1.5040954
-0.12684581 0.42770818 1.4733733
-0.1665601 0.55691606 1.429002
-0.20620382 0.68614739 1.3802701
-0.27240929 0.90317076 1.4581431
-0.86081761 2.8491716 3.6401241
-0.02764846 0.1144712 1.8762921
-0.04979505 0.1801459 1.7000657
-0.10513925 0.35914877 1.4783454
-0.14234951 0.4807364 1.4176301
-0.19946752 0.66919392 1.5076511
-0.23084748 0.77115065 1.3868481
-0.30215836 1.0069312 1.4668382
-0.8811543 2.9294374 3.3945677
-0.68273157 2.2455652 2.3862433
-0.69272715 2.2741995 1.9993131
-0.7747587 2.5419466 1.8268765
-0.75292879 2.4672587 1.4368552
-0.72999018 2.3906124 1.0982156
-0.70938408 2.3216953 0.80351645
-0.69839901 2.282908 0.54472554
-0.6759147 2.20942 0.30037344
-0.68212283 2.2548888 2.1793587
-0.79633349 2.629173 2.0838463
-0.76196885 2.5141459 1.6293764
-0.74007839 2.4373424 1.2649833
-0.72086978 2.3726079 0.9521817
-0.69988704 2.3021188 0.67105019
-0.68128169 2.2409286 0.41888961
-0.67022085 2.2031817 0.18657117
-0.0030853192 0.032512631 2.2091894
-0.069239691 0.2444257 1.6155615
-0.085485592 0.29693016 1.5089906
-0.12535205 0.42814833 1.4733733
-0.16461506 0.5574941 1.429002
-0.20380747 0.68686295 1.3802701
-0.27005795 0.90681314 1.462276
-0.027313115 0.11484843 1.8812838
-0.049165919 0.18031862 1.7000657
-0.10388495 0.35951358 1.4783454
-0.14067057 0.48123035 1.4176301
-0.19221619 0.65317833 1.4716414
-0.22889324 0.77445287 1.391114
-0.29949749 1.0108689 1.4708283
-0.84679514 2.8512485 3.3026886
-0.66976196 2.2308564 2.3687205
-0.68254226 2.2691491 1.9930362
-0.78275192 2.6006918 1.8652571
-0.7519806 2.4953203 1.450768
-0.72833294 2.4153385 1.1075808
-0.70681834 2.3425276 0.8091566
-0.69752902 2.3088436 0.54938865
-0.67539924 2.2356014 0.30260882
-0.6721105 2.2501011 2.1727076
-0.79873252 2.6706622 2.1132779
-0.76060343 2.5415692 1.6445755
-0.7393865 2.4659948 1.2775716
-0.72072524 2.4022477 0.96204275
-0.70023233 2.3324802 0.67808414
-0.67915064 2.262265 0.42165235
-0.66827542 2.2246466 0.18737729
-0.0029837112 0.032349076 2.1891901
-0.06838607 0.24466591 1.6155615
-0.08472617 0.29820639 1.5138859
-0.12427072 0.43001744 1.4781452
-0.16266805 0.5580653 1.429002
-0.20208162 0.68986869 1.3846592
-0.26768452 0.91045016 1.466409
-0.64531589 2.1909823 2.811223
-0.02697547 0.11522471 1.8862754
-0.048673436 0.18100424 1.7050372
-0.10297353 0.36108294 1.4831848
-0.13946787 0.48337659 1.4223229
-0.18690008 0.64339226 1.4491354
-0.22691873 0.77775085 1.3953799
-0.29681277 1.0148003 1.4748185
-0.79200989 2.7012854 3.129956
-0.6579169 2.2195036 2.3547022
-0.67350924 2.2677867 1.9898978
-0.78319776 2.6354742 1.8871889
-0.75210905 2.5276511 1.4669995
-0.72651184 2.4400823 1.116946
-0.70548552 2.3679678 0.81620675
-0.69648635 2.3348007 0.5540517
-0.67470926 2.2618065 0.30484423
-0.66213989 2.245271 2.1660566
-0.80542982 2.7277057 2.1544824
-0.76149869 2.5772817 1.6648409
-0.73979181 2.4990237 1.292258
-0.72038245 2.431915 0.9719038
-0.69899267 2.358211 0.68394566
-0.67828631 2.2883613 0.42510575
-0.6661883 2.2461245 0.18818341
-0.0028707734 0.032359295 2.1891901
-0.067531608 0.24490312 1.6155615
-0.083958872 0.29948092 1.5187811
-0.12276892 0.43044859 1.4781452
-0.16071905 0.55862969 1.429002
-0.20033728 0.69287074 1.3890483
-0.26450482 0.91137904 1.466409
-0.63676924 2.1901436 2.8073854
-0.026697967 0.11588188 1.8962587
-0.048041318 0.18117304 1.7050372
-0.10171248 0.36144021 1.4831848
-0.1382519 0.4855203 1.4270157
-0.18105499 0.63148451 1.4221282
-0.224924 0.78104448 1.3996458
-0.29410428 1.0187253 1.4788084
-0.65629226 2.2676578 2.6374838
-0.64716083 2.2115188 2.3441887
-0.66449404 2.2663887 1.9867593
-0.78223306 2.6662781 1.906379
-0.75202072 2.5600123 1.4832311
-0.72714138 2.4737375 1.1300571
-0.70398349 2.3934267 0.82325697
-0.69527084 2.3607783 0.55871487
-0.67525125 2.2928104 0.30752671
-0.65325481 2.2439835 2.1627309
-0.80382091 2.757664 2.1750844
-0.76215369 2.6130311 1.6851063
-0.73870248 2.5277288 1.3048463
-0.71984124 2.4616094 0.98176491
-0.69894689 2.3886268 0.69097954
-0.6772477 2.3144786 0.42855912
-0.66536319 2.2724097 0.18919106
-0.0027315679 0.032717194 2.2291887
-0.066879392 0.24588735 1.6205007
-0.082912982 0.29977217 1.5187811
-0.12126562 0.43087453 1.4781452
-0.15823483 0.5573079 1.4243995
-0.19857442 0.69586897 1.3934375
-0.25977251 0.90688622 1.4581431
-0.62823629 2.1892722 2.8035481
-0.026293302 0.11597437 1.8962587
-0.047542259 0.18185566 1.7100087
-0.10045021 0.36179304 1.4831848
-0.13655628 0.48599994 1.4270157
-0.17766485 0.62792301 1.4131256
-0.22362176 0.78684235 1.4081777
-0.29137197 1.0226437 1.4827985
-0.64092427 2.2438564 2.6080825
-0.63745803 2.2069118 2.3371794
-0.65549684 2.2649555 1.9836209
-0.78106284 2.6971073 1.9255693
-0.75048196 2.5881493 1.4971439
-0.72625297 2.5029745 1.1412953
-0.70364976 2.4235103 0.83171713
-0.69388247 2.3867757 0.56337792
-0.67419475 2.3190634 0.30976209
-0.64438689 2.2426615 2.1594057
-0.80313009 2.7915287 2.1986296
-0.76256835 2.6488161 1.7053717
-0.73616368 2.5520957 1.3153365
-0.71910143 2.4913287 0.99162596
-0.69734848 2.4144011 0.69684118
-0.67740929 2.3453746 0.43270323
-0.66297543 2.2939165 0.18999718
-0.0026001923 0.032944016 2.2541876
-0.066020682 0.24611932 1.6205007
-0.082133383 0.30104226 1.5236763
-0.11976086 0.43129519 1.4781452
-0.15681519 0.5597381 1.429002
-0.19744197 0.70116866 1.4022156
-0.26043159 0.92132723 1.4788078
-0.61797071 2.1821997 2.7920356
-0.025888314 0.11606545 1.8962587
-0.046907175 0.1820205 1.7100087
-0.099518172 0.36335397 1.4880242
-0.13531958 0.48813674 1.4317083
-0.17488685 0.62644249 1.4086244
-0.22157778 0.7901293 1.4124436
-0.28780049 1.0236546 1.4827985
-0.62665033 2.2232389 2.5823565
-0.62779534 2.2022641 2.3301704
-0.64651769 2.2634871 1.9804823
-0.77968681 2.7279606 1.9447596
-0.74997455 2.6205652 1.5133755
-0.7264455 2.5366917 1.1544065
-0.70443588 2.4582317 0.84158736
-0.69232094 2.412792 0.56804103
-0.67296308 2.3453367 0.3119975
-0.63553607 2.2413051 2.15608
-0.8022126 2.825422 2.2221751
-0.76392043 2.6887822 1.7281704
-0.73346382 2.5764751 1.3258268
-0.71816278 2.5210729 1.001487
-0.69691092 2.4448669 0.70387506
-0.67600572 2.3715365 0.43615663
-0.66044551 2.315434 0.1908033
-0.0024601007 0.033257291 2.2891862
-0.065161161 0.24634828 1.6205007
-0.081082046 0.30132714 1.5236763
-0.11825463 0.4317106 1.4781452
-0.15486039 0.56028211 1.429002
-0.19563405 0.70416129 1.4066046
-0.25872555 0.927652 1.4870737
-0.61034966 2.1843436 2.7920356
-0.025483012 0.11615511 1.8962587
-0.04640156 0.18270007 1.7149802
-0.098249219 0.36369914 1.4880242
-0.13406961 0.49027076 1.4364011
-0.17269909 0.62704915 1.4086244
-0.21951357 0.79341161 1.4167095
-0.28503078 1.0275565 1.4867885
-0.61979413 2.2286789 2.5860314
-0.61817294 2.197576 2.3231614
-0.63755685 2.2619836 1.977344
-0.77810472 2.7588365 1.9639498
-0.74924999 2.6530085 1.5296072
-0.7264114 2.5704405 1.1675179
-0.70368284 2.4883718 0.85004753
-0.69192457 2.4435525 0.57363677
-0.67155623 2.3716295 0.31423289
-0.62670261 2.2399139 2.1527545
-0.80106819 2.8593423 2.2457204
-0.76500267 2.7287896 1.7509691
-0.73060256 2.6008668 1.3363171
-0.71830285 2.5553861 1.0129915
-0.69495308 2.47068 0.7097367
-0.67442775 2.3977172 0.43961003
-0.659127 2.3417702 0.19181097
-0.0023439957 0.033265676 2.2891862
-0.06430085 0.24657424 1.6205007
-0.080029726 0.30160832 1.5236763
-0.11674695 0.43212074 1.4781452
-0.15290371 0.56081927 1.429002
-0.19570602 0.71407944 1.424161
-0.25996387 0.94482899 1.5118713
-0.60101777 2.1802809 2.7843604
-0.025077401 0.11624335 1.8962587
-0.045763534 0.18286094 1.7149802
-0.096979067 0.36403987 1.4880242
-0.13235743 0.49073577 1.4364011
-0.17050923 0.62764812 1.4086244
-0.21742913 0.79668909 1.4209754
-0.28144222 1.0285453 1.4867885
-0.61021715 2.2242899 2.5786812
-0.60954458 2.1962843 2.3196568
-0.62965709 2.2641954 1.977344
-0.77631658 2.7897344 1.9831401
-0.74830782 2.6854784 1.5458387
-0.72615027 2.6042194 1.180629
-0.70401704 2.5231571 0.85991776
-0.69 2.4696083 0.57829988
-0.67131394 2.4027369 0.31691536
-0.61788666 2.2384889 2.1494291
-0.79969651 2.8932886 2.2692657
-0.7646656 2.7646818 1.7712344
-0.72636789 2.6208961 1.3447093
-0.71821219 2.589731 1.0244961
-0.69282329 2.4965088 0.71559823
-0.67267507 2.4239154 0.44306341
-0.65763259 2.3681259 0.19281861
-0.00224746 0.032926764 2.2491879
-0.063502699 0.24758321 1.62544
-0.079074837 0.30291253 1.5285715
-0.11501138 0.43258592 1.4781452
-0.1506512 0.56142855 1.429002
-0.19096744 0.7079221 1.4109938
-0.25911075 0.95672983 1.5284033
-0.59142143 2.1795826 2.7805231
-0.02461057 0.11634308 1.8962587
-0.045155276 0.18356107 1.7199517
-0.09583506 0.36564228 1.4928637
-0.13082871 0.49293116 1.4410939
-0.16798833 0.62832755 1.4086244
-0.21422927 0.79755551 1.4209754
-0.27809453 1.0325763 1.4907786
-0.60039967 2.2234488 2.575006
-0.60016656 2.1951683 2.3161523
-0.61993033 2.2628424 1.9742055
-0.77223188 2.8168905 1.999589
-0.74737191 2.722506 1.5643891
-0.72474128 2.6382809 1.1937402
-0.70322394 2.5582204 0.86978805
-0.68789768 2.5007761 0.58389556
-0.66826719 2.4294205 0.31915075
-0.60791683 2.2373478 2.1461036
-0.79656482 2.9276774 2.2928109
-0.76375312 2.8051639 1.7940331
-0.72612703 2.6633239 1.3635917
-0.71481532 2.6200504 1.0343572
-0.68876064 2.5228341 0.72145987
-0.67034125 2.4553752 0.44720748
-0.65429038 2.3949564 0.19382627
-0.0021584861 0.032716814 2.2241888
-0.062724583 0.2477815 1.62544
-0.078122817 0.30315945 1.5285715
-0.11403033 0.43438902 1.4829172
-0.14938673 0.56378764 1.4336045
-0.19613729 0.73629075 1.4636626
-0.25973836 0.97113168 1.549068
-0.58374155 2.1783338 2.7766855
-0.024244947 0.11641982 1.8962587
-0.044578381 0.18370204 1.7199517
-0.094685897 0.36594155 1.4928637
-0.12936558 0.49331719 1.4410939
-0.16667902 0.63092804 1.4131256
-0.21186194 0.79818767 1.4209754
-0.27580443 1.0363089 1.4947685
-0.59292597 2.2219448 2.5713308
-0.59288377 2.1971464 2.3161523
-0.61140704 2.2611284 1.9710671
-0.7705313 2.8476901 2.0187793
-0.74760741 2.7591748 1.5829396
-0.72373289 2.6673894 1.2049785
-0.70523912 2.5974526 0.88106829
-0.68776548 2.5313673 0.58949131
-0.66716015 2.4555368 0.32138616
-0.6012758 2.2391417 2.1461036
-0.79627115 2.9612548 2.3163562
-0.76214713 2.8323939 1.8092321
-0.73121011 2.7136712 1.3866704
-0.71564382 2.6540754 1.0458617
-0.68380463 2.5342522 0.72380447
-0.6699363 2.4811418 0.45066091
-0.65541875 2.4257121 0.19503546
-0.0020457918 0.032767225 2.2291887
-0.062089879 0.24874221 1.6303792
-0.077367201 0.30440387 1.5334667
-0.11258922 0.43476477 1.4829172
-0.14751631 0.56427991 1.4336045
-0.19856305 0.75546819 1.4987752
-0.26154169 0.99103403 1.5779986
-0.5756954 2.1771588 2.7728481
-0.02385875 0.11649958 1.8962587
-0.044091765 0.18436758 1.7249233
-0.093782127 0.36747161 1.4977031
-0.12816074 0.49541423 1.4457866
-0.16513461 0.6335839 1.4176269
-0.2092139 0.79888582 1.4209754
-0.27313152 1.0401323 1.4987586
-0.58469135 2.2206204 2.5676558
-0.58559448 2.1991005 2.3161523
-0.60390556 2.2631433 1.9710671
-0.76539856 2.8663893 2.0297451
-0.74760777 2.7958744 1.60149
-0.72207803 2.6966438 1.2162167
-0.70531273 2.6322124 0.89093852
-0.68572849 2.5573573 0.59415436
-0.66675216 2.4865961 0.32406864
-0.59289098 2.237514 2.1427782
-0.79370314 2.9912269 2.3369584
-0.76049429 2.8640704 1.8269643
-0.73386955 2.7599421 1.4076508
-0.71533823 2.6883776 1.0573663
-0.68540215 2.5740819 0.73318303
-0.66935492 2.5120606 0.45480499
-0.65509403 2.4568357 0.19624464
-0.0019357415 0.032730747 2.2241888
-0.061590593 0.25046688 1.6402577
-0.076550841 0.30565998 1.538362
-0.11107092 0.43515515 1.4829172
-0.14603288 0.56668335 1.438207
-0.20192944 0.77934164 1.5426661
-0.25241369 0.97015381 1.544935
-0.56728369 2.1760535 2.7690105
-0.023506487 0.11686566 1.9012504
-0.043568935 0.18503949 1.7298948
-0.092804842 0.3690159 1.5025425
-0.12676975 0.49755296 1.4504794
-0.16335234 0.63629359 1.4221282
-0.20563319 0.79712176 1.4167095
-0.27007189 1.0440437 1.5027486
-0.57569724 2.2194669 2.5639806
-0.5779146 2.2011311 2.3161523
-0.59501165 2.2614734 1.9679285
-0.77135736 2.929698 2.0708671
-0.74687839 2.8327343 1.6200403
-0.72046816 2.7306502 1.2293279
-0.70545703 2.6718845 0.90221882
-0.68433136 2.5882299 0.59975016
-0.664433 2.5129809 0.32630402
-0.58374304 2.2360594 2.1394527
-0.79397941 3.0371325 2.369333
-0.75653774 2.8918614 1.8421633
-0.73574036 2.8063886 1.4286313
-0.71313941 2.7182641 1.0672274
-0.68875515 2.6234715 0.74490619
-0.66768795 2.5432353 0.45894906
-0.6537016 2.4882121 0.19745383
-0.0018304635 0.032650504 2.2141891
-0.060715925 0.25068036 1.6402577
-0.075726636 0.30691403 1.5432572
-0.10991491 0.43698794 1.4876893
-0.14453448 0.56908327 1.4428096
-0.20098491 0.78700352 1.5558333
-0.25112233 0.97920656 1.5573338
-0.55888677 2.174916 2.765173
-0.023151956 0.11723067 1.906242
-0.042922761 0.18519045 1.7298948
-0.091817915 0.37055779 1.5073819
-0.12545203 0.4996663 1.4551722
-0.1616639 0.63897049 1.4266294
-0.20284945 0.79783475 1.4167095
-0.26791438 1.0508198 1.5107286
-0.56626707 2.2148938 2.5566301
-0.56933433 2.1996827 2.3126478
-0.58711404 2.2635367 1.9679285
-0.7747823 2.984988 2.1065061
-0.74478632 2.8653357 1.6362718
-0.71910101 2.7645547 1.2424392
-0.70458484 2.7068274 0.91208899
-0.68272686 2.6191232 0.60534585
-0.66319382 2.5441988 0.3289865
-0.57593417 2.2380836 2.1394527
-0.7934593 3.0790267 2.3987646
-0.75182086 2.9153559 1.8548293
-0.73502451 2.8440933 1.4454159
-0.71192288 2.752739 1.0787319
-0.689336 2.6635044 0.75428468
-0.66749161 2.5791094 0.46378383
-0.65252751 2.5194969 0.19866301
-0.0017257691 0.032569923 2.2041895
-0.060155284 0.25241327 1.6501362
-0.074601233 0.30718952 1.5432572
-0.10831254 0.43738785 1.4876893
-0.14292131 0.57150453 1.447412
-0.19401203 0.77147573 1.5251098
-0.25028715 0.99103391 1.5738657
-0.54933906 2.1707354 2.757498
-0.02277464 0.11759862 1.9112337
-0.042360995 0.18586652 1.7348663
-0.090459138 0.37089181 1.5073819
-0.12403349 0.50179809 1.459865
-0.1598468 0.64167118 1.4311305
-0.19992389 0.79857284 1.4167095
-0.26479471 1.0547173 1.5147187
-0.55649006 2.2103794 2.5492799
-0.56165248 2.2016566 2.3126478
-0.57920927 2.2655723 1.9679285
-0.77368516 3.024133 2.1311793
-0.74467456 2.9065387 1.6571411
-0.71865737 2.8029735 1.2574234
-0.70347714 2.7417963 0.92195922
-0.68167412 2.6549132 0.61187416
-0.66129529 2.5755532 0.33166897
-0.56681013 2.2365599 2.136127
-0.78018022 3.0740786 2.3928783
-0.75598609 2.9765863 1.8902937
-0.7296921 2.8688867 1.455906
-0.70950139 2.7874861 1.0902365
-0.68990159 2.7085238 0.7648356
-0.66491759 2.6104467 0.4679279
-0.64901859 2.5461898 0.19967067
-0.0016343724 0.032272745 2.1691911
-0.059362013 0.2533991 1.6550754
-0.073656961 0.30846426 1.5481526
-0.10698507 0.43925095 1.4924612
-0.14119221 0.5739463 1.4520147
-0.18702379 0.75594032 1.4943862
-0.24105288 0.97013944 1.5408021
-0.54022568 2.1697183 2.7536604
-0.022425769 0.11825335 1.921217
-0.041762292 0.18654825 1.7398378
-0.089326933 0.37245888 1.5122213
-0.12251306 0.50394762 1.4645576
-0.15738179 0.64228022 1.4311305
-0.19747956 0.80186713 1.4209754
-0.2621876 1.0615771 1.5226986
-0.54555374 2.2026274 2.5382543
-0.55319464 2.2037971 2.3126478
-0.5695563 2.2640047 1.9647902
-0.76410913 3.0351913 2.1366622
-0.74217212 2.9437399 1.6756915
-0.7169621 2.8416727 1.2724077
-0.69999021 2.7723839 0.93041945
-0.6798985 2.6908493 0.61840254
-0.65872067 2.607043 0.33435145
-0.55731487 2.2350969 2.1328015
-0.73409826 2.939796 2.2898679
-0.75395685 3.0171068 1.9130924
-0.72528189 2.8980839 1.4684943
-0.70682335 2.8222547 1.1017411
-0.6889497 2.7488713 0.77421409
-0.66331643 2.646605 0.47276267
-0.6453141 2.5728924 0.20067832
-0.0014766391 0.032280345 2.1691911
-0.058122966 0.25368619 1.6550754
-0.072148643 0.30882055 1.5481526
-0.10483722 0.43976852 1.4924612
-0.13874215 0.57655317 1.4566172
-0.1792531 0.74058235 1.4636626
-0.23481038 0.96587825 1.5325361
-0.52809966 2.1694028 2.7498231
-0.021835513 0.1186573 1.9262086
-0.040752362 0.18677147 1.7398378
-0.087245345 0.37295195 1.5122213
-0.12009444 0.50630313 1.4692504
-0.15379219 0.64314914 1.4311305
-0.19285789 0.80299121 1.4209754
-0.25677451 1.065999 1.5266887
-0.53126651 2.1991425 2.5309041
-0.54156697 2.2030108 2.3091431
-0.55848551 2.2667611 1.9647902
-0.74573618 3.0268395 2.1284378
-0.73575234 2.9818652 1.6942419
-0.71146053 2.8812714 1.2873919
-0.69236422 2.8039544 0.93887961
-0.67522711 2.7325227 0.62586349
-0.65342373 2.6442983 0.33748099
-0.54433012 2.234452 2.1294761
-0.74886847 3.0672078 1.9409574
-0.71554792 2.9285424 1.4810827
-0.69890112 2.8582678 1.1132456
-0.6828289 2.7904468 0.78359264
-0.65629554 2.6840539 0.47759742
-0.63760942 2.6056826 0.2018875
-0.0013329076 0.03254525 2.1991899
-0.057451554 0.25463566 1.6600147
-0.071351826 0.31005052 1.5530478
-0.10371917 0.44156703 1.4972332
-0.13738094 0.5788871 1.4612198
-0.17414638 0.72949392 1.4417173
-0.22980693 0.95840168 1.5201373
-0.52091175 2.1678436 2.7459855
-0.021553164 0.1190023 1.9312003
-0.040341653 0.18740591 1.7448093
-0.086551212 0.37440389 1.5170608
-0.11876854 0.50661576 1.4692504
-0.15210789 0.64354956 1.4311305
-0.19149786 0.80599743 1.4252415
-0.25556567 1.0724857 1.5346687
-0.52431548 2.1938393 2.5235536
-0.53387374 2.2048879 2.3091431
-0.55056965 2.2686968 1.9647902
-0.73423529 3.0187235 1.7127924
-0.71176952 2.9241543 1.3042493
-0.69036382 2.8340802 0.94733983
-0.67526633 2.7679203 0.63239181
-0.65265685 2.6752539 0.34016347
-0.5372147 2.2323329 2.1261506
-0.57358801 2.3798707 1.8660526
-0.74838614 3.1028121 1.9612229
-0.71158928 2.9435167 1.4873768
-0.69968766 2.8920951 1.1247503
-0.68515867 2.8299003 0.79297125
-0.65719563 2.7144141 0.48174149
-0.63404858 2.6168334 0.20229056
-0.0012033199 0.032679629 2.2141891
-0.056562357 0.25483465 1.6600147
-0.070269108 0.3102977 1.5530478
-0.10217718 0.44192639 1.4972332
-0.13580354 0.58126563 1.4658222
-0.16557407 0.70445061 1.3934375
-0.22516726 0.95372045 1.5118713
-0.51260346 2.1665294 2.7421479
-0.021185732 0.11936147 1.9361919
-0.039687239 0.1875456 1.7448093
-0.085243769 0.37470371 1.5170608
-0.117387 0.50870883 1.4739432
-0.14986056 0.64407665 1.4311305
-0.18868323 0.80666101 1.4252415
-0.25250852 1.0763049 1.5386587
-0.5158779 2.1923561 2.5198786
-0.52534693 2.203269 2.3056388
-0.54174238 2.2668192 1.9616517
-0.6181314 2.5845032 1.8268765
-0.7309165 3.0514235 1.7290239
-0.71128386 2.9671946 1.3211064
-0.687181 2.8644609 0.9558
-0.67478096 2.8084712 0.63985276
-0.6502949 2.7065687 0.34284595
-0.52769738 2.2269285 2.1194994
-0.56527722 2.3818583 1.8660526
-0.74651557 3.143153 1.9840215
-0.71707547 3.0122097 1.5188476
-0.69724852 2.9266751 1.1362547
-0.6831671 2.8653712 0.80117744
-0.65460742 2.745594 0.48588559
-0.63650531 2.6676264 0.20430589
-0.0010957186 0.032812737 2.2291887
-0.056015901 0.25575083 1.6649539
-0.069623746 0.31148654 1.557943
-0.10094269 0.44220999 1.4972332
-0.13472047 0.58352286 1.4704248
-0.16589569 0.71421349 1.4109938
-0.22266965 0.95430666 1.5118713
-0.50620008 2.1647432 2.7383106
-0.020941412 0.11969765 1.9411836
-0.039336774 0.18816403 1.7497808
-0.084603213 0.37613738 1.5219003
-0.11652714 0.51067674 1.4786361
-0.14839882 0.64441496 1.4311305
-0.18744051 0.80962789 1.4295074
-0.25279149 1.0886158 1.5546188
-0.50974602 2.1868284 2.5125282
-0.51919216 2.2047276 2.3056388
-0.53541011 2.2683232 1.9616517
-0.60655349 2.5657666 1.8131692
-0.72904885 3.0791905 1.7429367
-0.71206421 3.0051348 1.3360907
-0.68853414 2.9035912 0.9670803
-0.67650664 2.8484628 0.64731371
-0.65011114 2.7373331 0.34552842
-0.52140248 2.224576 2.116174
-0.55432534 2.3595257 1.8483937
-0.74530149 3.170017 1.9992205
-0.72011548 3.05813 1.5398282
-0.69876027 2.9651403 1.1494029
-0.68559629 2.9047589 0.81055593
-0.66202664 2.804908 0.49417377
-0.64078712 2.7128227 0.20611966
-0.0010155387 0.032815315 2.2291887
-0.055390816 0.25588694 1.6649539
-0.068862431 0.31165573 1.557943
-0.0999391 0.44243789 1.4972332
-0.13372874 0.58575505 1.4750273
-0.16415003 0.71461666 1.4109938
-0.22113684 0.9575513 1.5160043
-0.50056446 2.1627631 2.734473
-0.020716526 0.12002974 1.9461752
-0.03901647 0.18877505 1.7547523
-0.084022053 0.37755546 1.5267397
-0.11583731 0.51260298 1.4833288
-0.14741971 0.64687264 1.4356318
-0.18618529 0.81259334 1.4337733
-0.24780986 1.0773964 1.5386587
-0.50402099 2.1846759 2.508853
-0.51299459 2.2025163 2.302134
-0.53026211 2.2695322 1.9616517
-0.59552228 2.5468826 1.7994618
-0.72657305 3.1025281 1.7545307
-0.71371287 3.0428503 1.3510751
-0.69071418 2.942507 0.97836059
-0.67853159 2.8883636 0.65477473
-0.65187675 2.7727358 0.348658
-0.51550996 2.222116 2.1128485
-0.54988569 2.3647141 1.8513367
-0.7517857 3.2304804 2.0346851
-0.72450721 3.1083765 1.5629067
-0.70113653 3.0033855 1.1625509
-0.68563867 2.9347064 0.81758988
-0.6669268 2.8546247 0.50108057
-0.64534855 2.7579398 0.20793344
-0.00086106657 0.033121467 2.2641871
-0.054658148 0.25683889 1.6698933
-0.067989655 0.31288937 1.5628382
-0.098639898 0.44425857 1.5020052
-0.13200845 0.58814752 1.4796299
-0.16205707 0.71754974 1.4153829
-0.21808097 0.96113765 1.5201373
-0.49154568 2.1615438 2.7306354
-0.020234533 0.12011193 1.9461752
-0.038362999 0.18945284 1.7597238
-0.082773343 0.37911788 1.5315791
-0.1136891 0.5130837 1.4833288
-0.14470881 0.64748442 1.4356318
-0.18335146 0.81591064 1.4380392
-0.24641876 1.093165 1.5586089
-0.49373615 2.1835477 2.505178
-0.50530326 2.2042935 2.302134
-0.52194029 2.2714605 1.9616517
-0.56931645 2.4756968 1.7501155
-0.72712761 3.1569719 1.7823563
-0.71139544 3.0862255 1.3679323
-0.68911529 2.987206 0.99105084
-0.67789334 2.9339068 0.66316831
-0.64683092 2.799479 0.35089338
-0.50658566 2.2241676 2.1128485
-0.53727883 2.3551745 1.8425074
-0.74304467 3.2546148 2.0473509
-0.72214812 3.1555011 1.5838872
-0.6969837 3.0431201 1.175699
-0.68202752 2.9754546 0.82696843
-0.66713387 2.9104893 0.50867802
-0.64224505 2.799685 0.20954569
-0.00077511283 0.032778777 2.2241888
-0.053739529 0.25782642 1.6748325
-0.066678435 0.31317142 1.5628382
-0.097095102 0.44612652 1.5067773
-0.12996319 0.59060335 1.4842323
-0.15956755 0.72056061 1.4197719
-0.21527505 0.96753663 1.5284033
-0.48178959 2.1604555 2.7267978
-0.019710252 0.12019908 1.9461752
-0.037638348 0.19014156 1.7646953
-0.081118345 0.37947541 1.5315791
-0.11181484 0.51526141 1.4880216
-0.1423475 0.65023637 1.440133
-0.18035014 0.81924999 1.4423052
-0.23969772 1.0854026 1.5466388
-0.48347074 2.1823711 2.5015028
-0.49645057 2.2063041 2.302134
-0.51281792 2.2735374 1.9616517
-0.5593738 2.4779623 1.7501155
-0.72519469 3.2073934 1.8078631
-0.70718592 3.1252289 1.3829166
-0.68559444 3.0273771 1.0023311
-0.67428428 2.9750466 0.67062926
-0.64940876 2.8653023 0.3567054
-0.49645087 2.222626 2.1095231
-0.52564394 2.3495152 1.836621
-0.71810311 3.2072184 2.0169528
-0.71433169 3.1851935 1.5964756
-0.69143391 3.0831132 1.1888471
-0.67596948 3.0117173 0.83517462
-0.6647644 2.9618051 0.51558483
-0.6404832 2.851315 0.21156099
-0.00066319905 0.032479614 2.1891901
-0.052678071 0.25883839 1.6797719
-0.065408565 0.31447914 1.5677334
-0.094991714 0.44657913 1.5067773
-0.12758914 0.59311932 1.4888349
-0.15655047 0.72367275 1.424161
-0.21114177 0.97132683 1.5325361
-0.47122589 2.1627841 2.7267978
-0.019101622 0.1202973 1.9461752
-0.036775179 0.19085328 1.7696668
-0.079452582 0.38111174 1.5364186
-0.10956247 0.5175091 1.4927144
-0.13894093 0.65097278 1.440133
-0.17715238 0.82528311 1.450837
-0.47132143 2.1815591 2.4978275
-0.48604816 2.2086191 2.302134
-0.50125992 2.2721276 1.9585133
-0.54365456 2.4643333 1.7391497
-0.720981 3.2628047 1.8356887
-0.70091408 3.1693869 1.3997738
-0.6790849 3.0681612 1.0136114
-0.66770983 3.0167906 0.67809021
-0.64888805 2.9317625 0.36251742
-0.48519486 2.2251103 2.1095231
-0.51161122 2.344337 1.8307347
-0.67646575 3.0972233 1.9485569
-0.7054038 3.2243593 1.6132599
-0.68491006 3.1280897 1.2036387
-0.67058706 3.0626969 0.84689784
-0.66195738 3.0232949 0.52387297
-0.63516968 2.8985512 0.21337476
-0.00054981996 0.032481734 2.1891901
-0.051819447 0.25901163 1.6797719
-0.064365357 0.31469434 1.5677334
-0.093815528 0.44835278 1.5115492
-0.12562157 0.59353912 1.4888349
-0.15477498 0.72650349 1.42855
-0.20926704 0.97748882 1.5408021
-0.46442899 2.1642537 2.7267978
-0.018765613 0.12035017 1.9461752
-0.036242072 0.19095524 1.7696668
-0.078640543 0.38256347 1.541258
-0.10811689 0.51781303 1.4927144
-0.13768473 0.6534645 1.4446342
-0.17553164 0.82829541 1.4551029
-0.4404138 2.0716863 2.879307
-0.46560854 2.1827855 2.4978275
-0.47908995 2.2137878 2.3056388
-0.49332568 2.2738636 1.9585133
-0.5328179 2.4538639 1.7309252
-0.72051281 3.3127925 1.8611956
-0.69927424 3.2124624 1.4166312
-0.67809665 3.1125803 1.0263016
-0.66713428 3.057153 0.68555117
-0.65186554 2.9871948 0.36743528
-0.4785907 2.2265401 2.1095231
-0.5042119 2.3418052 1.8277916
-0.59335494 2.7535455 1.7408363
-0.69983506 3.2395039 1.6195542
-0.68569958 3.1714115 1.2184302
-0.67235351 3.1070821 0.85744864
-0.65980482 3.0491035 0.52732641
-0.63865995 2.9489217 0.21539007
-0.00041090781 0.032656107 2.2091894
-0.051063936 0.25995353 1.6847111
-0.06346634 0.3159155 1.5726286
-0.092550062 0.45013976 1.5163212
-0.12394649 0.59588683 1.4934374
-0.15272865 0.72938353 1.4329392
-0.20643298 0.9809671 1.544935
-0.45621005 2.1627257 2.7229605
-0.018345399 0.12041494 1.9461752
-0.03576811 0.19212911 1.7796098
-0.0775529 0.38406786 1.5460974
-0.10665513 0.51987779 1.4974072
-0.13584396 0.65607291 1.4491354
-0.17370237 0.83400971 1.4636348
-0.43626052 2.0879586 2.8992569
-0.45729074 2.1810794 2.4941523
-0.47135946 2.2154467 2.3056388
-0.48538542 2.2755716 1.9585133
-0.52250314 2.4475303 1.7254423
-0.71913391 3.3629379 1.8867023
-0.69581795 3.2511499 1.4316155
-0.67526555 3.1524539 1.0375819
-0.66367263 3.0930839 0.69207948
-0.66023982 3.0770969 0.37548271
-0.47081569 2.2281973 2.1095231
-0.49519747 2.3395965 1.8248483
-0.56676656 2.6754727 1.6927059
-0.7017225 3.3040798 1.6489269
-0.68444306 3.2199757 1.2348653
-0.67060637 3.1521986 0.86799955
-0.65637052 3.0852938 0.53216112
-0.63772625 2.9951108 0.21720386
-0.00026425353 0.032873049 2.2341883
-0.050156217 0.2601302 1.6847111
-0.062559575 0.3171342 1.5775238
-0.091273263 0.45192334 1.5210932
-0.12186569 0.59631586 1.4934374
-0.1501817 0.72991222 1.4329392
-0.20414689 0.98719323 1.553201
-0.4480074 2.1611664 2.7191229
-0.017965091 0.12076414 1.951167
-0.035097238 0.19225278 1.7796098
-0.076455712 0.38556933 1.5509368
-0.10518026 0.52193868 1.5020999
-0.13398665 0.65867645 1.4536366
-0.17183535 0.83972126 1.4721668
-0.43199906 2.1042273 2.9192071
-0.44967455 2.1826622 2.4941523
-0.4636232 2.2170787 2.3056388
-0.47823787 2.2810616 1.9616517
-0.51309788 2.4452469 1.722701
-0.71741354 3.4131134 1.912209
-0.69305432 3.2943885 1.4484727
-0.67315245 3.1970387 1.0502722
-0.66098177 3.1338334 0.69954044
-0.65360564 3.0988739 0.37727103
-0.46379402 2.2334828 2.1128485
-0.48620462 2.3373537 1.8219053
-0.5424878 2.6056895 1.6496419
-0.70131284 3.3598223 1.6741035
-0.68189001 3.2639463 1.2496569
-0.66855228 3.1973395 0.87855041
-0.65370506 3.1263442 0.53768659
-0.637501 3.0462189 0.21921916
-9.6041455e-05 0.033218715 2.2741871
-0.049247887 0.26030371 1.6847111
-0.061452188 0.31735066 1.5775238
-0.0896952 0.45223919 1.5210932
-0.11978342 0.59673762 1.4934374
-0.14810711 0.7327795 1.4373282
-0.20125978 0.99065757 1.5573338
-0.43982124 2.1595762 2.7152855
-0.017621694 0.12139817 1.9611503
-0.034518681 0.19289905 1.7845813
-0.075109363 0.38583383 1.5509368
-0.10369232 0.52399558 1.5067927
-0.13211282 0.66127491 1.4581379
-0.16993055 0.84542978 1.4806986
-0.42584249 2.1116302 2.9271872
-0.4420529 2.1842186 2.4941523
-0.45516366 2.2151902 2.302134
-0.47027257 2.2827172 1.9616517
-0.50287056 2.4388325 1.717218
-0.7144556 3.4589794 1.9353971
-0.68530464 3.3149474 1.4559649
-0.67073631 3.2416472 1.0629625
-0.65801448 3.1746018 0.70700145
-0.64985967 3.1352706 0.38040057
-0.45599487 2.2350879 2.1128485
-0.47804278 2.3390365 1.8219053
-0.53166127 2.5991206 1.6445755
-0.70052242 3.4156017 1.69928
-0.67998779 3.3125639 1.2660919
-0.66619122 3.2425044 0.88910121
-0.64478129 3.1383085 0.53906798
-0.63592035 3.0924673 0.22103295
1.9913934e-05 0.033218849 2.2741871
-0.048479885 0.2612381 1.6896504
-0.060533449 0.31856364 1.582419
-0.088400871 0.45401481 1.5258652
-0.11807714 0.59906894 1.4980398
-0.14601435 0.7356413 1.4417173
-0.19890139 0.99687338 1.5655998
-0.43102303 2.1548126 2.7076104
-0.017235961 0.12174511 1.9661419
-0.033936046 0.19354363 1.7895528
-0.073997408 0.38732842 1.5557762
-0.10219128 0.52604842 1.5114855
-0.13022247 0.66386837 1.4626391
-0.16798799 0.85113519 1.4892305
-0.41729838 2.107192 2.9192071
-0.43442586 2.1857483 2.4941523
-0.44672292 2.2132697 2.2986295
-0.46307349 2.2881598 1.9647902
-0.49435434 2.440573 1.717218
-0.71294785 3.5135481 1.9632226
-0.68849182 3.3900101 1.4859334
-0.66801679 3.2862773 1.0756528
-0.65477055 3.2153871 0.7144624
-0.64586747 3.171679 0.38353014
-0.44819018 2.2366662 2.1128485
-0.4698751 2.3406911 1.8219053
-0.52088714 2.5925078 1.6395091
-0.69755852 3.4625177 1.7202607
-0.6777544 3.3612077 1.2825271
-0.66352284 3.2876911 0.89965212
-0.64851749 3.2133529 0.54942816
-0.6340245 3.1387413 0.22284672
6.6033521e-05 0.032787871 2.2241888
-0.047567699 0.26140574 1.6896504
-0.059606992 0.31977409 1.5873142
-0.086815521 0.45432061 1.5258652
-0.1159853 0.59947741 1.4980398
-0.14344558 0.73614651 1.4417173
-0.19487962 0.99479997 1.5614668
-0.4228811 2.1531587 2.7037728
-0.016810887 0.12180453 1.9661419
-0.033260245 0.1936609 1.7895528
-0.072644927 0.38758436 1.5557762
-0.10067718 0.52809715 1.5161783
-0.12831561 0.66645664 1.4671402
-0.16600762 0.85683733 1.4977623
-0.40936539 2.1056778 2.9152172
-0.42679352 2.1872516 2.4941523
-0.43760782 2.207819 2.2916205
-0.45508352 2.2897623 1.9647902
-0.48501638 2.4381824 1.7144765
-0.7041418 3.5333929 1.9724978
-0.68572235 3.4378562 1.5046637
-0.66405469 3.3262229 1.0869331
-0.65124977 3.2561882 0.72192335
-0.64260554 3.2129803 0.38710678
-0.44038004 2.2382169 2.1128485
-0.46170169 2.3423169 1.8219053
-0.50766271 2.573164 1.6268432
-0.69427538 3.509454 1.7412412
-0.67518955 3.4098752 1.2989621
-0.65960205 3.3281302 0.90903062
-0.64596123 3.2593153 0.55564427
-0.63181323 3.1850398 0.2246605
0.0001662163 0.032701351 2.2141891
-0.046790525 0.26233527 1.6945896
-0.058490407 0.31998023 1.5873142
-0.085229121 0.4546209 1.5258652
-0.11389201 0.59987867 1.4980398
-0.14132468 0.73899513 1.4461063
-0.19087479 0.99271083 1.5573338
-0.41475591 2.1514742 2.6999354
-0.016421737 0.12214889 1.9711336
-0.032671284 0.19430166 1.7945243
-0.07151825 0.38907191 1.5606157
-0.098833151 0.52844536 1.5161783
-0.12639229 0.66903961 1.4716414
-0.16398953 0.86253595 1.5062943
-0.4014481 2.1041341 2.9112272
-0.41915601 2.1887281 2.4941523
-0.42989844 2.2093332 2.2916205
-0.44783336 2.2951572 1.9679285
-0.47650254 2.4398606 1.7144765
-0.71051604 3.6314719 2.0235114
-0.68262702 3.4857237 1.523394
-0.66074437 3.3708878 1.0996233
-0.64839864 3.3018231 0.73031694
-0.63906312 3.2542968 0.39068338
-0.4325645 2.2397406 2.1128485
-0.45352268 2.3439143 1.8219053
-0.49703836 2.5664558 1.6217768
-0.68721217 3.5385876 1.7538295
-0.67229313 3.4585655 1.3153973
-0.65540701 3.3685818 0.91840917
-0.6440376 3.3101594 0.56255108
-0.62928635 3.23136 0.22647429
0.00024394364 0.03248547 2.1891901
-0.046007439 0.26326257 1.6995289
-0.057552021 0.32118478 1.5922095
-0.083911136 0.45638382 1.5306371
-0.11179736 0.60027254 1.4980398
-0.13874425 0.73948395 1.4461063
-0.18688691 0.99060571 1.553201
-0.40664765 2.1497595 2.6960979
-0.016030392 0.12249202 1.9761252
-0.031992845 0.19441454 1.7945243
-0.070382081 0.39055634 1.5654551
-0.097298861 0.53048456 1.5208709
-0.12484881 0.67375785 1.4806439
-0.16193363 0.86823088 1.5148261
-0.39410084 2.1055226 2.9112272
-0.41151336 2.1901779 2.4941523
-0.4275347 2.2388442 2.3196568
-0.43981907 2.2967064 1.9679285
-0.46798295 2.441509 1.7144765
-0.71120149 3.7035351 2.0606122
-0.68008095 3.5381641 1.5439974
-0.65259886 3.3920166 1.1052636
-0.64430696 3.342654 0.73777789
-0.6352399 3.2956274 0.39426005
-0.42474374 2.2412369 2.1128485
-0.44533813 2.3454831 1.8219053
-0.49049121 2.5808804 1.6293764
-0.68930012 3.6167555 1.7894964
-0.66994965 3.5119147 1.3334758
-0.65093744 3.409044 0.92778772
-0.64083809 3.3561654 0.56876719
-0.62738156 3.2826083 0.22848959
0.00035733782 0.03248442 2.1891901
-0.045218453 0.26418754 1.7044681
-0.056605931 0.32238671 1.5971048
-0.082317546 0.45667395 1.5306371
-0.11005199 0.60258108 1.5026424
-0.13659528 0.74231923 1.4504955
-0.18291606 0.98848498 1.549068
-0.3985565 2.1480145 2.6922605
-0.015602717 0.12254722 1.9761252
-0.031397589 0.19505149 1.7994957
-0.069236405 0.39203754 1.5702945
-0.095446534 0.53082097 1.5208709
-0.12288507 0.67633146 1.4851451
-0.15983996 0.87392175 1.5233579
-0.38674879 2.1068857 2.9112272
-0.40448007 2.1949351 2.4978275
-0.42365679 2.2613544 2.3406842
-0.43251801 2.302053 1.9710671
-0.45945764 2.4431279 1.7144765
-0.69826943 3.7059951 2.0606122
-0.67202199 3.5632944 1.5533626
-0.6558817 3.4744084 1.1292341
-0.63993812 3.3834963 0.7452389
-0.63206136 3.3418636 0.39828375
-0.41691777 2.2427058 2.1128485
-0.43714815 2.3470232 1.8219053
-0.48226929 2.5868144 1.6319095
-0.68834841 3.681597 1.8188692
-0.66724181 3.5652893 1.3515544
-0.6452983 3.4447381 0.93599391
-0.63732505 3.4021883 0.57498336
-0.62512654 3.3338814 0.2305049
0.00044039005 0.032311101 2.1691911
-0.044423562 0.26511025 1.7094073
-0.055652156 0.32358596 1.602
-0.080982171 0.45842853 1.5354091
-0.10794792 0.60296154 1.5026424
-0.1344282 0.74514848 1.4548845
-0.1794645 0.98911744 1.549068
-0.39048243 2.1462393 2.6884229
-0.015207984 0.12288772 1.9811169
-0.030798275 0.19568667 1.8044672
-0.068081252 0.3935155 1.5751339
-0.093593039 0.53115088 1.5208709
-0.12090487 0.67889953 1.4896463
-0.15770853 0.87960869 1.5318898
-0.37885842 2.105257 2.9072371
-0.3974185 2.1996698 2.5015028
-0.41962701 2.283865 2.3617113
-0.42518505 2.3073766 1.9742055
-0.45092672 2.4447167 1.7144765
-0.62173486 3.3642821 1.8774272
-0.6730715 3.638556 1.5833311
-0.65248352 3.5238457 1.1433344
-0.63618785 3.429178 0.75363243
-0.6285677 3.3881176 0.40230745
-0.4090867 2.2441475 2.1128485
-0.42822662 2.3445585 1.818962
-0.47401187 2.5927227 1.6344428
-0.68777066 3.7509387 1.8503399
-0.6650219 3.623332 1.3712766
-0.63853967 3.4756534 0.94302785
-0.6326037 3.443357 0.58050877
-0.62342465 3.3900926 0.23272175
0.00055317424 0.032309365 2.1691911
-0.043622781 0.26603058 1.7143466
-0.0546907 0.32478243 1.6068952
-0.079381458 0.45870844 1.5354091
-0.10617977 0.60525906 1.5072449
-0.13182633 0.74561316 1.4548845
-0.17748828 0.99804956 1.5614668
-0.38242561 2.1444335 2.6845856
-0.014811063 0.12322696 1.9861085
-0.030194908 0.19632001 1.8094387
-0.066916615 0.39499015 1.5799733
-0.09173841 0.53147441 1.5208709
-0.11890824 0.68146205 1.4941475
-0.15553933 0.88529128 1.5404216
-0.37150741 2.1065667 2.9072371
-0.39091986 2.20772 2.508853
-0.4122844 2.2888255 2.365216
-0.41712821 2.308847 1.9742055
-0.44239035 2.4462757 1.7144765
-0.54443598 3.0046484 1.6849667
-0.67112166 3.7001827 1.6076806
-0.64960492 3.5780206 1.1588447
-0.62948889 3.4603755 0.75922817
-0.62654132 3.4441862 0.40722534
-0.40125069 2.2455618 2.1128485
-0.42003998 2.3460391 1.818962
-0.4657191 2.5986047 1.6369759
-0.68591428 3.8158538 1.8797127
-0.66240472 3.6814015 1.3909987
-0.64018869 3.5543995 0.9617849
-0.62760252 3.4845331 0.58603418
-0.62045145 3.4414146 0.23473705
0.00073690817 0.032693472 2.2141891
-0.042816114 0.26694858 1.7192858
-0.053721558 0.32597613 1.6117904
-0.078028724 0.46045452 1.5401812
-0.10406638 0.60562599 1.5072449
-0.12963134 0.74842876 1.4592736
-0.17545189 1.0069799 1.5738657
-0.37438619 2.1425979 2.680748
-0.01438083 0.12327791 1.9861085
-0.029587494 0.19695154 1.8144103
-0.065742515 0.39646146 1.5848128
-0.089882657 0.53179139 1.5208709
-0.11652876 0.68187296 1.4941475
-0.15289026 0.88839906 1.5446876
-0.363639 2.1048815 2.9032471
-0.38321108 2.2090712 2.508853
-0.39685372 2.248107 2.3231614
-0.40974483 2.3141212 1.977344
-0.43384853 2.4478052 1.7144765
-0.49599123 2.7928143 1.5713456
-0.67280662 3.7846615 1.6413952
-0.64635599 3.6322179 1.1743551
-0.62516671 3.5060754 0.76762176
-0.6241309 3.5002811 0.4121432
-0.39276594 2.2432711 2.1095231
-0.41114983 2.3435099 1.8160189
-0.45664549 2.6002145 1.6369759
-0.68361276 3.8808005 1.9090853
-0.65939027 3.7394967 1.4107208
-0.63707125 3.6092656 0.97468042
-0.62404311 3.5354693 0.59294099
-0.61712736 3.4927566 0.23675236
0.00089922803 0.032948021 2.2441881
-0.041884031 0.2670964 1.7192858
-0.052744754 0.32716697 1.6166856
-0.076420963 0.46072409 1.5401812
-0.10195172 0.60598552 1.5072449
-0.12741828 0.75123799 1.4636626
-0.17382847 1.018682 1.5903975
-0.36690485 2.1438918 2.680748
-0.013980548 0.12361447 1.9911003
-0.029052256 0.19810878 1.8243533
-0.064558953 0.39792934 1.5896522
-0.088025808 0.53210187 1.5208709
-0.1145068 0.68442267 1.4986488
-0.15022138 0.89149916 1.5489535
-0.35578683 2.1031668 2.8992569
-0.38117474 2.2438185 2.5456047
-0.3871811 2.2389364 2.3126478
-0.40099937 2.3117025 1.9742055
-0.42601681 2.4534247 1.717218
-0.48320216 2.7770717 1.5620704
-0.67152339 3.8554943 1.6694907
-0.6386168 3.6628067 1.1828153
-0.6264509 3.5856597 0.78254366
-0.62133652 3.5564008 0.41706106
-0.38367102 2.2372682 2.1028721
-0.40296698 2.3449309 1.8160189
-0.44756624 2.6017926 1.6369759
-0.68163788 3.9502497 1.9405563
-0.65597802 3.7976148 1.4304429
-0.63440663 3.668942 0.98874819
-0.61760437 3.5717838 0.59777576
-0.61260039 3.5391943 0.23856613
0.0010469661 0.033116113 2.2641871
-0.041068293 0.26800913 1.7242252
-0.051760282 0.32835498 1.6215808
-0.07505092 0.46246153 1.5449531
-0.099835806 0.60633773 1.5072449
-0.12518717 0.75404084 1.4680518
-0.17166197 1.0276093 1.6027963
-0.35888949 2.1419985 2.6769104
-0.013578093 0.12394974 1.996092
-0.028360547 0.19820899 1.8243533
-0.063365944 0.3993938 1.5944916
-0.086167894 0.53240591 1.5208709
-0.11211701 0.68481821 1.4986488
-0.14753272 0.89459139 1.5532194
-0.34844324 2.1043959 2.8992569
-0.37723228 2.2685449 2.5713308
-0.37579125 2.219177 2.2916205
-0.3909722 2.3015761 1.9647902
-0.41815108 2.4590189 1.7199594
-0.47350541 2.7787416 1.5620704
-0.66975367 3.9263632 1.6975861
-0.63793874 3.7359428 1.2039658
-0.62470138 3.650769 0.79466772
-0.61815786 3.6125431 0.42197895
-0.37524095 2.2349117 2.0995464
-0.39410853 2.3423371 1.8130757
-0.4377656 2.5990882 1.6344428
-0.67767406 4.0107808 1.9678308
-0.65295553 3.86041 1.4518086
-0.63133299 3.7286434 1.0028161
-0.61257309 3.617861 0.60399187
-0.6077565 3.5856423 0.24037991
0.0011958888 0.033283576 2.2841866
-0.040132515 0.26815087 1.7242252
-0.050613794 0.32853365 1.6215808
-0.073669679 0.46419501 1.5497251
-0.098029017 0.60861135 1.5118475
-0.12293805 0.75683731 1.4724408
-0.17079665 1.0448656 1.6275939
-0.35141033 2.1432381 2.6769104
-0.013173466 0.12428369 2.0010836
-0.027741024 0.19883485 1.8293248
-0.062163495 0.40085477 1.599331
-0.084578268 0.53440785 1.5255637
-0.1100698 0.68735498 1.50315
-0.14482428 0.89767569 1.5574853
-0.34061366 2.1026249 2.895267
-0.37366611 2.296617 2.6007321
-0.36571035 2.2064023 2.2776024
-0.38038224 2.2875686 1.9522364
-0.40956494 2.4604635 1.7199594
-0.46890476 2.8109634 1.5783019
-0.66673386 3.9926941 1.7238085
-0.63754869 3.8138494 1.2265263
-0.62250483 3.715909 0.80679178
-0.61377186 3.6637943 0.42644972
-0.36683205 2.2325234 2.0962212
-0.38592985 2.3436985 1.8130757
-0.42869043 2.6006005 1.6344428
-0.67699832 4.0937209 2.0055957
-0.64873123 3.9185708 1.4715307
-0.62228733 3.7548001 1.0086776
-0.60479867 3.6492901 0.608136
-0.60341346 3.6370275 0.24239522
0.0012526856 0.032979596 2.2491879
-0.039307747 0.26905829 1.7291644
-0.049617544 0.32971534 1.626476
-0.072048888 0.46444935 1.5497251
-0.095903963 0.60894984 1.5118475
-0.12104642 0.76199257 1.4812189
-0.16803654 1.051013 1.63586
-0.3434194 2.1412868 2.6730728
-0.012739554 0.12432892 2.0010836
-0.027046792 0.19893047 1.8293248
-0.06095162 0.40231219 1.6041704
-0.082712322 0.53469986 1.5255637
-0.10766981 0.68773502 1.50315
-0.14168993 0.89817578 1.5574853
-0.33280066 2.1008248 2.8912768
-0.36458179 2.2912114 2.5933819
-0.35800633 2.2076657 2.2776024
-0.37051982 2.2773569 1.9428209
-0.40231812 2.4701324 1.7254423
-0.46479854 2.8475587 1.5968524
-0.66400641 4.0636258 1.751904
-0.6350736 3.8823299 1.2462668
-0.6190663 3.7762299 0.81798321
-0.60984111 3.7199724 0.43136761
-0.35844439 2.230104 2.0928955
-0.37710372 2.3410408 1.8101326
-0.4189238 2.5978251 1.6319095
-0.66850317 4.1319013 2.0223801
-0.6433537 3.9720867 1.4896092
-0.62162411 3.8337171 1.0274347
-0.60553062 3.7344787 0.61987752
-0.59791845 3.6834943 0.24420901
0.001350535 0.032889482 2.2391882
-0.03847713 0.2699632 1.7341037
-0.048613656 0.33089399 1.6313713
-0.070650436 0.46617392 1.554497
-0.094074607 0.61121184 1.5164499
-0.11875305 0.76477712 1.485608
-0.16480118 1.0543735 1.6399928
