# .PCD v0.7 - Point Cloud Data file format
VERSION 0.7
FIELDS x y z
SIZE 4 4 4
TYPE F F F
COUNT 1 1 1
WIDTH 1462
HEIGHT 1
VIEWPOINT 0 0 0 1 0 0 0
POINTS 1462
DATA ascii
-0.37448725 -2.2576132 3.4336927
-0.33703339 -2.038408 2.5502727
-0.030839445 -0.13684823 2.2656415
-0.04511926 -0.23701657 2.207159
-0.30326897 -1.7368951 6.8259096
-0.41608119 -2.4298162 6.757998
-0.53295881 -3.1482711 6.6660423
-0.33433127 -1.9898024 3.3705075
-0.32314843 -1.9314331 2.6678357
-0.43531933 -2.6128666 2.949873
-0.33048439 -2.0206461 2.0918612
-0.36059576 -2.2119319 1.8894671
-1.513294 -9.2921677 6.2570858
-0.37252685 -2.2925889 1.3023648
-2.1222749 -13.074517 5.4399056
-1.1939491 -7.3636036 2.2826409
-1.1854165 -7.3271346 1.5006613
-1.4816903 -9.1583939 0.92583704
-0.35250381 -2.1364973 2.009758
-0.39374384 -2.3915691 1.8483937
-1.6856281 -10.248824 6.1890984
-0.38856444 -2.3703551 1.1978456
-1.2157265 -7.4240971 2.7074494
-1.2036792 -7.3585496 1.889088
-1.4117471 -8.6305208 1.3119389
-1.5161725 -9.2790413 0.47294658
-0.063546717 -0.34616095 2.2379079
-0.090205692 -0.50359923 2.4831409
-0.36322314 -2.0820277 6.803679
-0.48128641 -2.7986336 6.7495203
-0.32173935 -1.8867218 3.5748098
-0.38142499 -2.2507432 3.4254265
-0.3436127 -2.0340588 2.5464354
-0.031184023 -0.13617788 2.2556581
-0.045741446 -0.23581141 2.1972163
-0.30933002 -1.7358259 6.8259096
-0.42456031 -2.428349 6.757998
-0.54950875 -3.1785684 6.7335606
-0.33774522 -1.96806 3.33638
-0.33039609 -1.9332634 2.6718256
-0.4438684 -2.6079891 2.9461975
-0.33635977 -2.0124452 2.0848522
-0.37023386 -2.222178 1.8988826
-1.5450338 -9.2827034 6.2543445
-0.3805272 -2.2912745 1.3023648
-2.0722964 -12.490782 5.2039037
-1.2196456 -7.3593912 2.2826409
-1.2085813 -7.3084121 1.4978633
-1.3990874 -8.4603987 0.86279893
-0.37051219 -2.1978445 2.0662916
-0.40208957 -2.3901803 1.8483937
-1.7213928 -10.242877 6.1890984
-0.39683616 -2.3689845 1.1978456
-1.2424134 -7.4244652 2.7090931
-1.2293582 -7.3543034 1.889088
-1.4901313 -8.9238253 0.45863789
-0.064898252 -0.34670064 2.2428472
-0.089761548 -0.4912627 2.4243979
-0.37048855 -2.0807471 6.803679
-0.49105251 -2.7969363 6.7495203
-0.33654219 -1.9327768 3.6625915
-0.39023912 -2.2549436 3.4336927
-0.35507089 -2.0581155 2.5771353
-0.031591736 -0.13578749 2.2506664
-0.046460029 -0.23512754 2.1922445
-0.31538731 -1.7347355 6.8259096
-0.43303424 -2.4268522 6.757998
-0.55795187 -3.161624 6.7020521
-0.34056124 -1.943749 3.2979865
-0.33766052 -1.9350668 2.6758156
-0.45122769 -2.5964036 2.9351723
-0.34218195 -2.0042281 2.0778432
-0.38321355 -2.251569 1.9239902
-1.5774271 -9.2772541 6.2543445
-0.38852292 -2.2899323 1.3023648
-2.0275664 -11.962408 4.9903779
-1.2461282 -7.3598189 2.2840509
-1.2349035 -7.3089929 1.4987959
-1.4095292 -8.3425245 0.85251606
-0.39909056 -2.3179653 2.176033
-0.4104304 -2.3887622 1.8483937
-1.7564074 -10.232558 6.1865649
-0.405103 -2.3675847 1.1978456
-1.2675264 -7.4154286 2.7074494
-1.2468407 -7.3020544 1.8773649
-1.4397877 -8.4408627 0.43908939
-0.066254333 -0.34723514 2.2477865
-0.089232415 -0.47893563 2.3656554
-0.37774947 -2.0794411 6.803679
-0.50081265 -2.7952054 6.7495203
-0.34286761 -1.9292324 3.6582022
-0.40055609 -2.2674234 3.4543574
-0.36447701 -2.0694902 2.5924852
-0.031997114 -0.13539593 2.2456748
-0.047068313 -0.23391914 2.1823015
-0.32144073 -1.7336241 6.8259096
-0.4415029 -2.4253259 6.757998
-0.56512588 -3.1382327 6.6570401
-0.34091598 -1.9066066 3.2382634
-0.34494153 -1.9368429 2.6798058
-0.45673493 -2.5747845 2.913121
-0.34795085 -1.9959948 2.0708342
-0.39506978 -2.2732265 1.9428209
-1.6090859 -9.2675714 6.2516026
-0.39651391 -2.2885623 1.3023648
-2.0440094 -11.809082 4.9304409
-1.2660898 -7.3223362 2.2741807
-1.2503859 -7.2465491 1.4876045
-1.4081575 -8.1608858 0.83642125
-0.42527953 -2.4195251 2.2691472
-0.41876623 -2.387315 1.8483937
-1.7921149 -10.226364 6.1865649
-0.41336495 -2.3661561 1.1978456
-1.2950271 -7.4202623 2.7107365
-1.261469 -7.2354088 1.8621248
-1.391475 -7.9810624 1.2221506
-1.4126661 -8.1109438 0.42578834
-0.012924292 -0.03214062 2.4391806
-0.067614928 -0.34776434 2.2527258
-0.088427886 -0.4656181 2.3020175
-0.3850058 -2.0781097 6.803679
-0.51091802 -2.7953618 6.7541223
-0.3500272 -1.9303802 3.6625915
-0.37566802 -2.0902882 2.6193478
-0.032400135 -0.13500318 2.2406831
-0.047668725 -0.23270938 2.1723585
-0.32772386 -1.7337266 6.830749
-0.44996616 -2.42377 6.757998
-0.57568353 -3.1340995 6.6525388
-0.34335619 -1.8823137 3.1998701
-0.35223904 -1.9385917 2.6837957
-0.44820845 -2.4764318 2.8065414
-0.35429126 -1.9912571 2.0673294
-0.4070819 -2.2948287 1.9616517
-1.6414261 -9.261899 6.2516026
-0.40450007 -2.2871642 1.3023648
-1.2931249 -7.3188415 3.0911226
-1.285805 -7.2848034 2.2643104
-1.2697082 -7.2082763 1.4810761
-1.4124461 -8.0185957 0.82390302
-0.43570051 -2.4290512 2.2791235
-0.42709696 -2.3858385 1.8483937
-1.8270416 -10.215803 6.184032
-0.42162186 -2.3646989 1.1978456
-1.3101554 -7.3552604 2.6893709
-1.2867177 -7.2309613 1.8621248
-1.4193256 -7.9761567 1.2221506
-1.3989986 -7.8698606 0.41611487
-0.069283195 -0.34981242 2.2675436
-0.089664795 -0.46330744 2.292227
-0.39225739 -2.0767531 6.803679
-0.5178082 -2.7781968 6.7173023
-0.35502085 -1.9197265 3.6450353
-0.38354024 -2.0921166 2.6231852
-0.032800812 -0.13460928 2.2356915
-0.04837101 -0.23201993 2.1673872
-0.3337737 -1.7325722 6.830749
-0.45842394 -2.4221847 6.757998
-0.31285682 -1.6706406 3.5782096
-0.34658515 -1.8631556 3.1700087
-0.35955298 -1.9403132 2.6877859
-0.44207859 -2.3948407 2.7183375
-0.36123988 -1.9900081 2.0673294
-0.4192495 -2.3163741 1.9804823
-1.6737461 -9.2561121 6.2516026
-0.41248131 -2.2857385 1.3023648
-1.3227773 -7.3370938 3.1004877
-1.3112259 -7.2802706 2.2643104
-1.3078977 -7.2763214 1.4950655
-1.4078299 -7.8322639 0.80736107
-0.44283265 -2.4201701 2.2724726
-0.43542248 -2.3843331 1.8483937
-1.8634642 -10.213605 6.1865649
-0.42987365 -2.3632128 1.1978456
-1.3231571 -7.2809505 2.6647182
-1.3215014 -7.2790327 1.8750203
-1.4223902 -7.8347254 1.2028115
-1.401497 -7.7272882 0.41047201
-0.013103531 -0.031974737 2.4291811
-0.070503853 -0.34956843 2.2675436
-0.090096958 -0.45699832 2.2628555
-0.39950421 -2.0753715 6.803679
-0.52640861 -2.7706146 6.703495
-0.35550585 -1.8855264 3.5835879
-0.39084077 -2.090765 2.6231852
-0.033199128 -0.13421424 2.2306998
-0.048957504 -0.23080717 2.1574442
-0.33981946 -1.7313964 6.830749
-0.46720308 -2.4222641 6.762691
-0.31705341 -1.6609851 3.5602047
-0.35260063 -1.859372 3.1657426
-0.36688319 -1.9420071 2.6917758
-0.43852031 -2.3299816 2.6485093
-0.3707813 -2.0027618 2.0813477
-0.43015918 -2.3302071 1.9930362
-1.7060457 -9.2502136 6.2516026
-0.42045748 -2.2842846 1.3023648
-1.3483804 -7.3324323 3.1004877
-1.3348973 -7.2662129 2.2614903
-1.3456917 -7.3393555 1.5081222
-1.3893567 -7.5774875 0.78456002
-0.45196277 -2.4222796 2.2757981
-0.44374272 -2.3827989 1.8483937
-1.8967392 -10.194323 6.1789656
-0.43812019 -2.3616979 1.1978456
-1.3494248 -7.2809305 2.6663618
-1.3575212 -7.3317275 1.889088
-1.4316981 -7.7323265 1.1889979
-1.4066526 -7.6044469 0.40563527
-0.013147431 -0.031816728 2.4141815
-0.071096033 -0.34627622 2.2477865
-0.090486184 -0.45069188 2.2334843
-0.40674618 -2.0739641 6.803679
-0.5345909 -2.7610881 6.6850848
-0.35666069 -1.8560507 3.5309191
-0.3981365 -2.0893881 2.6231852
-0.033667419 -0.13409753 2.2306998
-0.049649492 -0.230114 2.1524725
-0.34610757 -1.7314321 6.835588
-0.4756555 -2.4206185 6.762691
-0.32742268 -1.6833738 3.6097181
-0.35809901 -1.8530086 3.1572106
-0.37422961 -1.9436736 2.6957657
-0.44984448 -2.345084 2.6668851
-0.38041604 -2.0154729 2.095366
-0.44189054 -2.3478169 2.0087285
-1.7375518 -9.2400923 6.2488613
-0.42842856 -2.2828031 1.3023648
-1.3679866 -7.2957854 3.0873766
-1.3761514 -7.3463802 2.286871
-1.3667887 -7.3104706 1.5034591
-1.3682073 -7.3180442 0.76131195
-0.46041536 -2.4206872 2.2757981
-0.45205754 -2.3812354 1.8483937
-1.9226726 -10.136817 6.1485677
-0.44636136 -2.3601542 1.1978456
-1.3818457 -7.3132963 2.6795099
-1.3813022 -7.3173923 1.8867434
-1.423774 -7.5423698 1.162752
-1.3591192 -7.2067385 0.38951278
-0.071027867 -0.33994237 2.2082722
-0.090832487 -0.44438839 2.204113
-0.41427571 -2.0739956 6.8084512
-0.54309124 -2.7534552 6.671277
-0.35715386 -1.8242399 3.473861
-0.4054274 -2.0879855 2.6231852
-0.034061998 -0.13369997 2.2257082
-0.050337251 -0.22941886 2.1475012
-0.35214928 -1.7302135 6.835588
-0.48444089 -2.4206355 6.7673836
-0.33033428 -1.6672728 3.5782096
-0.36506894 -1.8543062 3.1614769
-0.38101202 -1.9423554 2.6957657
-0.45867795 -2.3468266 2.6705604
-0.40429282 -2.1016834 2.1829796
-0.44714984 -2.3309698 1.9961747
-1.7697952 -9.2339706 6.2488613
-0.43639445 -2.2812936 1.3023648
-1.4369589 -7.5186405 3.1810281
-1.4017867 -7.3415318 2.286871
-1.3867809 -7.2767024 1.4978633
-1.3611132 -7.1420059 0.74566418
-0.46886232 -2.4190655 2.2757981
-0.46036685 -2.379643 1.8483937
-0.45459712 -2.3585818 1.1978456
-1.4180808 -7.3640723 2.6992319
-1.4086727 -7.322072 1.889088
-1.3911525 -7.2309918 1.1192392
-1.3408893 -6.9762683 0.38024238
-0.07124079 -0.33513308 2.1786368
-0.090304427 -0.43410099 2.1551607
-0.42121515 -2.071074 6.803679
-0.55269927 -2.7515423 6.671277
-0.35789785 -1.7947974 3.4211919
-0.37951058 -1.9135071 2.9377387
-0.41271335 -2.0865576 2.6231852
-0.034454208 -0.13330127 2.2207165
-0.051020753 -0.22872166 2.1425295
-0.35818672 -1.7289737 6.835588
-0.49392143 -2.4240024 6.7814622
-0.33572146 -1.6639756 3.5737085
-0.37153944 -1.8530207 3.1614769
-0.38838023 -1.9439684 2.6997557
-0.46223336 -2.3219368 2.6448343
-0.4534708 -2.3137383 2.3967569
-0.454537 -2.3255746 1.9930362
-1.802017 -9.2277374 6.2488613
-0.44435498 -2.2797563 1.3023648
-1.4640814 -7.5181298 3.1829011
-1.4246564 -7.3224669 2.2826409
-1.4065542 -7.2428846 1.4922676
-1.3641998 -7.0247731 0.73538136
-0.47802693 -2.4210773 2.2791235
-0.46867055 -2.3780212 1.8483937
-1.7626867 -8.9515543 5.446877
-0.46282732 -2.3569803 1.1978456
-1.4474139 -7.3776121 2.7058058
-1.4024348 -7.1549349 1.8492292
-1.3497077 -6.8859205 1.0708916
-1.3479508 -6.8832951 0.37661481
-0.071190387 -0.33037633 2.1490014
-0.091726966 -0.4348433 2.1600559
-0.42699704 -2.0698898 6.803679
-0.55990088 -2.7500863 6.671277
-0.36259538 -1.7938542 3.4211919
-0.3845188 -1.9125069 2.9377387
-0.41817454 -2.08547 2.6231852
-0.03470486 -0.13293791 2.2157249
-0.051461197 -0.22807656 2.1375582
-0.36266848 -1.7293235 6.8404274
-0.49635527 -2.4058876 6.7345343
-0.33818954 -1.6568108 3.5602047
-0.37574285 -1.852173 3.1614769
-0.39278993 -1.9430822 2.6997557
-0.46441966 -2.3076696 2.6301334
-0.48219395 -2.4243903 2.5089023
-0.46027216 -2.3204784 1.9898978
-1.8237325 -9.2106829 6.2406373
-0.45032185 -2.2785852 1.3023648
-1.4828606 -7.5097227 3.1810281
-1.4391793 -7.2951808 2.2755907
-1.3856497 -7.0367503 1.4530976
-1.3546829 -6.8794789 0.72241604
-0.4912639 -2.4565146 2.3123786
-0.47485548 -2.3809156 1.8513367
-1.7669854 -8.8672047 5.3987465
-0.46858513 -2.3558426 1.1978456
-1.4378233 -7.235106 2.6565006
-1.4148823 -7.1326632 1.8445399
-1.3624372 -6.8682675 1.0688195
-1.306262 -6.5910821 0.36472449
-0.070501752 -0.32337019 2.104548
-0.091936857 -0.43063518 2.1404748
-0.43169236 -2.0689156 6.803679
-0.56661892 -2.7487097 6.671277
-0.36217397 -1.7694995 3.3773012
-0.39110127 -1.9226599 2.9542706
-0.42290521 -2.0845158 2.6231852
-0.034930803 -0.13258021 2.2107332
-0.051859092 -0.2274397 2.1325865
-0.36659124 -1.7284962 6.8404274
-0.49927923 -2.3947067 6.706378
-0.34150752 -1.6539073 3.5557036
-0.38046873 -1.8538703 3.1657426
-0.39746198 -1.9452075 2.7037458
-0.46491912 -2.2833562 2.6044073
-0.49093351 -2.4371889 2.5229206
-0.46476993 -2.3156118 1.9867593
-1.8454107 -9.2020988 6.2378955
-0.45675766 -2.2818217 1.3046836
-1.4762777 -7.3881412 3.1323292
-1.423797 -7.1319528 2.2276497
-1.3759357 -6.898458 1.4269842
-1.341091 -6.7298694 0.70900369
-0.50498241 -2.4956491 2.348959
-0.48025638 -2.379832 1.8513367
-1.7223436 -8.542017 5.2062249
-0.47392917 -2.3547733 1.1978456
-1.4250691 -7.0931888 2.6071954
-1.3966253 -6.9578748 1.8023366
-1.3633987 -6.7923307 1.0584594
-1.3004335 -6.4903603 0.36069387
-0.071292423 -0.32160524 2.0946693
-0.092789821 -0.42732695 2.1257894
-0.43927243 -2.0673194 6.803679
-0.57668966 -2.7466147 6.671277
-0.36621237 -1.7564375 3.3553557
-0.40019569 -1.92941 2.9666693
-0.43090606 -2.0828767 2.6231852
-0.035386018 -0.1321606 2.2057416
-0.052650128 -0.22671068 2.127615
-0.3735269 -1.7270107 6.8404274
-0.50858694 -2.3892188 6.6969919
-0.34753385 -1.6482022 3.546701
-0.38823086 -1.8522604 3.1657426
-0.40717813 -1.9493539 2.711726
-0.47764149 -2.2945817 2.619108
-0.49513903 -2.4144993 2.5018933
-0.47247398 -2.3100796 1.9836209
-1.8607069 -9.1051445 6.1775832
-0.46511787 -2.2801323 1.3046836
-1.4787116 -7.255228 3.0798843
-1.432027 -7.0324211 2.1994488
-1.3894686 -6.8356028 1.4157928
-1.3431139 -6.6075459 0.69827378
-0.51575178 -2.4972587 2.3522847
-0.49022076 -2.3777995 1.8513367
-1.6928775 -8.2180672 5.0162368
-0.48337802 -2.3528519 1.1978456
-1.4547684 -7.0871577 2.6071954
-1.4091569 -6.8710179 1.7824072
-1.3560216 -6.6119204 1.0335948
-1.2986547 -6.3377972 0.35464796
-0.071557201 -0.31756523 2.0699732
-0.093620799 -0.424018 2.1111035
-0.44648603 -2.0657735 6.803679
-0.58627367 -2.7445848 6.671277
-0.37184408 -1.7528056 3.3509667
-0.40925303 -1.9390147 2.983201
-0.43817404 -2.0813596 2.6231852
-0.035691764 -0.13148019 2.1957583
-0.053194467 -0.22548833 2.117672
-0.37955302 -1.7256963 6.8404274
-0.5172891 -2.3891156 6.701685
-0.3523716 -1.642722 3.5376985
-0.39578211 -1.8559953 3.1742744
-0.41460666 -1.9508681 2.7157159
-0.4898634 -2.3127997 2.6411591
-0.49773476 -2.3848279 2.4738569
-0.48053476 -2.3084164 1.9836209
-1.8141392 -8.7219639 5.9253688
-0.4730742 -2.2784948 1.3046836
-1.4823693 -7.1456189 3.0368047
-1.4098333 -6.8019133 2.1317673
-1.3754992 -6.6479168 1.3803532
-1.3187464 -6.3736143 0.67726111
-0.52292967 -2.4881351 2.3456335
-0.49851787 -2.3760738 1.8513367
-1.6269132 -7.760664 4.7451863
-0.49158803 -2.3511503 1.1978456
-1.4292839 -6.8416729 2.5217328
-1.395393 -6.6852498 1.737859
-1.3365964 -6.4035478 1.0045863
-1.2932314 -6.2011757 0.3492066
-0.072665267 -0.31731352 2.0699732
-0.094429813 -0.42070845 2.0964179
-0.45401475 -2.0656602 6.8084512
-0.59585047 -2.7425218 6.671277
-0.37745497 -1.749156 3.3465776
-0.41365564 -1.9265691 2.9666693
-0.44543666 -2.0798175 2.6231852
-0.036071844 -0.13107702 2.1907666
-0.053856086 -0.22478314 2.1127005
-0.38557452 -1.7243609 6.8404274
-0.52525431 -2.3856099 6.6969919
-0.35763952 -1.6393552 3.5331974
-0.40723464 -1.8775411 3.2126679
-0.42332426 -1.9582447 2.7276859
-0.50221825 -2.3309603 2.6632099
-0.49420264 -2.3272607 2.417784
-0.48939627 -2.3105326 1.9867593
-1.7242273 -8.1469545 5.5443044
-0.48102474 -2.2768297 1.3046836
-1.4728321 -6.9771066 2.9693754
-1.3999079 -6.6373615 2.0838263
-1.3582128 -6.4507999 1.3430483
-1.304049 -6.1935391 0.66116619
-0.53083098 -2.4826434 2.342308
-0.50765264 -2.3782721 1.85428
-1.6126295 -7.5610037 4.6286602
-0.49979207 -2.3494198 1.1978456
-1.4492298 -6.8181658 2.5151589
-1.3763108 -6.4806457 1.6886218
-1.3167621 -6.2002378 0.97626841
-1.2796112 -6.0304613 0.34235457
-0.073418915 -0.31554469 2.0600948
-0.095216878 -0.41739851 2.0817323
-0.46187374 -2.0669765 6.8179955
-0.60541999 -2.7404249 6.671277
-0.38355836 -1.7478278 3.3465776
-0.41977769 -1.9223642 2.9625366
-0.45269388 -2.0782499 2.6231852
-0.036449548 -0.13067283 2.185775
-0.054386456 -0.22355835 2.1027575
-0.39159131 -1.7230046 6.8404274
-0.53357846 -2.3837621 6.6969919
-0.36288822 -1.6359714 3.5286961
-0.41771868 -1.8939357 3.2425294
-0.43080428 -1.959698 2.7316759
-0.51398015 -2.345751 2.6815858
-0.49554604 -2.2941489 2.3862433
-0.49827847 -2.3126154 1.9898978
-1.6523268 -7.674881 5.2317777
-0.48896945 -2.2751367 1.3046836
-1.4533768 -6.7679567 2.8850889
-1.3858324 -6.4588933 2.0316551
-1.3457408 -6.2827077 1.3113393
-1.2922831 -6.0331249 0.64685971
-0.53870022 -2.4771266 2.3389826
-0.51595128 -2.3764856 1.85428
-1.5732104 -7.2520065 4.4462714
-0.50799 -2.347661 1.1978456
-1.4221274 -6.5776739 2.4313397
-1.3506862 -6.2525039 1.6335229
-1.3007536 -6.021349 0.95140398
-1.2721941 -5.894104 0.33691323
-0.074161105 -0.31377447 2.0502162
-0.096212432 -0.41508004 2.0719419
-0.46610963 -2.0522511 6.7750473
-0.61498219 -2.7382951 6.671277
-0.38913542 -1.7441406 3.3421884
-0.42465535 -1.9126459 2.9501376
-0.45994556 -2.0766573 2.6231852
-0.036824863 -0.13026758 2.1807833
-0.055037707 -0.22284986 2.0977859
-0.3976033 -1.7216271 6.8404274
-0.5418961 -2.3818851 6.6969919
-0.36811766 -1.6325712 3.524195
-0.42775139 -1.9077349 3.2681251
-0.44224355 -1.978767 2.7596061
-0.52290243 -2.3472517 2.685261
-0.50049031 -2.2784724 2.372225
-0.50718111 -2.3146639 1.9930362
-1.5869904 -7.2483459 4.9494061
-0.49690816 -2.273416 1.3046836
-1.4394038 -6.590734 2.8139136
-1.3684828 -6.2712321 1.9766637
-1.3321123 -6.1147833 1.2796302
-1.2688133 -5.8242121 0.62808239
-0.54734373 -2.4752312 2.3389826
-0.52424365 -2.37467 1.85428
-1.5186536 -6.8844457 4.2284179
-0.51618183 -2.3458736 1.1978456
-1.4035044 -6.3835769 2.363956
-1.3474731 -6.1338124 1.6053872
-1.3005135 -5.9200377 0.93759036
-1.2456321 -5.6749172 0.32804585
-0.074891843 -0.31200296 2.0403376
-0.096959062 -0.4117687 2.057256
-0.47226313 -2.0462482 6.7607312
-0.62453687 -2.7361317 6.671277
-0.39522123 -1.7427716 3.3421884
-0.43132913 -1.9111519 2.9501376
-0.46719164 -2.0750389 2.6231852
-0.037197802 -0.12986131 2.1757917
-0.055684686 -0.22213958 2.0928144
-0.4036105 -1.7202288 6.8404274
-0.55020714 -2.3799789 6.6969919
-0.37332776 -1.6291543 3.5196936
-0.43962425 -1.9291155 3.3065183
-0.45582384 -2.0065949 2.7995064
-0.52734882 -2.3288798 2.6668851
-0.51543671 -2.3080359 2.4037659
-0.51610416 -2.3166788 1.9961747
-1.5650356 -7.0305228 4.8068504
-0.50484085 -2.2716677 1.3046836
-1.4242119 -6.4136934 2.7427385
-1.3643879 -6.1493373 1.9414129
-1.310954 -5.9182563 1.2423254
-1.2632875 -5.7030568 0.61735249
-0.55434269 -2.4660199 2.3323317
-0.53252959 -2.3728256 1.85428
-1.507773 -6.7234683 4.1346903
-0.52436727 -2.3440573 1.1978456
-1.3619119 -6.0929155 2.2620585
-1.3392104 -5.9962468 1.5725623
-1.2801526 -5.7318082 0.91134453
-1.242583 -5.5681391 0.32381371
-0.014662957 -0.031861186 2.4891787
-0.075611115 -0.31023014 2.0304592
-0.097921118 -0.40944743 2.0474656
-0.47769871 -2.0373209 6.7368717
-0.63408399 -2.7339349 6.671277
-0.40076432 -1.7390478 3.3377995
-0.4411436 -1.9233487 2.9708023
-0.47514707 -2.0765202 2.6270227
-0.037568353 -0.12945403 2.1708
-0.056194987 -0.22091116 2.0828717
-0.40961277 -1.7188094 6.8404274
-0.55851144 -2.3780437 6.6969919
-0.37901232 -1.6278412 3.5196936
-0.4492977 -1.940273 3.3278482
-0.47773775 -2.0695841 2.8872871
-0.53319401 -2.3171136 2.6558597
-0.5353325 -2.3583891 2.4563341
-0.52504736 -2.3186591 1.9993131
-1.5425029 -6.8170223 4.6670356
-0.51374352 -2.2742124 1.3070024
-1.4108645 -6.2504082 2.6771824
-1.3478492 -5.9760752 1.8906518
-1.2970732 -5.7602916 1.2124815
-1.24271 -5.5188541 0.60081059
-0.55962074 -2.4495099 2.3190296
-0.54080904 -2.3709524 1.85428
-1.5111154 -6.6299009 4.0814934
-0.53355271 -2.3466384 1.1999437
-1.3758485 -6.0558906 2.2505538
-1.3278519 -5.8493347 1.5373927
-1.2738417 -5.6114039 0.89476824
-1.2388039 -5.461452 0.31958157
-0.013885143 -0.030462172 2.3041859
-0.076506242 -0.30921024 2.0255198
-0.098868147 -0.40712449 2.0376751
-0.48376957 -2.0312846 6.7225552
-0.64317518 -2.7298033 6.6666746
-0.40683228 -1.7376382 3.3377995
-0.44977096 -1.9300187 2.983201
-0.48239258 -2.0748489 2.6270227
-0.037936516 -0.12904575 2.1658084
-0.056697398 -0.21968187 2.0729287
-0.41561005 -1.7173691 6.8404274
-0.56640851 -2.3744011 6.6922994
-0.38419107 -1.6243899 3.5151925
-0.46562484 -1.9793119 3.3961029
-0.49459216 -2.1089749 2.9431474
-0.53896344 -2.3053348 2.6448343
-0.55157781 -2.3912561 2.4913795
-0.53401077 -2.3206055 2.0024517
-1.5119396 -6.5752416 4.5080304
-0.52167886 -2.2724054 1.3070024
-1.3953581 -6.0827775 2.6097531
-1.3408357 -5.8497624 1.8539909
-1.2963519 -5.6647487 1.1947619
-1.243081 -5.4319568 0.59321022
-0.55803537 -2.403897 2.2791235
-0.54908192 -2.36905 1.85428
-1.4914522 -6.4398012 3.9700336
-0.54174072 -2.3447616 1.1999437
-1.3608625 -5.8946128 2.1946745
-1.2914479 -5.5983801 1.4764323
-1.26448 -5.4814644 0.87681049
-1.2286848 -5.3305197 0.31434175
-0.077205233 -0.30743447 2.0156415
-0.10004441 -0.40578839 2.0327799
-0.49085709 -2.0295837 6.7225552
-0.65406424 -2.7332416 6.6804819
-0.41234106 -1.7338774 3.3334103
-0.45845017 -1.9366518 2.9956
-0.48963222 -2.0731523 2.6270227
-0.03830228 -0.12863646 2.1608167
-0.057191901 -0.21845177 2.0629854
-0.42190227 -1.7171285 6.8452673
-0.5746932 -2.3724096 6.6922994
-0.39036745 -1.6251557 3.5196936
-0.47556201 -1.9903578 3.4174328
-0.5068391 -2.1277542 2.9710774
-0.54779065 -2.3067379 2.6485093
-0.5721277 -2.4413986 2.5439477
-0.54299408 -2.3225172 2.00559
-1.4825618 -6.3459759 4.3572497
-0.52960783 -2.2705705 1.3070024
-1.391327 -5.969512 2.5648003
-1.3275167 -5.7002134 1.81028
-1.283854 -5.5214343 1.1677158
-1.2372212 -5.3208718 0.58337444
-0.55271035 -2.3437893 2.2259157
-0.5564217 -2.3631847 1.8513367
-1.4813412 -6.2960811 3.8864386
-0.54992217 -2.3428562 1.1999437
-1.3490808 -5.751904 2.1453693
-1.2910181 -5.5086546 1.4553306
-1.2395374 -5.2889814 0.84987396
-1.2233626 -5.2240472 0.31010962
-0.014558772 -0.03105332 2.3991823
-0.078085333 -0.30641034 2.0107021
-0.10096485 -0.40346146 2.0229895
-0.49758264 -2.0264082 6.7177839
-0.66544658 -2.7385354 6.6988921
-0.41839093 -1.7324276 3.3334103
-0.46323395 -1.9268316 2.983201
-0.49686587 -2.0714307 2.6270227
-0.03866566 -0.12822622 2.1558251
-0.057678528 -0.21722093 2.0530424
-0.42789358 -1.7156454 6.8452673
-0.58297098 -2.370389 6.6922994
-0.39913365 -1.6364726 3.546701
-0.47328135 -1.9506686 3.3534436
-0.51355463 -2.1230433 2.9670875
-0.57173669 -2.3707247 2.7220125
-0.58642739 -2.4636719 2.5684795
-0.5519973 -2.3243947 2.0087285
-1.4989115 -6.3163514 4.3408012
-0.53753036 -2.268708 1.3070024
-1.3523442 -5.7119913 2.4599106
-1.3209009 -5.583508 1.7764391
-1.2726306 -5.3878412 1.1425351
-1.2328911 -5.2195888 0.57443291
-0.55132121 -2.301904 2.1893351
-0.56466734 -2.361228 1.8513367
-1.4632318 -6.1231623 3.7851117
-0.55809695 -2.3409224 1.1999437
-1.3406973 -5.6277256 2.102638
-1.2978574 -5.4521012 1.4424351
-1.2499644 -5.2509007 0.84503925
-1.2150002 -5.1079569 0.3054744
-0.01466708 -0.031002309 2.3991823
-0.078959219 -0.3053838 2.0057628
-0.10212143 -0.40211982 2.0180943
-0.5046531 -2.0246589 6.7177839
-0.67640585 -2.7418861 6.7126999
-0.42386523 -1.7286307 3.3290212
-0.46728733 -1.914268 2.9666693
-0.50409353 -2.0696836 2.6270227
-0.039113015 -0.12809047 2.1558251
-0.05815725 -0.21598935 2.0430994
-0.43418831 -1.7153599 6.8501067
-0.59082359 -2.3666654 6.6876063
-0.40170357 -1.6223907 3.5196936
-0.47572044 -1.9312783 3.3235822
-0.5840404 -2.385179 2.7403884
-0.60088938 -2.4858747 2.5930114
-0.56102014 -2.3262374 2.0118668
-1.4778444 -6.1322184 4.2201762
-0.54648274 -2.2711244 1.3093212
-1.347347 -5.6035647 2.4168308
-1.3123662 -5.462255 1.7411882
-1.2639281 -5.2687244 1.1201522
-1.2267075 -5.1135592 0.56504422
-0.55405867 -2.2781975 2.1693821
-0.57290614 -2.3592427 1.8513367
-1.4500332 -5.975584 3.6989834
-0.56626487 -2.3389599 1.1999437
-1.3292429 -5.4944987 2.0566199
-1.2826174 -5.3058014 1.4072655
-1.2070155 -4.9968472 0.30104074
-0.079826899 -0.30435494 2.0008235
-0.10301528 -0.39978918 2.0083039
-0.51171738 -2.0228851 6.7177839
-0.68882036 -2.750879 6.740315
-0.42989665 -1.7271404 3.3290212
-0.47193566 -1.9044311 2.9542706
-0.51131499 -2.0679114 2.6270227
-0.039472558 -0.12767801 2.1508334
-0.058769464 -0.21527106 2.0381279
-0.44048616 -1.7150512 6.8549457
-0.59908116 -2.3645887 6.6876063
-0.47739735 -1.9093652 3.2894547
-0.58376557 -2.3416111 3.2703295
-0.58909124 -2.3699656 2.7256877
-0.60871309 -2.4802988 2.5895069
-0.57006264 -2.3280456 2.0150054
-1.469425 -6.0051751 4.1379328
-0.55440712 -2.2692032 1.3093212
-1.3504059 -5.5312729 2.3887353
-1.3041387 -5.3457918 1.7073475
-1.2532474 -5.1449633 1.0968367
-1.219799 -5.0076375 0.5556556
-0.56290275 -2.2798746 2.1727076
-0.58210552 -2.3611529 1.85428
-1.4213858 -5.7695751 3.5773909
-0.57442588 -2.3369691 1.1999437
-1.3213807 -5.3797646 2.0171757
-1.2756412 -5.1974401 1.3814745
-1.2051445 -4.910202 0.7973823
-1.1982704 -4.8858566 0.29660705
-0.014587268 -0.030467186 2.3391843
-0.080688372 -0.30332375 1.9958843
-0.10389411 -0.39745721 1.9985133
-0.51840419 -2.0196407 6.7130117
-0.69793731 -2.7465644 6.7357125
-0.43181601 -1.7093751 3.2982976
-0.47514802 -1.8891271 2.9336057
-0.51853019 -2.0661139 2.6270227
-0.039829697 -0.12726459 2.1458418
-0.059520543 -0.21506462 2.0381279
-0.44488487 -1.7074217 6.830749
-0.60733151 -2.362483 6.6876063
-0.78536481 -3.0792491 6.6345339
-0.47892711 -1.8874639 3.2553272
-0.59341413 -2.3454015 3.2783093
-0.59736037 -2.3678946 2.7256877
-0.60443491 -2.4262516 2.5369387
-0.57912457 -2.329819 2.0181439
-1.4349359 -5.7768135 3.9871519
-0.5623247 -2.2672541 1.3093212
-1.340709 -5.4095311 2.3400364
-1.2928077 -5.2201409 1.6706866
-1.2428974 -5.0261102 1.0744538
-1.2109708 -4.8969932 0.54581982
-0.57811916 -2.3068695 2.1993115
-0.59034395 -2.3591065 1.85428
-1.4258296 -5.7018476 3.5393932
-0.58257991 -2.3349497 1.1999437
-1.3104492 -5.2559896 1.9744444
-1.2655742 -5.079761 1.353339
-1.2234743 -4.9107709 0.79807293
-1.1899723 -4.7798371 0.29237488
-0.01452005 -0.030164702 2.3041859
-0.081340544 -0.30154026 1.9860058
-0.10475792 -0.39512399 1.9887229
-0.52545094 -2.0178189 6.7130117
-0.70752031 -2.7441115 6.7357125
-0.43183222 -1.6846579 3.2544069
-0.49009156 -1.9201761 2.983201
-0.52573913 -2.0642912 2.6270227
-0.040273689 -0.12712479 2.1458418
-0.060125936 -0.21434258 2.0331564
-0.44955698 -1.7009974 6.8113914
-0.61557442 -2.3603487 6.6876063
-0.7961086 -3.076489 6.6345339
-0.48421198 -1.8807293 3.2467954
-0.60057741 -2.3460898 2.7036369
-0.60240972 -2.3826377 2.4948843
-0.58820581 -2.3315573 2.0212824
-1.4418033 -5.7190599 3.9515128
-0.57131696 -2.2695732 1.31164
-1.3301789 -5.2879257 2.2913375
-1.2817854 -5.099288 1.6354358
-1.2329293 -4.9121585 1.0530035
-1.2038101 -4.7961335 0.53687823
-0.59076989 -2.3229303 2.215939
-0.5995701 -2.360949 1.857223
-1.414973 -5.575664 3.4659309
-0.59072691 -2.332902 1.1999437
-1.2998286 -5.1369362 1.9333566
-1.25351 -4.9575043 1.324031
-1.2175437 -4.8152523 0.78495008
-1.180949 -4.6739359 0.28814274
-0.082186937 -0.30050519 1.9810666
-0.10560671 -0.39278963 1.9789325
-0.53249121 -2.0159724 6.7130117
-0.71660036 -2.7397349 6.7311101
-0.42324069 -1.6275115 3.1490691
-0.49820229 -1.9239019 2.991467
-0.5329417 -2.0624435 2.6270227
-0.040626977 -0.12670919 2.1408501
-0.060727011 -0.21361893 2.0281849
-0.45418963 -1.6945614 6.7920337
-0.62380981 -2.3581855 6.6876063
-0.80684274 -3.0736911 6.6345339
-0.49077401 -1.8790277 3.2467954
-0.54521179 -2.0933454 2.9391572
-0.61558127 -2.3702292 2.7330382
-0.60895044 -2.3736117 2.487875
-0.59730625 -2.3332605 2.024421
-1.4306674 -5.592463 3.8692687
-0.57923579 -2.2675653 1.31164
-1.3222566 -5.1799378 2.2482579
-1.2663783 -4.964632 1.5959549
-1.2136936 -4.7650166 1.0250249
-1.1935018 -4.6857324 0.52704251
-0.60353965 -2.3389308 2.2325666
-0.60780764 -2.3588417 1.857223
-1.4021779 -5.4454517 3.3899355
-0.59886664 -2.3308258 1.1999437
-1.2860444 -5.0088749 1.8889819
-1.247856 -4.8636446 1.301757
-1.2035774 -4.6910553 0.76768309
-1.1637566 -4.5391212 0.2827014
-0.082818806 -0.29871938 1.9711881
-0.10670882 -0.3914364 1.9740372
-0.53952503 -2.0141013 6.7130117
-0.72565848 -2.7353287 6.7265077
-0.41792145 -1.5843407 3.0700655
-0.50849009 -1.9357594 3.0121319
-0.54013771 -2.0605707 2.6270227
-0.041069027 -0.1265666 2.1408501
-0.061323777 -0.21289371 2.0232134
-0.45911267 -1.6893268 6.7775149
-0.63248485 -2.3576605 6.6922994
-0.81812716 -3.0729597 6.6390352
-0.49799797 -1.879824 3.2510612
-0.54558814 -2.0652101 2.9032471
-0.62644237 -2.3779013 2.7440636
-0.61543548 -2.3645692 2.480866
-0.6064257 -2.3349285 2.0275593
-1.423918 -5.4862518 3.8007321
-0.58825886 -2.2698174 1.3139588
-1.3124343 -5.0675817 2.203305
-1.2476434 -4.8208599 1.5536538
-1.2180285 -4.7131915 1.0156988
-1.1849301 -4.5851068 0.51810092
-0.61737382 -2.3584821 2.2525196
-0.61603791 -2.3567057 1.857223
-1.3895812 -5.3195701 3.3164735
-0.6069991 -2.328721 1.1999437
-1.2749531 -4.8946824 1.8495376
-1.2415622 -4.7698855 1.279483
-1.2012334 -4.6149397 0.75732285
-1.1619871 -4.4673405 0.27987999
-0.083439201 -0.29693279 1.9613096
-0.10753101 -0.38909897 1.9642467
-0.5465523 -2.0122058 6.7130117
-0.73520207 -2.732779 6.7265077
-0.42159215 -1.5759314 3.0568984
-0.51959121 -1.9502877 3.0369296
-0.5473271 -2.0586727 2.6270227
-0.041418441 -0.12614886 2.1358583
-0.06191621 -0.21216692 2.0182419
-0.46433869 -1.6852905 6.7678366
-0.64206982 -2.3604336 6.706378
-0.82714635 -3.0637801 6.6255312
-0.50320327 -1.873037 3.2425294
-0.55123395 -2.0574718 2.895267
-0.63998979 -2.3953516 2.7661147
-0.62277526 -2.3589582 2.4773614
-0.61556411 -2.3365614 2.0306978
-1.4121865 -5.3639827 3.7212296
-0.59617835 -2.2677503 1.3139588
-1.3042003 -4.9643269 2.1620984
-1.255937 -4.7839966 1.5437837
-1.2095592 -4.6138768 0.99704623
-1.170619 -4.4653301 0.50737101
-0.62847728 -2.3671389 2.2624962
-0.62426054 -2.3545411 1.857223
-1.3739147 -5.1855092 3.2379451
-0.61512417 -2.3265882 1.1999437
-1.2679058 -4.7988925 1.8166674
-1.2333885 -4.6715302 1.2560366
-1.1933166 -4.5197468 0.74419993
-1.1584563 -4.3907971 0.27685699
-0.084048145 -0.29514554 1.951431
-0.10833821 -0.38676062 1.9544563
-0.55357283 -2.0102856 6.7130117
-0.74422258 -2.7283111 6.7219048
-0.42771769 -1.5767616 3.0612874
-0.52712977 -1.9511784 3.0410624
-0.55450988 -2.0567498 2.6270227
-0.041765455 -0.12573025 2.1308668
-0.062504329 -0.21143863 2.0132704
-0.4698804 -1.6824486 6.7629967
-0.65122306 -2.3615053 6.7157631
-0.83668631 -3.0566747 6.616529
-0.50836712 -1.8662363 3.2339973
-0.55920255 -2.0584428 2.8992569
-0.651007 -2.4029193 2.7771401
-0.63192821 -2.3602149 2.480866
-0.62371641 -2.3343985 2.0306978
-1.3985405 -5.2378235 3.6389856
-0.60409069 -2.2656553 1.3139588
-1.2749703 -4.7850389 2.0890501
-1.2454742 -4.6776013 1.5127629
-1.2054608 -4.5336699 0.98212433
-1.1695631 -4.3986511 0.50155902
-0.6386779 -2.3721414 2.2691472
-0.63247561 -2.3523476 1.857223
-1.3629231 -5.0724406 3.1720822
-0.62324166 -2.3244267 1.1999437
-1.2663168 -4.7260184 1.792015
-1.2258009 -4.5779872 1.2337625
-1.1873115 -4.4342327 0.73245835
-1.1544057 -4.3143349 0.27383405
-0.084645636 -0.2933577 1.9415525
-0.10940897 -0.38540074 1.9495611
-0.56058669 -2.0083411 6.7130117
-0.75374156 -2.7256968 6.7219048
-0.43321905 -1.575259 3.0612874
-0.53468102 -1.9520409 3.0451953
-0.56168592 -2.0548017 2.6270227
-0.042110037 -0.12531075 2.125875
-0.063088112 -0.2107088 2.0082989
-0.47575039 -1.6807982 6.7629967
-0.66132087 -2.3658655 6.7345343
-0.84676886 -3.0516379 6.6120276
-0.49821454 -1.804117 3.1316152
-0.57518649 -2.0884342 2.9431474
-0.6584928 -2.3973632 2.7734649
-0.640163 -2.3579948 2.480866
-0.63287914 -2.335964 2.0338361
-1.3829385 -5.1077905 3.5540004
-0.61315191 -2.2678092 1.3162776
-1.279573 -4.735805 2.0703197
-1.2405367 -4.5944943 1.4887924
-1.1995388 -4.4488058 0.96626979
-1.1615735 -4.3079929 0.49351156
-0.64892095 -2.3771014 2.2757981
-0.640683 -2.3501256 1.857223
-1.3500258 -4.9553537 3.1036866
-0.63135165 -2.322237 1.1999437
-1.2617582 -4.6441007 1.7640753
-1.2188491 -4.4892464 1.2126609
-1.1807244 -4.3488173 0.72071677
-1.1485273 -4.2331328 0.27060956
-0.085450403 -0.29231486 1.9366133
-0.11018956 -0.38305974 1.9397707
-0.56759369 -2.006372 6.7130117
-0.76325142 -2.7230489 6.7219048
-0.43871507 -1.5737371 3.0612874
-0.54224455 -1.9528738 3.0493283
-0.56885511 -2.0528283 2.6270227
-0.042357221 -0.12461776 2.1158917
-0.063667566 -0.20997746 2.0033274
-0.4812679 -1.677919 6.7581573
-0.67051613 -2.3668633 6.7439198
-0.49044695 -1.7521377 3.0462966
-0.62217891 -2.2286243 3.1386585
-0.66140074 -2.3754544 2.7514141
-0.64839005 -2.3557458 2.480866
-0.64206034 -2.3374939 2.0369747
-1.3686601 -4.9859967 3.4744978
-0.62106431 -2.2656553 1.3162776
-1.2789483 -4.6687131 2.0440972
-1.232501 -4.5022268 1.4620018
-1.1943345 -4.3687778 0.95134789
-1.1503394 -4.2078381 0.48457
-0.65821058 -2.3784204 2.2791235
-0.64888257 -2.3478749 1.857223
-1.3443618 -4.8675065 3.0530229
-0.64065987 -2.3243942 1.2020416
-1.2578974 -4.5668268 1.7377791
-1.2100029 -4.3959241 1.1903868
-1.1709273 -4.2539539 0.70759392
-1.1420964 -4.1520252 0.26738507
-0.086027585 -0.29052517 1.9267347
-0.1112406 -0.38169542 1.9348755
-0.57500523 -2.0058134 6.7177839
-0.77328593 -2.7222476 6.7265077
-0.44420576 -1.5721961 3.0612874
-0.54905808 -1.9509692 3.0493283
-0.57601732 -2.0508304 2.6270227
-0.042696021 -0.12419687 2.1109002
-0.064242691 -0.20924468 1.998356
-0.48747283 -1.6774359 6.7629967
-0.6782977 -2.3628495 6.7392273
-0.73079807 -2.5641356 5.5767484
-0.49015325 -1.727834 3.0079031
-0.68656552 -2.4264979 3.4139702
-0.65679741 -2.3274534 2.6999617
-0.65660924 -2.3534682 2.480866
-0.6502158 -2.3352385 2.0369747
-1.360274 -4.888536 3.4114439
-0.62896907 -2.2634735 1.3162776
-1.2753901 -4.5927501 2.0141287
-1.217423 -4.386961 1.428161
-1.1885865 -4.2888408 0.93642598
-1.1464006 -4.13661 0.47831091
-0.66852582 -2.3832982 2.2857745
-0.65707421 -2.3455954 1.857223
-1.3357769 -4.7714581 2.997293
-0.64876962 -2.3221438 1.2020416
-1.250973 -4.4805398 1.7081959
-1.2031331 -4.3120832 1.1704574
-1.1631444 -4.1687531 0.69585234
-1.1324298 -4.0613914 0.2637575
-0.015537067 -0.029993955 2.3391843
-0.086817257 -0.28947908 1.9217954
-0.11199459 -0.379352 1.9250849
-0.58200336 -2.0037942 6.7177839
-0.78278363 -2.7195318 6.7265077
-0.44969103 -1.570636 3.0612874
-0.55740863 -1.9544529 3.0575943
-0.58317256 -2.0488071 2.6270227
-0.0430324 -0.12377512 2.1059084
-0.064813465 -0.20851044 1.9933845
-0.49012929 -1.6648722 6.7194419
-0.6865415 -2.3604674 6.7392273
-0.73793197 -2.5552945 5.5632448
-0.49690211 -1.7286189 3.0121689
-0.69835365 -2.4356728 3.4299302
-0.65186721 -2.2795138 2.6485093
-0.66482031 -2.3511617 2.480866
-0.65942049 -2.3367004 2.040113
-1.3489547 -4.7831469 3.3429072
-0.63686627 -2.2612641 1.3162776
-1.2700613 -4.5124073 1.9822872
-1.2158432 -4.3226519 1.4098306
-1.1822953 -4.2089987 0.92150408
-1.1365916 -4.0462837 0.47026348
-0.67786199 -2.3845415 2.2891002
-0.66525793 -2.3432875 1.857223
-1.3265382 -4.67553 2.9415631
-0.6568715 -2.319865 1.2020416
-1.2434617 -4.3943577 1.6786127
-1.1917249 -4.2143126 1.147011
-1.1493909 -4.0645981 0.68134809
-1.1289377 -3.9949136 0.2611376
-0.087600671 -0.28843099 1.9168562
-0.11302584 -0.37798342 1.9201897
-0.58857286 -2.0003183 6.7130117
-0.79227191 -2.7167828 6.7265077
-0.45583826 -1.5713569 3.0656767
-0.56422752 -1.9524953 3.0575943
-0.59032071 -2.0467589 2.6270227
-0.043366358 -0.12335256 2.1009169
-0.06537991 -0.20777477 1.988413
-0.49701577 -1.6667647 6.7339602
-0.69477683 -2.3580565 6.7392273
-0.74440163 -2.5443459 5.5452399
-0.50439185 -1.7318817 3.0207007
-0.6967634 -2.3984969 3.38205
-0.65415895 -2.2576873 2.6264584
-0.672041 -2.3453984 2.4773614
-0.6686433 -2.3381269 2.0432515
-1.3426617 -4.698 3.2880781
-0.64597142 -2.2632868 1.3185964
-1.2616441 -4.4232416 1.9466994
-1.2085695 -4.2399549 1.3858601
-1.1768062 -4.1339774 0.90751481
-1.1425278 -4.0135531 0.46758097
-0.68721503 -2.3857486 2.2924254
-0.67343336 -2.3409512 1.857223
-1.3166462 -4.5797253 2.885833
-0.66496533 -2.3175578 1.2020416
-1.2353646 -4.3082848 1.6490296
-1.1917001 -4.1587291 1.1341156
-1.1499307 -4.0129566 0.67444122
-1.122245 -3.9189055 0.25811464
-0.015850168 -0.030024856 2.3591835
-0.088377833 -0.28738102 1.9119169
-0.1140489 -0.37661222 1.9152945
-0.59555173 -1.9982517 6.7130117
-0.80175036 -2.7140007 6.7265077
-0.46064508 -1.5674583 3.0612874
-0.57894707 -1.9775203 3.0989237
-0.59746164 -2.0446858 2.6270227
-0.043697886 -0.12292916 2.0959251
-0.065779224 -0.20653009 1.97847
-0.70300382 -2.355617 6.7392273
-0.75080395 -2.5333831 5.527235
-0.51560086 -1.7476205 3.0505624
-0.66599613 -2.2630796 3.1985087
-0.65726119 -2.2391255 2.6080825
-0.68121821 -2.3464632 2.480866
-0.67680085 -2.3357787 2.0432515
-1.334628 -4.6089396 3.2305071
-0.65386784 -2.261018 1.3185964
-1.2500461 -4.325285 1.9073657
-1.1954093 -4.1389284 1.3562493
-1.1708081 -4.0590467 0.89352548
-1.1385887 -3.9473374 0.46176898
-0.69763076 -2.3905036 2.2990766
-0.68046969 -2.3347056 1.85428
-1.3061023 -4.4840484 2.8301034
-0.67431802 -2.319581 1.2041397
-1.2266817 -4.222322 1.6194464
-1.188591 -4.0938611 1.1188755
-1.1349357 -3.909049 0.65993696
-1.1219962 -3.8669834 0.25609931
-0.015954878 -0.029969346 2.3591835
-0.089380443 -0.28707078 1.9119169
-0.11476471 -0.37426522 1.905504
-0.60209179 -1.9947315 6.7082396
-0.8112191 -2.7111855 6.7265077
-0.46543032 -1.5635455 3.0568984
-0.60264993 -2.0321426 3.1857157
-0.60459524 -2.0425878 2.6270227
-0.044026997 -0.12250496 2.0909336
-0.066335201 -0.2057922 1.9734985
-0.14460506 -0.47329322 1.9429301
-0.71122217 -2.3531487 6.7392273
-0.75901657 -2.528662 5.5227337
-0.52095127 -1.7433113 3.0462966
-0.64548367 -2.1654482 3.066838
-0.66314065 -2.2303185 2.6007321
-0.68537962 -2.3303857 2.4668479
-0.68604642 -2.3371365 2.0463901
-1.3259892 -4.5199943 3.1729364
-0.66300184 -2.2629731 1.3209151
-1.2286608 -4.1963191 1.8549209
-1.1963778 -4.0886903 1.3421489
-1.1643015 -3.9842098 0.87953621
-1.1369947 -3.890758 0.45685109
-0.70808804 -2.3952153 2.3057275
-0.68747067 -2.3284397 1.8513367
-1.2827063 -4.3471556 2.7490413
-0.68241084 -2.3172131 1.2041397
-1.2187474 -4.1410036 1.5915067
-1.1850441 -4.029067 1.1036353
-1.1373953 -3.8670568 0.65441149
-1.1185809 -3.8055253 0.25368094
-0.016216984 -0.030122522 2.3891823
-0.090147674 -0.2860162 1.9069777
-0.11576799 -0.37289006 1.9006088
-0.60948747 -1.9940453 6.7130117
-0.820678 -2.7083373 6.7265077
-0.47019386 -1.5596182 3.0525093
-0.62916964 -2.0947077 3.2849064
-0.61172152 -2.0404649 2.6270227
-0.044353675 -0.12207998 2.0859418
-0.066886835 -0.20505296 1.968527
-0.14476867 -0.4679828 1.9235724
-0.71993691 -2.3523016 6.7439198
-0.76783866 -2.5259972 5.5227337
-0.52552223 -1.7364897 3.0377645
-0.64171648 -2.1256814 3.0149677
-0.66994429 -2.2247441 2.5970571
-0.69045514 -2.3177254 2.4563341
-0.6942004 -2.3347273 2.0463901
-1.3179371 -4.435174 3.1181071
-0.67089701 -2.2606449 1.3209151
-1.2367102 -4.1697822 1.8455557
-1.1901941 -4.0155001 1.3209985
-1.1489209 -3.8812068 0.85995114
-1.1336064 -3.829464 0.45148614
-0.73036849 -2.4392281 2.348959
-0.69559419 -2.3260257 1.8513367
-1.2966383 -4.338521 2.7465081
-0.69049525 -2.3148167 1.2041397
-1.2008172 -4.0281157 1.5520625
-1.1810592 -3.9643483 1.0883951
-1.1254362 -3.7776363 0.64197928
-1.1161761 -3.7489274 0.2514641
-0.091145501 -0.28569978 1.9069777
-0.11645725 -0.37054133 1.8908184
-0.61732709 -1.9947577 6.7225552
-0.83012688 -2.705456 6.7265077
-0.79807144 -2.6139276 5.0758748
-0.64139158 -2.1086519 3.3097041
-0.61977154 -2.041384 2.6308603
-0.044677921 -0.12165419 2.0809503
-0.06743411 -0.20431235 1.9635555
-0.14752963 -0.47107276 1.9380907
-0.72814363 -2.3497744 6.7439198
-0.77921319 -2.5316238 5.5407386
-0.523938 -1.7097093 2.9951053
-0.6456086 -2.111902 2.9990077
-0.67671716 -2.2191494 2.5933819
-0.7016319 -2.3255441 2.4668479
-0.70346826 -2.3360171 2.0495286
-1.3105143 -4.3544698 3.0660193
-0.68005919 -2.2625318 1.3232338
-1.2152472 -4.0455618 1.7949839
-1.1793762 -3.9286196 1.2956179
-1.1539971 -3.8489406 0.85435539
-1.1298043 -3.7682416 0.44612122
-0.74971396 -2.4723945 2.3822141
-0.70253772 -2.319715 1.8483937
-1.2855493 -4.2473245 2.6933117
-0.69857126 -2.3123925 1.2041397
-1.2025868 -3.9832134 1.5372709
-1.1766375 -3.8997071 1.073155
-1.1257415 -3.7310162 0.63576317
-1.1119478 -3.6876099 0.24904574
-0.016161805 -0.029661993 2.3391843
-0.091902763 -0.2846407 1.9020383
-0.11744072 -0.36916244 1.8859231
-0.62562555 -1.9968638 6.7368717
-0.83956563 -2.7025421 6.7265077
-0.81426513 -2.6340072 5.1197658
-0.64129293 -2.0821965 3.2725077
-0.62783551 -2.0422723 2.6346979
-0.044999737 -0.12122763 2.0759585
-0.067977041 -0.20357047 1.958584
-0.14917308 -0.47055492 1.9380907
-0.73634142 -2.3472183 6.7439198
-0.78934097 -2.5330451 5.5497413
-0.52217329 -1.6829615 2.9524457
-0.65475869 -2.1153927 3.0069876
-0.6834591 -2.2135344 2.5897067
-1.4423245 -4.7207365 4.9305434
-0.71275359 -2.3372703 2.0526669
-1.3013253 -4.2698731 3.0111899
-0.68795282 -2.260144 1.3232338
-1.2226154 -4.0191193 1.7856187
-1.1819201 -3.8877621 1.2843376
-1.1531537 -3.7978857 0.84502923
-1.1255888 -3.707093 0.44075626
-0.76820379 -2.5018861 2.4121435
-0.71063077 -2.3172488 1.8483937
-1.2839452 -4.1892304 2.6603804
-0.70663869 -2.3099399 1.2041397
-1.1971548 -3.9157701 1.5142617
-1.1731993 -3.8397942 1.0590873
-1.1271822 -3.6891766 0.6302377
-1.1087642 -3.6311464 0.2468289
-0.016265247 -0.029605396 2.3391843
-0.092653744 -0.28357983 1.8970991
-0.11810339 -0.36681217 1.8761326
-0.63349473 -1.9975133 6.7464156
-0.84899408 -2.699595 6.7265077
-0.81773132 -2.6128638 5.0846529
-0.63591313 -2.0431285 2.6385353
-0.045422629 -0.12106982 2.0759585
-0.068515614 -0.20282726 1.9536124
-0.14889243 -0.4640477 1.9138936
-0.7445302 -2.3446338 6.7439198
-0.79948807 -2.5344265 5.5587435
-0.52569985 -1.6736642 2.9396482
-0.67385298 -2.1504741 3.0588579
-0.69118166 -2.2111351 2.5897067
-1.4124194 -4.5657678 4.7763438
-0.72205627 -2.3384871 2.0558054
-1.2989601 -4.2093678 2.9728096
-0.69714278 -2.2619622 1.3255527
-1.2175316 -3.9527998 1.7593961
-1.171491 -3.8056719 1.260367
-1.1534115 -3.751579 0.83663565
-1.1224238 -3.6507807 0.4358384
-0.77693236 -2.4991894 2.4121435
-0.71871513 -2.314754 1.8483937
-1.2768412 -4.1147318 2.6173162
-0.71469766 -2.3074591 1.2041397
-1.1926631 -3.8529248 1.4928963
-1.1693573 -3.7799537 1.0450194
-1.1268811 -3.6426418 0.62402159
-1.1052001 -3.5747507 0.24461207
-0.01636849 -0.02954844 2.3391843
-0.093153827 -0.28177971 1.8872206
-0.1190671 -0.36542976 1.8712374
-0.64183247 -1.9995537 6.7607312
-0.85841221 -2.696615 6.7265077
-0.82467693 -2.6031442 5.071486
-0.64400446 -2.0439534 2.6423728
-0.045844965 -0.12091053 2.0759585
-0.06904982 -0.20208277 1.9486409
-0.14934546 -0.45993903 1.8993753
-0.75270998 -2.3420205 6.7439198
-0.80965447 -2.535768 5.5677462
-0.53074849 -1.6693336 2.9353821
-0.69593328 -2.1940641 3.1226983
-0.69787282 -2.2054768 2.5860314
-1.4038335 -4.4825354 4.6957393
-0.73253751 -2.3433824 2.0620823
-1.2787315 -4.0930543 2.8960483
-0.70503426 -2.2595148 1.3255527
-1.2175205 -3.904269 1.7406659
-1.1776316 -3.7786608 1.253317
-1.1519003 -3.7006273 0.82730943
-1.1188796 -3.5945358 0.43092051
-0.78453058 -2.4929008 2.4088182
-0.72800285 -2.316087 1.8513367
-1.2705249 -4.0444479 2.5767853
-0.72274786 -2.3049502 1.2041397
-1.180687 -3.7676284 1.4633131
-1.1651121 -3.7201877 1.0309516
-1.124789 -3.5914288 0.61711478
-1.101256 -3.518425 0.24239522
-0.016471533 -0.029491123 2.3391843
-0.093889669 -0.28071618 1.8822814
-0.12002259 -0.36404508 1.8663422
-0.64926958 -1.9987208 6.7655034
-0.86781996 -2.6936021 6.7265077
-0.65210915 -2.0447464 2.6462102
-0.046266738 -0.12074976 2.0759585
-0.069579668 -0.20133705 1.9436694
-0.14977162 -0.45583284 1.8848569
-0.76088059 -2.3393788 6.7439198
-0.81983989 -2.5370691 5.5767484
-0.53657234 -1.6674707 2.9353821
-0.71924704 -2.2403944 3.1905289
-0.70556712 -2.2030272 2.5860314
-1.3914508 -4.3892198 4.6046209
-0.74188721 -2.344522 2.0652206
-1.2652723 -4.0008564 2.8357363
-0.71425134 -2.2612641 1.3278714
-1.2143945 -3.8469446 1.7181895
-1.1749381 -3.7242041 1.2378066
-1.1485714 -3.6450472 0.81705064
-1.1149566 -3.5383611 0.42600265
-0.79322767 -2.4901471 2.4088182
-0.73608303 -2.3135316 1.8513367
-1.2637336 -3.9742582 2.5362544
-0.72941607 -2.2980874 1.2020416
-1.1866919 -3.7409782 1.4550955
-1.1604642 -3.6604977 1.0168839
-1.1238497 -3.5449963 0.61089867
-1.0969323 -3.4621704 0.24017838
-0.015980622 -0.02867919 2.2291887
-0.094619215 -0.27965099 1.8773421
-0.12096986 -0.3626582 1.861447
-0.6557762 -1.9950242 6.7607312
-0.87721711 -2.6905563 6.7265077
-1.5145 -4.68361 7.3021331
-0.6602273 -2.0455079 2.6500478
-0.046581626 -0.12031911 2.0709667
-0.070105158 -0.20059009 1.9386978
-0.15017095 -0.45172936 1.8703387
-0.76904196 -2.3367085 6.7439198
-0.83004433 -2.5383301 5.5857511
-0.54158187 -1.6631076 2.9311161
-0.72799426 -2.240736 3.1945188
-0.71325284 -2.200551 2.5860314
-1.3817029 -4.3062348 4.5240164
-0.75244111 -2.3493316 2.0714977
-1.2613833 -3.9406621 2.7973557
-0.72214031 -2.2587571 1.3278714
-1.2108833 -3.7896905 1.6957132
-1.1733382 -3.6743832 1.2237064
-1.1463611 -3.5942159 0.80772442
-1.1106552 -3.4822586 0.42108479
-0.80076921 -2.4838092 2.4054925
-0.74539322 -2.3147955 1.85428
-1.2564683 -3.9041667 2.4957235
-0.73743343 -2.2955272 1.2020416
-1.1838642 -3.6873562 1.437017
-1.1554139 -3.6008863 1.0028161
-1.1210872 -3.4938986 0.60399187
-1.090704 -3.4012327 0.23776001
-0.016080633 -0.028623233 2.2291887
-0.09534248 -0.27858409 1.8724029
-0.12190893 -0.36126915 1.8565518
-0.66273618 -1.9927229 6.7607312
-0.88660359 -2.6874778 6.7265077
-1.0954931 -3.3361576 6.5023255
-1.4967072 -4.5739903 7.1409473
-0.6683588 -2.0462379 2.6538854
-0.046894081 -0.11988775 2.065975
-0.070626281 -0.19984192 1.9337263
-0.15054347 -0.44762865 1.8558204
-0.7771939 -2.3340101 6.7439198
-0.84095138 -2.5416174 5.5992546
-0.5473839 -1.661207 2.9311161
-0.73392916 -2.2324562 3.1865389
-0.7209298 -2.1980479 2.5860314
-0.86362886 -2.6597059 2.827816
-0.76183748 -2.3503935 2.0746362
-0.79446006 -2.452477 1.7747886
-0.73138422 -2.2604375 1.3301903
-1.2069873 -3.7325082 1.6732366
-1.1699297 -3.6200542 1.2081958
-1.1423013 -3.5387704 0.79746562
-1.105976 -3.4262292 0.4161669
-0.80943453 -2.480999 2.4054925
-0.75472122 -2.3160224 1.857223
-1.248729 -3.8341749 2.4551926
-0.74544185 -2.2929392 1.2020416
-1.1821358 -3.6382906 1.4205818
-1.1514629 -3.5459778 0.98992056
-1.1195112 -3.4475744 0.59777576
-1.0871482 -3.3498852 0.2357447
-0.01637104 -0.028805591 2.2641871
-0.096059442 -0.27751556 1.8674636
-0.12283977 -0.35987797 1.8516566
-0.66921192 -1.9889827 6.7559595
-0.89597923 -2.6843667 6.7265077
-1.1063765 -3.3300407 6.4979362
-1.4878981 -4.4939394 7.0252252
-0.6765033 -2.0469358 2.6577229
-0.047204088 -0.11945568 2.0609834
-0.071143039 -0.19909255 1.9287548
-0.1512945 -0.44472075 1.8461416
-0.78533632 -2.3312829 6.7439198
-0.85120046 -2.5427952 5.6082573
-0.55235434 -1.6568122 2.9268503
-0.7284016 -2.1898518 3.1306784
-0.72859806 -2.195518 2.5860314
-0.87958729 -2.6770031 2.8488433
-0.77125031 -2.3514183 2.0777745
-0.81473887 -2.4854493 1.7994618
-0.73927015 -2.2578707 1.3301903
-1.2012653 -3.6709948 1.6488874
-1.1661565 -3.5657949 1.1926856
-1.1378686 -3.4833975 0.78720677
-1.099373 -3.3655419 0.41080198
-0.80989611 -2.4533393 2.3822141
-0.76406687 -2.3172128 1.8601663
-1.2432152 -3.7724736 2.419728
-0.75344115 -2.290323 1.2020416
-1.1771299 -3.5803111 1.4008597
-1.1456257 -3.4865246 0.97585273
-1.117626 -3.4013042 0.59155965
-1.0754536 -3.2748718 0.23272175
-0.016608225 -0.028918272 2.2891862
-0.096770123 -0.27644551 1.8625244
-0.12376239 -0.35848475 1.8467613
-0.67615068 -1.9866345 6.7559595
-0.90534395 -2.6812227 6.7265077
-1.118757 -3.3284285 6.5023255
-1.4758669 -4.4060006 6.8971033
-0.68466079 -2.0476017 2.6615605
-0.047511652 -0.11902291 2.0559916
-0.07165543 -0.19834204 1.9237833
-0.15202707 -0.44181311 1.8364627
-0.79346925 -2.3285272 6.7439198
-0.86286449 -2.5480561 5.6262622
-0.55813432 -1.654874 2.9268503
-0.69951916 -2.078773 2.9790576
-0.73625743 -2.1929615 2.5860314
-0.89005166 -2.6773009 2.8523479
-0.78067964 -2.352406 2.0809131
-0.81946057 -2.4706838 1.7912376
-0.74854022 -2.2594814 1.332509
-1.1965859 -3.6139672 1.6264108
-1.160512 -3.5070519 1.1757652
-1.1315219 -3.4234357 0.77601534
-1.0892345 -3.2954867 0.40454286
-0.81372344 -2.4363315 2.368912
-0.77215081 -2.3145316 1.8601663
-1.2359228 -3.7067692 2.3817306
-0.76143128 -2.2876792 1.2020416
-1.1717339 -3.5224111 1.3811376
-1.1424545 -3.4363801 0.96412951
-1.1154312 -3.3550897 0.58534348
-1.0774266 -3.2426512 0.23151256
-0.016983716 -0.029199164 2.3391843
-0.097474501 -0.27537382 1.8575851
-0.12434059 -0.35612833 1.8369709
-0.68308121 -1.9842622 6.7559595
-0.91469765 -2.6780462 6.7265077
-1.1311396 -3.3267705 6.5067143
-1.4578214 -4.3022113 6.7441845
-0.69283116 -2.0482352 2.6653979
