# .PCD v0.7 - Point Cloud Data file format
VERSION 0.7
FIELDS x y z
SIZE 4 4 4
TYPE F F F
COUNT 1 1 1
WIDTH 1409
HEIGHT 1
VIEWPOINT 0 0 0 1 0 0 0
POINTS 1409
DATA ascii
-0.49162522 -0.12797587 8.6250143
-0.88850123 -0.26721445 8.6104555
-1.3187741 -0.48077863 5.441834
-1.1224906 -0.41518566 3.308815
-1.0417867 -0.38861221 2.3628819
-1.0199542 -0.38226971 1.8518349
-0.94448954 -0.35528913 1.410978
-0.93367803 -0.35213709 1.1600677
-0.92024261 -0.35055271 1.0475066
-0.89746207 -0.34240362 0.85691494
-0.8887006 -0.33958361 0.70835841
-0.88676172 -0.33918932 0.58353674
-0.86664897 -0.33183551 0.46325746
-0.84690571 -0.32460728 0.35653609
-0.85303891 -0.32729396 0.26493949
-0.84125173 -0.32310033 0.17385007
-0.91795236 -0.34820807 0.95557451
-0.89038175 -0.33827385 0.77708322
-0.88408589 -0.33622724 0.64143664
-0.87474197 -0.33319014 0.52017462
-0.8785764 -0.33499351 0.41639778
-0.83569884 -0.31897184 0.30645946
-0.82797581 -0.31618428 0.21582969
-0.83974701 -0.32100689 0.12994097
-0.088322252 0.0047093853 8.7139416
-1.2720857 -0.44615778 8.5700369
-1.5947142 -0.5706901 8.1665001
-1.1816792 -0.43195081 4.0693326
-1.0748785 -0.39713171 2.7591317
-1.0060236 -0.37406325 2.0342431
-0.98920995 -0.36936182 1.623461
-0.95629174 -0.35819608 1.2992463
-0.49206892 -0.126259 8.6250143
-0.88942856 -0.26411137 8.6104555
-1.3168966 -0.47489369 5.4273157
-1.1223124 -0.41067213 3.304122
-1.0410943 -0.3842198 2.3583806
-1.018837 -0.37780055 1.847569
-0.94572395 -0.35199007 1.410978
-0.93490148 -0.34887579 1.1600677
-0.92146063 -0.34733832 1.0475066
-0.89865178 -0.3392688 0.85691494
-0.8898806 -0.3364794 0.70835841
-0.88379729 -0.33452392 0.58121794
-0.8634668 -0.32716584 0.46138445
-0.84803361 -0.32164907 0.35653609
-0.85417622 -0.32431433 0.26493949
-0.84237444 -0.32016185 0.17385007
-0.91916227 -0.3450017 0.95557451
-0.89155716 -0.3351638 0.77708322
-0.8852542 -0.33313915 0.64143664
-0.87589961 -0.33013472 0.52017462
-0.87532216 -0.33025783 0.41475427
-0.83680719 -0.31605273 0.30645946
-0.82907444 -0.31329221 0.21582969
-0.84086239 -0.31807369 0.12994097
-0.08830528 0.0050176587 8.7139416
-1.2736353 -0.44171467 8.5700369
-1.5947765 -0.56444091 8.1567087
-1.1775645 -0.42579395 4.0502448
-1.0744231 -0.39270681 2.754529
-1.0073233 -0.37054929 2.0342431
-0.98785341 -0.36493164 1.619328
-0.95753622 -0.35485581 1.2992463
-0.49250665 -0.12454059 8.6250143
-0.88983339 -0.26085573 8.605484
-1.3173624 -0.46987194 5.4224763
-1.1204937 -0.40557784 3.2947366
-1.0403843 -0.37983707 2.3538795
-1.017701 -0.37334388 1.843303
-0.94694686 -0.34868675 1.410978
-0.93611366 -0.34561023 1.1600677
-0.91932595 -0.34287369 1.0440021
-0.89983058 -0.33612987 0.85691494
-0.89104974 -0.33337107 0.70835841
-0.88495964 -0.33143684 0.58121794
-0.86460358 -0.32414982 0.46138445
-0.84915125 -0.3186869 0.35653609
-0.85530305 -0.32133073 0.26493949
-0.83882564 -0.31546646 0.17340299
-0.91686064 -0.34049144 0.95224905
-0.88893312 -0.3306407 0.77414006
-0.88641167 -0.33004701 0.64143664
-0.87279421 -0.32548952 0.5180766
-0.87646967 -0.32720038 0.41475427
-0.83790535 -0.31312981 0.30645946
-0.83480144 -0.31213051 0.21652037
-0.83728856 -0.31338534 0.12973943
-0.088244021 0.0053197914 8.7089415
-1.2751694 -0.43726611 8.5700369
-1.593854 -0.55786216 8.142024
-1.1734211 -0.41967109 4.0311565
-1.0739502 -0.38828999 2.7499266
-1.0063599 -0.36621204 2.0298538
-0.98383504 -0.35954982 1.6110622
-0.95876914 -0.35151121 1.2992463
-0.49293837 -0.12282066 8.6250143
-0.89073849 -0.25774804 8.605484
-1.3166236 -0.46443474 5.4127975
-1.1202779 -0.40108269 3.2900438
-1.0417038 -0.37620312 2.3538795
-1.018998 -0.36978915 1.843303
-0.94532692 -0.34434807 1.406988
-0.93731433 -0.34234047 1.1600677
-0.92051715 -0.33966255 1.0440021
-0.89734745 -0.33163774 0.85377645
-0.88828647 -0.32880732 0.70561695
-0.88611114 -0.32834572 0.58121794
-0.86572975 -0.3211298 0.46138445
-0.85025853 -0.31572089 0.35653609
-0.85641944 -0.31834319 0.26493949
-0.83992171 -0.31253651 0.17340299
-0.91804361 -0.33728895 0.95224905
-0.89008188 -0.32753572 0.77414006
-0.88755834 -0.32695082 0.64143664
-0.87392503 -0.32244092 0.5180766
-0.87760645 -0.32413891 0.41475427
-0.83899331 -0.31020308 0.30645946
-0.83588588 -0.30921459 0.21652037
-0.83837742 -0.31046075 0.12973943
-0.08822491 0.0056277886 8.7089415
-1.276688 -0.4328123 8.5700369
-1.5938669 -0.55162942 8.1322336
-1.170657 -0.4140799 4.0168409
-1.0716196 -0.38322362 2.7407215
-1.007632 -0.36269698 2.0298538
-0.9797911 -0.35420051 1.6027963
-0.9599902 -0.34816235 1.2992463
-0.49308348 -0.12103135 8.6200228
-0.89112002 -0.25449142 8.6005125
-1.3158628 -0.45900846 5.4031181
-1.1200442 -0.39659399 3.285351
-1.0430107 -0.37256461 2.3538795
-1.0178277 -0.36534902 1.8390369
-0.94652313 -0.34104615 1.406988
-0.93531507 -0.33791482 1.1563925
-0.9216972 -0.33644727 1.0440021
-0.89849955 -0.32850337 0.85377645
-0.88942879 -0.3257046 0.70561695
-0.8830927 -0.32372609 0.57889915
-0.86684543 -0.31810588 0.46138445
-0.85135537 -0.31275102 0.35653609
-0.85752553 -0.31535181 0.26493949
-0.83633417 -0.30788234 0.17295592
-0.9157061 -0.33280715 0.94892353
-0.89121974 -0.32442677 0.77414006
-0.88869423 -0.32385069 0.64143664
-0.87504524 -0.31938839 0.5180766
-0.8787325 -0.32107353 0.41475427
-0.83550614 -0.30560297 0.30528715
-0.83696014 -0.30629495 0.21652037
-0.83476496 -0.30581382 0.12953791
-0.088204734 0.005935716 8.7089415
-1.278191 -0.42835319 8.5700369
-1.5938559 -0.54540348 8.1224422
-1.1678679 -0.4085131 4.0025249
-1.0711088 -0.37882945 2.7361188
-1.0088919 -0.35917747 2.0298538
-0.97837174 -0.34983107 1.5986633
-0.95818257 -0.34372717 1.2954088
-0.49322215 -0.11924253 8.6150312
-0.89200294 -0.25137931 8.6005125
-1.3162687 -0.4540028 5.3982792
-1.1197931 -0.39211184 3.2806582
-1.0443048 -0.36892155 2.3538795
-1.019097 -0.36179397 1.8390369
-0.94770789 -0.33774012 1.406988
-0.93329638 -0.33350736 1.1527174
-0.92286605 -0.3332279 1.0440021
-0.89598048 -0.32404143 0.85063797
-0.89056033 -0.32259795 0.70561695
-0.88421726 -0.32064155 0.57889915
-0.86795056 -0.31507808 0.46138445
-0.85244191 -0.30977732 0.35653609
-0.85862106 -0.31235653 0.26493949
-0.83740383 -0.30496112 0.17295592
-0.91686225 -0.32960871 0.94892353
-0.8923468 -0.32131383 0.77414006
-0.88576382 -0.31928495 0.63890344
-0.87615478 -0.31633198 0.5180766
-0.879848 -0.31800422 0.41475427
-0.83656776 -0.30268466 0.30528715
-0.83802426 -0.30337152 0.21652037
-0.83582735 -0.30289811 0.12953791
-0.08818347 0.0062435721 8.7089415
-1.2796783 -0.42388889 8.5700369
-1.5928562 -0.53885818 8.1077566
-1.1664653 -0.40345863 3.992981
-1.0705805 -0.3744435 2.7315164
-1.0101396 -0.35565358 2.0298538
-0.97693384 -0.34547582 1.5945303
-0.95635581 -0.33930889 1.2915714
-0.49363536 -0.11752013 8.6150312
-0.89287496 -0.24826409 8.6005125
-1.315466 -0.44859445 5.3886003
-1.1195241 -0.38763621 3.2759655
-1.0435309 -0.36455625 2.3493781
-1.0178928 -0.35737076 1.8347712
-0.94603902 -0.33342856 1.402998
-0.92806184 -0.32798865 1.145367
-0.92066503 -0.32880524 1.0404975
-0.89710611 -0.32091191 0.85063797
-0.89168096 -0.31948733 0.70561695
-0.88116145 -0.31605768 0.57658035
-0.86904514 -0.31204647 0.46138445
-0.85351801 -0.30679986 0.35653609
-0.85970616 -0.30935749 0.26493949
-0.8337779 -0.30034843 0.17250884
-0.91448915 -0.32515559 0.94559801
-0.88965517 -0.31684116 0.7711969
-0.88687295 -0.31619111 0.63890344
-0.87297952 -0.31174552 0.51597857
-0.8809526 -0.31493106 0.41475427
-0.83761925 -0.29976264 0.30528715
-0.83907807 -0.30044442 0.21652037
-0.83687955 -0.29997867 0.12953791
-0.088204257 0.0065580341 8.7139416
-1.2804117 -0.41917786 8.5650978
-1.5889333 -0.53135836 8.0783854
-1.1636289 -0.39793611 3.9786646
-1.0681882 -0.36942759 2.7223115
-1.011375 -0.35212538 2.0298538
-0.9781338 -0.34206355 1.5945303
-0.95450979 -0.33490756 1.2877338
-0.4937613 -0.11573137 8.6100397
-0.89322203 -0.2450055 8.595542
-1.3158326 -0.44359851 5.3837605
-1.1208704 -0.38372597 3.2759655
-1.0427394 -0.36020094 2.344877
-1.0166701 -0.35296029 1.8305051
-0.94719714 -0.33012423 1.402998
-0.92920107 -0.32474712 1.145367
-0.92180717 -0.32558951 1.0404975
-0.89455134 -0.31648049 0.84749955
-0.88884938 -0.31497639 0.70287549
-0.88225937 -0.31297991 0.57658035
-0.86576039 -0.30745968 0.4595114
-0.8500638 -0.30221182 0.35512605
-0.85615283 -0.30470768 0.26400685
-0.83482128 -0.29743621 0.17250884
-0.9156186 -0.32196143 0.94559801
-0.89075571 -0.31373373 0.7711969
-0.88797128 -0.31309342 0.63890344
-0.87406236 -0.30869636 0.51597857
-0.88204658 -0.31185403 0.41475427
-0.83866054 -0.29683697 0.30528715
-0.83545375 -0.29586068 0.21582969
-0.83792162 -0.2970556 0.12953791
-0.088180833 0.0068658851 8.7139416
-1.2811278 -0.41446686 8.5601578
-1.5801432 -0.52229559 8.024538
-1.1621828 -0.39291623 3.969121
-1.0676225 -0.36506486 2.7177088
-1.0125979 -0.34859288 2.0298538
-0.97666222 -0.33772773 1.5903975
-0.95264482 -0.33052325 1.2838963
-0.49416226 -0.11400711 8.6100397
-0.89407182 -0.24188608 8.595542
-1.3149879 -0.43820834 5.3740821
-1.1205684 -0.37925813 3.2712729
-1.03987 -0.35515219 2.3358746
-1.0154291 -0.34856284 1.8262392
-0.94549477 -0.32583436 1.3990079
-0.92712474 -0.32039452 1.1416919
-0.92293805 -0.32236981 1.0404975
-0.89565063 -0.31335598 0.84749955
-0.88994342 -0.3118718 0.70287549
-0.87916636 -0.30843204 0.57426155
-0.86682832 -0.30443576 0.4595114
-0.85111356 -0.29924271 0.35512605
-0.85721123 -0.30171728 0.26400685
-0.83585447 -0.29452032 0.17250884
-0.91673684 -0.31876338 0.94559801
-0.89184546 -0.31062251 0.7711969
-0.88498819 -0.3085728 0.63637024
-0.87513459 -0.30564341 0.51597857
-0.87867218 -0.30721477 0.41311076
-0.83969158 -0.29390767 0.30528715
-0.83648139 -0.29294258 0.21582969
-0.83423883 -0.292476 0.12933637
-0.088199399 0.0071806358 8.7189417
-1.2825668 -0.4099924 8.5601578
-1.5713096 -0.51330072 7.9706907
-1.1607156 -0.38791123 3.9595766
-1.0670396 -0.36071056 2.7131064
-1.0138085 -0.34505612 2.0298538
-0.97783518 -0.33431649 1.5903975
-0.95076084 -0.32615608 1.2800589
-0.49483895 -0.11234444 8.6150312
-0.89439547 -0.2386269 8.5905704
-1.3153156 -0.4332225 5.3692427
-1.1218854 -0.37534431 3.2712729
-1.0369781 -0.35012791 2.3268721
-1.0141699 -0.34417829 1.8219732
-0.94662642 -0.32253197 1.3990079
-0.92823744 -0.31715631 1.1416919
-0.92068678 -0.31798223 1.036993
-0.89306051 -0.30895531 0.84436107
-0.88707566 -0.3073945 0.70013404
-0.88023764 -0.3053613 0.57426155
-0.86788577 -0.30140811 0.4595114
-0.84762186 -0.29469472 0.35371602
-0.85361993 -0.29710856 0.26307425
-0.83687741 -0.29160085 0.17250884
-0.917844 -0.31556141 0.94559801
-0.88910246 -0.30619153 0.76825374
-0.88605988 -0.30548173 0.63637024
-0.87190616 -0.30110544 0.51388049
-0.87527621 -0.30260295 0.41146725
-0.84071243 -0.29097483 0.30528715
-0.83749884 -0.29002094 0.21582969
-0.83525467 -0.2895622 0.12933637
-0.088173799 0.0074884649 8.7189417
-1.283249 -0.40527907 8.5552187
-1.5624324 -0.50437391 7.9168429
-1.1592276 -0.38292134 3.9500329
-1.0645862 -0.35574582 2.7039013
-1.0150069 -0.34151518 2.0298538
-0.97899616 -0.33090118 1.5903975
-0.9458226 -0.32077685 1.2723838
-0.49522811 -0.11061645 8.6150312
-0.89522296 -0.23550345 8.5905704
-1.3156245 -0.4282397 5.3644028
-1.1231887 -0.3714259 3.2712729
-1.0361289 -0.34581706 2.3223708
-1.0128926 -0.33980685 1.8177074
-0.9448908 -0.31826407 1.395018
-0.92933887 -0.31391421 1.1416919
-0.92179114 -0.3147665 1.036993
-0.89413351 -0.30583608 0.84436107
-0.88814324 -0.30429614 0.70013404
-0.87710792 -0.30084974 0.57194275
-0.8689326 -0.2983768 0.4595114
-0.84864539 -0.29173419 0.35371602
-0.85465181 -0.29412705 0.26307425
-0.8331818 -0.2870557 0.17206176
-0.91540474 -0.31115422 0.94227254
-0.89016587 -0.3030861 0.76825374
-0.88712084 -0.30238697 0.63637024
-0.87295187 -0.29806006 0.51388049
-0.87632716 -0.29954585 0.41146725
-0.83712411 -0.28646478 0.30411482
-0.833821 -0.28549168 0.21513902
-0.83153439 -0.28502497 0.12913485
-0.088190138 0.0078034876 8.7239418
-1.2846559 -0.40079725 8.5552187
-1.5457513 -0.49304157 7.8238339
-1.157719 -0.3779465 3.9404888
-1.0639662 -0.3514151 2.6992986
-1.0161928 -0.33797005 2.0298538
-0.98014534 -0.32748184 1.5903975
-0.94389749 -0.31645474 1.2685463
-0.49589336 -0.10894812 8.6200228
-0.89552343 -0.2322439 8.5855989
-1.314718 -0.42287537 5.3547244
-1.122838 -0.36696708 3.2665799
-1.0352623 -0.34151646 2.3178697
-1.0115969 -0.33544847 1.8134414
-0.94599599 -0.31496385 1.395018
-0.93364471 -0.31174177 1.145367
-0.92288429 -0.31154692 1.036993
-0.8915084 -0.30146646 0.84122264
-0.8852396 -0.29985279 0.69739258
-0.87815273 -0.29778624 0.57194275
-0.86557895 -0.29385167 0.45763838
-0.84965855 -0.28877008 0.35371602
-0.85567331 -0.29114196 0.26307425
-0.83417875 -0.28414556 0.17206176
-0.91648525 -0.30795696 0.94227254
-0.89121842 -0.299977 0.76825374
-0.88817096 -0.29928848 0.63637024
-0.87398702 -0.29501107 0.51388049
-0.87736744 -0.29648507 0.41146725
-0.83811897 -0.2835409 0.30411482
-0.83481252 -0.28257936 0.21513902
-0.83252418 -0.28212062 0.12913485
-0.088162363 0.0081112813 8.7239418
-1.2860471 -0.39631051 8.5552187
-1.5338662 -0.4833611 7.7553005
-1.1576107 -0.37344497 3.9357171
-1.0614717 -0.34648702 2.6900938
-1.0173663 -0.33442083 2.0298538
-0.97861034 -0.32317635 1.5862645
-0.9389112 -0.31114197 1.2608713
-0.49627063 -0.10721646 8.6200228
-0.89632869 -0.22911653 8.5855989
-1.3185821 -0.41904455 5.3644028
-1.124112 -0.36304545 3.2665799
-1.0343783 -0.33722609 2.3133683
-1.0102834 -0.33110332 1.8091755
-0.94422728 -0.31071815 1.3910279
-0.93794668 -0.3095431 1.1490422
-0.92396617 -0.30832353 1.036993
-0.89255524 -0.29835266 0.84122264
-0.88628089 -0.29676089 0.69739258
-0.87918693 -0.2947191 0.57194275
-0.86659944 -0.29082844 0.45763838
-0.85066134 -0.28580245 0.35371602
-0.85202843 -0.28658733 0.26214162
-0.83516556 -0.28123203 0.17206176
-0.91755462 -0.30475596 0.94227254
-0.89226007 -0.29686424 0.76825374
-0.88512033 -0.29482424 0.6338371
-0.8750115 -0.29195851 0.51388049
-0.87839705 -0.29342067 0.41146725
-0.83910358 -0.28061363 0.30411482
-0.8310976 -0.27809229 0.21444833
-0.8335039 -0.27921283 0.12913485
-0.088090546 0.0084113916 8.7189417
-1.288166 -0.39204496 8.5601578
-1.5219326 -0.47376966 7.6867671
-1.1574849 -0.36894879 3.9309452
-1.0608153 -0.34218019 2.6854911
-1.0185275 -0.33086753 2.0298538
-0.97705722 -0.31888551 1.5821315
-0.93694538 -0.30686525 1.2570338
-0.49664187 -0.1054835 8.6200228
-0.89660591 -0.22585677 8.5806274
-1.3116416 -0.41180515 5.3305273
-1.1237285 -0.35859498 3.2618873
-1.0334771 -0.33294612 2.3088672
-1.0089517 -0.32677141 1.8049095
-0.94530612 -0.30742028 1.3910279
-0.93902141 -0.30626717 1.1490422
-0.92164981 -0.30397958 1.0334884
-0.89359128 -0.29523528 0.84122264
-0.8873114 -0.29366541 0.69739258
-0.87600535 -0.29025528 0.56962395
-0.86760932 -0.28780168 0.45763838
-0.85165381 -0.28283134 0.35371602
-0.85302365 -0.28361145 0.26214162
-0.83614212 -0.27831504 0.17206176
-0.91506523 -0.30038688 0.93894702
-0.88945109 -0.29248542 0.76531059
-0.88614404 -0.29173282 0.6338371
-0.87171501 -0.28748107 0.51178247
-0.87941593 -0.2903527 0.41146725
-0.840078 -0.27768287 0.30411482
-0.83206332 -0.27518952 0.21444833
-0.83447349 -0.27630165 0.12913485
-0.088060647 0.0087188333 8.7189417
-1.2895268 -0.38754603 8.5601578
-1.5109242 -0.46456656 7.6231294
-1.1587657 -0.36490616 3.9309452
-1.0582803 -0.33728915 2.676286
-1.0196762 -0.32731017 2.0298538
-0.9754861 -0.3146095 1.5779986
-0.93801081 -0.30359286 1.2570338
-0.49672425 -0.10369121 8.6150312
-0.89738882 -0.22272564 8.5806274
-1.3082685 -0.4057357 5.3111696
-1.1249734 -0.35467029 3.2618873
-1.0325584 -0.32867652 2.3043661
-1.0076022 -0.3224529 1.8006437
-0.94637352 -0.30411866 1.3910279
-0.94008482 -0.30298752 1.1490422
-0.92270529 -0.30076054 1.0334884
-0.89461637 -0.29211423 0.84122264
-0.88833106 -0.29056633 0.69739258
-0.87701315 -0.28719565 0.56962395
-0.86420339 -0.28332728 0.45576534
-0.85263592 -0.2798568 0.35371602
-0.85400838 -0.28063211 0.26214162
-0.83710855 -0.27539465 0.17206176
-0.91610819 -0.29719087 0.93894702
-0.89046663 -0.28937888 0.76531059
-0.88715702 -0.28863782 0.6338371
-0.87271321 -0.28443643 0.51178247
-0.88042408 -0.28728119 0.41146725
-0.84104216 -0.27474877 0.30411482
-0.83301878 -0.27228341 0.21444833
-0.83543289 -0.27338713 0.12913485
-0.088029675 0.0090261698 8.7189417
-1.2908717 -0.38304242 8.5601578
-1.4988959 -0.45515046 7.5545964
-1.1586069 -0.36041594 3.926173
-1.0557241 -0.33241999 2.6670809
-1.0185297 -0.32302511 2.025465
-0.9738971 -0.31034833 1.5738657
-0.93601185 -0.29934064 1.2531964
-0.49708319 -0.10195668 8.6150312
-0.89764279 -0.21946584 8.575655
-1.3036673 -0.39932692 5.286972
-1.1245568 -0.35022828 3.2571945
-1.0316228 -0.32441741 2.299865
-1.0062349 -0.31814772 1.7963778
-0.94455725 -0.29990175 1.3870379
-0.93790627 -0.29867569 1.145367
-0.92035496 -0.29644471 1.0299838
-0.89192629 -0.28779465 0.83808416
-0.88933992 -0.28746367 0.69739258
-0.87801027 -0.28413257 0.56962395
-0.86518711 -0.28030893 0.45576534
-0.8490445 -0.27539885 0.35230598
-0.85498279 -0.27764937 0.26214162
-0.83806473 -0.27247092 0.17206176
-0.91358435 -0.29285175 0.93562156
-0.88762283 -0.28503317 0.76236743
-0.88815916 -0.2855393 0.6338371
-0.87370074 -0.28138837 0.51178247
-0.88142151 -0.28420621 0.41146725
-0.83737046 -0.27031818 0.30294251
-0.82925183 -0.26785192 0.21375765
-0.83638209 -0.27046928 0.12913485
-0.08799763 0.0093333954 8.7189417
-1.2929466 -0.37875229 8.5650978
-1.4770666 -0.44290146 7.4371109
-1.1598579 -0.35636944 3.926173
-1.0512813 -0.32699284 2.6532736
-1.0173652 -0.31875193 2.0210757
-0.97229028 -0.30610213 1.5697327
-0.94010746 -0.29703695 1.2570338
-0.49715284 -0.10016485 8.6100397
-0.89840341 -0.21633114 8.575655
-1.2954277 -0.39186403 5.2482567
-1.1257725 -0.34630075 3.2571945
-1.0327489 -0.3208144 2.299865
-1.0048498 -0.3138561 1.7921119
-0.94559836 -0.29660279 1.3870379
-0.93570918 -0.29438278 1.1416919
-0.91798574 -0.29214898 1.0264792
-0.89292544 -0.2846795 0.83808416
-0.88635468 -0.28308558 0.69465113
-0.87899679 -0.281066 0.56962395
-0.86616033 -0.27728716 0.45576534
-0.85000062 -0.27243346 0.35230598
-0.85594678 -0.27466321 0.26214162
-0.83901078 -0.26954389 0.17206176
-0.91460103 -0.28966096 0.93562156
-0.88861239 -0.28193307 0.76236743
-0.88915044 -0.28243729 0.6338371
-0.87035275 -0.27696079 0.50968438
-0.87790883 -0.27969438 0.40982375
-0.83830893 -0.26739356 0.30294251
-0.83018172 -0.26495564 0.21375765
-0.8373211 -0.26754808 0.12913485
-0.08796452 0.0096405074 8.7189417
-1.2942609 -0.37423676 8.5650978
-1.4815329 -0.43860939 7.4517965
-1.1596663 -0.35188541 3.9214008
-1.0617542 -0.32618856 2.676286
-1.0161837 -0.31449094 2.0166867
-0.97335291 -0.30270633 1.5697327
-0.94113857 -0.29375356 1.2570338
-0.49749947 -0.098428845 8.6100397
-0.89915311 -0.2131938 8.575655
-1.2919698 -0.38590169 5.228899
-1.1253233 -0.3418676 3.2525017
-1.0338625 -0.31720749 2.299865
-1.0034471 -0.309578 1.7878458
-0.94374961 -0.29240867 1.3830478
-0.93349361 -0.29010886 1.1380167
-0.91899991 -0.28894284 1.0264792
-0.89391375 -0.28156087 0.83808416
-0.88733739 -0.27998987 0.69465113
-0.87997252 -0.27799603 0.56962395
-0.86712295 -0.27426201 0.45576534
-0.84637314 -0.26801664 0.35089597
-0.85221773 -0.27018926 0.26120901
-0.83994651 -0.26661354 0.17206176
-0.91560662 -0.28646663 0.93562156
-0.8895911 -0.27882951 0.76236743
-0.88601786 -0.27804133 0.63130391
-0.87131423 -0.27392101 0.50968438
-0.87887979 -0.2766282 0.40982375
-0.83923721 -0.26446569 0.30294251
-0.83110154 -0.26205614 0.21375765
-0.83824992 -0.26462367 0.12913485
-0.087973163 0.0099558346 8.7239418
-1.2963066 -0.36992967 8.5700369
-1.4771906 -0.43172258 7.4224248
-1.1594577 -0.34740713 3.9166293
-1.064756 -0.32304731 2.6808887
-1.0172753 -0.31094187 2.0166867
-0.97440356 -0.29930687 1.5697327
-0.94522125 -0.29141065 1.2608713
-0.49784002 -0.096691653 8.6100397
-0.89989179 -0.21005388 8.575655
-1.2993376 -0.38316613 5.2530966
-1.1232039 -0.33694622 3.2431161
-1.0349634 -0.3135967 2.299865
-1.0020267 -0.3053135 1.7835798
-0.94476455 -0.2891126 1.3830478
-0.93125963 -0.28585401 1.1343416
-0.91659713 -0.28467563 1.0229747
-0.89489108 -0.27843881 0.83808416
-0.88830936 -0.27689078 0.69465113
-0.88093752 -0.27492264 0.56962395
-0.86807501 -0.2712335 0.45576534
-0.84730357 -0.2650606 0.35089597
-0.84846801 -0.26574466 0.26027638
-0.84087205 -0.26367995 0.17206176
-0.916601 -0.28326881 0.93562156
-0.88669771 -0.27452731 0.75942427
-0.88698298 -0.27494684 0.63130391
-0.87226516 -0.27087787 0.50968438
-0.87533075 -0.27215675 0.40818024
-0.83551431 -0.26008996 0.30177018
-0.83201122 -0.25915349 0.21375765
-0.83916849 -0.26169601 0.12913485
-0.087937869 0.010262858 8.7239418
-1.2975899 -0.36540246 8.5700369
-1.47184 -0.42458943 7.3881583
-1.1578003 -0.34251133 3.9070849
-1.0696204 -0.32044953 2.6900938
-1.0160617 -0.30669719 2.0122976
-0.97544241 -0.29590374 1.5697327
-0.94623274 -0.28810945 1.2608713
-0.49789071 -0.094900168 8.6050472
-0.90113926 -0.20703013 8.5806274
-1.2994602 -0.37827712 5.2482567
-1.1227185 -0.3325336 3.2384233
-1.0360518 -0.30998212 2.299865
-0.99809122 -0.30031154 1.775048
-0.945768 -0.285813 1.3830478
-0.92900729 -0.28161833 1.1306664
-0.91758519 -0.28147438 1.0229747
-0.89585763 -0.27531338 0.83808416
-0.88927048 -0.2737883 0.69465113
-0.88189185 -0.27184594 0.56962395
-0.86901647 -0.26820171 0.45576534
-0.84822369 -0.26210135 0.35089597
-0.84939045 -0.26278132 0.26027638
-0.84178734 -0.26074317 0.17206176
-0.91401297 -0.27897778 0.93229604
-0.88765061 -0.27143049 0.75942427
-0.88793731 -0.27184904 0.63130391
-0.8732053 -0.26783144 0.50968438
-0.87627542 -0.26909962 0.40818024
-0.83641714 -0.25717193 0.30177018
-0.83291084 -0.25624764 0.21375765
-0.83530229 -0.25729448 0.12893331
-0.08790151 0.010569756 8.7239418
-1.2988576 -0.36087078 8.5700369
-1.467437 -0.41777751 7.3587871
-1.1604218 -0.33888596 3.9118571
-1.072606 -0.31726781 2.6946962
-1.017126 -0.30314863 2.0122976
-0.97916508 -0.29330423 1.5738657
-0.95030224 -0.28572738 1.2647089
-0.49821895 -0.093161628 8.6050472
-0.90237653 -0.20400023 8.5855989
-1.301981 -0.37408575 5.2530966
-1.1205596 -0.32764447 3.2290378
-1.0392153 -0.30698016 2.3043661
-0.99663341 -0.29608327 1.7707821
-0.94387239 -0.28164855 1.3790579
-0.92673683 -0.27740183 1.1269913
-0.91856217 -0.27826968 1.0229747
-0.89308852 -0.27105436 0.83494574
-0.89022076 -0.27068251 0.69465113
-0.87859756 -0.26747593 0.56730521
-0.86994743 -0.26516664 0.45576534
-0.84913337 -0.25913891 0.35089597
-0.84560466 -0.25837943 0.25934377
-0.84269238 -0.2578032 0.17206176
-0.91498125 -0.2757856 0.93229604
-0.88859266 -0.26833034 0.75942427
-0.88475448 -0.26750049 0.62877071
-0.8741349 -0.26478177 0.50968438
-0.87720942 -0.26603919 0.40818024
-0.83730972 -0.25425071 0.30177018
-0.8338002 -0.25333866 0.21375765
-0.83619529 -0.25437716 0.12893331
-0.087821342 0.010867745 8.7189417
-1.2993599 -0.35612959 8.5650978
-1.4502604 -0.40742415 7.2657776
-1.1529914 -0.33235407 3.8832252
-1.073707 -0.31352177 2.6946962
-1.018178 -0.29959634 2.0122976
-0.98018289 -0.28988451 1.5738657
-0.95129383 -0.28240848 1.2647089
-0.49825698 -0.091370828 8.6000557
-0.90360355 -0.2009642 8.5905704
-1.3032788 -0.36953872 5.2530966
-1.1183803 -0.32277447 3.2196524
-1.0402805 -0.30335078 2.3043661
-0.99766088 -0.2926026 1.7707821
-0.94484973 -0.27835211 1.3790579
-0.92769951 -0.27416524 1.1269913
-0.91952789 -0.27506164 1.0229747
-0.89402926 -0.26793525 0.83494574
-0.88715535 -0.26637113 0.69190961
-0.87952584 -0.26440743 0.56730521
-0.87086773 -0.26212832 0.45576534
-0.85003275 -0.25617331 0.35089597
-0.84650147 -0.25542614 0.25934377
-0.84358716 -0.25486007 0.17206176
-0.91235965 -0.2715252 0.92897052
-0.8856504 -0.26407221 0.75648111
-0.88568282 -0.2644105 0.62877071
-0.87505388 -0.26172885 0.50968438
-0.87360901 -0.26162097 0.40653673
-0.83353627 -0.24993047 0.30059788
-0.83467942 -0.25042662 0.21375765
-0.83229345 -0.25001943 0.12873179
-0.087782867 0.011174232 8.7189417
-1.3005952 -0.3515918 8.5650978
-1.4693366 -0.40725103 7.3538918
-1.1440938 -0.32547003 3.8498213
-1.0747948 -0.30977193 2.6946962
-1.0192176 -0.29604039 2.0122976
-0.98118883 -0.28646126 1.5738657
-0.94919789 -0.27818492 1.2608713
-0.49857289 -0.089631028 8.6000557
-0.9048205 -0.19792211 8.595542
-1.3045608 -0.36498719 5.2530966
-1.1178403 -0.31839612 3.2149594
-1.0413331 -0.29971766 2.3043661
-0.99617088 -0.28839329 1.7665161
-0.94581562 -0.27505228 1.3790579
-0.92539632 -0.26997605 1.123316
-0.92048246 -0.2718502 1.0229747
-0.89495909 -0.26481289 0.83494574
-0.88807976 -0.26327279 0.69190961
-0.88044345 -0.26133567 0.56730521
-0.87177742 -0.25908685 0.45576534
-0.85092181 -0.25320458 0.35089597
-0.85209566 -0.25387231 0.26027638
-0.84447163 -0.25191385 0.17206176
-0.91330189 -0.26833883 0.92897052
-0.88656676 -0.26097909 0.75648111
-0.88660038 -0.26131728 0.62877071
-0.87596214 -0.25867274 0.50968438
-0.8745169 -0.25856993 0.40653673
-0.83440363 -0.24701934 0.30059788
-0.83554846 -0.24751154 0.21375765
-0.83316106 -0.24711266 0.12873179
-0.08770065 0.011471503 8.7139416
-1.3018144 -0.34704971 8.5650978
-1.4678025 -0.40131456 7.3392057
-1.132288 -0.31784588 3.8068733
-1.0739902 -0.30548406 2.6900938
-1.0179425 -0.29182112 2.0079086
-0.9821828 -0.2830345 1.5738657
-0.94708407 -0.2739794 1.2570338
-0.49859822 -0.087840997 8.5950642
-0.90602696 -0.19487393 8.6005125
-1.3058268 -0.36043116 5.2530966
-1.1156222 -0.31355882 3.205574
-1.0444671 -0.29667547 2.3088672
-0.99717152 -0.28491426 1.7665161
-0.94387358 -0.27091801 1.3750678
-0.92633307 -0.26674417 1.123316
-0.91800195 -0.26763752 1.0194702
-0.89587802 -0.26168728 0.83494574
-0.88899326 -0.2601712 0.69190961
-0.88135034 -0.25826079 0.56730521
-0.87267649 -0.25604218 0.45576534
-0.85180044 -0.25023279 0.35089597
-0.85297668 -0.25089636 0.26027638
-0.84056872 -0.24755767 0.17161468
-0.91423303 -0.26514918 0.92897052
-0.88747233 -0.2578828 0.75648111
-0.88750714 -0.25822088 0.62877071
-0.87685972 -0.25561351 0.50968438
-0.87541419 -0.25551569 0.40653673
-0.83526075 -0.24410523 0.30059788
-0.83640736 -0.2445934 0.21375765
-0.83401865 -0.24420288 0.12873179
-0.087660074 0.011777566 8.7139416
-1.3030179 -0.34250343 8.5650978
-1.4485483 -0.39062554 7.2364063
-1.1190042 -0.30990997 3.7591536
-1.0750501 -0.30173329 2.6900938
-1.018955 -0.28826609 2.0079086
-0.98045814 -0.27883485 1.5697327
-0.94495255 -0.26979208 1.2531964
-0.49890178 -0.086100034 8.5950642
-0.90722346 -0.19181977 8.605484
-1.3046511 -0.35521081 5.2434173
-1.115047 -0.30920181 3.2008812
-1.0454963 -0.29302782 2.3088672
-0.9956497 -0.28072426 1.7622502
-0.94481349 -0.26762164 1.3750678
-0.92725849 -0.26350904 1.123316
-0.91893059 -0.26443145 1.0194702
-0.89678597 -0.25855848 0.83494574
-0.88989609 -0.25706643 0.69190961
-0.88224643 -0.25518268 0.56730521
-0.86911196 -0.25170493 0.45389232
-0.85266876 -0.24725789 0.35089597
-0.85856462 -0.24928704 0.26120901
-0.84142774 -0.24462204 0.17161468
-0.91515297 -0.26195627 0.92897052
-0.88448167 -0.25366923 0.75353795
-0.88425976 -0.25393164 0.62623757
-0.87338501 -0.25129634 0.5075863
-0.87630075 -0.25245836 0.40653673
-0.83610779 -0.24118814 0.30059788
-0.83725607 -0.24167232 0.21375765
-0.83486593 -0.24129012 0.12873179
-0.087575816 0.012074108 8.7089415
-1.3042055 -0.33795297 8.5650978
-1.4508872 -0.38582829 7.2413015
-1.1042392 -0.30167758 3.7066617
-1.0742137 -0.2974577 2.6854911
-1.017648 -0.28406382 2.0035193
-0.97871602 -0.27465066 1.5655998
-0.93971813 -0.26475403 1.2455213
-0.49948415 -0.084405169 8.6000557
-0.90840954 -0.18875961 8.6104555
-1.3034552 -0.35000306 5.2337389
-1.1144549 -0.30485258 3.1961884
-1.0444145 -0.2887966 2.3043661
-0.99662352 -0.27724707 1.7622502
-0.94283974 -0.26351112 1.3710777
-0.92817271 -0.26027068 1.123316
-0.91984802 -0.26122218 1.0194702
-0.89768308 -0.25542653 0.83494574
-0.88676667 -0.2528123 0.6891681
-0.88313186 -0.25210154 0.56730521
-0.86998522 -0.24866962 0.45389232
-0.85352665 -0.24428003 0.35089597
-0.8594296 -0.24628857 0.26120901
-0.8374896 -0.24030988 0.1711676
-0.91606176 -0.25876021 0.92897052
-0.88536179 -0.25058028 0.75353795
-0.88514072 -0.25084347 0.62623757
-0.87425685 -0.24824612 0.5075863
-0.87717664 -0.24939798 0.40653673
-0.83694458 -0.23826812 0.30059788
-0.83809453 -0.23874827 0.21375765
-0.83570313 -0.23837444 0.12873179
-0.087533131 0.012379732 8.7089415
-1.3053772 -0.33339837 8.5650978
-1.095196 -0.2951045 3.6732578
-1.0752456 -0.29370618 2.6854911
-1.0186334 -0.28050986 2.0035193
-0.97424459 -0.26973143 1.5573338
-0.9375484 -0.26061404 1.2416838
-0.49977574 -0.082661122 8.6000557
-0.9090628 -0.18558753 8.6104555
-1.3022387 -0.34480801 5.2240596
-1.1138462 -0.30051136 3.1914957
-1.0412157 -0.28400394 2.2953637
-0.99507022 -0.27307659 1.7579843
-0.9437539 -0.26021841 1.3710777
-0.92580807 -0.25612548 1.1196409
-0.92075431 -0.25800973 1.0194702
-0.89482176 -0.25123951 0.83180726
-0.88764369 -0.24971536 0.6891681
-0.88400644 -0.24901731 0.56730521
-0.86638612 -0.24437292 0.45201927
-0.84975761 -0.23999546 0.34948593
-0.86501098 -0.2446238 0.26214162
-0.83832335 -0.23738503 0.1711676
-0.91336262 -0.25455877 0.92564505
-0.88623106 -0.24748826 0.75353795
-0.88601094 -0.24775223 0.62623757
-0.8707478 -0.24396858 0.50548828
-0.87349528 -0.24505912 0.40489322
-0.83309168 -0.23403069 0.29942557
-0.83892286 -0.23582131 0.21375765
-0.83653009 -0.23545586 0.12873179
-0.087489389 0.012685203 8.7089415
-1.3065331 -0.32883972 8.5650978
-1.5274853 -0.39478445 7.6084437
-1.0861204 -0.28859827 3.639854
-1.0743779 -0.28944314 2.6808887
-1.017295 -0.2763249 1.9991302
-0.96975088 -0.2648468 1.549068
-0.93536121 -0.25649241 1.2378463
-0.50006121 -0.080916084 8.6000557
-0.91022795 -0.18251736 8.615427
-1.3010018 -0.33962572 5.2143812
-1.1148883 -0.29662144 3.1914957
-1.0400984 -0.27980244 2.2908626
-0.99601734 -0.26960146 1.7579843
-0.94465643 -0.25692251 1.3710777
-0.92669654 -0.25289226 1.1196409
-0.91821194 -0.25384408 1.0159656
-0.8956933 -0.24811448 0.83180726
-0.88448077 -0.24549723 0.68642664
-0.88487029 -0.24593003 0.56730521
-0.86723381 -0.24134718 0.45201927
-0.85059023 -0.23702778 0.34948593
-0.86585957 -0.24160284 0.26214162
-0.83914685 -0.2344573 0.1711676
-0.91424567 -0.25136897 0.92564505
-0.88708961 -0.24439324 0.75353795
-0.88271475 -0.24351175 0.62370437
-0.87159407 -0.24092761 0.50548828
-0.87434536 -0.24200855 0.40489322
-0.83390349 -0.23112123 0.29942557
-0.83974093 -0.23289149 0.21375765
-0.83253312 -0.23119758 0.12853025
-0.087444574 0.012990521 8.7089415
-1.307673 -0.32427707 8.5650978
-1.5258938 -0.3886967 7.5937581
-1.0827889 -0.28367114 3.6255379
-1.0753816 -0.28569108 2.6808887
-1.01594 -0.27215275 1.9947413
-0.96795213 -0.26072845 1.544935
-0.93625081 -0.2532258 1.2378463
-0.50062597 -0.079214215 8.6050472
-0.91085953 -0.17933896 8.615427
-1.2997446 -0.33445624 5.2047019
-1.1142476 -0.29229033 3.1868029
-1.0368602 -0.27505422 2.2818599
-0.99443245 -0.26545075 1.7537184
-0.94263709 -0.25284308 1.3670877
-0.9242999 -0.24877506 1.1159657
-0.91909242 -0.25063738 1.0159656
-0.89655393 -0.24498641 0.83180726
-0.88533235 -0.24240832 0.68642664
-0.88145119 -0.24166861 0.56498641
-0.86807102 -0.2383185 0.45201927
-0.85141242 -0.23405722 0.34948593
-0.86196154 -0.23727532 0.26120901
-0.83996022 -0.23152672 0.1711676
-0.91511756 -0.24817613 0.92564505
-0.88793725 -0.24129522 0.75353795
-0.88355941 -0.24042901 0.62370437
-0.87242979 -0.2378837 0.50548828
-0.87062937 -0.23771137 0.40324971
-0.83470517 -0.22820896 0.29942557
-0.84054875 -0.22995882 0.21375765
-0.8333351 -0.22829008 0.12853025
-0.087398693 0.013295681 8.7089415
-1.308797 -0.31971046 8.5650978
-1.5173652 -0.38089091 7.5448055
-1.0823272 -0.27951682 3.6207662
-1.0744823 -0.28144079 2.676286
-1.0145681 -0.26799339 1.990352
-0.96613663 -0.25662595 1.5408021
-0.93712908 -0.24995613 1.2378463
-0.50089937 -0.07746622 8.6050472
-0.91147995 -0.17615838 8.615427
-1.2996858 -0.32960853 5.199863
-1.1152611 -0.2883991 3.1868029
-1.035708 -0.27088267 2.2773588
-0.99535304 -0.26197788 1.7537184
-0.94351387 -0.24955112 1.3670877
-0.92516267 -0.24554715 1.1159657
-0.91996169 -0.24742763 1.0159656
-0.89364535 -0.24084271 0.82866883
-0.88617319 -0.23931646 0.68642664
-0.88228935 -0.23859029 0.56498641
-0.86889762 -0.23528691 0.45201927
-0.85222423 -0.2310838 0.34948593
-0.8627845 -0.23426504 0.26120901
-0.84076327 -0.22859327 0.1711676
-0.91237122 -0.24401581 0.92231953
-0.8887741 -0.23819427 0.75353795
-0.88439327 -0.23734336 0.62370437
-0.87325484 -0.23483691 0.50548828
-0.86689401 -0.2334431 0.4016062
-0.83549672 -0.22529392 0.29942557
-0.84134632 -0.22702336 0.21375765
-0.83412689 -0.22537982 0.12853025
-0.087351747 0.013600677 8.7089415
-1.3099051 -0.31513998 8.5650978
-1.5206625 -0.37608051 7.5545964
-1.0832964 -0.27573708 3.6207662
-1.0735666 -0.27720028 2.6716835
-1.0131795 -0.26384696 1.9859631
-0.96430427 -0.25253931 1.5366691
-0.93799585 -0.24668343 1.2378463
-0.50116676 -0.075717285 8.6050472
-0.91261315 -0.17307433 8.6203995
-1.2996088 -0.32476521 5.1950235
-1.1145889 -0.28407842 3.1821103
-1.034539 -0.2667225 2.2728574
-0.99626142 -0.25850186 1.7537184
-0.94437927 -0.24625611 1.3670877
-0.92601413 -0.24231623 1.1159657
-0.91737264 -0.24330084 1.0124611
-0.89448065 -0.23772186 0.82866883
-0.88700312 -0.23622169 0.68642664
-0.87883657 -0.23436779 0.56266761
-0.8697136 -0.23225246 0.45201927
-0.85302567 -0.2281076 0.34948593
-0.85885197 -0.22998141 0.26027638
-0.84155607 -0.22565709 0.1711676
-0.91321743 -0.24082954 0.92231953
-0.88960016 -0.23509042 0.75353795
-0.88521641 -0.23425481 0.62370437
-0.87406927 -0.23178723 0.50548828
-0.86313957 -0.22920381 0.39996269
-0.8315807 -0.22112711 0.29825324
-0.84213364 -0.22408514 0.21375765
-0.83490855 -0.2224668 0.12853025
-0.087303743 0.013905509 8.7089415
-1.3109971 -0.31056562 8.5650978
-1.5150408 -0.36908448 7.52033
-1.0842522 -0.271954 3.6207662
-1.0707409 -0.27248803 2.6624784
-1.0117745 -0.25971347 1.9815739
-0.96517992 -0.2491717 1.5366691
-0.94195396 -0.24421185 1.2416838
-0.50142801 -0.073967427 8.6050472
-0.9132117 -0.16988768 8.6203995
-1.2995139 -0.31992653 5.1901836
-1.1155736 -0.28018606 3.1821103
-1.0333539 -0.26257381 2.2683563
-0.99463087 -0.25437671 1.7494525
-0.94523311 -0.24295813 1.3670877
-0.92357153 -0.23823582 1.1122906
-0.91821635 -0.24009714 1.0124611
-0.89153969 -0.23361167 0.82553035
-0.88782227 -0.23312402 0.68642664
-0.87964928 -0.23129866 0.56266761
-0.87051904 -0.22921519 0.45201927
-0.84917819 -0.22390562 0.3480759
-0.8549 -0.22572806 0.25934377
-0.84233862 -0.22271812 0.1711676
-0.91405255 -0.23764034 0.92231953
-0.88650393 -0.23096484 0.75059479
-0.88602865 -0.23116338 0.62370437
-0.87048215 -0.22758691 0.50339019
-0.8639344 -0.22618951 0.39996269
-0.83234751 -0.21822302 0.29825324
-0.84291071 -0.22114418 0.21375765
-0.84051198 -0.22082053 0.12873179
-0.087254673 0.014210172 8.7089415
-1.3120731 -0.30598751 8.5650978
-1.5123591 -0.36284435 7.5007491
-1.0837457 -0.26780975 3.615994
-1.0697905 -0.26827383 2.657876
-1.0126749 -0.25618014 1.9815739
-0.96604383 -0.24580108 1.5366691
-0.94280064 -0.24092233 1.2416838
-0.50168312 -0.07221666 8.6050472
-0.91379917 -0.16669893 8.6203995
-1.3006228 -0.31538841 5.1901836
-1.1148697 -0.27587602 3.1774173
-1.0342642 -0.25896513 2.2683563
-0.99551278 -0.25090328 1.7494525
-0.94315434 -0.23891748 1.3630977
-0.92439753 -0.23501049 1.1122906
-0.91904885 -0.23689049 1.0124611
-0.89234966 -0.23049819 0.82553035
-0.88863057 -0.23002353 0.68642664
-0.87616324 -0.2271153 0.56034881
-0.86682665 -0.22501047 0.45014626
-0.84995461 -0.22094007 0.3480759
-0.8509289 -0.22150514 0.25841114
-0.84311092 -0.21977645 0.1711676
-0.91125953 -0.23352163 0.91899407
-0.88730472 -0.22786897 0.75059479
-0.88683015 -0.22806916 0.62370437
-0.87127119 -0.22454698 0.50339019
-0.86014628 -0.22199248 0.39831915
-0.83310419 -0.21531625 0.29825324
-0.83888316 -0.21696061 0.21306697
-0.84127772 -0.21788524 0.12873179
-0.087204538 0.01451466 8.7089415
-1.3131332 -0.30140567 8.5650978
-1.5086616 -0.35639355 7.4762726
-1.0846739 -0.26402515 3.615994
-1.0688237 -0.26406959 2.6532736
-1.0112391 -0.2520647 1.977185
-0.96689594 -0.24242745 1.5366691
-0.94674414 -0.23841234 1.2455213
-0.50193214 -0.070465021 8.6050472
-0.91437554 -0.16350816 8.6203995
-1.3017159 -0.31084648 5.1901836
-1.1141492 -0.27157429 3.1727247
-1.0330482 -0.25483218 2.263855
-0.99385124 -0.24679846 1.7451864
-0.9439826 -0.23562381 1.3630977
-0.9252122 -0.23178232 1.1122906
-0.91987014 -0.23368098 1.0124611
-0.89314884 -0.22738191 0.82553035
-0.88537645 -0.22588672 0.68368518
-0.87695068 -0.22405554 0.56034881
-0.86760676 -0.2219833 0.45014626
-0.85072064 -0.21797185 0.3480759
-0.85169691 -0.21853349 0.25841114
-0.84387296 -0.21683212 0.1711676
-0.91206914 -0.23033929 0.91899407
-0.88809472 -0.22477031 0.75059479
-0.8834421 -0.22391322 0.62117118
-0.87204975 -0.22150432 0.50339019
-0.86091596 -0.21898866 0.39831915
-0.83856088 -0.2136066 0.29942557
-0.83963537 -0.21403103 0.21306697
-0.84203309 -0.21494731 0.12873179
-0.087195642 0.014829684 8.7139416
-1.3141774 -0.29682013 8.5650978
-1.5029538 -0.3495121 7.4420056
-1.0841373 -0.2598896 3.611222
-1.0678407 -0.25987542 2.6486709
-1.0121129 -0.24853329 1.977185
-0.96500427 -0.2383763 1.5325361
-0.94757056 -0.23510613 1.2455213
-0.50217509 -0.068712525 8.6050472
-0.91494071 -0.16031541 8.6203995
-1.3027929 -0.30630073 5.1901836
-1.1134123 -0.26728097 3.1680319
-1.0318159 -0.25071087 2.2593539
-0.99470669 -0.24332777 1.7451864
-0.94479936 -0.23232725 1.3630977
-0.92601568 -0.2285513 1.1122906
-0.92068028 -0.23046862 1.0124611
-0.89393711 -0.22426285 0.82553035
-0.88615954 -0.2227948 0.68368518
-0.87772745 -0.22099306 0.56034881
-0.86837637 -0.21895343 0.45014626
-0.84682518 -0.2138266 0.34666586
-0.84769219 -0.21435499 0.25747854
-0.8446247 -0.21388513 0.1711676
-0.91286761 -0.22715418 0.91899407
-0.88887393 -0.22166891 0.75059479
-0.88421834 -0.22082807 0.62117118
-0.87281764 -0.21845895 0.50339019
-0.86167514 -0.21598217 0.39831915
-0.83930135 -0.21067818 0.29942557
-0.83557451 -0.20989248 0.21237628
-0.83793324 -0.21078798 0.12853025
-0.087143339 0.015133962 8.7139416
-1.3152055 -0.29223099 8.5650978
-1.4982091 -0.34290189 7.4126348
-1.083585 -0.25576103 3.6064501
-1.0668415 -0.25569129 2.6440685
-1.0106462 -0.24443607 1.9727957
-0.96583045 -0.23500636 1.5325361
-0.94838542 -0.23179705 1.2455213
-0.50212556 -0.066922009 8.6000557
-0.91549474 -0.15712069 8.6203995
-1.3050789 -0.30203447 5.1950235
-1.1126591 -0.26299611 3.1633391
-1.0305675 -0.24660127 2.2548525
-0.99555004 -0.23985411 1.7451864
-0.94560456 -0.22902787 1.3630977
-0.92351353 -0.2245169 1.1086154
-0.92147917 -0.22725344 1.0124611
-0.89471447 -0.22114107 0.82553035
-0.8869319 -0.21970017 0.68368518
-0.87849349 -0.21792787 0.56034881
-0.86913538 -0.21592091 0.45014626
-0.84756643 -0.21086933 0.34666586
-0.84843522 -0.2113947 0.25747854
-0.84536612 -0.21093553 0.1711676
-0.91002852 -0.22307758 0.91566855
-0.88964224 -0.21856481 0.75059479
-0.88498378 -0.21774022 0.62117118
-0.87357491 -0.21541092 0.50339019
-0.86242378 -0.21297304 0.39831915
-0.84003168 -0.20774718 0.29942557
-0.8363021 -0.20697449 0.21237628
-0.83866394 -0.20786177 0.12853025
-0.087089986 0.015438057 8.7139416
-1.3169767 -0.28780392 8.5700369
-1.4924434 -0.33610559 7.3783684
-1.0844712 -0.25197706 3.6064501
-1.0658259 -0.2515173 2.6394658
-1.0114932 -0.24090677 1.9727957
-0.96664488 -0.23163354 1.5325361
-0.94607258 -0.22773531 1.2416838
-0.50235611 -0.06516885 8.6000557
-0.91603762 -0.15392405 8.6203995
-1.3048996 -0.29719815 5.1901836
-1.1102086 -0.25832894 3.1539536
-1.031422 -0.24300241 2.2548525
-0.99638116 -0.23637752 1.7451864
-0.94346714 -0.22502688 1.3591076
-0.92429161 -0.22129187 1.1086154
-0.91880119 -0.22319388 1.0089566
-0.89169908 -0.21709605 0.82239193
-0.88363105 -0.21561183 0.68094373
-0.87924886 -0.21486002 0.56034881
-0.86988378 -0.21288574 0.45014626
-0.8482973 -0.20790949 0.34666586
-0.849168 -0.20843181 0.25747854
-0.84126133 -0.20679463 0.17072052
-0.91080171 -0.21989961 0.91566855
-0.88647103 -0.21450759 0.74765164
-0.88573843 -0.21464974 0.62117118
-0.87432146 -0.21236025 0.50339019
-0.8585735 -0.20884533 0.39667568
-0.84075171 -0.20481366 0.29942557
-0.83701944 -0.204054 0.21237628
-0.83938444 -0.204933 0.12853025
-0.087035567 0.015741965 8.7139416
-1.3179733 -0.28320506 8.5700369
-1.4876426 -0.32957372 7.3489966
-1.083889 -0.24785754 3.6016781
-1.0628914 -0.24691173 2.6302607
-1.012328 -0.23737453 1.9727957
-0.96470875 -0.22761199 1.5284033
-0.94374287 -0.22369251 1.2378463
-0.50258052 -0.063414901 8.6000557
-0.91656935 -0.15072556 8.6203995
-1.303476 -0.29209214 5.1805053
-1.0976461 -0.25137234 3.1164114
-1.0301434 -0.23890907 2.2503514
-0.99466056 -0.2323052 1.7409205
-0.94424689 -0.2217322 1.3591076
-0.92175871 -0.21728656 1.1049403
-0.91957474 -0.21998531 1.0089566
-0.89245147 -0.21398212 0.82239193
-0.88437831 -0.21252607 0.68094373
-0.8799935 -0.21178958 0.56034881
-0.87062162 -0.20984799 0.45014626
-0.84901792 -0.20494711 0.34666586
-0.8546651 -0.20662065 0.25841114
-0.84197801 -0.20385683 0.17072052
-0.91156369 -0.21671899 0.91566855
-0.88721448 -0.21141192 0.74765164
-0.88648236 -0.21155663 0.62117118
-0.87064338 -0.20825136 0.50129217
-0.85929728 -0.20584708 0.39667568
-0.84146154 -0.20187764 0.29942557
-0.83772665 -0.201131 0.21237628
-0.83523715 -0.2008338 0.12832873
-0.086980082 0.016045678 8.7139416
-1.3189538 -0.27860278 8.5700369
-1.4828144 -0.3230795 7.3196249
-1.0832912 -0.24374513 3.5969059
-1.0599376 -0.24232975 2.6210558
-1.0131505 -0.23383939 1.9727957
-0.96549737 -0.22424313 1.5284033
-0.94139653 -0.21966876 1.2340088
-0.50279886 -0.061660185 8.6000557
-0.91761625 -0.14760923 8.625371
-1.2995772 -0.28645897 5.1611471
-1.0833652 -0.24412748 3.0741765
-1.0309709 -0.23531173 2.2503514
-0.9954654 -0.22883178 1.7409205
-0.94207925 -0.21775645 1.3551177
-0.92251158 -0.2140677 1.1049403
-0.91686577 -0.21595667 1.005452
-0.89319295 -0.21086559 0.82239193
-0.88511479 -0.20943771 0.68094373
-0.87641698 -0.20769519 0.55803001
-0.87134886 -0.20680767 0.45014626
-0.84972811 -0.20198224 0.34666586
-0.85538113 -0.20363605 0.25841114
-0.83784032 -0.19976158 0.17027344
-0.91231465 -0.21353571 0.91566855
-0.88794702 -0.20831369 0.74765164
-0.88301885 -0.2074751 0.61863804
-0.87136501 -0.20521097 0.50129217
-0.85541451 -0.20176239 0.39503217
-0.84216106 -0.19893916 0.29942557
-0.83842361 -0.19820558 0.21237628
-0.83593315 -0.19791704 0.12832873
-0.086923547 0.016349198 8.7139416
-1.3206792 -0.27415478 8.574976
-1.4779594 -0.31662303 7.2902541
-1.0812204 -0.23931761 3.5873621
-1.0588709 -0.2381999 2.6164534
-1.0139606 -0.23030141 1.9727957
-0.9662742 -0.22087157 1.5284033
-0.93903357 -0.21566412 1.2301713
-0.50272417 -0.059871528 8.5950642
-0.91812593 -0.14440526 8.625371
-1.2968838 -0.28112271 5.1466289
-1.0673624 -0.23661225 3.0272489
-1.029662 -0.23123479 2.2458501
-0.99625814 -0.22535555 1.7409205
-0.9428336 -0.21446666 1.3551177
-0.92325324 -0.21084622 1.1049403
-0.91761398 -0.21275491 1.005452
-0.89392358 -0.20774646 0.82239193
-0.88584048 -0.20634682 0.68094373
-0.87713665 -0.20463467 0.55803001
-0.87206537 -0.20376484 0.45014626
-0.85042799 -0.1990149 0.34666586
-0.86086941 -0.20176984 0.25934377
-0.83853245 -0.19683577 0.17027344
-0.91305447 -0.21034984 0.91566855
-0.88866878 -0.20521291 0.74765164
-0.88373768 -0.20439152 0.61863804
-0.87207597 -0.20216809 0.50129217
-0.85151374 -0.19770733 0.39338866
-0.83811611 -0.19489743 0.29825324
-0.83911037 -0.19527772 0.21237628
-0.8366189 -0.19499789 0.12832873
-0.086865947 0.016652519 8.7139416
-1.3216281 -0.26954308 8.574976
-1.4740735 -0.31041399 7.2657776
-1.0805907 -0.23522478 3.5825901
-1.0577884 -0.23408043 2.6118507
-1.0170957 -0.22728269 1.977185
-0.96429378 -0.21688007 1.5242703
-0.93978065 -0.21238498 1.2301713
-0.5029301 -0.058116328 8.5950642
-0.9186244 -0.14119951 8.625371
-1.2941689 -0.27580869 5.1321106
-1.0664958 -0.23251767 3.0225561
-1.0304629 -0.22763918 2.2458501
-0.99449289 -0.22131033 1.7366546
-0.94063592 -0.21051642 1.3511276
-0.92398357 -0.20762217 1.1049403
-0.91835105 -0.20955054 1.005452
-0.89464331 -0.20462483 0.82239193
-0.88655537 -0.2032534 0.68094373
-0.87784559 -0.20157163 0.55803001
-0.86825335 -0.1996806 0.44827321
-0.85111755 -0.19604515 0.34666586
-0.86156845 -0.19876362 0.25934377
-0.83921444 -0.19390754 0.17027344
-0.91378313 -0.2071614 0.91566855
-0.88543814 -0.20121412 0.74470848
-0.88444579 -0.20130546 0.61863804
-0.87277639 -0.19912276 0.50129217
-0.85219866 -0.19473378 0.39338866
-0.83879131 -0.19197068 0.29825324
-0.83978695 -0.1923475 0.21237628
-0.83729446 -0.19207636 0.12832873
-0.086807288 0.016955636 8.7139416
-1.322561 -0.2649281 8.574976
-1.4691652 -0.30402982 7.2364063
-1.0799453 -0.23113924 3.5778182
-1.058599 -0.23038663 2.6118507
-1.0178828 -0.22373097 1.977185
-0.96504498 -0.21351273 1.5242703
-0.94051629 -0.20910323 1.2301713
-0.50341696 -0.056391601 8.6000557
-0.91911167 -0.13799207 8.625371
-1.2926631 -0.27077457 5.1224318
-1.0689883 -0.22915494 3.0272489
-1.0312512 -0.22404082 2.2458501
-0.99525928 -0.21783754 1.7366546
-0.94136506 -0.2072317 1.3511276
-0.9247027 -0.20439561 1.1049403
-0.91907692 -0.20634362 1.005452
-0.89535213 -0.2015007 0.82239193
-0.8831805 -0.19923751 0.67820227
-0.87854385 -0.19850616 0.55803001
-0.86894506 -0.1966486 0.44827321
-0.84711826 -0.19201267 0.34525582
-0.86225706 -0.19575498 0.25934377
-0.8350302 -0.1898728 0.16982636
-0.91450071 -0.20397045 0.91566855
-0.8861351 -0.19812214 0.74470848
-0.8851431 -0.19821693 0.61863804
-0.87346613 -0.19607498 0.50129217
-0.85287327 -0.19175787 0.39338866
-0.83471441 -0.18797381 0.29708093
-0.84045327 -0.1894149 0.21237628
-0.83795983 -0.18915248 0.12832873
-0.086747572 0.017258547 8.7139416
-1.3234777 -0.26030988 8.574976
-1.4642305 -0.29768372 7.2070351
-1.0778241 -0.22675405 3.5682743
-1.0593967 -0.22669004 2.6118507
-1.0186577 -0.22017655 1.977185
-0.96303463 -0.20954476 1.5201373
-0.94437182 -0.20650339 1.2340088
-0.50361073 -0.054634005 8.6000557
-0.91958779 -0.13478293 8.625371
-1.2899069 -0.26550117 5.1079135
-1.0714704 -0.22577763 3.0319417
-1.029898 -0.21998526 2.241349
-0.99601364 -0.21436211 1.7366546
-0.94208264 -0.20394446 1.3511276
-0.92209768 -0.20044665 1.1012651
-0.91979158 -0.20313418 1.005452
-0.89605004 -0.19837411 0.82239193
-0.88387054 -0.19615343 0.67820227
-0.88355571 -0.1963993 0.56034881
-0.86962622 -0.19361423 0.44827321
-0.84778333 -0.1890545 0.34525582
-0.86293513 -0.19274396 0.25934377
-0.83568788 -0.18695685 0.16982636
-0.91156012 -0.19997714 0.91234308
-0.88682133 -0.19502774 0.74470848
-0.88582957 -0.195126 0.61863804
-0.87414521 -0.19302481 0.50129217
-0.85353738 -0.18877962 0.39338866
-0.83536547 -0.18505897 0.29708093
-0.83627462 -0.1854082 0.21168561
-0.838615 -0.18622629 0.12832873
-0.086686797 0.017561248 8.7139416
-1.3243783 -0.25568849 8.574976
-1.4512812 -0.28978246 7.1385016
-1.0786091 -0.22299036 3.5682743
-1.0582697 -0.22258882 2.6072483
-1.01942 -0.21661942 1.977185
-0.96376014 -0.20618187 1.5201373
-0.94822055 -0.20387918 1.2378463
-0.5040856 -0.052904919 8.6050472
-0.92058045 -0.13164698 8.6303425
-1.2871296 -0.2602503 5.0933952
-1.0739418 -0.22238578 3.0366344
-1.0306597 -0.21638891 2.241349
-0.99675584 -0.21088409 1.7366546
-0.94278878 -0.20065473 1.3511276
-0.92279172 -0.19722672 1.1012651
-0.92049509 -0.19992228 1.005452
-0.89293379 -0.19441725 0.81925344
-0.88454986 -0.19306695 0.67820227
-0.88423592 -0.19331393 0.56034881
-0.87029672 -0.19057748 0.44827321
-0.84843814 -0.18609405 0.34525582
-0.85880476 -0.18867657 0.25841114
-0.83633542 -0.18403861 0.16982636
-0.91225255 -0.19679399 0.91234308
-0.88749665 -0.19193096 0.74470848
-0.88650531 -0.19203269 0.61863804
-0.87481368 -0.18997231 0.50129217
-0.85419118 -0.18579906 0.39338866
-0.83600634 -0.18214186 0.29708093
-0.83691669 -0.18248793 0.21168561
-0.83925992 -0.18329784 0.12832873
-0.086624973 0.017863732 8.7139416
-1.3252628 -0.251064 8.574976
-1.45728 -0.2856932 7.1629782
-1.0779179 -0.21892712 3.5635023
-1.0590403 -0.21889341 2.6072483
-1.02017 -0.21305966 1.977185
-0.96447402 -0.20281646 1.5201373
-0.94892645 -0.20056804 1.2378463
-0.50426722 -0.05114501 8.6050472
-0.92103434 -0.12843275 8.6303425
