# .PCD v0.7 - Point Cloud Data file format
VERSION 0.7
FIELDS x y z
SIZE 4 4 4
TYPE F F F
COUNT 1 1 1
WIDTH 1580
HEIGHT 1
VIEWPOINT 0 0 0 1 0 0 0
POINTS 1580
DATA ascii
1.3602945 1.8200797 8.7858763
1.999415 2.7013628 9.1935434
0.8950665 1.216481 3.186604
1.1331227 1.5449976 3.2041361
1.3448238 1.838286 3.0907781
2.1999509 3.0125844 4.1222506
2.2509198 3.1039238 3.8476391
7.5987668 10.489664 10.526499
3.1168296 4.307385 3.5704489
2.7495944 3.802664 2.5429225
6.7840085 9.3272114 10.353437
3.3035445 4.5503449 3.3899355
0.076641001 0.04449676 8.7339401
0.85040182 1.1093334 8.8861494
1.0913465 1.4424838 8.7196598
1.697641 2.2754178 9.1228638
1.0023247 1.359223 3.1622362
1.9625221 2.6688817 4.9380856
2.1342816 2.9087944 4.3961124
0.34925479 0.38231304 8.7947311
0.60376424 0.71289378 8.6701145
1.3666394 1.8153203 8.7858763
2.0078008 2.6929839 9.1888504
0.90060377 1.215098 3.1911051
1.1354092 1.5368377 3.1956041
1.3494449 1.8311549 3.0867882
2.2124624 3.0076177 4.1259251
2.3353717 3.1968355 3.9702981
7.6559858 10.491373 10.554746
3.1367726 4.303237 3.575932
2.7785006 3.8145268 2.5568354
2.824146 3.8800235 2.0272398
6.8165255 9.3034744 10.353437
8.7005692 11.887902 10.810317
3.301595 4.5144296 3.3722034
0.076795861 0.044228964 8.7339401
0.85521907 1.1075879 8.8960276
1.0963751 1.4386655 8.7196598
1.7055734 2.2694778 9.1228638
1.0070632 1.355716 3.1622362
1.9785264 2.6710594 4.9546175
2.1368015 2.8910165 4.3807626
0.35058719 0.38109162 8.7947311
0.60278499 0.70673037 8.6203995
1.3722081 1.8095373 8.7810364
2.0182254 2.6873386 9.1935434
0.90614229 1.2136911 3.1956065
1.1392096 1.5307728 3.1913381
1.3558285 1.8264333 3.0867882
2.1825786 2.9454005 4.052422
2.342289 3.1829197 3.963289
7.7086992 10.486537 10.576715
3.1344504 4.2686691 3.5567417
2.8049018 3.8226621 2.5684295
2.8486378 3.8850965 2.0347321
6.8489585 9.279623 10.353437
8.7540064 11.873726 10.825033
3.2917643 4.4681711 3.3468719
0.076949775 0.043960627 8.7339401
0.85955721 1.1052091 8.9009676
1.1013902 1.4348297 8.7196598
1.713485 2.2635105 9.1228638
2.2530956 2.9978247 8.8942957
1.0117893 1.3521924 3.1622362
1.9928869 2.6709032 4.9670167
2.0990255 2.819268 4.2848248
0.3519153 0.3798655 8.7947311
0.60072672 0.69937062 8.5557699
1.3785163 1.8047364 8.7810364
2.0286348 2.6816537 9.1982365
0.91037333 1.2105207 3.1956065
1.1429816 1.5247003 3.1870723
1.3621957 1.8216894 3.0867882
2.1462042 2.8752792 3.9678934
2.3491373 3.1689944 3.9562798
7.7475739 10.462694 10.579854
2.8735235 3.8876567 2.6171243
2.8153591 3.8117356 2.0028903
6.865715 9.2346849 10.330159
8.7953997 11.843096 10.825033
3.2893579 4.4324212 3.3291395
2.7196536 3.6687536 2.1986165
0.077102765 0.043691754 8.7339401
0.86436862 1.1034253 8.9108458
1.1057692 1.4301709 8.7147646
1.7222809 2.2587025 9.127636
2.2564707 2.9805961 8.8666811
1.0165032 1.3486524 3.1622362
1.9988164 2.6594312 4.9587507
2.0896223 2.7862818 4.2464495
0.35323915 0.37863478 8.7947311
0.59932286 0.69283944 8.5010834
1.384041 1.7989173 8.7761974
2.0390294 2.6759288 9.2029295
0.91590798 1.2090707 3.2001076
1.1451535 1.5165389 3.1785405
1.3685462 1.8169235 3.0867882
2.1704895 2.8867376 3.9936194
6.209517 8.3156567 10.278481
7.7793932 10.429346 10.573577
2.7794302 3.7303197 3.1345561
3.0537426 4.1014466 2.7632086
2.8148108 3.7832882 1.9935253
6.8777647 9.1837654 10.30023
8.8366871 11.812323 10.825033
3.2815802 4.3898382 3.3063407
2.7921846 3.7392411 2.2447739
0.077254802 0.043422349 8.7339401
0.86869639 1.1010109 8.9157839
1.1107545 1.4263023 8.7147646
1.7310637 2.2538602 9.1324072
2.2644916 2.9695942 8.8574762
1.0212047 1.3450959 3.1622362
2.0029914 2.6457074 4.946352
2.0993354 2.7789707 4.2464495
0.35436034 0.3771897 8.7897396
0.59682882 0.68512207 8.4314823
1.390312 1.7940751 8.7761974
2.0483575 2.6687949 9.2029295
0.9201228 1.2058662 3.2001076
1.1488612 1.5104566 3.1742744
1.3767016 1.8145356 3.0907781
2.1764593 2.8737388 3.9862692
6.2256436 8.2768316 10.257454
7.8134136 10.399015 10.570438
2.8250644 3.76407 3.1701949
2.9829886 3.97736 2.689007
2.8001971 3.7363427 1.974795
6.9075308 9.1567202 10.296904
8.8827295 11.787861 10.830919
3.2968836 4.3783565 3.3063407
2.8024919 3.7258451 2.2426758
0.077405907 0.043152414 8.7339401
0.87301797 1.0985801 8.9207239
1.1157266 1.4224164 8.7147646
1.7398342 2.2489848 9.1371794
2.2748435 2.9616718 8.8574762
1.0258937 1.3415231 3.1622362
4.9894705 6.5568647 9.9413061
0.35567483 0.37595046 8.7897396
0.59675252 0.68023252 8.3966808
1.3965659 1.7892112 8.7761974
2.0587165 2.6629937 9.2076225
0.92565328 1.204373 3.2046089
1.1541268 1.5064371 3.1742744
1.3848569 1.8121132 3.0947683
2.1761956 2.8526471 3.9678934
6.2372684 8.2323093 10.229418
7.8473153 10.368575 10.5673
10.146044 13.420415 11.114964
2.8526607 3.7760577 2.5637918
2.8132224 3.7265453 1.974795
6.9281573 9.1176891 10.280277
8.9238224 11.756783 10.830919
3.26265 4.3015647 3.2582104
2.8428891 3.7522144 2.2636564
0.077556066 0.042881954 8.7339401
0.87733316 1.0961325 8.925663
1.1206849 1.4185131 8.7147646
1.7495091 2.2452526 9.1467228
1.1553994 1.4935439 4.508091
1.0305703 1.3379339 3.1622362
1.3254324 1.7256223 3.2683747
5.0025787 6.5266881 9.9221182
0.35698494 0.37470663 8.7897396
0.59770966 0.6765492 8.3767958
1.4028031 1.7843254 8.7761974
2.0690598 2.6571527 9.2123156
0.93118441 1.2028557 3.20911
1.1577847 1.5003346 3.1700087
1.3930119 1.8096557 3.0987582
2.2067966 2.8719146 4.0046449
6.2400031 8.1764669 10.187363
7.8811026 10.338025 10.564161
10.197894 13.39157 11.120446
2.9623966 3.8929846 2.6472688
7.0007901 9.1468201 10.340136
8.969718 11.731983 10.836806
3.2253039 4.2216401 3.2075469
2.8587222 3.7458756 2.2657542
0.077705279 0.042610973 8.7339401
0.881154 1.0930634 8.925663
1.1256297 1.4145925 8.7147646
1.7554924 2.2367837 9.1371794
1.1606058 1.4895015 4.508091
1.0352342 1.3343284 3.1622362
1.3297259 1.7187597 3.2642415
2.1733727 2.8151879 4.3347125
0.35829076 0.37345824 8.7897396
0.59793872 0.67207181 8.3469667
1.4098034 1.7804031 8.7810364
2.0793874 2.6512718 9.2170076
0.93805498 1.2030313 3.2181125
1.1630148 1.496284 3.1700087
1.4030132 1.8095446 3.1067383
2.2209585 2.869556 4.0119953
6.2619858 8.1461535 10.176849
7.9171405 10.310452 10.564161
10.191134 13.286217 11.062876
3.2454529 4.234201 2.8791485
7.0053196 9.0868416 10.30023
2.620667 3.4030819 3.211077
3.2452781 4.2171884 3.2126131
2.8800788 3.7466693 2.2720485
0.077853546 0.04233947 8.7339401
0.88545406 1.090584 8.9306021
1.1305605 1.4106547 8.7147646
1.7623639 2.2294712 9.1324072
1.1682105 1.4885147 4.5172958
1.0398856 1.3307066 3.1622362
1.3287982 1.7052289 3.2477098
2.2304089 2.8683097 4.4268126
0.35959217 0.37220529 8.7897396
0.59956861 0.66918737 8.3370237
1.4183611 1.7784189 8.7955551
2.089699 2.6453514 9.2216997
0.94359332 1.2014613 3.2226136
1.1682307 1.4922152 3.1700087
1.4111758 1.807011 3.1107283
2.260143 2.8992171 4.063448
6.2881999 8.1214256 10.173346
7.9507003 10.279673 10.561023
10.283467 13.310122 11.112222
3.3008199 4.2754426 2.9139307
6.9522662 8.9532185 10.177186
2.3823149 3.0713384 2.9138179
3.186033 4.110435 3.1416843
2.904254 3.7509472 2.2804408
0.078000866 0.042067453 8.7339401
0.88925552 1.0874866 8.9306021
1.1361175 1.4074919 8.7196598
0.89794326 1.1279874 4.6562862
1.1746111 1.4859604 4.5218983
1.0445243 1.3270686 3.1622362
1.3277925 1.6917262 3.231178
2.2443602 2.8655531 4.4344873
0.36088926 0.37094781 8.7897396
0.60154331 0.66669506 8.3320522
1.4292839 1.7793363 8.8245916
2.0967715 2.6353402 9.2123156
0.9491322 1.1998676 3.2271149
1.1718174 1.4860803 3.1657426
1.4230639 1.8091789 3.1226983
2.2451246 2.8593137 4.0193458
6.3362489 8.1247358 10.204885
7.9889274 10.254929 10.564161
10.314456 13.254345 11.095773
3.1933541 4.1065335 2.8095849
6.8799639 8.7965488 10.027538
2.3084121 2.9547088 2.8137503
3.2879043 4.2114191 3.2252791
2.911747 3.7336287 2.2762444
0.078147233 0.041794922 8.7339401
0.8930462 1.0843759 8.9306021
1.1410236 1.4035176 8.7196598
0.91868567 1.1458066 4.7421823
1.1931776 1.4986626 4.572526
1.0506383 1.3252912 3.1666255
1.3284539 1.6804585 3.2187793
2.2325118 2.8300207 4.3922749
0.36218187 0.3696858 8.7897396
0.60350788 0.66419709 8.3270798
0.84404647 1.0434475 5.2047019
2.1070368 2.6293516 9.2170076
0.95467138 1.1982496 3.231616
1.1769977 1.4819808 3.1657426
1.433113 1.8089241 3.1306784
2.2635038 2.8620954 4.0340462
6.379992 8.1222 10.229418
8.0150642 10.214731 10.551607
10.3684 13.228135 11.103998
3.0929451 3.9488909 2.7121952
6.8482432 8.6932878 9.9377499
2.4236956 3.0800433 2.9373631
3.2759385 4.1660304 3.1999471
2.924762 3.7234418 2.2762444
0.078292646 0.041521885 8.7339401
0.89732212 1.0818498 8.9355421
1.146561 1.4003139 8.724555
0.92643154 1.1472375 4.76127
1.1984017 1.4944886 4.572526
1.055258 1.3216157 3.1666255
1.3308059 1.6714085 3.2105134
2.234401 2.8121724 4.376925
0.36347014 0.36841932 8.7897396
0.60546231 0.66169357 8.3221083
0.84530145 1.0375718 5.1901836
2.1096988 2.6139238 9.1888504
0.96157348 1.1983055 3.2406185
1.1821635 1.4778634 3.1657426
1.4450573 1.8109765 3.1426485
2.2967157 2.8833456 4.0744734
6.4127302 8.1054735 10.236426
8.0530834 10.189743 10.554746
10.419693 13.198425 11.109481
3.2713308 4.1467404 2.8513229
6.8228488 8.5991325 9.8579378
9.1781244 11.579988 10.842692
3.2931371 4.157949 3.2024803
2.9292936 3.7025321 2.2699504
0.078437112 0.041248336 8.7339401
0.90109301 1.078711 8.9355421
1.1514421 1.3963031 8.724555
2.2863712 2.8307393 8.6319523
1.061366 1.3197904 3.1710143
1.3331109 1.6623626 3.2022474
2.2221735 2.7768283 4.3347125
0.36454979 0.36694416 8.7847471
0.60740668 0.65918452 8.3171368
0.85529792 1.0423874 5.228899
2.1209874 2.6092217 9.1982365
0.96711898 1.1966347 3.2451198
1.187315 1.4737278 3.1657426
1.4589207 1.8153158 3.1586087
5.7393808 7.15379 10.020889
6.4232044 8.0607271 10.20839
8.0958776 10.170708 10.564161
10.457892 13.152154 11.101256
3.2857859 4.1352959 2.8513229
6.1868944 7.7919831 4.1081796
6.8528237 8.575264 9.8579378
9.1983166 11.522609 10.819146
5.5845742 7.0007491 5.348083
2.9308865 3.678087 2.2615583
0.07858061 0.040974289 8.7339401
0.90535337 1.0761535 8.9404812
1.1556584 1.3914921 8.7196598
1.8028973 2.2006834 9.1419506
1.0659664 1.3160775 3.1710143
1.3353689 1.6533208 3.1939816
2.2398987 2.7790368 4.3500624
0.36582842 0.3656694 8.7847471
0.60970396 0.65706027 8.3171368
0.85893136 1.0393956 5.228899
2.1344554 2.6071429 9.2170076
0.97403902 1.196628 3.2541223
1.192452 1.4695743 3.1657426
1.4728318 1.8195803 3.1745687
5.7579255 7.125802 10.009864
6.4423742 8.027132 10.194372
3.045243 3.7984498 4.007925
10.495897 13.105777 11.093032
3.3168082 4.1445532 2.8652358
6.2140555 7.770339 4.1081796
6.8452573 8.5047522 9.8047304
9.2638092 11.521933 10.848578
5.5036774 6.8501525 5.249289
0.078723162 0.040699743 8.7339401
0.90910429 1.0729866 8.9404812
1.1605086 1.3874496 8.7196598
1.8067679 2.1897717 9.1228638
2.2689319 2.7693737 8.4938765
1.0705539 1.3123485 3.1710143
1.3393561 1.6464664 3.1898487
2.2576666 2.7811549 4.3654122
0.36710262 0.36439019 8.7847471
0.61199385 0.65492803 8.3171368
0.86335862 1.037357 5.2337389
0.84912521 1.0299801 3.684236
0.98097068 1.1965873 3.2631247
1.1975746 1.465403 3.1657426
1.4867905 1.8237699 3.1905289
5.7891836 7.1135478 10.020889
6.4546614 7.9851813 10.169841
3.0731554 3.8059669 4.0267563
10.554708 13.085334 11.106739
3.2256172 4.0018911 2.7771215
6.2731295 7.7883153 4.1287827
6.8278775 8.4227972 9.7382202
9.2963409 11.480101 10.839748
5.4407806 6.7236652 5.1682272
0.078864746 0.040424701 8.7339401
0.91284418 1.0698068 8.9404812
1.1646885 1.3826116 8.7147646
1.8229873 2.1937835 9.1658115
2.2686372 2.7493818 8.457057
1.0766488 1.3104541 3.1754036
1.3433119 1.6396047 3.1857157
2.2572167 2.7608502 4.3462248
0.36837235 0.36310655 8.7847471
0.61427623 0.6527878 8.3171368
0.867782 1.0353001 5.2385783
0.8505103 1.0243547 3.6748505
0.98791385 1.1965131 3.2721272
1.2026825 1.4612138 3.1657426
1.5007964 1.827884 3.2064888
5.8182769 7.0985398 10.028239
6.4824958 7.9626017 10.169841
3.0888779 3.7982361 4.0298948
10.547587 12.983501 11.051909
3.0608807 3.7704985 2.6287181
6.3820553 7.8671765 4.1812277
6.8359852 8.3728819 9.7082911
3.2179337 3.9456503 3.7908795
5.4260902 6.6578498 5.1327629
0.079005376 0.040149163 8.7339401
0.91657293 1.0666138 8.9404812
1.1695076 1.3785377 8.7147646
1.8430892 2.202287 9.2278471
2.2732255 2.7354362 8.4386463
1.0812166 1.3066878 3.1754036
1.3472357 1.632735 3.1815827
2.2688775 2.7554286 4.3500624
0.36963758 0.36181849 8.7847471
0.6165511 0.65063953 8.3171368
0.86814666 1.0284233 5.2192206
0.85850942 1.0266744 3.6936216
0.99626052 1.1980784 3.2856307
1.2094404 1.4590144 3.1700087
1.5071678 1.8226341 3.2064888
2.2387757 2.7121019 3.8907149
6.5170341 7.9481974 10.180354
3.0922518 3.7753863 4.0173407
10.63521 12.998384 11.095773
2.9338255 3.5883195 2.5127783
6.4094772 7.8448515 4.1812277
3.2855639 3.999985 3.8526859
5.4875875 6.6855178 5.1682272
0.079104654 0.039856665 8.728941
0.92029053 1.0634079 8.9404812
1.1749741 1.3752209 8.7196598
1.0301074 1.222312 5.1573448
2.2777443 2.7214918 8.4202366
1.0857713 1.3029057 3.1754036
1.3511282 1.6258583 3.1774499
2.2477901 2.710484 4.2924995
0.37089831 0.360526 8.7847471
0.619187 0.64886868 8.3221083
0.87091696 1.0244291 5.2143812
0.85652906 1.0170723 3.6701579
1.0018344 1.1962624 3.2901318
1.2145258 1.4547839 3.1700087
1.5115925 1.8150467 3.2024989
2.4389553 2.9336755 4.2141294
6.5424676 7.9226503 10.176849
3.1128421 3.773577 4.0267563
10.696474 12.980543 11.112222
2.9519651 3.5848961 2.517416
2.1003096 2.5362225 3.0140591
3.2737417 3.9573476 3.8232543
5.5630774 6.7294493 5.2163577
5.7776132 6.9964075 4.2819824
0.079243295 0.039580293 8.728941
0.92399687 1.060189 8.9404812
1.1797673 1.3711112 8.7196598
1.0227749 1.2050537 5.100081
2.2733793 2.6970935 8.3696089
1.0918523 1.3009421 3.1797926
1.3567953 1.6211321 3.1774499
0.37215453 0.35922912 8.7847471
0.62181801 0.64708722 8.3270798
0.86958146 1.0156547 5.1853442
0.86230683 1.0167081 3.6795435
1.0130224 1.2010778 3.3126378
1.2195966 1.4505355 3.1700087
1.5159825 1.8074504 3.1985087
2.5580022 3.0551088 4.3978877
6.5655231 7.8942819 10.169841
3.0861983 3.7147861 3.9765408
2.8987498 3.4928665 3.0605364
3.1058524 3.7450583 2.6333559
2.118716 2.540345 3.0273612
3.2771864 3.9334745 3.8114817
5.6472144 6.7828722 5.2720876
5.8078055 6.9831767 4.2861786
0.079380974 0.039303441 8.728941
0.92717928 1.0563734 8.9355421
1.1858801 1.3685235 8.7294502
1.0298852 1.2048798 5.114397
2.2739294 2.6787162 8.3373909
1.0963868 1.2971228 3.1797926
1.3606322 1.6142346 3.1733167
2.1160381 2.5156686 4.012362
0.37340617 0.35792789 8.7847471
0.62407303 0.64491272 8.3270798
0.86901647 1.0078542 5.1611471
0.86472958 1.0123799 3.6748505
1.029894 1.2124659 3.3531489
1.226338 1.4482597 3.1742744
1.5203379 1.7998459 3.1945188
2.5336833 3.0046942 4.3390851
6.6044884 7.8849845 10.187363
3.1091378 3.7159312 3.9890947
2.9377408 3.5148098 3.0879512
6.1432042 7.3550658 5.1028781
2.125169 2.5300748 3.0240355
3.2753079 3.9034328 3.7938228
0.079558246 0.039042164 8.7339401
0.92983156 1.0519664 8.925663
1.1926587 1.3666768 8.7441368
1.8590486 2.1593714 9.1562672
2.274379 2.6603682 8.3051739
1.1024606 1.2951115 3.1841817
1.3662585 1.6094753 3.1733167
2.131022 2.5156035 4.0238743
0.37465334 0.35662225 8.7847471
0.62669289 0.64311171 8.3320522
0.869232 1.0010188 5.1417894
0.86825818 1.0093553 3.6748505
1.0256286 1.1989388 3.3261416
1.2313859 1.4439702 3.1742744
1.5246587 1.792233 3.1905289
2.5814631 3.0397601 4.4015627
2.246851 2.6635966 3.5041933
3.1020246 3.6812444 3.9639871
2.923064 3.4725444 3.0605364
6.1431766 7.3030672 5.0820088
2.1339877 2.5226412 3.0240355
3.2941315 3.8981509 3.7997091
0.079694048 0.038764216 8.7339401
0.93298113 1.0481341 8.9207239
1.1994388 1.3647994 8.7588215
1.8616852 2.1472301 9.1324072
2.2747283 2.6420496 8.2729559
1.1069746 1.2912554 3.1841817
1.3718684 1.6046964 3.1733167
2.1709952 2.5447252 4.0814366
0.37589589 0.35531229 8.7847471
0.62893397 0.64092022 8.3320522
0.87023813 0.99514049 5.1272712
0.87177628 1.0063183 3.6748505
1.2364187 1.4396632 3.1742744
1.5289451 1.7846117 3.1865389
2.6273143 3.0719526 4.4603658
2.2607532 2.6611733 3.5112026
3.0292249 3.5694933 3.8572795
10.773918 12.70873 11.008046
6.263123 7.3931189 5.1585293
2.1427803 2.5151768 3.0240355
6.9744473 8.2152996 3.8398271
0.079828873 0.038485795 8.7339401
0.93507773 1.0431356 8.9059067
1.2068955 1.3636538 8.7784033
1.8681874 2.1395946 9.127636
2.2762573 2.625237 8.2453403
1.1130404 1.289196 3.1885707
1.3792976 1.6020303 3.1774499
2.1422658 2.493372 4.012362
0.37713388 0.35399801 8.7847471
0.63116735 0.63872093 8.3320522
0.87038279 0.98832405 5.1079135
0.8752836 1.0032691 3.6748505
1.2431428 1.4373109 3.1785405
1.5331964 1.7769824 3.1825488
2.5804963 2.9959779 4.3648114
2.2746654 2.658685 3.5182116
2.9228084 3.419831 3.7097719
10.750338 12.591543 10.939509
6.3090172 7.3948007 5.1747608
7.0239229 8.1863623 9.6883373
3.2949607 3.8443687 3.7702775
6.8404422 8.00068 3.7527213
0.07996273 0.038206905 8.7339401
0.9376716 1.038712 8.8960276
0.72444749 0.81299454 5.2587347
1.8736731 2.1308184 9.1180916
2.276412 2.6069748 8.2131224
1.1175337 1.285303 3.1885707
1.3848814 1.5972059 3.1774499
1.683251 1.9453737 3.1565986
0.37857908 0.35287559 8.7897396
0.63301653 0.63613647 8.3270798
0.87466156 0.98622006 5.1127529
0.87878036 1.0002077 3.6748505
2.9634047 3.3912363 9.3757725
1.2481524 1.4329628 3.1785405
1.5374136 1.7693454 3.1785588
2.0622306 2.3774548 3.4901221
2.63079 3.0532773 4.0403891
3.0464528 3.5394082 3.8478642
10.753332 12.506383 10.898388
6.360774 7.4029717 5.1956301
7.0133972 8.1165915 9.6351299
9.8662834 11.430273 11.078145
0.08005482 0.037912067 8.728941
0.94024599 1.0342832 8.8861494
0.72796118 0.81121838 5.2636299
1.8820893 2.1253827 9.1228638
2.2777572 2.5902104 8.1855078
1.1235914 1.283196 3.1929598
1.3904482 1.592362 3.1774499
1.6816083 1.9298204 3.1412485
0.37980855 0.35155195 8.7897396
0.63523322 0.63392293 8.3270798
0.87307388 0.97753692 5.0837164
0.88226634 0.99713409 3.6748505
2.9665949 3.3710661 9.3487654
1.2548666 1.4305576 3.1828063
1.5415958 1.7617003 3.1745687
2.0794384 2.3804543 3.5048227
2.6718171 3.0790913 4.085948
3.1556697 3.6405156 3.9671257
3.4092157 3.9371581 3.499171
6.3981709 7.3941231 5.204905
7.0490403 8.1005116 9.6451063
9.9061232 11.395764 11.078145
7.2835112 8.3846912 6.6121392
0.080186673 0.037632395 8.728941
0.94280088 1.0298488 8.8762703
0.73488587 0.81320393 5.2930012
1.8894967 2.1187999 9.1228638
2.2777176 2.5720062 8.1532898
1.131232 1.2828586 3.2017381
1.3959981 1.5874987 3.1774499
1.6819917 1.9167113 3.1297359
0.38103336 0.35022402 8.7897396
0.63744217 0.63170171 8.3270798
0.85798436 0.95392662 4.9772491
0.88574165 0.9940483 3.6748505
2.9855635 3.3688362 9.3712711
1.2615793 1.4281231 3.1870723
1.547736 1.7563084 3.1745687
2.1146066 2.4037254 3.5489244
2.7412164 3.1368799 4.1735616
3.1734774 3.6353424 3.9734023
3.4504199 3.956748 3.5265856
6.4384937 7.3884425 5.2164993
2.2490537 2.5664473 3.1204751
9.8659687 11.269878 10.98985
6.4981289 7.4280438 5.8851166
0.080317549 0.03735226 8.728941
0.94533646 1.0254093 8.8663921
0.73840553 0.81138659 5.2978969
1.8968812 2.1121914 9.1228638
2.2788792 2.5552917 8.1256742
1.1372935 1.2806927 3.2061269
1.401531 1.5826161 3.1774499
1.6865493 1.9084266 3.1258984
0.38225356 0.34889185 8.7897396
0.63926291 0.62909931 8.3221083
0.84780478 0.93602228 4.8998184
0.89035881 0.99223471 3.6795435
2.9958556 3.3567703 9.3667707
1.2682903 1.4256591 3.1913381
1.5518571 1.7486415 3.1705787
2.1027508 2.3734918 3.5158479
2.7545056 3.1299691 4.1770663
3.4338593 3.9101193 3.4964294
2.2629399 2.5641801 3.1271262
9.9052467 11.235371 10.98985
6.6437039 7.5411677 5.9915104
0.080447443 0.037071671 8.728941
0.94785231 1.0209647 8.856514
0.7398569 0.80730319 5.288106
1.9042426 2.1055572 9.1228638
2.2786467 2.5371475 8.0934572
1.1433537 1.2785002 3.2105162
1.4089197 1.5798141 3.1815827
1.6825459 1.8905566 3.1067109
0.38368362 0.34774855 8.7947311
0.64145499 0.62686408 8.3221083
0.83751094 0.91820103 4.8223877
0.89381695 0.98912072 3.6795435
2.9959128 3.3333399 9.330761
1.2749995 1.4231658 3.1956041
1.5579517 1.743214 3.1705787
1.9981728 2.239655 3.3320899
3.2736037 3.6976125 4.0644174
3.3256006 3.7602928 3.3758049
2.2569942 2.5395203 3.107173
9.9873428 11.249087 11.036941
3.8662779 4.3578157 3.5089951
0.08057636 0.036790632 8.728941
0.95034873 1.0165149 8.8466349
0.74267048 0.80471569 5.288106
1.9115808 2.0988972 9.1228638
2.2809365 2.5219336 8.0704451
1.1510153 1.2780604 3.2192943
1.4144257 1.5748866 3.1815827
1.6848564 1.8798982 3.099036
0.38489515 0.34640715 8.7947311
0.64363927 0.62462115 8.3221083
0.84666437 0.92175084 4.8562636
0.89610249 0.98471856 3.6748505
3.0104516 3.3260896 9.3397627
1.2817066 1.4206429 3.1998701
1.5640271 1.7377651 3.1705787
1.9176118 2.1343184 3.1887586
2.0448816 2.2911894 3.097666
2.9730647 3.3346286 3.6846642
2.2509046 2.5149338 3.0872202
10.053491 11.244288 11.066372
0.080745332 0.036523912 8.7339401
0.95282567 1.0120602 8.8367567
0.74478149 0.80137271 5.2832108
1.9178865 2.0911119 9.1180916
2.279201 2.5024018 8.0336246
1.1570786 1.2758087 3.2236834
1.4218024 1.5720267 3.1857157
1.704294 1.8882816 3.122061
0.38610202 0.34506148 8.7947311
0.64581567 0.6223706 8.3221083
0.85585272 0.92524785 4.8901396
0.90419865 0.98667294 3.6936216
3.0425746 3.3380852 9.4027805
1.2884116 1.4180903 3.2041361
1.5700835 1.732295 3.1705787
1.8818325 2.0798488 3.1189303
2.0552511 2.28669 3.1011708
2.3085766 2.5712221 2.8686657
10.767196 12.004515 10.657139
3.8770924 4.3256955 3.1272602
2.2496703 2.4959676 3.0739181
10.200864 11.32928 11.184099
3.6918871 4.1031942 3.3291395
8.8040848 9.802021 4.6747298
0.080872335 0.036241837 8.7339401
0.95528316 1.0076007 8.8268785
0.74687845 0.79802489 5.2783155
1.9251742 2.0844042 9.1180916
2.2852807 2.4915512 8.0244188
1.1631402 1.2735302 3.2280724
1.429176 1.5691344 3.1898487
1.7173425 1.8894362 3.1335733
0.38730413 0.34371164 8.7947311
0.64798421 0.62011248 8.3221083
0.85907727 0.92225474 4.8901396
0.92051286 0.99745888 3.7452421
1.2951144 1.4155083 3.2084019
1.5740892 1.7245781 3.1665885
1.8867979 2.0707614 3.1152554
2.0512545 2.2662818 3.083648
2.3175378 2.563148 2.8686657
10.792217 11.948238 10.64069
3.892168 4.3121352 3.1272602
2.2382932 2.4659824 3.0473142
10.248493 11.302585 11.192928
3.7061877 4.090282 3.3291395
8.8477507 9.7817354 4.6796603
0.080998346 0.035959318 8.7339401
0.95772111 1.0031363 8.8169994
0.74896085 0.79467213 5.2734203
1.9324385 2.0776715 9.1180916
2.3058949 2.4964747 8.0658417
1.1691999 1.2712251 3.2324615
1.4346445 1.564136 3.1898487
1.7325844 1.8928875 3.1489234
0.38850155 0.34235761 8.7947311
0.65014488 0.61784685 8.3221083
0.8786338 0.93666559 4.9820886
0.91341478 0.98286438 3.7030075
1.4181587 1.534349 4.3839269
1.3018149 1.4128968 3.2126679
1.5800995 1.7190732 3.1665885
1.8917226 2.0616648 3.1115801
2.0615549 2.2617435 3.0871525
2.3369532 2.5665545 2.8812196
10.794468 11.867189 10.602309
3.9071965 4.2985229 3.1272602
2.2468874 2.4581542 3.0473142
10.285159 11.263759 11.189985
3.6390841 3.9881585 3.2582104
0.081123374 0.035676364 8.7339401
0.96013951 0.99866718 8.8071213
0.75102907 0.79131466 5.2685251
1.9396791 2.0709136 9.1180916
2.3318934 2.5070059 8.1256742
1.1736302 1.2671361 3.2324615
1.4420052 1.5611857 3.1939816
1.7500434 1.8986117 3.1681111
0.38969421 0.34099939 8.7947311
0.65229756 0.61557364 8.3221083
0.89657462 0.94912386 5.0643587
1.3260661 1.4168258 5.3313971
1.4264725 1.5325763 4.3929296
1.310287 1.4121675 3.2211998
1.5860906 1.7135471 3.1665885
1.8989077 2.0550489 3.1115801
2.0670257 2.2519064 3.083648
3.2455661 3.5395095 3.9545717
10.790635 11.780104 10.558446
3.8832939 4.2423797 3.097116
2.2503967 2.4448016 3.040663
10.310735 11.212911 11.175269
3.6617334 3.9849539 3.2658098
0.081247419 0.03539297 8.7339401
0.96253836 0.99419349 8.7972422
0.75308293 0.7879523 5.2636299
1.9468962 2.0641301 9.1180916
2.3406303 2.4988511 8.1256742
1.17968 1.2647829 3.2368507
1.4493625 1.5582031 3.1981144
1.7522987 1.8877929 3.1604359
0.39088216 0.33963701 8.7947311
0.65405297 0.61292899 8.3171368
0.90334833 0.94963068 5.0837164
1.2860225 1.364472 5.1530719
1.5181659 1.6197045 4.6539998
1.3187696 1.4113963 3.2297316
1.5920624 1.7080001 3.1665885
1.9106884 2.0533714 3.1189303
2.0821359 2.2525337 3.0941615
3.2790263 3.5510356 3.9796793
3.7551785 4.0709348 3.7157469
3.9010813 4.2320557 3.0994346
2.2665317 2.4451463 3.0506394
10.305871 11.129399 11.128179
3.7195387 4.0196075 3.3038077
0.081329167 0.035095099 8.728941
0.96274745 0.98749036 8.7676067
0.75582886 0.78531879 5.2636299
1.9551175 2.0584037 9.1228638
1.1991065 1.2713481 4.1767092
1.1857276 1.2624031 3.2412398
1.4567168 1.5551882 3.2022474
1.7544999 1.8769817 3.152761
0.39184615 0.33808267 8.7897396
0.65579778 0.61027944 8.3121653
0.91274542 0.95282435 5.1175928
1.1553349 1.2172978 4.6180964
1.5835853 1.6777159 4.8340483
1.327263 1.4105829 3.2382634
1.600077 1.7046294 3.1705787
1.943344 2.0739009 3.1593573
2.0851264 2.2400315 3.0871525
3.2648959 3.5110645 3.9482946
10.79862 11.624831 10.487168
2.2903402 2.4535959 3.0705926
10.37498 11.125875 11.160553
3.7012196 3.9719083 3.2759426
6.9338207 7.4486814 4.7918096
0.081451178 0.034810994 8.728941
0.96237707 0.98024374 8.7330322
0.75785673 0.78194469 5.2587347
1.9633226 2.0526454 9.127636
1.2075735 1.2714039 4.1905165
1.1917727 1.2599963 3.2456288
1.4640675 1.5521407 3.2063804
1.7588443 1.8685123 3.1489234
0.39302391 0.33671281 8.7897396
0.65792406 0.60798657 8.3121653
0.90995592 0.94330102 5.0837164
1.1667318 1.2207419 4.6462531
1.6314287 1.7163559 4.9600821
1.3375604 1.4116203 3.2510612
1.6060175 1.6990337 3.1705787
1.945918 2.0621731 3.1520069
3.2797928 3.5024874 3.9514332
10.810567 11.556529 10.459753
2.3014483 2.4483066 3.0739181
3.3801854 3.5996006 3.6790392
3.5941176 3.8300824 3.1720822
7.1646395 7.6429677 4.9302807
0.081530787 0.034512695 8.7239418
0.96196777 0.97301173 8.6984577
0.76058155 0.77929449 5.2587347
1.9715111 2.0468543 9.1324072
1.2201072 1.2756515 4.218132
1.2258985 1.2870423 3.3246322
1.4714146 1.5490609 3.2105134
1.7609457 1.8577092 3.1412485
0.39397636 0.33515251 8.7847471
0.65964925 0.60532641 8.3071947
0.91411906 0.94102037 5.0885558
1.163805 1.2092024 4.6180964
1.6705282 1.7452466 5.0591087
1.3460808 1.4107164 3.259593
1.6140161 1.6955997 3.1745687
2.5719709 2.7066064 4.1259251
7.045805 7.4638581 10.166336
3.6800485 3.9065993 3.6033466
3.4593832 3.6582637 3.7496755
3.1544623 3.338141 2.7845061
7.0978103 7.5189033 4.8673396
0.081650756 0.034227893 8.7239418
0.96206814 0.96634507 8.6688213
0.76258326 0.77590889 5.2538395
1.9796834 2.0410314 9.1371794
1.225908 1.2727916 4.2227345
1.4807032 1.5479821 3.2187793
1.7652063 1.8492326 3.1374109
0.39514384 0.33377522 8.7847471
0.66175824 0.60302013 8.3071947
0.91564006 0.93602705 5.0788774
1.1644155 1.2014155 4.6040182
1.6675451 1.7300011 5.0321016
1.3600324 1.4154116 3.2809229
1.6199249 1.6899554 3.1745687
2.635313 2.7539468 4.2104545
7.0767303 7.4443874 10.173346
2.5161633 2.6497052 3.0287268
3.6620071 3.8603599 3.5731905
7.5122981 7.8805084 9.7781258
3.5083687 3.6842179 3.7879364
3.0977457 3.2552848 2.7262428
7.0583463 7.4250035 4.8232803
0.081769742 0.033942666 8.7239418
0.96103311 0.95859236 8.6293077
0.76528704 0.77324229 5.2538395
1.9867958 2.0341084 9.1371794
1.241226 1.2797228 4.2595544
1.4944381 1.547166 4.0093288
1.48805 1.5448306 3.2229121
1.7694291 1.8407487 3.1335733
0.39630651 0.33239385 8.7847471
0.66346335 0.60034931 8.3022232
0.91978401 0.93372047 5.0837164
1.1625749 1.1911694 4.5805545
1.6341493 1.683558 4.9150701
1.3831013 1.4293971 3.3235822
1.627907 1.6864586 3.1785588
7.1002064 7.4170642 10.169841
2.5280874 2.6437192 3.0318654
3.6927903 3.8656952 3.5896394
6.5896173 6.9029236 5.0820088
7.5397611 7.8542376 9.7781258
3.5519814 3.7040398 3.8203113
3.8487759 4.0163288 3.3544712
6.8770833 7.1839418 4.6848087
0.081887729 0.033657029 8.7239418
0.95995587 0.95085883 8.5897932
0.76726252 0.76984513 5.2489443
1.9949309 2.0282249 9.1419506
1.2470505 1.2767797 4.2641568
1.5248796 1.5676906 4.0751648
1.4973522 1.5436667 3.231178
1.7758437 1.8345609 3.1335733
0.39746439 0.33100849 8.7847471
0.66555494 0.59802973 8.3022232
0.92126703 0.9287197 5.0740376
1.0348626 1.052966 4.0690432
1.5776237 1.614019 4.7305207
1.3971833 1.4338994 3.3449118
1.6337839 1.6807659 3.1785588
2.3428292 2.4143376 3.7253327
7.1310034 7.3973684 10.176849
2.5696993 2.6685224 3.0695267
3.7004635 3.8467541 3.5841563
6.6474419 6.9150076 5.1075153
7.6346154 7.9474473 4.5408502
7.5982733 7.860085 9.8180323
3.6210456 3.7497702 3.8791742
3.8597791 3.9997675 3.351938
6.7068272 6.9573083 4.5547295
0.082004711 0.033370987 8.7239418
0.95883632 0.94314456 8.5502796
0.76922363 0.76644373 5.2440486
2.0019987 2.0212491 9.1419506
1.2405393 1.261277 4.2273369
1.5236386 1.5555149 4.0576086
1.5046979 1.5404434 3.235311
1.7822367 1.8283509 3.1335733
0.39861739 0.32961908 8.7847471
0.66763842 0.59570289 8.3022232
0.92805725 0.92905474 5.0933952
0.87706423 0.88623655 3.444905
1.5389594 1.5635124 4.5999851
1.6417488 1.6772057 3.1825488
2.3607202 2.4158435 3.7400334
2.6557119 2.7357903 3.8266118
2.5789983 2.6595361 3.0695267
3.7342343 3.8548369 3.6033466
6.6530538 6.8726654 5.0936027
7.6719799 7.9307451 4.5464687
7.667335 7.8763213 9.8712406
2.8450882 2.9257355 3.0550892
3.8857341 3.998636 3.3620708
6.6710072 6.8719816 4.5148664
0.082120694 0.033084534 8.7239418
0.95767462 0.93544972 8.5107651
0.77117032 0.7630381 5.2391539
2.0079875 2.0131917 9.1371794
1.2449344 1.2569391 4.2273369
1.5189675 1.5399569 4.0312743
1.5140128 1.5391937 3.243577
1.788608 1.8221186 3.1335733
0.39976555 0.32822561 8.7847471
0.66971374 0.59336871 8.3022232
0.92327011 0.91783535 5.0498405
0.8838073 0.88683611 3.4589834
1.5444077 1.558131 4.5999851
1.7389648 1.7598772 4.1170459
1.6475934 1.6714648 3.1825488
2.3691387 2.4075885 3.7400334
2.8547099 2.9203162 4.092957
2.5937052 2.6560872 3.0758038
3.7097096 3.8028681 3.5677075
6.6800952 6.8525724 5.0959215
7.7578449 7.9636893 4.5801835
7.7679667 7.9241652 9.9643536
2.8467996 2.9071229 3.0462599
7.2342978 7.4003749 4.8715353
0.082235679 0.032797676 8.7239418
0.95535535 0.92669296 8.4613733
0.77237612 0.75891471 5.2293634
2.0150027 2.0061703 9.1371794
1.250694 1.253969 4.2319393
1.5175819 1.5278486 4.0137177
1.5213567 1.5358986 3.2477098
1.7949575 1.8158641 3.1335733
0.40090883 0.32682818 8.7847471
0.67178088 0.59102738 8.3022232
0.92646837 0.91460693 5.0498405
0.88812017 0.88496351 3.4636762
1.5467612 1.5496491 4.5909829
1.7524558 1.7611909 4.1341095
1.6555407 1.667842 3.1865389
2.3799145 2.4017117 3.7437081
2.86989 2.9154165 4.099966
2.6029608 2.6470175 3.0758038
3.6643555 3.7302368 3.5128782
6.6946645 6.8197289 5.0889649
7.8664031 7.9687452 10.054143
3.6402471 3.6914995 3.8585722
4.0224824 4.0819478 3.453265
7.2600856 7.3750777 4.8715353
0.082349665 0.032510418 8.7239418
0.95466578 0.91958028 8.4267979
0.77356261 0.75479221 5.2195725
2.0219932 1.9991244 9.1371794
1.514437 1.5140761 3.9917724
1.5306834 1.5345633 3.2559757
1.8035465 1.8118593 3.1374109
0.40204725 0.32542676 8.7847471
0.67383981 0.58867884 8.3022232
0.93234855 0.91400671 5.0643587
0.89979154 0.89035332 3.4965255
1.5444442 1.5365639 4.5684767
1.7105949 1.7071654 4.0231953
1.6613525 1.6620529 3.1865389
2.3834941 2.3885901 3.7363579
2.9001348 2.9256427 4.1280026
2.6258788 2.6517439 3.0914962
3.8537951 3.8957839 3.6773663
6.7215438 6.799469 5.0912838
7.9152303 7.9624214 10.080747
3.8382397 3.8651962 4.0498776
4.0397434 4.0709419 3.4557984
7.2985659 7.3625832 4.8799276
0.082462646 0.03222277 8.7239418
0.95674664 0.91516858 8.4169197
0.77472967 0.75067061 5.2097826
2.0289593 1.992054 9.1371794
1.584532 1.5665976 5.3089299
1.5129141 1.5020313 3.974216
1.5380251 1.5311961 3.2601087
1.8143986 1.8100799 3.1450858
0.40318072 0.32402134 8.7847471
0.67589062 0.58632308 8.3022232
0.89550775 0.87995112 3.468369
1.5482497 1.5296334 4.5639753
1.7295111 1.7140342 4.0530567
1.6692817 1.658367 3.1905289
2.3918176 2.3802557 3.7363579
2.9178882 2.9230733 4.1385164
2.6323707 2.6398053 3.0883577
3.8732724 3.8882327 3.6828492
7.942976 7.9347439 10.080747
3.9374523 3.9375186 4.1381726
3.9564207 3.9592392 3.3747365
4.1370435 4.1443148 2.7944636
0.082574621 0.031934723 8.7239418
0.95599061 0.90807867 8.3823442
0.77514362 0.74584454 5.195097
2.0359004 1.9849596 9.1371794
1.5858084 1.5569512 5.2951226
1.50962 1.4883343 3.9522705
1.5533669 1.5357099 3.2807736
1.8252599 1.8082469 3.152761
0.40430933 0.32261202 8.7847471
0.67793316 0.58396024 8.3022232
0.89610332 0.87440979 3.4589834
1.5582418 1.5287933 4.5774794
1.7373426 1.709816 4.057323
1.6772054 1.6546464 3.1945188
7.3172269 7.2791028 10.222408
2.6498432 2.63884 3.0977728
3.9993527 3.986867 3.7870247
4.0748796 4.0649829 3.0994346
7.9361653 7.872786 10.037516
3.8163724 3.7898879 3.9998438
3.9029462 3.8785553 3.3190067
4.1482663 4.1266475 2.7923656
0.082685597 0.031646289 8.7239418
0.95858932 0.90420318 8.3774061
0.7755332 0.74102455 5.1804109
2.0428166 1.9778409 9.1371794
1.5674517 1.5282228 5.2168798
1.5113831 1.4797049 3.9434922
1.5647424 1.5361921 3.2931724
1.8361309 1.8063602 3.1604359
0.405433 0.32119876 8.7847471
0.6799674 0.58159024 8.3022232
1.638388 1.5725982 8.7810364
0.89791065 0.87007576 3.4542906
1.5651281 1.5248637 4.5819802
1.7507614 1.7110322 4.0743866
1.6851236 1.6508902 3.1985087
2.0163867 1.9788303 3.1409814
7.3222947 7.2334661 10.194372
4.0013585 3.9611156 3.7760589
4.1331029 4.0943799 3.1318977
7.0791435 7.0176725 4.1156716
7.9689178 7.8502755 10.044167
3.4151444 3.3678558 3.5760288
3.9287348 3.8770196 3.3291395
4.1594172 4.1089525 2.7902672
0.082837462 0.031369638 8.728941
0.96060514 0.89978945 8.367527
0.77663755 0.73691171 5.1706204
2.0497084 1.970698 9.1371794
1.5699692 1.5200243 5.2076745
1.497649 1.4560568 3.8952124
1.5821851 1.5425066 3.31797
1.8470106 1.8044195 3.1681111
0.40632418 0.3196038 8.7797556
0.68199342 0.57921314 8.3022232
1.6447774 1.5677367 8.7858763
0.89845502 0.86454344 3.444905
1.5641828 1.5133367 4.5639753
1.7548518 1.7030941 4.0701203
1.6951957 1.6492003 3.2064888
2.0427058 1.9907081 3.1703827
2.8566885 2.8024511 4.0123525
3.609653 3.5447934 4.1617098
3.7259173 3.662786 3.5101368
7.15976 7.0482068 4.1475129
3.4642339 3.388957 4.3974671
3.4153283 3.3446021 3.5642562
3.9176128 3.8391447 3.3088739
0.082946457 0.031080291 8.728941
0.96317106 0.8959018 8.3625879
0.77772254 0.73280013 5.16083
2.0565748 1.9635311 9.1371794
1.5837162 1.5226585 5.2352896
1.4941069 1.442503 3.8732669
1.613844 1.5624188 3.3716984
1.8555986 1.800193 3.1719484
0.40743735 0.31818354 8.7797556
0.6840111 0.57682908 8.3022232
1.6484138 1.5602579 8.7761974
0.91144991 0.87093812 3.4824471
1.602424 1.5395381 4.6585007
1.7570302 1.693339 4.0615888
1.7031095 1.6453665 3.210479
2.1324732 2.0637226 3.2953384
2.0949907 2.0409362 2.9539797
3.6136446 3.524019 4.1522942
7.283771 7.1203918 4.2037039
3.2698255 3.1765165 4.1414037
3.3951068 3.3016622 3.5318813
0.083054446 0.030790564 8.728941
0.9662925 0.89253432 8.3625879
0.77878833 0.72868997 5.1510396
2.0634162 1.9563404 9.1371794
1.5819557 1.5103757 5.2122769
1.5216086 1.4588246 3.930325
1.6030587 1.5411743 3.3386347
1.8664879 1.7981522 3.1796236
0.40854552 0.31675938 8.7797556
0.68602043 0.57443792 8.3022232
1.6556821 1.556216 8.7858763
0.92450029 0.87725258 3.5199893
1.6581937 1.5820198 4.8025398
1.7422032 1.6673605 4.0146632
1.7110168 1.6414974 3.214469
2.1396639 2.0562661 3.2953384
2.1046653 2.0360904 2.9574842
3.6259236 3.5113833 4.1522942
3.6643312 3.5522823 3.4306343
4.1789317 4.0539589 3.1342165
2.2140722 2.1359444 2.8211801
3.3833506 3.2673287 3.5083361
0.083161421 0.03050046 8.728941
0.96882927 0.88863081 8.3576488
0.78505778 0.72943139 5.1755161
2.0669723 1.9460566 9.1228638
1.581547 1.4994684 5.1938667
1.5388342 1.4650637 3.9610486
2.1987135 2.0990667 4.53719
1.8750694 1.7938416 3.1834612
0.4098781 0.3155067 8.7847471
0.68802142 0.57203972 8.3022232
1.6601852 1.5495695 8.7810364
0.92881286 0.87520337 3.5246823
1.6320978 1.5462793 4.7125158
1.7215453 1.636117 3.9549406
1.7210999 1.6396717 3.2224488
2.0781555 1.9832509 3.1924336
3.001611 2.8835602 4.1700573
3.5848532 3.4474442 4.0926638
4.0803738 3.928061 3.7979906
4.2249599 4.0700803 3.1574047
2.2215145 2.1282029 2.8211801
2.9337921 2.8134704 3.0433166
4.066462 3.9023769 3.3975353
7.707674 7.4095249 3.8102438
0.083267376 0.030209988 8.728941
0.97192532 0.88524354 8.3576488
0.78086239 0.72047436 5.1314588
2.0683002 1.933733 9.0990028
1.5867715 1.4939387 5.1938667
1.5665643 1.4810716 4.0181065
2.2182803 2.1029947 4.5619874
1.8813198 1.7872854 3.1834612
0.41097692 0.31407407 8.7847471
0.690014 0.56963456 8.3022232
1.6655841 1.5437648 8.7810364
0.92682129 0.86724031 3.5059111
1.6121154 1.5167071 4.6404958
1.6551677 1.5620795 3.792835
1.729002 1.6357247 3.226439
2.0112431 1.9060276 3.0821788
3.1871274 3.0404544 4.4083662
3.5743458 3.4134047 4.0675559
4.0819702 3.9022367 3.7870247
4.2487445 4.0644937 3.164361
2.872777 2.7329204 3.6126492
2.9201784 2.7809131 3.0197713
4.1050248 3.9119499 3.4178007
4.1845198 3.9918771 2.7608948
7.7403231 7.3890967 3.8135309
0.083372325 0.029919147 8.728941
0.97500944 0.88184547 8.3576488
2.0673797 1.9193926 9.0655994
1.542025 1.4416959 5.0327783
1.5717248 1.4755942 4.0181065
2.2256076 2.0952387 4.5619874
1.8898784 1.782907 3.1872983
0.41207075 0.31263754 8.7847471
0.69158554 0.56688511 8.2972517
1.6700377 1.5370904 8.7761974
0.92099255 0.8557784 3.4730618
1.5776293 1.473919 4.5279655
1.6111311 1.5099258 3.6819205
1.7390935 1.6338056 3.2344191
2.0573859 1.9361683 3.1409814
7.487709 7.0932488 10.2154
3.4958611 3.3152015 3.9671257
4.3303518 4.1137085 3.2130558
2.8741565 2.715184 3.6026728
2.979794 2.8179154 3.0698051
4.0184603 3.8027809 3.3367388
4.2050185 3.9834883 2.7650907
7.7249436 7.3230481 3.7938092
0.083476253 0.02962794 8.728941
0.97750348 0.87791771 8.3527088
0.75272626 0.68486518 4.9160686
2.0565062 1.8959768 8.9892473
1.6272308 1.5107366 5.2905202
1.5698586 1.4635668 4.0005503
2.1630139 2.0221202 4.4214673
1.8960904 1.7762992 3.1872983
0.41339076 0.31137022 8.7897396
0.69356012 0.56446761 8.2972517
1.6753931 1.5312515 8.7761974
0.91509521 0.84436798 3.4402122
1.5699967 1.4565591 4.4919558
1.6011178 1.4900793 3.6477933
1.7491927 1.6318359 3.2423992
2.0963328 1.9590657 3.1887586
7.4864478 7.0426335 10.180354
3.0533206 2.8783674 2.8357363
4.3253503 4.0803289 3.1991429
2.9190173 2.7383432 3.6459041
3.1280975 2.9375432 3.2081339
3.940609 3.7031214 3.2632766
2.6255376 2.469902 1.7538295
0.083536975 0.029325232 8.7239418
0.98056209 0.87450022 8.3527088
0.59943306 0.54166514 3.9076519
2.0487981 1.8756843 8.9272127
1.6798977 1.5487438 5.4424033
1.5661699 1.4499431 3.9786048
2.0545654 1.9073465 4.190022
1.9046263 1.7718529 3.1911359
0.41447511 0.30992532 8.7897396
0.6955263 0.56204319 8.2972517
1.680728 1.5253941 8.7761974
0.91549206 0.83883727 3.4308267
1.570268 1.4466451 4.4784522
1.6063094 1.4844812 3.6477933
1.7592994 1.6298156 3.2503791
2.1205537 1.9678783 3.2144847
7.4953489 7.0018511 10.159327
3.0498335 2.8520584 3.44928
3.1244018 2.9248435 2.8905654
4.3524985 4.0773196 3.2084181
3.0466921 2.84115 3.1168957
2.6308265 2.457624 1.7517314
0.083638825 0.029033456 8.7239418
0.98360866 0.87107211 8.3527088
0.74990809 0.67279625 4.8671165
2.0398688 1.8544647 8.860404
1.6233273 1.4861485 5.2444944
1.5747482 1.447709 3.9873831
1.9432739 1.7914484 3.9544442
1.9107994 1.7651937 3.1911359
0.41555443 0.30847666 8.7897396
0.6974839 0.55961192 8.2972517
1.6851084 1.5186765 8.7713585
0.91969115 0.83679765 3.4355197
1.59619 1.4602563 4.5369682
1.6114815 1.4788651 3.6477933
1.7694131 1.6277446 3.2583592
2.1149447 1.9489775 3.1961088
7.5432758 6.9974732 10.190867
3.0997016 2.8784757 3.4932184
3.1652184 2.9423888 2.9179802
4.3667049 4.0621018 3.2084181
2.3542504 2.1778488 2.9375727
2.3981967 2.220818 2.4635143
2.6260798 2.4360793 1.7433392
0.083739661 0.028741326 8.7239418
0.98664325 0.8676334 8.3527088
0.61156511 0.54491502 3.9614995
2.0463295 1.8473328 8.860404
1.5822436 1.4384224 5.0972137
1.5992498 1.4599644 4.0356631
1.9142283 1.7523534 3.8841841
1.9193115 1.7606797 3.1949735
0.41639569 0.30685368 8.7847471
0.69943303 0.55717385 8.2972517
1.691336 1.5136232 8.7761974
0.92260641 0.83358228 3.4355197
1.6963509 1.5410342 4.8025398
1.6282003 1.4837705 3.6733885
1.7817588 1.6276549 3.2703295
2.1417434 1.9598918 3.2255101
3.1688845 2.919131 4.3137436
3.1869891 2.9388807 3.5779567
4.2539535 3.9296079 3.117985
2.3618381 2.1696177 2.9375727
2.3999834 2.2069614 2.4576278
3.4938326 3.2150483 2.8757002
2.624553 2.4176731 1.737045
8.7361183 8.0530262 4.2244081
0.083839484 0.028448844 8.7239418
0.98966587 0.86418402 8.3527088
0.611175 0.54075366 3.9468138
2.0549886 1.8421713 8.8699484
1.5466479 1.396238 4.9683433
1.6238558 1.4720662 4.0839429
1.8328757 1.666164 3.7106001
1.9278153 1.7561278 3.1988111
0.41746429 0.30539832 8.7847471
0.70179218 0.55505913 8.3022232
1.6937904 1.5052056 8.7616796
0.92551064 0.83035666 3.4355197
1.7485986 1.5773875 4.933075
1.7963569 1.6295234 3.2862895
2.1410446 1.9455644 3.2144847
3.1501086 2.8815739 4.2751937
3.43262 3.1432838 3.8353105
4.2244453 3.8724043 3.8418543
4.2480578 3.8967679 3.1040723
3.0590322 2.7904217 3.7689478
3.5082164 3.2057409 2.8782337
8.7363091 7.9969745 4.2112603
0.083938278 0.028156016 8.7239418
0.99267638 0.86072421 8.3527088
0.61305892 0.53861701 3.9468138
2.0591764 1.833002 8.860404
1.545693 1.385615 4.9499331
1.6289845 1.4663888 4.0839429
1.817791 1.6409007 3.6692705
1.9363105 1.7515378 3.2026484
0.41852778 0.30393922 8.7847471
0.70372546 0.55260605 8.3022232
1.6990341 1.499284 8.7616796
0.92840344 0.82712096 3.4355197
1.793012 1.606132 5.0411043
1.7937168 1.6118139 4.0146632
1.8154675 1.6353427 3.3102293
2.1251698 1.9176389 3.1814082
3.1522288 2.8633673 4.2646799
3.7229106 3.3852837 4.1397405
4.2997808 3.913928 3.8966835
4.2616343 3.881916 3.1040723
4.3047581 3.9033799 4.3147621
3.4938457 3.1703017 2.8579681
4.0993886 3.723665 2.6475999
8.79562 7.9950166 4.2260518
0.084078424 0.027873248 8.728941
0.99567479 0.85725385 8.3527088
0.62337798 0.54383355 4.0006614
2.0666809 1.8267913 8.8651762
1.553439 1.3828087 4.9591379
1.6376644 1.4638857 4.092721
1.8737997 1.6796223 3.7684612
1.9447975 1.74691 3.206486
0.41958615 0.30247647 8.7847471
0.70565009 0.55014622 8.3022232
1.7080392 1.4966573 8.7810364
0.93257767 0.82501847 3.4402122
1.8262606 1.6244582 5.1176248
1.7973861 1.6038065 4.0103974
1.8503625 1.6551104 3.3620996
2.1167014 1.8966354 3.1593573
3.1065931 2.8021855 4.1910844
3.1338115 2.8296995 3.4869416
4.2225943 3.8194709 3.0669715
3.2921934 2.9612613 4.0250111
4.2432628 3.820714 4.2411833
3.4344347 3.0946031 2.8022382
4.1662831 3.7579694 2.6811688
8.8024416 7.9452815 4.2161908
0.084175207 0.027579589 8.728941
0.9992519 0.85427779 8.3576488
0.61988354 0.53698945 3.9663947
2.0786545 1.8244894 8.8890362
1.640973 1.4565704 4.0883317
1.9069779 1.6973928 3.8221896
1.9556676 1.7443777 3.2141612
0.4208748 0.30117723 8.7897396
0.70714426 0.54735392 8.2972517
0.78765535 0.68550855 4.0577583
0.93545181 0.82175809 3.4402122
1.8286566 1.6151913 5.1086221
1.7795482 1.5767686 3.9592061
1.9237174 1.7086707 3.4818006
2.1005137 1.8689539 3.1262808
3.1508901 2.8222561 4.2366438
3.6218398 3.2474797 4.004787
4.3799009 3.9312968 3.9432886
8.8167849 7.9247842 4.877996
3.30251 2.9497514 4.0250111
4.1691895 3.7277489 4.1558313
3.4291525 3.0682235 2.7895722
4.1928988 3.7555156 2.6895609
8.8512201 7.9334173 4.2260518
0.084270969 0.027285594 8.728941
1.0022278 0.85078454 8.3576488
0.62175417 0.5348224 3.9663947
2.105267 1.8348745 8.9749317
1.4866987 1.3049203 4.7198071
1.6352668 1.4413325 4.0619974
1.9318683 1.7074975 3.8593862
1.964144 1.7396656 3.2179983
0.42192352 0.29970625 8.7897396
0.7090506 0.54488218 8.2972517
0.79194599 0.68439829 4.0674376
0.93831456 0.81848776 3.4402122
1.7982758 1.5772204 5.0095959
1.7243398 1.5171447 3.8269625
2.0042474 1.7677172 3.6134713
2.0968623 1.8526319 3.1115801
3.1527281 2.8041301 4.22613
3.7901342 3.3745837 4.1742635
4.3873544 3.9104197 3.9378054
3.6739268 3.2768474 2.6635003
8.8132648 7.8661761 4.8611383
3.3127863 2.9382052 4.0250111
4.2698331 3.7909977 4.2411833
3.4333971 3.0505087 2.7845061
4.2059822 3.7408566 2.6895609
8.8823872 7.9056125 4.2276955
0.084323213 0.026981311 8.7239418
1.0045972 0.84678042 8.3527088
0.62129384 0.53066581 3.9517088
2.1364925 1.8490031 9.079916
1.1760494 1.0250509 3.7348666
1.6186604 1.4166887 4.0093288
1.9335867 1.6970315 3.8511205
1.9750185 1.7370324 3.2256734
0.42296714 0.29823166 8.7897396
0.71094829 0.54240382 8.2972517
0.79433012 0.68162966 4.0674376
0.94116592 0.81520742 3.4402122
1.7430273 1.5180373 4.843051
1.7040918 1.4888107 3.7715054
2.0149398 1.764681 3.6214516
2.1007679 1.8430655 3.1079049
3.1999192 2.826158 4.2751937
3.8077228 3.3664892 4.1805406
4.2694654 3.7786884 3.8226638
3.638916 3.2228847 2.631037
3.3426368 2.9438977 4.0482893
4.2800078 3.7733972 4.2382402
4.3038917 3.7971141 3.4583316
4.2156129 3.7231481 2.6874628
8.9205437 7.8839402 4.232626
0.084416881 0.026686804 8.7239418
1.0075469 0.84326851 8.3527088
0.62314242 0.52849388 3.9517088
2.1395371 1.8386157 9.0655994
1.5964787 1.3874657 3.9434922
1.950106 1.6995152 3.8717849
1.9883125 1.7364526 3.237186
0.42400557 0.29675344 8.7897396
0.71283728 0.53991884 8.2972517
0.79957545 0.68129772 4.0819554
0.94269729 0.81079209 3.4355197
1.7269087 1.493433 4.7845349
4.236908 3.6754458 9.2446985
2.0188136 1.7556593 3.6174614
2.1123011 1.8401749 3.1152554
7.7437587 6.7911782 10.201382
3.8662517 3.394264 4.2307558
4.3108974 3.7886052 3.847337
3.6900611 3.2452681 2.6588626
3.6170921 3.1632569 4.3608866
4.1806264 3.6599243 4.129343
4.2354078 3.714395 2.691659
8.9515581 7.8558683 4.2342691
0.084509522 0.026391972 8.7239418
1.0098866 0.83924997 8.3477697
0.6242044 0.52565992 3.9468138
2.1379931 1.8243541 9.032196
1.1772497 1.0117227 3.7164567
1.5994989 1.3803198 3.9391036
1.9985857 1.7295246 3.9544442
1.999205 1.7337013 3.2448611
0.42503884 0.29527155 8.7897396
0.71471763 0.53742725 8.2972517
0.80002922 0.67687929 4.0722771
0.94420934 0.80637604 3.4308267
1.708988 1.4675418 4.721518
4.2378559 3.6504214 9.2191029
2.0408943 1.7623869 3.6453915
2.1212754 1.8350081 3.1189303
7.7109394 6.7149239 10.127786
4.3051929 3.7570384 3.8308885
3.6813469 3.2148848 2.6449499
3.6252928 3.1481633 4.3575611
3.7357955 3.2475398 3.6878691
4.3107805 3.7499993 3.4431324
4.2483478 3.6995881 2.691659
8.9896059 7.8338809 4.2392001
0.084643714 0.026106328 8.728941
1.01281 0.8357197 8.3477697
0.62525409 0.52282494 3.9419184
2.1375146 1.8110908 9.0035639
1.1763153 1.003803 3.7026489
1.6043074 1.3747282 3.9391036
1.9896703 1.7097005 3.9255133
2.0101023 1.730895 3.2525358
0.42606696 0.29378608 8.7897396
0.71658921 0.53492916 8.2972517
0.80238712 0.67408258 4.0722771
0.94438577 0.80084342 3.4214413
4.2366986 3.6237404 9.1892414
2.0584714 1.7650589 3.6653416
2.1328115 1.8320104 3.1262808
7.7505169 6.7019615 10.148813
3.9251685 3.3977587 4.2684169
3.685853 3.1962106 2.6403122
3.6815031 3.1745014 4.410769
4.1601787 3.5910318 4.0851955
4.3075333 3.7208395 3.4304667
4.2543697 3.6787989 2.6874628
9.0204678 7.8055439 4.2408433
0.35652596 0.30874404 0.20446785
0.084734336 0.025810707 8.728941
1.0151198 0.83168697 8.3428307
0.62707525 0.52063924 3.9419184
2.1495349 1.8084229 9.0274239
1.1842841 1.0034794 3.7164567
1.6036239 1.3644639 3.925936
1.9977669 1.7045712 3.9296465
2.0234408 1.7301167 3.2640488
0.42685106 0.29213476 8.7847471
0.7184521 0.53242457 8.2972517
0.80376977 0.67047268 4.0674376
0.94585526 0.79643071 3.4167485
1.7341453 1.4682344 4.7620287
4.2413702 3.6021764 9.1721773
2.0692089 1.7617697 3.673322
2.1546698 1.8377538 3.1483316
3.2093041 2.7556498 4.2366438
3.9281497 3.3764255 4.2590017
4.5531898 3.9177992 4.0227909
3.6835599 3.1717634 2.631037
4.6364594 3.9950638 2.5610542
3.6925616 3.1616313 4.410769
4.4059305 3.776401 4.3088756
4.3924809 3.7675238 3.4861965
7.7277923 6.6352677 4.7960057
9.072731 7.7955508 4.2523479
0.37971485 0.32651144 0.21150175
0.084823914 0.025514774 8.728941
1.0180168 0.82813847 8.3428307
0.62888879 0.51844716 3.9419184
1.088086 0.9090817 4.5799346
1.1862845 0.99808168 3.711854
1.6065474 1.3573124 3.9215472
1.9865278 1.6830356 3.8965828
2.0343544 1.7271918 3.2717235
0.42786819 0.29064298 8.7847471
0.72030622 0.52991349 8.2972517
