# .PCD v0.7 - Point Cloud Data file format
VERSION 0.7
FIELDS x y z
SIZE 4 4 4
TYPE F F F
COUNT 1 1 1
WIDTH 1452
HEIGHT 1
VIEWPOINT 0 0 0 1 0 0 0
POINTS 1452
DATA ascii
-0.85372347 0.59620845 0.39601701
-0.84997356 0.59315461 0.28825498
-0.82496655 0.57528424 0.18323873
-0.91290897 0.64224827 1.0752926
-0.88180977 0.61968964 0.86832118
-0.87637419 0.61542195 0.71489882
-0.87778002 0.61573267 0.58311623
-0.85889447 0.60204649 0.45419851
-0.84810531 0.59405142 0.34045666
-0.82742763 0.5793584 0.23309669
-0.81847662 0.57267463 0.13397159
-0.045675635 0.075893581 8.728941
-1.1007186 0.81666172 8.713275
-1.3206239 0.96687609 7.8923669
-0.814439 0.58778667 3.2580953
-0.96163839 0.68904066 2.8465796
-1.0258285 0.73184109 2.3765912
-1.0003127 0.71155691 1.8755709
-0.93467492 0.66340786 1.448909
-0.38451847 0.34032586 8.7198553
-0.71117252 0.58335096 8.5358829
-1.4718628 1.0722085 7.0485229
-0.9076975 0.65467727 3.0976403
-1.0044353 0.72027016 2.6194508
-1.0389217 0.74256873 2.158982
-0.95416474 0.68024361 1.6264393
-0.92627615 0.65915859 1.3107494
-0.91780543 0.64856505 1.1841838
-0.89604741 0.63249737 0.96676093
-0.88346189 0.62293243 0.79334384
-0.88113111 0.62083793 0.65078193
-0.8687228 0.61165029 0.51757544
-0.85163713 0.59918493 0.39601701
-0.84789789 0.59611797 0.28825498
-0.82295346 0.57816041 0.18323873
-0.91370767 0.64759016 1.078618
-0.88294011 0.62509966 0.87126434
-0.87422061 0.61847734 0.71489882
-0.87562537 0.61879289 0.58311623
-0.860645 0.6077649 0.45584202
-0.84999782 0.59981078 0.34162897
-0.82540017 0.58224308 0.23309669
-0.82055598 0.57840645 0.13417313
-0.045410439 0.076052561 8.728941
-1.0991058 0.82142973 8.7231531
-1.3172408 0.97148007 7.8923669
-0.81117511 0.58974797 3.2533233
-0.95922738 0.69239324 2.8465796
-1.0252124 0.73681545 2.3809803
-1.0023973 0.71832299 1.8838367
-0.9349606 0.66853094 1.4527465
-0.3833282 0.34166601 8.7198553
-0.71364796 0.58956987 8.5905704
-1.4721644 1.0803149 7.0678806
-0.90680259 0.65885627 3.1023331
-1.0036795 0.72504693 2.6239522
-1.0405561 0.74923885 2.1675138
-0.95423168 0.68532795 1.6304293
-0.92672467 0.66436327 1.3144246
-0.91844112 0.65383327 1.1876884
-0.89700603 0.63787717 0.96989942
-0.88469088 0.62843412 0.7960853
-0.87895864 0.62390983 0.65078193
-0.87036353 0.61736107 0.51944846
-0.85345399 0.60492808 0.39742702
-0.8458119 0.59907407 0.28825498
-0.8249951 0.58390653 0.18368581
-0.91448021 0.65294546 1.0819435
-0.88404346 0.63052511 0.8742075
-0.87556684 0.62402719 0.71743202
-0.87715715 0.62447792 0.58521426
-0.85851818 0.6107654 0.45584202
-0.8478989 0.60277414 0.34162897
-0.82739931 0.58798933 0.23378737
-0.82260543 0.58415991 0.13437465
-0.045125496 0.076171413 8.7239418
-1.0968524 0.82572883 8.7280931
-1.3138417 0.97607213 7.8923669
-0.8091116 0.59257591 3.2533233
-0.95838451 0.69688642 2.851182
-1.0245739 0.74179417 2.3853693
-1.0021652 0.72346485 1.8879696
-0.93522185 0.67366397 1.4565841
-0.38234743 0.34319556 8.7248468
-0.70872015 0.58966738 8.5557699
-1.4754591 1.0906783 7.1017566
-0.90588963 0.663037 3.1070261
-1.0029026 0.72982711 2.6284533
-1.0400454 0.75439805 2.1717799
-0.95671594 0.69218755 1.6384094
-0.92714822 0.66957909 1.3180997
-0.91905111 0.65911376 1.191193
-0.89477396 0.64100438 0.96989942
-0.88249183 0.63151848 0.7960853
-0.88037866 0.62955105 0.65310073
-0.87197512 0.62309086 0.52132148
-0.85133725 0.60790354 0.39742702
-0.84771425 0.60487604 0.28918761
-0.82295185 0.58678275 0.18368581
-0.9152264 0.65831399 1.0852691
-0.88511962 0.63596582 0.87715065
-0.87688476 0.62959397 0.71996522
-0.87497193 0.62753594 0.58521426
-0.86021924 0.61650944 0.45748553
-0.8497414 0.60856032 0.3428013
-0.82534182 0.59087396 0.23378737
-0.82462448 0.58993459 0.13457619
-0.044859335 0.076328464 8.7239418
-1.0945824 0.83002216 8.7330322
-1.3104265 0.98065239 7.8923669
-0.80583715 0.5945102 3.2485511
-0.95752203 0.70138228 2.8557847
-1.025848 0.74818903 2.3941474
-1.0041852 0.73026913 1.8962357
-0.93805277 0.68068969 1.464259
-0.38114715 0.34452811 8.7248468
-0.70788199 0.59316617 8.5706835
-1.4686188 1.0935695 7.0872383
-0.90495849 0.6672194 3.1117187
-1.0003489 0.73332345 2.6284533
-1.0395114 0.75956279 2.1760459
-0.95672894 0.69729787 1.6423994
-0.92754668 0.674806 1.321775
-0.91963542 0.66440648 1.1946975
-0.8956871 0.64640176 0.97303784
-0.88367391 0.6370405 0.79882681
-0.87817568 0.63262028 0.65310073
-0.87355715 0.62883937 0.52319455
-0.85310417 0.61367279 0.39883706
-0.84559768 0.60783148 0.28918761
-0.82494318 0.59255713 0.18413289
-0.91292292 0.66150475 1.0852691
-0.88616836 0.64142168 0.88009381
-0.8781746 0.63517761 0.72249836
-0.87645483 0.6332444 0.58731234
-0.85806197 0.61950845 0.45748553
-0.84761196 0.61152279 0.3428013
-0.82327425 0.59375131 0.23378737
-0.82256025 0.5928095 0.13457619
-0.044592626 0.076484591 8.7239418
-1.0916784 0.83383793 8.7330322
-1.3078084 0.98583376 7.8972621
-0.80375701 0.59731942 3.2485511
-0.95506793 0.70472038 2.8557847
-1.0251601 0.7531836 2.3985367
-1.0084398 0.73875946 1.9086344
-0.93825859 0.68585169 1.4680965
-0.37994218 0.34585649 8.7248468
-0.70540011 0.59528923 8.565712
-1.483896 1.1130221 7.1791873
-0.90262395 0.67037427 3.1117187
-0.99953419 0.73810422 2.6329546
-1.0389539 0.7647329 2.1803117
-0.95914662 0.70420021 1.6503794
-0.92791975 0.68004376 1.3254501
-0.92019397 0.66971129 1.198202
-0.89657342 0.65181327 0.97617632
-0.88144487 0.64012122 0.79882681
-0.87954718 0.63828367 0.65541953
-0.87135679 0.63188487 0.52319455
-0.85095686 0.61664695 0.39883706
-0.84744942 0.61366051 0.29012021
-0.82286978 0.59543306 0.18413289
-0.91362393 0.66688889 1.0885946
-0.88392401 0.64451104 0.88009381
-0.87595201 0.63823915 0.72249836
-0.87790847 0.63897085 0.58941036
-0.85589421 0.62249976 0.45748553
-0.84940398 0.6173355 0.34397361
-0.82520294 0.59953225 0.23447806
-0.82452875 0.59861231 0.13477771
-0.044325374 0.076639786 8.7239418
-1.0887611 0.83764356 8.7330322
-1.3043593 0.99039286 7.8972621
-0.80047232 0.59922671 3.2437794
-0.95260227 0.70804989 2.8557847
-1.0244497 0.75818235 2.4029255
-1.010383 0.74561721 1.9169004
-0.93843961 0.69102329 1.4719341
-0.37873259 0.3471806 8.7248468
-0.70372361 0.59809369 8.5706835
-1.4890269 1.1250159 7.2227421
-0.90027839 0.67352092 3.1117187
-0.99869823 0.74288833 2.6374559
-1.0383731 0.76990843 2.1845777
-0.95910525 0.70933586 1.6543695
-0.92826766 0.68529236 1.3291253
-0.91785061 0.67291933 1.198202
-0.89429271 0.65493894 0.97617632
-0.88257968 0.64566308 0.80156827
-0.87731379 0.64134997 0.65541953
-0.87288916 0.63765728 0.52506757
-0.85267371 0.62244207 0.4002471
-0.84927076 0.61950994 0.29105285
-0.82078636 0.59830177 0.18413289
-0.91429853 0.67228603 1.09192
-0.88492644 0.64998555 0.88303697
-0.87719387 0.64384365 0.72503155
-0.8756727 0.64203143 0.58941036
-0.85752523 0.62827456 0.45912904
-0.84724396 0.62029666 0.34397361
-0.82310516 0.60240906 0.23447806
-0.82243413 0.60148674 0.13477771
-0.044057582 0.076794043 8.7239418
-1.0864446 0.84191501 8.7379713
-1.3017029 0.99555856 7.9021573
-0.79837573 0.60201722 3.2437794
-0.95012486 0.71137077 2.8557847
-1.0217969 0.76175374 2.4029255
-1.0145491 0.7541765 1.9292994
-0.93859607 0.6962046 1.4757715
-0.37751839 0.34850052 8.7248468
-0.70203614 0.60089356 8.575655
-1.4960924 1.1385816 7.2759757
-0.89654386 0.67562062 3.1070261
-0.99609894 0.7463699 2.6374559
-1.0377686 0.77508903 2.1888437
-0.95903963 0.7144798 1.6583595
-0.92859012 0.69055164 1.3328004
-0.9183647 0.67823786 1.2017065
-0.8951332 0.66036749 0.97931474
-0.88368648 0.65122068 0.80430973
-0.87863666 0.64703536 0.65773833
-0.87065804 0.6407004 0.52506757
-0.85436034 0.62825662 0.40165716
-0.85106152 0.6253795 0.29198545
-0.82270688 0.60411078 0.18457997
-0.9149465 0.67769593 1.0952456
-0.88590145 0.6554749 0.88598019
-0.8784073 0.64946473 0.72756475
-0.87707698 0.6477806 0.59150839
-0.85532689 0.63126403 0.45912904
-0.84898531 0.62613541 0.34514591
-0.82498324 0.60821724 0.23516873
-0.82435179 0.60731721 0.13497925
-0.043807756 0.076986887 8.728941
-1.0834991 0.84570235 8.7379713
-1.2925743 0.99574554 7.8678908
-0.7950809 0.60389727 3.2390072
-0.9491955 0.71585953 2.8603871
-1.0210468 0.76675427 2.4073148
-1.0164151 0.76108712 1.9375652
-0.93872762 0.70139527 1.479609
-0.37629959 0.3498162 8.7248468
-0.70033777 0.60368901 8.5806274
-1.500089 1.1499158 7.3146915
-0.89418006 0.67874599 3.1070261
-0.99522495 0.75115389 2.641957
-1.0371407 0.78027493 2.1931098
-0.96135968 0.72144073 1.6663395
-0.92888719 0.6958214 1.3364756
-0.91885275 0.68356818 1.2052112
-0.89282262 0.66348803 0.97931474
-0.88140798 0.65430129 0.80430973
-0.87637269 0.65009844 0.65773833
-0.86841625 0.64373565 0.52506757
-0.85216218 0.63123506 0.40165716
-0.85282147 0.63126898 0.29291809
-0.82459682 0.60994035 0.18502705
-0.91556776 0.68311852 1.0985711
-0.88360804 0.65856332 0.88598019
-0.87613487 0.65252697 0.72756475
-0.87481046 0.65083826 0.59150839
-0.85690773 0.63706326 0.46077254
-0.85069627 0.63199383 0.34631824
-0.82683074 0.61404574 0.23585941
-0.82222688 0.61019105 0.13497925
-0.043538753 0.077139333 8.728941
-1.0805404 0.84947932 8.7379713
-1.2866776 0.99837834 7.8532047
-0.7917828 0.60576177 3.2342353
-0.94824636 0.72035044 2.8649898
-1.0202739 0.77175868 2.4117036
-1.0159987 0.76632506 1.9416981
-0.93883443 0.70659542 1.4834466
-0.37507623 0.35112759 8.7248468
-0.69862837 0.60647988 8.5855989
-1.5050191 1.16206 7.3582458
-0.89180535 0.68186319 3.1070261
-0.99259681 0.75462335 2.641957
-1.0364891 0.78546578 2.1973755
-0.96123922 0.72660929 1.6703296
-0.92915869 0.70110178 1.3401507
-0.9193148 0.68891019 1.2087157
-0.89361703 0.66893321 0.98245323
-0.88246739 0.65987825 0.80705118
-0.87764663 0.65580535 0.66005719
-0.86987847 0.64953685 0.52694058
-0.85379821 0.63707471 0.4030672
-0.85455078 0.63717842 0.29385069
-0.82645607 0.61579043 0.18547413
-0.91616237 0.68855369 1.1018965
-0.88453609 0.66407055 0.88892335
-0.87730002 0.65816844 0.73009789
-0.87616503 0.65660983 0.59360647
-0.86223811 0.64571196 0.46405956
-0.85237646 0.63787174 0.34749055
-0.8246823 0.61692822 0.23585941
-0.82409334 0.61604869 0.13518077
-0.043250993 0.077251196 8.7239418
-1.0775687 0.85324585 8.7379713
-1.2807783 1.0009822 7.8385196
-0.7884813 0.60761052 3.2294633
-0.94882894 0.72603089 2.8741946
-1.0194788 0.77676708 2.4160929
-1.0177985 0.77327192 1.9499639
-0.93891633 0.71180475 1.4872841
-0.37384829 0.35243469 8.7248468
-0.69690794 0.60926616 8.5905704
-1.5098828 1.1742526 7.4018006
-0.88805276 0.68391883 3.1023331
-0.99168497 0.75940734 2.6464584
-1.035814 0.79066169 2.2016416
-0.96349168 0.73361146 1.6783097
-0.92940474 0.70639247 1.3438259
-0.91975069 0.69426364 1.2122202
-0.89438426 0.67439198 0.98559165
-0.88349837 0.66547048 0.80979264
-0.87889135 0.66152894 0.66237599
-0.86760587 0.65256935 0.52694058
-0.85156924 0.64005113 0.4030672
-0.85624915 0.64310753 0.29478332
-0.82828438 0.62166095 0.18592121
-0.91673005 0.69400132 1.105222
-0.88543653 0.66959226 0.89186651
-0.87843627 0.66382581 0.73263109
-0.87748992 0.6623987 0.5957045
-0.86374873 0.65156162 0.46570307
-0.85402608 0.64376909 0.34866288
-0.82647866 0.62278342 0.23655009
-0.82193792 0.61892164 0.13518077
-0.042981073 0.07740169 8.7239418
-1.0745836 0.85700208 8.7379713
-1.2740767 1.0029271 7.8189383
-0.7863555 0.61035913 3.2294633
-0.94783604 0.73053133 2.8787971
-1.0186608 0.78177929 2.4204819
-1.0173279 0.77853042 1.9540969
-0.93897325 0.71702337 1.4911215
-0.37261578 0.35373753 8.7248468
-0.69477695 0.61169517 8.5905704
-1.5117111 1.1841674 7.4308376
-0.88565999 0.68701452 3.1023331
-0.99075162 0.76419407 2.6509595
-1.0371827 0.79745221 2.2101734
-0.9633159 0.73880416 1.6822997
-0.92962497 0.71169335 1.347501
-0.92016041 0.69962859 1.2157247
-0.89512432 0.67986423 0.98873013
-0.88117015 0.66855037 0.80979264
-0.87657684 0.6645928 0.66237599
-0.86901778 0.6583935 0.5288136
-0.85315442 0.64591545 0.40447721
-0.85399902 0.64609253 0.29478332
-0.83008182 0.62755167 0.18636829
-0.91727084 0.69946122 1.1085476
-0.88630915 0.67512834 0.89480966
-0.87954384 0.66949922 0.73516428
-0.87517238 0.66545767 0.5957045
-0.86522895 0.6574297 0.46734658
-0.85564488 0.64968574 0.34983522
-0.82824421 0.62865859 0.23724076
-0.82375294 0.62480605 0.13538231
-0.042710632 0.077551253 8.7239418
-1.0715857 0.86074787 8.7379713
-1.2697703 1.0067354 7.814043
-0.78304434 0.61218065 3.2246914
-0.94836634 0.73623186 2.8880022
-1.0197151 0.78826016 2.42926
-1.0168327 0.78379488 1.9582298
-0.93900508 0.72225094 1.494959
-0.3711707 0.35483584 8.7198553
-0.6926375 0.61411667 8.5905704
-1.5085552 1.1902157 7.4356771
-0.88325649 0.69010192 3.1023331
-0.98979712 0.7689836 2.6554608
-1.0364546 0.80266482 2.2144392
-0.96550006 0.74584675 1.6902797
-0.92981964 0.71700436 1.3511763
-0.92054397 0.70500493 1.2192293
-0.89583695 0.68534982 0.99186856
-0.88215327 0.67416126 0.81253409
-0.87777215 0.67033738 0.66469479
-0.87039959 0.66423553 0.53068668
-0.85089457 0.6488896 0.40447721
-0.84783155 0.64609212 0.29385069
-0.82788622 0.63044542 0.18636829
-0.91778475 0.70493335 1.111873
-0.88394707 0.67821801 0.89480966
-0.88062239 0.6751883 0.73769742
-0.87644714 0.67126822 0.59780258
-0.86667866 0.66331595 0.46899009
-0.85337186 0.6526686 0.34983522
-0.82604474 0.63154584 0.23724076
-0.82156694 0.62767774 0.13538231
-0.042439666 0.07769987 8.7239418
-1.0685745 0.86448318 8.7379713
-1.2654529 1.0105262 7.8091478
-0.78090268 0.61491024 3.2246914
-0.94732952 0.74074137 2.8926048
-1.018847 0.79328638 2.4336493
-1.0163132 0.78906542 1.9623629
-0.93901193 0.72748744 1.4987966
-0.36992982 0.35612932 8.7198553
-0.69048965 0.61653066 8.5905704
-1.5053753 1.1962564 7.440516
-0.88084221 0.6931808 3.1023331
-0.98882109 0.77377564 2.6599619
-1.0357027 0.80788201 2.2187052
-0.96526867 0.75106299 1.6942697
-0.92998844 0.72232544 1.3548514
-0.92090094 0.71039224 1.2227339
-0.89652216 0.69084865 0.99500704
-0.88310808 0.67978722 0.81527555
-0.87893796 0.67609829 0.66701359
-0.87175107 0.67009509 0.53255969
-0.8524285 0.654778 0.40588725
-0.84557104 0.64904767 0.29385069
-0.82963192 0.63636237 0.18681537
-0.91531843 0.70813268 1.111873
-0.88477242 0.68377125 0.89775282
-0.88167185 0.68089318 0.74023062
-0.87769204 0.67709583 0.5999006
-0.86809784 0.66922045 0.47063357
-0.85493898 0.65860975 0.35100752
-0.82775867 0.63744688 0.23793145
-0.82333022 0.63358855 0.13558383
-0.042185858 0.077887438 8.728941
-1.0655504 0.86820793 8.7379713
-1.2603313 1.0136608 7.7993574
-0.77758217 0.61670452 3.2199194
-0.94780743 0.74646163 2.9018097
-1.0179561 0.798316 2.4380381
-1.0179857 0.79607546 1.9706287
-0.93899357 0.73273283 1.502634
-0.36868444 0.35741845 8.7198553
-0.68793744 0.61858028 8.5855989
-1.5011903 1.2015039 7.440516
-0.87706494 0.69517916 3.0976403
-0.98782372 0.77857029 2.6644633
-1.0349271 0.8131038 2.222971
-0.96501267 0.7562868 1.6982597
-0.93013138 0.7276563 1.3585266
-0.92123163 0.71579075 1.2262385
-0.8971799 0.69636059 0.99814546
-0.88403416 0.6854279 0.81801701
-0.88007414 0.68187535 0.66933239
-0.87307227 0.6759721 0.53443271
-0.85013771 0.65774953 0.40588725
-0.84330028 0.65199536 0.29385069
-0.82740551 0.63925439 0.18681537
-0.91578609 0.71361858 1.1151985
-0.88556975 0.68933845 0.90069598
-0.88269234 0.68661356 0.74276382
-0.87532324 0.6801554 0.5999006
-0.86575651 0.67224658 0.47063357
-0.85647488 0.6645698 0.35217986
-0.8255285 0.64033246 0.23793145
-0.82111359 0.63645864 0.13558383
-0.041913722 0.078034222 8.728941
-1.0625134 0.87192214 8.7379713
-1.2575762 1.018695 7.8042531
-0.77542466 0.61941504 3.2199194
-0.94672644 0.75097978 2.9064121
-1.0170426 0.80334926 2.4424274
-1.0174112 0.80136544 1.9747616
-0.93895006 0.73798686 1.5064715
-0.36764053 0.35890558 8.7248468
-0.68577397 0.62097782 8.5855989
-1.4999228 1.2091036 7.4550347
-0.87463301 0.69823647 3.0976403
-0.98680478 0.78336734 2.6689644
-1.0341275 0.81832999 2.2272372
-0.96709698 0.76338488 1.7062398
-0.93024844 0.732997 1.3622017
-0.92153579 0.72120011 1.229743
-0.89780998 0.70188552 1.0012839
-0.88493168 0.69108343 0.82075852
-0.88118082 0.68766868 0.67165118
-0.87070733 0.67901558 0.53443271
-0.85162032 0.66366184 0.40729728
-0.84489495 0.65795326 0.29478332
-0.82909924 0.64519715 0.18726245
-0.91622651 0.71911627 1.1185241
-0.88633883 0.69491947 0.90363914
-0.88029015 0.68969053 0.74276382
-0.87651771 0.68600404 0.60199869
-0.8671242 0.67817366 0.47227708
-0.85797966 0.67054862 0.35335216
-0.82719064 0.64625895 0.23862213
-0.82282472 0.64239538 0.13578537
-0.041641079 0.078180052 8.728941
-1.0594633 0.87562561 8.7379713
-1.2555903 1.0243661 7.814043
-0.77325779 0.622118 3.2199194
-0.94562548 0.7554996 2.9110148
-1.0161062 0.80838573 2.4468162
-1.0190166 0.80841011 1.9830275
-0.94139427 0.7452392 1.5141466
-0.36638543 0.3601867 8.7248468
-0.68320876 0.62300825 8.5806274
-1.5005717 1.218294 7.4792314
-0.87219036 0.70128524 3.0976403
-0.9857645 0.78816688 2.6734657
-1.0333041 0.82356036 2.231503
-0.96678483 0.7686314 1.7102298
-0.92768413 0.73623973 1.3622017
-0.92181337 0.72662032 1.2332475
-0.89841241 0.70742327 1.0044224
-0.88580036 0.69675344 0.82349998
-0.878775 0.69074035 0.67165118
-0.87197751 0.68491453 0.53630573
-0.84929854 0.66663045 0.40729728
-0.84259313 0.66089845 0.29478332
-0.82684201 0.64808732 0.18726245
-0.91663975 0.72462589 1.1218495
-0.88390774 0.69800919 0.90363914
-0.88126123 0.69542962 0.74529696
-0.87411779 0.6890595 0.60199869
-0.86475164 0.68119639 0.47227708
-0.85563374 0.67353946 0.35335216
-0.82492971 0.64914244 0.23862213
-0.82057738 0.64526361 0.13578537
-0.041367926 0.078324929 8.728941
-1.0564003 0.87931854 8.7379713
-1.2543666 1.0306824 7.8287287
-0.77108151 0.62481338 3.2199194
-0.94298255 0.75879586 2.9110148
-1.0151472 0.81342548 2.4512055
-1.0205849 0.81547564 1.9912934
-0.94129312 0.75051904 1.517984
-0.36512592 0.36146343 8.7248468
-0.68102986 0.62538928 8.5806274
-1.5050668 1.2306867 7.5227861
-0.86839622 0.7032392 3.0929477
-0.98470259 0.79296857 2.6779668
-1.0324566 0.82879514 2.235769
-0.96879983 0.77576864 1.7182097
-0.92775655 0.74159038 1.3658769
-0.92206424 0.73205125 1.236752
-0.89898711 0.71297371 1.0075608
-0.88664025 0.70243782 0.82624143
-0.87983161 0.69655347 0.67396998
-0.86958134 0.68795407 0.53630573
-0.85072947 0.67256618 0.40870732
-0.84413552 0.66688079 0.29571593
-0.8284834 0.65405536 0.18770951
-0.91410482 0.72782111 1.1218495
-0.88462913 0.70360655 0.9065823
-0.88220304 0.70118397 0.74783015
-0.87526149 0.69492871 0.60409671
-0.86236858 0.68421078 0.47227708
-0.85327739 0.67652208 0.35335216
-0.82265872 0.65201801 0.23862213
-0.8222363 0.65122592 0.13598689
-0.041077152 0.078428708 8.7239418
-1.0533245 0.88300067 8.7379713
-1.2554672 1.0389506 7.8581004
-0.76773953 0.62655717 3.2151475
-0.94184566 0.76331306 2.9156172
-1.0141653 0.81846833 2.4555948
-1.0221167 0.82256222 1.9995594
-0.94366574 0.75781453 1.5256591
-0.36386198 0.36273575 8.7248468
-0.67845172 0.62740028 8.575655
-1.5085232 1.2423264 7.5615015
-0.8659361 0.70626622 3.0929477
-0.98361927 0.79777247 2.6824682
-1.0315852 0.83403379 2.2400348
-0.97077674 0.78292924 1.7261899
-0.92780292 0.74695051 1.3695521
-0.91950333 0.73526543 1.236752
-0.8964929 0.71610749 1.0075608
-0.88745123 0.70813674 0.82898289
-0.8773948 0.69962037 0.67396998
-0.87080032 0.69387436 0.5381788
-0.84837663 0.67553169 0.40870732
-0.84564638 0.67288196 0.29664856
-0.8261953 0.65694338 0.18770951
-0.91447133 0.73334354 1.125175
-0.8821677 0.70669019 0.9065823
-0.88311517 0.70695323 0.75036329
-0.87637502 0.70081437 0.60619479
-0.86366385 0.69016474 0.47392058
-0.85091072 0.67949641 0.35335216
-0.82037777 0.65488571 0.23862213
-0.81995815 0.65409207 0.13598689
-0.040803134 0.078571618 8.7239418
-1.0502359 0.88667208 8.7379713
-1.2627816 1.0524552 7.9266338
-0.76554775 0.62923324 3.2151475
-0.94068885 0.76783168 2.9202199
-1.0131603 0.82351422 2.4599836
-1.0257971 0.83144122 2.0119581
-0.94350666 0.7631197 1.5294967
-0.36259356 0.36400366 8.7248468
-0.67625755 0.62976474 8.575655
-1.5109493 1.2532027 7.5953779
-0.86346549 0.7092846 3.0929477
-0.98251432 0.80257839 2.6869693
-1.0327122 0.84092355 2.2485666
-0.97271562 0.79011327 1.7341701
-0.92782307 0.75231993 1.3732272
-0.91970849 0.7407077 1.2402567
-0.89702034 0.72167242 1.0106993
-0.88823324 0.71384978 0.83172441
-0.8784011 0.70545274 0.67628878
-0.86837286 0.69690984 0.5381788
-0.84975553 0.68149018 0.41011736
-0.84712559 0.67890179 0.2975812
-0.82778418 0.66293633 0.18815659
-0.91481048 0.73887736 1.1285006
-0.88284117 0.71230346 0.90952545
-0.88399792 0.71273738 0.75289649
-0.87392336 0.70386922 0.60619479
-0.86124951 0.69317532 0.47392058
-0.84853363 0.68246251 0.35335216
-0.82194608 0.66084832 0.23931281
-0.82156456 0.66007942 0.13618843
-0.040528618 0.078713574 8.7239418
-1.0471344 0.8903327 8.7379713
-1.2707967 1.0666782 8.000062
-0.76334673 0.63190168 3.2151475
-0.93800288 0.77111059 2.9202199
-1.0121328 0.82856309 2.4643729
-1.0272481 0.8385762 2.0202241
-0.94580698 0.77045745 1.5371716
-0.36132073 0.36526713 8.7248468
-0.67405516 0.6321215 8.575655
-1.5162113 1.2665286 7.6437721
-0.86098439 0.71229434 3.0929477
-0.98138779 0.8073864 2.6914704
-1.0317869 0.84617722 2.2528327
-0.97461593 0.79732007 1.7421501
-0.92781699 0.75769848 1.3769025
-0.91988695 0.74616027 1.2437612
-0.89751977 0.7272498 1.0138377
-0.88573605 0.71694595 0.83172441
-0.87937737 0.71130061 0.67860758
-0.86954027 0.70285112 0.54005182
-0.84737152 0.68445224 0.41011736
-0.84475064 0.68185467 0.2975812
-0.82934123 0.66894835 0.18860367
-0.91512203 0.74442244 1.131826
-0.88348621 0.71793002 0.91246861
-0.88485092 0.71853632 0.75542969
-0.87498569 0.70977473 0.60829288
-0.86249292 0.69915116 0.47556409
-0.84614629 0.68542027 0.35335216
-0.81963438 0.66371346 0.23931281
-0.82313907 0.66608584 0.13638996
-0.040253609 0.078854561 8.7239418
-1.0440202 0.89398247 8.7379713
-1.2787275 1.0809697 8.0734901
-0.76113629 0.63456237 3.2151475
-0.93530554 0.77438021 2.9202199
-1.0110821 0.83361471 2.4687617
-1.0308354 0.84751874 2.0326231
-0.94558972 0.77578747 1.5410092
-0.36004353 0.36652616 8.7248468
-0.67184454 0.63447052 8.575655
-1.5156282 1.2750508 7.6631298
-0.8598184 0.71640027 3.0976403
-0.98191589 0.8135854 2.7004728
-1.0328484 0.85309565 2.2613645
-0.97880304 0.80646598 1.7541201
-0.92778462 0.76308626 1.3805776
-0.92003846 0.75162309 1.2472657
-0.89799124 0.73283941 1.0169762
-0.88646883 0.72267556 0.83446586
-0.87688905 0.71436584 0.67860758
-0.8706767 0.70880902 0.54192483
-0.84869832 0.69043332 0.4115274
-0.84617698 0.68789792 0.29851383
-0.82700115 0.67183924 0.18860367
-0.91540611 0.74997866 1.1351515
-0.88410258 0.72356969 0.91541177
-0.88233739 0.72162062 0.75542969
-0.8725028 0.7128247 0.60829288
-0.86370498 0.70514399 0.4772076
-0.84751463 0.69144237 0.35452449
-0.82115006 0.66970026 0.24000348
-0.8246817 0.67211133 0.13659149
-0.039978113 0.078994595 8.7239418
-1.0408932 0.89762133 8.7379713
-1.286574 1.0953296 8.1469183
-0.75777364 0.63625526 3.2103753
-0.93409699 0.77889156 2.9248226
-1.0100086 0.83866912 2.473151
-1.0322053 0.85470158 2.040889
-0.94781739 0.783167 1.5486841
-0.35876191 0.36778072 8.7248468
-0.6696257 0.63681179 8.575655
-1.5111681 1.2803335 7.6631298
-0.8573125 0.71939719 3.0976403
-0.98241252 0.81979781 2.7094753
-1.0318689 0.85836375 2.2656305
-0.98293817 0.81565076 1.7660903
-0.92772603 0.76848298 1.3842528
-0.92016286 0.75709599 1.2507702
-0.89843458 0.73844123 1.0201148
-0.8871724 0.72841901 0.83720732
-0.87781465 0.72023231 0.68092638
-0.87178212 0.71478337 0.54379785
-0.84999377 0.69643193 0.4129374
-0.84757137 0.69395947 0.29944643
-0.82850516 0.6778754 0.18905075
-0.91566241 0.75554591 1.138477
-0.8846904 0.72922242 0.91835493
-0.88314039 0.72743702 0.75796282
-0.8735137 0.7187497 0.6103909
-0.86488575 0.71115381 0.47885111
-0.84509587 0.6943965 0.35452449
-0.82263398 0.67570573 0.24069417
-0.8261922 0.67815566 0.13679302
-0.039702125 0.07913366 8.7239418
-1.0383401 0.90175891 8.7429113
-1.2927902 1.1084316 8.210557
-0.75554806 0.63889652 3.2103753
-0.93137252 0.78214741 2.9248226
-1.0107491 0.84526289 2.4819291
-1.0335376 0.86190432 2.0491548
-0.94754153 0.78852117 1.5525217
-0.35747594 0.36903077 8.7248468
-0.66778332 0.63951451 8.5806274
-1.5066898 1.2856007 7.6631298
-0.85611397 0.72349948 3.1023331
-0.98287767 0.82602358 2.7184777
-1.0308656 0.86363554 2.2698965
-0.98702097 0.82487422 1.7780602
-0.92764091 0.77388853 1.3879279
-0.92026037 0.76257896 1.2542748
-0.89884967 0.74405491 1.0232532
-0.88784671 0.73417616 0.83994877
-0.87870997 0.72611398 0.68324518
-0.87285638 0.72077405 0.54567093
-0.85125744 0.70244789 0.41434744
-0.8489337 0.70003909 0.30037907
-0.82613391 0.6807633 0.18905075
-0.91589093 0.76112413 1.1418025
-0.8852495 0.73488808 0.92129809
-0.88391352 0.73326784 0.76049602
-0.87449402 0.7246905 0.61248899
-0.86603504 0.71718043 0.48049462
-0.84641147 0.70044118 0.3556968
-0.82408595 0.68172973 0.24138485
-0.82767051 0.68421865 0.13699456
-0.039425656 0.079271764 8.7239418
-1.0322624 0.9028194 8.718214
-1.294307 1.1175966 8.2448235
-0.75217706 0.640562 3.2056036
-0.92863661 0.78539377 2.9248226
-1.009624 0.85032886 2.4863181
-1.0348321 0.86912662 2.0574207
-0.94969618 0.79594195 1.5601966
-0.35618562 0.37027636 8.7248468
-0.66554695 0.64184165 8.5806274
-1.5021931 1.2908521 7.6631298
-0.8548972 0.72760212 3.1070261
-0.98331136 0.83226258 2.7274802
-1.0318309 0.87059259 2.2784283
-0.98874611 0.83219558 1.7860402
-0.93012488 0.78148383 1.3952782
-0.92033076 0.76807183 1.2577794
-0.8992365 0.74968046 1.0263916
-0.88527858 0.73727089 0.83994877
-0.87617004 0.72917682 0.68324518
-0.87033504 0.72381645 0.54567093
-0.85248947 0.70848125 0.41575748
-0.84648496 0.7029981 0.30037907
-0.82758468 0.68682325 0.18949783
-0.91609174 0.76671308 1.145128
-0.88577974 0.74056643 0.92424124
-0.88134849 0.73634875 0.76049602
-0.87544334 0.73064685 0.61458701
-0.86715269 0.72322363 0.48213813
-0.8439613 0.70339143 0.3556968
-0.82170129 0.6846022 0.24138485
-0.82911646 0.69030023 0.13719608
-0.039148707 0.079408906 8.7239418
-1.0256071 0.90333468 8.6885786
-1.2911662 1.122776 8.2497187
-0.74993652 0.64318365 3.2056036
-0.92737645 0.7898975 2.929425
-1.008476 0.85539734 2.4907072
-1.0360888 0.87636852 2.0656865
-0.94936121 0.80131966 1.5640341
-0.35489091 0.37151739 8.7248468
-0.66330242 0.64416093 8.5806274
-1.4976779 1.296088 7.6631298
-0.85366225 0.73170513 3.1117187
-0.98371345 0.83851469 2.7364826
-1.030773 0.87587804 2.2826943
-0.99273056 0.84148753 1.7980103
-0.92997915 0.78691578 1.3989534
-0.92037398 0.77357447 1.2612839
-0.89959496 0.75531781 1.02953
-0.88590318 0.74304378 0.84269029
-0.87701422 0.73507637 0.68556398
-0.87135708 0.72982693 0.54754394
-0.85001123 0.71145272 0.41575748
-0.84779388 0.70910025 0.30131167
-0.82900316 0.69290161 0.18994491
-0.91626453 0.77231258 1.1484535
-0.88628101 0.74625731 0.9271844
-0.88207114 0.74219626 0.76302922
-0.87636173 0.73661858 0.61668509
-0.86462289 0.72624618 0.48213813
-0.84522384 0.70945811 0.35686913
-0.82310003 0.69064939 0.24207552
-0.82670188 0.69319016 0.13719608
-0.038871277 0.079545073 8.7239418
-1.0172175 0.9022674 8.6441259
-1.2910683 1.1306309 8.2741947
-0.74655735 0.64482152 3.2008314
-0.92461354 0.79312986 2.929425
-1.0073048 0.86046809 2.4950962
-1.0351654 0.88180476 2.0698195
-0.9490003 0.80670476 1.5678717
-0.35359195 0.37275395 8.7248468
-0.66066921 0.64609921 8.575655
-1.4940921 1.3021339 7.6679692
-0.85240906 0.73580831 3.1164114
-0.98408377 0.84477961 2.7454851
-1.0296907 0.88116664 2.2869601
-0.99207884 0.84690422 1.8020003
-0.92980683 0.79235625 1.4026285
-0.92039001 0.77908665 1.2647884
-0.89695293 0.75845331 1.02953
-0.88649839 0.74883002 0.84543175
-0.87782794 0.74099076 0.68788278
-0.86880422 0.73286408 0.54754394
-0.85119033 0.71750718 0.41716751
-0.84907037 0.71522003 0.30224431
-0.83038926 0.69899821 0.19039199
-0.91640955 0.77792281 1.1517791
-0.88675344 0.75196081 0.93012756
-0.88276374 0.74805784 0.76556236
-0.87724912 0.74260557 0.61878312
-0.86568773 0.73230976 0.48378164
-0.8427422 0.71240419 0.35686913
-0.82068419 0.69351834 0.24207552
-0.82809412 0.69929498 0.13739762
-0.038593378 0.079680279 8.7239418
-1.0047926 0.89752781 8.5650978
-1.2901682 1.1378253 8.2937756
-0.74430192 0.64742357 3.2008314
-0.92331773 0.79762989 2.9340274
-1.0061107 0.86554104 2.4994855
-1.0342166 0.88724518 2.0739524
-0.95104814 0.81418175 1.5755466
-0.35228863 0.37398595 8.7248468
-0.65840983 0.64840144 8.575655
-1.4904823 1.3081704 7.6728086
-0.85113758 0.73991168 3.1211042
-0.98442233 0.85105735 2.7544875
-1.0285841 0.88645834 2.2912261
-0.99368614 0.8542912 1.8099804
-0.92960787 0.79780513 1.4063038
-0.92037874 0.78460842 1.268293
-0.89726317 0.76410341 1.0326686
-0.8870638 0.75462943 0.8481732
-0.87861103 0.74691969 0.69020158
-0.86977375 0.73889381 0.54941696
-0.85233754 0.72357869 0.41857755
-0.8503145 0.72135735 0.30317691
-0.82794428 0.70189255 0.19039199
-0.91652638 0.78354323 1.1551045
-0.88719678 0.75767666 0.93307072
-0.88014716 0.75113469 0.76556236
-0.87810528 0.74860781 0.6208812
-0.86312622 0.73532712 0.48378164
-0.84025031 0.71534157 0.35686913
-0.82202959 0.69958836 0.2427662
-0.82564807 0.70218134 0.13739762
-0.038315009 0.079814501 8.7239418
-0.99645591 0.89635146 8.5206442
-1.2884719 1.1443506 8.3084612
-0.74091482 0.6490339 3.1960595
-0.92347538 0.80341297 2.9432325
-1.0048931 0.87061614 2.5038743
-1.0332426 0.89268965 2.0780854
-0.95062768 0.81958961 1.5793842
-0.35098103 0.37521338 8.7248468
-0.65614247 0.65069574 8.575655
-1.4877902 1.3150305 7.6824875
-0.84984785 0.7440151 3.125797
-0.9830873 0.85591811 2.7589886
-1.0274531 0.89175302 2.2954919
-0.99297595 0.85972708 1.8139704
-0.93194687 0.80547911 1.4136541
-0.92034006 0.79013956 1.2717975
-0.89754498 0.76976478 1.035807
-0.88442427 0.75772125 0.8481732
-0.87936342 0.75286311 0.69252038
-0.86718923 0.74192536 0.54941696
-0.84980661 0.72654945 0.41857755
-0.85152596 0.72751194 0.30410954
-0.82927656 0.70801193 0.19083907
-0.91661513 0.78917402 1.15843
-0.88454658 0.76076895 0.93307072
-0.88078898 0.75701225 0.76809555
-0.87893009 0.7546249 0.62297922
-0.86413795 0.74141043 0.48542514
-0.84143817 0.72143412 0.35804144
-0.81958258 0.70245355 0.2427662
-0.82698643 0.70830899 0.13759914
-0.038036168 0.079947762 8.7239418
-0.97317153 0.88156033 8.3477697
-1.2875049 1.1515571 8.328042
-0.73864478 0.65161628 3.1960595
-0.92213452 0.8079192 2.947835
-1.005457 0.87726808 2.5126526
-1.0343658 0.89998549 2.0863512
-0.95018119 0.82500458 1.5832217
-0.3498649 0.37664843 8.7298393
-0.65386713 0.65298212 8.575655
-1.4850684 1.3218875 7.6921663
-0.84724557 0.74697709 3.125797
-0.98336709 0.86221522 2.7679911
-1.0262975 0.89705056 2.299758
-0.99451089 0.86714888 1.8219506
-0.93168664 0.81095332 1.4173292
-0.92027384 0.79567987 1.2753021
-0.89779818 0.77543753 1.0389454
-0.88493973 0.76353556 0.85091466
-0.88008493 0.75882083 0.69483918
-0.86810619 0.7479741 0.55129004
-0.85090047 0.73264152 0.41998756
-0.85270494 0.73368376 0.30504215
-0.82680011 0.71090233 0.19083907
-0.91667587 0.794815 1.1617556
-0.88494086 0.76649845 0.93601388
-0.88140041 0.76290357 0.77062875
-0.87629062 0.75768828 0.62297922
-0.86511773 0.74750972 0.48706865
-0.83891475 0.72436684 0.35804144
-0.82087427 0.70854592 0.24345689
-0.82450891 0.71119142 0.13759914
-0.037772283 0.080120876 8.728941
-0.95459396 0.87080848 8.2144108
-1.2849903 1.1574074 8.3378325
-0.73525 0.65319896 3.1912875
-0.92077357 0.81242591 2.9524376
-1.0041877 0.88235343 2.5170417
-1.0333343 0.90544528 2.0904841
-0.94970828 0.83042622 1.5870591
-0.34854805 0.37786737 8.7298393
-0.65158385 0.65526056 8.575655
-1.4823169 1.3287414 7.7018452
-0.84334272 0.74878401 3.1211042
-0.98361474 0.86852467 2.7769935
-1.0270751 0.90407425 2.30829
-0.99374205 0.87260336 1.8259404
-0.93139935 0.81643534 1.4210044
-0.92286968 0.8035714 1.2823112
-0.89802259 0.78112131 1.0420839
-0.88542533 0.76936263 0.85365611
-0.88077551 0.7647928 0.69715798
-0.86899143 0.75403821 0.55316305
-0.84833795 0.73560721 0.41998756
-0.85013866 0.73665583 0.30504215
-0.82807821 0.71704406 0.19128615
-0.91670817 0.80046594 1.165081
-0.8853057 0.7722398 0.93895704
-0.88198155 0.76880831 0.77316189
-0.8770631 0.76372308 0.62507725
-0.86250317 0.75052494 0.48706865
-0.84004891 0.73048031 0.35921374
-0.82213336 0.71465582 0.24414757
-0.82579303 0.71734142 0.13780068
-0.03749238 0.08025223 8.728941
-0.93438721 0.85836035 8.0662327
-1.2832044 1.1639384 8.3525181
-0.73296541 0.65576148 3.1912875
-0.91939229 0.81693286 2.9570401
-1.0046885 0.88902783 2.5258198
-1.0343871 0.91277099 2.0987501
-0.94920921 0.83585471 1.5908966
-0.34722689 0.37908176 8.7298393
-0.64929259 0.65753102 8.575655
-1.4804685 1.3364348 7.7163634
-0.84072387 0.75172329 3.1211042
-0.98220366 0.87339962 2.7814946
-1.0278158 0.91111428 2.3168218
-0.99520439 0.88005942 1.8339207
-0.93362677 0.82416904 1.4283547
-0.9227404 0.80913937 1.2858157
-0.89821821 0.78681612 1.0452224
-0.88588101 0.77520233 0.85639757
-0.8814351 0.77077872 0.69947678
-0.86984485 0.76011753 0.55503613
-0.84937817 0.74171937 0.4213976
-0.85126323 0.74284875 0.30597478
-0.82557023 0.71993017 0.19128615
-0.91671216 0.80612665 1.1684066
-0.88564134 0.77799314 0.94190019
-0.88253212 0.77472627 0.77569515
-0.87439191 0.76677996 0.62507725
-0.86342949 0.75664341 0.48871216
-0.84115064 0.73661041 0.36038607
-0.82335979 0.72078323 0.24483825
-0.82704413 0.72350907 0.1380022
-0.037212018 0.080382615 8.728941
-0.92910457 0.85950547 8.0464754
-1.280637 1.1697843 8.3623085
-0.73067194 0.65831602 3.1912875
-0.91653508 0.82013714 2.9570401
-1.0033669 0.89412296 2.5302088
-1.0354013 0.92011487 2.1070161
-0.95108175 0.84341657 1.5985717
-0.34590155 0.38029149 8.7298393
-0.6469934 0.6597935 8.575655
-1.4785844 1.3441314 7.7308817
-0.8368125 0.75349849 3.1164114
-0.98077053 0.87827522 2.785996
-1.0265746 0.91643339 2.3210876
-0.99662668 0.88753623 1.8419007
-0.93327779 0.82967556 1.4320298
-0.92258334 0.81471616 1.2893202
-0.90130377 0.79509676 1.0514992
-0.8863067 0.78105456 0.85913903
-0.87873924 0.7738508 0.69947678
-0.87066644 0.76621199 0.55690914
-0.85038614 0.74784762 0.42280763
-0.848665 0.74581563 0.30597478
-0.82679409 0.72609371 0.19173324
-0.91948289 0.81427276 1.1750575
-0.88594753 0.78375828 0.94484335
-0.88305211 0.78065753 0.77822834
-0.87511176 0.7728318 0.62717533
-0.8643235 0.76277739 0.49035567
-0.83857429 0.73954213 0.36038607
-0.82826799 0.73020262 0.24621962
-0.82826233 0.72969419 0.13820374
-0.036931206 0.080512024 8.728941
-0.92553031 0.86221361 8.0415363
-1.2780445 1.1756263 8.3720989
-0.72836947 0.66086251 3.1912875
-0.91366673 0.82333148 2.9570401
-1.0020221 0.89921969 2.5345981
-1.0363768 0.92747688 2.1152818
-0.95052236 0.8488664 1.6024091
-0.34476477 0.38171148 8.7348309
-0.64468634 0.66204792 8.575655
-1.4785187 1.3535287 7.7550788
-0.8341772 0.75641483 3.1164114
-0.97931534 0.88315147 2.7904971
-1.0272481 0.92349869 2.3296194
-0.99576563 0.89302158 1.8458906
-0.93290162 0.83518964 1.4357051
-0.92506343 0.82267177 1.2963293
-0.90143263 0.80082327 1.0546377
-0.8867023 0.7869193 0.86188054
-0.87934673 0.77985275 0.70179558
-0.86798656 0.76924658 0.55690914
-0.85136163 0.75399202 0.42421767
-0.8497349 0.75202906 0.30690739
-0.82798487 0.73227453 0.19218032
-0.91942149 0.81996268 1.1783831
-0.88924217 0.79222375 0.95072967
-0.88354123 0.78660166 0.78076148
-0.87580007 0.77889806 0.62927336
-0.86518532 0.76892686 0.49199918
-0.83962184 0.74569243 0.36155838
-0.82941711 0.73637706 0.2469103
-0.82944721 0.73589653 0.13840528
-0.036649942 0.080640443 8.728941
-0.92364788 0.86650258 8.0514145
-1.2754267 1.1814646 8.3818903
-0.72495651 0.66239387 3.1865156
-0.91368032 0.82914186 2.9662452
-0.99887723 0.90271199 2.5345981
-1.0373136 0.93485701 2.1235478
-0.95231968 0.85646611 1.6100842
-0.34343025 0.38291258 8.7348309
-0.64237142 0.66429424 8.575655
-1.4710128 1.3561252 7.7405605
-0.8315317 0.75932211 3.1164114
-0.97783798 0.88802826 2.7949984
-1.0259516 0.92882943 2.3338854
-0.99711454 0.90053153 1.8538706
-0.9324984 0.84071124 1.4393802
-0.92484248 0.82827502 1.2998339
-0.90153247 0.80656034 1.0577762
-0.88706762 0.79279613 0.864622
-0.8766191 0.7829175 0.70179558
-0.86875474 0.77535862 0.55878216
-0.84872454 0.75695926 0.42421767
-0.85077184 0.75825906 0.30784002
-0.82914257 0.73847252 0.19262739
-0.91933137 0.82566202 1.1817086
-0.88947982 0.79802227 0.95367283
-0.88399971 0.79255879 0.78329468
-0.87645656 0.78497845 0.63137144
-0.8660146 0.77509153 0.49364269
-0.84063667 0.75185913 0.36273071
-0.83053333 0.74256855 0.24760097
-0.83059895 0.74211603 0.1386068
-0.036368228 0.080767885 8.728941
-0.93416911 0.882532 8.1699572
-1.2727836 1.1872987 8.3916798
-0.72263986 0.66492045 3.1865156
-0.90933859 0.83100814 2.9616427
-0.99749112 0.90780532 2.5389869
-1.0361276 0.94036353 2.1276808
-0.95407552 0.86408877 1.6177592
-0.34228286 0.38432527 8.7398224
-0.64004874 0.66653252 8.575655
-1.4635067 1.3586857 7.7260423
-0.83014625 0.7633884 3.1211042
-0.97633857 0.89290541 2.7994995
-1.0246302 0.93416226 2.3381512
-0.99619412 0.90603429 1.8578608
-0.93457776 0.84851909 1.4467305
-0.92459381 0.83388698 1.3033384
-0.90160316 0.81230783 1.0609146
-0.88740265 0.79868507 0.86736345
-0.8771745 0.78893507 0.70411438
-0.8694908 0.7814855 0.56065518
-0.84964585 0.76312274 0.42562771
-0.85177553 0.76450539 0.30877262
-0.83026695 0.74468738 0.19307446
-0.91921276 0.83137065 1.185034
-0.8896879 0.80383217 0.95661598
-0.88442719 0.79852861 0.78582788
-0.87708133 0.79107291 0.63346946
-0.86681139 0.7812714 0.49528623
-0.84161866 0.75804198 0.36390302
-0.83161628 0.74877673 0.24829166
-0.83171725 0.74835247 0.13880834
-0.036086075 0.080894344 8.728941
-0.94852883 0.90239519 8.3230743
-1.2715994 1.1945235 8.4112606
-0.72031444 0.66743886 3.1865156
-0.92224348 0.84873164 3.0122702
-0.99608177 0.91289997 2.5433762
-1.036993 0.94777185 2.1359468
-0.95342141 0.86957383 1.6215967
-0.34093922 0.38551772 8.7398224
-0.6377182 0.66876262 8.575655
-1.4569191 1.3620691 7.7163634
-0.82747644 0.76628149 3.1211042
-0.97481698 0.89778298 2.8040009
-1.0232842 0.93949717 2.3424172
-0.99746931 0.91357684 1.8658408
-0.93411207 0.85406399 1.4504057
-0.92431724 0.83950722 1.306843
-0.90164471 0.81806564 1.0640531
-0.88770753 0.80458611 0.87010491
-0.87769842 0.79496604 0.70643318
-0.87019467 0.78762686 0.56252825
-0.85053456 0.76930183 0.42703772
-0.85274589 0.77076799 0.30970526
-0.83135808 0.75091904 0.19352154
-0.91906554 0.8370887 1.1883595
-0.88986617 0.80965316 0.95955914
-0.88482392 0.80451113 0.78836101
-0.87767398 0.79718113 0.63556755
-0.86757553 0.78746623 0.49692973
-0.84256768 0.76424074 0.36507532
-0.83266604 0.75500143 0.24898234
-0.83280218 0.75460571 0.13900986
-0.035803482 0.081019811 8.728941
-0.95883477 0.91860551 8.4416161
-1.2711198 1.2024541 8.4357367
-0.71688908 0.66893059 3.1817434
-0.92500627 0.85725826 3.0306804
-0.99464893 0.91799599 2.5477653
-1.0357486 0.95329159 2.1400795
-0.95510125 0.87723321 1.6292717
-0.33959144 0.38670549 8.7398224
-0.63537985 0.67098457 8.575655
-1.446665 1.3619759 7.6873269
-0.82605845 0.77034235 3.125797
-0.9732731 0.90266073 2.808502
-1.0238281 0.94660467 2.3509493
-0.99648899 0.91909605 1.8698307
-0.93611288 0.86191231 1.457756
-0.92401266 0.84513557 1.3103476
-0.90165704 0.82383358 1.0671915
-0.88798183 0.81049883 0.87284636
-0.87819082 0.80101025 0.70875198
-0.86743999 0.79065967 0.56252825
-0.85139036 0.77549642 0.42844775
-0.8573156 0.78035319 0.3115705
-0.8324157 0.7571674 0.19396862
-0.91888946 0.8428157 1.1916851
-0.89001459 0.81548524 0.96250236
-0.88201028 0.80759484 0.78836101
-0.87823486 0.80330318 0.63766557
-0.86482149 0.79048985 0.49692973
-0.83989483 0.76717722 0.36507532
-0.83002549 0.7579034 0.24898234
-0.830163 0.75750816 0.13900986
-0.035506181 0.081103057 8.7239418
-0.96736169 0.93327945 8.5453396
-1.2779715 1.2174205 8.5091658
-0.71454972 0.67142892 3.1817434
-0.93200511 0.86981404 3.0628982
-0.99319261 0.92309302 2.5521543
-1.0365422 0.96072727 2.1483455
-0.95673913 0.88491488 1.6369468
-0.33823952 0.38788852 8.7398224
-0.63303387 0.6731984 8.575655
-1.4455504 1.3704772 7.7066846
-0.82336438 0.77322114 3.125797
-0.97329795 0.90902472 2.8175044
-1.0224262 0.95195007 2.3552151
-0.99769014 0.92667049 1.8778108
-0.93558449 0.86747998 1.4614313
-0.92367995 0.85077208 1.3138521
-0.89877582 0.82697588 1.0671915
-0.88514727 0.81359357 0.87284636
-0.8786518 0.80706757 0.71107078
-0.86808997 0.79681766 0.56440127
-0.85574836 0.784949 0.43126783
-0.85458642 0.78334099 0.3115705
-0.83343983 0.76343226 0.1944157
-0.91868448 0.84855157 1.1950105
-0.8901332 0.8213281 0.96544552
-0.88235503 0.81359112 0.79089421
-0.87876356 0.80943882 0.63976365
-0.86553115 0.79670191 0.49857324
-0.84078914 0.773395 0.36624765
-0.83102006 0.764148 0.24967301
-0.83119243 0.76378173 0.1392114
-0.035222862 0.081226505 8.7239418
-0.97691226 0.94910741 8.6589432
-1.2876725 1.235269 8.6021748
-0.71220165 0.67391908 3.1817434
-0.93465698 0.87841439 3.0813081
-0.99346119 0.92982769 2.5609324
-1.0372964 0.96818018 2.1566114
-0.95833498 0.89261866 1.6446217
-0.33669522 0.38884798 8.7348309
-0.63068008 0.67540395 8.575655
-1.4425759 1.3772509 7.7163634
-0.82066035 0.7760905 3.125797
-0.9717046 0.91390824 2.8220057
-1.0229019 0.95908117 2.3637469
-0.99664998 0.93220598 1.8818009
-0.93502849 0.87305421 1.4651064
-0.92331916 0.85641652 1.3173567
-0.89873868 0.83275378 1.07033
-0.88537043 0.8195188 0.87558782
-0.87908113 0.81313783 0.71338952
-0.86870754 0.80298984 0.56627429
-0.85652679 0.79118633 0.43267787
-0.85545635 0.78965122 0.3125031
-0.83443028 0.7697134 0.19486278
-0.91845071 0.85429627 1.198336
-0.89022171 0.82718176 0.96838868
-0.87950963 0.81666607 0.79089421
-0.87926006 0.815588 0.64186168
-0.86274487 0.79971832 0.49857324
-0.83808434 0.77632523 0.36624765
-0.82834762 0.76704413 0.24967301
-0.82852131 0.76667845 0.1392114
-0.034939114 0.081348963 8.7239418
-0.97859043 0.95740354 8.7033968
-1.284085 1.2404637 8.60707
-0.70984489 0.67640096 3.1817434
-0.93584144 0.88570094 3.0951159
-0.99195212 0.93493265 2.5653214
-1.0359608 0.97372258 2.1607444
-0.957551 0.89815128 1.6484592
-0.33533582 0.39002088 8.7348309
-0.62868065 0.6779927 8.5806274
-1.4413836 1.385763 7.7357211
-0.81794626 0.77895039 3.125797
-0.97166938 0.9202888 2.8310082
-1.0233401 0.96622711 2.3722787
-0.99777657 0.93981159 1.889781
-0.93444496 0.87863523 1.4687816
-0.92293006 0.86206859 1.3208612
-0.89867198 0.83854139 1.0734684
-0.88556302 0.82545561 0.87832928
-0.87623739 0.81620145 0.71338952
-0.86929256 0.80917609 0.5681473
-0.85727221 0.79743862 0.43408787
-0.85269475 0.79263252 0.3125031
-0.83173847 0.77262145 0.19486278
-0.91818798 0.86004966 1.2016616
-0.89028025 0.83304602 0.97133183
-0.87980217 0.82267553 0.79342741
-0.87640774 0.81865215 0.64186168
-0.86339992 0.8059473 0.50021678
-0.83892363 0.78256148 0.36741996
-0.82928681 0.77330828 0.25036371
-0.82949501 0.77297181 0.13941292
-0.034654941 0.081470422 8.7239418
-0.97966927 0.96517742 8.7429113
-1.2746392 1.2399678 8.5728035
-0.70640272 0.67784101 3.1769717
-0.93698627 0.89300621 3.1089232
-0.99215662 0.94168741 2.5740998
-1.0366428 0.98120189 2.1690104
-0.95907003 0.90589041 1.6561341
-0.33378562 0.39096886 8.7298393
-0.62667078 0.68057561 8.5855989
-1.4374406 1.3916605 7.7405605
-0.8152222 0.78180087 3.125797
-0.97160131 0.92668021 2.8400104
-1.023741 0.97338784 2.3808105
-0.99886209 0.94743633 1.897761
-0.93629539 0.88655382 1.4761319
-0.9251104 0.87017208 1.3278702
-0.8985759 0.84433872 1.0766069
-0.88572484 0.83140355 0.88107073
-0.8766138 0.82228583 0.71570832
-0.86984491 0.81537604 0.57002032
-0.8579843 0.80370575 0.43549791
-0.84992272 0.79560411 0.3125031
-0.83267325 0.77892208 0.19530986
-0.92061216 0.86837369 1.2083125
-0.89325023 0.84169275 0.97721815
-0.88006341 0.82869697 0.79596055
-0.87685055 0.82481617 0.6439597
-0.86402208 0.81219059 0.50186026
-0.83972943 0.78881299 0.36859229
-0.83380222 0.78297818 0.25174505
-0.83043486 0.77928126 0.13961446
-0.034370344 0.081590898 8.7239418
-0.97960275 0.97187555 8.7725468
-1.2601218 1.2344323 8.5042706
-0.7040323 0.68030268 3.1769717
-0.93809146 0.90033036 3.122731
-0.99232596 0.94845492 2.5828779
-1.0352483 0.98675615 2.1731431
-0.96054661 0.91365105 1.6638092
-0.33241886 0.39213163 8.7298393
-0.6242913 0.68275893 8.5855989
-1.4415731 1.4054452 7.7889547
-0.81248832 0.78464174 3.125797
-0.97150052 0.93308234 2.8490129
-1.0241044 0.9805631 2.3893425
-1.0020853 0.95716143 1.9097309
-0.93564844 0.8921563 1.479807
-0.92465627 0.87584865 1.3313749
-0.89845031 0.85014552 1.0797453
-0.88585591 0.83736271 0.88381225
-0.87695831 0.82838273 0.71802717
-0.87036455 0.82158977 0.57189339
-0.85866302 0.80998749 0.43690795
-0.84714037 0.79856604 0.3125031
-0.83719897 0.78865331 0.19620402
-0.92028242 0.87415349 1.211638
-0.89323872 0.84758788 0.98016131
-0.88029331 0.83473015 0.79849374
-0.87726092 0.83099318 0.64605778
-0.86461103 0.81844801 0.5035038
-0.84403294 0.79842001 0.3709369
-0.83466208 0.78928643 0.25243574
-0.83134073 0.78560668 0.13981599
-0.034098879 0.081751861 8.728941
-0.9734568 0.97254252 8.7478504
-1.236962 1.2202286 8.3769941
-0.7016533 0.68275613 3.1769717
-0.93915689 0.907673 3.1365385
-0.99246001 0.95523494 2.5916562
-1.0358574 0.99426126 2.1814091
-0.95966619 0.91921574 1.6676468
-0.33104804 0.39328957 8.7298393
-0.62226206 0.68532908 8.5905704
-1.4267932 1.4007809 7.7357211
-0.80974448 0.78747308 3.125797
-0.96980214 0.93798143 2.853514
-1.0225526 0.98594218 2.3936086
-1.0052528 0.96692067 1.9217011
-0.937419 0.90011322 1.4871573
-0.92417377 0.88153255 1.3348794
-0.89829499 0.85596168 1.0828838
-0.88595623 0.84333295 0.8865537
-0.87727094 0.83449209 0.72034597
-0.86749136 0.82462293 0.57189339
-0.85930848 0.81628388 0.43831801
-0.84434772 0.80151826 0.3125031
-0.84166682 0.79842561 0.19709818
-0.92262161 0.88252264 1.218289
-0.89319688 0.85349327 0.98310447
-0.88049185 0.84077501 0.80102688
-0.8776387 0.83718294 0.64815581
-0.86516684 0.82471937 0.50514728
-0.84476012 0.8047139 0.37210923
-0.83907413 0.79902512 0.25381708
-0.83583164 0.79539186 0.14021905
-0.033813305 0.081870385 8.728941
-0.97060353 0.97648579 8.7527885
-1.2290837 1.2209502 8.3525181
-0.69926578 0.68520117 3.1769717
-0.94018245 0.915034 3.150346
-0.99255878 0.96202749 2.6004343
-1.0344038 0.99982691 2.1855421
-0.96106535 0.92701066 1.6753218
-0.32985762 0.39466488 8.7348309
-0.61986601 0.68749702 8.5905704
-1.4165323 1.4004499 7.7066846
-0.80822349 0.79150242 3.1304898
-0.96964085 0.94439912 2.8625166
-1.0228468 0.99313951 2.4021404
-1.0083644 0.97671354 1.9336712
-0.93914545 0.90809339 1.4945077
-0.9236629 0.88722372 1.3383839
-0.90091836 0.86448216 1.0891607
-0.88904399 0.85220754 0.89203662
-0.87755156 0.84061366 0.72266477
-0.86795646 0.83085179 0.57376641
-0.85645384 0.81927848 0.43831801
-0.84509557 0.80785513 0.31343573
-0.84247565 0.80479866 0.19754526
-0.92222446 0.88832819 1.2216145
-0.8931247 0.85940868 0.98604763
-0.88065881 0.84683138 0.80356008
-0.87798405 0.84338552 0.65025389
-0.86568922 0.8310045 0.50679076
-0.84545362 0.8110227 0.37328154
-0.83985406 0.80537671 0.25450778
-0.83665723 0.80176127 0.14042059
-0.033527318 0.081987917 8.728941
-0.96664345 0.97931486 8.7478504
-1.2248143 1.2252331 8.3525181
-0.69686973 0.68763787 3.1769717
-0.94116807 0.92241317 3.1641538
-0.99262214 0.96883225 2.6092124
-1.0349402 1.0073575 2.1938081
-0.96242166 0.93482649 1.6829967
-0.32847795 0.39581388 8.7348309
-0.61781758 0.69005412 8.595542
-0.8066842 0.79553068 3.1351826
-0.96789235 0.94930249 2.8670177
-1.0212386 0.99852735 2.4064064
-1.0114197 0.98653978 1.9456413
-0.94082749 0.91609651 1.501858
-0.9256866 0.8954016 1.3453929
-0.90069425 0.87032646 1.0922991
-0.88907218 0.85820991 0.89477807
-0.87780005 0.84674728 0.72498357
-0.86505097 0.83387643 0.57376641
-0.85704368 0.82559115 0.43972805
-0.84227043 0.81080019 0.31343573
-0.84683907 0.81463951 0.19843942
-0.92179787 0.89414173 1.2249401
-0.89302194 0.86533386 0.98899078
-0.88079423 0.85289913 0.80609328
-0.87829673 0.84960073 0.65235192
-0.86278325 0.83402127 0.50679076
-0.84611332 0.81734604 0.37445387
-0.83703768 0.80830342 0.25450778
-0.83744836 0.808146 0.14062211
-0.033240922 0.082104452 8.728941
-0.96321911 0.98268312 8.7478504
