# .PCD v0.7 - Point Cloud Data file format
VERSION 0.7
FIELDS x y z
SIZE 4 4 4
TYPE F F F
COUNT 1 1 1
WIDTH 1502
HEIGHT 1
VIEWPOINT 0 0 0 1 0 0 0
POINTS 1502
DATA ascii
-1.1306549 3.038372 4.3675861
-1.0895265 2.920085 3.4570456
-1.0579214 2.8069379 3.0275753
-1.012805 2.6829963 2.3947587
-0.96493274 2.5521562 1.8734815
-0.93663377 2.4747145 1.4716371
-0.90038627 2.3764555 1.1150728
-0.8779161 2.3147295 0.81761682
-0.85610443 2.2548594 0.54938865
-0.83324015 2.1923525 0.30350298
-1.0311078 2.7474234 2.6948111
-1.0007282 2.662262 2.1544824
-0.93735421 2.4910395 1.6496419
-0.91593534 2.4302764 1.2880619
-0.88865423 2.3554182 0.96532977
-0.86215901 2.2827983 0.67925638
-0.84367293 2.2326858 0.42510575
-0.82359868 2.1772838 0.18757881
0.0050413725 0.088478185 8.7339401
-0.45112664 1.3008 8.7527885
-0.59534001 1.6821296 8.6021748
-0.33193392 0.91785425 3.1674278
-0.49461254 1.3533459 3.4541125
-1.1409352 3.102298 6.1248646
-1.1536287 3.1234138 4.9628835
-1.1176623 3.0163558 3.9279368
-0.12649614 0.50034988 8.76478
-0.26727751 0.9118368 8.8192587
-0.28205279 0.79048699 3.2689323
-0.43845549 1.2113665 3.5575314
-0.55895936 1.5311854 3.4341707
-1.196795 3.2630277 5.7551646
-1.1346157 3.0818882 4.4234462
-1.0934143 2.9620352 3.5011473
-1.060577 2.8440287 3.0626209
-1.0129663 2.7120392 2.4167278
-0.96627349 2.5829232 1.8926718
-0.93731087 2.5028598 1.4855499
-0.90184927 2.4056294 1.1263111
-0.87825805 2.3402357 0.82466698
-0.85513842 2.2762277 0.55311912
-0.83434725 2.218554 0.30573839
-1.0332083 2.7825086 2.7247405
-1.0012915 2.6922584 2.1750844
-0.93767738 2.5185359 1.6648409
-0.91854644 2.4632261 1.3027482
-0.88868409 2.380626 0.97354734
-0.86269248 2.3085594 0.68511802
-0.84281117 2.2541709 0.42786846
-0.82474971 2.2035401 0.18858647
0.0053501884 0.088460051 8.7339401
-0.44633147 1.3016318 8.7478504
-0.58946466 1.6841975 8.6021748
-0.32872802 0.91900736 3.1674278
-0.48922148 1.3532269 3.4495103
-1.1300991 3.106262 6.1248646
-1.1591356 3.1723549 5.0331435
-1.1203635 3.0563521 3.9739869
-0.12474883 0.50078839 8.76478
-0.26409298 0.91276425 8.8192587
-0.27929178 0.79146677 3.2689323
-0.43538722 1.2161392 3.5669169
-0.55287194 1.5310796 3.4296696
-1.1916236 3.2843473 5.7850266
-1.1382862 3.1254692 4.4793067
-1.0958593 3.0008636 3.5415745
-1.0642208 2.8845174 3.1011708
-1.0129371 2.7411158 2.4386971
-0.96450835 2.6058879 1.906379
-0.93626362 2.5268855 1.4971439
-0.90311944 2.4348421 1.1375493
-0.87843269 2.365773 0.83171713
-0.85403359 2.2976167 0.5568496
-0.83528143 2.2447894 0.30797377
-1.0337886 2.8141365 2.7513447
-1.0016576 2.722291 2.1956866
-0.94079971 2.5541544 1.6851063
-0.92093855 2.4962234 1.3174345
-0.88854855 2.4058621 0.98176491
-0.86305654 2.3343518 0.69097954
-0.84352785 2.2803216 0.43132189
-0.8257274 2.2298307 0.18959412
0.0056589385 0.088440835 8.7339401
-0.44128668 1.30171 8.7379713
-0.583915 1.6872072 8.60707
-0.32551807 0.92014927 3.1674278
-0.48449486 1.3549263 3.4495103
-1.1192493 3.1101878 6.1248646
-1.1633582 3.2187257 5.0992708
-1.1217062 3.09339 4.0161991
-0.12299999 0.50122076 8.76478
-0.26090524 0.91368055 8.8192587
-0.27652735 0.79243684 3.2689323
-0.42998794 1.214398 3.5575314
-0.54752409 1.5330001 3.4296696
-1.1951265 3.3302174 5.8575468
-1.1396238 3.1634429 4.5271869
-1.0980465 3.0397441 3.5820012
-1.0675946 2.925066 3.1397207
-1.0140535 2.7738807 2.4638047
-0.97122067 2.6524303 1.9365352
-0.9381091 2.5592527 1.5133755
-0.90419662 2.4640927 1.1487875
-0.88009357 2.3958418 0.84017736
-0.85448503 2.3236356 0.56151271
-0.83432209 2.2663848 0.30976209
-1.0341606 2.8458021 2.7779486
-1.0018262 2.7523587 2.2162888
-0.94368464 2.5898256 1.7053717
-0.92155546 2.5250037 1.3300229
-0.88986808 2.4355617 0.99162596
-0.8649205 2.3647397 0.69801354
-0.84407198 2.3065045 0.43477526
-0.82653153 2.2561548 0.19060178
0.0059676208 0.088420548 8.7339401
-0.43649352 1.3025056 8.7330322
-0.57802194 1.6892352 8.60707
-0.32230416 0.92127991 3.1674278
-0.47976235 1.3566093 3.4495103
-1.108386 3.1140757 6.1248646
-1.1701126 3.2731137 5.1777973
-1.1238861 3.1334918 4.0622497
-0.12124965 0.50164711 8.76478
-0.2577143 0.91458571 8.8192587
-0.27375954 0.79339725 3.2689323
-1.0950147 3.1280913 9.0668392
-0.54216957 1.5349021 3.4296696
-1.2105358 3.4105618 5.9897909
-1.1407099 3.2014632 4.575067
-1.098835 3.075484 3.618753
-1.0706983 2.965673 3.1782708
-1.0149534 2.8066866 2.4889123
-0.97761959 2.6990509 1.9666914
-0.93822992 2.5874987 1.5272883
-0.90508056 2.4933805 1.1600257
-0.87991685 2.4214425 0.84722745
-0.85644448 2.3543022 0.56710839
-0.83492625 2.2926803 0.3119975
-1.0330611 2.8739903 2.8012269
-1.0017967 2.78246 2.2368908
-0.94487029 2.6214921 1.723104
-0.92352366 2.5580873 1.3447093
-0.89099109 2.4652994 1.001487
-0.86492902 2.3905976 0.70387506
-0.84444362 2.3327186 0.43822867
-0.82716179 2.2825112 0.19160943
0.0062827617 0.088442318 8.7389402
-0.43170017 1.3032836 8.7280931
-0.57212192 1.6912426 8.60707
-0.31908631 0.92239934 3.1674278
-0.47437921 1.3564315 3.4449077
-1.0983042 3.1201849 6.1292539
-1.1746253 3.3222809 5.2480569
-1.124728 3.170625 4.1044621
-0.11949784 0.50206727 8.76478
-0.25437805 0.91496593 8.8142872
-0.2709884 0.794348 3.2689323
-1.0823959 3.1270025 9.0527611
-0.53680843 1.5367852 3.4296696
-1.2141701 3.4590619 6.0665779
-1.1415443 3.2395296 4.6229472
-1.1005164 3.1144621 3.6591797
-1.0747304 3.0096948 3.2203252
-1.0156363 2.8395317 2.51402
-0.98229444 2.7418113 1.9941061
-0.93816483 2.6157765 1.5412011
-0.90577096 2.5227041 1.1712639
-0.88119459 2.4515851 0.85568774
-0.8565371 2.380388 0.5717715
-0.83535689 2.3190069 0.31423289
-1.0367799 2.9162779 2.8378077
-1.0015694 2.8125947 2.257493
-0.94729364 2.6572583 1.7433695
-0.92527193 2.5912147 1.3593956
-0.89350653 2.4995205 1.0129915
-0.86640519 2.4210608 0.71090895
-0.84464222 2.358963 0.44168207
-0.82761806 2.3088994 0.19261709
0.0065914444 0.088419847 8.7389402
-0.4269067 1.3040441 8.7231531
-0.56621492 1.6932294 8.60707
-0.31586462 0.92350751 3.1674278
-0.46964145 1.3580791 3.4449077
-1.087406 3.1239996 6.1292539
-1.1806663 3.376832 5.3265829
-1.1263851 3.2108262 4.1505122
-0.1178095 0.50276262 8.7697725
-0.25118268 0.91584831 8.8142872
-0.26821396 0.7952891 3.2689323
-1.0692391 3.1242306 9.0339899
-0.53144085 1.5386497 3.4296696
-1.2209007 3.5174837 6.160428
-1.1401439 3.2719493 4.662848
-1.0985844 3.143888 3.6885808
-1.0784681 3.053781 3.2623799
-1.0161024 2.872416 2.5391278
-0.98807907 2.7885783 2.0242622
-0.93791366 2.6440852 1.5551139
-0.90626734 2.5520623 1.1825022
-0.88227242 2.4817657 0.8641479
-0.85810488 2.4111311 0.57736725
-0.83561367 2.3453643 0.31646827
-1.043931 2.969193 2.8843644
-1.0011436 2.842761 2.278095
-0.94947869 2.693073 1.7636348
-0.92680001 2.6243856 1.374082
-0.89421999 2.5293374 1.0228527
-0.86605746 2.446981 0.71677059
-0.84466803 2.3852372 0.44513547
-0.82623076 2.3306096 0.19342321
0.0069000465 0.088396303 8.7389402
-0.42235214 1.3055264 8.7231531
-0.56030101 1.6951956 8.60707
-0.31263906 0.92460448 3.1674278
-0.46489805 1.3597102 3.4449077
-1.0764946 3.1277764 6.1292539
-1.1854211 3.4288056 5.4009762
-1.1277752 3.2510774 4.1965618
-0.11605382 0.50317079 8.7697725
-0.24798422 0.91671956 8.8142872
-0.26543626 0.79622054 3.2689323
-1.0583271 3.1279438 9.0339899
-0.52606672 1.5404954 3.4296696
-1.2263917 3.5735273 6.2500129
-1.142457 3.3157942 4.718708
-1.1042097 3.1957679 3.7437081
-1.081911 3.0979295 3.3044343
-1.0163511 2.9053376 2.5642354
-0.98940086 2.82358 2.0461938
-0.93747616 2.6724231 1.5690267
-0.90656984 2.5814545 1.1937402
-0.88474125 2.5165088 0.87401813
-0.85946828 2.4419131 0.58296293
-0.83569664 2.3717518 0.31870368
-1.0482732 3.0151403 2.9242706
-1.0005194 2.8729587 2.2986972
-0.95142514 2.7289352 1.7839004
-0.92810774 2.6575983 1.3887684
-0.89473599 2.5591888 1.0327138
-0.86714476 2.4775155 0.72380447
-0.84615719 2.4162138 0.44927955
-0.82635474 2.3570523 0.19443086
0.0072085666 0.088371672 8.7389402
-0.41755608 1.3062525 8.718214
-0.55469626 1.6981089 8.6119652
-0.30940968 0.92569011 3.1674278
-0.46014893 1.3613247 3.4449077
-1.0647986 3.1292477 6.1248646
-1.1852766 3.4675384 5.4547043
-1.1299375 3.2944088 4.2464495
-0.1143597 0.50385457 8.7747641
-0.24478279 0.91757959 8.8142872
-0.26265529 0.79714221 3.2689323
-1.047402 3.131619 9.0339899
-0.51999003 1.5402596 3.4251683
-1.2323439 3.6321216 6.3438635
-1.1532217 3.3853655 4.8104787
-1.110582 3.2509334 3.8025112
-1.0862226 3.1455092 3.3499935
-1.0189269 2.9456522 2.5956199
-0.99049008 2.8586242 2.0681255
-0.93830389 2.7049756 1.5852584
-0.90819871 2.6152589 1.2068516
-0.88540292 2.5467684 0.8824783
-0.86062717 2.4727345 0.58855867
-0.83724397 2.4028704 0.32138616
-1.0535207 3.0646834 2.9675019
-1.0010123 2.9070079 2.3222425
-0.95453757 2.7689188 1.8066989
-0.92771339 2.6865613 1.4013567
-0.89659709 2.5935376 1.0442182
-0.86802953 2.5080872 0.73083836
-0.84581995 2.4425499 0.45273295
-0.82630414 2.3835242 0.19543852
0.007516996 0.088345975 8.7389402
-0.41299385 1.3077021 8.718214
-0.5487653 1.7000347 8.6119652
-0.30617654 0.92676455 3.1674278
-0.45539421 1.3629225 3.4449077
-1.0515785 3.1261353 6.1116977
-1.1857769 3.5089781 5.5125656
-1.1318111 3.3377943 4.2963371
-0.11253822 0.50396872 8.7697725
-0.24157834 0.91842848 8.8142872
-0.25987116 0.79805416 3.2689323
-1.0364642 3.1352561 9.0339899
-0.51461029 1.5420654 3.4251683
-1.2395602 3.6957452 6.4462457
-1.1577449 3.4379172 4.8783092
-1.1144129 3.2997572 3.8539631
-1.0902151 3.1931565 3.3955526
-1.0199739 2.9823368 2.6238658
-0.99270177 2.8976662 2.0927987
-0.9374786 2.7333758 1.5991712
-0.90960264 2.6491058 1.2199627
-0.88742346 2.5815992 0.89234853
-0.85998285 2.4989481 0.59322178
-0.83696204 2.4293201 0.32362157
-1.0572336 3.1107647 3.0074081
-0.99997705 2.937269 2.3428447
-0.95738232 2.8089569 1.8294976
-0.92859435 2.7198489 1.416043
-0.89670205 2.6234617 1.0540793
-0.8702848 2.543294 0.73904461
-0.84691298 2.473598 0.45687702
-0.82769853 2.4147501 0.1966477
0.0078180516 0.088276178 8.7339401
-0.40819535 1.3083938 8.713275
-0.54282779 1.7019399 8.6119652
-0.30340263 0.92924672 3.1721995
-0.45002151 1.3626488 3.4403052
-1.0391487 3.1252415 6.1029191
-1.1868936 3.5531316 5.5745597
-1.1333953 3.381233 4.3462248
-0.11077836 0.50435847 8.7697725
-0.23850414 0.91978228 8.8192587
-0.25708383 0.79895645 3.2689323
-1.0255139 3.138855 9.0339899
-0.50854266 1.5417849 3.4206672
-1.2299347 3.7099516 6.4633093
-1.1704797 3.5162725 4.9820499
-1.1211368 3.3582945 3.916441
-1.093888 3.2408695 3.4411118
-1.0232705 3.0264394 2.6583891
-0.99331152 2.9327974 2.1147306
-0.9378888 2.7659981 1.6154027
-0.91078115 2.6829939 1.2330739
-0.88921142 2.6164746 0.90221882
-0.86074805 2.5298374 0.59881747
-0.83811122 2.460511 0.32630402
-1.0594484 3.1533694 3.0439887
-1.0000319 2.9713886 2.3663898
-0.9613353 2.8531334 1.8548293
-0.92925417 2.7531753 1.4307294
-0.89963222 2.6623652 1.0672274
-0.87074721 2.5739419 0.74607849
-0.8477996 2.504683 0.46102113
-0.82728159 2.4412827 0.19765536
0.0081261462 0.08824835 8.7339401
-0.4033972 1.3090683 8.7083368
-0.53718942 1.7047957 8.6168604
-0.30015713 0.93030012 3.1721995
-0.44526222 1.3642113 3.4403052
-1.0244949 3.1174731 6.0809736
-1.1841878 3.5866473 5.6200223
-1.1356978 3.4277647 4.3999496
-0.10901714 0.50474209 8.7697725
-0.23529205 0.92060918 8.8192587
-0.25429338 0.79984891 3.2689323
-1.0150812 3.144058 9.038682
-0.50315773 1.5435507 3.4206672
-1.2535163 3.8257506 6.6552768
-1.1676148 3.5489602 5.0219498
-1.1200297 3.3943822 3.9531927
-1.0961123 3.2852635 3.4831662
-1.0262713 3.0706005 2.6929121
-0.99501538 2.9719331 2.1394038
-0.93808246 2.7986562 1.6316342
-0.9132089 2.7213175 1.2480582
-0.88923901 2.6468465 0.91067898
-0.85974205 2.5561063 0.60348064
-0.83905274 2.491739 0.3289865
-1.062555 3.1995702 3.0838945
-0.99986058 3.0055444 2.389935
-0.96362931 2.893281 1.877628
-0.92969257 2.7865391 1.4454159
-0.90080541 2.6968417 1.0787319
-0.87254763 2.6092336 0.75428468
-0.84847939 2.5358043 0.4651652
-0.82827616 2.472579 0.19886455
0.0084341401 0.088219449 8.7339401
-0.39882523 1.3104684 8.7083368
-0.53093284 1.7056881 8.6119652
-0.29690793 0.93134224 3.1721995
-0.44049755 1.3657573 3.4403052
-1.0150862 3.1255863 6.0897522
-1.1917362 3.6522889 5.7150803
-1.1356946 3.4682617 4.4460001
-0.10719556 0.50483698 8.76478
-0.23207708 0.92142493 8.8192587
-0.25149983 0.80073172 3.2689323
-1.0041002 3.1475821 9.038682
-0.49776667 1.5452976 3.4206672
-1.2546142 3.8747649 6.7320633
-1.1691942 3.5959985 5.0818005
-1.1186842 3.4305022 3.9899442
-1.1013901 3.3398726 3.5357344
-1.0301971 3.1185145 2.7305734
-0.99777162 3.0150852 2.1668184
-0.93666649 2.8271439 1.6455472
-0.91537994 2.75969 1.2630424
-0.89057696 2.6818025 0.92054915
-0.86011273 2.58706 0.60907632
-0.8382135 2.5182781 0.33122188
-1.0653518 3.2458308 3.1238005
-0.9994629 3.0397346 2.4134803
-0.96430677 2.9293847 1.8978933
-0.93133044 2.824249 1.4622003
-0.9032293 2.7358427 1.09188
-0.87258679 2.6399543 0.76131868
-0.85050696 2.5716617 0.46999997
-0.82906228 2.5039115 0.20007373
0.0087420326 0.088189468 8.7339401
-0.39402497 1.3111084 8.7033968
-0.52497566 1.707531 8.6119652
-0.29365513 0.93237293 3.1721995
-0.43572748 1.3672867 3.4403052
-1.0041696 3.1291106 6.0897522
-1.1997044 3.7207053 5.8142715
-1.1423293 3.5301466 4.5189123
-0.1054327 0.50520808 8.76478
-0.22885929 0.92222941 8.8192587
-0.24870324 0.80160475 3.2689323
-0.9931069 3.151068 9.038682
-0.4923695 1.5470257 3.4206672
-1.2688943 3.9660614 6.8813715
-1.1750675 3.6574349 5.1616006
-1.1181399 3.4698811 4.0303712
-1.098565 3.3708227 3.5637708
-1.0338006 3.1664929 2.768235
-0.99893886 3.0543184 2.1914916
-0.93919814 2.8682852 1.6664163
-0.91729426 2.7981105 1.2780267
-0.89317757 2.7213581 0.93182951
-0.86027765 2.6180475 0.61467206
-0.83719921 2.5448415 0.33345729
-1.0689905 3.295701 3.167032
-1.0000876 3.0778022 2.4399688
-0.96607733 2.9696269 1.920692
-0.93271631 2.862004 1.4789846
-0.90392685 2.7704036 1.1033846
-0.87393117 2.6753263 0.76952487
-0.85229439 2.607564 0.47483471
-0.82963955 2.535279 0.20128292
0.0090498179 0.088158414 8.7339401
-0.38922516 1.3117307 8.6984577
-0.51901209 1.7093531 8.6119652
-0.28995562 0.93196696 3.1674278
-0.43095207 1.3687992 3.4403052
-0.99468839 3.1371624 6.0985303
-1.207209 3.7892208 5.9134617
-1.1397609 3.5646427 4.5572877
-0.10366856 0.50557303 8.76478
-0.22563873 0.92302263 8.8192587
-0.2459036 0.802468 3.2689323
-0.98261452 3.156163 9.043375
-0.4869664 1.548735 3.4206672
-1.2558284 3.9729536 6.8856373
-1.1714097 3.6902347 5.2015009
-1.1163055 3.5060666 4.0671229
-1.0944439 3.3983986 3.5883024
-1.0358866 3.21083 2.8027582
-1.0011301 3.0975747 2.2189062
-0.94281751 2.9136925 1.6896043
-0.91895121 2.8365774 1.293011
-0.8940326 2.7564003 0.94169968
-0.8602367 2.6490669 0.62026775
-0.83754927 2.5761642 0.33613977
-1.0711542 3.3420799 3.206938
-1.0066366 3.1351538 2.481173
-0.96362084 2.9976051 1.935891
-0.93384975 2.8998027 1.495769
-0.9058432 2.8094969 1.1165327
-0.87503922 2.7107399 0.77773106
-0.85231942 2.6387973 0.47897878
-0.83000791 2.5666809 0.2024921
0.0093574934 0.088126287 8.7339401
-0.38442576 1.3123356 8.6935186
-0.51304215 1.7111543 8.6119652
-0.2867007 0.93297338 3.1674278
-0.42675146 1.3721608 3.4449077
-0.98373163 3.1406155 6.0985303
-1.2100258 3.8444116 5.9919877
-1.1417925 3.6144452 4.61485
-0.10190315 0.50593185 8.76478
-0.22241539 0.92380464 8.8192587
-0.24310097 0.80332148 3.2689323
-0.97159147 3.1595738 9.043375
-0.48155731 1.5504253 3.4206672
-1.0056533 3.2205048 5.5887933
-1.1819625 3.7690568 5.3052416
-1.1183008 3.5552175 4.1185751
-1.0814935 3.3988004 3.5847981
-1.0388576 3.2589278 2.8404195
-1.0030313 3.1408832 2.246321
-0.94478232 2.9549406 1.7104735
-0.92035091 2.8750901 1.3079953
-0.89465398 2.7914817 0.95156991
-0.8599894 2.6801176 0.62586349
-0.83616763 2.6027789 0.33837515
-1.0741342 3.3920732 3.2501695
-1.010353 3.1848817 2.5164909
-0.9675051 3.0461442 1.963756
-0.93197829 2.9289939 1.5083573
-0.90463066 2.839638 1.1263937
-0.87591058 2.7461934 0.78593731
-0.85364228 2.6747801 0.48381355
-0.830167 2.5981162 0.20370129
0.0096650543 0.088093087 8.7339401
-0.3796269 1.3129231 8.6885786
-0.50706595 1.7129349 8.6119652
-0.28344226 0.93396848 3.1674278
-0.42195913 1.373642 3.4449077
-0.96851593 3.1303024 6.072196
-1.2082947 3.8862321 6.049849
-1.1654496 3.7346787 4.7606754
-0.1001365 0.50628448 8.76478
-0.21918936 0.92457533 8.8192587
-0.24029537 0.80416512 3.2689323
-0.96055657 3.162946 9.043375
-0.47614241 1.5520968 3.4206672
-0.9897939 3.2090423 5.5631976
-1.1866298 3.8307264 5.3850422
-1.1189605 3.6011868 4.1663523
-1.0674839 3.3957503 3.5777888
-1.040336 3.3033726 2.8749425
-1.0033842 3.1802545 2.2709942
-0.94780463 3.0004611 1.7336615
-0.92149252 2.913646 1.3229796
-0.89504111 2.8266008 0.96144021
-0.86102045 2.7158813 0.63239181
-0.83762348 2.6389077 0.34150469
-1.0767782 3.4421277 3.2934012
-1.0137342 3.234674 2.5518088
-0.9749338 3.1070862 1.9992205
-0.93127543 2.9625368 1.5230438
-0.90605402 2.8788133 1.1395417
-0.87654483 2.7816856 0.7941435
-0.85472411 2.7108035 0.48864833
-0.83011663 2.6295834 0.20491047
0.0099724969 0.088058814 8.7339401
-0.37482864 1.313493 8.6836395
-0.50108361 1.7146944 8.6119652
-0.28018036 0.9349522 3.1674278
-0.41716164 1.3751066 3.4449077
-0.95548373 3.1267927 6.0590286
-1.2211548 3.9765079 6.1821036
-0.098368622 0.5066309 8.76478
-0.21596067 0.92533487 8.8192587
-0.23748685 0.80499905 3.2689323
-0.94950998 3.1662798 9.043375
-0.47072166 1.5537496 3.4206672
-0.97858626 3.2124779 5.5631976
-1.1935253 3.9011185 5.4768128
-1.123291 3.6601675 4.2288303
-1.0545665 3.39605 3.5742843
-1.042673 3.3515835 2.9126039
-1.0047183 3.2236581 2.2984087
-0.95184016 3.0502672 1.7591683
-0.9223761 2.952245 1.3379638
-0.89519382 2.8617558 0.97131038
-0.861812 2.7516842 0.63892013
-0.8403272 2.6798301 0.34508133
-1.0790854 3.4922409 3.3366327
-1.01678 3.2845278 2.587127
-0.97939622 3.1598814 2.0296187
-0.92631203 2.9831071 1.531436
-0.90721476 2.9180329 1.1526899
-0.87838662 2.8218563 0.80352205
-0.85409218 2.7421389 0.4927924
-0.82985657 2.6610811 0.20611966
0.010271339 0.087980673 8.728941
-0.37003103 1.3140454 8.6787004
-0.49509516 1.716433 8.6119652
-0.27691507 0.93592447 3.1674278
-0.41235909 1.3765544 3.4449077
-0.93972051 3.1140585 6.0283051
-1.2146165 4.0049829 6.2192998
-1.1505489 3.77952 4.8067255
-0.096652657 0.50725496 8.7697725
-0.21272932 0.92608309 8.8192587
-0.23467542 0.80582315 3.2689323
-0.93894154 3.1712296 9.048068
-0.46529523 1.5553832 3.4206672
-0.96210825 3.1983917 5.5333362
-1.1982005 3.9658351 5.5606031
-1.1272233 3.7192218 4.2913079
-1.0416601 3.396301 3.57078
-1.0435426 3.3961298 2.9471271
-1.0045315 3.263113 2.323082
-0.95423442 3.0959041 1.7823563
-0.92300135 2.9908848 1.3529481
-0.89511186 2.896946 0.98118061
-0.86671925 2.801604 0.64824641
-0.84275538 2.7208033 0.348658
-1.0821455 3.5459828 3.3831894
-1.01949 3.3344419 2.6224449
-0.98224002 3.2086229 2.0574837
-0.92920059 3.0297129 1.5524164
-0.90672642 2.9527807 1.1641943
-0.87995833 2.8620732 0.8129006
-0.85470784 2.7782354 0.49762714
-0.82938671 2.6926091 0.20732884
0.010578386 0.087944284 8.728941
-0.36523411 1.3145803 8.6737604
-0.48910069 1.7181509 8.6119652
-0.27364638 0.93688542 3.1674278
-0.4075515 1.3779854 3.4449077
-0.93021244 3.1219106 6.0370831
-1.1965929 3.9957197 6.1986351
-1.1474983 3.8172784 4.8489375
-0.094881408 0.50758922 8.7697725
-0.2094954 0.92681998 8.8192587
-0.23186116 0.80663735 3.2689323
-0.92786622 3.1744876 9.048068
-0.45924658 1.5549099 3.4161658
-0.95168036 3.2042305 5.5376019
-1.1964089 4.0104189 5.6164637
-1.1288128 3.7718513 4.3464351
-1.0287646 3.3965034 3.5672753
-1.0441138 3.4407225 2.9816501
-1.0065136 3.3106062 2.3532381
-0.95761168 3.1458323 1.8078631
-0.92336798 3.0295646 1.3679323
-0.894795 2.9321702 0.99105084
-0.86985302 2.8468931 0.65663993
-0.84490752 2.7618253 0.3522346
-1.0859207 3.6033638 3.4330721
-1.0218635 3.384414 2.6577628
-0.98350781 3.2532959 2.0828154
-0.92651272 3.059 1.5650047
-0.90737683 2.9920795 1.1773424
-0.88125998 2.9023352 0.82227916
-0.85508186 2.8143694 0.50246191
-0.83016068 2.7289457 0.20873956
0.010885304 0.087906823 8.728941
-0.36043799 1.3150978 8.6688213
-0.48337543 1.7208281 8.6168604
-0.27037439 0.93783492 3.1674278
-0.40273893 1.3793997 3.4449077
-0.9193092 3.1251385 6.0370831
-0.96643049 3.2685621 5.0786061
-1.1651727 3.9257348 4.979413
-0.093160145 0.50820148 8.7747641
-0.20625891 0.92754561 8.8192587
-0.22904405 0.80744183 3.2689323
-0.91725779 3.1793654 9.0527611
-0.45381615 1.5565035 3.4161658
-0.94048971 3.2075329 5.5376019
-1.1985768 4.0694904 5.6922741
-1.1358122 3.8440442 4.4236135
-1.0169024 3.4000738 3.5672753
-1.0499722 3.5040026 3.0318654
-1.0069741 3.3541484 2.3806529
-0.96065181 3.1958213 1.83337
-0.92213953 3.063844 1.3810436
-0.89562714 2.9720201 1.0023311
-0.87551898 2.9016435 0.66689879
-0.84534317 2.7981279 0.35536414
-1.0690767 3.5928173 3.4197702
-1.0215909 3.4266953 2.6871943
-0.98200959 3.2897546 2.1030807
-0.93663555 3.1317873 1.5985737
-0.90911829 3.0359421 1.192134
-0.88229114 2.9426405 0.83165771
-0.85521388 2.8505394 0.50729668
-0.82925367 2.7605352 0.20994875
0.011192089 0.087868296 8.728941
-0.35564274 1.3155979 8.6638832
-0.4773657 1.7225049 8.6168604
-0.26709908 0.93877298 3.1674278
-0.3984623 1.3826745 3.4495103
-0.90839481 3.1283283 6.0370831
-0.95501518 3.2719159 5.0786061
-1.1685854 3.9882212 5.0523257
-0.091385625 0.50852358 8.7747641
-0.20301992 0.92825991 8.8192587
-0.22622417 0.80823642 3.2689323
-0.90615422 3.1825476 9.0527611
-0.44838017 1.5580782 3.4161658
-0.92928755 3.2107964 5.5376019
-1.1793172 4.0562882 5.6683335
-1.1261839 3.8610041 4.4383144
-1.0060376 3.4070227 3.57078
-1.0542972 3.563633 3.0789423
-1.0083311 3.401742 2.4108088
-0.96461469 3.2501156 1.8611956
-0.92068303 3.0981514 1.3941548
-0.89619195 3.0119114 1.0136114
-0.87520289 2.9376364 0.6734271
-0.8441121 2.829695 0.35804665
-1.0386394 3.5356264 3.3632367
-1.0221769 3.472894 2.7195692
-0.98758006 3.3510523 2.1385453
-0.93983513 3.1829178 1.6216521
-0.91056454 3.0798526 1.2069256
-0.884431 2.9876485 0.8422085
-0.85510367 2.8867443 0.51213139
-0.82955676 2.7969408 0.21135946
0.01149874 0.087828688 8.728941
-0.35104826 1.3168314 8.6638832
-0.4713501 1.7241607 8.6168604
-0.26422369 0.94113684 3.1721995
-0.39416766 1.385936 3.4541125
-0.89812911 3.1337826 6.041472
-0.94047242 3.2644131 5.0620742
-1.1724663 4.0538568 5.1290755
-0.089609988 0.50883949 8.7747641
-0.19977845 0.92896295 8.8192587
-0.22340152 0.80902117 3.2689323
-0.89550608 3.1873527 9.0574541
-0.44293872 1.5596339 3.4161658
-0.91807413 3.2140205 5.5376019
-0.94907236 3.3073211 4.6309276
-1.1258298 3.9105215 4.4897671
-0.99413878 3.4105139 3.57078
-1.0582184 3.6233346 3.126019
-1.0070192 3.4413595 2.435482
-0.96696454 3.300225 1.8867023
-0.92030305 3.1369338 1.409139
-0.89648896 3.051842 1.0248916
-0.8718738 2.9642365 0.67809021
-0.84407765 2.8660638 0.36117619
-1.0221323 3.5248861 3.3499346
-1.0201972 3.5113747 2.7460577
-0.99273437 3.4124281 2.1740098
-0.94395912 3.2384653 1.6468288
-0.91039217 3.119277 1.2200737
-0.88490409 3.0280418 0.85158712
-0.85475099 2.9229827 0.51696622
-0.82821178 2.8285875 0.21256864
0.011805248 0.087788016 8.728941
-0.3462522 1.3172971 8.6589432
-0.46532878 1.7257954 8.6168604
-0.26093692 0.94205338 3.1721995
-0.38985515 1.3891846 3.4587152
-0.88718474 3.1368985 6.041472
-0.92522418 3.2541423 5.0414095
-1.178542 4.1288142 5.2173381
-0.087833263 0.50914919 8.7747641
-0.19653454 0.92965466 8.8192587
-0.22057615 0.80979604 3.2689323
-0.8843748 3.1904593 9.0574541
-0.43749192 1.5611705 3.4161658
-0.90614212 3.2146957 5.5333362
-0.93505907 3.3019161 4.6189575
-0.98321372 3.4173903 3.5742843
-1.0617354 3.6831067 3.1730957
-1.0089236 3.4930604 2.4683797
-0.97020692 3.3546455 1.9145279
-0.91579503 3.1623919 1.4185042
-0.89651799 3.0918109 1.0361719
-0.87110895 3.0002842 0.68461853
-0.84240931 2.8976846 0.36385867
-0.99954891 3.4925356 3.3166795
-1.0268741 3.5809662 2.7960911
-0.99628252 3.4697368 2.2069414
-0.94645172 3.2897186 1.6699073
-0.91126275 3.1632745 1.2348653
-0.88510567 3.0684738 0.86096561
-0.85278237 2.9544957 0.5211103
-0.82804298 2.8650579 0.21397936
0.012111614 0.08774627 8.728941
-0.34165192 1.3184978 8.6589432
-0.45956331 1.7283934 8.6217556
-0.25764695 0.94295847 3.1721995
-0.38552469 1.3924198 3.4633176
-0.87816054 3.1468971 6.0546393
-0.91309953 3.254643 5.0372767
-1.1623846 4.1267328 5.2096634
-0.086055465 0.5094527 8.7747641
-0.19328825 0.93033499 8.8192587
-0.21774806 0.81056106 3.2689323
-0.87368762 3.1951911 9.0621462
-0.43203974 1.5626881 3.4161658
-0.89351773 3.2128136 5.5248041
-0.9235276 3.3051598 4.6189575
-0.96947294 3.4580173 3.9715686
-0.97907102 3.4482472 3.6023209
-1.065913 3.746691 3.2233109
-1.0013095 3.512646 2.4793456
-0.97308087 3.4091277 1.9423535
-0.92385972 3.2324309 1.4465997
-0.89759851 3.1364288 1.0488622
-0.86333704 3.0127511 0.6864838
-0.84190387 2.9341152 0.36698821
-0.98430747 3.4852238 3.3067031
-1.0319769 3.6467578 2.8431821
-1.0006174 3.5312583 2.2424057
-0.94859785 3.341028 1.692986
-0.91312832 3.211858 1.2513005
-0.88503569 3.1089437 0.87034416
-0.85196072 2.9907928 0.52594507
-0.82625908 2.8967566 0.21518855
0.012417831 0.087703459 8.728941
-0.33685535 1.3189294 8.6540041
-0.45326924 1.729002 8.6168604
-0.25435382 0.94385213 3.1721995
-0.38169095 1.3975264 3.4725227
-0.86844164 3.1545613 6.0634174
-0.90023184 3.2523859 5.0290108
-0.9342857 3.361799 4.2541246
-0.084276624 0.50974995 8.7747641
-0.19003959 0.93100405 8.8192587
-0.21491736 0.81131619 3.2689323
-0.86252898 3.1982214 9.0621462
-0.42658228 1.5641867 3.4161658
-0.88022768 3.2083676 5.5120063
-0.9103834 3.3025539 4.6109776
-0.95197415 3.4417756 3.9495175
-0.97280055 3.4722478 3.623348
-1.0696595 3.8103485 3.2735267
-1.0094216 3.5885739 2.528692
-0.97558624 3.4636707 1.9701792
-0.92767131 3.2891784 1.469076
-0.89837849 3.1810913 1.0615524
-0.86885554 3.0724688 0.69767523
-0.84115434 2.9705775 0.37011778
-0.97013128 3.4814448 3.3000519
-1.0366327 3.7126276 2.8902726
-0.99989206 3.576246 2.2677374
-0.94794863 3.3836515 1.7118685
-0.9146657 3.2604923 1.2677355
-0.88600826 3.15413 0.88089502
-0.84821576 3.0175848 0.52939844
-0.82561761 2.9332864 0.21659926
0.01273357 0.087702118 8.7339401
-0.33224937 1.3200972 8.6540041
-0.44723114 1.7305737 8.6168604
-0.25105762 0.94473416 3.1721995
-0.37935007 1.4082826 3.4955354
-0.85930759 3.1645076 6.0765848
-0.88813227 3.2527936 5.0248775
-0.92678207 3.3804955 4.2733121
-0.082496747 0.51004106 8.7747641
-0.18678862 0.93166178 8.8192587
-0.21208403 0.81206149 3.2689323
-0.85135978 3.2012126 9.0621462
-0.42055443 1.5635639 3.4116647
-0.8676607 3.2063854 5.5034742
-0.89647812 3.2969882 4.5990076
-0.93727738 3.4352655 3.9384921
-0.96637452 3.4962468 3.6443753
-1.0719353 3.8703256 3.3206034
-1.012543 3.6484838 2.5670724
-0.97653627 3.5140038 1.9956859
-0.93234068 3.3504577 1.4934255
-0.89885736 3.2257972 1.0742428
-0.8713271 3.1227982 0.70700145
-0.8415004 3.0118656 0.37369442
-0.95500392 3.4740095 3.2900755
-1.0397675 3.7746763 2.9344199
-1.0000108 3.6254261 2.2956023
-0.94943118 3.4350593 1.734947
-0.91587442 3.309176 1.2841705
-0.885378 3.1946759 0.89027357
-0.84694105 3.0539312 0.53423321
-0.82606781 2.9746611 0.21821152
0.013039631 0.087657139 8.7339401
-0.32745257 1.3204948 8.649065
-0.44118756 1.7321242 8.6168604
-0.24738033 0.94416082 3.1674278
-0.3754347 1.4133745 3.5047405
-0.85011441 3.1744282 6.0897522
-0.87530923 3.2504399 5.0166121
-0.90493703 3.3465805 4.227262
-0.080715865 0.51032591 8.7747641
-0.18353538 0.93230814 8.8192587
-0.20924813 0.81279683 3.2689323
-0.84018034 3.204165 9.0621462
-0.41509402 1.5650225 3.4116647
-0.85444593 3.2018352 5.4906764
-0.88262278 3.2913661 4.5870371
-0.91911417 3.4156001 3.9127657
-0.95416445 3.4995987 3.6443753
-1.0768825 3.9416287 3.3770957
-1.0163623 3.7124918 2.6081946
-0.97714669 3.5643847 2.0211926
-0.93536603 3.4073381 1.5159019
-0.89903498 3.2705448 1.0869331
-0.8747614 3.177918 0.71726024
-0.84156829 3.0531924 0.37727103
-0.94091749 3.4701147 3.2834246
-1.0435414 3.8406925 2.9815104
-0.99979836 3.6746504 2.3234675
-0.94579118 3.4690032 1.7496334
-0.91675431 3.3579071 1.3006057
-0.88575703 3.239944 0.90082437
-0.84019583 3.0711985 0.53630519
-0.82623917 3.0160737 0.21982376
0.013355501 0.087653562 8.7389402
-0.32265702 1.3208748 8.6441259
-0.43513864 1.7336538 8.6168604
-0.24408308 0.94501853 3.1674278
-0.37544644 1.4335762 3.5507658
-0.84025115 3.1820076 6.0985303
-0.86251348 3.2480357 5.0083461
-0.89242405 3.3466222 4.2234249
-0.078934006 0.51060456 8.7747641
-0.1802799 0.93294305 8.8192587
-0.20640965 0.81352228 3.2689323
-0.82899058 3.2070785 9.0621462
-0.40907791 1.5643557 3.4071634
-0.84260058 3.202276 5.4864106
-0.8695879 3.2886007 4.5790572
-0.90892488 3.4253414 3.9201162
-0.94286871 3.5063517 3.6478796
-1.0813448 4.0130119 3.4335878
-1.0175669 3.768496 2.6438336
-0.97972959 3.6233654 2.051337
-0.93679392 3.4598053 1.5365053
-0.89891106 3.3153319 1.0996233
-0.87524712 3.2236178 0.72565383
-0.84266436 3.0993612 0.38129476
-0.92686981 3.4661636 3.2767737
-1.0468669 3.9067802 3.0286009
-1.0003713 3.7280805 2.3538656
-0.95135361 3.5380266 1.7811042
-0.91853279 3.4112446 1.3186842
-0.88709611 3.2899466 0.91254759
-0.84882075 3.1458287 0.54666543
-0.82613117 3.0575233 0.22143601
0.013661388 0.087606408 8.7389402
-0.31786281 1.3212374 8.6391859
-0.42908442 1.7351621 8.6168604
-0.24078286 0.9458648 3.1674278
-0.37385723 1.4481199 3.5829835
-0.82913876 3.184921 6.0985303
-0.84974509 3.2455821 5.0000801
-0.87910676 3.3435168 4.2157497
-0.07719335 0.51116252 8.7797556
-0.17712092 0.93409061 8.8242302
-0.20387319 0.81545734 3.2737718
-0.81779081 3.2099526 9.0621462
-0.40361482 1.5657741 3.4071634
-0.83076274 3.2026734 5.4821448
-0.85658306 3.2857842 4.5710769
-0.89524657 3.4219334 3.9127657
-0.9214837 3.4751503 3.6128345
-1.0863214 4.0882363 3.4932184
-1.0194685 3.8285942 2.682214
-0.98533636 3.6952474 2.0884378
-0.93906271 3.5168021 1.5589817
-0.89724606 3.3555236 1.1109036
-0.8766948 3.2741041 0.73498005
-0.84215844 3.1407642 0.38487139
-0.91286123 3.4621572 3.2701228
-1.0487112 3.9690294 3.0727484
-0.99948072 3.7773907 2.3817306
-0.95644546 3.6071296 1.8125749
-0.91873819 3.4600701 1.3351194
-0.88809663 3.3399973 0.92427075
-0.85184133 3.2014139 0.55426294
-0.82574379 3.0990083 0.22304825
0.013977378 0.087600596 8.7439404
-0.31324887 1.3223389 8.6391859
-0.42302495 1.7366493 8.6168604
-0.2374797 0.94669956 3.1674278
-0.37217098 1.4626696 3.615201
-0.8126595 3.1669173 6.0590286
-0.83700442 3.2430789 4.9918141
-0.86582196 3.3403597 4.2080746
-0.075408585 0.51142889 8.7797556
-0.17385925 0.93470311 8.8242302
-0.20102546 0.81616402 3.2737718
-0.80658096 3.2127876 9.0621462
-0.39814678 1.5671735 3.4071634
-0.81957829 3.2055538 5.4821448
-0.84360874 3.2829175 4.563097
-0.88244992 3.4217551 3.9090908
-0.90213186 3.4507434 3.5847981
-1.0907855 4.1635437 3.5528491
-1.0199013 3.8847063 2.7178531
-0.98932678 3.7629278 2.12322
-0.93504333 3.551441 1.5720929
-0.89408827 3.3911049 1.1207738
-0.87780046 3.3246393 0.74430621
-0.84264648 3.1870153 0.38889509
-0.89889181 3.4580951 3.2634716
-1.0521709 4.0391612 3.1227822
-0.99934596 3.8309112 2.4121287
-0.96106619 3.676311 1.8440458
-0.9162218 3.4998019 1.3482674
-0.88875848 3.3900943 0.93599391
-0.85448402 3.2570577 0.56186038
-0.82634622 3.1453595 0.22486204
0.014283076 0.087551273 8.7439404
-0.3084549 1.3226676 8.6342468
-0.41719773 1.7391056 8.6217556
-0.23417367 0.9475227 3.1674278
-0.37038764 1.4772252 3.6474187
-0.79807729 3.1558034 6.0326939
-0.82429165 3.2405264 4.9835486
-0.85336345 3.3402562 4.204237
-0.073582731 0.51140314 8.7747641
-0.17059548 0.93530434 8.8242302
-0.19817528 0.81686074 3.2737718
-0.79536134 3.2155836 9.0621462
-0.39267391 1.5685536 3.4071634
-0.80774671 3.2058663 5.477879
-0.83066463 3.28 4.5551171
-0.8688302 3.4182432 3.9017403
-0.87851226 3.4089766 3.5392389
-1.0616468 4.110796 3.5057724
-1.0210021 3.9449153 2.7562337
-0.98841077 3.8135276 2.1487267
-0.94360465 3.6354535 1.6058075
-0.90155387 3.4684901 1.1433344
-0.87732667 3.3704679 0.75269985
-0.84156567 3.2284887 0.39247173
-0.8858887 3.4575949 3.2601459
-1.0501276 4.0897894 3.1581001
-0.99670267 3.8761263 2.4374604
-0.96521544 3.7455676 1.8755165
-0.91107935 3.5304134 1.3581285
-0.88908124 3.4402361 0.94771707
-0.8567484 3.3127577 0.56945789
-0.82663494 3.191752 0.22667581
0.014588599 0.087500885 8.7439404
-0.30383605 1.3237363 8.6342468
-0.41112456 1.7405512 8.6217556
-0.23121753 0.94978476 3.1721995
-0.36710227 1.4860958 3.6658287
-0.78184569 3.1376545 5.9931922
-0.81160682 3.2379251 4.9752822
-0.84013355 3.3369982 4.1965618
-0.071797162 0.51165688 8.7747641
-0.1672364 0.93536919 8.8192587
-0.19532271 0.81754756 3.2737718
-0.78454041 3.2200167 9.0668392
-0.38667515 1.5678012 3.4026623
-0.79655117 3.2086661 5.477879
-0.81775135 3.2770326 4.5471373
-0.85277504 3.4048119 3.8833644
-0.86748517 3.4154789 3.5427437
-1.0290493 4.0428071 3.4461415
-1.0268623 4.0254374 2.8083215
-0.98934639 3.8727503 2.1788712
-0.9458456 3.6971116 1.630157
-0.90491825 3.5320268 1.1616648
-0.87776411 3.4210911 0.76202601
-0.84268421 3.2796397 0.39694253
-0.87290013 3.457046 3.2568207
-1.0616251 4.1953111 3.2346222
-0.99693251 3.9339054 2.4703918
-0.97000974 3.8192956 1.9090853
-0.92435777 3.6342542 1.3942857
-0.89026445 3.4951313 0.9606126
-0.85741115 3.3637149 0.5763647
-0.82537407 3.2333438 0.22828805
0.014893945 0.087449424 8.7439404
-0.29904255 1.3240308 8.6293077
-0.40527683 1.7429675 8.6266508
-0.22790076 0.95058608 3.1721995
-0.36237431 1.4892665 3.6704314
-0.76860493 3.1310606 5.975636
-0.79895031 3.2352746 4.9670167
-0.82693696 3.3336885 4.1888871
-0.069972523 0.5116182 8.7697725
-0.16397034 0.9359473 8.8192587
-0.19246775 0.81822437 3.2737718
-0.77329564 3.2227359 9.0668392
-0.38120013 1.5691414 3.4026623
-0.78472656 3.2088938 5.4736128
-0.80558801 3.2769408 4.5431471
-0.83763635 3.3946021 3.8686638
-0.85555762 3.4184861 3.5427437
-0.89656758 3.5744531 3.0538344
-1.0311533 4.1019926 2.8576679
-0.98231047 3.9019551 2.1927841
-0.9488008 3.7633245 1.6563795
-0.90784979 3.595628 1.1799952
-0.8778587 3.4717581 0.77135223
-0.84345561 3.3308372 0.40141329
-0.8599261 3.4564488 3.2534952
-1.0635977 4.2656646 3.284656
-1.0040814 4.021009 2.5210555
-0.97319925 3.8886998 1.9405563
-0.92773813 3.7015858 1.4172949
-0.89225829 3.5547903 0.97468042
-0.85893464 3.4195185 0.58396214
-0.8262704 3.2846551 0.23030338
0.01519911 0.087396905 8.7439404
-0.29441899 1.3250666 8.6293077
-0.39919025 1.7443715 8.6266508
-0.2245812 0.95137578 3.1721995
-0.35762864 1.4924222 3.6750338
-0.75654531 3.1290686 5.9668579
-0.78698713 3.2353089 4.9628835
-0.81453443 3.333441 4.1850495
-0.068186216 0.5118593 8.7697725
-0.16079181 0.93703949 8.8242302
-0.18961044 0.81889123 3.2737718
-0.76204151 3.2254155 9.0668392
-0.37572047 1.5704625 3.4026623
-0.77291 3.2090776 5.469347
-0.7927264 3.2738755 4.5351672
-0.82017756 3.3744454 3.8429377
-0.8436197 3.421452 3.5427437
-0.88128382 3.5662251 3.0444191
-1.0349221 4.1786256 2.9070144
-0.98787951 3.9827514 2.2345223
-0.95130497 3.8296018 1.6826018
-0.91034824 3.6592927 1.1983256
-0.87404758 3.508167 0.77788055
-0.84387976 3.3820794 0.40588409
-0.84785557 3.4594293 3.2534952
-1.0487013 4.269351 3.284656
-1.0075446 4.0956516 2.5641193
-0.9770022 3.9625783 1.974125
-0.92952746 3.7643998 1.4386604
-0.89384639 3.6145051 0.98874819
-0.86007905 3.4753737 0.59155965
-0.82561642 3.3311625 0.23211715
0.01550409 0.08734332 8.7439404
-0.28962621 1.3253272 8.6243687
-0.39309883 1.7457544 8.6266508
-0.22125892 0.95215398 3.1721995
-0.35286537 1.4955629 3.6796365
-0.7450636 3.1293604 5.9624686
-0.77503347 3.2352996 4.9587507
-0.80139381 3.3300314 4.1773744
-0.066362903 0.5118078 8.76478
-0.15751997 0.93759507 8.8242302
-0.18675081 0.81954813 3.2737718
-0.75116891 3.2297366 9.0715313
-0.37023625 1.5717645 3.4026623
-0.76050007 3.2066808 5.4608154
-0.78059483 3.2736919 4.531177
-0.8083936 3.3772879 3.8429377
-0.83082986 3.4209101 3.5392389
-0.86698896 3.5617156 3.0381424
-1.0391592 4.2593961 2.9591022
-0.99289638 4.0636334 2.2762606
-0.95225596 3.891439 1.7069513
-0.91355485 3.7276766 1.2180661
-0.87936002 3.5827565 0.79186988
-0.84514505 3.4382007 0.41080198
-0.83489865 3.4587383 3.2501695
-1.0115141 4.1745558 2.6097164
-0.98030096 4.0365295 2.0076938
-0.93200547 3.8318589 1.4616696
-0.89502829 3.6742735 1.0028161
-0.86084366 3.5312777 0.59915715
-0.82464784 3.3777046 0.23393093
0.015820034 0.087330848 8.7489405
-0.28499821 1.3263301 8.6243687
-0.38700262 1.7471159 8.6266508
-0.21793394 0.9529205 3.1721995
-0.34808454 1.4986886 3.6842389
-0.73358905 3.1296103 5.9580798
-0.76308954 3.2352464 4.9546175
-0.78902596 3.3296897 4.1735373
-0.064575948 0.51203632 8.76478
-0.15433206 0.93866527 8.8292027
-0.18388893 0.82019496 3.2737718
-0.73989046 3.2323391 9.0715313
-0.36474752 1.5730472 3.4026623
-0.74870914 3.2067761 5.4565492
-0.7684741 3.273463 4.5271869
-0.79582208 3.3767893 3.8392625
-0.81888354 3.4237895 3.5392389
-0.85273635 3.5571501 3.0318654
-1.0428449 4.3402462 3.0111899
-0.99632388 4.1402912 2.3156803
-0.95387292 3.9578359 1.7331737
-0.91629499 3.7961268 1.2378066
-0.87261969 3.6096778 0.79653299
-0.84602869 3.4943714 0.41571984
-0.82282031 3.4616313 3.2501695
-0.89147544 3.7418211 2.8843861
-1.0139443 4.2493439 2.6527805
-0.98309523 4.1105518 2.0412626
-0.93182361 3.8901961 1.4813917
-0.89693737 3.7388201 1.0180562
-0.86238444 3.5920441 0.6074453
-0.82453215 3.4291375 0.23594624
0.015972432 0.087303102 8.7489405
-0.28252122 1.3260655 8.6194296
-0.38425779 1.7477217 8.6266508
-0.21643682 0.95326161 3.1721995
-0.34643078 1.5010768 3.6888416
-0.72867531 3.128299 5.9536905
-0.75913638 3.2361763 4.9546175
-0.78422219 3.3275313 4.1696997
-0.064129092 0.51209253 8.76478
-0.15359828 0.93932581 8.8341742
-0.18331628 0.82032317 3.2737718
-0.73763365 3.2328548 9.0715313
-0.36392382 1.5732379 3.4026623
-0.74643838 3.2046278 5.4522834
-0.76664382 3.2707973 4.5231967
-0.79464334 3.3770671 3.8392625
-0.81290668 3.4252136 3.5392389
-0.84444356 3.5471256 3.02245
-1.0554352 4.423224 3.0660193
-1.0080581 4.2149196 2.3550999
-0.96454382 4.0267897 1.7612692
-0.92845428 3.8672116 1.2589571
-0.89117724 3.7062638 0.81518537
-0.85341817 3.5438182 0.42019063
-0.81893891 3.458715 3.2468441
-0.88699502 3.7345772 2.8785
-1.0269383 4.3171515 2.6933117
-0.99811888 4.1862884 2.0769296
-0.94734752 3.9641688 1.5076877
-0.90968776 3.8007419 1.0332963
-0.87498277 3.6501324 0.61573344
-0.83616418 3.482862 0.23816307
0.016277077 0.087246813 8.7489405
-0.27773163 1.3262831 8.6144905
-0.37784946 1.7491183 8.6266508
-0.21294148 0.95404851 3.1721995
-0.34066454 1.502396 3.6888416
-0.71612394 3.1287391 5.9493017
-0.7455079 3.2364557 4.9504848
-0.7701357 3.3275297 4.1658621
-0.061894063 0.51236743 8.76478
-0.14949824 0.93998706 8.8341742
-0.17959189 0.82114661 3.2737718
-0.72333205 3.2378528 9.0762243
-0.35650611 1.5749354 3.4026623
-0.73132867 3.2081096 5.4522834
-0.74997735 3.2715678 4.519207
-0.77737015 3.3776062 3.8355873
-0.79932278 3.4210844 3.5322297
-0.82966208 3.5426173 3.0161729
-1.0602381 4.5166202 3.1263313
-1.0091013 4.2920671 2.3945196
-0.96501338 4.0981517 1.7893648
-0.9294396 3.9409418 1.2801076
-0.89097214 3.7719603 0.82730943
-0.85294336 3.6053698 0.42555556
-0.80383968 3.4622552 3.2468441
-0.8691228 3.734627 2.8755567
-1.0249503 4.3973355 2.7389088
-0.99872971 4.274745 2.1167924
-0.94371909 4.0329609 1.530697
-0.90729457 3.8712399 1.0497087
-0.87183505 3.7170408 0.62471229
-0.83055902 3.5355418 0.24017838
0.016691672 0.087124169 8.7439404
-0.27086002 1.3269105 8.6095505
-0.36899158 1.7510084 8.6266508
-0.2081099 0.95511407 3.1721995
-0.33321521 1.5060667 3.6934438
-0.69921011 3.1301086 5.9449124
-0.72793448 3.2375691 4.946352
-0.75070935 3.3253949 4.1581874
-0.059063587 0.51299202 8.7697725
-0.14424606 0.94080734 8.8341742
-0.17485948 0.82216734 3.2737718
-0.70467144 3.2419653 9.0762243
-0.34742928 1.5769627 3.4026623
-0.71171421 3.209847 5.4480176
-0.73055041 3.2759604 4.519207
-0.75583208 3.3755431 3.8282371
-0.78180051 3.4214737 3.5287254
-0.81060177 3.5390415 3.0098963
-1.0588675 4.6156669 3.1893852
-1.0032359 4.3661966 2.4316204
-0.95777458 4.1617146 1.813714
-0.92494208 4.0158744 1.301258
-0.88820446 3.8533134 0.84223133
-0.84574682 3.6633077 0.43047345
-0.78366631 3.4630487 3.2435184
-0.84556895 3.7275972 2.8667274
-1.0213864 4.4954729 2.7946386
-0.99145842 4.3602567 2.1545575
-0.93445098 4.1029501 1.5537062
-0.89944041 3.9429004 1.0661212
-0.86343014 3.7850618 0.63369113
-0.82118702 3.5941243 0.24239522
0.01702608 0.087059431 8.7439404
-0.26576304 1.3279407 8.6095505
-0.3622655 1.7524122 8.6266508
-0.20444101 0.95590609 3.1721995
-0.32769296 1.5072777 3.6934438
-0.6872195 3.130311 5.9405231
-0.71545613 3.2374678 4.9422188
-0.73840213 3.3248661 4.1543498
-0.057362121 0.51318502 8.7697725
-0.14112544 0.94128054 8.8341742
-0.17227569 0.8227126 3.2737718
-0.69484425 3.2458508 9.0809174
-0.34201184 1.5759188 3.3981609
-0.70218724 3.2119443 5.4480176
-0.72018021 3.2751708 4.5152168
-0.74508238 3.3744605 3.8245618
-0.76787621 3.4209704 3.5252209
-0.79615247 3.5383303 3.0067577
-1.0299832 4.5664897 3.1537461
-1.0038205 4.4432998 2.47104
-0.95274609 4.2104135 1.8324444
-0.92682344 4.0892549 1.3224086
-0.8899613 3.9234581 0.85528803
-0.84509075 3.7196558 0.43539131
-0.77217811 3.4656284 3.2435184
-0.83055991 3.7185459 2.8578975
-1.0262364 4.5871782 2.8478355
-0.9995876 4.4607816 2.2007146
-0.93189782 4.1519403 1.5701411
-0.90090835 4.0073562 1.0813613
-0.86523992 3.8455822 0.64197928
-0.81930614 3.6355343 0.24400747
0.01732987 0.086999469 8.7439404
-0.26120827 1.3280523 8.6046114
-0.35645229 1.7536039 8.6266508
-0.20126997 0.95657879 3.1721995
-0.32269284 1.5083562 3.6934438
-0.67632949 3.1302316 5.9361343
-0.70411837 3.2370725 4.9380856
-0.72668797 3.3241651 4.1505122
-0.055690203 0.5136596 8.7747641
-0.13792658 0.94121575 8.8292027
-0.16954654 0.82327938 3.2737718
-0.68407679 3.2481372 9.0809174
-0.33678401 1.5770444 3.3981609
-0.69098377 3.2117054 5.4437513
-0.70867813 3.2745957 4.5112267
-0.73388821 3.3769126 3.8245618
-0.75516129 3.4201474 3.5217161
-0.78295541 3.5372872 3.0036192
-0.99048764 4.4639215 3.082468
-1.0036812 4.5159655 2.5081408
-0.95919752 4.308742 1.8717781
-0.92924762 4.1673789 1.344969
-0.89193618 3.993506 0.86834478
-0.8457976 3.780756 0.44075626
-0.76068139 3.4681702 3.2435184
-0.81475234 3.7054889 2.8461249
-1.0304894 4.6789646 2.9010322
-0.99339616 4.4993539 2.217499
-0.94536048 4.2747278 1.6128724
-0.90303129 4.0766044 1.0977737
-0.86601639 3.9062982 0.65026748
-0.82412606 3.7112477 0.24703044
0.017481687 0.086969092 8.7439404
-0.25888997 1.3285061 8.6046114
-0.35389841 1.7551599 8.631547
-0.19976714 0.9568938 3.1721995
-0.32058647 1.5088053 3.6934438
-0.67045093 3.1241479 5.922967
-0.69956839 3.2351801 4.9339533
-0.72194552 3.321918 4.1466746
-0.055241928 0.513708 8.7747641
-0.13710517 0.94133574 8.8292027
-0.16922407 0.82462895 3.2786112
-0.68180901 3.2486141 9.0809174
-0.33595824 1.5772204 3.3981609
-0.68820775 3.2069669 5.4352193
-0.70689869 3.2718976 4.5072365
-0.73199069 3.3738556 3.8208866
-0.74766541 3.4144931 3.5147073
-0.77739811 3.5385129 3.0036192
-0.87825322 3.9876935 2.7617164
-1.0126549 4.5865726 2.5452414
-0.97720504 4.418714 1.9167309
-0.93972951 4.2387609 1.3661195
-0.90196478 4.061729 0.88140136
-0.85090923 3.825537 0.44477996
-0.75685799 3.4651852 3.2401931
-0.81130016 3.7021091 2.8431821
-1.046631 4.7681041 2.9542289
-1.0029345 4.5576687 2.2447739
-0.96143252 4.3582258 1.6424556
-0.91138381 4.1245384 1.109497
-0.87856442 3.9694552 0.65924627
-0.84013164 3.7895753 0.25025493
0.01778516 0.086907536 8.7439404
-0.25425103 1.3294017 8.6046114
-0.34746304 1.7564453 8.631547
-0.1962586 0.95761955 3.1721995
-0.31479073 1.510025 3.6934438
-0.65696979 3.1196685 5.9098001
-0.6859923 3.2352095 4.9298201
-0.7079367 3.3216548 4.142837
-0.052999936 0.51394415 8.7747641
-0.1329226 0.94139713 8.8242302
-0.16548029 0.82538837 3.2786112
-0.66671354 3.2499838 9.0762243
-0.32852206 1.5787861 3.3981609
-0.67255259 3.2076218 5.4309535
-0.69027901 3.2723649 4.5032468
-0.71549428 3.3773925 3.8208866
-0.73574197 3.4170821 3.5147073
-0.76442355 3.5413384 3.0036192
-0.85478824 3.9500177 2.734302
-1.0166194 4.6900005 2.5985739
-0.98187131 4.5221014 1.9579377
-0.93901789 4.3174982 1.38868
-0.90133709 4.1373119 0.89539075
-0.85571867 3.9213657 0.45327446
-0.74173111 3.4684544 3.2401931
-0.79449219 3.7057524 2.8431821
-1.0485158 4.8823876 3.0200918
-0.9956153 4.6242886 2.2741463
-0.96079403 4.4550285 1.6753258
-0.91451687 4.2333102 1.135288
-0.86857408 4.0172634 0.66546237
-0.83746433 3.8668768 0.2532779
0.018088413 0.086844929 8.7439404
-0.24960901 1.3302811 8.6046114
-0.34132978 1.7576474 8.631547
-0.19291471 0.9582988 3.1721995
-0.30951783 1.5111147 3.6934438
-0.64316452 3.1078708 5.8834653
-0.67412108 3.2348292 4.9256868
-0.69568056 3.3209686 4.1389995
-0.051205613 0.514126 8.7747641
-0.12963571 0.94185537 8.8242302
-0.16259815 0.82596099 3.2786112
-0.65672815 3.2590582 9.0949965
-0.32300907 1.5799233 3.3981609
-0.66029936 3.2048409 5.4224219
-0.6782406 3.2718039 4.4992566
-0.70370054 3.3798695 3.8208866
-0.72307128 3.4161406 3.5112026
-0.75124955 3.5401781 3.0004809
-0.83316416 3.9161682 2.7096288
-1.019631 4.7845039 2.6472688
-0.98737222 4.6252446 1.9991444
-0.93698168 4.3817334 1.4070104
-0.90232259 4.2124825 0.90938002
-0.85874122 4.0022349 0.46042773
-0.72808331 3.4637144 3.233542
-0.78155184 3.7085032 2.8431821
-1.0528357 4.9872456 3.080888
-0.99262387 4.6898985 2.3035192
-0.96384537 4.5461254 1.7065524
-0.9179098 4.3220587 1.1563896
-0.87513787 4.1171484 0.67927605
-0.84060812 3.9479589 0.25650239
0.018391449 0.086781256 8.7439404
-0.24510434 1.3319086 8.6095505
-0.33519238 1.758828 8.631547
-0.18956845 0.95896631 3.1721995
-0.30424118 1.5121859 3.6934438
-0.63231206 3.1100969 5.8834653
-0.66226089 3.2344058 4.9215541
-0.68343782 3.3202372 4.1351619
-0.049410667 0.5143016 8.7747641
-0.12634723 0.94230217 8.8242302
-0.159714 0.82652354 3.2786112
-0.64635253 3.2664092 9.1090736
-0.31749213 1.5810411 3.3981609
-0.64755648 3.1994579 5.4096241
-0.66621441 3.2711987 4.4952669
-0.69257766 3.3856266 3.8245618
-0.71041602 3.4151521 3.5076981
-0.73888737 3.5427787 3.0004809
-0.82034487 3.9231455 2.7123702
-1.0210867 4.8747482 2.6936448
-0.99121284 4.7239423 2.0384781
-0.93549484 4.4506998 1.426751
-0.90380621 4.2925162 0.92430192
-0.86223722 4.0880456 0.46802807
-0.71447784 3.4589217 3.2268913
-0.76860207 3.7112086 2.8431821
-1.0581876 5.1006351 3.1467507
-1.0048982 4.8310804 2.3685589
-0.96530896 4.6326742 1.7361356
-0.92268044 4.4203982 1.179836
-0.8789891 4.2074308 0.69170821
-0.84114897 4.0193291 0.25932381
0.018694261 0.086716533 8.7439404
-0.24045362 1.3327559 8.6095505
-0.32905087 1.7599875 8.631547
-0.18621986 0.9596222 3.1721995
-0.2989608 1.5132387 3.6934438
-0.62192082 3.1146336 5.8878546
-0.65041196 3.2339392 4.9174213
-0.67120862 3.3194606 4.1313243
-0.047615118 0.51447099 8.7747641
-0.12305721 0.94273746 8.8242302
-0.15682793 0.82707596 3.2786112
-0.63823652 3.2855856 9.156002
-0.31155038 1.580004 3.3936598
-0.63587606 3.1991408 5.4053578
-0.65420073 3.2705495 4.4912767
-0.68275869 3.3979948 3.8355873
-0.69777656 3.4141169 3.5041933
-0.72573495 3.5415232 2.9973423
-0.80832851 3.9341767 2.7178531
-1.0272826 4.9910927 2.7539334
-0.99437624 4.8227224 2.077812
-0.92965662 4.5009174 1.4408513
-0.90474176 4.3726106 0.93922383
-0.86312294 4.1641755 0.47473428
-0.70091462 3.4540763 3.2202401
-0.75564277 3.7138691 2.8431821
-1.0627602 5.2141204 3.2126131
-1.0080203 4.9323845 2.414716
-0.96807402 4.7285399 1.7690058
-0.92384571 4.5045376 1.1997653
-0.88222063 4.2977905 0.70414048
-0.84220803 4.095644 0.2623468
0.018996844 0.086650744 8.7439404
-0.23579997 1.3335872 8.6095505
-0.32290536 1.7611253 8.631547
-0.18286902 0.96026641 3.1721995
-0.29367679 1.514273 3.6934438
-0.61104494 3.1167855 5.8878546
-0.6385743 3.233429 4.9132881
-0.6589933 3.31864 4.1274872
-0.045818988 0.51463401 8.7747641
-0.11969916 0.94263232 8.8192587
-0.15393993 0.82761836 3.2786112
-0.62999445 3.3047452 9.2029295
-0.30603322 1.5810817 3.3936598
-0.62370616 3.1962214 5.3968258
-0.64219987 3.2698565 4.487287
