# .PCD v0.7 - Point Cloud Data file format
VERSION 0.7
FIELDS x y z
SIZE 4 4 4
TYPE F F F
COUNT 1 1 1
WIDTH 1418
HEIGHT 1
VIEWPOINT 0 0 0 1 0 0 0
POINTS 1418
DATA ascii
-0.080680147 0.036351196 8.7189417
-1.3504437 0.04415641 8.5897932
-1.4957025 0.039380111 7.2168255
-1.0847915 0.021191493 3.5157826
-1.0519843 0.016925074 2.5382104
-1.0037625 0.014072961 1.9069598
-0.95453763 0.012067134 1.4746748
-0.93136549 0.010814413 1.1917962
-0.50413936 0.060194757 8.6200228
-0.92846328 0.075709596 8.645256
-1.2612809 0.030137559 4.894979
-1.0309597 0.019800521 2.8583093
-1.0355747 0.017040849 2.2053394
-0.98741406 0.014716546 1.6854634
-0.93971092 0.012872738 1.3192074
-0.9266057 0.011898698 1.0828893
-0.91694999 0.0087405909 0.9809202
-0.89824808 0.0081009818 0.80669963
-0.8886168 0.0075585386 0.66723639
-0.87851256 0.0071731578 0.54643595
-0.87234831 0.0068257772 0.44078106
-0.84459817 0.0063207005 0.33820567
-0.85470325 0.0061033177 0.25374803
-0.8413859 0.0057220198 0.16848512
-0.91451412 0.009999386 0.89571548
-0.8877548 0.0092505459 0.72999263
-0.88115615 0.0088815419 0.60343897
-0.87247056 0.0083444603 0.49080193
-0.85523963 0.0078882026 0.38681462
-0.83128214 0.0073841028 0.29121932
-0.83674121 0.0072917878 0.20892289
-0.83403432 0.0069847242 0.12732106
-0.080552764 0.036632605 8.7189417
-1.3471754 0.048756722 8.5700369
-1.4975914 0.044661969 7.2266159
-1.0817263 0.024908697 3.5062382
-1.0499654 0.020558553 2.5336077
-1.0061018 0.017618876 1.9113487
-0.95448971 0.015399018 1.4746748
-0.93132204 0.01406542 1.1917962
-0.50392622 0.061954163 8.6200228
-0.92819333 0.078950085 8.645256
-1.256142 0.034401435 4.8756213
-1.0188078 0.023122957 2.82546
-1.0507444 0.020961409 2.2368479
-0.98735672 0.018163174 1.6854634
-0.93966031 0.016152862 1.3192074
-0.92655849 0.015133083 1.0828893
-0.92047989 0.011987971 0.98442477
-0.89821434 0.011236404 0.80669963
-0.88858497 0.010660345 0.66723639
-0.87848216 0.010239694 0.54643595
-0.86768353 0.0098182084 0.43890804
-0.84457093 0.0092688594 0.33820567
-0.85467678 0.0090867523 0.25374803
-0.84136081 0.0086589698 0.16848512
-0.91447365 0.013191575 0.89571548
-0.88771707 0.012349331 0.72999263
-0.88543016 0.01201598 0.60597211
-0.87243617 0.0113899 0.49080193
-0.85520685 0.010873497 0.38681462
-0.83125132 0.010285773 0.29121932
-0.83671069 0.010212515 0.20892289
-0.83400488 0.0098960046 0.12732106
-0.080424406 0.036913563 8.7189417
-1.3446678 0.053365808 8.5552187
-1.498444 0.049923383 7.2315111
-1.0771563 0.028564909 3.4919224
-1.0498873 0.02422349 2.5336077
-1.0060341 0.02113072 1.9113487
-0.95443016 0.018730715 1.4746748
-0.93126732 0.017316256 1.1917962
-0.50399315 0.063749999 8.6250143
-0.92791206 0.082189597 8.645256
-1.2585269 0.038864065 4.8853002
-1.0014701 0.026224378 2.7785323
-1.0354306 0.024270048 2.2053394
-0.98728728 0.02160958 1.6854634
-0.93658561 0.019370211 1.3152174
-0.92311049 0.018299833 1.0792141
-0.92043245 0.015200972 0.98442477
-0.89816964 0.014371689 0.80669963
-0.88854241 0.01376202 0.66723639
-0.87844104 0.013306107 0.54643595
-0.86764401 0.01284693 0.43890804
-0.84453344 0.012216906 0.33820567
-0.85463989 0.012070076 0.25374803
-0.84132546 0.011595814 0.16848512
-0.91442198 0.016383603 0.89571548
-0.88362724 0.015377425 0.72704947
-0.88538289 0.015106635 0.60597211
-0.87239105 0.014435201 0.49080193
-0.85516369 0.013858661 0.38681462
-0.83121032 0.01318732 0.29121932
-0.83666992 0.013133118 0.20892289
-0.83896065 0.012883893 0.1275226
-0.080295064 0.037194069 8.7189417
-1.3382633 0.057789199 8.5157051
-1.4941906 0.055002961 7.2119303
-1.07705 0.032324713 3.4919224
-1.0478435 0.027835973 2.5290053
-1.0059543 0.024642305 1.9113487
-0.95435894 0.022062184 1.4746748
-0.93120116 0.020566879 1.1917962
-0.50405371 0.065547056 8.6300068
-0.92815036 0.085477635 8.6502275
-1.2546151 0.043126624 4.8707819
-1.0013725 0.029720005 2.7785323
-1.0309871 0.027766459 2.196337
-0.9872058 0.025055727 1.6854634
-0.93651223 0.022639388 1.3152174
-0.92304099 0.02152198 1.0792141
-0.92037374 0.018413788 0.98442477
-0.89811403 0.017506799 0.80669963
-0.88848895 0.016863529 0.66723639
-0.87838924 0.016372357 0.54643595
-0.87222898 0.015960447 0.44078106
-0.84448564 0.015164803 0.33820567
-0.8545925 0.015053252 0.25374803
-0.83630061 0.014446474 0.16803804
-0.91435921 0.019575432 0.89571548
-0.88356817 0.018461766 0.72704947
-0.88532472 0.018197106 0.60597211
-0.87233537 0.017480325 0.49080193
-0.85511011 0.016843654 0.38681462
-0.83601892 0.016182864 0.29239166
-0.83661896 0.016053559 0.20892289
-0.83891058 0.015812334 0.1275226
-0.080164738 0.037474126 8.7189417
-1.3302919 0.062095586 8.4663115
-1.492972 0.060177099 7.2070351
-1.0664877 0.035732217 3.4585185
-1.0457871 0.031434476 2.5244026
-1.0058621 0.028153593 1.9113487
-0.9514631 0.025318248 1.470542
-0.93112373 0.023817252 1.1917962
-0.50382185 0.067306131 8.6300068
-0.92784631 0.088716961 8.6502275
-1.2544569 0.047505785 4.8707819
-0.99436373 0.032985199 2.7597613
-1.0221803 0.031099185 2.1783321
-0.98711234 0.028501565 1.6854634
-0.93642747 0.025908286 1.3152174
-0.92296022 0.024743862 1.0792141
-0.92030388 0.021626379 0.98442477
-0.89804745 0.020641694 0.80669963
-0.88842463 0.019964831 0.66723639
-0.87832677 0.019438408 0.54643595
-0.872168 0.019004995 0.44078106
-0.84922349 0.018215489 0.3396157
-0.85453475 0.018036244 0.25374803
-0.83624512 0.01736562 0.16803804
-0.91428536 0.022767022 0.89571548
-0.88349831 0.021545881 0.72704947
-0.88525581 0.021287356 0.60597211
-0.87680626 0.020632163 0.49289995
-0.85504609 0.019828442 0.38681462
-0.83595735 0.019101014 0.29239166
-0.83655787 0.018973809 0.20892289
-0.83885026 0.018740581 0.1275226
-0.07999558 0.037732031 8.7139416
-1.3122187 0.065837763 8.3527088
-1.4927528 0.06538818 7.2070351
-1.054423 0.039010901 3.4203427
-1.0437185 0.035018969 2.5198004
-1.0057577 0.031664535 1.9113487
-0.95136893 0.02863932 1.470542
-0.93103486 0.027067335 1.1917962
-0.50358379 0.069064394 8.6300068
-0.927531 0.091955207 8.6502275
-1.2630745 0.052249748 4.9046578
-0.99596709 0.036519516 2.7644541
-1.0416465 0.035333745 2.218843
-0.98440021 0.031862408 1.6811975
-0.93633133 0.02917687 1.3152174
-0.92286819 0.027965443 1.0792141
-0.92022276 0.024838706 0.98442477
-0.8979699 0.023776338 0.80669963
-0.88834953 0.023065889 0.66723639
-0.87825358 0.022504224 0.54643595
-0.87209636 0.022049315 0.44078106
-0.84915477 0.021179721 0.3396157
-0.85446662 0.021019017 0.25374803
-0.83617938 0.020284554 0.16803804
-0.91420031 0.025958335 0.89571548
-0.88341773 0.024629736 0.72704947
-0.88517612 0.024377344 0.60597211
-0.87672889 0.023692662 0.49289995
-0.85969222 0.022939075 0.38845813
-0.83588558 0.022018934 0.29239166
-0.83153617 0.021764195 0.20823221
-0.83378541 0.021539565 0.12732106
-0.079863384 0.038011041 8.7139416
-1.2918082 0.069328882 8.224288
-1.4914985 0.070550144 7.2021399
-1.0393656 0.042084429 3.372623
-1.0435898 0.038662013 2.5198004
-1.0056411 0.035175089 1.9113487
-0.95126319 0.03196004 1.470542
-0.93093473 0.030317089 1.1917962
-0.50333971 0.070821807 8.6300068
-0.92773455 0.09524741 8.6551991
-1.2666515 0.056828123 4.9191761
-0.99238497 0.039856758 2.7550685
-1.0502185 0.039296236 2.2368479
-0.98428297 0.035298411 1.6811975
-0.9362238 0.032445099 1.3152174
-0.92276502 0.031186683 1.0792141
-0.92013043 0.028050732 0.98442477
-0.89788145 0.026910692 0.80669963
-0.88826358 0.026166668 0.66723639
-0.87816966 0.025569761 0.54643595
-0.87664813 0.025226852 0.44265413
-0.84907562 0.024143696 0.3396157
-0.85438806 0.024001535 0.25374803
-0.83610344 0.023203241 0.16803804
-0.9141041 0.029149329 0.89571548
-0.88332635 0.027713288 0.72704947
-0.88508564 0.027467037 0.60597211
-0.87664086 0.026752872 0.49289995
-0.85960686 0.02593982 0.38845813
-0.84066212 0.025081631 0.29356396
-0.83145511 0.024666663 0.20823221
-0.83370513 0.02444989 0.12732106
-0.079730213 0.038289584 8.7139416
-1.2651839 0.072321594 8.0563536
-1.483108 0.075341068 7.1629782
-0.99447489 0.043735489 3.2294633
-1.0454005 0.04238401 2.5244026
-1.0055121 0.038685217 1.9113487
-0.95114577 0.035280377 1.470542
-0.93082321 0.033566471 1.1917962
-0.50308943 0.072578356 8.6300068
-0.92739642 0.098485231 8.6551991
-1.2714674 0.061493084 4.9385343
-0.99223983 0.043320581 2.7550685
-1.0653006 0.043586776 2.2683563
-0.98415381 0.038733985 1.6811975
-0.93610483 0.035712935 1.3152174
-0.92603838 0.034534141 1.0828893
-0.9200269 0.031262416 0.98442477
-0.89778203 0.030044721 0.80669963
-0.89234602 0.029405033 0.66997784
-0.878075 0.02863499 0.54643595
-0.87655467 0.028286774 0.44265413
-0.84898615 0.027107373 0.3396157
-0.85429901 0.026983758 0.25374803
-0.83601737 0.026121646 0.16803804
-0.91399682 0.032339972 0.89571548
-0.88726377 0.030937565 0.72999263
-0.88067615 0.030407455 0.60343897
-0.87654209 0.029812757 0.49289995
-0.85951114 0.028940249 0.38845813
-0.84056944 0.028015934 0.29356396
-0.83136392 0.027568834 0.20823221
-0.82862145 0.027196018 0.12711954
-0.079596072 0.038567659 8.7139416
-1.2618216 0.076548278 8.0365973
-1.4777524 0.080240525 7.1385016
-0.99282521 0.047135491 3.2246914
-1.0471981 0.04611912 2.5290053
-1.007764 0.042295586 1.9157379
-0.95101684 0.038600281 1.470542
-0.93070036 0.036815446 1.1917962
-0.50283301 0.074334025 8.6300068
-0.92704701 0.10172185 8.6551991
-1.2737556 0.066061646 4.9482126
-0.98863506 0.046620701 2.745683
-1.0673168 0.047401957 2.2728574
-0.9840126 0.042169087 1.6811975
-0.93597448 0.038980331 1.3152174
-0.9259122 0.037766408 1.0828893
-0.91991216 0.034473721 0.98442477
-0.8976717 0.033178382 0.80669963
-0.89223796 0.032519724 0.66997784
-0.87796974 0.03169987 0.54643595
-0.8764506 0.031346347 0.44265413
-0.84888637 0.030070724 0.3396157
-0.85419965 0.029965654 0.25374803
-0.83592111 0.029039733 0.16803804
-0.91387832 0.035530217 0.89571548
-0.88715035 0.034034505 0.72999263
-0.88056469 0.033481404 0.60343897
-0.87643266 0.032872282 0.49289995
-0.8546859 0.031764816 0.38681462
-0.8404665 0.0309499 0.29356396
-0.83126265 0.030470669 0.20823221
-0.82852149 0.030088279 0.12711954
-0.079498522 0.038867485 8.7189417
-1.2607713 0.080902368 8.0316572
-1.472381 0.085103527 7.1140261
-1.048982 0.049867291 2.5336077
-1.0076102 0.045813084 1.9157379
-0.94806504 0.041795496 1.466409
-0.93056625 0.040063974 1.1917962
-0.50257045 0.076088786 8.6300068
-0.92668623 0.10495722 8.6551991
-1.2760273 0.070646942 4.9578919
-0.98674279 0.049983785 2.7409902
-1.0627959 0.050918411 2.263855
-0.98385942 0.045603674 1.6811975
-0.93583274 0.042247254 1.3152174
-0.92577475 0.040998213 1.0828893
-0.91978627 0.037684601 0.98442477
-0.8975504 0.036311638 0.80669963
-0.89211899 0.035634018 0.66997784
-0.87785369 0.034764361 0.54643595
-0.87633586 0.034405537 0.44265413
-0.84877622 0.033033706 0.3396157
-0.8540898 0.032947186 0.25374803
-0.83581465 0.031957466 0.16803804
-0.91374874 0.038720034 0.89571548
-0.88702619 0.03713103 0.72999263
-0.88044244 0.036554944 0.60343897
-0.87631261 0.035931397 0.49289995
-0.85456979 0.034748036 0.38681462
-0.84035331 0.033883486 0.29356396
-0.83609927 0.033570867 0.20892289
-0.8284114 0.032980174 0.12711954
-0.079362363 0.039144751 8.7189417
-1.2589308 0.085197367 8.0217791
-1.4669935 0.089929998 7.0895495
-0.87472415 0.047626693 2.8477046
-1.0527039 0.053728342 2.5428128
-1.0098361 0.049447428 1.9201269
-0.94791341 0.045104604 1.466409
-0.9304207 0.043312009 1.1917962
-0.5025869 0.077887774 8.6349974
-0.92631418 0.10819133 8.6551991
-1.2807921 0.075397111 4.9772491
-0.98139292 0.053146988 2.7269118
-1.0604377 0.054515917 2.2593539
-0.98369426 0.049037706 1.6811975
-0.93567955 0.045513663 1.3152174
-0.92562598 0.044229522 1.0828893
-0.91964912 0.040895026 0.98442477
-0.89741814 0.039444454 0.80669963
-0.89198917 0.038747877 0.66997784
-0.87772703 0.037828434 0.54643595
-0.87621045 0.037464309 0.44265413
-0.84865576 0.035996288 0.3396157
-0.84906173 0.035721757 0.25281543
-0.83569801 0.034874808 0.16803804
-0.91360801 0.041909374 0.89571548
-0.88689113 0.040227104 0.72999263
-0.88030946 0.039628036 0.60343897
-0.87618184 0.038990084 0.49289995
-0.85444331 0.037730828 0.38681462
-0.83537394 0.036603794 0.29239166
-0.83597702 0.036489192 0.20892289
-0.83328253 0.036087848 0.12732106
-0.079262629 0.039444018 8.7239418
-1.270251 0.090422608 8.0958672
-1.473783 0.095512643 7.123816
-0.86263102 0.049986109 2.8095288
-1.0544606 0.057509314 2.5474155
-1.0096574 0.052972112 1.9201269
-0.94775021 0.048413165 1.466409
-0.93346506 0.046720006 1.1956338
-0.50231194 0.079641655 8.6349974
-0.92593092 0.1114241 8.6551991
-1.2729939 0.079396516 4.9482126
-0.97775584 0.05637309 2.7175262
-1.0602409 0.058217201 2.2593539
-0.98612136 0.05261036 1.6854634
-0.93551493 0.048779514 1.3152174
-0.92546594 0.047460292 1.0828893
-0.91950077 0.044104952 0.98442477
-0.89727497 0.042576786 0.80669963
-0.8918485 0.041861262 0.66997784
-0.88201457 0.041098393 0.54875475
-0.87144333 0.040308286 0.44078106
-0.84373295 0.03873831 0.33820567
-0.84893185 0.038685314 0.25281543
-0.83557123 0.037791725 0.16803804
-0.91345614 0.045098208 0.89571548
-0.88674527 0.043322686 0.72999263
-0.88447142 0.04290973 0.60597211
-0.8760404 0.04204829 0.49289995
-0.84958959 0.040488247 0.38517112
-0.83524108 0.039519571 0.29239166
-0.83584458 0.039407074 0.20892289
-0.83315146 0.038996328 0.12732106
-0.079124466 0.039720453 8.7239418
-1.2800003 0.095611669 8.160078
-1.4612507 0.099821225 7.0650735
-0.86692095 0.053272668 2.8238447
-1.0542535 0.061189722 2.5474155
-1.0118576 0.056630265 1.9245161
-0.94757539 0.051721133 1.466409
-0.93329626 0.049978126 1.1956338
-0.50203085 0.081394568 8.6349974
-0.92553633 0.11465552 8.6551991
-1.2789803 0.084253937 4.9724097
-0.97410822 0.059574451 2.7081406
-1.057858 0.061790563 2.2548525
-0.98593169 0.056052245 1.6854634
-0.93533903 0.052044775 1.3152174
-0.92529464 0.05069048 1.0828893
-0.91934121 0.047314338 0.98442477
-0.89712089 0.0457086 0.80669963
-0.89169693 0.044974141 0.66997784
-0.88186574 0.044176947 0.54875475
-0.87592757 0.043580454 0.44265413
-0.84359258 0.041683257 0.33820567
-0.84879166 0.041648403 0.25281543
-0.8354342 0.040708181 0.16803804
-0.91329318 0.04828649 0.89571548
-0.88658869 0.046417743 0.72999263
-0.88431633 0.045996848 0.60597211
-0.87588829 0.045105986 0.49289995
-0.84944314 0.043453623 0.38517112
-0.83509809 0.042434864 0.29239166
-0.83075619 0.042073939 0.20823221
-0.83799994 0.042155348 0.1275226
-0.078985333 0.039996408 8.7239418
-1.2881796 0.10074823 8.2144108
-1.4730803 0.10579918 7.123816
-0.8518343 0.055327393 2.776125
-1.0559834 0.064989664 2.5520179
-1.0140445 0.060304411 1.928905
-0.95019829 0.055191934 1.470542
-0.93311614 0.053235631 1.1956338
-0.50174367 0.083146483 8.6349974
-0.92513049 0.11788555 8.6551991
-1.2686468 0.08801996 4.9336944
-0.96872824 0.062639378 2.6940625
-1.0598087 0.065617599 2.2593539
-0.98833334 0.05965085 1.6897295
-0.93815964 0.055487581 1.3192074
-0.92849642 0.054117564 1.0865644
-0.91917044 0.050523151 0.98442477
-0.89695591 0.048839856 0.80669963
-0.89153457 0.048086468 0.66997784
-0.88170618 0.047254965 0.54875475
-0.87577009 0.046637744 0.44265413
-0.84344196 0.044627689 0.33820567
-0.85354656 0.044868931 0.25374803
-0.83528697 0.043624144 0.16803804
-0.91311908 0.051474184 0.89571548
-0.88642126 0.04951223 0.72999263
-0.88415033 0.049083408 0.60597211
-0.87572551 0.048163131 0.49289995
-0.84928626 0.046418466 0.38517112
-0.83979833 0.045613348 0.29356396
-0.83060426 0.04497356 0.20823221
-0.83784765 0.045080256 0.1275226
-0.078845233 0.040271871 8.7239418
-1.2963384 0.10594304 8.2687416
-1.4919931 0.11239781 7.2168255
-0.84567916 0.057891279 2.7570369
-1.0557501 0.068675339 2.5520179
-1.0162181 0.063994519 1.9332942
-0.94999993 0.058508407 1.470542
-0.93612397 0.056686491 1.1994712
-0.50145036 0.084897391 8.6349974
-0.92471337 0.12111414 8.6551991
-0.69542515 0.050577279 2.7220774
-0.96506035 0.06578514 2.6846771
-1.0595732 0.069316626 2.2593539
-0.98811913 0.063100412 1.6897295
-0.93796021 0.058762033 1.3192074
-0.92830187 0.057358291 1.0865644
-0.91898847 0.053731345 0.98442477
-0.89677995 0.051970523 0.80669963
-0.89136124 0.051198211 0.66997784
-0.88153583 0.050332405 0.54875475
-0.88023037 0.049957287 0.44452715
-0.84807044 0.047841862 0.3396157
-0.85338473 0.047848091 0.25374803
-0.83512962 0.046539575 0.16803804
-0.91293383 0.054661248 0.89571548
-0.88624305 0.052606117 0.72999263
-0.88397366 0.052169371 0.60597211
-0.87102133 0.050954483 0.49080193
-0.8538332 0.049657043 0.38681462
-0.83478147 0.04826387 0.29239166
-0.83044219 0.047872636 0.20823221
-0.83768517 0.048004616 0.1275226
-0.078667104 0.040523853 8.7189417
-1.3052509 0.11126227 8.3280134
-0.5536927 0.043461554 2.6936357
-0.83505011 0.060090374 2.7236331
-1.057453 0.072494075 2.5566204
-1.0207679 0.067859679 1.9420724
-0.95259798 0.062007237 1.4746748
-0.93592042 0.059953827 1.1994712
-0.50115103 0.086647265 8.6349974
-0.92428493 0.12434126 8.6551991
-0.69399112 0.052908465 2.7172382
-0.96310359 0.069029741 2.6799841
-1.0614965 0.073164761 2.263855
-0.98789281 0.066549204 1.6897295
-0.93774939 0.062035765 1.3192074
-0.928096 0.060598318 1.0865644
-0.91879535 0.056938887 0.98442477
-0.89659309 0.055100549 0.80669963
-0.89117712 0.054309335 0.66997784
-0.88135475 0.053409234 0.54875475
-0.8800506 0.053029563 0.44452715
-0.8478983 0.050801892 0.3396157
-0.85321254 0.050826665 0.25374803
-0.83496213 0.049454436 0.16803804
-0.91273743 0.057847653 0.89571548
-0.88605398 0.05569936 0.72999263
-0.88378614 0.055254694 0.60597211
-0.87083817 0.053994603 0.49080193
-0.85365474 0.052637175 0.38681462
-0.83945942 0.051475089 0.29356396
-0.82532722 0.05046881 0.20754153
-0.83751255 0.050928388 0.1275226
-0.078525171 0.040798206 8.7189417
-1.3149157 0.11671393 8.3922234
-0.55353761 0.045394037 2.6936357
-0.82739311 0.062441375 2.6997733
-1.0571935 0.076184839 2.5566204
-1.0229138 0.071589887 1.9464613
-0.95237571 0.06533204 1.4746748
-0.93570542 0.063220434 1.1994712
-0.50084549 0.08839608 8.6349974
-0.92384529 0.12756686 8.6551991
-0.69004327 0.055029508 2.7027197
-0.95941514 0.072131805 2.6705987
-1.0612346 0.076869629 2.263855
-0.98765451 0.069997191 1.6897295
-0.9345212 0.065099075 1.3152174
-0.9278788 0.06383761 1.0865644
-0.91859102 0.060145736 0.98442477
-0.89639527 0.058229912 0.80669963
-0.89098209 0.057419788 0.66997784
-0.881163 0.056485411 0.54875475
-0.8798601 0.056101188 0.44452715
-0.8477158 0.0537613 0.3396157
-0.85302991 0.053804621 0.25374803
-0.83478439 0.052368697 0.16803804
-0.91252995 0.061033346 0.89571548
-0.88585418 0.058791932 0.72999263
-0.8835879 0.058339346 0.60597211
-0.87064439 0.057034072 0.49080193
-0.8534658 0.055616666 0.38681462
-0.83927464 0.054405034 0.29356396
-0.82514602 0.053349432 0.20754153
-0.83732969 0.053851549 0.1275226
-0.078382283 0.041072059 8.7189417
-1.3230109 0.12209114 8.4465551
-0.55236125 0.047238637 2.6887403
-0.81675375 0.064503863 2.6663692
-1.0569212 0.079874665 2.5566204
-1.0226578 0.075160086 1.9464613
-0.95214188 0.068656057 1.4746748
-0.93547904 0.066486269 1.1994712
-0.50053388 0.090143815 8.6349974
-0.92339438 0.1307909 8.6551991
-0.69485742 0.057856847 2.7220774
-0.95571691 0.075208962 2.6612132
-1.0631305 0.080738679 2.2683563
-0.98480332 0.073250584 1.6854634
-0.93428826 0.068360761 1.3152174
-0.92765033 0.067076124 1.0865644
-0.91837549 0.063351855 0.98442477
-0.89618653 0.06135856 0.80669963
-0.89077628 0.060529549 0.66997784
-0.87654078 0.059261918 0.54643595
-0.87965894 0.059172131 0.44452715
-0.84752297 0.056720048 0.3396157
-0.85283691 0.056781929 0.25374803
-0.83459651 0.055282321 0.16803804
-0.90858686 0.063955896 0.89239001
-0.8856436 0.061883781 0.72999263
-0.88337886 0.061423294 0.60597211
-0.87496769 0.060385477 0.49289995
-0.85326642 0.058595475 0.38681462
-0.83907962 0.057334315 0.29356396
-0.82495475 0.056229405 0.20754153
-0.83713657 0.056774039 0.1275226
-0.078238435 0.041345417 8.7189417
-1.3349516 0.12789796 8.5255833
-0.55320722 0.049257323 2.6936357
-0.81949884 0.067600653 2.6759133
-1.056636 0.083563522 2.5566204
-1.0247771 0.078913532 1.9508505
-0.95470238 0.0721917 1.4788078
-0.93204492 0.069512643 1.1956338
-0.50021619 0.091890454 8.6349974
-0.92293221 0.13401335 8.6551991
-0.69590348 0.060391121 2.726917
-0.95372874 0.078402877 2.6565204
-1.0628422 0.084449209 2.2683563
-0.98454154 0.076687753 1.6854634
-0.93404394 0.071621619 1.3152174
-0.92741054 0.070313819 1.0865644
-0.9181487 0.066557191 0.98442477
-0.89596695 0.064486459 0.80669963
-0.89055955 0.063638568 0.66997784
-0.87632859 0.062321257 0.54643595
-0.87944704 0.062242355 0.44452715
-0.84731984 0.059678115 0.3396157
-0.85263348 0.059758537 0.25374803
-0.83936632 0.058541782 0.16848512
-0.90835804 0.067127064 0.89239001
-0.88542211 0.064974874 0.72999263
-0.88315904 0.064506479 0.60597211
-0.87475157 0.063439317 0.49289995
-0.85305667 0.061573576 0.38681462
-0.83402622 0.059914533 0.29239166
-0.82475346 0.059108693 0.20754153
-0.83693326 0.059695847 0.1275226
-0.078093633 0.041618265 8.7189417
-1.3430021 0.13340443 8.579916
-0.55303192 0.051188074 2.6936357
-0.81777078 0.07033255 2.6711414
-1.0543908 0.087090254 2.5520179
-1.0244954 0.082490191 1.9508505
-0.95444453 0.075523786 1.4788078
-0.93179661 0.072765663 1.1956338
-0.50017595 0.093690075 8.6399889
-0.92245877 0.13723418 8.6551991
-0.69819212 0.06304688 2.7365959
-0.95344925 0.081731535 2.6565204
-1.062541 0.088158704 2.2683563
-0.98426789 0.080123976 1.6854634
-0.93378824 0.074881613 1.3152174
-0.92715943 0.073550656 1.0865644
-0.91791075 0.069761723 0.98442477
-0.89573634 0.067613572 0.80669963
-0.89033198 0.066746816 0.66997784
-0.87610573 0.065379836 0.54643595
-0.87922442 0.065311819 0.44452715
-0.84710634 0.062635444 0.3396157
-0.85241973 0.062734418 0.25374803
-0.83419025 0.061107505 0.16803804
-0.90811819 0.07029742 0.89239001
-0.88518995 0.068065181 0.72999263
-0.88292855 0.067588896 0.60597211
-0.87452477 0.066492379 0.49289995
-0.85283661 0.064550929 0.38681462
-0.833812 0.062825464 0.29239166
-0.82454211 0.061987262 0.20754153
-0.83671987 0.062616929 0.1275226
-0.077984557 0.041914254 8.7239418
-1.3417553 0.13801184 8.574976
-0.55386329 0.053216144 2.6985307
-0.81752026 0.073186673 2.6711414
-1.0540804 0.090770237 2.5520179
-1.0242012 0.086065844 1.9508505
-0.95417511 0.078854963 1.4788078
-0.93153691 0.076017797 1.1956338
-0.49984589 0.095435448 8.6399889
-0.92197412 0.14045331 8.6551991
-0.69045913 0.064776517 2.7075593
-0.95143926 0.08490549 2.6518276
-1.0622268 0.091867127 2.2683563
-0.98398221 0.083559223 1.6854634
-0.93352115 0.078140683 1.3152174
-0.92689705 0.0767866 1.0865644
-0.91766167 0.072965406 0.98442477
-0.89549488 0.070739865 0.80669963
-0.89009356 0.069854245 0.66997784
-0.87587214 0.068437621 0.54643595
-0.87899107 0.068380482 0.44452715
-0.84688252 0.065592021 0.3396157
-0.85219556 0.065709539 0.25374803
-0.83893716 0.064400189 0.16848512
-0.90786731 0.073466912 0.89239001
-0.884947 0.071154654 0.72999263
-0.88268721 0.070670471 0.60597211
-0.87428737 0.069544636 0.49289995
-0.85260606 0.067527488 0.38681462
-0.83358765 0.065735623 0.29239166
-0.82925755 0.065253608 0.20823221
-0.83649617 0.065537244 0.1275226
-0.077837773 0.042186212 8.7239418
-1.345901 0.14318919 8.6046114
-0.55367416 0.055149164 2.6985307
-0.81725985 0.07603991 2.6711414
-1.0537571 0.09444911 2.5520179
-1.0238945 0.089640446 1.9508505
-0.95389408 0.082185179 1.4788078
-0.93126589 0.079269007 1.1956338
-0.4997929 0.097235732 8.6449804
-0.92147821 0.14367075 8.6551991
-0.68772686 0.06694182 2.6978805
-0.95285541 0.088385828 2.6565204
-1.0597314 0.095379017 2.263855
-0.98368454 0.086993448 1.6854634
-0.93624455 0.081660904 1.3192074
-0.9266234 0.080021605 1.0865644
-0.92095542 0.076463513 0.98792928
-0.89524251 0.073865294 0.80669963
-0.88984424 0.072960824 0.66997784
-0.87562788 0.071494564 0.54643595
-0.87874705 0.071448319 0.44452715
-0.84664845 0.068547793 0.3396157
-0.85196102 0.068683855 0.25374803
-0.83870727 0.067328237 0.16848512
-0.91132581 0.076949894 0.89571548
-0.88469321 0.074243255 0.72999263
-0.88243514 0.073751196 0.60597211
-0.87403929 0.072596043 0.49289995
-0.85236514 0.07050322 0.38681462
-0.8333531 0.068644986 0.29239166
-0.82902467 0.06814786 0.20823221
-0.83626229 0.068456762 0.1275226
-0.077690043 0.042457659 8.7239418
-1.3453929 0.14788638 8.6046114
-0.5534783 0.057081513 2.6985307
-0.81550366 0.07874836 2.6663692
-1.0534209 0.098126836 2.5520179
-1.0235753 0.093213961 1.9508505
-0.95360136 0.085514382 1.4788078
-0.93417627 0.082802504 1.1994712
-0.49945042 0.098979741 8.6449804
-0.92044479 0.14680186 8.6502275
-0.68373722 0.068962269 2.683362
-0.95254105 0.091711372 2.6565204
-1.0593921 0.09907759 2.263855
-0.98077786 0.090187535 1.6811975
-0.9359538 0.084928505 1.3192074
-0.92633843 0.083255641 1.0865644
-0.92068285 0.079677776 0.98792928
-0.89497924 0.07698983 0.80669963
-0.88958418 0.076066516 0.66997784
-0.87537301 0.074550644 0.54643595
-0.8784923 0.074515283 0.44452715
-0.84640402 0.07150273 0.3396157
-0.85661101 0.072069235 0.25468066
-0.83846712 0.070255466 0.16848512
-0.91105163 0.080130547 0.89571548
-0.88442868 0.077330962 0.72999263
-0.88646692 0.077205241 0.60850531
-0.87378055 0.075646564 0.49289995
-0.85211384 0.07347811 0.38681462
-0.83310837 0.071553513 0.29239166
-0.83371574 0.07146427 0.20892289
-0.83601826 0.071375437 0.1275226
-0.077541366 0.042728592 8.7239418
-1.3464125 0.15275742 8.6144905
-0.55327564 0.059013162 2.6985307
-0.81522381 0.081594519 2.6663692
-1.053072 0.10180335 2.5520179
-1.0256281 0.097012147 1.9552395
-0.95329708 0.088842556 1.4788078
-0.93388152 0.086062886 1.1994712
-0.49910191 0.10072254 8.6449804
-0.91992676 0.15001391 8.6502275
-0.68099207 0.07108663 2.6736832
-0.95049793 0.0948641 2.6518276
-1.0568731 0.10256442 2.2593539
-0.98045713 0.093610533 1.6811975
-0.93865156 0.088478126 1.3231975
-0.92604214 0.086488657 1.0865644
-0.92039913 0.082891084 0.98792928
-0.89470506 0.080113418 0.80669963
-0.88931322 0.079171285 0.66997784
-0.87510747 0.077605806 0.54643595
-0.87822682 0.077581339 0.44452715
-0.84614927 0.074456789 0.3396157
-0.85635418 0.075058922 0.25468066
-0.83821678 0.07318183 0.16848512
-0.91076636 0.083310224 0.89571548
-0.88415337 0.080417722 0.72999263
-0.88619202 0.080299117 0.60850531
-0.8735112 0.078696176 0.49289995
-0.8565554 0.076874323 0.38845813
-0.83285356 0.07446117 0.29239166
-0.83346117 0.074374042 0.20892289
-0.83576399 0.074293256 0.1275226
-0.0773554 0.042974848 8.7189417
-1.3466429 0.15754688 8.6194296
-0.55205435 0.060832016 2.6936357
-0.81344932 0.084285468 2.6615975
-1.0565981 0.10586876 2.5612228
-1.0276668 0.1008258 1.9596287
-0.95298111 0.092169635 1.4788078
-0.93357539 0.089322217 1.1994712
-0.49846467 0.10240509 8.6399889
-0.91939753 0.15322414 8.6502275
-0.68073982 0.073463306 2.6736832
-0.95016104 0.098181382 2.6518276
-1.0543425 0.10603486 2.2548525
-0.98012435 0.097032398 1.6811975
-0.93833703 0.091754094 1.3231975
-0.92573458 0.089720622 1.0865644
-0.92010421 0.086103365 0.98792928
-0.89441991 0.083236031 0.80669963
-0.89319509 0.082660593 0.67271936
-0.87483126 0.08066003 0.54643595
-0.87795061 0.080646455 0.44452715
-0.84588414 0.077409953 0.3396157
-0.85608697 0.0780477 0.25468066
-0.84291571 0.076557785 0.1689322
-0.91047001 0.08648888 0.89571548
-0.8838672 0.083503507 0.72999263
-0.88590628 0.083392017 0.60850531
-0.87323117 0.081744812 0.49289995
-0.85628188 0.079863794 0.38845813
-0.83742833 0.077817746 0.29356396
-0.83812732 0.077740334 0.20961356
-0.83549953 0.077210158 0.1275226
-0.07720492 0.043244611 8.7189417
-1.3468561 0.16233979 8.6243687
-0.55183864 0.062758677 2.6936357
-0.81315017 0.08712443 2.6615975
-1.0581653 0.10975818 2.5658255
-1.0296912 0.10465484 1.9640176
-0.95265359 0.095495604 1.4788078
-0.93325794 0.09258046 1.1994712
-0.49810418 0.10414442 8.6399889
-0.9188571 0.15643249 8.6502275
-0.67922997 0.075699404 2.6688437
-0.94809669 0.10131379 2.647135
-1.053966 0.10971455 2.2548525
-0.97718525 0.10018679 1.6769315
-0.93801099 0.095028937 1.3231975
-0.92541581 0.092951491 1.0865644
-0.92334759 0.089659512 0.9914338
-0.89412391 0.086357631 0.80669963
-0.89290112 0.085777931 0.67271936
-0.87895393 0.084135532 0.54875475
-0.87766379 0.083710581 0.44452715
-0.84560883 0.080362163 0.3396157
-0.85091895 0.080572397 0.25374803
-0.84264338 0.079499647 0.1689322
-0.91016263 0.089666486 0.89571548
-0.88357037 0.086588264 0.72999263
-0.88560987 0.086483888 0.60850531
-0.87294054 0.084792458 0.49289995
-0.85599786 0.082852289 0.38845813
-0.83715159 0.080740444 0.29356396
-0.83785087 0.080665469 0.20961356
-0.83522493 0.080126137 0.1275226
-0.077053495 0.043513838 8.7189417
-1.3462812 0.16704021 8.6243687
-0.55161619 0.06468457 2.6936357
-0.81135744 0.089797735 2.6568253
-1.0655457 0.11428568 2.5842357
-1.0293196 0.1082485 1.9640176
-0.95231444 0.098820403 1.4788078
-0.9329291 0.095837571 1.1994712
-0.49745542 0.10582148 8.6349974
-0.91830546 0.15963896 8.6502275
-0.67896163 0.078069896 2.6688437
-0.94773728 0.10462265 2.647135
-1.0535766 0.11339291 2.2548525
-0.97682953 0.1035972 1.6769315
-0.93767357 0.098302633 1.3231975
-0.92508566 0.096181229 1.0865644
-0.92302901 0.092882052 0.9914338
-0.89381707 0.08947818 0.80669963
-0.89259624 0.088894211 0.67271936
-0.8786549 0.087203145 0.54875475
-0.8727529 0.086317278 0.44265413
-0.84532315 0.083313398 0.3396157
-0.85063249 0.083542161 0.25374803
-0.84236073 0.082440533 0.1689322
-0.90984404 0.092843004 0.89571548
-0.88326275 0.089671977 0.72999263
-0.88530254 0.089574717 0.60850531
-0.87263924 0.087839074 0.49289995
-0.85570347 0.085839771 0.38845813
-0.83686465 0.083662152 0.29356396
-0.83756417 0.083589621 0.20961356
-0.82996875 0.082546659 0.12732106
-0.076901138 0.043782543 8.7189417
-1.3464606 0.17183717 8.6293077
-0.55138707 0.066609673 2.6936357
-0.81103903 0.092629358 2.6568253
-1.0651402 0.11800443 2.5842357
-1.0313165 0.11209992 1.9684068
-0.95196372 0.102144 1.4788078
-0.93258888 0.099093512 1.1994712
-0.49708298 0.10755728 8.6349974
-0.91826731 0.16293722 8.6551991
-0.67868495 0.080439441 2.6688437
-0.94565177 0.10773458 2.642442
-1.0531744 0.11706989 2.2548525
-0.97905451 0.10729073 1.6811975
-0.93732476 0.10157512 1.3231975
-0.92474431 0.099409789 1.0865644
-0.92269915 0.096103452 0.9914338
-0.89349926 0.092597641 0.80669963
-0.88812113 0.091580316 0.66997784
-0.87834513 0.090269692 0.54875475
-0.8724463 0.089363232 0.44265413
-0.84502721 0.086263627 0.3396157
-0.85033572 0.086510912 0.25374803
-0.84206778 0.085380413 0.1689322
-0.90951443 0.096018381 0.89571548
-0.88294435 0.092754595 0.72999263
-0.88498449 0.092664458 0.60850531
-0.87232727 0.090884618 0.49289995
-0.8553986 0.088826217 0.38845813
-0.83173275 0.086082362 0.29239166
-0.83726728 0.086512759 0.20961356
-0.82967556 0.085443296 0.12732106
-0.076747842 0.044050708 8.7189417
-1.3458525 0.17653614 8.6293077
-0.55115116 0.068533964 2.6936357
-0.81071073 0.095459849 2.6568253
-1.0530759 0.12038868 2.5566204
-1.030919 0.11569919 1.9684068
-0.95439827 0.10577662 1.4829408
-0.93223727 0.10234825 1.1994712
-0.49670452 0.10929177 8.6349974
-0.91769296 0.16614158 8.6551991
-0.6771524 0.082655251 2.6640043
-0.94526994 0.11103487 2.642442
-1.0527593 0.12074544 2.2548525
-0.97867405 0.11070761 1.6811975
-0.93696439 0.10484637 1.3231975
-0.92439163 0.10263714 1.0865644
-0.92235804 0.099323697 0.9914338
-0.8931706 0.09571597 0.80669963
-0.8877961 0.094679885 0.66997784
-0.8780247 0.093335137 0.54875475
-0.87673908 0.092896692 0.44452715
-0.8447209 0.08921279 0.3396157
-0.85002851 0.089478612 0.25374803
-0.84176469 0.088319264 0.1689322
-0.90917373 0.099192597 0.89571548
-0.88261521 0.095836073 0.72999263
-0.88036984 0.095288992 0.60597211
-0.87200469 0.09392906 0.49289995
-0.85508335 0.091811575 0.38845813
-0.83142716 0.08898513 0.29239166
-0.83203626 0.08890862 0.20892289
-0.82937229 0.088338874 0.12732106
-0.0765936 0.044318341 8.7189417
-1.3452281 0.18123297 8.6293077
-0.55090857 0.070457429 2.6936357
-0.81037259 0.098289177 2.6568253
-1.0468286 0.12337701 2.5428128
-1.0328877 0.11957275 1.9727957
-0.95402318 0.10910744 1.4829408
-0.92868948 0.10524057 1.1956338
-0.49632001 0.11102492 8.6349974
-0.91763151 0.16944133 8.6601706
-0.6768598 0.085018456 2.6640043
-0.94487655 0.1143338 2.642442
-1.0544933 0.12467541 2.2593539
-0.98087204 0.11442561 1.6854634
-0.93659276 0.10811635 1.3231975
-0.9240278 0.10586325 1.0865644
-0.92200577 0.10254271 0.9914338
-0.89283103 0.098833129 0.80669963
-0.88746017 0.097778291 0.66997784
-0.87769353 0.096399449 0.54875475
-0.87640947 0.095956519 0.44452715
-0.8444044 0.092160881 0.3396157
-0.84971106 0.092445225 0.25374803
-0.84145123 0.091257028 0.1689322
-0.90882194 0.1023656 0.89571548
-0.88227528 0.098916396 0.72999263
-0.88003182 0.098361477 0.60597211
-0.87167156 0.096972346 0.49289995
-0.85475767 0.094795808 0.38845813
-0.83111149 0.091886811 0.29239166
-0.83172083 0.091812424 0.20892289
-0.82905883 0.091233388 0.12732106
-0.076438434 0.044585433 8.7189417
-1.3445873 0.18592758 8.6293077
-0.5506593 0.072380029 2.6936357
-0.80854332 0.10093202 2.6520531
-1.0347553 0.12561606 2.5151978
-1.032464 0.12317747 1.9727957
-0.95363647 0.11243694 1.4829408
-0.92831647 0.10848166 1.1956338
-0.49592942 0.11275673 8.6349974
-0.91703445 0.17264342 8.6601706
-0.67655891 0.08738061 2.6640043
-0.94447172 0.11763134 2.642442
-1.0562125 0.12861891 2.263855
-0.98305607 0.11816031 1.6897295
-0.93620962 0.11138502 1.3231975
-0.92365259 0.10908806 1.0865644
-0.92164218 0.1057605 0.9914338
-0.89634776 0.10239106 0.80983812
-0.88711345 0.1008755 0.66997784
-0.8773517 0.099462584 0.54875475
-0.87606919 0.099015176 0.44452715
-0.84407753 0.095107831 0.3396157
-0.84938318 0.095410697 0.25374803
-0.84112751 0.094193682 0.1689322
-0.90845907 0.10553736 0.89571548
-0.88192463 0.10199551 0.72999263
-0.87968314 0.10143276 0.60597211
-0.8713277 0.10001446 0.49289995
-0.85911304 0.098315917 0.39010164
-0.83078569 0.094787367 0.29239166
-0.83139527 0.094715111 0.20892289
-0.82873535 0.094126791 0.12732106
-0.076282337 0.044851981 8.7189417
-1.34393 0.19061995 8.6293077
-0.5504033 0.074301742 2.6936357
-0.80818611 0.10375375 2.6520531
-1.0304334 0.12874228 2.5059927
-1.0344049 0.12707299 1.977185
-0.95044476 0.11542553 1.4788078
-0.93111444 0.11210483 1.1994712
-0.49553281 0.11448716 8.6349974
-0.91642618 0.17584343 8.6601706
-0.67624974 0.089741714 2.6640043
-0.94405538 0.12092744 2.642442
-1.0622373 0.13311788 2.2773588
-0.98263758 0.1215911 1.6897295
-0.93581516 0.11465232 1.3231975
-0.92326617 0.11231155 1.0865644
-0.92126739 0.10897698 0.9914338
-0.89598483 0.10551927 0.80983812
-0.88675588 0.1039715 0.66997784
-0.87699914 0.1025245 0.54875475
-0.87571818 0.10207262 0.44452715
-0.8437404 0.098053634 0.3396157
-0.84904498 0.098375022 0.25374803
-0.84079361 0.097129196 0.1689322
-0.9117924 0.10915186 0.899041
-0.88156319 0.10507338 0.72999263
-0.88360441 0.10501174 0.60850531
-0.87548035 0.1035888 0.49499801
-0.86345422 0.10186757 0.39174515
-0.83527708 0.09825471 0.29356396
-0.83105963 0.09761665 0.20892289
-0.82840174 0.097019047 0.12732106
-0.07616096 0.045143142 8.7239418
-1.3432566 0.19530998 8.6293077
-0.55014056 0.076222561 2.6936357
-0.80781901 0.10657421 2.6520531
-1.0377284 0.13333538 2.5244026
-1.0363311 0.13098353 1.9815739
-0.95003605 0.1187425 1.4788078
-0.93071741 0.11535434 1.1994712
-0.49541101 0.11628311 8.6399889
-0.91580683 0.17904128 8.6601706
-0.67593235 0.092101723 2.6640043
-0.94191664 0.12399653 2.6377494
-1.0639251 0.13710347 2.2818599
-0.98479426 0.12535 1.6939954
-0.93540925 0.11791823 1.3231975
-0.92286855 0.11553366 1.0865644
-0.92088139 0.11219214 0.9914338
-0.89561105 0.10864621 0.80983812
-0.88638759 0.10706622 0.66997784
-0.87663597 0.10558518 0.54875475
-0.87075377 0.10457591 0.44265413
-0.84339297 0.10099825 0.3396157
-0.84869635 0.10133814 0.25374803
-0.84044945 0.10006353 0.1689322
-0.9114058 0.11233395 0.899041
-0.88119107 0.10814998 0.72999263
-0.88323247 0.10809545 0.60850531
-0.87511343 0.10664416 0.49499801
-0.86778104 0.10545073 0.39338866
-0.83492899 0.10116977 0.29356396
-0.83071381 0.100517 0.20892289
-0.833018 0.10050858 0.1275226
-0.076002918 0.045408718 8.7239418
-1.3433352 0.20011234 8.6342468
-0.54987115 0.078142442 2.6936357
-0.80744207 0.10939338 2.6520531
-1.0391936 0.13721295 2.5290053
-1.0382426 0.13490909 1.9859631
-0.94961578 0.12205802 1.4788078
-0.93030906 0.11860245 1.1994712
-0.49500209 0.11801171 8.6399889
-0.91517633 0.18223694 8.6601706
-0.67436188 0.094286099 2.6591649
-0.94147807 0.12728368 2.6377494
-1.0677563 0.14138851 2.2908626
-0.98435074 0.12878679 1.6939954
-0.9349919 0.1211827 1.3231975
-0.92582196 0.11918749 1.0902396
-0.92048413 0.11540593 0.9914338
-0.89522636 0.11177181 0.80983812
-0.88600844 0.11015964 0.66997784
-0.88065815 0.10918979 0.55107355
-0.87038344 0.10761476 0.44265413
-0.84303528 0.10394162 0.3396157
-0.84833747 0.10430003 0.25374803
-0.84009504 0.10299663 0.1689322
-0.91100818 0.11551467 0.899041
-0.88080817 0.11122524 0.72999263
-0.88284975 0.11117785 0.60850531
-0.87923908 0.11026313 0.49709606
-0.86740768 0.10847921 0.39338866
-0.83939403 0.10468522 0.29473627
-0.83035785 0.10341612 0.20892289
-0.8376199 0.10403152 0.12772413
-0.075843945 0.045673739 8.7239418
-1.3426284 0.20480023 8.6342468
-0.54959506 0.080061376 2.6936357
-0.80705535 0.11221121 2.6520531
-1.0425801 0.14136513 2.5382104
-1.0401392 0.13884959 1.990352
-0.95197374 0.12574083 1.4829408
-0.93306744 0.12226582 1.2033087
-0.4948675 0.11980773 8.6449804
-0.91453457 0.18543041 8.6601706
-0.67402869 0.096639484 2.6591649
-0.94102806 0.13056928 2.6377494
-1.0694133 0.14540836 2.2953637
-0.98389518 0.13222203 1.6939954
-0.93755007 0.12484368 1.3271875
-0.92540032 0.12241848 1.0902396
-0.92007571 0.11861832 0.9914338
-0.89483076 0.11489606 0.80983812
-0.88976616 0.1137823 0.67271936
-0.88027161 0.1122632 0.55107355
-0.87000251 0.11065232 0.44265413
-0.84266734 0.10688373 0.3396157
-0.84796828 0.10726064 0.25374803
-0.84467125 0.10655178 0.16937928
-0.91059941 0.11869398 0.899041
-0.88041455 0.11429916 0.72999263
-0.8824563 0.11425889 0.60850531
-0.87884885 0.11333157 0.49709606
-0.87170732 0.11210884 0.39503217
-0.83902353 0.10761462 0.29473627
-0.82999176 0.10631397 0.20892289
-0.83725172 0.10695472 0.12772413
-0.075648673 0.045912679 8.7189417
-1.3426729 0.20960572 8.6391859
-0.54931217 0.081979334 2.6936357
-0.80665874 0.11502768 2.6520531
-1.0420803 0.14500356 2.5382104
-1.0396482 0.14247951 1.990352
-0.95152897 0.12906307 1.4829408
-0.93263495 0.12552208 1.2033087
-0.49444628 0.12153441 8.6449804
-0.91388172 0.18862158 8.6601706
-0.67368722 0.0989917 2.6591649
-0.94056654 0.13385327 2.6377494
-1.0710553 0.14944153 2.299865
-0.98342758 0.13565567 1.6939954
-0.93710858 0.12811559 1.3271875
-0.92496735 0.12564799 1.0902396
-0.91965604 0.12182926 0.9914338
-0.8944242 0.1180189 0.80983812
-0.88936359 0.11688747 0.67271936
-0.87987441 0.11533524 0.55107355
-0.86961097 0.11368852 0.44265413
-0.8470459 0.11044487 0.34102574
-0.84758866 0.11021995 0.25374803
-0.84429413 0.10949957 0.16937928
-0.9101795 0.12187183 0.899041
-0.88401675 0.11790626 0.73293579
-0.88205206 0.11733855 0.60850531
-0.87844789 0.11639864 0.49709606
-0.87131071 0.11515098 0.39503217
-0.84346163 0.11117798 0.2959086
-0.82961565 0.10921054 0.20892289
-0.83687323 0.10987663 0.12772413
-0.075523235 0.046202116 8.7239418
-1.3427005 0.21441402 8.6441259
-0.54902273 0.083896287 2.6936357
-0.8062523 0.11784275 2.6520531
-1.0415678 0.1486402 2.5382104
-1.0415162 0.14644141 1.9947413
-0.95107269 0.13238373 1.4829408
-0.93219107 0.12877683 1.2033087
-0.49401903 0.1232596 8.6449804
-0.91321772 0.19181049 8.6601706
-0.6720947 0.10115518 2.6543255
-0.94009358 0.13713565 2.6377494
-1.0705271 0.15317929 2.299865
-0.98553038 0.13945332 1.6982613
-0.93665564 0.13138592 1.3271875
-0.92452306 0.12887596 1.0902396
-0.91922516 0.12503871 0.9914338
-0.89400685 0.12114029 0.80983812
-0.88895011 0.11999122 0.67271936
-0.88385665 0.1189971 0.55339235
-0.86920881 0.11672334 0.44265413
-0.84665513 0.11340093 0.34102574
-0.85206777 0.11382844 0.25468066
-0.84390676 0.11244604 0.16937928
-0.90974855 0.12504821 0.899041
-0.88359982 0.12099134 0.73293579
-0.8816371 0.12041677 0.60850531
-0.8780362 0.11946429 0.49709606
-0.87090343 0.11819172 0.39503217
-0.84306842 0.11412153 0.2959086
-0.82922935 0.11210577 0.20892289
-0.83648461 0.11279719 0.12772413
-0.075361505 0.046465456 8.7239418
-1.3434775 0.21935047 8.6540041
-0.5487265 0.085812226 2.6936357
-0.80435985 0.12043497 2.6472814
-1.0410426 0.15227506 2.5382104
-1.0409987 0.15007611 1.9947413
-0.9506048 0.13570279 1.4829408
-0.93173593 0.13203 1.2033087
-0.49330613 0.12491151 8.6399889
-0.91254264 0.19499704 8.6601706
-0.67173755 0.10350061 2.6543255
-0.93790251 0.14016099 2.6330566
-1.0699859 0.15691519 2.299865
-0.98503762 0.14289261 1.6982613
-0.93619132 0.13465467 1.3271875
-0.92406762 0.13210237 1.0902396
-0.91878313 0.12824665 0.9914338
-0.89357847 0.12426022 0.80983812
-0.8885259 0.1230935 0.67271936
-0.88343585 0.12208162 0.55339235
-0.86879605 0.11975673 0.44265413
-0.85100657 0.11700915 0.34243578
-0.8516652 0.11680201 0.25468066
-0.84350914 0.11539115 0.16937928
-0.90930653 0.12822306 0.899041
-0.88317204 0.12407494 0.73293579
-0.8812114 0.12349352 0.60850531
-0.8776139 0.12252848 0.49709606
-0.87048554 0.12123102 0.39503217
-0.84266496 0.11706369 0.2959086
-0.83373797 0.11568026 0.20961356
-0.83608574 0.11571638 0.12772413
-0.075198852 0.046728231 8.7239418
-1.3411709 0.22378252 8.6441259
-0.54842365 0.087727115 2.6936357
-0.80393457 0.12324197 2.6472814
-1.0405047 0.15590805 2.5382104
-1.0404685 0.15370895 1.9947413
-0.95290959 0.13942787 1.4870737
-0.92809749 0.13482051 1.1994712
-0.49286711 0.12663272 8.6399889
-0.91237724 0.19829506 8.665143
-0.67137218 0.10584478 2.6543255
-0.93740749 0.14343403 2.6330566
-1.0672789 0.16032551 2.2953637
-0.9871124 0.14671385 1.7025272
-0.93571556 0.13792177 1.3271875
-0.92360085 0.13532716 1.0902396
-0.91832983 0.13145301 0.9914338
-0.89313936 0.12737864 0.80983812
-0.88809079 0.12619428 0.67271936
-0.88300437 0.12516464 0.55339235
-0.8683728 0.12278867 0.44265413
-0.85059297 0.11997901 0.34243578
-0.85125232 0.11977417 0.25468066
-0.8431012 0.11833484 0.16937928
-0.90885341 0.13139635 0.899041
-0.88673437 0.12773356 0.735879
-0.88077497 0.12656876 0.60850531
-0.87718081 0.12559117 0.49709606
-0.87005705 0.12426884 0.39503217
-0.84225118 0.12000442 0.2959086
-0.83332914 0.11858986 0.20961356
-0.83073038 0.11793194 0.1275226
-0.075035281 0.046990443 8.7239418
-1.3396155 0.22833192 8.6391859
-0.54811406 0.089640938 2.6936357
-0.80202484 0.12581576 2.6425092
-1.0399542 0.15953912 2.5382104
-1.0399256 0.15733993 1.9947413
-0.95241708 0.1427533 1.4870737
-0.92762119 0.13805936 1.1994712
-0.49242207 0.12835236 8.6399889
-0.91167951 0.20147865 8.665143
-0.67099863 0.10818766 2.6543255
-0.93519628 0.14643803 2.6283638
-1.0667127 0.16405004 2.2953637
-0.98659426 0.15015863 1.7025272
-0.93522841 0.14118718 1.3271875
-0.92312288 0.1385503 1.0902396
-0.9178654 0.13465779 0.9914338
-0.89654058 0.13105872 0.81297654
-0.88764489 0.12929353 0.67271936
-0.8825621 0.12824613 0.55339235
-0.86793882 0.1258191 0.44265413
-0.85016894 0.12294739 0.34243578
-0.85082906 0.12274487 0.25468066
-0.84268296 0.12127709 0.16937928
-0.90838921 0.13456804 0.899041
-0.8862831 0.13082805 0.735879
-0.88032776 0.12964249 0.60850531
-0.87673706 0.12865233 0.49709606
-0.86494565 0.12662104 0.39338866
-0.8370176 0.12224121 0.29473627
-0.83291012 0.12149799 0.20961356
-0.83031368 0.12083101 0.1275226
-0.074870795 0.047252081 8.7239418
-1.3357486 0.23247285 8.6194296
-0.5477978 0.091553666 2.6936357
-0.80158073 0.12861459 2.6425092
-1.0393909 0.16316827 2.5382104
-1.0417367 0.16133578 1.9991302
-0.951913 0.14607698 1.4870737
-0.92713362 0.14129652 1.1994712
-0.49197105 0.13007046 8.6399889
-0.91097069 0.20465977 8.665143
-0.67061687 0.11052922 2.6543255
-0.93297553 0.14942835 2.6236711
-1.0639832 0.1674339 2.2908626
-0.98864102 0.15400325 1.7067931
-0.93472993 0.14445087 1.3271875
-0.92263359 0.14177175 1.0902396
-0.91738975 0.13786091 0.9914338
-0.89607763 0.13418743 0.81297654
-0.8871882 0.13239121 0.67271936
-0.88210905 0.13132606 0.55339235
-0.8674944 0.12884802 0.44265413
-0.8497346 0.12591429 0.34243578
-0.85039538 0.12571406 0.25468066
-0.84225452 0.12421786 0.16937928
-0.91160542 0.13829836 0.90236646
-0.88582104 0.13392097 0.735879
-0.87986988 0.13271461 0.60850531
-0.87179458 0.13103719 0.49499801
-0.86449838 0.12963949 0.39338866
-0.83658582 0.12516221 0.29473627
-0.83248091 0.12440465 0.20961356
-0.82988685 0.12372862 0.1275226
-0.0747054 0.047513139 8.7239418
-0.43377867 0.076777078 2.8009834
-0.54647118 0.093293361 2.6887403
-0.80112696 0.13141184 2.6425092
-1.038815 0.16679543 2.5382104
-1.0411673 0.16497116 1.9991302
-0.9513973 0.14939889 1.4870737
-0.9298017 0.14502619 1.2033087
-0.49151403 0.13178697 8.6399889
-0.91025072 0.2078384 8.665143
-0.66898745 0.11266024 2.6494861
-0.93244821 0.15268415 2.6236711
-1.0633922 0.17114688 2.2908626
-0.99067295 0.157864 1.7110591
-0.93422002 0.14771281 1.3271875
-0.92548209 0.14551832 1.0939147
-0.91690296 0.14106236 0.9914338
-0.89560378 0.13731451 0.81297654
-0.8867206 0.13548726 0.67271936
-0.88164526 0.13440441 0.55339235
-0.86703932 0.13187534 0.44265413
-0.84928989 0.12887965 0.34243578
-0.84995139 0.12868173 0.25468066
-0.84181577 0.12715712 0.16937928
-0.91111714 0.14147961 0.90236646
-0.88534814 0.13701224 0.735879
-0.87940127 0.13578512 0.60850531
-0.87133187 0.13407952 0.49499801
-0.86870807 0.13337308 0.39503217
-0.83614379 0.12808168 0.29473627
-0.83204162 0.12730978 0.20961356
-0.82944989 0.1266247 0.1275226
-0.074573845 0.047800008 8.728941
-0.54614222 0.095200337 2.6887403
-0.79919124 0.13396035 2.6377373
-1.0362986 0.17010382 2.5336077
-1.0429491 0.16898783 2.0035193
-0.95086998 0.15271898 1.4870737
-0.92928976 0.14827092 1.2033087
-0.49105099 0.13350186 8.6399889
-0.91003877 0.21113558 8.6701145
-0.66859013 0.11499476 2.6494861
-0.93020767 0.15565296 2.6189783
-1.0606402 0.17450409 2.2863612
-0.99011582 0.16132113 1.7110591
-0.93369865 0.15097295 1.3271875
-0.92496848 0.14874797 1.0939147
-0.91992778 0.14481691 0.99493837
-0.89511901 0.14043991 0.81297654
-0.89037341 0.13922785 0.67546082
-0.88117075 0.13748111 0.55339235
-0.86657369 0.13490108 0.44265413
-0.84883487 0.13184343 0.34243578
-0.84949702 0.13164784 0.25468066
-0.84136683 0.13009484 0.16937928
-0.91061771 0.14465913 0.90236646
-0.88486451 0.14010184 0.735879
-0.8831799 0.13952684 0.61103851
-0.87085855 0.13712022 0.49499801
-0.8682372 0.13640462 0.39503217
-0.84049356 0.1317524 0.2959086
-0.83159214 0.13021338 0.20961356
-0.8339389 0.13029045 0.12772413
-0.074406542 0.04806003 8.728941
-0.43246809 0.079662062 2.7960441
-0.54580659 0.097106151 2.6887403
-0.79871875 0.13674924 2.6377373
-1.0356985 0.17372014 2.5336077
-1.0423529 0.17262737 2.0035193
-0.95033115 0.1560372 1.4870737
-0.92876655 0.15151384 1.2033087
-0.49086007 0.13529277 8.6449804
-0.90929621 0.21431093 8.6701145
-0.6681847 0.11732788 2.6494861
-0.92965871 0.15889904 2.6189783
-1.0600246 0.17820536 2.2863612
-0.99211925 0.16520494 1.715325
-0.93613887 0.15472285 1.3311775
-0.92444366 0.1519758 1.0939147
-0.91941661 0.14802717 0.99493837
-0.89462334 0.14356361 0.81297654
-0.88988203 0.14233498 0.67546082
-0.88068545 0.14055613 0.55339235
-0.86609751 0.13792516 0.44265413
-0.84836942 0.13480562 0.34243578
-0.84903234 0.13461234 0.25468066
-0.84090757 0.13303097 0.16937928
-0.9101072 0.14783691 0.90236646
-0.88437009 0.14318974 0.735879
-0.88268751 0.14260887 0.61103851
-0.87037456 0.14015925 0.49499801
-0.86775577 0.1394345 0.39503217
-0.84002858 0.13468546 0.2959086
-0.83113253 0.13311538 0.20961356
-0.83347899 0.13320066 0.12772413
-0.07423833 0.048319463 8.728941
-0.42913333 0.080594659 2.7762871
-0.54446262 0.098828375 2.6838453
-0.79823661 0.13953646 2.6377373
-1.0370114 0.17766453 2.5382104
-1.0441054 0.17666464 2.0079086
-0.9497807 0.15935352 1.4870737
-0.92823201 0.15475492 1.2033087
-0.49038479 0.13700537 8.6449804
-0.90854263 0.21748365 8.6701145
-0.6677711 0.11965956 2.6494861
-0.92909831 0.16214319 2.6189783
