# .PCD v0.7 - Point Cloud Data file format
VERSION 0.7
FIELDS x y z
SIZE 4 4 4
TYPE F F F
COUNT 1 1 1
WIDTH 1445
HEIGHT 1
VIEWPOINT 0 0 0 1 0 0 0
POINTS 1445
DATA ascii
-0.92160809 0.12519141 1.0865644
-0.91965604 0.12182926 0.9914338
-0.89828306 0.11852828 0.81297654
-0.89350927 0.11743253 0.67546082
-0.87987441 0.11533524 0.55107355
-0.86501408 0.11308742 0.44078106
-0.84228909 0.10982454 0.3396157
-0.85245991 0.11085347 0.25468066
-0.83935553 0.10885904 0.1689322
-0.91388023 0.12236758 0.90236646
-0.88401675 0.11790626 0.73293579
-0.88632518 0.11790718 0.61103851
-0.87844789 0.11639864 0.49709606
-0.87131071 0.11515098 0.39503217
-0.83864278 0.11054271 0.29473627
-0.83452529 0.10985691 0.20961356
-0.83191979 0.10922625 0.1275226
-0.075487942 0.046176463 8.7189417
-1.3396316 0.21392299 8.6243687
-0.54902273 0.083896287 2.6936357
-0.80477536 0.1176265 2.6472814
-1.0435017 0.14891648 2.5428128
-1.0391445 0.14610769 1.990352
-0.95107269 0.13238373 1.4829408
-0.93219107 0.12877683 1.2033087
-0.49401903 0.1232596 8.6449804
-0.91426086 0.19203088 8.6701145
-0.6720947 0.10115518 2.6543255
-0.93838602 0.13688625 2.6330566
-1.0705271 0.15317929 2.299865
-0.98294806 0.13908765 1.6939954
-0.93665564 0.13138592 1.3271875
-0.92116547 0.12840766 1.0865644
-0.91922516 0.12503871 0.9914338
-0.89786386 0.12166315 0.81297654
-0.89309388 0.12055074 0.67546082
-0.87946647 0.11840586 0.55107355
-0.86461413 0.11610619 0.44078106
-0.84190059 0.11276399 0.3396157
-0.85206777 0.11382844 0.25468066
-0.83897042 0.11178827 0.1689322
-0.9134475 0.12555687 0.90236646
-0.88359982 0.12099134 0.73293579
-0.88590819 0.12100032 0.61103851
-0.8780362 0.11946429 0.49709606
-0.87090343 0.11819172 0.39503217
-0.83825183 0.11346944 0.29473627
-0.82922935 0.11210577 0.20892289
-0.83648461 0.11279719 0.12772413
-0.075326301 0.046439681 8.7189417
-1.3396434 0.21872328 8.6293077
-0.5487265 0.085812226 2.6936357
-0.80435985 0.12043497 2.6472814
-1.0429755 0.15255809 2.5428128
-1.0386282 0.14973409 1.990352
-0.9506048 0.13570279 1.4829408
-0.93173593 0.13203 1.2033087
-0.49358577 0.1249833 8.6449804
-0.91358501 0.19522107 8.6701145
-0.67173755 0.10350061 2.6543255
-0.93790251 0.14016099 2.6330566
-1.0699859 0.15691519 2.299865
-0.98503762 0.14289261 1.6982613
-0.93619132 0.13465467 1.3271875
-0.92406762 0.13210237 1.0902396
-0.91878313 0.12824665 0.9914338
-0.8974337 0.12479655 0.81297654
-0.8885259 0.1230935 0.67271936
-0.87904775 0.12147506 0.55107355
-0.86879605 0.11975673 0.44265413
-0.84150183 0.1157021 0.3396157
-0.8516652 0.11680201 0.25468066
-0.83857512 0.11471615 0.1689322
-0.91300368 0.12874465 0.90236646
-0.88317204 0.12407494 0.73293579
-0.88548046 0.12409198 0.61103851
-0.8776139 0.12252848 0.49709606
-0.8751626 0.12188251 0.39667568
-0.83785063 0.1163948 0.29473627
-0.82883298 0.11499963 0.20892289
-0.83608574 0.11571638 0.12772413
-0.075163737 0.046702337 8.7189417
-1.3381054 0.22327009 8.6243687
-0.54842365 0.087727115 2.6936357
-0.80245912 0.1230154 2.6425092
-1.0405047 0.15590805 2.5382104
-1.0404685 0.15370895 1.9947413
-0.95290959 0.13942787 1.4870737
-0.92809749 0.13482051 1.1994712
-0.49342585 0.12677826 8.6499729
-0.91289794 0.19840889 8.6701145
-0.67137218 0.10584478 2.6543255
-0.93740749 0.14343403 2.6330566
-1.0694317 0.16064918 2.299865
-0.98453283 0.14633016 1.6982613
-0.93571556 0.13792177 1.3271875
-0.92360085 0.13532716 1.0902396
-0.91832983 0.13145301 0.9914338
-0.89699262 0.12792842 0.81297654
-0.88809079 0.12619428 0.67271936
-0.87861842 0.12454277 0.55107355
-0.8683728 0.12278867 0.44265413
-0.8458429 0.11930889 0.34102574
-0.85125232 0.11977417 0.25468066
-0.83816957 0.11764263 0.1689322
-0.91254872 0.13193083 0.90236646
-0.88273358 0.12715703 0.73293579
-0.88504189 0.12718213 0.61103851
-0.87718081 0.12559117 0.49709606
-0.87473178 0.12493665 0.39667568
-0.83743918 0.11931872 0.29473627
-0.82842654 0.11789211 0.20892289
-0.83567673 0.11863415 0.12772413
-0.075035281 0.046990443 8.7239418
-1.3380836 0.22807036 8.6293077
-0.54811406 0.089640938 2.6936357
-0.80202484 0.12581576 2.6425092
-1.0399542 0.15953912 2.5382104
-1.0399256 0.15733993 1.9947413
-0.95241708 0.1427533 1.4870737
-0.92762119 0.13805936 1.1994712
-0.4929803 0.12849987 8.6499729
-0.91219985 0.20159429 8.6701145
-0.66975772 0.10798712 2.6494861
-0.93519628 0.14643803 2.6283638
-1.0667127 0.16405004 2.2953637
-0.98659426 0.15015863 1.7025272
-0.93820786 0.14163725 1.3311775
-0.92312288 0.1385503 1.0902396
-0.9178654 0.13465779 0.9914338
-0.89654058 0.13105872 0.81297654
-0.88764489 0.12929353 0.67271936
-0.87817836 0.12760895 0.55107355
-0.86793882 0.1258191 0.44265413
-0.84542125 0.1222607 0.34102574
-0.85082906 0.12274487 0.25468066
-0.83775383 0.12056766 0.1689322
-0.91577613 0.13566281 0.90569204
-0.88228434 0.13023756 0.73293579
-0.88459253 0.13027073 0.61103851
-0.88122743 0.12931141 0.49919412
-0.87429035 0.12798928 0.39667568
-0.84182715 0.12294371 0.2959086
-0.82800996 0.12078314 0.20892289
-0.83525753 0.12155049 0.12772413
-0.074870795 0.047252081 8.7239418
-1.3441685 0.23394084 8.6737604
-0.54679352 0.091385253 2.6887403
-0.80158073 0.12861459 2.6425092
-1.0393909 0.16316827 2.5382104
-1.0417367 0.16133578 1.9991302
-0.951913 0.14607698 1.4870737
-0.92713362 0.14129652 1.1994712
-0.49252877 0.13021991 8.6499729
-0.91097069 0.20465977 8.665143
-0.66937667 0.11032435 2.6494861
-0.93467945 0.14970158 2.6283638
-1.0661335 0.16777258 2.2953637
-0.98864102 0.15400325 1.7067931
-0.93770778 0.14491133 1.3311775
-0.92263359 0.14177175 1.0902396
-0.91738975 0.13786091 0.9914338
-0.89607763 0.13418743 0.81297654
-0.8871882 0.13239121 0.67271936
-0.87772751 0.1306736 0.55107355
-0.8674944 0.12884802 0.44265413
-0.8497346 0.12591429 0.34243578
-0.85039538 0.12571406 0.25468066
-0.83732784 0.12349124 0.1689322
-0.91529703 0.13885863 0.90569204
-0.88182437 0.13331653 0.73293579
-0.88413244 0.13335773 0.61103851
-0.88077074 0.13238668 0.49919412
-0.87383825 0.13104035 0.39667568
-0.84139287 0.12588148 0.2959086
-0.82758331 0.12367269 0.20892289
-0.8348282 0.12446534 0.12772413
-0.0747054 0.047513139 8.7239418
-0.43148372 0.076368697 2.7861655
-0.54647118 0.093293361 2.6887403
-0.79965401 0.13116984 2.6377373
-1.0407438 0.16710542 2.5428128
-1.0411673 0.16497116 1.9991302
-0.9513973 0.14939889 1.4870737
-0.92663479 0.14453197 1.1994712
-0.49207121 0.13193835 8.6499729
-0.91077024 0.20795768 8.6701145
-0.66898745 0.11266024 2.6494861
-0.93244821 0.15268415 2.6236711
-1.0655414 0.17149305 2.2953637
-0.99067295 0.157864 1.7110591
-0.93719625 0.14818367 1.3311775
-0.92213309 0.14499149 1.0902396
-0.91690296 0.14106236 0.9914338
-0.89560378 0.13731451 0.81297654
-0.8867206 0.13548726 0.67271936
-0.87726605 0.13373664 0.55107355
-0.86703932 0.13187534 0.44265413
-0.85403264 0.12959947 0.34384581
-0.84995139 0.12868173 0.25468066
-0.83689165 0.1264133 0.1689322
-0.91480672 0.14205277 0.90569204
-0.88534814 0.13701224 0.735879
-0.88792181 0.13710113 0.61357164
-0.88030326 0.13546035 0.49919412
-0.87337554 0.1340898 0.39667568
-0.84094834 0.12881772 0.2959086
-0.82714659 0.12656075 0.20892289
-0.83438861 0.12737867 0.12772413
-0.074539095 0.047773618 8.7239418
-0.42356944 0.076486431 2.736773
-0.54614222 0.095200337 2.6887403
-0.79919124 0.13396035 2.6377373
-1.0401542 0.17073728 2.5428128
-1.0429491 0.16898783 2.0035193
-0.95086998 0.15271898 1.4870737
-0.92928976 0.14827092 1.2033087
-0.49188599 0.13373186 8.6549644
-0.91003877 0.21113558 8.6701145
-0.66735148 0.11478125 2.6446466
-0.93190956 0.15593806 2.6236711
-1.0627882 0.17485778 2.2908626
-0.99011582 0.16132113 1.7110591
-0.93667322 0.1514542 1.3311775
-0.92162132 0.14820945 1.0902396
-0.91640496 0.14426209 0.9914338
-0.89511901 0.14043991 0.81297654
-0.88624227 0.13858168 0.67271936
-0.87679386 0.13679805 0.55107355
-0.86657369 0.13490108 0.44265413
-0.85357505 0.1325798 0.34384581
-0.85435134 0.13240018 0.2556133
-0.84136683 0.13009484 0.16937928
-0.91430527 0.14524516 0.90569204
-0.88486451 0.14010184 0.735879
-0.88743782 0.14019972 0.61357164
-0.87534183 0.13782629 0.49709606
-0.87290215 0.13713764 0.39667568
-0.84529561 0.13250524 0.29708093
-0.82669973 0.12944725 0.20892289
-0.8339389 0.13029045 0.12772413
-0.074337222 0.048007015 8.7189417
-0.43094006 0.079379134 2.7861655
-0.54580659 0.097106151 2.6887403
-0.79871875 0.13674924 2.6377373
-1.039552 0.17436704 2.5428128
-1.0423529 0.17262737 2.0035193
-0.95310789 0.15649341 1.4912066
-0.92876655 0.15151384 1.2033087
-0.49169424 0.13552567 8.659956
-0.90929621 0.21431093 8.6701145
-0.66694677 0.11711004 2.6446466
-0.92965871 0.15889904 2.6189783
-1.0621715 0.17856653 2.2908626
-0.99211925 0.16520494 1.715325
-0.93613887 0.15472285 1.3311775
-0.92109841 0.1514256 1.0902396
-0.91941661 0.14802717 0.99493837
-0.89462334 0.14356361 0.81297654
-0.88575315 0.14167438 0.67271936
-0.876311 0.13985781 0.55107355
-0.86609751 0.13792516 0.44265413
-0.85310704 0.13555852 0.34384581
-0.85388398 0.13538162 0.2556133
-0.84090757 0.13303097 0.16937928
-0.91379273 0.14843582 0.90569204
-0.88437009 0.14318974 0.735879
-0.88694304 0.14329658 0.61357164
-0.87485534 0.14088097 0.49709606
-0.87241811 0.14018381 0.39667568
-0.84482795 0.13545506 0.29708093
-0.83113253 0.13311538 0.20961356
-0.83347899 0.13320066 0.12772413
-0.074169196 0.048266206 8.7189417
-0.4237887 0.079585746 2.7417121
-0.54446262 0.098828375 2.6838453
-0.79676622 0.13927904 2.6329653
-1.038937 0.1779947 2.5428128
-1.0441054 0.17666464 2.0079086
-0.95255584 0.15981942 1.4912066
-0.93139356 0.15528229 1.2071462
-0.49121815 0.1372412 8.659956
-0.90854263 0.21748365 8.6701145
-0.66653395 0.1194374 2.6446466
-0.92909831 0.16214319 2.6189783
-1.0636871 0.18264176 2.2953637
-0.99153656 0.16866708 1.715325
-0.93559313 0.15798965 1.3311775
-0.92056423 0.15463991 1.0902396
-0.91889429 0.15123563 0.99493837
-0.89795768 0.1473159 0.81611502
-0.88525319 0.14476538 0.67271936
-0.87581748 0.14291584 0.55107355
-0.86561078 0.14094757 0.44265413
-0.85262865 0.1385356 0.34384581
-0.85340619 0.13836141 0.2556133
-0.84043807 0.13596547 0.16937928
-0.91326898 0.15162465 0.90569204
-0.88386482 0.14627591 0.735879
-0.88643748 0.14639172 0.61357164
-0.87435824 0.14393392 0.49709606
-0.87658316 0.14399381 0.39831915
-0.84434992 0.13840324 0.29708093
-0.83066285 0.13601577 0.20961356
-0.82807839 0.13530359 0.1275226
-0.074000262 0.048524808 8.7189417
-0.42503431 0.081358157 2.751591
-0.54411435 0.1007283 2.6838453
-0.79627514 0.14205943 2.6329653
-1.0363849 0.1812833 2.5382104
-1.0434824 0.18030818 2.0079086
-0.95199215 0.16314349 1.4912066
-0.93084586 0.15853252 1.2071462
-0.49101362 0.1390346 8.6649475
-0.90777791 0.22065374 8.6701145
-0.6661129 0.12176332 2.6446466
-0.9285267 0.16538537 2.6189783
-1.0630431 0.18635361 2.2953637
-0.9935112 0.17257376 1.7195909
-0.93503594 0.16125453 1.3311775
-0.92001885 0.15785234 1.0902396
-0.91836083 0.15444225 0.99493837
-0.89743799 0.15044947 0.81611502
-0.88886666 0.14854401 0.67546082
-0.87968272 0.14670099 0.55339235
-0.86968648 0.14472939 0.44452715
-0.84740764 0.14072503 0.34243578
-0.85291803 0.14133951 0.2556133
-0.84487158 0.13971081 0.16982636
-0.91273415 0.15481162 0.90569204
-0.88334888 0.14936027 0.735879
-0.885921 0.14948508 0.61357164
-0.87385052 0.14698513 0.49709606
-0.87607521 0.14705278 0.39831915
-0.83906776 0.14054663 0.2959086
-0.83018297 0.1389145 0.20961356
-0.82760108 0.13819329 0.1275226
-0.073796049 0.048755951 8.7139416
-0.42322275 0.08254239 2.7417121
-0.54375941 0.102627 2.6838453
-0.79430592 0.14457041 2.6281934
-1.0357459 0.18489985 2.5382104
-1.0452051 0.18436579 2.0122976
-0.95141691 0.16646557 1.4912066
-0.93028682 0.16178079 1.2071462
-0.49080256 0.14082825 8.66994
-0.90700215 0.22382113 8.6701145
-0.66568381 0.12408774 2.6446466
-0.92794371 0.1686255 2.6189783
-1.0623862 0.19006318 2.2953637
-0.99290276 0.17604071 1.7195909
-0.93743491 0.16504015 1.3351675
-0.92280149 0.16164805 1.0939147
-0.9178161 0.15764698 0.99493837
-0.89690733 0.15358119 0.81611502
-0.88834268 0.15164584 0.67546082
-0.87916529 0.14977077 0.55339235
-0.86917603 0.14776428 0.44452715
-0.84691125 0.14368218 0.34243578
-0.85726279 0.14513595 0.2565459
-0.84437877 0.14265911 0.16982636
-0.91218823 0.15799671 0.90569204
-0.8828221 0.15244283 0.735879
-0.88539386 0.15257661 0.61357164
-0.87780505 0.15080312 0.49919412
-0.87555659 0.15010996 0.39831915
-0.83857208 0.14347467 0.2959086
-0.82969302 0.14181153 0.20961356
-0.83203846 0.14192137 0.12772413
-0.073625408 0.04901325 8.7139416
-0.42217007 0.083867088 2.736773
-0.54339784 0.10452445 2.6838453
-0.79379648 0.14734218 2.6281934
-1.0350941 0.18851414 2.5382104
-1.0469123 0.18843764 2.0166867
-0.95082998 0.16978562 1.4912066
-0.92971641 0.16502713 1.2071462
-0.49030796 0.14254062 8.66994
-0.90621531 0.2269858 8.6701145
-0.66524667 0.12641066 2.6446466
-0.92734945 0.17186362 2.6189783
-1.0638578 0.19416158 2.299865
-0.99228221 0.17950551 1.7195909
-0.93685311 0.1683114 1.3351675
-0.92223167 0.16486824 1.0939147
-0.91726023 0.16084979 0.99493837
-0.89636576 0.15671106 0.81611502
-0.88780797 0.1547458 0.67546082
-0.87863714 0.15283871 0.55339235
-0.86865491 0.15079738 0.44452715
-0.84640461 0.14663757 0.34243578
-0.85675097 0.14812747 0.2565459
-0.84387565 0.14560567 0.16982636
-0.91530788 0.16183017 0.90901756
-0.88228464 0.15552352 0.735879
-0.88910145 0.15641336 0.61610484
-0.87727332 0.15386632 0.49919412
-0.87502724 0.15316531 0.39831915
-0.8380661 0.14640097 0.2959086
-0.82919294 0.14470683 0.20961356
-0.83153802 0.14482485 0.12772413
-0.073453866 0.049269952 8.7139416
-0.42187476 0.085340232 2.736773
-0.54302967 0.10642063 2.6838453
-0.79181063 0.14983423 2.6234214
-1.0344298 0.19212615 2.5382104
-1.0462481 0.1920909 2.0166867
-0.95023155 0.1731036 1.4912066
-0.92913467 0.16827142 1.2071462
-0.48980743 0.14425124 8.66994
-0.90593404 0.23027964 8.675086
-0.6648013 0.12873203 2.6446466
-0.92674387 0.17509963 2.6189783
-1.0631735 0.19787394 2.299865
-0.9942143 0.18344162 1.7238568
-0.93922371 0.17212403 1.3391576
-0.92165053 0.16808642 1.0939147
-0.91669315 0.16405064 0.99493837
-0.89581329 0.159839 0.81611502
-0.8872624 0.15784389 0.67546082
-0.87809831 0.1559048 0.55339235
-0.86812323 0.15382862 0.44452715
-0.84588754 0.14959118 0.34243578
-0.85622865 0.15111719 0.2565459
-0.84336227 0.14855047 0.16982636
-0.9147374 0.16502421 0.90901756
-0.8817364 0.15860233 0.735879
-0.88855004 0.15951595 0.61610484
-0.87673086 0.15692763 0.49919412
-0.87448728 0.1562188 0.39831915
-0.83754998 0.14932548 0.2959086
-0.82868278 0.14760038 0.20961356
-0.83594626 0.148601 0.12792566
-0.073315538 0.049553286 8.7189417
-0.42157429 0.086812332 2.736773
-0.54265493 0.10831551 2.6838453
-0.79128283 0.15259725 2.6234214
-1.0337528 0.19573581 2.5382104
-1.0479252 0.19618279 2.0210757
-0.95238817 0.17693374 1.4953396
-0.93169355 0.17209615 1.2109838
-0.48930091 0.14596011 8.66994
-0.90512466 0.23344056 8.675086
-0.66434789 0.13105184 2.6446466
-0.92612708 0.17833351 2.6189783
-1.0646151 0.20198995 2.3043661
-0.99356788 0.18691096 1.7238568
-0.93861717 0.17540149 1.3391576
-0.92439109 0.1719227 1.09759
-0.91611493 0.1672495 0.99493837
-0.8952499 0.162965 0.81611502
-0.88670599 0.16094005 0.67546082
-0.87754869 0.15896899 0.55339235
-0.86758101 0.156858 0.44452715
-0.84536028 0.15254296 0.34243578
-0.85086149 0.15323433 0.2556133
-0.84283859 0.15149345 0.16982636
-0.91415578 0.16821623 0.90901756
-0.88117731 0.16167919 0.735879
-0.88798779 0.16261661 0.61610484
-0.87617773 0.15998705 0.49919412
-0.87393665 0.15927038 0.39831915
-0.83702368 0.15224814 0.2959086
-0.82816249 0.15049212 0.20961356
-0.8354224 0.15151808 0.12792566
-0.073142111 0.049808901 8.7189417
-0.42126867 0.088283367 2.736773
-0.54227352 0.11020906 2.6838453
-0.79074532 0.15535842 2.6234214
-1.0330633 0.1993431 2.5382104
-1.0495867 0.20028874 2.025465
-0.95176476 0.18025711 1.4953396
-0.93108714 0.17534731 1.2109838
-0.48878846 0.1476672 8.66994
-0.90430433 0.2365986 8.675086
-0.6626541 0.13312203 2.6398072
-0.92380553 0.18123266 2.6142855
-1.0639035 0.20570493 2.3043661
-0.99290937 0.19037803 1.7238568
-0.93799919 0.17867681 1.3391576
-0.92378539 0.17514837 1.09759
-0.91903156 0.17109928 0.99844289
-0.89467561 0.16608901 0.81611502
-0.88613886 0.16403425 0.67546082
-0.87698847 0.16203123 0.55339235
-0.86702818 0.15988548 0.44452715
-0.84482259 0.15549289 0.34243578
-0.85032135 0.15620346 0.2556133
-0.84230465 0.15443458 0.16982636
-0.91356301 0.17140619 0.90901756
-0.88458067 0.16549762 0.73882216
-0.88741475 0.16571526 0.61610484
-0.88007575 0.16387546 0.50129217
-0.86873269 0.16145702 0.39667568
-0.83648711 0.155169 0.2959086
-0.83250129 0.15428446 0.21030425
-0.83980095 0.15534203 0.12812719
-0.073001705 0.050091375 8.7239418
-0.42095795 0.08975333 2.736773
-0.5418855 0.11210128 2.6838453
-0.79019821 0.15811768 2.6234214
-1.0323611 0.20294794 2.5382104
-1.0488812 0.20395125 2.025465
-0.95112973 0.1835783 1.4953396
-0.93046939 0.17859635 1.2109838
-0.48827001 0.14937249 8.66994
-0.9034729 0.23975375 8.675086
-0.66218537 0.1354343 2.6398072
-0.92316729 0.18445624 2.6142855
-1.0653149 0.20983838 2.3088672
-0.99223882 0.19384277 1.7238568
-0.93736976 0.18194994 1.3391576
-0.92316836 0.17837192 1.09759
-0.91842872 0.17430626 0.99844289
-0.89791477 0.169935 0.81925344
-0.88966972 0.16790208 0.67820227
-0.87641752 0.16509151 0.55339235
-0.86646473 0.162911 0.44452715
-0.8442747 0.15844093 0.34243578
-0.84977096 0.15917069 0.2556133
-0.83686525 0.1564586 0.16937928
-0.9129591 0.17459407 0.90901756
-0.88399762 0.16858438 0.73882216
-0.88683087 0.1688119 0.61610484
-0.87949836 0.1669465 0.50129217
-0.86816382 0.16448848 0.39667568
-0.84071636 0.15899123 0.29708093
-0.83682358 0.15810893 0.21099493
-0.8392536 0.15827255 0.12812719
-0.072826408 0.050345894 8.7239418
-0.41988289 0.091056809 2.7318337
-0.54149085 0.11399213 2.6838453
-0.78964144 0.16087504 2.6234214
-1.0297308 0.20616649 2.5336077
-1.0505121 0.20807688 2.0298538
-0.95048314 0.18689725 1.4953396
-0.92984027 0.18184321 1.2109838
-0.48774561 0.15107596 8.66994
-0.90263051 0.24290603 8.675086
-0.66170859 0.13774493 2.6398072
-0.92251778 0.18767756 2.6142855
-1.0645759 0.21355572 2.3088672
-0.99155611 0.19730513 1.7238568
-0.93672889 0.18522087 1.3391576
-0.92254007 0.18159328 1.09759
-0.91781467 0.17751111 0.99844289
-0.8973161 0.17306826 0.81925344
-0.8890782 0.17100659 0.67820227
-0.87583596 0.16814977 0.55339235
-0.86589086 0.16593453 0.44452715
-0.8437165 0.16138703 0.34243578
-0.85403526 0.16305727 0.2565459
-0.83631402 0.15937886 0.16937928
-0.91600895 0.17849422 0.91234308
-0.88340378 0.17166908 0.73882216
-0.88623619 0.1719065 0.61610484
-0.87891024 0.17001551 0.50129217
-0.86758435 0.16751795 0.39667568
-0.84015632 0.16192491 0.29708093
-0.84112936 0.16196544 0.21168561
-0.838696 0.16120112 0.12812719
-0.072650224 0.050599799 8.7239418
-0.41956249 0.092521913 2.7318337
-0.54108965 0.11588159 2.6838453
-0.78907508 0.16363041 2.6234214
-1.0309192 0.21015018 2.5382104
-1.0497793 0.21174258 2.0298538
-0.94982499 0.1902139 1.4953396
-0.92919987 0.18508784 1.2109838
-0.48721528 0.15277758 8.66994
-0.90177709 0.24605531 8.675086
-0.65999418 0.13979298 2.6349678
-0.92016721 0.19054636 2.6095927
-1.061691 0.2168346 2.3043661
-0.99086142 0.20076512 1.7238568
-0.9360767 0.18848954 1.3391576
-0.92190057 0.18481246 1.09759
-0.91718942 0.1807138 0.99844289
-0.89670652 0.17619944 0.81925344
-0.88847589 0.17410901 0.67820227
-0.8752436 0.17120598 0.55339235
-0.86530638 0.16895604 0.44452715
-0.84314799 0.16433117 0.34243578
-0.85346091 0.16603741 0.2565459
-0.83575261 0.16229717 0.16937928
-0.9153803 0.18169059 0.91234308
-0.88279915 0.17475168 0.73882216
-0.88563073 0.174999 0.61610484
-0.8783114 0.17308246 0.50129217
-0.86699432 0.17054535 0.39667568
-0.83958596 0.16485661 0.29708093
-0.84055889 0.16490056 0.21168561
-0.83322549 0.16316763 0.12792566
-0.072473153 0.050853088 8.7239418
-0.418479 0.093815222 2.7268946
-0.5396871 0.11755238 2.6789498
-0.78703868 0.16607524 2.6186495
-1.0301793 0.21374747 2.5382104
-1.0490338 0.2154057 2.0298538
-0.94915521 0.19352826 1.4953396
-0.92854816 0.18833023 1.2109838
-0.48667905 0.15447736 8.66994
-0.9009127 0.24920158 8.675086
-0.65950221 0.14209595 2.6349678
-0.91949648 0.19375718 2.6095927
-1.0609277 0.22053929 2.3043661
-0.99015456 0.20422263 1.7238568
-0.935413 0.19175591 1.3391576
-0.92124987 0.18802936 1.09759
-0.91655302 0.18391429 0.99844289
-0.89608604 0.17932846 0.81925344
-0.88786268 0.1772093 0.67820227
-0.87464064 0.17426011 0.55339235
-0.86925817 0.17287992 0.4464002
-0.84727442 0.16820751 0.34384581
-0.85287613 0.16901554 0.2565459
-0.83518094 0.16521351 0.16937928
-0.91474056 0.18488476 0.91234308
-0.88218373 0.17783217 0.73882216
-0.88501447 0.17808937 0.61610484
-0.87770188 0.17614727 0.50129217
-0.86639374 0.17357068 0.39667568
-0.83900541 0.16778632 0.29708093
-0.83997816 0.16783364 0.21168561
-0.83265084 0.16607513 0.12792566
-0.072295204 0.051105756 8.7239418
-0.41739151 0.095102064 2.7219551
-0.5392735 0.11943553 2.6789498
-0.78645414 0.1688215 2.6186495
-1.0294269 0.21734217 2.5382104
-1.0506198 0.21955639 2.0342431
-0.9512291 0.19741233 1.4994725
-0.92788512 0.19157031 1.2109838
-0.48613685 0.15617524 8.66994
-0.90003735 0.25234485 8.675086
-0.65900218 0.14439717 2.6349678
-0.91881454 0.19696565 2.6095927
-1.0580218 0.22379051 2.299865
-0.99198794 0.20821367 1.7281228
-0.93768764 0.19563562 1.3431475
-0.9205879 0.19124396 1.09759
-0.91939956 0.18782657 1.0019474
-0.89545459 0.18245529 0.81925344
-0.88723868 0.18030746 0.67820227
-0.87836844 0.178193 0.55571121
-0.86864936 0.17591314 0.4464002
-0.84668213 0.17116404 0.34384581
-0.85228091 0.1719916 0.2565459
-0.8345992 0.16812782 0.16937928
-0.91408956 0.18807667 0.91234308
-0.88155764 0.18091048 0.73882216
-0.88438743 0.18117754 0.61610484
-0.87708169 0.17920995 0.50129217
-0.86578256 0.17659391 0.39667568
-0.83841461 0.17071396 0.29708093
-0.83938718 0.1707647 0.21168561
-0.83206606 0.16898061 0.12792566
-0.072149798 0.051385857 8.728941
-0.41630021 0.096382491 2.717016
-0.53885329 0.12131722 2.6789498
-0.78586006 0.17156571 2.6186495
-1.0305719 0.22134472 2.5428128
-1.049847 0.2232224 2.0342431
-0.95053416 0.20073155 1.4994725
-0.92721075 0.19480808 1.2109838
-0.48558873 0.15787122 8.66994
-0.89915103 0.25548503 8.675086
-0.65849411 0.14669664 2.6349678
-0.91643548 0.1998038 2.6048999
-1.0572342 0.22748235 2.299865
-0.9912551 0.21167509 1.7281228
-0.93699902 0.19890757 1.3431475
-0.92323154 0.19515763 1.1012651
-0.91873831 0.19103475 1.0019474
-0.89481223 0.18557988 0.81925344
-0.88660389 0.1834034 0.67820227
-0.87774104 0.18125799 0.55571121
-0.86803007 0.17894422 0.4464002
-0.84607947 0.17411846 0.34384581
-0.85167539 0.17496558 0.2565459
-0.8340072 0.17104009 0.16937928
-0.91342753 0.19126628 0.91234308
-0.88092077 0.18398659 0.73882216
-0.8837496 0.18426354 0.61610484
-0.87200737 0.18134622 0.49919412
-0.86516088 0.17961498 0.39667568
-0.83781362 0.17363954 0.29708093
-0.83878601 0.17369366 0.21168561
-0.83147109 0.17188405 0.12792566
-0.071969986 0.051637392 8.728941
-0.41596124 0.097835064 2.717016
-0.53842652 0.12319742 2.6789498
-0.78379923 0.17398398 2.6138773
-1.0336102 0.22577512 2.5520179
-1.0490614 0.22688569 2.0342431
-0.94982773 0.20404829 1.4994725
-0.92652512 0.19804345 1.2109838
-0.4850347 0.15956528 8.66994
-0.89825368 0.25862211 8.675086
-0.65797806 0.14899433 2.6349678
-0.91573244 0.20300154 2.6048999
-1.0564336 0.2311714 2.299865
-0.99305874 0.21568774 1.7323887
-0.93629903 0.20217711 1.3431475
-0.92254466 0.19837911 1.1012651
-0.91806585 0.19424057 1.0019474
-0.89796734 0.18950617 0.82239193
-0.88595831 0.18649711 0.67820227
-0.87710297 0.18432078 0.55571121
-0.862863 0.18102114 0.44452715
-0.84546655 0.17707077 0.34384581
-0.85105944 0.17793742 0.2565459
-0.83340508 0.17395027 0.16937928
-0.9127543 0.19445358 0.91234308
-0.88027316 0.18706045 0.73882216
-0.88310105 0.18734726 0.61610484
-0.87136906 0.18438898 0.49919412
-0.8645286 0.18263386 0.39667568
-0.83720237 0.17656299 0.29708093
-0.83817458 0.17662051 0.21168561
-0.83575493 0.17581384 0.12812719
-0.071789302 0.051888302 8.728941
-0.4156172 0.099286437 2.717016
-0.53799319 0.12507613 2.6789498
-0.78318715 0.17671889 2.6138773
-1.0328158 0.22938173 2.5520179
-1.0482631 0.23054622 2.0342431
-0.95185882 0.2079635 1.5036055
-0.92582816 0.20127644 1.2109838
-0.48447478 0.1612574 8.66994
-0.89734548 0.261756 8.675086
-0.65745395 0.15129018 2.6349678
-0.91501826 0.20619681 2.6048999
-1.0577451 0.23533064 2.3043661
-0.99229974 0.21915285 1.7323887
-0.93558758 0.20544416 1.3431475
-0.92184657 0.2015982 1.1012651
-0.91738224 0.19744404 1.0019474
-0.89730036 0.19263951 0.82239193
-0.88530189 0.18958855 0.67820227
-0.87645423 0.18738131 0.55571121
-0.86222589 0.18403198 0.44452715
-0.84484327 0.18002091 0.34384581
-0.85043317 0.18090707 0.2565459
-0.83766413 0.17789288 0.16982636
-0.91206998 0.19763851 0.91234308
-0.88356549 0.1909862 0.74176532
-0.88665545 0.19133823 0.61863804
-0.87072009 0.1874295 0.49919412
-0.86388582 0.18565051 0.39667568
-0.84133345 0.18050401 0.29825324
-0.83271092 0.17850716 0.21099493
-0.83513612 0.17873009 0.12812719
-0.071574613 0.052110173 8.7239418
-0.41602299 0.10092049 2.7219551
-0.53755331 0.12695332 2.6789498
-0.78256547 0.17945164 2.6138773
-1.0339146 0.23341605 2.5566204
-1.0497891 0.23472679 2.0386319
-0.95112711 0.21128483 1.5036055
-0.92511988 0.20450695 1.2109838
-0.48390892 0.16294755 8.66994
-0.89591527 0.26473504 8.6701145
-0.65569794 0.15329759 2.6301284
-0.91429287 0.20938957 2.6048999
-1.0569172 0.23902142 2.3043661
-0.99407339 0.22318688 1.7366546
-0.93486476 0.20870872 1.3431475
-0.92113721 0.20481481 1.1012651
-0.9201712 0.20140786 1.005452
-0.89662248 0.1957705 0.82239193
-0.88463473 0.19267766 0.67820227
-0.88012344 0.19138099 0.55803001
-0.86157823 0.1870406 0.44452715
-0.84420973 0.18296888 0.34384581
-0.84979647 0.18387455 0.2565459
-0.83703804 0.1808158 0.16982636
-0.91502076 0.20162469 0.91566855
-0.88289344 0.19406927 0.74176532
-0.88598216 0.19443206 0.61863804
-0.87006056 0.19046775 0.49919412
-0.86784577 0.18967329 0.39831915
-0.84069824 0.18343972 0.29825324
-0.83208269 0.18141277 0.21099493
-0.83450717 0.18164417 0.12812719
-0.071392275 0.052359696 8.7239418
-0.41566819 0.10237207 2.7219551
-0.53611696 0.12859091 2.6740549
-0.78193432 0.18218221 2.6138773
-1.0330935 0.23702365 2.5566204
-1.0489633 0.23838979 2.0386319
-0.95038378 0.2146036 1.5036055
-0.92752761 0.20843799 1.2148212
-0.48333716 0.16463572 8.66994
-0.89498574 0.26786077 8.6701145
-0.65515888 0.15558547 2.6301284
-0.91355646 0.21257977 2.6048999
-1.0560764 0.24270929 2.3043661
-0.99328828 0.22665548 1.7366546
-0.937069 0.2126378 1.3471376
-0.92041665 0.20802893 1.1012651
-0.9194625 0.20461862 1.005452
-0.89593363 0.19889911 0.82239193
-0.88803929 0.19666876 0.68094373
-0.87945002 0.19445203 0.55803001
-0.86092007 0.19004692 0.44452715
-0.84825051 0.18694714 0.34525582
-0.84914947 0.18683976 0.2565459
-0.83640182 0.1837365 0.16982636
-0.91431141 0.20481749 0.91566855
-0.88221067 0.19714995 0.74176532
-0.88529807 0.19752353 0.61863804
-0.86939037 0.19350365 0.49919412
-0.86717844 0.19270149 0.39831915
-0.84005278 0.18637319 0.29825324
-0.83144438 0.18431619 0.21099493
-0.83386803 0.18455604 0.12812719
-0.071209073 0.052608587 8.7239418
-0.4153083 0.1038224 2.7219551
-0.53566486 0.13046153 2.6740549
-0.78129363 0.18491057 2.6138773
-1.0322598 0.24062838 2.5566204
-1.0481248 0.2420499 2.0386319
-0.94962889 0.21791975 1.5036055
-0.92679435 0.21167439 1.2148212
-0.48275954 0.16632187 8.66994
-0.89404529 0.27098322 8.6701145
-0.65461177 0.15787145 2.6301284
-0.91280884 0.21576738 2.6048999
-1.0552227 0.24639423 2.3043661
-0.99249107 0.23012133 1.7366546
-0.93632108 0.21590748 1.3471376
-0.91968495 0.21124052 1.1012651
-0.91874266 0.2078269 1.005452
-0.89523393 0.20202529 0.82239193
-0.8873474 0.1997674 0.68094373
-0.87876594 0.1975207 0.55803001
-0.86025149 0.19305094 0.44452715
-0.84759283 0.18990695 0.34525582
-0.84849215 0.18980272 0.2565459
-0.84061557 0.18774046 0.17027344
-0.91359085 0.20800778 0.91566855
-0.88151711 0.20022824 0.74176532
-0.8846032 0.2006126 0.61863804
-0.86870962 0.19653721 0.49919412
-0.8665005 0.19572733 0.39831915
-0.83939707 0.18930437 0.29825324
-0.83079594 0.18721734 0.21099493
-0.83321875 0.18746565 0.12812719
-0.071024999 0.052856829 8.7239418
-0.41494337 0.10527147 2.7219551
-0.5352062 0.13233057 2.6740549
-0.78064346 0.18763666 2.6138773
-1.0314136 0.24423017 2.5566204
-1.0496051 0.2462544 2.0430212
-0.94886243 0.22123323 1.5036055
-0.92917204 0.21563306 1.2186587
-0.48244834 0.16810191 8.6749315
-0.89309388 0.27410239 8.6701145
-0.65405673 0.1601555 2.6301284
-0.91205013 0.21895236 2.6048999
-1.0543562 0.25007614 2.3043661
-0.99168175 0.23358437 1.7366546
-0.93556166 0.21917453 1.3471376
-0.91894197 0.21444954 1.1012651
-0.91801161 0.21103264 1.005452
-0.89452326 0.20514899 0.82239193
-0.88664466 0.20286359 0.68094373
-0.87807107 0.20058696 0.55803001
-0.86409217 0.19708364 0.4464002
-0.84692472 0.19286445 0.34525582
-0.84782439 0.19276334 0.2565459
-0.83995509 0.19067362 0.17027344
-0.9128592 0.21119554 0.91566855
-0.88081276 0.2033041 0.74176532
-0.88389754 0.20369923 0.61863804
-0.87244141 0.20058547 0.50129217
-0.865812 0.19875078 0.39831915
-0.83873117 0.19223326 0.29825324
-0.83013737 0.19011623 0.21099493
-0.83255929 0.19037299 0.12812719
-0.070840061 0.05310443 8.7239418
-0.41457334 0.10671924 2.7219551
-0.53474098 0.13419797 2.6740549
-0.7799837 0.19036047 2.6138773
-1.0305548 0.24782899 2.5566204
-1.0487392 0.24991669 2.0430212
-0.94808435 0.22454403 1.5036055
-0.92841369 0.21887517 1.2186587
-0.48185861 0.16978493 8.6749315
-0.89213163 0.27721816 8.6701145
-0.65349364 0.16243762 2.6301284
-0.91295671 0.22254366 2.6095927
-1.0555933 0.25426507 2.3088672
-0.99086034 0.23704456 1.7366546
-0.93479097 0.22243893 1.3471376
-0.9214865 0.21843815 1.1049403
-0.91726941 0.21423583 1.005452
-0.89380169 0.20827022 0.82239193
-0.88593107 0.20595734 0.68094373
-0.87736559 0.20365077 0.55803001
-0.86339897 0.20009868 0.4464002
-0.84624636 0.19581959 0.34525582
-0.85193253 0.19682749 0.25747854
-0.84413695 0.19472386 0.17072052
-0.91211647 0.21438073 0.91566855
-0.88009775 0.20637748 0.74176532
-0.8831811 0.20678335 0.61863804
-0.87173587 0.20362964 0.50129217
-0.86511296 0.20177181 0.39831915
-0.83332109 0.19405732 0.29708093
-0.82946867 0.19301279 0.21099493
-0.83188969 0.193278 0.12812719
-0.070654266 0.053351387 8.7239418
-0.41419831 0.10816572 2.7219551
-0.5332827 0.13581191 2.6691594
-0.77931446 0.19308196 2.6138773
-1.0296834 0.25142479 2.5566204
-1.0501881 0.25413951 2.0474102
-0.94729483 0.22785211 1.5036055
-0.9307611 0.22286122 1.2224963
-0.48153457 0.17156367 8.6799221
-0.89166689 0.28049117 8.675086
-0.65292269 0.16471775 2.6301284
-0.91217434 0.22572912 2.6095927
-1.0546993 0.25794822 2.3088672
-0.99256116 0.24111778 1.7409205
-0.93693769 0.22640863 1.3511276
-0.92071837 0.2216534 1.1049403
-0.91651595 0.21743639 1.005452
-0.89306921 0.2113889 0.82239193
-0.88520676 0.20904855 0.68094373
-0.87233782 0.2056953 0.55571121
-0.86269516 0.20311128 0.4464002
-0.84555769 0.19877236 0.34525582
-0.85124028 0.19980009 0.25747854
-0.8434521 0.19766925 0.17072052
-0.91136253 0.2175633 0.91566855
-0.879372 0.20944832 0.74176532
-0.88245392 0.20986497 0.61863804
-0.87101978 0.20667133 0.50129217
-0.86440337 0.2047904 0.39831915
-0.83263868 0.19696496 0.29708093
-0.8336091 0.19704622 0.21168561
-0.83120996 0.19618067 0.12812719
-0.070467599 0.053597689 8.7239418
-0.41306734 0.10941124 2.717016
-0.53280538 0.13767257 2.6691594
-0.77863568 0.19580111 2.6138773
-1.0287995 0.25501752 2.5566204
-1.0492946 0.2578038 2.0474102
-0.94922727 0.23182528 1.5077385
-0.92997748 0.22610882 1.2224963
-0.4809328 0.17324349 8.6799221
-0.8906824 0.28360197 8.675086
-0.65234375 0.16699587 2.6301284
-0.91305447 0.22933252 2.6142855
-1.0559051 0.26215303 2.3133683
-0.9917134 0.24458098 1.7409205
-0.93614167 0.22967778 1.3511276
-0.9199391 0.22486596 1.1049403
-0.91575134 0.2206343 1.005452
-0.89232588 0.214505 0.82239193
-0.88853776 0.21311265 0.68368518
-0.87161452 0.20873907 0.55571121
-0.86648971 0.20719971 0.44827321
-0.84485865 0.20172268 0.34525582
-0.85531598 0.20390949 0.25841114
-0.84275699 0.20061225 0.17072052
-0.91059756 0.22074322 0.91566855
-0.88256425 0.21346708 0.74470848
-0.88171595 0.21294405 0.61863804
-0.87029302 0.20971049 0.50129217
-0.86368328 0.20780648 0.39831915
-0.83194602 0.19987021 0.29708093
-0.8329162 0.19995485 0.21168561
-0.83537841 0.20024551 0.12832873
-0.070280083 0.053843342 8.7239418
-0.41268292 0.11085244 2.717016
-0.53232157 0.13953158 2.6691594
-0.77939379 0.19888732 2.6186495
-1.0260084 0.25813019 2.5520179
-1.0483882 0.26146495 2.0474102
-0.9484123 0.2351373 1.5077385
-0.92918253 0.22935367 1.2224963
-0.4805961 0.1750209 8.6849136
-0.89019412 0.2868734 8.6800575
-0.65175682 0.16927196 2.6301284
-0.91559267 0.23337135 2.6236711
-1.0549836 0.26583722 2.3133683
-0.99085367 0.24804123 1.7409205
-0.93533421 0.23294413 1.3511276
-0.91914856 0.22807577 1.1049403
-0.91843963 0.22467716 1.0089566
-0.89535296 0.21854167 0.82553035
-0.88778841 0.21621293 0.68368518
-0.87088054 0.21178029 0.55571121
-0.86576122 0.21022306 0.44827321
-0.84414935 0.20467056 0.34525582
-0.854599 0.20689385 0.25841114
-0.84205157 0.2035528 0.17072052
-0.90982145 0.22392046 0.91566855
-0.8818137 0.21654649 0.74470848
-0.88096732 0.21602049 0.61863804
-0.87396419 0.21382585 0.50339019
-0.86295259 0.21082003 0.39831915
-0.83124328 0.20277303 0.29708093
-0.83702439 0.2040339 0.21237628
-0.83467436 0.2031603 0.12832873
-0.070091702 0.054088335 8.7239418
-0.4130429 0.11249719 2.7219551
-0.53183126 0.14138888 2.6691594
-0.77869481 0.20160671 2.6186495
-1.0251012 0.26171005 2.5520179
-1.049791 0.26571083 2.0517993
-0.95031458 0.23913342 1.5118713
-0.92837626 0.23259573 1.2224963
-0.47998223 0.17669743 8.6849136
-0.88918734 0.28997901 8.6800575
-0.65116197 0.17154598 2.6301284
-0.91644311 0.2369983 2.6283638
-1.0540493 0.2695182 2.3133683
-0.98998183 0.25149843 1.7409205
-0.9374367 0.23694628 1.3551177
-0.9216342 0.23211099 1.1086154
-0.91764981 0.22788174 1.0089566
-0.89458466 0.22166571 0.82553035
-0.88702834 0.21931058 0.68368518
-0.87443662 0.21588087 0.55803001
-0.86502206 0.21324384 0.44827321
-0.8434298 0.20761596 0.34525582
-0.85864186 0.21104828 0.25934377
-0.84133589 0.20649087 0.17072052
-0.91265672 0.22800013 0.91899407
-0.88105243 0.2196233 0.74470848
-0.88439095 0.22013575 0.62117118
-0.87321246 0.21687526 0.50339019
-0.86221147 0.21383102 0.39831915
-0.83524853 0.20684187 0.29825324
-0.83630705 0.2069544 0.21237628
-0.83881015 0.2072711 0.12853025
-0.069934696 0.054362103 8.728941
-0.41264772 0.11393829 2.7219551
-0.53133452 0.14324445 2.6691594
-0.77942997 0.20470315 2.6234214
-1.0241814 0.26528674 2.5520179
-1.0488571 0.26937366 2.0517993
-0.9494741 0.24244916 1.5118713
-0.92755872 0.23583496 1.2224963
-0.47936249 0.1783718 8.6849136
-0.88816971 0.2930811 8.6800575
-0.65055919 0.17381792 2.6301284
-0.91894847 0.24107224 2.6377494
-1.0552092 0.27374277 2.3178697
-0.99162316 0.25560382 1.7451864
-0.9366039 0.24021712 1.3551177
-0.92081839 0.23532668 1.1086154
-0.9203068 0.23195536 1.0124611
-0.89380544 0.22478703 0.82553035
-0.88625735 0.22240555 0.68368518
-0.87367773 0.2189319 0.55803001
-0.86427248 0.21626204 0.44827321
-0.84269994 0.2105588 0.34525582
-0.85789996 0.2140442 0.25934377
-0.84060997 0.20942642 0.17072052
-0.91185528 0.23118451 0.91899407
-0.88028044 0.22269739 0.74470848
-0.88361716 0.22322151 0.62117118
-0.87245017 0.21992201 0.50339019
-0.86145979 0.21683939 0.39831915
-0.83452141 0.20975617 0.29825324
-0.83557957 0.20987241 0.21237628
-0.83808148 0.21019784 0.12853025
-0.069744512 0.05460589 8.728941
-0.41224748 0.11537801 2.7219551
-0.53083122 0.14509828 2.6691594
-0.78015304 0.2078072 2.6281934
-1.0213597 0.26836345 2.5474155
-1.0502279 0.27363732 2.0561883
-0.94862205 0.24576199 1.5118713
-0.92672986 0.23907129 1.2224963
-0.47873697 0.18004401 8.6849136
-0.88714129 0.29617962 8.6800575
-0.64994854 0.17608774 2.6301284
-0.92143649 0.24516654 2.647135
-1.0542473 0.27742445 2.3178697
-0.99072492 0.25906366 1.7451864
-0.93867576 0.24424404 1.3591076
-0.91999137 0.23853952 1.1086154
-0.91949153 0.23516642 1.0124611
-0.89678675 0.22886835 0.82866883
-0.88547564 0.22549781 0.68368518
-0.87290823 0.22198027 0.55803001
-0.86351234 0.21927759 0.44827321
-0.84195983 0.21349908 0.34525582
-0.85238558 0.2158317 0.25841114
-0.84470183 0.21358019 0.1711676
-0.91104269 0.23436607 0.91899407
-0.87949771 0.22576879 0.74470848
-0.88700843 0.22737515 0.62370437
-0.87167716 0.22296609 0.50339019
-0.86527288 0.22101389 0.39996269
-0.83849388 0.21386929 0.29942557
-0.83004326 0.21156469 0.21168561
-0.84218425 0.21435431 0.12873179
-0.069553472 0.054849014 8.728941
-0.41184223 0.11681632 2.7219551
-0.53032154 0.14695035 2.6691594
-0.78230482 0.21130842 2.6377373
-1.0204167 0.271927 2.5474155
-1.0515819 0.27791387 2.0605774
-0.95047987 0.24978729 1.5160043
-0.92899048 0.24311647 1.2263339
-0.47810557 0.18171401 8.6849136
-0.88610196 0.29927447 8.6800575
-0.6493299 0.17835541 2.6301284
-0.92224103 0.24883126 2.6518276
-1.0532725 0.28110278 2.3178697
-0.99233538 0.2631892 1.7494525
-0.93781751 0.24751915 1.3591076
-0.92243165 0.24261199 1.1122906
-0.92211688 0.23927054 1.0159656
-0.89598238 0.23199731 0.82866883
-0.88468307 0.22858731 0.68368518
-0.87641734 0.22613284 0.56034881
-0.86274165 0.22229049 0.44827321
-0.84120941 0.21643679 0.34525582
-0.85162699 0.21880575 0.25841114
-0.83912742 0.21528983 0.17072052
-0.91021913 0.23754478 0.91899407
-0.87870431 0.22883745 0.74470848
-0.88620925 0.23047002 0.62370437
-0.87089354 0.22600745 0.50339019
-0.86906731 0.22521766 0.4016062
-0.83774227 0.21679488 0.29942557
-0.82929969 0.21446079 0.21168561
-0.8414309 0.21729277 0.12873179
-0.06936159 0.055091463 8.728941
-0.41143197 0.1182532 2.7219551
-0.52980536 0.14880063 2.6691594
-0.78300196 0.21443251 2.6425092
-1.0194613 0.2754873 2.5474155
-1.0529186 0.28220311 2.0649664
-0.94960219 0.25310355 1.5160043
-0.92813623 0.24635778 1.2263339
-0.47746834 0.18338181 8.6849136
-0.88505191 0.30236575 8.6800575
-0.6487034 0.18062091 2.6301284
-0.92469573 0.25296026 2.6612132
-1.054386 0.28534663 2.3223708
-0.99141067 0.26665151 1.7494525
-0.93694776 0.25079125 1.3591076
-0.92157912 0.2458304 1.1122906
-0.92127609 0.24248786 1.0159656
-0.89516711 0.23512347 0.82866883
-0.88387978 0.23167403 0.68368518
-0.87562263 0.22919072 0.56034881
-0.86196041 0.22530067 0.44827321
-0.84509033 0.22058344 0.34666586
-0.85085803 0.22177716 0.25841114
-0.84319019 0.21947207 0.1711676
-0.91299373 0.24167626 0.92231953
-0.88180804 0.2329358 0.74765164
-0.8853994 0.23356205 0.62370437
-0.87448823 0.23020156 0.50548828
-0.86827582 0.22824989 0.4016062
-0.8369804 0.21971783 0.29942557
-0.82854599 0.21735428 0.21168561
-0.84066725 0.22022858 0.12873179
-0.069168858 0.055333246 8.728941
-0.41027087 0.1194707 2.717016
-0.52928269 0.15064909 2.6691594
-0.78368694 0.21756406 2.6472814
-1.0203775 0.27956069 2.5520179
-1.0519271 0.28587678 2.0649664
-0.94871289 0.25641677 1.5160043
-0.92727059 0.24959607 1.2263339
-0.47682533 0.18504737 8.6849136
-0.88399112 0.30545333 8.6800575
-0.64927858 0.18322603 2.6349678
-0.92879564 0.25757092 2.6752915
-1.0533836 0.28902537 2.3223708
-0.99298996 0.27079701 1.7537184
-0.93606663 0.25406027 1.3591076
-0.92398793 0.24993126 1.1159657
-0.92042404 0.24570225 1.0159656
-0.89434093 0.23824677 0.82866883
-0.8830657 0.23475796 0.68368518
-0.87481725 0.23224582 0.56034881
-0.86116874 0.2283081 0.44827321
-0.84431517 0.22353202 0.34666586
-0.8500787 0.22474585 0.25841114
-0.84241897 0.22241403 0.1711676
-0.9121446 0.24486172 0.92231953
-0.88098955 0.23601247 0.74765164
-0.8845787 0.23665124 0.62370437
-0.87367934 0.23325269 0.50548828
-0.87203658 0.23249595 0.40324971
-0.83151138 0.22138746 0.29825324
-0.83256787 0.22151846 0.21237628
-0.8398934 0.22316173 0.12873179
-0.068975292 0.055574354 8.728941
-0.40910631 0.12068155 2.7120767
-0.52875364 0.1524957 2.6691594
-0.78579634 0.22110768 2.6568253
-1.0193955 0.28312075 2.5520179
-1.0532317 0.29018337 2.0693557
-0.95052594 0.26047078 1.5201373
-0.92639369 0.25283131 1.2263339
-0.4764449 0.18681695 8.6899061
-0.88291943 0.30853716 8.6800575
-0.64863503 0.18549132 2.6349678
-0.93121332 0.26174599 2.6846771
-1.0523683 0.29270062 2.3223708
-0.99203867 0.27426153 1.7537184
-0.9380793 0.25812587 1.3630977
-0.92310989 0.25315505 1.1159657
-0.91956079 0.24891365 1.0159656
-0.8935039 0.24136713 0.82866883
-0.88627809 0.23892756 0.68642664
-0.87827867 0.23644982 0.56266761
-0.86036652 0.23131272 0.44827321
-0.84352982 0.22647788 0.34666586
-0.85403365 0.22898401 0.25934377
-0.84163749 0.22535327 0.1711676
-0.91128427 0.24804422 0.92231953
-0.88016039 0.23908627 0.74765164
-0.88374728 0.23973756 0.62370437
-0.87285984 0.23630099 0.50548828
-0.87121969 0.23553853 0.40324971
-0.83073354 0.22428861 0.29825324
-0.83178949 0.2244233 0.21237628
-0.8391093 0.22609214 0.12873179
-0.068807669 0.055712659 8.7239418
-0.4088102 0.12168082 2.7120767
-0.52837944 0.15378723 2.6691594
-0.78672856 0.22329797 2.6615975
-1.0206317 0.28596032 2.5566204
-1.0525706 0.29257232 2.0693557
-0.94997835 0.26246098 1.5201373
-0.92895246 0.25562164 1.2301713
-0.47608534 0.18773131 8.6899061
-0.88182282 0.31005424 8.675086
-0.64948541 0.18708462 2.6398072
-0.93407583 0.26431116 2.6940625
-1.0518558 0.29453689 2.3223708
-0.99407095 0.27669215 1.7579843
-0.93767267 0.25959909 1.3630977
-0.92271107 0.25460476 1.1159657
-0.91894984 0.25115982 1.0159656
-0.89295393 0.24339382 0.82866883
-0.88573366 0.24093784 0.68642664
-0.87773997 0.23844197 0.56266761
-0.86435455 0.23432733 0.45014626
-0.84305358 0.22824407 0.34666586
-0.85351193 0.23092118 0.25934377
-0.84116364 0.22711547 0.1711676
-0.91080642 0.24979329 0.92231953
-0.87974173 0.24062206 0.74765164
-0.88332748 0.24127963 0.62370437
-0.87240452 0.23797633 0.50548828
-0.87080723 0.23705873 0.40324971
-0.83034086 0.22573818 0.29825324
-0.83617538 0.2271731 0.21306697
-0.8387531 0.22740993 0.12873179
-0.068651818 0.05590459 8.7239418
-0.40846878 0.12282196 2.7120767
-0.5279479 0.15526214 2.6691594
-0.78749722 0.22604345 2.6663692
-1.0198292 0.28880936 2.5566204
-1.0540551 0.29615858 2.0737445
-0.95190555 0.26603618 1.5242703
-0.92818993 0.25837678 1.2301713
-0.47579414 0.18925063 8.6948977
-0.88089901 0.31266931 8.675086
-0.65013421 0.18936281 2.6446466
-0.93655866 0.26819506 2.7034481
-1.0530719 0.29824999 2.3268721
-0.99324554 0.27964038 1.7579843
-0.93685246 0.26254359 1.3630977
-0.92195159 0.25734136 1.1159657
-0.91824484 0.25372499 1.0159656
-0.89222783 0.24604219 0.82866883
-0.88505739 0.24341035 0.68642664
-0.87707067 0.24089214 0.56266761
-0.86365551 0.23689088 0.45014626
-0.84699929 0.23201188 0.3480759
-0.85286373 0.23330373 0.25934377
-0.84048611 0.22961026 0.1711676
-0.91006124 0.2524946 0.92231953
-0.87902391 0.24323124 0.74765164
-0.8826077 0.24389943 0.62370437
-0.87169462 0.24056374 0.50548828
-0.87005818 0.23979327 0.40324971
-0.82966739 0.22820087 0.29825324
-0.83549762 0.22965308 0.21306697
-0.83803457 0.23004381 0.12873179
-0.068424821 0.056113627 8.7189417
-0.4080376 0.12424702 2.7120767
-0.5274027 0.15710407 2.6691594
-0.78956974 0.22962534 2.6759133
-1.0206414 0.29308477 2.5612228
-1.0529625 0.30001989 2.0737445
-0.9509241 0.26952332 1.5242703
-0.92723668 0.26177701 1.2301713
-0.47533146 0.19118477 8.6998892
-0.8791905 0.31586856 8.6701145
-0.65060759 0.19221433 2.6494861
-0.93717903 0.27227092 2.7081406
-1.0539581 0.30307671 2.3313732
-0.99462247 0.28434235 1.7622502
-0.93868917 0.26712725 1.3670877
-0.92412698 0.26212633 1.1196409
-0.91735357 0.25692874 1.0159656
-0.89136356 0.24915513 0.82866883
-0.88415933 0.24665262 0.68642664
-0.87618184 0.24410513 0.56266761
-0.86278147 0.24005474 0.45014626
-0.84614325 0.23511472 0.3480759
-0.85200292 0.23642807 0.25934377
-0.83963889 0.23268926 0.1711676
-0.9126789 0.25699934 0.92564505
-0.87804043 0.24675791 0.74765164
-0.88577187 0.24860555 0.62623757
-0.87076449 0.24390903 0.50548828
-0.86913109 0.24313228 0.40324971
-0.82874465 0.23152952 0.29825324
-0.83456904 0.23300509 0.21306697
-0.83710438 0.23340605 0.12873179
-0.068228535 0.056352135 8.7189417
-0.40760139 0.1256706 2.7120767
-0.52685112 0.15894412 2.6691594
-0.79019517 0.23280227 2.6806853
-1.021488 0.29719171 2.5658255
-1.0542097 0.30435818 2.0781338
-0.95268214 0.27361807 1.5284033
-0.92939883 0.26589397 1.2340088
-0.4746612 0.19284281 8.6998892
-0.87808251 0.31893557 8.6701145
-0.65113682 0.19484499 2.6543255
-0.93953365 0.27651569 2.7175262
-1.0549837 0.30736306 2.3358746
-0.99362385 0.2878125 1.7622502
-0.937751 0.27040222 1.3670877
-0.92320633 0.26535052 1.1196409
-0.91988182 0.26110336 1.0194702
-0.89048839 0.25226507 0.82866883
-0.88731664 0.2508752 0.6891681
-0.87532443 0.2471621 0.56266761
-0.8619383 0.24306495 0.45014626
-0.84531736 0.23806688 0.3480759
-0.85117245 0.23940067 0.25934377
-0.83882153 0.23561873 0.1711676
-0.91177624 0.26018363 0.92564505
-0.88106114 0.2509287 0.75059479
-0.88489866 0.25169593 0.62623757
-0.87427378 0.24818665 0.5075863
-0.87282014 0.24745278 0.40489322
-0.8326081 0.23574522 0.29942557
-0.83375055 0.23591688 0.21306697
-0.84109217 0.23768528 0.12893331
-0.068031408 0.056589954 8.7189417
-0.40790173 0.12732485 2.717016
-0.5262931 0.16078219 2.6691594
-0.79080796 0.23598632 2.6854572
-1.0223184 0.30130818 2.5704281
-1.053141 0.30803618 2.0781338
-0.95172125 0.2769419 1.5284033
-0.92846501 0.26913655 1.2340088
-0.47371846 0.19438805 8.6948977
-0.87696385 0.32199872 8.6701145
-0.6516555 0.19748168 2.6591649
-0.94021636 0.28028688 2.7222192
-1.0559922 0.31166023 2.3403757
-0.99511558 0.29201376 1.7665161
-0.93680143 0.27367395 1.3670877
-0.92227447 0.2685715 1.1196409
-0.9189648 0.26431271 1.0194702
-0.89334351 0.25644609 0.83180726
-0.88643545 0.25397101 0.6891681
-0.87445635 0.25021607 0.56266761
-0.86554199 0.24734612 0.45201927
-0.84448123 0.24101613 0.3480759
-0.8503316 0.24237037 0.25934377
-0.83799398 0.23854533 0.1711676
-0.91086251 0.26336473 0.92564505
-0.88017988 0.25400263 0.75059479
-0.88815689 0.25597727 0.62877071
-0.87340212 0.25123692 0.5075863
-0.8719511 0.25049797 0.40489322
-0.83178014 0.23865013 0.29942557
-0.83768225 0.24019076 0.21375765
-0.84025741 0.24061979 0.12893331
-0.067864574 0.056857668 8.7239418
-0.40745479 0.12874791 2.717016
-0.52572864 0.16261831 2.6691594
-0.79140818 0.23917751 2.6902292
-1.0250041 0.30599311 2.5796332
-1.0520593 0.31171045 2.0781338
-0.95074874 0.28026235 1.5284033
-0.93059516 0.27327922 1.2378463
-0.473037 0.19604045 8.6948977
-0.87583458 0.32505792 8.6701145
-0.65336525 0.20049353 2.6688437
-0.93923229 0.28356713 2.7222192
-1.0548979 0.31534442 2.3403757
-0.99659008 0.29622895 1.7707821
-0.93584043 0.27694234 1.3670877
-0.9245829 0.27274865 1.123316
-0.91803652 0.26751891 1.0194702
-0.89244294 0.25956288 0.83180726
-0.88554358 0.25706369 0.6891681
-0.87783217 0.2545006 0.56498641
-0.86467326 0.25036591 0.45201927
-0.84824294 0.24529517 0.34948593
-0.85419971 0.24670015 0.26027638
-0.83715618 0.24146901 0.1711676
-0.91352081 0.26759246 0.92897052
-0.87928784 0.25707349 0.75059479
-0.88725793 0.25907597 0.62877071
-0.87687701 0.25555414 0.50968438
-0.8710714 0.25354013 0.40489322
-0.83560944 0.242909 0.30059788
-0.83683878 0.24311337 0.21375765
-0.84421045 0.24494353 0.12913485
-0.067665689 0.057094213 8.7239418
-0.40700293 0.13016941 2.717016
-0.52612931 0.1647573 2.6740549
-0.793423 0.24281293 2.6997733
-1.0276697 0.31070045 2.5888383
-1.0532587 0.31606954 2.0825229
-0.95246089 0.2843847 1.5325361
-0.92963564 0.27652591 1.2378463
-0.47234982 0.19769047 8.6948977
-0.87519348 0.32830101 8.675086
-0.65386164 0.20314637 2.6736832
-0.94153708 0.28785357 2.7316046
-1.0558742 0.31965584 2.344877
-0.99555004 0.29970586 1.7707821
-0.93486792 0.28020734 1.3670877
-0.92362517 0.27597436 1.123316
-0.92051739 0.27173173 1.0229747
-0.89153147 0.26267648 0.83180726
-0.88464087 0.26015326 0.6891681
-0.87693846 0.25756323 0.56498641
