# .PCD v0.7 - Point Cloud Data file format
VERSION 0.7
FIELDS x y z
SIZE 4 4 4
TYPE F F F
COUNT 1 1 1
WIDTH 1503
HEIGHT 1
VIEWPOINT 0 0 0 1 0 0 0
POINTS 1503
DATA ascii
-0.92012447 2.1855986 1.3278714
-0.89145195 2.1154439 1.0158021
-0.87079418 2.0644264 0.7485252
-0.85599637 2.0273807 0.50928593
-0.83353281 1.9722743 0.28517276
-1.0346727 2.4769597 2.4720025
-0.98062366 2.3441358 1.9337454
-0.93476832 2.2323458 1.5077838
-0.90608913 2.1606967 1.170571
-0.88298696 2.1035655 0.88315433
-0.86050487 2.0480204 0.62650216
-0.83856493 1.9948401 0.39402512
-0.82338715 1.9568411 0.17931604
0.0017914776 0.088560089 8.728941
-0.50101978 1.2899147 8.7972422
-0.65545619 1.6563441 8.5874891
-0.36534458 0.90507454 3.1674278
-0.54903257 1.3469771 3.4863303
-1.2020693 2.9320931 5.8746872
-1.132364 2.7511585 4.442132
-1.0916921 2.6445093 3.5019739
-0.14474586 0.49537855 8.76478
-0.30000713 0.89991277 8.8043451
-0.31082976 0.77962065 3.2689323
-0.47867295 1.1848855 3.5293748
-0.6171546 1.5157236 3.4476743
-1.1665077 2.8524661 5.1110082
-1.1106632 2.7065065 3.9486334
-1.0645117 2.587642 3.1115801
-1.0409945 2.5068314 2.7472115
-1.020498 2.4538686 2.225282
-0.94613433 2.2717164 1.6980277
-0.92101216 2.2092412 1.3394655
-0.8929888 2.1399345 1.0251673
-0.8709783 2.0851595 0.75416535
-0.85649365 2.0484843 0.5130164
-0.8343336 1.9935473 0.28696108
-1.0303013 2.4909072 2.4819791
-0.98635632 2.3811533 1.9602337
-0.93522549 2.2555053 1.5204496
-0.90724367 2.184804 1.1810611
-0.88288856 2.1240766 0.88972837
-0.86081916 2.0689623 0.63119137
-0.8392089 2.0160427 0.39678788
-0.82423759 1.9781499 0.18012217
0.0021005988 0.088553302 8.728941
-0.49651405 1.2916557 8.7972422
-0.65004158 1.65957 8.5923843
-0.36218303 0.90634435 3.1674278
-0.54359645 1.3470736 3.4817278
-1.2062378 2.9717782 5.9449124
-1.1354965 2.7863662 4.4917274
-1.0933679 2.6750069 3.5365114
-0.14301579 0.49588078 8.76478
-0.296864 0.90095448 8.8043451
-0.30810645 0.78070092 3.2689323
-0.474534 1.1865492 3.5293748
-0.61104625 1.5158496 3.4431732
-1.1712238 2.8927822 5.1749978
-1.1125504 2.7382839 3.9885337
-1.06826 2.6227393 3.1483316
-1.0430866 2.5368366 2.7752478
-1.0193361 2.4754114 2.2409742
-0.94776332 2.2981992 1.7144765
-0.92174602 2.2329159 1.3510596
-0.89259481 2.160177 1.0326594
-0.87286168 2.1103513 0.76121551
-0.8549751 2.0650778 0.5158143
-0.83308935 2.0102491 0.2883023
-1.0272602 2.5083094 2.495281
-0.99184251 2.4182394 1.9867221
-0.93553245 2.2786956 1.5331156
-0.90824097 2.2089455 1.1915514
-0.88265753 2.1446128 0.89630246
-0.86099774 2.0899312 0.63588065
-0.83971477 2.0372732 0.39955059
-0.8249492 1.9994881 0.18092829
0.0024096949 0.088545427 8.728941
-0.49172628 1.2926548 8.7923031
-0.64424467 1.6618289 8.5923843
-0.3590171 0.90760309 3.1674278
-0.5381664 1.3471485 3.4771254
-1.2083577 3.0070829 6.0063596
-1.1394496 2.8242388 4.5454555
-1.094844 2.705548 3.5710487
-0.14128396 0.49637699 8.76478
-0.29388171 0.90249223 8.8093157
-0.30537945 0.7817716 3.2689323
-0.47038931 1.1881984 3.5293748
-0.60575122 1.5179733 3.4431732
-1.1747022 2.9307446 5.2347207
-1.1142292 2.7701066 4.0284338
-1.0717763 2.6578941 3.1850834
-1.0449818 2.5668869 2.8032842
-1.0165668 2.4933717 2.2535281
-0.94763839 2.3208497 1.7281839
-0.92400151 2.2607231 1.3649724
-0.89382601 2.1847332 1.0420246
-0.87276161 2.1311424 0.76685566
-0.85521418 2.0862303 0.51954478
-0.83362919 2.0315738 0.29009062
-1.022707 2.5222604 2.5052576
-0.99404013 2.447902 2.0073245
-0.93406546 2.2979212 1.5432483
-0.90908051 2.2331202 1.2020416
-0.88407576 2.1695461 0.90451998
-0.86104041 2.1109266 0.64056993
-0.84008259 2.0585318 0.40231332
-0.8236326 2.0162306 0.18153289
0.0027235558 0.088579834 8.7339401
-0.48721105 1.2943633 8.7923031
-0.63843989 1.6640676 8.5923843
-0.35639074 0.91024077 3.1721995
-0.5327425 1.3472021 3.4725227
-1.2155569 3.0557911 6.0941415
-1.1421082 2.8595588 4.5950508
-1.0973122 2.7391074 3.6094239
-0.13955043 0.49686715 8.76478
-0.29072964 0.9035126 8.8093157
-0.3031016 0.78400534 3.2737718
-0.46623886 1.1898332 3.5293748
-0.59964919 1.5180537 3.4386718
-1.1788913 2.9711905 5.2987099
-1.1168138 2.8047738 4.0723238
-1.0738032 2.6899567 3.2181599
-1.0453469 2.5936732 2.827816
-1.0151412 2.5149519 2.2692204
-0.95050079 2.35128 1.7473741
-0.92607391 2.2885728 1.3788851
-0.89489633 2.2093241 1.0513897
-0.87252688 2.151958 0.77249575
-0.85531592 2.1074095 0.52327526
-0.83403015 2.0529263 0.29187894
-1.0250232 2.5535357 2.5318615
-0.99604255 2.4776089 2.0279264
-0.93408489 2.3211634 1.5559143
-0.9097625 2.2573278 1.2125319
-0.88356388 2.190136 0.91109401
-0.86094666 2.1319473 0.6452592
-0.84031212 2.0798175 0.40507603
-0.82408208 2.0376191 0.18233901
0.0030327404 0.08856979 8.7339401
-0.48241901 1.295328 8.787364
-0.63262731 1.666286 8.5923843
-0.35321122 0.91147929 3.1721995
-0.5273248 1.3472342 3.4679203
-1.2066374 3.0644724 6.1029191
-1.1445341 2.8949318 4.6446466
-1.1007404 2.7756956 3.6516364
-0.13781519 0.49735123 8.76478
-0.28773496 0.90503007 8.8142872
-0.30036306 0.78505862 3.2737718
-0.46270654 1.1930624 3.5340676
-0.59434658 1.5201375 3.4386718
-1.1828123 3.0117006 5.3626986
-1.118065 2.8366892 4.1122246
-1.0768648 2.7252178 3.2549114
-1.0468588 2.623805 2.8558524
-1.0135773 2.5365527 2.2849128
-0.95160866 2.3778763 1.7638228
-0.9279632 2.3164644 1.3927979
-0.89753133 2.2382519 1.062628
-0.8739444 2.1772497 0.7795459
-0.85528016 2.1286147 0.52700573
-0.83429217 2.0743062 0.29366726
-1.0271333 2.584857 2.5584655
-0.99784976 2.5073597 2.0485287
-0.93395329 2.3444335 1.56858
-0.91028631 2.2815669 1.2230222
-0.88467032 2.2151337 0.91931158
-0.86071676 2.152993 0.64994848
-0.84040332 2.10113 0.40783876
-0.8243922 2.0590353 0.18314514
0.0033469864 0.088601999 8.7389402
-0.47762612 1.2962749 8.7824249
-0.62680703 1.6684841 8.5923843
-0.35002741 0.91270667 3.1721995
-0.52261883 1.3490667 3.4679203
-1.2115858 3.1088336 6.1819229
-1.1467267 2.9303558 4.694242
-1.1027555 2.8093576 3.6900115
-0.13607827 0.49782926 8.76478
-0.28457406 0.90602893 8.8142872
-0.29762086 0.78610229 3.2737718
-0.45853913 1.1946703 3.5340676
-0.58903664 1.522203 3.4386718
-1.1864647 3.0522742 5.4266877
-1.119107 2.8686469 4.1521249
-1.0784585 2.757376 3.2879879
-1.0481731 2.6539791 2.883889
-1.0133065 2.5617919 2.3037434
-0.95408225 2.408396 1.7830131
-0.92966872 2.3443966 1.4067107
-0.89826465 2.2629154 1.0719931
-0.87342471 2.1981194 0.78518611
-0.85510671 2.1498451 0.53073621
-0.83441496 2.0957129 0.29545557
-1.029037 2.6162241 2.5850697
-0.99797976 2.5333922 2.0661874
-0.93367058 2.3677311 1.581246
-0.91065186 2.3058367 1.2335125
-0.88561279 2.2401655 0.9275291
-0.86213881 2.1785824 0.65581006
-0.84035575 2.122468 0.41060147
-0.82456285 2.0804784 0.18395126
0.0036562448 0.088589773 8.7389402
-0.47283247 1.2972041 8.7774858
-0.62097913 1.6706619 8.5923843
-0.34631002 0.91252726 3.1674278
-0.51720732 1.3490585 3.4633176
-1.2007265 3.1130438 6.1819229
-1.1476696 2.9632061 4.7397046
-1.1057096 2.8460546 3.732224
-0.13433969 0.49830124 8.76478
-0.28140968 0.90701675 8.8142872
-0.29487506 0.78713638 3.2737718
-0.45436618 1.1962637 3.5340676
-0.58294123 1.5222168 3.4341707
-1.1898481 3.0929093 5.4906764
-1.1199392 2.9006462 4.1920247
-1.0798408 2.789578 3.3210645
-1.0492895 2.6841938 2.9119253
-1.0128716 2.5870602 2.3225741
-0.95635438 2.438962 1.8022034
-0.93119055 2.3723688 1.4206235
-0.89883673 2.2876115 1.0813583
-0.87452537 2.2234757 0.79223621
-0.85479528 2.1710999 0.53446668
-0.83439833 2.1171451 0.29724389
-1.0293798 2.6441562 2.6083481
-0.99794006 2.5594556 2.0838463
-0.93480384 2.3950703 1.5964451
-0.91085911 2.3301368 1.2440028
-0.8863914 2.2652309 0.93574667
-0.86339259 2.2042074 0.66167164
-0.84197628 2.1484416 0.41405487
-0.82459366 2.1019473 0.18475738
0.0039654584 0.088576466 8.7389402
-0.46777484 1.2973845 8.7676067
-0.61514366 1.6728194 8.5923843
-0.34312257 0.91373056 3.1674278
-0.51180232 1.3490289 3.4587152
-1.1821667 3.0970781 6.1424212
-1.149404 2.9987259 4.7892995
-1.1084208 2.8828063 3.7744367
-0.13267273 0.49904636 8.7697725
-0.2780863 0.90748376 8.8093157
-0.29212561 0.78816086 3.2737718
-0.45018768 1.1978424 3.5340676
-0.57762414 1.5242423 3.4341707
-1.1929619 3.1336048 5.5546656
-1.1227125 2.9383156 4.2399049
-1.082224 2.8249888 3.3578162
-1.051494 2.7177744 2.9434662
-1.0122727 2.6123564 2.3414049
-0.95993721 2.4734709 1.8241352
-0.93252826 2.4003797 1.4345363
-0.89924705 2.3123384 1.0907234
-0.87371945 2.244396 0.79787636
-0.85612947 2.1969554 0.53912979
-0.83424222 2.1386027 0.29903221
-1.0295399 2.6721222 2.6316266
-0.9991855 2.5893207 2.1044486
-0.93575746 2.4224463 1.6116441
-0.91254503 2.3586988 1.2565911
-0.88700557 2.2903285 0.94396424
-0.86272097 2.2253361 0.66636097
-0.84163487 2.1698353 0.41681761
-0.82448459 2.1234417 0.1855635
0.0042746239 0.088562086 8.7389402
-0.46298248 1.2982775 8.7626677
-0.60964864 1.6759135 8.5972795
-0.33993098 0.91492271 3.1674278
-0.50709015 1.3508073 3.4587152
-1.1721948 3.1034265 6.1468101
-1.1459148 3.0211375 4.8182302
-1.1108886 2.919611 3.8166492
-0.13092992 0.49950644 8.7697725
-0.27491689 0.90844887 8.8093157
-0.28894028 0.78799558 3.2689323
-0.44600368 1.1994065 3.5340676
-0.57153589 1.5242109 3.4296696
-1.1948868 3.1719189 5.6143889
-1.1263019 2.978858 4.2917752
-1.0855745 2.8636196 3.398243
-1.053477 2.7514029 2.9750071
-1.0129031 2.641314 2.3633742
-0.96179152 2.5041306 1.8433253
-0.93368179 2.4284289 1.4484491
-0.89949572 2.337096 1.1000886
-0.87450266 2.269814 0.80492651
-0.85552585 2.2182634 0.54286027
-0.83394635 2.160085 0.30082053
-1.0308474 2.7036102 2.6582305
-1.0002346 2.619225 2.1250505
-0.93807048 2.4538846 1.6293764
-0.91404277 2.3873007 1.2691793
-0.88745528 2.3154578 0.9521817
-0.86365324 2.2510242 0.6722225
-0.84292889 2.1958756 0.42027098
-0.82423544 2.1449606 0.18636963
0.0045894412 0.088589892 8.7439404
-0.45818961 1.2991529 8.7577286
-0.60379487 1.6780313 8.5972795
-0.33673522 0.91610372 3.1674278
-0.50169182 1.3507376 3.4541125
-1.159678 3.1030118 6.138032
-1.1511815 3.0672731 4.8843579
-1.1131129 2.9564676 3.8588617
-0.12918553 0.49996042 8.7697725
-0.27174416 0.90940303 8.8093157
-0.28618789 0.78899932 3.2689323
-0.44300544 1.2041954 3.5434532
-0.56621188 1.5261967 3.4296696
-1.1965585 3.210284 5.6741118
-1.1306773 3.0222826 4.3476357
-1.0886683 2.902308 3.4386694
-1.0565014 2.7884126 3.0100524
-1.0119624 2.6666682 2.3822048
-0.96344346 2.5348334 1.8625156
-0.9346506 2.4565148 1.4623619
-0.90123248 2.3662157 1.1113268
-0.87511885 2.295264 0.81197667
-0.85478377 2.2395935 0.54659075
-0.83351058 2.1815908 0.30260882
-1.0319476 2.7351396 2.6848347
-0.99965829 2.6453872 2.1427097
-0.93865019 2.4813359 1.6445755
-0.91535163 2.4159415 1.2817677
-0.88774025 2.3406179 0.96039933
-0.86269152 2.2722018 0.67691177
-0.84229279 2.2173219 0.42303368
-0.82384598 2.1665037 0.18717575
0.0048986482 0.088573329 8.7439404
-0.45339626 1.3000107 8.7527885
-0.59793377 1.6801287 8.5972795
-0.3335354 0.91727352 3.1674278
-0.49697384 1.3524806 3.4541125
-1.1480089 3.1047947 6.1336427
-1.1522219 3.1029296 4.9339533
-1.1139745 2.9903715 3.8972368
-0.12750989 0.50068831 8.7747641
-0.2685681 0.91034603 8.8093157
-0.28343204 0.78999352 3.2689323
-0.43761942 1.202491 3.5340676
-0.56088102 1.5281638 3.4296696
-1.1970747 3.2462518 5.729569
-1.1337174 3.0629482 4.3995061
-1.0915053 2.9410524 3.4790967
-1.05928 2.8254769 3.0450981
-1.0122253 2.6956916 2.4041741
-0.96489251 2.5655775 1.8817059
-0.9354347 2.484637 1.4762747
-0.90114182 2.3910375 1.120692
-0.87556803 2.3207464 0.81902683
-0.85563874 2.2655411 0.55125391
-0.83293474 2.2031198 0.30439714
-1.03284 2.7667089 2.7114387
-1.0003268 2.6753626 2.1633117
-0.94056052 2.5128582 1.6623077
-0.91806483 2.4488702 1.2964541
-0.88951933 2.370229 0.97026032
-0.86330175 2.29795 0.68277335
-0.84325957 2.2434258 0.42648712
-0.82331616 2.1880698 0.18798187
0.005207798 0.088555694 8.7439404
-0.44860256 1.3008507 8.7478504
-0.59240323 1.6831661 8.6021748
-0.33033147 0.91843224 3.1674278
-0.49224979 1.3542072 3.4541125
-1.1363415 3.106534 6.1292539
-1.1578786 3.1518373 5.0042133
-1.115721 3.0273242 3.9394493
-0.12576139 0.5011304 8.7747641
-0.26538876 0.91127801 8.8093157
-0.28067273 0.79097807 3.2689323
-0.43809342 1.2170013 3.5716097
-0.55628604 1.5321586 3.4341707
-1.1982478 3.2847126 5.7892919
-1.1364872 3.1036711 4.4513764
-1.0940849 2.9798515 3.5195234
-1.0618124 2.8625934 3.0801432
-1.0136533 2.7283978 2.4292817
-0.96468049 2.5924437 1.8981547
-0.93603373 2.5127943 1.4901875
-0.90250856 2.4202311 1.1319302
-0.87752753 2.3507533 0.82748705
-0.85632282 2.2915211 0.55591697
-0.83396357 2.2293353 0.30663255
-1.0348179 2.8018205 2.7413681
-1.0022005 2.7091656 2.186857
-0.94226211 2.5444238 1.68004
-0.91740239 2.4733357 1.3069443
-0.88945889 2.3954542 0.9784779
-0.86204898 2.3191738 0.68746263
-0.84405404 2.2695627 0.42994049
-0.82438874 2.2143402 0.18898953
0.0055168835 0.088536978 8.7439404
-0.44405898 1.3024088 8.7478504
-0.58652431 1.6852238 8.6021748
-0.32712352 0.91957968 3.1674278
-0.48751974 1.3559172 3.4541125
-1.1254908 3.1104817 6.1292539
-1.1622467 3.1981769 5.0703402
-1.1106361 3.0462573 3.9586368
-0.12401134 0.50156629 8.7747641
-0.26220617 0.91219884 8.8093157
-0.27790999 0.79195297 3.2689323
-0.43210682 1.2136457 3.5575314
-0.55093449 1.5340911 3.4341707
-1.1956261 3.3134074 5.8319516
-1.1389863 3.1444502 4.5032468
-1.0964065 3.0187039 3.5599499
-1.0653273 2.9031105 3.1186936
-1.0135223 2.7574933 2.4512508
-0.96718144 2.6271873 1.9200864
-0.9379791 2.5451419 1.5064191
-0.90207767 2.4451134 1.1412953
-0.87762606 2.3763022 0.83453721
-0.85513234 2.3129258 0.55964744
-0.83309084 2.2509143 0.30842087
-1.0352819 2.8334718 2.7679722
-1.0024611 2.7392182 2.2074592
-0.94375479 2.5760314 1.6977723
-0.91814387 2.5020876 1.3195326
-0.89086115 2.4251397 0.98833895
-0.86401379 2.3495405 0.69449651
-0.84467643 2.2957327 0.4333939
-0.82528788 2.2406447 0.18999718
0.0058259009 0.088517174 8.7439404
-0.43926209 1.3032146 8.7429113
-0.58063817 1.6872609 8.6021748
-0.32391161 0.92071593 3.1674278
-0.48212931 1.3557699 3.4495103
-1.1146263 3.1143913 6.1292539
-1.1663052 3.2445848 5.1364675
-1.1195675 3.104389 4.0277119
-0.1222598 0.50199616 8.7747641
-0.25902042 0.91310853 8.8093157
-0.27514386 0.79291821 3.2689323
-0.42614904 1.2102633 3.5434532
-0.54557616 1.5360049 3.4341707
-1.2103504 3.3912499 5.9599295
-1.139182 3.1796107 4.5471373
-1.0984703 3.0576088 3.6003771
-1.0685718 2.943686 3.1572433
-1.0145304 2.7902784 2.4763584
-0.9780364 2.6855533 1.9584669
-0.93819278 2.5733719 1.520332
-0.90307343 2.4743772 1.1525337
-0.87920308 2.4063857 0.84299743
-0.85717756 2.3435771 0.56524318
-0.83378971 2.2771902 0.31065625
-1.0355375 2.8651602 2.7945762
-1.0025241 2.7693052 2.2280614
-0.94503802 2.6076801 1.7155044
-0.91250139 2.5138097 1.3237287
-0.89045423 2.4504259 0.99655646
-0.86411524 2.3753812 0.70035815
-0.84512627 2.3219345 0.43684733
-0.82601321 2.2669821 0.19100484
0.0061348481 0.088496305 8.7439404
-0.43446493 1.3040026 8.7379713
-0.574745 1.6892774 8.6021748
-0.32069573 0.92184103 3.1674278
-0.47739387 1.3574445 3.4495103
-1.1037482 3.1182632 6.1292539
-1.1719388 3.2963626 5.2108607
-1.1216457 3.1445053 4.0737619
-0.12044033 0.50213885 8.7697725
-0.25583151 0.91400713 8.8093157
-0.27237439 0.79387385 3.2689323
-1.0878519 3.1251087 9.0527611
-0.54021114 1.5379 3.4341707
-1.2115253 3.432344 6.0239186
-1.1401523 3.2176507 4.5950174
-1.0991405 3.0933695 3.6371284
-1.0727512 2.9876759 3.1992979
-1.015322 2.8231041 2.501466
-0.98566133 2.7361588 1.9913646
-0.93972331 2.6058009 1.5365635
-0.90387577 2.5036774 1.1637717
-0.88058066 2.4365089 0.8514576
-0.85734791 2.3696511 0.56990629
-0.8343153 2.3034985 0.31289166
-1.0330707 2.8898525 2.8145289
-1.0023891 2.7994258 2.2486634
-0.94756627 2.6434271 1.73577
-0.92212486 2.5682383 1.3489054
-0.89147872 2.4801822 1.0064175
-0.86569238 2.4058242 0.70739204
-0.84540331 2.3481667 0.4403007
-0.82487071 2.2886515 0.19181097
0.0064437203 0.088474348 8.7439404
-0.42966765 1.3047732 8.7330322
-0.56884485 1.6912733 8.6021748
-0.31747594 0.92295486 3.1674278
-0.47265258 1.3591027 3.4495103
-1.0920656 3.1198363 6.1248646
-1.1762917 3.3455639 5.2811208
-1.12559 3.1907194 4.1274872
-0.11868681 0.5025562 8.7697725
-0.25278074 0.91540855 8.8142872
-0.26960158 0.79481977 3.2689323
-1.0746903 3.1223595 9.0339899
-0.53483957 1.5397763 3.4341707
-1.2184439 3.4907241 6.1177692
-1.1378814 3.2472045 4.6309276
-1.0973266 3.1227748 3.6665297
-1.0754428 3.0283694 3.237848
-1.0158966 2.8559692 2.5265739
-0.99294454 2.7868495 2.0242622
-0.9395507 2.6340992 1.5504763
-0.90448439 2.5330126 1.17501
-0.88175851 2.4666708 0.85991776
-0.85900158 2.4003797 0.57550198
-0.83634669 2.3345261 0.31557411
-1.0404001 2.9427249 2.8610861
-1.0020559 2.8295789 2.2692657
-0.94841599 2.6751597 1.7535021
-0.92378545 2.6013794 1.3635917
-0.89230615 2.509975 1.0162785
-0.86543769 2.4317276 0.71325362
-0.84550732 2.3744292 0.44375411
-0.82526451 2.3150461 0.19281861
0.0067457561 0.088408209 8.7389402
-0.42463005 1.3047872 8.7231531
-0.56325883 1.6942149 8.60707
-0.31425229 0.92405736 3.1674278
-0.46727046 1.3588967 3.4449077
-1.0811687 3.1236293 6.1248646
-1.1821631 3.4001513 5.3596468
-1.1271136 3.2309458 4.1735373
-0.11686739 0.50268608 8.76478
-0.24958384 0.91628534 8.8142872
-0.2668255 0.79575598 3.2689323
-1.0637847 3.126092 9.0339899
-0.5294615 1.5416337 3.4341707
-1.2232678 3.5442629 6.2030878
-1.139364 3.2881703 4.6827979
-1.101997 3.1714194 3.7179821
-1.0790448 3.0724826 3.2799027
-1.0162539 2.8888721 2.5516815
-0.99015856 2.8100173 2.0379694
-0.94066548 2.6666057 1.566708
-0.90489912 2.5623829 1.1862482
-0.88273638 2.49687 0.86837798
-0.85881221 2.4265175 0.58016509
-0.83650851 2.3609014 0.31780952
-1.0461407 2.9921582 2.9043176
-1.0015243 2.8597639 2.2898679
-0.95048177 2.7109981 1.7737676
-0.92823333 2.6431274 1.3824742
-0.89450264 2.5442586 1.0277832
-0.86662638 2.4622433 0.7202875
-0.84708321 2.4053915 0.44789818
-0.82548404 2.3414714 0.19382627
0.0070474087 0.088341042 8.7339401
-0.41983524 1.3055217 8.718214
-0.55734146 1.6961708 8.60707
-0.31102484 0.92514873 3.1674278
-0.46252418 1.3605195 3.4449077
-1.0687077 3.1228523 6.1160865
-1.1849234 3.4468362 5.4257736
-1.1283699 3.2712212 4.2195873
-0.11504851 0.50280929 8.7597885
-0.24638389 0.91715097 8.8142872
-0.26404616 0.79668254 3.2689323
-1.0528661 3.1297863 9.0339899
-0.52337724 1.5414113 3.4296696
-1.2285748 3.6003454 6.2926722
-1.1425273 3.3348866 4.7426481
-1.1019349 3.207309 3.754734
-1.0823519 3.1166575 3.3219571
-1.0176725 2.925488 2.5799274
-0.98859864 2.8371482 2.0544181
-0.94010556 2.6949687 1.5806208
-0.90664822 2.596163 1.1993594
-0.88509727 2.5316343 0.87824821
-0.86007333 2.457319 0.58576083
-0.83649617 2.387306 0.3200449
-1.0515485 3.041667 2.9475491
-1.0007941 2.8899784 2.3104699
-0.95372081 2.7509565 1.7965661
-0.93091202 2.6806507 1.3992586
-0.89491981 2.5741274 1.0376441
-0.86761248 2.4927969 0.72732145
-0.84682459 2.4317169 0.45135161
-0.82552892 2.3679259 0.19483392
0.0073557333 0.088315897 8.7339401
-0.41527557 1.3069793 8.718214
-0.55141735 1.6981059 8.60707
-0.30779356 0.92622876 3.1674278
-0.45777228 1.3621258 3.4449077
-1.0570331 3.1242952 6.1116977
-1.1846557 3.4855881 5.4795022
-1.1303933 3.3145781 4.269475
-0.11329267 0.50320786 8.7597885
-0.24318092 0.91800541 8.8142872
-0.26126364 0.79759943 3.2689323
-1.0419347 3.1334422 9.0339899
-0.51799351 1.5432287 3.4296696
-1.2343386 3.6589792 6.3865228
-1.153111 3.4044971 4.8344188
-1.111448 3.2721269 3.8245618
-1.0865216 3.1642652 3.3675163
-1.0201137 2.9658294 2.6113122
-0.98822343 2.8682556 2.0736084
-0.93935901 2.7233601 1.5945336
-0.90817225 2.629986 1.2124707
-0.88722587 2.5664449 0.88811845
-0.86112988 2.4881589 0.59135652
-0.83793998 2.4184444 0.32272738
-1.0542082 3.084183 2.9841294
-1.0011742 2.924047 2.3340151
-0.95669234 2.7909703 1.8193648
-0.92891848 2.7053466 1.4097489
-0.89667434 2.6084957 1.0491488
-0.86839575 2.5233867 0.73435533
-0.84639233 2.4580693 0.45480499
-0.82539922 2.3944092 0.19584158
0.0076567614 0.088246658 8.728941
-0.41047829 1.3076794 8.713275
-0.54548645 1.7000204 8.60707
-0.30455855 0.92729753 3.1674278
-0.45301476 1.3637154 3.4449077
-1.0446017 3.1234231 6.1029191
-1.1877162 3.5350502 5.5497622
-1.1311036 3.3549514 4.3155251
-0.11153546 0.50360024 8.7597885
-0.23997499 0.91884863 8.8142872
-0.2584779 0.7985065 3.2689323
-1.0309906 3.1370602 9.0339899
-0.51260346 1.5450275 3.4296696
-1.2380579 3.7127478 6.4718418
-1.1603523 3.4656489 4.9142194
-1.1183637 3.330622 3.8870397
-1.090372 3.2119391 3.413075
-1.0222856 3.0062232 2.6426969
-0.98359811 2.8875201 2.0845745
-0.9384256 2.7517786 1.6084462
-0.90947121 2.6638513 1.2255819
-0.88757086 2.5967619 0.89657867
-0.86198145 2.5190358 0.59695226
-0.83756256 2.4449108 0.32496279
-1.0577788 3.1302917 3.0240355
-1.0013288 2.9581532 2.3575604
-0.9580124 2.8269546 1.8396302
-0.92822254 2.7343585 1.4223372
-0.89819962 2.6429067 1.0606533
-0.86741012 2.5494103 0.74021691
-0.84738207 2.489136 0.45894906
-0.82670611 2.4256485 0.19705077
0.0079647535 0.088219397 8.728941
-0.4061411 1.3098465 8.718214
-0.53954893 1.7019142 8.60707
-0.30131981 0.92835498 3.1674278
-0.44764253 1.3634322 3.4403052
-1.0329409 3.1247764 6.0985303
-1.1824641 3.5605392 5.5828261
-1.1335721 3.4014504 4.3692498
-0.10983741 0.50426877 8.76478
-0.23676616 0.91968077 8.8142872
-0.255689 0.79940391 3.2689323
-1.020034 3.14064 9.0339899
-0.50652903 1.5447388 3.4251683
-1.2446817 3.7764945 6.574224
-1.1615009 3.5097277 4.9700794
-1.1206131 3.3763342 3.9348168
-1.0939026 3.2596786 3.4586341
-1.0254279 3.0503573 2.6772196
-0.99086004 2.9424522 2.1202135
-0.93730515 2.7802238 1.622359
-0.91202712 2.7021494 1.2405661
-0.8892504 2.6316566 0.90644884
-0.86105382 2.5452955 0.60161537
-0.83860791 2.4761202 0.32764524
-1.0598575 3.1729209 3.0606163
-1.0012572 2.9922953 2.3811057
-0.96046191 2.8670695 1.8624289
-0.92877907 2.7677009 1.4370235
-0.8994956 2.6773603 1.0721579
-0.86780304 2.580065 0.7472508
-0.84816533 2.5202391 0.46309313
-0.82620978 2.4521918 0.19805843
0.0082726479 0.088191062 8.728941
-0.40156642 1.3112563 8.718214
-0.53360492 1.7037872 8.60707
-0.2980774 0.9294011 3.1674278
-0.44288054 1.3649864 3.4403052
-1.0205398 3.1238098 6.0897522
-1.1875787 3.618119 5.6654849
-1.1357298 3.4480081 4.4229751
-0.10807651 0.5046491 8.76478
-0.23355444 0.92050159 8.8142872
-0.25289699 0.8002916 3.2689323
-1.0090648 3.1441815 9.0339899
-0.5011338 1.5464973 3.4251683
-1.2460296 3.825453 6.651011
-1.1576724 3.5395367 5.0059896
-1.1193868 3.4124382 3.9715686
-1.0959902 3.304096 3.5006888
-1.0282745 3.0945494 2.7117429
-0.992468 2.9816 2.1448867
-0.93599749 2.8086944 1.6362718
-0.91432661 2.7404976 1.2555504
-0.89069706 2.6665945 0.91631913
-0.86151099 2.5762377 0.60721111
-0.83786452 2.5026443 0.32988065
-1.0628216 3.2191477 3.100522
-1.0009593 3.0264728 2.4046509
-0.96264303 2.9072354 1.8852274
-0.92768532 2.796773 1.4496119
-0.90056181 2.7118545 1.0836625
-0.86952573 2.615365 0.75545704
-0.84874159 2.551378 0.46723723
-0.82711673 2.483501 0.19926761
0.0084265573 0.088176489 8.728941
-0.39905116 1.3112116 8.713275
-0.53092796 1.7046232 8.60707
-0.29661715 0.92986816 3.1674278
-0.44097427 1.3656034 3.4403052
-1.0154366 3.1229541 6.0853629
-1.2093849 3.6998105 5.7894735
-1.1455022 3.4920311 4.4766998
-0.10763608 0.50474328 8.76478
-0.23275106 0.92070508 8.8142872
-0.25233823 0.80046791 3.2689323
-1.0073957 3.146529 9.038682
-0.50032401 1.5467596 3.4251683
-1.2714427 3.9104333 6.7960525
-1.1779567 3.6058199 5.0977607
-1.1276948 3.4418235 4.0046449
-1.1069742 3.356807 3.5532572
-1.0380704 3.1405089 2.7494044
-1.0022408 3.0268197 2.1750426
-0.93625861 2.8226123 1.6432283
-0.92218739 2.776969 1.2705346
-0.89652359 2.6949916 0.9247793
-0.86767596 2.6052518 0.6128068
-0.84425759 2.5320117 0.33256313
-1.0740211 3.2626328 3.1404281
-1.0077114 3.05404 2.4252529
-0.97278243 2.9447463 1.9080261
-0.93571329 2.8275809 1.4642982
-0.90954274 2.7437017 1.095167
-0.87887347 2.6481125 0.76366329
-0.85878122 2.5845699 0.47207198
-0.83571148 2.5122325 0.2004768
0.0087342998 0.088146538 8.728941
-0.39447173 1.3125966 8.713275
-0.52467662 1.7065578 8.60707
-0.29320702 0.93094909 3.1674278
-0.43513444 1.3654251 3.4357026
-1.0034379 3.1268301 6.0853629
-1.214384 3.7662356 5.884531
-1.1462764 3.5423448 4.5342627
-0.10549074 0.50549084 8.7697725
-0.22873151 0.92171192 8.8142872
-0.24870324 0.80160475 3.2689323
-0.9931069 3.151068 9.038682
-0.49302953 1.5491002 3.4251683
-1.2561797 3.926317 6.8131166
-1.1787541 3.6689103 5.1775608
-1.121259 3.4795611 4.0413966
-1.102985 3.3843856 3.5777888
-1.0398405 3.1849937 2.7839272
-1.004138 3.0702157 2.2024574
-0.94609034 2.8893344 1.6780103
-0.92307073 2.8157315 1.2855189
-0.89616936 2.7304738 0.93464959
-0.8679449 2.641381 0.61933511
-0.84498048 2.5684946 0.3356927
-1.0747502 3.3134592 3.1836596
-1.01008 3.1085558 2.4635143
-0.97007793 2.9819248 1.9282914
-0.9341225 2.8663192 1.4810827
-0.9068563 2.7793822 1.1066716
-0.87694973 2.684567 0.77186948
-0.85537136 2.6169779 0.47621605
-0.83430088 2.5495236 0.2018875
0.0090419352 0.088115513 8.728941
-0.3896668 1.3132207 8.7083368
-0.51871645 1.7083788 8.60707
-0.28995562 0.93196696 3.1674278
-0.43095207 1.3687992 3.4403052
-0.99179333 3.1280305 6.0809736
-1.2200212 3.8294394 5.9754558
-1.1485457 3.5921195 4.591825
-0.10372561 0.50585604 8.7697725
-0.22551276 0.92250466 8.8142872
-0.2459036 0.802468 3.2689323
-0.98261452 3.156163 9.043375
-0.48761919 1.5508116 3.4251683
-1.2589723 3.9829004 6.9027009
-1.1850841 3.7333157 5.2613516
-1.1152771 3.5028365 4.063448
-1.0955372 3.4017935 3.5918071
-1.0418617 3.2293513 2.8184502
-1.0062736 3.1134901 2.2298722
-0.94827259 2.9305515 1.6988796
-0.92466623 2.8542187 1.3005033
-0.89551264 2.7609634 0.94310975
-0.86782253 2.6724277 0.62493086
-0.84524792 2.5998442 0.33837515
-1.0779915 3.3634138 3.2268913
-1.0140504 3.1582448 2.4988322
-0.97021687 3.0181246 1.9485569
-0.93524092 2.9041228 1.4978671
-0.90874124 2.8184855 1.1198196
-0.87802547 2.7199912 0.78007573
-0.85688561 2.6529346 0.48105082
-0.83461952 2.5809419 0.2030967
0.0093494616 0.088083409 8.728941
-0.38464397 1.3130814 8.6984577
-0.51274991 1.7101791 8.60707
-0.2867007 0.93297338 3.1674278
-0.42617148 1.3702953 3.4403052
-0.97943687 3.1269026 6.072196
-1.2066466 3.8336744 5.9754558
-1.149516 3.6388962 4.6455503
-0.10195921 0.50621498 8.7697725
-0.22241539 0.92380464 8.8192587
-0.24310097 0.80332148 3.2689323
-0.97159147 3.1595738 9.043375
-0.48155731 1.5504253 3.4206672
-1.0040987 3.2155256 5.5802612
-1.1918801 3.8006842 5.3491321
-1.1223695 3.5681534 4.133276
-1.076087 3.3818083 3.5672753
-1.043586 3.2737617 2.8529735
-1.0068473 3.1528327 2.2545452
-0.95287645 2.980257 1.7243863
-0.92600423 2.892751 1.3154874
-0.89611799 2.7960498 0.95297992
-0.87049532 2.7128594 0.63239181
-0.84530669 2.6312265 0.34105763
-1.080897 3.4134309 3.2701228
-1.017686 3.2079988 2.5341501
-0.98185891 3.0913384 1.9916209
-0.93610662 2.9419687 1.5146515
-0.91036403 2.8576357 1.1329677
-0.88034153 2.7600858 0.78945422
-0.85665339 2.6842151 0.48519492
-0.83624935 2.6171517 0.20450741
0.0096568726 0.088050239 8.728941
-0.3796269 1.3129231 8.6885786
-0.50677717 1.7119585 8.60707
-0.28344226 0.93396848 3.1674278
-0.42138568 1.3717744 3.4403052
-0.96710026 3.1257265 6.0634174
-1.1520829 3.6918423 4.7069502
-0.10019158 0.50656784 8.7697725
-0.21918936 0.92457533 8.8192587
-0.24029537 0.80416512 3.2689323
-0.96105796 3.1645973 9.048068
-0.47614241 1.5520968 3.4206672
-0.99133116 3.2140267 5.5717297
-1.1964369 3.8623884 5.4289327
-1.1249958 3.6206119 4.1884031
-1.0653452 3.3889461 3.57078
-1.0461818 3.3219357 2.8906348
-1.0084165 3.1962054 2.28196
-0.95581037 3.0258057 1.7475743
-0.92708415 2.9313266 1.3304716
-0.89793724 2.8357472 0.96426028
-0.87141192 2.7486591 0.63892013
-0.84666318 2.6673872 0.34418717
-1.0845809 3.4670718 3.3166795
-1.0209866 3.2578163 2.569468
-0.9942919 3.1687827 2.0372181
-0.93671936 2.9798555 1.531436
-0.91314214 2.901335 1.1477593
-0.88092726 2.7955933 0.79766047
-0.85770237 2.7202494 0.49002969
-0.83613247 2.6486399 0.2057166
0.0099641662 0.088015996 8.728941
-0.37482864 1.313493 8.6836395
-0.50108361 1.7146944 8.6119652
-0.28018036 0.9349522 3.1674278
-0.41716164 1.3751066 3.4449077
-0.95478392 3.1245024 6.0546393
-1.2310671 4.0087886 6.231699
-1.1457975 3.7172828 4.7338128
-0.098422714 0.5069145 8.7697725
-0.21608122 0.92585421 8.8242302
-0.23748685 0.80499905 3.2689323
-0.95000559 3.1679327 9.048068
-0.47072166 1.5537496 3.4206672
-0.9747867 3.2000034 5.5418677
-1.2032217 3.9328144 5.5207028
-1.128264 3.6763723 4.2472062
-1.0524515 3.3892384 3.5672753
-1.0484539 3.3701665 2.9282963
-1.0096949 3.2396262 2.3093746
-0.9584378 3.0714109 1.7707623
-0.92790604 2.969945 1.3454559
-0.89805806 2.8709123 0.97413045
-0.87355727 2.7891865 0.64638114
-0.84777743 2.7035894 0.34731674
-1.0890056 3.5243475 3.3665621
-1.0239515 3.3076952 2.6047859
-0.99343419 3.2051747 2.0574837
-0.93842483 3.0221167 1.5503185
-0.91422427 2.9405792 1.1609074
-0.88272047 2.8357792 0.80703902
-0.85851002 2.7563229 0.49486443
-0.83580589 2.6801589 0.20692578
0.010271339 0.087980673 8.728941
-0.36982062 1.3132974 8.6737604
-0.49509516 1.716433 8.6119652
-0.27691507 0.93592447 3.1674278
-0.41235909 1.3765544 3.4449077
-0.94248784 3.1232302 6.0458612
-1.2211496 4.0265265 6.2523637
-1.1570826 3.8009844 4.8335876
-0.096599557 0.50697118 8.76478
-0.21284807 0.92660278 8.8242302
-0.23467542 0.80582315 3.2689323
-0.93894154 3.1712296 9.048068
-0.46529523 1.5553832 3.4206672
-0.96361059 3.2033865 5.5418677
-1.2034291 3.9831421 5.5845432
-1.1311563 3.7321997 4.3060088
-1.0406144 3.3928914 3.5672753
-1.051545 3.4221742 2.9690962
-1.0106825 3.2830944 2.3367891
-0.96075827 3.1170704 1.7939503
-0.92846942 3.0086038 1.3604401
-0.89936024 2.9106958 0.98541069
-0.87542993 2.829761 0.65384209
-0.84864914 2.7398312 0.35044628
-1.0908637 3.5745525 3.4097934
-1.0265805 3.3576338 2.6401038
-0.99107254 3.2374768 2.0752158
-0.94117713 3.0687644 1.571299
-0.91365713 2.9753513 1.1724119
-0.88424361 2.8760111 0.81641757
-0.85907614 2.7924347 0.49969921
-0.83526951 2.7117076 0.20813496
0.010578386 0.087944284 8.728941
-0.36502632 1.3138316 8.6688213
-0.48910069 1.7181509 8.6119652
-0.27364638 0.93688542 3.1674278
-0.4075515 1.3779854 3.4449077
-0.93089622 3.1242058 6.041472
-1.1604156 3.8602521 4.9026628
-0.094829299 0.50730532 8.76478
-0.20961232 0.92734009 8.8242302
-0.23186116 0.80663735 3.2689323
-0.92786622 3.1744876 9.048068
-0.45986307 1.5569978 3.4206672
-0.95168036 3.2042305 5.5376019
-1.2050223 4.0392938 5.656364
-1.1336725 3.7880907 4.3648114
-1.0287646 3.3965034 3.5672753
-1.0542856 3.4742439 3.0098963
-1.0113786 3.3266089 2.3642039
-0.96406156 3.1670215 1.8194572
-0.92877418 3.0473027 1.3754244
-0.90039545 2.9505229 0.99669093
-0.87702996 2.8703825 0.66130304
-0.84927803 2.7761116 0.35357583
-1.0859207 3.6033638 3.4330721
-1.0288731 3.4076309 2.6754217
-0.98475516 3.257422 2.0853486
-0.94361508 3.1154678 1.5922794
-0.91285825 3.010155 1.1839164
-0.88549656 2.9162881 0.82579607
-0.85940063 2.8285842 0.50453395
-0.83452272 2.7432847 0.20934415
0.010885304 0.087906823 8.728941
-0.36023286 1.3143485 8.6638832
-0.48310024 1.7198477 8.6119652
-0.27037439 0.93783492 3.1674278
-0.40273893 1.3793997 3.4449077
-0.9193092 3.1251385 6.0370831
-0.964037 3.2604663 5.0662074
-1.1733803 3.9533899 5.0139503
-0.093057893 0.50763321 8.76478
-0.20637402 0.92806613 8.8242302
-0.22904405 0.80744183 3.2689323
-0.91677952 3.1777072 9.048068
-0.45381615 1.5565035 3.4161658
-0.94048971 3.2075329 5.5376019
-1.1951717 4.0579281 5.6763139
-1.1252457 3.8082809 4.3831873
-1.0179243 3.4034905 3.57078
-1.0577925 3.5301023 3.0538344
-1.0129853 3.3741722 2.3943598
-0.9670276 3.2170327 1.8449639
-0.92881984 3.0860403 1.3904088
-0.89977944 2.9857993 1.0065612
-0.87693799 2.9063466 0.66783142
-0.84966379 2.8124294 0.3567054
-1.0562989 3.5498729 3.3798642
-1.0296743 3.4538105 2.7077966
-0.99064052 3.3186696 2.1208131
-0.94573832 3.162225 1.6132599
-0.9118275 3.0449893 1.1954211
-0.8864789 2.9566081 0.83517462
-0.85948294 2.864769 0.50936872
-0.83356553 2.7748895 0.21055333
0.011192089 0.087868296 8.728941
-0.35564274 1.3155979 8.6638832
-0.47709391 1.7215234 8.6119652
-0.26709908 0.93877298 3.1674278
-0.3979215 1.380797 3.4449077
-0.90839481 3.1283283 6.0370831
-0.95186156 3.2611103 5.0620742
-1.1757952 4.0128288 5.0830259
-0.09133549 0.50823927 8.7697725
-0.20313321 0.92878085 8.8242302
-0.22622417 0.80823642 3.2689323
-0.90568173 3.1808879 9.048068
-0.44838017 1.5580782 3.4161658
-0.92856264 3.2082913 5.5333362
-1.1826819 4.067862 5.6842937
-1.134727 3.890295 4.4713907
-1.0070474 3.4104428 3.5742843
-1.0609221 3.5860271 3.0977728
-1.0142726 3.4217873 2.4245162
-0.96965611 3.2671025 1.8704708
-0.92992681 3.1292582 1.407266
-0.89892805 3.021107 1.0164315
-0.87660545 2.942344 0.67435974
-0.84980631 2.8487837 0.35983497
-1.0354825 3.524879 3.3532603
-1.0301654 3.5000367 2.7401712
-0.99610996 3.379997 2.1562774
-0.94754642 3.2090342 1.6342405
-0.9092257 3.0753241 1.2052821
-0.88719034 2.9969699 0.84455317
-0.85791653 2.8962405 0.51351279
-0.83239794 2.8065202 0.21176252
0.011507817 0.087871358 8.7339401
-0.35104826 1.3168314 8.6638832
-0.47108173 1.7231783 8.6119652
-0.26382053 0.93969959 3.1674278
-0.39363343 1.3840569 3.4495103
-0.89746934 3.1314802 6.0370831
-0.93735665 3.253597 5.0455427
-1.1840425 4.0938849 5.1789632
-0.089560844 0.508555 8.7697725
-0.19988993 0.92948425 8.8242302
-0.22340152 0.80902117 3.2689323
-0.89503944 3.1856914 9.0527611
-0.44293872 1.5596339 3.4161658
-0.91664171 3.2090051 5.5290699
-1.1117617 3.8616536 4.434639
-0.99613464 3.4173613 3.5777888
-1.0647652 3.645752 3.1448495
-1.0140649 3.4654384 2.4519308
-0.97319221 3.3214808 1.8982962
-0.93074328 3.1725214 1.4241233
-0.89784086 3.0564442 1.0263016
-0.87741822 2.9830871 0.68182069
-0.84970522 2.8851721 0.36296451
-1.0148535 3.4997833 3.3266559
-1.0303463 3.5463078 2.7725458
-1.0011631 3.4414024 2.1917422
-0.95030916 3.2602515 1.6573191
-0.9077462 3.1102107 1.2167867
-0.88899422 3.042038 0.85510403
-0.85753071 2.9324887 0.51834756
-0.83242339 2.8429716 0.21317324
0.011814475 0.087830655 8.7339401
-0.3462522 1.3172971 8.6589432
-0.46532878 1.7257954 8.6168604
-0.26093692 0.94205338 3.1721995
-0.38879979 1.3854225 3.4495103
-0.88783646 3.1392033 6.0458612
-0.92291564 3.246022 5.0290108
-1.1794217 4.1318965 5.2211757
-0.087833263 0.50914919 8.7747641
-0.19664419 0.93017632 8.8242302
-0.22057615 0.80979604 3.2689323
-0.88391393 3.1887963 9.0527611
-0.43749192 1.5611705 3.4161658
-0.90401965 3.207165 5.5205379
-0.93423808 3.2990167 4.6149673
-0.98061132 3.4513512 3.9678934
-0.98518568 3.4242449 3.5812936
-1.0692822 3.7092872 3.1950653
-1.0147251 3.5131469 2.4820871
-0.97389895 3.3674116 1.9214842
-0.93255848 3.2202806 1.4428537
-0.89117432 3.0733819 1.0305318
-0.87658757 3.0191538 0.68834901
-0.84936035 2.9215946 0.36609405
-0.99646705 3.4817669 3.3067031
-1.0268741 3.5809662 2.7960911
-1.0046101 3.4987404 2.2246735
-0.95272577 3.3115268 1.6803976
-0.91387701 3.1723497 1.2381524
-0.88914698 3.0824842 0.86448258
-0.85690224 2.9687693 0.52318233
-0.83220434 2.8794563 0.21458395
0.012120989 0.08778888 8.7339401
-0.34165192 1.3184978 8.6589432
-0.45930183 1.7274092 8.6168604
-0.25764695 0.94295847 3.1721995
-0.38656691 1.3961855 3.4725227
-0.87880415 3.1492038 6.0590286
-0.91233939 3.2519331 5.0331435
-1.1675982 4.1452436 5.232688
-0.086102612 0.50973749 8.7797556
-0.19339608 0.93085706 8.8242302
-0.21774806 0.81056106 3.2689323
-0.87323266 3.1935267 9.0574541
-0.43145981 1.5605899 3.4116647
-0.8921203 3.2077885 5.5162725
-0.92271674 3.3022578 4.6149673
-0.96215206 3.4319024 3.942167
-0.98101896 3.4551084 3.6093299
-1.0733683 3.7728975 3.2452805
-1.0139182 3.5568798 2.5095015
-0.97672838 3.4219067 1.9493099
-0.93405133 3.2680907 1.461584
-0.89891833 3.1410408 1.0502722
-0.87686878 3.0599728 0.69580996
-0.85014492 2.9628363 0.36967069
-0.98227787 3.4780371 3.3000519
-1.0363791 3.6623149 2.8549547
-1.0053182 3.5478485 2.2525382
-0.95355612 3.3584919 1.7013782
-0.91700214 3.2254844 1.256231
-0.89035892 3.1276433 0.87503344
-0.85738736 3.0098431 0.52870774
-0.83174056 2.9159739 0.21599467
0.01243688 0.087788612 8.7389402
-0.3370474 1.3196824 8.6589432
-0.45352727 1.729987 8.6217556
-0.25435382 0.94385213 3.1721995
-0.3842636 1.4069498 3.4955354
-0.86907727 3.1568704 6.0678067
-0.89948124 3.2496738 5.0248775
-0.93256932 3.3556225 4.2464495
-0.084322773 0.51003492 8.7797556
-0.1902516 0.93204892 8.8292027
-0.21491736 0.81131619 3.2689323
-0.86252898 3.1982214 9.0621462
-0.42600971 1.5620865 3.4116647
-0.87884778 3.2033372 5.5034742
-0.90878201 3.2967439 4.6029978
-0.95016664 3.4352403 3.942167
-0.97472471 3.479116 3.6303573
-1.0780751 3.8403282 3.2986343
-1.0128182 3.6006496 2.5369163
-0.97198331 3.4508789 1.9632226
-0.93647999 3.3204117 1.4821874
-0.9009859 3.1903243 1.0643725
-0.87687564 3.1008301 0.70327097
-0.84929502 2.9993269 0.37280026
-0.96812695 3.4742515 3.2934012
-1.0409806 3.7282 2.9020452
-1.0068562 3.6011553 2.2829363
-0.95407015 3.4055026 1.7223587
-0.91976738 3.2786789 1.2743095
-0.89126617 3.172848 0.88558429
-0.85759604 3.050956 0.53423321
-0.83238554 2.9573319 0.21760692
0.012743244 0.087744661 8.7389402
-0.33224937 1.3200972 8.6540041
-0.44748574 1.7315595 8.6217556
-0.25105762 0.94473416 3.1721995
-0.38188982 1.417715 3.5185483
-0.86056262 3.1691301 6.0853629
-0.88739121 3.2500792 5.0207448
-0.915766 3.3403101 4.2234249
-0.082541905 0.51032615 8.7797556
-0.18699698 0.93270737 8.8292027
-0.21240129 0.81327772 3.2737718
-0.85135978 3.2012126 9.0621462
-0.42055443 1.5635639 3.4116647
-0.86629844 3.2013507 5.4949427
-0.89410645 3.288265 4.5870371
-0.93549269 3.4287241 3.9311416
-0.96827453 3.5031214 3.6513844
-1.0812851 3.9040856 3.3488495
-1.0181336 3.6686296 2.5807798
-0.98246658 3.5353441 2.0072799
-0.9385547 3.3727889 1.5027907
-0.90272027 3.2396605 1.0784729
-0.87792802 3.146456 0.71166456
-0.84820062 3.0358469 0.3759298
-0.95401424 3.4704092 3.2867501
-1.0462078 3.7980578 2.9520788
-1.0068882 3.6503601 2.3108015
-0.95668548 3.4613061 1.7475353
-0.92091268 3.3273802 1.2907445
-0.89186865 3.2180963 0.89613515
-0.85885155 3.096879 0.54044932
-0.83141494 2.9939163 0.21901764
0.013049453 0.087699644 8.7389402
-0.32763934 1.321249 8.6540041
-0.44143873 1.733111 8.6217556
-0.24775836 0.9456048 3.1721995
-0.37944558 1.4284805 3.5415606
-0.85135329 3.179055 6.0985303
-0.87457758 3.2477226 5.0124788
-0.90410048 3.3434865 4.2234249
-0.080760024 0.51061118 8.7797556
-0.18363775 0.93283129 8.8242302
-0.20956114 0.8140142 3.2737718
-0.84061795 3.2058344 9.0668392
-0.41453609 1.5629182 3.4071634
-0.85444593 3.2018352 5.4906764
-0.88262278 3.2913661 4.5870371
-0.92175686 3.4254217 3.9237914
-0.9579165 3.5133612 3.6583936
-1.0861144 3.9754212 3.4053419
-1.0218827 3.732657 2.621902
-0.98417366 3.5900183 2.0351055
-0.93782043 3.4162793 1.519648
-0.90284932 3.284421 1.0911632
-0.87997603 3.1968622 0.72099072
-0.84818476 3.0771968 0.37950641
-0.93896329 3.4629071 3.2767737
-1.0499001 3.8640962 2.9991693
-1.0065885 3.6996078 2.3386664
-0.95414764 3.4996543 1.7643198
-0.92297274 3.3806846 1.3088232
-0.8921659 3.263387 0.90668601
-0.85979658 3.1428468 0.54666543
-0.830199 3.0305285 0.22042835
0.013365474 0.087696046 8.7439404
-0.3228412 1.3216296 8.649065
-0.43513864 1.7336538 8.6168604
-0.24445607 0.94646388 3.1721995
-0.37742552 1.4411361 3.5691757
-0.84025115 3.1820076 6.0985303
-0.86179137 3.245316 5.0042133
-0.88994664 3.3373308 4.2119122
-0.078934006 0.51060456 8.7747641
-0.18038043 0.93346661 8.8242302
-0.20671842 0.81474072 3.2737718
-0.82942235 3.2087493 9.0668392
-0.40907791 1.5643557 3.4071634
-0.84260058 3.202276 5.4864106
-0.86881769 3.2856874 4.575067
-0.90805537 3.4220645 3.916441
-0.93731266 3.4856882 3.6268525
-1.0874207 4.035562 3.4524186
-1.0241069 3.7927172 2.6602821
-0.98897934 3.6575754 2.0698874
-0.93921709 3.4687548 1.5402514
-0.90393233 3.3338518 1.1052636
-0.88039559 3.2425802 0.7293843
-0.8478905 3.1185832 0.38308308
-0.92494088 3.4589498 3.2701228
-1.0531437 3.9302058 3.0462599
-1.0070744 3.7530613 2.3690646
-0.95960295 3.5687063 1.7957906
-0.92221612 3.4249239 1.3236148
-0.89215767 3.3087187 0.91723686
-0.86043113 3.1888587 0.55288154
-0.83004057 3.0719922 0.22204059
0.013671509 0.087648854 8.7439404
-0.31804436 1.3219931 8.6441259
-0.42908442 1.7351621 8.6168604
-0.2411508 0.9473114 3.1721995
-0.37532172 1.4537948 3.5967908
-0.82732892 3.177968 6.0853629
-0.84903246 3.2428598 4.9959474
-0.87829179 3.3404169 4.2119122
-0.077109009 0.51059133 8.7697725
-0.17712092 0.93409061 8.8242302
-0.20387319 0.81545734 3.2737718
-0.81821674 3.2116249 9.0668392
-0.40361482 1.5657741 3.4071634
-0.83076274 3.2026734 5.4821448
-0.85658306 3.2857842 4.5710769
-0.89438868 3.418654 3.9090908
-0.91691369 3.4579146 3.5953116
-1.0943177 4.118331 3.518326
-1.0269998 3.8568788 2.7014043
-0.99104285 3.7166488 2.1000319
-0.93547487 3.5033653 1.5533626
-0.89972436 3.3647923 1.1137238
-0.88177699 3.2930846 0.73871052
-0.8473174 3.1600044 0.38665971
-0.9109574 3.4549363 3.2634716
-1.0559386 3.9963844 3.0933504
-1.0049939 3.7982278 2.3943965
-0.96458775 3.6378384 1.8272614
-0.92237371 3.4737623 1.3400499
-0.88934559 3.3446944 0.92544305
-0.86075473 3.2349129 0.55909771
-0.82960272 3.1134911 0.22365285
0.013977378 0.087600596 8.7439404
-0.31324887 1.3223389 8.6391859
-0.42302495 1.7366493 8.6168604
-0.23784259 0.94814742 3.1721995
-0.37313408 1.4664563 3.6244061
-0.81563544 3.1785166 6.0809736
-0.83630133 3.2403543 4.9876814
-0.86501789 3.3372571 4.204237
-0.075326234 0.5108574 8.7697725
-0.17385925 0.93470311 8.8242302
-0.20102546 0.81616402 3.2737718
-0.80700105 3.2144613 9.0668392
-0.39814678 1.5671735 3.4071634
-0.81893235 3.203027 5.477879
-0.84285879 3.279999 4.5591068
-0.87991029 3.4119065 3.8980651
-0.89311218 3.41624 3.5497525
-1.0907855 4.1635437 3.5528491
-1.0294572 3.9211056 2.7425263
-0.99270576 3.7757802 2.1301763
-0.94684643 3.5962722 1.5908233
-0.90754086 3.4421291 1.1362842
-0.88156247 3.3388879 0.74710411
-0.84646535 3.2014589 0.39023632
-0.89701337 3.4508679 3.2568207
-1.0593029 4.0665412 3.1433842
-1.0058745 3.8559387 2.4273279
-0.96910113 3.7070477 1.8587321
-0.91980958 3.5135069 1.3531979
-0.88752592 3.3853924 0.93482167
-0.86076713 3.2810073 0.56531376
-0.83015454 3.1598554 0.22546662
0.014272659 0.087508895 8.7389402
-0.3084549 1.3226676 8.6342468
-0.41719773 1.7391056 8.6217556
-0.23453149 0.94897187 3.1721995
-0.37181252 1.4829104 3.6612263
-0.79749012 3.1534815 6.0283051
-0.82359797 3.2377994 4.9794154
-0.85257012 3.3371508 4.2003994
-0.073502377 0.51083136 8.76478
-0.17059548 0.93530434 8.8242302
-0.19817528 0.81686074 3.2737718
-0.79577559 3.2172587 9.0668392
-0.39267391 1.5685536 3.4071634
-0.80774671 3.2058663 5.477879
-0.82992494 3.2770791 4.5511274
-0.86632502 3.408386 3.8907149
-0.8811819 3.4193366 3.5497525
-1.0314786 3.9853959 2.7836483
-0.99285626 3.8306799 2.1580019
-0.9494279 3.6578896 1.6151727
-0.90517414 3.4824183 1.1475645
-0.88103884 3.3847294 0.75549769
-0.84659022 3.2477646 0.39426005
-0.88403547 3.450361 3.2534952
-1.0611849 4.1328545 3.1904747
-0.99884969 3.8844762 2.4425268
-0.97314298 3.7763317 1.8902029
-0.91697901 3.5532749 1.366346
-0.88178414 3.4119999 0.94068319
-0.85922819 3.3223464 0.57083923
-0.83039266 3.2062612 0.22728041
0.014578035 0.087458543 8.7389402
-0.30383605 1.3237363 8.6342468
-0.41112456 1.7405512 8.6217556
-0.23121753 0.94978476 3.1721995
-0.36757061 1.4879926 3.6704314
-0.78068769 3.1330066 5.9844141
-0.81160682 3.2379251 4.9752822
-0.83935106 3.3338897 4.1927242
-0.07175798 0.51137078 8.7697725
-0.16732962 0.93589407 8.8242302
-0.19532271 0.81754756 3.2737718
-0.78454041 3.2200167 9.0668392
-0.38719624 1.5699148 3.4071634
-0.79592288 3.206135 5.4736128
-0.81702179 3.2741089 4.5431471
-0.85195148 3.4015234 3.8796897
-0.86748517 3.4154789 3.5427437
-0.92728084 3.6429706 3.1134653
-1.0351305 4.0578513 2.8302531
-0.99373192 3.8899179 2.1881464
-0.95388842 3.7285502 1.6432681
-0.91325212 3.5645556 1.171535
-0.88020569 3.4306073 0.76389128
-0.84640211 3.2941096 0.39828375
-0.87198609 3.4534259 3.2534952
-1.0695574 4.2266593 3.2581675
-1.0085807 3.979871 2.4982567
-0.97783005 3.8500881 1.9237719
-0.92784971 3.6479836 1.3992163
-0.8926639 3.5045516 0.96295726
-0.85741115 3.3637149 0.5763647
-0.83031684 3.2527068 0.22909419
0.014872522 0.08736483 8.7339401
-0.29904255 1.3240308 8.6293077
-0.40527683 1.7429675 8.6266508
-0.22790076 0.95058608 3.1721995
-0.362836 1.4911648 3.6750338
-0.76746315 3.1264086 5.9668579
-0.79895031 3.2352746 4.9670167
-0.82693696 3.3336885 4.1888871
-0.069972523 0.5116182 8.7697725
-0.16406173 0.93647254 8.8242302
-0.19246775 0.81822437 3.2737718
-0.77329564 3.2227359 9.0668392
-0.38120013 1.5691414 3.4026623
-0.78348762 3.2038269 5.4650812
-0.80486876 3.2740145 4.5391569
-0.83763635 3.3946021 3.8686638
-0.85555762 3.4184861 3.5427437
-0.8994084 3.5857794 3.0632501
-1.0382888 4.1303792 2.876858
-0.98988026 3.9320252 2.2090156
-0.95673388 3.7947912 1.6694907
-0.9160701 3.628186 1.1898655
-0.87304199 3.4527085 0.76762176
-0.84467804 3.3356647 0.40186039
-0.85902464 3.4528253 3.2501695
-1.0518634 4.2186007 3.2493379
-1.0134804 4.0586505 2.543854
-0.9820137 3.9239216 1.9573406
-0.933478 3.724488 1.4255123
-0.89344162 3.5595045 0.97585273
-0.85169631 3.3907015 0.57981807
-0.83114547 3.3040352 0.2311095
0.015177392 0.087312385 8.7339401
-0.29441899 1.3250666 8.6293077
-0.39941725 1.7453642 8.631547
-0.2245812 0.95137578 3.1721995
-0.3580837 1.4943221 3.6796365
-0.754857 3.1220849 5.9536905
-0.78698713 3.2353089 4.9628835
-0.81377369 3.3303273 4.1812119
-0.068186216 0.5118593 8.7697725
-0.16079181 0.93703949 8.8242302
-0.18961044 0.81889123 3.2737718
-0.76204151 3.2254155 9.0668392
-0.37572047 1.5704625 3.4026623
-0.77168882 3.2040067 5.4608154
-0.7927264 3.2738755 4.5351672
-0.82338011 3.3876228 3.8576384
-0.84276599 3.4179893 3.5392389
-0.88128382 3.5662251 3.0444191
-1.0429639 4.2110963 2.928946
-0.99641073 4.0171471 2.2530727
-0.95912826 3.8610964 1.6957132
-0.91961288 3.6965342 1.2096059
-0.8811729 3.5367665 0.78347629
-0.84387976 3.3820794 0.40588409
-0.8469668 3.4558027 3.2501695
-1.0371314 4.2222466 3.2493379
-1.0168123 4.1333256 2.5869181
-0.98460728 3.9934244 1.9888114
-0.93858349 3.8010757 1.4518086
-0.89734691 3.6286604 0.99226516
-0.8612687 3.480181 0.59225035
-0.83162576 3.3554087 0.23312481
0.015471075 0.08721666 8.728941
-0.28962621 1.3253272 8.6243687
-0.39332235 1.7467479 8.631547
-0.22125892 0.95215398 3.1721995
-0.3533138 1.4974644 3.6842389
-0.7439543 3.1247008 5.9536905
-0.77503347 3.2352996 4.9587507
-0.80139381 3.3300314 4.1773744
-0.066399075 0.5120942 8.7697725
-0.15751997 0.93759507 8.8242302
-0.18675081 0.81954813 3.2737718
-0.75116891 3.2297366 9.0715313
-0.37023625 1.5717645 3.4026623
-0.7598983 3.204143 5.4565492
-0.78059483 3.2736919 4.531177
-0.80997175 3.3838818 3.8502879
-0.83082986 3.4209101 3.5392389
-0.86422735 3.55037 3.0287268
-1.0470876 4.2918944 2.9810338
-1.0002561 4.0937557 2.2924922
-0.95996922 3.9229605 1.7200624
-0.92154759 3.7602909 1.2279364
-0.88521451 3.6066096 0.79653299
-0.84514505 3.4382007 0.41080198
-0.83489865 3.4587383 3.2501695
-1.0196351 4.2080727 2.6299822
-0.98779833 4.0674019 2.0223801
-0.94093335 3.8685663 1.4748176
-0.89962965 3.6931636 1.0075053
-0.86318934 3.5409 0.60053849
-0.83294225 3.4116781 0.23534164
0.015775423 0.087162122 8.728941
-0.28499821 1.3263301 8.6243687
-0.38722265 1.7481101 8.631547
-0.21793394 0.9529205 3.1721995
-0.34852636 1.5005918 3.6888416
-0.73249608 3.1249468 5.9493017
-0.7624436 3.2325077 4.9504848
-0.78828698 3.3265707 4.1696997
-0.064611129 0.51232284 8.7697725
-0.1542462 0.9381392 8.8242302
-0.18416356 0.82142162 3.2786112
-0.73989046 3.2323391 9.0715313
-0.36474752 1.5730472 3.4026623
-0.74811625 3.2042363 5.4522834
-0.7684741 3.273463 4.5271869
-0.79659969 3.380089 3.8429377
-0.81805408 3.420321 3.5357344
-0.84910703 3.5420096 3.0193114
-1.0506598 4.3727722 3.0331216
-1.0035785 4.1704392 2.3319118
-0.96147603 3.9893839 1.746285
-0.92417377 3.828769 1.2476767
-0.8887791 3.6765237 0.80958962
