# .PCD v0.7 - Point Cloud Data file format
VERSION 0.7
FIELDS x y z
SIZE 4 4 4
TYPE F F F
COUNT 1 1 1
WIDTH 1506
HEIGHT 1
VIEWPOINT 0 0 0 1 0 0 0
POINTS 1506
DATA ascii
2.8665824 -0.44372353 2.1956866
2.6857624 -0.41477904 1.6825732
7.6490226 -1.1718156 1.9570824
0.074469589 -0.04772085 8.7139416
1.3837858 -0.25081423 8.9404812
1.8058925 -0.31551513 8.8371449
1.1583848 -0.19426216 3.8021016
1.5259626 -0.25055271 3.7026489
2.1233501 -0.34416822 4.0093288
2.0983381 -0.33712992 3.1939816
2.2744839 -0.3630138 2.8342481
0.49606088 -0.13488184 8.7298393
0.91419172 -0.21210438 8.7098866
2.2838569 -0.39341921 8.9600954
3.2789066 -0.54911184 9.0949965
4.261189 -0.70148242 8.9931707
2.4933553 -0.40640861 4.2023649
3.5792286 -0.57579243 4.0083203
3.5972795 -0.56647313 3.6583936
2.487047 -0.3902986 2.1122975
3.7574251 -0.58768356 2.5780382
3.1702514 -0.49471378 1.7661247
3.4088769 -0.53074253 1.4821874
12.391242 -1.9248915 3.7758656
4.0818644 -0.64863759 3.7622967
3.1205196 -0.4941949 2.3840487
2.6800404 -0.42347869 1.68004
4.4036694 -0.69350266 2.1482635
7.534441 -1.1811937 1.9301192
0.074302554 -0.047980506 8.7139416
1.3920699 -0.25734058 8.999752
1.8047801 -0.32181695 8.8371449
1.1562284 -0.19805221 3.7973294
1.5250787 -0.25587779 3.7026489
2.1552145 -0.35706005 4.0707755
2.0915952 -0.34354004 3.1857157
2.2732029 -0.37095103 2.8342481
0.49586508 -0.13669024 8.7348309
0.91500181 -0.2156629 8.7248001
2.2824695 -0.40138891 8.9600954
3.2769697 -0.56055403 9.0949965
4.2587142 -0.71635246 8.9931707
2.4790587 -0.41296631 4.181035
3.0706666 -0.50770897 4.1960149
3.5537806 -0.58443135 3.982594
3.6058428 -0.58072782 3.6689072
2.4971988 -0.40082848 2.1217129
3.7553508 -0.60079587 2.5780382
3.2559936 -0.51974338 1.8125007
3.3657992 -0.53607553 1.46533
12.019651 -1.9101593 3.6672931
4.0316648 -0.65509641 3.7190652
3.1147857 -0.50443834 2.3811057
2.8062134 -0.45346311 1.7560353
4.2219906 -0.68000144 2.0643411
7.3958907 -1.1859381 1.8972943
0.074100055 -0.048212953 8.7089415
1.3911632 -0.26219824 8.999752
1.8046477 -0.32829726 8.842041
1.15553 -0.202087 3.7973294
1.512623 -0.25921869 3.6750338
2.153955 -0.36458096 4.0707755
2.1014838 -0.35270259 3.2022474
7.586473 -1.2653787 9.2850924
0.4953849 -0.1384203 8.7348309
0.91527998 -0.21910496 8.7347431
2.2822917 -0.40957597 8.9649353
3.302192 -0.57674116 9.1700802
4.2669148 -0.73305708 9.0156765
2.4981701 -0.42511836 4.2151623
3.0777891 -0.51993042 4.2079849
3.5483754 -0.59627092 3.9789188
1.9745559 -0.32505298 2.0463021
2.6033306 -0.42719275 2.2095897
3.2104399 -0.52396995 1.7893127
3.38221 -0.55080187 1.4728222
4.0661869 -0.67528307 3.7523203
3.0890794 -0.51134688 2.3634467
2.9449677 -0.48644105 1.8396302
4.1524181 -0.68367463 2.0328705
7.4204855 -1.2164654 1.9043281
0.073931314 -0.048471313 8.7089415
1.3910025 -0.26719949 9.0046911
1.8034906 -0.33459467 8.842041
1.1533482 -0.20585679 3.7925575
1.4943894 -0.26146507 3.6336112
2.1762693 -0.37617809 4.1146665
2.136296 -0.3662186 3.2559757
7.5535722 -1.2870072 9.250555
0.49489871 -0.14014867 8.7348309
0.91606307 -0.22267812 8.7496586
2.2808483 -0.41754013 8.9649353
3.2899652 -0.58644694 9.141923
4.2664742 -0.74832302 9.0201778
3.0759552 -0.53067076 4.2079849
2.0326684 -0.34884065 2.3140695
1.9769262 -0.33253518 2.0498068
6.275465 -1.0523527 5.2130928
3.4087563 -0.56977683 2.3504965
3.21733 -0.53663087 1.7939503
4.4412045 -0.73919308 1.9073657
10.557366 -1.7912738 9.6185026
2.9716988 -0.50257832 2.278095
2.9347503 -0.4952831 1.8345639
7.4353695 -1.2455726 1.9090174
0.073761664 -0.048729092 8.7089415
1.3953987 -0.27309954 9.0392656
1.8023118 -0.34088799 8.842041
1.50693 -0.26908517 3.6658287
2.087677 -0.3683694 3.9522705
2.1571794 -0.37755555 3.2890394
3.6302052 -0.63153547 4.4882126
0.49440652 -0.14187534 8.7348309
0.91631502 -0.22613108 8.7596016
2.2793767 -0.42549923 8.9649353
3.2777112 -0.59607434 9.1137667
4.2616935 -0.76282758 9.0156765
3.2302353 -0.56601995 3.6334536
1.9827828 -0.3406418 2.0568159
6.2180438 -1.0650516 5.1691546
3.4603295 -0.59082162 2.3861356
3.42068 -0.58283037 1.9029338
4.4340272 -0.75391412 1.9054928
10.444359 -1.809629 9.5220623
3.1650946 -0.54665983 2.4223099
2.8522887 -0.49161142 1.7864335
3.3513558 -0.57583696 1.6594172
0.073591121 -0.048986267 8.7089415
1.3944368 -0.27796873 9.0392656
1.8001109 -0.34698427 8.8371449
2.7794154 -0.51643044 9.0846882
1.5059816 -0.27434367 3.6658287
1.9095986 -0.34381494 3.6230896
2.1918604 -0.39151734 3.3427677
0.49390826 -0.14360027 8.7348309
0.91655385 -0.22958848 8.7695436
2.2828166 -0.43439355 8.984292
6.3653388 -1.1807171 17.659294
1.5221429 -0.27785936 3.2631247
2.2304156 -0.39883372 2.5345793
1.9850941 -0.34817708 2.0603204
2.6255531 -0.45912465 2.231559
3.3799796 -0.58925122 2.3340478
3.4404459 -0.59856391 1.9145279
4.4496388 -0.7725594 1.912985
10.382828 -1.8363211 9.4721804
3.3223908 -0.58578014 2.5400362
2.9184842 -0.51351798 1.8269643
3.340385 -0.58596343 1.6552211
10.795615 -1.8841258 1.6206729
0.073419675 -0.04924285 8.7089415
1.3957425 -0.28329891 9.0540838
1.7978899 -0.35306937 8.8322506
2.7951949 -0.52946419 9.1419506
1.510777 -0.28066996 3.6796365
1.8000305 -0.33057195 3.4211919
3.2377796 -0.58657479 4.0161991
0.49340397 -0.14532346 8.7348309
0.91626334 -0.2329184 8.7745152
2.2936261 -0.44475353 9.0326862
6.362874 -1.2032498 17.663986
1.6024891 -0.29831713 3.4341707
2.3663218 -0.4367561 4.0061316
2.1366177 -0.39167103 2.9511273
3.1695085 -0.5782128 3.5709758
2.057586 -0.36830202 2.1339159
2.5587947 -0.45666012 2.1782053
3.3408513 -0.59445286 2.3093746
3.4078047 -0.60514772 1.8982962
4.2004166 -0.74440074 1.8118411
2.1860847 -0.39446306 2.0596406
3.1771138 -0.57160592 2.4340825
2.8572729 -0.51303577 1.7914999
3.3293841 -0.59602034 1.6510248
10.876727 -1.9374298 1.6331052
0.073247343 -0.049498834 8.7089415
0.56690317 -0.11688207 3.6801713
1.7956481 -0.35914314 8.8273554
2.7991922 -0.54035014 9.1610394
1.6387905 -0.30686703 3.1227345
2.3965714 -0.44537959 3.6527388
3.2325609 -0.59729075 4.012362
0.4928937 -0.14704488 8.7348309
0.91596073 -0.23624907 8.7794867
2.2994583 -0.45421934 9.0617228
6.3535519 -1.2244732 17.649908
1.6313804 -0.3095938 3.4971879
2.5083115 -0.47202972 4.2450237
2.1411614 -0.40023437 2.9591074
2.5075452 -0.46648639 2.8432932
2.0983865 -0.38317069 2.1759706
2.4844275 -0.45234063 2.1185744
3.2359016 -0.58743775 2.2408381
3.2705474 -0.59255642 1.8264135
3.3675203 -0.60892075 1.4709492
2.1296134 -0.3919524 2.009758
3.0240262 -0.55496562 2.3222425
2.7961013 -0.51213253 1.7560353
3.3228185 -0.60682303 1.6489269
10.933237 -1.9868954 1.642084
0.07307411 -0.04975421 8.7089415
0.56801236 -0.11918039 3.6900496
1.7933857 -0.36520562 8.8224602
2.8002183 -0.55069417 9.1705837
1.5177323 -0.28967708 2.8988914
2.4032965 -0.45531419 3.6651375
3.2588046 -0.61391193 4.0468998
0.4923774 -0.14876449 8.7348309
0.91564602 -0.23958045 8.7844582
2.3089492 -0.46447536 9.105278
6.3441596 -1.2456464 17.635832
1.6003674 -0.30949724 3.4341707
2.5092099 -0.48127386 4.24929
2.0864718 -0.39755198 2.8872871
2.4925787 -0.47270951 2.8285925
2.2337692 -0.41595846 2.3126478
2.4177763 -0.44892904 2.0652206
3.2708352 -0.60558116 2.265511
3.2641034 -0.60316414 1.8240948
3.3471382 -0.61730844 1.463457
2.128232 -0.39938375 2.009758
3.1809916 -0.59525931 2.4399688
2.9044719 -0.54246861 1.821898
3.3340659 -0.62091112 1.6552211
10.980412 -2.0410228 3.9762383
7.7126007 -1.4294356 1.1862352
0.07289999 -0.050008982 8.7089415
0.56759286 -0.1211624 3.6900496
1.7980819 -0.37270442 8.8518314
2.8173058 -0.56427771 9.2326193
1.4814483 -0.28811222 2.8330553
2.3574848 -0.45516342 3.5990105
3.2503459 -0.62407464 4.0392246
0.49185511 -0.1504823 8.7348309
0.91480416 -0.2427752 8.7844582
2.3048511 -0.47202766 9.0956001
4.3075352 -0.84887552 9.1417103
2.5100744 -0.49053004 4.2535558
2.0850713 -0.40483272 2.8872871
2.5940983 -0.50135231 2.9425225
2.0851495 -0.39581516 2.1654568
2.400897 -0.45446992 2.0526669
3.1372178 -0.59217447 2.1777842
3.2358587 -0.60963321 1.8101819
3.3221827 -0.6247046 1.4540918
2.1194906 -0.40540713 2.0031071
3.222569 -0.61469084 2.4723437
2.881387 -0.54857242 1.8092321
3.3407958 -0.63423842 1.6594172
7.5031724 -1.4190798 1.9324638
7.7951517 -1.4728987 1.1986674
0.072724983 -0.050263148 8.7089415
0.56412971 -0.12248137 3.6702929
1.7997587 -0.37960953 8.8665171
2.8240945 -0.57589865 9.2612505
3.7594361 -0.753102 9.092205
1.499228 -0.29700649 2.8681679
2.3061821 -0.45361209 3.5246177
0.49132684 -0.15219828 8.7348309
0.9139511 -0.24596699 8.7844582
2.3056502 -0.48058343 9.105278
1.3097495 -0.26653123 3.6889291
4.2853365 -0.86005062 9.1011992
2.5288093 -0.50336283 4.2876835
2.7020998 -0.53201944 3.063803
2.0207312 -0.39089778 2.102375
2.5789223 -0.49750343 2.2001743
3.0283723 -0.58258247 2.1065061
4.29954 -0.82559234 2.3782878
3.3199818 -0.63629735 1.4540918
11.083208 -2.1162267 2.2337005
2.1327217 -0.41566044 2.0164089
3.228339 -0.62747842 2.4782298
2.8794546 -0.55862695 1.8092321
3.3519292 -0.64848244 1.6657113
7.507719 -1.4471021 1.9348085
0.072549082 -0.050516699 8.7089415
1.3829995 -0.3059344 9.0046911
1.8024046 -0.38674468 8.8860979
2.8279133 -0.58696699 9.2803392
3.7529559 -0.76543927 9.0829992
1.5404398 -0.31076634 2.9471714
2.1279967 -0.42627752 3.2601087
2.9284232 -0.58348364 3.6516364
0.4907926 -0.15391241 8.7348309
0.91308695 -0.24915576 8.7844582
2.3014996 -0.48810694 9.0956001
1.310501 -0.27145171 3.6936216
4.2737765 -0.8732605 9.0831938
2.4963646 -0.50596887 4.2364922
2.6171267 -0.52478302 2.9719238
1.9493757 -0.38415635 2.032284
2.5886276 -0.50875455 2.2095897
3.0099065 -0.58993274 2.0955403
4.1140418 -0.8048721 2.2808981
3.3222904 -0.64877093 1.4559649
10.863593 -2.1136234 2.1926653
2.1312578 -0.42310253 2.0164089
3.2261293 -0.63874358 2.4782298
2.7717624 -0.54777896 1.7459027
3.3941734 -0.66895539 1.6866918
7.531239 -1.4789197 1.9418423
0.07237231 -0.050769638 8.7089415
1.3766171 -0.30956528 8.9701166
1.804028 -0.3936857 8.9007835
2.8214657 -0.59590894 9.2660227
3.7617385 -0.780918 9.1106148
1.5698436 -0.32240742 3.0042293
2.0961661 -0.42751583 3.2146463
2.9138038 -0.59115273 3.6362863
0.49025235 -0.15562466 8.7348309
0.91221172 -0.25234154 8.7844582
2.2973244 -0.49560729 9.0859203
1.3078569 -0.27566841 3.6889291
4.2920156 -0.89260662 9.1282063
2.4639328 -0.50835466 4.1853008
2.812768 -0.57678014 3.8768129
2.6019926 -0.5312025 2.9572232
9.3151655 -1.8697457 9.4163628
2.6326349 -0.5269556 2.247251
2.9340198 -0.58570057 2.0461938
3.3154588 -0.65945953 1.4540918
11.015161 -2.1830454 2.2234418
2.1334276 -0.43127936 2.0197346
3.2001066 -0.64520746 2.4605711
2.8289979 -0.56935912 1.7813672
3.3962674 -0.68169242 1.6887898
11.186982 -2.2414479 4.0600572
7.5164986 -1.5032932 1.9394977
0.072194651 -0.051021952 8.7089415
1.3770431 -0.31471536 8.9799948
1.8046309 -0.40042198 8.910574
2.8091528 -0.60355842 9.2326193
1.484354 -0.31345922 3.6336112
1.6038731 -0.33523786 3.0700655
2.9085839 -0.60067195 3.6324492
0.48970613 -0.15733501 8.7348309
0.91132528 -0.25552419 8.7844582
2.2931249 -0.50308448 9.0762415
1.2984504 -0.27842188 3.6654651
1.6969508 -0.35901651 3.650229
2.4213054 -0.50837618 4.1170459
2.7812407 -0.5804382 3.8369129
2.8025956 -0.58235955 3.1814082
9.2387009 -1.8879694 9.3462725
5.9793844 -1.2186408 5.0028162
2.9114695 -0.59177399 2.0324864
3.2226901 -0.65387255 1.8078631
3.3131366 -0.67102861 1.4540918
2.1977372 -0.45227227 2.0795937
2.7932088 -0.57230806 1.7611017
3.313828 -0.67718655 1.6510248
10.887596 -2.2210202 3.9565165
12.18835 -2.4819477 3.0907135
0.072016113 -0.051273648 8.7089415
0.56085104 -0.12999395 3.6604142
1.8052083 -0.40716723 8.9203644
2.7968209 -0.61112922 9.1992149
1.4794307 -0.31781763 3.6244061
1.5909803 -0.33834264 3.0481203
2.1344295 -0.45086491 3.2766404
2.9346993 -0.61675465 3.6669865
0.48887968 -0.15895328 8.7298393
0.91042781 -0.25870374 8.7844582
2.2889011 -0.51053834 9.0665627
1.2856687 -0.28037724 3.6326158
1.7105845 -0.36814508 3.6817374
2.406764 -0.51410049 4.0957165
2.7379324 -0.58137929 3.7810524
2.8436644 -0.60125685 3.2291853
1.9766698 -0.41108489 2.0638249
5.9446049 -1.2331802 4.9777083
2.9093859 -0.6019333 2.0324864
3.1596529 -0.65257335 1.7753999
3.3107741 -0.68258953 1.4540918
2.2984705 -0.48137382 2.1727076
2.6613851 -0.55594498 2.0632443
2.8291743 -0.5899753 1.7839004
3.289227 -0.6841287 1.6405346
10.828918 -2.2484512 3.9384377
11.85121 -2.456409 3.0098236
0.071836695 -0.051524717 8.7089415
0.55661291 -0.13105781 3.6357181
1.8067535 -0.41414911 8.93505
2.7902989 -0.61991674 9.1848993
1.4764037 -0.32256266 3.6198037
1.5616996 -0.33781573 2.9954512
2.0695648 -0.44471249 3.1815827
3.0234258 -0.6464318 3.7782741
0.48832187 -0.16065882 8.7298393
0.90900713 -0.26173207 8.7794867
2.2846537 -0.51796889 9.0568848
1.2863667 -0.2852371 3.6373084
1.7220484 -0.37690756 3.7087448
2.425343 -0.52692896 4.1298437
2.7005424 -0.58329779 3.7331722
2.924407 -0.62900329 3.3210645
9.3683434 -1.9826965 9.4899588
5.9326477 -1.2523154 4.9714317
2.9768262 -0.62673104 2.0790915
3.1530206 -0.66268742 1.7730811
3.3083713 -0.6941421 1.4540918
11.771135 -2.4655328 3.6249919
2.5304894 -0.53919923 2.3855395
2.647567 -0.5627104 2.054415
2.8861344 -0.61237448 1.8193648
3.2468574 -0.68714839 1.6216521
10.419047 -2.2013123 3.7954524
9.9401665 -2.0965178 2.5408964
7.8449717 -1.6531842 1.2104089
0.071656398 -0.051775161 8.7089415
0.5553965 -0.13281871 3.6307788
1.8052969 -0.42045331 8.93505
2.7939422 -0.63096863 9.2039871
1.4809902 -0.3289859 3.6336112
1.5301037 -0.33657399 2.9383934
2.0872438 -0.45614034 3.2105134
3.0148869 -0.6556192 3.7705991
0.48775807 -0.1623624 8.7298393
0.90808803 -0.26490352 8.7794867
2.2803819 -0.52537596 9.047205
1.3005137 -0.29314274 3.6795435
1.7207223 -0.38291633 3.7087448
2.4642346 -0.54439503 4.1980987
2.5572221 -0.56168705 3.5416508
2.9884303 -0.65369791 3.3945677
9.5147657 -2.0484123 9.6441584
5.920629 -1.271382 4.9651546
2.9787092 -0.63799411 2.0818329
3.1506882 -0.67368948 1.7730811
3.305928 -0.70568627 1.4540918
11.682697 -2.4896095 3.6010215
10.21485 -2.1730838 2.0742226
2.7803752 -0.60260457 2.6149991
2.712749 -0.58646971 2.1044486
2.8123453 -0.6069836 1.7763008
3.2266915 -0.69465691 1.6132599
10.425151 -2.2406452 3.8003829
10.208431 -2.1903458 2.6088908
7.8052592 -1.6732919 1.2055743
0.071508355 -0.052053377 8.7139416
0.55643928 -0.13512437 3.6406572
1.8127356 -0.42886367 8.9791069
2.7917228 -0.64071745 9.2039871
1.4779271 -0.33372298 3.6290085
1.535931 -0.34348154 2.9515605
2.1048677 -0.46769691 3.239444
2.9155614 -0.64468396 3.6516364
0.48718837 -0.16406401 8.7298393
0.90715778 -0.26807174 8.7794867
2.2748623 -0.53247297 9.0326862
1.2978004 -0.29729503 3.6748505
1.7130054 -0.38747913 3.6952412
2.411427 -0.54156178 4.1127801
2.4258509 -0.54171044 3.3660898
3.042388 -0.67663878 3.4570456
2.5192015 -0.55151498 2.6140387
5.9541817 -1.3003463 4.9965391
2.9682927 -0.6466077 2.07635
3.0314445 -0.65926504 1.7104735
3.2943838 -0.71525455 1.4503458
9.9017992 -2.1462538 3.0680292
10.418453 -2.2544396 2.115258
2.8329487 -0.62436146 2.6648817
2.8212211 -0.6202383 2.186857
2.8102093 -0.61679685 1.7763008
3.1887791 -0.69815028 1.5964756
10.12949 -2.2104223 2.5913062
7.8671079 -1.7152963 1.2152437
0.071326219 -0.05230267 8.7139416
0.55596417 -0.13706587 3.6406572
1.8201374 -0.43733108 9.0231647
2.7909231 -0.65079755 9.2087593
1.4767532 -0.33887988 3.6290085
1.5277166 -0.34724784 2.9383934
2.108712 -0.47628158 3.2477098
2.8413682 -0.63868779 3.563374
0.48688567 -0.1658576 8.7348309
0.9062165 -0.27123666 8.7794867
2.2705441 -0.53982878 9.0230074
1.6925483 -0.38906556 3.6547303
2.4018939 -0.54823446 4.0999818
2.2564511 -0.51215202 3.1386585
3.0962214 -0.69996417 3.5195234
2.2352965 -0.49753702 2.3301704
6.0028024 -1.3329352 5.0404773
2.8680382 -0.63526148 2.0105548
2.9512694 -0.65262538 1.6687351
3.2963943 -0.72774917 1.4522189
9.7958698 -2.159121 3.0384183
10.818305 -2.3805249 2.1945305
2.8380389 -0.63587928 2.6715326
3.2016709 -0.71561086 2.4723437
2.7785881 -0.62003022 1.7585685
3.2040431 -0.71322167 1.6048678
9.789547 -2.1720672 2.509244
0.071143217 -0.052551325 8.7139416
0.55548233 -0.13900572 3.6406572
1.8284913 -0.44609687 9.0721169
2.7900865 -0.66087985 9.2135305
1.4736587 -0.34358883 3.6244061
1.5334957 -0.35419592 2.9515605
2.0576687 -0.47230551 3.1733167
2.8359966 -0.64788818 3.5595365
0.48630375 -0.16755614 8.7348309
0.9052642 -0.2743983 8.7794867
2.2662027 -0.54716092 9.0133295
1.6254644 -0.37961835 3.5151925
2.3898032 -0.55425793 4.0829182
2.1900547 -0.50512427 3.050878
3.1135836 -0.71532267 3.5415745
2.1118052 -0.47778946 2.2075114
5.9449582 -1.3418822 4.9965391
2.8984377 -0.65261739 2.0324864
2.8711786 -0.64543426 1.6269966
3.2485998 -0.72909886 1.4334885
9.7882738 -2.1933019 3.0384183
10.781167 -2.4118388 2.1889348
2.8940508 -0.6590479 2.7247405
2.7679987 -0.62781829 1.7535021
3.0820155 -0.69735724 1.5482204
10.564256 -2.3826797 2.7026763
0.070959345 -0.05279934 8.7139416
0.55574679 -0.14113568 3.6455965
1.8358179 -0.45468131 9.1161737
2.7892139 -0.6709643 9.2183027
1.4705493 -0.34828037 3.6198037
2.0094197 -0.46861815 3.1030567
2.6682408 -0.61936736 3.3561487
0.4857159 -0.16925263 8.7348309
0.90430087 -0.27755657 8.7794867
2.2618372 -0.55446929 9.0036507
1.5605859 -0.37021035 3.380156
2.3853157 -0.56199837 4.0786529
2.1296029 -0.49901459 2.9710774
3.0978622 -0.723104 3.5268738
2.1205511 -0.48755571 2.218025
2.8445215 -0.6524747 2.4355586
2.830925 -0.64780617 1.988623
2.9164116 -0.6663062 1.6525035
3.2867131 -0.74971336 1.4503458
9.7197533 -2.213608 3.0200882
10.787052 -2.4527249 2.1917326
2.9026456 -0.67167151 2.7347171
2.7489877 -0.63360357 1.7433695
3.0264852 -0.69590622 1.5230438
7.806283 -1.792156 2.8767309
9.5751581 -2.194747 2.4600067
11.121476 -2.5471475 1.6835248
0.070741884 -0.053017855 8.7089415
0.55525076 -0.14307474 3.6455965
1.8460689 -0.46406743 9.1749163
2.788305 -0.68105066 9.2230749
1.4655257 -0.35249728 3.6105986
2.01051 -0.47627831 3.1071897
2.2698662 -0.53523958 2.8687856
0.48512214 -0.17094707 8.7348309
0.90332651 -0.2807115 8.7794867
2.2562284 -0.56145012 8.9891319
6.3364468 -1.5456508 17.790691
1.5338879 -0.36953503 3.3261416
2.3605118 -0.56485772 4.0402594
2.0545642 -0.48900011 2.8713269
3.0095534 -0.71357578 3.4313195
1.9035269 -0.44465265 2.0007432
2.7436681 -0.63942838 2.3539586
2.7960641 -0.65010786 1.9666914
2.8579726 -0.66345948 1.622359
3.2976248 -0.76432204 1.4559649
10.965085 -2.5334918 2.2281048
2.7585309 -0.64847344 2.6050224
2.6115906 -0.61249548 2.036756
2.7383647 -0.64122969 1.7383031
2.9179695 -0.68168586 1.4726905
7.9977236 -1.8655198 2.9474015
9.7994022 -2.2821794 2.5174503
11.117339 -2.5870752 1.6842154
0.070556387 -0.053264465 8.7089415
0.55549949 -0.14520907 3.6505358
1.8454243 -0.47076043 9.1798115
2.7888083 -0.69149822 9.2326193
1.4642864 -0.35761076 3.6105986
2.0334582 -0.48921853 3.1443861
2.7043738 -0.64768595 3.4060364
0.48452246 -0.17263941 8.7348309
0.90183288 -0.28370243 8.7745152
2.2518177 -0.56870663 8.9794531
6.3427377 -1.5706637 17.823542
1.5347033 -0.37540451 3.3306429
2.3559914 -0.57247806 4.0359931
2.0967782 -0.50678933 2.9311771
2.9246459 -0.70423377 3.3394403
1.8984931 -0.45047101 1.9972385
2.726269 -0.64541471 2.3414049
2.7612224 -0.65217417 1.9447596
4.2008352 -0.99067879 2.3458247
3.2904243 -0.77476567 1.4540918
2.8252523 -0.67457533 2.6682072
2.6290965 -0.62629151 2.0514717
2.7277222 -0.64878935 1.7332367
2.9155722 -0.69186735 1.4726905
8.0325174 -1.9032243 2.9621933
9.9805784 -2.3611321 2.564343
0.070370026 -0.053510431 8.7089415
0.55498922 -0.14714724 3.6505358
1.8467269 -0.47796518 9.1944971
2.7892728 -0.70195764 9.2421637
1.4516521 -0.35989803 3.5829835
2.0235376 -0.49430999 3.1319873
2.3719652 -0.57682782 2.9992607
0.48391691 -0.17432965 8.7348309
0.90083706 -0.28684866 8.7745152
2.2473838 -0.57593918 8.9697742
3.2627997 -0.81998378 9.2029295
1.5439471 -0.38338333 3.3531489
2.3539786 -0.58069849 4.0359931
2.1359661 -0.52416098 2.9870377
2.905704 -0.71041232 3.3210645
1.8761072 -0.45208195 1.9762113
2.6710169 -0.64218771 2.2974665
2.7020042 -0.64815271 1.906379
4.0164175 -0.96199822 2.248435
3.3598402 -0.8034994 1.4840603
2.8228803 -0.68443316 2.6682072
2.6151083 -0.63261366 2.0426424
2.7170603 -0.65628254 1.7281704
2.904315 -0.69991374 1.4684943
7.9294124 -1.9080514 2.9276798
0.070182815 -0.053755738 8.7089415
0.55372202 -0.14888135 3.6455965
1.846032 -0.48466727 9.1993933
2.7911441 -0.71279806 9.2564783
2.0299935 -0.50340271 3.1443861
2.1272182 -0.525172 2.6999354
0.48330542 -0.17601779 8.7348309
0.89983028 -0.28999144 8.7745152
2.2429266 -0.58314764 8.9600954
3.2732944 -0.83478028 9.2404718
1.532045 -0.3861095 3.3306429
2.379766 -0.59588134 4.0829182
2.1370473 -0.53234208 2.9910276
2.9887545 -0.74178517 3.4166188
2.0962169 -0.51287746 2.2005022
2.6196027 -0.63950622 2.2566667
2.7200384 -0.66252857 1.9200864
3.338995 -0.81084639 1.4765682
2.7189593 -0.66929191 2.5750933
2.6599879 -0.65330803 2.07796
2.7063797 -0.66370928 1.723104
2.879812 -0.70465368 1.4580041
7.9272914 -1.9368395 2.9293232
0.069994748 -0.054000396 8.7089415
0.5517 -0.15040348 3.6357181
1.844329 -0.49110818 9.1993933
2.7915289 -0.72328562 9.2660227
2.2176116 -0.56143177 4.2595062
2.0227661 -0.50911176 3.1361201
2.1378086 -0.53571105 2.7152855
0.48268804 -0.17770377 8.7348309
0.89881247 -0.29313067 8.7745152
2.2396619 -0.59065264 8.9552555
3.2703605 -0.84620106 9.2404718
1.5285789 -0.39091542 3.3261416
2.375144 -0.60354227 4.0786529
2.8947179 -0.73185116 4.0284338
2.9335482 -0.73896235 3.3578162
2.2293956 -0.55372113 2.3371794
2.5569067 -0.63366473 2.2064514
2.7095907 -0.6700117 1.9146035
2.5789557 -0.644382 2.448724
2.6380818 -0.65769994 2.0632443
2.7165956 -0.6762765 1.7307036
2.9257858 -0.72673714 1.4810827
0.069805823 -0.054244395 8.7089415
0.55042285 -0.15212084 3.6307788
1.8435862 -0.49780864 9.2042875
2.7933183 -0.73416406 9.2803392
3.6812763 -0.95394278 9.0185642
2.2086794 -0.56738132 4.2463388
2.0182502 -0.51547295 3.1319873
2.1390319 -0.54396021 2.7191229
0.48206481 -0.17938757 8.7348309
0.89778382 -0.29626632 8.7745152
2.235158 -0.59781712 8.9455767
3.2824087 -0.8615554 9.2827063
1.5229907 -0.39515501 3.3171391
2.3780735 -0.61313182 4.0871844
2.95052 -0.75692827 4.1082344
2.9309506 -0.74919784 3.3578162
2.3069842 -0.58155149 2.417784
2.5584538 -0.64353561 2.2095897
2.7315693 -0.68557352 1.9310523
2.9104118 -0.72939062 1.6571411
2.6635516 -0.67540795 2.5285361
2.6318512 -0.66591299 2.0603011
2.7183979 -0.68681103 1.7332367
2.8792231 -0.7258507 1.4601021
10.267189 -2.5808289 2.6440606
0.06961605 -0.054487731 8.7089415
0.54689628 -0.15320075 3.6110218
1.8428193 -0.50450993 9.2091827
2.7950654 -0.74506384 9.2946548
3.6892607 -0.96976745 9.0461798
1.3955429 -0.36364958 2.7101612
2.0109904 -0.52110279 3.1237214
3.2730248 -0.84455395 4.1236496
0.48143569 -0.18106921 8.7348309
0.89623868 -0.29922894 8.7695436
2.2318444 -0.60528648 8.9407377
3.2943897 -0.87700415 9.3249416
1.5173917 -0.39936033 3.3081367
2.3759186 -0.62142915 4.0871844
2.8370485 -0.73837942 3.9566133
2.918473 -0.75687081 3.3467906
2.2911203 -0.58606529 2.4037659
2.5297923 -0.6457234 2.1876206
2.6521704 -0.67549437 1.8789644
2.9078481 -0.7395454 1.6571411
2.628634 -0.67632735 2.4986067
2.6412561 -0.67811149 2.0691307
2.7452142 -0.70379001 1.7509691
2.867878 -0.73364693 1.455906
10.319345 -2.6322701 2.6593006
0.069425426 -0.054730408 8.7089415
0.54785281 -0.15553431 3.6209002
1.8420281 -0.51121199 9.2140779
2.7967706 -0.75598478 9.3089705
3.6801901 -0.98112953 9.0323725
1.3896343 -0.36729434 2.7013831
2.0064378 -0.52740371 3.1195884
3.3010643 -0.8640911 4.1620245
0.48053122 -0.18264517 8.7298393
0.89518875 -0.30235559 8.7695436
2.2285063 -0.6127401 8.9358988
3.2913084 -0.88849837 9.3249416
1.5117818 -0.40353137 3.2991343
2.7936661 -0.73750901 3.9007533
2.909256 -0.76532847 3.3394403
2.2718012 -0.58957964 2.3862433
2.5463629 -0.65942943 2.2033129
2.5971668 -0.67114693 1.8433253
2.9095383 -0.75079817 1.6594599
2.6732223 -0.69775867 2.5418379
2.6388729 -0.68732709 2.0691307
2.7469125 -0.71445346 1.7535021
2.8477278 -0.73909253 1.4475138
0.069233961 -0.054972414 8.7089415
0.54879969 -0.15787643 3.6307788
1.8412126 -0.51791459 9.2189732
2.7984335 -0.76692665 9.323287
3.672971 -0.99294996 9.0231667
1.3860303 -0.37152255 2.6969938
1.9991463 -0.53295428 3.1113224
3.2329719 -0.85833514 4.0814366
0.47989073 -0.18432142 8.7298393
0.89412791 -0.30547851 8.7695436
2.225143 -0.62017769 8.9310589
3.2965088 -0.90225995 9.3484049
1.516668 -0.4105128 3.3126378
2.7619674 -0.73946244 3.8608527
2.9000156 -0.77373087 3.3320899
2.2800756 -0.60022998 2.3967569
2.5402811 -0.66732484 2.2001743
2.5745847 -0.67490685 1.8296181
2.8511896 -0.74636561 1.6293155
2.7321303 -0.72333199 2.5983715
2.6911681 -0.71098942 2.1103349
2.6860478 -0.70864147 1.7180376
2.8231857 -0.74325085 1.4370235
0.069041647 -0.055213749 8.7089415
0.5497368 -0.16022702 3.6406572
1.8403727 -0.52461779 9.2238684
2.8014922 -0.77828896 9.3423748
3.6675982 -1.0052484 9.0185642
1.384725 -0.37635842 2.6969938
1.9972738 -0.53992939 3.1113224
3.2206712 -0.86711502 4.0699244
0.47924441 -0.18599543 8.7298393
0.89305609 -0.30859774 8.7695436
2.2229648 -0.62794113 8.9310589
3.2916765 -0.91329992 9.3437119
1.5215236 -0.41753328 3.3261416
2.6866698 -0.72936058 3.7611022
2.880935 -0.77942204 3.3137143
2.5341749 -0.67518586 2.1970358
2.592418 -0.68926203 1.8433253
2.8057525 -0.74494553 1.6061275
2.8017094 -0.75222975 2.6648817
2.7355213 -0.73293281 2.1456528
2.6335859 -0.70464212 1.6876395
2.8161893 -0.7519303 1.4349256
0.068848491 -0.055454414 8.7089415
0.5514093 -0.16280663 3.6554751
1.8404866 -0.53160411 9.2336597
2.8030689 -0.78927726 9.3566904
3.662185 -1.0175216 9.0139618
2.0062327 -0.54987377 3.1278543
3.0321002 -0.82770264 3.8396745
0.47859225 -0.18766718 8.7298393
0.8919735 -0.31171322 8.7695436
2.2195506 -0.63535076 8.9262199
3.2868071 -0.92431724 9.3390188
1.5263487 -0.42459261 3.3396454
1.9095246 -0.52801335 3.3107843
2.6550558 -0.73073763 3.7212021
2.8945432 -0.79395783 3.3320899
2.6441567 -0.71586031 2.7717433
2.5280452 -0.68301243 2.1938975
2.6384432 -0.71136999 1.876223
2.7518053 -0.74091393 1.5783019
2.8026693 -0.76298577 2.6682072
2.7524493 -0.74777597 2.1603687
2.5770254 -0.6991564 1.6547081
0.0686545 -0.055694401 8.7089415
0.5523262 -0.1651767 3.6653535
1.8395971 -0.53831148 9.238555
2.8117795 -0.80233449 9.3948669
3.6548495 -1.0292394 9.0047569
1.7372885 -0.48526371 3.3729122
2.0097237 -0.55838037 3.1361201
2.8531129 -0.78954959 3.6209364
0.47793424 -0.18933663 8.7298393
0.89087993 -0.31482488 8.7695436
2.2173195 -0.6430946 8.9262199
3.2835605 -0.9357847 9.3390188
1.5311428 -0.43169072 3.3531489
1.9252484 -0.53960341 3.3406458
2.6495864 -0.73919123 3.717212
2.8819556 -0.80133212 3.3210645
2.68291 -0.73641425 2.8137977
2.5031214 -0.68566245 2.1750667
2.6359441 -0.72057557 1.876223
2.7321086 -0.74584836 1.5690267
2.8143854 -0.77673793 2.681509
2.7537191 -0.75845253 2.1633117
2.6036642 -0.71615088 1.6724405
0.068459675 -0.055933714 8.7089415
0.55472022 -0.16800667 3.6851106
1.838683 -0.54501915 9.2434502
2.8060937 -0.81131512 9.3853226
3.6493561 -1.0414548 9.0001545
1.7494104 -0.49524009 3.3992465
2.0213056 -0.5692066 3.156785
2.7608421 -0.77439803 3.5096488
0.47727042 -0.19100377 8.7298393
0.88977557 -0.31793272 8.7695436
2.2150609 -0.65083057 8.9262199
3.278616 -0.94676185 9.3343267
1.5379992 -0.43942565 3.3711536
1.9233531 -0.5463205 3.3406458
6.5265899 -1.8455204 9.0558643
2.7812498 -0.78379738 3.2108095
2.6597087 -0.74003857 2.7927706
2.5007126 -0.69439578 2.1750667
2.7019155 -0.74875689 1.922828
2.7721817 -0.76719642 1.5922148
2.7864871 -0.77951539 2.6582305
2.7627339 -0.77132118 2.1721413
2.6011484 -0.72523499 1.6724405
0.068264015 -0.056172337 8.7089415
0.55190229 -0.16925696 3.6702929
1.8377442 -0.55172694 9.2483444
2.8046772 -0.82152498 9.3900948
3.643822 -1.0536444 8.9955521
1.745369 -0.50068313 3.3948576
2.0328362 -0.58012056 3.1774499
2.755039 -0.78315401 3.5058112
0.4766008 -0.1926686 8.7298393
0.88866037 -0.3210367 8.7695436
2.2139807 -0.65891737 8.9310589
3.2752912 -0.95820063 9.3343267
1.5448201 -0.44721365 3.3891585
6.5056248 -1.8641409 9.0359144
8.0528603 -2.2999249 9.1572256
2.6674063 -0.7522223 2.8032842
2.5357411 -0.71366638 2.2064514
2.7033107 -0.75931454 1.9255693
2.7694869 -0.77686846 1.5922148
2.7945256 -0.79229289 2.6682072
2.7600248 -0.7809602 2.1721413
2.6027493 -0.73548251 1.6749736
0.068067521 -0.056410283 8.7089415
0.5505662 -0.1709515 3.6653535
1.8367814 -0.55843484 9.2532396
2.8003614 -0.83088547 9.3853226
3.6382468 -1.0658079 8.9909496
1.9229933 -0.55892205 3.7372057
2.0416117 -0.59034008 3.1939816
0.47592536 -0.19433108 8.7298393
0.88703388 -0.3239533 8.7645731
2.2116671 -0.66664153 8.9310589
3.2719264 -0.96962756 9.3343267
1.5495163 -0.45444185 3.4026623
2.2274485 -0.64955401 3.865356
6.4932904 -1.8851579 9.0279341
8.054553 -2.330848 9.168251
2.7984939 -0.79974872 2.9399614
2.5407205 -0.72464871 2.2127283
2.6926005 -0.76645654 1.9200864
2.7582362 -0.7841084 1.5875772
2.8025091 -0.80513591 2.6781836
2.7223132 -0.78056264 2.1456528
2.5587237 -0.73269564 1.6496419
9.1781445 -2.6230927 4.5001802
0.0678702 -0.056647539 8.7089415
0.54700184 -0.17193823 3.6455965
1.835794 -0.56514269 9.2581348
2.7974439 -0.84065551 9.3853226
3.6307583 -1.0773896 8.9817438
1.9348152 -0.5696907 3.76354
2.0611427 -0.60379279 3.2270451
2.1772056 -0.63534182 2.7920356
0.47524408 -0.19599117 8.7298393
0.8858977 -0.32704768 8.7645731
2.2105289 -0.67472476 8.9358988
3.2685218 -0.98104286 9.3343267
1.5625278 -0.46418864 3.4341707
2.220165 -0.65584731 3.8568239
6.48667 -1.9078124 9.0279341
8.0723934 -2.3665793 9.1976519
2.8367913 -0.8214159 2.9820161
2.5493932 -0.73675513 2.2221434
2.6015205 -0.75035572 1.8597742
2.7852795 -0.80231518 1.6038088
2.7925115 -0.81282645 2.6715326
2.7001643 -0.78442204 2.1309371
2.5354505 -0.73561662 1.6369759
9.1122589 -2.6387029 4.4729052
0.067672044 -0.056884106 8.7089415
1.3651255 -0.43497831 9.1084156
1.8347822 -0.57185054 9.2630301
2.7930644 -0.84998059 9.3805504
3.6269753 -1.0900568 8.9817438
1.8937987 -0.56480241 3.6889257
2.0752087 -0.61578768 3.2518427
2.1964905 -0.64929885 2.818898
0.47455707 -0.1976489 8.7298393
0.88475066 -0.330138 8.7645731
2.2105615 -0.68317926 8.9455767
3.2683799 -0.99345011 9.3437119
1.5734056 -0.47340438 3.4611781
2.1803842 -0.65237772 3.792835
6.4799714 -1.9304433 9.0279341
8.0640831 -2.394743 9.1976519
2.8339067 -0.83131319 2.9820161
5.5986929 -1.6392403 4.7862625
2.5266411 -0.73832011 1.8104278
2.7994714 -0.81699699 1.6130838
2.7681692 -0.81623274 2.6515796
2.6741443 -0.78699523 2.1132779
2.5949047 -0.76269758 1.6749736
8.9766989 -2.6334438 4.4120622
0.067473069 -0.05711998 8.7089415
0.54800642 -0.17646883 3.6604142
1.8337457 -0.57855815 9.2679262
2.7986395 -0.86236304 9.4091825
3.6212792 -1.1021417 8.9771414
1.8895229 -0.57071692 3.6845365
2.0299282 -0.61006707 3.1857157
2.2249162 -0.66615665 2.8572731
0.47386426 -0.19930421 8.7298393
0.8835929 -0.33322439 8.7645731
2.209363 -0.69126695 8.9504166
3.2500486 -1.0002835 9.3014774
1.58632 -0.4833363 3.4926865
2.1681099 -0.656959 3.7757714
6.4818478 -1.9556623 9.0399046
8.0297031 -2.4150658 9.168251
2.8344061 -0.84221625 2.9855206
5.6190581 -1.6665208 4.8082318
2.5200393 -0.74594831 1.8076863
2.7541223 -0.81420487 1.589896
2.7688808 -0.82695901 2.6549051
2.6442664 -0.78824174 2.0926759
2.8111997 -0.83694643 1.8092321
8.9761524 -2.6673481 4.4162583
0.067273274 -0.057355154 8.7089415
1.3391593 -0.43701872 8.9552994
1.8326851 -0.58526552 9.2728214
2.804162 -0.87479472 9.4378147
3.6211443 -1.1159265 8.9863472
1.8508757 -0.56609911 3.6143112
2.022402 -0.61551017 3.1774499
2.2133753 -0.67112857 2.8457606
0.4729003 -0.20084336 8.7248468
0.88242429 -0.33630666 8.7645731
2.2093332 -0.69973415 8.9600954
3.246537 -1.0116222 9.3014774
1.6033446 -0.49464795 3.5331974
1.5923517 -0.48854446 2.7946064
6.4807448 -1.9800371 9.047884
7.9985228 -2.4361651 9.1425247
2.8246191 -0.85004938 2.9785113
2.5676327 -0.77125007 2.2441127
2.4933884 -0.74753505 1.7912376
2.6724546 -0.8068133 2.1162212
2.8123884 -0.84799874 1.8117652
8.8929062 -2.6764286 4.3805914
0.06707266 -0.057589632 8.7089415
1.3302481 -0.43925217 8.9059067
1.8315997 -0.59197253 9.2777166
2.8010914 -0.88457775 9.4378147
3.6190917 -1.1291418 8.9909496
1.8488884 -0.57255644 3.6143112
2.0014167 -0.61676395 3.148519
0.47219637 -0.20249286 8.7248468
0.88124502 -0.33938485 8.7645731
2.2092712 -0.70820957 8.9697742
3.2117178 -1.0130837 9.2123156
1.5995302 -0.49959248 3.5286961
1.5458061 -0.48017099 2.7178197
6.4853091 -2.0062094 9.0638447
7.9543352 -2.4530802 9.1020985
2.4643817 -0.7496224 2.1593745
2.4827619 -0.75380439 1.7857547
9.7353201 -2.9485121 4.1980848
2.3346338 -0.71504688 2.2558451
2.5034101 -0.7653209 1.9896654
2.8259027 -0.86284631 1.821898
8.8531199 -2.6981921 4.3659048
0.066871226 -0.057823408 8.7089415
1.3242853 -0.4424144 8.8762703
1.8314575 -0.59899569 9.2875061
2.8036737 -0.89616817 9.4569016
3.6188543 -1.1429448 9.0001545
1.8628757 -0.584023 3.6450353
1.9911929 -0.62123179 3.1361201
2.634078 -0.81883043 3.3791735
0.47148666 -0.2041399 8.7248468
0.88055146 -0.34265277 8.7695436
2.2091765 -0.71669298 8.9794531
3.1867909 -1.017464 9.151309
1.5915498 -0.50320357 3.5151925
6.4753909 -2.0279343 9.0598545
7.9424877 -2.4798207 9.098423
2.7913544 -0.86133528 2.950475
2.4468706 -0.7536369 2.1468205
2.4841123 -0.76369506 1.788496
9.5343847 -2.9240277 4.1175447
2.3356898 -0.72429788 2.2591705
2.477556 -0.76688319 1.9720063
2.826992 -0.87397856 1.8244312
8.9043617 -2.7478149 4.3952775
0.066668972 -0.058056481 8.7089415
1.3205249 -0.44628739 8.8614531
1.8303221 -0.60570502 9.2924013
2.8062093 -0.90778762 9.4759903
3.6185641 -1.1567597 9.0093594
1.8402809 -0.58400095 3.6055334
1.9729121 -0.62309295 3.1113224
2.6678927 -0.83956695 3.4252236
0.47077119 -0.20578445 8.7248468
0.87935001 -0.34572437 8.7695436
2.2102442 -0.7255767 8.9939709
3.1667995 -1.023275 9.1043806
1.5524639 -0.49680993 3.4341707
2.2829821 -0.72672606 3.989068
6.4539108 -2.0459723 9.0399046
7.9273176 -2.5054867 9.091073
2.8496027 -0.89021647 3.013557
2.6820376 -0.83633494 2.3476818
2.5093787 -0.78106081 1.8076863
8.5235281 -2.6465991 3.6942391
2.3331473 -0.73244655 2.2591705
2.6137176 -0.81904089 2.07796
7.4974165 -2.3466337 4.7021227
0.066465914 -0.058288846 8.7089415
1.3189591 -0.45089418 8.8614531
1.8253003 -0.61112016 9.2777166
3.616363 -1.1699854 9.0139618
1.8291101 -0.58749098 3.5879772
1.9519628 -0.62397718 3.082392
2.7687824 -0.88195312 3.5556989
0.47005001 -0.2074265 8.7248468
0.87813789 -0.34879175 8.7695436
2.2100835 -0.73408014 9.0036507
3.1599283 -1.0332502 9.0949965
1.5113717 -0.48947886 3.3486478
2.2829134 -0.73549062 3.9933336
6.4381218 -2.0657263 9.0279341
7.9120655 -2.5310767 9.0837221
2.9076827 -0.9195146 3.0766389
2.6494076 -0.83631796 2.3225741
2.5146134 -0.79232889 1.8131692
8.9343824 -2.8084035 3.8721774
2.327018 -0.73945552 2.2558451
2.684046 -0.85138094 2.1338801
2.8783543 -0.91192156 1.8598957
0.066292346 -0.058551889 8.7139416
1.3173771 -0.45549545 8.8614531
1.8212272 -0.61683428 9.2679262
2.6921139 -0.89167887 9.1133194
3.6141136 -1.1832097 9.0185642
4.6513257 -1.5120804 9.0304346
1.9497727 -0.63078707 3.082392
2.7687378 -0.89259613 3.5595365
0.46932307 -0.209066 8.7248468
0.87691504 -0.35185489 8.7695436
2.2098908 -0.74259138 9.0133295
3.1513875 -1.0426477 9.0809174
1.5117224 -0.49542966 3.3531489
2.2877712 -0.7458806 4.0061316
6.4222741 -2.0853951 9.0159636
7.9096332 -2.5607681 9.091073
2.7957673 -0.89486736 2.9644933
2.598273 -0.83016014 2.2817743
2.5277669 -0.80618399 1.8241352
2.3493037 -0.75557661 2.2791235
2.7118459 -0.87062979 2.1574254
7.2797112 -2.3344162 4.5779963
9.380827 -3.002794 4.6407499
0.066087559 -0.058782939 8.7139416
1.3157791 -0.46009117 8.8614531
1.8161734 -0.62219739 9.2532396
2.6889849 -0.90107071 9.1133194
3.6081069 -1.1952037 9.0139618
4.6005187 -1.5133389 8.9426537
1.9769763 -0.64722127 3.1278543
2.7290392 -0.89032507 3.5134864
0.46859047 -0.21070299 8.7248468
0.87518775 -0.35471299 8.7645731
2.2096651 -0.75111008 9.0230074
3.1428192 -1.0519981 9.0668392
1.5203152 -0.50413024 3.3756549
2.2653399 -0.74732447 3.9720042
6.4092307 -2.1059189 9.0079842
7.8942022 -2.5862515 9.0837221
2.6908467 -0.87164885 2.8593569
2.5583246 -0.82724857 2.2503896
2.516979 -0.81243366 1.8186522
2.3608537 -0.76839519 2.2924254
2.6818812 -0.87134737 2.1368234
7.2182145 -2.342514 4.5450654
0.065881968 -0.05901327 8.7139416
1.3141651 -0.46468133 8.8614531
1.8120664 -0.62786627 9.2434502
2.6844096 -0.90997225 9.1085472
3.6039128 -1.207791 9.0139618
4.5770283 -1.5233374 8.9075413
1.9506639 -0.64615345 3.0906579
2.6802597 -0.88477331 3.455924
0.46785212 -0.21233737 8.7248468
0.87394422 -0.35776582 8.7645731
2.2094069 -0.75963622 9.0326862
3.1325901 -1.0607481 9.048068
1.5123545 -0.50735641 3.3621514
2.2454004 -0.74944669 3.9421425
6.396122 -2.1263773 9.0000038
7.8947811 -2.6169918 9.0947475
2.5725682 -0.84326553 2.7402024
2.5332258 -0.82891047 2.231559
2.5618246 -0.83679515 1.8515497
2.3794353 -0.78363973 2.3123786
2.6519446 -0.87186635 2.1162212
7.1936111 -2.3623161 4.5349321
0.065675564 -0.059242882 8.7139416
1.312535 -0.46926576 8.8614531
1.8069811 -0.63317704 9.2287636
2.716516 -0.93144327 9.2278471
3.5922744 -1.2178544 8.9955521
4.5762229 -1.5408337 8.9163198
1.9724097 -0.66100729 3.1278543
2.6710746 -0.89209294 3.4482489
0.46710807 -0.2139692 8.7248468
0.87219775 -0.36061001 8.7596016
2.2091162 -0.76816982 9.042366
3.1223381 -1.0694393 9.0292969
1.5126358 -0.51333219 3.3666525
2.2279453 -0.75227338 3.9165471
6.3858042 -2.1477304 8.9960136
1.9103738 -0.6406123 2.2626171
2.4612918 -0.81631291 2.628057
2.5081468 -0.83040744 2.2127283
2.5747688 -0.85098147 1.8625156
2.3589742 -0.78603864 2.2957511
2.6335435 -0.87601453 2.1044486
7.1812305 -2.3860531 4.5323997
0.065468371 -0.059471767 8.7139416
1.3116196 -0.47410884 8.8663921
1.8038002 -0.63914055 9.2238684
2.72312 -0.94434428 9.2612505
1.8321809 -0.62395716 3.6143112
1.9887453 -0.67421353 3.156785
2.6557982 -0.89730698 3.4328988
0.46609667 -0.21547638 8.7198553
0.87093365 -0.36365235 8.7596016
2.2087929 -0.77671069 9.0520449
3.1120639 -1.078072 9.0105257
1.5087757 -0.5179022 3.3621514
2.2030938 -0.75245827 3.8781536
6.3725629 -2.1680665 8.9880342
1.975545 -0.67014939 2.3397954
2.7796197 -0.93268067 2.9609885
2.7562029 -0.92322826 2.4261432
2.643163 -0.88383359 1.911862
2.3491397 -0.79188269 2.2891002
2.5844991 -0.86973119 2.0691307
7.1687717 -2.4097321 4.5298662
0.065260373 -0.059699934 8.7139416
1.3099567 -0.4786844 8.8663921
1.7958072 -0.64337164 9.1944971
2.767698 -0.97064328 9.4234982
1.8164055 -0.62566811 3.5879772
2.0476019 -0.70214826 3.2518427
2.6253531 -0.89724219 3.3983612
0.46534166 -0.21710205 8.7198553
0.86965895 -0.36669025 8.7596016
2.2072527 -0.78483737 9.0568848
3.1001384 -1.0860753 8.9870615
1.5049022 -0.52245152 3.3576503
2.1610131 -0.74651712 3.8098986
6.3621063 -2.1893172 8.9840441
1.9731939 -0.67704129 2.3397954
2.7898552 -0.94696301 2.9750071
2.8266916 -0.95782787 2.4889123
2.67571 -0.90511394 1.9365352
2.3392932 -0.79766768 2.282449
2.5508363 -0.86832666 2.0455854
0.065051585 -0.059927374 8.7139416
1.3090066 -0.48352352 8.8713322
1.7868496 -0.64720792 9.1602306
2.7868023 -0.98828262 9.4998503
1.7644545 -0.61466819 3.4914172
2.0797007 -0.72127998 3.3055713
2.5919118 -0.89592868 3.3599863
0.46458098 -0.21872507 8.7198553
0.86837363 -0.36972371 8.7596016
2.2068651 -0.79338795 9.0665627
3.0898223 -1.0945849 8.9682913
1.5030694 -0.52770144 3.3576503
2.0919182 -0.73082852 3.6947184
6.3515801 -2.2105215 8.9800539
2.7522895 -0.95514458 3.2365358
2.7865326 -0.95669574 2.9750071
2.7386444 -0.93866128 2.4167278
2.6883593 -0.91986346 1.9475011
2.3294351 -0.80339354 2.2757981
2.5974731 -0.89433271 2.0838463
2.6717753 -0.91888213 1.7459027
0.064842008 -0.060154077 8.7139416
1.3073108 -0.48808986 8.8713322
1.778843 -0.65133971 9.1308594
2.8016016 -1.0045555 9.5618858
1.5127141 -0.53641075 3.8407245
1.7464861 -0.61525208 3.4606936
2.1462104 -0.7527532 3.4130278
2.5252299 -0.88275707 3.2793987
0.46381468 -0.22034544 8.7198553
0.86707783 -0.37275267 8.7596016
2.206445 -0.80194557 9.0762415
3.0778596 -1.1024537 8.9448271
1.5094241 -0.53585875 3.3756549
1.9590253 -0.69207668 3.4686239
6.3409834 -2.2316787 8.9760647
2.7905235 -0.97934151 3.2843127
2.752856 -0.95588773 2.9434662
2.5625045 -0.88829416 2.2692204
2.7878704 -0.96479821 2.0187793
2.330142 -0.81274968 2.2791235
2.6172383 -0.9113698 2.1015053
2.6766946 -0.93103528 1.7509691
0.064631633 -0.060380053 8.7139416
1.3063258 -0.49292472 8.8762703
1.7698746 -0.65506995 9.0965929
2.8008845 -1.0153463 9.5714293
1.5108324 -0.54168785 3.8407245
1.8007298 -0.64143962 3.5704205
2.1276569 -0.75459588 3.3882301
2.4103208 -0.85203749 3.1374109
0.46304271 -0.22196311 8.7198553
0.86577135 -0.37577704 8.7596016
2.2059917 -0.81050986 9.0859203
3.080483 -1.1155415 8.9635983
1.5054953 -0.54038876 3.3711536
2.0155413 -0.71996921 3.5710063
6.3303156 -2.252789 8.9720745
2.7615285 -0.98000509 3.2549114
2.8538113 -1.0021218 3.0521069
2.6842742 -0.94101697 2.3759279
2.8397393 -0.99386257 2.0571597
2.3272908 -0.82087845 2.2791235
2.625479 -0.924528 2.1103349
0.064420477 -0.060605291 8.7139416
1.3053232 -0.49775869 8.8812094
1.7618557 -0.6591025 9.0672216
2.8043311 -1.0276856 9.5952902
1.5199525 -0.5509541 3.8683398
1.8029864 -0.6493448 3.5791988
2.0905752 -0.74966848 3.3345017
2.2081304 -0.78923905 2.8841357
0.46226507 -0.22357808 8.7198553
0.86445439 -0.37879688 8.7596016
2.2043273 -0.81864297 9.0907602
3.0814316 -1.1280675 8.9776773
1.5281556 -0.55455387 3.4251683
2.0154691 -0.7278865 3.5752723
6.3195782 -2.2738521 8.9680843
2.8570175 -1.0144641 3.0591161
2.6699672 -0.94647944 2.3665125
2.8480783 -1.0079544 2.0653841
2.3244112 -0.82899719 2.2791235
2.6031966 -0.92690754 2.095619
0.06420853 -0.060829792 8.7139416
1.3043027 -0.50259167 8.8861494
1.7566872 -0.66416776 9.0525351
2.8105245 -1.0410985 9.6286936
1.5161856 -0.55558395 3.8637373
1.829964 -0.66628826 3.6362567
2.0297451 -0.7358585 3.243577
2.1541169 -0.77842194 2.818898
0.46174091 -0.22531779 8.7248468
0.86312687 -0.38181207 8.7596016
2.2026331 -0.82677436 9.0956001
3.0888038 -1.1430098 9.0105257
1.5119047 -0.55463541 3.3936598
1.9884179 -0.72597164 3.5326128
6.3087702 -2.2948675 8.9640942
2.1013017 -0.76224631 2.5015028
2.8568153 -1.025636 3.0626209
2.5640543 -0.91901952 2.2786357
5.6161485 -2.0097227 3.9953761
6.0301509 -2.1531441 2.6753092
6.3304138 -2.2578754 2.0654957
2.3250158 -0.83837247 2.282449
2.5657182 -0.92366612 2.0691307
0.063995801 -0.061053548 8.7139416
1.3032644 -0.50742364 8.8910885
1.7524557 -0.66956854 9.0427446
2.8236482 -1.0571846 9.6859579
1.8298748 -0.67349941 3.640646
2.0165954 -0.73906529 3.2270451
2.1875136 -0.79913568 2.864948
0.46095157 -0.2269282 8.7248468
0.8622753 -0.38504052 8.7645731
2.2009089 -0.83490384 9.1004381
3.0783298 -1.1513661 8.9917545
1.4773023 -0.54779691 3.3216405
2.1375651 -0.78890085 3.7971005
6.3063779 -2.3189552 8.9720745
2.1336396 -0.7824167 2.5419295
2.8364568 -1.0295178 3.0450981
2.4913013 -0.90276748 2.2190051
5.6326909 -2.0378499 4.0118251
6.0400405 -2.1804769 2.6828015
6.3044438 -2.2734499 2.0598557
2.325583 -0.84776199 2.2857745
2.5966623 -0.94505847 2.095619
0.063782297 -0.061276566 8.7139416
1.3029312 -0.51253909 8.9009676
1.7482084 -0.67494798 9.0329552
2.8199406 -1.0670346 9.6859579
1.3860292 -0.51888049 3.5461633
1.8297573 -0.680718 3.6450353
2.172327 -0.80476004 3.4750218
2.2508593 -0.83119631 2.9493732
0.46015665 -0.22853585 8.7248468
0.86092603 -0.38804808 8.7645731
2.1991546 -0.84303141 9.105278
3.0694497 -1.1602737 8.9776773
1.4733427 -0.55218613 3.3171391
2.2032163 -0.82188362 3.9165471
6.3151913 -2.3472536 8.9960136
2.1944709 -0.81342745 2.6154327
2.7859738 -1.0222136 2.9960341
2.4552419 -0.89940804 2.1907589
5.5862727 -2.0431361 3.9844103
6.0585222 -2.2110837 2.6940396
6.3054838 -2.2987287 2.0626757
2.3261132 -0.85716581 2.2891002
2.6009343 -0.95690817 2.1015053
0.063568018 -0.061498832 8.7139416
1.3011341 -0.51708406 8.9009676
1.7439446 -0.68030578 9.0231647
2.8148046 -1.0763382 9.6811857
1.3604563 -0.51472563 3.4863303
1.8296115 -0.68794388 3.6494238
2.2643757 -0.8478654 3.6238084
2.6293056 -0.98140579 3.4367363
0.4593561 -0.23014069 8.7248468
0.8600511 -0.39127219 8.7695436
2.1961987 -0.85070276 9.105278
3.060545 -1.1691334 8.9635983
2.2711029 -0.85625416 4.0402594
6.3154216 -2.3724623 9.0079842
2.6921098 -0.99844742 2.9014118
2.4520874 -0.90797299 2.1907589
5.5555754 -2.0539236 3.9679618
6.0246706 -2.2225909 2.6828015
6.2884188 -2.3174076 2.0598557
2.3406012 -0.87179673 2.3057275
2.6165209 -0.97302598 2.1162212
8.992836 -3.3407915 5.7229934
0.063352957 -0.061720353 8.7139416
1.2993213 -0.52162266 8.9009676
1.740612 -0.68601567 9.0182686
2.8138149 -1.0872333 9.6907291
1.8048116 -0.6858176 3.6055334
2.3035116 -0.87170148 3.6899354
2.6258638 -0.99057788 3.4367363
0.45854995 -0.23174274 8.7248468
0.85916424 -0.39449498 8.7745152
2.1932156 -0.85836375 9.105278
3.0516155 -1.177945 8.9495201
2.3168418 -0.88275021 4.1255779
6.3183699 -2.398771 9.0239439
2.7942972 -1.0580326 3.3173892
2.7119832 -1.0166013 2.9259434
2.7004318 -1.0106697 2.4073124
6.2757955 -2.3376694 2.0584457
2.3899591 -0.89969456 2.3556101
2.6244588 -0.98641974 2.1250505
8.9367256 -3.3554933 5.6951284
0.063108504 -0.061908185 8.7089415
1.2974925 -0.52615499 8.9009676
1.7372608 -0.69171053 9.0133734
2.8127835 -1.0981346 9.7002735
4.5076857 -1.7311144 8.9163198
2.295198 -0.87772638 3.6816692
2.5954354 -0.989461 3.4021988
0.45773825 -0.23334196 8.7248468
0.85874873 -0.39794096 8.7844582
2.1902061 -0.8660143 9.105278
3.0442698 -1.1873357 8.940135
2.4573419 -0.94612586 4.3772678
6.3127718 -2.421891 9.0279341
2.7810881 -1.0641452 3.3063638
2.7717817 -1.0500681 2.9925296
2.6968875 -1.0200897 2.4073124
6.5151267 -2.4605179 4.6505866
6.2990236 -2.371393 2.068316
2.4182117 -0.91998106 2.3855395
2.6247783 -0.99701023 2.1279938
8.9088373 -3.3805506 5.6849957
0.062783495 -0.062237773 8.7089415
1.2939085 -0.53287125 8.8960276
1.7334929 -0.70109981 9.0133734
2.8052192 -1.1132762 9.6955013
4.484561 -1.7510358 8.8899841
2.2796147 -0.88684958 3.6651375
2.5926819 -1.0055523 3.4060364
0.45630428 -0.23613375 8.7248468
0.85671347 -0.4035565 8.7894306
2.1835556 -0.87928891 9.1004381
3.0335422 -1.2051654 8.9307489
6.5854783 -2.5966036 14.70071
2.4463253 -0.96006912 4.3687358
6.2998066 -2.4637039 9.0319242
2.698174 -1.0529846 3.2181599
2.7895436 -1.0735333 3.0170617
2.7240262 -1.0472374 2.4355586
6.486105 -2.4897382 4.6396208
6.2722411 -2.4013906 2.0640857
2.4473624 -0.94822592 2.4187946
2.6261785 -1.0159422 2.1338801
8.8874216 -3.4364593 5.6849957
0.062565863 -0.062456544 8.7089415
1.2914168 -0.53686059 8.8910885
1.7302159 -0.7064594 9.0084782
2.8003223 -1.1215285 9.6907291
1.3522036 -0.53603125 3.4863303
4.4857225 -1.7677505 8.9031515
2.2795928 -0.89463758 3.6692705
2.5986416 -1.0167444 3.4175487
0.45568451 -0.23732755 8.7248468
0.85620624 -0.40587753 8.7944021
2.1802359 -0.88414925 9.0956001
3.027384 -1.2112919 8.9213629
6.599803 -2.6195705 14.745721
6.2942009 -2.4779913 9.0319242
2.6959627 -1.0586333 3.2181599
2.8256645 -1.0987747 3.0591161
2.7169099 -1.0548559 2.4324203
6.4466228 -2.4991417 4.6176891
2.4866076 -0.9709273 2.4587004
2.6310415 -1.0257505 2.1397665
8.3969717 -3.2704248 5.3810143
0.062347464 -0.062674567 8.7089415
1.2888186 -0.54106426 8.8861494
1.7277393 -0.71249467 9.0084782
2.7963903 -1.1312966 9.6907291
1.3575785 -0.54365396 3.5047405
4.4728489 -1.7807398 8.8899841
2.2686086 -0.89947766 3.6568718
2.5980575 -1.0269874 3.4213862
0.45485333 -0.23891674 8.7248468
0.8552649 -0.40909436 8.7993736
2.1759734 -0.89127773 9.0907602
3.0199375 -1.2205585 8.9119778
1.9756944 -0.78850836 3.5496764
6.2967114 -2.5044017 9.047884
2.635529 -1.045534 3.1520069
2.8583233 -1.1229768 3.097666
2.6407423 -1.0359038 2.3696511
6.4144998 -2.5124793 4.6012406
2.4970963 -0.98508221 2.4720025
2.6236844 -1.033447 2.1368234
8.2892313 -3.2618315 5.3202181
0.062128309 -0.062891811 8.7089415
1.2869221 -0.54555976 8.8861494
1.7261816 -0.7189129 9.0133734
2.771698 -1.13258 9.6191492
1.3701607 -0.55425191 3.5415606
4.4599404 -1.7936611 8.8768177
2.2550061 -0.90320545 3.6403401
2.6033864 -1.0396163 3.4328988
0.4540166 -0.24050303 8.7248468
