# .PCD v0.7 - Point Cloud Data file format
VERSION 0.7
FIELDS x y z
SIZE 4 4 4
TYPE F F F
COUNT 1 1 1
WIDTH 1486
HEIGHT 1
VIEWPOINT 0 0 0 1 0 0 0
POINTS 1486
DATA ascii
-0.75761914 0.86546057 3.1821103
-0.95617276 1.0862763 3.0560689
-1.0040524 1.137113 2.5514481
-1.0323089 1.1662744 2.1371624
-0.95667124 1.0789362 1.6415143
-0.9336136 1.0459328 1.4575385
-0.90714782 1.0152254 1.180176
-0.89630854 1.0020525 0.96605617
-0.88137811 0.9846794 0.77831602
-0.8727954 0.97441697 0.61684614
-0.85831237 0.95758587 0.46792868
-0.8462255 0.94344544 0.33208814
-0.83147222 0.92635781 0.20469853
-0.92582542 1.0401345 1.3213795
-0.89715868 1.0068791 1.065513
-0.88768399 0.99555665 0.86942273
-0.87717938 0.98275 0.69641101
-0.86544234 0.96893024 0.54130447
-0.85200185 0.95322371 0.39907253
-0.82840258 0.92650229 0.26555866
-0.82931226 0.92688 0.1438466
-0.02713847 0.084318459 8.728941
-0.89066893 1.0529619 8.7676067
-1.1497259 1.3418818 8.5189552
-0.63912481 0.73569316 3.1626556
-0.93450379 1.068373 3.4034851
-0.98964685 1.1267085 2.8154991
-1.0271404 1.1661484 2.3549929
-0.99391222 1.1260661 1.874872
-0.2973094 0.42008403 8.7398224
-0.56855667 0.74262053 8.6800575
-0.56575495 0.65690815 3.3753996
-0.75459349 0.86809993 3.1821103
-0.95667255 1.0945249 3.0695722
-1.0035156 1.1445329 2.5599799
-1.0322098 1.1743976 2.1451426
-0.9551394 1.0848136 1.6451894
-0.93468767 1.0545231 1.4645475
-0.9087649 1.0242088 1.1864529
-0.8955819 1.0083016 0.96879768
-0.88087845 0.99106103 0.78063476
-0.87246966 0.9809218 0.61871922
-0.85815388 0.96415949 0.46933872
-0.84619421 0.95006186 0.33302075
-0.83154708 0.93297219 0.2051456
-0.92466164 1.0461576 1.324705
-0.89899528 1.0160593 1.0713993
-0.887061 1.0018768 0.87195593
-0.87976414 0.99259889 0.70060712
-0.86518818 0.97547823 0.54294801
-0.85189581 0.9598273 0.40024486
-0.82845128 0.93309146 0.26624933
-0.82607186 0.92976916 0.1438466
-0.026843978 0.084412679 8.728941
-0.88399071 1.0524938 8.7379713
-1.1450348 1.3458868 8.5189552
-0.63655281 0.73791963 3.1626556
-0.92180222 1.0613027 3.3712673
-0.99043024 1.1355715 2.8286664
-1.0267683 1.1739633 2.3632588
-0.99420053 1.1343497 1.882547
-0.29584122 0.42111927 8.7398224
-0.56628299 0.7450254 8.6850281
-0.56345844 0.65887898 3.3753996
-0.75155866 0.87072867 3.1821103
-0.95712644 1.1027904 3.083076
-1.0029391 1.1519632 2.5685117
-1.0340478 1.1848044 2.1571126
-0.95580935 1.0932457 1.6525397
-0.93571311 1.0631336 1.4715567
-0.90775722 1.0302954 1.1895914
-0.89482266 1.0145577 0.97153914
-0.88034487 0.99745113 0.78295356
-0.872109 0.98743594 0.62059224
-0.85795987 0.97074366 0.47074872
-0.84612703 0.95668948 0.33395338
-0.83158582 0.93959832 0.20559268
-0.92592996 1.0549917 1.331356
-0.89811075 1.0222278 1.0743425
-0.88640469 1.0082047 0.87448907
-0.87929237 0.99907082 0.7027052
-0.86177784 0.97849232 0.54294801
-0.84854025 0.96279514 0.40024486
-0.82846397 0.9396922 0.26694003
-0.82612646 0.93639344 0.14404814
-0.026558893 0.084548391 8.7339401
-0.87931645 1.0543793 8.7280931
-1.1403297 1.3498756 8.5189552
-0.63494396 0.74127102 3.1674278
-0.92064351 1.0674731 3.3804724
-0.99116361 1.1444533 2.8418336
-1.0263544 1.1817898 2.3715248
-0.99444294 1.1426492 1.890222
-0.29436943 0.42214939 8.7398224
-0.56399947 0.74742341 8.6899996
-0.56115508 0.66084182 3.3753996
-0.74851465 0.87334675 3.1821103
-0.95611316 1.1094229 3.0920784
-1.0040284 1.1613764 2.5813096
-1.0338523 1.1929612 2.1650927
-0.9564321 1.1016958 1.6598901
-0.93668979 1.071764 1.4785657
-0.90928084 1.0393167 1.1958683
-0.89678544 1.0239664 0.97702211
-0.87977737 1.0038495 0.78527236
-0.87171358 0.99395967 0.62246525
-0.86089456 0.98094368 0.47356883
-0.84602386 0.96332812 0.33488598
-0.82830089 0.94249541 0.20559268
-0.92714769 1.0638472 1.3380071
-0.89985132 1.0314484 1.0802288
-0.88854986 1.0177876 0.87955546
-0.87878609 1.0055515 0.70480323
-0.86146563 0.98504925 0.54459149
-0.84837526 0.96940899 0.40141717
-0.82844067 0.94630438 0.2676307
-0.82614493 0.94302928 0.14424966
-0.0262636 0.084640585 8.7339401
-0.87414438 1.0556464 8.713275
-1.1356109 1.3538479 8.5189552
-0.63235259 0.74348283 3.1674278
-0.93215907 1.0884885 3.4357026
-0.99184704 1.1533542 2.8550007
-1.0258981 1.1896274 2.3797905
-0.99463964 1.1509639 1.897897
-0.29305756 0.42341223 8.7448139
-0.56138706 0.74938762 8.6899996
-0.55884486 0.66279662 3.3753996
-0.74546158 0.87595421 3.1821103
-0.95506531 1.1160619 3.1010809
-1.0033656 1.1688321 2.5898414
-1.0336126 1.201131 2.1730726
-0.95922095 1.1127313 1.6709156
-0.9376176 1.0804143 1.4855748
-0.90820003 1.0454228 1.1990067
-0.89594942 1.0302458 0.97976357
-0.88208383 1.0135978 0.78990996
-0.87128323 1.0004926 0.62433827
-0.86061668 0.98755926 0.47497886
-0.84588462 0.96997774 0.33581862
-0.82828033 0.94913316 0.20603976
-0.92831486 1.072724 1.344658
-0.89889187 1.0376383 1.083172
-0.88781524 1.0241404 0.8820886
-0.8812198 1.0154686 0.70899934
-0.86111808 0.99161571 0.54623502
-0.84817445 0.97603345 0.40258947
-0.82838118 0.95292771 0.26832137
-0.82612705 0.94967669 0.1444512
-0.025967989 0.084731743 8.7339401
-0.86946768 1.0574907 8.7033968
-1.1308782 1.3578037 8.5189552
-0.62975353 0.74568564 3.1674278
-0.92835385 1.0917356 3.4357026
-0.9924804 1.1622736 2.8681679
-1.0253997 1.1974765 2.3880565
-0.99687749 1.1617265 1.9094095
-0.29157782 0.42443264 8.7448139
-0.55908543 0.75177079 8.6949711
-0.55652791 0.66474324 3.3753996
-0.7412858 0.87723279 3.1774173
-0.95257324 1.121048 3.1055822
-1.0043546 1.178282 2.6026392
-1.0352856 1.2116045 2.1850426
-0.95973974 1.121224 1.6782659
-0.93849635 1.0890839 1.492584
-0.90962982 1.0544813 1.2052836
-0.89508057 1.0365318 0.98250502
-0.88143665 1.0200226 0.79222876
-0.87081784 1.0070345 0.62621135
-0.86030322 0.99418491 0.4763889
-0.84892476 0.98035139 0.33768386
-0.82822341 0.95578218 0.20648684
-0.92943144 1.0816218 1.3513091
-0.90053588 1.0468985 1.0890583
-0.88985938 1.0337676 0.887155
-0.88063234 1.0219767 0.71109742
-0.86381882 1.0017681 0.54952204
-0.84793758 0.9826681 0.4037618
-0.82828563 0.95956224 0.26901206
-0.82607281 0.95633537 0.14465272
-0.02568135 0.084864505 8.7389402
-0.86478859 1.0593152 8.6935186
-1.1261317 1.3617427 8.5189552
-0.62714678 0.74787939 3.1674278
-0.9724257 1.151698 3.6105986
-0.99306345 1.1712115 2.8813353
-1.0230362 1.2031924 2.3921895
-0.99697351 1.1700789 1.9170846
-0.29025635 0.42568693 8.7498064
-0.55645782 0.75371772 8.6949711
-0.55420411 0.66668189 3.3753996
-0.73821908 0.87981498 3.1774173
-0.9500578 1.1260302 3.1100833
-1.0052898 1.1877532 2.615437
-1.0349486 1.2198064 2.1930227
-0.96240634 1.1323171 1.6892914
-0.93932587 1.0977727 1.499593
-0.91100752 1.0635626 1.2115605
-0.8969003 1.0459986 0.987988
-0.88363981 1.0298169 0.79686636
-0.87031728 1.0135854 0.62808436
-0.85995388 1.0008203 0.47779894
-0.84870011 0.98703343 0.33861646
-0.83137828 0.96621716 0.207381
-0.92807353 1.0877 1.3546345
-0.89950109 1.053109 1.0920014
-0.88904619 1.0401443 0.88968813
-0.88001019 1.028493 0.7131955
-0.86338788 1.0083643 0.55116552
-0.84766477 0.98931301 0.40493411
-0.82815373 0.96620756 0.26970273
-0.82598215 0.96300524 0.14485426
-0.025384961 0.084953636 8.7389402
-0.86108571 1.0623275 8.6935186
-1.1213714 1.3656656 8.5189552
-0.62453234 0.75006396 3.1674278
-0.97090966 1.1580799 3.6198037
-0.99359608 1.1801676 2.8945024
-1.0224605 1.2110567 2.4004555
-0.99909347 1.1808929 1.928597
-0.28876862 0.42669752 8.7498064
-0.55413806 0.75608587 8.6999426
-0.55187362 0.6686123 3.3753996
-0.73514348 0.88238651 3.1774173
-0.94751936 1.1310085 3.1145847
-1.0044932 1.1952485 2.6239688
-1.034567 1.2280208 2.2010028
-0.96500713 1.1434424 1.7003169
-0.94010621 1.1064807 1.506602
-0.90981102 1.0697012 1.214699
-0.89595425 1.0523069 0.99072945
-0.88291252 1.0362672 0.79918516
-0.86978161 1.0201451 0.62995738
-0.8595686 1.0074654 0.47920895
-0.84843922 0.99372584 0.33954909
-0.83123535 0.97289956 0.20782807
-0.92909807 1.0966307 1.3612856
-0.90104824 1.0624079 1.0978878
-0.89098865 1.0498148 0.89475453
-0.87935323 1.0350175 0.71529353
-0.86598009 1.0185673 0.55445254
-0.85050559 0.99967009 0.40727875
-0.83119512 0.97663486 0.2710841
-0.82909405 0.9734894 0.14525732
-0.025088264 0.085041724 8.7389402
-0.85688525 1.0647212 8.6885786
-1.1172408 1.3703609 8.5238514
-0.62191033 0.75223941 3.1674278
-0.97560966 1.1719733 3.6520214
-0.99254245 1.1873039 2.9032805
-1.0218422 1.2189317 2.4087212
-1.0011501 1.1917361 1.9401096
-0.28743762 0.42794311 8.7547979
-0.55149543 0.75801557 8.6999426
-0.54873991 0.66956228 3.3705604
-0.73205894 0.88494724 3.1774173
-0.94495761 1.1359829 3.1190858
-1.0053275 1.2047552 2.6367669
-1.0360738 1.2385587 2.2129729
-0.96536469 1.152001 1.7076672
-0.94083714 1.1152073 1.5136112
-0.91109407 1.0788181 1.2209759
-0.89767468 1.0618145 0.99621236
-0.88501191 1.0461067 0.80382276
-0.86921078 1.0267133 0.63183039
-0.85914749 1.0141199 0.48061898
-0.84814185 1.0004283 0.3404817
-0.83427757 0.98339021 0.20872223
-0.92766786 1.1027244 1.364611
-0.89993775 1.0686384 1.1008309
-0.89009655 1.056215 0.89728767
-0.88158774 1.0450188 0.71948963
-0.8654654 1.0251923 0.55609608
-0.8501476 1.006346 0.40845108
-0.83097726 0.98331267 0.27177477
-0.82891697 0.9801923 0.14545885
-0.024791259 0.085128784 8.7389402
-0.85413313 1.0689201 8.6984577
-1.1124506 1.3742523 8.5238514
-0.61928076 0.75440568 3.1674278
-0.97524637 1.1798896 3.6658287
-0.99298048 1.1962903 2.9164479
-1.0211813 1.2268169 2.4169872
-1.005196 1.2050694 1.9554596
-0.28594208 0.42894387 8.7547979
-0.54915768 0.76036853 8.704915
-0.54560632 0.67049849 3.3657207
-0.72787029 0.88616359 3.1727247
-0.94237274 1.1409531 3.1235871
-1.0044435 1.2122738 2.6452987
-1.0355946 1.2468038 2.220953
-0.9678424 1.1631821 1.7186928
-0.94151849 1.1239524 1.5206202
-0.91232455 1.0879569 1.2272528
-0.89665103 1.0681442 0.99895382
-0.88420421 1.0525815 0.80614156
-0.8686046 1.0332898 0.63370347
-0.85869026 1.0207837 0.48202902
-0.84780788 1.0071409 0.34141433
-0.83404815 0.99010509 0.20916931
-0.92860013 1.1116873 1.3712621
-0.90138757 1.077975 1.1067171
-0.89193684 1.0659279 0.902354
-0.88084888 1.051569 0.72158772
-0.86491507 1.0318261 0.55773956
-0.84975332 1.0130315 0.40962341
-0.83072293 0.99000084 0.27246544
-0.82870299 0.98690581 0.14566039
-0.024493951 0.085214801 8.7389402
-0.84750026 1.068242 8.6688213
-1.1076468 1.3781271 8.5238514
-0.61664361 0.75656277 3.1674278
-0.97979665 1.1938587 3.6980464
-0.99184471 1.2034457 2.925226
-1.020478 1.2347124 2.4252532
-1.0071166 1.2159767 1.9669722
-0.28444305 0.42993936 8.7547979
-0.54650021 0.76228082 8.704915
-0.54247284 0.67142099 3.3608816
-0.72477257 0.88869894 3.1727247
-0.93838441 1.1442355 3.1235871
-1.0051762 1.2218151 2.6580963
-1.0369873 1.2573854 2.2329228
-0.96809447 1.1717808 1.7260431
-0.94215024 1.1327159 1.5276293
-0.91350222 1.0971174 1.2335297
-0.89827132 1.0776918 1.0044367
-0.88619918 1.0624652 0.81077915
-0.87093359 1.0434337 0.6374495
-0.86127216 1.0311383 0.4848491
-0.8474375 1.0138632 0.34234694
-0.83378202 0.99683034 0.20961639
-0.9270975 1.1177959 1.3745875
-0.90020114 1.0842248 1.1096603
-0.89096546 1.0723506 0.9048872
-0.88007492 1.0581267 0.72368574
-0.8643288 1.0384685 0.55938309
-0.84932268 1.0197263 0.41079572
-0.83360189 1.0005038 0.27384681
-0.82845235 0.99362969 0.14586191
-0.024187807 0.085256994 8.7339401
-0.84328568 1.0705835 8.6638832
-1.1021944 1.3811892 8.5189552
-0.61399895 0.75871068 3.1674278
-0.98672903 1.2109032 3.7394691
-0.99067116 1.2106078 2.9340041
-1.0197319 1.2426178 2.4335189
-1.0089732 1.226912 1.9784846
-0.28294054 0.43092963 8.7547979
-0.543836 0.76418382 8.704915
-0.54012579 0.67331046 3.3608816
-0.72166604 0.89122343 3.1727247
-0.93575883 1.1491923 3.1280882
-1.0042045 1.2293561 2.6666281
-1.0364099 1.2656605 2.2409031
-0.97044826 1.1830163 1.7370685
-0.94273233 1.1414975 1.5346385
-0.91214699 1.1032994 1.2366682
-0.89716989 1.0840421 1.0071782
-0.88531053 1.0689639 0.81309795
-0.8702442 1.0500369 0.63932252
-0.86072987 1.0378309 0.4862591
-0.84703046 1.0205952 0.34327957
-0.83347911 1.0035658 0.21006347
-0.92793691 1.1267899 1.3812386
-0.90155315 1.0935985 1.1155467
-0.88995999 1.0787795 0.90742046
-0.8792659 1.0646918 0.72578382
-0.86370677 1.0451194 0.56102657
-0.84885567 1.0264305 0.41196805
-0.83326095 1.0072231 0.2745375
-0.82816476 1.0003637 0.14606345
-0.023890056 0.08534091 8.7339401
-0.8333233 1.0655619 8.5996723
-1.0973665 1.385028 8.5189552
-0.61134678 0.7608493 3.1674278
-0.9824962 1.2143401 3.7394691
-0.98945957 1.2177762 2.9427824
-1.018943 1.2505331 2.4417849
-1.0127927 1.2403576 1.9938346
-0.2814346 0.43191466 8.7547979
-0.54116517 0.76607746 8.704915
-0.53698939 0.67420834 3.3560419
-0.71855068 0.89373708 3.1727247
-0.9331103 1.1541448 3.1325896
-1.0048354 1.2389309 2.6794262
-1.0357872 1.2739466 2.2488832
-0.97059453 1.1916541 1.7444189
-0.94552559 1.1530544 1.5451521
-0.91322923 1.1124939 1.2429451
-0.89868975 1.0936285 1.0126611
-0.88720089 1.0788909 0.81773555
-0.86951929 1.056648 0.6411956
-0.8632006 1.0482353 0.48907918
-0.84658659 1.0273366 0.34421217
-0.83313924 1.0103111 0.21051055
-0.92872483 1.1358033 1.3878895
-0.90285051 1.1029944 1.121433
-0.88892049 1.0852144 0.90995359
-0.8812995 1.0747737 0.72997987
-0.86304879 1.0517784 0.56267005
-0.84835207 1.0331439 0.41314036
-0.83602637 1.0177788 0.27591884
-0.82784021 1.007108 0.14626497
-0.023592016 0.085423782 8.7339401
-0.81340325 1.0475926 8.4317369
-1.0925252 1.3888502 8.5189552
-0.60868722 0.76297867 3.1674278
-0.96112418 1.1964375 3.6750338
-0.98820996 1.2249509 2.9515605
-1.0181111 1.2584579 2.4500508
-1.0104754 1.2463754 1.9976722
-0.27992523 0.43289441 8.7547979
-0.53848779 0.76796186 8.704915
-0.53385329 0.67509246 3.3512027
-0.71542656 0.89623982 3.1727247
-0.93180108 1.1607904 3.1415918
-1.0054114 1.248525 2.6922238
-1.0351192 1.2822438 2.2568631
-0.97069222 1.2003071 1.7517692
-0.94599801 1.1618791 1.5521612
-0.91179931 1.118692 1.2460835
-0.89751005 1.0999987 1.0154026
-0.88623095 1.0854126 0.82005435
-0.86875874 1.0632668 0.64306861
-0.86257273 1.0549558 0.49048921
-0.84610617 1.0340874 0.34514484
-0.83276242 1.0170664 0.21095763
-0.929461 1.1448358 1.3945405
-0.90409321 1.1124129 1.1273193
-0.89056677 1.0949996 0.91501999
-0.88040781 1.0813631 0.73207796
-0.86235464 1.0584455 0.56431359
-0.85088342 1.0436333 0.41548499
-0.83559841 1.0245285 0.27660954
-0.82747859 1.013862 0.14646651
-0.023293687 0.085505612 8.7339401
-0.80642223 1.0461169 8.3971624
-1.0876704 1.3926553 8.5189552
-0.60602021 0.76509875 3.1674278
-1.009318 1.2654661 3.8729424
-0.98841953 1.2340012 2.9647279
-1.0172364 1.2663921 2.4583166
-1.0061185 1.249895 1.9976722
-0.27841243 0.43386891 8.7547979
-0.53610784 0.77027476 8.7098866
-0.53149354 0.67695189 3.3512027
-0.7122938 0.89873171 3.1727247
-0.92910016 1.1657385 3.1460929
-1.0059327 1.2581383 2.7050216
-1.0344058 1.290552 2.2648432
-0.97286385 1.2116188 1.7627947
-0.94642037 1.1707212 1.5591702
-0.91278571 1.1279193 1.2523605
-0.898929 1.1096232 1.0208856
-0.88522637 1.0919408 0.82237315
-0.87088329 1.0734935 0.6468147
-0.86190844 1.0616847 0.49189925
-0.84558874 1.0408473 0.34607744
-0.83234859 1.0238311 0.21140471
-0.93014532 1.1538873 1.4011915
-0.90274292 1.1187077 1.1302625
-0.88944721 1.1014555 0.91755313
-0.88233405 1.0914888 0.73627406
-0.86162466 1.0651207 0.56595707
-0.85029352 1.0503751 0.4166573
-0.83513349 1.0312876 0.27730021
-0.82707995 1.0206257 0.14666803
-0.022995075 0.085586399 8.7339401
-0.76075423 0.99399662 7.9575691
-1.0828027 1.3964435 8.5189552
-0.60242337 0.76603597 3.1626556
-1.0412757 1.3149325 4.0110183
-0.98708719 1.2411931 2.973506
-1.0163184 1.2743355 2.4665825
-1.0037504 1.2559034 2.0015097
-0.27689624 0.43483812 8.7547979
-0.53371823 0.77258039 8.7148581
-0.5291273 0.67880303 3.3512027
-0.70915228 0.90121263 3.1727247
-0.92772675 1.172389 3.1550953
-1.0047776 1.2657275 2.7135537
-1.0336471 1.2988706 2.2728233
-0.97285503 1.2203093 1.7701451
-0.9467923 1.17958 1.5661794
-0.91371876 1.1371673 1.2586373
-0.89767087 1.1160126 1.023627
-0.88418692 1.0984749 0.82469195
-0.87003887 1.0801373 0.64868772
-0.8612076 1.0684217 0.49330926
-0.84503436 1.047616 0.34701008
-0.83189756 1.0306054 0.21185179
-0.93077791 1.1629574 1.4078425
-0.9038868 1.1281611 1.1361488
-0.89098996 1.1112802 0.92261952
-0.88135934 1.0981015 0.73837209
-0.86381543 1.0754852 0.56924409
-0.8527118 1.0609139 0.41900194
-0.83463156 1.0380557 0.27799088
-0.82664406 1.0273989 0.14686957
-0.022696182 0.08566615 8.7339401
-0.75399065 0.99231428 7.9229937
-1.0773005 1.3994079 8.51406
-0.59974569 0.76813412 3.1626556
-1.0547898 1.3415982 4.0800562
-0.9857167 1.2483907 2.9822841
-1.0153576 1.2822877 2.4748485
-0.99736822 1.2568885 1.9976722
-0.27522326 0.43555743 8.7498064
-0.53131914 0.77487874 8.7198296
-0.52675468 0.68064588 3.3512027
-0.70600212 0.90368247 3.1727247
-0.92631817 1.179044 3.1640978
-1.0051961 1.2753724 2.7263515
-1.0328429 1.3071996 2.2808034
-0.97490108 1.2316726 1.7811704
-0.94933665 1.191245 1.5766931
-0.91459829 1.1464355 1.2649143
-0.89898831 1.1256741 1.02911
-0.88587809 1.1084757 0.82932955
-0.87205392 1.0904087 0.65243381
-0.86346757 1.078912 0.49612933
-0.84751368 1.0582277 0.34887531
-0.83140934 1.037389 0.21229887
-0.93135834 1.1720461 1.4144936
-0.90497577 1.1376359 1.1420351
-0.89247483 1.121129 0.92768586
-0.88317776 1.1082703 0.74256819
-0.86594421 1.085878 0.5725311
-0.85203511 1.0676831 0.42017427
-0.8340925 1.0448329 0.27868158
-0.82617098 1.0341816 0.14707109
-0.022404658 0.085787803 8.7389402
-0.74303871 0.98501283 7.8439655
-1.0730273 1.4039688 8.5189552
-0.5970608 0.77022296 3.1626556
-1.0308685 1.3206297 4.0064158
-0.98578531 1.2574786 2.9954512
-1.0143535 1.290249 2.4831142
-0.99892509 1.2679157 2.0091846
-0.27370119 0.43651548 8.7498064
-0.5289104 0.77716953 8.7248001
-0.52514106 0.68347734 3.3560419
-0.70284337 0.9061414 3.1727247
-0.9262132 1.1874201 3.1776016
-1.0039523 1.2829815 2.7348833
-1.0338526 1.3179096 2.2927732
-0.97897446 1.2457308 1.7958713
-0.94959807 1.2001451 1.5837022
-0.91542417 1.1557235 1.2711912
-0.89765131 1.1320817 1.0318514
-0.8847568 1.1150314 0.83164835
-0.87112516 1.0970767 0.65430683
-0.86268049 1.0856754 0.49753937
-0.84687191 1.0650245 0.34980792
-0.83088392 1.0441816 0.21274593
-0.93188667 1.1811527 1.4211446
-0.90350425 1.14396 1.1449783
-0.89390177 1.1310016 0.93275219
-0.88211977 1.1149057 0.74466628
-0.86507982 1.0925964 0.57417464
-0.85434008 1.0782704 0.42251888
-0.83351624 1.0516189 0.27937225
-0.82566059 1.0409734 0.14727263
-0.022105066 0.08586549 8.7389402
-0.73633707 0.98324603 7.809391
-1.0662742 1.4052721 8.5042706
-0.59436852 0.77230239 3.1626556
-1.0142863 1.3087769 3.9603903
-0.98433167 1.2646923 3.0042293
-1.0133061 1.2982185 2.4913802
-1.0043665 1.2840186 2.0283723
-0.27217582 0.4374682 8.7498064
-0.52619433 0.77901107 8.7248001
-0.52275205 0.68530631 3.3560419
-0.69862336 0.90722185 3.1680319
-0.92472821 1.1940887 3.186604
-1.0042675 1.292657 2.7476809
-1.0329487 1.3262651 2.3007534
-0.98087603 1.2571594 1.8068967
-0.9498089 1.2090615 1.5907112
-0.91619635 1.1650311 1.2774682
-0.89886701 1.1417794 1.0373343
-0.88360041 1.1215928 0.83396715
-0.8701604 1.1037515 0.65617985
-0.8618567 1.0924461 0.49894941
-0.84619296 1.0718297 0.35074055
-0.83032113 1.0509833 0.21319301
-0.93236256 1.1902771 1.4277955
-0.90449369 1.1534684 1.1508646
-0.89260954 1.1375065 0.93528539
-0.88102621 1.1215471 0.7467643
-0.8670972 1.1030344 0.57746166
-0.85357618 1.0850663 0.42369121
-0.83290273 1.0584139 0.28006294
-0.82511276 1.0477741 0.14747415
-0.021805204 0.085942127 8.7389402
-0.73521733 0.98892885 7.8340874
-1.0601373 1.4073588 8.4944801
-0.59166908 0.7743724 3.1626556
-0.99422598 1.2921791 3.9005575
-0.98283952 1.271911 3.0130074
-1.0122155 1.3061967 2.4996462
-1.017571 1.3103012 2.0629098
-0.27064711 0.43841559 8.7498064
-0.52376825 0.78128624 8.7297716
-0.52035671 0.68712687 3.3560419
-0.69545239 0.90965497 3.1680319
-0.92453468 1.202487 3.2001076
-1.0029346 1.3002851 2.7562129
-1.0319991 1.3346304 2.3087335
-0.98270971 1.2686161 1.8179222
-0.94996905 1.2179939 1.5977204
-0.91691452 1.1743581 1.2837451
-0.90002584 1.1514993 1.0428174
-0.88513827 1.1316489 0.83860481
-0.87201703 1.1140835 0.65992594
-0.86395407 1.103001 0.50176948
-0.84850711 1.0825093 0.35260579
-0.82972091 1.0577936 0.21364009
-0.93278623 1.1994195 1.4344465
-0.90294486 1.1598082 1.1538078
-0.89393193 1.1474166 0.94035172
-0.879897 1.1281945 0.74886233
-0.86614698 1.1097771 0.5791052
-0.85277516 1.09187 0.42486352
-0.83225197 1.065217 0.28075361
-0.82452744 1.0545837 0.14767569
-0.021505078 0.086017713 8.7389402
-0.73129958 0.9908638 7.8291483
-1.0442446 1.3963714 8.4063654
-0.58986431 0.77762246 3.1674278
-1.0240973 1.340668 4.0340304
-0.98130918 1.2791348 3.021786
-1.0110815 1.3141828 2.5079119
-1.0286468 1.3341527 2.0936098
-0.26911512 0.43935767 8.7498064
-0.52103788 0.78310978 8.7297716
-0.51795506 0.68893903 3.3560419
-0.69227284 0.91207701 3.1680319
-0.9242937 1.2108986 3.2136111
-1.0015606 1.3079195 2.7647448
-1.0328385 1.3453954 2.3207035
-0.98447526 1.2801009 1.8289475
-0.95007825 1.2269419 1.6047294
-0.91519421 1.1806279 1.2868835
-0.9011277 1.1612409 1.0483003
-0.88389945 1.1382304 0.84092361
-0.87096739 1.1207813 0.66179895
-0.86304337 1.1097969 0.50317949
-0.84774017 1.0893413 0.35353839
-0.82908332 1.0646125 0.21408717
-0.93315727 1.2085789 1.4410975
-0.9013626 1.166151 1.1567509
-0.89255863 1.1539398 0.94288492
-0.88151062 1.1384361 0.75305843
-0.86516017 1.1165265 0.58074868
-0.85193706 1.0986812 0.42603585
-0.83156371 1.0720285 0.28144431
-0.82390463 1.0614018 0.14787722
-0.02120469 0.086092256 8.7389402
-0.72645938 0.99152976 7.8143306
-1.0248009 1.3803844 8.2888803
-0.58714628 0.77967674 3.1674278
-1.0406579 1.3722565 4.1168761
-0.97974014 1.2863631 3.0305641
-1.0116119 1.3244133 2.5203109
-1.0356722 1.3530068 2.1166348
-0.26757982 0.44029438 8.7498064
-0.51859432 0.78536892 8.7347431
-0.51554704 0.69074291 3.3560419
-0.68804657 0.9131096 3.1633391
-0.92400515 1.2193229 3.2271149
-1.0001454 1.3155602 2.7732766
-1.0317887 1.3537859 2.3286836
-0.98617256 1.2916135 1.8399732
-0.95230997 1.2387331 1.615243
-0.91581511 1.1899847 1.2931604
-0.90217245 1.1710044 1.0537832
-0.88533026 1.1483254 0.84556121
-0.87271333 1.1311556 0.66554505
-0.86209577 1.1165998 0.5045895
-0.84693575 1.096181 0.35447103
-0.82840824 1.0714399 0.21453427
-0.93347567 1.2177557 1.4477484
-0.90220773 1.1757038 1.1626372
-0.89377612 1.1638867 0.94795126
-0.88029736 1.1451044 0.75515652
-0.86413676 1.1232826 0.58239222
-0.85106176 1.1054999 0.42720816
-0.83385944 1.0827717 0.28282565
-0.82324433 1.0682286 0.14807875
-0.02089715 0.086122669 8.7339401
-0.72801882 1.0009733 7.8686624
-0.58442116 0.78172153 3.1674278
-1.074634 1.4273895 4.2687593
-0.97668827 1.2916857 3.0349529
-1.0120834 1.3346636 2.5327098
-1.0367607 1.36427 2.1281471
-0.26618955 0.44147345 8.7547979
-0.51614136 0.78762054 8.7397146
-0.51313275 0.69253826 3.3560419
-0.68485504 0.91550571 3.1633391
-0.92366904 1.2277601 3.2406185
-1.0002604 1.3252887 2.7860744
-1.0325109 1.364588 2.3406537
-0.9857536 1.3004516 1.8473235
-0.95230746 1.2477198 1.6222522
-0.91638184 1.1993603 1.2994373
-0.90061969 1.1774677 1.0565246
-0.88670129 1.1584442 0.85019881
-0.87157851 1.1378754 0.66741806
-0.86402941 1.1272168 0.50740957
-0.84609395 1.1030283 0.35540363
-0.82769543 1.0782754 0.21498135
-0.93374133 1.2269493 1.4543995
-0.90299708 1.1852765 1.1685236
-0.89232135 1.1704277 0.95048445
-0.88180172 1.155386 0.75935262
-0.86594278 1.1337976 0.58567923
-0.85014927 1.1123258 0.42838046
-0.83308262 1.0896097 0.28351635
-0.8225463 1.0750635 0.14828028
-0.020596398 0.086195096 8.7339401
-0.72952116 1.0104398 7.9229937
-0.94841999 1.2962784 7.7455101
-0.58168888 0.78375679 3.1674278
-1.0684754 1.4295671 4.2641568
-0.97504884 1.298918 3.0437312
-1.0124953 1.3449329 2.5451086
-1.037783 1.3755571 2.1396599
-0.26464689 0.44239995 8.7547979
-0.51367897 0.78986472 8.7446871
-0.51071221 0.69432521 3.3560419
-0.68165517 0.91789073 3.1633391
-0.92328537 1.2362096 3.2541223
-1.0003192 1.3350339 2.7988722
-1.0313606 1.3730026 2.3486338
-0.98732311 1.3120112 1.8583488
-0.95225358 1.2567213 1.6292613
-0.9145419 1.2056528 1.3025758
-0.90156138 1.1872647 1.0620075
-0.88533229 1.1650594 0.8525176
-0.8704074 1.1446012 0.66929108
-0.86299437 1.1340435 0.50881964
-0.84819067 1.1137912 0.35726887
-0.82694507 1.0851189 0.21542843
-0.93620485 1.2391388 1.4643761
-0.90373051 1.194869 1.1744099
-0.89343339 1.1804099 0.95555079
-0.88324487 1.1656919 0.76354873
-0.86483294 1.1405765 0.58732271
-0.84919941 1.1191587 0.42955279
-0.83526212 1.1004001 0.28489769
-0.82181054 1.0819066 0.14848182
-0.020295395 0.086266458 8.7339401
-0.74770588 1.0433017 8.160078
-0.94209468 1.297109 7.7308245
-0.57894951 0.78578246 3.1674278
-1.0634787 1.433288 4.2641568
-0.97337079 1.3061546 3.0525093
-1.0128479 1.3552216 2.5575075
-1.0387392 1.3868678 2.1511722
-0.26324749 0.44356972 8.7597885
-0.51120728 0.79210114 8.7496586
-0.50754452 0.69508839 3.3512027
-0.67844695 0.9202646 3.1633391
-0.92285383 1.2446713 3.2676258
-1.0003222 1.3447956 2.8116701
-1.0319654 1.3838414 2.3606038
-0.98679507 1.3208817 1.8656992
-0.95429218 1.2685877 1.6397748
-0.91501051 1.2150565 1.3088527
-0.89992857 1.1937435 1.064749
-0.88659555 1.1752155 0.85715514
-0.87199312 1.1550324 0.67303717
-0.8619222 1.1408765 0.51022971
-0.84726006 1.1206636 0.3582015
-0.82615685 1.0919702 0.21587551
-0.93635434 1.2483733 1.471027
-0.90440798 1.204481 1.1802962
-0.89189708 1.1869677 0.95808399
-0.88189864 1.172395 0.76564676
-0.86652613 1.1511339 0.59060973
-0.85113662 1.1298809 0.43189743
-0.83439618 1.1072638 0.28558838
-0.82103699 1.0887575 0.14868335
-0.019994145 0.086336777 8.7339401
-0.75621521 1.0630039 8.2934389
-0.93458456 1.2962595 7.7063479
-0.57532209 0.78659356 3.1626556
-1.0619447 1.4417108 4.2779646
-0.97165406 1.3133954 3.0612874
-1.0131409 1.3655288 2.5699062
-1.039629 1.3982019 2.1626849
-0.26169753 0.44448593 8.7597885
-0.50872612 0.79433006 8.7546301
-0.50511509 0.69685578 3.3512027
-0.6752305 0.92262721 3.1633391
-0.92366469 1.2548985 3.2856307
-1.0002693 1.3545734 2.8244677
-1.0325068 1.3947009 2.3725739
-0.98823661 1.3324876 1.8767248
-0.9541257 1.2776259 1.6467839
-0.91542464 1.2244781 1.3151296
-0.90076691 1.203573 1.0702319
-0.88779873 1.1853945 0.86179274
-0.87073624 1.1617789 0.67491019
-0.86081284 1.1477159 0.51163971
-0.84629178 1.127543 0.35913411
-0.82832164 1.1028112 0.21676967
-0.93645066 1.2576238 1.4776781
-0.90502918 1.2141122 1.1861825
-0.89290321 1.1969846 0.96315032
-0.883232 1.1827393 0.76984292
-0.86532927 1.1579343 0.59225327
-0.85009837 1.1367376 0.43306974
-0.83645886 1.1181002 0.28696972
-0.82321972 1.0996156 0.14908642
-0.019698942 0.086449221 8.7389402
-0.76370001 1.0815082 8.4169197
-0.93183148 1.3019983 7.721034
-0.57257283 0.78859705 3.1626556
-1.0672828 1.459603 4.319387
-0.96989858 1.32064 3.0700655
-1.0133743 1.3758546 2.5823052
-1.0385488 1.40698 2.1703598
-0.26014441 0.44539669 8.7597885
-0.50623572 0.79655117 8.7596016
-0.50194567 0.69759423 3.3463631
-0.67200577 0.92497855 3.1633391
-0.92441541 1.2651464 3.3036354
-1.0001602 1.3643674 2.8372657
-1.032985 1.4055809 2.3845439
-0.98759907 1.3413892 1.8840752
-0.95603156 1.2895434 1.6572976
-0.91810364 1.2370429 1.3245449
-0.90154743 1.213423 1.0757148
-0.88894159 1.1955962 0.86643034
-0.87221014 1.17225 0.67865622
-0.86253095 1.158409 0.51445979
-0.84822077 1.1383682 0.36099935
-0.82744396 1.1096882 0.21721675
-0.93871313 1.2698928 1.4876546
-0.90559435 1.2237624 1.1920689
-0.89128494 1.2035586 0.96568352
-0.88180089 1.1894611 0.77194095
-0.86690909 1.1685327 0.59554029
-0.85191995 1.1475035 0.43541437
-0.8355034 1.1249888 0.28766042
-0.82235646 1.1064923 0.14928794
-0.019397058 0.086517453 8.7389402
-0.77507681 1.1058052 8.5848551
-0.92787045 1.3060732 7.7259288
-0.56981665 0.79059088 3.1626556
-1.0621812 1.4633195 4.319387
-0.96810436 1.3278883 3.0788438
-1.0135479 1.3861986 2.5947039
-1.0374199 1.4157678 2.1780348
-0.25844425 0.44605187 8.7547979
-0.50373596 0.79876465 8.7645731
-0.49950755 0.69934201 3.3463631
-0.66877294 0.92731869 3.1633391
-0.92510575 1.2754147 3.3216405
-0.99999499 1.3741769 2.8500636
-1.0316241 1.4140468 2.392524
-0.98891181 1.3530399 1.8951007
-0.95786572 1.3014896 1.6678112
-0.91839725 1.2465076 1.3308219
-0.89978826 1.2199277 1.0784563
-0.8873933 1.202256 0.86874914
-0.87086719 1.1790165 0.6805293
-0.86133349 1.1652704 0.5158698
-0.8471632 1.1452714 0.36193198
-0.82949114 1.1205751 0.21811089
-0.93869239 1.2791823 1.4943056
-0.90610284 1.2334312 1.1979553
-0.89218485 1.213609 0.97074991
-0.88302362 1.1998426 0.77613705
-0.86562502 1.175354 0.59718376
-0.85079294 1.1543831 0.43658668
-0.83450997 1.1318842 0.28835109
-0.82442123 1.1173964 0.149691
-0.019094938 0.086584635 8.7389402
-0.78008312 1.1212629 8.6836395
-0.92682564 1.3142976 7.7553005
-0.5670535 0.79257506 3.1626556
-0.96627128 1.33514 3.0876219
-1.0120087 1.3942831 2.6029699
-1.0362425 1.4245647 2.1857097
-0.25688565 0.4469513 8.7547979
-0.50122684 0.80097026 8.7695436
-0.49633664 0.70005584 3.3415239
-0.66653621 0.93105084 3.1680319
-0.92573559 1.2857032 3.3396454
-0.99977326 1.3840016 2.8628612
-1.0319839 1.424961 2.404494
-0.99015498 1.3647157 1.906126
-0.9575243 1.3105845 1.6748203
-0.91863596 1.2559893 1.3370987
-0.90046477 1.2298088 1.0839393
-0.88842744 1.2124928 0.87338674
-0.87222886 1.1895263 0.68427533
-0.86009854 1.1721375 0.51727986
-0.84897506 1.1561404 0.36379722
-0.82852352 1.1274767 0.21855797
-0.93861818 1.2884872 1.5009565
-0.906555 1.2431184 1.2038416
-0.8930254 1.2236804 0.97581625
-0.88150728 1.2065823 0.77823514
-0.86709094 1.1859926 0.60047078
-0.85249829 1.1651915 0.43893132
-0.83347863 1.1387866 0.28904179
-0.82346779 1.1242979 0.14989254
-0.018792585 0.086650766 8.7389402
-0.77837121 1.1271768 8.7083368
-0.92398334 1.3200275 7.7699862
-0.5634194 0.79333246 3.1578836
-0.96439928 1.3423951 3.0964
-1.0120702 1.4046568 2.6153688
-1.0368924 1.4359692 2.1972225
-0.25532395 0.44784528 8.7547979
-0.4984279 0.80271506 8.7695436
-0.49388996 0.70178407 3.3415239
-0.66328222 0.93337172 3.1680319
-0.92757052 1.2977827 3.3621514
-0.99949509 1.3938417 2.875659
-1.030521 1.4334481 2.4124742
-0.99132884 1.3764168 1.9171517
-0.9592247 1.32258 1.685334
-0.91881973 1.2654878 1.3433758
-0.90108311 1.2397093 1.0894222
-0.88940102 1.2227515 0.87802434
-0.87352771 1.2000601 0.68802142
-0.85882622 1.1790102 0.51868987
-0.85072142 1.1670361 0.36566246
-0.83045262 1.1384083 0.21945213
-0.93849045 1.2978071 1.5076076
-0.90695035 1.2528236 1.2097279
-0.8938064 1.2337722 0.98088264
-0.88261908 1.2170002 0.78243119
-0.86571932 1.1928338 0.60211432
-0.85128212 1.172093 0.44010365
-0.83531988 1.1497015 0.29042313
-0.82541412 1.1352469 0.1502956
-0.018490003 0.086715832 8.7389402
-0.77487081 1.1305277 8.713275
-0.93098634 1.3399709 7.8678908
-0.56064671 0.79529428 3.1578836
-1.2661906 1.7834181 5.2122769
-0.96248853 1.3496535 3.1051781
-1.0104347 1.4127589 2.6236346
-1.0356079 1.4447904 2.2048974
-0.25375912 0.44873381 8.7547979
-0.495902 0.80490416 8.7745152
-0.49071777 0.7024731 3.3366842
-0.66101456 0.93709165 3.1727247
-0.92807281 1.3081149 3.380156
-0.99764818 1.4015718 2.884191
-1.0290115 1.4419421 2.4204543
-0.99243283 1.3881425 1.928177
-0.95876938 1.3317088 1.6923431
-0.91894817 1.2750028 1.3496526
-0.90164334 1.249629 1.0949051
-0.88772053 1.2294402 0.88034314
-0.87476361 1.2106174 0.69176745
-0.86032706 1.1897753 0.52150995
-0.85240197 1.1779578 0.36752769
-0.82939458 1.1453338 0.21989921
-0.94048607 1.3101748 1.517584
-0.90728903 1.2625468 1.2156142
-0.89452773 1.2438843 0.98594898
-0.88101721 1.2237571 0.78452927
-0.86431056 1.19968 0.6037578
-0.8528707 1.182943 0.44244829
-0.83419836 1.1566267 0.29111382
-0.82437015 1.1421722 0.15049712
-0.018187195 0.086779848 8.7389402
-0.7744146 1.1383662 8.7527885
-0.95173043 1.3800988 8.0832806
-0.55786723 0.79724652 3.1578836
-1.2577071 1.784633 5.2030716
-0.96192235 1.3588697 3.1183455
-1.0103838 1.4231613 2.6360335
-1.0361327 1.4562315 2.2164099
-0.25219119 0.44961685 8.7547979
-0.49308932 0.80663031 8.7745152
-0.48826268 0.70418179 3.3366842
-0.65872902 0.94080704 3.1774173
-0.92726088 1.3166865 3.3936598
-0.99425441 1.4071757 2.8884568
-1.0274552 1.4504431 2.4284341
-0.99346709 1.3998927 1.9392027
-0.96033537 1.343752 1.7028567
-0.91902143 1.284534 1.3559296
-0.90214533 1.2595677 1.1003881
-0.88858473 1.2397325 0.88498074
-0.87323439 1.2174305 0.69364047
-0.85896599 1.1966683 0.52291995
-0.85115075 1.1849157 0.3684603
-0.83120501 1.1563092 0.22079337
-0.9402402 1.3195313 1.524235
-0.90757072 1.2722874 1.2215005
-0.89268488 1.2505078 0.98848218
-0.88201761 1.23421 0.78872538
-0.86561137 1.2103716 0.60704482
-0.85156512 1.1898656 0.44362062
-0.83592129 1.1675847 0.29249516
-0.82328784 1.149104 0.15069866
-0.017878782 0.08679951 8.7339401
-0.77260941 1.1442831 8.7774858
-0.97335541 1.4220681 8.3084612
-0.55508089 0.79918891 3.1578836
-1.2693856 1.8146273 5.2767119
-0.95992672 1.3661385 3.1271236
-1.0102725 1.4335804 2.6484323
-1.038439 1.470312 2.2317598
-0.25062019 0.45049444 8.7547979
-0.49027064 0.80834657 8.7745152
-0.48580164 0.70588183 3.3366842
-0.65544099 0.94310075 3.1774173
-0.92640036 1.3252681 3.4071634
-0.99233127 1.4149083 2.8969886
-1.0275851 1.4614156 2.4404042
-0.9944312 1.4116668 1.950228
-0.96182895 1.3558222 1.7133703
-0.91903913 1.2940812 1.3622065
-0.90258867 1.2695251 1.105871
-0.88938779 1.2500457 0.88961834
-0.8743571 1.2280244 0.69738662
-0.86035085 1.2074729 0.52574003
-0.85271323 1.1958789 0.37032557
-0.83005625 1.1632574 0.22124045
-0.94209653 1.3319508 1.5342115
-0.91013116 1.2853441 1.23033
-0.89329886 1.260651 0.99354851
-0.88295579 1.2446849 0.79292148
-0.86411458 1.2172364 0.60868835
-0.85303646 1.2007557 0.44596523
-0.83470929 1.1745319 0.29318586
-0.82506269 1.1601135 0.15110172
-0.017575687 0.086861387 8.7339401
-0.76904273 1.1476187 8.7824249
-0.98440218 1.4490426 8.4455271
-0.55228782 0.80112165 3.1578836
-1.258587 1.8126278 5.2583022
-0.95789206 1.3734099 3.1359019
-1.0084881 1.4417102 2.6566982
-1.0388199 1.4818017 2.2432723
-0.24904613 0.45136651 8.7547979
-0.48744601 0.81005305 8.7745152
-0.48262602 0.70653522 3.331845
-0.65312463 0.94680351 3.1821103
-0.92425042 1.3320712 3.4161658
-0.99036616 1.4226447 2.9055204
-1.0259267 1.469936 2.4483843
-0.99338269 1.4206862 1.9575783
-0.96530294 1.3708352 1.7273885
-0.92124403 1.3068254 1.3716217
-0.90297353 1.2795007 1.1113539
-0.88757432 1.256761 0.89193714
-0.87274081 1.2348548 0.69925964
-0.86167073 1.2183019 0.5285601
-0.85137141 1.2028576 0.3712582
-0.8288691 1.1702116 0.22168753
-0.94173205 1.341343 1.5408626
-0.91028738 1.2951272 1.2362163
-0.89385283 1.2708135 0.99861485
-0.88383144 1.2551813 0.79711759
-0.86530036 1.2279656 0.61197537
-0.85164094 1.2076983 0.44713756
-0.83345884 1.1814852 0.29387653
-0.82388937 1.1670679 0.15130325
-0.017272376 0.086922206 8.7339401
-0.76503217 1.1502961 8.7824249
-0.98844343 1.4659795 8.5238514
-0.54948801 0.80304468 3.1578836
-1.2699887 1.8427496 5.3319426
-0.95445526 1.3787146 3.140291
-1.0082637 1.4521563 2.6690972
-1.0409636 1.495943 2.2586224
-0.24746907 0.45223308 8.7547979
-0.48488811 0.81220758 8.7794867
-0.47945175 0.7071749 3.3270054
-0.65079027 0.95050156 3.1868029
-0.92329878 1.3406683 3.4296696
-0.98984152 1.4325303 2.9183185
-1.0242209 1.4784622 2.4563644
-1.0038805 1.4464265 1.9869798
-0.96664095 1.3829657 1.7379023
-0.92113954 1.3164115 1.3778987
-0.90329981 1.2894948 1.1168369
-0.88826758 1.2671063 0.8965748
-0.87374973 1.2454842 0.70300567
-0.86016899 1.2252284 0.52997011
-0.84999138 1.2098416 0.3721908
-0.82764345 1.1771716 0.22213461
-0.94344819 1.3538122 1.5508391
-0.9103862 1.3049269 1.2421026
-0.89434671 1.2809951 1.0036812
-0.88204461 1.2619787 0.79921561
-0.86642164 1.2387177 0.61526239
-0.85299456 1.218628 0.4494822
-0.83501035 1.1925002 0.2952579
-0.82554454 1.1781195 0.15170631
-0.016963925 0.086938627 8.728941
-0.7610122 1.1529596 8.7824249
-0.98615092 1.4736524 8.5483274
-0.54668152 0.80495781 3.1578836
-1.2668573 1.8520091 5.3457503
-0.95234925 1.3859859 3.1490691
-1.0063821 1.4603014 2.6773629
-1.0411999 1.5074798 2.2701349
-0.24588896 0.45309415 8.7547979
-0.48205006 0.81389523 8.7794867
-0.4762789 0.70780116 3.3221662
-0.64843833 0.95419496 3.1914957
-0.92229843 1.349275 3.4431732
-0.98925984 1.4424293 2.9311161
-1.0241753 1.4894773 2.4683344
-1.0122873 1.4694651 2.0127058
-0.96993858 1.3980522 1.7519203
-0.92319977 1.3292098 1.3873141
-0.90356702 1.2995062 1.1223198
-0.88889921 1.2774717 0.90121239
-0.87469506 1.2561355 0.70675176
-0.86137211 1.236095 0.53279018
-0.84857285 1.2168305 0.37312344
-0.8292293 1.1882211 0.22302876
-0.94296461 1.3632388 1.5574901
-0.91272873 1.3180661 1.250932
-0.89478034 1.2911956 1.0087476
-0.88280797 1.272508 0.80341172
-0.86747837 1.2494925 0.61854941
-0.85150886 1.2255899 0.45065451
-0.83366889 1.1994741 0.29594857
-0.82427967 1.1850954 0.15190785
-0.016660349 0.086997315 8.728941
-0.75740856 1.1562591 8.787364
-0.98100084 1.4770858 8.5483274
-0.54386836 0.80686122 3.1578836
-0.94885463 1.3912804 3.1534581
-1.0060443 1.4707735 2.6897616
-1.039556 1.5163926 2.2778101
-0.24430588 0.45394969 8.7547979
-0.47947559 0.81603283 8.7844582
-0.47310749 0.7084139 3.3173265
-0.64606827 0.95788336 3.1961884
-0.92124909 1.357891 3.4566767
-0.99008864 1.4544979 2.94818
-1.0240654 1.5005102 2.4803045
-1.0205454 1.4925801 2.0384321
-0.97314262 1.4131786 1.7659385
-0.92297244 1.3388336 1.393591
-0.90377545 1.3095353 1.1278027
-0.88946921 1.2878567 0.90584999
-0.87557656 1.2668084 0.7104978
-0.86250967 1.2469848 0.53561026
-0.84711593 1.2238243 0.37405604
-0.82791227 1.1952021 0.22347584
-0.9445399 1.3757567 1.5674665
-0.91270101 1.3279063 1.2568183
-0.89515364 1.3014147 1.013814
-0.8835085 1.283058 0.80760783
-0.86847043 1.2602899 0.62183642
-0.8527444 1.2365576 0.45299914
-0.83510077 1.2105292 0.29732993
-0.8258146 1.1961882 0.15231091
-0.016356571 0.087054938 8.728941
-0.75336784 1.1588959 8.787364
-0.9758389 1.4805011 8.5483274
-0.54104859 0.80875474 3.1578836
-0.83580559 1.2402618 3.5829835
-0.94533479 1.3965675 3.1578474
-1.0040653 1.4789327 2.6980276
-1.0396655 1.5279621 2.2893224
-0.24258471 0.45454457 8.7498064
-0.47662416 0.81770152 8.7844582
-0.46924353 0.70796525 3.3076477
-0.64464015 0.96300107 3.205574
-0.92015082 1.3665159 3.4701805
-0.99084496 1.4665897 2.9652438
-1.0222008 1.5090653 2.4882846
-1.0267507 1.512965 2.060483
-0.97424054 1.4253998 1.7764521
-0.92488724 1.3516843 1.4030064
-0.90392476 1.3195816 1.1332856
-0.88997757 1.2982613 0.91048759
-0.87639427 1.2775028 0.71424389
-0.8635816 1.2578975 0.53843033
-0.84840208 1.2348715 0.37592128
-0.82937801 1.206292 0.22437
-0.94603926 1.3883021 1.5774431
-0.91489363 1.3411014 1.2656479
-0.89546633 1.3116522 1.0188802
-0.88414621 1.2936283 0.81180394
-0.86939758 1.2711092 0.62512344
-0.85391349 1.2475488 0.45534378
-0.83366799 1.217523 0.29802063
-0.82445806 1.2031847 0.15251243
-0.016052593 0.087111503 8.728941
-0.74931794 1.1615185 8.787364
-0.9706651 1.4838984 8.5483274
-0.53822225 0.81063843 3.1578836
-0.8271274 1.2366756 3.5645733
-0.94312501 1.4038349 3.1666255
-1.0051861 1.4917637 2.7145593
-1.0397067 1.5395509 2.3008351
-0.24099658 0.45538858 8.7498064
-0.47403327 0.81982213 8.7894306
-0.46607894 0.70854849 3.3028083
-0.64318419 0.96812046 3.2149594
-0.92142236 1.3787698 3.4926865
-0.9900766 1.4765379 2.9780414
-1.0219703 1.5201265 2.5002546
-1.0347197 1.5362231 2.0862093
-0.97726685 1.4405971 1.7904702
-0.92672324 1.3645645 1.4124217
-0.90401483 1.3296447 1.1387686
-0.88793224 1.3050225 0.91280639
-0.87714785 1.2882183 0.71798992
-0.86458784 1.2688328 0.54125035
-0.8496213 1.2459424 0.37778652
-0.82796925 1.2132932 0.22481708
-0.94537079 1.3977816 1.584094
-0.91473895 1.3509809 1.2715342
-0.89571846 1.3219074 1.0239466
-0.88472062 1.3042185 0.81600004
-0.86760753 1.2780432 0.62676698
-0.85501641 1.258563 0.45768842
-0.83497995 1.2286172 0.29940197
-0.82306278 1.2101864 0.15271397
-0.015748419 0.08716701 8.728941
-0.74525893 1.164127 8.787364
-0.96547937 1.4872776 8.5483274
-0.5353893 0.81251222 3.1578836
-0.82496613 1.2428108 3.5737784
-0.94087601 1.4111042 3.1754036
-1.0046654 1.502281 2.7269583
-1.0396798 1.5511584 2.3123474
-0.2394055 0.45622703 8.7498064
-0.4711687 0.82147181 8.7894306
-0.46291599 0.70911837 3.2979689
-0.64170033 0.97324151 3.2243452
-0.91780716 1.383792 3.4971879
-0.98925084 1.486499 2.9908392
-1.0200024 1.5286977 2.5082345
-1.029351 1.5398254 2.0862093
-0.97820717 1.4528744 1.800984
-0.92630529 1.3742464 1.4186987
-0.90638453 1.3431908 1.146993
-0.88832951 1.3154563 0.91744399
-0.87524152 1.2951133 0.719863
-0.86552823 1.2797904 0.54407042
-0.85077363 1.2570368 0.37965176
-0.82931435 1.2244225 0.22571123
-0.94672847 1.4103736 1.5940706
-0.91452634 1.3608756 1.2774205
-0.89590985 1.3321803 1.0290129
-0.88523197 1.3148285 0.82019615
-0.8684181 1.2888964 0.630054
-0.85333532 1.2655702 0.45886073
-0.83622444 1.2397352 0.30078334
-0.82162851 1.2171928 0.15291549
-0.015444053 0.087221444 8.728941
-0.74077433 1.1660655 8.7824249
-0.96083307 1.4914945 8.5532217
-0.5325498 0.81437612 3.1578836
-0.82277209 1.2489461 3.5829835
-0.93858761 1.4183745 3.1841817
-1.0040834 1.5128127 2.739357
-1.0413594 1.5654534 2.3276975
-0.23781151 0.45705995 8.7498064
-0.46829835 0.82311153 8.7894306
-0.45975477 0.70967478 3.2931294
-0.64018846 0.97836381 3.2337308
-0.91177434 1.3851688 3.4926865
-0.98836756 1.4964718 3.0036371
-1.0196507 1.5397862 2.5202048
-1.0239698 1.5434092 2.0862093
-0.9790737 1.465176 1.8114977
-0.92799509 1.3871771 1.4281141
-0.90634376 1.353295 1.152476
-0.88866472 1.3259087 0.92208159
-0.87587994 1.3058608 0.72360903
-0.86372912 1.2867869 0.54548049
-0.84911966 1.2640765 0.38058439
-0.83059198 1.2355758 0.2266054
-0.94800967 1.422992 1.6040471
-0.9142558 1.370785 1.2833068
-0.89604032 1.3424705 1.0340793
-0.88567996 1.3254579 0.82439226
-0.86916345 1.2997707 0.63334101
-0.85431886 1.2766203 0.46120536
-0.83464676 1.2467617 0.30147403
-0.82293606 1.2283546 0.15331855
-0.0151395 0.087274827 8.728941
-0.73669952 1.1686441 8.7824249
-0.95562088 1.4948393 8.5532217
-0.52970386 0.81623012 3.1578836
-0.81413186 1.2452693 3.5645733
-0.93757445 1.4276481 3.1973488
-1.0049881 1.5257089 2.7558892
-1.0429519 1.5797786 2.3430474
-0.23621462 0.45788726 8.7498064
-0.4654223 0.82474113 8.7894306
-0.45727471 0.71127528 3.2931294
-0.64146751 0.98782957 3.2571945
-0.90693361 1.3883431 3.4926865
-0.98742658 1.5064566 3.0164349
-1.0192341 1.5508907 2.5321748
-1.0204401 1.5498055 2.0898843
-0.97986609 1.477501 1.8220112
-0.92745292 1.3968934 1.434391
-0.90624356 1.3634152 1.1579589
-0.88893765 1.3363795 0.92671913
-0.87388515 1.3127693 0.72548205
-0.86455119 1.2977787 0.54830056
-0.85015166 1.2752074 0.38244963
-0.83180153 1.2467529 0.22749956
-0.94715512 1.4325217 1.6106981
-0.91615802 1.3840798 1.2921362
-0.89610988 1.3527781 1.0391457
-0.88606441 1.3361063 0.82858837
-0.86723232 1.3067313 0.63498449
-0.8552357 1.2876925 0.46355
-0.83577055 1.2579169 0.30285537
-0.8214094 1.2353799 0.15352009
-0.014838632 0.087370589 8.7339401
-0.73261565 1.1712085 8.7824249
-0.95094246 1.4990259 8.5581179
-0.52685148 0.81807411 3.1578836
-0.80765367 1.2448255 3.5553682
-0.93650812 1.4369318 3.2105162
-1.0058147 1.5386297 2.7724209
-1.0462135 1.5968152 2.3622351
-0.23461486 0.45870903 8.7498064
-0.46254057 0.82636076 8.7894306
-0.45411342 0.71180725 3.28829
-0.63521177 0.98571074 3.2431161
-0.90208197 1.3915004 3.4926865
-0.98642796 1.5164531 3.0292325
-1.0171062 1.559487 2.5401547
-1.0113155 1.5476822 2.0825341
-0.98058438 1.4898493 1.832525
-0.92685425 1.4066228 1.4406679
-0.90608364 1.3735512 1.1634418
-0.88914835 1.3468682 0.93135673
-0.87440813 1.3235478 0.72922814
-0.86530709 1.3087919 0.55112064
-0.85111618 1.2863605 0.38431486
-0.83019388 1.253801 0.22794664
-0.94829375 1.4451845 1.6206745
-0.91575944 1.3940259 1.2980225
-0.8961184 1.3631022 1.0442121
-0.8863852 1.3467733 0.83278447
-0.8678605 1.3176379 0.63827151
-0.85341054 1.2947284 0.46472231
-0.83410048 1.2649608 0.30354607
-0.82259548 1.2465795 0.15392315
-0.014533561 0.087421857 8.7339401
-0.72811341 1.1730984 8.7774858
-0.9457041 1.5023363 8.5581179
-0.52399266 0.8199082 3.1578836
-0.80118865 1.2443516 3.5461633
-0.93408769 1.4442143 3.2192943
-1.0050318 1.5492138 2.7848196
-1.0476216 1.6112062 2.3775849
-0.23314197 0.45978314 8.7547979
-0.45965323 0.82797027 8.7894306
-0.45162597 0.71338809 3.28829
-0.63920307 0.99955362 3.2806582
-0.89721918 1.3946408 3.4926865
-0.98678583 1.5286521 3.0462966
-1.0165678 1.570617 2.552125
-1.0114403 1.5597364 2.0935595
-0.98122823 1.5022205 1.8430386
-0.92832899 1.4196225 1.4500831
-0.90815419 1.3872011 1.1716661
-0.89172405 1.3610799 0.93831313
-0.87232459 1.330469 0.73110116
-0.86599642 1.319826 0.55394071
-0.85201323 1.2975359 0.3861801
-0.8312819 1.265015 0.2288408
-0.94935554 1.4578726 1.630651
-0.91530257 1.4039863 1.3039091
-0.89606553 1.3734428 1.0492785
-0.88664228 1.3574588 0.83698058
-0.86583936 1.3246119 0.63991499
-0.85420746 1.3058348 0.46706694
-0.83510298 1.276152 0.30492741
-0.82371324 1.2578022 0.15432622
-0.014228312 0.087472051 8.7339401
-0.7240141 1.1756328 8.7774858
-0.94045413 1.5056282 8.5581179
-0.52112746 0.82173228 3.1578836
-0.79473674 1.243848 3.5369582
-0.93033421 1.4494816 3.2236834
-1.0041875 1.559811 2.7972186
-1.0524174 1.6310132 2.40061
-0.23153561 0.46059412 8.7547979
-0.45676026 0.82956976 8.7894306
-0.44913304 0.71496022 3.28829
-0.64402974 1.0148935 3.3228931
-0.89234549 1.3977642 3.4926865
-0.9842571 1.5364796 3.0548284
-1.0159643 1.5817622 2.564095
-1.0298377 1.6003195 2.1413364
-0.98373741 1.517607 1.8570567
-0.92760539 1.4293845 1.4563601
-0.90786237 1.3973755 1.1771491
-0.89179677 1.3716121 0.94295073
-0.87273169 1.3412775 0.73484725
-0.86400175 1.3268608 0.55535072
-0.85016072 1.3046176 0.38711271
-0.82958144 1.2720803 0.22928788
-0.95034015 1.4705857 1.6406276
-0.91698265 1.417354 1.3127384
-0.89595145 1.3837994 1.0543448
-0.88683558 1.3681625 0.84117669
-0.86634988 1.3355496 0.64320201
-0.8549372 1.3169624 0.46941158
-0.83334035 1.2832124 0.30561811
-0.82204008 1.264859 0.15452774
-0.013926307 0.087564684 8.7389402
-0.71950096 1.1774896 8.7725468
-0.93465656 1.5080363 8.5532217
-0.51825589 0.82354641 3.1578836
-0.78934413 1.2449644 3.5323555
-0.92655534 1.4547405 3.2280724
-1.0047959 1.5727926 2.8137503
-1.0432609 1.6292781 2.392935
-0.22992642 0.46139956 8.7547979
-0.45411667 0.83162719 8.7944021
-0.44597 0.71545666 3.2834506
-0.65795016 1.0448833 3.4120557
-0.88746095 1.4008706 3.4926865
-0.98308474 1.5465091 3.067626
-1.0152949 1.592922 2.5760651
-1.0497887 1.6439071 2.1927891
-0.98615098 1.533029 1.8710749
-0.92893243 1.4424312 1.4657755
-0.90751058 1.4075649 1.1826321
-0.89180678 1.3821613 0.94758832
-0.87307382 1.3521049 0.73859328
-0.86457181 1.3379269 0.5581708
-0.85093653 1.3158271 0.38897794
-0.83054745 1.28333 0.23018204
-0.95326298 1.4864662 1.6539296
-0.91639692 1.4273489 1.3186247
-0.89810604 1.3977988 1.0619444
-0.88696486 1.378884 0.8453728
-0.86679465 1.3465068 0.64648902
-0.85559958 1.3281111 0.47175622
-0.83422118 1.2944387 0.30699944
-0.82303542 1.2761174 0.1549308
-0.013620565 0.087612763 8.7389402
-0.71498376 1.1793295 8.7676067
-0.92938685 1.5112896 8.5532217
-0.51616836 0.82661664 3.1626556
-0.78499353 1.2477121 3.5323555
-0.93170708 1.4741628 3.263185
-1.0038196 1.5834206 2.826149
-1.0410051 1.6383206 2.40061
-0.22844142 0.46245849 8.7597885
-0.45121095 0.83320725 8.7944021
-0.44346988 0.71700907 3.2834506
-0.67441148 1.0793731 3.5152967
-0.8814072 1.4021168 3.4881854
-0.98046309 1.5543431 3.0761578
-1.0145602 1.6040967 2.5880351
-1.0422295 1.6446979 2.1891139
-0.98846871 1.5484862 1.885093
-0.93017954 1.4555045 1.475191
-0.90935206 1.4212909 1.1908565
-0.89175385 1.3927271 0.95222592
-0.87585217 1.3668544 0.74421245
-0.86248583 1.3449748 0.5595808
-0.84899133 1.3229237 0.38991058
-0.82875383 1.2904115 0.2306291
-0.95408195 1.4992349 1.663906
-0.91575247 1.4373571 1.3245111
-0.8978563 1.408195 1.0670106
-0.88702995 1.3896229 0.8495689
-0.86971539 1.361463 0.65141958
