# .PCD v0.7 - Point Cloud Data file format
VERSION 0.7
FIELDS x y z
SIZE 4 4 4
TYPE F F F
COUNT 1 1 1
WIDTH 1488
HEIGHT 1
VIEWPOINT 0 0 0 1 0 0 0
POINTS 1488
DATA ascii
-0.99359608 1.1801676 2.8945024
-1.0242755 1.2132069 2.4045882
-0.99702334 1.1784459 1.9247596
-0.28828558 0.42597866 8.7348309
-0.55382347 0.75565559 8.6949711
-0.55107373 0.66764271 3.3705604
-0.73514348 0.88238651 3.1774173
-0.94891721 1.1326773 3.1190858
-1.0044932 1.1952485 2.6239688
-1.034567 1.2280208 2.2010028
-0.96500713 1.1434424 1.7003169
-0.94010621 1.1064807 1.506602
-0.90981102 1.0697012 1.214699
-0.89595425 1.0523069 0.99072945
-0.88578534 1.0396391 0.80150396
-0.87278938 1.0236729 0.63183039
-0.8595686 1.0074654 0.47920895
-0.84843922 0.99372584 0.33954909
-0.82800049 0.96911335 0.207381
-0.92909807 1.0966307 1.3612856
-0.90104824 1.0624079 1.0978878
-0.88819939 1.0465282 0.89222133
-0.87935323 1.0350175 0.71529353
-0.86292148 1.0149697 0.55280906
-0.84735596 0.99596798 0.40610644
-0.83119512 0.97663486 0.2710841
-0.82909405 0.9734894 0.14525732
-0.025079275 0.084999032 8.7339401
-0.85639828 1.0641158 8.6836395
-1.1172408 1.3703609 8.5238514
-0.62286121 0.75339007 3.1721995
-0.98310822 1.1809829 3.6796365
-0.99254245 1.1873039 2.9032805
-1.0236499 1.2210882 2.4128542
-1.0011501 1.1917361 1.9401096
-0.2867969 0.42698237 8.7348309
-0.55118239 0.75758421 8.6949711
-0.54873991 0.66956228 3.3705604
-0.73205894 0.88494724 3.1774173
-0.94634968 1.1376566 3.1235871
-1.0053275 1.2047552 2.6367669
-1.0341406 1.2362473 2.2089827
-0.96754205 1.1545995 1.7113425
-0.93853766 1.1124814 1.5101067
-0.91109407 1.0788181 1.2209759
-0.89497513 1.0586213 0.99347091
-0.88501191 1.0461067 0.80382276
-0.87220615 1.0302515 0.63370347
-0.85914749 1.0141199 0.48061898
-0.84814185 1.0004283 0.3404817
-0.82783425 0.97579521 0.20782807
-0.93007141 1.1055818 1.3679365
-0.89993775 1.0686384 1.1008309
-0.89009655 1.056215 0.89728767
-0.88158774 1.0450188 0.71948963
-0.86241937 1.021584 0.55445254
-0.8501476 1.006346 0.40845108
-0.83097726 0.98331267 0.27177477
-0.82891697 0.9801923 0.14545885
-0.024773581 0.085043341 8.728941
-0.85219371 1.0664915 8.6787004
-1.1124506 1.3742523 8.5238514
-0.61928076 0.75440568 3.1674278
-0.97897989 1.1844075 3.6796365
-0.99298048 1.1962903 2.9164479
-1.0229815 1.2289797 2.4211199
-1.003143 1.2026079 1.951622
-0.2853047 0.42798087 8.7348309
-0.54884613 0.75993603 8.6999426
-0.54560632 0.67049849 3.3657207
-0.7289654 0.88749725 3.1774173
-0.9437589 1.1426315 3.1280882
-1.0044435 1.2122738 2.6452987
-1.0355946 1.2468038 2.220953
-0.9678424 1.1631821 1.7186928
-0.93922859 1.1212186 1.5171157
-0.90982366 1.0849744 1.2241144
-0.89665103 1.0681442 0.99895382
-0.88705343 1.0559735 0.80846035
-0.87158751 1.0368384 0.63557649
-0.85869026 1.0207837 0.48202902
-0.84780788 1.0071409 0.34141433
-0.82763141 0.98248762 0.20827515
-0.92860013 1.1116873 1.3712621
-0.90138757 1.077975 1.1067171
-0.88917059 1.0626218 0.89982086
-0.88084888 1.051569 0.72158772
-0.86188155 1.0282072 0.55609608
-0.84975332 1.0130315 0.40962341
-0.83072293 0.99000084 0.27246544
-0.82870299 0.98690581 0.14566039
-0.024476571 0.085129298 8.728941
-0.84750026 1.068242 8.6688213
-1.1076468 1.3781271 8.5238514
-0.61664361 0.75656277 3.1674278
-0.98103583 1.195369 3.7026489
-0.99184471 1.2034457 2.925226
-1.0222707 1.2368816 2.4293861
-1.0071166 1.2159767 1.9669722
-0.28380904 0.42897418 8.7348309
-0.54619014 0.76184726 8.6999426
-0.54247284 0.67142099 3.3608816
-0.72586304 0.8900364 3.1774173
-0.941145 1.1476023 3.1325896
-1.0051762 1.2218151 2.6580963
-1.0350702 1.2550607 2.2289329
-0.97025359 1.1743944 1.7297182
-0.93986988 1.1299741 1.5241249
-0.91101176 1.0941262 1.2303913
-0.89827132 1.0776918 1.0044367
-0.88619918 1.0624652 0.81077915
-0.87093359 1.0434337 0.6374495
-0.85819697 1.0274565 0.48343906
-0.8474375 1.0138632 0.34234694
-0.82739186 0.98919052 0.20872223
-0.92948103 1.12067 1.377913
-0.9027831 1.0873349 1.1126035
-0.89096546 1.0723506 0.9048872
-0.88007492 1.0581267 0.72368574
-0.86130798 1.034839 0.55773956
-0.84932268 1.0197263 0.41079572
-0.830432 0.99669921 0.27315614
-0.82525307 0.98979247 0.14566039
-0.024179267 0.085214213 8.728941
-0.84040195 1.0669202 8.6342468
-1.1021944 1.3811892 8.5189552
-0.61399895 0.75871068 3.1674278
-0.98426104 1.2078739 3.7302639
-0.99067116 1.2106078 2.9340041
-1.0215169 1.2447933 2.4376521
-1.0089732 1.226912 1.9784846
-0.28230989 0.42996222 8.7348309
-0.54352748 0.76374912 8.6999426
-0.53933954 0.67232972 3.3560419
-0.72275186 0.89256471 3.1774173
-0.93850768 1.1525688 3.1370907
-1.0042045 1.2293561 2.6666281
-1.0364099 1.2656605 2.2409031
-0.97044826 1.1830163 1.7370685
-0.94273233 1.1414975 1.5346385
-0.91214699 1.1032994 1.2366682
-0.89716989 1.0840421 1.0071782
-0.88531053 1.0689639 0.81309795
-0.8702442 1.0500369 0.63932252
-0.86072987 1.0378309 0.4862591
-0.84703046 1.0205952 0.34327957
-0.83029741 0.9997347 0.20961639
-0.93031037 1.1296722 1.384564
-0.90155315 1.0935985 1.1155467
-0.88995999 1.0787795 0.90742046
-0.88215584 1.0681913 0.72788185
-0.86370677 1.0451194 0.56102657
-0.85195327 1.0301762 0.41314036
-0.83010435 1.0034075 0.27384681
-0.82497889 0.99651545 0.14586191
-0.023881666 0.085298099 8.728941
-0.83428025 1.0667863 8.6095505
-1.0973665 1.385028 8.5189552
-0.61134678 0.7608493 3.1674278
-0.97881019 1.2097834 3.7256618
-0.98945957 1.2177762 2.9427824
-1.018943 1.2505331 2.4417849
-1.0168469 1.2453233 2.0015097
-0.28096414 0.43118745 8.7398224
-0.54116517 0.76607746 8.704915
-0.53620654 0.67322493 3.3512027
-0.71963173 0.89508218 3.1774173
-0.93584734 1.1575308 3.1415918
-1.0048354 1.2389309 2.6794262
-1.0357872 1.2739466 2.2488832
-0.97059453 1.1916541 1.7444189
-0.94326448 1.1502967 1.5416477
-0.91075975 1.1094853 1.2398067
-0.89868975 1.0936285 1.0126611
-0.88720089 1.0788909 0.81773555
-0.86951929 1.056648 0.6411956
-0.86015117 1.0445322 0.48766914
-0.84658659 1.0273366 0.34421217
-0.8299709 1.006469 0.21006347
-0.92872483 1.1358033 1.3878895
-0.90285051 1.1029944 1.121433
-0.89165199 1.0885493 0.91248679
-0.8812995 1.0747737 0.72997987
-0.86304879 1.0517784 0.56267005
-0.85143661 1.0369004 0.41431266
-0.83288318 1.0139521 0.27522817
-0.82466775 1.0032486 0.14606345
-0.023583774 0.085380942 8.728941
-0.81340325 1.0475926 8.4317369
-1.0925252 1.3888502 8.5189552
-0.60775656 0.76181161 3.1626556
-0.96112418 1.1964375 3.6750338
-0.98820996 1.2249509 2.9515605
-1.0181111 1.2584579 2.4500508
-1.0124937 1.2488652 2.0015097
-0.2794573 0.43216556 8.7398224
-0.53848779 0.76796186 8.704915
-0.5330739 0.6741063 3.3463631
-0.71650296 0.89758867 3.1774173
-0.93316364 1.1624881 3.1460929
-1.0054114 1.248525 2.6922238
-1.0351192 1.2822438 2.2568631
-0.97069222 1.2003071 1.7517692
-0.94599801 1.1618791 1.5521612
-0.91179931 1.118692 1.2460835
-0.89751005 1.0999987 1.0154026
-0.88623095 1.0854126 0.82005435
-0.86875874 1.0632668 0.64306861
-0.86257273 1.0549558 0.49048921
-0.84610617 1.0340874 0.34514484
-0.83276242 1.0170664 0.21095763
-0.929461 1.1448358 1.3945405
-0.90154397 1.1092761 1.1243762
-0.89056677 1.0949996 0.91501999
-0.88040781 1.0813631 0.73207796
-0.86235464 1.0584455 0.56431359
-0.85395479 1.0474007 0.4166573
-0.83246857 1.0206909 0.27591884
-0.82431966 1.0099915 0.14626497
-0.023293687 0.085505612 8.7339401
-0.80310285 1.0418082 8.3625879
-1.0876704 1.3926553 8.5189552
-0.60509366 0.76392841 3.1626556
-1.0080999 1.2639385 3.8683398
-0.98841953 1.2340012 2.9647279
-1.0172364 1.2663921 2.4583166
-1.0081282 1.2523918 2.0015097
-0.27794707 0.43313843 8.7398224
-0.53610784 0.77027476 8.7098866
-0.53071755 0.67596298 3.3463631
-0.7122938 0.89873171 3.1727247
-0.93045688 1.167441 3.1505942
-1.0059327 1.2581383 2.7050216
-1.0344058 1.290552 2.2648432
-0.97286385 1.2116188 1.7627947
-0.94642037 1.1707212 1.5591702
-0.91278571 1.1279193 1.2523605
-0.89629692 1.106374 1.018144
-0.88522637 1.0919408 0.82237315
-0.87088329 1.0734935 0.6468147
-0.86190844 1.0616847 0.49189925
-0.84558874 1.0408473 0.34607744
-0.83234859 1.0238311 0.21140471
-0.93014532 1.1538873 1.4011915
-0.90274292 1.1187077 1.1302625
-0.89215541 1.1048094 0.92008632
-0.88233405 1.0914888 0.73627406
-0.86459446 1.068792 0.56760061
-0.85335171 1.054153 0.41782963
-0.83201706 1.027439 0.27660954
-0.82393456 1.0167443 0.14646651
-0.022995075 0.085586399 8.7339401
-0.76405847 0.99831688 7.9921436
-1.0821788 1.3956388 8.51406
-0.60242337 0.76603597 3.1626556
-1.0412757 1.3149325 4.0110183
-0.98708719 1.2411931 2.973506
-1.0163184 1.2743355 2.4665825
-1.0037504 1.2559034 2.0015097
-0.27643344 0.43410602 8.7398224
-0.53371823 0.77258039 8.7148581
-0.52835482 0.67781138 3.3463631
-0.70915228 0.90121263 3.1727247
-0.92907751 1.1740962 3.1595967
-1.0047776 1.2657275 2.7135537
-1.0336471 1.2988706 2.2728233
-0.97496814 1.2229601 1.77382
-0.94902462 1.1823614 1.569684
-0.91128087 1.134133 1.2554989
-0.89767087 1.1160126 1.023627
-0.88696438 1.1019257 0.82701075
-0.87003887 1.0801373 0.64868772
-0.8612076 1.0684217 0.49330926
-0.84811842 1.0514395 0.34794268
-0.83189756 1.0306054 0.21185179
-0.93077791 1.1629574 1.4078425
-0.9038868 1.1281611 1.1361488
-0.89098996 1.1112802 0.92261952
-0.88135934 1.0981015 0.73837209
-0.86381543 1.0754852 0.56924409
-0.8527118 1.0609139 0.41900194
-0.83463156 1.0380557 0.27799088
-0.82351226 1.0235065 0.14666803
-0.022696182 0.08566615 8.7339401
-0.75634009 0.99540842 7.94769
-1.0779215 1.4002147 8.5189552
-0.59974569 0.76813412 3.1626556
-1.0499604 1.3354545 4.061646
-0.98720068 1.2502704 2.9866731
-1.0136108 1.2800816 2.4707155
-0.99736822 1.2568885 1.9976722
-0.27491644 0.43506831 8.7398224
-0.53131914 0.77487874 8.7198296
-0.52675468 0.68064588 3.3512027
-0.70600212 0.90368247 3.1727247
-0.92766297 1.1807561 3.1685991
-1.0051961 1.2753724 2.7263515
-1.0328429 1.3071996 2.2808034
-0.97700512 1.234331 1.7848457
-0.94933665 1.191245 1.5766931
-0.91217101 1.1433927 1.2617759
-0.89637899 1.1224066 1.0263685
-0.88587809 1.1084757 0.82932955
-0.87205392 1.0904087 0.65243381
-0.86346757 1.078912 0.49612933
-0.84751368 1.0582277 0.34887531
-0.83140934 1.037389 0.21229887
-0.93135834 1.1720461 1.4144936
-0.90497577 1.1376359 1.1420351
-0.89247483 1.121129 0.92768586
-0.88034934 1.1047208 0.74047017
-0.86300009 1.082186 0.57088763
-0.85203511 1.0676831 0.42017427
-0.8340925 1.0448329 0.27868158
-0.82305276 1.0302782 0.14686957
-0.022397013 0.085744843 8.7339401
-0.73976475 0.98066968 7.809391
-1.071173 1.4015417 8.5042706
-0.59797508 0.7714029 3.1674278
-1.0236566 1.3113889 3.9788003
-0.98578531 1.2574786 2.9954512
-1.0126145 1.2880367 2.4789815
-0.99892509 1.2679157 2.0091846
-0.27354863 0.43627036 8.7448139
-0.52861112 0.77672863 8.7198296
-0.52437556 0.68248039 3.3512027
-0.70284337 0.9061414 3.1727247
-0.9262132 1.1874201 3.1776016
-1.0039523 1.2829815 2.7348833
-1.0319929 1.3155388 2.2887833
-0.97897446 1.2457308 1.7958713
-0.94959807 1.2001451 1.5837022
-0.91300756 1.1526722 1.2680528
-0.89765131 1.1320817 1.0318514
-0.88751018 1.1185015 0.83396715
-0.87112516 1.0970767 0.65430683
-0.86268049 1.0856754 0.49753937
-0.84687191 1.0650245 0.34980792
-0.83088392 1.0441816 0.21274593
-0.93188667 1.1811527 1.4211446
-0.90350425 1.14396 1.1449783
-0.89390177 1.1310016 0.93275219
-0.88211977 1.1149057 0.74466628
-0.86214852 1.088894 0.5725311
-0.85132158 1.0744606 0.42134658
-0.83351624 1.0516189 0.27937225
-0.82255602 1.0370592 0.14707109
-0.022097573 0.085822508 8.7339401
-0.73726815 0.9844901 7.8192692
-1.0644281 1.4028385 8.4895849
-0.59527868 0.77348554 3.1674278
-1.0142863 1.3087769 3.9603903
-0.98433167 1.2646923 3.0042293
-1.0115749 1.2960002 2.4872472
-1.0023918 1.2814939 2.0245347
-0.2720241 0.43722254 8.7448139
-0.52619433 0.77901107 8.7248001
-0.52199 0.68430668 3.3512027
-0.69862336 0.90722185 3.1680319
-0.92472821 1.1940887 3.186604
-1.0042675 1.292657 2.7476809
-1.0329487 1.3262651 2.3007534
-0.98087603 1.2571594 1.8068967
-0.9498089 1.2090615 1.5907112
-0.9137904 1.1619714 1.2743297
-0.89886701 1.1417794 1.0373343
-0.88634163 1.1250725 0.83628595
-0.8701604 1.1037515 0.65617985
-0.8618567 1.0924461 0.49894941
-0.84619296 1.0718297 0.35074055
-0.83032113 1.0509833 0.21319301
-0.93236256 1.1902771 1.4277955
-0.90449369 1.1534684 1.1508646
-0.89260954 1.1375065 0.93528539
-0.88102621 1.1215471 0.7467643
-0.86126071 1.0956094 0.57417464
-0.85057098 1.081246 0.42251888
-0.83290273 1.0584139 0.28006294
-0.82202184 1.0438491 0.14727263
-0.021797862 0.085899122 8.7339401
-0.73012012 0.982068 7.7797551
-1.0576873 1.4041052 8.4748983
-0.59257513 0.77555871 3.1674278
-0.99065238 1.2875336 3.88675
-0.98283952 1.271911 3.0130074
-1.0122155 1.3061967 2.4996462
-1.017571 1.3103012 2.0629098
-0.27049625 0.43816942 8.7448139
-0.52376825 0.78128624 8.7297716
-0.51959813 0.68612462 3.3512027
-0.69545239 0.90965497 3.1680319
-0.92453468 1.202487 3.2001076
-1.0029346 1.3002851 2.7562129
-1.0319991 1.3346304 2.3087335
-0.98270971 1.2686161 1.8179222
-0.94996905 1.2179939 1.5977204
-0.91451931 1.1712902 1.2806066
-0.89745086 1.1482046 1.0400758
-0.88786727 1.1351382 0.84092361
-0.87201703 1.1140835 0.65992594
-0.86395407 1.103001 0.50176948
-0.84850711 1.0825093 0.35260579
-0.82972091 1.0577936 0.21364009
-0.93278623 1.1994195 1.4344465
-0.90294486 1.1598082 1.1538078
-0.89393193 1.1474166 0.94035172
-0.879897 1.1281945 0.74886233
-0.8603363 1.1023316 0.57581812
-0.84978336 1.0880393 0.42369121
-0.83225197 1.065217 0.28075361
-0.82145035 1.050648 0.14747415
-0.021497885 0.085974678 8.7339401
-0.72807121 0.98648649 7.7945728
-1.0430253 1.3947403 8.396575
-0.58986431 0.77762246 3.1674278
-1.026469 1.3437734 4.0432358
-0.98130918 1.2791348 3.021786
-1.0110815 1.3141828 2.5079119
-1.0364748 1.3443066 2.1089599
-0.26911512 0.43935767 8.7498064
-0.52103788 0.78310978 8.7297716
-0.51719999 0.68793416 3.3512027
-0.69122976 0.91070229 3.1633391
-0.9242937 1.2108986 3.2136111
-1.0015606 1.3079195 2.7647448
-1.0310036 1.3430051 2.3167133
-0.98447526 1.2801009 1.8289475
-0.95007825 1.2269419 1.6047294
-0.91519421 1.1806279 1.2868835
-0.89856434 1.1579374 1.0455588
-0.88661635 1.1417292 0.84324241
-0.8738119 1.1244419 0.66367197
-0.86304337 1.1097969 0.50317949
-0.84774017 1.0893413 0.35353839
-0.83214319 1.0685416 0.21453427
-0.93315727 1.2085789 1.4410975
-0.90383434 1.1693492 1.1596941
-0.89255863 1.1539398 0.94288492
-0.87873203 1.1348475 0.75096041
-0.85937548 1.1090609 0.57746166
-0.84895861 1.09484 0.42486352
-0.83156371 1.0720285 0.28144431
-0.82390463 1.0614018 0.14787722
-0.021197645 0.086049199 8.7339401
-0.72737736 0.99278355 7.8242087
-1.0266213 1.3828374 8.303566
-0.58714628 0.77967674 3.1674278
-1.0501008 1.3847107 4.1536965
-0.97828913 1.2844577 3.0261748
-1.0116119 1.3244133 2.5203109
-1.0356722 1.3530068 2.1166348
-0.26757982 0.44029438 8.7498064
-0.51859432 0.78536892 8.7347431
-0.51554704 0.69074291 3.3560419
-0.68804657 0.9131096 3.1633391
-0.92400515 1.2193229 3.2271149
-1.0001454 1.3155602 2.7732766
-1.0317887 1.3537859 2.3286836
-0.98617256 1.2916135 1.8399732
-0.95013654 1.2359058 1.6117386
-0.91581511 1.1899847 1.2931604
-0.89962053 1.1676918 1.0510417
-0.88803494 1.1518338 0.84788001
-0.87271333 1.1311556 0.66554505
-0.86209577 1.1165998 0.5045895
-0.84993905 1.1000682 0.35540363
-0.83145428 1.0753796 0.21498135
-0.93574721 1.2207192 1.451074
-0.90220773 1.1757038 1.1626372
-0.89377612 1.1638867 0.94795126
-0.88029736 1.1451044 0.75515652
-0.86125749 1.1195396 0.58074868
-0.84809673 1.1016483 0.42603585
-0.83385944 1.0827717 0.28282565
-0.82324433 1.0682286 0.14807875
-0.02089715 0.086122669 8.7339401
-0.72847569 1.0016018 7.8736014
-0.58442116 0.78172153 3.1674278
-1.074634 1.4273895 4.2687593
-0.97668827 1.2916857 3.0349529
-1.0120834 1.3346636 2.5327098
-1.0367607 1.36427 2.1281471
-0.26604128 0.44122571 8.7498064
-0.51614136 0.78762054 8.7397146
-0.51313275 0.69253826 3.3560419
-0.68485504 0.91550571 3.1633391
-0.92497772 1.2294999 3.2451198
-1.0002604 1.3252887 2.7860744
-1.0306929 1.3621851 2.3366637
-0.98780131 1.3031534 1.8509985
-0.95230746 1.2477198 1.6222522
-0.91638184 1.1993603 1.2994373
-0.90061969 1.1774677 1.0565246
-0.88670129 1.1584442 0.85019881
-0.87157851 1.1378754 0.66741806
-0.8611111 1.1234094 0.50599957
-0.84908366 1.106926 0.35633627
-0.83072776 1.0822257 0.21542843
-0.93600243 1.2299207 1.457725
-0.90299708 1.1852765 1.1685236
-0.89232135 1.1704277 0.95048445
-0.87904829 1.1517781 0.75725454
-0.86021054 1.126292 0.58239222
-0.85014927 1.1123258 0.42838046
-0.83308262 1.0896097 0.28351635
-0.82558215 1.0790313 0.14848182
-0.020603141 0.086238198 8.7389402
-0.73452204 1.0173711 7.9773259
-0.94841999 1.2962784 7.7455101
-0.58168888 0.78375679 3.1674278
-1.0696448 1.4311321 4.2687593
-0.97504884 1.298918 3.0437312
-1.0124953 1.3449329 2.5451086
-1.037783 1.3755571 2.1396599
-0.26449949 0.44215167 8.7498064
-0.51367897 0.78986472 8.7446871
-0.51071221 0.69432521 3.3560419
-0.68165517 0.91789073 3.1633391
-0.92458785 1.2379539 3.2586234
-1.0003192 1.3350339 2.7988722
-1.0313606 1.3730026 2.3486338
-0.98732311 1.3120112 1.8583488
-0.95225358 1.2567213 1.6292613
-0.91689408 1.2087539 1.3057142
-0.89903265 1.1839345 1.0592661
-0.88801235 1.1685865 0.85483634
-0.87321347 1.1482913 0.6711641
-0.86008936 1.1302259 0.50740957
-0.85116678 1.1176993 0.3582015
-0.82996356 1.0890799 0.21587551
-0.93845558 1.2421181 1.4677017
-0.9061687 1.1980928 1.177353
-0.89343339 1.1804099 0.95555079
-0.88050407 1.1620744 0.76145065
-0.86197984 1.1368135 0.58567923
-0.84919941 1.1191587 0.42955279
-0.83226812 1.0964556 0.28420702
-0.8248325 1.0858849 0.14868335
-0.020301986 0.086309589 8.7389402
-0.74589616 1.0407748 8.1403208
-0.93970191 1.2938132 7.7112432
-0.57806432 0.78458047 3.1626556
-1.0658067 1.4364262 4.2733622
-0.97337079 1.3061546 3.0525093
-1.0128479 1.3552216 2.5575075
-1.0387392 1.3868678 2.1511722
-0.26295447 0.44307229 8.7498064
-0.51149583 0.79254937 8.7546301
-0.50754452 0.69508839 3.3512027
-0.67844695 0.9202646 3.1633391
-0.92415023 1.2464203 3.2721272
-1.0003222 1.3447956 2.8116701
-1.0319654 1.3838414 2.3606038
-0.98882407 1.3235978 1.8693745
-0.95429218 1.2685877 1.6397748
-0.91735184 1.2181659 1.3119911
-0.89992857 1.1937435 1.064749
-0.88926333 1.1787518 0.85947394
-0.87199312 1.1550324 0.67303717
-0.8619222 1.1408765 0.51022971
-0.85022247 1.1245821 0.35913411
-0.83216614 1.0999131 0.21676967
-0.93859464 1.2513603 1.4743526
-0.90683478 1.2077132 1.1832393
-0.89448655 1.1904141 0.96061713
-0.88189864 1.172395 0.76564676
-0.86368614 1.147361 0.58896625
-0.85113662 1.1298809 0.43189743
-0.83439618 1.1072638 0.28558838
-0.82404506 1.0927464 0.14888488
-0.020000586 0.08637993 8.7389402
-0.75351393 1.0592042 8.2638025
-0.93517995 1.2970855 7.7112432
-0.57532209 0.78659356 3.1626556
-1.0642617 1.444857 4.2871695
-0.97165406 1.3133954 3.0612874
-1.0131409 1.3655288 2.5699062
-1.039629 1.3982019 2.1626849
-0.26140627 0.44398746 8.7498064
-0.50901312 0.79477924 8.7596016
-0.50511509 0.69685578 3.3512027
-0.6752305 0.92262721 3.1633391
-0.92495507 1.2566519 3.2901318
-1.0002693 1.3545734 2.8244677
-1.0325068 1.3947009 2.3725739
-0.98823661 1.3324876 1.8767248
-0.9541257 1.2776259 1.6467839
-0.91775513 1.2275957 1.3182681
-0.90076691 1.203573 1.0702319
-0.88779873 1.1853945 0.86179274
-0.8735165 1.1654886 0.6767832
-0.86081284 1.1477159 0.51163971
-0.84924042 1.1314718 0.36006674
-0.83131242 1.106793 0.21721675
-0.94091028 1.2636133 1.484329
-0.90744483 1.217353 1.1891258
-0.89290321 1.1969846 0.96315032
-0.883232 1.1827393 0.76984292
-0.86532927 1.1579343 0.59225327
-0.85009837 1.1367376 0.43306974
-0.83349246 1.1141349 0.28627905
-0.82321972 1.0996156 0.14908642
-0.019698942 0.086449221 8.7389402
-0.76325202 1.0808733 8.4119806
-0.93360877 1.3044826 7.7357197
-0.57257283 0.78859705 3.1626556
-1.0684358 1.4611801 4.3239899
-0.9713161 1.3225704 3.0744548
-1.0133743 1.3758546 2.5823052
-1.0404522 1.409559 2.1741974
-0.25985485 0.4448972 8.7498064
-0.50680643 0.79745156 8.7695436
-0.50194567 0.69759423 3.3463631
-0.67200577 0.92497855 3.1633391
-0.92441541 1.2651464 3.3036354
-1.0001602 1.3643674 2.8372657
-1.0312008 1.4031528 2.380554
-0.989609 1.3441194 1.8877504
-0.95603156 1.2895434 1.6572976
-0.915784 1.2339174 1.3214065
-0.89905375 1.2100664 1.0729734
-0.88894159 1.1955962 0.86643034
-0.87221014 1.17225 0.67865622
-0.86253095 1.158409 0.51445979
-0.85115576 1.1423073 0.36193198
-0.83042079 1.1136805 0.21766382
-0.94093245 1.2728952 1.49098
-0.90799856 1.2270116 1.1950121
-0.89385027 1.2070228 0.96821666
-0.88180089 1.1894611 0.77194095
-0.86409551 1.1647402 0.59389675
-0.84902263 1.1436007 0.43424204
-0.83255082 1.1210132 0.28696972
-0.82235646 1.1064923 0.14928794
-0.019397058 0.086517453 8.7389402
-0.76972741 1.0981683 8.5255833
-0.93022865 1.309394 7.7455101
-0.56981665 0.79059088 3.1626556
-1.0621812 1.4633195 4.319387
-0.96951514 1.3298236 3.0832329
-1.0118871 1.383927 2.5905712
-1.0393144 1.4183534 2.1818724
-0.2583003 0.44580159 8.7498064
-0.50401974 0.79921579 8.7695436
-0.49877727 0.69831896 3.3415239
-0.6697821 0.92871851 3.1680319
-0.92638379 1.277177 3.3261416
-0.99999499 1.3741769 2.8500636
-1.0316241 1.4140468 2.392524
-0.99091208 1.3557769 1.8987757
-0.95786572 1.3014896 1.6678112
-0.91608858 1.2433739 1.3276834
-0.89978826 1.2199277 1.0784563
-0.8873933 1.202256 0.86874914
-0.87362152 1.1827455 0.68240231
-0.86133349 1.1652704 0.5158698
-0.85008442 1.1492207 0.36286458
-0.82949114 1.1205751 0.21811089
-0.94090122 1.2821927 1.497631
-0.90849578 1.2366887 1.2008984
-0.89473808 1.2170823 0.97328311
-0.88302362 1.1998426 0.77613705
-0.86562502 1.175354 0.59718376
-0.85079294 1.1543831 0.43658668
-0.83450997 1.1318842 0.28835109
-0.82145512 1.1133763 0.14948948
-0.019088948 0.086541422 8.7339401
-0.77786541 1.1180732 8.6589432
-0.92682564 1.3142976 7.7553005
-0.56618524 0.79136091 3.1578836
-0.96767533 1.3370802 3.092011
-1.0120087 1.3942831 2.6029699
-1.0400132 1.4297489 2.1933849
-0.2567426 0.44670051 8.7498064
-0.50150913 0.80142254 8.7745152
-0.49633664 0.70005584 3.3415239
-0.66653621 0.93105084 3.1680319
-0.92700744 1.2874699 3.3441465
-0.99977326 1.3840016 2.8628612
-1.0302165 1.4225203 2.4005039
-0.99015498 1.3647157 1.906126
-0.9575243 1.3105845 1.6748203
-0.91633826 1.2528476 1.3339603
-0.90046477 1.2298088 1.0839393
-0.88842744 1.2124928 0.87338674
-0.87222886 1.1895263 0.68427533
-0.86293644 1.1760051 0.51868987
-0.84897506 1.1561404 0.36379722
-0.82852352 1.1274767 0.21855797
-0.94081652 1.2915052 1.504282
-0.90893644 1.2463841 1.2067847
-0.8930254 1.2236804 0.97581625
-0.8841846 1.2102472 0.78033316
-0.86430395 1.1821805 0.5988273
-0.84962821 1.1612687 0.43775901
-0.83347863 1.1387866 0.28904179
-0.82051575 1.1202674 0.149691
-0.018786747 0.086607523 8.7339401
-0.78101909 1.1310138 8.7379713
-0.92865318 1.3267016 7.8091478
-0.5634194 0.79333246 3.1578836
-0.96579653 1.3443403 3.1007893
-1.0120702 1.4046568 2.6153688
-1.0387686 1.4385679 2.2010598
-0.25518176 0.44759399 8.7498064
-0.49870858 0.8031683 8.7745152
-0.49316683 0.70075589 3.3366842
-0.66328222 0.93337172 3.1680319
-0.92757052 1.2977827 3.3621514
-0.99949509 1.3938417 2.875659
-1.030521 1.4334481 2.4124742
-0.99132884 1.3764168 1.9171517
-0.9592247 1.32258 1.685334
-0.91653293 1.262338 1.3402373
-0.90108311 1.2397093 1.0894222
-0.8867954 1.2191691 0.87570554
-0.87352771 1.2000601 0.68802142
-0.86165065 1.1828877 0.52009988
-0.84782785 1.1630665 0.36472982
-0.83045262 1.1384083 0.21945213
-0.94067818 1.3008326 1.510933
-0.90932047 1.2560978 1.212671
-0.8938064 1.2337722 0.98088264
-0.88261908 1.2170002 0.78243119
-0.86571932 1.1928338 0.60211432
-0.85128212 1.172093 0.44010365
-0.83531988 1.1497015 0.29042313
-0.82247615 1.1312062 0.15009406
-0.01847863 0.086629324 8.728941
-0.77794456 1.1350151 8.7478504
-0.92924386 1.3374619 7.8532047
-0.56064671 0.79529428 3.1578836
-1.2661906 1.7834181 5.2122769
-0.96387899 1.3516035 3.1095674
-1.0120716 1.4150478 2.6277676
-1.0393424 1.4500008 2.2125723
-0.25361779 0.44848201 8.7498064
-0.495902 0.80490416 8.7745152
-0.49071777 0.7024731 3.3366842
-0.66101456 0.93709165 3.1727247
-0.92807281 1.3081149 3.380156
-0.99764818 1.4015718 2.884191
-1.0290115 1.4419421 2.4204543
-0.99243283 1.3881425 1.928177
-0.96085286 1.334603 1.6958475
-0.91894817 1.2750028 1.3496526
-0.90164334 1.249629 1.0949051
-0.88772053 1.2294402 0.88034314
-0.8720485 1.2068597 0.68989444
-0.86032706 1.1897753 0.52150995
-0.84952223 1.1739781 0.36659506
-0.82939458 1.1453338 0.21989921
-0.94048607 1.3101748 1.517584
-0.90964764 1.2658291 1.2185574
-0.89452773 1.2438843 0.98594898
-0.88366884 1.2274405 0.78662729
-0.86431056 1.19968 0.6037578
-0.8500281 1.1790003 0.44127598
-0.83709514 1.1606432 0.29180449
-0.82144636 1.1381211 0.1502956
-0.018176123 0.086693302 8.728941
-0.77397782 1.1377237 8.7478504
-0.95577562 1.385967 8.117547
-0.55786723 0.79724652 3.1578836
-1.2655843 1.7958122 5.2352896
-0.96192235 1.3588697 3.1183455
-1.0120128 1.4254559 2.6401665
-1.0398488 1.4614549 2.2240849
-0.25191036 0.4491123 8.7448139
-0.49336681 0.80708539 8.7794867
-0.48826268 0.70418179 3.3366842
-0.65872902 0.94080704 3.1774173
-0.92726088 1.3166865 3.3936598
-0.99575937 1.4093059 2.8927228
-1.0291969 1.452902 2.4324241
-0.99346709 1.3998927 1.9392027
-0.96240884 1.3466536 1.7063613
-0.91902143 1.284534 1.3559296
-0.90214533 1.2595677 1.1003881
-0.88600415 1.2361319 0.88266194
-0.87323439 1.2174305 0.69364047
-0.86176324 1.2005655 0.52433002
-0.8482849 1.180926 0.36752769
-0.83120501 1.1563092 0.22079337
-0.94240683 1.3225724 1.5275606
-0.90991795 1.275578 1.2244437
-0.89518934 1.2540164 0.99101532
-0.88201761 1.23421 0.78872538
-0.86561137 1.2103716 0.60704482
-0.85156512 1.1898656 0.44362062
-0.83592129 1.1675847 0.29249516
-0.82328784 1.149104 0.15069866
-0.017873397 0.086756222 8.728941
-0.77304399 1.1449271 8.7824249
-0.97508025 1.4245892 8.3231468
-0.55508089 0.79918891 3.1578836
-1.263787 1.8066229 5.2536998
-0.95992672 1.3661385 3.1271236
-1.0118935 1.4358808 2.6525652
-1.0402881 1.4729302 2.2355974
-0.25034112 0.4499889 8.7448139
-0.49054655 0.80880266 8.7794867
-0.48580164 0.70588183 3.3366842
-0.6564256 0.94451797 3.1821103
-0.92640036 1.3252681 3.4071634
-0.99382865 1.4170437 2.9012547
-1.0275851 1.4614156 2.4404042
-0.99247897 1.4088953 1.946553
-0.96389234 1.3587312 1.716875
-0.91903913 1.2940812 1.3622065
-0.90258867 1.2695251 1.105871
-0.8868199 1.2464362 0.88729954
-0.8743571 1.2280244 0.69738662
-0.86035085 1.2074729 0.52574003
-0.84986132 1.1918793 0.36939296
-0.83005625 1.1632574 0.22124045
-0.94209653 1.3319508 1.5342115
-0.91013116 1.2853441 1.23033
-0.89579111 1.2641684 0.99608171
-0.88295579 1.2446849 0.79292148
-0.86684805 1.221087 0.61033183
-0.85303646 1.2007557 0.44596523
-0.83757788 1.1785686 0.29387653
-0.82216722 1.1560422 0.15090019
-0.017570453 0.086818077 8.728941
-0.76861036 1.146973 8.7774858
-0.98497427 1.449885 8.4504232
-0.55228782 0.80112165 3.1578836
-1.258587 1.8126278 5.2583022
-0.95789206 1.3734099 3.1359019
-1.010101 1.4440162 2.6608312
-1.0406597 1.4844263 2.2471099
-0.24876884 0.45085999 8.7448139
-0.48799458 0.81096715 8.7844582
-0.48262602 0.70653522 3.331845
-0.65410423 0.94822407 3.1868029
-0.92425042 1.3320712 3.4161658
-0.9918561 1.4247853 2.9097865
-1.0276511 1.4724069 2.4523742
-0.99338269 1.4206862 1.9575783
-0.96530294 1.3708352 1.7273885
-0.92124403 1.3068254 1.3716217
-0.90297353 1.2795007 1.1113539
-0.88757432 1.256761 0.89193714
-0.8754164 1.2386408 0.70113266
-0.86167073 1.2183019 0.5285601
-0.84853357 1.1988482 0.37032557
-0.8288691 1.1702116 0.22168753
-0.94387746 1.344399 1.5441881
-0.91028738 1.2951272 1.2362163
-0.8963328 1.2743394 1.001148
-0.88383144 1.2551813 0.79711759
-0.86530036 1.2279656 0.61197537
-0.85444206 1.2116708 0.44830987
-0.83631337 1.1855317 0.2945672
-0.82388937 1.1670679 0.15130325
-0.017267294 0.086878881 8.728941
-0.76503217 1.1502961 8.7824249
-0.98844343 1.4659795 8.5238514
-0.54948801 0.80304468 3.1578836
-1.2710971 1.8443581 5.336545
-0.9558183 1.3806838 3.14468
-1.0098685 1.4544679 2.6732299
-1.0409636 1.495943 2.2586224
-0.24719353 0.45172563 8.7448139
-0.48543355 0.81312364 8.7894306
-0.47945175 0.7071749 3.3270054
-0.65176505 0.95192575 3.1914957
-0.92329878 1.3406683 3.4296696
-0.98984152 1.4325303 2.9183185
-1.0259367 1.4809391 2.4603543
-1.0077462 1.4519969 1.9943302
-0.96868384 1.3858887 1.7414067
-0.92113954 1.3164115 1.3778987
-0.90329981 1.2894948 1.1168369
-0.88826758 1.2671063 0.8965748
-0.87641209 1.2492794 0.70487875
-0.86016899 1.2252284 0.52997011
-0.84716755 1.2058221 0.3712582
-0.83050764 1.1812454 0.22258168
-0.94344819 1.3538122 1.5508391
-0.9103862 1.3049269 1.2421026
-0.89681441 1.2845298 1.0062144
-0.88204461 1.2619787 0.79921561
-0.86642164 1.2387177 0.61526239
-0.85299456 1.218628 0.4494822
-0.83785075 1.1965567 0.29594857
-0.82267755 1.174028 0.15150478
-0.016963925 0.086938627 8.728941
-0.7610122 1.1529596 8.7824249
-0.98671687 1.4744985 8.5532217
-0.54668152 0.80495781 3.1578836
-1.2657543 1.8503966 5.3411474
-0.95234925 1.3859859 3.1490691
-1.0079787 1.4626185 2.6814959
-1.0411999 1.5074798 2.2701349
-0.24575208 0.45283994 8.7498064
-0.48259228 0.8148132 8.7894306
-0.4762789 0.70780116 3.3221662
-0.64940798 0.95562232 3.1961884
-0.92229843 1.349275 3.4431732
-0.99073488 1.4445803 2.9353821
-1.0258826 1.4919604 2.4723246
-1.0142105 1.4722571 2.016381
-0.96993858 1.3980522 1.7519203
-0.92319977 1.3292098 1.3873141
-0.90356702 1.2995062 1.1223198
-0.88889921 1.2774717 0.90121239
-0.87469506 1.2561355 0.70675176
-0.86137211 1.236095 0.53279018
-0.84857285 1.2168305 0.37312344
-0.8292293 1.1882211 0.22302876
-0.94508851 1.3663095 1.5608156
-0.91042769 1.3147429 1.2479889
-0.89723563 1.294739 1.0112808
-0.88280797 1.272508 0.80341172
-0.86747837 1.2494925 0.61854941
-0.8542822 1.2295817 0.45182684
-0.83649504 1.2035403 0.29663923
-0.82427967 1.1850954 0.15190785
-0.016665129 0.087040678 8.7339401
-0.75698298 1.1556089 8.7824249
-0.98156387 1.4779339 8.5532217
-0.54386836 0.80686122 3.1578836
-0.94885463 1.3912804 3.1534581
-1.007633 1.4730964 2.6938949
-1.0413682 1.5190363 2.2816474
-0.24416989 0.453695 8.7498064
-0.47974512 0.8164928 8.7894306
-0.4724097 0.70736837 3.3124871
-0.6470331 0.95931429 3.2008812
-0.92124909 1.357891 3.4566767
-0.99008864 1.4544979 2.94818
-1.0240654 1.5005102 2.4803045
-1.0262854 1.5009757 2.0494576
-0.97314262 1.4131786 1.7659385
-0.92297244 1.3388336 1.393591
-0.90377545 1.3095353 1.1278027
-0.88946921 1.2878567 0.90584999
-0.87557656 1.2668084 0.7104978
-0.86250967 1.2469848 0.53561026
-0.84711593 1.2238243 0.37405604
-0.83074796 1.1992959 0.22392292
-0.9445399 1.3757567 1.5674665
-0.91041166 1.3245752 1.2538751
-0.89759648 1.3049664 1.0163471
-0.8809346 1.2793199 0.80550975
-0.86847043 1.2602899 0.62183642
-0.85550374 1.240559 0.45417145
-0.83510077 1.2105292 0.29732993
-0.82297629 1.1920768 0.15210937
-0.016361199 0.087098315 8.7339401
-0.75294453 1.1582443 8.7824249
-0.97527868 1.4796507 8.5434322
-0.54104859 0.80875474 3.1578836
-0.83580559 1.2402618 3.5829835
-0.94667715 1.3985509 3.1622362
-1.0056458 1.481261 2.7021606
-1.0396655 1.5279621 2.2893224
-0.24271981 0.45479971 8.7547979
-0.47689208 0.81816244 8.7894306
-0.46924353 0.70796525 3.3076477
-0.64559996 0.9644354 3.2102668
-0.92015082 1.3665159 3.4701805
-0.99084496 1.4665897 2.9652438
-1.0238906 1.5115602 2.4922745
-1.0286542 1.5157702 2.0641582
-0.97625279 1.4283441 1.7799567
-0.92488724 1.3516843 1.4030064
-0.90392476 1.3195816 1.1332856
-0.88997757 1.2982613 0.91048759
-0.87639427 1.2775028 0.71424389
-0.8635816 1.2578975 0.53843033
-0.84840208 1.2348715 0.37592128
-0.82937801 1.206292 0.22437
-0.94603926 1.3883021 1.5774431
-0.9126159 1.3377625 1.2627047
-0.89789683 1.3152124 1.0214134
-0.88158536 1.2898813 0.80970585
-0.86673176 1.2672114 0.62347996
-0.85391349 1.2475488 0.45534378
-0.83646578 1.221609 0.2987113
-0.82445806 1.2031847 0.15251243
-0.016057068 0.087154895 8.7339401
-0.7488969 1.1608654 8.7824249
-0.97122216 1.4847504 8.5532217
-0.53822225 0.81063843 3.1578836
-0.83038527 1.2415476 3.5783808
-0.94446051 1.4058231 3.1710143
-1.0051861 1.4917637 2.7145593
-1.0397067 1.5395509 2.3008351
-0.24113078 0.45564419 8.7547979
-0.47403327 0.81982213 8.7894306
-0.46607894 0.70854849 3.3028083
-0.64318419 0.96812046 3.2149594
-0.92021292 1.3769597 3.4881854
-0.99152905 1.4787043 2.9823074
-1.0219703 1.5201265 2.5002546
-1.0328259 1.533411 2.0825341
-0.97726685 1.4405971 1.7904702
-0.92453665 1.3613446 1.4092834
-0.90401483 1.3296447 1.1387686
-0.89042407 1.3086849 0.91512519
-0.87714785 1.2882183 0.71798992
-0.86458784 1.2688328 0.54125035
-0.84685385 1.2418839 0.37685391
-0.83077627 1.2174066 0.22526415
-0.94746238 1.4008744 1.5874195
-0.91247284 1.3476338 1.268591
-0.89813656 1.3254762 1.0264798
-0.88217288 1.3004626 0.81390196
-0.86760753 1.2780432 0.62676698
-0.85501641 1.258563 0.45768842
-0.83497995 1.2286172 0.29940197
-0.82306278 1.2101864 0.15271397
-0.015752744 0.087210417 8.7339401
-0.7448402 1.1634725 8.7824249
-0.96603346 1.4881315 8.5532217
-0.5353893 0.81251222 3.1578836
-0.82604641 1.2444386 3.5783808
-0.94220448 1.4130969 3.1797926
-1.0046654 1.502281 2.7269583
-1.0396798 1.5511584 2.3123474
-0.23953882 0.45648316 8.7547979
-0.4711687 0.82147181 8.7894306
-0.46291599 0.70911837 3.2979689
-0.64170033 0.97324151 3.2243452
-0.91901022 1.3856063 3.501689
-0.99069554 1.4886701 2.9951053
-1.0216748 1.5312043 2.5122247
-1.031235 1.5426438 2.0898843
-0.97820717 1.4528744 1.800984
-0.92630529 1.3742464 1.4186987
-0.9040457 1.3397245 1.1442515
-0.89080858 1.3191276 0.91976279
-0.87783718 1.2989542 0.72173601
-0.86552823 1.2797904 0.54407042
-0.84802032 1.2529687 0.37871915
-0.83210713 1.2285458 0.22615832
-0.94880933 1.4134737 1.5973961
-0.91452634 1.3608756 1.2774205
-0.89831543 1.3357575 1.0315461
-0.88523197 1.3148285 0.82019615
-0.8684181 1.2888964 0.630054
-0.85333532 1.2655702 0.45886073
-0.83622444 1.2397352 0.30078334
-0.82162851 1.2171928 0.15291549
-0.015448227 0.087264866 8.7339401
-0.74077433 1.1660655 8.7824249
-0.96083307 1.4914945 8.5532217
-0.5333665 0.81562561 3.1626556
-0.82277209 1.2489461 3.5829835
-0.9399091 1.4203719 3.1885707
-1.0040834 1.5128127 2.739357
-1.0413594 1.5654534 2.3276975
-0.23794393 0.45731652 8.7547979
-0.46803525 0.82264787 8.7844582
-0.45975477 0.70967478 3.2931294
-0.64018846 0.97836381 3.2337308
-0.91177434 1.3851688 3.4926865
-0.9898048 1.4986482 3.0079031
-1.0196507 1.5397862 2.5202048
-1.0239698 1.5434092 2.0862093
-0.98105496 1.4681411 1.8150022
-0.9258309 1.3839418 1.4249755
-0.90401709 1.3498207 1.1497345
-0.89113092 1.3295885 0.92440039
-0.87587994 1.3058608 0.72360903
-0.86372912 1.2867869 0.54548049
-0.84911966 1.2640765 0.38058439
-0.83337021 1.2397088 0.22705248
-0.95007962 1.4260992 1.6073725
-0.9142558 1.370785 1.2833068
-0.89843351 1.3460562 1.0366125
-0.88567996 1.3254579 0.82439226
-0.86653858 1.2958453 0.63169748
-0.85161573 1.2725807 0.46003303
-0.83464676 1.2467617 0.30147403
-0.82293606 1.2283546 0.15331855
-0.015143522 0.087318264 8.7339401
-0.73669952 1.1686441 8.7824249
-0.95562088 1.4948393 8.5532217
-0.53051615 0.81748241 3.1626556
-0.81413186 1.2452693 3.5645733
-0.93757445 1.4276481 3.1973488
-1.0034401 1.5233588 2.751756
-1.0429519 1.5797786 2.3430474
-0.23621462 0.45788726 8.7498064
-0.46516085 0.82427657 8.7844582
-0.45727471 0.71127528 3.2931294
-0.63864869 0.98348737 3.2431161
-0.90693361 1.3883431 3.4926865
-0.98885608 1.5086379 3.0207007
-1.0192341 1.5508907 2.5321748
-1.0204401 1.5498055 2.0898843
-0.98183709 1.4804733 1.8255159
-0.9253 1.3936505 1.4312525
-0.90624356 1.3634152 1.1579589
-0.89139098 1.340068 0.92903793
-0.876454 1.3166283 0.72735512
-0.86455119 1.2977787 0.54830056
-0.85015166 1.2752074 0.38244963
-0.83180153 1.2467529 0.22749956
-0.94921422 1.4356362 1.6140234
-0.91615802 1.3840798 1.2921362
-0.89849043 1.356372 1.0416789
-0.88606441 1.3361063 0.82858837
-0.86723232 1.3067313 0.63498449
-0.85254657 1.2836436 0.46237767
-0.83577055 1.2579169 0.30285537
-0.8214094 1.2353799 0.15352009
-0.014838632 0.087370589 8.7339401
-0.73261565 1.1712085 8.7824249
-0.95039713 1.498166 8.5532217
-0.52765942 0.81932926 3.1626556
-0.80765367 1.2448255 3.5553682
-0.93650812 1.4369318 3.2105162
-1.0027355 1.5339187 2.7641549
-1.0444571 1.5941342 2.3583977
-0.23461486 0.45870903 8.7498064
-0.46228072 0.82589525 8.7844582
-0.45411342 0.71180725 3.28829
-0.63708091 0.98861212 3.2525017
-0.90089792 1.3896737 3.4881854
-0.98784989 1.5186394 3.0334985
-1.0187522 1.562011 2.5441449
-1.0094612 1.5448442 2.0788589
-0.9825449 1.4928282 1.8360294
-0.92685425 1.4066228 1.4406679
-0.90608364 1.3735512 1.1634418
-0.89158881 1.3505651 0.93367553
-0.8769635 1.3274159 0.73110116
-0.86266148 1.3047903 0.54971057
-0.85111618 1.2863605 0.38431486
-0.83294326 1.2579533 0.22839372
-0.950342 1.4483062 1.6240001
-0.91575944 1.3940259 1.2980225
-0.89848632 1.3667043 1.0467453
-0.8863852 1.3467733 0.83278447
-0.8678605 1.3176379 0.63827151
-0.8507356 1.29067 0.46355
-0.8368265 1.2690949 0.30423674
-0.82259548 1.2465795 0.15392315
-0.014529842 0.08737839 8.728941
-0.72852296 1.1737587 8.7824249
-0.9457041 1.5023363 8.5581179
-0.52479619 0.82116616 3.1626556
-0.80118865 1.2443516 3.5461633
-0.93408769 1.4442143 3.2192943
-1.0035005 1.5468529 2.7806866
-1.0458746 1.6085192 2.3737476
-0.23301224 0.4595252 8.7498064
-0.45939502 0.82750386 8.7844582
-0.45162597 0.71338809 3.28829
-0.63920307 0.99955362 3.2806582
-0.89604157 1.3928099 3.4881854
-0.98678583 1.5286521 3.0462966
-1.018205 1.5731467 2.5561152
-1.0169735 1.5682698 2.1045849
-0.98317838 1.5052063 1.8465432
-0.9261989 1.4163649 1.4469448
-0.90586394 1.3837026 1.1689247
-0.89172405 1.3610799 0.93831313
-0.87740833 1.338223 0.73484725
-0.86336476 1.3158152 0.55253065
-0.84931695 1.2934297 0.38524747
-0.8312819 1.265015 0.2288408
-0.95139295 1.4610015 1.6339766
-0.91530257 1.4039863 1.3039091
-0.89842093 1.3770531 1.0518116
-0.88664228 1.3574588 0.83698058
-0.86842293 1.3285645 0.64155853
-0.85154665 1.3017671 0.46589461
-0.83510298 1.276152 0.30492741
-0.82371324 1.2578022 0.15432622
-0.014224745 0.087428577 8.728941
-0.7240141 1.1756328 8.7774858
-0.94045413 1.5056282 8.5581179
-0.52192658 0.82299304 3.1626556
-0.79578841 1.2454944 3.5415606
-0.93162775 1.4514973 3.2280724
-1.0041875 1.559811 2.7972186
-1.0437289 1.6175468 2.3814225
-0.23140678 0.46033573 8.7498064
-0.45650369 0.82910246 8.7844582
-0.44846472 0.71389562 3.2834506
-0.64680296 1.0192651 3.3369715
-0.8911742 1.3959292 3.4881854
-0.98566371 1.5386757 3.0590942
-1.0175924 1.5842974 2.568085
-1.0316722 1.6031705 2.1450119
-0.98567718 1.5205996 1.8605614
-0.92760539 1.4293845 1.4563601
-0.90558439 1.3938692 1.1744076
-0.89179677 1.3716121 0.94295073
-0.87525988 1.3451632 0.73672026
-0.86138415 1.3228408 0.55394071
-0.85016072 1.3046176 0.38711271
-0.83230174 1.2762517 0.22973496
-0.95236653 1.4737216 1.6439531
-0.91478717 1.4139602 1.3097954
-0.89829421 1.3874179 1.056878
-0.88683558 1.3681625 0.84117669
-0.86891967 1.3395113 0.64484555
-0.85229057 1.3128854 0.46823925
-0.83603746 1.2873656 0.30630878
-0.82476246 1.2690479 0.15472928
-0.013919476 0.087477699 8.728941
-0.71950096 1.1774896 8.7725468
-0.93519282 1.5089018 8.5581179
-0.51905066 0.82480991 3.1626556
-0.79039013 1.2466146 3.5369582
-0.92655534 1.4547405 3.2280724
-1.0032811 1.5704212 2.8096173
-1.0415328 1.6265789 2.3890977
-0.22992642 0.46139956 8.7547979
-0.45386174 0.83115906 8.7894306
-0.44530541 0.7143898 3.2786112
-0.66162741 1.0507249 3.4308267
-0.88629615 1.3990315 3.4881854
-0.98308474 1.5465091 3.067626
-1.0169145 1.5954632 2.5800552
-1.0497887 1.6439071 2.1927891
-0.98808026 1.5360284 1.8745794
-0.92893243 1.4424312 1.4657755
-0.90751058 1.4075649 1.1826321
-0.89420837 1.3858836 0.94990712
-0.87558854 1.3559995 0.7404663
-0.86196828 1.3338977 0.55676073
-0.85093653 1.3158271 0.38897794
-0.83054745 1.28333 0.23018204
-0.95326298 1.4864662 1.6539296
-0.91639692 1.4273489 1.3186247
-0.9004361 1.4014255 1.0644776
-0.88696486 1.378884 0.8453728
-0.86935061 1.3504775 0.64813256
-0.85296726 1.3240249 0.47058392
-0.83690375 1.2986013 0.30769014
-0.82303542 1.2761174 0.1549308
-0.013614037 0.087525755 8.728941
-0.71498376 1.1793295 8.7676067
-0.92992014 1.5121571 8.5581179
-0.51616836 0.82661664 3.1626556
-0.78499353 1.2477121 3.5323555
-0.93170708 1.4741628 3.263185
-1.0053262 1.5857974 2.830282
-1.0392864 1.6356152 2.3967726
-0.22831444 0.46219933 8.7547979
-0.45095769 0.83273822 8.7894306
-0.44280902 0.71593988 3.2786112
-0.67623991 1.0823003 3.5246823
-0.8814072 1.4021168 3.4881854
-0.97907186 1.5521373 3.071892
-1.0161707 1.6066432 2.592025
-1.0458585 1.6504252 2.1964641
-0.98846871 1.5484862 1.885093
-0.92808354 1.4522246 1.4720525
-0.90709865 1.4177687 1.188115
-0.89414239 1.3964578 0.95454472
-0.87585217 1.3668544 0.74421245
-0.86248583 1.3449748 0.5595808
-0.84899133 1.3229237 0.38991058
-0.83144498 1.2946017 0.23107618
-0.95408195 1.4992349 1.663906
-0.91575247 1.4373571 1.3245111
-0.90017372 1.4118298 1.0695438
-0.88702995 1.3896229 0.8495689
-0.86971539 1.361463 0.65141958
-0.85357648 1.3351848 0.47292855
-0.83503371 1.3056865 0.30838081
-0.82396221 1.2873985 0.15533386
-0.013308433 0.087572739 8.728941
-0.71046245 1.1811521 8.7626677
-0.92516619 1.5162632 8.5630131
-0.51327974 0.82841343 3.1626556
-0.78063345 1.2504447 3.5323555
-0.93673426 1.4936386 3.2982976
-1.0057777 1.598825 2.8468139
-1.0369895 1.6446558 2.4044476
-0.22669968 0.46299347 8.7547979
-0.44804811 0.83430731 8.7894306
-0.43965003 0.71640968 3.2737718
-0.68063968 1.0978552 3.5669169
-0.87650758 1.4051849 3.4881854
-0.97503138 1.5577561 3.0761578
-1.016963 1.6203897 2.6079853
-1.0563319 1.6798959 2.2295406
-0.99069065 1.5639784 1.8991114
-0.9292621 1.4653168 1.4814678
-0.90886754 1.4315168 1.1963394
-0.89401364 1.4070485 0.95918238
-0.87605053 1.3777276 0.74795848
-0.86293644 1.3560715 0.56240088
-0.8496455 1.3341659 0.39177582
-0.83227378 1.3058953 0.23197034
-0.95482343 1.5120274 1.6738826
-0.91720921 1.4507946 1.3333406
-0.89984959 1.4222493 1.0746102
-0.8870309 1.4003789 0.85376495
-0.87001401 1.3724672 0.6547066
-0.85411811 1.346365 0.47527319
-0.83577782 1.3169557 0.30976218
-0.82214177 1.294484 0.1555354
-0.013005625 0.087662183 8.7339401
-0.70593715 1.1829575 8.7577286
-0.91986787 1.5194834 8.5630131
-0.51038498 0.83020008 3.1626556
-0.77626377 1.253162 3.5323555
-0.94037157 1.5111339 3.3290212
-1.0061504 1.6118748 2.8633456
-1.0380421 1.6591347 2.4197977
-0.22508214 0.46378198 8.7547979
-0.44513315 0.83586621 8.7894306
-0.43714663 0.71793997 3.2737718
-0.68493903 1.1134541 3.6091518
-0.87159717 1.4082359 3.4881854
-0.96958786 1.5611501 3.0761578
-1.0176717 1.6341614 2.6239452
-1.048667 1.6806966 2.2258654
-0.99091846 1.576485 1.9096249
-0.9303605 1.4784348 1.4908831
-0.90832263 1.4417562 1.2018223
-0.89382172 1.4176551 0.96381998
-0.87618357 1.3886186 0.75170451
-0.86331999 1.3671876 0.56522095
-0.85023165 1.3454289 0.39364108
-0.8303721 1.3130015 0.23241742
-0.9574694 1.528007 1.6871846
-0.91643518 1.4608355 1.339227
-0.89946359 1.4326837 1.0796765
-0.88696748 1.4111519 0.85796106
-0.87276065 1.3874874 0.65963709
-0.85459203 1.3575653 0.47761783
-0.83645338 1.3282459 0.31114352
-0.82294559 1.3057992 0.15593846
-0.012699548 0.08770705 8.7339401
-0.70140785 1.1847458 8.7527885
-0.91455823 1.5226852 8.5630131
-0.5074839 0.83197653 3.1626556
-0.77188474 1.255864 3.5323555
-0.94641435 1.5327483 3.3685231
-1.0064442 1.6249468 2.8798773
-1.039006 1.673641 2.4351475
-0.22346187 0.46456486 8.7547979
-0.4422127 0.83741492 8.7894306
-0.4339883 0.71838546 3.2689323
-0.69003654 1.1305693 3.6560795
-0.86667627 1.4112698 3.4881854
-0.96550071 1.5667455 3.0804241
-1.0182966 1.6479574 2.6399055
-1.0481473 1.6929944 2.236891
-0.99295819 1.5920384 1.9236431
-0.93137842 1.4915782 1.5002986
-0.90993375 1.4555551 1.2100466
-0.89356649 1.4282773 0.96845758
-0.87625128 1.3995272 0.75545061
-0.86363631 1.3783228 0.56804103
-0.85074919 1.3567119 0.39550632
-0.83107793 1.3243283 0.23331158
-0.95804399 1.5408525 1.697161
-0.91773814 1.4743202 1.3480563
-0.89901561 1.4431325 1.0847429
-0.88683969 1.4219413 0.86215717
-0.87291265 1.3985373 0.66292417
-0.85499805 1.368785 0.47996244
-0.83706021 1.3395567 0.31252488
-0.82368028 1.3171356 0.15634152
-0.012393316 0.087750852 8.7339401
-0.69687486 1.1865169 8.7478504
-0.9092375 1.5258683 8.5630131
-0.50457668 0.83374298 3.1626556
-0.76749623 1.2585508 3.5323555
-0.94105834 1.5360427 3.3685231
-1.006659 1.6380403 2.8964093
-1.0398813 1.6881741 2.4504976
-0.22183886 0.46534204 8.7547979
-0.43928689 0.83895344 8.7894306
-0.43147796 0.71989596 3.2689323
-0.69234174 1.1433047 3.6889291
-0.86061203 1.4124273 3.4836841
-0.9695484 1.585682 3.1102853
-1.0204123 1.6643467 2.6598556
-1.0440055 1.6995314 2.240566
-0.99302483 1.6045926 1.9341568
-0.93231595 1.5047463 1.5097139
-0.90925545 1.4658293 1.2155296
-0.89324796 1.4389149 0.97309518
-0.87869978 1.4143912 0.76106972
-0.86388546 1.389477 0.57086104
-0.85119838 1.3680151 0.39737156
-0.83171481 1.3356761 0.23420574
-0.96050096 1.5568984 1.7104629
-0.91895819 1.4878317 1.3568859
-0.89850563 1.4535956 1.0898093
-0.88664716 1.4327469 0.86635327
-0.87299806 1.4096051 0.66621119
-0.85533607 1.3800241 0.48230708
-0.83759826 1.3508878 0.31390625
-0.82171172 1.324248 0.15654305
-0.012086933 0.087793574 8.7339401
-0.69272888 1.1889423 8.7478504
-0.90390575 1.5290327 8.5630131
-0.50166327 0.83549917 3.1626556
-0.76309842 1.2612222 3.5323555
-0.93693471 1.5413648 3.3729122
-1.0067946 1.6511549 2.912941
-1.0406677 1.7027334 2.4658477
-0.22021317 0.46611357 8.7547979
-0.43635571 0.8404817 8.7894306
-0.42896244 0.72139776 3.2689323
-0.70256311 1.169384 3.7640131
-0.85567653 1.4154228 3.4836841
-0.97077036 1.6002061 3.1316152
-1.0208601 1.6781962 2.6758156
-1.0433596 1.7118502 2.2515917
-0.99488175 1.6202055 1.948175
-0.93317288 1.5179393 1.5191293
-0.91070819 1.4796774 1.223754
-0.89286608 1.4495678 0.97773278
-0.87862247 1.4253424 0.76481575
-0.86658585 1.4047321 0.57509118
-0.85157901 1.3793375 0.3992368
-0.82966495 1.3428078 0.23465282
-0.96090811 1.5697954 1.7204396
-0.92009485 1.5013694 1.3657153
-0.90018708 1.4677476 1.0974088
-0.88639009 1.4435685 0.87054938
-0.87301689 1.4206904 0.66949821
-0.85560608 1.3912821 0.48465171
-0.83806729 1.362239 0.31528762
-0.82232291 1.3356166 0.15694611
-0.011780403 0.087835222 8.7339401
-0.68818587 1.1906803 8.7429113
-0.89856285 1.5321786 8.5630131
-0.49950746 0.8385278 3.1674278
-0.75869125 1.2638782 3.5323555
-0.93154854 1.5446259 3.3729122
-1.0053943 1.6618826 2.9253399
-1.0397032 1.7145782 2.4773602
-0.21846323 0.46661752 8.7498064
-0.43341923 0.84199977 8.7894306
-0.42644173 0.72289073 3.2689323
-0.7143774 1.1985132 3.8484831
-0.84961098 1.4165341 3.479183
-0.97324741 1.6169925 3.1572106
-1.0212234 1.6920689 2.6917758
-1.0426404 1.7241849 2.2626171
-0.99478614 1.6328051 1.9586885
-0.93394876 1.5311563 1.5285445
-0.90989602 1.4899848 1.229237
-0.89473051 1.4640151 0.98468918
-0.88089818 1.4402654 0.77043486
-0.86668569 1.4159315 0.5779112
-0.849325 1.3864906 0.4001694
-0.83017814 1.3541869 0.23554698
-0.96317506 1.5859056 1.7337415
-0.92114824 1.5149333 1.3745449
-0.89953995 1.4782461 1.1024752
-0.88842934 1.4582816 0.87684357
-0.87296873 1.431793 0.67278522
-0.85580778 1.4025588 0.48699635
-0.83846724 1.3736099 0.31666899
-0.82286447 1.3470056 0.15734917
-0.011473728 0.087875813 8.7339401
-0.68402541 1.1930752 8.7429113
-0.89320916 1.5353059 8.5630131
-0.49657744 0.84026635 3.1674278
-0.75527442 1.2681975 3.5369582
-0.9261511 1.5478683 3.3729122
-1.0053793 1.6750333 2.9418716
-1.0386686 1.7264366 2.4888728
-0.2168331 0.46737725 8.7498064
-0.43047747 0.84350753 8.7894306
-0.42328116 0.72328979 3.2640929
-0.70931131 1.1995139 3.8437903
-0.84466124 1.4194912 3.479183
-0.97561908 1.6338154 3.1828063
-1.0215023 1.7059646 2.7077358
-1.0435916 1.7394425 2.2773178
-0.9946149 1.6454238 1.9692023
-0.93464392 1.5443974 1.5379601
-0.91118962 1.5038807 1.2374614
-0.89420819 1.4747052 0.98932678
-0.88067532 1.4512582 0.77418089
-0.86671788 1.4271485 0.58073127
-0.84958261 1.3978424 0.40203464
-0.83062202 1.365586 0.23644114
-0.96534109 1.6020505 1.7470435
