# .PCD v0.7 - Point Cloud Data file format
VERSION 0.7
FIELDS x y z
SIZE 4 4 4
TYPE F F F
COUNT 1 1 1
WIDTH 1460
HEIGHT 1
VIEWPOINT 0 0 0 1 0 0 0
POINTS 1460
DATA ascii
1.3331305 -11.330976 7.5647655
1.6385832 -13.885555 7.4054461
2.6494122 -22.317865 6.6960435
1.9421729 -16.263361 1.5633718
1.0120862 -8.7870054 7.9590778
1.1998823 -10.369873 7.6846809
1.3470236 -11.606161 6.9515853
1.2747637 -10.900599 3.9088545
3.154613 -26.894308 6.6217337
5.0606074 -43.078796 6.1418643
2.6798325 -22.74378 1.0174831
-0.026199175 -0.084387332 8.7039413
0.053966548 -0.59893352 3.8234098
0.082614839 -0.85790795 4.167099
0.11406982 -1.1075009 3.6064501
0.48358548 -4.4576297 8.2842913
0.60099787 -5.4691553 8.1535206
0.0016930448 -0.58364338 9.9328289
0.038765989 -0.94994432 8.8242302
0.090562761 -0.9178021 3.5883343
0.23376667 -2.1720648 3.643527
0.65293092 -5.9997907 8.0663385
0.45044729 -4.1057444 4.5559196
1.8469672 -16.336813 16.23621
1.0911088 -9.6058931 7.8776422
1.2935698 -11.33556 7.5647655
1.5880886 -13.873588 7.3961711
1.2454916 -10.847141 4.4996433
2.5758829 -22.365101 6.7073236
1.8842448 -16.260147 1.5624776
0.98099345 -8.7867737 7.9557524
1.1632267 -10.369982 7.6817374
1.3060203 -11.606509 6.9490519
1.9472347 -17.224005 8.1004381
1.2372378 -10.909674 3.9104981
4.9062791 -43.06176 6.1370296
2.5731957 -22.514744 1.0078096
-0.026509935 -0.084335819 8.7089415
0.052274574 -0.60376316 3.8530452
0.078776389 -0.84906614 4.1230416
0.4680225 -4.4592905 8.2842913
0.58190328 -5.47122 8.1535206
1.4662256 -13.651437 16.514952
-0.00034426112 -0.5836457 9.9328289
0.035507593 -0.95167202 8.8391457
0.0870023 -0.91435862 3.5738163
0.22510375 -2.1624916 3.6264634
0.63166827 -5.9990363 8.0623484
0.43611282 -4.1072917 4.5559196
1.7926475 -16.367975 16.26074
1.0571455 -9.605773 7.8745036
1.2530742 -11.331693 7.5592823
1.5401394 -13.883449 7.39849
1.2091587 -10.865246 4.5052624
2.4722517 -22.145119 6.6396422
1.8263628 -16.256727 1.5615834
0.95031589 -8.7901449 7.9557524
1.1265852 -10.369961 7.6787944
1.2659651 -11.615282 6.9515853
1.1970856 -10.895151 3.9039242
4.7537618 -43.058933 6.1342669
2.4665411 -22.270344 0.99753159
-0.02680416 -0.084242769 8.7089415
0.049975328 -0.60161883 3.8382275
0.074910529 -0.83919388 4.07409
0.21305396 -2.2227015 7.1854382
0.45221221 -4.4585147 8.2799025
0.5628016 -5.473218 8.1535206
1.4202199 -13.672411 16.53414
-0.0023815627 -0.58364093 9.9328289
0.032220207 -0.95285559 8.8490877
0.082552113 -0.90088743 3.5205824
0.2165105 -2.1528842 3.6093998
0.61072385 -6.001205 8.0623484
0.42177305 -4.108789 4.5559196
1.7355016 -16.374134 16.26074
1.0231965 -9.6055346 7.8713651
1.2032752 -11.240372 7.4962287
1.4921409 -13.893145 7.4008088
1.164768 -10.809479 4.4809132
3.9259102 -36.197327 7.0040526
1.7679893 -16.248152 1.5602423
0.91923845 -8.7896948 7.9524264
1.089958 -10.369811 7.6758518
1.2254126 -11.61963 6.9515853
1.1630011 -10.972797 5.1883411
1.1585478 -10.894567 3.9022806
4.6013246 -43.055569 6.1315041
2.3573635 -21.985739 0.98564124
-0.027098058 -0.08414869 8.7089415
0.047752786 -0.60024041 3.8283491
0.071461022 -0.83336306 4.0447183
0.2059795 -2.2308636 7.2092981
0.43641305 -4.4576821 8.2755136
0.54341513 -5.4723487 8.1493874
1.3715254 -13.667716 16.522625
-0.0044188355 -0.58362907 9.9328289
0.028924998 -0.95402795 8.8590307
0.079846874 -0.90617859 3.5399401
0.2079871 -2.1432436 3.5923359
0.58977205 -6.0033002 8.0623484
0.4077625 -4.1136098 4.5595946
1.6772443 -16.36945 16.250227
0.98926193 -9.605176 7.8682265
1.153268 -11.140524 7.4276919
1.4436356 -13.898269 7.4008088
1.1255871 -10.799647 4.4752936
1.2867979 -12.304861 3.7265146
1.710219 -16.24432 1.5593481
0.88817573 -8.789135 7.949101
1.0533453 -10.36953 7.6729083
1.1852821 -11.628126 6.9541187
1.1246918 -10.97679 5.1883411
1.1190627 -10.884453 3.8973501
4.4494772 -43.056587 6.1294322
2.2553556 -21.750338 0.97576618
-0.027391626 -0.084053591 8.7089415
0.045598872 -0.59962869 3.8234098
0.067305468 -0.8183853 3.9712899
0.097936004 -1.1015514 3.5825901
0.42085019 -4.4591784 8.2755136
0.52430975 -5.4742126 8.1493874
1.3219546 -13.653279 16.499601
-0.0064560538 -0.58361012 9.9328289
0.025608316 -0.954656 8.8640022
0.07689447 -0.90895689 3.549619
0.19977638 -2.1361666 3.5795383
0.56881303 -6.005322 8.0623484
0.39340082 -4.1150084 4.5595946
0.95495713 -9.6008244 7.8619504
1.1110451 -11.111196 7.4057603
1.1067493 -11.029421 5.8889508
1.0860246 -10.78506 4.467802
1.2443203 -12.314051 3.7279243
3.609184 -35.593403 6.8837442
1.6524971 -16.240282 1.5584539
0.85712802 -8.7884655 7.9457755
1.0167481 -10.369122 7.6699653
1.1446851 -11.632193 6.9541187
1.085922 -10.976133 5.1862431
1.080129 -10.878894 3.894063
4.2976794 -43.057076 6.1273603
2.1843984 -21.807791 0.97778159
-0.027684862 -0.083957464 8.7089415
0.043394119 -0.59823418 3.8135312
0.063493952 -0.80643404 3.9125471
0.092442878 -1.0825514 3.5205543
0.40506551 -4.4582348 8.2711239
0.5049395 -5.473207 8.1452541
-0.0084931934 -0.58358401 9.9328289
0.022287605 -0.95527256 8.8689747
0.073822394 -0.91047263 3.5544584
0.19161756 -2.1290581 3.5667403
0.54784703 -6.0072713 8.0623484
0.3790344 -4.1163564 4.5595946
0.92106646 -9.6002254 7.8588119
1.0802829 -11.198248 7.4605894
1.0622663 -10.97149 5.8564878
1.0483711 -10.788785 4.467802
1.206916 -12.375611 3.7448449
3.4629071 -35.380894 6.8408442
1.5943372 -16.231081 1.5571126
0.826096 -8.7876873 7.9424505
0.98016655 -10.368584 7.6670218
1.1052958 -11.648991 6.9617176
1.0950177 -11.476838 5.4170289
1.0412477 -10.873198 3.8907762
4.1464071 -43.061958 6.1259794
2.1351738 -22.093754 0.98906726
-0.027977759 -0.083860315 8.7089415
0.041199662 -0.59683156 3.8036528
0.059766714 -0.79446632 3.8538043
0.08902809 -1.0873307 3.5348704
0.38950092 -4.4596219 8.2711239
0.48558262 -5.4721332 8.1411209
-0.010530231 -0.58355081 9.9328289
0.018952945 -0.9553445 8.8689747
0.071031287 -0.91573775 3.5738163
0.10833148 -1.3183448 3.651387
0.18396002 -2.1271157 3.5624745
0.52687442 -6.0091467 8.0623484
0.3646633 -4.1176543 4.5595946
1.4998614 -16.322193 16.187145
0.88719159 -9.5995054 7.8556733
1.0473787 -11.268567 7.5044527
1.0202589 -10.935435 5.8356185
1.0102726 -10.787764 4.465929
1.1601182 -12.341541 3.7335646
3.3439977 -35.441673 6.8501701
1.536262 -16.221674 1.5557714
0.79507977 -8.7867985 7.9391251
0.94360107 -10.367916 7.6640787
1.0614889 -11.618436 6.9414525
1.1189029 -12.176591 5.7401295
1.0019855 -10.862659 3.8858454
1.3014108 -14.055282 3.495163
3.9946947 -43.061375 6.1239066
2.0853691 -22.394564 1.0009576
-0.028253121 -0.083722048 8.7039413
0.038965251 -0.59464574 3.788835
0.055906475 -0.77943569 3.780376
0.086162761 -1.0995402 3.5730462
0.37393156 -4.4609542 8.2711239
0.46647838 -5.4737945 8.1411209
-0.012567139 -0.58351052 9.9328289
0.015626149 -0.95593786 8.8739462
0.067649342 -0.91347295 3.5641375
0.10440441 -1.3273169 3.6748505
0.17674939 -2.1303439 3.5667403
0.50589544 -6.0109496 8.0623484
0.3502878 -4.1189022 4.5595946
1.4466442 -16.369959 16.2292
0.853333 -9.5986671 7.8525348
1.0087825 -11.280483 7.5099359
0.98326904 -10.952165 5.8425746
0.97261018 -10.791224 4.465929
1.1157343 -12.331182 3.7293344
3.2264841 -35.521626 6.8632274
1.478724 -16.21702 1.5548772
0.76407975 -8.7858 7.9357996
0.90705228 -10.367121 7.6611357
1.0197949 -11.609188 6.9338531
1.1151437 -12.618949 5.9436402
0.9628098 -10.851979 3.8809149
1.2549281 -14.088786 3.5021968
3.8430374 -43.060257 6.1218348
2.0339355 -22.700268 1.0130495
-0.028545193 -0.08362291 8.7039413
0.036889315 -0.59477806 3.788835
0.052703101 -0.77251506 3.7461095
0.081212707 -1.0849488 3.5253265
0.35816598 -4.4598446 8.2667351
0.44713932 -5.4725852 8.1369877
1.1306677 -13.664018 16.491926
-0.014595832 -0.58317447 9.9278374
0.012289208 -0.95598656 8.8739462
0.064284071 -0.91119576 3.5544584
0.096543357 -1.2846522 3.5575314
0.16931202 -2.1309478 3.5667403
0.48491019 -6.0126786 8.0623484
0.33590803 -4.1201 4.5595946
1.389192 -16.371353 16.225697
0.81982219 -9.6015873 7.8525348
0.97190535 -11.313099 7.5291262
0.93453568 -10.789934 4.4640555
1.0710213 -12.315886 3.7236943
3.0785432 -35.258625 6.8110003
1.4212371 -16.21216 1.553983
0.73309642 -8.7846928 7.9324737
0.87052047 -10.366196 7.6581922
0.97781616 -11.595494 6.9237204
1.0829837 -12.762955 6.0086799
0.92412174 -10.845863 3.8776278
1.2069844 -14.107609 3.5057137
3.6914368 -43.058609 6.1197629
1.9538275 -22.697273 1.0126464
-0.028836917 -0.083522759 8.7039413
0.034902651 -0.59645462 3.7987137
0.04967944 -0.76761371 3.7216334
0.077107191 -1.0807587 3.5110104
0.34259602 -4.4610677 8.2667351
0.42803374 -5.4741125 8.1369877
-0.016640471 -0.58340853 9.9328289
0.0089521175 -0.95602363 8.8739462
0.060935531 -0.90890622 3.5447795
0.092673905 -1.293588 3.5809953
0.16266204 -2.1419282 3.5838039
0.46391904 -6.0143347 8.0623484
0.32152414 -4.1212473 4.5595946
1.3300132 -16.351223 16.201164
0.7859838 -9.6005106 7.8493962
0.92691576 -11.249745 7.4852624
0.89648229 -10.788511 4.4621825
1.0268275 -12.305208 3.7194643
1.3633848 -16.202135 1.5526419
0.70242769 -8.7871981 7.9324737
0.83400631 -10.365142 7.6552491
0.93594551 -11.58165 6.9135876
1.0443132 -12.839035 6.0422487
0.88587248 -10.844316 3.8759844
1.1573349 -14.106892 3.5045416
3.5403004 -43.061363 6.1183815
1.8680098 -22.624292 1.0094219
-0.029128291 -0.083421588 8.7039413
0.032904729 -0.5981245 3.8085921
0.046999663 -0.76778245 3.7216334
0.072830439 -1.0735747 3.4871504
0.32649696 -4.4550714 8.2535686
0.40892291 -5.4755735 8.1369877
0.50986964 -6.7328649 8.1607046
-0.018676845 -0.5833469 9.9328289
0.0056149182 -0.95604908 8.8739462
0.057683121 -0.90785891 3.5399401
0.086050592 -1.262913 3.4965255
0.15424293 -2.1294768 3.5624745
0.44292226 -6.0159178 8.0623484
0.30713636 -4.1223445 4.5595946
0.75216299 -9.5993156 7.8462577
0.88139409 -11.173711 7.4331746
0.85881788 -10.791574 4.4621825
0.98233932 -12.289592 3.7138243
1.30602 -16.196867 1.5517477
0.67146587 -8.7858744 7.9291482
0.79751003 -10.36396 7.6523066
0.89518011 -11.580548 6.9110546
1.0037159 -12.896901 6.0674253
0.84764534 -10.842635 3.874341
1.1061831 -14.086617 3.4986799
3.3891892 -43.06358 6.1170001
1.7862688 -22.595812 1.0080112
-0.02941931 -0.083319411 8.7039413
0.044261057 -0.76692528 3.716738
0.068700321 -1.0678637 3.4680624
0.31194377 -4.4705191 8.2799025
0.38960734 -5.4741602 8.1328554
0.48497936 -6.7154217 8.1376791
-0.020712992 -0.58327818 9.9328289
0.0022776499 -0.95606279 8.8739462
0.054363787 -0.90554535 3.5302613
0.079531521 -1.2304859 3.4073629
0.14734633 -2.1378081 3.5752723
0.42192012 -6.017427 8.0623484
0.29274479 -4.1233916 4.5595946
0.71835995 -9.5980005 7.8431191
0.83232927 -11.043293 7.3454475
0.82079136 -10.789884 4.4603095
0.93797255 -12.273812 3.708184
1.255505 -16.353882 3.2054908
1.2487085 -16.191397 1.5508535
0.64052182 -8.78444 7.9258227
0.76103222 -10.36265 7.649363
0.85443377 -11.579303 6.9085212
0.95801848 -12.891273 6.0632291
0.80944073 -10.840819 3.8726974
1.0562775 -14.080699 3.4963353
3.2377348 -43.060337 6.1149282
1.7036204 -22.55209 1.0059959
-0.029709971 -0.083216205 8.7039413
0.041529007 -0.76605833 3.7118428
0.064791672 -1.0651171 3.4585185
0.29617855 -4.4691906 8.2755136
0.3704966 -5.4754868 8.1328554
0.46263367 -6.7330627 8.156867
-0.022748888 -0.5832023 9.9328289
-0.001059646 -0.95606494 8.8739462
0.051202513 -0.90572959 3.5302613
0.075445935 -1.234201 3.4167485
0.14090382 -2.1539242 3.600868
0.40071258 -6.0158558 8.0583582
0.27834967 -4.1243882 4.5595946
1.156195 -16.328682 16.166119
0.68457556 -9.5965691 7.8399811
0.80516416 -11.204618 7.4496236
0.7827872 -10.788059 4.4584365
0.89407665 -12.262657 3.7039537
1.1994882 -16.372862 3.2082887
1.1914511 -16.185724 1.5499593
0.60959607 -8.7828979 7.9224973
0.72457319 -10.361211 7.64642
0.8134048 -11.573615 6.9034548
0.77092391 -10.834157 3.8694103
1.0057336 -14.064908 3.4916461
3.0866985 -43.061501 6.1135468
1.6277601 -22.597765 1.0076082
-0.030000266 -0.083111994 8.7039413
0.038803551 -0.76518172 3.7069476
0.060817886 -1.0608661 3.4442027
0.086062387 -1.4167962 3.4034851
0.28057635 -4.4701972 8.2755136
0.3513813 -5.4767466 8.1328554
0.44121319 -6.7666206 8.195241
-0.024758313 -0.58254254 9.9228449
-0.0043969289 -0.95605546 8.8739462
0.047974393 -0.90464759 3.5254219
0.070543095 -1.2241198 3.388592
0.308911 -4.9917278 8.2507362
0.37971085 -6.0172181 8.0583582
0.26395118 -4.1253347 4.5595946
1.0999086 -16.343292 16.176632
0.65080959 -9.5950155 7.8368425
0.77232063 -11.299136 7.5099359
0.74480569 -10.7861 4.4565635
0.84993815 -12.246562 3.6983137
1.1416453 -16.367147 3.2064233
1.1342487 -16.17985 1.5490652
0.57893431 -8.7849731 7.9224973
0.68813354 -10.359644 7.6434765
0.77501076 -11.606492 6.9211869
0.7327823 -10.832071 3.8677669
0.95564258 -14.053784 3.4881289
2.9353564 -43.05719 6.1114745
1.5488693 -22.60331 1.0076082
-0.030272027 -0.082967095 8.6989422
0.036084726 -0.76429546 3.7020524
0.056954518 -1.0580908 3.4346588
0.080559127 -1.4073356 3.3804724
0.13439609 -2.2668312 4.2287827
0.33226177 -5.4779401 8.1328554
0.41660383 -6.7521238 8.176054
-0.026763413 -0.58187592 9.9128628
-0.0077341581 -0.95603424 8.8739462
0.044816289 -0.90480947 3.5254219
0.066362701 -1.2260817 3.3932846
0.29148474 -4.9927759 8.2507362
0.35852534 -6.0154991 8.054368
0.24954948 -4.1262312 4.5595946
0.51295841 -8.0402822 7.9970217
0.61731285 -9.597229 7.8368425
0.72232258 -11.13903 7.403019
0.70684743 -10.784009 4.4546905
0.80623823 -12.235095 3.6940837
1.0832076 -16.351427 3.2026927
1.0771018 -16.173773 1.5481712
0.54803294 -8.7832127 7.9191713
0.65171355 -10.357948 7.6405334
0.73830235 -11.669358 6.9566517
0.7117337 -11.156814 5.2554793
0.69436222 -10.825137 3.8644798
0.90532869 -14.037633 3.4834399
2.7844017 -43.057289 6.1100931
-0.030561451 -0.082860917 8.6989422
0.033372559 -0.76339948 3.6971571
0.053111266 -1.0553014 3.4251149
0.075541489 -1.4056573 3.3758698
0.12541637 -2.2481563 4.1936703
0.31313816 -5.4790664 8.1328554
-0.028764155 -0.58120227 9.9028788
-0.011071294 -0.9560014 8.8739462
0.041657642 -0.90496039 3.5254219
0.062430505 -1.2331998 3.4120557
0.27334064 -4.9807429 8.2294064
0.33735639 -6.0137053 8.0503778
0.23514472 -4.1270766 4.5595946
0.48553333 -8.0527039 8.0075359
0.58357227 -9.5954409 7.833704
0.68061972 -11.095573 7.3728623
0.66891283 -10.781783 4.4528174
0.76262873 -12.223472 3.6898537
1.0252011 -16.340401 3.1998951
1.0203247 -16.172464 1.5477239
0.517151 -8.7813454 7.9158459
0.61555362 -10.36016 7.6405334
0.69756424 -11.671865 6.9566517
0.67387724 -11.177351 5.2638712
0.65599966 -10.818069 3.8611929
0.85513914 -14.021301 3.4787505
2.6334825 -43.056862 6.1087122
1.3646528 -22.184732 0.99027646
-0.030832058 -0.082714193 8.6939421
0.030707592 -0.7635113 3.6971571
0.049149111 -1.0495161 3.4060268
0.070340909 -1.4000589 3.3620622
0.11319563 -2.1648695 4.0400519
0.29401073 -5.4801259 8.1328554
0.74642998 -13.648654 16.442038
-0.030744407 -0.58023363 9.8879042
-0.014408294 -0.955957 8.8739462
0.038498487 -0.90510035 3.5254219
0.058530401 -1.2420291 3.4355197
0.25568542 -4.9764576 8.2208748
0.31636259 -6.0148463 8.0503778
0.22091807 -4.131258 4.5632701
0.4586342 -8.0757122 8.0285625
0.5498516 -9.5935326 7.8305655
0.64357483 -11.127103 7.3920527
0.63100249 -10.779426 4.4509444
0.71939224 -12.216481 3.6870334
0.96728486 -16.32917 3.1970973
0.96356988 -16.170956 1.547277
0.48628882 -8.7793694 7.9125209
0.57916057 -10.358211 7.6375904
0.63254118 -11.138853 5.2449889
0.61796415 -10.815578 3.8595493
0.80507463 -14.00479 3.4740613
2.4828846 -43.060848 6.1080213
1.2863373 -22.174398 0.98967189
-0.031120596 -0.082606062 8.6939421
0.041653182 -1.3816178 8.787364
0.0280053 -0.76259637 3.6922619
0.045356657 -1.0466987 3.3964829
0.065726392 -1.4061505 3.3758698
0.27487975 -5.4811187 8.1328554
0.7012403 -13.699192 16.499601
-0.032718252 -0.57925826 9.8729296
-0.017745119 -0.95590085 8.8739462
0.03533886 -0.90522921 3.5254219
0.054194555 -1.2422258 3.4355197
0.073682852 -1.5891274 3.3531489
0.29521722 -6.0129046 8.0463886
0.20649594 -4.1320043 4.5632701
0.51594228 -9.5876198 7.8242884
0.60972089 -11.221138 7.4523654
0.59311664 -10.776933 4.4490714
0.67594856 -12.204548 3.6828034
0.90918607 -16.312828 3.1933668
0.90655911 -16.164276 1.5463828
0.45564014 -8.7810135 7.9125209
0.5430001 -10.360168 7.6375904
0.64876711 -12.296342 7.3214293
0.59824371 -11.227103 5.284852
0.57970119 -10.808239 3.8562622
0.75513583 -13.9881 3.469372
2.3320234 -43.059361 6.1066399
1.2154523 -22.298477 0.99450856
-0.031408753 -0.082496926 8.6939421
0.036830183 -1.3817548 8.787364
0.02534317 -0.76268947 3.6922619
0.041407097 -1.0393928 3.372623
0.060901802 -1.4083233 3.3804724
0.081087798 -1.7899776 3.3509667
0.25574541 -5.4820452 8.1328554
-0.034667533 -0.57798803 9.8529625
-0.021081727 -0.95583308 8.8739462
0.032134503 -0.90409088 3.5205824
0.049720138 -1.2389588 3.4261341
0.067297786 -1.5698004 3.3126378
0.27422646 -6.0138988 8.0463886
0.1920713 -4.1327 4.5632701
0.48227659 -9.5854759 7.8211498
0.57373232 -11.285838 7.4934869
0.55549449 -10.778937 4.4490714
0.63309407 -12.202044 3.6813934
0.85121322 -16.296278 3.1896362
0.84986818 -16.162369 1.5459356
0.42498589 -8.7825508 7.9125209
0.50663561 -10.357964 7.6346469
0.60668921 -12.315754 7.331562
0.55814749 -11.210992 5.2764592
0.54173344 -10.80548 3.8546188
0.7053234 -13.971233 3.4646828
2.1819546 -43.072186 6.1073303
1.1393902 -22.337509 0.99591929
-0.031696532 -0.082386792 8.6939421
0.032006733 -1.3818749 8.787364
0.022650881 -0.76175547 3.6873667
0.037832607 -1.0410229 3.3773947
0.055985466 -1.4085273 3.3804724
0.074639358 -1.7854638 3.3421884
0.23660792 -5.4829044 8.1328554
-0.036589209 -0.57642323 9.8280039
-0.024403846 -0.95522082 8.8689747
0.028938519 -0.90294117 3.515743
0.04508039 -1.2305022 3.4026701
0.084296778 -2.0603073 3.4430282
0.25310567 -6.0118089 8.0423985
0.17764433 -4.1333451 4.5632701
0.44863203 -9.5832119 7.8180113
0.53433383 -11.287772 7.4934869
0.51764315 -10.77618 4.4471984
0.59003353 -12.194596 3.6785734
0.79336691 -16.279524 3.1859057
0.79320168 -16.160263 1.5454886
0.39432648 -8.7839804 7.9125209
0.47047651 -10.359669 7.6346469
0.56389266 -12.322104 7.3340955
0.51355463 -11.094995 5.22191
0.50379205 -10.802588 3.8529751
0.65540981 -13.949333 3.4588211
2.0306582 -43.059753 6.1045675
1.0436296 -21.967077 0.9808045
-0.032002918 -0.082314923 8.6989422
0.027182898 -1.3819783 8.787364
0.019965423 -0.76081204 3.6824715
0.034247238 -1.0426404 3.3821669
0.051139012 -1.4106665 3.3850746
0.068406478 -1.7857134 3.3421884
0.21757904 -5.4865088 8.1369877
-0.03852053 -0.57514006 9.8080368
-0.027721945 -0.95459694 8.8640022
0.025715418 -0.90052372 3.5060642
0.040557206 -1.2237531 3.3838992
0.07505931 -2.0058584 3.3534436
0.23211899 -6.0126557 8.0423985
0.16321518 -4.1339397 4.5632701
0.41517767 -9.5847197 7.8180113
0.4949289 -11.289568 7.4934869
0.48002413 -10.777922 4.4471984
0.54724771 -12.191789 3.6771634
0.7356481 -16.262568 3.1821754
0.73656029 -16.157961 1.5450416
0.36366227 -8.7853031 7.9125209
0.43414235 -10.35721 7.6317039
0.52306128 -12.37568 7.3644934
0.48956758 -11.441334 5.381362
0.46587735 -10.799563 3.8513317
0.60586888 -13.932113 3.4541318
1.8805553 -43.071529 6.1052585
0.96145225 -21.845808 0.97576618
-0.032290056 -0.08220271 8.6989422
0.022321705 -1.3797338 8.7725468
0.017309571 -0.76087713 3.6824715
0.030651037 -1.0442457 3.3869388
0.046150807 -1.4088838 3.3804724
0.062255926 -1.7883351 3.3465776
0.19842622 -5.4872351 8.1369877
-0.040422194 -0.57356244 9.7830791
-0.031053944 -0.95449436 8.8640022
0.022509549 -0.89809489 3.4963853
0.036234371 -1.2221624 3.3792064
0.05057437 -1.5617158 3.2946329
0.067968816 -2.0035017 3.3491776
0.21102381 -6.0104175 8.0384083
0.1489059 -4.1378722 4.5669456
0.38171822 -9.5861101 7.8180113
0.45551795 -11.291226 7.4934869
0.44258931 -10.784163 4.4490714
0.50448877 -12.188832 3.6757534
0.67805719 -16.245403 3.1784449
0.67973518 -16.150482 1.5441474
0.33299363 -8.78652 7.9125209
0.39798632 -10.358663 7.6317039
0.48035988 -12.390353 7.3720927
0.46530691 -11.842054 5.5659909
0.42798996 -10.796405 3.8496883
0.55665034 -13.919572 3.4506149
1.7303948 -43.082775 6.1059494
0.89692014 -22.138559 0.98745501
-0.032576799 -0.082089499 8.6989422
0.01749577 -1.3790264 8.7676067
0.014634318 -0.75991488 3.6775763
0.027044045 -1.0458386 3.3917108
0.041118734 -1.4051306 3.3712673
0.17917916 -5.4850812 8.1328554
0.46086225 -13.674107 16.457388
-0.042357605 -0.57255429 9.7681036
-0.034365751 -0.95384747 8.8590307
0.019267425 -0.89314127 3.4770277
0.03201288 -1.2240064 3.3838992
0.19004224 -6.0111175 8.0384083
0.13446112 -4.1383672 4.5669456
0.34839544 -9.5912752 7.8211498
0.41579354 -11.284391 7.4880042
0.40494287 -10.785643 4.4490714
0.46175706 -12.185725 3.6743431
0.62059522 -16.228037 3.1747143
0.62316322 -16.147778 1.5437002
0.3023209 -8.7876282 7.9125209
0.36168438 -10.355949 7.6287603
0.43573901 -12.353181 7.3492942
0.4502683 -12.578376 5.9058752
0.38995975 -10.788396 3.8464012
0.50752681 -13.906858 3.4470978
0.82314813 -22.236414 0.99128407
-0.032863148 -0.081975281 8.6989422
0.012675049 -1.3783021 8.7626677
0.01198163 -0.75996131 3.6775763
0.023393223 -1.0459266 3.3917108
0.036063306 -1.3994066 3.3574595
0.16003157 -5.4856734 8.1328554
0.41312787 -13.675632 16.457388
-0.044124406 -0.56952542 9.7181873
-0.037673417 -0.95318907 8.8540592
0.016060159 -0.88817602 3.45767
0.027817803 -1.2275612 3.3932846
0.039670393 -1.5620308 3.2946329
0.16905837 -6.0117445 8.0384083
0.12011292 -4.1421995 4.5706201
0.31491351 -9.592432 7.8211498
0.37626177 -11.281594 7.4852624
0.367607 -10.796257 4.4528174
0.4190532 -12.182468 3.6729331
0.56309211 -16.205557 3.1700513
0.56644386 -16.1399 1.542806
0.27164453 -8.7886295 7.9125209
0.32553318 -10.357148 7.6287603
0.39247879 -12.350318 7.3467612
0.40855661 -12.647914 5.937346
0.35214475 -10.784971 3.8447578
0.45849878 -13.893971 3.4435811
0.74552351 -22.239151 0.99128407
-0.033149097 -0.081860073 8.6989422
0.0078595942 -1.3775609 8.7577286
0.0093287975 -0.75999844 3.6775763
0.019742114 -1.0460018 3.3917108
0.031048344 -1.3936644 3.3436522
0.14080983 -5.483386 8.1287222
0.36504617 -13.664174 16.442038
-0.045846432 -0.56620347 9.6632795
-0.040976908 -0.95251918 8.8490877
0.012905783 -0.88445616 3.4431517
0.023532646 -1.2276509 3.3932846
0.034502588 -1.5752184 3.3216405
0.14807244 -6.0122976 8.0384083
0.1056532 -4.1425934 4.5706201
0.28142774 -9.5934734 7.8211498
0.33662981 -11.27448 7.4797792
0.33006033 -10.802108 4.4546905
0.37637776 -12.179063 3.6715231
0.50575358 -16.182875 3.1653883
0.50978708 -16.131826 1.5419121
0.24086252 -8.7857914 7.9091954
0.28926513 -10.354182 7.6258178
0.3490001 -12.338685 7.3391614
0.37054673 -12.862486 6.0359545
0.31422082 -10.776694 3.8414707
0.40971029 -13.88577 3.4412363
-0.033434637 -0.081743859 8.6989422
0.0030479787 -1.376026 8.7478504
0.0066758506 -0.7600264 3.6775763
0.016068101 -1.0445719 3.3869388
0.02607391 -1.3879043 3.3298445
0.12160602 -5.4810309 8.1245899
-0.047596116 -0.56345159 9.6183548
-0.044276185 -0.95183796 8.8441172
0.009736767 -0.87695444 3.414115
0.019059569 -1.2156472 3.3604355
0.028924052 -1.570976 3.3126378
0.040455926 -2.0277231 3.3875711
0.12702107 -6.0097656 8.0344181
0.091266766 -4.1463265 4.5742955
0.24793856 -9.5943975 7.8211498
0.29705212 -11.267227 7.474297
0.29260275 -10.812464 4.4584365
0.33359975 -12.170712 3.6687033
0.44871646 -16.1649 3.1616576
0.45333347 -16.128529 1.5414648
0.2101929 -8.7865782 7.9091954
0.25312051 -10.355128 7.6258178
0.30582112 -12.33552 7.3366284
0.2763589 -10.768285 3.8381836
0.36085826 -13.872539 3.4377193
0.58017641 -21.864258 0.97596776
-0.033719774 -0.081626654 8.6989422
-0.0017540467 -1.3752513 8.7429113
0.0040178467 -0.75902694 3.6726811
0.012404313 -1.0431291 3.3821669
0.021110406 -1.3801732 3.3114345
0.030456366 -1.7556244 3.2851305
0.1024729 -5.4814219 8.1245899
-0.049117837 -0.55839449 9.5334969
-0.047571201 -0.95114529 8.8391457
0.0066755656 -0.87698305 3.414115
0.014732928 -1.2088042 3.3416643
0.023149498 -1.5514772 3.2721272
0.033163674 -2.0148134 3.3662415
0.10598919 -6.0071597 8.0304279
0.076855548 -4.1500096 4.5779705
0.21444635 -9.5952044 7.8211498
0.25762475 -11.264015 7.4715552
0.25485843 -10.813419 4.4584365
0.29099929 -12.167006 3.6672931
0.39169189 -16.141813 3.1569946
0.39678657 -16.120056 1.5405706
0.17944451 -8.7835264 7.90587
0.21697286 -10.355948 7.6258178
0.26266849 -12.332203 7.3340955
0.12628968 -5.7863507 2.7629926
0.23866424 -10.764462 3.83654
0.312213 -13.863996 3.4353747
0.50385237 -21.86615 0.97596776
-0.034004498 -0.08150845 8.6989422
-0.0065466934 -1.3736829 8.7330322
0.0013683242 -0.75903636 3.6726811
0.0087507935 -1.0416733 3.3773947
0.01622404 -1.3743778 3.297627
0.024261868 -1.7509304 3.2763524
0.083338551 -5.4817462 8.1245899
-0.050115809 -0.54816025 9.3587885
-0.050861921 -0.95044118 8.8341742
0.0036142832 -0.87700099 3.414115
0.010424774 -1.1984946 3.3135076
0.017708993 -1.5493716 3.2676258
0.02575995 -1.9862311 3.3193161
0.084977046 -6.0044794 8.0264378
0.06236884 -4.1502528 4.5779705
0.18087816 -9.5920029 7.8180113
0.21814242 -11.256484 7.4660726
0.21664578 -10.791068 4.4490714
0.24833083 -12.158355 3.6644731
0.33483398 -16.118528 3.1523316
0.34040949 -16.116364 1.5401237
0.14878319 -8.7840986 7.90587
0.18089306 -10.360684 7.6287603
0.21954271 -12.328733 7.331562
0.10592444 -5.7776809 2.7587967
0.20091145 -10.755788 3.8332531
0.26363179 -13.855281 3.4330301
-0.034288809 -0.081389256 8.6989422
-0.011335056 -1.3728746 8.7280931
-0.0012812155 -0.75903648 3.6726811
0.0051005529 -1.038712 3.3678508
0.01137839 -1.3685653 3.2838192
0.018051183 -1.7414249 3.2587962
0.06420318 -5.4820037 8.1245899
-0.051296484 -0.54051185 9.2290049
-0.05417927 -0.95025784 8.8341742
0.00055295642 -0.87700826 3.414115
0.006214981 -1.1933467 3.2994294
0.012232178 -1.5407165 3.2496209
0.018752813 -1.9784852 3.3065183
0.063952819 -5.9987135 8.0184574
0.047920421 -4.1538348 4.581646
0.14733496 -9.5886841 7.8148737
0.17891504 -11.261357 7.4688139
0.17897661 -10.791758 4.4490714
0.20580754 -12.154352 3.663063
0.27822828 -16.099953 3.1486011
0.28406301 -16.112474 1.5396765
0.11806987 -8.7808313 7.9025445
0.14472641 -10.361253 7.6287603
0.17644437 -12.325114 7.3290291
0.16329382 -10.751701 3.8316097
0.21511525 -13.846396 3.4306855
0.35977 -22.403629 0.99753159
-0.034572702 -0.081269071 8.6989422
-0.0161085 -1.3712728 8.718214
-0.0039250525 -0.75800914 3.6677856
0.0014710929 -1.0357381 3.3583069
0.006582723 -1.3646895 3.2746143
0.011907158 -1.7318977 3.2412398
0.045067027 -5.4821944 8.1245899
0.12633997 -13.649234 16.419014
-0.052074302 -0.52941543 9.0393219
-0.057463136 -0.9495309 8.8292027
-0.002512326 -0.87826186 3.4189546
0.0020520967 -1.1950868 3.304122
0.0068160053 -1.5320421 3.231616
0.011800069 -1.9707147 3.2937207
0.042969894 -5.9928741 8.010478
0.03342054 -4.1539769 4.581646
0.11381711 -9.585248 7.8117352
0.13944903 -11.24937 7.4605894
0.16325074 -12.145403 3.6602428
0.22175635 -16.081177 3.1448705
0.22774784 -16.108387 1.5392295
0.087418333 -8.7811899 7.9025445
0.10851569 -10.357653 7.6258178
0.13337398 -12.321345 7.3264956
0.1226339 -10.806637 5.0834384
0.12576237 -10.752206 3.8316097
0.1666054 -13.832482 3.4271686
0.28169012 -22.414742 0.99793464
-0.034856174 -0.081147894 8.6989422
-0.020895038 -1.3712082 8.718214
-0.0065709744 -0.75799084 3.6677856
-0.0021375432 -1.0327516 3.348763
0.0018118675 -1.3588431 3.2608066
0.0058536916 -1.7295336 3.2368507
0.025970103 -5.4907603 8.1369877
-0.053861629 -0.52865613 9.0293388
-0.060777266 -0.94932449 8.8292027
-0.0055780169 -0.87824774 3.4189546
-0.0021195472 -1.1950867 3.304122
0.0014605393 -1.523349 3.2136111
0.0049018012 -1.9629198 3.2809229
0.022028506 -5.9869609 8.0024977
0.018920252 -4.154068 4.581646
0.080357656 -9.5855865 7.8117352
0.10010612 -11.241426 7.4551063
0.12085438 -12.145899 3.6602428
0.16546948 -16.067118 3.1420727
0.17146468 -16.104105 1.5387824
0.056765731 -8.7814417 7.9025445
0.072472945 -10.374136 7.6375904
0.090332046 -12.317424 7.3239622
0.084732719 -10.784308 5.0729485
0.088190675 -10.747857 3.8299661
0.11823686 -13.823258 3.424824
0.20331031 -22.400599 0.99733001
-0.035139222 -0.081025727 8.6989422
-0.025681321 -1.3711269 8.718214
-0.0092168162 -0.7579633 3.6677856
-0.0057167145 -1.0282599 3.3344471
-0.0029225261 -1.3549339 3.2516015
-0.00018270696 -1.7247535 3.2280724
0.0067795501 -5.4711189 8.108058
0.031004397 -13.630551 16.395988
-0.055051912 -0.52243793 8.9245148
-0.064054124 -0.94857478 8.8242302
-0.0086436393 -0.87822288 3.4189546
-0.0062818285 -1.1933464 3.2994294
-0.0038170556 -1.5081062 3.1821027
-0.001939173 -1.9524928 3.263859
0.0011289252 -5.9809752 7.9945178
0.0044197333 -4.154109 4.581646
0.046897225 -9.5858088 7.8117352
0.07833264 -12.127059 3.6546028
0.10928345 -16.05286 3.1392746
0.11524982 -16.104605 1.5387824
0.026101356 -8.777853 7.8992186
0.047335662 -12.317664 7.3239622
0.046988938 -10.761846 5.0624585
0.050695371 -10.752822 3.8316097
0.070008568 -13.828448 3.4259963
0.1250885 -22.396175 0.99712849
-0.035442464 -0.080941036 8.7039413
-0.03046729 -1.3710289 8.718214
-0.011862545 -0.75792652 3.6677856
-0.0092783598 -1.0252483 3.324903
-0.0076296059 -1.3510082 3.2423966
-0.0061856634 -1.7199525 3.2192943
-0.012311875 -5.4682951 8.1039248
-0.056907397 -0.52252936 8.9295053
-0.067364879 -0.94834536 8.8242302
-0.011692045 -0.87693048 3.414115
-0.010447346 -1.1933172 3.2994294
-0.0090813059 -1.5080837 3.1821027
-0.0087191286 -1.9446501 3.2510612
-0.019718604 -5.9719028 7.9825482
-0.010080839 -4.154099 4.581646
0.01344166 -9.5898075 7.8148737
0.017690683 -9.1929541 6.1117878
0.035972361 -12.117664 3.6517828
0.053198982 -16.038408 3.136477
0.059015296 -16.09993 1.5383353
-0.0045392257 -8.7778902 7.8992186
4.658306e-05 -8.7575865 6.4603262
0.0043371981 -12.313444 7.3214293
0.0094346805 -10.775559 5.0687523
0.013160708 -10.752934 3.8316097
0.02174549 -13.833468 3.4271686
-0.035724785 -0.080816828 8.7039413
-0.035252888 -1.3709142 8.718214
-0.01450813 -0.75788051 3.6677856
-0.01283807 -1.023717 3.3201311
-0.012327386 -1.3490198 3.2377942
-0.012137966 -1.7127355 3.2061269
-0.031432129 -5.4738474 8.1121902
-0.058598299 -0.52118051 8.9095392
-0.070674807 -0.94810444 8.8242302
-0.014731535 -0.87562758 3.4092758
-0.014569971 -1.1898224 3.2900438
-0.014324548 -1.5058661 3.1776016
-0.015423417 -1.934176 3.2339973
-0.040523294 -5.9657712 7.9745679
-0.024581289 -4.1540384 4.581646
-0.021086214 -8.0779991 8.0180483
-0.020033095 -9.5897951 7.8148737
-0.014411957 -9.2013216 6.1172709
-0.0027832566 -16.02376 3.1336792
0.0028156938 -16.100039 1.5383353
-0.035179753 -8.7778215 7.8992186
-0.030946376 -8.8787937 6.5486212
-0.038644765 -12.313384 7.3214293
-0.024384828 -10.757637 3.8332531
-0.026589114 -13.857763 3.4330301
-0.031282034 -22.406498 0.99753159
-0.036006674 -0.080691628 8.7039413
-0.040038057 -1.3707829 8.718214
-0.017130082 -0.75680727 3.6628907
-0.016387206 -1.0221736 3.3153591
-0.016986487 -1.3450615 3.2285891
-0.018065458 -1.707893 3.1973488
-0.060177926 -0.51896614 8.8745975
-0.073983885 -0.94785202 8.8242302
-0.017762069 -0.87431413 3.4044361
-0.018668326 -1.1863135 3.2806582
-0.019552419 -1.50363 3.1731002
-0.022084733 -1.9262869 3.2211998
-0.061285418 -5.9595675 7.966588
-0.039081443 -4.1539273 4.581646
-0.049196426 -8.063611 8.0040312
-0.053529337 -9.5935583 7.8180113
-0.046530474 -9.2012157 6.1172709
-0.058680587 -16.013826 3.1318138
-0.053367436 -16.094971 1.5378883
-0.066100061 -8.8149815 7.9324737
-0.062729061 -8.9918041 6.6310291
-0.081569083 -12.304553 7.3163633
-0.061935838 -10.757486 3.8332531
-0.073093116 -14.957398 0.69704896
-0.03628812 -0.080565445 8.7039413
-0.044822741 -1.3706347 8.718214
-0.019744718 -0.75572503 3.6579952
-0.019925719 -1.0206177 3.3105872
-0.021618107 -1.3410872 3.219384
-0.023925439 -1.7006353 3.1841817
-0.061953902 -0.51846629 8.869606
-0.077292055 -0.94758797 8.8242302
-0.020753343 -0.87173355 3.3947573
-0.022708926 -1.181065 3.2665799
-0.024728762 -1.4991994 3.1640978
-0.028652018 -1.9157672 3.2041361
-0.08204627 -5.9563036 7.9625978
-0.053581115 -4.1537657 4.581646
-0.087016776 -9.5933132 7.8180113
-0.078648433 -9.2009974 6.1172709
-0.11447347 -15.998789 3.1290162
-0.10958293 -16.099665 1.5383353
-0.097198114 -8.8445654 7.9590778
-0.095343426 -9.1087427 6.7163811
-0.09948609 -10.757204 3.8332531
-0.052595586 -5.9104338 1.5162911
-0.12530373 -14.957051 0.69704896
-0.036569126 -0.080438286 8.7039413
-0.049606875 -1.3704699 8.718214
-0.02235201 -0.75463378 3.6531003
-0.023453569 -1.0190496 3.3058152
-0.026222186 -1.337097 3.2101789
-0.029734969 -1.6933576 3.1710143
-0.10789647 -7.110311 8.5905046
-0.063799493 -0.51853335 8.8745975
-0.080645084 -0.94784349 8.8292027
-0.023761477 -0.87039936 3.3899181
-0.026752571 -1.177528 3.2571945
-0.02987441 -1.4947509 3.1550953
-0.035194375 -1.9078326 3.1913381
-0.10273302 -5.9499555 7.9546175
-0.068080135 -4.1535535 4.581646
-0.12050316 -9.5929508 7.8180113
-0.11071506 -9.1964846 6.1145296
-0.062752545 -5.708498 1.7679789
-0.17005746 -15.973731 3.1243527
-0.16552418 -16.074287 1.5360999
-0.052133713 -3.6025071 3.2900755
-0.14457671 -10.357213 7.6258178
-0.048693147 -3.5794308 2.1892087
-0.13709529 -10.761513 3.8348968
-0.073346987 -5.9199343 1.5186357
-0.036849681 -0.080310151 8.7039413
-0.054390401 -1.3702884 8.718214
-0.024951922 -0.75353348 3.6482048
-0.026970718 -1.0174693 3.301043
-0.030798674 -1.3330911 3.200974
-0.035493985 -1.6860602 3.1578474
-0.04242716 -2.1557848 3.239444
-0.1334337 -7.1483483 8.6365547
-0.065646313 -0.51859379 8.8795891
-0.083953187 -0.9475562 8.8292027
-0.026760548 -0.86905468 3.3850784
-0.030726327 -1.1722523 3.2431161
-0.034989305 -1.4902848 3.1460929
-0.041681696 -1.8998761 3.1785405
-0.12350161 -5.9495606 7.9546175
-0.082578324 -4.1532903 4.581646
-0.15398806 -9.5924711 7.8180113
-0.14268622 -9.1876812 6.1090465
-0.22553742 -15.953394 3.1206224
-0.22170156 -16.078588 1.5365469
-0.064372897 -3.583637 3.273448
-0.18072926 -10.356645 7.6258178
-0.06103994 -3.5706191 2.1841426
-0.17427592 -10.737361 3.826679
-0.094010971 -5.9196424 1.5186357
-0.037129793 -0.080181032 8.7039413
-0.059139509 -1.3693137 8.713275
-0.02754443 -0.75242436 3.6433098
-0.030432057 -1.014385 3.2914991
-0.035347521 -1.3290697 3.1917689
-0.041202419 -1.6787431 3.14468
-0.049364157 -2.1303043 3.2022474
-0.15739068 -7.1029754 8.5828295
-0.067456149 -0.51836151 8.8795891
-0.087359302 -0.9483189 8.8391457
-0.029750526 -0.8676998 3.3802392
-0.034715071 -1.1686882 3.2337308
-0.040073387 -1.4858013 3.1370907
-0.048113894 -1.8918973 3.1657426
-0.14419562 -5.9460807 7.9506273
-0.097075507 -4.152977 4.581646
-0.18747109 -9.591876 7.8180113
-0.17467681 -9.1829472 6.1063056
-0.10303468 -5.7319021 1.7750291
-0.28079084 -15.927951 3.1159592
-0.27773896 -16.072741 1.5360999
-0.076641291 -3.5721917 3.2634716
-0.21704887 -10.364032 7.6317039
-0.073237032 -3.5574546 2.1765432
-0.21222088 -10.760293 3.8348968
-0.11448549 -5.9095592 1.5162911
-0.24259785 -12.635219 1.8548135
-0.2551809 -13.536325 0.6398142
-0.037409451 -0.080050938 8.7039413
-0.063918948 -1.369099 8.713275
-0.030129494 -0.75130618 3.6384144
-0.033922464 -1.0127808 3.2867272
-0.03986866 -1.3250326 3.1825638
-0.046927493 -1.6738011 3.1359019
-0.056875147 -2.1329322 3.2063804
-0.17922363 -6.9870329 8.4446793
-0.0693435 -0.51869488 8.8895721
-0.090463534 -0.94588584 8.8192587
-0.032731365 -0.86633462 3.3753996
-0.038736831 -1.1668351 3.2290378
-0.045126598 -1.4813006 3.1280882
-0.054490909 -1.8838973 3.1529448
-0.16495043 -5.9455414 7.9506273
-0.11148041 -4.1492238 4.5779705
-0.22086222 -9.5872726 7.8148737
-0.20663609 -9.1781015 6.1035638
-0.12355699 -5.755487 1.7820792
-0.33576566 -15.897408 3.1103637
-0.088271499 -3.5383091 3.233542
-0.25302729 -10.355131 7.6258178
-0.085550599 -3.5528677 2.1740098
-0.24945118 -10.745324 3.8299661
-0.13500188 -5.904264 1.5151188
-0.2867015 -12.634295 1.8548135
-0.30432716 -13.620262 0.64324021
-0.037666958 -0.079881996 8.6989422
-0.068658441 -1.3680917 8.7083368
-0.032707088 -0.75017923 3.6335194
-0.037402041 -1.0111644 3.2819552
-0.044362057 -1.3209803 3.1733589
-0.052542917 -1.6664455 3.1227345
-0.064235166 -2.1299078 3.2022474
-0.071113482 -0.51816374 8.8845806
-0.094296955 -0.95086831 8.8689747
-0.035703041 -0.86495918 3.3705604
-0.042682536 -1.1632438 3.2196524
-0.050148878 -1.4767826 3.1190858
-0.060812652 -1.8758755 3.140147
-0.18560913 -5.9419179 7.9466381
-0.12596323 -4.1488094 4.5779705
-0.2541202 -9.5786619 7.8085966
-0.23845489 -9.1689634 6.0980806
-0.14352693 -5.7502255 1.7806692
-0.3907724 -15.876496 3.1066332
-0.10062196 -3.5379794 3.233542
-0.28917187 -10.354184 7.6258178
-0.097595312 -3.5396194 2.1664102
-0.22643781 -8.4785557 3.0410819
-0.15561077 -5.9037566 1.5151188
-0.33339426 -12.732223 1.868627
-0.35148177 -13.604134 0.64263564
-0.037945572 -0.079750031 8.6989422
-0.073349781 -1.366292 8.6984577
-0.035277184 -0.74904341 3.628624
-0.040870752 -1.0095363 3.2771833
-0.048900254 -1.3188651 3.1687562
-0.058191583 -1.6614649 3.1139565
-0.071195677 -2.1156085 3.1815827
-0.072839431 -0.51734096 8.8745975
-0.097670607 -0.95106351 8.8739462
-0.038665514 -0.86357361 3.3657207
-0.046673194 -1.1613632 3.2149594
-0.055140164 -1.4722477 3.1100833
-0.067172818 -1.8704392 3.1316152
-0.20624451 -5.9382224 7.9426479
-0.14032973 -4.1449566 4.5742955
-0.28720391 -9.5660439 7.799181
-0.27033579 -9.1638956 6.0953393
-0.17619987 -6.1176991 2.5610542
-0.16387099 -5.7592797 1.7834892
-0.44536123 -15.845572 3.1010373
-0.11368661 -3.559998 3.2534952
-0.32543993 -10.357151 7.6287603
-0.10968251 -3.5306401 2.1613441
-0.25603208 -8.4777136 3.0410819
-0.17578265 -5.8886023 1.5116018
-0.37783596 -12.730982 1.868627
-0.50823152 -17.32819 0.79297769
-0.038201764 -0.079579383 8.6939421
-0.078073986 -1.3652519 8.6935186
-0.037891619 -0.74891567 3.628624
-0.044328552 -1.0078962 3.2724111
-0.053344797 -1.3147821 3.1595511
-0.063806109 -1.6564653 3.1051781
-0.07826633 -2.1069109 3.169184
-0.074813537 -0.51822585 8.8945637
-0.1016729 -0.95707685 8.9336033
-0.041679714 -0.86343336 3.3657207
-0.050575677 -1.1577452 3.205574
-0.060189676 -1.4698713 3.1055822
-0.073392913 -1.8623751 3.1188173
-0.22685638 -5.9344554 7.9386578
-0.15479748 -4.1444411 4.5742955
-0.27590403 -8.1054277 8.0495901
-0.31968105 -9.5377522 7.7772117
-0.30218419 -9.1587172 6.092598
-0.19635625 -6.0799785 2.5460701
-0.18412682 -5.7634668 1.7848994
-0.49958378 -15.809552 3.0945089
-0.37861106 -12.115128 1.1811192
-0.36074477 -10.331716 7.6111016
-0.12155925 -3.5173113 2.1537445
-0.28530523 -8.467329 3.0377948
-0.19698466 -5.9073844 1.5162911
-0.4198103 -12.655345 1.8582668
-0.57346815 -17.471113 0.7988221
-0.038479317 -0.079445556 8.6939421
-0.083122924 -1.3696244 8.7231531
-0.040450178 -0.7477622 3.6237288
-0.047775395 -1.0062443 3.2676392
-0.057847682 -1.3126361 3.1549485
-0.069386438 -1.6514467 3.0964
-0.085162722 -2.0953779 3.152652
-0.077571765 -0.52424139 9.0043812
-0.10501311 -0.95671606 8.9336033
-0.044628058 -0.86202741 3.3608816
-0.054535069 -1.155838 3.2008812
-0.065223254 -1.4674774 3.1010809
-0.079557553 -1.8542908 3.1060195
-0.24744447 -5.9306169 7.9346676
-0.16926333 -4.1438756 4.5742955
-0.30285767 -8.068778 8.0145445
-0.35311604 -9.5404682 7.7803502
-0.33399975 -9.1534271 6.0898561
-0.21774396 -6.0838885 2.5479429
-0.20407401 -5.7579951 1.7834892
-0.55528337 -15.822441 3.097307
-0.42089844 -12.113732 1.1811192
-0.34091869 -8.7563219 7.8859172
-0.39680699 -10.330393 7.6111016
-0.13350825 -3.50825 2.1486781
-0.31608853 -8.4993134 3.0492992
-0.46525338 -12.688444 1.8631016
-0.6339063 -17.454031 0.79821754
-0.038756397 -0.079310752 8.6939421
-0.088103324 -1.3724275 8.7429113
-0.043001138 -0.74659991 3.6188335
-0.051211253 -1.0045806 3.2628672
-0.062243178 -1.3085233 3.1457434
-0.074932523 -1.6464095 3.0876219
-0.091979578 -2.0838227 3.1361201
-0.29091495 -6.7458735 8.1607046
-0.080196209 -0.52910268 9.0942297
-0.10780645 -0.95157737 8.8888607
-0.047636826 -0.86186635 3.3608816
-0.058481749 -1.1539171 3.1961884
-0.07013642 -1.4628919 3.0920784
-0.085787684 -1.8487915 3.0974877
-0.2680085 -5.9267063 7.9306774
-0.18372713 -4.1432595 4.5742955
-0.33014372 -8.0462914 7.9935169
-0.38342267 -9.4652843 7.7207193
-0.36578205 -9.1480274 6.0871148
-0.24007142 -6.1108856 2.5591812
-0.46222919 -12.087308 1.1788838
-0.36989883 -8.7177744 7.8526621
-0.42998695 -10.260291 7.5610681
-0.1453955 -3.4991488 2.1436117
-0.34652266 -8.5170317 3.0558734
-0.5103364 -12.706534 1.8658644
-0.69045579 -17.341887 0.79378378
-0.039055355 -0.079212457 8.6989422
-0.093104303 -1.3752123 8.7626677
-0.045544483 -0.74542898 3.6139383
-0.054636076 -1.0029052 3.2580953
-0.066610679 -1.304396 3.1365385
-0.080444284 -1.6413536 3.0788438
-0.098850824 -2.0750566 3.1237214
-0.31356481 -6.725606 8.1376791
-0.084165223 -0.54222101 9.3288383
-0.11037777 -0.94484264 8.8292027
-0.050570898 -0.86044002 3.3560419
-0.062322069 -1.1502596 3.1868029
-0.075018369 -1.45829 3.083076
-0.091850251 -1.8406663 3.0846899
-0.28854823 -5.9227252 7.9266872
-0.19818868 -4.1425929 4.5742955
-0.35568982 -7.9880872 7.9374442
-0.41303757 -9.386116 7.6579504
-0.39753076 -9.142518 6.0843735
-0.32025859 -7.4856195 3.1154718
-0.26643655 -6.2788396 1.9371828
-0.5033806 -12.060741 1.1766484
-0.39604408 -8.6231842 7.7695246
-0.46396583 -10.218349 7.5316362
-0.15741487 -3.4943132 2.1410785
-0.37625054 -8.51577 3.0558734
-0.039354101 -0.079113044 8.7039413
-0.098181225 -1.3787543 8.787364
-0.048014116 -0.74323338 3.6041479
-0.058049828 -1.0012182 3.2533233
-0.071056791 -1.3022047 3.1319361
-0.085795902 -1.6338878 3.0656767
-0.10566199 -2.0662677 3.1113224
-0.33639771 -6.7116656 8.1223288
-0.088180594 -0.55503285 9.5584545
-0.11412544 -0.9481557 8.8640022
-0.053495601 -0.85900378 3.3512027
-0.066237211 -1.1483124 3.1821103
-0.079988666 -1.4558456 3.0785747
-0.097996376 -1.8351259 3.0761578
-0.30906346 -5.9186721 7.9226971
-0.21264783 -4.1418762 4.5742955
-0.38066256 -7.9262404 7.8778667
-0.44376692 -9.3418503 7.6234274
-0.42944169 -9.1410751 6.0843735
-0.17254676 -3.7007368 2.0258303
-0.3622475 -7.8271475 3.2540762
-0.28835216 -6.2778711 1.9371828
-0.6189391 -13.578095 2.6720321
-0.54817784 -12.11861 1.1820134
-0.42485175 -8.595645 7.7462459
-0.49745977 -10.172258 7.4992619
-0.16919318 -3.4851308 2.1360121
-0.41618475 -8.7928953 2.21382
-0.81127357 -17.331654 0.79358232
-0.039630022 -0.078975193 8.7039413
-0.102819 -1.3760785 8.7725468
-0.050538581 -0.7420454 3.5992527
-0.061360564 -0.99802977 3.2437794
-0.075374939 -1.2980481 3.122731
-0.091230497 -1.628796 3.0568984
-0.11241302 -2.057457 3.0989237
-0.35913709 -6.6976476 8.1069784
-0.0908719 -0.55927873 9.6383209
-0.11743442 -0.94775152 8.8640022
-0.056493755 -0.8588118 3.3512027
-0.070033871 -1.1446294 3.1727247
-0.084815606 -1.4512111 3.0695722
-0.10395663 -1.8269612 3.0633602
-0.32955393 -5.9145489 7.9187074
-0.22710438 -4.1411085 4.5742955
-0.40447378 -7.8500714 7.8042717
-0.47419229 -9.2974854 7.5889044
-0.46113652 -9.1353436 6.0816321
-0.18568549 -3.7045362 2.0281491
-0.28657988 -5.7977052 1.7961795
-0.64465803 -13.13428 2.5880964
-0.59241551 -12.156415 1.1855899
-0.45327467 -8.5642805 7.7196422
-0.18113342 -3.4802144 2.1334791
-0.30343711 -5.8888412 2.8133461
-0.45057654 -8.8642044 2.2314048
-0.63785666 -12.591688 1.8506694
-0.82256794 -16.350748 0.7540822
-0.039905455 -0.078836374 8.7039413
-0.10756095 -1.3749366 8.7676067
-0.053055339 -0.7408489 3.5943573
-0.064746849 -0.99631995 3.2390072
-0.079664938 -1.2938772 3.1135259
-0.096630588 -1.6236861 3.0481203
-0.11910382 -2.048624 3.086525
-0.38196558 -6.6867537 8.0954666
-0.093834639 -0.56493574 9.7431459
-0.12074197 -0.94733584 8.8640022
-0.059403978 -0.85735536 3.3463631
-0.073917277 -1.1426558 3.1680319
-0.089745976 -1.4487334 3.0650711
-0.10986108 -1.8187774 3.0505624
-0.35019755 -5.9133625 7.9187074
-0.24155816 -4.1402903 4.5742955
-0.43187317 -7.8486118 7.8042717
-0.50621998 -9.2880001 7.5826273
-0.49279666 -9.1295042 6.0788908
-0.19790386 -3.6905947 2.0211926
-0.30630881 -5.7870893 1.7933595
-0.63536531 -12.16422 1.1864841
-0.4810631 -8.5253687 7.6863871
-0.22257099 -3.9818053 2.9873967
-0.1930414 -3.4752564 2.1309459
-0.32249478 -5.8605556 2.8007576
-0.68180597 -12.589385 1.8506694
-0.87990618 -16.352766 0.75428379
-0.0401804 -0.078696601 8.7039413
-0.11223266 -1.3730038 8.7577286
-0.055564366 -0.73964387 3.5894623
-0.068121962 -0.99459875 3.2342353
-0.084053822 -1.2916417 3.1089232
-0.10199612 -1.6185584 3.0393422
-0.12590761 -2.0425787 3.078259
-0.39870837 -6.576601 7.9649916
-0.096199162 -0.56688058 9.7830791
-0.12404805 -0.94690865 8.8640022
-0.062304728 -0.8558892 3.3415239
-0.077670097 -1.1389475 3.1586463
-0.0945177 -1.4440669 3.0560689
-0.11587615 -1.8131775 3.0420306
-0.37064829 -5.9090972 7.9147177
-0.25579968 -4.1360383 4.5706201
-0.45822531 -7.8292551 7.7867489
-0.53931427 -9.2978334 7.5920429
-0.52514154 -9.1360769 6.0843735
-0.21078524 -3.6898816 2.0211926
-0.44366625 -7.8136687 3.2503304
-0.32704818 -5.7955637 1.7961795
-0.51545882 -9.1911106 1.8392023
-0.67893094 -12.181817 1.1882724
-0.51126605 -8.5310917 7.693038
-0.23670846 -3.9850392 2.99034
-0.20517112 -3.4745617 2.1309459
-0.34241956 -5.8503327 2.7965617
-0.39389762 -6.7701483 2.4494185
-0.72546196 -12.581985 1.8499788
-0.92526305 -16.145098 0.74602103
-0.040454857 -0.07855586 8.7039413
-0.11695841 -1.3718296 8.7527885
-0.058065619 -0.73843038 3.5845668
-0.07148584 -0.99286604 3.2294633
-0.088294186 -1.2874423 3.0997183
-0.10732704 -1.613413 3.0305641
-0.13248757 -2.0337026 3.0658603
-0.42186776 -6.5783687 7.9688292
-0.098428011 -0.56796288 9.8080368
-0.12742433 -0.94699812 8.8689747
-0.065291956 -0.85566652 3.3415239
-0.081521615 -1.1369482 3.1539536
-0.099257924 -1.4393846 3.0470665
-0.12167792 -1.8049555 3.0292325
-0.39127257 -5.9077678 7.9147177
-0.2697933 -4.1283545 4.5632701
-0.48400599 -7.8026924 7.762217
-0.23409355 -3.8064346 3.1574037
-0.55677462 -9.1300144 6.0816321
-0.2228597 -3.6758583 2.0142362
-0.46926439 -7.7843065 3.2390921
-0.34297144 -5.7225595 1.7750291
-0.54929185 -9.2186775 1.8447981
-0.71732664 -12.109776 1.1820134
-0.53844154 -8.488265 7.6564574
-0.64121473 -10.192559 7.5198641
-0.21702918 -3.4695218 2.1284127
-0.35974771 -5.799274 2.773483
-0.40211773 -6.5189323 2.3623126
-0.53057986 -8.6503849 2.180995
-0.76937687 -12.579376 1.8499788
-0.95705068 -15.737844 0.72969699
-0.040705688 -0.078377172 8.6989422
-0.12174629 -1.371413 8.7527885
-0.060642872 -0.7382232 3.5845668
-0.074838452 -0.99112201 3.2246914
-0.09250626 -1.2832291 3.0905132
-0.11279076 -1.6106395 3.0261748
-0.13919997 -2.0276127 3.0575943
-0.44352993 -6.5576673 7.9458036
-0.10107457 -0.57130951 9.8729296
-0.1307292 -0.94654757 8.8689747
-0.06817802 -0.8541804 3.3366842
-0.085360117 -1.134936 3.1492608
-0.10412417 -1.4368579 3.0425651
-0.12760833 -1.7993168 3.0207007
-0.41168249 -5.9033594 7.9107275
-0.28396934 -4.1240053 4.5595946
-0.51053983 -7.7902803 7.7517037
-0.24662144 -3.7939415 3.1479881
-0.2351224 -3.6662169 2.0095987
-0.49702415 -7.7918739 3.2428381
-0.35717416 -5.6303658 1.7482384
-0.58363271 -9.2510214 1.8513265
-0.75553948 -12.042584 1.1762012
-0.56906551 -8.501236 7.6697588
-0.67759311 -10.202358 7.5286937
-0.22913875 -3.4687431 2.1284127
-0.38028559 -5.8025117 2.7755811
-0.56045759 -8.64363 2.1798227
-0.80561274 -12.458013 1.8334024
-0.99113733 -15.410342 0.7165975
-0.040979028 -0.078234598 8.6989422
-0.12653266 -1.3709797 8.7527885
-0.063132055 -0.73699254 3.5796719
-0.078179762 -0.98936665 3.2199194
-0.096837498 -1.2809503 3.0859108
-0.11806061 -1.6054589 3.0173967
-0.14566883 -2.0186944 3.0451953
-0.46596277 -6.5496845 7.9381285
-0.103433 -0.57294083 9.9078712
-0.13403247 -0.94608545 8.8689747
-0.071054511 -0.85268462 3.331845
-0.089321263 -1.134631 3.1492608
-0.10880887 -1.4321444 3.0335627
-0.13350089 -1.7936589 3.0121689
-0.43228656 -5.9018865 7.9107275
-0.29836309 -4.1229887 4.5595946
-0.53699285 -7.7777767 7.74119
-0.26012936 -3.7969408 3.1511266
-0.24761945 -3.660954 2.0072799
-0.52484238 -7.7993431 3.2465844
-0.37970951 -5.6721621 1.7609288
-0.79822963 -12.049812 1.1770954
-0.2607595 -3.7019913 3.3865151
-0.7137658 -10.207994 7.5345793
-0.24094631 -3.4636216 2.1258793
-0.40053779 -5.8011489 2.7755811
-0.39842406 -5.7998843 2.1124992
-0.59062612 -8.6416206 2.1798227
-0.99556673 -14.679053 0.68717396
-0.041228484 -0.078054242 8.6939421
