# .PCD v0.7 - Point Cloud Data file format
VERSION 0.7
FIELDS x y z
SIZE 4 4 4
TYPE F F F
COUNT 1 1 1
WIDTH 1413
HEIGHT 1
VIEWPOINT 0 0 0 1 0 0 0
POINTS 1413
DATA ascii
-1.4989645 -1.1555035 7.3243699
-0.89538014 -0.69700503 3.1398752
-1.0966592 -0.85851288 2.9435384
-1.0391829 -0.8161298 2.231503
-1.0106747 -0.79571635 1.7780602
-0.95918828 -0.75652301 1.4026285
-0.95270944 -0.75654161 1.2753021
-0.91645795 -0.72852719 1.0263916
-0.90801966 -0.72258294 0.84543175
-0.89863336 -0.71561664 0.68788278
-0.88527048 -0.7054711 0.54567093
-0.87038559 -0.69409692 0.41716751
-0.879246 -0.70165813 0.30504215
-0.84815949 -0.6773259 0.19039199
-0.93948203 -0.74389589 1.1484535
-0.90797204 -0.71970886 0.9271844
-0.90315318 -0.71639311 0.76302922
-0.89654922 -0.71191037 0.61668509
-0.88034755 -0.6995374 0.48049462
-0.85992157 -0.68378729 0.3556968
-0.84088421 -0.66888267 0.24207552
-0.84409201 -0.6719057 0.13719608
-0.085568957 -0.022209477 8.7089415
-1.0745291 -0.80758059 8.5453396
-1.398548 -1.0650246 8.4748983
-1.332496 -1.0290159 5.4293475
-1.0386572 -0.80789173 3.1595511
-1.0572311 -0.82585245 2.5258198
-1.0261738 -0.8038767 1.9871606
-0.97971022 -0.76911777 1.5678717
-0.43085858 -0.26913571 8.6250143
-0.7683773 -0.52098358 8.615427
-1.4880145 -1.1388072 7.2517786
-0.89780772 -0.69387537 3.1398752
-1.0962113 -0.85200799 2.934536
-1.0379118 -0.80929041 2.222971
-1.0086979 -0.78847253 1.7700801
-0.95915383 -0.75108021 1.3989534
-0.94974321 -0.74879587 1.268293
-0.91593999 -0.72291243 1.0232532
-0.90725535 -0.71681672 0.84269029
-0.8976509 -0.70972812 0.68556398
-0.88409203 -0.69950026 0.54379785
-0.86904222 -0.68807679 0.41575748
-0.87783957 -0.69553411 0.30410954
-0.84661645 -0.67126715 0.18994491
-0.93913758 -0.7383045 1.145128
-0.91047871 -0.71653509 0.9271844
-0.90226167 -0.71056926 0.76049602
-0.89546454 -0.70596677 0.61458701
-0.88278407 -0.69646019 0.48049462
-0.8584882 -0.6777696 0.35452449
-0.84321392 -0.66594338 0.24207552
-0.84251267 -0.66585743 0.13699456
-0.085645959 -0.021910653 8.7089415
-1.0773416 -0.8038249 8.5453396
-1.4022571 -1.0601362 8.4748983
-1.3266021 -1.0170937 5.3911719
-1.0383781 -0.80187345 3.150346
-1.0582145 -0.82068938 2.5214307
-1.0245308 -0.79683489 1.9788946
-0.97986078 -0.76372302 1.5640341
-0.43204129 -0.26778138 8.6300068
-0.77019113 -0.51829821 8.615427
-1.4769663 -1.1222013 7.1791873
-0.90022427 -0.69073719 3.1398752
-1.0957315 -0.84551686 2.9255335
-1.0366056 -0.80246979 2.2144392
-1.0090634 -0.78309935 1.7660903
-0.95641667 -0.74356627 1.3916031
-0.94954288 -0.74327803 1.2647884
-0.91539401 -0.71731019 1.0201148
-0.90646195 -0.71106482 0.83994877
-0.89663839 -0.70385528 0.68324518
-0.88652831 -0.69640988 0.54379785
-0.86766732 -0.68207449 0.41434744
-0.87640136 -0.68942869 0.30317691
-0.84504139 -0.66522753 0.18949783
-0.94170904 -0.73502183 1.145128
-0.90978932 -0.71086413 0.92424124
-0.90473658 -0.70741546 0.76049602
-0.8943494 -0.70003939 0.61248899
-0.88149226 -0.69046271 0.47885111
-0.86084884 -0.67476875 0.35452449
-0.84553331 -0.66299599 0.24207552
-0.84483182 -0.66291243 0.13699456
-0.085721917 -0.021611558 8.7089415
-1.0807654 -0.80052167 8.5502796
-1.4059491 -1.055235 8.4748983
-1.3206413 -1.0052253 5.3529959
-1.0473732 -0.80299795 3.1687562
-1.0591751 -0.81552958 2.5170417
-1.0183964 -0.78637499 1.9623629
-0.97745061 -0.75637513 1.5563592
-0.43297341 -0.26627165 8.6300068
-0.77155203 -0.51531106 8.6104555
-1.4618063 -1.1026595 7.0872383
-0.90262991 -0.68759066 3.1398752
-1.0934914 -0.83771563 2.91203
-1.0373324 -0.79725742 2.2101734
-1.0070167 -0.77589446 1.7581102
-0.95632255 -0.73815191 1.3879279
-0.94649959 -0.73558241 1.2577794
-0.91482002 -0.71172047 1.0169762
-0.90893853 -0.70789635 0.83994877
-0.89559579 -0.69799823 0.68092638
-0.88529825 -0.69046015 0.54192483
-0.87004298 -0.67904162 0.41434744
-0.87493116 -0.68334162 0.30224431
-0.84343463 -0.65920705 0.18905075
-0.94131756 -0.72944325 1.1418025
-0.90907133 -0.70520663 0.92129809
-0.90379506 -0.70160967 0.75796282
-0.89320385 -0.69412833 0.6103909
-0.88389701 -0.68738145 0.47885111
-0.86319894 -0.67175972 0.35452449
-0.84784251 -0.66004044 0.24207552
-0.84319949 -0.65688908 0.13679302
-0.085796833 -0.021312201 8.7089415
-1.0835532 -0.79674417 8.5502796
-1.409624 -1.0503209 8.4748983
-1.315805 -0.9943108 5.3195925
-1.0517244 -0.80052018 3.1733589
-1.0601125 -0.81037307 2.5126526
-1.0166683 -0.77939159 1.9540969
-0.97754306 -0.75100607 1.5525217
-0.43414712 -0.26490819 8.6349974
-0.77290148 -0.5123207 8.605484
-1.4596089 -1.0930302 7.0582013
-0.9064011 -0.68547636 3.1445682
-1.0929433 -0.83125818 2.9030275
-1.0359621 -0.79046786 2.2016416
-1.0073254 -0.77054399 1.7541201
-0.95620239 -0.73274738 1.3842528
-0.94623792 -0.73009568 1.2542748
-0.91421831 -0.70614368 1.0138377
-0.90809596 -0.70216161 0.83720732
-0.89802682 -0.69486767 0.68092638
-0.88770294 -0.68736565 0.54192483
-0.86861604 -0.67306232 0.4129374
-0.87342912 -0.67727333 0.30131167
-0.84179616 -0.65320593 0.18860367
-0.94089866 -0.72387642 1.138477
-0.90832496 -0.69956285 0.91835493
-0.9028241 -0.69581908 0.75542969
-0.89202809 -0.68823409 0.60829288
-0.88255322 -0.68140608 0.4772076
-0.8655386 -0.66874254 0.35452449
-0.84622312 -0.65404862 0.24138485
-0.8454873 -0.65394175 0.13679302
-0.085870706 -0.021012584 8.7089415
-1.0863277 -0.79295707 8.5502796
-1.4132817 -1.0453939 8.4748983
-1.306132 -0.97985977 5.2671008
-1.0576301 -0.7991994 3.1825638
-1.0591189 -0.80377221 2.5038743
-1.0126644 -0.77072567 1.9416981
-0.97760993 -0.74564546 1.5486841
-0.43531665 -0.26353982 8.6399889
-0.77468503 -0.50961965 8.605484
-1.4412206 -1.0714333 6.9517345
-0.91016859 -0.68334419 3.1492608
-1.0941008 -0.8261264 2.8985264
-1.0366359 -0.78527212 2.1973755
-1.0052093 -0.76337862 1.74614
-0.95605606 -0.72735256 1.3805776
-0.94594949 -0.72461963 1.2507702
-0.91358888 -0.70057976 1.0106993
-0.90722454 -0.69644141 0.83446586
-0.89693385 -0.68903029 0.67860758
-0.88642144 -0.68143743 0.54005182
-0.87096018 -0.67002624 0.4129374
-0.87189549 -0.67122382 0.30037907
-0.84012604 -0.64722437 0.18815659
-0.94341969 -0.72058761 1.138477
-0.90755028 -0.69393289 0.91541177
-0.90524745 -0.69266343 0.75542969
-0.89442503 -0.68511605 0.60829288
-0.88117856 -0.67544854 0.47556409
-0.86786765 -0.66571712 0.35452449
-0.84457225 -0.64807612 0.24069417
-0.84380239 -0.64794374 0.13659149
-0.085957967 -0.020652706 8.7089415
-1.0897772 -0.7882095 8.5502796
-1.4178296 -1.0392175 8.4748983
-1.3008106 -0.9670282 5.2289248
-1.0626711 -0.79574782 3.1871662
-1.0587875 -0.79626471 2.4950962
-1.0115242 -0.76291108 1.9334321
-0.978297 -0.73944032 1.5448467
-0.43650806 -0.26156172 8.6399889
-0.7769897 -0.50609899 8.605484
-1.4440433 -1.0633918 6.9420557
-0.9133786 -0.67904752 3.1492608
-1.0962381 -0.81965804 2.8940251
-1.036152 -0.77724874 2.1888437
-1.0063872 -0.75682241 1.7421501
-0.95405734 -0.71875978 1.3732272
-0.94613624 -0.71849436 1.2472657
-0.91651541 -0.69674677 1.0106993
-0.90680629 -0.69010299 0.83172441
-0.89628792 -0.68258333 0.67628878
-0.88926804 -0.67771846 0.54005182
-0.87006044 -0.66331124 0.4115274
-0.87102646 -0.66428155 0.29944643
-0.84305447 -0.64340538 0.18815659
-0.94370234 -0.71404642 1.1351515
-0.90746784 -0.68736714 0.91246861
-0.90494585 -0.68594456 0.75289649
-0.89402759 -0.67815089 0.60619479
-0.88059032 -0.66843361 0.47392058
-0.8709951 -0.66162008 0.35452449
-0.8397311 -0.63809687 0.23931281
-0.8469587 -0.64381242 0.13659149
-0.086050808 -0.020262429 8.7089415
-1.0933429 -0.78325617 8.5502796
-1.4225309 -1.0327729 8.4748983
-1.2907603 -0.95049578 5.1716604
-1.0678405 -0.79208112 3.1917689
-1.0585485 -0.78859061 2.4863181
-1.0105987 -0.75476861 1.9251662
-0.97920448 -0.73290157 1.5410092
-0.43773583 -0.25950179 8.6399889
-0.77981436 -0.50272024 8.6104555
-1.4421116 -1.0511405 6.9081798
-0.91795832 -0.6757586 3.1539536
-1.0983387 -0.81318784 2.889524
-1.0377096 -0.7708025 2.1845777
-1.0075256 -0.75027192 1.73816
-0.9548406 -0.71206224 1.3695521
-0.9465369 -0.71204984 1.2437612
-0.91655838 -0.69023925 1.0075608
-0.90658945 -0.68346387 0.82898289
-0.89595771 -0.67568493 0.67396998
-0.88875139 -0.67072779 0.5381788
-0.86923337 -0.65646523 0.41011736
-0.87011236 -0.65736115 0.29851383
-0.84199291 -0.6365698 0.18770951
-0.94108033 -0.70511401 1.1285006
-0.91069692 -0.68308312 0.91246861
-0.90472054 -0.67908478 0.75036329
-0.89358431 -0.67120463 0.60409671
-0.8838464 -0.66412222 0.47392058
-0.87421799 -0.65735573 0.35452449
-0.83888191 -0.6310088 0.23862213
-0.84599173 -0.63680953 0.13638996
-0.086121008 -0.019961935 8.7089415
-1.0959342 -0.77962619 8.5502796
-1.4259478 -1.0280499 8.4748983
-1.2710098 -0.92947179 5.0809932
-1.0704612 -0.78853571 3.1917689
-1.0573068 -0.78222746 2.47754
-1.0107049 -0.74991345 1.9210334
-0.97892988 -0.72790927 1.5371716
-0.43850383 -0.2582019 8.6399889
-0.78130245 -0.50040424 8.6104555
-1.4389336 -1.0426848 6.8791428
-0.92123449 -0.67421156 3.1586463
-1.0970987 -0.8075369 2.8805215
-1.0356617 -0.76480341 2.1760459
-1.0047729 -0.7438699 1.7301799
-0.95397842 -0.70754063 1.3658769
-0.94615918 -0.70660764 1.2402567
-0.91584468 -0.68470514 1.0044224
-0.90562183 -0.67778975 0.82624143
-0.89464772 -0.67005473 0.67165118
-0.88726097 -0.66499668 0.53630573
-0.86756796 -0.65070093 0.40870732
-0.86824447 -0.65167558 0.2975812
-0.8439886 -0.63392144 0.18770951
-0.94017351 -0.7000888 1.125175
-0.9094789 -0.67796242 0.90952545
-0.90327609 -0.67382002 0.74783015
-0.8918187 -0.66599119 0.60199869
-0.8817994 -0.65897942 0.47227708
-0.87593591 -0.6550647 0.35452449
-0.84053105 -0.62881047 0.23862213
-0.84765601 -0.63459259 0.13638996
-0.086190164 -0.019661194 8.7089415
-1.0986489 -0.77579594 8.5502796
-1.4295278 -1.0230662 8.4748983
-1.2899516 -0.93642741 5.1430287
-1.0747842 -0.7859472 3.1963713
-1.0561699 -0.77569693 2.4687617
-1.0110505 -0.74471205 1.9169004
-0.97888595 -0.72258437 1.5333341
-0.43915269 -0.25652486 8.6349974
-0.78304446 -0.49767393 8.6104555
-1.4384826 -1.0347203 6.8597851
-0.92358232 -0.67099172 3.1586463
-1.0963951 -0.80113405 2.8715191
-1.0362215 -0.75964183 2.1717799
-1.0049351 -0.73857367 1.7261899
-0.95371222 -0.70219642 1.3622017
-0.945755 -0.70117688 1.236752
-0.91510355 -0.6791845 1.0012839
-0.90462583 -0.67213076 0.82349998
-0.89698118 -0.6669277 0.67165118
-0.88957685 -0.66189545 0.53630573
-0.86983407 -0.6476686 0.40870732
-0.86657476 -0.64570582 0.29664856
-0.84619623 -0.63097155 0.18770951
-0.93960899 -0.69458342 1.1218495
-0.90859067 -0.67237931 0.9065823
-0.9021582 -0.6680975 0.74529696
-0.89413798 -0.6628741 0.60199869
-0.88030177 -0.65308386 0.47063357
-0.87431455 -0.64910585 0.35335216
-0.83874524 -0.62292004 0.23793145
-0.84585613 -0.62864971 0.13618843
-0.086301468 -0.019366354 8.7139416
-1.1007137 -0.77151042 8.5453396
-1.4330901 -1.01807 8.4748983
-1.2920014 -0.93104637 5.138257
-1.0791023 -0.78333825 3.200974
-1.0569358 -0.77059472 2.4643729
-1.0113721 -0.73951751 1.9127675
-0.97881675 -0.71726859 1.5294967
-0.43979523 -0.25484648 8.6300068
-0.78477687 -0.4949376 8.6104555
-1.4287859 -1.0201991 6.7968726
-0.92731869 -0.66877294 3.1633391
-1.0938981 -0.79346794 2.8580153
-1.0367579 -0.75448561 2.1675138
-1.0050728 -0.73328555 1.7221999
-0.9534204 -0.6968627 1.3585266
-0.94532454 -0.69575745 1.2332475
-0.91433507 -0.67367733 0.99814546
-0.90696651 -0.66896892 0.82349998
-0.89573956 -0.66116202 0.66933239
-0.88815284 -0.65603191 0.53443271
-0.86823183 -0.64177698 0.40729728
-0.86487418 -0.63975573 0.29571593
-0.84439099 -0.62505102 0.18726245
-0.93901742 -0.68909043 1.1185241
-0.90767455 -0.66681075 0.90363914
-0.90448481 -0.66494429 0.74529696
-0.89279103 -0.65705884 0.5999006
-0.87877381 -0.64720678 0.46899009
-0.87657505 -0.64605004 0.35335216
-0.84091455 -0.6199885 0.23793145
-0.84402519 -0.62272722 0.13598689
-0.086368538 -0.019064989 8.7139416
-1.1034002 -0.76766354 8.5453396
-1.4366351 -1.0130613 8.4748983
-1.3037426 -0.9326089 5.1716604
-1.0834152 -0.78070867 3.2055764
-1.0576789 -0.76549655 2.4599836
-1.0116699 -0.73432982 1.9086344
-0.97613031 -0.71007681 1.5218216
-0.44043136 -0.25316671 8.6250143
-0.7864998 -0.49219519 8.6104555
-1.4190054 -1.0057583 6.7339602
-0.92964751 -0.66553193 3.1633391
-1.0913608 -0.78582907 2.8445115
-1.0372713 -0.74933505 2.1632481
-1.0027453 -0.72623807 1.7142198
-0.95035899 -0.68954885 1.3511763
-0.94486773 -0.6903497 1.229743
-0.91353935 -0.66818392 0.99500704
-0.90592229 -0.66332877 0.82075852
-0.89446878 -0.65541315 0.66701359
-0.88669896 -0.65018648 0.53255969
-0.86659914 -0.63590449 0.40588725
-0.86314267 -0.63382542 0.29478332
-0.84656769 -0.6220997 0.18726245
-0.93538105 -0.68141174 1.111873
-0.90673077 -0.66125679 0.90069598
-0.90331829 -0.65924197 0.74276382
-0.89507914 -0.65393841 0.5999006
-0.87721556 -0.64134836 0.46734658
-0.87490201 -0.64011621 0.35217986
-0.84307355 -0.6170494 0.23793145
-0.84216332 -0.61682516 0.13578537
-0.086428009 -0.018793559 8.7139416
-1.1051672 -0.76375186 8.5404015
-1.4398106 -1.008543 8.4748983
-1.2993648 -0.92332155 5.1430287
-1.0874512 -0.77843821 3.2101789
-1.0561892 -0.7593742 2.4512055
-1.011562 -0.72967887 1.9045017
-0.97563511 -0.70529974 1.517984
-0.44118056 -0.25185883 8.6250143
-0.78750366 -0.48957855 8.605484
-1.4158168 -0.99720162 6.7049236
-0.93724322 -0.66677117 3.1821103
-1.0866057 -0.77752095 2.8265069
-1.0351226 -0.74339318 2.1547163
-1.0023237 -0.72167456 1.7102298
-0.94953114 -0.68490916 1.347501
-0.94414562 -0.68528324 1.2262385
-0.912485 -0.66302282 0.99186856
-0.90462011 -0.6580199 0.81801701
-0.89640951 -0.65275633 0.66701359
-0.88487744 -0.6448226 0.53068668
-0.86848211 -0.6333304 0.40588725
-0.86116105 -0.62821567 0.29385069
-0.84449565 -0.61650079 0.18681537
-0.93437427 -0.67644405 1.1085476
-0.90541583 -0.65619177 0.89775282
-0.9016664 -0.65418541 0.74023062
-0.89334279 -0.64861339 0.59780258
-0.87911463 -0.63874286 0.46734658
-0.87286609 -0.63465911 0.35100752
-0.84089589 -0.61163235 0.23724076
-0.84398973 -0.61432374 0.13578537
-0.086499535 -0.018461563 8.7139416
-1.1082242 -0.75930923 8.5404015
-1.4438477 -1.0027552 8.4748983
-1.2969588 -0.91380018 5.1191688
-1.0921605 -0.77519715 3.2147813
-1.0572786 -0.75373816 2.4468162
-1.0123202 -0.72379869 1.9003686
-0.97597539 -0.69934016 1.5141466
-0.44223168 -0.25000861 8.6250143
-0.78954744 -0.48627555 8.605484
-1.4096736 -0.98406875 6.6565294
-0.95272225 -0.67178762 3.2243452
-1.0845256 -0.76918501 2.8130033
-1.0341064 -0.73584574 2.1461844
-1.0005568 -0.71379459 1.7022496
-0.94975239 -0.67878848 1.3438259
-0.94387561 -0.67956936 1.2227339
-0.91186643 -0.65723854 0.98873013
-0.90374911 -0.65209508 0.81527555
-0.8954311 -0.64655954 0.66469479
-0.8874588 -0.64126527 0.53068668
-0.86713022 -0.62702823 0.40447721
-0.86367595 -0.62475371 0.29385069
-0.84292966 -0.61018568 0.18636829
-0.93416589 -0.67034757 1.105222
-0.90815651 -0.6523934 0.89775282
-0.90451217 -0.65024489 0.74023062
-0.89616436 -0.64470929 0.59780258
-0.87806082 -0.63214195 0.46570307
-0.87562698 -0.63084447 0.35100752
-0.84355658 -0.60795748 0.23724076
-0.84261024 -0.60771292 0.13558383
-0.086563453 -0.018159509 8.7139416
-1.110736 -0.75563008 8.5404015
-1.447165 -0.99796164 8.4748983
-1.293866 -0.90521657 5.0953088
-1.0979192 -0.77382183 3.2239864
-1.0558625 -0.74746066 2.4380381
-1.0124203 -0.71880883 1.8962357
-0.97306573 -0.69238359 1.5064715
-0.44305831 -0.24854073 8.6250143
-0.79115564 -0.48365468 8.605484
-1.4294597 -0.99084353 6.7339602
-0.95635849 -0.6696142 3.2290378
-1.0799505 -0.76057112 2.7949984
-1.0344107 -0.73090768 2.1419184
-1.0004596 -0.70873111 1.6982597
-0.95199811 -0.67563522 1.3438259
-0.94334054 -0.67419702 1.2192293
-0.91098946 -0.6517868 0.98559165
-0.90262032 -0.64650166 0.81253409
-0.89768255 -0.64342999 0.66469479
-0.8859247 -0.63546157 0.5288136
-0.86541653 -0.62120032 0.4030672
-0.86175328 -0.61902046 0.29291809
-0.84494841 -0.60738707 0.18636829
-0.93334287 -0.66507947 1.1018965
-0.90702426 -0.64703107 0.89480966
-0.90315491 -0.64473736 0.73769742
-0.89449286 -0.63925201 0.5957045
-0.88004243 -0.62938035 0.46570307
-0.87365186 -0.62526172 0.34983522
-0.84143591 -0.60242164 0.23655009
-0.84451532 -0.60506284 0.13558383
-0.086558007 -0.017972726 8.7089415
-1.1123161 -0.75330204 8.5404015
-1.4492519 -0.99492854 8.4748983
-1.2894773 -0.89846492 5.0714488
-1.1026012 -0.77395701 3.2331915
-1.0512937 -0.74147612 2.424871
-1.0113758 -0.71541584 1.8921027
-0.96892279 -0.68714631 1.4987966
-0.44365734 -0.24806191 8.6300068
-0.79137468 -0.48227265 8.6005125
-1.4430776 -0.99767244 6.7920337
-0.99255002 -0.69314092 3.3463571
-1.0755343 -0.75549769 2.7814946
-1.0309122 -0.7268188 2.1333864
-0.99627972 -0.70420486 1.6902797
-0.94982088 -0.67284471 1.3401507
-0.94184458 -0.67015237 1.2157247
-0.91223913 -0.65003663 0.98559165
-0.90385979 -0.64476758 0.81253409
-0.89519912 -0.63928795 0.66237599
-0.88703239 -0.63391435 0.5288136
-0.86649942 -0.61968893 0.4030672
-0.85883778 -0.61465669 0.29198545
-0.84195858 -0.60301179 0.18592121
-0.93122673 -0.66161323 1.0985711
-0.90452051 -0.64357919 0.89186651
-0.90043026 -0.64113331 0.73516428
-0.89157736 -0.63552445 0.59360647
-0.88081068 -0.62830472 0.46570307
-0.87430614 -0.62434649 0.34983522
-0.84206623 -0.60154015 0.23655009
-0.84108418 -0.6012727 0.13538231
-0.086614043 -0.017700709 8.7089415
-1.1146772 -0.7498039 8.5404015
-1.4523704 -0.99037069 8.4748983
-1.2863114 -0.88993835 5.0475893
-1.1083674 -0.77253032 3.2423966
-1.0499513 -0.73505521 2.4160929
-1.0114398 -0.71044075 1.8879696
-0.96869445 -0.68191499 1.494959
-0.44456357 -0.24643415 8.6300068
-0.79313695 -0.4793689 8.6005125
-1.4468977 -0.99212402 6.7920337
-1.0320917 -0.71486688 3.468369
-1.0730685 -0.74762958 2.7679911
-1.0294205 -0.71986628 2.1248546
-0.99650896 -0.69864464 1.6862897
-0.95251417 -0.66902643 1.3401507
-0.94103289 -0.66513193 1.2122202
-0.91121221 -0.64475989 0.98245323
-0.90258086 -0.63934988 0.80979264
-0.8937006 -0.63375354 0.66005719
-0.88534892 -0.62828648 0.52694058
-0.86463845 -0.61403459 0.40165716
-0.85697353 -0.60881013 0.29105285
-0.84405833 -0.60006917 0.18592121
-0.93364543 -0.65819567 1.0985711
-0.90698504 -0.64010137 0.89186651
-0.89925325 -0.63534135 0.73263109
-0.89401102 -0.63209635 0.59360647
-0.87936187 -0.62219065 0.46405956
-0.87283832 -0.61802298 0.34866288
-0.84043318 -0.59529275 0.23585941
-0.84349114 -0.59789151 0.13538231
-0.086675301 -0.017398261 8.7089415
-1.1172878 -0.74590844 8.5404015
-1.4558185 -0.98529488 8.4748983
-1.2844875 -0.88206351 5.0285015
-1.1126641 -0.76976806 3.246999
-1.04661 -0.7272861 2.4029255
-1.0117282 -0.70512015 1.8838367
-0.96593159 -0.67468953 1.4872841
-0.44571725 -0.24494126 8.6349974
-0.79488862 -0.47645864 8.6005125
-1.4453275 -0.98327982 6.7678366
-1.0375496 -0.71303368 3.4777546
-1.0722197 -0.74121618 2.7589886
-1.0278908 -0.71293592 2.1163228
-0.99423611 -0.69137287 1.6783097
-0.95507604 -0.66536415 1.3401507
-0.94042939 -0.65979499 1.2087157
-0.91027206 -0.63933825 0.97931474
-0.90480709 -0.63619542 0.80979264
-0.89601743 -0.63047367 0.66005719
-0.88764572 -0.62503737 0.52694058
-0.86688322 -0.61086142 0.40165716
-0.85507894 -0.60298413 0.29012021
-0.84207898 -0.59424788 0.18547413
-0.93299192 -0.65262926 1.0952456
-0.90601397 -0.63445443 0.88892335
-0.89815587 -0.62941003 0.73009789
-0.89260626 -0.62620896 0.59150839
-0.87777162 -0.61625022 0.46241605
-0.87509757 -0.61481965 0.34866288
-0.84260935 -0.59220839 0.23585941
-0.8415904 -0.59192187 0.13518077
-0.086735502 -0.017095601 8.7089415
-1.1198847 -0.7420038 8.5404015
-1.459249 -0.9802072 8.4748983
-1.2826244 -0.87421232 5.0094137
-1.1169549 -0.76698512 3.2516015
-1.0451992 -0.72090912 2.3941474
-1.0118688 -0.69998336 1.8797038
-0.96564668 -0.66948766 1.4834466
-0.44656953 -0.24338393 8.6349974
-0.79654694 -0.47368109 8.6005125
-1.448751 -0.97822869 6.7678366
-1.041458 -0.71037984 3.4824471
-1.0712103 -0.73500597 2.7499864
-1.0260764 -0.70638609 2.1077909
-0.99416327 -0.68618655 1.6743195
-0.95739275 -0.66202623 1.3401507
-0.93980008 -0.65447038 1.2052112
-0.90930516 -0.63393104 0.97617632
-0.90359336 -0.63064015 0.80705118
-0.89458084 -0.62480569 0.65773833
-0.88602233 -0.61927933 0.52506757
-0.86507922 -0.60508221 0.4002471
-0.85717851 -0.59999573 0.29012021
-0.8441481 -0.59130484 0.18547413
-0.93219727 -0.64723927 1.09192
-0.90490413 -0.62898123 0.88598019
-0.90034747 -0.62627101 0.73009789
-0.89478672 -0.62308937 0.59150839
-0.87604302 -0.61048269 0.46077254
-0.8732515 -0.60898101 0.34749055
-0.84467143 -0.58926356 0.23585941
-0.83955503 -0.58612067 0.13497925
-0.08681801 -0.016671529 8.7089415
-1.123626 -0.7363261 8.5404015
-1.4641916 -0.97280866 8.4748983
-1.2808439 -0.86353779 4.9855537
-1.1225719 -0.76222354 3.2562041
-1.045002 -0.71272802 2.3853693
-1.0155201 -0.69467568 1.8797038
-0.96661067 -0.66244143 1.479609
-0.44792184 -0.24088603 8.6349974
-0.79964006 -0.46949431 8.605484
-1.4480859 -0.96568483 6.7387996
-1.0483948 -0.70629764 3.4918327
-1.0736235 -0.7276029 2.7454851
-1.0280932 -0.69881892 2.1035249
-0.99323738 -0.67688161 1.6663395
-0.96130443 -0.65633333 1.3401507
-0.93711412 -0.64582288 1.198202
-0.91239226 -0.62947983 0.97617632
-0.90677375 -0.62605864 0.80705118
-0.89408726 -0.61775184 0.65541953
-0.88533211 -0.61215037 0.52319455
-0.86823559 -0.60054439 0.4002471
-0.85637271 -0.59255409 0.28918761
-0.8432408 -0.5838939 0.18502705
-0.93271852 -0.63991064 1.0885946
-0.90507084 -0.62162912 0.88303697
-0.90027851 -0.61879116 0.72756475
-0.8947286 -0.61519742 0.58941036
-0.87576002 -0.60259676 0.45912904
-0.8728466 -0.60103178 0.34631824
-0.84825528 -0.5840928 0.23585941
-0.83900589 -0.57814652 0.13477771
-0.086852737 -0.016489662 8.7089415
-1.1256882 -0.7345919 8.5453396
-1.4660566 -0.96999592 8.4748983
-1.2773919 -0.85797256 4.9664655
-1.1221497 -0.75936455 3.2516015
-1.0420349 -0.70857519 2.3765912
-1.0141641 -0.69167173 1.8755709
-0.96465796 -0.65961993 1.4757715
-0.44808993 -0.24057327 8.6349974
-0.79996765 -0.46893597 8.605484
-1.4442384 -0.96239179 6.7194419
-1.0515046 -0.70785862 3.5012183
-1.0720748 -0.72600758 2.7409837
-1.0237792 -0.69588709 2.0949931
-0.99074721 -0.67518485 1.6623495
-0.96118987 -0.65650117 1.3401507
-0.93552387 -0.64184135 1.1946975
-0.91039097 -0.62552291 0.97303784
-0.90441978 -0.62210536 0.80430973
-0.89505649 -0.61634666 0.65541953
-0.88629258 -0.61075896 0.52319455
-0.86907321 -0.59933156 0.4002471
-0.85709596 -0.59150743 0.28918761
-0.84395349 -0.58286333 0.18502705
-0.93008459 -0.63714933 1.0852691
-0.90206307 -0.61886859 0.88009381
-0.89704835 -0.61587983 0.72503155
-0.89483595 -0.61504126 0.58941036
-0.87586522 -0.60244387 0.45912904
-0.8688432 -0.59827518 0.34514591
-0.84815329 -0.58424079 0.23585941
-0.83890504 -0.57829291 0.13477771
-0.086909771 -0.016186388 8.7089415
-1.1282456 -0.73065799 8.5453396
-1.4694335 -0.96487248 8.4748983
-1.2755588 -0.84997463 4.9473777
-1.1249253 -0.75524652 3.2516015
-1.0407764 -0.70189095 2.3678129
-1.0168126 -0.68777257 1.8755709
-0.96464485 -0.65394378 1.4719341
-0.4490937 -0.23869421 8.6349974
-0.80192488 -0.46558097 8.605484
-1.4431783 -0.95261949 6.6952448
-1.0574549 -0.70517832 3.5106039
-1.0734245 -0.7201103 2.7364826
-1.0247626 -0.68977797 2.0907271
-0.99380094 -0.67068201 1.6623495
-0.96146429 -0.6500656 1.3364756
-0.93775862 -0.63857186 1.1946975
-0.90946126 -0.61998969 0.96989942
-0.90324003 -0.61642945 0.80156827
-0.89375842 -0.61040717 0.65310073
-0.88480377 -0.60473549 0.52132148
-0.87136805 -0.59599012 0.4002471
-0.85936087 -0.58821207 0.28918761
-0.84207678 -0.57680416 0.18457997
-0.92965615 -0.63115072 1.0819435
-0.90141183 -0.61265486 0.87715065
-0.89616263 -0.60953563 0.72249836
-0.89375949 -0.6085766 0.58731234
-0.87458313 -0.59595746 0.45748553
-0.86753327 -0.59158796 0.34397361
-0.85079575 -0.58038604 0.23585941
-0.83739442 -0.57166332 0.13457619
-0.08696574 -0.015882919 8.7089415
-1.1315699 -0.72693765 8.5502796
-1.4738134 -0.9600358 8.4797935
-1.2738312 -0.84177935 4.9282899
-1.1261908 -0.74983913 3.246999
-1.0394819 -0.69522691 2.3590348
-1.0148906 -0.68055117 1.867305
-0.96460181 -0.64827853 1.4680965
-0.449875 -0.23659891 8.6300068
-0.80449188 -0.46220213 8.6104555
-1.4359113 -0.93849784 6.6420112
-1.0865672 -0.71748519 3.5950737
-1.0749923 -0.71383989 2.7319813
-1.0258313 -0.6834954 2.0864613
-0.99444467 -0.66431779 1.6583595
-0.96181178 -0.6434744 1.3328004
-0.93702716 -0.63329774 1.191193
-0.91172761 -0.61665219 0.96989942
-0.90203083 -0.61077052 0.79882681
-0.89598966 -0.60712725 0.65310073
-0.88328183 -0.59873259 0.51944846
-0.87365007 -0.59263992 0.4002471
-0.8576504 -0.58199936 0.28825498
-0.84036523 -0.57047486 0.18413289
-0.92930287 -0.62500477 1.078618
-0.90407646 -0.60871589 0.87715065
-0.8989194 -0.60546267 0.72249836
-0.89285392 -0.60182148 0.58521426
-0.8773818 -0.59182948 0.45748553
-0.86638474 -0.58462262 0.3428013
-0.84951735 -0.57345068 0.23516873
-0.84027714 -0.56741756 0.13457619
-0.08709114 -0.015431525 8.7139416
-1.1353605 -0.72100288 8.5502796
-1.4788198 -0.95230579 8.4797935
-1.2719725 -0.83101684 4.9044299
-1.1284695 -0.74285805 3.2423966
-1.0411102 -0.68845391 2.3546457
-1.0160944 -0.67367303 1.8631719
-0.9653132 -0.64144522 1.464259
-0.45110765 -0.23424013 8.6300068
-0.80690092 -0.45798352 8.6104555
-1.4323587 -0.92551047 6.6032958
-1.1148762 -0.72781962 3.6748505
-1.0750754 -0.70581234 2.7229788
-1.0272179 -0.67668027 2.0821953
-0.99539495 -0.65744132 1.6543695
-0.96234018 -0.63655943 1.3291253
-0.94033021 -0.62838286 1.191193
-0.91170824 -0.60970634 0.96676093
-0.90174162 -0.60371298 0.7960853
-0.89547604 -0.599962 0.65078193
-0.88640463 -0.59409952 0.51944846
-0.87674111 -0.5880574 0.4002471
-0.860686 -0.57750076 0.28825498
-0.8392058 -0.56329155 0.18368581
-0.93256259 -0.62013048 1.078618
-0.90388656 -0.6017341 0.8742075
-0.89848918 -0.59835833 0.71996522
-0.89599282 -0.59713835 0.58521426
-0.88046855 -0.58722746 0.45748553
-0.86134726 -0.57468307 0.34045666
-0.84838933 -0.56624573 0.23447806
-0.84323663 -0.56301022 0.13457619
-0.087144472 -0.015127427 8.7139416
-1.1377453 -0.7172339 8.5502796
-1.4819697 -0.94739658 8.4797935
-1.2683153 -0.82295501 4.8805699
-1.1307976 -0.73930913 3.2423966
-1.0412658 -0.68386525 2.3502567
-1.0133886 -0.66755962 1.8549061
-0.96453726 -0.63681251 1.4604216
-0.4519763 -0.23318981 8.6349974
-0.80848217 -0.45627201 8.615427
-1.4208682 -0.91317517 6.5403833
-1.1412576 -0.74106681 3.7546277
-1.0730288 -0.70099044 2.7139764
-1.024388 -0.6714887 2.0736635
-0.99436587 -0.65352631 1.6503794
-0.95800817 -0.63081402 1.321775
-0.94251794 -0.62509662 1.191193
-0.91048241 -0.60452682 0.96362251
-0.90025628 -0.59840482 0.79334384
-0.89746064 -0.59698921 0.65078193
-0.88440764 -0.58874315 0.51757544
-0.87858427 -0.58530015 0.4002471
-0.8623957 -0.5749445 0.28825498
-0.84077555 -0.56094587 0.18368581
-0.93106836 -0.61562771 1.0752926
-0.90208817 -0.59713471 0.87126434
-0.89994854 -0.59616113 0.71996522
-0.89356303 -0.59259558 0.58311623
-0.87786406 -0.58261698 0.45584202
-0.85850006 -0.5701887 0.33928433
-0.84544873 -0.56172723 0.23378737
-0.84431589 -0.56139028 0.13457619
-0.087196752 -0.014823143 8.7139416
-1.1395831 -0.71284622 8.5453396
-1.4852678 -0.94221777 8.4797935
-1.2611392 -0.81205916 4.8423939
-1.1317323 -0.7342943 3.2377942
-1.04164 -0.67891884 2.3458676
-1.0133573 -0.66247857 1.8507732
-0.96407306 -0.63168526 1.4565841
-0.45278752 -0.2316107 8.6349974
-0.81006992 -0.45344707 8.615427
-1.4166279 -0.9034797 6.5065074
-1.1728517 -0.75576967 3.8484831
-1.0718156 -0.69487244 2.7049739
-1.0245394 -0.66648686 2.0693977
-0.99411708 -0.64840537 1.6463894
-0.95736617 -0.62561172 1.3180997
-0.94171524 -0.61984229 1.1876884
-0.91258699 -0.60134494 0.96362251
-0.89884919 -0.59295636 0.79060239
-0.89584213 -0.59141243 0.64846313
-0.88645738 -0.58565235 0.51757544
-0.88062197 -0.58222973 0.4002471
-0.86030066 -0.56922013 0.28732237
-0.83857626 -0.55525821 0.18323873
-0.93008971 -0.61032557 1.071967
-0.90416706 -0.59398216 0.87126434
-0.89842194 -0.59064811 0.71743202
-0.89183497 -0.58697784 0.58101815
-0.87989241 -0.57954913 0.45584202
-0.85642678 -0.5645135 0.33811203
-0.84327018 -0.55604666 0.23309669
-0.8421005 -0.55568802 0.13437465
-0.087291442 -0.0145224 8.7189417
-1.1420645 -0.70886397 8.5453396
-1.4885476 -0.93702751 8.4797935
-1.2589343 -0.80443776 4.8233061
-1.132646 -0.72928184 3.2331915
-1.0419925 -0.67397809 2.3414786
-1.0109419 -0.65587449 1.8425074
-0.96358502 -0.62656909 1.4527465
-0.45359322 -0.23002878 8.6349974
-0.81164777 -0.45061666 8.615427
-1.4282711 -0.90390551 6.5452228
-1.1783905 -0.75353003 3.8578684
-1.0705729 -0.68877155 2.6959715
-1.0224773 -0.66007793 2.0608656
-0.99131501 -0.64165699 1.6384094
-0.95385516 -0.61857724 1.3107494
-0.94387317 -0.61655134 1.1876884
-0.91142285 -0.59602565 0.96048403
-0.9009136 -0.58981514 0.79060239
-0.89419562 -0.58585417 0.64614433
-0.8846193 -0.58001262 0.51570243
-0.88264894 -0.57915229 0.4002471
-0.8622824 -0.56621367 0.28732237
-0.84050936 -0.55232763 0.18323873
-0.9322145 -0.60707521 1.071967
-0.90284884 -0.58861506 0.86832118
-0.89686775 -0.58515304 0.71489882
-0.89387852 -0.58386117 0.58101815
-0.8779574 -0.57389063 0.45419851
-0.8543244 -0.55885983 0.33693972
-0.84106231 -0.5503881 0.23240602
-0.84403515 -0.5527451 0.13437465
-0.087341599 -0.014217608 8.7189417
-1.1445318 -0.70487303 8.5453396
-1.4918094 -0.93182588 8.4797935
-1.2428234 -0.78805071 4.7517266
-1.1302454 -0.72216862 3.219384
-1.042323 -0.66904324 2.3370893
-1.0108589 -0.65081847 1.8383743
-0.96307302 -0.62146401 1.448909
-0.45465183 -0.22857286 8.6399889
-0.81321579 -0.44778073 8.615427
-1.4346112 -0.90091938 6.559741
-1.1708133 -0.74294126 3.8250191
-1.0711356 -0.68385911 2.6914704
-1.0225788 -0.65509808 2.0565996
-0.99101335 -0.63656443 1.6344193
-0.9531576 -0.6134094 1.3070743
-0.9430269 -0.6113131 1.1841838
-0.91023272 -0.59072179 0.9573456
-0.89946043 -0.58438873 0.78786093
-0.89252126 -0.5803147 0.64382553
-0.88275266 -0.57439291 0.51382935
-0.88064522 -0.57345009 0.39883706
-0.86013794 -0.56051838 0.28638974
-0.8424322 -0.54939038 0.18323873
-0.93119192 -0.60179108 1.0686415
-0.90489799 -0.58545995 0.86832118
-0.8989048 -0.58201879 0.71489882
-0.89210254 -0.57826883 0.57892013
-0.87599361 -0.56825268 0.452555
-0.85219306 -0.55322772 0.33576739
-0.84297842 -0.54744893 0.23240602
-0.84595937 -0.54979557 0.13437465
-0.087347195 -0.013909225 8.7139416
-1.1469854 -0.70087361 8.5453396
-1.4950529 -0.92661273 8.4797935
-1.2405124 -0.7805286 4.7326379
-1.1261592 -0.71403509 3.200974
-1.0406117 -0.66282779 2.3283112
-1.0107532 -0.64577115 1.8342415
-0.95983779 -0.61464185 1.441234
-0.45544693 -0.22698444 8.6399889
-0.81477392 -0.44493935 8.615427
-1.4377471 -0.89590615 6.559741
-1.1733996 -0.73884982 3.8250191
-1.069838 -0.67778629 2.6824682
-1.0204573 -0.64872658 2.0480678
-0.9906882 -0.63148183 1.6304293
-0.9495784 -0.60642952 1.299724
-0.94215572 -0.60608834 1.1806793
-0.90901673 -0.58543354 0.95420712
-0.90149486 -0.58124554 0.78786093
-0.89081919 -0.57479405 0.64150673
-0.88475227 -0.57130802 0.51382935
-0.88264155 -0.57037258 0.39883706
-0.86208934 -0.55751252 0.28638974
-0.84434485 -0.54644638 0.18323873
-0.93014377 -0.5965215 1.065316
-0.90353483 -0.58011407 0.86537802
-0.89730418 -0.57654738 0.71236569
-0.89411569 -0.57515126 0.57892013
-0.87400115 -0.56263542 0.45091146
-0.854119 -0.55024958 0.33576739
-0.84072173 -0.54182041 0.23171534
-0.8436749 -0.5441314 0.13417313
-0.087395214 -0.013604242 8.7139416
-1.1494248 -0.69686562 8.5453396
-1.4982783 -0.92138839 8.4797935
-1.2520936 -0.78172612 4.7660422
-1.1236836 -0.70697922 3.1871662
-1.0408945 -0.65791196 2.3239222
-1.0106244 -0.64073235 1.8301084
-0.95927203 -0.60956872 1.4373965
-0.45597717 -0.22526623 8.6349974
-0.815853 -0.44183922 8.6104555
-1.4355197 -0.88757759 6.5355439
-1.1715807 -0.73200673 3.8109407
-1.0703542 -0.67288929 2.6779668
-1.0205095 -0.64376926 2.0438018
-0.98779321 -0.62479877 1.6224493
-0.94882578 -0.6012966 1.2960488
-0.94125962 -0.60087723 1.1771748
-0.91105473 -0.58225691 0.95420712
-0.89999598 -0.57584172 0.78511947
-0.89282024 -0.57168102 0.64150673
-0.88283783 -0.56571501 0.51195633
-0.88058907 -0.5646987 0.39742702
-0.85989594 -0.5518468 0.28545713
-0.84205687 -0.54080462 0.18279165
-0.9322204 -0.59327102 1.065316
-0.90214527 -0.57478482 0.86243486
-0.89567631 -0.57109421 0.70983243
-0.89611787 -0.57202673 0.57892013
-0.87198025 -0.55703908 0.44926795
-0.85193926 -0.5446468 0.33459508
-0.84260786 -0.53888249 0.23171534
-0.84556907 -0.54118311 0.13417313
-0.087442167 -0.013299094 8.7139416
-1.1525164 -0.69324946 8.5502796
-1.5014855 -0.91615283 8.4797935
-1.263698 -0.78285223 4.7994461
-1.1211725 -0.69994926 3.1733589
-1.0411557 -0.6530022 2.3195331
-1.0104728 -0.63570249 1.8259755
-0.95868266 -0.60450715 1.4335591
-0.45702046 -0.22379932 8.6399889
-0.81739032 -0.43898866 8.6104555
-1.4321802 -0.87861854 6.5065074
-1.1711951 -0.72609448 3.8015552
-1.0690023 -0.6668449 2.6689644
-1.0227505 -0.64020312 2.0438018
-0.98741585 -0.61974519 1.6184592
-0.94517893 -0.59437191 1.2886984
-0.93732578 -0.5937714 1.1701657
-0.90979457 -0.5769887 0.95106864
-0.89847052 -0.57045555 0.78237802
-0.89107138 -0.56618541 0.63918799
-0.88089508 -0.56014246 0.51008332
-0.88255489 -0.56162143 0.39742702
-0.861817 -0.54884189 0.28545713
-0.84393942 -0.537862 0.18279165
-0.93112856 -0.58801985 1.0619905
-0.90414613 -0.57163233 0.86243486
-0.89766437 -0.5679642 0.70983243
-0.89427507 -0.56646675 0.57682204
-0.87391943 -0.55399191 0.44926795
-0.85383517 -0.54166961 0.33459508
-0.84448379 -0.53593796 0.23171534
-0.84323579 -0.53554982 0.13397159
-0.087444529 -0.012990822 8.7089415
-1.1555966 -0.6896202 8.5552187
-1.5046742 -0.91090608 8.4797935
-1.260064 -0.7745288 4.7755861
-1.1186261 -0.69294548 3.1595511
-1.0393617 -0.64683342 2.3107548
-1.0102984 -0.6306814 1.8218426
-0.95806956 -0.59945709 1.4297215
-0.45779887 -0.22220264 8.6399889
-0.81891769 -0.43613279 8.6104555
-1.4212788 -0.86511981 6.4435949
-1.1707826 -0.72019386 3.7921698
-1.0676211 -0.66081828 2.6599619
-1.0227635 -0.63525331 2.039536
-0.98701519 -0.61470193 1.6144693
-0.94437164 -0.58927447 1.2850233
-0.93637329 -0.58859813 1.1666611
-0.9085086 -0.5717364 0.94793022
-0.90045631 -0.56731582 0.78237802
-0.89304227 -0.56307155 0.63918799
-0.87892425 -0.55459034 0.5082103
-0.88045382 -0.55597609 0.39601701
-0.85957497 -0.54320604 0.2845245
-0.84160292 -0.53225106 0.18234457
-0.93001151 -0.58278358 1.058665
-0.90271193 -0.56632483 0.85949171
-0.89599043 -0.56253529 0.70729923
-0.89624691 -0.56334168 0.57682204
-0.87185061 -0.54842377 0.44762444
-0.85160732 -0.53609651 0.33342275
-0.84634942 -0.53298688 0.23171534
-0.84087342 -0.52993941 0.13377006
-0.087489344 -0.012685504 8.7089415
-1.1586655 -0.68597782 8.5601578
-1.5078448 -0.90564817 8.4797935
-1.2461913 -0.76002413 4.7135501
-1.1160445 -0.68596798 3.1457434
-1.0395755 -0.64194334 2.306366
-1.0124937 -0.62715095 1.8218426
-0.95743304 -0.59441876 1.425884
-0.45857173 -0.22060327 8.6399889
-0.82043511 -0.43327156 8.6104555
-1.4135294 -0.85365695 6.3952003
-1.1703432 -0.71430504 3.7827842
-1.066211 -0.65480942 2.6509595
-1.0249747 -0.6316793 2.039536
-0.98659146 -0.60966897 1.6104792
-0.94354028 -0.58418989 1.2813481
-0.93539619 -0.58343881 1.1631566
-0.9104988 -0.56856167 0.94793022
-0.89888543 -0.56195271 0.77963656
-0.89124697 -0.55760145 0.63686919
-0.88085479 -0.55151898 0.5082103
-0.88238913 -0.55289936 0.39601701
-0.85730422 -0.53759271 0.2835919
-0.84345567 -0.52931005 0.18234457
-0.92886913 -0.57756221 1.0553395
-0.90125167 -0.56103438 0.85654855
-0.89794856 -0.55940425 0.70729923
-0.89435691 -0.55780804 0.57472402
-0.87375969 -0.54537708 0.44762444
-0.85347348 -0.53312057 0.33342275
-0.84400511 -0.52740514 0.23102465
-0.83848226 -0.52435207 0.13356853
-0.087489545 -0.012377376 8.7039413
-1.1610529 -0.68192917 8.5601578
-1.5118717 -0.90090048 8.4846888
-1.2309557 -0.74485314 4.6467428
-1.1150961 -0.68003422 3.1365385
-1.0418099 -0.63831061 2.306366
-1.0122793 -0.62213963 1.8177097
-0.9595021 -0.59107304 1.425884
-0.45933899 -0.21900122 8.6399889
-0.82194251 -0.43040508 8.6104555
-1.4078739 -0.8435505 6.3564849
-1.1713532 -0.70932174 3.7780917
-1.064772 -0.64881849 2.641957
-1.0249482 -0.6267373 2.03527
-0.98614472 -0.60464662 1.6064892
-0.94557375 -0.5808928 1.2813481
-0.93742704 -0.58017009 1.1631566
-0.90916914 -0.56332999 0.94479173
-0.8972882 -0.5566076 0.77689505
-0.89318794 -0.55448705 0.63686919
-0.87883663 -0.54599446 0.50633723
-0.88431376 -0.54981589 0.39601701
-0.85917556 -0.53459686 0.2835919
-0.84107077 -0.52373028 0.18189749
-0.93087953 -0.57431632 1.0553395
-0.89976555 -0.55576098 0.85360539
-0.89622897 -0.55399996 0.70476609
-0.89629853 -0.55468273 0.57472402
-0.87164348 -0.53983748 0.44598094
-0.85119778 -0.52757752 0.33225045
-0.84584093 -0.52445579 0.23102465
-0.83606243 -0.51878792 0.133367
-0.087532215 -0.012071906 8.7039413
-1.1640977 -0.67826313 8.5650978
-1.5150073 -0.89561754 8.4846888
-1.2297087 -0.73824739 4.6324267
-1.1124483 -0.67310417 3.122731
-1.041985 -0.63342625 2.3019767
-1.012042 -0.61713749 1.8135767
-0.95882452 -0.58604878 1.4220465
-0.46036208 -0.21751896 8.6449804
-0.8234399 -0.42753333 8.6104555
-1.4064875 -0.83606255 6.3371272
-1.1708634 -0.70345163 3.7687061
-1.0651673 -0.64397174 2.6374559
-1.0271297 -0.62315571 2.03527
-0.9856748 -0.59963471 1.6024991
-0.9447009 -0.57582432 1.277673
-0.93944651 -0.57689434 1.1631566
-0.91112995 -0.56015301 0.94479173
-0.89922565 -0.55347204 0.77689505
-0.89134622 -0.5490427 0.63455039
-0.88073713 -0.54292345 0.50633723
-0.88214481 -0.5442071 0.39460698
-0.85685658 -0.52901399 0.28265926
-0.84289378 -0.52079117 0.18189749
-0.92969406 -0.56911427 1.052014
-0.90170008 -0.55261683 0.85360539
-0.89815736 -0.55086821 0.70476609
-0.89436162 -0.54917592 0.57262594
-0.87352252 -0.53679156 0.44598094
-0.85303414 -0.52460307 0.33225045
-0.8434487 -0.51890528 0.23033397
-0.83786827 -0.51586634 0.133367
-0.087573819 -0.011766287 8.7039413
-1.1664581 -0.67419559 8.5650978
-1.5181242 -0.89032376 8.4846888
-1.2322781 -0.73395044 4.6324267
-1.1097656 -0.66620088 3.1089232
-1.0421388 -0.62854844 2.2975879
-1.0141901 -0.61360103 1.8135767
-0.95812351 -0.58103639 1.418209
-0.46111855 -0.21591066 8.6449804
-0.82492721 -0.42465639 8.6104555
-1.399652 -0.82540286 6.2935724
-1.1718292 -0.69847685 3.7640131
-1.0655417 -0.63913012 2.6329546
-1.0270642 -0.61822188 2.0310042
-0.98518211 -0.59463352 1.5985092
-0.94670504 -0.57252324 1.277673
-0.94145453 -0.57361156 1.1631566
-0.90975672 -0.55494243 0.94165331
-0.89758348 -0.5481506 0.77415359
-0.88947743 -0.54361808 0.63223159
-0.87867218 -0.53742701 0.50446421
-0.8840391 -0.54112452 0.39460698
-0.85869789 -0.52601975 0.28265926
-0.84046096 -0.51524305 0.18145041
-0.93167496 -0.56586558 1.052014
-0.90016991 -0.54736608 0.85066223
-0.89639211 -0.54548883 0.7022329
-0.89239734 -0.54368949 0.57052791
-0.87135911 -0.53128105 0.44433743
-0.85071093 -0.51909047 0.33107814
-0.8452549 -0.51595789 0.23033397
-0.83540046 -0.51033401 0.13316546
-0.087614357 -0.011460526 8.7039413
-1.1681303 -0.66973346 8.5601578
-1.5212229 -0.88501906 8.4846888
-1.2361177 -0.7304036 4.6371984
-1.1087271 -0.66032404 3.0997183
-1.0422711 -0.62367725 2.2931986
-1.0139129 -0.60860902 1.8094438
-0.95739937 -0.5760361 1.4143715
-0.46160713 -0.21417911 8.6399889
-0.82640457 -0.42177427 8.6104555
-1.384079 -0.80972469 6.2113023
-1.1727748 -0.69350398 3.7593205
-1.0640243 -0.63318062 2.6239522
-1.0247374 -0.61195892 2.0224721
-0.98466647 -0.58964312 1.5945191
-0.94869781 -0.56921512 1.277673
-0.94345105 -0.57032174 1.1631566
-0.91168827 -0.55176336 0.94165331
-0.89591509 -0.54284734 0.77141213
-0.88758171 -0.53821313 0.62991279
-0.88054281 -0.53435665 0.50446421
-0.88592261 -0.53803533 0.39460698
-0.86052883 -0.52301913 0.28265926
-0.84225434 -0.51230609 0.18145041
-0.93044645 -0.56068301 1.0486885
-0.89861399 -0.54213274 0.84771907
-0.89460039 -0.54012859 0.6996997
-0.89428973 -0.54057115 0.57052791
-0.8691678 -0.52579206 0.44269392
-0.85251766 -0.51611781 0.33107814
-0.84281492 -0.51043898 0.22964329
-0.8371768 -0.50741488 0.13316546
-0.087653831 -0.011154625 8.7039413
-1.1697854 -0.66526794 8.5552187
-1.5243028 -0.87970364 8.4846888
-1.2438112 -0.72910309 4.6562862
-1.105979 -0.65346897 3.0859108
-1.0423824 -0.61881292 2.2888095
-1.0160311 -0.60506612 1.8094438
-0.95665187 -0.57104802 1.4105339
-0.46235192 -0.21256649 8.6399889
-0.82787174 -0.41888702 8.6104555
-1.3727627 -0.7966885 6.1483898
-1.1736999 -0.68853307 3.7546277
-1.0643533 -0.6283561 2.6194508
-1.0246233 -0.60704899 2.0182061
-0.984128 -0.58466351 1.5905291
-0.95359212 -0.56763393 1.2813481
-0.94237769 -0.56519097 1.1596521
-0.9102717 -0.54657406 0.93851483
-0.8978045 -0.53971678 0.77141213
-0.88945502 -0.53511161 0.62991279
-0.87843096 -0.52888852 0.50259119
-0.88368648 -0.53246397 0.39319694
-0.86234933 -0.5200122 0.28265926
-0.84403753 -0.50936294 0.18145041
-0.92919308 -0.55551594 1.0453631
-0.90050095 -0.5389927 0.84771907
-0.89278209 -0.53478748 0.69716656
-0.89227897 -0.53511208 0.56842989
-0.87099791 -0.52275485 0.44269392
-0.85014731 -0.51063621 0.32990581
-0.84034681 -0.50494337 0.2289526
-0.83466142 -0.50191486 0.13296394
-0.087735817 -0.010850484 8.7089415
-1.1714237 -0.66079903 8.5502796
-1.5273644 -0.87437749 8.4846888
-1.2502203 -0.72700751 4.6706028
-1.1048821 -0.64762896 3.0767057
-1.044536 -0.61517048 2.2888095
-1.015714 -0.6000846 1.8053107
-0.95588142 -0.56607217 1.4066964
-0.46309111 -0.21095128 8.6399889
-0.82932895 -0.41599464 8.6104555
-1.3951454 -0.80317718 6.2354994
-1.1746045 -0.68356407 3.7499349
-1.062783 -0.62243706 2.6104486
-1.022239 -0.60082614 2.0096743
-0.98356682 -0.57969493 1.5865391
-0.95556772 -0.56430179 1.2813481
-0.94434476 -0.56189793 1.1596521
-0.90883005 -0.54140151 0.93537635
-0.89609176 -0.53443789 0.76867068
-0.88751364 -0.5297333 0.62759399
-0.88027179 -0.525819 0.50259119
-0.88553977 -0.52937609 0.39319694
-0.86415917 -0.51699889 0.28265926
-0.84153765 -0.50385547 0.18100333
-0.9279151 -0.55036455 1.0420375
-0.89890134 -0.53378248 0.84477592
-0.89464349 -0.53166783 0.69716656
-0.89024091 -0.52967364 0.5663318
-0.86875987 -0.51729548 0.44105041
-0.85192454 -0.50766546 0.32990581
-0.84210426 -0.50200695 0.2289526
-0.83640838 -0.49899828 0.13296394
-0.087773159 -0.010544162 8.7089415
-1.1730449 -0.65632677 8.5453396
-1.5304072 -0.86904061 8.4846888
-1.2553366 -0.72413033 4.6801462
-1.103758 -0.64180458 3.0675008
-1.044609 -0.61031264 2.2844205
-1.0178026 -0.59653544 1.8053107
-0.95508778 -0.56110859 1.402859
-0.46356112 -0.20921563 8.6349974
-0.83029836 -0.41286045 8.605484
-1.3990321 -0.79892546 6.2403388
-1.1739942 -0.67773461 3.7405496
-1.0611844 -0.61653668 2.6014462
-1.0220768 -0.59594071 2.0054085
-0.98298299 -0.57473737 1.5825491
-0.95753163 -0.5609628 1.2813481
-0.94322926 -0.55678546 1.1561475
-0.91071439 -0.53822577 0.93537635
-0.89795184 -0.53130668 0.76867068
-0.88935733 -0.52663213 0.62759399
-0.87811351 -0.52037966 0.50071812
-0.88738227 -0.52628177 0.39319694
-0.86595863 -0.51397926 0.28265926
-0.84329134 -0.50091487 0.18100333
-0.9266125 -0.54522878 1.038712
-0.8972764 -0.52858996 0.84183276
-0.89278042 -0.52635252 0.69463336
-0.8881759 -0.52425599 0.56423378
-0.87056029 -0.51425982 0.44105041
-0.84950733 -0.50221509 0.3287335
-0.839589 -0.49654359 0.22826193
-0.83384579 -0.49353105 0.1327624
-0.087809429 -0.010237712 8.7089415
-1.1753287 -0.65222806 8.5453396
-1.5334314 -0.86369324 8.4846888
-1.2526739 -0.71677935 4.6610584
-1.1026068 -0.63599598 3.0582957
-1.0467329 -0.60666257 2.2844205
-1.0174459 -0.59156483 1.8011779
-0.95427132 -0.55615759 1.3990214
-0.46428859 -0.20759623 8.6349974
-0.83173442 -0.40995964 8.605484
-1.4094689 -0.79837245 6.2742147
-1.1733575 -0.67191774 3.731164
-1.0595576 -0.61065507 2.5924437
-1.024151 -0.59236932 2.0054085
-0.98237652 -0.56979102 1.578559
-0.9565528 -0.55591375 1.277673
-0.9420895 -0.5516876 1.152643
-0.90922958 -0.53307498 0.93223786
-0.89619476 -0.52605236 0.76592922
-0.89119017 -0.52352446 0.62759399
-0.8799246 -0.51731128 0.50071812
-0.88507932 -0.52074844 0.3917869
-0.86351448 -0.50846088 0.28172666
-0.84503472 -0.49796817 0.18100333
-0.92528528 -0.54010892 1.0353866
-0.89911604 -0.5254547 0.84183276
-0.89461231 -0.52323294 0.69463336
-0.89000046 -0.5211525 0.56423378
-0.86827594 -0.50883043 0.4394069
-0.84706235 -0.49678779 0.32756117
-0.84131718 -0.49360988 0.22826193
-0.83556348 -0.49061736 0.1327624
-0.087844633 -0.0099311378 8.7089415
-1.1775984 -0.64812142 8.5453396
-1.5364369 -0.85833526 8.4846888
-1.2525717 -0.7109291 4.6515145
-1.1014285 -0.63020325 3.0490906
-1.0488442 -0.60300511 2.2844205
-1.017067 -0.58660388 1.7970449
-0.95343184 -0.55121905 1.3951839
-0.4650104 -0.20597428 8.6349974
-0.83268112 -0.40682042 8.6005125
-1.4078633 -0.79098552 6.2548571
-1.171194 -0.66526151 3.7170856
-1.0579027 -0.6047923 2.5834413
-1.0239502 -0.58749306 2.0011425
-0.98174751 -0.56485581 1.574569
-0.95848751 -0.55257136 1.277673
-0.94400954 -0.54839575 1.152643
-0.90772015 -0.52794117 0.92909944
-0.89802551 -0.52292085 0.76592922
-0.88918483 -0.51818013 0.62527519
-0.8777203 -0.5119012 0.49884507
-0.88689166 -0.51765579 0.3917869
-0.86528409 -0.50544357 0.28172666
-0.84246856 -0.49250218 0.18055625
-0.92716497 -0.53687578 1.0353866
-0.89744788 -0.5202859 0.8388896
-0.89643323 -0.52010697 0.69463336
-0.88788968 -0.5157631 0.5621357
-0.87004679 -0.50579649 0.4394069
-0.8487913 -0.49382794 0.32756117
-0.8430351 -0.49067008 0.22826193
-0.83727098 -0.48769772 0.1327624
-0.087878764 -0.009624443 8.7089415
-1.1805357 -0.64437896 8.5502796
-1.5394237 -0.8529669 8.4846888
-1.251143 -0.70435613 4.6371984
-1.1019224 -0.62539059 3.044488
-1.0488622 -0.59815407 2.2800314
-1.0166658 -0.58165294 1.792912
-0.9525696 -0.54629326 1.3913465
-0.46599132 -0.20446496 8.6399889
-0.83409613 -0.40391132 8.6005125
-1.4040273 -0.78239626 6.225821
-1.1689984 -0.6586287 3.7030075
-1.0562198 -0.5989486 2.5744388
-1.0259947 -0.58391523 2.0011425
-0.98109603 -0.55993205 1.5705789
-0.95746738 -0.54753947 1.2739978
-0.94282812 -0.54331684 1.1491385
-0.90618598 -0.52282447 0.92596096
-0.89622456 -0.51769167 0.76318777
-0.89098817 -0.51507312 0.62527519
-0.87950188 -0.50883424 0.49884507
-0.88454169 -0.51215321 0.39037687
-0.86279285 -0.49995726 0.28079402
-0.84418255 -0.4895584 0.18055625
-0.92579567 -0.53177655 1.032061
-0.89925861 -0.51715004 0.8388896
-0.89824325 -0.51697469 0.69463336
-0.8857522 -0.51039481 0.56003767
-0.8718071 -0.50275636 0.4394069
-0.84630013 -0.48843253 0.32638884
-0.84474272 -0.48772436 0.22826193
-0.83896828 -0.48477212 0.1327624
-0.087911822 -0.00931763 8.7089415
-1.1827778 -0.6402542 8.5502796
-1.5423917 -0.84758812 8.4846888
-1.2496839 -0.69780189 4.6228828
-1.102396 -0.62058216 3.0398853
-1.0467744 -0.59213126 2.2712533
-1.0137948 -0.5753231 1.7846459
-0.95447075 -0.54296488 1.3913465
-0.46670219 -0.20283711 8.6399889
-0.83598185 -0.40122741 8.605484
-1.4001485 -0.77384341 6.196784
-1.1667706 -0.6520192 3.6889291
-1.0545092 -0.59312403 2.5654364
-1.0280266 -0.58033031 2.0011425
-0.98042226 -0.55501968 1.5665889
-0.95642394 -0.54252142 1.2703226
-0.94162267 -0.53825283 1.1456339
-0.9046272 -0.51772493 0.92282254
-0.89802623 -0.5145601 0.76318777
-0.88893777 -0.50975639 0.6229564
-0.87725174 -0.50345367 0.49697205
-0.88216436 -0.5066734 0.38896683
-0.86027396 -0.49449459 0.27986142
-0.84156966 -0.48412544 0.18010917
-0.92764622 -0.52854168 1.032061
-0.89754725 -0.51200527 0.83594644
-0.89629865 -0.5116989 0.69210023
-0.88752842 -0.50729984 0.56003767
-0.87355673 -0.49971014 0.4394069
-0.84799987 -0.48547539 0.32638884
-0.84644002 -0.48477268 0.22826193
-0.84065533 -0.48184064 0.1327624
-0.087943815 -0.0090107033 8.7089415
-1.1850054 -0.63612163 8.5502796
-1.5453409 -0.84219903 8.4846888
-1.2495002 -0.69198942 4.6133385
-1.1028497 -0.61577809 3.0352831
-1.0404797 -0.5837869 2.2536969
-1.0108922 -0.56902057 1.7763801
-0.95356852 -0.53805488 1.387509
-0.46740741 -0.20120677 8.6399889
-0.83737731 -0.39830688 8.605484
-1.3973296 -0.76593119 6.1725869
-1.1630017 -0.64459699 3.6701579
-1.0546719 -0.58837914 2.5609353
-1.0277704 -0.57546437 1.9968767
-0.9797262 -0.55011892 1.5625988
