# .PCD v0.7 - Point Cloud Data file format
VERSION 0.7
FIELDS x y z
SIZE 4 4 4
TYPE F F F
COUNT 1 1 1
WIDTH 1543
HEIGHT 1
VIEWPOINT 0 0 0 1 0 0 0
POINTS 1543
DATA ascii
2.2547824 -2.2711234 8.7571163
2.94959 -2.9545567 8.6960897
3.7364419 -3.7310791 8.7071905
4.5469027 -4.5293574 8.5730715
5.5370317 -5.5060949 8.5434732
3.2706678 -3.2308643 4.5976119
6.9754896 -6.8834987 7.9843497
4.6305556 -4.5615215 3.4889929
6.7295084 -6.6663013 8.5177622
8.2130756 -8.12745 8.4969931
10.352395 -10.237344 8.6412153
0.032315925 -0.082239285 8.7039413
1.9447513 -2.0266728 17.855843
1.2792581 -1.3159662 8.8469362
1.9285489 -1.9574225 8.8317719
2.7911479 -2.8134317 9.3959713
3.4704423 -3.4836257 9.0787144
5.0174093 -5.0120487 8.5674801
0.32454398 -0.40238929 8.7797556
1.2582028 -1.4472359 17.842539
1.6079125 -1.6461855 8.8971834
2.2432067 -2.2752936 8.7430382
2.9392586 -2.9648347 8.6960897
3.7289124 -3.7496471 8.7199888
4.5289373 -4.5430675 8.5690813
5.5153823 -5.5229902 8.5397978
3.2543137 -3.2372313 4.5906029
6.9983549 -6.9544477 8.0377035
9.1771994 -9.1101141 8.5626593
4.602025 -4.5651779 3.4797177
6.7009101 -6.6844764 8.5111113
8.1789284 -8.150363 8.491107
10.273833 -10.230834 8.605751
0.03202866 -0.082351588 8.7039413
1.9355214 -2.0311985 17.836084
1.2753637 -1.3211564 8.8518314
1.9321427 -1.9748129 8.8794928
2.775826 -2.8175902 9.3775616
3.4616296 -3.4991238 9.0874929
4.9976234 -5.0272589 8.5636425
0.3231374 -0.40351972 8.7797556
1.2531434 -1.4516191 17.842539
1.6030313 -1.6526905 8.9020224
2.2352507 -2.2831099 8.7430382
2.9304185 -2.9766278 8.7005911
3.7121358 -3.7589295 8.7114563
4.5109315 -4.5567074 8.5650911
5.4936833 -5.5398021 8.5361223
3.2379546 -3.2435234 4.5835934
7.0180578 -7.0228858 8.0879192
9.171958 -9.1686983 8.5873318
6.6749024 -6.7051802 8.5077848
8.1333094 -8.161684 8.4734478
10.210664 -10.239161 8.5829525
4.7847834 -4.793098 3.2182701
0.031741008 -0.082462884 8.7039413
1.9300214 -2.0396359 17.850903
1.2714487 -1.3263354 8.8567266
1.9252375 -1.9815452 8.8794928
2.760509 -2.8216765 9.3591509
3.4544296 -3.5163116 9.1006603
1.4224057 -1.4437821 3.0493283
4.9777932 -5.0423923 8.5598049
0.32190582 -0.40487179 8.7847471
1.2477219 -1.4555796 17.837566
1.5946372 -1.65556 8.8875046
2.2260644 -2.2896609 8.7383461
2.9215324 -2.9883957 8.7050924
3.7026441 -3.7755883 8.7199888
4.4907737 -4.5681276 8.5571108
5.4719334 -5.556529 8.5324478
3.224102 -3.2522736 4.5800891
7.0181751 -7.072206 8.1161652
9.1546316 -9.2154913 8.6010389
6.6462054 -6.7231278 8.5011339
8.1047707 -8.1900253 8.4734478
4.5936542 -4.6387177 3.9219034
4.7903895 -4.8323331 3.2329566
0.031452965 -0.082573183 8.7039413
1.9260818 -2.0497582 17.880537
1.2668113 -1.3307654 8.8567266
1.9193454 -1.9893279 8.884264
2.7451978 -2.8256903 9.3407412
3.4438064 -3.5300624 9.1050491
1.4134216 -1.4447153 3.0410624
4.9579172 -5.0574479 8.5559673
0.32066876 -0.40622023 8.7897396
1.2426335 -1.459926 17.837566
1.5879796 -1.6602076 8.8826647
2.2228527 -2.3023837 8.7571163
2.9125993 -3.0001373 8.7095938
3.6930814 -3.7922268 8.7285204
4.4726954 -4.5816197 8.5531216
5.4477634 -5.5707479 8.5250969
3.2077262 -3.258425 4.5730801
7.0125704 -7.1160679 8.138134
9.1047888 -9.2295294 8.5845909
4.634881 -4.6950846 3.5400066
6.6200814 -6.7436223 8.4978085
8.0676336 -8.2096176 8.4646177
4.5804563 -4.6577978 3.9244366
4.7703085 -4.8457913 3.2308586
0.03117663 -0.082724392 8.7089415
0.95270264 -1.0206957 8.8762703
1.2628577 -1.3359195 8.8616219
1.9134223 -1.9970934 8.8890362
2.7285357 -2.8282251 9.317728
3.4347961 -3.5455024 9.1138277
1.4201348 -1.461751 3.0658603
4.9402332 -5.0747237 8.5559673
0.31942618 -0.40756485 8.7947311
1.2371858 -1.4638475 17.832596
1.5830404 -1.6666522 8.8875046
2.2219677 -2.3176036 8.7852736
2.9051311 -3.0134208 8.7185965
3.6870732 -3.8125942 8.7455845
4.4545779 -4.5950408 8.5491314
5.4259233 -5.5872989 8.5214224
3.1938398 -3.2670519 4.5695753
7.0040216 -7.1571941 8.1569643
10.301484 -10.515798 9.7360058
4.618464 -4.7112346 3.5400066
6.5912895 -6.761343 8.4911575
8.0332813 -8.2319431 8.4587326
4.5641699 -4.673758 3.9244366
4.727984 -4.8364496 3.2140741
0.030887676 -0.082832716 8.7089415
0.95019007 -1.0251551 8.8861494
1.2588835 -1.3410619 8.8665171
1.908497 -2.0059233 8.8985796
2.7118893 -2.8306782 9.2947159
3.4190781 -3.5540187 9.1050491
1.41307 -1.4646739 3.0617273
4.9202614 -5.0896325 8.5521297
0.31817812 -0.40890583 8.7997227
1.2320685 -1.4681572 17.832596
1.5737634 -1.6685098 8.8681459
2.2257624 -2.3378441 8.8322001
2.8961 -3.025116 8.7230968
3.69542 -3.8480146 8.7967758
4.4385109 -4.6105618 8.5491314
5.4040332 -5.6037641 8.5177469
3.1774485 -3.2730632 4.5625663
3.2844222 -3.3797312 3.8823872
10.372595 -10.66259 9.8374414
4.6081705 -4.733676 3.5446444
6.5650511 -6.7816267 8.4878321
7.9988728 -8.2541294 8.4528456
4.5358233 -4.6772833 3.9143038
4.7173953 -4.859437 3.2182701
0.030610148 -0.082982033 8.7139416
0.94607979 -1.0278937 8.8812094
1.2541946 -1.3454481 8.8665171
1.9066088 -2.0179985 8.9224405
2.6952589 -2.8330498 9.2717028
3.4066517 -3.565932 9.1050491
1.4040555 -1.4655334 3.0534613
4.9002452 -5.1044641 8.5482922
0.31692451 -0.41024294 8.8047142
1.2269362 -1.4724489 17.832596
1.5722256 -1.6785808 8.8923435
2.2294428 -2.3581398 8.8791285
2.8870225 -3.0367844 8.7275982
3.7071631 -3.8873138 8.8564987
4.4203081 -4.6238494 8.5451412
5.3820949 -5.6201453 8.5140724
3.1635289 -3.2815673 4.559062
3.2536845 -3.3715692 3.8604181
10.640358 -11.014506 10.125295
4.5916185 -4.7497325 3.5446444
6.5361633 -6.7991185 8.4811811
7.9644051 -8.2761745 8.4469595
4.5194693 -4.6930876 3.9143038
0.0303203 -0.083088376 8.7139416
0.94248599 -1.0311899 8.8812094
1.2494905 -1.349818 8.8665171
1.903638 -2.0289962 8.9415274
2.677304 -2.8339195 9.2440882
3.3974798 -3.5812767 9.1138277
1.3950522 -1.4663479 3.0451953
4.8801866 -5.1192188 8.5444546
0.31584048 -0.41180602 8.8146973
1.2217889 -1.4767228 17.832596
1.5783402 -1.6969453 8.9600954
2.2294652 -2.3747144 8.9119778
2.8778989 -3.0484264 8.7320995
3.7545424 -3.9646156 9.0015402
4.4041409 -4.6392508 8.5451412
5.3601079 -5.6364412 8.510397
3.1471221 -3.2874374 4.5520525
3.2338166 -3.3744757 3.8510025
10.761051 -11.217541 10.276075
4.5964851 -4.7881007 3.5608759
6.5098114 -6.8191915 8.4778557
7.9270906 -8.2951593 8.4381294
4.514977 -4.7212968 3.9244366
0.030030083 -0.083193704 8.7139416
0.93992478 -1.0356245 8.8910885
1.2454602 -1.354921 8.8714123
1.9016312 -2.04109 8.9653883
2.6593757 -2.8346989 9.2164726
3.3866007 -3.5948577 9.1182165
1.3879926 -1.4691628 3.0410624
4.8600841 -5.1338954 8.540617
0.31474936 -0.41336653 8.8246813
1.2166269 -1.4809786 17.832596
1.5783764 -1.7089087 8.9939709
2.223516 -2.3850071 8.9213629
2.8687291 -3.0600417 8.7366009
3.7728403 -4.0118961 9.0783272
4.3879204 -4.6545959 8.5451412
5.3380728 -5.6526523 8.5067215
3.1331708 -3.2958186 4.5485482
3.222018 -3.3857429 3.8510025
10.788165 -11.324671 10.339128
4.5827999 -4.807323 3.5631948
6.4808311 -6.8364539 8.4712048
7.8925223 -8.3169155 8.4322433
4.5103431 -4.7495317 3.9345691
11.511216 -12.109065 7.8109069
0.029739499 -0.083298028 8.7139416
0.93682408 -1.0394765 8.8960276
1.240723 -1.3592602 8.8714123
1.8995631 -2.0531943 8.9892473
2.6414747 -2.8353875 9.188858
3.351126 -3.582171 9.0567694
1.3809308 -1.4719467 3.0369296
4.842134 -5.1508288 8.540617
0.31382453 -0.41515529 8.8396559
1.2114497 -1.4852164 17.832596
1.5868434 -1.7301574 9.0762415
2.214005 -2.3914878 8.9166708
2.8580301 -3.0700366 8.7366009
3.7605932 -4.026948 9.082593
4.3716459 -4.6698842 8.5451412
5.3136706 -5.6663055 8.4993706
3.1167512 -3.3015487 4.5415392
3.2075064 -3.3941402 3.8478642
10.780177 -11.395673 10.369285
4.5538101 -4.8104229 3.5539196
14.983485 -15.794801 4.2248449
6.4543695 -6.8563166 8.4678793
7.8578982 -8.3385315 8.4263573
4.5055661 -4.7777915 3.9447019
11.468878 -12.149173 7.8109069
0.029448554 -0.08340133 8.7139416
0.93422592 -1.0438986 8.9059067
1.2352871 -1.3628284 8.8665171
1.8974336 -2.065309 9.0131083
2.6196215 -2.8316834 9.1474352
3.3157809 -3.5692804 8.9953222
1.3719481 -1.4726398 3.0286636
4.8219371 -5.1653562 8.5367794
0.31271848 -0.41671112 8.8496389
1.2065933 -1.4898505 17.837566
1.5824867 -1.7375445 9.0859203
2.2056437 -2.3992014 8.9166708
2.8472962 -3.0799944 8.7366009
3.7536068 -4.047699 9.0996571
4.3553185 -4.6851158 8.5451412
5.2892389 -5.6798573 8.4920216
3.1027684 -3.3098059 4.5380344
3.1929758 -3.402478 3.8447256
10.743196 -11.43628 10.372026
10.787237 -11.475145 8.3306475
6.4252973 -6.8733497 8.4612284
7.8232198 -8.3600073 8.4204712
4.5035944 -4.8092232 3.9573679
11.441918 -12.205688 7.8213968
14.844522 -15.796752 0.96810812
0.029146187 -0.083461411 8.7089415
0.93109238 -1.0477344 8.9108458
1.2291602 -1.3656181 8.8567266
1.8952426 -2.0774338 9.0369682
2.6150076 -2.8465652 9.1658449
3.3065495 -3.5843539 9.0041008
1.3687102 -1.4794856 3.0327964
4.8016987 -5.1798058 8.5329418
0.31160545 -0.4182643 8.859622
1.202053 -1.4948844 17.847509
1.5561794 -1.7206818 8.9697742
2.1972556 -2.4068859 8.9166708
2.8365276 -3.0899146 8.7366009
3.7465215 -4.0684514 9.1167212
4.3389378 -4.7002902 8.5451412
5.2647767 -5.6933069 8.4846706
3.0863366 -3.3153961 4.5310254
3.1757722 -3.4079075 3.8384485
10.686097 -11.455367 10.355577
10.738047 -11.503015 8.3236904
14.547342 -15.551049 4.1343803
6.3987255 -6.8929992 8.4579029
7.788487 -8.3813419 8.4145842
11.386875 -12.232266 7.8130054
14.738162 -15.793683 0.96508509
0.028854674 -0.083562642 8.7089415
0.9274295 -1.0509781 8.9108458
1.2237074 -1.369141 8.8518314
1.8929898 -2.0895686 9.0608273
2.6063721 -2.8571193 9.1704473
3.2875466 -3.5888097 8.9865446
1.3654411 -1.4863267 3.0369296
4.7814174 -5.1941772 8.5291042
0.31048533 -0.4198148 8.869606
1.1971598 -1.4994879 17.85248
1.5493238 -1.725168 8.9649353
2.1888404 -2.414541 8.9166708
2.8345239 -3.1094503 8.763608
3.7270172 -4.0757303 9.1039228
4.3204684 -4.7131858 8.541152
5.2402854 -5.706656 8.4773207
3.072324 -3.3235304 4.5275211
3.1612134 -3.4161155 3.8353105
10.577847 -11.418978 10.289783
10.688794 -11.530682 8.3167343
14.459537 -15.565742 4.1250544
6.3695636 -6.909802 8.451252
7.7537012 -8.4025373 8.4086981
11.347187 -12.275271 7.8151031
15.265287 -16.484995 3.2258134
14.689734 -15.852362 0.9654882
0.02856281 -0.083662853 8.7089415
0.92477894 -1.055378 8.9207239
1.2162179 -1.3703576 8.8322506
1.8906755 -2.1017127 9.0846882
2.5937595 -2.8633041 9.1612425
3.2749994 -3.6002636 8.9865446
1.3564517 -1.4869258 3.0286636
4.7610946 -5.2084699 8.5252666
0.30935827 -0.42136264 8.8795891
1.1925801 -1.5044935 17.862425
1.5340908 -1.7202452 8.9117012
2.1792443 -2.4208841 8.9119778
2.8309569 -3.1273956 8.7861137
3.7092614 -4.0848536 9.0953913
4.3039899 -4.7282391 8.541152
5.2134805 -5.7173972 8.4662943
3.0558808 -3.3289802 4.5205121
3.1440027 -3.4213972 3.8290334
10.467153 -11.378894 10.221246
10.64548 -11.564664 8.3144159
14.405113 -15.61612 4.1250544
15.119139 -16.37871 2.0940547
6.3554897 -6.9430108 8.4645538
7.7188621 -8.4235916 8.402812
9.5282059 -10.39087 8.3701649
11.282786 -12.291403 7.8004169
15.160723 -16.487146 3.2161441
0.028270599 -0.083762042 8.7089415
0.91955972 -1.0568407 8.9059067
1.2073884 -1.3700106 8.8028784
1.8882995 -2.1138661 9.1085472
2.5824423 -2.8708878 9.1566401
3.2495694 -3.5974553 8.9514322
4.7407303 -5.2226839 8.5214291
0.30822408 -0.42290756 8.8895721
1.1879801 -1.5094855 17.872368
1.5247438 -1.7218254 8.8923435
2.1707804 -2.4284763 8.9119778
2.8272991 -3.1453536 8.8086195
3.6914868 -4.0939026 9.0868597
4.2854381 -4.7409978 8.5371618
5.1843896 -5.7255092 8.4515944
3.0418394 -3.3369911 4.5170074
3.1267934 -3.4266005 3.8227565
10.348406 -11.328918 10.144485
10.590101 -11.585402 8.3028212
14.314018 -15.626465 4.1147957
15.004669 -16.368977 2.0864542
6.3513069 -6.987257 8.4911575
7.6866918 -8.4474945 8.399869
9.4831696 -10.414504 8.362566
11.224524 -12.31394 7.7899265
15.039635 -16.470486 3.2030208
0.027978042 -0.083860219 8.7089415
0.91535723 -1.059456 8.9009676
1.2039397 -1.3757496 8.8126698
1.8888327 -2.1293783 9.1467228
2.5411716 -2.8449147 9.0461798
3.1810222 -3.546375 8.7978144
3.8997149 -4.3354931 8.6370754
4.720325 -5.2368193 8.5175915
0.30708292 -0.4244498 8.8995552
1.1833596 -1.5144635 17.882311
1.5178944 -1.7261932 8.8875046
2.1611447 -2.4347484 8.9072847
2.8221011 -3.1617002 8.8266249
3.6719546 -4.100934 9.0740614
4.2668505 -4.753686 8.5331717
5.1575723 -5.7360082 8.440568
3.0277793 -3.3449447 4.5135026
3.1121995 -3.4346099 3.819618
10.241375 -11.29064 10.07869
10.537689 -11.60918 8.2935467
14.196582 -15.607291 4.0970755
14.940734 -16.413889 2.0855601
6.3418884 -7.0260143 8.5111113
7.6517367 -8.468276 8.3939819
9.4294109 -10.428358 8.3473663
11.166245 -12.336223 7.7794366
14.935481 -16.471525 3.1933515
0.027685143 -0.083957374 8.7089415
0.90861905 -1.0591056 8.8713322
2.288209 -2.6336691 16.796785
1.8952 -2.1516416 9.2135305
2.5273366 -2.8493829 9.0323725
3.1622519 -3.5503032 8.7802572
3.8845575 -4.3490791 8.6370754
4.7020164 -5.2532644 8.5175915
0.30593473 -0.42598918 8.9095392
1.1790454 -1.5198489 17.897224
1.5035931 -1.7220118 8.8391104
2.150351 -2.439688 8.8978996
2.8182671 -3.1796777 8.8491306
3.6541517 -4.109828 9.0655289
4.2502308 -4.7685509 8.5331717
5.1284866 -5.7438617 8.425868
3.0137007 -3.3528411 4.5099983
3.0975878 -3.4425588 3.8164794
8.2037964 -9.1079798 8.1212826
10.485237 -11.63273 8.2842712
14.062993 -15.569264 4.0746927
6.3297844 -7.0620103 8.5277376
7.6167321 -8.4889174 8.3880968
9.3900728 -10.458002 8.3448334
11.123115 -12.375125 7.7794366
14.79174 -16.427876 3.1753938
0.027391911 -0.084053494 8.7089415
0.90239799 -1.0593126 8.8466349
1.1936407 -1.38335 8.8077745
1.895539 -2.1672332 9.2517061
2.4850948 -2.8215344 8.9173088
3.1403198 -3.5505557 8.7539234
3.8544152 -4.3457699 8.6040115
4.6815205 -5.2672496 8.5137539
0.30477953 -0.4275257 8.9195223
1.1727579 -1.5226879 17.882311
2.4657977 -2.8442109 14.530273
2.1395488 -2.4445822 8.8885145
2.8172185 -3.2009356 8.88064
3.6449618 -4.1284242 9.0783272
4.2315621 -4.7811012 8.5291815
5.0971603 -5.7490444 8.4074917
2.9996042 -3.3606799 4.506494
3.0855522 -3.4533503 3.8164794
8.1552277 -9.1178608 8.1048336
10.435705 -11.659358 8.2773151
14.00856 -15.618258 4.0746927
6.3175073 -7.0980091 8.5443659
7.5816765 -8.5094175 8.3822098
9.3420343 -10.477845 8.3347006
11.082871 -12.417262 7.7815342
14.701299 -16.442493 3.1684868
0.027088312 -0.08410614 8.7039413
0.89618671 -1.0594893 8.8219395
2.2863257 -2.6689126 16.919165
1.9094943 -2.1986325 9.3566904
2.4520812 -2.8037202 8.8344641
3.1231658 -3.5560973 8.7407551
3.8243432 -4.3423033 8.5709476
4.6609855 -5.2811565 8.5099173
0.30394933 -0.42953172 8.9394884
1.165818 -1.5246543 17.857452
2.4599545 -2.8575642 14.55447
2.1298707 -2.4507332 8.8838215
2.8203526 -3.2271416 8.9256516
3.6322484 -4.1430836 9.082593
4.2128582 -4.7935796 8.5251913
5.0681009 -5.7566237 8.3927917
2.9854896 -3.3684611 4.5029893
3.0734792 -3.4640999 3.8164794
8.0955839 -9.1150093 8.0774193
10.386113 -11.685781 8.2703581
13.924552 -15.634048 4.0662994
6.3050547 -7.134006 8.5609932
7.5465698 -8.5297756 8.3763237
9.2968302 -10.500709 8.3271017
11.057523 -12.476254 7.7941227
14.601072 -16.445568 3.159508
0.026794562 -0.084200181 8.7039413
0.88898617 -1.0584452 8.787364
2.2730374 -2.6722233 16.889793
1.8988837 -2.2018931 9.3423748
2.4115369 -2.77686 8.7240028
3.0997148 -3.5543418 8.7100325
3.7961948 -4.3407979 8.542017
4.6404099 -5.2949839 8.5060797
0.30294365 -0.43130043 8.954464
0.58013165 -0.76329023 8.8988028
2.4540482 -2.8709111 14.578667
2.1179209 -2.4542329 8.8697424
2.8219116 -3.251765 8.9661627
3.6211886 -4.1596718 9.0911255
4.1941185 -4.8059855 8.5212011
5.036819 -5.761517 8.3744154
2.9737134 -3.3788619 4.5029893
3.0613685 -3.4748073 3.8164794
8.0415907 -9.1181231 8.0554876
10.336466 -11.712 8.263402
13.847115 -15.656801 4.0597711
6.3096685 -7.1896477 8.6008997
7.5114141 -8.5499926 8.3704367
9.2515802 -10.523383 8.3195009
11.019901 -12.521588 7.7983184
14.501005 -16.448145 3.1505294
0.02649075 -0.084250659 8.6989422
0.88528603 -1.0615419 8.787364
2.27355 -2.6918106 16.963223
1.8892444 -2.2062402 9.3328304
2.3941746 -2.7763834 8.6963882
3.0794501 -3.5560877 8.6880875
3.775485 -4.3476491 8.5296183
4.6176906 -5.306314 8.4984045
0.30209365 -0.43330464 8.9744301
0.57682258 -0.76445889 8.8888607
2.4326253 -2.8660426 14.510915
2.1059728 -2.45768 8.8556652
2.824754 -3.2780874 9.0111752
3.6083524 -4.1742597 9.0953913
4.1753435 -4.8183188 8.517211
5.0033431 -5.7637038 8.3523645
2.959554 -3.3865359 4.4994845
3.0569091 -3.4942613 3.8258948
7.9794116 -9.111536 8.0253315
10.286762 -11.738015 8.2564459
13.763205 -15.671823 4.0513773
6.3139691 -7.2454071 8.6408052
7.4762087 -8.5700684 8.3645506
9.2062855 -10.545871 8.311902
11.023909 -12.614657 7.8318877
14.397837 -16.446499 3.1408598
0.026196498 -0.084342621 8.6989422
0.88058442 -1.0634284 8.7774858
2.2739534 -2.7114336 17.036652
1.8786312 -2.2094097 9.3185148
2.3882804 -2.7891757 8.7101955
3.0514038 -3.5486553 8.6441965
3.7602861 -4.3608017 8.5296183
4.597044 -5.3199749 8.4945669
0.30139691 -0.43554613 8.9993887
0.57478875 -0.76732165 8.8988028
1.4619714 -1.7345341 8.7713585
2.0929081 -2.4597588 8.8368931
2.8260312 -3.3028147 9.0516853
3.5886633 -4.1808925 9.082593
4.1565342 -4.8305807 8.5132217
4.97434 -5.7708621 8.3376646
2.9477146 -3.3968463 4.4994845
3.0446932 -3.5049105 3.8258948
7.9173756 -9.1046257 7.9951754
10.237001 -11.763826 8.2494888
13.679358 -15.686448 4.042984
6.3179574 -7.3012848 8.6807117
7.4409552 -8.590003 8.3586645
9.1609468 -10.568172 8.3043032
11.045248 -12.728475 7.8780446
14.285109 -16.433121 3.1291182
0.025901929 -0.084433548 8.6989422
0.876867 -1.0664958 8.7774858
2.2651262 -2.7201371 17.041546
1.8477982 -2.1885788 9.2039871
2.3747337 -2.79303 8.6963882
3.0374432 -3.5574636 8.6398067
3.7450411 -4.3739009 8.5296183
4.5700974 -5.3262591 8.4792175
0.30052546 -0.43754944 9.0193548
0.57115406 -0.76803917 8.8838892
1.4599407 -1.7444469 8.7955551
2.0831957 -2.4657309 8.8322001
2.8285799 -3.3292499 9.0966978
3.5706639 -4.1894236 9.0740614
4.1376896 -4.8427696 8.5092316
4.9541655 -5.7881908 8.3376646
2.9358397 -3.407115 4.4994845
3.0298979 -3.5125697 3.8227565
7.855485 -9.097393 7.9650192
10.187186 -11.789433 8.2425327
13.595579 -15.700682 4.0345902
13.794945 -15.919697 1.9840732
6.3143334 -7.3487821 8.7106409
7.4056535 -8.6097956 8.3527784
9.1155653 -10.590283 8.2967033
11.04519 -12.818525 7.9095154
14.16618 -16.411659 3.1159954
0.025616331 -0.084566087 8.7039413
0.87215638 -1.0683459 8.7676067
2.2621047 -2.7358749 17.090498
1.8286406 -2.1812875 9.1467228
2.3624489 -2.7983167 8.6871834
3.0265553 -3.5698714 8.6441965
3.7279277 -4.3848023 8.525485
4.5431628 -5.3324194 8.4638672
0.29980558 -0.43979114 9.0443144
0.56941789 -0.77131575 8.8988028
1.4466133 -1.7408309 8.7519999
2.0723579 -2.4703436 8.8228159
2.8295748 -3.354079 9.1372089
3.5526488 -4.1978807 9.0655289
4.1188102 -4.8548851 8.5052414
2.9239285 -3.4173422 4.4994845
6.7092514 -7.8332705 8.3986263
7.7910209 -9.0866671 7.9321218
10.137319 -11.814836 8.2355766
13.515069 -15.718246 4.0271292
13.651592 -15.86583 1.972002
6.2062469 -7.2742028 8.5975742
7.3703041 -8.629446 8.3468914
9.0477343 -10.585992 8.2688389
11.056437 -12.922524 7.9493785
14.086247 -16.43469 3.1111605
0.025320984 -0.084654987 8.7039413
0.86842191 -1.0713838 8.7676067
2.2557714 -2.74769 17.114975
1.8028723 -2.1658585 9.0560551
2.3514118 -2.8050489 8.68258
3.0125337 -3.5785823 8.6398067
3.7125988 -4.3977885 8.525485
4.5162411 -5.3384576 8.4485168
0.29907364 -0.44203305 9.069272
0.56672204 -0.77329868 8.8988028
1.439728 -1.7449002 8.7471609
2.0659308 -2.4802141 8.8322001
2.83043 -3.3789551 9.1777201
3.5346186 -4.2062631 9.0569983
4.0998974 -4.8669286 8.5012512
4.8808398 -5.783772 8.2825365
2.9119821 -3.4275279 4.4994845
6.6667371 -7.8388524 8.3797951
7.7375708 -9.088336 7.9101901
10.087397 -11.840033 8.2286196
13.428224 -15.727966 4.0178032
6.1590962 -7.2701826 8.5676441
7.334908 -8.6489553 8.3410053
8.9856234 -10.587928 8.2460394
11.0524 -13.009463 7.9787507
13.945346 -16.385708 3.0932028
0.025025329 -0.084742859 8.7039413
0.8641898 -1.0738032 8.7626677
2.258388 -2.7705433 17.207985
1.7677255 -2.1387696 8.9176683
2.3391063 -2.8102365 8.6733751
3.0000236 -3.589076 8.6398067
3.6954176 -4.408565 8.5213528
4.4872708 -5.3419185 8.4293289
0.29832974 -0.4442752 9.0942297
0.56433237 -0.77570361 8.9037743
1.4336284 -1.7499152 8.7471609
2.0638595 -2.4953897 8.8603573
2.8325381 -3.4055514 9.2227316
3.5165727 -4.21457 9.0484657
4.0809503 -4.8788986 8.497261
4.8693304 -5.8111682 8.2972374
2.9000001 -3.4376717 4.4994845
6.6343117 -7.8561282 8.373518
7.6815038 -9.0865507 7.8855166
10.040283 -11.868408 8.2239819
13.357359 -15.75601 4.0131402
6.0880141 -7.237349 8.5044594
7.2994666 -8.6683226 8.3351192
8.934721 -10.602747 8.2333746
11.044966 -13.093062 8.0060253
13.827332 -16.362423 3.08008
0.024729369 -0.084829696 8.7039413
0.8604362 -1.0768132 8.7626677
2.2576706 -2.7894909 17.276516
1.7621429 -2.1472352 8.9272127
2.3292825 -2.8183844 8.6733751
2.9874771 -3.5995264 8.6398067
3.680006 -4.4214377 8.5213528
4.4644904 -5.3526263 8.4216537
0.29741445 -0.44627681 9.1141968
0.56162119 -0.77766877 8.9037743
1.4267184 -1.7539338 8.742321
2.0628018 -2.5119145 8.8932066
2.8317225 -3.4288468 9.2587414
3.4985118 -4.2228031 9.0399342
4.0638947 -4.8931141 8.497261
4.8555207 -5.8359485 8.3082628
2.8856926 -3.4450395 4.4959798
6.5968447 -7.8673086 8.3609648
7.6255441 -9.0844841 7.8608437
9.9902468 -11.893208 8.2170258
13.254827 -15.746168 3.9991505
6.0722885 -7.2700186 8.5177622
7.263978 -8.6875477 8.3292332
8.8478603 -10.57436 8.1877766
11.039994 -13.180246 8.0353985
13.661908 -16.28161 3.0565968
0.024433108 -0.084915504 8.7039413
0.85667223 -1.0798101 8.7626677
2.2587614 -2.810849 17.359737
1.7885785 -2.1950343 9.0990028
2.3181913 -2.8249876 8.6687727
2.974894 -3.6099327 8.6398067
3.6627574 -4.4320869 8.5172195
4.4539571 -5.3780522 8.4370041
0.29648885 -0.44827738 9.1341629
0.55890322 -0.77962452 8.9037743
1.4205872 -1.7589033 8.742321
2.0540211 -2.5190997 8.8932066
2.8432019 -3.4673285 9.3352623
3.4837501 -4.2349892 9.0399342
4.0448728 -4.9049449 8.4932709
4.8480749 -5.8685436 8.3303137
2.8713694 -3.4523497 4.4924755
6.5693426 -7.8902879 8.3609648
7.5723686 -9.08535 7.838912
9.9401588 -11.917803 8.2100697
13.158827 -15.743341 3.9870265
6.0564079 -7.3026667 8.531064
7.2284451 -8.7066307 8.3233461
8.8301802 -10.628392 8.2055092
11.034549 -13.267553 8.0647707
13.614499 -16.340612 3.0586689
0.024136549 -0.085000269 8.7039413
0.8528977 -1.082794 8.7626677
2.2527456 -2.8234918 17.389107
1.7978036 -2.2221539 9.1848993
2.308316 -2.8330624 8.6687727
2.962275 -3.620295 8.6398067
3.6454794 -4.4426699 8.5130863
4.4392285 -5.3985181 8.4446793
0.29555288 -0.450277 9.15413
0.55617845 -0.78157067 8.9037743
1.4136525 -1.7628706 8.7374811
2.0452154 -2.5262542 8.8932066
2.8338296 -3.480608 9.344264
3.4705958 -4.2491441 9.0441999
4.0258179 -4.9167032 8.4892807
4.8340101 -5.8932939 8.3413391
2.8570299 -3.4596016 4.4889712
6.5367999 -7.9071712 8.3546877
7.5086184 -9.0730705 7.8060141
9.8900204 -11.942191 8.2031126
13.078697 -15.758942 3.9795656
6.0285058 -7.3208799 8.5277376
7.1928668 -8.7255716 8.3174601
8.77108 -10.632545 8.1852436
11.031518 -13.358483 8.096242
13.56369 -16.395668 3.0600502
0.023839695 -0.085084006 8.7039413
0.84911293 -1.0857644 8.7626677
2.2517264 -2.8425128 17.45764
1.8106 -2.25402 9.2898836
2.2984126 -2.8411026 8.6687727
2.9496198 -3.6306133 8.6398067
3.6299491 -4.455368 8.5130863
4.4264383 -5.4214292 8.456192
0.29444975 -0.45203313 9.1691055
0.55406094 -0.78437883 8.9137182
1.4067075 -1.7668109 8.7326431
2.0342226 -2.5306878 8.8838215
2.8148205 -3.4820142 9.3217592
3.4557426 -4.2612329 9.0441999
4.0086312 -4.9307261 8.4892807
4.8219728 -5.9206467 8.35604
2.8449364 -3.4695537 4.4889712
6.5066891 -7.9269314 8.3515491
7.4636288 -9.0830727 7.7923069
9.8398333 -11.966376 8.1961565
12.976748 -15.747633 3.9655762
5.9958253 -7.3332076 8.5177622
7.1572452 -8.7443714 8.311574
11.030864 -13.453063 8.1298113
13.481231 -16.412302 3.0545249
0.023542551 -0.085166708 8.7039413
0.84531772 -1.0887219 8.7626677
2.2461965 -2.8559582 17.491909
1.8055128 -2.2638273 9.3041983
2.2884812 -2.8491082 8.6687727
2.938432 -3.6427512 8.6441965
3.6126051 -4.4658237 8.5089531
4.4115243 -5.4418273 8.4638672
0.29318199 -0.45354402 9.1790886
0.55070853 -0.78543442 8.9037743
1.3997524 -1.7707244 8.7278032
2.0242999 -2.5364242 8.8791285
2.8040116 -3.4935162 9.3262596
3.4424825 -4.275301 9.0484657
3.9895022 -4.9423437 8.4852905
4.8098025 -5.9479871 8.3707399
2.8305564 -3.4766974 4.4854665
6.474061 -7.9435611 8.3452721
7.4345207 -9.1123104 7.7950487
9.7895985 -11.990357 8.1892004
12.903037 -15.770025 3.9599807
6.9397426 -8.5484018 9.8878679
7.1241293 -8.7661648 8.3086309
8.7129583 -10.713588 8.2004423
11.001029 -13.512603 8.1423998
13.317445 -16.328785 3.0310416
0.02324512 -0.085248359 8.7039413
0.84103799 -1.0910504 8.7577286
2.2412262 -2.8702021 17.531069
1.7948201 -2.2666051 9.2898836
2.278522 -2.857079 8.6687727
2.9286931 -3.6567249 8.6529741
3.5952327 -4.4762135 8.5048208
4.3925014 -5.4571934 8.4638672
0.29190725 -0.4550516 9.1890717
0.55009139 -0.79041713 8.9385748
1.3927869 -1.7746108 8.7229643
2.0143621 -2.5421221 8.8744354
2.7863731 -3.4964731 9.3082552
3.4291668 -4.2893286 9.0527315
3.9703417 -4.9538884 8.4813013
4.7975011 -5.9753146 8.3854408
2.8184032 -3.4865568 4.4854665
6.4413967 -7.9600601 8.338995
3.8152149 -4.709651 4.0584302
9.7393169 -12.014133 8.1822443
12.736405 -15.677712 3.9264064
6.9168906 -8.581296 9.8978443
7.0884089 -8.784688 8.3027449
8.6998806 -10.774121 8.2232409
10.965205 -13.565039 8.1507912
13.198035 -16.298201 3.0172281
0.022955351 -0.085371889 8.7089415
0.83722442 -1.0939795 8.7577286
2.2343125 -2.8820319 17.555544
1.7859747 -2.271683 9.2851114
2.2673225 -2.8634834 8.6641703
2.9174016 -3.6688006 8.6573639
3.5778313 -4.4865351 8.5006876
4.373426 -5.4724927 8.4638672
0.29047135 -0.45631182 9.1940632
1.0914594 -1.5819786 17.882311
1.3858114 -1.7784702 8.7181244
2.0044091 -2.5477817 8.8697424
2.7673976 -3.4976416 9.2857494
3.4174161 -4.3053584 9.061264
3.9530253 -4.9677176 8.4813013
4.7829542 -5.9999781 8.3964672
2.8039837 -3.4935923 4.4819617
6.4111338 -7.9794621 8.3358574
3.8013725 -4.7261982 4.0611715
9.6889868 -12.037703 8.1752872
12.650761 -15.683839 3.9170799
6.8962255 -8.6170483 9.9111462
7.0526471 -8.8030682 8.2968578
8.662219 -10.804423 8.2232409
10.966083 -13.663404 8.1864586
13.088313 -16.278561 3.0054862
0.022657206 -0.085451499 8.7089415
0.83387047 -1.0975142 8.7626677
1.1158009 -1.4494377 8.817565
1.7789525 -2.2790802 9.2898836
2.2561059 -2.8698444 8.6595669
2.9060614 -3.6808417 8.6617527
3.5604017 -4.4967904 8.4965553
4.3523045 -5.4852147 8.4600296
0.28887674 -0.45732298 9.1940632
1.0829214 -1.5813791 17.832596
1.3788259 -1.7823023 8.7132845
1.9944416 -2.5534034 8.8650503
2.7497926 -3.5004325 9.2677441
3.3910666 -4.3029218 9.0314016
3.9337928 -4.9791212 8.4773111
4.7682924 -6.024611 8.4074917
2.7917717 -3.5033588 4.4819617
6.3735328 -7.9896216 8.3233032
3.7639773 -4.7132998 4.0392394
9.6386127 -12.061069 8.1683311
12.56523 -15.689561 3.9077537
6.8498454 -8.6206055 9.8878679
7.0168433 -8.8213062 8.2909718
8.6190815 -10.827848 8.2181749
10.926805 -13.712248 8.1927519
12.753357 -15.975838 2.9433253
0.022366431 -0.085573018 8.7139416
0.83003438 -1.1004182 8.7626677
1.1113528 -1.454133 8.8224602
1.770072 -2.2840958 9.2851114
2.2460744 -2.8777025 8.6595669
2.8961496 -3.6947327 8.6705303
3.5446835 -4.509191 8.4965553
4.3331304 -5.5003734 8.4600296
0.28727862 -0.45832857 9.1940632
1.0767959 -1.5842675 17.822653
1.3718306 -1.7861074 8.7084455
1.9855164 -2.5603497 8.8650503
2.7308636 -3.5014269 9.2452383
3.3712049 -4.3085704 9.0186043
3.9145286 -4.9904518 8.473321
4.7493281 -6.0438852 8.4111671
2.7773128 -3.5102856 4.478457
6.3673544 -8.0392818 8.3515491
3.7293169 -4.703474 4.0200496
9.5881939 -12.084231 8.161375
11.505628 -14.490452 7.5639248
2.7657616 -3.5057423 4.0582662
6.9809985 -8.8394022 8.2850857
8.5732145 -10.847723 8.2105751
10.881691 -13.753866 8.1948509
12.220739 -15.418718 2.8362699
0.02206759 -0.085650571 8.7139416
0.82665372 -1.103931 8.7676067
1.1099621 -1.4628708 8.8518314
1.7620881 -2.2902606 9.2851114
2.2360158 -2.885525 8.6595669
2.884706 -3.7067099 8.6749191
3.5271904 -4.5193191 8.4924221
4.3119297 -5.5129404 8.456192
0.28552529 -0.45908293 9.1890717
1.0712593 -1.5880166 17.822653
1.3648255 -1.7898856 8.7036057
1.9755142 -2.5658972 8.8603573
2.7119606 -3.5023313 9.2227316
3.3513451 -4.3141332 9.005806
3.8970847 -5.0040855 8.473321
4.7302876 -6.0630989 8.4148426
2.7628398 -3.5171547 4.4749527
6.3392534 -8.0614586 8.3515491
3.7077031 -4.7098918 4.0145664
9.5349865 -12.103706 8.1520996
11.457847 -14.534168 7.5657983
11.968378 -15.160012 3.7585347
2.751205 -3.5124359 4.0549407
6.9476066 -8.8605366 8.2821426
8.5299749 -10.870801 8.2055092
10.788759 -13.734663 8.1612816
12.711949 -16.15399 2.9592109
0.021768479 -0.085727081 8.7139416
0.82325858 -1.1074334 8.7725468
1.1066864 -1.4691767 8.8665171
1.7531769 -2.2952113 9.2803392
2.2247386 -2.8917644 8.6549654
2.8717499 -3.7167568 8.6749191
3.5113938 -4.5316033 8.4924221
4.2906938 -5.5254269 8.4523544
0.28392106 -0.46007678 9.1890717
1.0627464 -1.587315 17.772936
1.3585691 -1.7946388 8.7036057
1.9644499 -2.5700352 8.8509722
2.6917582 -3.5014207 9.1957245
3.326709 -4.3134141 8.9802113
3.8777504 -5.0152745 8.4693308
4.7070189 -6.0768938 8.4111671
2.7461596 -3.5211527 4.4679437
6.3422132 -8.1234226 8.3923492
3.6835153 -4.7129216 4.0063419
9.4844913 -12.126448 8.1451426
11.404185 -14.570423 7.5639248
11.979024 -15.282887 3.7781196
2.7389276 -3.522018 4.0549407
6.9116693 -8.8783541 8.2762556
8.4840288 -10.890307 8.1979094
10.729585 -13.757921 8.1528893
12.597558 -16.124121 2.9460881
0.021469103 -0.085802548 8.7139416
0.81984919 -1.1109259 8.7774858
1.1009417 -1.4722153 8.8616219
1.7442526 -2.3001275 9.2755671
2.2158167 -2.9010649 8.6595669
2.8602159 -3.7286592 8.6793089
3.4938381 -4.5416021 8.4882889
4.2694235 -5.5378323 8.4485168
0.28216341 -0.46081838 9.1840801
1.058673 -1.5932359 17.797796
1.3522966 -1.7993702 8.7036057
1.9533806 -2.5741272 8.8415861
2.6755574 -3.505604 9.1822205
3.3211451 -4.3374248 9.005806
3.8602202 -5.02878 8.4693308
4.6857777 -6.093287 8.4111671
2.7316682 -3.5278976 4.4644389
6.3257413 -8.1608934 8.408042
3.6593516 -4.7158403 3.9981177
9.4339542 -12.148985 8.1381865
11.333344 -14.584518 7.5508137
12.179018 -15.65025 3.8564599
2.7266169 -3.5315573 4.0549407
6.8806362 -8.9024267 8.2762556
8.4380512 -10.909626 8.1903095
10.670382 -13.780937 8.1444969
11.988798 -15.455848 2.820384
0.021169465 -0.085876964 8.7139416
0.81550729 -1.1131539 8.7725468
1.0951891 -1.4752316 8.8567266
1.7344176 -2.3038168 9.2660227
2.2056766 -2.908782 8.6595669
2.8486342 -3.7405257 8.6836977
3.4779637 -4.5537705 8.4882889
4.2481189 -5.5501561 8.4446793
0.280404 -0.46155331 9.1790886
1.0531052 -1.5969217 17.797796
1.3460072 -1.8040795 8.7036057
1.9423064 -2.5781732 8.8322001
2.6541014 -3.5027759 9.150712
3.3028278 -4.3448386 8.9972744
3.8408165 -5.0398273 8.4653406
4.6624222 -6.1069117 8.4074917
2.7171638 -3.5345843 4.4609346
6.3233275 -8.216856 8.442564
3.637764 -4.7219601 3.9926348
9.3833752 -12.171317 8.1312304
11.279533 -14.620319 7.5489407
12.124315 -15.692668 3.8564599
2.7120011 -3.5380898 4.0516152
6.8470578 -8.9231825 8.2733126
8.3920412 -10.928756 8.1827097
10.605616 -13.79651 8.1319084
11.96801 -15.54076 2.8279815
0.020862676 -0.085907251 8.7089415
0.81298721 -1.1178794 8.787364
1.089429 -1.4782258 8.8518314
1.7254715 -2.3086612 9.2612505
2.1966846 -2.9180243 8.6641703
2.8442256 -3.761909 8.7100325
3.4620469 -4.5658832 8.4882889
4.2267799 -5.5623989 8.4408417
0.27864295 -0.46228164 9.1740971
1.047816 -1.601034 17.802767
1.3397018 -1.8087671 8.7036057
1.9312284 -2.5821738 8.8228159
2.6340067 -3.5015807 9.1237049
3.8213828 -5.0508003 8.4613504
4.6390285 -6.1204481 8.4038162
2.7048092 -3.5440474 4.4609346
6.2946072 -8.2388783 8.442564
3.616179 -4.7279873 3.9871519
9.3327551 -12.193444 8.1242743
11.219975 -14.648563 7.5433221
2.6996343 -3.5475349 4.0516152
6.8158689 -8.9470291 8.2733126
8.3460016 -10.9477 8.1751108
10.557392 -13.833447 8.1319084
11.985877 -15.676858 2.844558
0.020562679 -0.085979551 8.7089415
0.80680692 -1.1175598 8.7626677
1.0842624 -1.4820195 8.8518314
1.7156235 -2.3122725 9.2517061
2.1876547 -2.9272394 8.6687727
2.8397028 -3.7833071 8.7363663
3.4443955 -4.5756917 8.4841557
4.2073379 -5.5771194 8.4408417
0.27688017 -0.46300322 9.1691055
1.042221 -1.6046818 17.802767
1.3333796 -1.8134325 8.7036057
1.9191172 -2.5847425 8.8087368
2.6061375 -3.4898224 9.0696898
3.1739004 -4.2362947 8.7285204
3.8019195 -5.0616994 8.4573603
4.6155977 -6.1338949 8.4001417
2.6902676 -3.5506244 4.4574299
6.3010931 -8.3073177 8.4896412
3.5945954 -4.7339206 3.9816689
9.282095 -12.215365 8.1173172
11.163161 -14.680259 7.5395756
2.6872346 -3.556937 4.0516152
6.784596 -8.970767 8.2733126
8.3025322 -10.969891 8.1700439
10.525484 -13.891919 8.1444969
0.020165758 -0.086028837 8.7039413
0.80107993 -1.120717 8.7577286
1.0754749 -1.4846385 8.8371449
1.7029408 -2.3179257 9.2421637
2.1749985 -2.9390864 8.6733751
2.8304152 -3.8081806 8.762701
3.4219937 -4.5924697 8.4841557
4.1781149 -5.5950456 8.4370041
0.27438706 -0.46414974 9.164114
1.0343735 -1.6103851 17.807739
1.3238665 -1.8203892 8.7036057
1.9065785 -2.5961466 8.8134298
2.589123 -3.5051715 9.0741911
3.1470172 -4.2465687 8.715723
3.7753642 -5.0815368 8.4573603
4.5803199 -6.1560583 8.3964672
2.6741278 -3.5627959 4.4574299
6.2867117 -8.3669434 8.5210257
3.5680497 -4.7435002 3.976186
9.2137737 -12.244812 8.1080418
11.085491 -14.721589 7.5339561
2.6669617 -3.567502 4.0482893
6.7366824 -9.0017557 8.2703695
8.2417345 -11.004872 8.164978
12.273919 -16.353252 2.9440157
0.01995549 -0.086077854 8.7039413
1.6251248 -2.2852266 17.826206
1.0721036 -1.4870749 8.8371449
1.6910331 -2.3118482 9.2039871
2.1769495 -2.9546456 8.7055922
2.8324051 -3.8275769 8.7934246
3.4122953 -4.5961757 8.4800224
4.16643 -5.5997577 8.4331665
0.27330133 -0.46378481 9.1491385
1.0321239 -1.6118279 17.807739
1.3223794 -1.8230227 8.7084455
1.9099785 -2.6064937 8.8415861
2.5932002 -3.5183957 9.1011992
3.1239617 -4.2246981 8.6645317
3.7691333 -5.0824089 8.4533701
4.5739989 -6.1565328 8.3927917
2.6654143 -3.5693192 4.4574299
6.2234221 -8.3219614 8.4613953
3.5497601 -4.7415419 3.9679618
9.1827974 -12.256992 8.103405
11.082241 -14.776223 7.5508137
2.6642089 -3.5742159 4.0516152
6.7232614 -9.0067396 8.2674265
8.2231245 -11.008026 8.1599121
12.259645 -16.363956 2.9440157
0.01963358 -0.086107239 8.6989422
1.6167382 -2.2911677 17.826206
1.0630922 -1.486025 8.8077745
1.6672425 -2.2977843 9.1228638
2.1713524 -2.9708695 8.7286062
2.8247733 -3.8480775 8.8153696
3.3921494 -4.6075702 8.4758902
4.1420145 -5.6138582 8.4293289
0.27069634 -0.4639737 9.1291723
1.0250813 -1.6163158 17.807739
1.3144122 -1.8287754 8.7084455
1.9072533 -2.6277037 8.8838215
2.578491 -3.5318851 9.1057005
3.0893478 -4.2177901 8.6218719
3.7433579 -5.0976853 8.4493799
4.5469451 -6.1807499 8.3964672
2.6523144 -3.5790646 4.4574299
6.1821456 -8.333292 8.4488411
3.5265417 -4.7484231 3.9624786
9.1250963 -12.27794 8.0941296
11.042204 -14.84663 7.5639248
2.6447766 -3.5793388 4.0449643
6.6814957 -9.0327415 8.2644835
8.1698847 -11.036871 8.1548452
12.149848 -16.371702 2.9357278
0.019197503 -0.086205505 8.6989422
1.5971621 -2.2887683 17.742239
2.1265323 -3.0062118 17.726879
1.6434759 -2.2910028 9.0608273
2.1598234 -2.9889081 8.747015
2.8165724 -3.8807495 8.8548717
3.3647077 -4.6241684 8.4717579
4.1087084 -5.6343141 8.4254913
0.26744652 -0.46452248 9.1092052
1.0157549 -1.6221932 17.807739
1.3045852 -1.8373404 8.7132845
1.8996689 -2.6501961 8.9213629
2.557487 -3.5471239 9.1057005
3.0550935 -4.2233696 8.5962772
3.7103798 -5.1180177 8.4453907
4.5031276 -6.200181 8.3854408
2.634165 -3.5924432 4.4574299
6.1246123 -8.3467188 8.4300108
3.494204 -4.7567129 3.9542544
9.0580597 -12.32198 8.0918102
11.03587 -15.006995 7.6144967
2.637326 -3.6126058 4.0649171
6.6230078 -9.0657024 8.2585974
8.0991592 -11.078198 8.1497784
10.709311 -14.637726 8.4717941
12.020345 -16.405668 2.9288211
0.018896472 -0.086271994 8.6989422
1.5957577 -2.3029945 17.811388
2.1171367 -3.01408 17.731773
1.6215452 -2.2754877 8.9797039
2.1595364 -3.0083756 8.7838354
2.8183732 -3.9090064 8.8987627
3.3476751 -4.629571 8.4634914
4.0900917 -5.6438842 8.4216537
0.26565912 -0.46421701 9.0892391
1.0112231 -1.6243941 17.802767
1.2997706 -1.8407495 8.7132845
1.9012024 -2.6660707 8.9589052
2.5462747 -3.5498245 9.0966978
3.0432415 -4.2287045 8.5920115
3.6987579 -5.1264234 8.4453907
4.4969926 -6.2213721 8.4001417
2.621609 -3.6016164 4.4574299
6.0854387 -8.3512535 8.414319
3.4808757 -4.7716522 3.956996
8.996254 -12.323328 8.0732603
11.0461 -15.120205 7.653831
2.6206486 -3.6108913 4.0549407
6.5968747 -9.0797405 8.2556543
8.0650587 -11.09239 8.1447124
10.625437 -14.5978 8.4340286
11.968501 -16.412893 2.9253674
0.018595211 -0.086337432 8.6989422
1.5903504 -2.3123922 17.841024
2.1048558 -3.0189462 17.717089
1.5911821 -2.2494478 8.8556318
2.1478882 -3.0143044 8.779233
2.8256187 -3.9480348 8.9645987
3.3282125 -4.6366558 8.455225
4.0684943 -5.6555252 8.4178162
0.2634702 -0.46413544 9.069272
1.0055468 -1.6279141 17.802767
1.2933372 -1.8452753 8.7132845
1.8998601 -2.683959 8.9964476
2.550282 -3.5817449 9.1552134
3.0284619 -4.2393022 8.5920115
3.6790862 -5.1368527 8.4414005
2.4633 -3.4329805 4.6588244
2.6111102 -3.6136365 4.4609346
6.0539689 -8.3692923 8.4111805
3.4617457 -4.7803869 3.9542544
8.9401855 -12.33672 8.0616665
11.047685 -15.233727 7.6912909
2.6080282 -3.6200171 4.0549407
6.5604124 -9.0961561 8.2497673
8.021244 -11.113483 8.1396465
11.887907 -16.422482 2.9198422
0.018293725 -0.086401813 8.6989422
1.5787649 -2.3127949 17.80151
2.0948839 -3.0271122 17.721983
1.595328 -2.2720923 8.9224405
2.1396096 -3.0249736 8.7884378
2.8312387 -3.9852085 9.0260468
3.3087413 -4.6436615 8.4469595
4.048728 -5.6696925 8.4178162
0.2612851 -0.46404433 9.0493059
0.99957991 -1.6309595 17.797796
1.2868881 -1.8497785 8.7132845
1.8984159 -2.7018709 9.0339899
2.5327382 -3.5835145 9.1372089
3.0121369 -4.2477202 8.5877447
3.6611328 -5.1496639 8.4414005
2.4434345 -3.4305127 4.6441236
2.6005585 -3.6256266 4.4644389
6.0020161 -8.3587561 8.3797951
3.4279532 -4.7686749 3.9350638
8.9306974 -12.414601 8.0918102
11.05403 -15.354972 7.7324977
6.5239143 -9.1124277 8.2438812
7.9773808 -11.134408 8.1345797
11.836287 -16.47192 2.9212236
0.017997477 -0.086508438 8.7039413
1.5728608 -2.3215084 17.826206
2.0837283 -3.033567 17.717089
1.5950677 -2.2886696 8.9653883
2.132405 -3.037221 8.8022461
2.8366334 -4.022469 9.0874929
3.2876372 -4.6482906 8.4345608
4.0270596 -5.6811757 8.4139795
0.25896388 -0.46369106 9.0243473
0.99388069 -1.6344388 17.797796
1.2804233 -1.8542594 8.7132845
1.8948957 -2.716974 9.0621462
2.4939597 -3.5549078 9.0426826
2.9972916 -4.2582083 8.5877447
3.6413975 -5.1599503 8.4374104
2.4294877 -3.4362524 4.6404486
2.579613 -3.6230614 4.4504209
5.9863567 -8.398674 8.3986263
7.0350022 -9.8589973 8.0253315
8.9542389 -12.53943 8.1520996
11.046186 -15.457585 7.7643399
6.4897256 -9.1318502 8.2409382
7.9334688 -11.15516 8.1295137
11.72408 -16.436537 2.9081004
0.017695395 -0.08657074 8.7039413
0.7775467 -1.1559473 8.856514
2.0731266 -3.0408223 17.717089
1.6108446 -2.328598 9.0990028
2.1184392 -3.0398371 8.7884378
2.8404288 -4.0578537 9.1445513
3.2713916 -4.6597385 8.4345608
4.0072036 -5.6951985 8.4139795
0.25678745 -0.46358028 9.0043812
0.9876191 -1.6369848 17.787853
1.2739429 -1.8587177 8.7132845
1.9001323 -2.7448559 9.1325378
2.4404845 -3.504637 8.8941431
2.9809155 -4.2665067 8.5834789
3.623364 -5.1726298 8.4374104
2.4135833 -3.4391618 4.6330981
2.5648925 -3.629132 4.4469166
6.9214349 -9.7826433 9.7450237
3.4066629 -4.8095512 3.9487712
8.9795809 -12.668187 8.2147074
11.037759 -15.56033 7.7961812
6.4531498 -9.1478415 8.2350521
7.8870234 -11.172219 8.1219139
15.172029 -21.436129 6.4247847
11.638019 -16.436945 2.9011939
0.017393099 -0.086631976 8.7039413
0.77178192 -1.1560689 8.8367567
2.0624995 -3.0480402 17.717089
1.6119995 -2.3477435 9.151495
2.1078153 -3.0472133 8.7884378
2.8426449 -4.0913463 9.1972198
3.2567148 -4.6734376 8.438693
3.9854641 -5.7065234 8.4101419
0.25447667 -0.46320644 8.9794216
0.98189902 -1.6404222 17.787853
1.2674471 -1.8631532 8.7132845
1.9071516 -2.7756517 9.2123156
2.3972929 -3.4683633 8.7816124
2.9660044 -4.2768865 8.5834789
3.6035655 -5.1827722 8.4334211
2.3957508 -3.4392209 4.6220727
2.523536 -3.5971897 4.3978529
6.9006672 -9.8258553 9.763855
7.0237207 -9.9899654 8.0911264
8.9633446 -12.739306 8.2402143
11.031417 -15.666994 7.8298955
5.3456526 -7.6427975 8.3880672
6.4119043 -9.1570673 8.223279
7.8405557 -11.189092 8.1143141
15.147406 -21.560547 6.4458861
11.535013 -16.412643 2.8901429
0.017090593 -0.086692162 8.7039413
0.76945776 -1.1613474 8.856514
2.0518472 -3.0552211 17.717089
1.6088377 -2.3607574 9.1801271
2.09606 -3.0529418 8.7838354
2.8514602 -4.1347623 9.2718344
3.2403815 -4.6847773 8.438693
3.9636943 -5.7177663 8.4063044
0.25230902 -0.46307614 8.9594555
0.97480744 -1.6415474 17.762995
1.2609358 -1.8675661 8.7132845
1.9062009 -2.7951236 9.25455
2.3765514 -3.4641445 8.750104
2.9510574 -4.2872133 8.5834789
3.5854526 -5.1953192 8.4334211
2.3798749 -3.4419856 4.6147227
2.4905853 -3.5767097 4.3628073
6.8551974 -9.8339176 9.7481623
7.0486317 -10.100146 8.1596632
8.9213581 -12.774148 8.2425327
11.027121 -15.777601 7.8654833
5.3295884 -7.6767478 8.4046946
6.3845148 -9.1860313 8.2291651
7.7965269 -11.209313 8.1092482
11.440819 -16.400011 2.8811641
0.016787875 -0.08675129 8.7039413
0.76241225 -1.1594808 8.8219395
2.0411701 -3.0623646 17.717089
1.5972425 -2.361413 9.1610394
2.0853903 -3.0602398 8.7838354
2.8532429 -4.168407 9.3245029
3.2256014 -4.6983795 8.4428263
3.9418943 -5.7289267 8.4024668
0.25000891 -0.46268189 8.9344969
0.97015256 -1.6467777 17.782881
1.2537094 -1.870912 8.7084455
1.9003015 -2.8074768 9.2733212
2.3668952 -3.4760182 8.7591066
2.934603 -4.2953353 8.5792131
3.5655928 -5.2053175 8.429431
2.3640091 -3.4446814 4.6073718
2.4618638 -3.5619118 4.3347707
6.8097548 -9.8417826 9.7324705
7.0085702 -10.117814 8.1541805
10.995762 -15.850279 7.8823404
5.3027592 -7.6953049 8.4046946
6.3799539 -9.248188 8.2644835
7.7500048 -11.225818 8.1016483
11.341216 -16.378778 2.8708038
0.016480248 -0.086765975 8.6989422
0.76090693 -1.1660401 8.8515739
2.0299063 -3.0686219 17.712193
2.0746953 -3.0675004 8.7838354
2.8427126 -4.1842847 9.3376703
3.2091813 -4.7096105 8.4428263
3.9200649 -5.740005 8.3986292
0.24839233 -0.46355176 8.9344969
0.96762282 -1.6556789 17.842539
1.247171 -1.8752768 8.7084455
1.8779809 -2.7954707 9.2123156
2.3474338 -3.4734366 8.7320995
2.9195914 -4.3055525 8.5792131
3.547401 -5.217732 8.429431
2.3481531 -3.4473081 4.6000214
2.4494157 -3.5704837 4.3347707
6.7775631 -9.8687019 9.7356091
6.9661026 -10.13188 8.145956
10.979804 -15.94584 7.9104362
5.2821884 -7.7230129 8.4146709
6.3476329 -9.270402 8.2644835
7.7058992 -11.24569 8.0965824
11.250316 -16.369291 2.8625157
0.016177278 -0.086822979 8.6989422
0.75809854 -1.170646 8.8663921
2.0191824 -3.0756888 17.712193
2.4869061 -3.7328203 14.386361
2.0639753 -3.0747237 8.7838354
2.8254113 -4.1902099 9.3288918
3.1927221 -4.7207837 8.4428263
3.8982065 -5.7510004 8.3947916
0.24636881 -0.4636499 8.9195223
0.95863229 -1.6535106 17.782881
1.2399253 -1.8785697 8.7036057
1.8662971 -2.7991374 9.2029295
2.3316569 -3.4761856 8.7185965
2.9030883 -4.3135538 8.5749474
3.5274808 -5.2275853 8.4254408
2.3342073 -3.4526753 4.5963464
2.4429586 -3.5878556 4.3452845
6.7386889 -9.8858681 9.729332
6.9236226 -10.145774 8.1377316
10.968545 -16.049135 7.9422774
5.2572951 -7.7444935 8.4179964
6.3629456 -9.3627062 8.3262901
7.6593246 -11.261827 8.0889826
10.414542 -15.29575 8.6417351
11.179154 -16.388008 2.8590622
0.015878513 -0.086922333 8.7039413
0.75316781 -1.1719775 8.856514
2.0084338 -3.0827181 17.712193
2.4788005 -3.7489495 14.414994
2.0543132 -3.0835357 8.7884378
2.8120997 -4.2020373 9.3332815
3.1762242 -4.7318997 8.4428263
3.8781078 -5.7645726 8.3947916
0.24501634 -0.46501869 8.9295053
0.95630592 -1.6628559 17.847509
1.2333604 -1.8828864 8.7036057
1.8289005 -2.7638984 9.0668392
2.3098583 -3.4698062 8.6825867
2.8909106 -4.3279986 8.5834789
3.5075347 -5.2373624 8.4214506
2.318363 -3.4551713 4.5889959
2.4304199 -3.5963612 4.3452845
6.6997776 -9.9028816 9.7230549
6.8858204 -10.166418 8.1349907
10.925468 -16.106508 7.951643
5.2281432 -7.7597013 8.4146709
6.330224 -9.38486 8.3262901
7.6151428 -11.281348 8.0839157
10.508477 -15.550113 8.763423
11.105224 -16.402327 2.854918
0.015575002 -0.086977229 8.7039413
0.74907219 -1.1745994 8.856514
1.9971085 -3.0888553 17.707298
2.4689746 -3.7625716 14.434081
2.0446146 -3.0923176 8.7930412
2.7974145 -4.2118282 9.3332815
3.1596878 -4.7429581 8.4428263
3.8561821 -5.7754087 8.390954
0.24365734 -0.46638373 8.9394884
0.47026193 -0.8232193 8.7993736
1.2260953 -1.8861263 8.6987658
1.7936678 -2.7313185 8.940135
2.2881329 -3.4633169 8.6465769
2.8685808 -4.3271952 8.56215
3.4875638 -5.2470646 8.4174604
2.304409 -3.4604216 4.5853209
2.419838 -3.6077847 4.3487887
6.6608295 -9.9197454 9.7167778
6.8456254 -10.183451 8.1295071
10.897658 -16.186848 7.9722457
5.1989498 -7.7748003 8.4113464
6.2951775 -9.4035406 8.3233461
7.5709186 -11.300698 8.0788498
11.514082 -17.154114 7.2796912
11.028566 -16.41222 2.8500834
0.015275398 -0.087074503 8.7089415
0.74538285 -1.1778637 8.8614531
1.9863141 -3.0958076 17.707298
2.4582694 -3.7749197 14.448398
2.0338078 -3.0994356 8.7930412
2.7813773 -4.2195673 9.3288918
3.1431124 -4.7539587 8.4428263
3.8359988 -5.7888341 8.390954
0.24242377 -0.46800175 8.954464
0.46581194 -0.82207119 8.7695436
1.219504 -1.8903946 8.6987658
1.7662222 -2.710093 8.8509722
2.2652872 -3.4548981 8.6060658
2.8491583 -4.3306451 8.5493517
3.4692268 -5.2592068 8.4174604
2.2904468 -3.465616 4.581646
2.4092057 -3.6191783 4.3522935
6.6240039 -9.9396963 9.7136393
6.8053951 -10.200328 8.1240244
10.879723 -16.282608 8.0003414
5.165585 -7.783567 8.4013691
7.5266523 -11.319878 8.0737839
11.459369 -17.202061 7.2829785
10.962967 -16.438257 2.8480113
0.014971359 -0.087127298 8.7089415
1.484688 -2.3651142 17.752117
1.9754956 -3.1027224 17.707298
2.4547987 -3.7985222 14.505661
2.0229766 -3.1065161 8.7930412
2.7666311 -4.2292504 9.3288918
3.1249549 -4.7625484 8.438693
3.8140078 -5.799511 8.3871164
0.24105079 -0.46935958 8.964448
0.46450335 -0.82648224 8.7993736
1.2122203 -1.8935814 8.6939278
1.7820529 -2.7553666 8.9776773
2.2496519 -3.4573104 8.5925617
2.829747 -4.3340125 8.5365534
3.447547 -5.2662425 8.409481
2.2764764 -3.4707556 4.5779705
2.3965578 -3.6275659 4.3522935
6.5892677 -9.962759 9.7136393
6.765131 -10.217049 8.1185408
10.776702 -16.250942 7.9666271
5.1301689 -7.7890778 8.3880672
7.4823437 -11.338885 8.068717
10.425116 -15.780478 8.8305607
11.391439 -17.230139 7.278048
10.875455 -16.431002 2.8404138
0.014667136 -0.087179027 8.7089415
1.4801197 -2.3762186 17.796572
1.9641091 -3.1087382 17.7024
2.4383018 -3.8020422 14.486573
2.0121202 -3.1135585 8.7930412
2.7505476 -4.2368736 9.3245029
3.1083117 -4.7734275 8.438693
3.7709672 -5.7778945 8.3372288
0.23967126 -0.47071347 8.9744301
0.46006152 -0.82530308 8.7695436
1.2056031 -1.8978012 8.6939278
1.7938606 -2.7949741 9.0856104
2.2422934 -3.4724572 8.6105671
2.8103468 -4.3372979 8.523756
3.4127276 -5.2529759 8.3695803
2.2643473 -3.4786808 4.5779705
2.3877912 -3.6418741 4.359303
5.6232281 -8.566968 8.3452721
6.7271299 -10.237107 8.1157999
8.2788601 -12.588929 7.9735522
10.717361 -16.28459 7.9647541
5.0947776 -7.7944369 8.3747654
6.6921301 -10.226561 8.9826145
7.4072933 -11.31084 8.0307198
10.442133 -15.926843 8.8914042
11.320863 -17.254005 7.2714739
10.788127 -16.423334 2.8328164
0.014362735 -0.087229691 8.7089415
1.4697741 -2.3780656 17.771875
1.9543271 -3.1173007 17.712193
2.4298234 -3.8180861 14.515205
2.0012398 -3.1205633 8.7930412
2.7344449 -4.2444358 9.3201151
3.0916302 -4.7842484 8.438693
3.7124424 -5.7318368 8.2528048
0.23815599 -0.47180539 8.9794216
0.45794997 -0.82830447 8.7844582
1.1983011 -1.9009346 8.6890879
1.8109747 -2.8434303 9.2216997
2.2348566 -3.4875951 8.6285715
2.7909582 -4.3405004 8.5109577
3.3813083 -5.244596 8.3376598
2.2503512 -3.4837155 4.5742955
