# .PCD v0.7 - Point Cloud Data file format
VERSION 0.7
FIELDS x y z
SIZE 4 4 4
TYPE F F F
COUNT 1 1 1
WIDTH 1578
HEIGHT 1
VIEWPOINT 0 0 0 1 0 0 0
POINTS 1578
DATA ascii
0.7217207 0.52708203 8.2922802
0.80745983 0.66404676 4.0625978
0.95006436 0.78870595 3.4120557
1.7410104 1.4533023 4.7530265
4.2624159 3.5691302 9.1636467
2.1322327 1.789901 3.7611022
2.1959896 1.8466673 3.1887586
2.4853907 2.1041198 3.2799027
3.6606226 3.1023057 3.9514332
4.5740528 3.8805063 4.0173078
3.6853514 3.1287689 2.6171243
4.5900426 3.8995652 2.5217206
3.6888659 3.114099 4.3808393
4.4013147 3.719461 4.2794442
4.4153848 3.7339833 3.4836633
7.7081113 6.5254397 4.7561426
9.0656805 7.6801314 4.2244081
0.37827745 0.32070944 0.21032943
0.084957257 0.024913058 8.7239418
1.0243797 0.8214972 8.3477697
0.6324929 0.51404405 3.9419184
1.0782738 0.88817906 4.5131273
1.1962311 0.99226993 3.7210591
1.615984 1.3460636 3.9215472
1.9744717 1.6492832 3.8511205
2.0611103 1.725291 3.2947488
0.42988682 0.28764883 8.7847471
0.7235561 0.5245595 8.2922802
0.80977285 0.66122413 4.0625978
0.95281166 0.78538483 3.4120557
1.7728913 1.4694418 4.8250461
4.2888865 3.565901 9.1935081
2.1592999 1.7998104 3.7970126
2.2180359 1.8520272 3.2108095
2.5090997 2.1091998 3.3009298
4.3637109 3.6759427 3.8254054
4.5894527 3.8715627 2.5142286
3.6253157 3.038842 4.2943769
4.3895001 3.6832893 4.255899
4.3656669 3.6658785 3.4355328
7.7447391 6.5101752 4.764535
9.0960474 7.6514792 4.2260518
0.36823902 0.30999646 0.20681247
0.085043699 0.024616349 8.7239418
1.0272411 0.81791645 8.3477697
0.63428336 0.51183313 3.9419184
1.0732781 0.87779582 4.479723
1.2011957 0.98933011 3.7256618
1.6188271 1.3388882 3.9171581
1.9693865 1.6333989 3.8304558
2.0843749 1.7324268 3.3216112
0.43064725 0.28598756 8.7797556
0.72581589 0.52234155 8.2972517
0.81109947 0.65760213 4.0577583
0.95421177 0.78096128 3.4073629
1.7981818 1.4798431 4.8790607
4.3395219 3.5824544 9.2745609
2.2236047 1.8402903 3.8967631
2.2218776 1.8421102 3.2071345
2.483592 2.0730064 3.2588751
4.1332154 3.4535215 4.4253397
4.2289762 3.5372818 3.6992979
3.5670242 2.9688442 4.2145643
4.3868041 3.6550083 4.2411833
4.3751254 3.6478562 3.4329996
4.2865667 3.5778158 2.6685803
9.1154518 7.613627 4.222765
0.37304831 0.31182638 0.20798479
0.085129105 0.024319341 8.7239418
1.0300899 0.81432569 8.3477697
0.63686109 0.51025236 3.9468138
1.026503 0.83358938 4.274528
1.2061542 0.98636776 3.7302639
1.6216398 1.3317095 3.9127688
2.0206945 1.6640793 3.9172478
2.1126592 1.7435009 3.3561487
0.43164289 0.28448257 8.7797556
0.72763473 0.51980478 8.2972517
0.8231833 0.66264653 4.106153
0.95693201 0.77762568 3.4073629
1.8353666 1.4997272 4.9645834
4.4004092 3.6069636 9.3769426
2.3859982 1.9606889 4.1640949
2.2178242 1.8257246 3.1924336
2.4825757 2.0574975 3.2483616
4.1362586 3.4316175 4.4159245
4.0193443 3.3381634 3.5101368
3.751981 3.118319 2.6403122
4.5842905 3.8127487 2.4973712
3.5572183 2.9397254 4.1912861
2.6803765 2.2174609 2.6165586
4.3014975 3.561089 3.3671372
7.9018221 6.5486207 4.8316727
0.37413448 0.31052229 0.20798479
0.085213482 0.024022037 8.7239418
1.0329261 0.81072509 8.3477697
0.63784117 0.50739253 3.9419184
1.018947 0.82157046 4.2315803
1.2186905 0.9895395 3.7578795
1.6244222 1.3245273 3.9083796
2.0264909 1.6570157 3.9172478
2.1212115 1.7381474 3.3599863
0.43239123 0.28281695 8.7747641
0.7294448 0.51726162 8.2972517
0.8274554 0.66133809 4.1158314
0.95829749 0.77319729 3.4026701
1.8439718 1.4960544 4.9735861
4.451406 3.6228595 9.4579954
2.4838841 2.0266385 4.319706
2.1848094 1.7857903 3.1373062
2.4842348 2.044287 3.2413523
4.1061525 3.3825119 4.3719864
3.9406428 3.249625 3.4333756
3.7730937 3.1136618 2.6472688
4.5975714 3.7967234 2.4973712
3.5674584 2.9272904 4.1912861
2.9004915 2.382551 2.8166935
4.3705144 3.5925875 3.4102013
8.0052376 6.5873256 4.8799276
8.0128183 6.5982461 3.7017722
0.08529681 0.02372444 8.7239418
1.0357498 0.8071146 8.3477697
0.64120698 0.50642461 3.9517088
0.92391151 0.73966235 3.8307333
1.2662481 1.0208343 3.8913527
1.6271743 1.317342 3.9039905
2.0213389 1.6410638 3.8965828
0.43337581 0.28130585 8.7747641
0.73124593 0.51471227 8.2972517
0.96099061 0.76984739 3.4026701
1.8491827 1.4896085 4.9735861
4.4782252 3.6187735 9.4878578
2.5518196 2.06727 4.4234462
2.1647058 1.7567905 3.1005545
2.4830706 2.0288341 3.2308388
4.0878057 3.3435154 4.3406019
4.1719623 3.4159818 3.6197953
3.7839391 3.1004725 2.6472688
4.6538153 3.8159246 2.5198476
3.5197611 2.8676534 4.1247764
2.9808338 2.431169 2.8843861
4.4164252 3.6045666 3.4355328
8.0527849 6.579443 4.8946137
8.0833273 6.6090937 3.7231381
0.085379101 0.023426555 8.7239418
1.0385607 0.80349422 8.3477697
0.64777976 0.50795126 3.9810805
0.93233109 0.74107587 3.854593
1.3781023 1.1030786 4.218132
1.629896 1.3101538 3.8996017
6.3596096 5.1371589 9.8645554
0.43435511 0.27979141 8.7747641
0.73303813 0.51215661 8.2972517
1.7840273 1.4052143 8.7810364
0.96367192 0.76648825 3.4026701
1.8611717 1.4885833 4.991591
4.5010009 3.6112795 9.5091867
2.1576259 1.7385886 3.0821788
2.4845982 2.0156605 3.2238295
4.0571513 3.2948732 4.2966633
4.3882661 3.5675731 3.7925079
3.7981749 3.0900404 2.6495874
4.6311555 3.7703876 2.5011172
3.5355554 2.8600457 4.1314268
4.3808661 3.5476158 4.1882062
4.3988376 3.564702 3.4127343
4.5334806 3.677736 2.7860713
8.1136808 6.5867896 3.7264252
0.085460357 0.023128383 8.7239418
1.0413592 0.79986405 8.3477697
0.64311951 0.50068539 3.9419184
2.1595733 1.7039553 8.8413162
1.4477164 1.1505225 4.4160399
1.6325874 1.3029627 3.8952124
6.3675008 5.1069064 9.849206
0.43532911 0.27827352 8.7747641
0.73482144 0.50959474 8.2972517
1.7869412 1.3974298 8.7713585
0.96634167 0.76311976 3.4026701
1.8544223 1.4726015 4.9600821
4.4992995 3.5841718 9.4793253
2.1742704 1.7395176 3.0968795
2.4832871 2.0002642 3.213316
3.9898472 3.2171688 4.2150636
4.2965741 3.4681902 3.7047811
3.8365059 3.0990322 2.6681378
4.2325683 3.4031324 4.038105
4.2701917 3.4358275 3.3063407
7.9785318 6.4310007 3.6557543
0.08554057 0.022829931 8.7239418
1.0441449 0.79622412 8.3477697
1.4853629 1.147581 9.0476398
2.1713834 1.7010087 8.8651762
1.4731971 1.1624025 4.4804754
1.6371257 1.2972559 3.8952124
6.3928103 5.0906386 9.8607178
0.4362978 0.27675223 8.7747641
0.73659581 0.50702661 8.2972517
1.7947869 1.3934959 8.7858763
0.97035772 0.7608065 3.4073629
1.8544226 1.4620763 4.9465785
4.5220108 3.5765333 9.5006542
2.2254581 1.7677631 3.1593573
2.4791133 1.9826745 3.1992979
4.1134787 3.2932277 4.3311863
4.1552992 3.3302672 3.575932
3.8181672 3.0448043 4.4307222
4.1907201 3.3454678 3.9880712
4.3427839 3.469332 3.351938
4.555501 3.6431625 2.7839732
0.08561974 0.022531198 8.7239418
1.0469179 0.79257458 8.3477697
1.4893596 1.1423891 9.0476398
2.1737731 1.6906699 8.8508606
1.4803218 1.1596624 4.4896808
1.641644 1.2915335 3.8952124
1.9821945 1.56388 3.7808604
6.4331703 5.0861831 9.895256
0.43750599 0.27538055 8.7797556
0.73836118 0.50445235 8.2972517
1.797649 1.3856879 8.7761974
0.9730075 0.7574147 3.4073629
1.8526577 1.4502271 4.9285736
4.5611343 3.5816658 9.5561123
6.7475195 5.3117909 11.445889
2.2635589 1.7851756 3.2034593
2.4385397 1.9363092 3.1397207
4.0944791 3.2546291 4.2998018
4.3992085 3.500596 3.770576
3.816463 3.0390596 2.6403122
4.4891047 3.5772295 2.4074655
9.7742348 7.7943187 3.7645853
0.3647449 0.29108435 0.18007106
3.8258452 3.02914 4.4273968
4.2625589 3.3785224 4.0439916
4.5271153 3.5907712 3.4811301
4.6570487 3.6977932 2.8364246
0.085740842 0.022239761 8.728941
1.0496781 0.78891528 8.3477697
1.4900975 1.1347164 9.02806
2.1820242 1.684896 8.860404
1.4889873 1.1580858 4.5034881
1.6480298 1.2872692 3.8996017
2.009795 1.5743033 3.8221896
2.2781687 1.7883381 3.5441864
0.43846458 0.27385169 8.7797556
0.74011749 0.50187188 8.2972517
1.8014768 1.3786408 8.7713585
0.97701102 0.75506872 3.4120557
1.8284864 1.4210433 4.8520532
6.7612715 5.2844939 11.437909
2.3098159 1.8086131 3.2585866
2.3948724 1.8880444 3.0766389
4.0477614 3.1945024 4.2401714
4.3392181 3.4281914 3.7102637
3.8270483 3.0257192 2.6403122
9.8465147 7.7958851 3.7815058
0.38115966 0.30201161 0.18380153
2.5154572 1.9774102 2.9309216
4.3378549 3.4136147 4.1028547
4.5599422 3.5909491 3.4963291
4.6699281 3.6815147 2.8364246
0.32245448 0.25467238 0.14952441
0.085817955 0.021940336 8.728941
1.0524255 0.78524637 8.3477697
1.4908 1.1270524 9.0084782
2.1890769 1.6781771 8.8651762
1.4868352 1.1481057 4.4850783
1.6525131 1.2815087 3.8996017
2.424017 1.8851291 4.5826521
2.2692285 1.7685533 3.5211611
0.43966377 0.2724708 8.7847471
0.74186486 0.49928531 8.2972517
1.8052772 1.3715838 8.7665186
0.97964072 0.75165367 3.4120557
1.8334357 1.4146521 4.8520532
1.9915051 1.5415659 4.1895666
6.7844377 5.264555 11.445889
2.334851 1.8151038 3.2843127
2.3958316 1.8752768 3.0696297
3.9455256 3.0915303 4.1240482
4.2689071 3.3485069 3.6417272
3.5274632 2.7689114 2.4339392
4.5577173 3.5801673 2.4299419
0.37448984 0.29460508 0.18193629
2.513514 1.9617261 2.9209452
4.2350788 3.3088655 3.9969006
4.501133 3.5192509 3.4431324
4.6291413 3.6232314 2.8049538
0.3350324 0.26271209 0.15159644
0.085894018 0.021640642 8.728941
1.0551602 0.78156799 8.3477697
1.4914672 1.1193974 8.9888983
2.1972976 1.6723335 8.8747206
1.4644742 1.1227041 4.4068351
1.6588742 1.2771934 3.9039905
2.428355 1.8749365 4.5785193
2.2905982 1.77239 3.5441864
0.4406122 0.2709344 8.7847471
0.74315947 0.49639714 8.2922802
1.8090503 1.364517 8.7616796
0.98363143 0.74927509 3.4167485
1.8072542 1.3844163 4.7710309
1.9948063 1.5330157 4.1853008
6.7979994 5.2371635 11.437909
2.3492243 1.8131567 3.2953384
2.4136269 1.8756554 3.083648
2.6045275 2.026175 2.7431273
4.0595331 3.1614513 3.4580488
3.8830192 3.0261576 2.6635003
4.6359878 3.6155534 2.4636564
0.3716445 0.29027247 0.18100367
2.7298996 2.1153109 3.1570556
4.1603699 3.2271733 3.9174354
4.5746846 3.5510972 3.4887297
4.6095071 3.5819871 2.7860713
0.33594739 0.26154101 0.15159644
0.085969031 0.021340683 8.728941
1.057882 0.77788001 8.3477697
1.4929159 1.1123598 8.9742117
1.4357356 1.0927408 4.3101821
1.6614195 1.2699409 3.8996017
2.4326518 1.8647368 4.5743866
6.483223 4.9802456 9.8645554
0.44155523 0.26939473 8.7847471
0.74488771 0.49379998 8.2922802
1.8138024 1.358194 8.7616796
0.98624098 0.74583697 3.4167485
1.7878159 1.3596519 4.7080145
2.0042922 1.529207 4.1938329
6.8258128 5.2207236 11.453869
2.3636119 1.8111309 3.3063638
2.4201593 1.8672189 3.083648
2.6023426 2.0099339 2.733712
3.7463601 2.8966134 3.1893852
4.8395162 3.7444956 3.2895763
4.652246 3.6021872 2.4655297
0.38041943 0.29499358 0.18286891
0.33425641 0.25937587 0.13093048
2.7372668 2.1057689 3.1570556
4.1075606 3.163307 3.8585722
4.5529075 3.5087929 3.4633977
4.6219826 3.5658755 2.7860713
0.3329401 0.2573384 0.15090576
0.086043 0.021040466 8.728941
1.0605907 0.77418256 8.3477697
1.4984272 1.1083524 8.9840031
2.2256372 1.6694915 8.9415274
1.3912177 1.0512154 4.1675038
1.6658422 1.2641337 3.8996017
2.439146 1.856234 4.5743866
6.4878244 4.9478664 9.8453684
0.4424929 0.26785177 8.7847471
0.74616116 0.49090445 8.2873087
1.8215587 1.3541036 8.7761974
0.98883837 0.7423898 3.4167485
1.7195786 1.2983143 4.5189633
2.0137761 1.5253507 4.2023649
6.8511944 5.2023325 11.465839
2.3915055 1.8192894 3.3357651
2.4266624 1.8587595 3.083648
3.6996908 2.8368871 3.8415871
3.8725393 2.9726307 3.2853365
4.8174276 3.7005942 3.2663882
4.6500897 3.5746243 2.4580374
0.35419968 0.2726883 0.17634058
0.32726964 0.25212914 0.13003632
2.7594376 2.1075325 3.1736832
4.0190358 3.0728438 3.7673342
4.5480103 3.4797819 3.450732
4.8276672 3.7004149 2.2061791
0.33383635 0.25617465 0.15090576
0.086115919 0.020739991 8.728941
1.0632867 0.77047569 8.3477697
1.5031077 1.1037177 8.9888983
2.2110972 1.6465577 8.860404
1.3980045 1.0486971 4.1767092
1.6664187 1.255429 3.8908234
2.4523466 1.8527972 4.5867853
6.5101671 4.929059 9.8530436
0.44317719 0.26615772 8.7797556
0.74787021 0.48829684 8.2873087
1.8293087 1.3499757 8.7907152
0.99142385 0.73893356 3.4167485
1.6230639 1.2165816 4.2578931
2.0065811 1.5089077 4.1767688
2.3793883 1.7937557 4.0204539
2.424895 1.8313614 3.3725169
2.4388134 1.8545949 3.0906572
3.9294615 2.9913459 4.0644174
4.0857649 3.1136985 3.4525661
4.7880468 3.6515207 3.2385626
4.6625395 3.5583711 2.4580374
0.35124651 0.26846734 0.17540795
0.30836961 0.23585819 0.12780093
2.8233068 2.140749 3.2368677
4.0232987 3.0539088 3.7614481
4.5498304 3.4560626 3.4431324
3.7074695 2.8192649 2.2405777
4.8330388 3.6778216 2.2028923
0.33472851 0.2550078 0.15090576
0.086187795 0.020439265 8.728941
1.0666007 0.76721293 8.3527088
1.5077741 1.0990639 8.9937935
2.206028 1.6308442 8.8174562
1.4016566 1.0438107 4.1767092
1.668873 1.2481701 3.8864341
2.4115236 1.8087687 4.4999933
6.5222087 4.9024525 9.8453684
0.44410357 0.26460913 8.7797556
0.74957013 0.48568332 8.2873087
1.8390803 1.3472956 8.8149128
0.9939971 0.73546839 3.4167485
1.6831901 1.2524915 4.4019318
2.020196 1.5081345 4.1938329
2.3856351 1.7854391 4.0204539
2.488235 1.8655921 3.4496953
2.4424262 1.8439218 3.0871525
4.1137743 3.1090319 4.2401714
4.3300309 3.2760172 3.6444685
4.2109632 3.1882362 2.8513229
4.671237 3.5392742 2.4561644
0.35218146 0.26723963 0.17540795
0.32108954 0.24381508 0.12914217
2.8367283 2.1353717 3.2435184
4.0307064 3.0374138 3.7585049
4.279635 3.2273281 3.2354119
3.717288 2.8063061 2.2405777
4.8684545 3.6780078 2.2127531
0.33561665 0.25383782 0.15090576
0.086215474 0.020131771 8.7239418
1.0692722 0.76348513 8.3527088
1.5116014 1.093794 8.9937935
2.223742 1.6319646 8.8651762
1.4005784 1.0354279 4.1629014
1.6693736 1.2394818 3.8776562
2.3771946 1.7700897 4.4256001
6.5418501 4.8815732 9.849206
0.44502449 0.26305732 8.7797556
0.75126094 0.48306388 8.2873087
1.8488553 1.3445637 8.8391104
0.99655831 0.73199421 3.4167485
1.6840498 1.2440218 4.3929296
2.4039466 1.7860855 4.0404038
2.5409644 1.8913054 3.5121732
2.4317253 1.8225524 3.0661252
4.1059213 3.0806375 4.2213402
4.1174331 3.0926323 3.4607904
4.4911871 3.3757999 3.0275519
4.6946769 3.5313072 2.4617834
0.32591531 0.24569051 0.12958924
2.8441648 2.1254568 3.2435184
3.9797895 2.9773216 3.7025845
4.4427133 3.3260427 3.3468719
3.6544259 2.7388761 2.1986165
4.9265962 3.6949906 2.2324753
0.33650064 0.25266477 0.15090576
0.086285219 0.0198307 8.7239418
1.0719308 0.7597481 8.3527088
1.5154103 1.0885109 8.9937935
2.2390776 1.6312231 8.9033518
1.401034 1.0282212 4.1536965
1.6756181 1.2350682 3.8820455
2.3584666 1.7433819 4.3801379
6.5588503 4.8587079 9.849206
0.44594005 0.26150227 8.7797556
0.75294256 0.48043853 8.2873087
1.8586333 1.3417798 8.863307
0.99910742 0.7285111 3.4167485
1.6515149 1.2111037 4.2984037
2.4004664 1.770529 4.0244436
2.5475509 1.8824244 3.5121732
2.3751264 1.7672197 2.9890254
4.8686261 3.632972 3.2663882
4.6735444 3.4899344 2.4449263
0.33474517 0.25051901 0.1304834
2.8545656 2.1177402 3.2468441
3.4612248 2.5705905 3.2228496
4.277842 3.1793721 3.2176795
3.6566818 2.7206848 2.1944206
4.9394641 3.6777711 2.2324753
0.341351 0.25444809 0.15159644
0.086353913 0.019529387 8.7239418
1.0745761 0.75600177 8.3527088
1.5192007 1.0832144 8.9937935
1.17909 0.85283238 4.6992345
1.4093521 1.0267751 4.1675038
1.6818519 1.2306256 3.8864341
2.353194 1.7268151 4.3594732
6.5757704 4.8357835 9.849206
0.44685012 0.25994405 8.7797556
0.75461501 0.47780734 8.2873087
1.8694367 1.3396765 8.8923435
1.0030423 0.72603077 3.4214413
1.6328516 1.1886771 4.2398882
2.4066322 1.7621391 4.0244436
2.5650406 1.8815408 3.5268738
2.3812807 1.7589182 2.9890254
3.8769543 2.8667662 3.9702637
3.9910464 2.954349 3.3401661
4.8741589 3.6106813 3.2617507
4.7117677 3.4929247 2.4580374
0.33961508 0.25231886 0.13093048
2.8619404 2.1077633 3.2468441
3.2717197 2.412178 3.0433166
3.6661565 2.7079041 2.1944206
4.9826512 3.6829617 2.2456234
0.34223711 0.25325501 0.15159644
0.086421557 0.019227836 8.7239418
1.0772085 0.75224614 8.3527088
1.5221412 1.0773168 8.9888983
1.41926 1.0264282 4.185914
4.1762547 3.0332603 9.5264015
2.3546581 1.7152766 4.3512073
6.5900216 4.8109107 9.8453684
0.44775477 0.25838268 8.7797556
0.75627828 0.47517037 8.2873087
1.8802476 1.3375136 8.92138
1.004169 0.72151834 3.4167485
1.5911131 1.149821 4.1228566
2.0832865 1.5103962 4.2791514
2.461518 1.7891594 4.1042447
2.5798147 1.8785622 3.5378993
2.5714686 1.8855557 3.213316
3.8586979 2.8324866 3.9420176
4.1462231 3.0468698 3.4580488
4.8403392 3.5595286 3.2316062
4.7463341 3.4929428 2.4692755
11.545619 8.502861 4.3046279
0.34450158 0.25408775 0.13137756
2.8722949 2.0999639 3.2501695
3.8444006 2.8137343 3.5524836
5.0297413 3.6906891 2.2604148
0.34711006 0.25499052 0.15228713
0.086488143 0.018926052 8.7239418
1.0798279 0.74848145 8.3527088
1.5250593 1.0714117 8.9840031
2.2450953 1.5998909 8.860404
1.4355315 1.0305817 4.2227345
4.1635041 3.0018561 9.473732
2.3492296 1.6988026 4.3305426
6.6041789 4.7859969 9.8415308
0.44865397 0.25681815 8.7797556
0.75793231 0.47252756 8.2873087
1.8910662 1.3352917 8.9504166
1.0094916 0.72001249 3.4261341
1.5597377 1.1188842 4.0328321
2.090663 1.5046384 4.2834172
2.4848537 1.7928975 4.1321745
2.5918512 1.8735174 3.5452492
2.5866847 1.8828642 3.2238295
3.881145 2.8281693 3.9545717
4.1331863 3.0151281 3.4388587
3.7936854 2.769489 2.5452414
4.9718714 3.6322336 2.5760386
11.571357 8.4596758 4.3032179
0.34940454 0.25582555 0.13182464
2.8826294 2.0921183 3.2534952
3.8672795 2.8098009 3.5642562
4.0739288 2.9653568 2.4168141
4.958622 3.6119432 2.2242577
0.34799802 0.2537773 0.15228713
0.086553685 0.018624036 8.7239418
1.0817937 0.74426734 8.3477697
1.5279546 1.0654994 8.9791069
2.2701657 1.6058352 8.9367552
1.4391201 1.0255644 4.2227345
4.1544814 2.973366 9.429842
6.6182432 4.7610431 9.8376932
0.44954771 0.25525048 8.7797556
0.76003081 0.47015885 8.2922802
1.9008628 1.3322892 8.9746141
1.0148158 0.71847814 3.4355197
1.7019576 1.2119164 4.3839269
2.1065133 1.5049113 4.3047471
2.5155945 1.8017577 4.1720748
2.5790942 1.8506243 3.5195234
2.5787883 1.8633806 3.2063072
3.960804 2.8682492 3.2908194
3.7782211 2.738034 2.5290098
4.9882727 3.617578 2.5779114
11.561993 8.391058 4.2891178
0.35029539 0.25460437 0.13182464
2.8929441 2.0842257 3.2568207
4.2169523 3.0436485 3.1416843
4.816319 3.4800711 2.8343265
4.9099731 3.5503409 2.1979616
0.34888172 0.252561 0.15228713
0.08661817 0.018321795 8.7239418
1.084385 0.74048662 8.3477697
1.5308273 1.0595801 8.9742117
1.1774439 0.8268522 4.6467428
4.1492152 2.9477496 9.3947287
6.6243892 4.7304621 9.8223438
0.45043597 0.25367972 8.7797556
0.76166731 0.46750298 8.2922802
1.9147888 1.3321054 9.0181694
1.0215538 0.71790749 3.4495978
1.7044001 1.2047117 4.3794255
2.1117537 1.4975491 4.3047471
2.5439715 1.8086793 4.2079849
2.5606859 1.8239094 3.4864466
2.5852771 1.8543675 3.2063072
3.224196 2.3151777 3.2829418
3.9368396 2.8299994 3.2634048
4.9061165 3.5293412 3.2501566
4.9933453 3.594727 2.5741656
0.35522056 0.25629383 0.13227172
2.900202 2.0741146 3.2568207
4.2121701 3.0156755 3.855629
4.2205424 3.0238888 3.1366177
4.6956706 3.3680105 2.7587967
4.8916469 3.511152 2.1848135
0.34573975 0.24845195 0.15159644
0.086724892 0.018024793 8.728941
1.0869633 0.7366969 8.3477697
1.5345166 1.0542301 8.9742117
1.2109401 0.84407222 4.7660422
4.1536078 2.9291079 9.3815613
6.6382456 4.7054563 9.8185062
0.45106626 0.25196591 8.7747641
0.76329458 0.46484143 8.2922802
1.9287367 1.3318404 9.0617228
1.0636871 0.74197572 3.5809953
1.7068127 1.1975046 4.3749247
2.1276319 1.4976741 4.326077
2.5699651 1.8136872 4.2399049
2.5421231 1.7973459 3.4533701
2.5946391 1.8474003 3.2098114
3.2354276 2.3061681 3.2860804
4.0624213 2.898818 3.3566146
5.0049272 3.5739772 3.3058078
4.975688 3.5557117 2.5591812
0.34801564 0.24925299 0.13137756
2.8952456 2.0553329 3.2435184
4.4302406 3.1484656 4.041048
4.2205334 3.0016427 3.1290183
4.0271173 2.8672547 2.3727551
4.9538689 3.5296776 2.2061791
0.35869953 0.25587058 0.15366848
0.086787276 0.017721955 8.728941
1.0895282 0.73289818 8.3477697
1.5381871 1.0488672 8.9742117
2.2782636 1.5760307 8.9033518
4.1461482 2.902231 9.3420601
2.3658099 1.6609858 4.3181434
6.6546302 4.6822557 9.8185062
0.45194301 0.25038987 8.7747641
0.76491249 0.46217421 8.2922802
1.9385585 1.3286524 9.0859203
1.094649 0.75790107 3.6748505
2.1285708 1.4872509 4.3175449
2.5935566 1.8168067 4.2678356
2.5289567 1.7748294 3.4276443
2.6039846 1.8403903 3.213316
3.2148609 2.2746277 3.2578342
4.1441712 2.9353743 3.4141855
5.0751958 3.597472 3.3429086
4.9426956 3.5061355 2.5367048
7.336431 5.2118206 1.8000321
0.34076595 0.24226566 0.1304834
2.8871415 2.034461 3.2268913
3.017652 2.1287766 2.7725458
4.2415504 2.9943504 3.1366177
4.3521409 3.0758276 2.5510895
5.0625439 3.5805318 2.2472668
0.34746581 0.24603219 0.15159644
0.086848609 0.017418902 8.728941
1.0920799 0.72909063 8.3477697
1.541839 1.0434915 8.9742117
2.2640612 1.5545512 8.8270006
2.3600497 1.6446736 4.2974792
2.7659898 1.9318297 4.1159744
0.45256081 0.24867254 8.7697725
0.76652116 0.45950133 8.2922802
0.86016345 0.58530408 4.0432405
1.0930208 0.75114381 3.6607723
1.5718639 1.0865418 4.0148273
1.501524 1.0413846 3.0590942
2.5323546 1.7640531 3.423969
2.6103928 1.8312895 3.213316
3.1813726 2.2343109 3.2170343
4.127028 2.9016511 3.3922536
5.0877223 3.5797346 3.3429086
4.9738564 3.5022058 2.5460701
8.5252638 6.0072532 3.1554511
7.3907099 5.2116575 1.8084258
0.34160954 0.24107468 0.1304834
2.7534819 1.9259305 3.0739181
3.0151315 2.111275 2.7637165
4.1672482 2.9201548 3.0758214
4.7566905 3.336899 2.773483
5.063417 3.5546989 2.2423363
0.36858016 0.25905514 0.15504985
0.086865537 0.017110631 8.7239418
1.0946182 0.72527403 8.3477697
1.5463175 1.0386708 8.9791069
2.2756417 1.5508415 8.8508606
3.2655458 2.2420154 9.3913689
1.5440245 1.0648973 3.5045846
2.3657765 1.6364255 4.2974792
2.8464744 1.9732925 4.2234249
0.45342606 0.24709129 8.7697725
0.76812047 0.45682287 8.2922802
0.86324322 0.58300132 4.04808
1.1640719 0.79399019 3.8860252
1.5738519 1.0798168 4.0103259
1.5094465 1.0390944 3.067626
2.3606548 1.6292183 3.8728228
2.5635939 1.7725549 3.4570456
2.6314025 1.8323557 3.2308388
3.1604147 2.2031593 3.1887882
3.9176757 2.734076 3.2167997
5.2558398 3.6733799 2.6790552
8.5461807 5.9774575 3.1554511
2.6436381 1.8353937 2.9475491
3.3743064 2.3452613 3.0756917
3.8589108 2.6840587 2.8478355
4.6081543 3.2087564 2.6832669
5.0680451 3.5316031 2.2390492
0.086924732 0.016807308 8.7239418
1.0964938 0.72102195 8.3428307
1.5499336 1.0332668 8.9791069
2.2971153 1.5537593 8.9128962
3.2846537 2.2383037 9.4235868
1.5556377 1.0649123 3.5221407
2.3552346 1.6170086 4.268548
2.8691885 1.9742455 4.2464495
0.4542858 0.24550703 8.7697725
0.76971036 0.45413885 8.2922802
0.86736149 0.58138365 4.0577583
1.1768402 0.79669249 3.9188745
1.4714448 1.00203 3.7447543
2.3414679 1.6039401 3.8329227
2.594923 1.7808597 3.4901221
2.6524513 1.8332975 3.2483616
3.1456802 2.1766114 3.1668191
3.3222272 2.3013279 2.734302
4.4936848 3.1150985 2.9487126
5.1124578 3.5466704 2.6022608
2.760711 1.9024236 3.0672669
3.3824723 2.3334684 3.0756917
4.2407465 2.9277279 3.1138194
4.8620086 3.3603795 2.8196402
4.9211102 3.4037566 2.1716654
0.086982876 0.016503783 8.7239418
1.099004 0.71719015 8.3428307
1.5543803 1.0284119 8.9840031
0.8809337 0.59154141 3.4394307
3.2956831 2.2290132 9.4327917
1.5613266 1.0608214 3.5265298
2.8813562 1.9678335 4.2541246
0.45514002 0.24391979 8.7697725
0.77129096 0.4514493 8.2922802
0.86205858 0.57348073 4.0238829
1.2211565 0.82048452 4.0549645
1.4695226 0.99323094 3.731251
2.0045035 1.3593205 4.0317273
2.6263409 1.7889674 3.5231986
2.6705976 1.8320969 3.2623799
3.1147566 2.1391757 3.1291575
3.4025979 2.3394659 2.7918727
4.5045309 3.0993938 2.9487126
4.7658877 3.2816632 2.4261959
2.7765808 1.899099 3.0772438
3.0804315 2.109272 2.8019776
4.4038501 3.0176852 3.2227459
4.0765448 2.796535 2.3727551
4.9251757 3.3812127 2.1683786
0.087039955 0.016200054 8.7239418
1.1015007 0.71334952 8.3428307
1.5596631 1.0240973 8.9937935
0.88672018 0.59094554 3.4537466
1.5174804 1.0187345 4.3654122
1.5531054 1.0473313 3.5001953
2.3081906 1.5611159 4.1652246
2.8908608 1.9595619 4.2579622
0.45598871 0.24232957 8.7697725
0.77286208 0.44875425 8.2922802
1.95096 1.2876946 9.0375261
1.2354999 0.82387477 4.0925069
1.4621328 0.98081958 3.7042434
1.9875995 1.3377539 3.989068
2.6466124 1.7892822 3.5415745
2.6976116 1.8368136 3.2869115
3.0964754 2.1107516 3.1040499
3.3623891 2.2945769 2.7534921
4.5409298 3.1011391 2.9649444
4.8270707 3.2990124 2.4505453
2.7646575 1.8768127 3.0572906
2.9841402 2.0280762 2.7107396
4.4286151 3.0119915 3.2328784
4.0450153 2.7541909 2.3496764
4.8784122 3.3241146 2.1437259
0.087095968 0.01589613 8.7239418
1.1039841 0.70950019 8.3428307
1.5632284 1.0186468 8.9937935
0.89624858 0.59278607 3.4823785
1.5990714 1.0654213 4.5863338
1.5507805 1.0379077 3.4870281
2.0823128 1.397789 3.7560625
2.8976834 1.949459 4.2579622
0.45708767 0.24087016 8.7747641
0.77442384 0.44605371 8.2922802
1.9501854 1.2774334 9.0133295
1.2426858 0.8224138 4.1065855
1.4655477 0.9757098 3.7042434
1.9662322 1.3134251 3.9378769
6.0785975 4.0709062 9.7620983
2.664103 1.7875886 3.5562751
2.6980972 1.8233922 3.2799027
3.0361238 2.0541277 3.0381424
4.1389575 2.8033891 3.3620977
4.5443931 3.0802982 2.9603066
4.9191241 3.3367937 2.4898791
2.7619026 1.8608922 3.0473142
4.3819346 2.9579253 3.1923478
4.1674161 2.8162901 2.4126182
4.913456 3.322938 2.1535869
0.087150924 0.015592012 8.7239418
1.106454 0.70564228 8.3428307
1.5599338 1.0087618 8.9546318
0.90455246 0.59374833 3.5062382
1.6500417 1.0910789 4.7198071
1.5543941 1.0324882 3.4870281
2.0778115 1.3842714 3.7395308
2.8938079 1.9322132 4.2426119
0.45792568 0.23927316 8.7747641
0.77597612 0.44334775 8.2922802
1.9567403 1.271988 9.0230074
1.2513189 0.82185966 4.1253562
1.4725775 0.97298813 3.7132461
6.0952797 4.0513306 9.7660885
2.6816137 1.7857944 3.5709758
2.7014837 1.8119764 3.2763979
3.0271184 2.0326684 3.02245
4.3048782 2.8938992 3.4854636
4.6653833 3.1385956 3.0298707
5.0999489 3.4335191 2.5722923
2.7466547 1.8367116 3.0240355
3.6632771 2.4524066 3.2934854
4.3026986 2.8826282 3.1290183
4.1922984 2.8118379 2.4210103
5.1563544 3.4610374 2.2505538
0.087204821 0.015287703 8.7239418
1.109567 0.70219105 8.3477697
1.5651593 1.0044099 8.9644213
0.92288119 0.60117596 3.5682743
1.6473063 1.0810255 4.7013969
1.5859841 1.0455086 3.5484753
2.0755887 1.3723543 3.7271321
2.8951912 1.9185592 4.2349372
0.45875812 0.23767324 8.7747641
0.77751893 0.4406364 8.2922802
1.9622247 1.2658312 9.0278473
1.2382764 0.80712312 4.0737357
1.4759648 0.96784198 3.7132461
2.3239629 1.5290084 4.6204262
6.1093845 4.0300298 9.7660885
2.7048006 1.7876377 3.5930264
2.7077923 1.8025354 3.2763979
3.0536289 2.0350401 3.0412805
4.2593002 2.8417246 3.4416001
4.6763105 3.1222913 3.0298707
5.0887756 3.400243 2.5610542
9.8338919 6.5757856 3.5671806
2.7063842 1.7961438 2.974153
3.6549816 2.4284203 3.2787695
4.2265811 2.810308 3.068222
4.4854407 2.9858029 2.5783641
5.1684041 3.4430175 2.2505538
8.6346674 5.7564502 2.5936508
7.5145717 5.01161 1.3519983
0.087257661 0.014983209 8.7239418
1.1120114 0.69831365 8.3477697
0.67621779 0.43083233 3.8782806
0.90867555 0.58741891 3.5062382
1.6379724 1.0667403 4.6645765
1.5916283 1.0412773 3.5528643
2.0803664 1.3651007 3.7271321
2.8965147 1.9049189 4.227262
0.45958495 0.23607042 8.7747641
0.77905232 0.43791965 8.2922802
1.9655727 1.2582965 9.0230074
1.2396373 0.80185878 4.0690432
1.4775095 0.96149671 3.7087448
2.3882484 1.5593828 4.7356067
6.1208935 4.0070291 9.7620983
2.7223635 1.7856226 3.6077271
2.7140677 1.7930725 3.2763979
3.1321371 2.0716066 3.1103268
4.1750598 2.7645099 3.3675804
5.0426593 3.3440273 2.5329587
9.9687014 6.6156912 3.6066618
2.7407012 1.8051695 3.0040827
3.6398156 2.4000721 3.2581675
4.2363653 2.7955375 3.068222
4.5602112 3.012656 2.6140308
4.9952526 3.3025541 2.1733091
8.703352 5.7584591 2.6077185
7.5320191 4.9853487 1.3519983
0.08730942 0.014678531 8.7239418
1.1144422 0.69442779 8.3477697
0.67513502 0.42683786 3.863595
0.90066808 0.57779735 3.4680624
1.5826143 1.0228449 4.4988856
1.5932446 1.0344111 3.5484753
2.0615373 1.3424754 3.6858025
2.897778 1.8912932 4.2195873
0.46040618 0.23446475 8.7747641
0.78057617 0.43519759 8.2922802
1.9699529 1.2514277 9.0230074
1.2380716 0.79473066 4.0549645
1.4771992 0.9539718 3.6997426
2.393677 1.5510367 4.7356067
2.2637217 1.4707415 3.6493816
2.7598341 1.7964523 3.6481543
2.7203102 1.7835878 3.2763979
3.2337143 2.1225998 3.2013419
4.1147952 2.7039931 3.3127513
4.7313046 3.1114745 3.05074
3.602109 2.3706772 1.8305714
2.7876155 1.8221486 3.0473142
3.6481709 2.3873522 3.2581675
4.3182235 2.8279665 3.1188855
4.7604742 3.1211417 2.7189336
5.0659728 3.3239551 2.1979616
8.7315264 5.7333798 2.6100633
7.5410976 4.953589 1.3506171
0.087360136 0.014373675 8.7239418
1.1168594 0.69053334 8.3477697
0.68352276 0.42880479 3.9027567
0.89638275 0.57064307 3.4442027
3.3212011 2.1298993 9.3545485
4.1759806 2.6903458 9.170886
2.0733013 1.339853 3.6982014
2.9016719 1.879424 4.2157497
0.46122181 0.2328562 8.7747641
0.7820906 0.4324702 8.2922802
1.9743093 1.2445436 9.0230074
1.2291934 0.78298855 4.0174227
1.4731882 0.94411153 3.6817374
2.4078515 1.5483139 4.7526703
2.2663093 1.461198 3.6453915
2.7433064 1.772092 3.618753
2.7265196 1.7740813 3.2763979
3.2998092 2.1495395 3.2578342
4.3798881 2.8563523 3.5128782
4.7755241 3.11673 3.0716093
3.5987184 2.3504841 1.8249524
2.6780577 1.737226 2.9242706
3.6463122 2.3679988 3.2493379
4.3931303 2.8551598 3.1644828
4.6724324 3.0401511 2.6643844
5.0815024 3.3088281 2.199605
8.7799921 5.7214413 2.6182694
0.087409772 0.014068644 8.7239418
1.1186006 0.68622452 8.3428307
1.5409875 0.95879757 8.749032
0.90089351 0.56910467 3.4537466
3.3038919 2.1025605 9.285511
4.1692033 2.6654327 9.1357737
2.0969164 1.3447598 3.7312651
2.9082146 1.8692838 4.2157497
0.46203184 0.23124482 8.7747641
0.78359538 0.4297376 8.2922802
1.9786415 1.2376444 9.0230074
1.2042019 0.76117772 3.9282601
1.4819859 0.94246769 3.6952412
2.4088442 1.5370938 4.7441382
2.2739344 1.4549019 3.6493816
2.7723083 1.7771415 3.6481543
2.7416837 1.7703567 3.2869115
3.330174 2.1527994 3.2798033
4.389832 2.8410461 3.5128782
4.7231665 3.0591033 3.0321896
5.2446799 3.3994632 2.6134992
2.5145698 1.6187346 2.7446935
3.6341703 2.3421187 3.2316792
4.4465423 2.8678451 3.194881
5.1634259 3.3340197 2.9287388
5.1207848 3.3090105 2.2111099
0.08745835 0.013763441 8.7239418
1.1209892 0.68231571 8.3428307
1.5313274 0.9453916 8.6756029
0.90540439 0.5675416 3.4632907
1.4330044 0.90503758 4.0524406
4.1703925 2.6457312 9.1182165
2.0992234 1.3359212 3.7271321
2.909317 1.8556737 4.2080746
0.46283624 0.2296306 8.7747641
0.78509068 0.42699972 8.2922802
1.9818817 1.2300676 9.0181694
1.260946 0.79088992 4.1018925
1.4963132 0.94425869 3.7222483
2.3987706 1.5189099 4.7142768
2.2789991 1.4469557 3.6493816
2.8299837 1.800205 3.7143068
2.7358356 1.7530794 3.2728934
3.3376682 2.1411619 3.2798033
4.3891673 2.8189268 3.5046537
4.7412691 3.0473881 3.0368271
5.2721105 3.3911667 2.6209912
2.9481397 1.8833073 3.1969616
3.625298 2.3185306 3.2169633
4.4674182 2.8592772 3.2024803
5.3469934 3.4261606 3.0231514
5.1323042 3.2911155 2.2111099
7.4411473 4.7753172 2.2231987
0.087505855 0.01345807 8.7239418
1.1233641 0.67839855 8.3428307
1.5337499 0.93950886 8.6707087
0.92893046 0.57777601 3.5444143
1.4891318 0.93322378 4.1997218
4.1674409 2.6235023 9.0918827
2.1348059 1.3481171 3.7808604
2.902235 1.8369364 4.1888871
0.46363497 0.22801362 8.7747641
0.78657639 0.42425662 8.2922802
1.1127462 0.6853916 5.0691981
1.3105856 0.81565654 4.2520609
1.5106711 0.94596118 3.7492557
2.4018495 1.5091399 4.7100105
3.0856647 1.9477452 4.0340462
2.7479572 1.747346 3.2799027
3.3582559 2.1378589 3.2923572
4.1662521 2.6552672 3.3237171
4.7929602 3.0570223 3.0623338
5.065083 3.2330627 2.5161014
2.9641562 1.8790017 3.206938
4.4518995 2.8274882 3.1847482
5.2478538 3.3368547 2.9623077
4.9724503 3.1641693 2.1404388
7.4536705 4.7467031 2.2220261
0.087552302 0.013152537 8.7239418
1.1257253 0.67447317 8.3428307
0.69901538 0.42503497 3.9566042
0.94364583 0.582367 3.5921342
1.5471319 0.96206015 4.3516049
4.1704793 2.6051328 9.0787144
2.3040361 1.4437513 4.0660338
2.8896289 1.8148615 4.1620245
0.46442807 0.22639383 8.7747641
0.78852302 0.42175925 8.2972517
1.1172773 0.68281376 5.0788774
1.3104882 0.80926377 4.2426753
1.5158132 0.94183099 3.753757
2.3938236 1.4924685 4.6844153
6.2239089 3.8907418 9.7940187
3.1843855 1.994547 4.1516519
2.7449915 1.7320342 3.2693887
3.3360813 2.1074147 3.264111
4.0306005 2.5490742 3.2113171
4.6052175 2.9147143 2.9394374
5.0528393 3.2004793 2.5048633
2.9991422 1.8865355 3.2368677
3.6858599 2.3211653 3.2552242
4.8487659 3.059381 2.7378161
5.0752988 3.2047808 2.1782393
7.4743037 4.7232523 2.2231987
0.087597683 0.012846841 8.7239418
1.1280727 0.6705395 8.3428307
0.70398295 0.4246949 3.9761851
0.94821924 0.5806281 3.6016781
3.3678439 2.0777662 9.382164
4.1754761 2.5880358 9.0699368
2.3711967 1.4743304 4.1734905
0.46521547 0.22477131 8.7747641
0.7904616 0.41925338 8.3022232
1.117504 0.67760658 5.0691981
1.3059474 0.80017728 4.2192116
1.513532 0.93310702 3.7402532
2.4256344 1.5005671 4.7356067
6.2220883 3.859463 9.7700787
3.2258809 2.0048931 4.1957536
2.6814985 1.6789151 3.1887844
3.2180936 2.0172024 3.1448495
4.1138515 2.5816643 3.2688878
4.7391582 2.976368 3.0159578
2.9962065 1.8701242 3.2268913
3.7110794 2.318995 3.2699401
4.0548635 2.5357747 2.8959658
4.4670453 2.7967775 2.5238147
5.0824537 3.1845384 2.1765962
7.4907451 4.6971335 2.2231987
0.087641992 0.01254099 8.7239418
1.1304065 0.66659766 8.3428307
0.70458728 0.42171237 3.9712899
0.94641256 0.57499015 3.5873621
3.3500812 2.0506988 9.3131256
4.1681638 2.5634081 9.0348234
2.4074636 1.4852511 4.2272186
3.0221806 1.8688146 4.3308749
0.46599722 0.22314604 8.7747641
0.79192024 0.4164916 8.3022232
1.1284802 0.67888367 5.1079135
1.3072579 0.79471761 4.2145185
1.5074943 0.92213905 3.7177474
2.4730902 1.5180116 4.816659
6.2380886 3.8392992 9.7740688
3.229974 1.9918411 4.1920786
2.6176691 1.626261 3.1081796
3.4862247 2.1683569 3.3927879
4.1228385 2.5672886 3.2688878
4.8021526 2.9926071 3.0484211
3.7848308 2.3604658 1.8905085
10.434397 6.5125642 3.7053638
3.7074184 2.2960775 3.965152
3.7294567 2.3124163 3.2787695
4.0563645 2.5170596 2.8908994
4.5461736 2.8242767 2.5615797
5.1055694 3.1742575 2.1815267
7.5029683 4.6683893 2.2220261
0.087641679 0.012232406 8.7189417
1.1327266 0.66264784 8.3428307
0.70955777 0.42132849 3.990871
0.90877861 0.54780179 3.4394307
3.3638988 2.0430489 9.3315363
4.1873088 2.5550804 9.0567694
2.4198334 1.4812456 4.2396173
3.1133783 1.9102148 4.4498372
0.46677333 0.22151802 8.7747641
0.79384226 0.41397065 8.3071947
1.1265252 0.67236441 5.0885558
1.3336686 0.8044073 4.2896028
1.4958152 0.90783656 3.6817374
2.465009 1.5012308 4.7910638
6.2334499 3.8065081 9.7461386
3.2658253 1.9982475 4.2288303
2.756907 1.6994516 3.2623799
3.9972475 2.4668844 3.8698332
4.0392871 2.4957376 3.1976097
4.8201051 2.9804852 3.0530586
3.7930474 2.3472397 1.8905085
10.387735 6.4331646 3.6813934
3.5054531 2.1541066 3.7456691
3.747834 2.305738 3.2875991
4.4555535 2.7464714 2.5070305
5.2813964 3.2580662 2.2489104
7.5150824 4.6396174 2.2208538
8.2199821 5.0767775 1.4397148
0.087683842 0.011926405 8.7189417
1.1350327 0.6586898 8.3428307
0.71190166 0.41936556 3.9957659
0.9094041 0.54386038 3.4346588
3.3927634 2.0444014 9.3913689
6.9749522 4.2459326 9.8530436
0.46754375 0.21988735 8.7747641
0.7957561 0.4114413 8.3121653
1.1245385 0.66586715 5.0691981
1.3453538 0.80506277 4.3177595
1.4877849 0.89587259 3.6547303
6.2441225 3.7831647 9.7421494
3.2756786 1.9885947 4.2325048
4.4605989 2.7313781 4.2998018
4.7323079 2.9034116 2.99277
3.7893655 2.3267081 1.8848894
10.144467 6.2336211 3.5897412
3.3567398 2.046618 3.5827196
3.76966 2.3010652 3.2993717
4.7286472 2.8886907 3.3418052
4.4651132 2.730902 2.5070305
5.2887096 3.2371457 2.2472668
7.5229421 4.6082783 2.2185092
8.2207632 5.0377035 1.436952
0.087724939 0.011620259 8.7189417
1.137325 0.65472382 8.3428307
0.71424049 0.41739142 4.0006614
0.91514868 0.5429669 3.4489746
1.4446274 0.86374158 4.0248256
1.7618275 1.0583324 3.8337653
6.9348569 4.1884184 9.7762938
0.46830842 0.21825397 8.7747641
0.79718745 0.40866107 8.3121653
1.126856 0.66193765 5.0691981
1.333316 0.79155391 4.2708321
1.4796894 0.88397592 3.627723
6.2495427 3.7566888 9.7301788
3.3205423 2.0150273 3.8967025
4.0310049 2.4490235 3.8855257
4.1494966 2.5239742 3.2688878
5.4916224 3.3429384 3.4518921
4.8862166 2.9767406 2.3999734
10.063769 6.1357431 3.5544903
3.1881521 1.9285995 3.399817
3.7949564 2.298362 3.3140874
4.9156547 2.9794183 3.4633977
5.2999768 3.2186649 2.2472668
7.5265217 4.5744176 2.2149923
0.087764971 0.011313971 8.7189417
1.1396035 0.6507498 8.3428307
0.71657419 0.41540605 4.0055566
1.1486183 0.67601687 4.3079319
1.4308298 0.84872818 3.9788003
1.8107741 1.0791476 3.930325
6.9466853 4.1625381 9.7724562
0.46906742 0.21661794 8.7747641
0.79860908 0.40587586 8.3121653
1.1009198 0.64155102 4.9433732
2.8469057 1.6764897 9.038682
1.4734019 0.87325644 3.6052167
6.3831987 3.7962196 12.218055
6.2548532 3.7302208 9.7182083
3.3336666 2.007103 3.9037118
3.802846 2.292274 3.6626952
4.1547012 2.507314 3.2661462
5.4956741 3.3191686 3.4472547
5.0394073 3.0459967 2.4674027
2.8619118 1.7176377 3.0539651
3.8341379 2.3038373 3.3405759
4.7117558 2.8333933 3.3164735
4.4218583 2.6622088 2.4734616
5.4487004 3.2830043 2.3031461
7.5299559 4.5405869 2.2114754
0.087784581 0.011160775 8.7189417
1.1407375 0.64875984 8.3428307
0.71722579 0.41427994 4.0055566
1.2114904 0.71044749 4.5369868
1.4168775 0.83778173 3.9373775
1.661963 0.98733157 3.6099226
6.538866 3.8980584 11.253232
3.118994 1.8638135 4.4268126
0.46899366 0.21608855 8.7697725
0.79896301 0.40517879 8.3121653
1.1013675 0.6407823 4.9433732
2.8168347 1.6561363 8.940135
1.4607452 0.86472332 3.5737085
6.3851852 3.7928767 12.218055
6.2483902 3.7234097 9.7062387
3.3279893 1.9957795 3.8931983
4.036798 2.4275198 3.1729364
5.4889183 3.3046372 3.4402981
4.8173175 2.9025834 2.3606398
11.283765 6.8068252 3.9633999
2.8409874 1.7017095 3.0306866
3.8357453 2.3011599 3.3405759
4.6065531 2.7657537 3.2430112
4.3848157 2.6357415 2.452481
5.3533149 3.2217128 2.2637019
7.5156779 4.5266132 2.2067862
0.087823004 0.010854281 8.7189417
1.1429952 0.64477396 8.3428307
0.71962315 0.41215411 4.0104518
1.2308627 0.71575481 4.5990224
1.4065993 0.82443333 3.9005575
1.5398494 0.90681612 3.3421884
6.554461 3.871778 11.253232
3.1154184 1.844746 4.4114623
0.46993205 0.21404015 8.7697725
0.80072331 0.40168881 8.3121653
1.0977274 0.63201612 4.9143367
2.8258123 1.6442046 8.9448271
1.4535322 0.85123026 3.546701
1.5101715 0.88755268 2.9353821
6.2613187 3.6897702 9.6982584
3.3349357 1.9841504 3.8931983
3.891242 2.3206151 3.0550535
4.9005604 2.9248388 3.0739279
4.8523068 2.8983283 2.3718779
11.310998 6.7614741 3.9633999
7.9503665 4.7563281 1.8503938
2.8580201 1.695011 3.040663
3.7210293 2.20944 3.2346222
4.6931739 2.7888649 3.2936749
4.3967323 2.6158144 2.452481
7.5243988 4.4836812 2.2032692
0.087860361 0.010547656 8.7189417
1.1452389 0.64078021 8.3428307
0.72105747 0.40963963 4.0104518
1.2010257 0.69281197 4.479723
1.4111577 0.8205002 3.90516
1.5181892 0.88693982 3.2895195
6.5800748 3.855989 11.273896
2.9283791 1.7202213 4.142837
0.47067633 0.21239847 8.7697725
0.80164313 0.39865464 8.3071947
1.1032016 0.63004994 4.9288549
2.8345237 1.6360558 8.9542122
1.4376705 0.8352173 3.501689
1.5177667 0.88490266 2.9439139
6.2663565 3.6633296 9.6862879
3.1339202 1.8358012 4.0156708
3.3694818 1.9888113 3.9247389
3.1592131 1.8669255 3.0412805
3.9568992 2.3410845 3.098917
4.9336104 2.9212568 3.0878408
5.1535382 3.0538981 2.5086093
11.351036 6.7317386 3.9690402
7.9669204 4.7285471 1.8503938
3.5300694 2.076947 3.7290416
3.4779639 2.0487318 3.0227146
4.5654788 2.6914651 3.1999471
4.4058366 2.600451 2.452481
7.5274506 4.4499679 2.1997521
0.087896638 0.010240901 8.7189417
1.1474687 0.63677871 8.3428307
0.72337025 0.40761971 4.015347
1.1814098 0.67601573 4.3985991
1.4089359 0.8126415 3.8913527
1.5067701 0.87322974 3.2587962
6.5886292 3.830168 11.26563
2.7515876 1.6034813 3.8895617
0.47167882 0.21087117 8.7747641
0.80302984 0.39585394 8.3071947
2.0329311 1.1513979 9.0326862
1.2197839 0.69849581 3.8766394
1.431146 0.82475978 3.479183
1.5343925 0.88743281 2.9695096
6.2712855 3.636899 9.6743183
3.1842773 1.8503996 4.0707979
3.3148532 1.9409984 3.8546481
3.1825001 1.8657289 3.056973
4.1128998 2.4140372 3.2113171
4.7489781 2.789592 2.9695818
5.2760692 3.1016741 2.5610542
8.0172415 4.7206478 1.8578547
3.6920841 2.1549532 3.8886657
3.7398529 2.1854479 3.2375653
10.377424 6.0811257 4.2753568
7.5345535 4.4187479 2.1974077
0.087975465 0.0099354619 8.7239418
1.1496845 0.63276941 8.3428307
0.72389966 0.40459576 4.0104518
1.1837624 0.6718877 4.3985991
1.411764 0.80771852 3.8913527
1.4911214 0.85722327 3.2192943
6.6019588 3.8071461 11.26563
2.7183185 1.5714097 3.8358369
0.47241205 0.20922342 8.7747641
0.8044067 0.39304844 8.3071947
2.0303624 1.1406016 9.0036507
1.2267165 0.6967901 3.890718
1.4415764 0.82408005 3.4971879
1.5216453 0.87298751 2.9396482
6.2761068 3.6104782 9.6623478
3.3111401 1.9086874 4.2214794
3.1859219 1.8506026 3.700448
3.1957228 1.8585221 3.0632501
4.1176877 2.397562 3.2085755
3.8131447 2.2237906 1.8717781
8.0633621 4.7099762 1.864383
3.7997527 2.2000484 3.991756
4.8874636 2.8332179 4.1970358
4.0509477 2.3501873 2.8377028
5.3069005 3.0825267 2.9245427
10.374094 6.0306258 4.2654958
7.549932 4.3924203 2.1974077
0.088009603 0.0096283089 8.7239418
1.1518862 0.62875241 8.3428307
0.72530758 0.40206641 4.0104518
1.4026804 0.79603678 3.8591347
1.5003462 0.85557175 3.2324615
6.6127653 3.7826805 11.261497
2.7349095 1.568289 3.8511868
0.47313949 0.20757313 8.7747641
0.80529374 0.39000636 8.3022232
2.0365276 1.1347308 9.0133295
1.2396663 0.69843197 3.9235673
1.4482317 0.82119024 3.5061903
6.2860541 3.587055 9.6583576
3.3089533 1.8920695 4.2104545
2.8988106 1.6703296 3.3675163
3.2190485 1.8570806 3.0789423
3.6118693 2.0862026 2.8192873
4.9485903 2.8605649 3.0785656
3.8289096 2.2151098 1.8755243
3.7717936 2.1663163 3.9551756
4.8727956 2.802036 4.1764336
4.0628629 2.3381824 2.8402359
5.309763 3.0594516 2.9203465
7.5694275 4.3684688 2.1985798
0.0880863 0.0093221748 8.728941
1.154074 0.62472773 8.3428307
0.72670662 0.39953217 4.0104518
1.0737252 0.59958291 3.9786646
1.4037482 0.79017764 3.8545325
1.570034 0.88805693 3.3729122
6.6234818 3.7581861 11.257365
2.7487254 1.5634868 3.8626993
0.47386116 0.20592029 8.7747641
0.80665022 0.38719296 8.3022232
2.0415764 1.1282231 9.0181694
1.2390838 0.69241714 3.9141815
1.4416018 0.81079483 3.4836841
6.303782 3.5680592 9.666338
3.2860487 1.8637825 4.1737022
2.8519878 1.6301169 3.3079391
3.2491593 1.859365 3.1009114
3.571964 2.0465589 2.7836483
4.973917 2.8520877 3.0878408
5.4690948 3.1385517 2.6359756
3.7793326 2.1531372 3.9551756
3.4465425 1.965927 2.9726808
4.7710814 2.7236297 3.3139405
4.410192 2.5206659 2.4356966
7.5930662 4.3468494 2.2009244
0.088118307 0.0090146391 8.728941
1.1562476 0.62069547 8.3428307
0.72720265 0.39650595 4.0055566
1.0810354 0.59872323 3.9977524
1.6566764 0.92943925 3.5484753
6.6242986 3.7281423 11.2367
2.7960405 1.5775064 3.9202616
0.47457707 0.20426495 8.7747641
0.80751514 0.38414651 8.2972517
2.0444 1.1204857 9.0133295
1.2414931 0.6880877 3.9141815
1.4425219 0.80469745 3.479183
2.4114053 1.3500203 4.5905647
6.3267078 3.5519335 9.6822977
3.1625273 1.779165 4.0119953
2.9166055 1.653569 3.3745253
3.2522447 1.8460904 3.0977728
4.9876924 2.8368983 3.0901597
5.17382 2.9451444 2.4936249
9.8753328 5.5804372 10.183838
3.6785347 2.0812688 3.1610434
4.8030667 2.7197032 3.3291395
11.70167 6.6394 4.7716966
7.667367 4.35392 2.2173369
0.088149235 0.0087069934 8.728941
1.1584072 0.61665565 8.3428307
0.72768652 0.39348117 4.0006614
2.2973547 1.2616506 8.4261532
1.5528033 0.85984397 4.2411447
1.7080469 0.95043188 3.6494238
2.5879006 1.4446603 4.4256001
2.8015301 1.5677367 3.9202616
0.47528723 0.20260713 8.7747641
0.80885118 0.38132539 8.2972517
2.0482986 1.1133426 9.0133295
1.2665731 0.69621623 3.9845734
1.3824599 0.76488376 3.3306429
2.4161031 1.3415947 4.5905647
2.6007159 1.4482319 4.0164638
3.183521 1.7763742 4.0303712
2.7980201 1.5734591 3.2343435
3.2654524 1.838546 3.1040499
5.5458632 3.1262565 4.2585568
4.8702455 2.7476423 3.0136392
5.0024085 2.8244972 2.4093387
9.9305782 5.5660124 10.220418
3.8020992 2.1336923 3.2581675
4.7937384 2.6923661 3.3164735
4.1151605 2.3140779 2.2699504
11.671277 6.5684061 4.7503314
7.8180413 4.4034615 2.2548511
0.088179089 0.0083992425 8.728941
1.16124 0.61297077 8.3477697
0.72905558 0.39093867 4.0006614
2.2833917 1.2436296 8.3593464
1.5455202 0.84877676 4.2135291
1.7365175 0.95834911 3.7020931
2.5929277 1.435618 4.4256001
2.7929728 1.550171 3.9010744
0.47599155 0.20094682 8.7747641
0.80969405 0.37827462 8.2922802
2.0510657 1.1055895 9.0084896
1.2750565 0.69509399 4.0033445
1.3641269 0.74853545 3.2811296
2.4002104 1.3218305 4.5521712
2.6928008 1.4872165 4.1481347
3.1541076 1.7455528 3.9862692
2.8066101 1.5654198 3.237848
4.6549773 2.5995066 4.3814015
5.5932384 3.1272848 4.2859716
3.9056401 2.1855118 2.4293015
5.2306581 2.9293396 2.5104823
9.6053247 5.3924689 1.0818677
10.047851 5.5857396 10.320183
3.84131 2.1380994 3.284656
4.1033945 2.2886457 2.2594602
7.8800411 4.4022202 2.2677464
0.088207871 0.0080913892 8.728941
1.1640611 0.60927367 8.3527088
0.73041576 0.38839141 4.0006614
2.2850919 1.2342329 8.349802
1.5313158 0.83403367 4.1675038
1.7545589 0.96033001 3.7328167
2.5979228 1.4265584 4.4256001
0.47669008 0.19928408 8.7747641
0.81100959 0.37544596 8.2922802
2.0549126 1.0984232 9.0084896
1.2607758 0.68161345 3.9517241
4.0094275 2.1816239 9.5018072
2.4093876 1.3159442 4.5607028
2.7138324 1.4864926 4.1720748
3.1185737 1.711696 3.9348168
2.7902129 1.5435297 3.213316
4.6435933 2.5719268 4.3625708
4.9435344 2.7436695 3.0461023
5.2367988 2.9088123 2.5086093
9.6327906 5.3637524 1.0827618
10.090176 5.563251 10.343461
3.7815161 2.0875626 3.2287359
4.8426032 2.6755114 3.3367388
4.127244 2.2830958 2.2678523
4.0491557 2.24174 1.6999784
7.9676375 4.4147348 2.2876759
0.088191941 0.0077830637 8.7239418
1.1675603 0.60592204 8.3625879
0.73086619 0.38536486 3.9957659
2.2946501 1.2290678 8.3688898
1.5342178 0.82868326 4.1675038
1.7642151 0.95762688 3.7459838
2.6276007 1.430939 4.4669299
7.1278329 3.8911526 9.7993183
0.47738278 0.19761892 8.7747641
0.81183034 0.37239107 8.2873087
2.0565131 1.0900664 8.9988108
1.2342486 0.6617195 3.8625612
3.9825332 2.1490078 9.420785
2.4277263 1.3149781 4.5862985
2.7904966 1.5158437 4.2798057
3.0828428 1.678109 3.8833644
3.3146038 1.818525 3.7950706
4.4546752 2.4470134 4.1805406
3.8548293 2.1218784 2.3898818
5.2225575 2.8770933 2.4973712
10.119361 5.53337 10.353437
4.4163213 2.4179187 3.7496755
4.8367906 2.6503053 3.326606
4.1630421 2.2839561 2.2825387
4.0735126 2.2366829 1.7065524
8.1065331 4.4547811 2.3216732
8.3708344 4.6019187 1.4245198
0.088218577 0.0074751684 8.7239418
1.1710504 0.60255343 8.372467
0.73220694 0.38281128 3.9957659
1.1598741 0.61617023 4.2458959
1.3149314 0.70434606 3.5737784
1.7717651 0.95373297 3.7547622
2.6301036 1.420421 4.4627967
7.1385536 3.864722 9.7954807
0.47806972 0.19595134 8.7747641
0.81361085 0.36977494 8.2922802
2.0614181 1.0834659 9.0036507
1.1527408 0.6128633 3.6044593
3.949702 2.1135254 9.3262596
2.7984238 1.5075229 4.2837954
3.0439327 1.6431824 3.8282371
3.4023793 1.8512582 3.886189
4.4358449 2.4165523 4.1554327
4.9858975 2.7218261 3.0600152
7.4500947 4.073761 2.585798
8.4976797 4.6504321 1.930599
10.187848 5.5247116 10.40332
4.5774779 2.4854212 3.8762312
4.222815 2.2976081 2.3098133
4.0812955 2.22245 1.7065524
8.1519089 4.4427385 2.3298795
8.3911953 4.5750413 1.4252105
0.088244125 0.0071671833 8.7239418
1.1752232 0.59952056 8.3872843
0.73353875 0.38025311 3.9957659
1.1620177 0.61211771 4.2458959
1.3087547 0.6951704 3.5507658
2.6152 1.4006038 4.4297333
2.7861042 1.4958627 3.8626993
0.4787508 0.19428135 8.7747641
0.81489664 0.36693266 8.2922802
2.0696464 1.0785868 9.0230074
1.1228138 0.59193993 3.5059111
3.9416714 2.0915627 9.2902508
2.7983534 1.4949059 4.2758155
3.028728 1.6213475 3.8025112
9.0424767 4.8791275 10.176849
4.4442534 2.4010534 4.1554327
3.7753689 2.0422335 2.8987896
5.0148458 2.7149503 3.0716093
5.7234898 3.1011677 2.718389
7.4642696 4.0477304 2.585798
8.6217947 4.6793203 1.9539145
10.295857 5.5368624 10.493109
3.2159519 1.7316648 2.7431145
4.8020477 2.5878434 3.2911417
4.2308097 2.2828538 2.3098133
4.0890284 2.2081902 1.7065524
