# .PCD v0.7 - Point Cloud Data file format
VERSION 0.7
FIELDS x y z
SIZE 4 4 4
TYPE F F F
COUNT 1 1 1
WIDTH 1573
HEIGHT 1
VIEWPOINT 0 0 0 1 0 0 0
POINTS 1573
DATA ascii
0.73551965 0.37640709 3.9957659
2.2750597 1.1830397 8.2448187
1.2535489 0.65746236 3.39428
2.4834485 1.308954 5.2119365
2.5080667 1.3263801 4.2396173
2.8108897 1.4902623 3.8857243
0.47976148 0.19177197 8.7747641
0.81778169 0.36309227 8.3022232
0.83230788 0.42839313 3.6415682
1.1090586 0.57729059 3.4542906
1.561846 0.82149827 2.9567118
2.7821553 1.467581 4.2399049
3.0731423 1.6244782 3.8466129
3.4656148 1.8466518 3.9387569
4.4498959 2.3740866 4.1491561
4.6969981 2.5090642 3.575932
5.0211792 2.6844783 3.0669715
5.6946859 3.0470986 2.6977856
7.4515295 3.9904749 2.5745177
8.7760658 4.7037292 1.9818932
10.344494 5.4933848 10.513062
3.2642322 1.7356761 2.7754891
4.7508383 2.5282376 3.2480776
4.3148022 2.2990859 2.3475783
4.0838675 2.1778619 1.6999784
8.2203856 4.3874521 2.3380857
8.4351683 4.5039735 1.4259011
0.088303313 0.0063968343 8.7239418
1.184582 0.59132308 8.4169197
0.7368291 0.37383735 3.9957659
2.2778485 1.1744071 8.2400465
1.2350357 0.6422683 3.3390496
2.5092285 1.3113692 5.255827
2.5126812 1.3176172 4.2396173
2.8189118 1.4819326 3.8895617
0.48042798 0.19009613 8.7747641
0.81904417 0.36023548 8.3022232
0.84163648 0.42948249 3.6754439
1.1141342 0.5749982 3.4636762
1.6164435 0.83982319 3.8302777
1.5577664 0.81242371 2.9439139
6.3999252 3.3473194 9.6384087
3.1568646 1.6546595 3.942167
3.4878058 1.8428733 3.9562798
4.3652616 2.3093956 4.0644174
4.7870188 2.535713 3.6362443
4.400394 2.3328781 2.6936448
5.7052875 3.0272019 2.6977856
7.465414 3.9644401 2.5745177
8.7924318 4.6730661 1.9818932
10.380125 5.465941 10.52969
3.2702711 1.7242713 2.7754891
4.4873276 2.370939 2.4335985
4.1039681 2.1702158 1.704909
12.050543 6.3777604 3.3791034
0.088325106 0.0060885591 8.7239418
0.52147156 0.25829372 3.6999283
0.73721969 0.37080589 3.990871
2.2792757 1.1650901 8.2305021
1.2355334 0.63705814 3.3344471
4.5148301 2.3394001 9.385951
2.4972916 1.2984538 4.2065539
2.8269098 1.4735653 3.8933992
0.48108861 0.18841796 8.7747641
0.82029665 0.35737431 8.3022232
0.83191299 0.42087072 3.6270497
1.1115254 0.56874806 3.4495978
1.6174299 0.83317882 3.8257763
6.3901711 3.3138616 9.6064882
3.2077444 1.6670794 3.9972947
3.5163305 1.8422725 3.9808118
4.3112531 2.2615979 4.007925
4.377142 2.3010137 2.6750944
5.7035117 3.0007927 2.6921666
7.479207 3.9383566 2.5745177
10.405761 5.4331303 10.536341
3.3622389 1.7577888 2.8461249
4.9860873 2.6089242 3.3924689
4.4232125 2.3173494 2.3958335
4.1115189 2.1558771 1.704909
12.064124 6.33114 3.3767591
0.088345818 0.0057802098 8.7239418
0.52655625 0.25852361 3.7295637
0.7385096 0.36823022 3.990871
2.2766712 1.1537536 8.2066431
1.2377496 0.63274145 3.3344471
4.5187078 2.3214371 9.3771725
2.5018086 1.2897288 4.2065539
2.8377314 1.4666318 3.9010744
0.4817434 0.18673751 8.7747641
0.8215391 0.35450876 8.3022232
0.83787197 0.4202171 3.6464074
2.8942266 1.4678864 8.8791285
1.6280835 0.83148789 3.8437812
6.4204578 3.3011804 9.6344185
3.1834075 1.6403443 3.9605429
3.5227399 1.8299869 3.9808118
4.2362461 2.2034295 3.9326024
3.9071145 2.0348289 2.9728096
4.4087167 2.2980058 2.689007
5.7427235 2.9958751 2.7052777
7.5141711 3.9233267 2.5815678
10.444557 5.4070735 10.556293
3.4688337 1.7981254 2.9285336
5.1558766 2.6748805 3.4988623
4.4030819 2.2872505 2.3811471
4.031034 2.0957685 1.6703953
12.224129 6.3607864 3.414273
0.088365458 0.0054717897 8.7239418
0.5253588 0.25566545 3.7147462
0.73887748 0.3651993 3.9859755
2.28602 1.1484795 8.2257299
1.2382081 0.62753403 3.3298445
2.4993479 1.2730651 5.2075472
2.5012839 1.2784266 4.198288
2.8485386 1.4596405 3.9087491
0.48239228 0.18505478 8.7747641
0.82277155 0.35163888 8.3022232
0.83032817 0.41281551 3.607692
2.9070418 1.4616503 8.9025927
1.623207 0.82186681 3.8257763
2.5392849 1.2944843 3.8488829
3.171 1.6199687 3.9384921
3.5132539 1.8095146 3.963289
4.0640225 2.0958607 3.7694027
3.9402008 2.0346072 2.9919996
4.2199445 2.180913 2.5730669
5.7531462 2.975811 2.7052777
10.470012 5.373992 10.562944
3.6188903 1.8599095 3.0462599
4.9466782 2.5444746 3.3544712
4.3989348 2.2656329 2.3748531
4.0802984 2.1033208 1.6868303
12.419043 6.4072204 3.4611657
10.173212 5.2552891 0.55557424
0.088340402 0.0051642251 8.7189417
0.52274764 0.25214466 3.6900496
0.73923326 0.36217031 3.9810805
1.1114674 0.55366069 4.0168409
1.240391 0.62320811 3.3298445
2.4973626 1.2610945 5.1943798
2.503221 1.2684159 4.1941552
2.8536162 1.4496884 3.9087491
0.4830353 0.18336979 8.7747641
0.82399398 0.34876472 8.3022232
0.82950884 0.40880388 3.5980132
2.9136705 1.4522635 8.9072847
4.00562 2.0103865 9.330761
2.5572348 1.292408 3.8688331
3.1494155 1.5951043 3.9054155
3.5163724 1.7956182 3.9597845
3.8841712 1.9859788 3.599926
3.9286687 2.0113137 2.9782922
3.7583845 1.9257846 2.2971299
3.7751951 1.9360536 1.8024759
4.024765 2.0658059 1.4197007
10.485379 5.3357191 10.559619
3.7081943 1.8894719 3.1139529
4.3987322 2.246136 2.3706567
7.1781883 3.6685503 2.8948095
10.182602 5.2151909 0.55517119
0.088357888 0.0048558284 8.7189417
0.52362454 0.25031841 3.6900496
0.73957682 0.35914323 3.9761851
1.1187475 0.55242032 4.0359287
1.242559 0.61887455 3.3298445
2.4953249 1.2491535 5.1812129
2.5051188 1.2584074 4.190022
2.8901494 1.455577 3.9509621
0.48367244 0.18168256 8.7747641
0.82569832 0.34609181 8.3071947
0.82189429 0.40149459 3.5592978
1.6655107 0.82298023 5.106144
3.9989696 1.9896045 9.2992525
2.0220153 1.0100211 3.7672393
2.5590365 1.282124 3.8648429
3.1398156 1.5764954 3.8870397
3.4048929 1.723736 3.8301163
4.0056486 2.0304818 3.703495
3.92448 1.9919105 2.970068
3.9783535 2.020992 2.4223452
3.7901952 1.9270658 1.806222
4.0234013 2.0473933 1.4168808
9.2416487 4.7108946 1.0241944
3.1367016 1.5824649 3.2102637
3.7255905 1.8819838 3.1227822
5.0720391 2.564338 3.4254003
4.4065461 2.2307677 2.3706567
7.1825256 3.6392028 2.8915226
10.552655 5.358305 0.57109213
0.088374302 0.004547372 8.7189417
1.1861697 0.56140262 8.3428307
0.73990834 0.3561182 3.9712899
1.1139647 0.5452317 4.0120687
1.2447116 0.61453342 3.3298445
2.5018148 1.2414999 5.1856017
2.5069773 1.2484008 4.1858892
2.9038157 1.4497746 3.9624743
0.48430368 0.17999311 8.7747641
0.82739383 0.34341115 8.3121653
0.82329077 0.3986232 3.5592978
1.6683733 0.8171615 5.106144
4.0019855 1.9737077 9.2902508
2.018517 0.99948525 3.7544415
2.5769901 1.2798848 3.884793
3.0997744 1.5428674 3.8319125
3.3120804 1.6622525 3.7214751
3.8283834 1.9238603 3.5371568
4.0209918 2.0250249 2.4432144
3.7886195 1.9096507 1.8024759
4.013392 2.024694 1.4112407
9.2535925 4.6763606 1.0237473
2.951858 1.4763114 3.0207102
3.7321372 1.8689675 3.1227822
5.0424213 2.5273023 3.4000683
4.3980803 2.2072296 2.3622646
10.592028 5.3249383 2.9500353
10.566833 5.3191905 0.57089061
0.088433243 0.0042374823 8.7239418
1.1881222 0.55725873 8.3428307
0.73930854 0.3526572 3.9614995
1.1158611 0.54133993 4.0120687
1.2468491 0.61018479 3.3298445
2.5018353 1.2306454 5.1768236
2.5163665 1.2421333 4.1941552
2.9720581 1.4709059 4.0468998
0.48492903 0.17830148 8.7747641
0.82858753 0.34052092 8.3121653
0.83374429 0.40009505 3.5980132
1.678978 0.81510037 5.1296082
4.0205851 1.965462 9.3172579
2.0243349 0.99358225 3.7587075
2.5706282 1.2655582 3.8688331
3.062577 1.5110383 3.7804599
3.1326716 1.55855 3.5182116
3.0337627 1.5113143 2.8153119
3.6015298 1.796488 2.723336
3.7911153 1.8943423 1.8006029
4.0290155 2.0149636 1.4140607
9.2787638 4.6484923 1.0246415
3.7567406 1.8649145 3.1374981
4.3204255 2.1494117 2.3182056
4.0416336 2.0124691 1.6605341
10.571399 5.2684207 2.9394844
9.6877403 4.8301425 1.6020246
0.088447496 0.0039287671 8.7239418
1.1921742 0.55408978 8.3576488
0.73961437 0.34963956 3.9566042
1.1163986 0.53679496 4.0072966
1.2489715 0.60582876 3.3298445
2.5232146 1.2345785 4.198288
2.9570308 1.4506412 4.0200367
0.48554847 0.17660768 8.7747641
0.8297711 0.33762655 8.3121653
0.83967686 0.39934051 3.6173708
1.6911435 0.81372321 5.1577649
1.6608126 0.80480295 3.879791
2.1896148 1.0652272 4.0530567
6.4611034 3.1527822 9.5945177
3.0526054 1.492892 3.762084
3.2788258 1.6170073 3.6724117
3.0390198 1.5007153 2.8153119
3.6115272 1.7857587 2.7260773
4.0310607 1.9949392 2.4408956
3.7977047 1.8810973 1.8006029
4.0489182 2.0072794 1.4182907
3.7777345 1.858928 3.1492708
3.8224258 1.8825679 2.5894511
4.0528684 2.0004392 1.6621777
10.624588 5.2487102 2.948863
9.7045422 4.7962966 1.6020246
0.088460669 0.0036200038 8.7239418
1.1912777 0.54862577 8.3378916
0.73898596 0.34619251 3.9468138
1.1209608 0.53417861 4.0168409
1.2510786 0.60146534 3.3298445
2.5300407 1.2269912 4.2024207
2.9188383 1.4192871 3.9624743
0.48616198 0.17491172 8.7747641
0.83045 0.33452952 8.3071947
0.85016292 0.40069175 3.6560862
1.6939738 0.80781502 5.1577649
1.6616493 0.79805845 3.8752897
2.2262092 1.0734344 4.1127801
6.4774952 3.1328337 9.6024981
2.9540749 1.4319516 3.6371284
3.3196936 1.6227796 3.7109616
4.3832078 2.1454725 4.0173407
3.7040975 1.8154668 2.7891312
4.0539083 1.9886597 2.4501708
3.7917635 1.8616998 1.7949839
4.0645113 1.9973654 1.4211109
10.496342 5.1126709 10.479807
3.798732 1.8528175 3.1610434
3.7902358 1.8503031 2.5641193
4.1785946 2.0443864 1.7081959
10.511884 5.1474628 2.9136934
8.9563246 4.387671 1.4832275
0.088472769 0.0033111959 8.7239418
1.1924785 0.54414177 8.3329525
0.7383424 0.3427541 3.9370234
2.2810006 1.0769911 8.1112022
1.2549342 0.59793478 3.3344471
4.6033649 2.2047071 9.4210634
2.5368445 1.2193712 4.2065539
2.9324369 1.4132642 3.9739869
0.48676959 0.17321363 8.7747641
0.83161271 0.33162868 8.3071947
0.86180764 0.40250626 3.6996412
1.6644251 0.79225326 3.8752897
2.1499345 1.0274264 3.9677382
6.4802394 3.1062963 9.5905275
2.9315534 1.408419 3.6040523
3.3510134 1.6236215 3.7389979
4.5342503 2.199816 4.1460176
4.1354189 2.0089898 3.098917
4.0887117 1.9880559 2.4664023
3.7982388 1.8484528 1.7949839
4.0843964 1.9894673 1.4253409
10.520849 5.0792475 10.486458
3.8197331 1.846583 3.172816
4.1517138 2.0133047 1.6950479
10.560397 5.1255946 2.9218996
8.9225855 4.3325877 1.4756302
0.088483788 0.0030023479 8.7239418
1.1929545 0.53933614 8.3230743
0.7404595 0.34059983 3.9419184
2.2793384 1.0664926 8.0921154
1.2570137 0.59355056 3.3344471
4.6153598 2.1906786 9.429842
2.5436263 1.2117189 4.2106872
2.8968601 1.3836797 3.9202616
0.48737124 0.17151344 8.7747641
0.83226907 0.32852864 8.3022232
0.86662996 0.40107846 3.7141595
2.9545343 1.3835698 8.9260559
1.6238635 0.76600897 3.7762628
2.0757236 0.98308051 3.8269625
6.4883213 3.0823643 9.5865374
3.0282793 1.4418982 3.7143068
3.3566604 1.6119144 3.7389979
3.240485 1.5582047 2.9816501
3.9992421 1.9256113 2.9947412
4.2033725 2.0256958 2.5290098
4.4184761 2.1312492 2.0703197
4.0869956 1.9731122 1.4239309
10.988091 5.3142247 1.1887195
10.51157 5.0295992 10.459854
3.8370905 1.8384777 3.1816454
5.8351469 2.8020301 3.0797987
4.0523133 1.9476606 1.6539601
0.088493727 0.0026934638 8.7239418
1.1948299 0.53516865 8.3230743
0.73793727 0.33632541 3.9223375
2.3033612 1.0679462 8.1636944
1.259078 0.58915919 3.3344471
4.6338148 2.1796515 9.451787
2.550385 1.2040337 4.2148199
2.8611135 1.3543612 3.8665369
0.48796695 0.16981116 8.7747641
0.8334108 0.32562149 8.3022232
0.87830901 0.40276375 3.7577143
2.9687381 1.3776058 8.9542122
1.6166667 0.75572735 3.753757
2.0602548 0.96696526 3.792835
6.4990411 3.0596969 9.5865374
3.0363598 1.4327654 3.7179821
3.3622668 1.6001875 3.7389979
3.3442888 1.5937687 3.0695267
3.9229155 1.8720216 2.9344289
4.2783713 2.0434668 2.5684295
4.1874824 2.0018432 1.9635568
4.1328034 1.9774681 1.4366212
10.993103 5.2693791 1.1873783
10.475083 4.9672799 10.406646
3.8580899 1.8320076 3.193418
5.6113009 2.6704769 2.9602096
4.0590878 1.9335035 1.6539601
0.088459022 0.002386838 8.7189417
1.1981114 0.53162456 8.3329525
1.6124913 0.7277289 8.5287466
2.3260653 1.068622 8.2305021
1.2593545 0.58393896 3.3298445
2.5571213 1.1963162 4.2189527
2.8280995 1.3266704 3.8166492
0.48855671 0.16810679 8.7747641
0.83454233 0.32271037 8.3022232
0.86254168 0.39190054 3.6851227
2.984504 1.3722805 8.9870615
1.5699103 0.72720826 3.6412265
2.0683472 0.96196705 3.8013666
6.5124125 3.0382664 9.5905275
3.3269479 1.5557021 4.0597725
3.3710573 1.5899626 3.7425027
3.9294264 1.8583167 2.9344289
4.3975883 2.0815859 2.6333559
4.1190333 1.9514867 1.9298422
4.1093397 1.9486425 1.426751
11.123884 5.2843957 1.1985552
10.387602 4.8814569 10.303555
3.8754332 1.8236922 3.2022474
4.9884353 2.352731 2.6371095
4.1213255 1.9455284 1.6753258
0.088466816 0.0020780435 8.7189417
1.2006712 0.52775156 8.3378916
1.6140921 0.72168034 8.5238514
2.3189123 1.0555495 8.1923265
1.2613851 0.57953948 3.3298445
2.5612817 1.1873829 4.2189527
2.876312 1.3370562 3.8742115
0.48914057 0.16640039 8.7747641
0.83616185 0.31998521 8.3071947
0.86275816 0.38837168 3.6802835
3.0034099 1.3682923 9.0292969
1.5684819 0.71990794 3.6322241
2.0764298 0.95692426 3.8098986
6.5284486 3.018044 9.5985079
3.2739136 1.517 3.9899442
3.3475094 1.5645959 3.7109616
4.5045919 2.1082454 4.0926638
3.9283171 1.8410404 2.928946
4.4810271 2.1019659 2.677413
4.1132307 1.931186 1.9242231
4.1638741 1.9567287 1.4422613
11.196331 5.270988 1.2039202
10.401194 4.8435917 10.30023
3.8891025 1.8135699 3.2081339
4.450861 2.0774057 2.9719613
4.8280411 2.256516 2.5510895
4.1836967 1.9571424 1.6966914
0.088473529 0.0017692243 8.7189417
1.2032185 0.52386713 8.3428307
1.6156703 0.71562952 8.5189552
2.3225827 1.0474486 8.1923265
1.2634004 0.57513285 3.3298445
1.5051283 0.68891412 3.1007893
2.5654109 1.1784352 4.2189527
2.9071634 1.3390758 3.9087491
0.48971844 0.16469194 8.7747641
0.83727378 0.31706452 8.3071947
0.84229434 0.37563625 3.5883343
3.0286157 1.3670285 9.0903034
1.5075705 0.68559551 3.4881854
2.098737 0.95833588 3.8440261
6.5416837 2.9964921 9.6024981
3.1128166 1.4291805 3.7914853
3.3432424 1.5484053 3.700448
4.5825448 2.1252599 4.1554327
3.957474 1.8378838 2.9453948
4.4722691 2.0788426 2.6681378
3.8971729 1.8131719 1.8249524
11.246253 5.2466111 1.2070497
10.529915 4.8588791 10.409971
3.9137557 1.8084606 3.2228496
4.4228721 2.0455706 2.9491625
4.8235335 2.2339272 2.5447953
4.1862187 1.9405407 1.6950479
0.088479169 0.0014603829 8.7189417
1.2057533 0.51997137 8.3477697
1.6125637 0.70753181 8.4895849
2.339854 1.0454229 8.2400465
1.2654003 0.57071924 3.3298445
1.5075239 0.68365604 3.1007893
2.5720699 1.1706387 4.2230859
2.900156 1.3235968 3.8933992
0.49029034 0.16298151 8.7747641
0.83837539 0.31413996 8.3071947
0.85969889 0.37980083 3.6560862
3.0317938 1.355744 9.0856104
1.529803 0.68927008 3.5331974
6.5685668 2.9811106 9.6264381
2.9326329 1.3340828 3.5709758
9.4519348 4.3374844 10.299508
4.62884 2.1271286 4.1899557
3.9030881 1.7960913 2.9015312
4.3266034 1.9927981 2.5800233
3.9076884 1.8014979 1.8268254
11.237376 5.1947842 1.2043673
10.553603 4.8251982 10.416622
3.9273946 1.7981532 3.2287359
4.5475526 2.0839956 3.0251579
4.5961804 2.1091812 2.4252062
4.1543465 1.9081773 1.6802562
0.088483721 0.0011515247 8.7189417
1.2082757 0.51606435 8.3527088
1.6066184 0.69824737 8.4455271
2.3516791 1.0408732 8.2686777
1.2673848 0.56629872 3.3298445
1.5011624 0.67446417 3.0832329
2.5761406 1.1616533 4.2230859
2.8901558 1.3068626 3.8742115
0.49058166 0.16117987 8.7697725
0.83946687 0.31121156 8.3071947
0.88750768 0.38838106 3.7673931
3.0570192 1.3542379 9.146616
1.5739468 0.70255655 3.627723
2.2814927 1.022589 4.1597052
6.5954223 2.9655781 9.6503782
2.9001827 1.3071226 3.5268738
9.4864969 4.3133211 10.320536
4.5937276 2.0916033 4.1522942
3.4565823 1.5760298 2.5752969
4.3254733 1.974005 2.5753858
3.9772053 1.816739 1.8549209
10.604392 4.8037362 10.449878
3.9262857 1.7810936 3.2228496
4.7942333 2.1768222 3.1796818
4.6117783 2.0968816 2.4294024
4.0879159 1.8604122 1.6523166
0.088487208 0.00084265164 8.7189417
1.2107855 0.512146 8.3576488
1.6006283 0.68901318 8.4014702
1.108477 0.48612002 3.9166293
1.2693537 0.56187123 3.3298445
2.5827491 1.1538016 4.2272186
2.8946998 1.2967662 3.8742115
0.49114129 0.15946645 8.7697725
0.8400473 0.30809644 8.3022232
2.1103239 0.91436279 8.8923435
3.061728 1.3435587 9.146616
1.6082464 0.71114194 3.6997426
2.2707462 1.0082691 4.1341095
2.9294927 1.3080482 3.5562751
9.4332123 4.2494216 10.246941
4.6506734 2.0979626 4.1962328
3.9307752 1.7756847 2.912497
5.7168174 2.5848839 3.3707345
3.9961932 1.8085793 1.8605399
10.62791 4.7697487 10.456529
3.8845501 1.7458375 3.1845887
4.6366863 2.085798 3.0732882
4.6604495 2.0994112 2.4503829
4.0513368 1.8267215 1.6358815
0.088533118 0.00053056539 8.7239418
1.2132826 0.50821644 8.3625879
1.5983402 0.68142605 8.3769941
1.1046902 0.47986975 3.897541
1.2748859 0.55900562 3.3390496
2.5919075 1.1470565 4.2354846
2.7995982 1.2424502 3.7437367
0.49169493 0.15775105 8.7697725
0.84111768 0.30516225 8.3022232
2.0996408 0.90104377 8.8342705
3.0663991 1.3328631 9.146616
1.6785184 0.73521513 3.8527834
6.588397 2.9072967 9.6104784
9.3600578 4.1772265 10.152317
4.6686292 2.0864804 4.2056479
3.9369493 1.7619529 2.912497
5.4226003 2.4290919 3.1968243
4.0447841 1.8135859 1.8792703
3.8389249 1.7092507 3.1433842
3.8958137 1.7362006 2.5919843
4.410789 1.9684553 2.3203037
4.0231957 1.797161 1.6227335
0.08853443 0.00022152413 8.7239418
1.2150493 0.50397819 8.3625879
1.6025853 0.67663443 8.3867855
1.1132149 0.47895929 3.9214008
1.2786214 0.5553301 3.3436522
1.5213121 0.66445804 3.1095674
2.5984728 1.1391318 4.2396173
2.8039181 1.2326702 3.7437367
0.49224257 0.15603375 8.7697725
0.84217775 0.30222434 8.3022232
0.91813427 0.39037144 3.8786998
3.072618 1.3228335 9.151309
1.7110318 0.74234617 3.9203019
6.587461 2.8794539 9.5945177
9.273469 4.0998268 10.043676
4.7541842 2.1048365 4.274694
3.9468982 1.7498944 2.9152386
4.0680366 1.8069834 1.8867624
4.0831504 1.7983931 4.0549407
3.9373431 1.7382599 2.614783
4.3470669 1.9218497 2.2846367
3.934443 1.7410669 1.5865762
0.088534668 -8.7520501e-05 8.7239418
1.2175199 0.50002873 8.367527
1.6068161 0.67182142 8.396575
1.1135067 0.47448564 3.9166293
1.2841415 0.55240715 3.3528571
1.5280185 0.66104513 3.1183455
2.6153398 1.1356583 4.2602825
2.9345691 1.277899 3.9087491
0.49306008 0.15439995 8.7747641
0.84272498 0.29910508 8.2972517
0.92064983 0.38765165 3.8835394
3.0756295 1.3114232 9.146616
1.6596085 0.71316701 3.798769
1.6226619 0.70028698 2.9609778
6.586411 2.8516529 9.578557
7.7229772 3.3517139 9.2050028
9.3040571 4.074584 10.061199
4.8577466 2.1304364 4.3594327
4.0869794 1.7949549 3.0111899
4.1167531 1.8114433 1.9054928
4.0894032 1.7841294 4.0549407
3.9470668 1.7244821 3.2199066
4.3146539 1.8868625 2.8529017
5.4055567 2.3672812 2.815444
3.9404964 1.7273226 1.5865762
0.088533826 -0.00039656332 8.7239418
1.2192578 0.49577573 8.367527
1.6082107 0.66581911 8.3916798
1.1096548 0.46827537 3.897541
1.2878593 0.5486868 3.3574595
2.6167028 1.1254103 4.2561493
2.9448986 1.2701864 3.9164243
0.49359602 0.15267791 8.7747641
0.84376395 0.29616159 8.2972517
0.92083716 0.3839522 3.8786998
3.0658805 1.2946383 9.1043806
1.6140124 0.68691319 3.6907399
1.6179019 0.69154394 2.94818
6.5963249 2.8286448 9.578557
7.7906928 3.3488333 9.2711554
9.318223 4.0420818 10.061199
4.8651533 2.1134667 4.3594327
4.1085572 1.7873497 3.0221558
4.3714504 1.9035201 2.5823421
4.1060514 1.7896531 1.8980007
4.0407662 1.7461467 4.0017328
3.964191 1.7155097 3.2287359
4.3686824 1.8923512 2.8833001
5.1681304 2.241838 2.691659
3.9551649 1.7173185 1.5898632
0.088531896 -0.00070560194 8.7239418
1.221702 0.49180672 8.372467
1.6161783 0.66251767 8.421052
1.293367 0.54570657 3.3666646
4.8441525 2.0553522 9.710743
2.612848 1.1129614 4.2437506
2.9404714 1.2561219 3.9049115
0.49412596 0.15095399 8.7747641
0.84479266 0.29321453 8.2972517
0.92565763 0.38217372 3.8932183
3.086302 1.2905852 9.151309
1.5843027 0.66774946 3.6187205
1.6275113 0.68894172 2.9609778
6.6089325 2.8067799 9.5825472
3.2107742 1.3669386 3.8613136
9.4076395 4.0419092 10.141805
4.8725014 2.0964713 4.3594327
4.0648499 1.7514875 2.986517
4.1828222 1.8040419 2.47104
4.2399607 1.8304321 1.9541916
4.0296741 1.7246858 3.9851053
3.970155 1.7016616 3.2287359
5.3894348 2.3121846 3.5317938
4.6880403 2.0141726 2.4461868
3.9481208 1.6979052 1.5849327
0.088528894 -0.0010146316 8.7239418
1.2241331 0.48782662 8.3774061
1.622255 0.6584031 8.4406319
1.1460019 0.47420943 4.0120687
1.295264 0.54118854 3.3666646
4.8424654 2.0347197 9.6931858
2.5752325 1.0863358 4.1776233
2.8828468 1.2196256 3.8243239
0.49464989 0.14922826 8.7747641
0.84581101 0.29026386 8.2972517
0.92000431 0.37608823 3.8641818
1.3815613 0.57216841 4.1206636
1.5203255 0.63454992 3.4701805
1.6419327 0.68829715 2.9823074
6.6186891 2.7836933 9.5825472
2.9968543 1.2635318 3.6040523
9.5398254 4.0593128 10.267967
4.8368201 2.0611401 4.3217707
5.2785459 2.2526252 3.847337
4.6779404 1.9982435 2.7492959
4.2463241 1.8156208 1.9541916
4.0494208 1.7164375 3.9984071
3.9797912 1.6893719 3.2316792
5.3419275 2.2697573 3.4963291
4.5279946 1.9267163 2.3622646
3.9627128 1.6878142 1.5882198
0.088524811 -0.0013236488 8.7239418
1.2258285 0.48355061 8.3774061
1.6321023 0.65577191 8.4797935
1.184947 0.48547995 4.1409121
1.3151985 0.5441308 3.4126902
4.853961 2.019644 9.7019644
2.5608323 1.0697477 4.1486926
2.8456984 1.1922165 3.7705991
0.49489078 0.14741918 8.7697725
0.84681904 0.28730965 8.2972517
0.91198927 0.3691043 3.8254664
1.5112879 0.61970538 4.4960847
1.4762563 0.61011869 3.3666525
6.6311479 2.7617314 9.5865374
3.3672764 1.4058766 4.0340462
9.6196651 4.0536852 10.338058
4.7650924 2.0109506 4.2527251
5.286377 2.2341859 3.847337
4.4360213 1.8766235 2.6078491
4.1757951 1.7682494 1.920477
3.9893901 1.6770359 3.2346222
4.0544949 1.7060606 2.6705129
4.4928694 1.893275 2.3412843
3.9729314 1.6758068 1.5898632
0.088519655 -0.0016326499 8.7239418
1.2267851 0.47898635 8.372467
1.6334351 0.64969468 8.4748983
1.1672679 0.47348866 4.0741048
1.3279376 0.54397887 3.4403052
4.8631959 2.0036004 9.7063532
2.8409607 1.1785915 3.7590868
0.49540237 0.14569078 8.7697725
0.84781677 0.28435194 8.2972517
0.91910672 0.36825463 3.8496633
1.5566149 0.63194817 4.6227894
1.5871786 0.64947379 3.6097181
6.640748 2.7385674 9.5865374
3.3972275 1.4044756 4.063448
9.7127457 4.0530424 10.422168
3.8455195 1.607095 3.4430032
3.4889522 1.4602209 2.5643311
3.9971964 1.67456 2.3550999
4.0023813 1.6783663 1.8418096
5.1002636 2.1408319 1.7158077
4.0026827 1.6662067 3.2405086
4.0445085 1.6852654 2.6603804
4.4868851 1.872337 2.33499
3.9918292 1.6673887 1.5947938
0.088513419 -0.0019416313 8.7239418
1.2277247 0.47442126 8.367527
1.6309558 0.64212477 8.4504232
1.1509049 0.46218273 4.0120687
1.3443122 0.54521275 3.4771254
4.8679423 1.985708 9.7019644
2.3364716 0.95693111 3.7808604
2.8569171 1.1735388 3.7744367
0.4959079 0.14396062 8.7697725
0.84880418 0.28139079 8.2972517
0.92272359 0.36597037 3.8593421
1.5780262 0.63423121 4.6791024
1.6116307 0.65291935 3.6592314
6.6474767 2.714231 9.5825472
7.8134389 3.1982303 9.2307291
9.5719233 3.955106 10.257454
3.962599 1.6397982 3.5402954
3.9652965 1.6433356 2.8987896
4.293529 1.7811092 2.5197349
4.02106 1.6697186 1.8474287
5.0899868 2.1156511 1.7101676
4.2018313 1.7293586 4.1281018
4.0122118 1.6537651 3.2434516
3.8272085 1.5790669 2.5185223
4.4933934 1.8566635 2.33499
3.9932609 1.6516395 1.5931503
0.088506103 -0.0022505883 8.7239418
1.2286474 0.46985552 8.3625879
1.625597 0.63347143 8.4112606
1.1580601 0.46036732 4.0311565
1.3480202 0.54124457 3.4817278
4.8748441 1.9687035 9.7019644
2.3371894 0.94771206 3.7767274
2.8817799 1.1720113 3.8012991
0.49668524 0.14230731 8.7747641
0.84978127 0.27842617 8.2972517
0.92633575 0.36366534 3.8690209
1.591455 0.63318354 4.7119522
1.6139001 0.64728975 3.6592314
5.3744426 2.1649861 9.5475798
6.6569104 2.6910105 9.5825472
7.8371224 3.1760299 9.24543
3.2780125 1.3411374 3.560266
3.744992 1.5344625 3.345711
5.1725125 2.1246035 3.0136392
4.0268641 1.6556724 1.8474287
5.1017766 2.0996964 1.7115775
4.2769971 1.7428602 4.1946115
4.0217028 1.641277 3.2463949
3.5852754 1.4646262 2.361465
4.630065 1.8942409 2.4000297
4.0252213 1.6484276 1.6030113
10.849343 4.4496531 1.7277284
5.6196589 2.3070858 0.338727
0.08854109 -0.0025642398 8.728941
1.2288264 0.46501431 8.3527088
1.6182975 0.62413096 8.3623085
1.1582708 0.45577574 4.0263848
1.3190365 0.52427191 3.4034851
4.8839107 1.9525642 9.7063532
2.3457065 0.94164437 3.7849929
2.9096398 1.1715214 3.8319993
0.49717894 0.1405727 8.7747641
0.85024059 0.2752946 8.2922802
0.92994303 0.36133951 3.8786998
1.5422729 0.60739464 4.5617833
5.3698545 2.1413827 9.5262499
6.663466 2.6666377 9.578557
7.8796258 3.1612771 9.2821817
3.3058119 1.3390588 3.5847981
11.018126 4.4695749 9.6697016
4.1161342 1.6722708 2.9974828
5.1183453 2.0815039 2.978857
4.1099072 1.6730679 1.8811433
5.1046324 2.080065 1.7101676
4.2692046 1.7223325 4.1813097
4.0311546 1.6287428 3.2493379
4.5777574 1.8542138 2.3706567
4.030951 1.634367 1.6030113
10.873986 4.4154806 1.7291098
5.6276779 2.2874553 0.338727
0.088531598 -0.0028732903 8.728941
1.2297144 0.46044981 8.3477697
1.6204664 0.61847824 8.3623085
2.6329496 1.0251774 9.079916
1.2935871 0.50893843 3.3344471
4.8906965 1.9355043 9.7063532
2.3542094 0.93552887 3.7932591
2.9107339 1.160171 3.8281615
0.4976666 0.13883637 8.7747641
0.85068846 0.27216324 8.2873087
0.93237197 0.35854205 3.8835394
1.5234809 0.59386194 4.5007772
1.825048 0.71720755 4.1183553
5.3772964 2.1226254 9.5262499
6.6671309 2.6411421 9.5705776
7.9977388 3.1762967 9.4071369
11.066168 4.4441414 9.6979465
4.0327201 1.6220056 2.9344289
4.17592 1.682972 1.9073657
10.738571 4.2886639 10.380041
4.0405684 1.6161625 3.2522812
4.1316757 1.6542677 2.700911
4.5547142 1.8263992 2.3559706
4.948154 1.9861619 1.9448612
10.944468 4.3996611 1.7373978
5.6309934 2.2659321 0.33852547
0.088521026 -0.0031823057 8.728941
1.2305855 0.45588481 8.3428307
1.6226153 0.612818 8.3623085
2.6295474 1.0132972 9.0560551
1.2935352 0.50371116 3.3298445
4.9108028 1.9236617 9.732688
2.375792 0.93451524 3.8221896
2.9147661 1.1500036 3.8281615
0.4981482 0.13709834 8.7747641
0.85163331 0.26919213 8.2873087
0.93244296 0.35483852 3.8786998
1.8214537 0.70846558 4.1048517
5.3749561 2.1000459 9.5091867
6.6735044 2.6167538 9.5665874
3.5000999 1.3759792 4.1553268
3.8023362 1.5093579 4.099966
3.4136255 1.3571224 3.0444191
4.0111637 1.5970918 2.9152386
5.589519 2.2277675 3.2362437
4.2420516 1.6924353 1.9335883
10.701392 4.2305627 10.330159
4.0461855 1.6020484 3.2522812
4.1895227 1.6604834 2.7338424
4.5610623 1.8104892 2.3559706
4.9989414 1.9863149 1.9612963
10.964361 4.3632622 1.7380885
5.7270522 2.2813904 0.34235457
0.088509381 -0.0034912822 8.728941
1.2321693 0.45158651 8.3428307
1.6256986 0.60750657 8.3672037
2.6316741 1.0035805 9.0512838
1.2971085 0.49989519 3.3344471
4.9286532 1.9108366 9.7546339
2.3633056 0.92009157 3.7973921
2.9157767 1.1386563 3.8243239
0.49862373 0.13535863 8.7747641
0.85205877 0.26605949 8.2823362
0.93720526 0.35290954 3.8932183
1.4244066 0.54383045 4.2004404
1.8422006 0.70914042 4.1453629
5.3798218 2.0803304 9.504921
6.6797886 2.5923526 9.5625973
3.5775485 1.3920264 4.2398558
3.7943046 1.4908596 4.085948
3.4364519 1.3523247 3.0601115
3.9077885 1.5401516 2.8384776
5.6137447 2.2147455 3.2455192
4.1918793 1.6554806 1.9092388
10.611782 4.1523662 10.230394
4.0479894 1.58644 3.2493379
4.1391106 1.6238087 2.6983778
4.6011477 1.8078346 2.3727551
10.997956 4.3322229 1.7408513
5.7675147 2.2742143 0.34376529
0.088496655 -0.0038002164 8.728941
1.2330077 0.44701809 8.3378916
1.6278092 0.60182816 8.3672037
2.6658864 1.0059799 9.1562672
1.3207514 0.50371623 3.3896773
4.9464736 1.8979102 9.7765789
2.9167442 1.127316 3.8204868
0.49881402 0.13354355 8.7697725
0.85349184 0.2632401 8.2873087
0.94785529 0.35314438 3.9319336
1.4618126 0.55226845 4.3036814
1.89349 0.72130138 4.2533917
5.3870506 2.0615387 9.504921
6.6831713 2.5668592 9.5546169
9.6194162 3.740854 10.222408
4.4095411 1.7174909 3.8980794
3.815752 1.4885116 2.7699411
4.1544547 1.6239605 1.8905085
10.594876 4.1031628 10.200465
4.0535026 1.5723002 3.2493379
4.1568089 1.6140313 2.7059774
4.7838612 1.86229 1.8758339
5.7847261 2.2577007 0.34416834
0.088482849 -0.0041091042 8.728941
1.2345606 0.44271141 8.3378916
1.6299001 0.59614235 8.3672037
2.6749754 0.99875617 9.175355
1.3645433 0.51496392 3.4955354
4.9530683 1.8806323 9.7765789
2.9146738 1.1148378 3.8128116
0.49927714 0.13180155 8.7697725
0.85440552 0.26025927 8.2873087
2.180485 0.80338991 8.984292
1.3926055 0.52058369 4.0971994
1.4865437 0.56037641 3.3486478
5.3844581 2.0390277 9.4878578
6.6949067 2.5445855 9.5586071
9.7189503 3.7405574 10.313527
4.4118772 1.7006884 3.8949409
3.8209248 1.475183 2.7699411
4.2283325 1.6341583 2.459446
4.2768364 1.6546113 1.9410803
8.7501287 3.3887017 2.8480639
4.037127 1.5473442 3.9318972
4.0514193 1.5552443 3.2434516
4.0206647 1.5474465 2.0790277
4.8255835 1.859161 1.8889819
5.6620817 2.1870902 0.33852547
0.08842469 -0.0044123135 8.7239418
1.2360983 0.43839926 8.3378916
1.6310135 0.59010309 8.3623085
2.6588421 0.98217279 9.1085472
1.5017743 0.56075644 3.8361223
4.964087 1.865016 9.7853565
2.9155498 1.1035223 3.808974
0.49973416 0.13005795 8.7697725
0.8558194 0.25742814 8.2922802
2.1844571 0.79620391 8.9891319
1.3588052 0.5025543 3.9939587
5.3964267 2.0220499 9.4963884
6.7065687 2.5222611 9.5625973
9.8185978 3.7396109 10.404645
4.3305058 1.6519831 3.819618
3.826051 1.4618366 2.7699411
4.2505612 1.6257186 2.4687212
4.3431988 1.6628789 1.9673029
8.7305489 3.3461204 2.8381937
5.6528559 2.1710663 0.63657689
4.0355215 1.5305945 3.925246
4.0530448 1.5396574 3.2405086
3.979387 1.5156332 2.055949
4.8673429 1.8557633 1.90213
12.206662 4.6588483 3.2419422
5.5296836 2.1137965 0.33247954
0.088408753 -0.0047209472 8.7239418
1.2376212 0.43408179 8.3378916
1.6330633 0.58440614 8.3623085
2.656646 0.97083676 9.0894594
1.5312124 0.56566334 3.90516
4.9413824 1.8368289 9.7282982
6.135334 2.290349 9.6909771
2.9163823 1.0922143 3.8051367
0.50018513 0.12831275 8.7697725
0.85671282 0.2544392 8.2922802
2.1860404 0.78814775 8.984292
1.3783786 0.50432855 4.0455794
1.4536566 0.53642213 3.2676258
5.4034524 2.0032005 9.4963884
6.7181568 2.4998863 9.5665874
3.4600549 1.2909836 4.0818233
3.8414476 1.447799 4.1139841
4.2270002 1.5956199 3.7254643
3.811574 1.4410787 2.7562337
4.2520671 1.6093034 2.4664023
4.1755681 1.5820093 1.8923814
8.7780581 3.3292334 2.849474
5.6603994 2.1513209 0.63657689
3.9919 1.4981326 3.8786893
4.0432606 1.5198117 3.2287359
5.3515964 2.0137072 3.4456656
4.027123 1.5177391 2.0769296
4.9489007 1.8670985 1.9300697
12.231945 4.6196456 3.244287
5.5043192 2.0821085 0.33106884
0.088391736 -0.0050295219 8.7239418
1.2391288 0.42975906 8.3378916
1.6350933 0.57870215 8.3623085
2.655807 0.96003532 9.0751438
1.5405177 0.56299669 3.9235702
4.9275336 1.8121299 9.688797
6.1432915 2.2689188 9.6909771
2.9171717 1.080914 3.8012991
0.50062996 0.12656599 8.7697725
0.85810751 0.25159651 8.2972517
2.1887784 0.78051221 8.984292
1.4125853 0.51125604 4.1394343
1.4452952 0.52761298 3.2451198
1.7571652 0.64453506 3.1316152
6.7381525 2.4805841 9.5825472
3.4677205 1.2800719 4.0854988
9.7575874 3.6385777 10.313527
4.0575228 1.5154868 3.5748184
3.836163 1.4350903 2.7699411
5.319665 1.9921532 3.0600152
4.0855651 1.5316234 1.8511748
9.0727539 3.408432 1.9315317
5.6399074 2.1210315 0.63389438
3.9901044 1.4815897 3.8720381
4.0258102 1.4972353 3.211077
5.358593 1.9950144 3.4456656
4.9041572 1.8287438 2.5070305
4.9996276 1.8663265 1.9465047
5.0810905 1.9017671 0.31252798
0.08833044 -0.0053319563 8.7189417
1.2406214 0.42543107 8.3378916
1.6371034 0.57299107 8.3623085
2.6563308 0.94975412 9.0655994
1.5571723 0.56292802 3.9603903
4.9315791 1.7940997 9.6844082
6.1908212 2.261946 9.7529707
2.9149079 1.0685183 3.7936239
0.50106871 0.1248177 8.7697725
0.85898054 0.24859965 8.2972517
2.1891189 0.77203143 8.9746141
1.4111116 0.50515914 4.1300488
1.4573661 0.52626073 3.2676258
1.7716628 0.64284468 3.1529448
6.7496023 2.4580798 9.5865374
3.4498763 1.2598196 4.0597725
9.7133493 3.5835109 10.253949
4.4242396 1.6348759 3.8855257
3.9705572 1.469586 2.8604095
5.584126 2.0689919 3.2037807
4.2777886 1.5866755 1.9317151
5.1224794 1.9020003 1.6960672
9.0845966 3.3767414 1.9315317
5.5959363 2.0822282 0.62897652
4.0758624 1.4972636 3.9485247
4.0423918 1.4873606 3.2199066
5.3412538 1.9673578 3.4304667
5.5577269 2.0503845 2.8259342
5.0238304 1.8554069 1.9530787
12.173081 4.5029726 1.9024705
5.1626582 1.9117777 0.31575248
0.088311285 -0.0056402544 8.7189417
1.2420989 0.4210979 8.3378916
1.6381314 0.56694019 8.3574133
2.6568151 0.9394809 9.0560551
1.5867227 0.56735319 4.0294285
4.8859797 1.758224 9.5834589
6.2013254 2.2412786 9.7571039
2.92766 1.0616148 3.8051367
0.50150132 0.12306789 8.7697725
0.85984302 0.24559972 8.2972517
2.1906135 0.76397151 8.9697742
1.4210004 0.50310922 4.153513
1.4530437 0.5189743 3.2541223
1.8156269 0.65163118 3.2254655
6.7553058 2.4334829 9.5825472
10.271868 3.7488759 10.825191
4.4226079 1.6167498 3.8792486
4.1287966 1.5117866 2.9673264
5.5247664 2.0250945 3.1666799
4.2876534 1.5733304 1.9335883
5.1290874 1.8841081 1.6960672
9.1424322 3.3619637 1.9408579
5.5798035 2.05408 0.62674117
4.1161561 1.4957788 3.9817796
3.9184189 1.4262377 3.119839
5.2508807 1.913282 3.3696702
4.9992285 1.8265156 1.9415742
11.988755 4.3872743 1.8727711
5.3522515 1.9607683 0.32361218
0.088291064 -0.0059484844 8.7189417
1.2428244 0.41651291 8.3329525
1.6401004 0.56121856 8.3574133
2.6544423 0.9282307 9.0369682
1.5886935 0.56181103 4.0294285
4.8537288 1.7275068 9.5088444
6.2011623 2.2167771 9.7447052
2.8710063 1.0297477 3.7283864
0.50192791 0.12131657 8.7697725
0.86120838 0.2427408 8.3022232
2.1920784 0.75591052 8.9649353
1.4308919 0.50099635 4.1769767
1.4527936 0.51317412 3.2496209
1.8203483 0.64616179 3.2297316
2.6848595 0.95665401 3.8488829
10.318435 3.7251072 10.860236
3.5607197 1.2876122 3.1354344
4.2559252 1.5415081 3.0523119
5.2860961 1.9167075 3.0298707
4.3584847 1.5820807 1.9616836
5.122107 1.8612778 1.6918372
9.2187395 3.3535397 1.9539145
5.5448251 2.0192537 0.62271744
4.0827017 1.4675094 3.9451993
3.8397062 1.3824291 3.0550892
4.5345721 1.6370486 2.3161075
5.1698923 1.8684392 2.0023839
11.873618 4.2982025 1.8534321
5.3590636 1.9420735 0.32361218
0.088269755 -0.0062566418 8.7189417
1.2442707 0.41217214 8.3329525
1.6410847 0.55516404 8.3525181
2.6576662 0.91895932 9.0369682
1.5611377 0.54594606 3.9557877
4.8032508 1.6906754 9.3991175
2.796042 0.99186057 3.6286116
0.5023483 0.11956377 8.7697725
0.86205041 0.23973313 8.3022232
2.1863754 0.74541575 8.9310589
1.432632 0.4959985 4.1769767
1.4504657 0.5066644 3.2406185
1.8472012 0.64844072 3.2723908
2.7109184 0.95528728 3.8808031
10.280996 3.671078 10.807668
3.5835173 1.2817291 3.1511266
4.3203268 1.5477961 3.0934339
5.2969246 1.8997394 3.0321896
4.3639808 1.5668572 1.9616836
5.0292583 1.8076901 1.6608164
5.5424695 1.996511 0.62182331
3.7324731 1.3269327 3.6093235
4.3667359 1.556684 2.8098376
4.4590483 1.5922124 2.2762444
5.3498011 1.9123719 2.0664809
5.5257092 1.9806703 0.33046421
0.088247381 -0.0065647219 8.7189417
1.2457019 0.4078263 8.3329525
1.6430126 0.54943222 8.3525181
2.6693325 0.91257334 9.0655994
1.5316445 0.52964222 3.8775451
4.7955513 1.6691753 9.3727837
1.3367432 0.46743619 2.1524785
7.085278 2.4854774 9.0663548
0.50276262 0.11780953 8.7697725
0.86339629 0.23686296 8.3071947
2.1794348 0.7345686 8.8923435
1.4359874 0.49155334 4.1816697
1.4522254 0.50159824 3.2406185
1.8667005 0.64797467 3.3022525
2.7000089 0.94086128 3.8608527
3.0606771 1.0695096 3.5930264
3.3497016 1.1829687 3.57078
4.4360604 1.5718071 3.1701949
5.3410978 1.8945661 3.0530586
4.3344741 1.5392039 1.9466994
4.9948573 1.7756622 1.6481261
5.5071845 1.9621097 0.61779958
3.2826891 1.1541462 3.1803341
4.4897661 1.5811458 3.5495403
4.3843398 1.5457317 2.8174374
5.9110565 2.0874424 2.9853864
5.2985659 1.8732244 2.0451152
12.701741 4.4954462 3.3404169
5.4384136 1.9279836 0.3264336
0.088223927 -0.0068727224 8.7189417
1.2471179 0.40347552 8.3329525
1.6449205 0.54369366 8.3525181
2.6767445 0.90468365 9.079916
1.5482732 0.52934736 3.9143653
4.7651148 1.6399561 9.3025579
1.3383667 0.46276724 2.1524785
7.1029959 2.4638813 9.0778675
0.50317079 0.11605383 8.7697725
0.86421782 0.23384771 8.3071947
2.1736374 0.72417617 8.8584671
1.4393291 0.48709083 4.1863623
1.4519073 0.49582261 3.2361174
1.8492163 0.63468266 3.2681251
2.6719389 0.92063415 3.8169627
3.0996392 1.0709974 3.6334536
3.3403432 1.1665659 3.5567617
3.6805546 1.2875248 3.2264495
4.5164986 1.5825846 3.2222829
5.3058777 1.8612475 3.0298707
4.1954775 1.4733746 1.8848894
4.95577 1.7423059 1.6340258
9.2255507 3.2470345 1.9483188
5.4905157 1.9345992 0.61556417
3.2866979 1.1426804 3.1803341
4.4952579 1.565464 3.5495403
4.3001571 1.4991978 2.7617073
5.9697242 2.0847518 3.0105629
5.3630219 1.874977 2.0664809
12.703592 4.4462643 3.3369002
5.2376685 1.8362617 0.31756625
0.088199399 -0.0071806405 8.7189417
1.2485187 0.39911979 8.3329525
1.6468084 0.53794849 8.3525181
2.6883807 0.8981719 9.1085472
1.5593656 0.52706659 3.9373775
4.7708101 1.6233128 9.3025579
1.3426366 0.45900273 2.1566114
7.1024575 2.4359529 9.0663548
0.50329107 0.11423376 8.76478
0.86502886 0.2308296 8.3071947
2.1642125 0.71265423 8.8100739
1.4410206 0.48206365 4.1863623
1.4536293 0.4907515 3.2361174
1.8514206 0.62822384 3.2681251
2.7036593 0.92101729 3.8568628
3.103359 1.0601711 3.6334536
3.3275402 1.1490788 3.5392389
3.574672 1.2364988 3.1322958
4.6365738 1.6065083 3.3017855
5.2704906 1.8281982 3.0066826
4.1962152 1.4572001 1.8830165
5.0116634 1.7423239 1.6495361
9.195075 3.2002795 1.9399252
3.2977285 1.1336282 3.1869853
4.4204373 1.5221282 3.4877341
4.2523832 1.465915 2.728776
5.6766677 1.960207 2.8636992
5.3829231 1.8608736 2.0714114
12.732816 4.4066625 3.3404169
5.3526139 1.8556049 0.32220146
0.088173799 -0.0074884696 8.7189417
1.2499043 0.39475924 8.3329525
1.647707 0.53188413 8.3476229
1.0259866 0.3389335 3.5014665
1.570461 0.52471483 3.9603903
4.7696371 1.604359 9.2893906
1.3415648 0.45341247 2.1524785
2.7914047 0.94654959 3.6055863
0.50368679 0.11247625 8.76478
0.86582929 0.22780867 8.3071947
2.1690774 0.70587301 8.8197517
1.4426945 0.47703061 4.1863623
1.4573984 0.48636332 3.2406185
1.8536022 0.62175733 3.2681251
2.7068577 0.91157413 3.8568628
3.0781331 1.0395697 3.6003771
3.3517807 1.1443698 3.560266
11.268859 3.8538542 9.6853933
4.6421533 1.5903138 3.3017855
5.3774052 1.8442796 3.0623338
4.2231998 1.4500709 1.8923814
9.0714884 3.1218078 1.9128793
3.2769191 1.1137002 3.1637065
4.4180703 1.5040834 3.4818475
4.1636267 1.4190776 2.6705129
4.5753374 1.5620592 2.3224018
5.3715119 1.8359632 2.0648375
12.743522 4.3606162 3.3392448
11.262803 3.8561316 1.7525929
5.481935 1.8790276 0.32744128
0.088104092 -0.0077889226 8.7139416
1.2512746 0.39039385 8.3329525
1.6505237 0.52643859 8.3525181
1.0271634 0.33535007 3.5014665
1.5852695 0.52351707 3.9926083
4.7729359 1.5869446 9.2850008
1.3404701 0.44783521 2.1483455
2.7673402 0.92763227 3.5710487
0.5040763 0.11071737 8.76478
0.86661929 0.22478497 8.3071947
2.1703317 0.69791263 8.8149128
1.4427106 0.47145593 4.1816697
1.4590873 0.48127308 3.2406185
1.9027967 0.63087523 3.3491776
6.7612829 2.2505805 9.5107279
2.9370358 0.98051256 3.4349947
3.3557549 1.132663 3.560266
11.23062 3.7970424 9.6414547
4.8496604 1.6425071 3.4416001
5.4593239 1.8511019 3.1040723
4.223846 1.4338303 1.8905085
5.3416409 1.8153422 1.7482384
8.9846697 3.0568962 1.8932942
4.2045631 1.4126018 4.0316625
4.4309559 1.4912308 3.4877341
4.1317887 1.3921475 2.6477144
4.5033584 1.5199542 2.2846367
5.2705197 1.7809225 2.0253932
11.276195 3.8167937 1.7525929
5.6067519 1.899966 0.33247954
0.088076368 -0.0080964155 8.7139416
1.2533723 0.38625228 8.3378916
1.6523514 0.52067393 8.3525181
2.7004802 0.87088668 9.1180916
1.5963736 0.5210101 4.0156207
4.7784462 1.5702744 9.2850008
1.3393531 0.44227123 2.1442127
2.7796893 0.92099094 3.5825615
0.50417733 0.10889711 8.7597885
0.86739862 0.22175853 8.3071947
2.1715567 0.68995202 8.8100739
1.4410628 0.4653568 4.1722836
1.4607583 0.47617701 3.2406185
1.9818178 0.64940089 3.4814217
6.7748213 2.2288485 9.5187073
2.9114656 0.96069437 3.4019182
3.3258588 1.109656 3.5252209
11.173666 3.734376 9.5818243
4.9901781 1.6707028 3.5348101
5.474153 1.8348496 3.1087098
4.2683806 1.432351 1.9073657
5.3479447 1.7966853 1.7482384
4.220099 1.4014466 4.0416389
4.3517561 1.447686 3.4229844
4.1734324 1.3899757 2.6705129
4.5086365 1.5042253 2.2846367
5.3573246 1.7894423 2.0549762
8.9706392 2.9998107 2.3720829
5.4996567 1.8422979 0.3276428
0.088047571 -0.0084038107 8.7139416
1.2547129 0.38187486 8.3378916
1.6541587 0.51490301 8.3525181
1.0380132 0.33088952 3.5300984
1.6130576 0.52023047 4.0524406
4.781621 1.5528452 9.2806129
1.3382136 0.43672043 2.1400795
2.7859333 0.91227978 3.5863988
0.50455433 0.10713655 8.7597885
0.86816746 0.21872941 8.3071947
2.1739519 0.68236762 8.8100739
1.4410344 0.45979935 4.1675911
1.4624115 0.47107512 3.2406185
2.0262532 0.65613562 3.5539424
6.7825603 2.2051866 9.5187073
2.8954623 0.94421959 3.3798671
3.3093908 1.0913389 3.5041933
11.223592 3.7075584 9.6132088
5.0912528 1.6848009 3.6006052
5.3838081 1.7836881 3.0553775
4.3481579 1.4422542 1.9392073
5.2722378 1.7507942 1.722858
4.2249656 1.3867072 4.0416389
4.3068657 1.4160746 3.3847232
4.1905427 1.3794427 2.6781125
4.8371267 1.5950757 2.4419906
5.5518718 1.8329068 2.1240036
8.9995155 2.9745803 2.3767722
5.5060539 1.8230891 0.3276428
0.088017702 -0.0087111033 8.7139416
1.2567824 0.37771615 8.3428307
1.655946 0.50912583 8.3525181
2.6979513 0.84932393 9.0894594
1.6204484 0.51637572 4.0662484
4.7847314 1.5354129 9.2762241
1.3370516 0.43118307 2.1359468
2.8012991 0.90649641 3.6017487
0.50492525 0.10537467 8.7597885
0.86892563 0.21569759 8.3071947
2.1799223 0.67589128 8.8245916
1.4393389 0.45372915 4.1582055
1.4640471 0.46596745 3.2406185
2.0310154 0.64985335 3.5582085
6.7902164 2.1814973 9.5187073
7.9099307 2.5488153 9.0873976
3.3369155 1.0875154 3.5287254
11.314168 3.6937251 9.6791162
5.1010771 1.6683185 3.6033466
5.4952488 1.7993454 3.1133473
4.291492 1.4068499 1.912985
5.0960021 1.6725438 1.6664566
9.8095388 3.2233305 2.0518396
5.515635 1.8145214 0.61422294
4.2191253 1.368495 4.0316625
4.2579641 1.3835458 3.3435192
4.2076302 1.3688072 2.6857119
4.9764357 1.621775 2.5070305
5.4864078 1.7900804 2.0977075
10.280444 3.3581991 2.6991594
5.4269176 1.7758905 0.32401523
0.087986752 -0.0090182889 8.7139416
1.2580932 0.37332684 8.3428307
1.6577131 0.50334239 8.3525181
2.7066011 0.84167379 9.1085472
1.6483305 0.5189271 4.1306834
4.790062 1.5187018 9.2762241
1.3305047 0.42395076 2.1235478
2.8227644 0.90256917 3.624774
0.50557303 0.10366858 8.76478
0.86967325 0.21266316 8.3071947
1.1017454 0.33751616 4.4739494
1.4359709 0.44716352 4.1441274
1.4656646 0.46085414 3.2406185
6.7949181 2.1568704 9.5147171
7.9155493 2.5201604 9.0837221
4.2665606 1.3764718 3.6972182
4.8601837 1.5707774 3.4333756
5.488852 1.7760611 3.106391
4.2743254 1.3847175 1.9036198
5.1565661 1.672505 1.6833769
5.5077271 1.7906381 0.61288166
3.5589733 1.140666 3.4097934
4.2011914 1.3489044 3.2964287
4.232903 1.3607075 2.6983778
5.1289477 1.6516941 2.5783641
5.0881314 1.6405052 1.9497918
10.666779 3.4432375 2.794117
5.6992831 1.8430191 0.33530098
0.087954737 -0.0093253655 8.7139416
1.2601345 0.3691512 8.3477697
1.6604354 0.49784508 8.3574133
2.693826 0.82740092 9.0560551
1.6501318 0.51317024 4.1306834
4.7999048 1.5034038 9.2850008
1.3346608 0.42014864 2.1276808
2.8289542 0.89367586 3.6286116
0.50593185 0.10190317 8.76478
0.87041032 0.20962615 8.3071947
1.0993072 0.33257711 4.4594307
1.440822 0.44316259 4.153513
1.4651854 0.45508966 3.2361174
6.799531 2.132237 9.5107279
3.0280819 0.9525001 3.5195234
3.6507413 1.165846 2.5972285
4.3321157 1.3867488 1.9260961
5.0755773 1.6266782 1.6565863
5.5139437 1.7714015 0.61288166
3.5273376 1.1169648 3.3765388
4.178905 1.3256758 3.2758265
4.2170839 1.3393992 2.6857119
5.1217074 1.6296523 2.5720699
5.4222813 1.727368 2.069768
10.391624 3.3144097 2.7214334
9.2464561 2.9509327 1.4459308
5.6390567 1.8018254 0.33247954
0.087921649 -0.0096323276 8.7139416
1.2599225 0.36431912 8.3378916
1.6611866 0.49175718 8.3525181
2.696698 0.81799269 9.0560551
1.6164289 0.49651107 4.0432358
4.8096991 1.4880552 9.2937794
1.3361192 0.41548729 2.1276808
2.8840718 0.90002638 3.6938491
0.50656784 0.10019159 8.7697725
0.87113672 0.20658657 8.3071947
1.0992569 0.32837829 4.4545918
1.4423602 0.43813047 4.153513
1.466765 0.44997242 3.2361174
2.6233754 0.80917162 4.5607028
6.8040538 2.1075976 9.5067377
3.0411005 0.94494194 3.5305486
3.8924611 1.2236201 4.0894527
4.5248089 1.4249849 3.9074948
5.0660372 1.6002679 2.8675547
4.3457704 1.3744142 1.9298422
5.0812244 1.6089512 1.6565863
5.5200934 1.7521435 0.61288166
3.5098338 1.0979571 3.3565855
4.2143626 1.3207504 3.2993717
4.2217336 1.3246707 2.6857119
5.6039481 1.7637178 2.1338649
9.2614241 2.9201279 1.4466215
5.564321 1.7565629 0.32905352
0.087887496 -0.0099391723 8.7139416
1.2671645 0.3616229 8.3774061
1.6638706 0.48624101 8.3574133
2.7009666 0.80900264 9.0608273
1.6106738 0.48859784 4.0248256
4.8240266 1.4740566 9.3113365
1.3375614 0.41082081 2.1276808
2.9025109 0.89467388 3.7130363
0.5069145 0.098422728 8.7697725
0.87237161 0.20366499 8.3121653
1.1076306 0.32667103 4.4836278
3.2191746 0.96536928 9.1935434
1.4704103 0.44548073 3.2406185
2.626184 0.80000943 4.5607028
6.8113689 2.0838342 9.5067377
3.0443804 0.93432075 3.5305486
3.910332 1.2142556 4.1034708
4.540905 1.4126503 3.9169099
3.6627831 1.141575 2.5999699
5.1223364 1.5984086 2.8953803
4.509841 1.4090053 1.9972714
4.9815087 1.5582659 1.6241555
5.4929137 1.7224338 0.60975212
3.577858 1.1055392 3.4164445
4.2035027 1.3012505 3.2875991
4.9633765 1.5383615 3.1391509
4.5608215 1.4162029 2.2951269
5.0644484 1.5745164 1.9350002
9.8761549 3.0742066 2.5854447
9.2668314 2.8863087 1.4459308
5.8231969 1.8159574 0.33973464
0.087852269 -0.010245897 8.7139416
1.268419 0.35719746 8.3774061
1.6655577 0.48043004 8.3574133
2.7037742 0.79956961 9.0608273
1.5936539 0.47736827 3.9788003
4.8291421 1.4572088 9.3113365
2.9853411 0.90880466 3.8128116
0.50725496 0.096652672 8.7697725
0.87307727 0.20061861 8.3121653
1.1015226 0.32069606 4.4545918
3.1927404 0.94530946 9.1090736
1.4719563 0.44034535 3.2406185
2.6164734 0.78708154 4.5393734
6.8157172 2.0591741 9.5027475
3.0346458 0.91975516 3.5158479
3.9520516 1.2121006 4.1420212
4.4676747 1.3727838 3.8510025
3.6507602 1.1238617 2.589004
5.1659846 1.5922614 2.9162495
4.5147319 1.3932543 1.9972714
5.069417 1.566358 1.6495361
5.4703503 1.6944087 0.60706967
4.0638065 1.2401638 3.8653872
4.2080193 1.2865696 3.2875991
5.0594006 1.5487864 3.194881
4.465939 1.3696675 2.2468719
5.1060266 1.5679178 1.9481483
9.9193478 3.0497127 2.5936508
5.9058938 1.8191507 0.34295917
0.087815963 -0.010552497 8.7139416
1.2726529 0.35359874 8.3971624
1.6672245 0.47461325 8.3574133
2.7079816 0.79054499 9.0655994
1.5859432 0.46903306 3.9557877
4.8296089 1.4389753 9.3025579
3.0253298 0.90945035 3.8588617
0.50758922 0.09488143 8.7697725
0.8737722 0.19756977 8.3121653
1.1002189 0.31615531 4.4449124
1.370675 0.40073603 3.9376454
1.5006263 0.44321859 3.2991343
2.6267052 0.78017092 4.5521712
6.8257508 2.0362315 9.5067377
3.0410857 0.91012871 3.5195234
3.9357798 1.1920956 4.1209936
4.4687152 1.3560501 3.8478642
3.6546609 1.1111113 2.589004
5.1715112 1.5742191 2.9162495
4.6038237 1.4031658 2.0328588
5.0748534 1.5486529 1.6495361
5.4428968 1.6651055 0.60394013
3.8250122 1.1527139 3.6392531
4.2124844 1.271873 3.2875991
5.1679354 1.5623013 3.2582104
4.5792847 1.3869593 2.2993233
5.052722 1.5322698 1.9267826
9.9485359 3.0207174 2.59834
5.9026484 1.7956161 0.34255609
0.087778598 -0.010858967 8.7139416
1.2813737 0.35120583 8.4465551
1.6698514 0.46906582 8.3623085
2.7078559 0.78026116 9.0560551
1.5763183 0.46021017 3.9281728
4.8300071 1.4207563 9.2937794
6.2180886 1.838441 9.5959196
2.9608853 0.87882161 3.7744367
0.50763321 0.093057916 8.76478
0.87497711 0.19463365 8.3171368
1.1001065 0.31197023 4.440073
1.3720654 0.39594904 3.9376454
1.5335139 0.44711533 3.3666525
2.6394234 0.77393222 4.5692348
6.8414884 2.0149465 9.5187073
3.0442443 0.89950776 3.5195234
3.9125829 1.1701753 4.092957
4.3876648 1.3147476 3.7756796
3.6785417 1.1043588 2.6027114
5.1515207 1.5485065 2.9023366
4.5243487 1.3617018 1.9972714
5.153717 1.5530745 1.6720966
5.4153061 1.6360147 0.60081059
3.3924093 1.0094467 3.233542
4.2904959 1.2791014 3.3435192
4.8842077 1.4579431 3.080888
4.6319289 1.3852707 2.3224018
