# .PCD v0.7 - Point Cloud Data file format
VERSION 0.7
FIELDS x y z
SIZE 4 4 4
TYPE F F F
COUNT 1 1 1
WIDTH 1542
HEIGHT 1
VIEWPOINT 0 0 0 1 0 0 0
POINTS 1542
DATA ascii
6.2448978 -3.4232066 2.5677512
0.053609774 -0.070239671 8.7039413
2.2726021 -1.3269989 16.729691
1.6349616 -0.94054824 9.0916977
2.6105163 -1.4785275 9.638238
3.2541475 -1.8282094 8.8528728
1.6915351 -0.94561899 3.6187005
1.9523535 -1.0878965 3.3551667
2.1140106 -1.1751056 2.9723983
0.41930649 -0.2959086 8.7148647
1.6136917 -1.0518317 17.922083
2.024658 -1.1583098 9.0181694
2.876837 -1.6280981 9.043375
1.5688637 -0.88205594 3.7852654
1.853596 -1.0383677 3.5454109
1.8858832 -1.0534554 2.9351673
2.2248209 -1.2402751 2.839618
2.5062962 -1.3863344 2.8944025
4.6224856 -2.5537961 4.3406019
11.204737 -6.1827488 8.4749317
5.1180172 -2.8217638 3.1458106
2.5691526 -1.4257989 2.6981366
10.657445 -5.907465 8.9561262
4.5758638 -2.5343108 3.1594164
5.402092 -2.9882336 2.9413271
6.187449 -3.419857 2.5496726
0.053364262 -0.070426375 8.7039413
2.2659473 -1.3337408 16.714872
1.6255034 -0.94267303 9.0574312
2.6053393 -1.487631 9.638238
3.247746 -1.8395574 8.8528728
1.6590153 -0.93505281 3.5572534
1.9387311 -1.0891912 3.3386347
1.9840751 -1.111957 2.7997105
0.41827101 -0.29737046 8.7148647
1.6095647 -1.0571651 17.91711
2.0249574 -1.1678824 9.0375261
2.8786306 -1.6424065 9.0668392
1.5733504 -0.8918215 3.8032703
1.8454185 -1.0422664 3.5368788
1.808682 -1.0186267 2.8234465
2.2027462 -1.2380667 2.8175669
2.5045562 -1.3968116 2.897907
4.623744 -2.5755982 4.3500171
11.175779 -6.2177572 8.469449
5.0926499 -2.8310027 3.1365354
2.5641601 -1.4347582 2.6981366
10.612061 -5.9308267 8.935524
4.5594621 -2.5460646 3.15435
5.3955917 -3.0092828 2.9434252
0.053118106 -0.070612229 8.7039413
2.2599418 -1.3408495 16.704996
1.6160505 -0.94474316 9.0231647
2.6001306 -1.4967161 9.638238
3.2413049 -1.850883 8.8528728
1.6349189 -0.92900461 3.5133626
1.9422625 -1.1001129 3.3510334
1.9271616 -1.0889152 2.7267978
0.41723046 -0.29882866 8.7148647
1.6049759 -1.0621883 17.907167
2.0197816 -1.1743118 9.0326862
2.881855 -1.6576078 9.0949965
1.5721178 -0.89838833 3.8077717
4.6497345 -2.6477399 8.8223715
1.7579504 -0.99815142 2.7516263
2.130573 -1.2073048 2.7330382
2.505882 -1.4090414 2.904916
4.6113315 -2.5898166 4.3468785
11.143066 -6.2505927 8.4612246
2.5558841 -1.4418653 2.6948111
10.594814 -5.9698176 8.938467
4.5618157 -2.5683091 3.1619496
5.3731866 -3.021425 2.9371309
0.052871298 -0.070797205 8.7039413
2.2572479 -1.3499267 16.719812
1.6066029 -0.94675887 8.9888983
2.5948904 -1.5057833 9.638238
3.2365174 -1.8631607 8.8574762
1.6669935 -0.95494628 3.5879772
1.9164182 -1.0943264 3.3138371
1.8509388 -1.054384 2.6270227
0.41595125 -0.30011356 8.7098732
1.6008152 -1.0674883 17.902197
2.0189235 -1.1832621 9.047205
2.8850083 -1.6728514 9.1231527
1.5614274 -0.89952326 3.7897668
4.6382017 -2.6626556 8.8181047
1.6943091 -0.96984947 2.6598556
2.0586426 -1.1760546 2.6485093
2.5071535 -1.4212978 2.9119253
4.6090374 -2.6097331 4.3531556
11.113901 -6.2853351 8.4557419
2.5767996 -1.465546 2.721415
10.559855 -5.9987788 8.9266949
4.5678186 -2.5927291 3.1720822
5.3547111 -3.035686 2.932935
0.052623849 -0.070981331 8.7039413
2.2498603 -1.3561928 16.700056
1.6015377 -0.95132095 8.9791069
2.5883298 -1.514078 9.6334658
3.2249253 -1.871505 8.8436689
1.6926847 -0.97752935 3.6494238
1.8784442 -1.0813527 3.2559757
1.7860991 -1.0257195 2.5425978
0.41490114 -0.30156368 8.7098732
1.5970793 -1.0730697 17.902197
2.0115342 -1.1883838 9.0326862
2.8866 -1.6872663 9.146616
1.537571 -0.89294064 3.7402532
1.7711998 -1.0249554 3.4174328
1.7300606 -0.99835044 2.7197061
1.9634551 -1.1307813 2.5345793
2.4928882 -1.4247319 2.9014118
4.6370831 -2.647032 4.3876786
11.084628 -6.3199492 8.4502592
8.5075941 -4.8467054 5.2118616
2.5911028 -1.4856756 2.7413681
10.531836 -6.0315857 8.9208088
4.5063596 -2.5786834 3.1366177
0.052375756 -0.071164593 8.7039413
2.2451127 -1.364038 16.700056
1.5938396 -0.95428956 8.9546318
2.583029 -1.5231037 9.6334658
3.2234313 -1.8857102 8.8574762
1.676844 -0.97620153 3.6230896
1.8454524 -1.0709528 3.2063804
1.7825078 -1.031948 2.5425978
0.41384593 -0.30301014 8.7098732
1.5933238 -1.078638 17.902197
2.005214 -1.1941117 9.0230074
2.8881266 -1.7017126 9.1700802
1.519416 -0.88950258 3.7042434
1.7766219 -1.0363888 3.4344964
1.7708424 -1.0301429 2.7875364
1.8686099 -1.0848585 2.4206491
2.5033495 -1.442327 2.9189341
4.702033 -2.705914 4.4567246
11.055249 -6.3544354 8.4447756
8.4522104 -4.854311 5.1886735
2.5988312 -1.5021855 2.7546701
10.500215 -6.0622482 8.9119787
0.052127026 -0.071346991 8.7039413
2.2390125 -1.3710548 16.690176
1.5913705 -0.96037346 8.9595261
2.5764136 -1.5313482 9.6286936
1.3169399 -0.77648991 3.6612263
1.6589676 -0.97356266 3.592366
1.8101274 -1.0589145 3.152652
1.9145384 -1.1173322 2.7306354
0.41301748 -0.30462497 8.7148647
1.5895489 -1.0841932 17.902197
1.999956 -1.200457 9.0181694
2.8881035 -1.7153088 9.1888504
1.5013038 -0.88594884 3.6682339
1.7864819 -1.0505166 3.4600921
1.7802321 -1.0439399 2.8074865
1.8238498 -1.0674 2.3691969
2.5013835 -1.4528477 2.9224389
4.7262268 -2.741843 4.4881091
11.029384 -6.3908901 8.4420338
8.4083796 -4.868248 5.172442
8.5842924 -5.0021305 8.9301243
10.46851 -6.0927644 8.9031487
0.051900387 -0.071565755 8.7089415
2.2335517 -1.378454 16.685238
1.5888782 -0.96645182 8.9644213
2.5697718 -1.5395651 9.6239214
1.3159009 -0.78208047 3.6658287
1.6163952 -0.95617688 3.5089736
1.833083 -1.0809511 3.1981144
1.9106264 -1.1240083 2.7306354
0.4119516 -0.30606481 8.7148647
1.5857548 -1.0897352 17.902197
1.9936026 -1.2061292 9.0084896
2.8880208 -1.7289258 9.2076225
1.483235 -0.88227946 3.6322241
1.7715868 -1.0500965 3.4387622
1.7947344 -1.0608816 2.8354166
1.7909139 -1.0565332 2.3324451
2.4593668 -1.4399469 2.8803842
4.8006248 -2.8074477 4.5665708
11.003397 -6.4272418 8.4392929
8.4181156 -4.9131994 5.1886735
8.5410242 -5.0169363 8.9035196
10.436719 -6.1231332 8.8943195
0.05165026 -0.071746483 8.7089415
2.2280669 -1.3858316 16.680298
1.585495 -0.97199214 8.9644213
2.5631044 -1.5477542 9.6191492
1.321542 -0.79168987 3.6888416
1.6171618 -0.96426678 3.5177517
1.8244609 -1.0844673 3.1898487
1.8763655 -1.1126863 2.6884229
0.41088074 -0.30750093 8.7148647
1.5819412 -1.0952637 17.902197
1.9883072 -1.2124264 9.0036507
2.8878779 -1.7425627 9.2263927
1.4670774 -0.87961459 3.6007156
1.752239 -1.0469098 3.408901
1.8039631 -1.0748522 2.8553669
1.7813874 -1.0593125 2.3250947
2.420542 -1.4285833 2.8418341
4.8176208 -2.8400013 4.5916781
10.980895 -6.4656115 8.4392929
8.5491619 -5.0619383 8.9301243
10.404844 -6.1533542 8.8854904
0.051399499 -0.07192634 8.7089415
2.2232156 -1.3936005 16.680298
1.5820925 -0.97752059 8.9644213
2.5576861 -1.5566915 9.6191492
1.3037195 -0.78720802 3.6474187
1.6096805 -0.9674381 3.5089736
1.8559631 -1.1093616 2.6653979
0.40980488 -0.30893332 8.7148647
1.5781083 -1.1007791 17.902197
1.984063 -1.2193594 9.0036507
2.8876753 -1.7562199 9.2451649
1.4546827 -0.87909979 3.5782096
1.7262326 -1.0395641 3.3662415
1.8337808 -1.101312 2.9072371
1.766048 -1.0585521 2.310394
2.4155407 -1.4370238 2.8418341
4.8143702 -2.8607774 4.5979552
10.958259 -6.5039034 8.4392929
5.5444155 -3.2854619 2.6921666
8.5442648 -5.0994034 8.9434252
10.376358 -6.1854968 8.8796034
5.2626591 -3.1309171 2.9182487
0.051170453 -0.072142802 8.7139416
2.2183375 -1.4013524 16.680298
1.5778065 -0.98249882 8.9595261
2.5433304 -1.560146 9.5857458
1.2992951 -0.79073822 3.6428163
1.6083422 -0.97429198 3.5133626
1.802662 -1.0860583 2.5963228
0.40872401 -0.31036189 8.7148647
1.5738202 -1.1059742 17.897224
1.9797945 -1.2262777 9.0036507
2.8874121 -1.7698966 9.2639351
1.4404505 -0.87737674 3.5512023
1.6913819 -1.0266364 3.3065183
1.8892125 -1.143598 2.9990077
1.7652439 -1.0664636 2.3140695
2.404393 -1.4417789 2.834825
4.807694 -2.8795652 4.6010938
10.946254 -6.5485554 8.4475174
8.4816208 -5.1022515 8.8968687
10.34431 -6.2154346 8.8707743
5.2594824 -3.1539364 2.9224446
0.050918318 -0.072320975 8.7139416
2.21802 -1.4120089 16.714872
1.573505 -0.98745912 8.9546318
2.5302515 -1.5643041 9.5571136
1.2915311 -0.79220384 3.6290085
1.5987993 -0.9761557 3.5001953
1.7659847 -1.0723792 2.5502727
0.40763813 -0.31178674 8.7148647
1.5695153 -1.111153 17.892254
1.9755019 -1.233181 9.0036507
2.8870888 -1.7835928 9.2827063
1.6722155 -1.0230062 3.2766569
1.8877815 -1.1517551 3.0029976
1.7441374 -1.0620394 2.2920184
2.4207098 -1.4630761 2.8593569
4.7776198 -2.8842595 4.582263
10.93049 -6.5910435 8.4530001
5.2750998 -3.1758382 2.5760386
8.4382162 -5.1163402 8.870265
10.319094 -6.2494106 8.8678312
5.2523255 -3.174624 2.9245427
0.050643485 -0.072460636 8.7089415
2.2130778 -1.4197426 16.714872
1.569188 -0.99240124 8.9497366
2.5146408 -1.5668112 9.5189381
1.2854346 -0.79465234 3.6198037
1.6055806 -0.98800713 3.5221407
1.7567629 -1.0751904 2.5425978
0.40677536 -0.31338468 8.7198553
1.5647595 -1.1160052 17.882311
1.9701214 -1.2393998 8.9988108
2.8925643 -1.8009573 9.3202486
1.6908332 -1.042526 3.3193161
1.9042835 -1.1709652 3.0349178
1.7548661 -1.0769879 2.310394
2.4399529 -1.4863603 2.8873932
4.7608728 -2.8968725 4.5759859
10.939575 -6.6487031 8.4776735
5.2719083 -3.1990423 2.5797846
2.5549819 -1.5613382 2.7480192
10.286865 -6.2790751 8.8590021
5.2567158 -3.2023835 2.932935
0.050390244 -0.072636977 8.7089415
2.2133281 -1.4308347 16.754387
1.5639971 -0.99677789 8.9399452
2.5028358 -1.5716097 9.4950781
1.2809949 -0.79810131 3.615201
1.7526009 -1.0835847 3.0989237
1.8102858 -1.1166557 2.6231852
0.40567899 -0.31480265 8.7198553
1.5599889 -1.1208379 17.872368
1.9657831 -1.2462692 8.9988108
2.88626 -1.8110433 9.3202486
1.7226255 -1.0704479 3.3875711
1.8848171 -1.1680809 3.0109777
1.7597455 -1.0884571 2.3214197
2.4347496 -1.4948682 2.8873932
4.7374601 -2.905334 4.5634322
10.944825 -6.7043219 8.4996052
5.3437619 -3.2682202 2.6191182
6.2015376 -3.7898719 2.2262397
2.5749493 -1.585912 2.7746229
10.258 -6.3107095 8.853116
5.2687116 -3.234962 2.9455233
0.050136387 -0.072812431 8.7089415
2.2128773 -1.4415213 16.788961
1.5605084 -1.0022312 8.9399452
2.4683244 -1.5619761 9.3853226
1.2798557 -0.80360693 3.6198037
1.7559724 -1.0941606 3.1113224
1.8526518 -1.1517379 2.6884229
0.40457764 -0.31621683 8.7198553
1.5547721 -1.1253381 17.857452
1.9603616 -1.2524467 8.9939709
2.8784626 -1.8201848 9.3155556
3.6987894 -2.3245916 9.0966978
1.7387711 -1.0889138 3.4259646
1.8781726 -1.1730566 3.0069876
1.7674431 -1.1017673 2.3361204
2.46894 -1.5277538 2.9329524
4.7206674 -2.9177599 4.5571551
10.946262 -6.7578621 8.518795
5.3796782 -3.3160448 2.6415946
6.1474257 -3.7863386 2.2121391
2.5884314 -1.6067059 2.7945762
8.0634727 -4.9956236 5.6596642
0.049860243 -0.072949126 8.7039413
2.2208216 -1.4577665 16.887747
1.5604191 -1.0098857 8.9595261
2.432653 -1.551318 9.2707949
1.2704395 -0.80389041 3.6013935
1.8164846 -1.1406921 3.2229121
1.9056587 -1.1939365 2.7690105
0.40324518 -0.31744787 8.7148647
1.5529871 -1.1323299 17.882311
1.9559779 -1.259282 8.9939709
2.8720913 -1.8302214 9.3155556
3.7090433 -2.3491373 9.1417103
1.7680411 -1.1158576 3.4899538
1.7721981 -1.1133405 2.3471458
2.5210862 -1.5722193 2.9995389
4.7005424 -2.9280465 4.54774
10.95101 -6.8137031 8.5407267
5.4074492 -3.3592668 2.6603251
6.1015663 -3.7875347 2.2008591
2.5764763 -1.6117706 2.787925
10.446784 -6.5278206 9.0532503
8.1447124 -5.0853834 5.7280598
0.049605299 -0.073122732 8.7039413
2.2228477 -1.4702259 16.94208
1.5585901 -1.0164392 8.9693165
2.3920631 -1.5372019 9.1371794
1.2692729 -0.8093707 3.6059959
1.8124917 -1.1470259 3.2229121
1.9285811 -1.2176942 2.8073854
0.40213463 -0.31885353 8.7148647
1.5494547 -1.1380597 17.887283
1.9515703 -1.266102 8.9939709
2.832289 -1.8187875 9.2076225
1.7795389 -1.1318207 3.519815
1.7597082 -1.1140795 2.3361204
7.5609927 -4.7521286 8.8556356
4.6804032 -2.9382279 4.5383244
10.951956 -6.8674369 8.5599174
5.3603263 -3.3559811 2.6434677
5.4742198 -3.4246378 1.987944
8.2939453 -5.2289758 8.8137312
10.430776 -6.5685549 9.0591364
8.1159649 -5.106895 5.7204599
0.049349751 -0.073295437 8.7039413
2.2267532 -1.4840101 17.011229
1.5584359 -1.0241107 8.9888983
2.3666365 -1.5325592 9.0608273
1.2795877 -0.82224679 3.6428163
1.8227121 -1.1624249 3.2477098
1.9405438 -1.2347432 2.8304105
0.40101919 -0.32025528 8.7148647
1.546329 -1.1440959 17.897224
1.9460866 -1.2722185 8.9891319
2.814333 -1.8211622 9.1700802
1.7448381 -1.1183215 3.4600921
1.8454751 -1.1796762 2.9750674
1.7529505 -1.1183916 2.3324451
7.5564098 -4.7861257 8.8696537
4.6602507 -2.9483047 4.5289092
10.952661 -6.9212604 8.5791073
5.3525 -3.3771458 2.6453407
5.4622326 -3.4437253 1.987944
8.2724905 -5.2558928 8.8104057
10.462387 -6.6395779 9.1062269
8.0835285 -5.1259599 5.7103276
0.0490936 -0.073467255 8.7039413
2.2305892 -1.4978393 17.080378
1.5557005 -1.0301068 8.9937935
2.3437719 -1.5293894 8.9940195
1.2914675 -0.83626664 3.6842389
4.1087432 -2.6487787 9.0260468
1.8186433 -1.1687802 3.2477098
1.9065424 -1.2224776 2.788198
0.39967448 -0.32147148 8.7098732
1.5427535 -1.1498055 17.902197
1.9416339 -1.2790039 8.9891319
4.4903021 -2.9003363 8.813839
1.8540118 -1.1942701 2.9950178
1.7433327 -1.1208367 2.3250947
2.49246 -1.5908585 2.9855206
4.6400843 -2.9582763 4.5194936
10.953124 -6.975173 8.5982981
5.2898221 -3.3634717 2.6209912
5.4339824 -3.452481 1.9823039
8.2603827 -5.288764 8.8170567
10.483415 -6.7043686 9.1444883
0.048836853 -0.073638178 8.7039413
2.2337127 -1.511278 17.144588
1.5478606 -1.0327046 8.9693165
2.3346775 -1.5351008 8.9797039
1.2869046 -0.83970189 3.6796365
4.0914383 -2.6578856 9.0084896
1.8358095 -1.188889 3.2849064
1.8726504 -1.2099895 2.7459855
0.39854988 -0.32286465 8.7098732
1.5391564 -1.155504 17.907167
1.9361104 -1.2850784 8.984292
2.7020411 -1.775375 8.8462791
4.4714079 -2.9103019 8.7967758
1.7917011 -1.1629987 2.9032471
1.7536355 -1.1361324 2.3434706
2.474894 -1.5918319 2.9715025
4.6199059 -2.9681435 4.5100784
10.953342 -7.0291724 8.6174879
5.2663388 -3.3744125 2.6153722
8.2293215 -5.3094683 8.8037548
10.466743 -6.7452998 9.1503744
0.04857951 -0.073808201 8.7039413
2.237411 -1.5251945 17.213739
1.5400218 -1.0352604 8.9448404
2.3293047 -1.543241 8.9797039
1.2872303 -0.84633583 3.6888416
4.0560865 -2.6550982 8.9514322
1.8222224 -1.1891382 3.2683747
1.8576713 -1.209523 2.7306354
0.39742044 -0.32425389 8.7098732
1.5351136 -1.1608696 17.907167
1.9316127 -1.2918289 8.984292
2.6871941 -1.7790798 8.8181229
3.700212 -2.4350531 9.2227316
4.454679 -2.9216011 8.7839775
1.7422405 -1.1395546 2.8314266
1.7638526 -1.1515136 2.3618467
2.5172043 -1.6314965 3.0275753
4.602982 -2.980021 4.5038013
10.953318 -7.0832586 8.6366787
5.2778955 -3.4078634 2.6266103
8.2013464 -5.332057 8.7937784
10.432964 -6.7751913 9.1415453
0.048342455 -0.074015632 8.7089415
2.2365563 -1.536075 17.248314
1.5363988 -1.0406299 8.9448404
2.3239036 -1.5513624 8.9797039
1.2728683 -0.84326994 3.6566238
4.0727835 -2.6863842 9.0084896
1.8180603 -1.1954917 3.2683747
1.8293189 -1.200175 2.6960979
0.39628616 -0.32563916 8.7098732
1.531052 -1.1662211 17.907167
1.9260495 -1.2978611 8.9794531
2.6809678 -1.7884492 8.8181229
3.6916897 -2.4479544 9.2227316
4.4379263 -2.9328196 8.7711802
1.740768 -1.1472874 2.8354166
1.7938089 -1.1800226 2.4059484
2.5144796 -1.6422236 3.0310798
4.5860324 -2.991817 4.4975247
10.95305 -7.1374297 8.6558685
5.2659678 -3.426266 2.6266103
8.1452055 -5.3360987 8.7538719
10.405869 -6.8093538 9.1386023
5.1193342 -3.3435845 2.9140525
0.048083797 -0.074183926 8.7089415
2.2356529 -1.5469683 17.282888
2.4359269 -1.6625491 14.202314
2.3209515 -1.5611314 8.9892473
1.2747914 -0.85096246 3.6704314
4.0494194 -2.6913044 8.977766
1.8138762 -1.2018306 3.2683747
1.7930336 -1.1853409 2.6500478
0.39514706 -0.32702044 8.7098732
1.5261264 -1.1709088 17.897224
1.9225471 -1.3052826 8.984292
2.6761408 -1.7987592 8.8228159
3.6831222 -2.4608259 9.2227316
4.4254909 -2.9468474 8.7669144
1.7819341 -1.183364 2.9072371
1.8970556 -1.2574558 2.5456047
7.4806666 -4.9231558 8.880167
4.569056 -3.0035305 4.4912477
10.952535 -7.1916852 8.6750593
4.9420066 -3.2425487 3.1805925
8.0922527 -5.3418717 8.7172918
10.409032 -6.8634362 9.1621475
5.1076317 -3.3614342 2.9140525
0.047824554 -0.074351326 8.7089415
2.2353382 -1.5583185 17.322403
2.4326253 -1.6727731 14.217
2.3093097 -1.5650358 8.9653883
1.2701921 -0.85431659 3.6658287
4.0400004 -2.7054234 8.977766
1.7113764 -1.1425269 3.0947907
1.7488719 -1.1649374 2.5924852
0.39400312 -0.32839778 8.7098732
1.5220298 -1.1762289 17.897224
1.9179791 -1.3119856 8.984292
2.6669879 -1.8061544 8.8134298
3.6727045 -2.4724522 9.2182312
4.4108462 -2.9593711 8.7583818
1.8128525 -1.2130387 2.9630976
2.0138774 -1.3450381 2.7036369
7.4545197 -4.943325 8.8696537
4.5552988 -3.0173123 4.4881091
10.948288 -7.2437162 8.6915073
4.8493629 -3.2060328 3.1295791
8.0704489 -5.3680186 8.7139664
10.358077 -6.881834 9.1386023
5.0466957 -3.3466346 2.8867779
0.047564726 -0.074517809 8.7089415
2.2343354 -1.5692383 17.356977
2.4284453 -1.6824143 14.22679
2.2939713 -1.5663528 8.9272127
4.0265613 -2.7168295 8.9689875
1.5836307 -1.065245 2.8757446
1.6143901 -1.0835056 2.4044476
0.39285442 -0.32977113 8.7098732
1.516233 -1.1802241 17.87734
1.9144226 -1.3193859 8.9891319
2.6606669 -1.8154529 8.8134298
3.66225 -2.4840348 9.2137299
4.3961678 -2.9718282 8.7498503
1.8161023 -1.2244129 2.9750674
2.0766714 -1.397487 2.7918408
7.4312878 -4.9653535 8.8626442
4.5415015 -3.0310338 4.4849706
10.947289 -7.2981243 8.7106981
4.8418283 -3.2253964 3.1318977
4.1622324 -2.7894609 4.5437894
5.0274353 -3.3591878 2.8825817
0.047304321 -0.074683383 8.7089415
2.233918 -1.5806192 17.39649
1.5083613 -1.0526541 8.8665171
2.2811112 -1.5692738 8.8985796
4.013092 -2.7281754 8.9602098
1.4424706 -0.97761291 2.6319005
2.2823315 -1.5434192 3.3753364
0.39170092 -0.33114043 8.7098732
1.5142006 -1.1871551 17.902197
1.9098054 -1.3260604 8.9891319
2.6528916 -1.8237517 8.8087368
3.6517596 -2.495575 9.2092285
4.3814569 -2.9842196 8.7413187
1.7893845 -1.2155054 2.9391572
2.0549452 -1.3933119 2.7697897
2.4972219 -1.6811544 3.0380888
4.5308933 -3.0468681 4.4849706
10.946046 -7.3526149 8.729888
4.81215 -3.229934 3.1203036
4.1524701 -2.8039725 4.5437894
10.065161 -6.7889805 8.9237518
0.047043342 -0.074848056 8.7089415
2.2328153 -1.591565 17.431065
1.5030119 -1.0567414 8.8567266
2.2633522 -1.568723 8.8508606
3.0621836 -2.1067579 8.8160534
3.9995928 -2.7394602 8.9514322
1.4158109 -0.96677226 2.5905712
2.2928226 -1.5622057 3.3983612
0.39054263 -0.3325057 8.7098732
1.5108838 -1.1930946 17.91214
1.906195 -1.3334396 8.9939709
2.6465094 -1.8330009 8.8087368
3.641233 -2.5070722 9.2047272
4.3688626 -2.9980199 8.7370529
1.7453456 -1.1945128 2.8753169
1.9520946 -1.3335425 2.6411591
2.4706793 -1.6758473 3.013557
4.5202303 -3.0626655 4.4849706
10.941092 -7.4048405 8.7463369
4.8155241 -3.2566388 3.1295791
4.1395702 -2.8163502 4.5404639
10.06146 -6.8377047 8.9414101
0.046781786 -0.075011812 8.7089415
2.2316637 -1.6025224 17.465639
1.495991 -1.0596267 8.8371449
2.2566385 -1.5757593 8.8460884
3.0708668 -2.1285641 8.8620787
3.9840925 -2.7493238 8.9382648
1.3985182 -0.96213794 2.5657735
0.38937959 -0.33386692 8.7098732
1.5075439 -1.1990255 17.922083
1.9025563 -1.3408095 8.9988108
2.640095 -1.8422277 8.8087368
3.6253045 -2.5148036 9.1867218
4.3540807 -3.0102851 8.7285204
1.7039561 -1.1749387 2.8154664
1.9390501 -1.334582 2.6301334
2.4648144 -1.6844614 3.013557
4.5062976 -3.0762305 4.481832
10.932449 -7.4547658 8.7600441
4.7968054 -3.2684393 3.1249413
4.1235547 -2.8265605 4.5338125
10.084222 -6.9047542 8.9826145
7.8997102 -5.4049487 5.7103276
5.6002774 -3.8245206 2.4494185
0.046519659 -0.075174652 8.7089415
2.2298331 -1.6130356 17.495275
1.4897969 -1.0630676 8.8224602
2.2486827 -1.5819088 8.836544
3.0538077 -2.1325588 8.8344641
3.9784038 -2.7659485 8.9470425
1.3997765 -0.97022009 2.5740392
0.38821182 -0.33522409 8.7098732
1.5058442 -1.2062814 17.951912
1.899914 -1.3488981 9.0084896
2.6336484 -1.8514322 8.8087368
3.6111515 -2.5237021 9.1732187
4.3328457 -3.0180118 8.7071905
1.6899459 -1.1740023 2.7995064
1.8953778 -1.3142959 2.5786812
2.4530449 -1.6890099 3.0065477
4.4987388 -3.0941477 4.4849706
10.923594 -7.5047207 8.7737522
4.7780628 -3.280149 3.1203036
4.1167355 -2.8430591 4.537138
10.066711 -6.9445028 8.9885006
7.8949914 -5.442277 5.7204599
5.5441008 -3.8146021 2.4313397
0.046256967 -0.075336576 8.7089415
2.2323515 -1.6267594 17.559486
1.4869038 -1.068856 8.8273554
2.2394938 -1.5871589 8.8222284
3.0319653 -2.1330879 8.7930412
3.9510701 -2.7674522 8.9075413
1.4056095 -0.98154533 2.5905712
0.3872565 -0.33676732 8.7148647
1.4991364 -1.2095208 17.922083
1.8962164 -1.3562531 9.0133295
2.6285777 -1.8616115 8.8134298
3.5952003 -2.5312786 9.1552134
4.3372288 -3.0436051 8.7370529
1.7031177 -1.1919894 2.8274367
1.8713249 -1.3073128 2.5529552
2.4442043 -1.6955298 3.0030434
8.8613091 -6.1403761 8.7752409
10.914521 -7.5547047 8.7874594
4.7592978 -3.2917678 3.1156662
4.1037211 -2.8552794 4.5338125
10.095515 -7.0165095 9.0355911
11.455564 -7.9558482 8.2815046
5.4298482 -3.7639844 2.3886087
0.045993712 -0.07549759 8.7089415
2.2291644 -1.6363814 17.579243
1.482339 -1.0734423 8.8224602
2.2302957 -1.5923642 8.8079128
3.0292826 -2.1470478 8.8068485
3.9335582 -2.7757037 8.8899841
1.4044762 -0.98806506 2.5947039
1.7408746 -1.2220516 2.6231852
0.38607863 -0.33811703 8.7148647
1.5015212 -1.2201288 18.001627
1.8935099 -1.3643336 9.0230074
2.6220634 -1.8707755 8.8134298
3.5792403 -2.5387747 9.1372089
1.6049997 -1.1345924 3.2851889
1.7555858 -1.2378668 2.9192071
1.8251657 -1.2845676 2.4978275
7.2409019 -5.060648 8.761013
8.827055 -6.1623573 8.7626867
10.905232 -7.6047163 8.8011665
4.093729 -2.8695865 4.5338125
10.084207 -7.0609808 9.0473642
11.42419 -7.9933152 8.2789707
0.045729898 -0.075657673 8.7089415
2.2171924 -1.639532 17.52985
1.4777606 -1.07801 8.817565
2.2247236 -1.6001397 8.8079128
3.0201795 -2.1564734 8.8022461
3.9140856 -2.782479 8.8680391
1.4239764 -1.0092347 2.6360335
1.7313646 -1.2244194 2.6155102
0.38489601 -0.33946264 8.7148647
1.4947791 -1.2233356 17.971798
1.889753 -1.3716733 9.0278473
2.6155174 -1.8799169 8.8134298
3.5845261 -2.5613787 9.1732187
1.5904078 -1.1326231 3.263859
1.8052969 -1.2823795 3.0069876
1.8013122 -1.277204 2.4721014
7.2086139 -5.0756269 8.7434902
8.7927551 -6.1841755 8.7501335
10.895728 -7.6547546 8.8148737
4.0836878 -2.8838589 4.5338125
10.049588 -7.0891476 9.0385351
11.399743 -8.0356283 8.2815046
0.045446131 -0.075777754 8.7039413
2.2176862 -1.6519037 17.579243
1.4739885 -1.0831617 8.817565
2.2191246 -1.6078957 8.8079128
3.0126336 -2.1670027 8.8022461
3.8965602 -2.7905464 8.8504829
1.4960177 -1.0681645 2.7724209
1.7375214 -1.2378951 2.6308603
0.38370872 -0.3408041 8.7148647
0.74222231 -0.6110552 8.9236612
1.8869829 -1.3797456 9.0375261
2.6089392 -1.8890352 8.8134298
3.580863 -2.5776911 9.1867218
1.5949205 -1.1442494 3.2809229
1.8081609 -1.2939345 3.0189579
1.7940844 -1.2815135 2.4684262
7.1908526 -5.1007586 8.7434902
8.774292 -6.2170811 8.7532721
10.886007 -7.7048197 8.8285809
4.0705543 -2.8959315 4.5304875
9.9786549 -7.091404 8.9973307
11.371624 -8.0753717 8.2815046
0.045181341 -0.07593593 8.7039413
1.115692 -0.83687305 8.8663921
1.4693804 -1.0876943 8.8126698
2.2195265 -1.6200327 8.8317719
3.0050511 -2.1775055 8.8022461
3.8790271 -2.798526 8.8329268
1.6270574 -1.1703345 3.0162647
1.7383977 -1.2476908 2.6385353
0.38251674 -0.34214145 8.7148647
0.74008483 -0.61364239 8.9236612
1.8831671 -1.3870695 9.042366
2.6023293 -1.8981307 8.8134298
3.5788929 -2.5952868 9.2047272
1.5951439 -1.1528653 3.2894547
1.7868487 -1.2857879 2.464751
7.164299 -5.1196074 8.7329769
8.7398643 -6.2386255 8.7407179
10.879474 -7.757338 8.8450298
4.0573859 -2.9079478 4.5271616
9.9472675 -7.1214871 8.9914446
11.332849 -8.1074924 8.2739048
0.044916 -0.076093182 8.7039413
2.2184958 -1.6767175 17.678028
1.4655746 -1.0928168 8.8126698
2.2186685 -1.6313078 8.8508606
2.9974318 -2.1879818 8.8022461
3.8634229 -2.8078251 8.8197594
1.666256 -1.2073808 3.0947907
1.728837 -1.249995 2.6308603
0.38132012 -0.34347457 8.7148647
0.73875576 -0.61690629 8.9336033
1.8803325 -1.3951327 9.0520449
2.5956879 -1.907203 8.8134298
3.5698116 -2.6077638 9.2047272
1.5974351 -1.1630319 3.3022525
1.7823495 -1.2920173 2.464751
7.1463842 -5.1445847 8.7329769
8.7148743 -6.2668223 8.7375793
10.872705 -7.8099041 8.8614788
4.0441833 -2.9199073 4.5238361
4.3328052 -3.1248603 3.9733553
11.297485 -8.1419621 8.2688389
0.044650111 -0.076249503 8.7039413
1.1147678 -0.84840751 8.9059067
1.4625651 -1.0985376 8.817565
2.2177579 -1.6425964 8.8699484
2.9882023 -2.1972742 8.7976437
3.8497331 -2.8184638 8.8109808
1.6847595 -1.2297817 3.1361201
1.7244632 -1.2560222 2.6308603
0.37990567 -0.34460887 8.7098732
0.7357828 -0.61879414 8.9236612
1.8774647 -1.403193 9.0617228
2.5890145 -1.9162519 8.8134298
3.5606871 -2.620209 9.2047272
1.6017774 -1.174771 3.3193161
1.8161579 -1.3262223 2.5162034
7.1254964 -5.1674051 8.7294722
8.680337 -6.2880716 8.7250261
10.831827 -7.8380032 8.8505125
4.0279269 -2.9296136 4.5171852
4.2957106 -3.1209593 3.94981
11.244576 -8.163619 8.2511063
0.044402525 -0.076444246 8.7089415
1.1130325 -0.85323936 8.9157839
1.4587215 -1.1036361 8.817565
2.2167964 -1.6538987 8.8890362
2.980514 -2.2076914 8.7976437
3.8360167 -2.829042 8.8022032
1.6985929 -1.2489922 3.169184
1.7200685 -1.2620341 2.6308603
0.37870044 -0.34593287 8.7098732
0.73443103 -0.62204868 8.9336033
1.8745633 -1.4112502 9.0714016
2.58231 -1.9252777 8.8134298
3.5497704 -2.631326 9.2002258
1.6018621 -1.1834548 3.3278482
1.6055681 -1.1831889 2.7157159
1.9344046 -1.4229554 2.6815858
7.1045351 -5.1901422 8.7259674
8.6426144 -6.3068609 8.7093334
10.784127 -7.8609872 8.8340635
5.4974341 -3.9984965 2.0880563
4.0146642 -2.9414492 4.5138597
4.2717433 -3.1263862 3.9380374
11.22645 -8.210454 8.2587051
0.04413541 -0.076598778 8.7089415
1.1075879 -0.85521919 8.8960276
1.45567 -1.1093386 8.8224602
2.2145891 -1.6643173 8.9033518
2.9727898 -2.2180822 8.7976437
3.822273 -2.8395584 8.7934246
1.6919614 -1.2532387 3.165051
1.7156526 -1.2680305 2.6308603
0.37770244 -0.34744883 8.7148647
0.73225516 -0.62460852 8.9336033
1.8726304 -1.420064 9.0859203
2.5935111 -1.9477525 8.8744354
3.537075 -2.6410956 9.1912231
1.5914448 -1.1843675 3.3150501
1.6111058 -1.1959708 2.7316759
1.9267019 -1.4276806 2.6779106
7.0835028 -5.2127972 8.7224627
8.6393633 -6.3508234 8.7281647
10.759993 -7.9010582 8.8368053
5.5530953 -4.0686955 2.1134369
4.001368 -2.953228 4.5105343
9.905427 -7.3028531 9.0444212
4.4716411 -3.2943213 3.3494048
0.043867763 -0.076752372 8.7089415
1.1045959 -0.8590802 8.8960276
1.4534041 -1.1156534 8.8322506
2.2135265 -1.6756418 8.9224405
2.9634671 -2.2272716 8.7930412
3.8104203 -2.8514483 8.7890358
1.6853212 -1.2574543 3.1609178
1.7112159 -1.2740115 2.6308603
0.37648728 -0.34876516 8.7148647
0.73007047 -0.62716079 8.9336033
1.8706584 -1.4288812 9.1004381
2.6362393 -1.9942763 9.043375
3.5208759 -2.6481922 9.1732187
1.5726942 -1.1789644 3.2851889
1.5803769 -1.1817368 2.6877859
1.938007 -1.4465652 2.6999617
7.0623984 -5.2353673 8.7189579
10.792858 -7.9833288 8.8861523
3.9880385 -2.9649491 4.5072088
9.8701401 -7.3301549 9.0355911
4.4358826 -3.2919271 3.3316727
0.043599583 -0.076905034 8.7089415
1.1028135 -0.8638894 8.9059067
1.4503061 -1.1213428 8.8371449
2.2112246 -1.6860737 8.9367552
2.9541168 -2.2364233 8.7884378
3.8004436 -2.8647316 8.7890358
1.6741731 -1.258257 3.148519
1.7093227 -1.2819003 2.6346979
0.37526757 -0.35007721 8.7148647
0.72787678 -0.62970537 8.9336033
1.8686476 -1.4377021 9.1149569
2.7074969 -2.063087 9.3108625
3.5064046 -2.6565218 9.1597147
1.5519193 -1.171873 3.2510612
6.4163356 -4.8331938 10.711724
1.9410747 -1.4594334 2.7109871
7.0412235 -5.257854 8.7154541
8.7851324 -6.5529428 8.91961
10.818573 -8.0609274 8.9300156
3.9746761 -2.976614 4.5038829
9.8153639 -7.342772 9.0091028
4.4174595 -3.3022292 3.326606
0.043312576 -0.077017143 8.7039413
1.1004012 -0.86821514 8.9108458
1.4479896 -1.12765 8.8469362
2.2088771 -1.69651 8.9510717
2.9462922 -2.2467215 8.7884378
3.7866058 -2.8750834 8.7802572
1.6293874 -1.2335184 3.074126
1.707395 -1.2897912 2.6385353
0.37404329 -0.351385 8.7148647
0.72647727 -0.63294351 8.9435463
1.8665982 -1.4465264 9.1294756
2.7440832 -2.1061497 9.461031
3.4884579 -2.662142 9.1372089
1.5478193 -1.177283 3.2510612
6.4162283 -4.8683109 10.739655
1.9359685 -1.4662001 2.7109871
7.0171275 -5.2781129 8.7084446
8.7902107 -6.6046119 8.9478559
10.867288 -8.156373 8.9930687
5.4833064 -4.1064944 2.1035666
3.9642615 -2.9904702 4.5038829
9.7961292 -7.3818545 9.0149899
4.402462 -3.3150358 3.3240731
0.043043468 -0.077167861 8.7039413
1.0985801 -0.87301815 8.9207239
1.4456466 -1.1339548 8.8567266
2.205303 -1.7060369 8.9606161
2.9384317 -2.2569923 8.7884378
3.782254 -2.8926487 8.7934246
1.584795 -1.2084825 2.999733
1.7054331 -1.2976843 2.6423728
0.37260541 -0.35248944 8.7098732
0.72386318 -0.63512355 8.9385748
1.8645099 -1.4553537 9.1439934
2.7558274 -2.1304929 9.5267305
3.48087 -2.6756294 9.1417103
1.5457706 -1.184265 3.2553272
1.9362295 -1.4770616 2.7183375
6.9901323 -5.2961135 8.6979313
8.881938 -6.7221675 9.0639791
10.855427 -8.2068653 9.0067759
5.4689388 -4.1256099 2.1035666
3.9537988 -3.0042896 4.5038829
9.7735214 -7.4184484 9.0179329
4.3977327 -3.3355932 3.3291395
0.042773839 -0.07731764 8.7039413
1.0961324 -0.87733328 8.925663
1.4440762 -1.1408882 8.8714123
2.195802 -1.7109718 8.9462996
2.9289901 -2.2660398 8.7838354
3.7721338 -2.9058337 8.7934246
1.5783353 -1.2122929 2.9956
1.7085248 -1.3094792 2.6538854
0.3713727 -0.35378793 8.7098732
0.7236371 -0.6394136 8.9634333
1.8623825 -1.4641842 9.1585121
2.7470124 -2.1390393 9.5220375
3.4766729 -2.6917617 9.1552134
1.5416273 -1.1896535 3.2553272
1.8884492 -1.4536695 3.2304289
6.3100595 -4.8487945 8.7051811
6.943253 -5.2988458 8.6628857
8.8677044 -6.7602086 9.0733938
10.836695 -8.2523088 9.0150013
5.4697828 -4.1562839 2.1092069
3.9432876 -3.0180728 4.5038829
9.7507782 -7.4549742 9.0208759
4.3929133 -3.356158 3.3342059
0.042503688 -0.07746648 8.7039413
1.0936681 -0.88164198 8.9306021
1.4408816 -1.146556 8.8763075
2.188642 -1.7177043 8.9415274
2.9210625 -2.2762501 8.7838354
1.3759558 -1.0675356 3.2587962
1.5740939 -1.2177949 2.9956
1.7039434 -1.3154352 2.6538854
0.37013549 -0.35508209 8.7098732
0.72020721 -0.64087117 8.9485178
1.8612016 -1.4737979 9.1778698
2.7381713 -2.1475501 9.5173445
3.4724054 -2.7078974 9.1687174
1.5374652 -1.1950276 3.2553272
1.8833634 -1.4602526 3.2304289
6.2662859 -4.8500404 8.6684294
6.8370652 -5.2556725 8.554244
8.8347921 -6.7840104 9.0639791
10.801188 -8.284996 9.0095177
5.4476218 -4.1695204 2.1063867
3.9327288 -3.0318189 4.5038829
9.7246962 -7.4889655 9.0208759
4.36409 -3.3583267 3.3215399
0.042250764 -0.077654235 8.7089415
1.091187 -0.88594413 8.9355421
1.4384593 -1.1528524 8.8860979
2.181462 -1.7244079 8.9367552
2.9146361 -2.2876389 8.7884378
1.3835431 -1.0811812 3.2851305
1.5698335 -1.2232821 2.9956
1.6892203 -1.3135045 2.6385353
0.36889377 -0.35637194 8.7098732
0.71717256 -0.6426689 8.9385748
1.8570285 -1.4810696 9.1827087
2.7293043 -2.1560252 9.5126524
3.4663558 -2.7226913 9.1777201
1.5312309 -1.1987792 3.2510612
1.8616312 -1.4538349 3.2024989
6.2279291 -4.8552089 8.6390276
6.7707415 -5.2423897 8.4946671
8.789505 -6.7981386 9.0420103
10.758965 -8.3124218 8.9985523
3.9250708 -3.0478184 4.5072088
9.7016888 -7.5253429 9.023819
4.3659687 -3.3841035 3.3316727
0.04197944 -0.077801242 8.7089415
1.0886892 -0.89023972 8.9404812
1.4352185 -1.1585063 8.8909931
2.1754293 -1.7320122 8.9367552
2.9066329 -2.2977991 8.7884378
1.3797607 -1.086004 3.2851305
1.5633404 -1.2270168 2.991467
1.6896716 -1.3233458 2.6462102
0.3674413 -0.35745549 8.7048807
1.4399555 -1.3009737 18.056314
1.859686 -1.4938409 9.2214241
2.7204113 -2.1644647 9.5079594
3.4602451 -2.7374759 9.1867218
1.5249894 -1.202502 3.2467954
1.8565451 -1.4603243 3.2024989
6.1896129 -4.8601699 8.6096268
6.7158432 -5.2374816 8.4491081
8.7534399 -6.8192101 9.0294561
10.719985 -8.3422241 8.9903278
3.914408 -3.0615005 4.5072088
9.6785469 -7.5616503 9.026762
4.3745174 -3.4152398 3.3468719
0.041725069 -0.077987291 8.7139416
1.0855751 -0.89403456 8.9404812
1.4319558 -1.1641514 8.8958883
2.1693702 -1.7395953 8.9367552
2.9001226 -2.3091481 8.7930412
1.366578 -1.0833738 3.263185
1.5568404 -1.2307212 2.9873343
5.6509447 -4.4579468 8.6941175
0.3661913 -0.35873589 8.7048807
1.4338291 -1.3045563 18.036428
1.8534834 -1.4995328 9.2165852
2.7114928 -2.1728683 9.5032663
3.4506683 -2.7495377 9.1867218
1.5187403 -1.2061957 3.2425294
1.8490744 -1.4649246 3.1985087
6.1699505 -4.8796425 8.6059513
6.8012857 -5.3424015 8.5787764
8.7050858 -6.8305016 9.0043478
10.684217 -8.3744335 8.9848452
3.9036975 -3.075146 4.5072088
9.6520929 -7.5953889 9.026762
0.04145259 -0.078132465 8.7139416
1.0830456 -0.89831465 8.9454203
1.4278834 -1.1691428 8.8958883
2.1632845 -1.7471572 8.9367552
2.8950927 -2.321702 8.8022461
1.5547361 -1.2379011 2.991467
5.627821 -4.471663 8.6826048
0.36493686 -0.36001197 8.7048807
1.4159107 -1.297302 17.867397
1.846289 -1.5044054 9.2069063
2.7038915 -2.1823199 9.5032663
3.4410498 -2.7615662 9.1867218
1.5104476 -1.2082312 3.2339973
1.8415945 -1.4694908 3.1945188
6.1687899 -4.9138231 8.6280022
6.8469219 -5.4170022 8.6593809
8.6537056 -6.8391252 8.9761019
10.67461 -8.4272223 9.0012932
3.8929393 -3.0887535 4.5072088
9.6381912 -7.6390767 9.0385351
11.058439 -8.7584791 8.3752317
0.041179605 -0.078276679 8.7139416
1.0799034 -0.90208972 8.9454203
1.4245793 -1.174768 8.9007835
2.1571727 -1.7546978 8.9367552
2.8900101 -2.3342488 8.81145
3.6955216 -2.9721856 8.7583122
1.5921149 -1.2767719 3.069993
5.60467 -4.4852729 8.671092
0.36367795 -0.36128363 8.7048807
1.41294 -1.3036833 17.887283
1.8322823 -1.5036635 9.1633511
2.6949182 -2.1906564 9.4985733
3.4347751 -2.776298 9.1957245
1.5021592 -1.2102238 3.2254655
1.8458483 -1.4834609 3.210479
6.1595325 -4.9416909 8.6390276
6.83076 -5.4430919 8.6628857
8.6145544 -6.8571706 8.9604101
10.651675 -8.4696379 9.0067759
3.882134 -3.1023235 4.5072088
9.6051502 -7.6676311 9.0326481
11.024431 -8.7943392 8.3726988
0.040906116 -0.078419946 8.7139416
1.0767479 -0.90585381 8.9454203
1.421253 -1.1803842 8.9056787
2.1521893 -1.7631632 8.9415274
2.8848755 -2.3467884 8.8206558
3.6869853 -2.9865749 8.762701
1.6270516 -1.3141501 3.1443861
5.5839887 -4.5007863 8.6634169
0.36241463 -0.36255091 8.7048807
1.4068195 -1.3071551 17.867397
1.8212094 -1.5052449 9.1343155
2.6872551 -2.2000501 9.4985733
3.4216866 -2.7855217 9.1867218
1.5161515 -1.2302506 3.263859
1.8523691 -1.4993745 3.2304289
6.1554298 -4.9738154 8.657403
6.8117185 -5.4669027 8.6628857
8.5237551 -6.8336358 8.8913631
10.635101 -8.5172234 9.0177422
3.8683724 -3.1135149 4.5038829
9.5373755 -7.6681867 8.9943876
10.993666 -8.8327684 8.3726988
0.040632129 -0.078562267 8.7139416
1.0735792 -0.90960681 8.9454203
1.417905 -1.1859915 8.910574
2.1391137 -1.7649645 8.9128962
2.8811998 -2.3605587 8.8344641
3.6895273 -3.0100248 8.7934246
1.6290032 -1.3251493 3.156785
5.5657554 -4.51823 8.6595793
0.36114687 -0.36381379 8.7048807
1.4038043 -1.3135157 17.887283
1.8024203 -1.5003331 9.0665627
2.6795592 -2.2094171 9.4985733
3.4018421 -2.7891669 9.1597147
1.523964 -1.2454382 3.2894547
1.8471241 -1.5058315 3.2304289
6.1354008 -4.9931316 8.6537275
6.7870479 -5.4861636 8.6558771
8.3575182 -6.7484193 8.7438564
10.602052 -8.5516691 9.0150013
3.8545804 -3.1246479 4.5005579
9.4948435 -7.6887131 8.9796715
11.016384 -8.9144764 8.4132299
0.040357649 -0.078703612 8.7139416
1.0703976 -0.91334879 8.9454203
1.414535 -1.1915898 8.9154701
2.1271999 -1.7676502 8.8890362
2.8774631 -2.3743322 8.8482714
3.6752973 -3.0198443 8.784646
1.6265444 -1.332611 3.1609178
5.5474687 -4.5356021 8.6557417
0.35987473 -0.36507219 8.7048807
1.3976595 -1.3169447 17.867397
1.7807981 -1.4928858 8.984292
2.6612101 -2.2099366 9.461031
3.383693 -2.7940941 9.1372089
1.5316888 -1.2606952 3.3150501
6.1153121 -5.0123687 8.650053
6.7678561 -5.5098214 8.6558771
8.2070818 -6.6744056 8.6120415
10.559154 -8.5780783 9.004035
3.8407576 -3.1357226 4.497232
9.467947 -7.7218094 8.9796715
11.011931 -8.9746628 8.4334946
0.040082674 -0.078844011 8.7139416
1.0666137 -0.91657299 8.9404812
1.4088143 -1.1952025 8.9056787
2.1141486 -1.7693162 8.860404
2.8751674 -2.3893569 8.8666811
3.6591985 -3.0280745 8.7714796
1.5914967 -1.3132055 3.1030567
5.5316024 -4.5549388 8.6557417
0.35879946 -0.36653313 8.7098732
1.3926674 -1.3214482 17.862425
1.7736555 -1.4974711 8.9746141
2.648185 -2.2147839 9.4422607
3.36555 -2.7989278 9.1147022
1.5152321 -1.256047 3.2894547
6.0951638 -5.0315261 8.6463776
6.7458234 -5.5311503 8.6523724
8.1385651 -6.666018 8.5649643
10.542091 -8.6254759 9.0150013
3.8240206 -3.1443672 4.490581
9.3503571 -7.6804099 8.8943195
11.013858 -9.0403986 8.458827
0.039807215 -0.078983448 8.7139416
1.0639951 -0.92079926 8.9454203
1.4030856 -1.1987898 8.8958883
2.1022534 -1.7718748 8.836544
2.8713038 -2.4031405 8.8804893
3.6541252 -3.045429 8.784646
1.5825747 -1.3151555 3.0947907
5.5132017 -4.5721736 8.6519041
0.35751784 -0.36778334 8.7098732
1.3872758 -1.3255645 17.85248
1.7598 -1.4963243 8.9310589
2.6325188 -2.2173436 9.4141035
3.3440776 -2.800874 9.0831938
1.5008287 -1.2529711 3.2681251
6.0749574 -5.0506048 8.6427031
6.7237258 -5.5523934 8.6488676
8.0011511 -6.600265 8.4457026
4.0192771 -3.312005 3.499171
3.8101459 -3.1553149 4.4872556
9.2144861 -7.6228256 8.7913094
11.015458 -9.1062546 8.4841585
0.039514933 -0.079081461 8.7089415
1.0637025 -0.92706108 8.9701166
1.3973491 -1.2023517 8.8860979
2.0903661 -1.774372 8.812685
2.8688726 -2.418185 8.8988991
3.66732 -3.0781832 8.8417053
1.567185 -1.3116409 3.074126
5.4972086 -4.5913906 8.6519041
0.35623187 -0.36902907 8.7098732
1.3826404 -1.3303989 17.85248
1.751702 -1.5000049 8.9165411
2.6142356 -2.2175884 9.3765612
3.3525839 -2.8279703 9.1327076
1.4964459 -1.2582022 3.2681251
6.3692942 -5.3424673 11.082797
6.0546908 -5.069603 8.6390276
6.6988192 -5.5712686 8.6418581
7.9151921 -6.5759211 8.3797951
3.9916031 -3.3126624 3.4854636
3.7933736 -3.1638124 4.4806046
9.1288185 -7.6057835 8.7353888
11.016733 -9.1722317 8.50949
0.039238647 -0.079218909 8.7089415
1.06046 -0.93076837 8.9701166
1.3916049 -1.2058883 8.8763075
2.0784867 -1.7768077 8.7888241
2.8678608 -2.4345067 8.9219122
3.691304 -3.120343 8.9250965
1.5539907 -1.3098484 3.0575943
5.4811478 -4.6105514 8.6519041
0.35494152 -0.37027031 8.7098732
1.3776054 -1.334846 17.847509
1.7455035 -1.5052894 8.9117012
2.6169748 -2.2356677 9.4141035
3.3343968 -2.8326085 9.1102009
1.5079668 -1.2769018 3.3022525
6.3690214 -5.3802242 11.114717
6.031774 -5.0863357 8.6316767
6.6765971 -5.5923281 8.6383533
7.8205447 -6.5435629 8.3044729
3.9800155 -3.3265755 3.4854636
3.779448 -3.174633 4.4772792
9.1672373 -7.6921644 8.7971954
11.020985 -9.2410994 8.5373545
0.03896188 -0.079355396 8.7089415
2.1095126 -1.8651406 17.900295
1.3858529 -1.2093992 8.8665171
2.0688784 -1.7811303 8.7745094
2.8667698 -2.4508502 8.9449244
3.7150376 -3.1627076 9.0084896
1.5301021 -1.2988741 3.0203977
5.462575 -4.627584 8.6480665
0.3536469 -0.37150702 8.7098732
1.3729376 -1.3396466 17.847509
1.7402384 -1.511373 8.9117012
2.6170037 -2.2515423 9.4422607
3.2798276 -2.8060186 8.9886694
1.4995316 -1.278773 3.2937207
6.3915129 -5.4375691 11.186538
6.0113988 -5.105165 8.6280022
6.6515837 -5.6110005 8.6313438
7.7530103 -6.5331998 8.2573957
3.9747772 -3.3458338 3.4909463
3.7626424 -3.1829836 4.4706283
9.1681156 -7.7475982 8.8236837
11.034769 -9.3184519 8.5728188
0.03868464 -0.079490915 8.7089415
2.1024091 -1.8719763 17.895357
1.3793288 -1.2122124 8.8518314
2.0581374 -1.7844293 8.7554207
2.8670802 -2.4684906 8.9725389
3.7294295 -3.1974812 9.0699368
1.5255588 -1.3042072 3.0203977
5.4439502 -4.6445436 8.6442289
0.35234794 -0.37273923 8.7098732
1.3682529 -1.3444309 17.847509
1.7358981 -1.5182661 8.9165411
2.5999994 -2.2527533 9.4094114
3.2436261 -2.7947137 8.9166498
5.9909654 -5.1239142 8.6243267
6.6292396 -5.6318765 8.62784
7.6737714 -6.5123701 8.1977654
3.9471264 -3.3461683 3.4772394
3.7486665 -3.1936769 4.4673028
9.1440945 -7.7821732 8.8266277
10.985756 -9.3429499 8.560154
0.038406931 -0.079625465 8.7089415
2.0906563 -1.8746343 17.850903
1.3728019 -1.2149949 8.8371449
2.0518961 -1.7916026 8.7554207
2.8658261 -2.4848833 8.9955521
3.7236838 -3.2151759 9.0831041
1.525262 -1.3131968 3.0286636
5.4252729 -4.6614294 8.6403913
0.35104468 -0.37396687 8.7098732
1.3635517 -1.3491988 17.847509
1.7343607 -1.52764 8.9358988
2.5882192 -2.2584112 9.3953323
3.2009666 -2.7774837 8.8266249
4.9572029 -4.2773209 8.7446432
5.9704747 -5.1425829 8.6206512
6.6068301 -5.6526637 8.6243353
7.6184449 -6.5112996 8.1632414
3.9258816 -3.3517804 3.4690146
3.7346618 -3.2043114 4.4639769
10.969446 -9.3952608 8.5728188
17.506096 -14.951604 3.3031695
0.038128752 -0.079759046 8.7089415
2.0846763 -1.8824413 17.855843
1.3662724 -1.2177467 8.8224602
2.0456295 -1.7987542 8.7554207
2.8659642 -2.5025818 9.0231667
3.7359324 -3.2485845 9.1401615
1.541929 -1.3369486 3.069993
5.4065456 -4.6782422 8.6365547
0.34973717 -0.37518996 8.7098732
1.3588338 -1.3539503 17.847509
1.7374797 -1.5411924 8.9794531
2.5751352 -2.2628753 9.3765612
3.1781383 -2.7771802 8.7906151
4.9467902 -4.2985511 8.7526226
5.9499259 -5.1611705 8.6169758
6.5816555 -5.6710353 8.6173267
7.5632195 -6.5099216 8.1287184
3.9046462 -3.3572855 3.4607904
3.720629 -3.2148871 4.4606519
8.2328043 -7.1063042 8.0025425
10.949641 -9.4447575 8.5829525
17.322397 -14.899599 3.2789958
0.037850108 -0.079891652 8.7089415
2.0775177 -1.889184 17.850903
1.3597404 -1.2204677 8.8077745
2.0393384 -1.8058839 8.7554207
2.8645458 -2.5190215 9.0461798
3.7443891 -3.2789619 9.1884422
1.5542095 -1.3571306 3.1030567
5.3877659 -4.6949797 8.6327171
0.34842539 -0.37640849 8.7098732
1.3540994 -1.3586853 17.847509
1.7423999 -1.5564604 9.0326862
2.563344 -2.2684193 9.362484
3.1537168 -2.7753131 8.750104
4.9204173 -4.3058705 8.7326727
5.9318738 -5.1819086 8.6169758
6.5591264 -5.691638 8.613822
7.5110388 -6.5107884 8.0973349
3.8802593 -3.3599463 3.4498246
11.467481 -9.9228945 8.0245657
3.7093842 -3.227855 4.4606519
8.1957464 -7.124392 7.9907699
10.913351 -9.480094 8.5804195
0.037571002 -0.080023289 8.7089415
2.0709107 -1.8964245 17.850903
1.3516958 -1.2217922 8.7832985
2.0330222 -1.8129914 8.7554207
2.8645108 -2.5367775 9.0737953
3.7167544 -3.277755 9.1489401
1.5642543 -1.3755561 3.1319873
5.3689351 -4.7116432 8.6288795
0.34710932 -0.37762246 8.7098732
1.3489736 -1.3630246 17.842539
1.7509724 -1.5751443 9.105278
2.5528336 -2.2750568 9.3530979
3.1440101 -2.786305 8.750104
4.9098787 -4.3270044 8.740653
5.9112043 -5.2003441 8.6133013
6.5365334 -5.712152 8.6103172
7.4530792 -6.5062499 8.0596724
3.8622041 -3.3679738 3.4443414
11.452811 -9.9803238 8.0384779
3.6952863 -3.2383223 4.4573264
8.1617041 -7.1449695 7.9819398
10.919127 -9.5521908 8.610817
18.678677 -16.282967 1.0932587
0.037291441 -0.08015395 8.7089415
2.0642784 -1.9036417 17.850903
1.3481756 -1.2271887 8.7881937
2.0266812 -1.8200771 8.7554207
2.8629282 -2.5532627 9.0968075
3.7034998 -3.2891188 9.1445513
1.5615499 -1.3828738 3.1361201
5.3500538 -4.7282333 8.625042
0.34578907 -0.37883177 8.7098732
1.3438342 -1.3673446 17.837566
1.7463949 -1.5820906 9.110117
2.5423081 -2.2816486 9.3437119
3.1310165 -2.7943633 8.7411013
4.8767157 -4.328115 8.7087326
5.8904786 -5.218698 8.6096268
6.5138764 -5.7325773 8.6068125
7.4010901 -6.5065265 8.0282879
3.856708 -3.3869534 3.4498246
11.427893 -10.029007 8.045435
3.6839597 -3.2512016 4.4573264
8.1458092 -7.1814351 7.9907699
10.921298 -9.6215944 8.6386824
18.554146 -16.28874 1.0896312
0.037011422 -0.080283634 8.7089415
2.057621 -1.9108359 17.850903
1.3438836 -1.2318872 8.7881937
2.0203156 -1.8271403 8.7554207
2.8627186 -2.5710735 9.1244221
3.6919961 -3.3020265 9.1445513
1.5168117 -1.3527277 3.0575943
5.3311224 -4.7447486 8.6212044
0.3444646 -0.38003647 8.7098732
1.339053 -1.3720272 17.837566
1.7492183 -1.5958023 9.1536722
2.5330479 -2.2893517 9.3390188
3.1212432 -2.8052754 8.7411013
4.8436046 -4.3290477 8.6768122
5.8696966 -5.2369709 8.6059513
6.491158 -5.7529154 8.6033077
7.3666763 -6.5220013 8.0157347
3.8511257 -3.405935 3.4553072
11.41273 -10.086438 8.0593472
3.6725883 -3.2640412 4.4573264
8.1086006 -7.1990905 7.9789968
0.036730956 -0.080412336 8.7089415
2.0509384 -1.9180065 17.850903
1.3403234 -1.2372614 8.7930889
2.015029 -1.8351867 8.7601929
2.8638685 -2.5902243 9.1566401
3.6786678 -3.3132906 9.1401615
1.4743971 -1.3241671 2.983201
5.3121409 -4.7611895 8.6173668
0.34313589 -0.38123658 8.7098732
1.3342557 -1.376693 17.837566
1.7436372 -1.6018986 9.1536722
2.5224891 -2.295857 9.3296347
3.109818 -2.8146925 8.7366009
4.828464 -4.3459282 8.6768122
5.8488584 -5.2551622 8.6022758
6.4683762 -5.7731633 8.599803
7.3351498 -6.5399055 8.006319
11.374144 -10.12327 8.0570288
3.6611724 -3.2768409 4.4573264
8.0773954 -7.2219625 7.9731102
0.03645004 -0.080540061 8.7089415
2.0442307 -1.925154 17.850903
1.3359964 -1.2419325 8.7930889
2.0086107 -1.8422093 8.7601929
2.8620312 -2.6067834 9.1796532
3.6653061 -3.3245025 9.1357737
1.465592 -1.3255302 2.9749353
5.2931094 -4.7775559 8.6135292
0.34199473 -0.3826479 8.7148647
1.3294419 -1.3813421 17.837566
1.7398803 -1.6096828 9.1633511
2.5080988 -2.2988174 9.3061695
3.0999739 -2.8255308 8.7366009
4.8021011 -4.3526378 8.6568623
5.8279653 -5.273272 8.5986004
6.4428802 -5.7909398 8.5927944
7.3093801 -6.5628691 8.0031805
11.318945 -10.14517 8.0431156
3.6469386 -3.287101 4.4540005
8.0491333 -7.2474103 7.9701676
0.036168683 -0.080666803 8.7089415
2.0374982 -1.932278 17.850903
1.3316531 -1.2465885 8.7930889
2.0032644 -1.8502222 8.7649651
2.8615525 -2.6246817 9.2072678
3.650142 -3.3340461 9.1269951
1.4796792 -1.3476927 3.0121319
5.2740288 -4.7938471 8.6096916
0.34065697 -0.38383937 8.7148647
1.324612 -1.3859742 17.837566
1.733331 -1.6148891 9.1585121
2.4848433 -2.2935126 9.2498569
3.0884883 -2.8348625 8.7320995
4.7913294 -4.3734369 8.6648417
5.8070164 -5.2912993 8.5949249
6.4199829 -5.8110008 8.5892897
7.2835398 -6.5857339 8.000042
11.270309 -10.172747 8.0338402
3.6382065 -3.3023207 4.4573264
8.0088148 -7.2618871 7.9554515
0.035886884 -0.080792569 8.7089415
2.030741 -1.9393784 17.850903
1.3272936 -1.2512292 8.7930889
1.9967939 -1.8572036 8.7649651
2.8609836 -2.6426079 9.2348824
3.6367195 -3.3451457 9.1226063
1.5060718 -1.3813828 3.074126
5.254899 -4.8100638 8.605855
0.33950517 -0.3852433 8.7198553
1.319766 -1.3905895 17.837566
1.7267669 -1.6200697 9.1536722
2.4389043 -2.2669244 9.1090736
3.0769758 -2.8441484 8.7275982
3.9119353 -3.6046331 8.7711802
4.7982187 -4.4105277 8.7047424
5.783515 -5.3069534 8.587575
6.3917532 -5.8261685 8.5787764
7.2576294 -6.6084971 7.9969039
9.671011 -8.7968025 8.6558685
11.22162 -10.200108 8.0245657
3.6294136 -3.3175197 4.4606519
7.980432 -7.2870731 7.9525084
10.882273 -9.9298639 8.7425423
0.035618987 -0.080958553 8.7139416
2.0239589 -1.9464552 17.850903
1.3236562 -1.2565558 8.7979832
1.9902989 -1.8641624 8.7649651
2.8588941 -2.6592319 9.2578955
3.6232636 -3.3561924 9.1182165
1.5425819 -1.4248203 3.156785
5.2357202 -4.8262053 8.6020174
0.33834776 -0.38664395 8.7248468
1.3145386 -1.3947998 17.832596
1.7201877 -1.6252241 9.1488323
2.3919222 -2.2388649 8.9635983
3.067029 -2.8548717 8.7275982
3.8916821 -3.6111705 8.7541161
4.7717371 -4.4170146 8.6847916
5.7525058 -5.3156052 8.5691996
6.3687491 -5.8460326 8.5752716
7.2287793 -6.6285295 7.9906268
9.6279116 -8.8192091 8.6449022
11.176143 -10.230242 8.0176086
3.6260524 -3.3377547 4.4706283
3.6258733 -3.3340983 3.6702099
10.898332 -10.014459 8.7830734
0.03533617 -0.081082389 8.7139416
2.0165939 -1.9529674 17.845963
1.3192618 -1.2611685 8.7979832
1.9826938 -1.8700743 8.7601929
2.8567233 -2.6758733 9.2809086
3.611526 -3.3688195 9.1182165
1.537599 -1.4301962 3.156785
5.2164927 -4.8422709 8.5981798
0.3371847 -0.3880412 8.7298393
1.3100258 -1.3997693 17.837566
1.7135936 -1.6303521 9.1439934
2.3702798 -2.2341795 8.9119778
3.0554569 -2.8640714 8.7230968
3.8714309 -3.6176107 8.7370529
4.7562895 -4.4336438 8.6847916
5.7239885 -5.3264146 8.5544987
6.3587794 -5.8779111 8.5892897
7.2027383 -6.6510816 7.9874883
9.584775 -8.8414221 8.6339369
11.133851 -10.263187 8.0129709
6.996119 -6.4852076 8.5776215
3.6142132 -3.3467348 3.6702099
10.885456 -10.072935 8.800806
0.035052925 -0.081205241 8.7139416
2.0092084 -1.9594524 17.841024
1.315585 -1.2664722 8.8028784
1.9761539 -1.8769838 8.7601929
2.8530498 -2.6911912 9.2993183
