# .PCD v0.7 - Point Cloud Data file format
VERSION 0.7
FIELDS x y z
SIZE 4 4 4
TYPE F F F
COUNT 1 1 1
WIDTH 1576
HEIGHT 1
VIEWPOINT 0 0 0 1 0 0 0
POINTS 1576
DATA ascii
0.67610884 0.42910612 3.8733854
0.90216857 0.58098435 3.4776065
1.5824658 1.0266687 4.5034881
1.5894301 1.0358826 3.5440862
2.0709684 1.3537695 3.7064672
2.8944726 1.8963479 4.2195873
0.46025372 0.23539856 8.7797556
0.78028095 0.43681914 8.2972517
1.9677658 1.254864 9.0230074
1.2337813 0.79502124 4.0455794
1.4755319 0.95654845 3.6997426
2.4018977 1.5623218 4.7569356
6.1430211 4.0062156 9.7860384
2.7453423 1.793849 3.6334536
2.7142141 1.7863724 3.2728934
3.2202539 2.1218159 3.1919267
4.1310124 2.7249854 3.3292
4.7147756 3.112406 3.0437834
3.582494 2.366739 1.8230792
2.7844307 1.8270111 3.0473142
3.6406202 2.3914967 3.2552242
4.3024745 2.8283949 3.1112862
4.7019439 3.0945148 2.6895609
5.0443897 3.3224022 2.1913874
7.540709 4.9721951 1.3519983
0.087334909 0.014526125 8.7239418
1.1149923 0.69207209 8.3428307
0.68449682 0.43108165 3.9125471
0.89664346 0.57301033 3.4489746
1.5121169 0.9735533 4.2963748
1.5849919 1.025126 3.5265298
2.0638771 1.3388754 3.6858025
2.8983872 1.8844856 4.2157497
0.46107259 0.23379053 8.7797556
0.78180099 0.43409279 8.2972517
1.9721341 1.2479875 9.0230074
1.2365489 0.79070973 4.0455794
1.4715382 0.94668132 3.6817374
2.4051456 1.5525141 4.7526703
2.2662854 1.4667883 3.6493816
2.7458982 1.7805661 3.6261029
2.7204332 1.7768872 3.2728934
3.289537 2.1510351 3.2515571
4.3154225 2.8250592 3.4662735
4.7663713 3.1226325 3.0692904
3.5907335 2.3542197 1.8230792
2.6875372 1.7500468 2.9375727
3.638788 2.3721519 3.2463949
4.3700886 2.8510458 3.1518168
4.6367202 3.0284469 2.6475999
5.0440979 3.2970228 2.1864569
8.7455873 5.7207918 2.6112356
0.087385088 0.014221181 8.7239418
1.1174012 0.68817574 8.3428307
1.5410389 0.96256417 8.7588215
0.89863813 0.56987691 3.4489746
1.4661136 0.93671775 4.158299
4.1726069 2.6778791 9.1533289
2.0945661 1.3484175 3.7312651
2.9049478 1.8743567 4.2157497
0.46162751 0.23205085 8.7747641
0.78331149 0.43136114 8.2972517
1.9743494 1.2397594 9.0133295
1.1941284 0.7577318 3.9001033
1.4748337 0.94153893 3.6817374
2.4127462 1.5455155 4.7569356
2.273927 1.4604969 3.6533718
2.7492459 1.7691358 3.6224277
2.7236266 1.7654405 3.2693887
3.3100858 2.1480143 3.264111
4.3427892 2.8213677 3.4799805
4.7103925 3.0625131 3.0275519
5.2154241 3.3934419 2.6022608
2.4991968 1.6150151 2.7313917
3.6402586 2.3550446 3.2405086
4.4270558 2.86623 3.1847482
5.1575994 3.3430264 2.9287388
5.0634999 3.2845356 2.1897442
8.7451191 5.6769972 2.6053741
0.087434195 0.013916064 8.7239418
1.1191336 0.68386626 8.3378916
1.5435241 0.95664293 8.7539272
0.90567595 0.56991565 3.4680624
1.4611241 0.92636454 4.1352863
4.1677885 2.6542926 9.1226063
2.0945172 1.3380681 3.7229989
2.8979759 1.8555636 4.1965618
0.46243474 0.23043807 8.7747641
0.78481245 0.42862424 8.2972517
1.9807986 1.2341892 9.0230074
1.2654055 0.7967667 4.1206636
1.492824 0.94570404 3.7177474
2.3961158 1.5230943 4.7142768
2.2713881 1.4476922 3.6414013
2.8154082 1.7978432 3.6996062
2.7267733 1.7539933 3.2658844
3.3371987 2.1490912 3.2829418
4.3701835 2.8175204 3.4936879
4.7508321 3.0652647 3.0461023
5.2973404 3.420481 2.6359756
2.932276 1.880388 3.1836596
3.6450553 2.3401394 3.2375653
4.4587941 2.8647399 3.1999471
5.3104692 3.4158461 3.006367
5.1265521 3.3000679 2.2111099
7.4450593 4.7961946 2.2267156
0.087482236 0.013610777 8.7239418
1.121514 0.67995554 8.3378916
1.5347099 0.94378394 8.6853933
0.9253881 0.57781577 3.5348704
1.480886 0.93166065 4.1813116
4.1648808 2.6320515 9.0962715
2.1086819 1.3367749 3.7395308
2.8963192 1.8402798 4.1850495
0.46349552 0.22894946 8.7797556
0.78583473 0.42562881 8.2922802
1.1179637 0.69129795 5.0982351
1.3076965 0.81702846 4.2473679
1.5090179 0.94859636 3.7492557
2.3948002 1.5105472 4.701479
2.2789741 1.4413652 3.6453915
3.0593512 1.9386114 4.0046449
2.7449033 1.7521394 3.2799027
3.3414001 2.1353331 3.2798033
4.7241964 3.0247767 3.0229144
5.0750456 3.2519021 2.5235934
2.9797726 1.8961993 3.2268913
4.4687667 2.8491585 3.1999471
4.8250299 3.0798433 2.7336199
4.990797 3.1880956 2.1502998
7.4535651 4.7649407 2.224371
0.087572739 0.013308437 8.728941
1.1238806 0.67603666 8.3378916
0.69740319 0.42572415 3.9517088
0.94389701 0.58479905 3.5969059
4.1659265 2.6124079 9.0787144
2.3372431 1.4702448 4.1280279
2.8945913 1.8250304 4.1735373
0.46429187 0.22733016 8.7797556
0.78731567 0.42288312 8.2922802
1.1182269 0.68607706 5.0885558
1.3149409 0.81518614 4.2614465
1.5141671 0.94447511 3.753757
2.3890045 1.4952606 4.6801491
6.2120042 3.8983951 9.7860384
3.1608093 1.9874701 4.1259251
2.7419643 1.7368225 3.2693887
3.3455462 2.1215718 3.2766647
4.029676 2.5583463 3.2140586
4.5926456 2.9179962 2.9347999
4.9690042 3.1595435 2.4674027
2.9926875 1.8897735 3.233542
3.6818032 2.327595 3.2552242
4.8549218 3.075125 2.7441103
5.0736866 3.2161622 2.179883
7.4701524 4.7388935 2.224371
0.087618664 0.013002669 8.728941
1.1262335 0.67210948 8.3378916
0.70062727 0.42434144 3.9614995
0.95610696 0.58775258 3.6350818
3.369195 2.0867269 9.3959713
4.1648526 2.5915241 9.0567694
2.3614583 1.4739969 4.1610918
2.729754 1.707819 3.9317744
0.46534276 0.2258333 8.7847471
0.78925788 0.42038235 8.2972517
1.1163197 0.67955595 5.0691981
1.3030789 0.8015514 4.2145185
1.5119011 0.93574715 3.7402532
2.4097185 1.4965432 4.7100105
6.220458 3.8735018 9.7780581
3.2051191 1.9997532 4.1737022
2.7027197 1.6987747 3.2168207
4.1058016 2.5866115 3.2661462
4.7451982 2.9917221 3.0229144
4.7526011 2.9986992 2.3587668
2.9992659 1.8793156 3.233542
3.7001777 2.3211725 3.2640538
4.0467811 2.5405562 2.8934329
4.4467869 2.794909 2.5154226
5.0848823 3.1984324 2.179883
7.486649 4.7127891 2.224371
0.087663516 0.012696743 8.728941
1.1285727 0.66817409 8.3378916
0.70472312 0.42346555 3.9761851
0.94923121 0.57897228 3.6016781
3.3464971 2.0565426 9.3131256
4.1677594 2.5731957 9.043602
2.4024751 1.487969 4.2230859
2.9916818 1.857182 4.2924995
0.4661282 0.22420758 8.7847471
0.79072046 0.41762477 8.2972517
1.1251415 0.67955297 5.0982351
1.3029226 0.79520023 4.2051334
1.5095929 0.92704684 3.7267497
2.4548945 1.5127488 4.7867975
6.2288151 3.8485973 9.7700787
3.249553 2.0117509 4.2214794
3.4197044 2.1352704 3.3331571
4.1077142 2.567831 3.2606635
4.8157001 3.0127306 3.0600152
3.7728465 2.3621478 1.8867624
10.382365 6.5052958 3.6912637
3.741456 2.3262014 4.0050578
3.7254152 2.318922 3.2787695
3.9897635 2.4853878 2.8478355
4.5373864 2.8298051 2.5594816
5.0960159 3.1806633 2.179883
7.4989319 4.6840525 2.2231987
0.087707303 0.012390663 8.728941
1.1308982 0.66423053 8.3378916
0.70794654 0.42204517 3.9859755
0.91165286 0.55170494 3.4537466
3.3553236 2.0458658 9.317728
4.1808009 2.5611336 9.0523806
2.4100521 1.481047 4.2272186
3.1045816 1.9122839 4.4421625
0.46690801 0.22257912 8.7847471
0.79264599 0.4151088 8.3022232
1.1231934 0.67303783 5.0788774
1.3322625 0.80673373 4.2896028
1.4979467 0.91271102 3.6907399
2.4534843 1.5000892 4.7739997
6.2345042 3.8221068 9.7581091
3.26811 2.007493 4.2361803
2.6963179 1.668605 3.1957932
3.8672025 2.3959599 3.750572
4.0704589 2.5248244 3.2250245
4.822423 2.993566 3.0576963
3.7692556 2.3416247 1.8811433
10.229833 6.3601041 3.6306322
3.4762661 2.1445391 3.7190652
3.7403653 2.3101516 3.284656
5.3624959 3.3145776 3.7901778
4.5009251 2.7852907 2.5343051
5.1873798 3.2125809 2.2127531
7.5069733 4.6527262 2.2208538
8.2153177 5.0937262 1.4404055
0.087750018 0.012084432 8.728941
1.1338813 0.66066986 8.3428307
0.71116865 0.42060742 3.9957659
0.90845352 0.54544675 3.4346588
3.3774889 2.0432417 9.3591509
2.4224153 1.47702 4.2396173
3.1194425 1.9064494 4.4536748
0.46768209 0.22094795 8.7847471
0.79409009 0.41233942 8.3022232
1.1222941 0.66718674 5.0643587
1.3469054 0.80918658 4.3271451
1.4899452 0.90072012 3.6637325
6.2375102 3.7940571 9.7421494
3.2779927 1.9978373 4.2398558
4.4856677 2.7575045 4.3280478
3.7774065 2.3284531 1.8811433
10.109076 6.2362051 3.5812812
3.3627162 2.058321 3.592696
3.762192 2.3055291 3.2964287
4.7052245 2.8856711 3.3291395
4.5144873 2.7719371 2.5364029
5.2629352 3.2340097 2.2390492
7.510747 4.6188545 2.2173369
8.1022959 4.9845796 1.4189944
0.087791666 0.011778054 8.728941
1.1361806 0.65670782 8.3428307
0.71351093 0.41863737 4.0006614
0.91419965 0.54456335 3.4489746
1.4414426 0.86525637 4.0202231
1.7435697 1.0515119 3.7986526
6.9384995 4.2071633 9.7916431
0.46845049 0.2193141 8.7847471
0.79599887 0.40980846 8.3071947
1.1246161 0.66326511 5.0643587
1.3408271 0.79917997 4.2989888
1.4837452 0.88991582 3.6412265
6.2429762 3.7675903 9.7301788
3.3139751 2.0189645 3.8931983
4.03337 2.4601085 3.8918023
4.1415162 2.5290334 3.2661462
5.4933391 3.3571382 3.4565299
4.9047427 2.9997768 2.4112117
10.073503 6.1658201 3.5615406
3.1943555 1.9399751 3.4097934
3.7909391 2.3049819 3.3140874
5.1056266 3.1067572 3.5976565
5.2500005 3.2008703 2.2291882
7.5143771 4.5850143 2.21382
7.9547987 4.8556433 1.3920578
0.087832242 0.011471531 8.728941
1.138466 0.6527378 8.3428307
0.71584809 0.41665605 4.0055566
1.1307287 0.66815126 4.2458959
1.431025 0.85222369 3.983403
1.8129984 1.0847657 3.9391036
6.9531431 4.1829176 9.7916431
0.46921322 0.21767755 8.7847471
0.79742455 0.40702739 8.3071947
1.0987135 0.64283705 4.9385343
2.8588305 1.6902378 9.0856104
1.4774883 0.87916589 3.6187205
6.3899989 3.8153765 12.24365
6.2457476 3.7395837 9.7142181
3.3210025 2.0073841 3.8931983
3.8454599 2.3271198 3.7066333
4.1503191 2.5145614 3.2661462
5.4936604 3.3310518 3.4495733
5.0340834 3.0547876 2.4674027
2.871702 1.7303377 3.0672669
3.8335724 2.3126132 3.3435192
4.7104936 2.8438404 3.3190067
4.4327416 2.6793132 2.4818537
5.438921 3.2900648 2.3015027
7.5178609 4.5512047 2.2103031
0.087871753 0.01116487 8.728941
1.1400621 0.64837599 8.3378916
0.71818006 0.41466352 4.0104518
1.2064629 0.70721728 4.517899
1.4205344 0.83927441 3.9465828
1.664367 0.98797375 3.6143112
3.100703 1.8506814 4.3999496
0.46970746 0.21591863 8.7797556
0.79931629 0.40448144 8.3121653
1.1009507 0.63899791 4.9385343
2.8274989 1.6584237 8.9682913
1.4749237 0.87068355 3.6052167
6.3651314 3.770452 12.171129
6.2509918 3.7131426 9.7022486
3.321872 1.9921112 3.886189
4.0694761 2.4462035 3.1976097
5.4938674 3.3050048 3.4426169
4.7865572 2.8817725 2.3456554
11.24213 6.773684 3.9478896
7.9631615 4.8018074 1.856922
2.8456762 1.7011454 3.0340123
3.8416214 2.2992175 3.3435192
4.6020503 2.7564983 3.2379451
4.3875747 2.6311462 2.452481
5.4584708 3.2759194 2.3047898
7.521203 4.5174274 2.2067862
0.08791019 0.010858073 8.728941
1.1423185 0.64439249 8.3378916
0.72050691 0.41265982 4.015347
1.2321533 0.71650505 4.6037946
1.4099706 0.82640886 3.9097626
1.5501685 0.91289216 3.3641338
6.5617294 3.8760715 11.26563
3.1154184 1.844746 4.4114623
0.4704583 0.21427774 8.7797556
0.80072331 0.40168881 8.3121653
1.1009957 0.63389701 4.9288549
2.8228295 1.642469 8.935442
1.4666824 0.85892999 3.5782096
1.5146686 0.89019531 2.9439139
6.2587228 3.6882405 9.6942682
3.3318708 1.982327 3.8896935
3.887651 2.3184733 3.0523119
4.9195795 2.9361901 3.0855219
4.7886271 2.8602922 2.3419094
11.315115 6.7639356 3.9648099
7.9545822 4.7588501 1.8513265
2.8419626 1.6854881 3.0240355
3.766211 2.2362671 3.2728834
4.7005854 2.7932689 3.2987413
4.3850312 2.6088529 2.4461868
7.5285745 4.4861693 2.2044415
0.087903954 0.010549399 8.7239418
1.1445608 0.64040112 8.3378916
0.72282845 0.41064486 4.0202422
1.2049052 0.69504905 4.4940395
1.4094687 0.81951833 3.9005575
1.5161211 0.88573188 3.2851305
6.570364 3.8502982 11.257365
2.9725983 1.7461958 4.204237
0.47120339 0.21263424 8.7797556
0.80212063 0.39889133 8.3121653
1.1042933 0.63067317 4.9336944
2.8285456 1.6326057 8.935442
1.4470826 0.84068435 3.524195
1.5222729 0.88752961 2.9524457
6.2637548 3.6618087 9.6822977
3.1339202 1.8358012 4.0156708
3.3817666 1.996062 3.9387569
3.1525114 1.8629651 3.0350039
3.9425039 2.3325677 3.0879512
4.9107399 2.9077151 3.0739279
5.1256199 3.0373545 2.4954982
11.351036 6.7317386 3.9690402
7.9711452 4.7310543 1.8513265
3.456053 2.0334003 3.6525552
3.5093083 2.0671949 3.0492032
4.5691919 2.6936543 3.2024803
4.3980188 2.5958369 2.4482849
7.5358191 4.454915 2.2020967
0.087940238 0.010242493 8.7239418
1.1467893 0.63640195 8.3378916
0.72514474 0.40861878 4.0251374
1.1878885 0.67972153 4.4224591
1.4072434 0.81166553 3.88675
1.5088423 0.87443048 3.263185
6.5910621 3.8315823 11.269763
2.8014364 1.6325289 3.9586368
0.47194275 0.21098813 8.7797556
0.8035081 0.39608899 8.3121653
2.0329311 1.1513979 9.0326862
1.2167886 0.69678116 3.8672543
1.431146 0.82475978 3.479183
1.5253617 0.88221043 2.9524457
6.2712855 3.636899 9.6743183
3.1754837 1.8452898 4.0597725
3.3210084 1.9446024 3.8616571
3.1791422 1.8637604 3.0538344
4.1886292 2.4584854 3.2688878
4.760437 2.7963228 2.9765382
5.2840619 3.1063728 2.5648003
11.357926 6.6823444 3.9633999
8.0045424 4.7131701 1.8550568
3.6759605 2.1455429 3.8720381
3.6875055 2.1548584 3.193418
10.426314 6.1097755 4.2950792
7.5471311 4.4261241 2.2009244
0.087931857 0.009934023 8.7189417
1.1490037 0.63239503 8.3378916
0.72478867 0.40509218 4.015347
1.1902539 0.67557091 4.4224591
1.4083723 0.80577844 3.8821473
1.4952742 0.85961026 3.2280724
6.6019588 3.8071461 11.26563
2.7183185 1.5714097 3.8358369
0.47267637 0.20933944 8.7797556
0.8044067 0.39304844 8.3071947
2.0314581 1.1412171 9.0084896
1.2252159 0.69593799 3.8860252
1.413226 0.80787653 3.4296696
1.5284319 0.87688059 2.9524457
6.2761068 3.6104782 9.6623478
3.3111401 1.9086874 4.2214794
3.2105923 1.8649322 3.7284844
3.1957228 1.8585221 3.0632501
4.1971855 2.4438496 3.2688878
3.8251584 2.2307968 1.8773972
3.8126776 2.2075317 4.0050578
4.859488 2.8170009 4.1734905
4.0472188 2.3480239 2.8351696
5.3461456 3.1053221 2.9455233
10.374094 6.0306258 4.2654958
7.549932 4.3924203 2.1974077
0.087965995 0.0096270218 8.7189417
1.1512042 0.62838042 8.3378916
0.72530758 0.40206641 4.0104518
1.4009813 0.79507279 3.8545325
1.4982657 0.85438555 3.2280724
6.6127653 3.7826805 11.261497
2.718226 1.5587227 3.8281615
0.4734042 0.20768823 8.7797556
0.80577379 0.39023814 8.3071947
2.0376258 1.1353426 9.0181694
1.2426734 0.70012563 3.9329526
1.419825 0.80508578 3.4386718
1.52695 0.86896044 2.9439139
6.2912884 3.5900419 9.666338
3.3207257 1.8988005 4.2251549
2.9049904 1.6738904 3.3745253
3.2123053 1.8531904 3.0726652
3.6227319 2.0924766 2.8275115
4.9179091 2.8428299 3.0600152
3.8208838 2.2104666 1.8717781
9.8264208 5.6436648 10.173861
4.9218512 2.8302443 4.2176375
4.0553904 2.3338821 2.8351696
5.3176284 3.0639834 2.9245427
7.577847 4.3733277 2.2009244
0.087999061 0.0093199052 8.7189417
1.1533906 0.62435812 8.3378916
1.551316 0.85249037 8.5336418
1.0776355 0.60176557 3.992981
1.4054506 0.79113573 3.8591347
6.6259289 3.7595744 11.261497
2.7515116 1.5650715 3.8665369
0.47412628 0.20603448 8.7797556
0.80713111 0.38742307 8.3071947
2.0415764 1.1282231 9.0181694
1.2390838 0.69241714 3.9141815
1.4226266 0.8001247 3.4386718
6.3011594 3.5665751 9.6623478
3.2831001 1.8621103 4.1700277
2.8550837 1.6318864 3.3114433
3.235646 1.8516322 3.0883577
3.5901048 2.0569525 2.7973557
4.973917 2.8520877 3.0878408
5.4530115 3.1293223 2.6284835
9.8428154 5.6074815 10.170535
3.4430313 1.9639243 2.9697378
4.3904905 2.5094054 2.4252062
7.5930662 4.3468494 2.2009244
0.088031061 0.0090126749 8.7189417
1.1562476 0.62069547 8.3428307
1.5569648 0.84853142 8.5483274
1.088871 0.6030612 4.0263848
1.6524988 0.92709583 3.5396972
6.6365604 3.735043 11.257365
2.7960405 1.5775064 3.9202616
0.47457707 0.20426495 8.7747641
0.80799681 0.38437489 8.3022232
2.0455022 1.1210897 9.0181694
1.2490404 0.6922695 3.9376454
1.4368182 0.80151629 3.4656792
2.4091296 1.3487463 4.5862985
6.313571 3.5445583 9.6623478
3.1832101 1.7908003 4.0377216
2.888684 1.6377397 3.3429842
3.2454748 1.8422478 3.0914962
4.9838419 2.8347082 3.0878408
5.17382 2.9451444 2.4936249
9.8688316 5.5767636 10.177186
3.6503906 2.0653455 3.1374981
4.7880621 2.7112069 3.3190067
7.6504612 4.3443198 2.2126477
0.088061981 0.0087053338 8.7189417
1.1584072 0.61665565 8.3428307
0.72858232 0.39396513 4.0055566
2.2829623 1.2537479 8.373662
1.5528033 0.85984397 4.2411447
1.6913038 0.94111669 3.6143112
2.590358 1.446032 4.4297333
2.8015301 1.5677367 3.9202616
0.47528723 0.20260713 8.7747641
0.80933362 0.3815521 8.3022232
2.049403 1.1139427 9.0181694
1.2650605 0.6953851 3.9798803
1.3634106 0.75434631 3.2856307
2.400142 1.3327327 4.5607028
2.6086135 1.4526296 4.0284338
3.1894419 1.7796779 4.0377216
2.8322134 1.5926868 3.2728934
5.4584417 3.076977 4.1927619
4.8818197 2.7541721 3.0205956
5.0064454 2.8267765 2.4112117
9.96315 5.5842681 10.253673
3.812674 2.1396265 3.2669969
4.7824626 2.6860332 3.3088739
4.1191173 2.3163028 2.2720485
5.6013098 3.1523404 2.3261554
7.8053355 4.3963051 2.2513342
0.088091835 0.0083978875 8.7189417
1.1619272 0.61333328 8.3527088
0.72815806 0.39045781 3.9957659
2.2873247 1.2457713 8.373662
1.5266827 0.83843362 4.1629014
1.7407112 0.9606632 3.7108712
2.5929277 1.435618 4.4256001
2.784565 1.5455048 3.8895617
0.47599155 0.20094682 8.7747641
0.81066054 0.37872469 8.3022232
2.0532789 1.1067822 9.0181694
1.2765718 0.69591987 4.0080371
4.0189648 2.20503 9.5423183
2.4047794 1.3243465 4.5607028
2.6822498 1.4813896 4.1321745
3.1511412 1.7439111 3.982594
2.8377557 1.582791 3.2728934
4.6651721 2.6051996 4.3908172
5.6078372 3.135447 4.2969375
3.9288344 2.1984909 2.4432144
5.2306581 2.9293396 2.5104823
9.5922966 5.3851552 1.0805264
10.021743 5.5712261 10.293579
3.84131 2.1380994 3.284656
4.7692137 2.6567361 3.2936749
4.1192493 2.2974887 2.2678523
5.4432244 3.0384035 2.2587714
7.8757977 4.3998494 2.2665741
0.08812061 0.0080903377 8.7189417
1.1647496 0.6096338 8.3576488
0.72951657 0.3879137 3.9957659
2.2877188 1.2356515 8.3593464
1.5536208 0.84617954 4.2273369
1.7545589 0.96033001 3.7328167
2.5979228 1.4265584 4.4256001
0.47642335 0.19917358 8.7697725
0.81197762 0.37589267 8.3022232
2.0560215 1.0990157 9.0133295
1.2668483 0.68489546 3.9704952
1.3609948 0.74064791 3.2676258
2.407099 1.3146942 4.556437
2.7244039 1.4922827 4.188035
3.1245174 1.7149583 3.942167
4.6810479 2.5926712 4.3970942
3.9326115 2.1826136 2.4408956
5.2489572 2.9155655 2.5142286
9.615387 5.3540616 1.0809735
10.03132 5.5308013 10.283603
3.7992091 2.0973296 3.2434516
4.8199639 2.6630037 3.3215399
4.0716443 2.2523396 2.2384796
7.9591346 4.4100237 2.2853315
0.088148311 0.0077826907 8.7189417
1.1689399 0.60663748 8.372467
0.72906446 0.38441572 3.9859755
2.2959659 1.2297724 8.373662
1.6029786 0.86581558 4.3516049
1.7663201 0.95876932 3.7503729
2.6300721 1.4322847 4.4710627
7.1137662 3.8834734 9.7801313
0.47711566 0.19750935 8.7697725
0.81328475 0.37305602 8.3022232
2.0598452 1.0918322 9.0133295
1.2433745 0.66661072 3.890718
3.9882808 2.1521091 9.434289
2.4254329 1.3137361 4.5820327
2.7878489 1.5144055 4.2758155
3.0917759 1.6829715 3.8943903
3.3302372 1.8271016 3.8125935
3.9402061 2.1688728 2.4408956
5.2672234 2.9016993 2.5179744
8.4211817 4.6468406 1.9175423
10.073497 5.5082912 10.306881
4.4021397 2.4101543 3.7379029
4.1749792 2.2905049 2.2888329
4.0817914 2.2412286 1.7098395
8.0724545 4.4360538 2.3122947
0.088174947 0.0074749477 8.7189417
1.1724323 0.60326397 8.3823442
0.73220694 0.38281128 3.9957659
1.1730576 0.62317121 4.2936158
1.354543 0.72555894 3.6796365
1.7738739 0.95486796 3.759151
2.6350558 1.4230952 4.4710627
7.1300974 3.8601441 9.7839689
0.47780219 0.19584271 8.7697725
0.81458199 0.37021488 8.3022232
2.0625308 1.0840505 9.0084896
1.1603599 0.61691266 3.627923
3.9516215 2.1145525 9.330761
2.7931182 1.5046649 4.2758155
3.0528824 1.6480135 3.8392625
3.3992467 1.8495538 3.8826842
4.425591 2.4109662 4.1460176
4.7630243 2.5980115 3.6417272
4.9858975 2.7218261 3.0600152
5.407506 2.9544227 2.5779114
7.4500947 4.073761 2.585798
8.4761343 4.6386414 1.925936
10.181283 5.5211515 10.396669
4.5845823 2.4892786 3.8821175
4.2148423 2.2932701 2.3056173
4.0688539 2.2156754 1.7016219
8.1476412 4.4404125 2.328707
8.3824997 4.5703001 1.4238291
0.088200495 0.0071671149 8.7189417
1.1779922 0.60093206 8.4070415
0.73353875 0.38025311 3.9957659
1.1580555 0.61003131 4.2315803
2.6152 1.4006038 4.4297333
2.7889283 1.4973789 3.8665369
0.4784829 0.19417366 8.7697725
0.81586933 0.3673692 8.3022232
2.0674171 1.0774254 9.0133295
1.125867 0.59354901 3.5152967
3.9532094 2.0976846 9.3172579
2.8010113 1.4963256 4.2798057
3.0227501 1.6181477 3.7951605
9.0205078 4.8672733 10.152317
4.4579515 2.4084537 4.1679864
4.4042802 2.3824263 3.3675804
5.0070543 2.7107322 3.0669715
5.7071857 3.0923336 2.7108967
7.4642696 4.0477304 2.585798
8.6217947 4.6793203 1.9539145
10.299146 5.538631 10.496434
3.2088339 1.7278321 2.7372279
4.7868681 2.5796633 3.281009
4.2228217 2.2785437 2.3056173
4.0724082 2.1992149 1.6999784
8.094676 4.3749681 2.3099501
8.4027576 4.5433674 1.4245198
10.975581 5.9394312 0.59708965
0.088224977 0.0068591828 8.7189417
1.1807762 0.59716696 8.4119806
0.73576742 0.37815535 4.0006614
1.1853187 0.61911178 4.3222475
1.2714145 0.66966194 3.4449077
2.4197726 1.2807971 5.0846529
2.5977054 1.3795882 4.3925366
2.8196015 1.5011909 3.9010744
0.47915778 0.19250228 8.7697725
0.81665963 0.36430249 8.2972517
0.83714265 0.43272957 3.665765
1.1141671 0.58242232 3.4730618
1.465605 0.77124053 3.4881854
1.5604098 0.82422298 2.9567118
2.7955661 1.4808973 4.2638454
3.0283802 1.6075864 3.7951605
9.072032 4.8542638 10.190867
4.4663315 2.3928781 4.1679864
3.793529 2.0349724 2.9070144
4.7745061 2.5633261 2.9232059
5.7016101 3.0636158 2.7034047
7.4572282 4.0102901 2.5787477
8.6510534 4.6561809 1.9567124
10.325007 5.5061607 10.503085
3.2326736 1.7261399 2.7519438
4.9327149 2.6360819 3.3722034
4.4948606 2.405108 2.4440887
4.08006 2.1849861 1.6999784
8.1056137 4.3443894 2.3087776
8.4403877 4.5257092 1.4279732
10.912607 5.8561983 0.59326059
0.088248387 0.0065511786 8.7189417
1.1821588 0.59269357 8.4070415
0.7370829 0.37558475 4.0006614
2.2824233 1.181812 8.2639055
1.2356445 0.64532703 3.3436522
2.5111773 1.3179725 5.264605
2.4929488 1.3128229 4.2106872
2.8134866 1.4853541 3.8857243
0.47982684 0.19082853 8.7697725
0.81792635 0.36144957 8.2972517
0.83976686 0.43037778 3.6706047
1.1085323 0.57456017 3.4495978
1.6149753 0.84264314 3.8302777
1.5540358 0.81393147 2.9396482
2.7927155 1.4669266 4.2518754
3.0879726 1.6254281 3.8613136
3.4656825 1.8389289 3.9352527
4.4230967 2.3498812 4.1209097
4.7604361 2.5322819 3.6197953
4.9828448 2.6528118 3.0414648
5.7122693 3.0436947 2.7034047
7.4754143 3.9864924 2.5801578
8.7799282 4.6860919 1.9809606
10.360666 5.4788127 10.519712
3.3136952 1.7545642 2.8137503
3.7382319 1.9810071 2.5717189
4.5032287 2.3894033 2.4440887
4.0709801 2.1618719 1.6934043
0.088270716 0.0062430943 8.7189417
1.1863081 0.58960021 8.4218588
0.73748046 0.37255079 3.9957659
2.2812228 1.1711113 8.2448187
1.2361547 0.6401118 3.3390496
4.5256119 2.3550146 9.4166746
2.492527 1.3015079 4.2024207
2.8214939 1.4770105 3.8895617
0.48075902 0.18925734 8.7747641
0.81918305 0.3585923 8.2972517
0.83790171 0.42573655 3.6560862
1.1105311 0.57068717 3.4495978
1.6179069 0.83700073 3.8302777
1.559182 0.80970371 2.9439139
6.4004126 3.3333607 9.6304283
3.1657588 1.6522845 3.9495175
3.5099535 1.8467462 3.9773073
4.3176303 2.2745614 4.0173407
4.7174678 2.4883382 3.5814147
4.3809543 2.3127859 2.6797318
5.739255 3.0323997 2.7108967
7.4808025 3.9558892 2.5773375
8.7962322 4.6554155 1.9809606
10.379728 5.4426141 10.519712
3.3197994 1.7429866 2.8137503
3.9053984 2.0521636 2.6781125
4.3227644 2.274349 2.3454802
4.0785012 2.1476483 1.6934043
12.044456 6.3476543 3.3744142
0.088291973 0.0059349341 8.7189417
0.52261871 0.25772637 3.7048676
0.73877639 0.36997423 3.9957659
2.2799754 1.1604333 8.2257299
1.2349054 0.63400871 3.3298445
4.5146494 2.3293202 9.3771725
2.4920568 1.2902122 4.1941552
2.8294773 1.4686291 3.8933992
0.48141673 0.18757802 8.7747641
0.82042974 0.35573062 8.2972517
0.82927805 0.41772261 3.6125317
2.9008865 1.4776344 8.9072847
1.6227555 0.83234137 3.8347785
6.398622 3.3040862 9.6104784
3.1745179 1.6427819 3.9531927
3.5163784 1.8344829 3.9773073
4.2979441 2.2450595 3.9922333
4.6890721 2.452477 3.5540004
4.3419046 2.2728269 2.6519063
5.7251663 2.9994392 2.6996586
7.5243053 3.9453459 2.587208
10.421854 5.4184055 10.542992
3.3509603 1.7444522 2.8343523
5.0938544 2.6539977 3.4608648
4.3226295 2.2550478 2.3412843
4.0859733 2.1333985 1.6934043
12.144082 6.3460937 3.3955159
0.088312149 0.0056267013 8.7189417
0.52630836 0.25726348 3.7246246
0.73915118 0.36694074 3.990871
2.2866776 1.1538123 8.2352743
1.2388521 0.63058019 3.3344471
2.5013866 1.2796067 5.2163253
2.5015523 1.2840753 4.2024207
2.8402867 1.4616767 3.9010744
0.48206854 0.18589641 8.7747641
0.82166654 0.35286462 8.2972517
0.83073115 0.41482535 3.6125317
2.8952436 1.4620548 8.8744354
1.6295322 0.82864505 3.8437812
2.5316572 1.2961679 3.8409026
3.1983311 1.6409758 3.9752436
3.5259285 1.8238358 3.9808118
4.1640468 2.1566517 3.8635561
3.9180839 2.0318563 2.9782922
4.8452168 2.5147796 2.9440751
5.7273731 2.975162 2.6959126
7.5380316 3.9190571 2.587208
10.45066 5.3871255 10.552968
5.1184077 2.6441145 3.4709976
4.2740383 2.2107537 2.3119113
4.0514603 2.0974135 1.6769693
12.248158 6.3461499 3.4177899
0.088374875 0.0053175553 8.7239418
0.5251047 0.25440985 3.7098067
0.7395137 0.36390916 3.9859755
2.2933614 1.1471586 8.2448187
1.2393014 0.62537205 3.3298445
2.5037022 1.2697842 5.2119365
2.5010035 1.272783 4.1941552
2.8453717 1.4517534 3.9010744
0.48271453 0.18421255 8.7747641
0.82289326 0.34999433 8.2972517
0.82992077 0.41080835 3.6028528
2.9003296 1.4519397 8.8744354
1.6149192 0.81413335 3.8032703
2.5415404 1.2900504 3.8488829
3.2040398 1.6298015 3.9752436
3.5164068 1.8033801 3.963289
3.9880369 2.0478716 3.6972182
3.9474649 2.0296395 2.9947412
4.369483 2.2485404 2.6588626
5.6305676 2.8999624 2.6472139
4.038209 2.0816193 1.4253409
10.486025 5.3591089 10.569595
3.6617117 1.873845 3.0786345
4.8513532 2.4847443 3.2886086
4.3705745 2.2413836 2.3580687
7.2726007 3.7328238 2.9342535
10.346749 5.3220778 0.5630309
0.088392898 0.0050090365 8.7239418
0.52598959 0.25257534 3.7098067
0.73986423 0.36087954 3.9810805
1.1110946 0.55105692 4.0120687
1.2414769 0.62104225 3.3298445
2.4931407 1.2535068 5.1812129
2.5054312 1.2640451 4.1941552
2.8590024 1.4461523 3.9125867
0.4833546 0.18252644 8.7747641
0.82410991 0.34711975 8.2972517
0.82457811 0.40458861 3.5738163
2.9115634 1.444875 8.8932066
4.005228 2.0014462 9.3217592
2.0388989 1.0229038 3.8013666
2.5514112 1.2838795 3.8568628
3.1400864 1.5834996 3.8907149
3.4781747 1.7684667 3.9142253
3.9084437 1.9897916 3.6187568
3.9545255 2.0158477 2.9947412
3.9827118 2.0319586 2.4269826
3.7661824 1.9231371 1.7968569
4.0283647 2.0587783 1.4197007
10.411409 5.2752218 10.476481
3.7150908 1.8848256 3.1168957
4.9560895 2.5165875 3.351938
4.3905087 2.2322843 2.3643627
7.1972055 3.662441 2.89974
9.1069174 4.6402192 1.5177616
10.365263 5.2859282 0.5630309
0.088409849 0.0047004577 8.7239418
1.190101 0.56580591 8.3774061
0.74020255 0.35785186 3.9761851
1.1197098 0.55046684 4.0359287
1.2436372 0.61670494 3.3298445
2.5017879 1.2469329 5.189991
2.5098281 1.2552918 4.1941552
2.8984156 1.4534038 3.9586368
0.48398879 0.18083811 8.7747641
0.82531661 0.34424096 8.2972517
0.82598537 0.40170783 3.5738163
1.6731385 0.82311863 5.1249151
4.0004849 1.9816555 9.2947512
2.0331161 1.0111353 3.7843029
2.5639665 1.2790006 3.8688331
3.1425624 1.571013 3.8870397
3.4270039 1.7274216 3.8511434
3.950114 1.993674 3.6501412
3.9204865 1.9812858 2.9645848
4.0174513 2.0320396 2.4432144
3.789417 1.9183543 1.8043491
4.0398059 2.0468724 1.4211109
9.2320948 4.6857424 1.0224061
10.473134 5.2606339 10.519712
3.7397022 1.8809267 3.1316116
5.0264511 2.5302844 3.3924689
4.4104328 2.2230735 2.3706567
10.410402 5.2632389 0.5642401
0.088425718 0.0043918206 8.7239418
1.1899598 0.56065536 8.3625879
0.73961031 0.35438663 3.9663947
1.1135726 0.542633 4.0072966
1.2457823 0.61236006 3.3298445
2.4996836 1.2350101 5.1768236
2.5141947 1.2465233 4.1941552
2.9235628 1.4532642 3.9854991
0.48461708 0.17914757 8.7747641
0.82651317 0.34135798 8.2972517
0.82851499 0.39936763 3.5786555
1.6744505 0.81651711 5.1202226
4.0112863 1.9695981 9.3037539
2.0319548 1.0017262 3.7757714
2.5819213 1.2767208 3.8887832
3.0933492 1.5329392 3.8208866
3.2447929 1.6214007 3.6443753
3.9744539 1.9885814 3.6658337
3.9770012 1.9941771 2.4153888
3.8043768 1.9092736 1.808095
4.0254927 2.0219924 1.4140607
9.2528439 4.655726 1.0228533
3.7462449 1.8678612 3.1316116
4.946537 2.4684525 3.3342059
4.4100461 2.2036073 2.3664608
10.61 5.3107948 2.9523799
9.8785515 4.9468231 1.6331052
0.088440508 0.004083131 8.7239418
1.1883889 0.5548557 8.3378916
0.73992288 0.35136631 3.9614995
1.1154599 0.5387426 4.0072966
1.2479123 0.60800773 3.3298445
2.5185306 1.2377394 4.1941552
2.9889967 1.4727997 4.0660868
0.48523948 0.17745486 8.7747641
0.82819337 0.33867198 8.3022232
0.83897859 0.40080541 3.6173708
1.6803981 0.81216878 5.1296082
2.5674217 1.2584175 3.8608527
3.0804241 1.513164 3.7988358
3.2280626 1.5989839 3.6198435
3.0294218 1.5025581 2.8090348
3.5447395 1.7604415 2.6794724
4.0037718 1.9901412 2.4269826
3.827621 1.904242 1.8155872
4.0411148 2.0122049 1.4168808
9.3225145 4.6500731 1.0282182
3.7672369 1.8619366 3.1433842
4.7348804 2.3422241 3.1898146
4.3160372 2.1378391 2.3140094
4.1339869 2.049458 1.6950479
10.558806 5.2391596 2.9336228
9.500988 4.7163444 1.5716347
0.088454217 0.0037743908 8.7239418
1.1903185 0.55070406 8.3378916
0.7411449 0.34878135 3.9614995
2.3238049 1.1121134 8.2829943
1.2517862 0.60449737 3.3344471
2.5253654 1.2301729 4.198288
2.9797192 1.4553243 4.0468998
0.48612773 0.17585728 8.7797556
0.8293705 0.33577898 8.3022232
0.84037262 0.39787441 3.6173708
1.6863356 0.80778891 5.1389937
1.6641755 0.80284888 3.8842921
2.2079012 1.069361 4.0829182
6.4638863 3.1401842 9.5905275
3.0308218 1.4756899 3.7326827
3.3136551 1.6269994 3.7074571
3.0556064 1.502278 2.8278658
3.5621173 1.7535979 2.6876969
4.0424833 1.9918162 2.445533
3.7594039 1.8539622 1.7818726
4.0438123 1.9959635 1.4154707
10.450509 5.1129327 10.443226
3.7846026 1.8541099 3.1522136
3.8142266 1.8727316 2.051753
4.1368771 2.0329325 1.6934043
7.8597479 3.8657901 2.2032692
8.8953342 4.3770599 1.4749395
0.088466853 0.0034656047 8.7239418
1.1929399 0.54686928 8.3428307
0.74235785 0.34619218 3.9614995
2.2993488 1.090564 8.1827822
1.2538887 0.60012412 3.3344471
4.5973516 2.2116997 9.4166746
2.5321784 1.2225736 4.2024207
2.924196 1.4155871 3.9663119
0.48673862 0.1741593 8.7797556
0.83053756 0.3328819 8.3022232
0.85427523 0.40080816 3.6706047
1.6875861 0.80115759 5.1343012
1.6610757 0.79421812 3.8707883
2.2304304 1.0706757 4.1170459
6.480238 3.1202164 9.5985079
2.9443567 1.4209001 3.6224277
3.3417611 1.6263465 3.7319891
4.467422 2.1770353 4.0895252
4.0852361 1.9951891 2.4664023
3.7533574 1.8347203 1.7762535
4.0550637 1.9839437 1.4168808
10.498528 5.091085 10.473156
3.8055956 1.8479501 3.1639862
4.8015199 2.3336079 3.2227459
4.1439481 2.0184798 1.6934043
7.8644552 3.8340707 2.2009244
8.946166 4.3633494 1.4804649
0.088478416 0.0031567772 8.7239418
1.1948415 0.54270184 8.3428307
1.601457 0.73963881 8.5042706
2.2923338 1.0774523 8.1446066
1.2559758 0.5957436 3.3344471
4.6136913 2.1997612 9.4342299
2.538969 1.2149417 4.2065539
2.8742118 1.3790284 3.8933992
0.48734361 0.1724592 8.7797556
0.83169442 0.32998073 8.3022232
0.86706853 0.40312001 3.7189989
1.6888107 0.79452747 5.1296082
1.6559687 0.78468686 3.8527834
6.4883704 3.0962791 9.5945177
2.9492986 1.4106137 3.6224277
3.3602662 1.620869 3.7460072
4.5450921 2.1952844 4.1522942
4.1238613 1.9944868 3.0879512
4.0921755 1.9809167 2.4664023
4.1477389 2.0095921 1.9504455
4.0533319 1.9655907 1.4140607
10.533063 5.0624943 10.489783
3.8229501 1.8399135 3.172816
5.797545 2.7964361 3.0630143
4.1552215 2.0060556 1.6950479
0.088488892 0.0028479106 8.7239418
1.1974373 0.53884637 8.3477697
1.6123627 0.73785609 8.5483274
2.2839022 1.0637728 8.1016588
1.2562797 0.59052485 3.3298445
4.623507 2.1846662 9.4386196
2.5457373 1.2072775 4.2106872
2.8819027 1.3703636 3.8972368
0.48766983 0.17066255 8.7747641
0.83284122 0.32707557 8.3022232
0.88217181 0.40639865 3.777072
1.6232276 0.76224852 3.7717619
2.063282 0.97278368 3.8013666
6.4936914 3.0710354 9.5865374
3.3626862 1.6075915 3.7425027
4.5843253 2.1945312 4.1805406
4.1006331 1.9656205 3.0660193
4.2428474 2.0356019 2.5498791
4.3595028 2.0934327 2.0422242
4.0601683 1.95143 1.4140607
10.965941 5.2799163 1.1855899
10.506848 5.0048227 10.446552
3.8439417 1.833518 3.1845887
5.8359342 2.7898841 3.0777006
4.1281214 1.9752336 1.6818998
0.088498294 0.0025390091 8.7239418
1.1993109 0.53466326 8.3477697
0.7357409 0.33377606 3.9076519
2.3269076 1.073931 8.2400465
1.2583333 0.58613604 3.3298445
4.6441193 2.1746075 9.4649544
2.5550294 1.2007774 4.2189527
2.8547747 1.3452668 3.8550243
0.48826259 0.16895923 8.7747641
0.83447498 0.32435894 8.3071947
0.87672335 0.4001869 3.7480354
2.9774048 1.3753166 8.9729843
1.5962715 0.74280328 3.7042434
2.0643022 0.9644717 3.7971005
6.4989142 3.0457919 9.578557
3.2689946 1.5355626 3.9936194
3.3682773 1.5958438 3.7425027
3.4314644 1.6279689 3.1448495
3.9072926 1.8562009 2.9207215
4.3659444 2.0759428 2.6171243
4.1742258 1.986563 1.9560646
4.0842786 1.945497 1.4197007
10.993294 5.2458954 1.1864841
10.449972 4.9330506 10.373391
3.8612814 1.8252711 3.193418
5.6200547 2.6626225 2.9623077
4.041122 1.9162997 1.6457425
0.088506624 0.0022300768 8.7239418
1.2018808 0.53078729 8.3527088
1.6137589 0.72491342 8.5287466
2.3238544 1.0626986 8.2161865
1.2585979 0.58092159 3.325242
2.5617564 1.1930394 4.2230859
2.8391232 1.3258008 3.8281615
0.4888494 0.16725384 8.7747641
0.83560216 0.32144409 8.3071947
0.8586427 0.3883239 3.665765
2.9884639 1.3677875 8.9917545
1.571177 0.72446716 3.6412265
2.0676563 0.95726001 3.7971005
6.512239 3.0243571 9.5825472
3.2989228 1.5355871 4.0230207
3.3576863 1.5764985 3.7249799
3.7893713 1.7815847 3.4586954
4.0423756 1.9031055 3.0139313
4.4252586 2.085237 2.6472688
4.2482219 2.0036206 1.9860331
4.1691289 1.9680887 1.4450815
11.011539 5.2074895 1.1864841
10.375813 4.853827 10.283603
3.8822706 1.8186402 3.2051907
4.6736073 2.1913106 3.1188855
4.9637766 2.3305192 2.6224234
4.1717267 1.9604244 1.6934043
0.088513859 0.0019211178 8.7239418
1.2037263 0.52658874 8.3527088
1.6172099 0.71968979 8.5336418
2.3180315 1.0502688 8.1827822
1.2606179 0.57652467 3.325242
1.4952195 0.68753844 3.0832329
2.5684605 1.185269 4.2272186
2.8728235 1.329342 3.8665369
0.48915642 0.1654548 8.7697725
0.83622062 0.31833631 8.3022232
0.85425693 0.38275602 3.6415682
3.0089371 1.3644736 9.038682
1.5321134 0.69998401 3.546701
2.0828378 0.9554733 3.8184304
6.5364437 3.007905 9.6024981
3.255007 1.5013447 3.9642181
3.3437684 1.5557424 3.7039528
4.1134133 1.9190361 3.0605364
4.4766617 2.0903935 2.6727755
4.1963925 1.9612992 1.9598107
4.1455579 1.9392955 1.4352112
11.219042 5.2577786 1.2052615
10.463831 4.8505549 10.353437
3.8922615 1.8067794 3.2081339
4.4505706 2.0678179 2.9694278
4.7208676 2.1963954 2.494442
4.1785445 1.9458505 1.6934043
0.088520028 0.0016121351 8.7239418
1.2055571 0.52238369 8.3527088
1.6187804 0.71362972 8.5287466
2.3175981 1.0403374 8.1684666
1.2626227 0.57212085 3.325242
1.5106876 0.68827176 3.1095674
2.572582 1.1762961 4.2272186
2.9065824 1.3326639 3.9049115
0.48973101 0.16374633 8.7697725
0.83732671 0.31541541 8.3022232
0.85099173 0.37773317 3.6222105
3.029423 1.3610333 9.0856104
1.5067815 0.68206567 3.4836841
6.5496454 2.9863203 9.6064882
4.5827127 2.1156271 4.1522942
3.9530847 1.8274648 2.9399118
4.4638295 2.0654533 2.6611814
3.9550185 1.831694 1.8493018
11.250875 5.2248769 1.2066027
10.521415 4.8327012 10.393344
3.927922 1.8066938 3.2316792
4.7243843 2.1780031 2.4923439
4.1167083 1.8995973 1.6671082
0.088525124 0.0013031326 8.7239418
1.2080873 0.51847857 8.3576488
1.6119295 0.70390165 8.4797935
1.0990965 0.48888516 3.8927693
1.2646121 0.56770998 3.325242
1.5087148 0.6810239 3.1007893
2.5792358 1.1684701 4.2313519
2.893707 1.3145562 3.8818867
0.49029961 0.16203584 8.7697725
0.83842266 0.31249067 8.3022232
0.87647146 0.38537872 3.7238383
3.0467682 1.3560634 9.1231527
1.5607997 0.69995862 3.6007156
2.2464113 1.0115788 4.0999818
2.6825728 1.2118852 3.9725733
2.9102502 1.3177756 3.5415745
9.4594908 4.320981 10.299508
4.5936098 2.1012368 4.1554327
3.7959709 1.7387784 2.8220289
4.3300753 1.9852438 2.5800233
3.969815 1.8217442 1.8530477
11.241901 5.1730819 1.2039202
10.582399 4.816051 10.436575
3.9268489 1.7896196 3.2257926
4.7512064 2.1672959 3.15435
4.7319584 2.1614985 2.4923439
4.1190186 1.8832519 1.6654646
0.088529125 0.00099411444 8.7239418
1.2098898 0.51425844 8.3576488
1.6078347 0.69544232 8.4455271
1.1199216 0.49346882 3.9595766
1.2683711 0.56408584 3.3298445
2.585866 1.1606119 4.2354846
2.8748951 1.2939239 3.8511868
0.49086222 0.1603234 8.7697725
0.83950835 0.30956212 8.3022232
0.89048928 0.3878347 3.777072
3.0562205 1.3475082 9.1372309
1.5751706 0.69980842 3.627723
2.2761288 1.0154182 4.1469073
2.7225416 1.2185153 4.0244436
2.9241121 1.3117715 3.5525999
9.4680176 4.2849941 10.2925
4.6044617 2.086796 4.1585712
4.3732772 1.9866054 2.6008925
4.018352 1.8270642 1.8717781
10.609357 4.7836862 10.446552
3.9146526 1.7675848 3.211077
4.7626715 2.1524734 3.1568832
4.6319699 2.0963147 2.4377947
4.0352378 1.827944 1.6309509
0.08853206 0.00068508362 8.7239418
1.2123938 0.51033318 8.3625879
1.5999563 0.685417 8.3916798
1.1147964 0.48657218 3.9357171
1.2721204 0.56044239 3.3344471
2.5899014 1.1515784 4.2354846
2.8589017 1.274744 3.8243239
0.49141887 0.15860899 8.7697725
0.8405838 0.30662981 8.3022232
0.91492343 0.39467582 3.8738606
3.0640683 1.338213 9.146616
2.7295332 1.2102258 4.0284338
2.916281 1.2960497 3.5378993
9.4015646 4.2154422 10.204885
4.6507769 2.088248 4.1930943
3.9453092 1.7739656 2.9207215
4.0035706 1.8035059 1.8624129
4.0566325 1.8121334 4.0383129
3.869143 1.7308027 3.1698728
4.635118 2.0782764 2.4356966
4.0415936 1.8138473 1.6309509
0.088533916 0.00037604547 8.7239418
1.2141677 0.50609803 8.3625879
1.599527 0.67863542 8.3769941
1.1055261 0.47794098 3.897541
1.2758596 0.55677968 3.3390496
2.5964808 1.1436652 4.2396173
2.8105586 1.241447 3.7552493
0.49196953 0.15689266 8.7697725
0.841649 0.30369377 8.3022232
0.9174515 0.39197329 3.8786998
3.0671368 1.3268241 9.141923
1.7137246 0.74707097 3.9293041
6.5824251 2.8909469 9.5945177
9.3282251 4.1435122 10.110263
4.6864891 2.0846565 4.2182016
3.9514771 1.7601831 2.9207215
5.2771335 2.3528802 3.1110287
4.1072121 1.8329737 1.9054928
3.950258 1.7481018 3.9285717
3.5204008 1.560078 2.8873293
3.863373 1.7136676 2.5691857
0.088534683 6.7002198e-05 8.7239418
1.2166454 0.50215292 8.367527
1.6018862 0.67304784 8.3769941
1.1140492 0.47701564 3.9214008
1.2813821 0.55387259 3.3482547
1.5246658 0.66275638 3.1139565
2.6030364 1.1357201 4.2437506
2.9293978 1.2817341 3.9049115
0.49278983 0.15526025 8.7747641
0.84270394 0.30075398 8.3022232
0.91997188 0.38925791 3.8835394
3.0765085 1.3181483 9.156002
1.7043302 0.73590744 3.902297
6.5897131 2.8667502 9.5905275
7.7202229 3.3665428 9.2086782
9.2904043 4.087944 10.054191
4.7614126 2.0981052 4.2778325
3.9728992 1.7531313 2.9316874
5.135385 2.2682245 3.025233
4.1051049 1.8148766 1.9017466
4.0794435 1.7882659 4.0482893
3.818213 1.6761295 3.119839
3.9758906 1.7469922 2.6375816
5.2144794 2.2944574 2.7210317
3.9158676 1.7246805 1.5783587
0.088534385 -0.00024204237 8.7239418
1.2183907 0.49790299 8.367527
1.6070461 0.668625 8.3916798
1.0882205 0.46147344 3.8259614
1.2851038 0.55016506 3.3528571
1.52697 0.65743029 3.1139565
2.6121514 1.1288594 4.2520161
2.9338541 1.2715007 3.9049115
0.49332878 0.15353915 8.7747641
0.84374863 0.29781058 8.3022232
0.9224844 0.38652971 3.8883786
3.0763252 1.3053793 9.141923
1.6388326 0.70085514 3.7492557
1.626278 0.69848299 2.9652438
6.6024475 2.8449225 9.5945177
7.7474895 3.3462951 9.2270546
9.3046169 4.05549 10.054191
4.8828611 2.1312971 4.378263
4.0517917 1.771072 2.9837754
5.2122641 2.2804701 3.0646527
4.102922 1.7968167 1.8980007
4.0548372 1.7606318 4.0183601
3.9574838 1.7208141 3.2257926
4.3693252 1.9016932 2.885833
5.3472724 2.3306427 2.7839732
3.9305205 1.7147778 1.5816457
0.088532999 -0.00055108336 8.7239418
1.2208418 0.49393824 8.372467
1.6103116 0.66339892 8.396575
1.0898247 0.45767203 3.8259614
1.2942114 0.54872555 3.3712673
4.8339486 2.060986 9.6975746
2.6083148 1.1164128 4.2396173
2.9353294 1.2599878 3.9010744
0.49386176 0.15181617 8.7747641
0.84478307 0.29486352 8.3022232
0.92615032 0.38427013 3.8980575
1.6152089 0.6840952 3.6907399
1.6287065 0.69280195 2.9652438
6.6123376 2.8218584 9.5945177
7.8214612 3.3458979 9.3005571
9.3449097 4.0342937 10.082227
4.8902712 2.1142397 4.378263
4.1730666 1.8067573 3.0660193
4.0983763 1.7761112 2.424664
4.1006627 1.7787941 1.8942546
4.0266581 1.7317163 3.9851053
3.9634664 1.7069894 3.2257926
4.4273992 1.9086143 2.9187644
4.8053551 2.0745175 2.5070305
3.9538212 1.7085397 1.5882198
0.088530533 -0.00086011802 8.7239418
1.2225585 0.48967367 8.372467
1.618275 0.66008031 8.4259472
1.2925161 0.54269224 3.3620622
2.6121957 1.1073012 4.2396173
2.9161112 1.2397025 3.8703744
0.49438867 0.15009135 8.7747641
0.84580714 0.29191288 8.3022232
0.93562561 0.38437653 3.9319336
1.3327622 0.55469209 3.9798803
1.5613748 0.65488118 3.5647061
1.6359218 0.6891371 2.9737756
6.6193719 2.7975869 9.5905275
3.2100334 1.3600103 3.8576384
9.4638653 4.046514 10.194372
4.8618398 2.0818355 4.3468785
5.3091931 2.2766657 3.8720102
4.2999434 1.8456608 2.5359662
4.1451817 1.7809392 1.9111118
4.0395484 1.7205762 3.991756
3.973119 1.6947297 3.2287359
5.4925761 2.3450916 3.5951233
4.8668175 2.0809267 2.5343051
3.9380546 1.6854379 1.5800022
0.088526994 -0.0011691415 8.7239418
1.2235378 0.48511696 8.367527
1.619625 0.6540463 8.421052
1.1675334 0.48073012 4.0836482
1.3016187 0.54117662 3.3804724
4.8526387 2.0290365 9.7063532
2.5900979 1.0872849 4.198288
2.8495214 1.1996686 3.7782741
0.49490958 0.14836471 8.7747641
0.84631628 0.28878719 8.2972517
0.92415267 0.37590185 3.8786998
1.4096826 0.58093071 4.2004404
1.4751891 0.61269426 3.3666525
1.6503526 0.68844217 2.9951053
6.626318 2.7733006 9.5865374
3.2366443 1.3579776 3.8833644
9.5764513 4.055172 10.299508
4.7830753 2.0283816 4.2715554
5.3248057 2.2613883 3.8774931
4.1962881 1.7838492 2.4733589
4.1513729 1.766459 1.9111118
4.1040139 1.7311337 4.0482893
3.9901803 1.6855689 3.2375653
5.1870623 2.1932776 3.3950021
3.9656527 1.6808954 1.5882198
0.088522367 -0.0014781514 8.7239418
1.2245004 0.48055944 8.3625879
1.6370265 0.65443361 8.4993753
1.1913218 0.48566422 4.1599998
1.3107264 0.53960395 3.3988824
4.8619041 2.0130014 9.710743
2.8359408 1.1823149 3.7552493
0.49542445 0.14663625 8.7747641
0.84731919 0.28583124 8.2972517
0.91496426 0.36845049 3.8351452
1.5283457 0.62358427 4.5430121
1.503493 0.6183027 3.4251683
6.6331739 2.7489998 9.5825472
3.2851954 1.3648803 3.9348168
9.6596136 4.0506806 10.373104
4.6035142 1.933305 4.108356
5.2401605 2.2038825 3.811698
4.1984062 1.7674716 2.47104
4.0934324 1.724954 1.8830165
4.0790243 1.7038457 4.0183601
3.9960396 1.6716304 3.2375653
4.0415606 1.6923219 2.6603804
4.491981 1.8836755 2.3391862
3.9802041 1.6706977 1.5915067
0.088560089 -0.0017914844 8.728941
1.225446 0.47600111 8.3576488
1.6336198 0.64646822 8.4700031
1.19301 0.48150277 4.1599998
1.354214 0.55198151 3.5047405
4.8733335 1.9978347 9.7195206
2.3530133 0.96850431 3.8097908
2.8400507 1.1724083 3.7552493
0.49593329 0.144906 8.7747641
0.84780586 0.28270379 8.2922802
0.91974801 0.3666499 3.8496633
1.565716 0.63246125 4.6462531
1.5963749 0.64998579 3.627723
5.3920012 2.2049422 9.5987711
6.6399417 2.7246852 9.578557
7.8235207 3.2183111 9.2491045
9.6209965 3.9950554 10.317032
3.9094155 1.625788 3.496357
3.8002999 1.5827355 2.7836483
4.000113 1.6675811 2.3550999
4.0138612 1.6749488 1.8455557
5.0907125 2.1263802 1.7115775
4.1953564 1.7352625 4.1247764
4.0093193 1.6607652 3.2434516
3.9877124 1.653438 2.6223824
4.4943376 1.8662435 2.3370881
3.9947331 1.6604191 1.5947938
0.088553302 -0.0021006062 8.728941
1.2263747 0.47144201 8.3527088
1.6273334 0.63742131 8.4259472
1.1558685 0.46183419 4.0263848
1.3543206 0.54652011 3.5001378
4.8714008 1.9772087 9.7019644
2.3407438 0.95391357 3.7849929
2.885664 1.1794643 3.808974
0.49643609 0.14317398 8.7747641
0.84878749 0.27974266 8.2922802
0.92569959 0.36528155 3.8690209
1.5871427 0.63467896 4.7025666
1.598634 0.64440942 3.627723
5.3851609 2.1802351 9.5731754
6.6494122 2.7014909 9.578557
7.8221488 3.1858673 9.2344036
3.3119488 1.361774 3.5988164
3.9114676 1.6106497 3.4932184
4.0957251 1.6890174 2.9892581
4.1225133 1.7034161 1.8905085
5.0848055 2.1030972 1.7073475
4.2877698 1.7559822 4.2079139
4.0188317 1.6482937 3.2463949
3.7581778 1.5429161 2.4729249
4.4798365 1.8419148 2.3265977
4.0092378 1.6500589 1.5980808
5.5740585 2.2997415 0.33691323
0.088545427 -0.0024097024 8.728941
1.2272866 0.46688226 8.3477697
1.6248013 0.62989753 8.4014702
1.1574736 0.4577966 4.0263848
1.3362627 0.53381908 3.4495103
4.87605 1.9592993 9.6975746
2.34145 0.94468427 3.7808604
2.8867922 1.1681821 3.8051367
0.49693283 0.14144023 8.7747641
0.8497588 0.27677813 8.2922802
0.92814004 0.36250505 3.8738606
1.5925578 0.63040495 4.7119522
1.6291811 0.65011877 3.6907399
5.3709507 2.1526921 9.5347824
6.6588016 2.6782637 9.578557
7.8552303 3.1674178 9.2601299
3.2869546 1.3381035 3.5672753
3.5530329 1.4485753 3.1762342
4.1790199 1.7063224 3.0440876
5.5124578 2.2529972 3.2037807
4.1284342 1.6890154 1.8905085
5.1009946 2.0889709 1.7101676
4.2800326 1.7353928 4.1946115
4.0283055 1.6357759 3.2493379
3.6397419 1.4794683 2.3943965
4.0149732 1.636054 1.5980808
10.870849 4.4363236 1.7298005
5.6051774 2.289717 0.33792087
0.088536479 -0.0027187685 8.728941
1.2289089 0.4625954 8.3477697
1.6212858 0.62203473 8.3720989
1.1743554 0.4597367 4.0788765
1.3090484 0.51765949 3.3758698
4.887311 1.9440373 9.7063532
2.3499599 0.93859267 3.7891262
2.9116802 1.1664413 3.8319993
0.49714532 0.13962759 8.7697725
0.8512274 0.27397293 8.2972517
0.9329173 0.36062172 3.8883786
1.6557378 0.65402335 3.7447543
5.3614631 2.1271985 9.504921
6.6681099 2.6550038 9.578557
7.9103198 3.1575742 9.3115826
3.7116878 1.4959197 4.0123525
3.5328021 1.4259664 3.1542652
4.0996633 1.6572487 2.9837754
5.4545865 2.2071559 3.1666799
4.1514921 1.6815559 1.8980007
5.0949183 2.0657451 1.7059374
4.0377417 1.6232122 3.2522812
4.5431013 1.830953 2.3517745
4.0819693 1.6467625 1.6210899
10.909225 4.4076262 1.7332537
5.6131358 2.2701373 0.33792087
0.08852645 -0.0030278021 8.728941
1.2297879 0.45803189 8.3428307
1.6205914 0.6152879 8.3574133
2.6291671 1.0184242 9.0608273
1.2926542 0.50596803 3.3298445
4.9052095 1.9313524 9.7282982
2.3636894 0.93452209 3.8056579
2.9097748 1.1539075 3.8243239
0.49762967 0.13789138 8.7697725
0.85217857 0.27099994 8.2972517
0.93417042 0.35736302 3.8883786
1.4456744 0.56063759 4.2708321
1.8344072 0.71719134 4.1363602
5.3737106 2.1103771 9.5134525
6.6717305 2.6295018 9.5705776
3.7367613 1.4908835 4.03338
3.4401674 1.374632 3.0695267
4.0083699 1.6040901 2.9152386
5.4581456 2.1864552 3.164361
4.1659422 1.6705049 1.9017466
5.0798392 2.0390134 1.6988873
10.687052 4.2464767 10.323508
4.0471387 1.6106026 3.2552242
4.1986322 1.6725787 2.741442
4.6211262 1.8436736 2.3874412
4.0876927 1.6325039 1.6210899
10.929142 4.3713579 1.7339444
5.7694421 2.3099523 0.34436986
0.088515341 -0.0033367989 8.728941
1.2313793 0.45373634 8.3428307
1.6236825 0.60998505 8.3623085
2.6382813 1.0113773 9.079916
1.2944124 0.50145274 3.3298445
4.9186163 1.916827 9.7414656
2.3721786 0.92831653 3.8139238
2.9227359 1.1472567 3.8358369
0.49810794 0.13615349 8.7697725
0.85311937 0.26802364 8.2972517
0.93188524 0.35276589 3.8738606
1.4298999 0.54878831 4.2192116
1.8409601 0.7123546 4.1453629
5.3786135 2.0906615 9.5091867
6.6808681 2.6061971 9.5705776
3.7916968 1.4974796 4.085948
3.4159892 1.3511624 3.0444191
3.9556317 1.5669889 2.8741164
5.6510487 2.2408688 3.268707
4.1889839 1.6627944 1.9092388
10.635791 4.1831799 10.260324
4.0489755 1.5949842 3.2522812
4.1402807 1.6326118 2.700911
4.7752781 1.8858787 2.4608731
10.962751 4.3404732 1.7367071
5.7728257 2.2879584 0.34416834
0.088459827 -0.0036405048 8.7239418
1.2322257 0.44916943 8.3378916
1.6258018 0.60431367 8.3623085
2.6417956 1.0021619 9.079916
1.3016276 0.49902886 3.3436522
4.9364495 1.9039551 9.7634106
2.9476368 1.1451721 3.8626993
0.49858019 0.13441393 8.7697725
0.85404974 0.26504403 8.2972517
0.93546534 0.35039204 3.8835394
1.4656863 0.55665654 4.3177595
