# .PCD v0.7 - Point Cloud Data file format
VERSION 0.7
FIELDS x y z
SIZE 4 4 4
TYPE F F F
COUNT 1 1 1
WIDTH 1417
HEIGHT 1
VIEWPOINT 0 0 0 1 0 0 0
POINTS 1417
DATA ascii
-0.85698646 -0.83106166 0.14183129
-0.082993306 -0.030453548 8.7089415
-0.98830372 -0.90648192 8.5255833
-1.2879452 -1.196416 8.4748983
-0.71162504 -0.67018092 3.1721995
-1.1987314 -1.1365705 3.9511855
-1.0912887 -1.0390204 2.8286664
-1.0466404 -0.99927491 2.1979408
-1.0111556 -0.96740144 1.7520717
-0.40299785 -0.31024632 8.6349974
-0.71428132 -0.59381783 8.6203995
-1.1584171 -1.0813353 6.138711
-0.78938538 -0.74385935 3.0037851
-1.116886 -1.0582151 3.2451198
-1.0598557 -1.0073181 2.4618633
-1.0163943 -0.9683547 1.9336712
-0.98674577 -0.94173372 1.5569855
-0.96472639 -0.92684251 1.3944566
-0.92519122 -0.889781 1.1174068
-0.91129941 -0.87732667 0.91396838
-0.90386677 -0.87076896 0.74353397
-0.89171594 -0.85965335 0.58875066
-0.8806091 -0.84952885 0.44959825
-0.86232454 -0.83246434 0.31903145
-0.86661386 -0.83717889 0.20112188
-0.95158559 -0.91166019 1.2548696
-0.92081523 -0.88309425 1.012536
-0.90948451 -0.87282747 0.82635868
-0.90412509 -0.86858356 0.66703832
-0.8855024 -0.85127759 0.51665181
-0.86881936 -0.83581311 0.38148779
-0.85984212 -0.82745892 0.25865185
-0.85628355 -0.82459968 0.14162977
-0.083057038 -0.030152084 8.7039413
-0.99146193 -0.90302664 8.5255833
-1.2921135 -1.1919129 8.4748983
-0.71505052 -0.6687122 3.1769717
-1.1941564 -1.1243446 3.9235702
-1.0896875 -1.0302689 2.8154991
-1.0460377 -0.99174339 2.1896749
-1.0122024 -0.96165854 1.7482344
-0.40407836 -0.30883771 8.6349974
-0.71593833 -0.59098214 8.615427
-1.1631067 -1.0781395 6.1435504
-0.79197717 -0.74109936 3.0037851
-1.1174018 -1.0513269 3.2361174
-1.057675 -0.99824262 2.4490657
-1.0175792 -0.96273023 1.9296812
-0.98264468 -0.93128777 1.5459599
-0.96279496 -0.91854614 1.3874475
-0.92547655 -0.88385791 1.1142684
-0.91133386 -0.87125093 0.91122693
-0.90690088 -0.86760855 0.74353397
-0.88801372 -0.85012388 0.58500457
-0.88010508 -0.84313124 0.44818825
-0.86167908 -0.8260498 0.31809881
-0.86593717 -0.83070123 0.2006748
-0.95205683 -0.90575957 1.2515441
-0.91803801 -0.87429982 1.0066497
-0.90940499 -0.86667353 0.82382548
-0.9038676 -0.86228955 0.6649403
-0.88505286 -0.84492081 0.51500833
-0.86821693 -0.82941771 0.38031548
-0.8627252 -0.82445246 0.25865185
-0.85554612 -0.81815279 0.14142823
-0.083161779 -0.029861975 8.7039413
-0.99460804 -0.89956021 8.5255833
-1.2962662 -1.1873953 8.4748983
-0.71847439 -0.66722757 3.1817434
-1.1937922 -1.1161669 3.9097626
-1.0880388 -1.0215415 2.8023319
-1.0433462 -0.98229957 2.1772761
-1.01089 -0.95372051 1.7405593
-0.40515396 -0.30742532 8.6349974
-0.7179969 -0.5884794 8.615427
-1.166863 -1.074073 6.1435504
-0.79582369 -0.73950493 3.0084779
-1.1147016 -1.0414758 3.2181125
-1.055444 -0.98919451 2.4362679
-1.0165411 -0.95504612 1.9217011
-0.98095179 -0.92320544 1.5386096
-0.96340638 -0.91272718 1.383943
-0.92573178 -0.87794369 1.11113
-0.9113369 -0.86518556 0.90848547
-0.90671211 -0.86138666 0.74121517
-0.88761574 -0.8438248 0.58313155
-0.87956721 -0.83674777 0.44677821
-0.86455727 -0.82303691 0.31809881
-0.86522585 -0.8242386 0.20022772
-0.9524985 -0.89986664 1.2482185
-0.9181475 -0.86831266 1.0037066
-0.90929365 -0.86053091 0.82129234
-0.90357715 -0.85600799 0.66284221
-0.88799673 -0.8418262 0.51500833
-0.87110686 -0.82638204 0.38031548
-0.8655979 -0.82143599 0.25865185
-0.854774 -0.81172109 0.14122671
-0.083223358 -0.029560219 8.6989422
-0.997742 -0.89608294 8.5255833
-1.3004031 -1.1828634 8.4748983
-0.72189665 -0.66572726 3.1865156
-1.1919538 -1.1066765 3.8913527
-1.0863423 -1.0128381 2.7891645
-1.0426573 -0.97480822 2.1690104
-1.0095346 -0.94580346 1.7328844
-0.40599349 -0.30583632 8.6300068
-0.7196328 -0.58563352 8.6104555
-1.1715329 -1.0708411 6.1483898
-0.79840016 -0.73672241 3.0084779
-1.1119463 -1.0316564 3.2001076
-1.0550719 -0.981951 2.427736
-1.0154619 -0.94738108 1.9137211
-0.97921437 -0.91514623 1.5312593
-0.96139139 -0.90447158 1.3769339
-0.92595714 -0.8720386 1.1079915
-0.91130883 -0.85913092 0.90574402
-0.90649116 -0.85517663 0.73889637
-0.88718474 -0.83753896 0.58125854
-0.87899554 -0.83037817 0.44536817
-0.86385518 -0.81663954 0.31716621
-0.8644799 -0.8177911 0.19978066
-0.95018739 -0.89142722 1.2415675
-0.91527992 -0.8595686 0.99782026
-0.90915048 -0.85439956 0.81875914
-0.90325397 -0.84973896 0.66074419
-0.88749152 -0.83548468 0.51336479
-0.87044805 -0.82000327 0.37914312
-0.86485595 -0.81501323 0.25796115
-0.85396755 -0.80530494 0.14102517
-0.083326034 -0.029269533 8.6989422
-1.0008638 -0.8925947 8.5255833
-1.3045242 -1.1783168 8.4748983
-0.72751927 -0.66622698 3.2008314
-1.1915002 -1.0985366 3.8775451
-1.0845984 -1.004159 2.7759972
-1.0419289 -0.96733379 2.1607444
-1.0081362 -0.93790758 1.7252094
-0.4070586 -0.30441725 8.6300068
-0.72167265 -0.58311802 8.6104555
-1.1752638 -1.0667452 6.1483898
-0.80351192 -0.73626214 3.0178635
-1.1075349 -1.0203941 3.1776016
-1.0546623 -0.97472215 2.419204
-1.0143416 -0.93973517 1.905741
-0.97743279 -0.90711063 1.523909
-0.96193671 -0.89867574 1.3734293
-0.92615253 -0.86614257 1.104853
-0.91124958 -0.85308707 0.9030025
-0.90623784 -0.8489787 0.73657757
-0.8867206 -0.8312664 0.57938552
-0.87839001 -0.82402283 0.44395813
-0.86670059 -0.81361914 0.31716621
-0.86369967 -0.81135887 0.19933358
-0.95056129 -0.88556004 1.238242
-0.91531861 -0.85361177 0.9948771
-0.90897566 -0.84827971 0.81622595
-0.90289813 -0.84348273 0.65864611
-0.88695282 -0.82915694 0.51172131
-0.86975551 -0.81363928 0.37797081
-0.86407983 -0.80860573 0.25727049
-0.85677332 -0.80231911 0.14102517
-0.083427697 -0.028978495 8.6989422
-1.0039735 -0.8890956 8.5255833
-1.3086293 -1.173756 8.4748983
-0.72984034 -0.66368341 3.2008314
-1.1895632 -1.0890943 3.8591347
-1.0828074 -0.99550444 2.76283
-1.0390919 -0.95796895 2.1483455
-1.006695 -0.93003297 1.7175343
-0.40811872 -0.30299452 8.6300068
-0.72370374 -0.58059531 8.6104555
-1.179914 -1.0634778 6.1532292
-0.80735362 -0.73461407 3.0225561
-1.106271 -1.0121139 3.1640978
-1.0542151 -0.96750808 2.4106722
-1.0109625 -0.93006873 1.8937708
-0.97810012 -0.9013958 1.5202339
-0.95983881 -0.8904618 1.3664203
-0.92631811 -0.86025578 1.1017146
-0.91115922 -0.84705406 0.90026098
-0.90595233 -0.84279299 0.73425877
-0.88622367 -0.82500738 0.57751244
-0.87775105 -0.81768197 0.4425481
-0.86594218 -0.80723929 0.31623358
-0.86288506 -0.80494207 0.1988865
-0.9509058 -0.87970114 1.2349164
-0.91532695 -0.84766519 0.99193394
-0.90876925 -0.84217161 0.81369281
-0.90250951 -0.83723921 0.65654802
-0.88638091 -0.82284313 0.51007777
-0.8690291 -0.80729026 0.37679848
-0.86689711 -0.80558467 0.25727049
-0.85591024 -0.79592139 0.14082365
-0.083570614 -0.028697947 8.7039413
-1.0076545 -0.88609862 8.5305223
-1.3127185 -1.169181 8.4748983
-0.74544948 -0.67313373 3.2580953
-1.1890205 -1.0809931 3.8453271
-1.0809691 -0.9868747 2.7496629
-1.0362025 -0.948636 2.1359468
-1.0052115 -0.92218012 1.7098594
-0.40917388 -0.30156809 8.6300068
-0.7253086 -0.57773399 8.605484
-1.1845558 -1.0601907 6.1580687
-0.81247413 -0.73410487 3.0319417
-1.1114087 -1.0097098 3.1685991
-1.0537304 -0.96030915 2.4021404
-1.0097532 -0.92246974 1.8857908
-0.97623849 -0.89339894 1.5128835
-0.96031815 -0.88468975 1.3629158
-0.92645377 -0.8543784 1.0985761
-0.91103786 -0.84103209 0.89751953
-0.90563476 -0.83661968 0.73193997
-0.88909805 -0.82190883 0.57751244
-0.87707847 -0.81135553 0.44113809
-0.86875468 -0.80421168 0.31623358
-0.86568958 -0.80192506 0.1988865
-0.94847131 -0.87132478 1.2282655
-0.91530496 -0.84172904 0.98899078
-0.90853125 -0.83607531 0.81115961
-0.90208834 -0.83100885 0.65445
-0.88924778 -0.81974405 0.51007777
-0.86826909 -0.80095619 0.37562618
-0.86606449 -0.79919541 0.25657982
-0.85501289 -0.78953952 0.14062211
-0.083670281 -0.028406054 8.7039413
-1.0107415 -0.88257587 8.5305223
-1.3167917 -1.1645916 8.4748983
-0.77224898 -0.69244611 3.3630788
-1.1884359 -1.072909 3.8315196
-1.0790839 -0.97827017 2.7364957
-1.0332605 -0.93933481 2.1235478
-1.0060546 -0.91650712 1.7060218
-0.41022405 -0.30013794 8.6300068
-0.72773939 -0.5755288 8.6104555
-1.1891891 -1.0568843 6.1629081
-0.82145488 -0.7370255 3.0554056
-1.1149265 -1.0058241 3.1685991
-1.0512745 -0.95137566 2.3893425
-1.0107354 -0.916915 1.8818009
-0.97684205 -0.88770592 1.5092083
-0.95813763 -0.87651813 1.3559066
-0.92655987 -0.84851068 1.0954376
-0.91088575 -0.83502138 0.89477807
-0.90528524 -0.830459 0.72962117
-0.88854653 -0.81566548 0.57563943
-0.87283975 -0.8017987 0.43831801
-0.86794013 -0.79784983 0.31530097
-0.86481839 -0.79552692 0.19843942
-0.94874847 -0.86549246 1.2249401
-0.9152528 -0.83580339 0.98604763
-0.9082619 -0.82999098 0.80862641
-0.90163481 -0.82479167 0.65235192
-0.88862056 -0.81344658 0.5084343
-0.8638913 -0.79135418 0.37328154
-0.86154687 -0.78947628 0.25519845
-0.85408151 -0.7831738 0.14042059
-0.083811261 -0.028124366 8.7089415
-1.0144033 -0.87955117 8.5354624
-1.3208488 -1.159988 8.4748983
-0.79919195 -0.7115792 3.4680624
-1.1878095 -1.0648422 3.8177123
-1.0789319 -0.97129297 2.7277176
-1.0302663 -0.93006581 2.1111491
-1.0068707 -0.91083968 1.7021843
-0.41126922 -0.29870418 8.6300068
-0.7297439 -0.57298505 8.6104555
-1.1938136 -1.0535583 6.167748
-0.82788855 -0.73759687 3.0694838
-1.1200522 -1.0033786 3.1731002
-1.050709 -0.94421399 2.3808105
-1.009452 -0.90934801 1.8738209
-0.97490078 -0.87974858 1.501858
-0.95855159 -0.87077045 1.3524021
-0.92663634 -0.84265268 1.0922991
-0.91070265 -0.82902205 0.89203662
-0.90817857 -0.82729387 0.72962117
-0.88796216 -0.8094359 0.57376641
-0.87208897 -0.79551417 0.43690795
-0.87071985 -0.79481536 0.31530097
-0.86391312 -0.78914469 0.19799234
-0.94622916 -0.8571623 1.218289
-0.91517037 -0.82988834 0.98310447
-0.90796113 -0.82391876 0.80609328
-0.90450841 -0.82163936 0.65235192
-0.88796026 -0.80716354 0.50679076
-0.86305273 -0.78506321 0.37210923
-0.86063462 -0.78313124 0.25450778
-0.85311615 -0.77682406 0.14021905
-0.083908923 -0.02783164 8.7089415
-1.0174673 -0.87600482 8.5354624
-1.3248899 -1.1553702 8.4748983
-0.8128559 -0.71867037 3.5157826
-1.1871411 -1.0567929 3.8039043
-1.0769587 -0.96273273 2.7145503
-1.0293155 -0.9227075 2.1028829
-1.0076593 -0.90517765 1.6983467
-0.41230941 -0.29726675 8.6300068
-0.73173952 -0.57043427 8.6104555
-1.1984295 -1.050213 6.1725869
-0.84079939 -0.74384838 3.1070261
-1.1235478 -0.99946272 3.1731002
-1.0501064 -0.93706793 2.3722787
-1.0126201 -0.90581882 1.8738209
-0.9754408 -0.8740778 1.4981829
-0.95628893 -0.86264187 1.3453929
-0.92379427 -0.83419597 1.0860223
-0.91048896 -0.82303411 0.88929516
-0.90777552 -0.82114708 0.72730237
-0.89078218 -0.8063314 0.57376641
-0.87130517 -0.78924477 0.43549791
-0.8698495 -0.78847218 0.31436834
-0.86297387 -0.78277844 0.19754526
-0.94643945 -0.85135722 1.2149636
-0.91505784 -0.82398409 0.98016131
-0.90762901 -0.8178587 0.80356008
-0.90400076 -0.81543714 0.65025389
-0.88726699 -0.80089504 0.50514728
-0.86218077 -0.77878773 0.3709369
-0.8596887 -0.7768023 0.25381708
-0.85582256 -0.77384138 0.14021905
-0.084005564 -0.027538572 8.7089415
-1.0211097 -0.87295258 8.5404015
-1.3289149 -1.1507386 8.4748983
-0.81423765 -0.71484393 3.5110104
-1.1849672 -1.0474675 3.7854943
-1.0767301 -0.95578802 2.7057722
-1.0262239 -0.91349626 2.0904841
-1.0108129 -0.90165466 1.6983467
-0.41334456 -0.29582572 8.6300068
-0.73372626 -0.56787652 8.6104555
-1.2049332 -1.0484983 6.1871057
-0.84209418 -0.73977017 3.1023331
-1.1253982 -0.99409378 3.1685991
-1.0514189 -0.93166721 2.3680129
-1.0135227 -0.90027755 1.8698307
-0.97342038 -0.86616063 1.4908326
-0.95663792 -0.85691935 1.3418884
-0.9238025 -0.82836783 1.0828838
-0.91024458 -0.81705791 0.8865537
-0.90734076 -0.81501329 0.72498357
-0.89014351 -0.80011803 0.57189339
-0.87405491 -0.78619856 0.43549791
-0.87259644 -0.78543103 0.31436834
-0.85830051 -0.77309555 0.1966511
-0.94383597 -0.84307384 1.2083125
-0.91491526 -0.81809086 0.97721815
-0.90726578 -0.81181115 0.80102688
-0.90346098 -0.80924863 0.64815581
-0.88654083 -0.79464126 0.5035038
-0.86127561 -0.77252793 0.3697646
-0.85502332 -0.76718247 0.25243574
-0.85480118 -0.76751155 0.14001752
-0.084101178 -0.02724517 8.7089415
-1.0241507 -0.86938298 8.5404015
-1.3329235 -1.1460928 8.4748983
-0.83023232 -0.72376555 3.5682743
-1.1827428 -1.0381702 3.7670844
-1.0746697 -0.94727319 2.692605
-1.0272979 -0.90804499 2.0863512
-1.0115547 -0.8959958 1.6945094
-0.41437465 -0.29438105 8.6300068
-0.7361272 -0.56563622 8.615427
-1.2085857 -1.0442859 6.1871057
-0.84987378 -0.74136293 3.1211042
-1.1304979 -0.99159461 3.1731002
-1.0507485 -0.92454612 2.3594811
-1.0143993 -0.89474118 1.8658408
-0.97135663 -0.85826826 1.4834822
-0.95429373 -0.84883469 1.3348794
-0.92087436 -0.81996161 1.0766069
-0.90996951 -0.81109339 0.88381225
-0.90687424 -0.80889249 0.72266477
-0.88947231 -0.79391897 0.57002032
-0.87321609 -0.77994722 0.43408787
-0.87533283 -0.78238034 0.31436834
-0.85357016 -0.76345491 0.19575694
-0.94397968 -0.83729661 1.204987
-0.91474271 -0.81220859 0.97427499
-0.90687144 -0.80577606 0.79849374
-0.90288907 -0.80307388 0.64605778
-0.88578182 -0.78840232 0.50186026
-0.86033732 -0.76628405 0.36859229
-0.85399866 -0.76089895 0.25174505
-0.8574751 -0.76452309 0.14001752
-0.08419577 -0.026951436 8.7089415
-1.0271791 -0.86580276 8.5404015
-1.336916 -1.141433 8.4748983
-0.8383975 -0.72574669 3.5921342
-1.1804681 -1.0289012 3.7486744
-1.0725627 -0.93878436 2.6794376
-1.0262312 -0.9007411 2.0780854
-1.0098624 -0.88822591 1.6868343
-0.41516322 -0.29276726 8.6250143
-0.73809713 -0.5630632 8.615427
-1.2150859 -1.0425158 6.2016234
-0.84723818 -0.73387325 3.1023331
-1.1241021 -0.97906458 3.1460929
-1.0520052 -0.91915685 2.3552151
-1.0152494 -0.88920957 1.8618507
-0.96924967 -0.85040087 1.4761319
-0.95457792 -0.84313768 1.3313749
-0.92081487 -0.8141641 1.0734684
-0.90966403 -0.80514085 0.88107073
-0.90637606 -0.80278498 0.72034597
-0.88876879 -0.78773433 0.5681473
-0.87234437 -0.77371132 0.43267787
-0.87438452 -0.77605933 0.31343573
-0.85250646 -0.75716376 0.19530986
-0.9440946 -0.83152872 1.2016616
-0.91454041 -0.80633765 0.97133183
-0.90644598 -0.79975367 0.79596055
-0.90228504 -0.79691297 0.6439597
-0.8849901 -0.7821784 0.50021678
-0.86300689 -0.76327622 0.36859229
-0.85294062 -0.75463194 0.25105438
-0.85639799 -0.75821352 0.13981599
-0.084289327 -0.026657373 8.7089415
-1.0295991 -0.86171341 8.5354624
-1.3408923 -1.1367593 8.4748983
-0.84092575 -0.72281575 3.5921342
-1.178143 -1.0196608 3.7302639
-1.0704098 -0.93032187 2.6662703
-1.0272475 -0.89530474 2.0739524
-1.0105425 -0.88258708 1.6829967
-0.41618264 -0.2913163 8.6250143
-0.74005806 -0.56048334 8.615427
-1.2254162 -1.043973 6.2354994
-0.84979475 -0.73091137 3.1023331
-1.1192794 -0.96801531 3.1235871
-1.051267 -0.9120611 2.3466833
-1.0137995 -0.8817057 1.8538706
-0.96965605 -0.84478563 1.4724567
-0.95483392 -0.83744901 1.3278702
-0.92072612 -0.80837697 1.07033
-0.9093281 -0.79920036 0.87832928
-0.90584642 -0.79669082 0.71802717
-0.88803291 -0.78156441 0.56627429
-0.87503982 -0.77066153 0.43267787
-0.87708819 -0.77300245 0.31343573
-0.85140932 -0.75088936 0.19486278
-0.94418079 -0.8257702 1.198336
-0.91430825 -0.80047792 0.96838868
-0.90598965 -0.79374409 0.79342741
-0.901649 -0.79076612 0.64186168
-0.88416582 -0.77596962 0.49857324
-0.86201382 -0.75705177 0.36741996
-0.85184932 -0.74838167 0.25036371
-0.85528731 -0.75192088 0.13961446
-0.084424421 -0.026372645 8.7139416
-1.0326008 -0.85811418 8.5354624
-1.3448521 -1.1320719 8.4748983
-0.8468504 -0.72278249 3.6064501
-1.1742861 -1.0091763 3.7072515
-1.068211 -0.92188603 2.6531031
-1.0282385 -0.88987213 2.0698195
-1.0087739 -0.87485451 1.6753218
-0.4174346 -0.29002568 8.6300068
-0.74201 -0.55789661 8.615427
-1.2415301 -1.0502406 6.2984118
-0.8510285 -0.72682011 3.0976403
-1.1143934 -0.95701176 3.1010809
-1.0504923 -0.90498185 2.3381512
-1.0123097 -0.87422287 1.8458906
-0.96747088 -0.83695996 1.4651064
-0.95775133 -0.83411092 1.3278702
-0.92060834 -0.80260038 1.0671915
-0.90896171 -0.79327202 0.87558782
-0.90528518 -0.79061013 0.71570832
-0.88726491 -0.77540928 0.56440127
-0.87411362 -0.76444453 0.43126783
-0.87608445 -0.7667011 0.3125031
-0.85027885 -0.74463195 0.1944157
-0.94423831 -0.82002121 1.1950105
-0.91404629 -0.79462975 0.96544552
-0.90550238 -0.7877475 0.79089421
-0.90098113 -0.7846334 0.63976365
-0.88330901 -0.76977628 0.49692973
-0.8646512 -0.75403816 0.36741996
-0.85072476 -0.74214822 0.24967301
-0.8541432 -0.74564528 0.13941292
-0.084515966 -0.026077788 8.7139416
-1.0355898 -0.85450453 8.5354624
-1.3487957 -1.1273705 8.4748983
-0.85164618 -0.72175181 3.615994
-1.1718568 -0.99999899 3.6888416
-1.0677849 -0.91503501 2.644325
-1.0313386 -0.8862775 2.0698195
-1.0069638 -0.86714512 1.6676468
-0.41844445 -0.2885668 8.6300068
-0.74395293 -0.5553031 8.615427
-1.263478 -1.0612581 6.3903608
-0.8548767 -0.72496092 3.1023331
-1.1111008 -0.94746649 3.083076
-1.0496808 -0.89791906 2.3296194
-1.0084926 -0.86479992 1.8339207
-0.96781492 -0.83136886 1.4614313
-0.95795947 -0.82843006 1.3243657
-0.92046142 -0.79683459 1.0640531
-0.91172522 -0.79009426 0.87558782
-0.90469265 -0.78454316 0.71338952
-0.88646483 -0.76926911 0.56252825
-0.87315458 -0.75824332 0.42985779
-0.87875545 -0.76363838 0.3125031
-0.84911501 -0.73839152 0.19396862
-0.94426727 -0.81428206 1.1916851
-0.9137547 -0.78879309 0.96250236
-0.90824664 -0.78458196 0.79089421
-0.90028143 -0.77851504 0.63766557
-0.88241976 -0.76359826 0.49528623
-0.86360353 -0.74783355 0.36624765
-0.84956706 -0.73593181 0.24898234
-0.85296571 -0.73938686 0.1392114
-0.084606476 -0.025782613 8.7139416
-1.0385664 -0.85088438 8.5354624
-1.3527226 -1.1226555 8.4748983
-0.85644495 -0.72069633 3.6255379
-1.167887 -0.9895882 3.6658287
-1.0673243 -0.9081983 2.6355469
-1.0322852 -0.88084573 2.0656865
-1.002676 -0.8573761 1.6561341
-0.41944918 -0.2871044 8.6300068
-0.74588674 -0.55270284 8.615427
-1.2816564 -1.0689154 6.4629526
-0.85740209 -0.72197247 3.1023331
-1.1077552 -0.93795592 3.0650711
-1.048833 -0.89087307 2.3210876
-1.0069164 -0.85736763 1.8259404
-0.96555209 -0.82358563 1.4540808
-0.95813966 -0.82275796 1.3208612
-0.92028552 -0.79107958 1.0609146
-0.91130805 -0.78417969 0.87284636
-0.90406883 -0.77849001 0.71107078
-0.88563269 -0.76314396 0.56065518
-0.87216312 -0.75205833 0.42844775
-0.87769657 -0.75735718 0.3115705
-0.85168731 -0.73542309 0.19396862
-0.94426769 -0.80855262 1.1883595
-0.91343349 -0.78296822 0.95955914
-0.90770769 -0.77860022 0.78836101
-0.89955008 -0.77241117 0.63556755
-0.88149816 -0.75743592 0.49364269
-0.86620873 -0.74481446 0.36624765
-0.84837645 -0.72973251 0.24829166
-0.84796852 -0.72988665 0.13880834
-0.084695958 -0.025487125 8.7139416
-1.0421331 -0.84774411 8.5404015
-1.3566332 -1.1179267 8.4748983
-0.86239249 -0.72057319 3.639854
-1.163859 -0.97921747 3.6428163
-1.0686584 -0.90292156 2.6311576
-1.0332065 -0.87541789 2.0615535
-1.0007757 -0.84972209 1.6484592
-0.42068812 -0.28579989 8.6349974
-0.74738169 -0.54978049 8.6104555
-1.2979667 -1.0748553 6.5258651
-0.8612411 -0.72008187 3.1070261
-1.104357 -0.92848039 3.0470665
-1.0479488 -0.88384402 2.3125558
-1.0076019 -0.85190231 1.8219506
-0.9658339 -0.81801927 1.4504057
-0.95557821 -0.81478101 1.3138521
-0.92008066 -0.78533554 1.0577762
-0.91086078 -0.7782777 0.87010491
-0.90341383 -0.77245075 0.70875198
-0.88829112 -0.76004785 0.56065518
-0.87113905 -0.74588943 0.42703772
-0.87660462 -0.75109267 0.31063786
-0.85046864 -0.72920412 0.19352154
-0.94423962 -0.80283308 1.185034
-0.91308284 -0.77715528 0.95661598
-0.90713811 -0.77263188 0.78582788
-0.89878726 -0.76632202 0.63346946
-0.88054436 -0.75128943 0.49199918
-0.8651067 -0.73863024 0.36507532
-0.84715301 -0.72355062 0.24760097
-0.8467133 -0.72367626 0.1386068
-0.084784411 -0.025191328 8.7139416
-1.0450859 -0.84410119 8.5404015
-1.3613153 -1.113829 8.4797935
-0.86949831 -0.72136998 3.658942
-1.1597728 -0.96888691 3.6198037
-1.0681337 -0.89610744 2.6223795
-1.036256 -0.87180603 2.0615535
-0.99883437 -0.84209186 1.6407841
-0.42168316 -0.28432968 8.6349974
-0.74929625 -0.54716825 8.6104555
-1.3415227 -1.1030432 6.7242813
-0.86374938 -0.71707118 3.1070261
-1.1025772 -0.92043495 3.0335627
-1.0470284 -0.87683195 2.3040237
-1.0082614 -0.84644258 1.8179604
-0.963494 -0.81027919 1.4430554
-0.95569462 -0.80913615 1.3103476
-0.91984701 -0.77960259 1.0546377
-0.91038328 -0.7723884 0.86736345
-0.90272766 -0.76642567 0.70643318
-0.88740569 -0.753941 0.55878216
-0.87008262 -0.73973686 0.42562771
-0.87547964 -0.74484509 0.30970526
-0.849217 -0.72300279 0.19307446
-0.94133008 -0.79471523 1.1783831
-0.9127028 -0.77135438 0.95367283
-0.90653801 -0.76667714 0.78329468
-0.89799273 -0.76024747 0.63137144
-0.87955844 -0.74515873 0.49035567
-0.86397213 -0.73246276 0.36390302
-0.84589666 -0.71738613 0.2469103
-0.84542513 -0.71748358 0.13840528
-0.084871829 -0.024895221 8.7139416
-1.0474197 -0.83996212 8.5354624
-1.365195 -1.1090704 8.4797935
-0.87892503 -0.72402376 3.6875737
-1.1511173 -0.9548555 3.5829835
-1.0675746 -0.88930804 2.6136014
-1.0328137 -0.86277181 2.0491548
-0.9993099 -0.83654284 1.6369468
-0.42267311 -0.28285599 8.6349974
-0.75163364 -0.54486179 8.615427
-1.4709855 -1.2008805 7.348567
-0.86757892 -0.71514922 3.1117187
-1.1007551 -0.91241336 3.0200591
-1.0460719 -0.86983711 2.2954919
-1.0088953 -0.84098876 1.8139704
-0.96371424 -0.80473822 1.4393802
-0.95305336 -0.80120569 1.3033384
-0.91958451 -0.77388096 1.0514992
-0.90987587 -0.76651198 0.864622
-0.9020105 -0.76041472 0.70411438
-0.88648856 -0.74784952 0.55690914
-0.8726595 -0.73669517 0.42562771
-0.87807429 -0.74178457 0.30970526
-0.84793246 -0.71681899 0.19262739
-0.94123691 -0.78902596 1.1750575
-0.91229343 -0.76556557 0.95072967
-0.90590733 -0.76073599 0.78076148
-0.89716691 -0.75418794 0.62927336
-0.88215417 -0.74208397 0.49035567
-0.86280513 -0.72631228 0.36273071
-0.84460783 -0.71123934 0.24621962
-0.84410411 -0.71130884 0.13820374
-0.084958211 -0.024598811 8.7139416
-1.0503452 -0.83630085 8.5354624
-1.3690581 -1.1042981 8.4797935
-0.88722503 -0.72567558 3.7114339
-1.1559516 -0.95207345 3.5875859
-1.0669811 -0.88252342 2.6048231
-1.0293207 -0.85377216 2.0367558
-0.99729383 -0.82895219 1.6292717
-0.42365786 -0.28137887 8.6349974
-0.75353098 -0.54223478 8.615427
-1.5210673 -1.2329332 7.5760202
-0.87140554 -0.71320921 3.1164114
-1.1005714 -0.90579897 3.0110567
-1.0450792 -0.86285979 2.2869601
-1.0095034 -0.83554083 1.8099804
-0.96390748 -0.79920554 1.4357051
-0.95310628 -0.79558885 1.2998339
-0.9192934 -0.76817054 1.0483608
-0.90613115 -0.75796574 0.85913903
-0.90126246 -0.75441819 0.70179558
-0.88553971 -0.74177378 0.55503613
-0.87154937 -0.73056298 0.42421767
-0.87689465 -0.73555809 0.30877262
-0.84661514 -0.71065307 0.19218032
-0.94111556 -0.78334713 1.1717321
-0.9118548 -0.75978911 0.94778651
-0.90524644 -0.75480866 0.77822834
-0.89630967 -0.74814349 0.62717533
-0.8811149 -0.73597306 0.48871216
-0.8616057 -0.7201789 0.36155838
-0.84708536 -0.70828676 0.24621962
-0.84275031 -0.70515203 0.1380022
-0.085043557 -0.024302101 8.7139416
-1.0532581 -0.83262932 8.5354624
-1.3729045 -1.0995126 8.4797935
-0.89786494 -0.72915971 3.7448375
-1.1592679 -0.94803256 3.5875859
-1.0645024 -0.87423414 2.5916562
-1.0236055 -0.84301877 2.0202241
-0.99523693 -0.82138568 1.6215967
-0.4246375 -0.27989832 8.6349974
-0.75541919 -0.53960115 8.615427
-1.529279 -1.2307681 7.5953779
-0.8738898 -0.71016306 3.1164114
-1.0986689 -0.89781964 2.9975529
-1.0460678 -0.85755324 2.2826943
-1.0100857 -0.83009887 1.8059905
-0.96145654 -0.79152691 1.4283547
-0.95313185 -0.78998154 1.2963293
-0.91597795 -0.75998652 1.0420839
-0.90555471 -0.75212663 0.85639757
-0.90048367 -0.74843633 0.69947678
-0.88812357 -0.7386781 0.55503613
-0.87040704 -0.72444755 0.42280763
-0.87945694 -0.73249274 0.30877262
-0.84526515 -0.70450515 0.19173324
-0.94096607 -0.77767885 1.1684066
-0.91138703 -0.75402504 0.94484335
-0.90455508 -0.74889511 0.77569515
-0.89891571 -0.7450102 0.62717533
-0.8836785 -0.73289293 0.48871216
-0.86411434 -0.7171669 0.36155838
-0.84574246 -0.70216233 0.24552894
-0.84136385 -0.69901341 0.13780068
-0.085127868 -0.024005096 8.7139416
-1.0561581 -0.82894772 8.5354624
-1.376734 -1.0947134 8.4797935
-0.90621561 -0.73070496 3.7686975
-1.1216172 -0.9107343 3.4633176
-1.0619787 -0.86597282 2.5784888
-1.0200064 -0.83409703 2.0078254
-0.99313945 -0.81384379 1.6139216
-0.42561194 -0.27841437 8.6349974
-0.75729811 -0.53696096 8.615427
-1.5247273 -1.2183615 7.5518231
-0.87770659 -0.70819175 3.1211042
-1.098415 -0.89123613 2.9885504
-1.0450093 -0.850604 2.2741623
-1.0106423 -0.8246631 1.8020003
-0.96158862 -0.78602052 1.4246795
-0.95588362 -0.78664964 1.2963293
-0.91562098 -0.75430977 1.0389454
-0.90494865 -0.74630082 0.85365611
-0.899674 -0.74246895 0.69715798
-0.88712204 -0.73262155 0.55316305
-0.86923271 -0.71834904 0.4213976
-0.87822294 -0.72628778 0.30784002
-0.84771919 -0.7015503 0.19173324
-0.94078857 -0.77202106 1.165081
-0.91089004 -0.74827355 0.94190019
-0.90383345 -0.74299568 0.77316189
-0.89800632 -0.73898405 0.62507725
-0.88258606 -0.72680205 0.48706865
-0.86286139 -0.71105522 0.36038607
-0.84436715 -0.69605595 0.24483825
-0.83994484 -0.69289309 0.13759914
-0.08521115 -0.023707798 8.7139416
-1.0590453 -0.82525599 8.5354624
-1.380547 -1.0899012 8.4797935
-0.90992624 -0.72846997 3.7734697
-1.0974103 -0.88474512 3.3804724
-1.061272 -0.85924673 2.5697107
-1.0141726 -0.82343692 1.9912934
-0.99100161 -0.80632663 1.6062467
-0.42658117 -0.27692699 8.6349974
-0.75916785 -0.53431422 8.615427
-1.5210924 -1.2067828 7.5131078
-0.88152033 -0.70620239 3.125797
-1.0981286 -0.88466537 2.9795482
-1.0459435 -0.84531194 2.2698965
-1.008832 -0.81733686 1.7940203
-0.96169406 -0.78052288 1.4210044
-0.95862371 -0.78330821 1.2963293
-0.91523546 -0.74864471 1.035807
-0.90431285 -0.74048835 0.85091466
-0.89883375 -0.73651642 0.69483918
-0.88967395 -0.72952044 0.55316305
-0.87173498 -0.71531045 0.4213976
-0.8807528 -0.72321784 0.30784002
-0.84631521 -0.69542521 0.19128615
-0.94058299 -0.76637405 1.1617556
-0.91036409 -0.7425347 0.93895704
-0.90308177 -0.7371105 0.77062875
-0.8970657 -0.7329734 0.62297922
-0.88511771 -0.7237168 0.48706865
-0.86157632 -0.70496094 0.35921374
-0.84295952 -0.68996769 0.24414757
-0.84235841 -0.6899569 0.13759914
-0.085293382 -0.02341021 8.7139416
-1.0619195 -0.82155424 8.5354624
-1.3835416 -1.0844476 8.4748983
-0.91480088 -0.72714657 3.7830136
-1.063884 -0.85161203 3.2700117
-1.0586646 -0.85103583 2.5565434
-1.0170407 -0.81989187 1.9912934
-0.98632997 -0.79682022 1.5947342
-0.42754522 -0.27543628 8.6349974
-0.76102835 -0.53166097 8.615427
-1.5252956 -1.201466 7.5131078
-0.88533074 -0.70419502 3.1304898
-1.0978097 -0.87810761 2.9705458
-1.0468534 -0.84002364 2.2656305
-1.0093309 -0.81192183 1.7900304
-0.96177298 -0.77503419 1.4173292
-0.95858252 -0.77771044 1.2928247
-0.91482168 -0.74299169 1.0326686
-0.90364766 -0.73468953 0.8481732
-0.89796293 -0.73057884 0.69252038
-0.8886199 -0.72348356 0.55129004
-0.87050754 -0.70923328 0.41998756
-0.87946469 -0.717035 0.30690739
-0.84873754 -0.69246686 0.19128615
-0.9403494 -0.7607379 1.15843
-0.90980935 -0.73680872 0.93601388
-0.9056493 -0.7339536 0.77062875
-0.8996188 -0.72983754 0.62297922
-0.88397241 -0.71764654 0.48542514
-0.86403179 -0.70194918 0.35921374
-0.84151977 -0.68389791 0.24345689
-0.84088564 -0.68386012 0.13739762
-0.085374579 -0.023112338 8.7139416
-1.0653971 -0.81831557 8.5404015
-1.3873186 -1.0796114 8.4748983
-1.045436 -0.83087778 3.2055764
-1.0597569 -0.84584141 2.5521543
-1.0198965 -0.81633669 1.9912934
-0.98410451 -0.78936166 1.5870591
-0.42850408 -0.27394217 8.6349974
-0.76287955 -0.5290013 8.615427
-1.5086854 -1.179876 7.4114799
-0.88913792 -0.70216966 3.1351826
-1.0974585 -0.87156272 2.9615433
-1.0456995 -0.83311439 2.2570984
-1.0098042 -0.80651343 1.7860402
-0.95917791 -0.76743656 1.4099789
-0.95851409 -0.77212256 1.2893202
-0.91740966 -0.73979378 1.0326686
-0.90620673 -0.73153073 0.8481732
-0.90050763 -0.72743994 0.69252038
-0.88753444 -0.7174629 0.54941696
-0.86924833 -0.7031734 0.41857755
-0.8781442 -0.71086997 0.30597478
-0.8511495 -0.68949991 0.19128615
-0.94008803 -0.75511277 1.1551045
-0.90922564 -0.73109561 0.93307072
-0.90484709 -0.72808552 0.76809555
-0.89862645 -0.72384596 0.6208812
-0.88647205 -0.71455657 0.48542514
-0.86269349 -0.69587731 0.35804144
-0.84004796 -0.67784655 0.2427662
-0.84326762 -0.68092078 0.13739762
-0.085454732 -0.022814186 8.7139416
-1.0682471 -0.81459159 8.5404015
-1.3910787 -1.0747623 8.4748983
-1.3417318 -1.0511795 5.4961557
-1.0437286 -0.8235935 3.1917689
-1.0589484 -0.83916229 2.5433762
-1.0227398 -0.81277162 1.9912934
-0.98434651 -0.78392518 1.5832217
-0.42945772 -0.27244473 8.6349974
-0.76472145 -0.52633512 8.615427
-1.5127947 -1.1746025 7.4114799
-0.89294171 -0.70012623 3.1398752
-1.0953652 -0.8636834 2.9480395
-1.0445101 -0.82622355 2.2485666
-1.0102522 -0.80111152 1.7820503
-0.95919639 -0.76197523 1.4063038
-0.95841825 -0.7665447 1.2858157
-0.9169479 -0.7341544 1.02953
-0.90549189 -0.72574812 0.84543175
-0.89958566 -0.7215206 0.69020158
-0.8864181 -0.71145874 0.54754394
-0.87169755 -0.70013487 0.41857755
-0.87679136 -0.704723 0.30504215
-0.84967059 -0.68340355 0.19083907
-0.93979895 -0.74949872 1.1517791
-0.90861315 -0.72539562 0.93012756
-0.90738308 -0.7249226 0.76809555
-0.89760321 -0.71787018 0.61878312
-0.88527411 -0.7085073 0.48378164
-0.86132348 -0.68982321 0.35686913
-0.84240896 -0.67491013 0.2427662
-0.84174144 -0.67484802 0.13719608
-0.08553385 -0.022515753 8.7139416
-1.071084 -0.81085777 8.5404015
-1.3948218 -1.0698999 8.4748983
-1.3442144 -1.0455731 5.4913836
-1.0358309 -0.81151247 3.1595511
-1.0599889 -0.83398002 2.5389869
-1.0255708 -0.80919659 1.9912934
-0.98456258 -0.77849644 1.5793842
-0.43040612 -0.270944 8.6349974
-0.766554 -0.52366251 8.615427
-1.4989645 -1.1555035 7.3243699
-0.89538014 -0.69700503 3.1398752
-1.0949448 -0.85717112 2.9390371
-1.0412341 -0.8177405 2.235769
-1.0083071 -0.79385251 1.7740703
-0.95918828 -0.75652301 1.4026285
-0.95550233 -0.75875926 1.2788066
-0.91645795 -0.72852719 1.0263916
-0.90801966 -0.72258294 0.84543175
-0.89863336 -0.71561664 0.68788278
-0.88527048 -0.7054711 0.54567093
-0.87038559 -0.69409692 0.41716751
-0.87540638 -0.69859415 0.30410954
-0.8520509 -0.68043351 0.19083907
-0.93948203 -0.74389589 1.1484535
-0.91113979 -0.72221959 0.93012756
-0.90653062 -0.71907198 0.76556236
-0.89654922 -0.71191037 0.61668509
-0.88404465 -0.70247507 0.48213813
-0.86372608 -0.6868124 0.35686913
-0.84088421 -0.66888267 0.24207552
-0.84018326 -0.66879427 0.13699456
-0.085611925 -0.022217046 8.7139416
-1.0739079 -0.80711406 8.5404015
-1.398548 -1.0650246 8.4748983
-1.3395854 -1.0344892 5.4579797
-1.0401995 -0.80909109 3.1641538
-1.0591185 -0.82732654 2.5302088
-1.0261738 -0.8038767 1.9871606
-0.98475277 -0.77307588 1.5755466
-0.43110394 -0.26928785 8.6300068
-0.7683773 -0.52098358 8.615427
-1.4850196 -1.1365156 7.2372603
-0.89917326 -0.69493043 3.1445682
-1.0944923 -0.85067219 2.9300346
-1.0379118 -0.80929041 2.222971
-1.0086979 -0.78847253 1.7700801
-0.95915383 -0.75108021 1.3989534
-0.95254385 -0.75100368 1.2717975
-0.91593999 -0.72291243 1.0232532
-0.90725535 -0.71681672 0.84269029
-0.90112591 -0.71247548 0.68788278
-0.88409203 -0.69950026 0.54379785
-0.86904222 -0.68807679 0.41575748
-0.87398946 -0.69248366 0.30317691
-0.85051864 -0.67436117 0.19039199
-0.93913758 -0.7383045 1.145128
-0.91047871 -0.71653509 0.9271844
-0.90564835 -0.71323621 0.76302922
-0.89546454 -0.70596677 0.61458701
-0.88278407 -0.69646019 0.48049462
-0.86230326 -0.68078142 0.3556968
-0.84321392 -0.66594338 0.24207552
-0.84251267 -0.66585743 0.13699456
-0.085688956 -0.021918071 8.7139416
-1.0760958 -0.80289608 8.5354624
-1.4022571 -1.0601362 8.4748983
-1.3301563 -1.0198179 5.405488
-1.0461103 -0.80784297 3.1733589
-1.0601074 -0.82215697 2.5258198
-1.0245308 -0.79683489 1.9788946
-0.98238903 -0.76569331 1.5678717
-0.43204129 -0.26778138 8.6300068
-0.77019113 -0.51829821 8.615427
-1.4669569 -1.1145983 7.1307931
-0.9029628 -0.69283772 3.1492608
-1.0940078 -0.84418708 2.9210322
-1.0366056 -0.80246979 2.2144392
-1.0090634 -0.78309935 1.7660903
-0.95909327 -0.74564695 1.3952782
-0.94954288 -0.74327803 1.2647884
-0.91539401 -0.71731019 1.0201148
-0.90646195 -0.71106482 0.83994877
-0.90012282 -0.70659041 0.68556398
-0.88652831 -0.69640988 0.54379785
-0.86766732 -0.68207449 0.41434744
-0.86867964 -0.68335444 0.30131167
-0.84895444 -0.66830784 0.18994491
-0.93876559 -0.73272467 1.1418025
-0.90978932 -0.71086413 0.92424124
-0.90473658 -0.70741546 0.76049602
-0.8943494 -0.70003939 0.61248899
-0.88149226 -0.69046271 0.47885111
-0.86084884 -0.67476875 0.35452449
-0.84553331 -0.66299599 0.24207552
-0.84090137 -0.65982836 0.13679302
-0.085764937 -0.021618826 8.7139416
-1.0788919 -0.79913485 8.5354624
-1.4059491 -1.055235 8.4748983
-1.3230171 -1.0070332 5.3625402
-1.0504743 -0.80537492 3.1779611
-1.0591751 -0.81552958 2.5170417
-1.0228511 -0.78981429 1.9706287
-0.9825207 -0.76029795 1.5640341
-0.43321979 -0.26642203 8.6349974
-0.77199572 -0.51560658 8.615427
-1.4628099 -1.1034163 7.0920777
-0.90537578 -0.68968165 3.1492608
-1.0952197 -0.83903939 2.9165311
-1.0352644 -0.7956683 2.2059073
-1.0070167 -0.77589446 1.7581102
-0.95900637 -0.74022323 1.3916031
-0.94931561 -0.73777068 1.2612839
-0.91482002 -0.71172047 1.0169762
-0.90893853 -0.70789635 0.83994877
-0.89908987 -0.7007212 0.68324518
-0.88529825 -0.69046015 0.54192483
-0.87004298 -0.67904162 0.41434744
-0.86718827 -0.67729443 0.30037907
-0.84735835 -0.66227371 0.18949783
-0.94131756 -0.72944325 1.1418025
-0.90907133 -0.70520663 0.92129809
-0.90379506 -0.70160967 0.75796282
-0.89678758 -0.69691318 0.61248899
-0.88389701 -0.68738145 0.47885111
-0.86319894 -0.67175972 0.35452449
-0.84393489 -0.65699846 0.24138485
-0.84319949 -0.65688908 0.13679302
-0.085796833 -0.021312201 8.7089415
-1.0810487 -0.79490381 8.5305223
-1.409624 -1.0503209 8.4748983
-1.316996 -0.99521059 5.3243642
-1.0548339 -0.80288631 3.1825638
-1.0582097 -0.80891871 2.5082636
-1.0189017 -0.78110343 1.9582298
-0.9826268 -0.75491118 1.5601966
-0.43414712 -0.26490819 8.6349974
-0.77334613 -0.51261467 8.6104555
-1.4616214 -1.0945369 7.0678806
-0.90915418 -0.68755776 3.1539536
-1.096409 -0.8338936 2.91203
-1.0359621 -0.79046786 2.2016416
-1.004932 -0.76871341 1.7501302
-0.95889336 -0.73480928 1.3879279
-0.94623792 -0.73009568 1.2542748
-0.91729885 -0.70852286 1.0169762
-0.90809596 -0.70216161 0.83720732
-0.89802682 -0.69486767 0.68092638
-0.88770294 -0.68736565 0.54192483
-0.86861604 -0.67306232 0.4129374
-0.8656652 -0.67125314 0.29944643
-0.84573054 -0.65625888 0.18905075
-0.94089866 -0.72387642 1.138477
-0.90832496 -0.69956285 0.91835493
-0.9028241 -0.69581908 0.75542969
-0.89562142 -0.6910063 0.6103909
-0.88255322 -0.68140608 0.4772076
-0.86169231 -0.66577089 0.35335216
-0.84622312 -0.65404862 0.24138485
-0.84153545 -0.65088522 0.13659149
-0.085870706 -0.021012584 8.7089415
-1.0838169 -0.79112542 8.5305223
-1.4132817 -1.0453939 8.4748983
-1.3109086 -0.98344231 5.2861886
-1.0576301 -0.7991994 3.1825638
-1.057211 -0.80232459 2.4994855
-1.0149039 -0.77242976 1.9458311
-0.98015863 -0.74758917 1.5525217
-0.43506917 -0.26339111 8.6349974
-0.77513075 -0.50991207 8.6104555
-1.4492915 -1.0774316 6.9904499
-0.91154873 -0.68438005 3.1539536
-1.0958383 -0.827438 2.9030275
-1.0366359 -0.78527212 2.1973755
-1.0052093 -0.76337862 1.74614
-0.9587543 -0.72940511 1.3842528
-0.94594949 -0.72461963 1.2507702
-0.91667765 -0.70294815 1.0138377
-0.90722454 -0.69644141 0.83446586
-0.89693385 -0.68903029 0.67860758
-0.88642144 -0.68143743 0.54005182
-0.87096018 -0.67002624 0.4129374
-0.86800301 -0.66822731 0.29944643
-0.84801614 -0.65330273 0.18905075
-0.9404524 -0.71832138 1.1351515
-0.90755028 -0.69393289 0.91541177
-0.90524745 -0.69266343 0.75542969
-0.89442503 -0.68511605 0.60829288
-0.88117856 -0.67544854 0.47556409
-0.86401099 -0.66275889 0.35335216
-0.84457225 -0.64807612 0.24069417
-0.84380239 -0.64794374 0.13659149
-0.085943528 -0.020712711 8.7089415
-1.0865718 -0.78733736 8.5305223
-1.4169222 -1.0404543 8.4748983
-1.2999662 -0.96816301 5.2289248
-1.0619762 -0.79667479 3.1871662
-1.0580922 -0.79718834 2.4950962
-1.0131034 -0.76548994 1.9375652
-0.98020679 -0.74222845 1.5486841
-0.43598592 -0.26187083 8.6349974
-0.77645928 -0.50691241 8.605484
-1.4459633 -1.0671422 6.9565735
-0.91393209 -0.68119395 3.1539536
-1.0969778 -0.82230228 2.8985264
-1.0372863 -0.78008151 2.1931098
-1.0030556 -0.75623745 1.73816
-0.9558838 -0.72196782 1.3769025
-0.94563442 -0.71915472 1.2472657
-0.9160288 -0.69738644 1.0106993
-0.90632427 -0.69073588 0.83172441
-0.8958112 -0.68320888 0.67628878
-0.88879478 -0.67833912 0.54005182
-0.86948127 -0.66407025 0.4115274
-0.86642736 -0.66221046 0.29851383
-0.84633577 -0.64731318 0.18860367
-0.93997878 -0.71277839 1.131826
-0.90674758 -0.68831706 0.91246861
-0.90422708 -0.68689185 0.75289649
-0.89319837 -0.67924267 0.60619479
-0.88353091 -0.67236859 0.47556409
-0.86631924 -0.65973896 0.35335216
-0.84289008 -0.64212316 0.24000348
-0.8420859 -0.64196551 0.13638996
-0.086015314 -0.020412587 8.7089415
-1.0893135 -0.78353971 8.5305223
-1.4205455 -1.0355021 8.4748983
-1.2997365 -0.96095753 5.2146087
-1.0647507 -0.79296297 3.1871662
-1.0570325 -0.7906214 2.4863181
-1.0112668 -0.75857192 1.9292994
-0.97766733 -0.73495078 1.5410092
-0.43689737 -0.26034737 8.6349974
-0.77822399 -0.50419897 8.605484
-1.4435952 -1.0576321 6.9275374
-0.91630435 -0.67799962 3.1539536
-1.0963485 -0.81586915 2.889524
-1.037913 -0.77489579 2.1888437
-1.0032768 -0.7509262 1.7341701
-0.95568568 -0.71659321 1.3732272
-0.94529271 -0.71370071 1.2437612
-0.91845751 -0.69418466 1.0106993
-0.90539527 -0.68504518 0.82898289
-0.8946588 -0.67740381 0.67396998
-0.88746208 -0.67243284 0.5381788
-0.87179399 -0.66103113 0.4115274
-0.8687337 -0.65918201 0.29851383
-0.84462404 -0.64134347 0.18815659
-0.9394781 -0.70724744 1.1285006
-0.90591663 -0.68271512 0.90952545
-0.90661931 -0.68373132 0.75289649
-0.89556396 -0.67612064 0.60619479
-0.88210469 -0.66643387 0.47392058
-0.86861682 -0.65671092 0.35335216
-0.84512633 -0.63917696 0.24000348
-0.84432167 -0.63902217 0.13638996
-0.086086042 -0.020112213 8.7089415
-1.0926744 -0.78018385 8.5354624
-1.4241513 -1.0305371 8.4748983
-1.2705892 -0.93257189 5.0857654
-1.0675122 -0.78924149 3.1871662
-1.0578629 -0.78549927 2.4819291
-1.0093945 -0.75167626 1.9210334
-0.97765797 -0.7296167 1.5371716
-0.43780351 -0.25882071 8.6349974
-0.77997917 -0.50147939 8.605484
-1.4401616 -1.0474122 6.893661
-0.91866541 -0.674797 3.1539536
-1.0956875 -0.80945045 2.8805215
-1.0385162 -0.76971537 2.1845777
-1.005892 -0.74741954 1.7341701
-0.95274204 -0.70920455 1.3658769
-0.94492447 -0.70825797 1.2402567
-0.91776162 -0.68863851 1.0075608
-0.90778095 -0.68188053 0.82898289
-0.8970179 -0.67427671 0.67396998
-0.88609904 -0.6665442 0.53630573
-0.87026352 -0.65509903 0.41011736
-0.86710572 -0.65319002 0.2975812
-0.8428809 -0.63539356 0.18770951
-0.93895018 -0.7017287 1.125175
-0.9082942 -0.67954874 0.90952545
-0.90554953 -0.67797893 0.75036329
-0.89428669 -0.67026854 0.60409671
-0.88442558 -0.66335064 0.47392058
-0.87090391 -0.6536749 0.35335216
-0.84339237 -0.63324982 0.23931281
-0.84255302 -0.63306999 0.13618843
-0.08615572 -0.019811595 8.7089415
-1.0953912 -0.77636504 8.5354624
-1.42774 -1.0255595 8.4748983
-1.2846956 -0.93604076 5.1287131
-1.0718358 -0.78666621 3.1917689
-1.0567424 -0.77896005 2.473151
-1.0097491 -0.74647552 1.9169004
-0.97504777 -0.7223838 1.5294967
-0.43870431 -0.25729093 8.6349974
-0.78217465 -0.49903986 8.6104555
-1.443809 -1.0423787 6.893661
-0.92101526 -0.6715861 3.1539536
-1.0932397 -0.80175918 2.8670177
-1.0369949 -0.76299465 2.1760459
-1.0060697 -0.74211508 1.7301799
-0.9524852 -0.70385981 1.3622017
-0.94452977 -0.70282638 1.236752
-0.91703832 -0.68310565 1.0044224
-0.90680343 -0.67620814 0.82624143
-0.89581579 -0.66849226 0.67165118
-0.88470578 -0.66067326 0.53443271
-0.87254494 -0.65205729 0.41011736
-0.86938047 -0.65015924 0.2975812
-0.84509373 -0.63244748 0.18770951
-0.93839526 -0.69622231 1.1218495
-0.90741575 -0.67396408 0.9065823
-0.90445071 -0.67224246 0.74783015
-0.89662093 -0.66714275 0.60409671
-0.88294822 -0.65743929 0.47227708
-0.87318033 -0.65063083 0.35335216
-0.84162724 -0.62734246 0.23862213
-0.84075308 -0.62713796 0.13598689
-0.086224347 -0.019510733 8.7089415
-1.0987301 -0.77298355 8.5404015
-1.4313111 -1.0205696 8.4748983
-1.2891648 -0.9324252 5.1334848
-1.0745752 -0.78291994 3.1917689
-1.0575221 -0.77385241 2.4687617
-1.0100799 -0.74128163 1.9127675
-0.97498125 -0.71707696 1.5256591
-0.43959972 -0.25575799 8.6349974
-0.78391188 -0.49630651 8.6104555
-1.4300685 -1.0248874 6.8113914
-0.92615008 -0.67039037 3.1633391
-1.0907514 -0.79409486 2.853514
-1.0375458 -0.75783211 2.1717799
-1.0037915 -0.73503858 1.7221999
-0.95220268 -0.69852567 1.3585266
-0.94410872 -0.69740629 1.2332475
-0.91628754 -0.67758632 1.0012839
-0.90579754 -0.67055088 0.82349998
-0.8945843 -0.66272432 0.66933239
-0.88328242 -0.65482032 0.53255969
-0.8709631 -0.64614952 0.40870732
-0.86770046 -0.64419234 0.29664856
-0.83930129 -0.62355393 0.18681537
-0.93781334 -0.69072831 1.1185241
-0.9065094 -0.66839391 0.90363914
-0.90332288 -0.66652191 0.74529696
-0.89529353 -0.66131252 0.60199869
-0.88144034 -0.65154642 0.47063357
-0.87544614 -0.6475789 0.35335216
-0.83983117 -0.62145525 0.23793145
-0.84293705 -0.62419933 0.13598689
-0.086291924 -0.019209636 8.7089415
-1.1014216 -0.76914352 8.5404015
-1.4348648 -1.0155672 8.4748983
-1.3033255 -0.93575341 5.1764326
-1.0788847 -0.7803089 3.1963713
-1.058279 -0.76874888 2.4643729
-1.0103867 -0.73609436 1.9086344
-0.97488952 -0.71177942 1.5218216
-0.44023934 -0.25407851 8.6300068
-0.78563952 -0.49356714 8.6104555
-1.4213452 -1.0111473 6.7533178
-0.93128765 -0.66916698 3.1727247
-1.0882232 -0.78645772 2.8400104
-1.0359617 -0.75114429 2.1632481
-1.0039135 -0.72975862 1.7182097
-0.95189464 -0.69320208 1.3548514
-0.94078541 -0.68988895 1.2262385
-0.91550946 -0.67208052 0.99814546
-0.90476322 -0.66490889 0.82075852
-0.89332348 -0.6569733 0.66701359
-0.88556278 -0.65173304 0.53255969
-0.86935067 -0.6402607 0.40729728
-0.86598945 -0.63824528 0.29571593
-0.8414728 -0.62062037 0.18681537
-0.93720448 -0.68524683 1.1151985
-0.90557534 -0.6628384 0.90069598
-0.90216625 -0.6608175 0.74276382
-0.89393646 -0.65549964 0.5999006
-0.87990201 -0.64567202 0.46899009
-0.87378347 -0.64164221 0.35217986
-0.8419953 -0.6185199 0.23793145
-0.84108543 -0.61829412 0.13578537
-0.086358458 -0.018908303 8.7089415
-1.1040996 -0.76529419 8.5404015
-1.4384011 -1.0105524 8.4748983
-1.2968585 -0.92426872 5.138257
-1.0831889 -0.77767742 3.200974
-1.0570706 -0.76224887 2.4555948
-1.0106697 -0.73091418 1.9045017
-0.97217733 -0.70461041 1.5141466
-0.44112357 -0.25254023 8.6300068
-0.78735763 -0.49082175 8.6104555
-1.4145974 -0.99893057 6.7049236
-0.93642795 -0.66791582 3.1821103
-1.0874239 -0.78011668 2.8310082
-1.0343436 -0.74447674 2.1547163
-1.0015675 -0.72272378 1.7102298
-0.95156103 -0.6878891 1.3511763
-0.94318783 -0.68660086 1.2262385
-0.9178499 -0.6688807 0.99814546
-0.90370047 -0.65928233 0.81801701
-0.89561135 -0.65385103 0.66701359
-0.88408899 -0.64590317 0.53068668
-0.87158024 -0.63722211 0.40729728
-0.86028308 -0.62941754 0.29385069
-0.83961588 -0.61473745 0.18636829
-0.93354714 -0.67758512 1.1085476
-0.90461344 -0.65729743 0.89775282
-0.90098083 -0.65512925 0.74023062
-0.89254963 -0.64970434 0.59780258
-0.87833357 -0.6398164 0.46734658
-0.87601787 -0.63858825 0.35217986
-0.84014797 -0.61265922 0.23724076
-0.84323859 -0.61535442 0.13578537
-0.086380683 -0.018600978 8.7039413
-1.1067643 -0.76143551 8.5404015
-1.4419198 -1.0055252 8.4748983
-1.2964208 -0.91715038 5.1239409
-1.0890793 -0.77615893 3.2101789
-1.0558296 -0.75576663 2.4468162
-1.0109288 -0.72574085 1.9003686
-0.97202897 -0.69934082 1.5103091
-0.44225386 -0.25114056 8.6349974
-0.78861243 -0.4877905 8.605484
-1.4046935 -0.98460937 6.6420112
-0.94720507 -0.67062467 3.2102668
-1.0848202 -0.77252835 2.8175044
-1.0326917 -0.7378298 2.1461844
-0.99918467 -0.71571416 1.7022496
-0.95120192 -0.68258697 1.347501
-0.94268811 -0.68121564 1.2227339
-0.91702539 -0.66339147 0.99500704
-0.90599632 -0.65612382 0.81801701
-0.89430124 -0.64812142 0.66469479
-0.88633817 -0.64281321 0.53068668
-0.86991686 -0.63135827 0.40588725
-0.8585003 -0.62352407 0.29291809
-0.83772826 -0.60887504 0.18592121
-0.93287718 -0.67213982 1.105222
-0.90690231 -0.6541357 0.89775282
-0.9032622 -0.65198028 0.74023062
-0.89481217 -0.64658481 0.59780258
-0.87673497 -0.63397956 0.46570307
-0.87430382 -0.63267702 0.35100752
-0.84228146 -0.60972285 0.23724076
-0.84133565 -0.60947639 0.13558383
-0.086445086 -0.018299339 8.7039413
-1.1094155 -0.75756752 8.5404015
-1.4462583 -1.0010653 8.4797935
-1.2898408 -0.90575814 5.0857654
-1.0965669 -0.77573687 3.2239864
-1.052604 -0.74791539 2.4336493
-1.0111642 -0.7205748 1.8962357
-0.96924728 -0.69221818 1.502634
-0.44312781 -0.24959528 8.6349974
-0.79031038 -0.48503476 8.605484
-1.4246324 -0.99118376 6.7194419
-0.9495402 -0.66731417 3.2102668
-1.0821769 -0.76496762 2.8040009
-1.031006 -0.73120344 2.1376524
-0.99922109 -0.71047616 1.6982597
-0.95081753 -0.6772958 1.3438259
-0.94216245 -0.67584246 1.2192293
-0.91617382 -0.65791619 0.99186856
-0.90488589 -0.65051669 0.81527555
-0.89655817 -0.64499575 0.66469479
-0.8848142 -0.63700688 0.5288136
-0.87211543 -0.62831783 0.40588725
-0.85668701 -0.61765081 0.29198545
-0.83984852 -0.60594714 0.18592121
-0.93218064 -0.66670746 1.1018965
-0.90589362 -0.64861315 0.89480966
-0.90202826 -0.64631265 0.73769742
-0.89337581 -0.64081222 0.5957045
-0.87894261 -0.63091534 0.46570307
-0.87255925 -0.62678558 0.34983522
-0.84440464 -0.60677904 0.23724076
-0.843458 -0.60653585 0.13558383
-0.086508438 -0.017997479 8.7039413
-1.1126964 -0.75412601 8.5453396
-1.4497439 -0.99601078 8.4797935
-1.2868712 -0.89698321 5.0619054
-1.102466 -0.77414948 3.2331915
-1.0512937 -0.74147612 2.424871
-1.0113758 -0.71541584 1.8921027
-0.96904278 -0.68697721 1.4987966
-0.44399637 -0.24804696 8.6349974
-0.79199862 -0.4822731 8.605484
-1.4456686 -0.9983449 6.801712
-0.99008185 -0.69064701 3.3369715
-1.079494 -0.7574349 2.7904971
-1.0292867 -0.72459781 2.1291206
-0.9967711 -0.70350915 1.6902797
-0.9531759 -0.67397267 1.3438259
-0.94161057 -0.67048115 1.2157247
-0.91529518 -0.65245497 0.98873013
-0.90374732 -0.6449253 0.81253409
-0.89519912 -0.63928795 0.66237599
-0.88703239 -0.63391435 0.5288136
-0.87040144 -0.62247938 0.40447721
-0.85883778 -0.61465669 0.29198545
-0.84195858 -0.60301179 0.18592121
-0.93145758 -0.66128814 1.0985711
-0.9048574 -0.64310551 0.89186651
-0.90076584 -0.64066172 0.73516428
-0.89191002 -0.63505757 0.59360647
-0.87729383 -0.62510329 0.46405956
-0.87474185 -0.62373596 0.34983522
-0.84248602 -0.60095215 0.23655009
-0.8415038 -0.60068536 0.13538231
-0.086614043 -0.017700709 8.7089415
-1.115322 -0.75023735 8.5453396
-1.4532117 -0.99094415 8.4797935
-1.283856 -0.88824004 5.0380454
-1.1099703 -0.77364731 3.246999
-1.0479892 -0.73368186 2.4117036
-1.0115637 -0.71026427 1.8879696
-0.96619207 -0.6799016 1.4911215
-0.4448595 -0.24649562 8.6349974
-0.79367727 -0.47950557 8.605484
-1.4491446 -0.99329251 6.801712
-1.0279597 -0.71174037 3.4542906
-1.0749854 -0.74868625 2.7724922
-1.0296718 -0.71950686 2.1248546
-0.99675268 -0.69829673 1.6862897
-0.95552272 -0.67064136 1.3438259
-0.94103289 -0.66513193 1.2122202
-0.91438967 -0.647008 0.98559165
-0.90258086 -0.63934988 0.80979264
-0.89742523 -0.63615924 0.66237599
-0.88923979 -0.63081419 0.5288136
-0.86865729 -0.61666048 0.4030672
-0.85697353 -0.60881013 0.29105285
-0.84405833 -0.60006917 0.18592121
-0.93070811 -0.65588212 1.0952456
-0.90379381 -0.63761312 0.88892335
-0.89947498 -0.63502741 0.73263109
-0.89041495 -0.62932092 0.59150839
-0.87947047 -0.62203711 0.46405956
-0.8729462 -0.61787063 0.34866288
-0.84457856 -0.59800768 0.23655009
-0.83951908 -0.5948559 0.13518077
-0.086675301 -0.017398261 8.7089415
-1.1179341 -0.74633962 8.5453396
-1.4558185 -0.98529488 8.4748983
-1.2820262 -0.88037384 5.0189571
-1.1174843 -0.77310205 3.2608066
-1.0446432 -0.72591966 2.3985367
-1.0117282 -0.70512015 1.8838367
-0.96593159 -0.67468953 1.4872841
-0.44571725 -0.24494126 8.6349974
