# .PCD v0.7 - Point Cloud Data file format
VERSION 0.7
FIELDS x y z
SIZE 4 4 4
TYPE F F F
COUNT 1 1 1
WIDTH 1447
HEIGHT 1
VIEWPOINT 0 0 0 1 0 0 0
POINTS 1447
DATA ascii
-0.86354238 -1.4158257 0.16057368
-0.07268706 -0.050241519 8.7039413
-0.73028201 -1.1257116 8.5305223
-0.95559561 -1.4936472 8.5483274
-0.4885186 -0.77524 2.9765482
-0.62833536 -1.0046623 2.851182
-0.79258066 -1.2730627 2.8154991
-1.1623317 -1.87264 3.3097041
-1.0826864 -1.7483845 2.5387602
-0.3158665 -0.40558332 8.7298393
-0.53785706 -0.74683028 8.5408554
-0.42687494 -0.67103553 3.0995526
-0.55959767 -0.88861018 2.9099298
-0.70891982 -1.1325561 2.8265069
-1.1963172 -1.9176846 3.7672393
-1.1140611 -1.7906715 2.8673368
-1.046815 -1.6858426 2.2295406
-1.0331577 -1.6762125 2.0147614
-1.0137308 -1.646606 1.6415291
-0.98897541 -1.6082641 1.3224468
-0.98405766 -1.601505 1.0704848
-0.95613784 -1.5572724 0.82662582
-0.90325749 -1.4722861 0.59765172
-0.88572997 -1.4448386 0.41322607
-0.86871582 -1.4181808 0.24225317
-1.0209439 -1.6512226 1.810228
-0.98896986 -1.6013668 1.4540101
-0.99024564 -1.6046704 1.1936696
-0.98173374 -1.5927284 0.95237339
-0.92647004 -1.5042344 0.70401186
-0.89427954 -1.453092 0.50223649
-0.87437695 -1.4212992 0.32495713
-0.86324662 -1.4042906 0.16017061
-0.072861992 -0.049987491 8.7039413
-0.7337817 -1.1225053 8.5255833
-0.95969981 -1.488591 8.538537
-0.49042121 -0.77227008 2.9717762
-0.63183844 -1.0024629 2.851182
-0.79447359 -1.2662312 2.806721
-1.1584144 -1.8518718 3.2807736
-1.0769031 -1.7255608 2.5118976
-0.31692246 -0.40402514 8.7198553
-0.54046071 -0.74494827 8.5408554
-0.42921469 -0.66954136 3.0995526
-0.56454593 -0.88956517 2.9193153
-0.71286881 -1.1300746 2.8265069
-1.1905099 -1.8936261 3.7288458
-1.1123011 -1.7740076 2.8473866
-1.0437007 -1.6678094 2.2111647
-1.0352386 -1.6665373 2.0077522
-1.0112634 -1.6298281 1.6289753
-0.99017763 -1.5976939 1.3169639
-0.98497719 -1.5905281 1.0658472
-0.95181 -1.5381567 0.8191337
-0.90334547 -1.4609638 0.59483165
-0.88560408 -1.4333801 0.41136083
-0.86842865 -1.406665 0.24135901
-1.024727 -1.6444801 1.8069026
-0.98814565 -1.5876102 1.4451805
-0.99128747 -1.5938829 1.1886032
-0.98249739 -1.5815815 0.94817728
-0.92424369 -1.4889553 0.6990813
-0.8942222 -1.4417002 0.49989185
-0.87411392 -1.409821 0.32357576
-0.862881 -1.3927748 0.15976755
-0.073036037 -0.049732849 8.7039413
-0.73769552 -1.1199371 8.5255833
-0.95989645 -1.4775481 8.4944801
-0.49230903 -0.76929641 2.9670043
-0.63533384 -1.0002512 2.851182
-0.79632849 -1.2594019 2.7979426
-1.154366 -1.8311539 3.2518427
-1.0760936 -1.7109386 2.4965477
-0.31797144 -0.4024646 8.7098732
-0.54305774 -0.74305713 8.5408554
-0.43223158 -0.66909462 3.1043918
-0.57043761 -0.89194995 2.9333935
-0.71797729 -1.1294163 2.8310082
-1.1887374 -1.8762411 3.7032504
-1.1104382 -1.7573775 2.8274367
-1.0386649 -1.6469513 2.1891139
-1.0353723 -1.6538454 1.9972385
-1.0107551 -1.6163876 1.6195598
-0.98910296 -1.5835884 1.3087394
-0.98348677 -1.5758065 1.0588907
-0.94736046 -1.5190905 0.81164157
-0.90336561 -1.4496593 0.59201157
-0.885409 -1.4219403 0.40949559
-0.86807179 -1.3951683 0.24046485
-1.0245036 -1.6314073 1.796926
-0.98723775 -1.5738791 1.4363512
-0.99226612 -1.5831078 1.1835369
-0.98078704 -1.566602 0.94188321
-0.92192215 -1.4737101 0.69415081
-0.89667267 -1.4344485 0.49871951
-0.87378132 -1.398362 0.32219443
-0.86244547 -1.381279 0.15936449
-0.073247172 -0.04949908 8.7089415
-0.74160033 -1.1173552 8.5255833
-0.96616393 -1.4758922 8.5042706
-0.49499142 -0.76757324 2.9670043
-0.63882148 -0.99802738 2.851182
-0.79814541 -1.2525752 2.7891645
-1.1501874 -1.810487 3.2229121
-1.0751952 -1.6963432 2.4811976
-0.31919387 -0.40112689 8.7048807
-0.54564816 -0.741157 8.5408554
-0.4345645 -0.6675818 3.1043918
-0.5735476 -0.88995332 2.9333935
-0.7219153 -1.1269033 2.8310082
-1.1854541 -1.8566931 3.6733885
-1.1084731 -1.7407826 2.8074865
-1.0353148 -1.62901 2.170738
-1.0373329 -1.644189 1.9902295
-1.0080901 -1.5996779 1.607006
-0.99016953 -1.5730486 1.3032565
-0.98426419 -1.5648644 1.0542531
-0.94278949 -1.5000741 0.80414945
-0.90331775 -1.4383725 0.5891915
-0.88514489 -1.4105194 0.40763035
-0.86764532 -1.3836915 0.23957069
-1.0261985 -1.6215112 1.7902751
-0.98624599 -1.5601737 1.4275216
-0.99318171 -1.5723454 1.1784705
-0.98140591 -1.5554923 0.9376871
-0.92202389 -1.4624939 0.69086379
-0.89649272 -1.4230845 0.49637488
-0.87337959 -1.3869226 0.32081306
-0.86194038 -1.3698032 0.15896143
-0.073419511 -0.0492431 8.7089415
-0.74549615 -1.1147598 8.5255833
-0.97074902 -1.4716609 8.4993753
-0.49766773 -0.76584071 2.9670043
-0.64230138 -0.99579138 2.851182
-0.80251288 -1.2497815 2.7891645
-1.1473961 -1.7922418 3.1981144
-1.074208 -1.6817751 2.4658477
-0.32022953 -0.39956093 8.6948977
-0.54855001 -0.73967558 8.5458269
-0.4375819 -0.66711164 3.1092315
-0.57289016 -0.88215744 2.9146225
-0.72584456 -1.1243764 2.8310082
-1.1834604 -1.8393847 3.6477933
-1.1080331 -1.7267588 2.7915263
-1.0373378 -1.6196765 2.1633875
-1.0373254 -1.6315299 1.9797159
-1.0053208 -1.5830067 1.5944521
-0.98893481 -1.5589901 1.2950323
-0.9849773 -1.5539362 1.0496155
-0.9405781 -1.4850249 0.79853034
-0.9032023 -1.4271038 0.58637142
-0.88481194 -1.3991176 0.40576512
-0.86714941 -1.3722347 0.23867653
-1.0258288 -1.6084752 1.7802985
-0.98517084 -1.5464947 1.4186922
-0.99171942 -1.5579596 1.170871
-0.98195916 -1.5443972 0.93349099
-0.92205858 -1.451295 0.68757677
-0.89624441 -1.4117396 0.49403024
-0.87290859 -1.3755032 0.31943169
-0.86136556 -1.3583478 0.15855835
-0.073590957 -0.048986517 8.7089415
-0.74981719 -1.112795 8.5305223
-0.97588021 -1.4682633 8.4993753
-0.49951994 -0.76285022 2.9622321
-0.64577341 -0.99354327 2.851182
-0.80556923 -1.2449619 2.7847755
-1.1444916 -1.7740383 3.1733167
-1.0731325 -1.6672348 2.4504976
-0.32125819 -0.39799261 8.6849136
-0.55112863 -0.73775631 8.5458269
-0.44060129 -0.66662848 3.1140707
-0.57502085 -0.87870854 2.9099298
-0.72976488 -1.1218359 2.8310082
-1.1813605 -1.8221128 3.6221974
-1.1058724 -1.7102292 2.7715764
-1.0374697 -1.6075007 2.1523621
-1.0372421 -1.6188908 1.9692023
-1.0024476 -1.5663744 1.5818983
-0.9898662 -1.5484825 1.2895492
-0.98324144 -1.5392891 1.042659
-0.93827319 -1.4700096 0.79291129
-0.90301907 -1.4158533 0.58355141
-0.88705033 -1.3918781 0.40483251
-0.86658412 -1.3607984 0.23778237
-1.0233622 -1.5923208 1.7669965
-0.98401213 -1.5328422 1.4098626
-0.99249649 -1.5472316 1.1658047
-0.97999847 -1.5294961 0.92719686
-0.91948014 -1.436137 0.68264627
-0.89592797 -1.4004136 0.4916856
-0.87236857 -1.364104 0.31805035
-0.86072147 -1.3469132 0.15815529
-0.0737615 -0.048729334 8.7089415
-0.75369704 -1.1101708 8.5305223
-0.98099947 -1.4648479 8.4993753
-0.50217974 -0.76110196 2.9622321
-0.64923763 -0.99128306 2.851182
-0.8125267 -1.2461547 2.7935538
-1.1430076 -1.7582362 3.152652
-1.0702242 -1.6500332 2.4313099
-0.32246259 -0.39664534 8.6799221
-0.55370051 -0.73582798 8.5458269
-0.4443197 -0.66717845 3.1237495
-0.57618421 -0.873815 2.9005444
-0.73367643 -1.1192818 2.8310082
-1.1791544 -1.8048782 3.596602
-1.1085452 -1.7013093 2.7635963
-1.0375295 -1.5953436 2.1413364
-1.0351489 -1.6032763 1.9551841
-1.0015802 -1.5530527 1.5724831
-0.99073637 -1.5379874 1.2840662
-0.98381317 -1.528398 1.0380214
-0.935875 -1.4550283 0.78729212
-0.90276849 -1.4046216 0.58073127
-0.88659453 -1.3805068 0.40296727
-0.86594963 -1.3493826 0.23688821
-1.0207953 -1.5762033 1.7536945
-0.98277014 -1.5192168 1.4010333
-0.99087059 -1.5328968 1.1582052
-0.97794574 -1.5146275 0.92090267
-0.91936743 -1.4249827 0.67935926
-0.89554328 -1.3891072 0.48934099
-0.87175983 -1.3527256 0.31666899
-0.86000806 -1.3354996 0.15775223
-0.07393115 -0.048471563 8.7089415
-0.75756764 -1.1075332 8.5305223
-0.98496741 -1.4597267 8.4895849
-0.5048334 -0.7593444 2.9622321
-0.65269387 -0.98901081 2.851182
-0.81687158 -1.2433108 2.7935538
-1.1414278 -1.7424664 3.1319873
-1.0672091 -1.6328727 2.4121227
-0.32347795 -0.39507183 8.66994
-0.55594319 -0.73346633 8.5408554
-0.4473466 -0.66666698 3.1285892
-0.57827562 -0.87036109 2.8958514
-0.73877889 -1.1185303 2.8355093
-1.1754082 -1.7855029 3.5667403
-1.099592 -1.6747605 2.7276859
-1.0375171 -1.5832058 2.1303113
-1.0310143 -1.584707 1.9376613
-0.9985112 -1.5364926 1.5599293
-0.98926866 -1.523998 1.275842
-0.98191017 -1.5138053 1.0310652
-0.93338376 -1.440082 0.78167301
-0.90245056 -1.3934091 0.5779112
-0.88607013 -1.3691556 0.40110204
-0.86795026 -1.3421701 0.23644114
-1.0201691 -1.5632502 1.7437181
-0.98144519 -1.5056187 1.3922038
-0.99150956 -1.5222046 1.1531388
-0.97827643 -1.5035962 0.91670656
-0.91661412 -1.4098879 0.6744287
-0.89509082 -1.377821 0.48699635
-0.87108213 -1.341368 0.31528762
-0.85922551 -1.3241078 0.15734917
-0.074099891 -0.048213203 8.7089415
-0.76142901 -1.104882 8.5305223
-0.9929198 -1.4604893 8.51406
-0.50748098 -0.75757754 2.9622321
-0.65506023 -0.98509979 2.8465796
-0.82252878 -1.2424487 2.7979426
-1.1382014 -1.7243807 3.1071897
-1.0658503 -1.6184303 2.3967726
-0.32467064 -0.39371815 8.6649475
-0.55850005 -0.73152125 8.5408554
-0.45107967 -0.66718358 3.138268
-0.58131015 -0.86833727 2.8958514
-0.7438851 -1.1177568 2.8400104
-1.1729834 -1.7683495 3.5411448
-1.0937924 -1.6533209 2.6997557
-1.0374327 -1.5710876 2.1192856
-1.0287182 -1.5691688 1.9236431
-0.99747121 -1.523229 1.5505139
-0.99000436 -1.513537 1.2703589
-0.98234111 -1.5029527 1.0264276
-0.93079966 -1.425171 0.77605397
-0.90206546 -1.3822161 0.57509118
-0.88547736 -1.357825 0.3992368
-0.86719233 -1.3307875 0.23554698
-1.019465 -1.5503206 1.7337415
-0.98003745 -1.4920489 1.3833743
-0.98972064 -1.5079229 1.1455393
-0.97605377 -1.4887859 0.91041237
-0.91635442 -1.3987797 0.67114168
-0.89190817 -1.3624878 0.48347941
-0.87304753 -1.3341753 0.31459692
-0.85837412 -1.3127378 0.15694611
-0.074267738 -0.04795425 8.7089415
-0.76483786 -1.1015793 8.5255833
-1.0014651 -1.4620541 8.5434322
-0.51095772 -0.75703859 2.9670043
-0.65849495 -0.98280722 2.8465796
-1.1348628 -1.7063389 3.082392
-1.0626314 -1.6013466 2.3775849
-0.32585779 -0.39236096 8.659956
-0.56072468 -0.72914505 8.5358829
-0.45482174 -0.66768217 3.1479468
-0.58433771 -0.86630279 2.8958514
-0.74899489 -1.1169612 2.8445115
-1.170453 -1.7512348 3.5155489
-1.0878569 -1.6319425 2.6718256
-1.0372761 -1.5589895 2.1082602
-1.0243608 -1.5506908 1.9061204
-0.99635088 -1.5099919 1.5410986
-0.9906792 -1.5030895 1.264876
-0.9802717 -1.4884161 1.0194712
-0.93067157 -1.4141682 0.77230787
-0.90161312 -1.3710427 0.57227111
-0.88481635 -1.3465154 0.39737156
-0.86636555 -1.3194269 0.23465282
-1.0207455 -1.5405278 1.7270906
-0.9785468 -1.478507 1.3745449
-0.99022216 -1.4972677 1.1404729
-0.97373962 -1.4740093 0.90411824
-0.91602844 -1.3876907 0.66785467
-0.89130598 -1.3512514 0.48113477
-0.87224734 -1.3228513 0.31321558
-0.85745376 -1.3013898 0.15654305
-0.074396186 -0.047674172 8.7039413
-0.76867837 -1.0989028 8.5255833
-1.004827 -1.4560357 8.5287466
-0.51359713 -0.75525039 2.9670043
-0.6619215 -0.98050267 2.8465796
-1.1972854 -1.7812891 4.0005503
-1.1314121 -1.6883415 3.0575943
-1.0593064 -1.5843055 2.3583977
-0.32703948 -0.3910003 8.6549644
-0.56326646 -0.72718334 8.5358829
-0.45786119 -0.6671266 3.152786
-0.58735806 -0.86425787 2.8958514
-0.75288922 -1.1143401 2.8445115
-1.1692743 -1.7363226 3.4942195
-1.078425 -1.6056232 2.6359155
-1.0370481 -1.5469117 2.0972347
-1.021863 -1.5352309 1.8921022
-0.99515033 -1.4967809 1.5316831
-0.98897982 -1.4891725 1.2566516
-0.98056227 -1.4776032 1.0148336
-0.9304781 -1.4031837 0.76856184
-0.9010939 -1.3598896 0.56945103
-0.88679916 -1.3393229 0.39643893
-0.868218 -1.3122414 0.23420574
-1.02197 -1.5307447 1.7204396
-0.9792164 -1.4683566 1.3686585
-0.98827082 -1.4830405 1.1328733
-0.96881944 -1.4554893 0.89572603
-0.91302097 -1.3726892 0.66292417
-0.89063627 -1.3400358 0.47879013
-0.87137872 -1.3115492 0.31183422
-0.8592279 -1.2942268 0.15634152
-0.074562147 -0.047414191 8.7039413
-0.77206182 -1.095578 8.5206442
-0.66164643 -0.95181614 5.5965052
-0.51623034 -0.75345302 2.9670043
-0.66534007 -0.97818613 2.8465796
-1.1900654 -1.7572696 3.9566598
-1.1278498 -1.6703892 3.0327964
-1.0576663 -1.5699654 2.3430474
-0.32821557 -0.38963616 8.6499729
-0.56580138 -0.72521275 8.5358829
-0.46161756 -0.66759163 3.1624649
-0.58939624 -0.86077869 2.8911588
-0.75677437 -1.1117052 2.8445115
-1.1665416 -1.7192822 3.4686239
-1.0789564 -1.5943626 2.6239452
-1.0367484 -1.5348547 2.0862093
-1.0192697 -1.5198072 1.8780839
-0.99386972 -1.483597 1.5222677
-0.98719555 -1.475286 1.2484273
-0.97832698 -1.4631243 1.0078771
-0.92764372 -1.3883634 0.76294273
-0.90050793 -1.3487568 0.56663096
-0.88601637 -1.3280467 0.39457369
-0.86726862 -1.3009156 0.23331158
-1.0210547 -1.517874 1.7104629
-0.97757268 -1.4548649 1.3598289
-0.98623228 -1.468845 1.1252737
-0.96631002 -1.4407908 0.88943189
-0.91254914 -1.3616484 0.65963709
-0.88989908 -1.3288414 0.4764455
-0.87044191 -1.3002692 0.31045285
-0.85818487 -1.2829145 0.15593846
-0.0747272 -0.047153629 8.7039413
-0.77588141 -1.0928762 8.5206442
-0.66613346 -0.95116842 5.6062956
-0.51885724 -0.75164646 2.9670043
-0.66875052 -0.97585768 2.8465796
-1.1907921 -1.7451917 3.9391036
-1.124176 -1.6524824 3.0079987
-1.0559392 -1.5556562 2.3276975
-0.32938617 -0.38826859 8.6449804
-0.56865925 -0.72365206 8.5408554
-0.4653827 -0.66803855 3.1721437
-0.59239733 -0.85871607 2.8911588
-0.7606504 -1.1090567 2.8445115
-1.1637043 -1.7022821 3.4430282
-1.0794222 -1.5831182 2.6119754
-1.0401922 -1.5284237 2.0825341
-1.0165814 -1.504421 1.8640658
-0.99468702 -1.4736664 1.5159907
-0.98532629 -1.4614301 1.2402028
-0.97600263 -1.448679 1.0009208
-0.92730629 -1.3774257 0.75919664
-0.89985514 -1.3376447 0.56381088
-0.88516575 -1.3167922 0.39270842
-0.86625069 -1.2896125 0.23241742
-1.0221572 -1.5081193 1.703812
-0.97584695 -1.4414026 1.3509996
-0.9841069 -1.4546822 1.1176742
-0.95862752 -1.4186071 0.87894166
-0.91201127 -1.3506279 0.65635008
-0.88909477 -1.3176688 0.47410086
-0.8694371 -1.2890122 0.30907148
-0.85707337 -1.2716255 0.1555354
-0.074891344 -0.046892498 8.7039413
-0.78014368 -1.0907931 8.5255833
-0.66944963 -0.94883734 5.6062956
-0.52147776 -0.74983072 2.9670043
-0.67215282 -0.97351736 2.8465796
-1.1873784 -1.7272094 3.9083796
-1.1219823 -1.6369431 2.9873343
-1.0541251 -1.5413781 2.3123474
-0.33055121 -0.38689756 8.6399889
-0.57118183 -0.7216627 8.5408554
-0.46843415 -0.66743869 3.1769834
-0.59539115 -0.85664302 2.8911588
-0.76327932 -1.104604 2.8400104
-1.1607625 -1.6853228 3.4174328
-1.079823 -1.5718898 2.6000051
-1.0282655 -1.49962 2.0494576
-1.009784 -1.4831762 1.8430386
-0.99325836 -1.4605299 1.5065755
-0.98102283 -1.4441468 1.229237
-0.97110164 -1.4306029 0.99164557
-0.92690396 -1.3665072 0.75545061
-0.89913601 -1.3265539 0.56099087
-0.88424736 -1.3055601 0.39084318
-0.86516452 -1.2783325 0.23152326
-1.0189924 -1.4922087 1.69051
-0.97403908 -1.4279701 1.34217
-0.97946668 -1.4369903 1.1075416
-0.95080191 -1.3964946 0.86845136
-0.91140765 -1.3396276 0.65306306
-0.88822329 -1.306518 0.47175622
-0.86836445 -1.2777779 0.30769014
-0.85870022 -1.264493 0.15533386
-0.075054571 -0.046630792 8.7039413
-0.78394657 -1.0880632 8.5255833
-0.6780687 -0.95396262 5.6503525
-0.52409202 -0.74800587 2.9670043
-0.67554694 -0.97116524 2.8465796
-1.1865815 -1.7132103 3.8864341
-1.1212928 -1.6237546 2.9708023
-1.0504056 -1.5244927 2.29316
-0.33189973 -0.38574135 8.6399889
-0.57403016 -0.72008085 8.5458269
-0.47076106 -0.66579944 3.1769834
-0.59837782 -0.85455948 2.8911588
-0.76713049 -1.101933 2.8400104
-1.1666384 -1.6812607 3.4174328
-1.0801585 -1.560678 2.5880351
-1.0219316 -1.4792863 2.0274065
-1.0149552 -1.4796424 1.8430386
-0.99174994 -1.4474214 1.4971601
-0.97897267 -1.4303619 1.2210126
-0.96858704 -1.4162352 0.98468918
-0.92382085 -1.351781 0.7498315
-0.90105575 -1.3194458 0.5595808
-0.88326144 -1.2943505 0.38897794
-0.8612045 -1.2629614 0.23018204
-1.0178457 -1.4794147 1.6805335
-0.97443885 -1.4178993 1.3362837
-0.9722746 -1.415795 1.0948756
-0.94540137 -1.3781971 0.86005914
-0.91073847 -1.3286482 0.64977604
-0.8900317 -1.2993994 0.47058392
-0.86722392 -1.2665669 0.30630878
-0.8574667 -1.2532414 0.1549308
-0.075216889 -0.046368521 8.7039413
-0.78773975 -1.0853201 8.5255833
-0.68495256 -0.95655626 5.6797242
-0.52756095 -0.74739116 2.9717762
-0.68005425 -0.97040093 2.851182
-1.191184 -1.7070941 3.8820455
-1.1189178 -1.6082813 2.9501376
-1.0484091 -1.5102851 2.2778101
-0.3332442 -0.38458046 8.6399889
-0.57654023 -0.71807277 8.5458269
-0.47381186 -0.66517568 3.1818225
-0.6013571 -0.85246557 2.8911588
-0.77097231 -1.0992484 2.8400104
-1.1695111 -1.6729032 3.408901
-1.080429 -1.5494832 2.5760651
-1.0115952 -1.4534503 1.9980052
-1.0201138 -1.4760906 1.8430386
-0.99016231 -1.4343414 1.4877448
-0.97446424 -1.4131666 1.2100466
-0.96347064 -1.398255 0.97541398
-0.92327553 -1.3409115 0.74608546
-0.90021759 -1.3083886 0.55676073
-0.88220811 -1.2831638 0.38711271
-0.85996795 -1.2517383 0.22928788
-1.0166222 -1.466647 1.670557
-0.97247922 -1.4045198 1.3274543
-0.96985233 -1.4017576 1.0872761
-0.94246501 -1.3636879 0.85376495
-0.90732032 -1.3138043 0.64484555
-0.88904041 -1.2882836 0.46823925
-0.8688277 -1.2594557 0.30561811
-0.85900062 -1.2461274 0.15472928
-0.075378284 -0.046105683 8.7039413
-0.79152346 -1.0825638 8.5255833
-0.69543821 -0.96406692 5.7384667
-0.53016657 -0.74554509 2.9717762
-0.68343741 -0.96802109 2.851182
-1.1943805 -1.6990072 3.8732669
-1.1196792 -1.5974529 2.9377387
-1.0444893 -1.4934835 2.2586224
-0.33458459 -0.38341486 8.6399889
-0.57870758 -0.7156418 8.5408554
-0.47613087 -0.66351771 3.1818225
-0.60432911 -0.85036123 2.8911588
-0.77480471 -1.0965506 2.8400104
-1.1753434 -1.6688107 3.408901
-1.0789021 -1.5358399 2.5601048
-1.0088767 -1.4388076 1.9833045
-1.0232223 -1.4695941 1.839534
-0.98849559 -1.4212902 1.4783293
-0.97223383 -1.3994545 1.2018223
-0.95824069 -1.3803281 0.96613878
-0.92266566 -1.3300624 0.74233937
-0.89931345 -1.2973534 0.55394071
-0.88108754 -1.2720003 0.38524747
-0.8586635 -1.2405393 0.22839372
-1.0131841 -1.4508449 1.6572551
-0.97043806 -1.3911715 1.3186247
-0.9648788 -1.3842182 1.0771434
-0.93684572 -1.3454915 0.8453728
-0.90650672 -1.3028767 0.64155853
-0.8907572 -1.2811817 0.46706694
-0.86756635 -1.2482826 0.30423674
-0.85764563 -1.2349145 0.15432622
-0.075538762 -0.045842279 8.7039413
-0.7952975 -1.0797943 8.5255833
-0.71017587 -0.97728068 5.8314762
-0.53363544 -0.74490321 2.9765482
-0.68794483 -0.96722156 2.8557847
-1.1975354 -1.6909189 3.8644891
-1.1187553 -1.5843402 2.921207
-1.0423112 -1.4793481 2.2432723
-0.33592093 -0.38224462 8.6399889
-0.58120215 -0.71361738 8.5408554
-0.47918081 -0.66287011 3.1866622
-0.60729373 -0.84824651 2.8911588
-0.77862763 -1.0938393 2.8400104
-1.1736151 -1.6540632 3.3875711
-1.0772935 -1.5222263 2.5441449
-1.0119368 -1.4325083 1.9796295
-1.0262979 -1.4630938 1.8360294
-0.98674995 -1.4082682 1.468914
-0.96752179 -1.3823497 1.1908565
-0.95289737 -1.3624547 0.95686358
-0.91933548 -1.3154339 0.73672026
-0.89834327 -1.2863406 0.55112064
-0.87989986 -1.2608603 0.38338223
-0.86014009 -1.2334497 0.22794664
-1.0117967 -1.4381385 1.6472787
-0.97064 -1.3811616 1.3127384
-0.95979476 -1.3667308 1.0670106
-0.93371737 -1.3310667 0.83907861
-0.90833861 -1.2958378 0.63991499
-0.88964677 -1.2701024 0.46472231
-0.86907798 -1.24119 0.30354607
-0.85908693 -1.2278198 0.15412468
-0.075659268 -0.045558859 8.6989422
-0.79906183 -1.0770116 8.5255833
-0.7280224 -0.99451047 5.9489617
-0.53797996 -0.7454564 2.9860923
-0.69245499 -0.96640217 2.8603871
-1.2048215 -1.6886778 3.8688779
-1.1259103 -1.5827184 2.9253399
-1.0400473 -1.4652461 2.2279224
-0.33706111 -0.38085416 8.6349974
-0.58368957 -0.71158427 8.5408554
-0.48075143 -0.66017753 3.1818225
-0.61025095 -0.84612149 2.8911588
-0.78370988 -1.0928837 2.8445115
-1.167248 -1.6329832 3.3534436
-1.0756029 -1.5086429 2.5281849
-1.0129994 -1.4234431 1.972279
-1.0252241 -1.4507655 1.8255159
-0.9826805 -1.3920958 1.4563601
-0.96752179 -1.3721294 1.1853735
-0.9499926 -1.3482567 0.94990712
-0.91858369 -1.3046358 0.73297417
-0.89730704 -1.2753503 0.54830056
-0.87864518 -1.2497444 0.38151699
-0.85871476 -1.22229 0.22705248
-1.0124923 -1.4285055 1.6406276
-0.96844816 -1.3678685 1.3039091
-0.9570902 -1.3528149 1.0594112
-0.93049985 -1.3166803 0.83278447
-0.9074083 -1.2849447 0.63662797
-0.8884697 -1.2590464 0.46237767
-0.86769629 -1.2300558 0.3021647
-0.85761082 -1.2166468 0.15372162
-0.075817831 -0.045294479 8.6989422
-0.80281645 -1.0742158 8.5255833
-0.75264728 -1.0206399 6.1202946
-0.54233479 -0.74598819 2.9956362
-0.69582409 -0.96397918 2.8603871
-1.1967297 -1.6650151 3.8249874
-1.1133958 -1.553619 2.8798773
-1.0395621 -1.4537852 2.2164099
-0.33819571 -0.37946042 8.6300068
-0.58616984 -0.70954245 8.5408554
-0.48528436 -0.66153532 3.196341
-0.61320072 -0.84398615 2.8911588
-0.78879499 -1.091906 2.8490129
-1.1607481 -1.611968 3.3193161
-1.0720729 -1.4926425 2.5082345
-1.0140111 -1.4143881 1.9649286
-1.0240767 -1.4384625 1.8150022
-0.98076636 -1.3791414 1.4469448
-0.96504062 -1.3585173 1.1771491
-0.94443625 -1.3304834 0.94063193
-0.91776776 -1.293859 0.72922814
-0.89620531 -1.2643831 0.54548049
-0.88016295 -1.2426612 0.38058439
-0.86009914 -1.2152202 0.2266054
-1.0109631 -1.4158468 1.630651
-0.96617532 -1.3546077 1.2950795
-0.95680249 -1.342445 1.0543448
-0.92719328 -1.3023328 0.82649034
-0.90641308 -1.2740738 0.63334101
-0.89004278 -1.2519759 0.46120536
-0.86911601 -1.222983 0.30147403
-0.85606706 -1.2054989 0.15331855
-0.075975478 -0.045029547 8.6989422
-0.80656123 -1.0714068 8.5255833
-0.75620544 -1.0180066 6.1202946
-0.54758221 -0.74770284 3.0099521
-0.70033389 -0.96312428 2.8649898
-1.1927015 -1.647249 3.7942636
-1.1089284 -1.5360342 2.8550797
-1.0390098 -1.4423457 2.2048974
-0.33932468 -0.37806341 8.6250143
-0.58830166 -0.70708263 8.5358829
-0.48684323 -0.65882659 3.1915014
-0.61716247 -0.84323281 2.8958514
-0.79388267 -1.0909058 2.853514
-1.1556475 -1.5931295 3.2894547
-1.0702108 -1.4791265 2.4922745
-1.0149721 -1.4053435 1.9575783
-1.0228561 -1.4261854 1.8044887
-0.97877365 -1.3662174 1.4375293
-0.96490985 -1.3483397 1.1716661
-0.94134438 -1.3163691 0.93367553
-0.91419244 -1.2793319 0.72360903
-0.89503795 -1.2534392 0.54266042
-0.87878877 -1.231584 0.37871915
-0.85855335 -1.2041008 0.22571123
-1.0115383 -1.4062471 1.6240001
-0.96382183 -1.3413794 1.2862499
-0.95393974 -1.3285923 1.0467453
-0.92379808 -1.2880245 0.82019615
-0.90810406 -1.267064 0.63169748
-0.88874733 -1.2409581 0.45886073
-0.86761427 -1.2118887 0.30009267
-0.85736305 -1.1984402 0.15311703
-0.076132201 -0.044764072 8.6989422
-0.8102963 -1.0685849 8.5255833
-0.7658565 -1.0235118 6.1692472
-0.5457567 -0.73978192 2.9860923
-0.7036916 -0.96067381 2.8649898
-1.1885641 -1.6295315 3.76354
-1.104352 -1.5184995 2.830282
-1.040273 -1.4335221 2.1972225
-0.34044799 -0.37666309 8.6200228
-0.59076625 -0.70502478 8.5358829
-0.49514675 -0.66518778 3.230217
-0.62010217 -0.84107345 2.8958514
-0.7976858 -1.0881281 2.853514
-1.1488907 -1.5722406 3.2553272
-1.0682676 -1.4656417 2.4763145
-1.0158823 -1.3963093 1.950228
-1.0194736 -1.4110435 1.7904702
-0.97670299 -1.3533242 1.4281141
-0.96227449 -1.3347878 1.1634418
-0.94075483 -1.3058867 0.92903793
-0.91323549 -1.2686082 0.719863
-0.89380521 -1.242519 0.53984034
-0.87734807 -1.2205316 0.37685391
-0.85984588 -1.197052 0.22526415
-1.0098679 -1.3936375 1.6140234
-0.96138799 -1.3281845 1.2774205
-0.95351863 -1.3182687 1.0416789
-0.92297232 -1.2774345 0.81600004
-0.90699279 -1.2562294 0.62841046
-0.88738573 -1.2299646 0.45651609
-0.86604583 -1.2008197 0.2987113
-0.85862017 -1.1913871 0.15291549
-0.076327316 -0.044516966 8.7039413
-0.81402141 -1.0657499 8.5255833
-0.77555507 -1.0289618 6.2181988
-0.54833573 -0.7378723 2.9860923
-0.70820075 -0.95978343 2.869592
-1.1843175 -1.6118631 3.7328167
-1.099667 -1.5010158 2.8054843
-1.0395955 -1.4221195 2.1857097
-0.34156567 -0.37525958 8.6150312
-0.59322363 -0.70295835 8.5358829
-0.50651801 -0.6755206 3.28829
-0.62303424 -0.83890373 2.8958514
-0.79889256 -1.0818348 2.8445115
-1.1435486 -1.5535188 3.2254655
-1.0662432 -1.4521888 2.4603543
-1.0167418 -1.3872861 1.9428777
-1.015998 -1.395943 1.7764521
-0.97455418 -1.3404621 1.4186987
-0.96201342 -1.3246541 1.1579589
-0.93750179 -1.2918395 0.92208159
-0.91221493 -1.2579069 0.71611691
-0.89250714 -1.2316228 0.53702027
-0.87872207 -1.213483 0.37592128
-0.86109978 -1.1900088 0.22481708
-1.0103234 -1.3840727 1.6073725
-0.96125525 -1.3182887 1.2715342
-0.95049816 -1.3044802 1.0340793
-0.92208403 -1.2668661 0.81180394
-0.90581715 -1.2454181 0.62512344
-0.88595831 -1.2189959 0.45417145
-0.86441052 -1.1897767 0.29732993
-0.85983855 -1.1843399 0.15271397
-0.076482244 -0.044250261 8.7039413
-0.81773657 -1.062902 8.5255833
-0.78283751 -1.0311133 6.2475705
-0.54643399 -0.72997981 2.9622321
-0.71271241 -0.95887339 2.8741946
-1.1813869 -1.5961694 3.7064819
-1.0982153 -1.4881117 2.7889526
-1.0369505 -1.4081585 2.1703598
-0.34287351 -0.37406498 8.6150312
-0.5956738 -0.70088333 8.5358829
-0.51645154 -0.68377644 3.3366842
-0.62595874 -0.8367238 2.8958514
-0.80266398 -1.0790396 2.8445115
-1.1334293 -1.5285691 3.1828063
-1.0659301 -1.4411906 2.4483843
-1.0175508 -1.378274 1.9355273
-1.0145383 -1.3837602 1.7659385
-0.97462744 -1.3307718 1.4124217
-0.95922452 -1.311164 1.1497345
-0.93677676 -1.281407 0.91744399
-0.91113079 -1.2472283 0.71237087
-0.8939724 -1.2246255 0.53561026
-0.87716264 -1.2024713 0.37405604
-0.8593815 -1.1789471 0.22392292
-1.0085126 -1.3715136 1.5973961
-0.95867234 -1.3051525 1.2627047
-0.94994426 -1.2942042 1.0290129
-0.92113328 -1.2563195 0.80760783
-0.90457714 -1.2346303 0.62183642
-0.88446528 -1.2080523 0.45182684
-0.86563367 -1.1827559 0.29663923
-0.86101818 -1.1772987 0.15251243
-0.076675691 -0.044001658 8.7089415
-0.82144177 -1.0600411 8.5255833
-0.79756892 -1.0429302 6.3356848
-0.55347359 -0.73402625 2.9860923
-0.71722621 -0.95794344 2.8787971
-1.1797932 -1.5824357 3.6845365
-1.0966873 -1.4752361 2.7724209
-1.0342207 -1.3942333 2.1550097
-0.34417713 -0.37286586 8.6150312
-0.5981167 -0.69879979 8.5358829
-0.52264202 -0.68697029 3.3608816
-0.62991452 -0.83591187 2.9005444
-1.1371974 -1.522514 3.1785405
-1.0637527 -1.4277956 2.4324241
-1.0203326 -1.3719934 1.9318523
-1.0151248 -1.3744731 1.7589295
-0.97233427 -1.3179655 1.4030064
-0.95635325 -1.2977096 1.14151
-0.93599021 -1.2709955 0.91280639
-0.91273111 -1.2403064 0.7104978
-0.89539975 -1.2176328 0.53420019
-0.87844586 -1.1954436 0.37312344
-0.86054397 -1.1719261 0.22347584
-1.0066264 -1.3589841 1.5874195
-0.95841372 -1.2952998 1.2568183
-0.94676715 -1.2804819 1.0214134
-0.92012018 -1.2457951 0.80341172
-0.90327269 -1.2238663 0.61854941
-0.88290662 -1.197134 0.4494822
-0.86387974 -1.1717554 0.2952579
-0.86215925 -1.1702639 0.15231091
-0.076828815 -0.043733742 8.7089415
-0.82513702 -1.0571673 8.5255833
-0.80990607 -1.0514308 6.4042177
-0.55693555 -0.73327827 2.990864
-0.72174233 -0.95699364 2.8833997
-1.1781183 -1.568733 3.6625915
-1.0967695 -1.4646417 2.7600219
-1.0314065 -1.3803446 2.1396599
-0.34567386 -0.37187299 8.6200228
-0.60055232 -0.69670767 8.5358829
-0.54492283 -0.71107638 3.4867065
-0.63282859 -0.83370787 2.9005444
-1.1393688 -1.5143672 3.1700087
-1.0633037 -1.4168441 2.4204543
-1.0230827 -1.3657101 1.928177
-1.01353 -1.3623377 1.7484158
-0.97228533 -1.3083153 1.3967296
-0.9533999 -1.2842913 1.1332856
-0.93250322 -1.2570473 0.90584999
-0.91153336 -1.2296644 0.70675176
-0.89393383 -1.2067906 0.53138018
-0.87676811 -1.1844735 0.3712582
-0.85870659 -1.1609077 0.22258168
-1.0046651 -1.3464847 1.5774431
-0.95568258 -1.2822241 1.2479889
-0.94350606 -1.2667978 1.013814
-0.91633576 -1.231652 0.79711759
-0.89908701 -1.2093371 0.61361885
-0.88128257 -1.1862415 0.44713756
-0.86501211 -1.1647573 0.2945672
-0.86028439 -1.1592236 0.15190785
-0.076981008 -0.043465294 8.7089415
-0.8288222 -1.0542805 8.5255833
-0.82356083 -1.0614666 6.4825411
-0.56130624 -0.73370045 3.0004079
-0.72507846 -0.95446849 2.8833997
-1.1778069 -1.5569713 3.6450353
-1.0950966 -1.4518182 2.7434902
-1.0265805 -1.3639318 2.1204722
-0.34696981 -0.37066409 8.6200228
-0.60298067 -0.69460714 8.5358829
-0.56737798 -0.735035 3.6125317
-0.63573486 -0.83149379 2.9005444
-1.1430726 -1.5083022 3.1657426
-1.0627912 -1.4059128 2.408484
-1.0237595 -1.3567185 1.9208267
-1.0140017 -1.353084 1.7414067
-0.96984822 -1.2955658 1.3873141
-0.95036453 -1.2709097 1.1250613
-0.93158209 -1.2466878 0.90121239
-0.91304642 -1.2227606 0.70487875
-0.8952719 -1.1998181 0.52997011
-0.8779611 -1.1774679 0.37032557
-0.85977823 -1.1539099 0.22213461
-1.0048724 -1.3370001 1.5707921
-0.95529872 -1.2724156 1.2421026
-0.94016099 -1.253152 1.0062144
-0.91518569 -1.2211823 0.79292148
-0.89764148 -1.198632 0.61033183
-0.87959343 -1.1753749 0.44479293
-0.86610621 -1.1577654 0.29387653
-0.86133432 -1.152212 0.15170631
-0.077132262 -0.043196313 8.7089415
-0.8324973 -1.051381 8.5255833
-0.83478689 -1.0682111 6.5412846
-0.56386393 -0.7317366 3.0004079
-0.7295931 -0.95348305 2.8880022
-1.1759763 -1.5433259 3.6230896
-1.0967526 -1.4435058 2.7352242
-1.0274621 -1.3552319 2.1127973
-0.34846029 -0.36966008 8.6250143
-0.60540164 -0.69249809 8.5358829
-0.5807454 -0.74693972 3.6802835
-0.63863343 -0.82926965 2.9005444
-1.2491876 -1.6311337 4.3119073
-1.1451654 -1.5001571 3.1572106
-1.0622157 -1.3950026 2.3965139
-1.0243859 -1.3477387 1.9134763
-1.0165701 -1.3466901 1.7379023
-0.96967751 -1.285957 1.3810372
-0.94724739 -1.2575649 1.1168369
-0.9279359 -1.2328107 0.89425594
-0.91173559 -1.2121563 0.70113266
-0.89369017 -1.1890165 0.52715003
-0.87616563 -1.1665404 0.3684603
-0.86081141 -1.1469188 0.22168753
-1.0050256 -1.3275307 1.5641412
-0.95485812 -1.2626256 1.2362163
-0.93933135 -1.2429844 1.001148
-0.91397381 -1.2107359 0.78872538
-0.89613235 -1.1879517 0.60704482
-0.88076496 -1.1684161 0.44362062
-0.86418182 -1.1468252 0.29249516
-0.85934049 -1.1412164 0.15130325
-0.07728257 -0.042926811 8.7089415
-0.83616227 -1.0484686 8.5255833
-0.8504796 -1.0804896 6.6342936
-0.56549925 -0.72858495 2.9956362
-0.73291695 -0.95093048 2.8880022
-1.1740646 -1.5297124 3.6011441
-1.0812607 -1.4128534 2.6856289
-1.0263501 -1.3439952 2.1012847
-0.34974852 -0.36844149 8.6250143
-0.60781521 -0.69038063 8.5358829
-0.59652841 -0.76172823 3.7625537
-0.64046627 -0.82567191 2.8958514
-1.2442355 -1.6129744 4.275898
-1.1503949 -1.4961506 3.1572106
-1.0615768 -1.3841136 2.3845439
-1.0208402 -1.3333879 1.8987757
-1.0169474 -1.3374559 1.7308931
-0.96709734 -1.2732657 1.3716217
-0.9465763 -1.2475884 1.1113539
-0.92420441 -1.2189745 0.88729954
-0.91036201 -1.2015762 0.69738662
-0.89204389 -1.1782407 0.52433002
-0.87726843 -1.1595576 0.36752769
-0.85880315 -1.135962 0.22079337
-1.0028609 -1.3151076 1.5541645
-0.95436084 -1.2528541 1.23033
-0.93844229 -1.2328379 0.99608171
-0.91270024 -1.2003129 0.78452927
-0.89741665 -1.1810566 0.60540134
-0.87895936 -1.1575922 0.44127598
-0.86518568 -1.1398572 0.29180449
-0.85728061 -1.1302489 0.15090019
-0.077392176 -0.042638835 8.7039413
-0.83981705 -1.0455436 8.5255833
-0.85930794 -1.0838962 6.6734552
-0.56619984 -0.72425503 2.9860923
-0.73623186 -0.94836634 2.8880022
-1.1720725 -1.5161314 3.5791988
-1.0690047 -1.3867842 2.6442995
-1.0271267 -1.3353235 2.0936098
-0.35123268 -0.3674264 8.6300068
-0.60986722 -0.68785632 8.5309114
-0.59996229 -0.76062799 3.7673931
-0.64334452 -0.82343119 2.8958514
-1.2405081 -1.5965886 4.2443895
-1.1444311 -1.4776927 3.1273491
-1.0590328 -1.3708615 2.3685837
-1.0172069 -1.3190781 1.8840752
-1.0172727 -1.3282355 1.7238841
-0.96680564 -1.2636995 1.3653449
-0.94330812 -1.2343099 1.1031295
-0.92307633 -1.2086999 0.88266194
-0.90892553 -1.1910204 0.69364047
-0.89033329 -1.1674907 0.52150995
-0.87535584 -1.1486741 0.36566246
-0.8597461 -1.1289954 0.22034629
-1.0028963 -1.3056769 1.5475135
-0.95626771 -1.2463086 1.2273868
-0.93749392 -1.2227128 0.99101532
-0.91136509 -1.1899135 0.78033316
-0.89866376 -1.174167 0.6037578
-0.88004184 -1.1506561 0.44010365
-0.86314374 -1.1289622 0.29042313
-0.85818762 -1.1232796 0.15069866
-0.077540539 -0.042368423 8.7039413
-0.84346151 -1.0426056 8.5255833
-0.86880583 -1.0880499 6.7175121
-0.56872451 -0.72227418 2.9860923
-0.73833424 -0.94425178 2.8833997
-1.1685284 -1.5006933 3.5528643
-1.0652094 -1.3719312 2.6236346
-1.0298183 -1.3291962 2.0897722
-0.3525131 -0.36619815 8.6300068
-0.61226457 -0.6857233 8.5309114
-0.60183167 -0.75754511 3.7625537
-0.6462149 -0.82118046 2.8958514
-1.2219219 -1.5613916 4.1633673
-1.139957 -1.4613514 3.1017535
-1.0564092 -1.3576444 2.3526237
-1.0134864 -1.3048103 1.8693745
-1.0175462 -1.3190293 1.716875
-0.96645898 -1.2541511 1.3590679
-0.94250941 -1.224383 1.0976466
-0.91918683 -1.1949371 0.87570554
-0.90742677 -1.1804895 0.68989444
-0.88855869 -1.1567674 0.51868987
-0.876369 -1.1417149 0.36472982
-0.86065084 -1.122036 0.21989921
-1.0028783 -1.2962621 1.5408626
-0.95566875 -1.2365667 1.2215005
-0.93648624 -1.2126094 0.98594898
-0.91274077 -1.1831316 0.77823514
-0.89987373 -1.1672831 0.60211432
-0.88108659 -1.1437267 0.43893132
-0.86405784 -1.1220189 0.28973246
-0.85600966 -1.1123585 0.1502956
-0.077687964 -0.042097498 8.7039413
-0.84758669 -1.0402572 8.5305223
-1.0953619 -1.3618743 8.4259472
-0.57124227 -0.72028464 2.9860923
-0.74041682 -0.94013405 2.8787971
-1.1648911 -1.4852984 3.5265298
-1.0647908 -1.3615547 2.6112356
-1.0305078 -1.3205398 2.0820973
-0.35399079 -0.36517197 8.6349974
-0.61465448 -0.68358189 8.5309114
-0.60447234 -0.75543976 3.7625537
-0.64907742 -0.81891978 2.8958514
-1.2246692 -1.5536975 4.1543651
-1.1337714 -1.4430087 3.071892
-1.0537064 -1.3444624 2.3366637
-1.0096786 -1.2905844 1.8546739
-1.0177678 -1.3098373 1.7098659
-0.96605748 -1.2446206 1.3527911
-0.94165307 -1.2144767 1.0921637
-0.91792601 -1.184718 0.87106794
-0.90586555 -1.1699836 0.68614835
-0.88965565 -1.1498647 0.51727986
-0.87734431 -1.1347628 0.36379722
-0.86151761 -1.1150842 0.21945213
-1.0028067 -1.2868634 1.5342115
-0.95501351 -1.2268443 1.2156142
-0.93541962 -1.202528 0.98088264
-0.91129559 -1.172771 0.77403903
-0.90104663 -1.1604052 0.60047078
-0.87911403 -1.1329639 0.43658668
-0.86493403 -1.1150831 0.28904179
-0.8568266 -1.105415 0.15009406
-0.077874392 -0.041843593 8.7089415
-0.85121268 -1.0372922 8.5305223
-1.1001092 -1.3580426 8.4259472
-0.57375306 -0.71828622 2.9860923
-0.74369401 -0.93754381 2.8787971
-1.1611605 -1.4699476 3.5001953
-1.0677958 -1.3556192 2.6071029
-1.0291686 -1.3093749 2.0705848
-0.35546568 -0.36414003 8.6399889
-0.61703688 -0.68143219 8.5309114
-0.60631663 -0.75234663 3.7577143
-0.651932 -0.81664908 2.8958514
-1.2219632 -1.539184 4.127358
-1.1307087 -1.4288172 3.0505624
-1.0527916 -1.3336809 2.3246934
-1.0078824 -1.2790639 1.8436482
-1.0157396 -1.2978517 1.6993521
-0.96560138 -1.2351083 1.3465142
-0.94331288 -1.2078869 1.0894222
-0.91660494 -1.1745224 0.86643034
-0.90709305 -1.1631588 0.68427533
-0.88776654 -1.1391847 0.51445979
-0.87526363 -1.123942 0.36193198
-0.8592878 -1.1042098 0.21855797
-1.0003762 -1.2745439 1.524235
-0.95430195 -1.2171415 1.2097279
-0.93163532 -1.1890757 0.97328311
-0.91258645 -1.1660088 0.77194095
-0.89927334 -1.1498135 0.59718376
-0.88007027 -1.1260586 0.43541437
-0.86272353 -1.1042526 0.28766042
-0.85760564 -1.0984796 0.14989254
-0.078019977 -0.041571505 8.7089415
-0.85482836 -1.0343146 8.5305223
-1.1054866 -1.3549829 8.4308414
-0.57625687 -0.71627909 2.9860923
-0.74696207 -0.93494213 2.8787971
-1.1618108 -1.4602633 3.4870281
-1.0707722 -1.3496792 2.6029699
-1.0297538 -1.3007487 2.0629098
-0.3567346 -0.36289701 8.6399889
-0.61941177 -0.67927414 8.5309114
-0.60893911 -0.7502256 3.7577143
-0.65477872 -0.81436849 2.8958514
-1.2205303 -1.5264084 4.1048517
-1.127561 -1.4146646 3.0292325
-1.0518144 -1.3229222 2.3127234
-1.0123409 -1.275538 1.8436482
-1.0136402 -1.2858962 1.6888385
-0.96509063 -1.2256142 1.3402373
-0.94235301 -1.1980139 1.0839393
-0.9179616 -1.167833 0.86411154
-0.90542024 -1.152694 0.6805293
-0.88877571 -1.1323055 0.51304972
-0.87614995 -1.1170148 0.36099935
-0.86006486 -1.0972842 0.21811089
-1.0001878 -1.2651863 1.517584
-0.95353454 -1.2074589 1.2038416
-0.93043905 -1.1790485 0.96821666
-0.91384119 -1.159252 0.76984292
-0.90035933 -1.1429582 0.59554029
-0.88098913 -1.1191604 0.43424204
-0.86351049 -1.0973427 0.28696972
-0.85525852 -1.0876249 0.14948948
-0.078204691 -0.041316163 8.7139416
-0.85793632 -1.0307274 8.5255833
-1.1108562 -1.3519024 8.4357367
-0.57969356 -0.71542269 2.990864
-0.75022113 -0.93232906 2.8787971
-1.1609099 -1.4487234 3.4694719
-1.0737201 -1.343735 2.5988369
-1.030291 -1.292134 2.0552347
-0.35799921 -0.36164957 8.6399889
-0.62177908 -0.67710787 8.5309114
-0.61155421 -0.74809539 3.7577143
-0.65761739 -0.81207788 2.8958514
-1.2176576 -1.5119663 4.0778441
-1.1243284 -1.4005518 3.0079031
-1.0507751 -1.3121867 2.3007534
-1.0146704 -1.2693485 1.8399732
-1.0092522 -1.2711785 1.6748203
-0.96210665 -1.2130892 1.3308219
-0.94393235 -1.1914397 1.0811977
-0.91653299 -1.1576755 0.85947394
-0.90656197 -1.1458908 0.67865622
-0.88677251 -1.12167 0.51022971
-0.87699848 -1.1100951 0.36006674
-0.85771829 -1.0864578 0.21721675
-0.99762052 -1.2529248 1.5076076
-0.9501949 -1.1946331 1.1950121
-0.92918438 -1.1690443 0.96315032
-0.91506004 -1.1525007 0.76774484
-0.89847326 -1.1324099 0.59225327
-0.88187045 -1.1122698 0.43306974
-0.8611837 -1.08656 0.28558838
-0.85594803 -1.0807166 0.14928794
-0.078388579 -0.041060038 8.7189417
-0.86152905 -1.0277264 8.5255833
-1.1168671 -1.3495852 8.4455271
-0.58218735 -0.71339482 2.990864
-0.75470126 -0.93122226 2.8833997
-1.1599425 -1.4372077 3.4519155
-1.0748752 -1.3355945 2.5905712
-1.0307809 -1.2835318 2.0475595
-0.35925943 -0.3603977 8.6399889
-0.62413883 -0.67493337 8.5309114
-0.61336261 -0.744986 3.7528749
-0.66153902 -0.81111467 2.9005444
-1.2160707 -1.4992537 4.0553384
-1.1210109 -1.3864788 2.9865732
-1.0496737 -1.3014749 2.2887833
-1.0169688 -1.2631583 1.8362979
-1.0070013 -1.2592924 1.6643068
-0.96147639 -1.2036413 1.3245449
-0.94286931 -1.1816009 1.0757148
-0.91504478 -1.1475424 0.85483634
-0.90477824 -1.1354682 0.67491019
-0.8876943 -1.114815 0.50881964
-0.87475091 -1.0993396 0.3582015
-0.85840607 -1.0795593 0.21676967
-0.99264383 -1.2377839 1.4943056
-0.9493047 -1.1850001 1.1891258
-0.92787123 -1.1590633 0.95808399
-0.9134081 -1.1422105 0.76354873
-0.89652461 -1.1218889 0.58896625
-0.87968147 -1.1015884 0.4307251
-0.86188173 -1.0796772 0.28489769
-0.85348421 -1.0699111 0.14888488
-0.078531422 -0.040786162 8.7189417
-0.86460978 -1.0241193 8.5206442
-1.1222234 -1.3464605 8.4504232
-0.58372593 -0.71020532 2.9860923
-0.75794727 -0.92858219 2.8833997
-1.1589091 -1.4257165 3.4343591
-1.0777587 -1.3296484 2.5864379
-1.0332392 -1.277434 2.0437222
-0.36051524 -0.35914144 8.6399889
-0.62649101 -0.67275059 8.5309114
-0.61595935 -0.74284041 3.7528749
-0.66436636 -0.80880052 2.9005444
-1.2144097 -1.4865707 4.0328321
-1.119256 -1.3744683 2.9695096
-1.0485103 -1.2907865 2.2768133
-1.0192366 -1.2569677 1.8326229
-1.0046798 -1.2474375 1.653793
-0.95835209 -1.1911801 1.3151296
-0.94174904 -1.171784 1.0702319
-0.91627097 -1.1408875 0.8525176
-0.90583456 -1.1286876 0.67303717
-0.88557774 -1.1042252 0.50599957
-0.87551105 -1.0924462 0.35726887
-0.85594314 -1.0687823 0.21587551
-0.98991984 -1.2255977 1.484329
-0.94582057 -1.1722422 1.1802962
-0.92649978 -1.1491058 0.95301759
-0.91454273 -1.1354806 0.76145065
-0.89451361 -1.1113954 0.58567923
-0.88047504 -1.0947235 0.42955279
-0.85943931 -1.0689434 0.28351635
-0.85408449 -1.0630308 0.14868335
-0.078673318 -0.040511787 8.7189417
-0.86817938 -1.021095 8.5206442
-1.1275712 -1.3433146 8.4553185
-0.58620143 -0.70816338 2.9860923
-0.76242477 -0.92743975 2.8880022
-1.159327 -1.4161034 3.4211919
-1.0788341 -1.3215185 2.5781722
-1.033643 -1.2688496 2.0360472
-0.36156073 -0.35767847 8.6349974
-0.6288355 -0.67055964 8.5309114
-0.61774266 -0.73972118 3.7480354
-0.66718549 -0.80647647 2.9005444
-1.2140585 -1.4755987 4.0148273
-1.1157771 -1.3604708 2.94818
-1.0491934 -1.2824544 2.2688332
-1.0193291 -1.2481508 1.8252726
-1.0022879 -1.2356143 1.6432794
-0.95760316 -1.1817795 1.3088527
-0.94057178 -1.1619895 1.064749
-0.91467589 -1.130794 0.84788001
-0.90394014 -1.1183081 0.66929108
-0.88641244 -1.0973955 0.5045895
-0.87314826 -1.0817387 0.35540363
-0.85654211 -1.0619118 0.21542843
-0.98712301 -1.2134458 1.4743526
-0.94480836 -1.1626599 1.1744099
-0.92507017 -1.1391721 0.94795126
-0.91278225 -1.1252321 0.75725454
-0.89541394 -1.1045979 0.58403569
-0.87817186 -1.0840896 0.42720816
-0.86004889 -1.0620884 0.28282565
-0.85464734 -1.0561593 0.14848182
-0.078773931 -0.040220227 8.7139416
-0.87123287 -1.0174682 8.5157051
-1.132911 -1.3401481 8.4602137
-0.5886699 -0.70611286 2.9860923
-0.76690358 -0.92627746 2.8926048
-1.1581681 -1.4046568 3.4036357
-1.0798659 -1.3133976 2.5699062
-1.0339996 -1.2602781 2.0283723
-0.36260051 -0.35621262 8.6300068
-0.63080591 -0.66797334 8.5259399
-0.62032098 -0.73756039 3.7480354
-0.66999662 -0.80414271 2.9005444
-1.2122564 -1.462971 3.9923213
-1.1138752 -1.3485248 2.9311161
-1.0479147 -1.271808 2.2568631
-1.0193723 -1.2393486 1.8179222
-1.002082 -1.2265848 1.6362704
-0.95680028 -1.1723987 1.3025758
-0.93669546 -1.1489767 1.0565246
-0.91581953 -1.1241599 0.84556121
-0.9049114 -1.1115508 0.66741806
-0.88721031 -1.0905735 0.50317949
-0.87382019 -1.0748726 0.35447103
-0.85396355 -1.0511849 0.21453427
-0.9818871 -1.1984403 1.4610506
-0.94374079 -1.1530992 1.1685236
-0.92358255 -1.1292623 0.94288492
-0.91383284 -1.1185244 0.75515652
-0.89329135 -1.0941499 0.58074868
-0.87887794 -1.0772514 0.42603585
-0.85749137 -1.0514047 0.28144431
-0.85517246 -1.0492969 0.14828028
-0.078913845 -0.03994501 8.7139416
-0.87477911 -1.0144209 8.5157051
-1.1375821 -1.3361853 8.4602137
-0.59017098 -0.70291072 2.9813201
-0.77138358 -0.92509508 2.8972073
-1.1569436 -1.3932357 3.3860793
-1.0808542 -1.3052855 2.5616403
-1.0343088 -1.2517195 2.0206971
-0.36363438 -0.35474384 8.6250143
-0.63313371 -0.66576737 8.5259399
-0.62289178 -0.73539054 3.7480354
-0.67279947 -0.80179906 2.9005444
-1.2034062 -1.4420174 3.947309
-1.1119035 -1.3366091 2.9140525
-1.0484992 -1.2635049 2.2488832
-1.0172038 -1.2279509 1.8068967
-1.0040915 -1.2203256 1.6327658
-0.95594358 -1.163038 1.2962989
-0.93273985 -1.1360053 1.0483003
-0.91692811 -1.1175318 0.84324241
-0.90290707 -1.1012155 0.66367197
-0.88797146 -1.0837594 0.50176948
-0.8713429 -1.0642143 0.35260579
-0.85447407 -1.0443434 0.21408717
-0.98131138 -1.1892457 1.4543995
-0.94261801 -1.1435599 1.1626372
-0.92477793 -1.1227043 0.94035172
-0.91484791 -1.1118232 0.75305843
-0.89410597 -1.0873777 0.5791052
-0.87646133 -1.0666662 0.42369121
-0.85801303 -1.0445786 0.28075361
-0.85882998 -1.0463053 0.14828028
-0.079012372 -0.039652895 8.7089415
-0.87831473 -1.0113611 8.5157051
-1.1422392 -1.3322062 8.4602137
-0.59262097 -0.70084637 2.9813201
-0.77586466 -0.9238928 2.9018097
-1.1556535 -1.3818405 3.3685231
-1.0799967 -1.2950217 2.5492415
-1.0325207 -1.2407106 2.0091846
-0.36487046 -0.35347235 8.6250143
-0.63545388 -0.6635533 8.5259399
-0.62463903 -0.7322557 3.743196
-0.67670822 -0.80076343 2.905237
-1.1972264 -1.4244767 3.9112992
-1.1098624 -1.3247236 2.8969886
-1.0490384 -1.2552133 2.2409031
-1.0149684 -1.2165835 1.7958713
-1.0037938 -1.2113215 1.6257567
-0.9550333 -1.1536976 1.290022
-0.93137008 -1.1262978 1.0428174
-0.91517967 -1.107495 0.83860481
-0.90379363 -1.0944825 0.66179895
-0.88564259 -1.0732533 0.49894941
-0.87192708 -1.0573765 0.35167316
-0.85494727 -1.0375111 0.21364009
-0.97829717 -1.1771986 1.4444231
-0.94144028 -1.1340429 1.1567509
-0.92318636 -1.1128341 0.93528539
-0.91293132 -1.1016341 0.74886233
-0.89488411 -1.080613 0.57746166
-0.87708032 -1.0598557 0.42251888
-0.8584975 -1.0377614 0.28006294
-0.85929382 -1.0394505 0.14807875
-0.079150304 -0.039376851 8.7089415
-0.88183969 -1.0082891 8.5157051
-1.1468827 -1.3282111 8.4602137
-0.59506375 -0.6987735 2.9813201
-0.78160846 -0.92416203 2.9110148
-1.1542979 -1.3704711 3.3509667
-1.0808907 -1.2869344 2.5409758
-1.0306683 -1.2297297 1.9976722
-0.36589336 -0.35199711 8.6200228
-0.63776618 -0.66133112 8.5259399
-0.62719125 -0.73007083 3.743196
-0.68061805 -0.79971045 2.9099298
-1.1895324 -1.4053354 3.8707883
-1.1077518 -1.3128686 2.879925
-1.0495324 -1.2469332 2.2329228
-1.014847 -1.2078422 1.7885209
-1.0011604 -1.1995964 1.615243
-0.95656216 -1.1473674 1.2868835
-0.92726779 -1.1134008 1.0345929
-0.91620618 -1.1008886 0.83628595
-0.90167981 -1.0841924 0.65805292
-0.88631743 -1.0664661 0.49753937
-0.87247431 -1.0505475 0.35074055
-0.85220295 -1.0268562 0.21274593
-0.97760731 -1.1680502 1.437772
-0.94280028 -1.1276488 1.1538078
-0.92430127 -1.1062967 0.93275219
-0.91386294 -1.0949564 0.7467643
-0.89562619 -1.0738564 0.57581812
-0.87766266 -1.0530539 0.42134658
-0.85894477 -1.0309538 0.27937225
-0.85972035 -1.0326053 0.14787722
-0.079287276 -0.039100327 8.7089415
-0.88535398 -1.0052047 8.5157051
-1.1515119 -1.3241996 8.4602137
-0.59749931 -0.69669205 2.9813201
-0.78482968 -0.92142802 2.9110148
-1.1497785 -1.3554757 3.3246322
-1.0781064 -1.27456 2.5244439
-1.0287517 -1.2187767 1.9861596
-0.36711985 -0.35071775 8.6200228
-0.6400708 -0.65910083 8.5259399
-0.62891316 -0.72692668 3.7383566
-0.68565184 -0.79994994 2.9193153
-1.180307 -1.3846087 3.8257763
-1.1038833 -1.2990575 2.8585954
-1.048033 -1.2363667 2.220953
-1.0124868 -1.1965287 1.7774954
-1.0007522 -1.1906347 1.6082339
-0.95555538 -1.1380597 1.2806066
-0.92846149 -1.1069537 1.0318514
-0.91435206 -1.0908939 0.83164835
-0.90248197 -1.0774845 0.65617985
-0.88387662 -1.0560087 0.4947193
-0.86983287 -1.0399597 0.34887531
-0.85258842 -1.0200541 0.21229887
-0.97686571 -1.1589211 1.4311211
-0.94152373 -1.1181673 1.1479214
-0.92260629 -1.0964668 0.92768586
-0.91183883 -1.0848114 0.74256819
-0.89633197 -1.0671077 0.57417464
-0.8782081 -1.0462608 0.42017427
-0.85617203 -1.0203623 0.27799088
-0.86010963 -1.0257697 0.14767569
-0.079463869 -0.038839307 8.7139416
-0.88885736 -1.0021082 8.5157051
-1.1561272 -1.320172 8.4602137
-0.60090357 -0.69573164 2.9860923
-0.79185772 -0.92313093 2.9248226
-1.1451685 -1.3405285 3.2982976
-1.0715992 -1.2579367 2.4996462
-1.0246954 -1.2054104 1.9708096
-0.36834183 -0.34943414 8.6200228
-0.6423676 -0.65686256 8.5259399
-0.63144678 -0.72472692 3.7383566
-0.69182342 -0.80146998 2.9333935
-1.1837149 -1.3788286 3.821275
-1.0999317 -1.2852894 2.8372657
-1.0484293 -1.2281176 2.2129729
-1.0144583 -1.190407 1.77382
-0.99798965 -1.1789685 1.5977204
-0.95449549 -1.1287732 1.2743297
-0.92692304 -1.0973175 1.0263685
-0.91529691 -1.0843107 0.82932955
-0.90025926 -1.0672406 0.65243381
-0.88446569 -1.0492493 0.49330926
-0.87029296 -1.0331602 0.34794268
-0.84972978 -1.0094521 0.21140471
-0.97607219 -1.1498114 1.4244701
-0.94280672 -1.1117913 1.1449783
-0.92364097 -1.0899508 0.92515266
-0.91268754 -1.0781579 0.74047017
-0.89700145 -1.0603672 0.5725311
-0.87557894 -1.0357649 0.41782963
-0.85653216 -1.013585 0.27730021
-0.86046171 -1.0189443 0.14747415
-0.079598963 -0.038561687 8.7139416
-0.89235002 -0.99899936 8.5157051
-1.1607285 -1.3161283 8.4602137
-0.60332847 -0.69362986 2.9860923
-0.78996587 -0.91444814 2.9064121
-1.1404684 -1.3256302 3.2719634
-1.0649892 -1.2413746 2.4748485
-1.0247277 -1.1969566 1.9631346
-0.36955935 -0.34814623 8.6200228
-0.64503103 -0.65499562 8.5309114
-0.6381191 -0.72724146 3.7625537
-0.69688159 -0.80165452 2.9427791
-1.1828251 -1.3681016 3.8032703
-1.0958978 -1.2715647 2.8159359
-1.0468161 -1.2175961 2.2010028
-1.0141914 -1.1817136 1.7664698
-0.99747139 -1.17005 1.5907112
-0.95338237 -1.119508 1.2680528
-0.92803824 -1.0908905 1.023627
-0.91333789 -1.0743592 0.82469195
-0.90097755 -1.0605586 0.6505608
-0.88501817 -1.0424985 0.49189925
-0.87071621 -1.0263702 0.34701008
-0.85002792 -1.0026813 0.21095763
-0.97522712 -1.1407216 1.417819
-0.94143182 -1.1023464 1.139092
-0.92184305 -1.0801622 0.92008632
-0.91350091 -1.0715117 0.73837209
-0.89457262 -1.0500407 0.56924409
-0.87603825 -1.0290014 0.4166573
-0.85685551 -1.0068177 0.27660954
-0.86077654 -1.0121287 0.14727263
-0.079733081 -0.038283601 8.7139416
-0.8958317 -0.99587834 8.5157051
-1.1653155 -1.3120686 8.4602137
-0.60672981 -0.69264215 2.990864
-0.79956555 -0.91905397 2.929425
-1.1372467 -1.3125913 3.2500179
-1.0601166 -1.2270033 2.4541838
-1.0226202 -1.18609 1.951622
-0.37077236 -0.34685415 8.6200228
-0.64731348 -0.65274006 8.5309114
