# .PCD v0.7 - Point Cloud Data file format
VERSION 0.7
FIELDS x y z
SIZE 4 4 4
TYPE F F F
COUNT 1 1 1
WIDTH 1542
HEIGHT 1
VIEWPOINT 0 0 0 1 0 0 0
POINTS 1542
DATA ascii
2.5858827 -3.5264771 9.1057005
3.1074471 -4.2239146 8.6474676
3.7558148 -5.0922589 8.4533701
4.5538359 -6.163033 8.3854408
2.6591806 -3.573966 4.4574299
6.2492843 -8.3900824 8.5178881
3.5406506 -4.7483482 3.9679618
9.1539497 -12.267499 8.0987673
11.042949 -14.788259 7.5451946
2.6583173 -3.5832508 4.0549407
6.6988249 -9.0198965 8.2644835
8.1936312 -11.024626 8.1573782
12.175231 -16.334309 2.9336557
0.019516947 -0.086267538 8.7139416
1.6073277 -2.2854414 17.761997
2.140491 -3.002543 17.751354
1.6592579 -2.2943523 9.0990028
2.1678333 -2.9758558 8.7332087
2.8314526 -3.8699059 8.8548717
3.3815784 -4.6083555 8.4676247
4.1331916 -5.6203575 8.4293289
0.26990387 -0.46410117 9.1241808
1.0222543 -1.6168442 17.797796
1.3133218 -1.8326524 8.7181244
1.9066174 -2.6345582 8.8978996
2.5761192 -3.5390019 9.1147022
3.0773032 -4.2136745 8.6048079
3.7362366 -5.1029072 8.4493799
4.5343003 -6.1816249 8.3891163
2.6466889 -3.5832267 4.4574299
6.1759901 -8.3523817 8.4582567
3.5190785 -4.7539568 3.9624786
9.097888 -12.281579 8.0871725
11.02439 -14.871405 7.5676708
2.643579 -3.5895014 4.0516152
6.6625009 -9.0367184 8.2585974
8.1499786 -11.046223 8.1523123
12.097521 -16.348843 2.9288211
0.019209633 -0.086291932 8.7089415
1.6037871 -2.29741 17.811388
2.1288209 -3.0083339 17.741564
1.6399235 -2.2843657 9.0369682
2.1620111 -2.9897373 8.7516184
2.8193343 -3.8817041 8.8592606
3.3638148 -4.617857 8.4634914
4.1135473 -5.6347508 8.4293289
0.2678518 -0.46428889 9.1092052
1.0166042 -1.6204027 17.797796
1.3069167 -1.8372258 8.7181244
1.9054635 -2.65241 8.935442
2.5624754 -3.5462081 9.1102009
3.0610449 -4.2222786 8.6005421
3.7184012 -5.1159177 8.4493799
4.5146909 -6.2001557 8.3927917
2.634165 -3.5924432 4.4574299
6.1237655 -8.3425112 8.4268723
3.5024626 -4.766212 3.9624786
9.0523376 -12.309693 8.0848541
11.071333 -15.044216 7.6351004
2.6442549 -3.6167924 4.071568
6.6261415 -9.0533962 8.2527103
8.1062756 -11.067648 8.1472454
12.040379 -16.390972 2.9288211
0.018908301 -0.086358458 8.7089415
1.5957577 -2.3029945 17.811388
2.1165516 -3.013247 17.726879
1.6146158 -2.2657623 8.9415274
2.1561189 -3.0036144 8.7700281
2.826777 -3.9206626 8.9250965
3.3460259 -4.6272902 8.4593582
4.0919724 -5.6464796 8.4254913
0.26565912 -0.46421701 9.0892391
1.0109417 -1.6239414 17.797796
1.3012205 -1.8428034 8.7229643
1.9032062 -2.6688807 8.9682913
2.557694 -3.5657454 9.1372089
3.046288 -4.2329378 8.6005421
3.6987579 -5.1264234 8.4453907
2.4732823 -3.4216135 4.655149
2.621609 -3.6016164 4.4574299
6.1106529 -8.3858566 8.4488411
3.4759471 -4.7648959 3.9515128
8.996254 -12.323328 8.0732603
11.057037 -15.135177 7.6613226
2.6272275 -3.6199565 4.0649171
6.589747 -9.0699301 8.2468243
8.0625238 -11.088903 8.1421795
11.956831 -16.396889 2.922605
0.018600974 -0.086380683 8.7039413
1.5872688 -2.3079102 17.80645
2.1060205 -3.0206168 17.726879
1.5998015 -2.2616348 8.9033518
2.1478882 -3.0143044 8.779233
2.8311942 -3.9558253 8.9821558
3.3265715 -4.6343694 8.4510918
4.0703664 -5.6581273 8.4216537
0.26332846 -0.46388391 9.0642805
1.0055468 -1.6279141 17.802767
1.29478 -1.8473343 8.7229643
1.9028511 -2.688185 9.0105257
2.546494 -3.5764248 9.1417103
3.029978 -4.2414246 8.5962772
3.680841 -5.1393027 8.4453907
2.4613235 -3.4302258 4.655149
2.6111102 -3.6136365 4.4609346
6.0722189 -8.3945217 8.4362879
3.4592934 -4.777 3.9515128
8.9557819 -12.358242 8.0755787
11.064015 -15.256246 7.7025294
2.6102107 -3.6230464 4.0582662
6.5556831 -9.0895996 8.2438812
8.0187216 -11.109988 8.1371126
11.876291 -16.406433 2.9170794
0.018293725 -0.086401813 8.6989422
1.5809548 -2.3160038 17.826206
2.0948839 -3.0271122 17.721983
1.6021893 -2.2818661 8.9606161
2.1384814 -3.0233786 8.7838354
2.836787 -3.9930184 9.043602
3.3071082 -4.6413693 8.4428263
4.048728 -5.6696925 8.4178162
0.26114425 -0.46379229 9.0443144
1.0001365 -1.6318688 17.807739
1.2883236 -1.8518425 8.7229643
1.8984159 -2.7018709 9.0339899
2.5302255 -3.5799589 9.1282063
3.0151541 -4.2519751 8.5962772
3.6611328 -5.1496639 8.4414005
2.4414675 -3.4277511 4.6404486
2.5943229 -3.6169329 4.4539256
6.8329163 -9.5159283 9.52847
3.4474788 -4.7958374 3.956996
8.9513922 -12.443369 8.1103611
11.059447 -15.362496 7.7362442
6.5192089 -9.105855 8.2379951
7.9723592 -11.127398 8.1295137
11.827619 -16.459856 2.9191513
0.017992014 -0.086465143 8.6989422
0.78026962 -1.151296 8.8416958
2.0843048 -3.0344062 17.721983
1.6010416 -2.2972424 8.9987917
2.1267922 -3.0292258 8.779233
2.8421543 -4.0302982 9.1050491
3.2860122 -4.6459928 8.4304276
4.0270596 -5.6811757 8.4139795
0.25868395 -0.46318606 9.0143633
0.99471074 -1.6358055 17.81271
1.2811376 -1.855294 8.7181244
1.8988442 -2.722636 9.0809174
2.4902093 -3.5495617 9.0291796
2.9987924 -4.2603412 8.5920115
3.6413975 -5.1599503 8.4374104
2.4275305 -3.4334841 4.6367731
2.579613 -3.6230614 4.4504209
5.9795794 -8.3891649 8.3892107
8.9825563 -12.579085 8.1776066
11.054272 -15.4689 7.7699585
6.4827013 -9.1219664 8.2321091
7.928472 -11.148133 8.1244469
11.698198 -16.400251 2.9018843
0.017684776 -0.086484119 8.6939421
0.7749458 -1.1520783 8.8268785
2.0737 -3.0416634 17.721983
1.6150903 -2.3347363 9.1228638
2.1139717 -3.0334258 8.7700281
2.8459225 -4.0657024 9.1621075
3.2681577 -4.6551318 8.4262943
4.0053592 -5.6925769 8.4101419
0.25637019 -0.46282127 8.9894056
0.98926973 -1.6397243 17.81768
1.2746536 -1.8597548 8.7181244
1.9020964 -2.7476935 9.141923
2.4255571 -3.4831991 8.8401289
2.9839027 -4.2707829 8.5920115
3.621635 -5.1701617 8.4334211
2.4096885 -3.4336119 4.6257477
2.5587175 -3.6203947 4.4364028
6.9371719 -9.8048859 9.7669935
7.0827179 -9.9995089 8.1185408
9.0231285 -12.729625 8.2541265
11.048488 -15.575455 7.8036733
6.4461598 -9.1379328 8.226222
7.8845372 -11.168698 8.11938
15.152372 -21.408356 6.4165783
11.646603 -16.44907 2.9032657
0.017382782 -0.086545318 8.6939421
0.7730757 -1.1580081 8.8515739
2.0630701 -3.0488832 17.721983
1.6162237 -2.3538966 9.175355
2.1022587 -3.0391796 8.7654257
2.8508441 -4.103148 9.2235546
3.255106 -4.6711292 8.4345608
3.9854641 -5.7065234 8.4101419
0.25392392 -0.46219262 8.9594555
0.98381364 -1.6436251 17.822653
1.2681541 -1.8641928 8.7181244
1.9100831 -2.7799184 9.2263927
2.3923421 -3.4612 8.763608
2.9689767 -4.2811728 8.5920115
3.6018453 -5.1802979 8.429431
2.3938129 -3.436439 4.6183972
2.5194399 -3.5913506 4.3908434
6.8984303 -9.82267 9.7607164
7.054985 -10.034433 8.1267653
8.9455004 -12.713945 8.2239819
11.042093 -15.682157 7.837388
5.3584929 -7.6611567 8.40802
6.4142232 -9.1603794 8.226222
7.8380823 -11.185561 8.1117811
15.077551 -21.461119 6.4165783
11.526472 -16.400492 2.8880711
0.017080577 -0.086605474 8.6939421
0.7677418 -1.1587559 8.8367567
2.0518472 -3.0552211 17.717089
1.6088377 -2.3607574 9.1801271
2.0838974 -3.0352249 8.7332087
2.8582582 -4.1446204 9.2937794
3.238781 -4.6824632 8.4345608
3.9636943 -5.7177663 8.4063044
0.25244632 -0.46333009 8.964448
0.97834218 -1.6475077 17.827623
1.2609358 -1.8675661 8.7132845
1.912034 -2.803678 9.2827063
2.3777828 -3.4659395 8.7546053
2.9540148 -4.2915101 8.5920115
3.5820296 -5.1903591 8.4254408
2.3779469 -3.4391968 4.6110473
2.480396 -3.5620766 4.3452845
6.8596492 -9.8403044 9.7544394
7.0462389 -10.096717 8.1569223
8.9010668 -12.745094 8.2239819
11.037743 -15.792801 7.8729753
5.3317175 -7.6798148 8.40802
6.3891287 -9.1926699 8.2350521
7.7940655 -11.205774 8.1067152
11.420985 -16.37158 2.8763292
0.01678302 -0.08670792 8.6989422
0.76454574 -1.1627275 8.8466349
2.0411701 -3.0623646 17.717089
1.5980787 -2.3626494 9.1658115
2.0787899 -3.0505531 8.7562208
2.8573012 -4.174336 9.3376703
3.224009 -4.6960597 8.438693
3.9418943 -5.7289267 8.4024668
0.25082746 -0.46420845 8.964448
0.9717744 -1.6495345 17.81271
1.2544091 -1.8719562 8.7132845
1.9022359 -2.8103352 9.2827063
2.3644447 -3.4724193 8.750104
2.9390166 -4.3017955 8.5920115
3.56389 -5.2028317 8.4254408
2.3620906 -3.4418859 4.6036968
2.4618638 -3.5619118 4.3347707
6.8208284 -9.8577871 9.7481623
7.0014267 -10.107502 8.145956
11.008974 -15.869325 7.8917055
5.3027592 -7.6953049 8.4046946
6.3638868 -9.2248974 8.2438812
7.7500048 -11.225818 8.1016483
11.338397 -16.374704 2.8701131
0.016480248 -0.086765975 8.6989422
0.76048243 -1.1653891 8.8466349
2.030468 -3.0694711 17.717089
2.0714123 -3.0626457 8.7700281
2.8413665 -4.1823034 9.3332815
3.2091813 -4.7096105 8.4428263
3.9200649 -5.740005 8.3986292
0.24907 -0.46482629 8.9594555
0.96681666 -1.6542976 17.827623
1.247867 -1.8763235 8.7132845
1.8808676 -2.799768 9.2263927
2.346215 -3.471633 8.7275982
2.922519 -4.3098698 8.5877447
3.5440125 -5.2127476 8.4214506
2.3481531 -3.4473081 4.6000214
2.4534504 -3.5763652 4.3417802
6.7797666 -9.871911 9.7387466
6.9613643 -10.124989 8.1404724
10.992949 -15.964931 7.9198012
5.2800808 -7.7199311 8.4113464
6.368185 -9.3004169 8.2909718
7.7058992 -11.24569 8.0965824
10.421659 -15.191936 8.6039705
11.255925 -16.377453 2.8638971
0.016177278 -0.086822979 8.6989422
0.75640982 -1.1680366 8.8466349
2.0197411 -3.07654 17.717089
2.4860787 -3.7315781 14.381589
2.066153 -3.0779681 8.7930412
2.8280892 -4.1941819 9.3376703
3.1927221 -4.7207837 8.4428263
3.8982065 -5.7510004 8.3947916
0.24731129 -0.4654375 8.954464
0.96023488 -1.6562785 17.81271
1.2406175 -1.8796188 8.7084455
1.8557674 -2.7833428 9.151309
2.3292317 -3.4725697 8.7095938
2.9045446 -4.3157177 8.5792131
3.5257952 -5.2250872 8.4214506
2.3323085 -3.4498665 4.5926714
2.4429586 -3.5878556 4.3452845
6.7386889 -9.8858681 9.729332
6.9212656 -10.14232 8.1349907
10.98424 -16.0721 7.953516
5.2614894 -7.7506719 8.4246473
6.3674893 -9.3693933 8.3321762
7.6617489 -11.265391 8.0915155
10.414542 -15.29575 8.6417351
11.176364 -16.383917 2.8583717
0.015878513 -0.086922333 8.7039413
0.75232798 -1.1706698 8.8466349
2.0089898 -3.0835714 17.717089
2.4689217 -3.7340076 14.35773
2.0673108 -3.1030469 8.8436689
2.8120997 -4.2020373 9.3332815
3.1762242 -4.7318997 8.4428263
3.8781078 -5.7645726 8.3947916
0.2456851 -0.46629795 8.954464
0.47207066 -0.81972373 8.7794867
1.234049 -1.883938 8.7084455
1.8184263 -2.7480676 9.0152187
2.3074458 -3.4661818 8.673584
2.886565 -4.3214927 8.5706806
3.5058579 -5.234859 8.4174604
2.318363 -3.4551713 4.5889959
2.4304199 -3.5963612 4.3452845
6.6954155 -9.8964338 9.7167778
6.8834753 -10.162955 8.1322489
10.93848 -16.12569 7.9610081
5.2364883 -7.7720871 8.4279737
6.3347449 -9.3915625 8.3321762
7.6175551 -11.284922 8.0864496
10.498311 -15.535069 8.7550306
11.099671 -16.394127 2.8535368
0.015575002 -0.086977229 8.7039413
0.74823695 -1.1732888 8.8466349
1.9976611 -3.0897102 17.712193
2.471431 -3.7663157 14.448398
2.0500019 -3.1004658 8.8160534
2.7974145 -4.2118282 9.3332815
3.1581278 -4.7406163 8.438693
3.8561821 -5.7754087 8.390954
0.24379021 -0.46664006 8.9444809
0.46894255 -0.82090342 8.7745152
1.2267803 -1.8871802 8.7036057
1.7813544 -2.7125661 8.8791285
2.284533 -3.4578679 8.6330729
2.8685808 -4.3271952 8.56215
3.4875638 -5.2470646 8.4174604
2.304409 -3.4604216 4.5853209
2.419838 -3.6077847 4.3487887
6.6564898 -9.9132824 9.7105007
6.8432927 -10.179981 8.1267653
10.889891 -16.175312 7.9666271
5.2093267 -7.7903185 8.4279737
6.3154149 -9.4337711 8.3498354
7.5709186 -11.300698 8.0788498
11.503555 -17.138432 7.273118
11.023042 -16.403999 2.848702
0.0152713 -0.087031066 8.7039413
0.74247569 -1.1732668 8.8268785
1.9868637 -3.0966644 17.712193
2.4582694 -3.7749197 14.448398
2.0370233 -3.1043363 8.8068485
2.7813773 -4.2195673 9.3288918
3.1415606 -4.7516112 8.438693
3.8359988 -5.7888341 8.390954
0.24215984 -0.4674882 8.9444809
0.46528748 -0.82114309 8.7596016
1.2201853 -1.8914509 8.7036057
1.7747015 -2.7231052 8.8932066
2.2640939 -3.4530776 8.6015644
2.8491583 -4.3306451 8.5493517
3.4675679 -5.2566919 8.4134712
2.2904468 -3.465616 4.581646
2.4072294 -3.6162095 4.3487887
6.6261625 -9.942935 9.7167778
6.8053951 -10.200328 8.1240244
10.874572 -16.2749 7.9965954
5.1676502 -7.7866788 8.4046946
6.3383665 -9.5399246 8.4234142
7.5290389 -11.323467 8.0763168
11.454133 -17.194201 7.2796912
10.946482 -16.413538 2.8438673
0.014967412 -0.087083846 8.7039413
0.74085379 -1.1798003 8.856514
1.9754956 -3.1027224 17.707298
2.4547987 -3.7985222 14.505661
2.0251086 -3.1097906 8.8022461
2.7653203 -4.2272468 9.3245029
3.1234114 -4.7601957 8.4345608
3.8087244 -5.7914772 8.3756046
0.24065758 -0.46858788 8.9494724
0.46372142 -0.82508719 8.7844582
1.2128979 -1.89464 8.6987658
1.7773672 -2.748121 8.9542122
2.2532136 -3.4627845 8.6060658
2.829747 -4.3340125 8.5365534
3.4442461 -5.2612 8.4015007
2.2783356 -3.4735901 4.581646
2.3985236 -3.6305416 4.3557982
6.5785317 -9.9465265 9.6979465
6.7674394 -10.220534 8.1212826
10.781826 -16.258669 7.9703732
15.621531 -23.503384 2.6265256
5.1322231 -7.7921968 8.3913927
6.6120839 -10.027667 8.8295698
7.4728465 -11.324492 8.0585842
10.447631 -15.814561 8.8494434
11.391439 -17.230139 7.278048
10.880921 -16.43926 2.8417952
0.014663341 -0.087135561 8.7039413
1.4760126 -2.3696227 17.747177
1.9641091 -3.1087382 17.7024
2.4423306 -3.8083248 14.510433
2.0131807 -3.1151996 8.7976437
2.7505476 -4.2368736 9.3245029
3.1067762 -4.7710695 8.4345608
3.7657115 -5.7698421 8.325716
0.2399316 -0.47122884 8.9844141
0.46057951 -0.82623494 8.7794867
1.206277 -1.8988622 8.6987658
1.7957246 -2.7978787 9.0949965
2.2434742 -3.4742863 8.6150684
2.8103468 -4.3372979 8.523756
3.4094446 -5.2479224 8.3615999
2.2643473 -3.4786808 4.5779705
2.3799698 -3.6299446 4.3452845
5.6146851 -8.5539532 8.3327188
6.7271299 -10.237107 8.1157999
10.717361 -16.28459 7.9647541
5.0968204 -7.7975621 8.3780909
6.712049 -10.257001 9.0091028
7.4025698 -11.303628 8.0256529
10.41476 -15.885092 8.8683252
11.313092 -17.242161 7.2665439
10.790847 -16.427473 2.8335071
0.014359091 -0.087186217 8.7039413
1.4685489 -2.3760827 17.757055
1.9527048 -3.1147125 17.697506
2.0022943 -3.1222081 8.7976437
2.7344449 -4.2444358 9.3201151
3.0885756 -4.7795215 8.4304276
3.689791 -5.6968632 8.2029161
0.23828524 -0.47206348 8.9844141
0.45794997 -0.82830447 8.7844582
1.1989713 -1.901998 8.6939278
1.8146825 -2.8492527 9.2404718
2.2419033 -3.4985926 8.6555796
2.7909582 -4.3405004 8.5109577
3.3649809 -5.2192707 8.29776
2.2521906 -3.4865634 4.5779705
2.3731191 -3.6471977 4.3557982
5.5847917 -8.5734997 8.3327188
6.6867867 -10.253521 8.1103172
8.2590771 -12.654846 7.9967399
10.635101 -16.283087 7.9460235
14.082369 -21.511909 2.4011979
5.0614429 -7.8027763 8.364789
6.6938162 -10.307487 9.0326481
7.3325291 -11.28241 7.9927216
11.242531 -17.265718 7.2599697
10.698282 -16.411112 2.8245282
0.014054668 -0.087235801 8.7039413
1.4553727 -2.373245 17.697786
1.940745 -3.1197803 17.687716
1.9903347 -3.1275299 8.7930412
2.718322 -4.2519369 9.3157253
3.0703542 -4.7879047 8.4262943
3.6785479 -5.7231898 8.2221041
0.23791961 -0.47547823 9.0343304
0.45480013 -0.82943022 8.7794867
1.1923246 -1.9061716 8.6939278
1.8111788 -2.8657815 9.2733212
2.2390218 -3.5210931 8.6915894
2.7729843 -4.345819 8.5024261
3.3451178 -5.2284465 8.2937698
2.2400064 -3.4944038 4.5779705
2.3700461 -3.6704392 4.3733211
5.5442657 -8.5765982 8.3170261
6.64641 -10.269779 8.1048336
8.2196684 -12.691035 8.0013771
10.555505 -16.285099 7.9291663
14.001766 -21.552582 2.4003036
5.0281129 -7.8109779 8.3548126
6.7103453 -10.412332 9.1032839
7.2790828 -11.2862 7.9775224
11.17194 -17.28899 7.2533956
10.605962 -16.394302 2.8155494
0.013750073 -0.087284334 8.7039413
1.4499062 -2.3829577 17.732361
1.9293088 -3.1256697 17.682821
1.9773194 -3.1311545 8.7838354
2.7008977 -4.2573552 9.3069468
3.0521119 -4.7962189 8.4221621
3.7050843 -5.8089595 8.325716
0.23740557 -0.47863713 9.0792551
0.45190212 -0.83101273 8.7794867
1.1856636 -1.910322 8.6939278
1.7993306 -2.8691621 9.2639351
2.2371719 -3.5454571 8.7320995
2.7564023 -4.3532681 8.4981604
3.3397667 -5.2604423 8.3256903
2.2259755 -3.499341 4.5742955
6.6060023 -10.28588 8.0993509
8.1322069 -12.652575 7.9596391
10.476024 -16.286755 7.9123087
15.054388 -23.350876 2.5871828
4.9967961 -7.8221884 8.3481617
6.6913805 -10.462934 9.1268291
7.2419658 -11.315171 7.9800558
11.111523 -17.327883 7.2533956
10.511217 -16.372883 2.8058798
0.013448497 -0.087375313 8.7089415
1.4407763 -2.3866739 17.722481
1.9226398 -3.1393318 17.721983
1.4336951 -2.3056285 8.7267885
1.9643029 -3.1347265 8.7746305
2.6847444 -4.26473 9.3025579
3.0338492 -4.8044643 8.4180288
3.7019262 -5.8489408 8.3640919
0.23699893 -0.48205769 9.1291723
0.44899857 -0.8325851 8.7794867
1.1789882 -1.914449 8.6939278
1.785658 -2.8695648 9.2451649
2.2328689 -3.5661609 8.763608
2.7398024 -4.3606553 8.4938936
3.3502946 -5.3179598 8.3975105
2.213747 -3.5070899 4.5742955
4.4760256 -7.0393867 8.2773857
6.4833665 -10.184594 9.8172083
6.5655627 -10.301825 8.0938683
8.0856094 -12.677149 7.9573207
10.396659 -16.288054 7.8954515
4.9634643 -7.8301215 8.3381844
6.0332284 -9.5067606 8.2821426
7.1978016 -11.333102 7.9749894
11.068716 -17.394451 7.2648997
10.427395 -16.36771 2.7989731
0.013143418 -0.087421723 8.7089415
1.4328357 -2.3923554 17.727423
1.9137844 -3.1495049 17.741564
1.4272057 -2.3131597 8.7363319
1.9512857 -3.1382461 8.7654257
2.6673036 -4.2700129 9.2937794
3.0170598 -4.8150249 8.4180288
3.6814871 -5.8618274 8.3640919
0.23644561 -0.48522127 9.1740971
0.44583878 -0.83367699 8.7745152
1.1722983 -1.9185529 8.6939278
1.7756305 -2.8757806 9.2451649
2.2181096 -3.570235 8.7546053
2.7231846 -4.367979 8.4896288
3.3301139 -5.3270669 8.3935204
2.199692 -3.5119226 4.5706201
4.4362025 -7.0308394 8.2493486
6.4997435 -10.289433 9.8956699
6.5250931 -10.317612 8.0883856
8.0413084 -12.705296 7.9573207
10.317414 -16.288998 7.8785944
4.932126 -7.8410783 8.3315334
6.9520254 -11.039541 9.5830193
7.1536026 -11.350866 7.9699235
11.063397 -17.520824 7.3010573
10.359612 -16.387264 2.7962103
0.01283818 -0.087467074 8.7089415
1.4240793 -2.3966742 17.722481
0.94664979 -1.5699209 8.8371449
1.4237982 -2.3257666 8.7649651
1.9351907 -3.1367245 8.7424126
2.6511204 -4.2772617 9.2893906
2.9987478 -4.8231373 8.4138956
3.6610031 -5.8746428 8.3640919
0.23587307 -0.48838678 9.2190218
0.44267675 -0.83475691 8.7695436
1.1655941 -1.9226332 8.6939278
1.7637784 -2.8790178 9.2357788
2.2033491 -3.5742493 8.7456026
2.707921 -4.3774581 8.4896288
3.3051455 -5.3284163 8.3775606
2.1874194 -3.5195796 4.5706201
4.4021711 -7.0311689 8.2318258
6.4823923 -10.34174 9.9239159
6.4845924 -10.333242 8.082902
10.23829 -16.289587 7.8617368
4.9007716 -7.8519125 8.3248825
6.9262996 -11.084309 9.6006784
7.1139364 -11.375768 7.9699235
11.087418 -17.695389 7.3569365
10.289189 -16.402353 2.792757
0.012532785 -0.087511353 8.7089415
1.4160992 -2.4023001 17.727423
0.93855107 -1.5688466 8.8126698
1.4172207 -2.3332741 8.7745094
1.9252496 -3.1451268 8.747015
2.6336651 -4.2824101 9.2806129
2.981894 -4.8335757 8.4138956
3.6387887 -5.8846602 8.3602543
0.23515747 -0.4912934 9.258955
0.43976021 -0.83629704 8.7695436
1.1588758 -1.9266902 8.6939278
1.7519256 -2.8822076 9.2263927
2.1908591 -3.5819187 8.7456026
2.6926241 -4.3868842 8.4896288
3.2786288 -5.3270893 8.3576097
2.1733413 -3.5243084 4.5669456
4.3794827 -7.0495214 8.2353306
6.499702 -10.450239 10.005516
6.4462729 -10.352265 8.0801611
10.161741 -16.293758 7.8467531
4.8694019 -7.8626227 8.3182316
5.9887242 -9.6587343 8.3586645
7.0719109 -11.396867 7.9673901
8.2297144 -13.247285 7.2968836
11.07794 -17.818199 7.3914499
10.216169 -16.412943 2.7886128
0.012227236 -0.087554567 8.7089415
1.4077049 -2.4072285 17.727423
0.93462777 -1.5747403 8.8273554
1.4021342 -2.3266997 8.7315607
1.9173015 -3.1568377 8.7608232
2.6149578 -4.2854433 9.2674456
2.9650033 -4.8439546 8.4138956
3.616549 -5.8945937 8.3564167
0.23479322 -0.49498466 9.3138628
0.43659246 -0.83735412 8.7645731
1.1521434 -1.9307237 8.6939278
1.7400718 -2.88535 9.2170076
2.1772132 -3.5876834 8.7411013
2.677295 -4.3962564 8.4896288
3.2521622 -5.3256431 8.3376598
2.1592567 -3.5289812 4.5632701
4.3548489 -7.0647655 8.2353306
6.4815817 -10.502674 10.033762
6.4057021 -10.367589 8.0746775
7.8868532 -12.754897 7.9364514
10.082848 -16.293652 7.8298955
4.838017 -7.87321 8.3115807
5.9867415 -9.7312202 8.402812
6.9981847 -11.366421 7.9293919
11.077658 -17.957235 7.432538
10.143203 -16.423225 2.7844689
0.011921539 -0.087596714 8.7089415
1.3992935 -2.4121277 17.727423
0.92912525 -1.5779932 8.8273554
1.3901744 -2.3251736 8.7077007
1.9153447 -3.1785715 8.8022461
2.5925415 -4.2822523 9.2411108
2.9466159 -4.8518701 8.4097624
3.594285 -5.9044442 8.3525801
0.23330797 -0.49632448 9.3238468
0.43366688 -0.83887303 8.7645731
1.1453968 -1.9347336 8.6939278
1.7282176 -2.8884449 9.2076225
2.1646767 -3.5952616 8.7411013
2.6619327 -4.4055748 8.4896288
3.2273068 -5.3266544 8.3217001
2.1451657 -3.5335989 4.5595946
4.3394647 -7.0951352 8.2528534
6.4530106 -10.538512 10.046316
6.3651028 -10.382757 8.0691948
7.8306999 -12.763471 7.9248576
10.006505 -16.297142 7.8149109
4.7949553 -7.8645458 8.284977
5.9337831 -9.7210083 8.3763237
6.8865538 -11.273061 7.8483305
8.1441364 -13.316032 7.3031783
11.076537 -18.096483 7.4736257
10.062528 -16.420532 2.7782528
0.011615697 -0.08763779 8.7089415
1.3908652 -2.4169974 17.727423
0.92463797 -1.5829852 8.8371449
1.3759583 -2.3197408 8.6695251
1.9122572 -3.198653 8.8390665
2.5467486 -4.2399478 9.1313839
2.9296618 -4.8621259 8.4097624
3.5736525 -5.916955 8.3525801
0.23205844 -0.49818417 9.3438129
0.43073604 -0.84038168 8.7645731
1.1392729 -1.939804 8.6987658
1.7172438 -2.8929758 9.2029295
2.1521137 -3.6027956 8.7411013
2.646538 -4.4148402 8.4896288
3.2009315 -5.3249745 8.3017502
2.1293199 -3.5352573 4.5522447
4.3331723 -7.140728 8.287899
6.4869184 -10.677402 10.156161
6.3244758 -10.397766 8.0637121
7.776886 -12.775591 7.9155822
9.9278488 -16.296339 7.7980537
4.7520137 -7.8556771 8.2583723
5.8851571 -9.7174597 8.3557215
6.7309723 -11.105331 7.7166052
8.0811234 -13.31722 7.2884922
11.067226 -18.223835 7.5097828
9.9845657 -16.421705 2.7727273
0.011309714 -0.087677807 8.7089415
1.3828049 -2.4225123 17.732361
0.91757578 -1.58356 8.8224602
1.3663385 -2.3219566 8.6599808
1.9100491 -3.2204318 8.8804893
2.4841199 -4.1685724 8.9602098
2.9112282 -4.8699069 8.4056292
3.5513291 -5.9266438 8.3487425
0.23067854 -0.4997786 9.3587885
0.42779991 -0.84188008 8.7645731
1.1331275 -1.944855 8.7036057
1.7001303 -2.8870561 9.1653872
2.1395245 -3.610286 8.7411013
2.6311111 -4.4240513 8.4896288
3.1807811 -5.3335276 8.29776
2.1152275 -3.5397582 4.5485692
4.3284545 -7.1894188 8.3264494
6.4817572 -10.753317 10.206376
6.2838211 -10.41262 8.0582294
7.718502 -12.779908 7.901669
9.8493223 -16.295189 7.7811971
4.7034278 -7.8370008 8.2217922
5.8158102 -9.6790438 8.3056879
6.7277117 -11.187869 7.7571363
8.0252247 -13.329793 7.2800999
11.064472 -18.363472 7.5508709
9.9067202 -16.422537 2.7672019
0.011005564 -0.087760337 8.7139416
1.3743402 -2.4273245 17.732361
0.91052073 -1.5841045 8.8077745
1.35973 -2.3292904 8.6695251
1.9057306 -3.2388663 8.9127064
2.4134896 -4.0823812 8.7583122
2.8942115 -4.8800397 8.4056292
3.5289817 -5.9362488 8.3449049
0.22929038 -0.50136954 9.3737631
0.42509785 -0.84384459 8.7695436
1.1275895 -1.9509752 8.7132845
1.6656712 -2.8512504 9.0339899
2.1202898 -3.6064725 8.7140951
2.6143274 -4.4309626 8.485363
3.1682816 -5.3549714 8.3137207
2.1011298 -3.5442038 4.5448942
4.3289342 -7.2473464 8.3755121
6.4761457 -10.829328 10.256593
6.2431397 -10.427316 8.0527458
7.6601839 -12.783975 7.8877568
9.7661533 -16.285734 7.7605939
4.6664925 -7.8373308 8.2051649
5.7468042 -9.6402636 8.2556543
6.7261634 -11.274219 7.8002005
7.9739914 -13.349932 7.2759037
11.041493 -18.470886 7.5788102
9.8264456 -16.418774 2.7609859
0.010699156 -0.087798215 8.7139416
1.3654786 -2.4314296 17.727423
1.7948488 -3.1486354 17.447851
1.3515909 -2.3340225 8.6695251
1.9032766 -3.260685 8.9541292
2.384685 -4.065989 8.7056427
2.8757327 -4.8876877 8.4014969
3.5066106 -5.9457703 8.3410673
0.2278939 -0.50295681 9.3887377
0.42214969 -0.84532326 8.7695436
1.1220225 -1.9570806 8.7229643
1.6306182 -2.8137469 8.8978996
2.1022043 -3.604449 8.6915894
2.5988445 -4.4400616 8.485363
3.1541457 -5.3737941 8.3256903
2.0870271 -3.5485945 4.5412188
4.3127003 -7.2777538 8.3930359
6.448235 -10.868605 10.272285
6.2024331 -10.441854 8.0472631
7.6109858 -12.80302 7.8831191
9.6855431 -16.279884 7.7418628
4.6391072 -7.8535719 8.2051649
5.7048888 -9.646349 8.2438812
6.814117 -11.512794 7.9471245
7.908833 -13.346449 7.259119
11.008265 -18.562117 7.6001759
9.748847 -16.418909 2.7554603
0.010392617 -0.087835029 8.7139416
1.3569831 -2.4361813 17.727423
0.90044165 -1.5921954 8.817565
1.3441789 -2.3400207 8.6742973
1.899714 -3.2808342 8.9909496
2.3680694 -4.0701489 8.6968651
2.858654 -4.8976965 8.4014969
3.4842162 -5.9552073 8.3372288
0.22648913 -0.50454038 9.4037132
0.41919637 -0.84679168 8.7695436
1.1170479 -1.9642632 8.7374811
1.5941274 -2.7730415 8.7524233
2.0841594 -3.6023433 8.6690826
2.5820205 -4.4468498 8.4810963
3.1399169 -5.3925834 8.3376598
2.0729187 -3.5529296 4.5375443
4.290885 -7.2989125 8.4000444
6.1617007 -10.456237 8.0417805
7.5414958 -12.787537 7.8576121
9.5956678 -16.2577 7.7156405
4.6135521 -7.8729391 8.2084904
5.6630006 -9.6522589 8.2321091
6.7804365 -11.547661 7.9547238
7.8598971 -13.370063 7.257021
11.010452 -18.714392 7.6461945
9.6688547 -16.414436 2.7492442
0.010087468 -0.087914385 8.7189417
1.3480952 -2.440223 17.722481
1.7489202 -3.1184587 17.212879
1.3360026 -2.3446984 8.6742973
1.903818 -3.3145516 9.0645895
2.3514531 -4.0742412 8.6880875
2.8401301 -4.9052095 8.3973646
3.4617984 -5.9645615 8.3333912
0.22519261 -0.50638455 9.4236803
0.41623798 -0.84824979 8.7695436
1.1114194 -1.9703403 8.7471609
1.5870023 -2.7830868 8.7665024
2.0672379 -3.6020443 8.6510782
2.5651805 -4.4535761 8.4768305
3.1225815 -5.4061208 8.34165
2.0588062 -3.55721 4.5338688
4.2725668 -7.326169 8.4140625
5.1279092 -8.782299 8.2825031
6.1209435 -10.470462 8.0362968
7.4274673 -12.695254 7.7857289
9.5224628 -16.263092 7.7025294
4.5879188 -7.8922234 8.2118158
5.6150408 -9.6475134 8.2115068
6.7509351 -11.589883 7.9673901
7.8177519 -13.405259 7.2612171
10.959342 -18.777182 7.656055
9.5890121 -16.409607 2.7430279
0.009780529 -0.08794906 8.7189417
1.339569 -2.4449136 17.722481
1.7256521 -3.1022983 17.090498
1.3270755 -2.348048 8.6695251
1.9115777 -3.3551269 9.1566401
2.3217483 -4.0554037 8.6310282
2.8229904 -4.9150934 8.3973646
3.4393578 -5.9738312 8.3295536
0.22377032 -0.50796109 9.4386549
0.4132745 -0.84969759 8.7695436
1.105762 -1.9764018 8.7568398
1.5772778 -2.7886095 8.7665024
2.0492671 -3.5997789 8.6285715
2.5496192 -4.4625034 8.4768305
3.0917077 -5.3960714 8.3097305
2.0446887 -3.5614345 4.5301933
4.230896 -7.3132563 8.3825216
5.0855169 -8.7799358 8.2636719
6.0801616 -10.484529 8.0308142
7.3208461 -12.613829 7.7208028
9.4516649 -16.272179 7.6912909
4.5640726 -7.9146595 8.2184668
5.5651622 -9.6390514 8.1879616
6.7061248 -11.605912 7.9623237
10.955249 -18.921576 7.6987867
9.5093212 -16.404419 2.7368119
0.0094722584 -0.087939039 8.7139416
1.3306556 -2.4488921 17.717543
1.716288 -3.1109781 17.105185
1.3225204 -2.3591769 8.6933851
1.9209995 -3.3991985 9.2578955
2.2933869 -4.0384922 8.5783606
2.8044233 -4.9224725 8.3932314
3.4168949 -5.983017 8.325716
0.22233982 -0.509534 9.4536295
0.4100751 -0.85065466 8.7645731
1.1006857 -1.9835472 8.7713585
1.5970829 -2.8467751 8.9307489
2.0324078 -3.5993273 8.6105671
2.5327406 -4.4691067 8.4725647
3.0639198 -5.3911109 8.2857895
2.0305669 -3.565604 4.5265183
4.2000165 -7.3187008 8.3720083
5.0528994 -8.79426 8.2605333
6.0393572 -10.498441 8.0253315
7.1198463 -12.366735 7.5561681
9.3855495 -16.289007 7.6837993
4.5327096 -7.9240603 8.2118158
5.5314822 -9.6584187 8.1879616
6.6591401 -11.618031 7.9547238
8.2729034 -14.416056 7.7710443
10.856207 -18.902372 7.675777
9.4297857 -16.398878 2.7305956
0.0091652358 -0.087971568 8.7139416
1.3213623 -2.4521537 17.707664
1.7049295 -3.1160567 17.100288
1.3092003 -2.354646 8.6599808
1.9033912 -3.395658 9.2302809
2.2675223 -4.0256052 8.5344687
2.7858393 -4.9297819 8.3890982
3.3944097 -5.9921188 8.3218784
0.22078732 -0.51083773 9.4636135
0.40710327 -0.85208088 8.7645731
1.0943612 -1.9884785 8.7761974
1.5678393 -2.8176486 8.8228159
2.0155766 -3.5988026 8.5925617
2.5171249 -4.4779205 8.4725647
3.0391643 -5.391274 8.2698298
2.0164411 -3.5697188 4.5228434
6.7272797 -11.818004 13.443087
5.0163889 -8.8016996 8.2511187
5.9985294 -10.512195 8.0198488
7.0634537 -12.368432 7.5422554
9.3171301 -16.301544 7.6744337
4.4958086 -7.9235969 8.1951876
5.4977341 -9.6776686 8.1879616
6.6121535 -11.629962 7.9471245
8.2247763 -14.44879 7.7731419
9.34795 -16.38868 2.7236891
0.0088571962 -0.087959409 8.7089415
1.3124286 -2.4560659 17.702724
1.6964699 -3.1264644 17.124765
2.3791611 -4.3147559 15.798869
2.2616329 -4.0481315 8.5651922
2.7672381 -4.9370208 8.3849649
3.3734725 -6.003931 8.3218784
0.2193412 -0.51240253 9.4785881
0.40412647 -0.85349673 8.7645731
1.0886176 -1.9944932 8.7858763
1.5454882 -2.8004403 8.7524233
2.0008879 -3.60201 8.583559
2.5002089 -4.4844012 8.4682989
3.0379725 -5.4334102 8.3177099
2.002311 -3.5737782 4.5191684
6.6772199 -11.825887 13.425565
4.9818034 -8.8123789 8.2448416
5.9576788 -10.52579 8.0143652
7.018054 -12.389159 7.5399365
9.2487383 -16.313803 7.6650686
11.509926 -20.28582 6.9456196
4.4644604 -7.932734 8.1885376
6.3726988 -11.309624 9.5359287
6.5672822 -11.645461 7.9420581
8.17206 -14.473459 7.7710443
9.2663002 -16.378107 2.7167821
0.0085501065 -0.087989792 8.7089415
1.30312 -2.459259 17.692846
2.3705308 -4.3348212 15.841817
1.7994609 -3.2634413 8.8390665
2.2521317 -4.0643821 8.5827494
2.7499878 -4.9466505 8.3849649
3.3524942 -6.0156703 8.3218784
0.21788687 -0.5139634 9.4935627
0.40137058 -0.85538495 8.7695436
1.0816488 -1.998281 8.7858763
1.5191346 -2.775542 8.6585684
1.9872521 -3.6070659 8.5790586
2.483278 -4.490819 8.4640322
3.0219107 -5.4492526 8.3256903
1.9881773 -3.5777822 4.5154929
6.630671 -11.839788 13.41505
4.9472051 -8.8229246 8.2385645
5.9168067 -10.53923 8.0088825
9.1803751 -16.325785 7.6557035
11.446103 -20.338415 6.9498491
12.743111 -22.60614 2.4226577
4.4240041 -7.9254484 8.1652584
6.3075471 -11.285932 9.4976673
6.5223832 -11.66079 7.9369917
8.117053 -14.493978 7.7668481
9.1799927 -16.358532 2.7084939
0.008242311 -0.087975472 8.7039413
1.2941662 -2.463105 17.687906
1.7057546 -3.1966245 17.442955
2.3625007 -4.3561916 15.889536
1.7768108 -3.2491329 8.7838354
2.2402372 -4.076416 8.591527
2.7313454 -4.9537554 8.3808317
3.331475 -6.0273356 8.3218784
0.21631338 -0.51525396 9.5035467
0.39860648 -0.85726452 8.7745152
1.5061444 -2.7747612 8.6397972
1.9736054 -3.6120706 8.5745573
2.467587 -4.4994597 8.4640322
3.0130355 -5.4782495 8.3536196
1.9740398 -3.5817311 4.5118175
6.5598636 -11.809862 13.355474
4.9125938 -8.8333378 8.2322884
5.8759136 -10.552513 8.0033998
7.1384044 -12.809324 7.7625413
9.1097822 -16.333435 7.644465
11.36101 -20.353113 6.9413891
12.761335 -22.824354 2.4405408
4.3963122 -7.9408422 8.1652584
6.2720327 -11.314951 9.5035543
6.4774566 -11.675947 7.9319253
8.0531874 -14.498418 7.7542591
9.1011591 -16.351534 2.7022779
0.0079351692 -0.088003702 8.7039413
1.2848427 -2.466229 17.678028
1.6974428 -3.2079594 17.472326
1.2769036 -2.3740106 8.664753
1.7971227 -3.3137066 8.9403219
2.2420397 -4.1136527 8.6529741
2.7140372 -4.9632597 8.3808317
3.3104157 -6.038928 8.3218784
0.2148435 -0.51680654 9.5185213
0.39583415 -0.85913503 8.7794867
1.4956317 -2.7784822 8.6351042
1.9620218 -3.6208515 8.5790586
2.4506199 -4.5057549 8.4597664
2.9938946 -5.4887338 8.3536196
1.9615253 -3.5886002 4.5118175
6.4910669 -11.78271 13.2994
4.87609 -8.8402071 8.2228727
5.8370214 -10.5693 8.000658
7.1043625 -12.853549 7.7741351
9.0392494 -16.340797 7.6332273
11.285249 -20.384253 6.9385691
4.377552 -7.9725046 8.1818867
6.2110786 -11.297812 9.471179
6.4325047 -11.690933 7.9268594
7.9959593 -14.514513 7.7479653
9.0392399 -16.374531 2.7008965
0.0076279305 -0.088030867 8.7039413
1.2787216 -2.4755318 17.712603
1.6933292 -3.2273901 17.545753
1.2721211 -2.3850391 8.6886129
1.8253329 -3.3939469 9.1382303
2.2436092 -4.1509509 8.7144213
2.6966956 -4.972703 8.3808317
3.2893157 -6.050447 8.3218784
0.21347454 -0.51862258 9.5384884
0.3932744 -0.8614819 8.7894306
0.5086531 -0.96340191 4.2319779
1.4851115 -2.7821639 8.6304121
1.9493707 -3.6276782 8.5790586
2.433639 -4.5119867 8.4555016
2.9732833 -5.4965005 8.3496294
1.9473711 -3.5924447 4.5081425
6.456737 -11.817814 13.313417
4.8395982 -8.8469296 8.2134571
5.7960749 -10.582275 7.9951754
7.0956511 -12.944306 7.8135552
8.9687748 -16.347864 7.6219888
11.193248 -20.385679 6.925879
4.3675523 -8.0205288 8.2151413
6.1696687 -11.315875 9.468236
6.387527 -11.705749 7.921793
7.9365416 -14.526405 7.739573
8.9748926 -16.392954 2.6988244
0.0073205992 -0.088056959 8.7039413
1.2686564 -2.4772139 17.692846
1.6848724 -3.2387013 17.575127
1.270068 -2.4013412 8.7315607
1.8263447 -3.4244318 9.2026653
2.2291059 -4.1587577 8.7144213
2.6779881 -4.9796071 8.3766994
3.2666547 -6.0590711 8.3180418
0.21198732 -0.52016753 9.553463
0.39048398 -0.86333537 8.7944021
0.50586987 -0.96628529 4.2368169
1.4753908 -2.7873309 8.6304121
1.9377196 -3.6363816 8.583559
2.4166443 -4.5181541 8.4512348
2.9526546 -5.5041909 8.3456402
1.9332143 -3.5962346 4.5044675
4.108295 -7.5821805 8.554244
4.8031192 -8.8535051 8.2040424
5.7571044 -10.598769 7.992434
7.0779281 -13.019589 7.843699
11.128901 -20.437263 6.930109
4.3572698 -8.0685768 8.2483959
6.1301312 -11.337342 9.468236
6.3425241 -11.72039 7.9167261
7.8793001 -14.542049 7.7332792
8.9034376 -16.398069 2.6946802
0.0070131784 -0.088081978 8.7039413
1.2642214 -2.4899416 17.752117
1.6763572 -3.2499928 17.604498
1.2589053 -2.4004717 8.7124729
1.8162067 -3.4342403 9.2118702
2.2123275 -4.1622829 8.7056427
2.6605899 -4.988925 8.3766994
3.2439735 -6.0676098 8.3142042
0.21049196 -0.52170849 9.5684376
0.38768542 -0.8651799 8.7993736
0.49670535 -0.95688766 4.1884232
1.4648503 -2.790936 8.6257191
1.9270484 -3.6469731 8.5925617
2.3996365 -4.5242586 8.446969
2.9334235 -5.5144639 8.3456402
1.9206494 -3.6029606 4.5044675
4.0767398 -7.5870509 8.5437307
4.7426796 -8.8153734 8.1538267
5.7161064 -10.611438 7.9869509
7.0261316 -13.032519 7.8367429
11.087126 -20.530859 6.9484396
4.3502307 -8.1232357 8.2883024
2.5149007 -4.6901717 3.9586399
6.2974963 -11.734861 7.9116597
7.8220472 -14.557471 7.7269855
8.8250141 -16.389809 2.6884642
0.0067056725 -0.088105917 8.7039413
1.2548237 -2.4929512 17.742239
1.6640753 -3.2540114 17.594707
1.2594697 -2.4220691 8.7745094
1.8042079 -3.4405591 9.2118702
2.1966684 -4.1678615 8.7012539
2.6418436 -4.9956942 8.3725662
3.2197711 -6.0732327 8.306529
0.20888211 -0.52297693 9.5784216
0.38466302 -0.86652792 8.7993736
0.48818764 -0.94855577 4.1448684
1.4543025 -2.7945013 8.621027
1.913296 -3.6517491 8.5880604
2.3838291 -4.5326071 8.446969
2.9127507 -5.5220046 8.34165
1.9064766 -3.6066458 4.500792
4.051908 -7.604382 8.5472355
4.6789012 -8.7700596 8.0973349
5.6750903 -10.623948 7.9814677
6.9743314 -13.045246 7.8297868
8.1956282 -15.316807 7.106905
11.099185 -20.725903 7.0006108
4.3376098 -8.1680508 8.3182316
2.4890256 -4.6810775 3.943924
6.2504206 -11.745356 7.9040608
7.7647815 -14.57267 7.7206907
8.7397594 -16.368093 2.680176
0.0063980846 -0.08812879 8.7039413
0.62045562 -1.2429876 8.8318176
1.6536273 -3.2616167 17.604498
1.2462199 -2.4171629 8.7411041
1.7876812 -3.438169 9.188858
2.1809974 -4.1733818 8.6968651
2.6230826 -5.0023932 8.368434
3.195569 -6.0787601 8.2988539
0.20726599 -0.52424043 9.5884047
0.38163593 -0.86786538 8.7993736
0.48316047 -0.94689482 4.1303501
1.4437479 -2.798027 8.616334
1.9065585 -3.6699967 8.6150684
2.366787 -4.538588 8.4427032
2.892061 -5.5294681 8.3376598
1.8938755 -3.6132786 4.500792
4.0103455 -7.5901012 8.5156946
4.6482596 -8.7863388 8.0973349
5.634057 -10.636305 7.9759851
6.924603 -13.061684 7.8251491
8.1377659 -15.33713 7.103159
11.123514 -20.946699 7.0612421
4.307332 -8.1798391 8.3149061
2.4726706 -4.6897373 3.943924
6.2053599 -11.759478 7.898994
7.7096257 -14.59166 7.7164941
11.02433 -20.847673 8.2970238
8.6478138 -16.332855 2.669816
0.0060904184 -0.088150583 8.7039413
0.61576861 -1.2444494 8.8268785
1.6431464 -3.2691886 17.614288
1.2336991 -2.4135232 8.7124729
1.7747737 -3.442652 9.1842556
2.1642127 -4.1767163 8.6880875
2.6056049 -5.0115194 8.368434
3.1728494 -6.0870357 8.2950163
0.20564356 -0.52549899 9.5983877
0.3786042 -0.86919218 8.7993736
0.47871795 -0.94633198 4.1206708
1.4339721 -2.8030496 8.616334
1.8967265 -3.6824355 8.6285715
2.3497322 -4.5445051 8.4384375
2.8713548 -5.5368547 8.3336697
1.8796881 -3.6168594 4.497117
3.9805164 -7.5977359 8.5086861
4.6157527 -8.7990637 8.0941963
5.5930066 -10.648503 7.9705024
6.8748446 -13.077933 7.8205113
8.0820217 -15.361341 7.1012859
11.119615 -21.11698 7.1049528
4.2666559 -8.1716557 8.2916279
2.4544125 -4.6947579 3.9409807
6.1602769 -11.773427 7.8939276
7.6523252 -14.606421 7.7102003
10.931755 -20.848391 8.2822323
8.5838432 -16.349789 2.6677439
0.0057826787 -0.088171311 8.7039413
0.61210477 -1.2479866 8.8367567
1.6330868 -3.2776384 17.628973
2.2986424 -4.5363021 16.304699
1.7618567 -3.4470863 9.1796532
2.1474311 -4.1799846 8.6793089
2.5868065 -5.0180831 8.3643007
3.1501107 -6.0952263 8.2911787
0.2040149 -0.52675265 9.6083708
0.37556782 -0.87050855 8.7993736
0.4737221 -0.94462603 4.106153
1.4233984 -2.8064988 8.6116409
1.8987108 -3.7181156 8.6960897
2.3338547 -4.55268 8.4384375
2.8520103 -5.546844 8.3336697
1.8670515 -3.6233988 4.497117
3.9457512 -7.5957599 8.4911623
4.5850105 -8.8151226 8.0941963
5.5538712 -10.664252 7.9677606
6.825057 -13.093995 7.8158736
8.0133419 -15.360687 7.0881748
11.112443 -21.283237 7.147254
4.27072 -8.2495003 8.3548126
2.4324293 -4.6925311 3.9321513
6.1151719 -11.787205 7.8888612
7.5950165 -14.620962 7.7039065
10.869805 -20.907372 8.2904501
8.5129986 -16.353296 2.6636
0.0054748678 -0.088190958 8.7039413
0.60638672 -1.2473201 8.8169994
1.6234391 -3.2869711 17.648556
2.2854738 -4.549634 16.323786
1.7453983 -3.4445014 9.1566401
2.1306534 -4.1831865 8.6705303
2.5679936 -5.0245762 8.3601675
3.1273537 -6.103333 8.2873421
0.20237997 -0.52800137 9.6183548
0.37252691 -0.87181419 8.7993736
0.46930325 -0.94402254 4.0964737
1.4135932 -2.8114502 8.6116409
1.8994859 -3.7519126 8.7591066
2.3179486 -4.5607986 8.4384375
2.8312621 -5.554081 8.3296804
1.8528497 -3.6268747 4.4934416
3.9159472 -7.6031456 8.4841537
4.5524278 -8.8276138 8.0910578
5.5127749 -10.676143 7.9622774
6.7732077 -13.105934 7.8089175
7.9532843 -15.376211 7.0825553
11.108655 -21.45822 7.1923752
6.0321059 -11.752216 11.846588
2.4123392 -4.6938028 3.9262648
6.0700464 -11.800814 7.8837953
7.5376992 -14.635279 7.6976118
10.766468 -20.886423 8.2674408
8.4422359 -16.356508 2.6594558
0.0051669907 -0.088209532 8.7039413
0.60304028 -1.2515295 8.8318176
1.6124029 -3.2935324 17.65345
2.2729053 -4.5642648 16.347647
1.7316105 -3.4470818 9.1474352
2.1117206 -4.1820469 8.6529741
2.5504389 -5.0335093 8.3601675
3.10603 -6.114212 8.2873421
0.20073886 -0.52924514 9.6283379
0.36948144 -0.87310928 8.7993736
0.46489444 -0.94339973 4.0867953
1.4037708 -2.8163676 8.6116409
1.9000479 -3.7857594 8.8221235
2.3020144 -4.568862 8.4384375
2.8118577 -5.56393 8.3296804
1.8401783 -3.6333203 4.4934416
3.8569474 -7.5532465 8.4140625
4.5215859 -8.8434505 8.0910578
5.471664 -10.687877 7.9567952
6.7233777 -13.121612 7.8042798
7.8889866 -15.383256 7.0731902
11.101589 -21.629164 7.2360859
5.9741125 -11.739923 11.813332
2.3922701 -4.6949925 3.9203787
6.0248995 -11.814249 7.8787289
7.4783115 -14.645334 7.6892204
10.659112 -20.856602 8.2411442
8.369298 -16.355019 2.6546209
0.0048590503 -0.088227026 8.7039413
0.59866798 -1.2536268 8.8318176
1.6022298 -3.3018885 17.668135
1.7160841 -3.4461095 9.1290245
2.0971096 -4.1893926 8.6529741
2.53159 -5.0398669 8.3560343
3.0832269 -6.1221542 8.2835045
0.19909146 -0.53048372 9.6383209
0.3666369 -0.87488556 8.8043451
0.46049571 -0.94275761 4.077116
1.3939313 -2.8212504 8.6116409
1.9013661 -3.8216045 8.8896418
2.286052 -4.57687 8.4384375
2.7910688 -5.5710168 8.3256903
1.8274844 -3.6397216 4.4934416
3.8047864 -7.5157552 8.3579903
4.4766107 -8.8314056 8.0659494
5.4324307 -10.703184 7.9540534
6.6715145 -13.133151 7.7973228
7.8247352 -15.390038 7.0638251
11.07171 -21.757568 7.265697
5.9179606 -11.730702 11.783402
2.3722219 -4.6960983 3.9144921
5.9777884 -11.823667 7.871129
7.4209938 -14.659201 7.6829257
10.586244 -20.893682 8.2411442
8.2942333 -16.348804 2.6490955
0.0045510512 -0.088243455 8.7039413
0.59495264 -1.2571136 8.8416958
1.5893707 -3.3047085 17.65345
1.6781037 -3.3995225 8.9909496
2.0856664 -4.2031231 8.6661415
2.5139821 -5.0486727 8.3560343
3.0618377 -6.1328793 8.2835045
0.19743788 -0.5317173 9.648304
0.36358076 -0.87615997 8.8043451
0.45610717 -0.94209647 4.0674376
1.3840748 -2.8260989 8.6116409
1.9005318 -3.8536005 8.9481583
2.270062 -4.5848217 8.4384375
2.7716053 -5.5807257 8.3256903
1.8132578 -3.6430438 4.4897671
3.7625322 -7.4971166 8.3229446
4.4335222 -8.8226337 8.0439806
5.3912768 -10.71461 7.9485703
6.6216464 -13.148448 7.792686
7.7605329 -15.396557 7.05446
11.028104 -21.860327 7.2868471
5.8619456 -11.721233 11.753473
2.3540053 -4.7007365 3.9115491
5.9326172 -11.836753 7.8660626
7.3636718 -14.672847 7.6766315
8.2193155 -16.342266 2.6435702
0.0042429958 -0.088258803 8.7039413
0.59122038 -1.26059 8.8515739
1.5804536 -3.3157516 17.682821
0.57064891 -1.1763014 4.2268081
1.6336012 -3.3386738 8.8160534
2.0720391 -4.2125273 8.6705303
2.4950981 -5.054894 8.351902
3.0389895 -6.1406569 8.2796669
0.19587688 -0.53321713 9.6632795
0.36072215 -0.87791699 8.8093157
0.45172882 -0.94141597 4.0577583
1.3742014 -2.8309131 8.6116409
1.9023647 -3.8915038 9.0201778
2.2528949 -4.5903764 8.4341707
2.7507772 -5.5876632 8.3217001
1.8005302 -3.6493511 4.4897671
3.7395165 -7.5165906 8.3299541
4.3974919 -8.8276033 8.034565
5.3519773 -10.729622 7.9458289
6.5697732 -13.159591 7.7857289
7.6963816 -15.402819 7.045095
11.043994 -22.083178 7.3474784
5.8110452 -11.721553 11.733521
2.3339882 -4.701684 3.9056628
5.8874269 -11.849669 7.8609967
7.3063445 -14.686271 7.6703377
8.1445427 -16.335402 2.6380446
0.0039333594 -0.088316679 8.7089415
0.58681649 -1.2626461 8.8515739
0.78184885 -1.6547869 8.8224602
0.56459957 -1.1742501 4.212492
1.6065934 -3.3127143 8.7332087
2.0583718 -4.2218876 8.6749191
2.4762013 -5.0610452 8.3477688
3.0161245 -6.1483502 8.2758293
0.19430774 -0.53471243 9.6782541
0.35745519 -0.87867689 8.8043451
0.44736081 -0.94071656 4.04808
1.3643113 -2.8356926 8.6116409
1.9143972 -3.9510164 9.1417103
2.2357168 -4.5958667 8.4299049
2.731256 -5.5972314 8.3217001
1.7877805 -3.6556139 4.4897671
3.7085242 -7.5200033 8.3194399
4.3614807 -8.8324299 8.0251493
5.3107839 -10.740742 7.9403458
6.5218329 -13.178473 7.7834105
7.6322794 -15.408818 7.0357294
10.990279 -22.168869 7.3629889
5.7651534 -11.731712 11.723543
2.3157773 -4.7061758 3.9027195
5.8422184 -11.862413 7.8559299
7.2510204 -14.703545 7.6661415
8.0699196 -16.328217 2.6325192
0.0036250527 -0.088329867 8.7089415
0.578183 -1.2555107 8.787364
0.77304661 -1.6510506 8.7881937
0.55215228 -1.1586945 4.1504564
1.6246403 -3.3799312 8.8942957
2.043622 -4.2290468 8.6749191
2.4585199 -5.0696578 8.3477688
2.993243 -6.1559582 8.2719917
0.19282745 -0.5364753 9.6982212
0.35478294 -0.88090855 8.8142872
0.44300315 -0.93999803 4.0384007
1.3544046 -2.8404377 8.6116409
1.8939974 -3.9439378 9.1102009
2.218528 -4.601294 8.4256392
2.7103891 -5.6040182 8.3177099
1.7735306 -3.6587813 4.4860916
3.7041774 -7.5777574 8.3685036
4.3562908 -8.9000406 8.0722265
5.2714195 -10.75546 7.9376044
6.467988 -13.18525 7.7741351
7.5682311 -15.41456 7.0263643
5.7127223 -11.728268 11.700265
2.2975636 -4.7105975 3.8997765
5.7969933 -11.874987 7.8508635
7.1936712 -14.716533 7.6598468
7.9976239 -16.325157 2.6276846
0.0033167016 -0.088341989 8.7089415
0.57476395 -1.2596421 8.8021812
0.76942056 -1.6583575 8.8126698
0.54810429 -1.1606148 4.1504564
1.6136725 -3.3873456 8.8988991
2.0288475 -4.2361546 8.6749191
2.4395895 -5.0756726 8.3436356
2.9703448 -6.1634817 8.2681541
0.19133718 -0.53823435 9.7181873
0.35111538 -0.88065559 8.7993736
0.43918762 -0.94039953 4.0335612
1.3444813 -2.8451483 8.6116409
1.8381224 -3.8620687 8.9076471
2.2013288 -4.606657 8.4213734
2.6895089 -5.6107278 8.3137207
1.7607481 -3.6649497 4.4860916
3.7538962 -7.7479029 8.5402269
4.3251977 -8.9151926 8.0722265
5.2301898 -10.766273 7.9321218
6.4432306 -13.25157 7.7996421
7.5062633 -15.424209 7.0188723
2.2811065 -4.7185888 3.8997765
5.7536287 -11.891269 7.8483305
7.1363211 -14.7293 7.653553
7.9232845 -16.317335 2.622159
12.19206 -25.086262 1.2188126
0.0030083105 -0.088353023 8.7089415
1.1461304 -2.5362298 17.692846
0.76362705 -1.6610332 8.8126698
0.54151964 -1.1571126 4.1313686
1.6301941 -3.4530256 9.0553846
2.0130212 -4.2410469 8.6705303
2.4206471 -5.0816169 8.3395023
2.9474308 -6.1709199 8.2643166
0.18983699 -0.53998953 9.7381544
0.3494049 -0.88534832 8.8341742
0.43484709 -0.93964517 4.0238829
1.33381 -2.8482611 8.6069479
1.7828424 -3.7798591 8.7050924
2.1830025 -4.6095986 8.4128418
2.6673214 -5.6146383 8.3057404
1.7479444 -3.6710737 4.4860916
3.7530711 -7.8156099 8.599803
4.3412786 -9.0284557 8.1601028
5.1889486 -10.77693 7.9266386
6.396935 -13.27398 7.7996421
7.4443216 -15.433617 7.0113807
2.2628753 -4.7228775 3.8968334
5.7083583 -11.903507 7.8432646
7.0789695 -14.741848 7.6472592
10.033851 -20.876715 8.1507521
7.8512459 -16.31366 2.6173241
12.123932 -25.169176 1.2206264
0.0026998825 -0.088362984 8.7089415
1.1372703 -2.5402153 17.692846
0.75613666 -1.659982 8.7930889
0.53559387 -1.154933 4.1170521
1.6222701 -3.4675431 9.0783978
1.9971855 -4.2458806 8.6661415
2.402894 -5.0900354 8.3395023
2.9245009 -6.1782742 8.260479
0.18804491 -0.54092181 9.7431459
0.34573218 -0.88507223 8.8192587
0.43104079 -0.94001472 4.019043
1.3238596 -2.8528998 8.6069479
1.8000544 -3.8511407 8.853632
2.1668987 -4.6171908 8.4128418
2.6451397 -5.6184626 8.29776
1.7351192 -3.6771529 4.4860916
3.7456894 -7.8705258 8.6453629
4.3264818 -9.0786915 8.1914883
5.147697 -10.787429 7.9211555
6.4040179 -13.408152 7.8645682
7.3844037 -15.446958 7.0057611
2.2463756 -4.7307477 3.8968334
5.6630712 -11.915573 7.8381977
7.0235667 -14.758272 7.6430626
9.9223328 -20.83061 8.119525
7.7771974 -16.305208 2.611799
12.042458 -25.224867 1.2212309
0.0023914215 -0.088371873 8.7089415
1.1283964 -2.5441694 17.692846
0.75117505 -1.6644675 8.8028784
0.52969009 -1.1527261 4.1027365
1.6093345 -3.4714124 9.0737953
1.9803292 -4.2484851 8.6573639
2.3839197 -5.0958433 8.3353691
2.9029169 -6.1884446 8.260479
0.18634169 -0.54212159 9.75313
0.34302387 -0.88726854 8.8292027
0.42723727 -0.94036913 4.0142035
1.3131722 -2.8559356 8.6022549
1.8085568 -3.90481 8.9616613
2.1496689 -4.6223621 8.408576
2.6229634 -5.6222 8.2897797
1.7237091 -3.6862581 4.4897671
3.7166722 -7.8803272 8.6418581
4.294765 -9.0937386 8.1914883
5.1064348 -10.797771 7.9156728
6.3856044 -13.490484 7.8993506
7.3244843 -15.460072 7.0001421
3.9365997 -8.3769493 8.3248825
2.2298486 -4.7385602 3.8968334
5.6177697 -11.927467 7.8331313
6.9662008 -14.770386 7.6367688
9.8394804 -20.843767 8.1113071
7.7054205 -16.300919 2.6069641
0.0020829313 -0.088379689 8.7089415
1.1179464 -2.5445356 17.66815
1.4923239 -3.3385022 17.604498
0.52380818 -1.1504923 4.0884204
1.9634786 -4.2510233 8.6485853
2.3661172 -5.1041336 8.3353691
2.8799467 -6.1956334 8.2566423
0.18463233 -0.54331589 9.7631121
0.68098599 -1.783017 17.758022
0.42395216 -0.94185472 4.0142035
1.3031951 -2.860502 8.6022549
1.8285097 -3.9843063 9.1282063
2.1335208 -4.6298375 8.408576
2.6007936 -5.6258512 8.2818003
1.7108312 -3.6922526 4.4897671
3.699712 -7.9158688 8.6663895
4.271245 -9.1263018 8.20718
5.0633893 -10.804172 7.9074488
6.342237 -13.520714 7.9039884
7.2665339 -15.477153 6.9963961
5.4472709 -11.697562 11.573896
2.211586 -4.7426515 3.8938901
5.5724545 -11.939193 7.8280649
6.9107566 -14.786389 7.6325727
9.7466545 -20.835215 8.0948725
7.6316667 -16.29184 2.6014385
0.0017744162 -0.088386416 8.7089415
1.1106074 -2.5519853 17.692846
1.4831343 -3.349277 17.633869
0.51794839 -1.1482314 4.0741048
1.947631 -4.2556729 8.6441965
2.3471119 -5.1098046 8.3312368
2.8569615 -6.2027378 8.2528048
0.1828258 -0.544231 9.7681036
0.67400533 -1.7833881 17.738136
0.42015025 -0.94218075 4.0093646
1.2932023 -2.8650334 8.6022549
1.8190957 -4.0005732 9.150712
2.1184299 -4.6396289 8.4128418
2.5773754 -5.626677 8.2698298
1.6979322 -3.6982019 4.4897671
3.7290087 -8.0517054 8.7995634
