# .PCD v0.7 - Point Cloud Data file format
VERSION 0.7
FIELDS x y z
SIZE 4 4 4
TYPE F F F
COUNT 1 1 1
WIDTH 1408
HEIGHT 1
VIEWPOINT 0 0 0 1 0 0 0
POINTS 1408
DATA ascii
-0.84759086 -0.27984065 0.35230598
-0.84885323 -0.28058061 0.26120901
-0.83189875 -0.27529079 0.17161468
-0.91558808 -0.29878935 0.93894702
-0.88996017 -0.29093257 0.76531059
-0.88665187 -0.29018575 0.6338371
-0.87221545 -0.28595918 0.51178247
-0.87543464 -0.28734481 0.40982375
-0.84056133 -0.27621624 0.30411482
-0.8325423 -0.27373686 0.21444833
-0.83495444 -0.27484483 0.12913485
-0.088045292 0.0088725155 8.7189417
-1.2894566 -0.38507271 8.5552187
-1.5078374 -0.46073934 7.603548
-1.1537023 -0.36110061 3.9118571
-1.0625924 -0.33662111 2.6854911
-1.0202459 -0.32552999 2.0298538
-0.97603369 -0.31290647 1.5779986
-0.93853933 -0.30195525 1.2570338
-0.49633867 -0.10270899 8.6050472
-0.89674067 -0.2209053 8.5706835
-1.3077735 -0.40308172 5.3063297
-1.1255907 -0.35270628 3.2618873
-1.0352062 -0.32753032 2.3088672
-1.0081635 -0.32069379 1.8006437
-0.94690287 -0.30246648 1.3910279
-0.9406122 -0.3013463 1.1490422
-0.91983616 -0.29805061 1.0299838
-0.89512485 -0.29055241 0.84122264
-0.88883686 -0.28901541 0.69739258
-0.87751311 -0.28566453 0.56962395
-0.86469656 -0.28181854 0.45576534
-0.84856248 -0.27688029 0.35230598
-0.84982747 -0.27761585 0.26120901
-0.83285463 -0.27238524 0.17161468
-0.91307187 -0.29444581 0.93562156
-0.89097035 -0.28782427 0.76531059
-0.88765943 -0.28708899 0.6338371
-0.87320828 -0.28291285 0.51178247
-0.87643236 -0.28428724 0.40982375
-0.84152043 -0.27328047 0.30411482
-0.83349276 -0.27082908 0.21444833
-0.83115786 -0.27038312 0.12893331
-0.088013791 0.009179797 8.7189417
-1.2915382 -0.3807888 8.5601578
-1.4909142 -0.44988802 7.5105391
-1.156382 -0.35751194 3.9166293
-1.063761 -0.33290988 2.6854911
-1.0190917 -0.32124695 2.025465
-0.97443724 -0.30864808 1.5738657
-0.93653291 -0.29770651 1.2531964
-0.49641109 -0.10091925 8.6000557
-0.89750636 -0.21777375 8.5706835
-1.3043622 -0.39705098 5.286972
-1.1251664 -0.34826505 3.2571945
-1.0363432 -0.32391477 2.3088672
-1.0043005 -0.31560943 1.7921119
-0.94795287 -0.29915932 1.3910279
-0.94165838 -0.2980611 1.1490422
-0.92087096 -0.29483795 1.0299838
-0.8961336 -0.28742608 0.84122264
-0.88585925 -0.28463212 0.69465113
-0.87850487 -0.28259972 0.56962395
-0.86567503 -0.27879846 0.45576534
-0.84952384 -0.27391657 0.35230598
-0.85079134 -0.27464771 0.26120901
-0.83380038 -0.26947635 0.17161468
-0.91409415 -0.29125679 0.93562156
-0.89196962 -0.28471246 0.76531059
-0.88865614 -0.28398871 0.6338371
-0.87419057 -0.27986306 0.51178247
-0.87741929 -0.28122619 0.40982375
-0.84246922 -0.27034134 0.30411482
-0.83443308 -0.26791799 0.21444833
-0.83209658 -0.26748019 0.12893331
-0.087938331 0.0094788568 8.7139416
-1.2928596 -0.37627819 8.5601578
-1.4797893 -0.44090393 7.4469013
-1.1576228 -0.35347325 3.9166293
-1.0649166 -0.32919466 2.6854911
-1.01792 -0.3169758 2.0210757
-0.97282308 -0.30440471 1.5697327
-0.94062448 -0.2953957 1.2570338
-0.49676034 -0.099185839 8.6000557
-0.89826101 -0.21463954 8.5706835
-1.2949059 -0.38924089 5.2434173
-1.1247249 -0.34383115 3.2525017
-1.0374675 -0.3202953 2.3088672
-1.0029052 -0.31132886 1.7878458
-0.9461146 -0.29495195 1.3870379
-0.93945724 -0.29376075 1.145367
-0.92189449 -0.29162171 1.0299838
-0.89342093 -0.2831206 0.83808416
-0.88684738 -0.28153816 0.69465113
-0.87948596 -0.27953142 0.56962395
-0.86664295 -0.27577499 0.45576534
-0.85047483 -0.27094951 0.35230598
-0.85174483 -0.27167621 0.26120901
-0.83473599 -0.26656422 0.17161468
-0.91510522 -0.28806424 0.93562156
-0.88910311 -0.28038171 0.76236743
-0.88553119 -0.2795873 0.63130391
-0.87083483 -0.27544132 0.50968438
-0.87389374 -0.27673623 0.40818024
-0.83877438 -0.26593003 0.30294251
-0.83536315 -0.26500365 0.21444833
-0.83302522 -0.26457399 0.12893331
-0.087904707 0.0097857611 8.7139416
-1.2934183 -0.37154865 8.5552187
-1.4822961 -0.43602297 7.4517965
-1.1574203 -0.3489995 3.9118571
-1.0660591 -0.32547539 2.6854911
-1.0190203 -0.31342071 2.0210757
-0.97119111 -0.30017632 1.5655998
-0.94164985 -0.29211053 1.2570338
-0.49710351 -0.097451217 8.6000557
-0.89900482 -0.21150272 8.5706835
-1.2974616 -0.38507584 5.2482567
-1.124266 -0.33940449 3.2478089
-1.0385792 -0.31667191 2.3088672
-1.0014923 -0.30706191 1.7835798
-0.94713837 -0.29164761 1.3870379
-0.93723774 -0.28947937 1.1416919
-0.91950285 -0.28733844 1.0264792
-0.89440376 -0.28000027 0.83808416
-0.88782477 -0.27844074 0.69465113
-0.87623 -0.27513286 0.56730521
-0.86317772 -0.27135798 0.45389232
-0.8514154 -0.26797915 0.35230598
-0.85268795 -0.26870143 0.26120901
-0.83566135 -0.26364881 0.17161468
-0.91253978 -0.28375968 0.93229604
-0.8900764 -0.27727646 0.76236743
-0.88650173 -0.2764945 0.63130391
-0.87179101 -0.27239984 0.50968438
-0.87485445 -0.27368408 0.40818024
-0.83969754 -0.26300052 0.30294251
-0.83155769 -0.26060522 0.21375765
-0.83394367 -0.26166457 0.12893331
-0.087870017 0.010092546 8.7139416
-1.2947074 -0.36703154 8.5552187
-1.476964 -0.42886001 7.4175301
-1.1572008 -0.34453154 3.9070849
-1.0690594 -0.32231587 2.6900938
-1.0201081 -0.30986172 2.0210757
-0.97223294 -0.29678443 1.5655998
-0.94572848 -0.2897605 1.2608713
-0.49744067 -0.095715404 8.6000557
-0.90025705 -0.20848295 8.575655
-1.298798 -0.38054451 5.2482567
-1.1237903 -0.33498535 3.2431161
-1.0396783 -0.31304464 2.3088672
-1.0000618 -0.30280864 1.7793139
-0.94815063 -0.2883397 1.3870379
-0.93175709 -0.28422821 1.1343416
-0.92050022 -0.28412706 1.0264792
-0.89537573 -0.27687651 0.83808416
-0.88879126 -0.27533999 0.69465113
-0.87718499 -0.27207255 0.56730521
-0.86411971 -0.26834327 0.45389232
-0.84776491 -0.2635814 0.35089597
-0.84893048 -0.26426339 0.26027638
-0.83657658 -0.26073021 0.17161468
-0.91352469 -0.28057259 0.93229604
-0.88717556 -0.27297929 0.75942427
-0.88746154 -0.27339834 0.63130391
-0.87273651 -0.26935509 0.50968438
-0.87129271 -0.26923457 0.40653673
-0.8406105 -0.26006785 0.30294251
-0.83246225 -0.25770095 0.21375765
-0.83962399 -0.26023099 0.12913485
-0.087834246 0.010399208 8.7139416
-1.2959807 -0.36250991 8.5552187
-1.4725789 -0.42201993 7.3881583
-1.1583964 -0.34049007 3.9070849
-1.070178 -0.31858221 2.6900938
-1.0211835 -0.30629903 2.0210757
-0.97326303 -0.29338887 1.5655998
-0.94673413 -0.28645754 1.2608713
-0.49777174 -0.093978427 8.6000557
-0.90149921 -0.20545703 8.5806274
-1.2989109 -0.37565956 5.2434173
-1.1232971 -0.33057359 3.2384233
-1.0407647 -0.30941358 2.3088672
-0.99611509 -0.2978223 1.7707821
-0.9462654 -0.2841619 1.3830478
-0.92949742 -0.27999645 1.1306664
-0.92148644 -0.28091216 1.0264792
-0.89633673 -0.27374938 0.83808416
-0.88574845 -0.2710126 0.69190961
-0.87812942 -0.26900896 0.56730521
-0.86505109 -0.26532531 0.45389232
-0.84867978 -0.26062053 0.35089597
-0.84984779 -0.26129848 0.26027638
-0.83748156 -0.25780842 0.17161468
-0.91449851 -0.27738211 0.93229604
-0.88812298 -0.26988083 0.75942427
-0.88841039 -0.27029887 0.63130391
-0.87367147 -0.26630703 0.50968438
-0.87222719 -0.26619157 0.40653673
-0.83686471 -0.2557117 0.30177018
-0.83335674 -0.25479355 0.21375765
-0.84052724 -0.25729859 0.12913485
-0.087797418 0.010705743 8.7139416
-1.2972382 -0.35798392 8.5552187
-1.4691437 -0.41549259 7.3636823
-1.1595778 -0.33644441 3.9070849
-1.073158 -0.3153953 2.6946962
-1.0222465 -0.30273253 2.0210757
-0.97428119 -0.28998977 1.5655998
-0.95079952 -0.28406835 1.2647089
-0.49809676 -0.092240311 8.6000557
-0.90273118 -0.20242497 8.5855989
-1.3002143 -0.37112322 5.2434173
-1.122787 -0.32616937 3.2337308
-1.0418384 -0.30577874 2.3088672
-0.99464726 -0.29360527 1.7665161
-0.94725156 -0.28085709 1.3830478
-0.92721963 -0.27578396 1.1269913
-0.9190464 -0.27666607 1.0229747
-0.89356023 -0.26949519 0.83494574
-0.88668907 -0.26791912 0.69190961
-0.87906301 -0.26594207 0.56730521
-0.86597198 -0.2623041 0.45389232
-0.84499377 -0.25626439 0.34948593
-0.85075474 -0.25833035 0.26027638
-0.8383764 -0.2548835 0.17161468
-0.91546118 -0.27418822 0.93229604
-0.88905966 -0.26677904 0.75942427
-0.88521999 -0.2659559 0.62877071
-0.87024975 -0.26194772 0.5075863
-0.87315106 -0.2631453 0.40653673
-0.83775222 -0.25278893 0.30177018
-0.83424109 -0.25188303 0.21375765
-0.83663803 -0.25291735 0.12893331
-0.08775951 0.011012148 8.7139416
-1.2992296 -0.35365736 8.5601578
-1.4656812 -0.40899444 7.3392057
-1.1535698 -0.33034122 3.8832252
-1.0742525 -0.31164733 2.6946962
-1.0209982 -0.29849061 2.0166867
-0.97798747 -0.28738025 1.5697327
-0.95178527 -0.28074771 1.2647089
-0.4986999 -0.090551689 8.6050472
-0.90395296 -0.19938681 8.5905704
-1.3015018 -0.36658239 5.2434173
-1.1222597 -0.32177275 3.2290378
-1.0428995 -0.30214021 2.3088672
-0.99566603 -0.29013151 1.7665161
-0.94533414 -0.27670261 1.3790579
-0.92817664 -0.27254567 1.1269913
-0.92000657 -0.27345634 1.0229747
-0.89449555 -0.26637447 0.83494574
-0.8876189 -0.26482236 0.69190961
-0.87574148 -0.26160416 0.56498641
-0.86688232 -0.2592797 0.45389232
-0.84588313 -0.25331327 0.34948593
-0.84694594 -0.25394833 0.25934377
-0.839261 -0.25195545 0.17161468
-0.91641271 -0.270991 0.93229604
-0.88610989 -0.26252607 0.75648111
-0.88614297 -0.26286429 0.62877071
-0.87115884 -0.25890839 0.5075863
-0.87406427 -0.26009583 0.40653673
-0.8339712 -0.2484753 0.30059788
-0.83511525 -0.24896945 0.21375765
-0.83751571 -0.2499954 0.12893331
-0.087720536 0.011318418 8.7139416
-1.3004563 -0.34912008 8.5601578
-1.4651364 -0.40333566 7.3294158
-1.1360409 -0.32103863 3.8211894
-1.0734555 -0.30735806 2.6900938
-1.0220339 -0.29492486 2.0166867
-0.97898471 -0.28396466 1.5697327
-0.94968194 -0.27652779 1.2608713
-0.49929738 -0.08885999 8.6100397
-0.90516454 -0.1963426 8.595542
-1.3015623 -0.36170071 5.2385783
-1.120055 -0.31691423 3.2196524
-1.0439477 -0.29849795 2.3088672
-0.99416614 -0.28593358 1.7622502
-0.94339931 -0.27256498 1.3750678
-0.92586607 -0.26836053 1.123316
-0.92095548 -0.27024323 1.0229747
-0.8954199 -0.26325047 0.83494574
-0.88853782 -0.26172239 0.69190961
-0.87664932 -0.25854567 0.56498641
-0.86778212 -0.25625211 0.45389232
-0.84676218 -0.25035903 0.34948593
-0.84782726 -0.25099039 0.25934377
-0.8401354 -0.24902438 0.17161468
-0.91376883 -0.26674441 0.92897052
-0.88702089 -0.25943133 0.75648111
-0.88705516 -0.25976947 0.62877071
-0.87205726 -0.2558659 0.5075863
-0.87496686 -0.25704321 0.40653673
-0.83483344 -0.24556266 0.30059788
-0.83597916 -0.24605283 0.21375765
-0.83838332 -0.2470704 0.12893331
-0.087680496 0.011624552 8.7139416
-1.301667 -0.34457847 8.5601578
-1.4576912 -0.39581937 7.2853584
-1.1299651 -0.31506783 3.7973294
-1.0745218 -0.30360913 2.6900938
-1.0207536 -0.29069978 2.0122976
-0.97996998 -0.28054565 1.5697327
-0.94756079 -0.27232602 1.2570338
-0.49960449 -0.087116577 8.6100397
-0.90584439 -0.1931818 8.595542
-1.3016047 -0.35682312 5.2337389
-1.1194921 -0.31253877 3.2149594
-1.0449834 -0.29485208 2.3088672
-0.99515826 -0.28246155 1.7622502
-0.944345 -0.26927024 1.3750678
-0.92679721 -0.265127 1.123316
-0.9184677 -0.2660349 1.0194702
-0.89633334 -0.26012325 0.83494574
-0.88543075 -0.25745192 0.6891681
-0.87754643 -0.25548401 0.56498641
-0.8686713 -0.25322145 0.45389232
-0.84302604 -0.24605779 0.3480759
-0.85341322 -0.24940728 0.26027638
-0.83621991 -0.24469167 0.1711676
-0.91469437 -0.26355311 0.92897052
-0.88792109 -0.2563335 0.75648111
-0.88381523 -0.2554746 0.62623757
-0.86858565 -0.25155789 0.50548828
-0.87585878 -0.2539874 0.40653673
-0.83568555 -0.24264705 0.30059788
-0.836833 -0.24313322 0.21375765
-0.83924061 -0.24414238 0.12893331
-0.087639384 0.011930543 8.7139416
-1.3028618 -0.34003273 8.5601578
-1.4443101 -0.38678083 7.2119303
-1.1181041 -0.3075608 3.7543814
-1.073693 -0.29933208 2.6854911
-1.0194565 -0.28648722 2.0079086
-0.97823513 -0.27635843 1.5655998
-0.94542199 -0.26814243 1.2531964
-0.50019026 -0.085419752 8.6150312
-0.90703493 -0.19012733 8.6005125
-1.3016288 -0.35194963 5.228899
-1.1172487 -0.30771318 3.205574
-1.0439088 -0.29061899 2.3043661
-0.9961381 -0.27898607 1.7622502
-0.9423784 -0.2651563 1.3710777
-0.92445433 -0.26096949 1.1196409
-0.91939074 -0.26282722 1.0194702
-0.89723593 -0.25699288 0.83494574
-0.88632405 -0.2543596 0.6891681
-0.87843287 -0.25241926 0.56498641
-0.86509466 -0.24890594 0.45201927
-0.84387982 -0.24311358 0.3480759
-0.85427862 -0.24642679 0.26027638
-0.83706897 -0.24177121 0.1711676
-0.91560876 -0.26035866 0.92897052
-0.88881046 -0.25323251 0.75648111
-0.88470161 -0.25238794 0.62623757
-0.86945844 -0.24852443 0.50548828
-0.87674004 -0.25092855 0.40653673
-0.83652747 -0.23972848 0.30059788
-0.83767658 -0.24021065 0.21375765
-0.84008777 -0.2412114 0.12893331
-0.087597199 0.012236389 8.7139416
-1.3040408 -0.33548281 8.5601578
-1.4436823 -0.38121739 7.2021399
-1.1033233 -0.2993592 3.7018898
-1.0728476 -0.29506457 2.6808887
-1.0181422 -0.28228727 2.0035193
-0.97648305 -0.27218673 1.5614668
-0.9432655 -0.26397708 1.2493588
-0.50048542 -0.083673239 8.6150312
-0.90821528 -0.18706696 8.605484
-1.3016348 -0.34708029 5.2240596
-1.1166507 -0.30335921 3.2008812
-1.0428177 -0.28639707 2.299865
-0.99459207 -0.27481291 1.7579843
-0.94329822 -0.26186517 1.3710777
-0.92535967 -0.25774091 1.1196409
-0.91687024 -0.25864834 1.0159656
-0.8981275 -0.25385937 0.83494574
-0.88720649 -0.25126421 0.6891681
-0.8793087 -0.24935141 0.56498641
-0.86595827 -0.24588467 0.45201927
-0.84472328 -0.24016641 0.3480759
-0.85513359 -0.24344331 0.26027638
-0.83790779 -0.23884782 0.1711676
-0.91291696 -0.25615251 0.92564505
-0.88579774 -0.24903464 0.75353795
-0.8855772 -0.24929824 0.62623757
-0.87032068 -0.24548793 0.50548828
-0.87761056 -0.24786665 0.40653673
-0.83735919 -0.236807 0.30059788
-0.83850998 -0.23728515 0.21375765
-0.84092456 -0.23827749 0.12893331
-0.087553956 0.012542086 8.7139416
-1.3052039 -0.33092883 8.5601578
-1.0942672 -0.29280701 3.6684859
-1.0719854 -0.29080656 2.676286
-1.0168111 -0.27809998 1.9991302
-0.97200048 -0.26728478 1.553201
-0.93800187 -0.25897729 1.2416838
-0.50048941 -0.081880048 8.6100397
-0.90886277 -0.18389554 8.605484
-1.3004071 -0.34189588 5.2143812
-1.1143689 -0.29856685 3.1914957
-1.0417098 -0.28218624 2.2953637
-0.99554533 -0.27133948 1.7579843
-0.94130027 -0.25777522 1.3670877
-0.92625368 -0.25450924 1.1196409
-0.91776752 -0.25544626 1.0159656
-0.8952589 -0.24967737 0.83180726
-0.88807815 -0.24816574 0.6891681
-0.88017374 -0.24628055 0.56498641
-0.8623473 -0.24160986 0.45014626
-0.8455565 -0.23721632 0.3480759
-0.85597819 -0.24045683 0.26027638
-0.83873636 -0.23592153 0.1711676
-0.91380554 -0.25296429 0.92564505
-0.88666165 -0.24594112 0.75353795
-0.8822884 -0.24505201 0.62370437
-0.87117231 -0.24244845 0.50548828
-0.87392163 -0.24353421 0.40489322
-0.83818066 -0.23388264 0.30059788
-0.83933312 -0.23435676 0.21375765
-0.84175122 -0.23534067 0.12893331
-0.08750964 0.01284763 8.7139416
-1.3063512 -0.32637081 8.5601578
-1.5271857 -0.39186504 7.603548
-1.0837356 -0.28594109 3.6303101
-1.0711067 -0.28655824 2.6716835
-1.0154634 -0.27392548 1.9947413
-0.97021163 -0.26315385 1.549068
-0.93580741 -0.25485948 1.2378463
-0.50077212 -0.080132514 8.6100397
-0.90949917 -0.18072189 8.605484
-1.3003758 -0.33703938 5.2095413
-1.1154044 -0.29467517 3.1914957
-1.038482 -0.27742508 2.2863612
-0.99396771 -0.26718593 1.7537184
-0.94219434 -0.2544879 1.3670877
-0.92386431 -0.25038791 1.1159657
-0.91865361 -0.2522411 1.0159656
-0.89612496 -0.24655083 0.83180726
-0.88490796 -0.24395317 0.68642664
-0.88102806 -0.24320666 0.56498641
-0.86318541 -0.23859823 0.45014626
-0.84637934 -0.23426333 0.3480759
-0.8568123 -0.23746744 0.26027638
-0.83955479 -0.23299235 0.1711676
-0.91468304 -0.24977295 0.92564505
-0.88751477 -0.24284458 0.75353795
-0.88313848 -0.24197075 0.62370437
-0.87201327 -0.23940602 0.50548828
-0.87476641 -0.24048215 0.40489322
-0.838992 -0.23095542 0.30059788
-0.83537179 -0.23011045 0.21306697
-0.83775145 -0.23107256 0.12873179
-0.087464266 0.013153017 8.7139416
-1.3074825 -0.32180879 8.5601578
-1.5245954 -0.38553405 7.5839672
-1.0818378 -0.28140539 3.6207662
-1.0721004 -0.28281763 2.6716835
-1.0140988 -0.26976374 1.990352
-0.96568722 -0.25831181 1.5408021
-0.93669134 -0.25159135 1.2378463
-0.50076342 -0.078340337 8.6050472
-0.91064775 -0.1776475 8.6104555
-1.3003263 -0.33218727 5.2047019
-1.1164261 -0.29077989 3.1914957
-1.0352336 -0.27268991 2.2773588
-0.99489427 -0.26371473 1.7537184
-0.94307697 -0.25119749 1.3670877
-0.92473269 -0.24716149 1.1159657
-0.91608614 -0.24810083 1.0124611
-0.89322364 -0.24240206 0.82866883
-0.88575411 -0.24086276 0.68642664
-0.87759733 -0.23896612 0.56266761
-0.86401302 -0.23558369 0.45014626
-0.84719199 -0.23130749 0.3480759
-0.85763603 -0.23447517 0.26027638
-0.84036303 -0.23006034 0.1711676
-0.91194397 -0.24560781 0.92231953
-0.88835704 -0.23974511 0.75353795
-0.88397771 -0.23888656 0.62370437
-0.87284362 -0.23636065 0.50548828
-0.87104291 -0.23619147 0.40324971
-0.8351022 -0.22675177 0.29942557
-0.8361699 -0.22719304 0.21306697
-0.83373225 -0.2268353 0.12853025
-0.087417819 0.013458245 8.7139416
-1.3085978 -0.31724286 8.5601578
-1.5190157 -0.37848797 7.5497007
-1.0828135 -0.27762738 3.6207662
-1.0711902 -0.2785821 2.6670809
-1.0127175 -0.26561487 1.9859631
-0.963862 -0.25422195 1.5366691
-0.93756384 -0.24832015 1.2378463
-0.50074834 -0.076549195 8.6000557
-0.91126233 -0.17446765 8.6104555
-1.3002591 -0.32733965 5.199863
-1.1191058 -0.28730989 3.1961884
-1.034072 -0.26852772 2.2728574
-0.99328536 -0.25958109 1.7494525
-0.94103348 -0.24713884 1.3630977
-0.92558986 -0.24393205 1.1159657
-0.91694659 -0.2449016 1.0124611
-0.89406437 -0.23928264 0.82866883
-0.88658947 -0.23776944 0.68642664
-0.87842619 -0.23590128 0.56266761
-0.86483008 -0.2325663 0.45014626
-0.84799421 -0.22834882 0.3480759
-0.85844928 -0.23148005 0.26027638
-0.84116095 -0.22712553 0.1711676
-0.91279578 -0.24242303 0.92231953
-0.88918847 -0.23664272 0.75353795
-0.88480616 -0.23579943 0.62370437
-0.87366337 -0.23331243 0.50548828
-0.87186205 -0.23314954 0.40324971
-0.83588868 -0.22383535 0.29942557
-0.8321746 -0.22299121 0.21237628
-0.83451897 -0.22392365 0.12853025
-0.087370306 0.013763308 8.7139416
-1.3096973 -0.31267306 8.5601578
-1.5223054 -0.3736684 7.5594916
-1.0837759 -0.27384594 3.6207662
-1.0721561 -0.27484125 2.6670809
-1.0113196 -0.26147896 1.9815739
-0.96474355 -0.25085586 1.5366691
-0.93842494 -0.24504595 1.2378463
-0.50072676 -0.074759111 8.5950642
-0.91186577 -0.17128569 8.6104555
-1.3001736 -0.3224965 5.1950235
-1.1201019 -0.28340173 3.1961884
-1.0350029 -0.26491648 2.2728574
-0.99418545 -0.25611231 1.7494525
-0.94189048 -0.24385254 1.3630977
-0.92315435 -0.23984738 1.1122906
-0.91434717 -0.2407914 1.0089566
-0.89489418 -0.23616032 0.82866883
-0.88741404 -0.2346732 0.68642664
-0.87924427 -0.23283355 0.56266761
-0.87011766 -0.23073417 0.45201927
-0.84878612 -0.22538736 0.3480759
-0.8592521 -0.22848207 0.26027638
-0.84194863 -0.22418794 0.1711676
-0.91002434 -0.23828974 0.91899407
-0.89000911 -0.23353742 0.75353795
-0.88145453 -0.2316141 0.62117118
-0.8744725 -0.23026136 0.50548828
-0.8681044 -0.22890086 0.4016062
-0.83666486 -0.2209162 0.29942557
-0.83294791 -0.22008501 0.21237628
-0.83529556 -0.22100927 0.12853025
-0.087321728 0.014068202 8.7139416
-1.311537 -0.30827704 8.5650978
-1.5156826 -0.3664397 7.52033
-1.0847253 -0.27006119 3.6207662
-1.0712148 -0.2706188 2.6624784
-1.0122262 -0.25794721 1.9815739
-0.96288729 -0.24678837 1.5325361
-0.93927461 -0.24176873 1.2378463
-0.50098467 -0.073010795 8.5950642
-0.91245812 -0.16810165 8.6104555
-1.3000704 -0.31765795 5.1901836
-1.1194099 -0.27907297 3.1914957
-1.0359215 -0.26130202 2.2728574
-0.99507338 -0.2526404 1.7494525
-0.94273591 -0.24056324 1.3630977
-0.92398596 -0.23662351 1.1122906
-0.91518211 -0.23759826 1.0089566
-0.89571309 -0.23303512 0.82866883
-0.88822776 -0.23157412 0.68642664
-0.88005167 -0.22976302 0.56266761
-0.8709178 -0.22769548 0.45201927
-0.84956771 -0.2224232 0.3480759
-0.85529274 -0.22423564 0.25934377
-0.84272605 -0.22124763 0.1711676
-0.91085058 -0.23511171 0.91899407
-0.89081889 -0.23042929 0.75353795
-0.88225764 -0.22853583 0.62117118
-0.87087798 -0.2260673 0.50339019
-0.86889815 -0.22586922 0.4016062
-0.83743089 -0.21799435 0.29942557
-0.83371109 -0.21717614 0.21237628
-0.83606189 -0.2180922 0.12853025
-0.087272093 0.014372927 8.7139416
-1.3126053 -0.30369705 8.5650978
-1.5119996 -0.3599686 7.4958534
-1.0856613 -0.26627317 3.6207662
-1.0702571 -0.2664063 2.657876
-1.0107976 -0.25382927 1.977185
-0.96374285 -0.24342576 1.5325361
-0.94321972 -0.23927647 1.2416838
-0.5012365 -0.071261592 8.5950642
-0.91303933 -0.16491555 8.6104555
-1.3011713 -0.31311792 5.1901836
-1.1187012 -0.27475244 3.1868029
-1.0347146 -0.25715962 2.2683563
-0.99594915 -0.24916539 1.7494525
-0.9435699 -0.237271 1.3630977
-0.92151916 -0.23256743 1.1086154
-0.91600591 -0.23440222 1.0089566
-0.89652103 -0.22990708 0.82866883
-0.88498086 -0.22743164 0.68368518
-0.8765583 -0.22558577 0.56034881
-0.87170726 -0.22465403 0.45201927
-0.85033894 -0.2194563 0.3480759
-0.85607022 -0.22124875 0.25934377
-0.84349322 -0.21830463 0.1711676
-0.91166574 -0.23193081 0.91899407
-0.88770109 -0.22631998 0.75059479
-0.88304996 -0.22545478 0.62117118
-0.87166178 -0.22302599 0.50339019
-0.86510688 -0.22166288 0.39996269
-0.8381868 -0.21506983 0.29942557
-0.83446407 -0.21426463 0.21237628
-0.83197957 -0.21392834 0.12832873
-0.087221391 0.014677475 8.7139416
-1.3136573 -0.29911336 8.5650978
-1.5072986 -0.35329556 7.4664822
-1.0851332 -0.26213163 3.615994
-1.0692829 -0.26220375 2.6532736
-1.0116775 -0.25029936 1.977185
-0.96185601 -0.23938085 1.5284033
-0.94404918 -0.23598257 1.2416838
-0.50148219 -0.06951151 8.5950642
-0.91360945 -0.16172744 8.6104555
-1.3022563 -0.30857408 5.1901836
-1.1179762 -0.27044031 3.1821103
-1.0334913 -0.25302875 2.263855
-0.99428046 -0.24506348 1.7451864
-0.94439238 -0.23397589 1.3630977
-0.92232531 -0.22934932 1.1086154
-0.91681856 -0.23120333 1.0089566
-0.89354432 -0.22582273 0.82553035
-0.88576937 -0.22434111 0.68368518
-0.87734044 -0.22252464 0.56034881
-0.87248611 -0.22160983 0.45201927
-0.85109979 -0.21648672 0.3480759
-0.85207701 -0.21704666 0.25841114
-0.84425008 -0.21535896 0.1711676
-0.91246974 -0.22874708 0.91899407
-0.88848567 -0.22321995 0.75059479
-0.88383156 -0.222371 0.62117118
-0.87243503 -0.21998197 0.50339019
-0.8658753 -0.21864173 0.39996269
-0.83893239 -0.21214271 0.29942557
-0.84000766 -0.21256527 0.21306697
-0.83272123 -0.2110229 0.12832873
-0.087169625 0.014981845 8.7139416
-1.3146935 -0.29452601 8.5650978
-1.5025694 -0.34665975 7.4371109
-1.0845892 -0.25799704 3.611222
-1.0682926 -0.25801128 2.6486709
-1.012545 -0.24676643 1.977185
-0.96268564 -0.23602189 1.5284033
-0.94797945 -0.23345195 1.2455213
-0.50172174 -0.067760594 8.5950642
-0.91469377 -0.15862784 8.615427
-1.3033257 -0.30402648 5.1901836
-1.1155559 -0.26573694 3.1727247
-1.032252 -0.24890964 2.2593539
-0.99512988 -0.2415913 1.7451864
-0.94520336 -0.23067792 1.3630977
-0.92312032 -0.2261284 1.1086154
-0.91762 -0.22800164 1.0089566
-0.89432716 -0.22270229 0.82553035
-0.88654709 -0.22124782 0.68368518
-0.87811178 -0.2194608 0.56034881
-0.87325442 -0.21856295 0.45201927
-0.84719712 -0.2123483 0.34666586
-0.85282946 -0.21407104 0.25841114
-0.84016699 -0.21119662 0.17072052
-0.91326267 -0.22556059 0.91899407
-0.8853358 -0.21914618 0.74765164
-0.88041824 -0.21824746 0.61863804
-0.87319756 -0.21693526 0.50339019
-0.8666333 -0.21561792 0.39996269
-0.8396678 -0.209213 0.29942557
-0.8407445 -0.2096318 0.21306697
-0.83345276 -0.20811486 0.12832873
-0.087116793 0.015286033 8.7139416
-1.3157135 -0.28993505 8.5650978
-1.4968194 -0.33983603 7.402844
-1.0840297 -0.25386941 3.6064501
-1.067286 -0.25382891 2.6440685
-1.0134002 -0.24323049 1.977185
-0.96350372 -0.23266004 1.5284033
-0.9456737 -0.22938617 1.2416838
-0.50195521 -0.066008843 8.5950642
-0.91524196 -0.15543398 8.615427
-1.3043789 -0.29947516 5.1901836
-1.1147965 -0.26144752 3.1680319
-1.0309963 -0.24480222 2.2548525
-0.99343061 -0.23751003 1.7409205
-0.94600284 -0.22737713 1.3630977
-0.9206084 -0.22210987 1.1049403
-0.91841024 -0.22479714 1.0089566
-0.8950991 -0.21957915 0.82553035
-0.88731402 -0.21815185 0.68368518
-0.87887257 -0.21639428 0.56034881
-0.86951095 -0.21440366 0.45014626
-0.84793317 -0.20938973 0.34666586
-0.85357153 -0.2110928 0.25841114
-0.84089911 -0.20826261 0.17072052
-0.91404444 -0.22237132 0.91899407
-0.88609535 -0.21605445 0.74765164
-0.88117468 -0.21517289 0.61863804
-0.87394947 -0.2138859 0.50339019
-0.86738062 -0.21259151 0.39996269
-0.84039301 -0.20628074 0.29942557
-0.84147114 -0.20669578 0.21306697
-0.83417416 -0.20520431 0.12832873
-0.08706291 0.015590034 8.7139416
-1.3167175 -0.28534061 8.5650978
-1.4910402 -0.33305672 7.3685775
-1.0849093 -0.25008389 3.6064501
-1.0643611 -0.24921159 2.6348634
-1.014243 -0.23969159 1.977185
-0.96430993 -0.22929537 1.5284033
-0.94646859 -0.22608374 1.2416838
-0.5021826 -0.064256288 8.5950642
-0.91630489 -0.15232503 8.6203995
-1.3017379 -0.29408991 5.1756659
-1.1056132 -0.25522718 3.1398752
-1.0318446 -0.24120188 2.2548525
-0.99425364 -0.23404086 1.7409205
-0.94679075 -0.22407359 1.3630977
-0.92137808 -0.218895 1.1049403
-0.91918939 -0.22158994 1.0089566
-0.89207661 -0.21553941 0.82239193
-0.88807011 -0.21505322 0.68368518
-0.87962258 -0.21332513 0.56034881
-0.87025398 -0.21136719 0.45014626
-0.84865886 -0.20642862 0.34666586
-0.85430312 -0.20811199 0.25841114
-0.83678281 -0.20414574 0.17027344
-0.91481513 -0.21917936 0.91899407
-0.8868441 -0.21296008 0.74765164
-0.88192046 -0.21209571 0.61863804
-0.87469077 -0.21083395 0.50339019
-0.86352706 -0.2084545 0.39831915
-0.8411079 -0.20334597 0.29942557
-0.84218746 -0.20375724 0.21306697
-0.83488536 -0.20229125 0.12832873
-0.087007955 0.015893847 8.7139416
-1.3184655 -0.28090435 8.5700369
-1.4842374 -0.3261036 7.3294158
-1.0843199 -0.24596541 3.6016781
-1.0614169 -0.2446178 2.6256583
-1.0127407 -0.23560733 1.9727957
-0.96236444 -0.22528675 1.5242703
-0.94413185 -0.22204502 1.2378463
-0.5024038 -0.062502958 8.5950642
-0.91683096 -0.14912561 8.6203995
-1.3003023 -0.2889992 5.1659865
-1.0913517 -0.24792807 3.0976403
-1.0326803 -0.23759861 2.2548525
-0.9950645 -0.23056884 1.7409205
-0.94463247 -0.22008383 1.3591076
-0.92213655 -0.21567746 1.1049403
-0.91995728 -0.21838002 1.0089566
-0.89282358 -0.21242417 0.82239193
-0.88881534 -0.21195196 0.68368518
-0.87605315 -0.20922451 0.55803001
-0.86647779 -0.20724984 0.44827321
-0.84470922 -0.20234758 0.34525582
-0.8550244 -0.20512865 0.25841114
-0.83749038 -0.2012236 0.17027344
-0.91194057 -0.21512768 0.91566855
-0.88758206 -0.20986313 0.74765164
-0.88265544 -0.20901594 0.61863804
-0.8754214 -0.20777942 0.50339019
-0.86424941 -0.20543896 0.39831915
-0.84181261 -0.20040871 0.29942557
-0.84289366 -0.20081621 0.21306697
-0.83558643 -0.19937572 0.12832873
-0.086951949 0.016197462 8.7139416
-1.319438 -0.27630034 8.5700369
-1.4803902 -0.31984651 7.3049397
-1.083715 -0.24185407 3.5969059
-1.0603589 -0.24047942 2.6210558
-1.013557 -0.23207077 1.9727957
-0.96314502 -0.22192609 1.5242703
-0.94177842 -0.21802537 1.2340088
-0.50261891 -0.060748853 8.5950642
-0.91734594 -0.14592436 8.6203995
-1.2976192 -0.28365394 5.1514683
-1.0787371 -0.24110784 3.0600982
-1.0313802 -0.23351198 2.2503514
-0.99332047 -0.22651443 1.7366546
-0.94245785 -0.2161119 1.3551177
-0.92288381 -0.21245727 1.1049403
-0.91724128 -0.21435612 1.005452
-0.89355963 -0.20930634 0.82239193
-0.88954973 -0.20884813 0.68368518
-0.87677813 -0.20616524 0.55803001
-0.8671959 -0.20422401 0.44827321
-0.84541041 -0.19939776 0.34525582
-0.85095453 -0.20101358 0.25747854
-0.83818763 -0.19829898 0.17027344
-0.91268599 -0.21194309 0.91566855
-0.88830924 -0.20676361 0.74765164
-0.88337964 -0.20593362 0.61863804
-0.8717218 -0.20368984 0.50129217
-0.8603633 -0.20134501 0.39667568
-0.83777469 -0.19635992 0.29825324
-0.84358943 -0.19787274 0.21306697
-0.83627725 -0.19645776 0.12832873
-0.086894877 0.016500883 8.7139416
-1.3211557 -0.27184933 8.574976
-1.4775137 -0.31383166 7.2853584
-1.0830945 -0.23774995 3.5921342
-1.059285 -0.23635146 2.6164534
-1.0120245 -0.22800528 1.9684068
-0.9639138 -0.21856274 1.5242703
-0.9394086 -0.21402487 1.2301713
-0.50282794 -0.058994018 8.5950642
-0.91837651 -0.14280261 8.625371
-1.2949147 -0.27833098 5.1369505
-1.0610319 -0.23326793 3.0084779
-1.032189 -0.22991039 2.2503514
-0.9941051 -0.22304571 1.7366546
-0.94320649 -0.21282078 1.3551177
-0.92361981 -0.20923452 1.1049403
-0.91798395 -0.21115305 1.005452
-0.89428478 -0.20618597 0.82239193
-0.89027339 -0.20574175 0.68368518
-0.87749243 -0.20310345 0.55803001
-0.86790347 -0.20119569 0.44827321
-0.84142852 -0.19536071 0.34384581
-0.85165101 -0.19804198 0.25747854
-0.83887476 -0.19537196 0.17027344
-0.9134202 -0.20875594 0.91566855
-0.88902557 -0.20366158 0.74765164
-0.88409305 -0.20284879 0.61863804
-0.87242752 -0.20064573 0.50129217
-0.8564592 -0.1972807 0.39503217
-0.83845496 -0.19343434 0.29825324
-0.83944994 -0.19381291 0.21237628
-0.83695793 -0.19353741 0.12832873
-0.086836748 0.016804103 8.7139416
-1.3220966 -0.26723599 8.574976
-1.4736162 -0.30763289 7.2608824
-1.0824586 -0.2336531 3.5873621
-1.0601037 -0.23265243 2.6164534
-1.0151525 -0.22498921 1.9727957
-0.96467084 -0.21519673 1.5242703
-0.94014996 -0.21074443 1.2301713
-0.50303084 -0.057238463 8.5950642
-0.91886944 -0.139596 8.625371
-1.2934185 -0.27328992 5.1272712
-1.0770205 -0.23284225 3.0507126
-1.0329852 -0.22630596 2.2503514
-0.99487758 -0.21957429 1.7366546
-0.94100189 -0.20887437 1.3511276
-0.92434454 -0.20600921 1.1049403
-0.91871542 -0.20794739 1.005452
-0.89499909 -0.20306307 0.82239193
-0.89098608 -0.20263287 0.68368518
-0.87819606 -0.20003919 0.55803001
-0.86860049 -0.19816491 0.44827321
-0.84210533 -0.19242239 0.34384581
-0.85233712 -0.19506796 0.25747854
-0.83469754 -0.19132993 0.16982636
-0.91414338 -0.20556624 0.91566855
-0.88973111 -0.20055705 0.74765164
-0.88479578 -0.19976149 0.61863804
-0.87312263 -0.19759916 0.50129217
-0.85714263 -0.19428989 0.39503217
-0.8391251 -0.1905064 0.29825324
-0.84012133 -0.19088149 0.21237628
-0.83762842 -0.19061472 0.12832873
-0.086735561 0.017095305 8.7089415
-1.3237835 -0.26277044 8.579916
-1.4686962 -0.30126077 7.2315111
-1.0818075 -0.22956362 3.5825901
-1.0589994 -0.22853869 2.6118507
-1.0159316 -0.22144428 1.9727957
-0.96266741 -0.21122526 1.5201373
-0.94087982 -0.20746142 1.2301713
-0.50322753 -0.055482205 8.5950642
-0.91882372 -0.13631012 8.6203995
-1.2919031 -0.26826274 5.1175928
-1.0626346 -0.22585492 3.0084779
-1.0316406 -0.2222406 2.2458501
-0.99563801 -0.21610017 1.7366546
-0.94172525 -0.2055884 1.3511276
-0.92174637 -0.20205571 1.1012651
-0.91943568 -0.20473921 1.005452
-0.89190358 -0.19908994 0.81925344
-0.89168799 -0.19952151 0.68368518
-0.87888896 -0.1969725 0.55803001
-0.86928695 -0.19513172 0.44827321
-0.84277189 -0.18948172 0.34384581
-0.85301286 -0.19209155 0.25747854
-0.83536035 -0.18841511 0.16982636
-0.91120964 -0.20156781 0.91234308
-0.89042574 -0.19745009 0.74765164
-0.88548768 -0.19667177 0.61863804
-0.86937696 -0.19356401 0.49919412
-0.85320663 -0.19026904 0.39338866
-0.83978498 -0.18757616 0.29825324
-0.83594972 -0.18686749 0.21168561
-0.83828872 -0.18768968 0.12832873
-0.086717322 0.017409924 8.7139416
-1.3246927 -0.25814798 8.579916
-1.4647479 -0.29512772 7.2070351
-1.0811409 -0.22548153 3.5778182
-1.0597908 -0.2248407 2.6118507
-1.0190403 -0.2183983 1.977185
-0.96339881 -0.20786363 1.5201373
-0.94473076 -0.20485485 1.2340088
-0.50341815 -0.05372528 8.5950642
-0.91929394 -0.13310198 8.6203995
-1.2903683 -0.26324946 5.1079135
-1.0853769 -0.22672801 3.0694838
-1.0302804 -0.21818742 2.241349
-0.99638623 -0.21262342 1.7366546
-0.94538337 -0.20293206 1.3551177
-0.92244607 -0.19883698 1.1012651
-0.92014474 -0.20152853 1.005452
-0.89259309 -0.19597541 0.81925344
-0.89237905 -0.19640772 0.68368518
-0.8795712 -0.19390342 0.55803001
-0.86543584 -0.19109669 0.4464002
-0.84342813 -0.18653874 0.34384581
-0.85367817 -0.18911281 0.25747854
-0.8360129 -0.18549801 0.16982636
-0.91190773 -0.19838586 0.91234308
-0.8871603 -0.19347966 0.74470848
-0.88616884 -0.19357963 0.61863804
-0.87004727 -0.19052812 0.49919412
-0.85386562 -0.18728963 0.39338866
-0.84043461 -0.18464361 0.29825324
-0.83176041 -0.18288496 0.21099493
-0.83893871 -0.18476236 0.12832873
-0.086656019 0.017712519 8.7139416
-1.3255857 -0.25352237 8.579916
-1.4517847 -0.28724906 7.1385016
-1.080459 -0.22140689 3.5730462
-1.0605692 -0.22113997 2.6118507
-1.0197965 -0.21483988 1.977185
-0.9613657 -0.20391585 1.5160043
-0.94544011 -0.20155588 1.2340088
-0.50360262 -0.051967692 8.5950642
-0.91975296 -0.12989224 8.6203995
-1.2875819 -0.25800344 5.0933952
-1.0777093 -0.22120444 3.04602
-1.0310358 -0.21458973 2.241349
-0.99712235 -0.20914409 1.7366546
-0.94608593 -0.19963083 1.3551177
-0.92313457 -0.19561583 1.1012651
-0.91735619 -0.19756481 1.0019474
-0.89327174 -0.19285849 0.81925344
-0.88897234 -0.19240718 0.68094373
-0.88024271 -0.19083196 0.55803001
-0.86609763 -0.1880746 0.4464002
-0.84407419 -0.18359348 0.34384581
-0.8543331 -0.18613176 0.25747854
-0.83665532 -0.18257865 0.16982636
-0.91259462 -0.1952015 0.91234308
-0.88783026 -0.19038171 0.74470848
-0.88683915 -0.19048515 0.61863804
-0.87070704 -0.18748994 0.49919412
-0.85451412 -0.18430795 0.39338866
-0.84107405 -0.18170883 0.29825324
-0.83239365 -0.17998046 0.21099493
-0.83957857 -0.18183279 0.12832873
-0.086593665 0.018014895 8.7139416
-1.3264626 -0.24889366 8.579916
-1.456777 -0.28295538 7.1580825
-1.0797619 -0.21733975 3.5682743
-1.0613346 -0.21743654 2.6118507
-1.0205402 -0.21127881 1.977185
-0.96207166 -0.20055881 1.5160043
-0.94927508 -0.19891155 1.2378463
-0.50406832 -0.050237149 8.6000557
-0.91967261 -0.12660885 8.615427
-1.2860078 -0.25302252 5.0837164
-1.0733998 -0.2164188 3.0319417
-1.0317786 -0.21098945 2.241349
-0.99529195 -0.20513602 1.7323887
-0.94677705 -0.19632713 1.3551177
-0.92381173 -0.1923923 1.1012651
-0.91804028 -0.19436143 1.0019474
-0.8939395 -0.18973921 0.81925344
-0.88963854 -0.18930292 0.68094373
-0.88090342 -0.18775816 0.55803001
-0.86674887 -0.1850502 0.4464002
-0.84470987 -0.180646 0.34384581
-0.85978091 -0.18417731 0.25841114
-0.83728755 -0.17965707 0.16982636
-0.91327047 -0.19201477 0.91234308
-0.88848943 -0.18728144 0.74470848
-0.88749868 -0.18738835 0.61863804
-0.87135619 -0.18444946 0.49919412
-0.85515231 -0.18132401 0.39338866
-0.84170318 -0.17877182 0.29825324
-0.82817298 -0.17604418 0.21030425
-0.84020817 -0.178901 0.12832873
-0.086572088 0.018329455 8.7189417
-1.3265592 -0.24412152 8.574976
-1.4537548 -0.27710676 7.1385016
-1.0790495 -0.21328017 3.5635023
-1.0620872 -0.21373045 2.6118507
-1.0212715 -0.20771517 1.977185
-0.96000904 -0.19663493 1.5118713
-0.94996363 -0.19559675 1.2378463
-0.50424063 -0.048477314 8.6000557
-0.92010897 -0.12339782 8.615427
-1.2844149 -0.24805576 5.0740376
-1.0690701 -0.21166596 3.0178635
-1.0325087 -0.20738658 2.241349
-0.99600196 -0.20166054 1.7323887
-0.9445039 -0.19241981 1.3511276
-0.92115629 -0.18848705 1.09759
-0.91871309 -0.19115569 1.0019474
-0.89078605 -0.18582299 0.81611502
-0.8902939 -0.18619634 0.68094373
-0.88155347 -0.1846821 0.55803001
-0.87192667 -0.18297556 0.44827321
-0.8453353 -0.17769632 0.34384581
-0.86041856 -0.18117499 0.25841114
-0.83790958 -0.1767333 0.16982636
-0.91027856 -0.18807042 0.90901756
-0.88913774 -0.18417889 0.74470848
-0.88814735 -0.18428926 0.61863804
-0.87199473 -0.18140674 0.49919412
-0.85578007 -0.17833787 0.39338866
-0.84232211 -0.17583264 0.29825324
-0.82878244 -0.17315224 0.21030425
-0.8359375 -0.17494369 0.12812719
-0.086507581 0.018631537 8.7189417
-1.3274032 -0.2394895 8.574976
-1.4527115 -0.27165666 7.1287117
-1.0797874 -0.20951229 3.5635023
-1.0609101 -0.20964333 2.6072483
-1.0196416 -0.20368011 1.9727957
-0.9606896 -0.19328268 1.5118713
-0.94749886 -0.19164437 1.2340088
-0.50440675 -0.046716895 8.6000557
-0.92053407 -0.12018529 8.615427
-1.2815678 -0.24286935 5.0595198
-1.0647204 -0.20694599 3.0037851
-1.0353621 -0.20420215 2.2458501
-0.99669975 -0.19818261 1.7323887
-0.94516987 -0.18912171 1.3511276
-0.92180866 -0.18527047 1.09759
-0.91937476 -0.18794762 1.0019474
-0.89142925 -0.18271244 0.81611502
-0.8909384 -0.1830875 0.68094373
-0.87785387 -0.18071078 0.55571121
-0.87256008 -0.17993084 0.44827321
-0.84595042 -0.17474446 0.34384581
-0.86104578 -0.17817047 0.25841114
-0.83852136 -0.17380737 0.16982636
-0.91092944 -0.18489182 0.90901756
-0.88581437 -0.18026826 0.74176532
-0.8845613 -0.18032701 0.61610484
-0.87262267 -0.17836182 0.49919412
-0.85639727 -0.17534955 0.39338866
-0.84293073 -0.17289132 0.29825324
-0.82938182 -0.17025819 0.21030425
-0.83654308 -0.17202465 0.12812719
-0.086400263 0.018920697 8.7139416
-1.3282311 -0.23485453 8.574976
-1.4516478 -0.26621717 7.1189208
-1.0790457 -0.20546292 3.5587301
-1.0597174 -0.205567 2.6026456
-1.0179962 -0.19965899 1.9684068
-0.95859766 -0.18938293 1.5077385
-0.94501823 -0.18771161 1.2301713
-0.50456679 -0.044955898 8.6000557
-0.92094797 -0.11697129 8.615427
-1.279936 -0.23793536 5.0498405
-1.0637412 -0.2029051 2.9990923
-1.0360686 -0.20058681 2.2458501
-0.99482578 -0.19420286 1.7281228
-0.94286746 -0.18524067 1.3471376
-0.92244971 -0.18205163 1.09759
-0.92002523 -0.18473725 1.0019474
-0.89206165 -0.17959966 0.81611502
-0.88747329 -0.17914923 0.67820227
-0.8784793 -0.17764539 0.55571121
-0.8777265 -0.17780425 0.45014626
-0.84655523 -0.17179047 0.34384581
-0.85684866 -0.17418526 0.25747854
-0.83912295 -0.17087932 0.16982636
-0.91156936 -0.18171096 0.90901756
-0.88643825 -0.17717507 0.74176532
-0.8851853 -0.17723823 0.61610484
-0.87323999 -0.17531471 0.49919412
-0.85700417 -0.17235909 0.39338866
-0.83876419 -0.16898797 0.29708093
-0.82997108 -0.16736208 0.21030425
-0.83224148 -0.16811433 0.12792566
-0.086333692 0.019222176 8.7139416
-1.3298084 -0.23034909 8.579916
-1.4445506 -0.25970867 7.0797591
-1.078289 -0.20142128 3.5539584
-1.0585093 -0.20150158 2.5980432
-1.0163351 -0.19565183 1.9640176
-0.95925289 -0.18603565 1.5077385
-0.94252169 -0.18379849 1.2263339
-0.50472063 -0.043194361 8.6000557
-0.92187977 -0.11382055 8.6203995
-1.2782855 -0.23301576 5.0401616
-1.0610504 -0.19855644 2.989707
-1.0367625 -0.19696905 2.2458501
-0.99549758 -0.19072908 1.7281228
-0.94350833 -0.18194832 1.3471376
-0.92307961 -0.17883058 1.09759
-0.92066449 -0.18152465 1.0019474
-0.89268309 -0.17648469 0.81611502
-0.88809323 -0.17605028 0.67820227
-0.87909406 -0.17457783 0.55571121
-0.88288856 -0.17564373 0.45201927
-0.85185432 -0.16977191 0.34525582
-0.85745144 -0.17119326 0.25747854
-0.83971435 -0.1679492 0.16982636
-0.91219807 -0.17852788 0.90901756
-0.88705128 -0.17407976 0.74176532
-0.88156873 -0.17331587 0.61357164
-0.87384659 -0.17226546 0.49919412
-0.85760057 -0.16936654 0.39338866
-0.83934897 -0.16605912 0.29708093
-0.83055025 -0.16446392 0.21030425
-0.83282328 -0.16520825 0.12792566
-0.086266071 0.019523419 8.7139416
-1.3306044 -0.22570579 8.579916
-1.4494596 -0.2553705 7.09934
-1.0775172 -0.19738744 3.5491862
-1.0592062 -0.19780546 2.5980432
-1.0146585 -0.19165872 1.9596287
-0.95989645 -0.18268609 1.5077385
-0.9400093 -0.1799051 1.2224963
-0.50486833 -0.041432295 8.6000557
-0.92227155 -0.1106019 8.6203995
-1.2753788 -0.2278897 5.0256433
-1.0617371 -0.19485147 2.989707
-1.0374438 -0.19334887 2.2458501
-0.99359417 -0.18677145 1.7238568
-0.94117695 -0.17809378 1.3431475
-0.92369819 -0.17560732 1.09759
-0.92129248 -0.17830981 1.0019474
-0.89329374 -0.17336756 0.81611502
-0.88870233 -0.17294918 0.67820227
-0.87969816 -0.17150816 0.55571121
-0.88349634 -0.17256081 0.45201927
-0.85244173 -0.16679734 0.34525582
-0.85804379 -0.16819914 0.25747854
-0.84029549 -0.16501702 0.16982636
-0.91281569 -0.17534262 0.90901756
-0.88368446 -0.17021799 0.73882216
-0.88216841 -0.17023757 0.61357164
-0.87444258 -0.16921411 0.49919412
-0.8581866 -0.16637193 0.39338866
-0.83515197 -0.1622016 0.2959086
-0.83111924 -0.16156375 0.21030425
-0.83339489 -0.16230015 0.12792566
-0.086197399 0.019824425 8.7139416
-1.3313842 -0.22105972 8.579916
-1.4513457 -0.25048235 7.1042352
-1.0781996 -0.193625 3.5491862
-1.0579685 -0.19375527 2.5934405
-1.0129663 -0.18767969 1.9552395
-0.957762 -0.17881812 1.5036055
-0.93748128 -0.1760315 1.2186587
-0.50472194 -0.039648075 8.5950642
-0.92318153 -0.10744289 8.625371
-1.2736902 -0.22300333 5.0159645
-1.0607121 -0.19083881 2.985014
-1.0359708 -0.18933523 2.241349
-0.99167514 -0.18282942 1.7195909
-0.94179291 -0.17480737 1.3431475
-0.92430556 -0.17238195 1.09759
-0.92190927 -0.17509283 1.0019474
-0.89389348 -0.17024833 0.81611502
-0.88930064 -0.16984598 0.67820227
-0.88029146 -0.16843641 0.55571121
-0.88409328 -0.16947578 0.45201927
-0.85301876 -0.16382074 0.34525582
-0.85380191 -0.16427493 0.2565459
-0.84086639 -0.16208284 0.16982636
-0.91342217 -0.17215523 0.90901756
-0.88427329 -0.16713232 0.73882216
-0.88275725 -0.16715719 0.61357164
-0.87502789 -0.16616072 0.49919412
-0.85876209 -0.16337527 0.39338866
-0.83571303 -0.15928538 0.2959086
-0.83654255 -0.15958956 0.21099493
-0.82904923 -0.15845221 0.12772413
-0.086127669 0.020125188 8.7139416
-1.3329147 -0.21653536 8.5848551
-1.4542192 -0.2457536 7.1140261
-1.0773988 -0.18960175 3.5444143
-1.0567155 -0.18971615 2.5888383
-1.0112587 -0.18371481 1.9508505
-0.9583804 -0.17547382 1.5036055
-0.93809009 -0.172758 1.2186587
-0.50485724 -0.037886024 8.5950642
-0.9235509 -0.10421973 8.625371
-1.271983 -0.21813151 5.0062857
-1.0613718 -0.18713507 2.985014
-1.0344826 -0.18533425 2.2368479
-0.98974085 -0.1789031 1.715325
-0.94536191 -0.17205814 1.3471376
-0.92156678 -0.16854481 1.0939147
-0.92251486 -0.17187369 1.0019474
-0.89448225 -0.16712703 0.81611502
-0.88988811 -0.1667407 0.67820227
-0.88087398 -0.16536258 0.55571121
-0.8846795 -0.16638869 0.45201927
-0.85829949 -0.16173033 0.34666586
-0.85437012 -0.16129361 0.2565459
-0.84142703 -0.15914668 0.16982636
-0.9140175 -0.16896574 0.90901756
-0.88087696 -0.16330801 0.735879
-0.88333541 -0.16407478 0.61357164
-0.87114084 -0.16227432 0.49709606
-0.85932714 -0.16037664 0.39338866
-0.83626395 -0.15636724 0.2959086
-0.83709449 -0.1566685 0.21099493
-0.82959723 -0.15555732 0.12772413
-0.086056896 0.020425709 8.7139416
-1.3336624 -0.21188129 8.5848551
-1.4550682 -0.24067594 7.1140261
-1.0780541 -0.18583977 3.5444143
-1.0554471 -0.18568812 2.5842357
-1.0118939 -0.18018374 1.9508505
-0.95898706 -0.17212738 1.5036055
-0.93868738 -0.16948241 1.2186587
-0.50498646 -0.03612351 8.5950642
-0.92390913 -0.1009953 8.625371
-1.2702574 -0.21327436 4.9966068
-1.0620186 -0.18342906 2.985014
-1.0351232 -0.18172209 2.2368479
-0.99035931 -0.17544717 1.715325
-0.94595677 -0.16875714 1.3471376
-0.92214948 -0.16532692 1.0939147
-0.92310917 -0.16865246 1.0019474
-0.89506018 -0.16400369 0.81611502
-0.89046472 -0.16363339 0.67820227
-0.88144588 -0.16228674 0.55571121
-0.88069594 -0.16245872 0.45014626
-0.85885876 -0.15873332 0.34666586
-0.8549279 -0.15831032 0.2565459
-0.84197742 -0.15620859 0.16982636
-0.91092783 -0.16510852 0.90569204
-0.88144165 -0.16023219 0.735879
-0.88390267 -0.16099036 0.61357164
-0.87170196 -0.15923247 0.49709606
-0.8598817 -0.15737607 0.39338866
-0.8415857 -0.15432379 0.29708093
-0.83763629 -0.15374553 0.21099493
-0.83013523 -0.15266055 0.12772413
-0.085985072 0.020725979 8.7139416
-1.333626 -0.20710565 8.579916
-1.4558994 -0.23559535 7.1140261
-1.0786961 -0.18207553 3.5444143
-1.0541637 -0.18167129 2.5796332
-1.0101572 -0.1762391 1.9464613
-0.95958203 -0.16877884 1.5036055
-0.93611705 -0.16564651 1.2148212
-0.50539762 -0.034379192 8.6000557
-0.92425597 -0.09776964 8.625371
-1.2647922 -0.20782122 4.9724097
-1.0626523 -0.1797208 2.985014
-1.0357513 -0.17810772 2.2368479
-0.98839605 -0.17154339 1.7110591
-0.94654006 -0.16545412 1.3471376
-0.92272097 -0.16210701 1.0939147
-0.92369229 -0.16542919 1.0019474
-0.8956272 -0.16087833 0.81611502
-0.88691521 -0.15978292 0.67546082
-0.882007 -0.15920894 0.55571121
-0.87669569 -0.15855861 0.44827321
-0.85468745 -0.15487914 0.34525582
-0.85547531 -0.1553251 0.2565459
-0.83761799 -0.15237731 0.16937928
-0.91149867 -0.16192779 0.90569204
-0.88199556 -0.1571544 0.735879
-0.88445926 -0.15790398 0.61357164
-0.87225246 -0.1561887 0.49709606
-0.86042583 -0.15437356 0.39338866
-0.84211922 -0.15138516 0.29708093
-0.83816785 -0.1508207 0.21099493
-0.83066303 -0.1497619 0.12772413
-0.08587078 0.021012289 8.7089415
-1.3343408 -0.20244916 8.579916
-1.4577187 -0.23067078 7.1189208
-1.0793252 -0.17830907 3.5444143
-1.0528648 -0.17766565 2.5750306
-1.0107663 -0.17271192 1.9464613
-0.96016538 -0.16542825 1.5036055
-0.9366895 -0.16237783 1.2148212
-0.5055145 -0.032614816 8.6000557
-0.92459166 -0.094542786 8.625371
-1.2617868 -0.20280732 4.9578919
-1.0632733 -0.17601037 2.985014
-1.0363667 -0.1744912 2.2368479
-0.98898882 -0.16809221 1.7110591
-0.94414175 -0.16164084 1.3431475
-0.92328125 -0.15888514 1.0939147
-0.92075151 -0.16158767 0.99844289
-0.89618331 -0.15775104 0.81611502
-0.88746756 -0.15668602 0.67546082
-0.88255739 -0.1561292 0.55571121
-0.87267905 -0.15468839 0.4464002
-0.85522294 -0.15189478 0.34525582
-0.85601234 -0.152338 0.2565459
-0.83814484 -0.14945254 0.16937928
-0.91205829 -0.15874508 0.90569204
-0.88652062 -0.15476964 0.73882216
-0.88500512 -0.15481567 0.61357164
-0.87279236 -0.15314302 0.49709606
-0.86095947 -0.15136915 0.39338866
-0.84264255 -0.1484447 0.29708093
-0.83868921 -0.14789402 0.21099493
-0.83118069 -0.14686143 0.12772413
-0.085796908 0.021311907 8.7089415
-1.3350394 -0.19779021 8.579916
-1.4585149 -0.22558099 7.1189208
-1.0769938 -0.17406468 3.5348704
-1.0515511 -0.17367131 2.5704281
-1.0113629 -0.16918263 1.9464613
-0.96073699 -0.16207564 1.5036055
-0.93725061 -0.15910719 1.2148212
-0.50562525 -0.030850042 8.6000557
-0.92438549 -0.091263048 8.6203995
-1.2513112 -0.19664751 4.9143367
-1.0621778 -0.17202218 2.9803214
-1.0348214 -0.17051886 2.2323468
-0.98956954 -0.16463897 1.7110591
-0.94470024 -0.15834419 1.3431475
-0.92383021 -0.15566131 1.0939147
-0.92130995 -0.15837267 0.99844289
-0.89289278 -0.15396065 0.81297654
-0.88800913 -0.15358722 0.67546082
-0.87873214 -0.15229125 0.55339235
-0.86864609 -0.15084815 0.44452715
-0.85574788 -0.14890857 0.34525582
-0.85653883 -0.14934903 0.2565459
-0.83866137 -0.14652595 0.16937928
-0.91260689 -0.15556043 0.90569204
-0.88705546 -0.15167417 0.73882216
-0.88554007 -0.15172549 0.61357164
-0.87332165 -0.15009546 0.49709606
-0.86148262 -0.14836293 0.39338866
-0.84315556 -0.14550243 0.29708093
-0.83920032 -0.14496557 0.21099493
-0.83168828 -0.14395916 0.12772413
-0.085721992 0.021611262 8.7089415
-1.3357217 -0.19312885 8.579916
-1.4603003 -0.22064036 7.123816
-1.0834926 -0.17123516 3.5539584
-1.050222 -0.16968831 2.5658255
-1.0095838 -0.16526467 1.9420724
-0.96129692 -0.15872104 1.5036055
-0.93780029 -0.15583462 1.2148212
-0.50601816 -0.029100504 8.6050472
-0.92469841 -0.088035785 8.6203995
-1.2619294 -0.19380294 4.953052
-1.0627718 -0.16831344 2.9803214
-1.0354103 -0.16690561 2.2323468
-0.99013823 -0.16118373 1.7110591
-0.94227368 -0.15455814 1.3391576
-0.92436796 -0.1524356 1.0939147
-0.92185718 -0.15515573 0.99844289
-0.89342475 -0.15084292 0.81297654
-0.88853985 -0.15048656 0.67546082
-0.87925845 -0.14922298 0.55339235
-0.86916733 -0.14781511 0.44452715
-0.85153359 -0.14511476 0.34384581
-0.85705495 -0.14635824 0.2565459
-0.83425909 -0.14275765 0.1689322
-0.90946132 -0.15175955 0.90236646
-0.88757944 -0.14857686 0.73882216
-0.88606435 -0.14863345 0.61357164
-0.87384027 -0.14704609 0.49709606
-0.85733879 -0.14456981 0.39174515
-0.84365833 -0.14255838 0.29708093
-0.83970124 -0.14203534 0.21099493
-0.83218575 -0.14105517 0.12772413
-0.085646033 0.021910356 8.7089415
-1.3363876 -0.18846515 8.579916
-1.4630762 -0.2158384 7.1336069
-1.0855589 -0.16767959 3.5587301
-1.0488782 -0.16571671 2.5612228
-1.0101546 -0.16173956 1.9420724
-0.96184504 -0.15536454 1.5036055
-0.93517482 -0.15204601 1.2109838
-0.50611663 -0.027333993 8.6050472
-0.92500007 -0.084807441 8.6203995
-1.2650844 -0.18976925 4.9627309
-1.0616473 -0.16433892 2.9756284
-1.0338362 -0.16295168 2.2278454
-0.99069482 -0.15772651 1.7110591
-0.93983215 -0.15079096 1.3351675
-0.92154747 -0.14866833 1.0902396
-0.92239314 -0.1519369 0.99844289
-0.89394587 -0.14772338 0.81297654
-0.88905972 -0.14738406 0.67546082
-0.87977397 -0.14615288 0.55339235
-0.86510509 -0.14401908 0.44265413
-0.85203493 -0.14214148 0.34384581
