# .PCD v0.7 - Point Cloud Data file format
VERSION 0.7
FIELDS x y z
SIZE 4 4 4
TYPE F F F
COUNT 1 1 1
WIDTH 1578
HEIGHT 1
VIEWPOINT 0 0 0 1 0 0 0
POINTS 1578
DATA ascii
0.53398246 1.7239321 8.7000799
0.28931123 0.95714551 3.2437794
0.5139845 1.7213658 4.2917724
0.50432444 1.701897 3.3202431
1.8291399 6.2032304 9.5711222
2.5118091 8.5511999 10.747182
0.19804578 0.47783098 8.7847471
0.33212855 0.89481652 8.8590307
0.69261038 2.2550058 9.1197968
0.33197612 1.0994698 3.1774173
0.5698331 1.9058508 4.1768708
0.62106752 2.089025 3.6349955
0.71656972 2.4209499 3.4179602
2.6483512 8.9754353 10.223023
2.8771331 9.8712206 10.183859
3.5821211 12.313885 10.422931
1.9545861 6.732265 4.6807427
6.1735439 21.29121 11.690588
2.3445046 8.0962982 3.4938247
11.562653 39.981251 12.323484
3.3708639 11.505296 10.759149
4.1267023 14.112392 10.789716
5.3249135 18.233553 11.247856
11.68959 40.209713 10.190268
11.811098 40.654121 5.9968219
11.881897 40.951134 1.8137318
0.057216998 0.067789726 8.7439404
0.42169198 1.3155346 8.7824249
0.53999686 1.7220577 8.7000799
0.29265052 0.95612979 3.2437794
0.51999003 1.7195611 4.2917724
0.51026213 1.7001263 3.3202431
0.77645087 2.5999138 4.0577679
2.5526121 8.5792456 10.793232
0.19971251 0.47713673 8.7847471
0.33525002 0.89365172 8.8590307
0.70085102 2.2537746 9.1246357
0.33581197 1.0983043 3.1774173
0.57143408 1.8871821 4.1408615
0.62835574 2.0868444 3.6349955
0.72068906 2.4040024 3.39801
2.6913145 9.0051146 10.267126
2.9125824 9.8645382 10.187363
3.6250825 12.301307 10.422931
1.9957724 6.785574 4.7218647
6.2515717 21.28228 11.697544
11.586266 39.494072 16.717438
11.710237 39.968269 12.331944
3.4025059 11.464824 10.732545
4.1506829 14.012639 10.724965
5.3897505 18.218988 11.25039
11.839492 40.201302 10.198474
11.958529 40.631649 5.9995847
12.0769 41.086758 1.8211883
0.057422467 0.067558683 8.7389402
0.42652145 1.3147936 8.787364
0.54600471 1.7201624 8.7000799
0.29642838 0.95652813 3.2485511
0.52598923 1.7177355 4.2917724
0.51619357 1.6983348 3.3202431
0.78389204 2.5918005 4.0495019
2.5825438 8.5702829 10.793232
0.20137681 0.4764367 8.7847471
0.3383674 0.89247602 8.8590307
0.70871383 2.2513146 9.1246357
0.33964372 1.0971254 3.1774173
0.57546496 1.8768508 4.1228566
0.63563639 2.0846384 3.6349955
0.72907621 2.4014721 3.39801
2.7541599 9.0994978 10.384731
2.9521074 9.8713951 10.204885
3.6691132 12.292307 10.426068
2.0206401 6.7825732 4.724606
6.327086 21.264576 11.699863
11.747824 39.533379 16.751152
11.860598 39.963936 12.343225
3.4425049 11.452877 10.732545
4.1763401 13.920633 10.666102
5.4545512 18.204191 11.252923
11.989472 40.192337 10.20668
12.103115 40.599144 6.0009656
12.223097 41.053928 1.8215915
0.057657946 0.067357831 8.7389402
0.43110836 1.3132967 8.787364
0.55200583 1.718246 8.7000799
0.2997655 0.95548761 3.2485511
0.53256077 1.7177551 4.2963748
0.52211869 1.6965226 3.3202431
0.79128605 2.5836673 4.0412364
2.6143148 8.5673475 10.800907
0.20315287 0.47599605 8.7897396
0.34148067 0.89128947 8.8590307
0.71618634 2.2476294 9.1197968
0.34347135 1.0959331 3.1774173
0.5807218 1.8706726 4.1138539
0.64290929 2.0824068 3.6349955
0.73834002 2.4017928 3.4020002
2.7849128 9.0865879 10.381056
2.9968843 9.8951616 10.239931
3.7119989 12.279425 10.426068
2.0648375 6.843533 4.7712111
6.4025531 21.246601 11.702182
11.90579 39.558716 16.779245
12.000026 39.922291 12.343225
3.4976838 11.490798 10.779102
4.2061067 13.844092 10.619012
5.5193143 18.189165 11.255456
11.992056 39.644669 14.504558
12.138132 40.178162 10.213715
12.266229 40.627766 6.0113258
12.373538 41.034924 1.8225991
0.057861697 0.067125477 8.7339401
0.43618017 1.3132584 8.7972422
0.55831528 1.7172771 8.7049751
0.30355105 0.95585799 3.2533233
0.5385536 1.7158856 4.2963748
0.52803749 1.6946898 3.3202431
0.78946388 2.5459487 3.9875078
2.6470432 8.5673571 10.81242
0.20481315 0.47528401 8.7897396
0.34458977 0.89009207 8.8590307
0.72402769 2.2451158 9.1197968
0.34729475 1.0947275 3.1774173
0.59834582 1.9039389 4.1903744
0.65017426 2.0801499 3.6349955
0.74671936 2.3992007 3.4020002
2.767381 8.9181566 10.200973
3.0460458 9.932373 10.288995
3.7559791 12.270115 10.429208
2.1045971 6.8882699 4.8068504
6.4792638 21.232595 11.70682
12.043804 39.516914 16.779245
12.164453 39.962769 12.368605
3.5509701 11.521337 10.819008
4.2639146 13.860232 10.642557
5.5840387 18.17391 11.25799
12.022496 39.250389 14.376365
12.298213 40.200615 10.230127
12.423899 40.636791 6.0189238
12.529833 41.034489 1.8244129
0.058095656 0.066923089 8.7339401
0.44100937 1.3124644 8.8021812
0.56430632 1.7153176 8.7049751
0.30688575 0.95479256 3.2533233
0.54513156 1.7158571 4.3009768
0.53394985 1.6928362 3.3202431
0.78654534 2.5055902 3.9296465
2.6740623 8.5488873 10.800907
0.20647097 0.47456619 8.7897396
0.34769469 0.88888383 8.8590307
0.73186022 2.2425749 9.1197968
0.35111398 1.0935086 3.1774173
0.60036784 1.8873175 4.1588659
0.6582182 2.080354 3.639261
0.75327826 2.3908315 3.3940198
2.7984941 8.9084425 10.200973
3.0933886 9.9625502 10.331049
3.7999389 12.260647 10.432345
2.1471653 6.9408011 4.8479724
6.5572634 21.222548 11.713777
12.19534 39.518932 16.797977
12.318006 39.965904 12.382706
3.5922771 11.512434 10.822333
4.3170776 13.860702 10.65433
5.6487236 18.158422 11.260522
12.272729 39.573513 14.509488
12.455723 40.213161 10.244195
12.583244 40.649944 6.0272121
12.6848 41.028687 1.8260252
0.058328908 0.06671989 8.7339401
0.44608861 1.3123881 8.8120604
0.57061219 1.7143034 8.7098703
0.31067875 0.95513493 3.2580953
0.55171585 1.7158035 4.3055797
0.53985566 1.6909621 3.3202431
0.79017305 2.4867382 3.9048488
2.7009842 8.5303335 10.789394
0.20800927 0.4735786 8.7847471
0.35099182 0.88816023 8.8640022
0.73968381 2.2400064 9.1197968
0.35492891 1.0922762 3.1774173
0.59694284 1.8541282 4.0913482
0.66627151 2.0805275 3.643527
0.76253492 2.3910584 3.39801
2.806972 8.8275423 10.120118
3.1441865 10.002724 10.383617
3.843879 12.251021 10.435485
2.1851273 6.9771566 4.8781281
6.6339488 21.207983 11.718413
12.344273 39.511524 16.81296
12.473153 39.97303 12.398215
12.597502 40.421131 8.1297255
3.6211948 11.464222 10.789079
4.3690805 13.857113 10.663159
5.7133684 18.142706 11.263056
12.613468 40.22509 10.258263
12.73987 40.653027 6.0341187
12.84137 41.027065 1.8278389
0.058561448 0.066515878 8.7339401
0.45091978 1.3115577 8.8169994
0.57659274 1.7123011 8.7098703
0.31401089 0.95404464 3.2580953
0.5589112 1.7175828 4.314785
0.54575497 1.6890672 3.3202431
2.7297659 8.5178013 10.785557
0.2096611 0.47284964 8.7847471
0.35408995 0.88692963 8.8640022
0.74749839 2.2374108 9.1197968
0.35927874 1.09267 3.1821103
0.59396803 1.8230559 4.0283308
0.67352986 2.0781891 3.643527
2.2296901 6.9076543 9.6862879
2.8325756 8.8015556 10.101743
3.1909778 10.02907 10.422168
3.8877978 12.24124 10.438622
2.2195778 7.0013738 4.9000597
6.7119498 21.197369 11.72537
12.496097 39.512394 16.831692
12.624168 39.965847 12.409496
12.753301 40.423756 8.1390514
12.832439 40.724113 3.9261847
3.6373124 11.376826 10.719243
4.4161949 13.837925 10.660215
5.7779727 18.12676 11.265589
12.769978 40.231777 10.271158
12.895174 40.650787 6.0403347
12.998083 41.024857 1.8296528
0.058793273 0.066311054 8.7339401
0.45600605 1.3114433 8.8268785
0.58256626 1.7102779 8.7098703
0.31781116 0.95435888 3.2628672
0.56551439 1.7174768 4.319387
0.5516476 1.6871519 3.3202431
0.7474165 2.2965281 3.6196752
2.7495935 8.4777327 10.747182
0.21131039 0.47211489 8.7847471
0.35718375 0.88568825 8.8640022
0.75490117 2.233597 9.1149569
0.36309069 1.0914092 3.1821103
0.59623754 1.8085667 4.0013237
0.68240571 2.0807817 3.6520593
2.2547245 6.9026933 9.6902781
2.854883 8.7658262 10.072342
3.2489223 10.089156 10.495763
3.9316947 12.231297 10.441761
2.2503915 7.0134912 4.9137673
6.7886052 21.182247 11.730008
12.649492 39.517101 16.852295
12.778208 39.967228 12.423596
12.906282 40.416431 8.146512
12.879182 40.380173 3.8980186
3.6183801 11.182886 10.549643
4.4644713 13.822425 10.660215
5.8412123 18.10648 11.265589
12.689353 39.451817 14.512774
12.925203 40.233231 10.282881
13.049106 40.643253 6.0458598
13.154937 41.022045 1.8314664
0.059055932 0.066135563 8.7389402
0.46083903 1.3105766 8.8318176
0.58853269 1.708234 8.7098703
0.32114056 0.95324373 3.2628672
0.5739767 1.7229064 4.3377976
0.5575335 1.6852161 3.3202431
0.75366777 2.2885597 3.6114094
2.7681746 8.4345827 10.704969
0.21295708 0.47137442 8.7847471
0.36027318 0.88443601 8.8640022
0.76269335 2.2309482 9.1149569
0.36689821 1.0901351 3.1821103
0.60530287 1.8147348 4.0193286
0.68802184 2.0734365 3.643527
2.2778602 6.8919196 9.6862879
2.8833416 8.7493677 10.064991
3.2907503 10.098099 10.51679
3.9755702 12.221202 10.4449
2.2877736 7.0453634 4.9411821
6.8666048 21.171064 11.736964
12.798785 39.507984 16.867279
12.922071 39.936073 12.427827
13.071455 40.445923 8.1614342
13.151617 40.742535 3.9364672
3.602787 11.003413 10.393344
4.5126939 13.806757 10.660215
5.9057183 18.09008 11.268123
12.841605 39.452183 14.529211
13.082095 40.238716 10.295776
13.204669 40.639839 6.0520759
13.310389 41.013897 1.8330787
0.059286434 0.065929018 8.7389402
0.46567145 1.3096918 8.8367567
0.59449196 1.7061692 8.7098703
0.3249478 0.95352972 3.2676392
0.57873905 1.7171897 4.3285923
0.56341255 1.6832596 3.3202431
0.75364494 2.2618876 3.574213
2.7612348 8.3153601 10.566819
0.21460119 0.47062817 8.7847471
0.36335826 0.88317305 8.8640022
0.7704761 2.2282724 9.1149569
0.37070128 1.0888478 3.1821103
0.61372226 1.8187987 4.0328321
0.69940597 2.0833843 3.6648569
2.3019035 6.8839264 9.6862879
2.9138651 8.7392492 10.064991
3.3404977 10.130579 10.562349
4.0182056 12.20725 10.4449
2.3162687 7.0492516 4.9494061
6.9418445 21.151173 11.739283
12.946724 39.493908 16.88039
13.088266 39.972786 12.453208
13.221719 40.428059 8.1670303
13.366434 40.918873 3.95748
3.6552649 11.033302 10.43325
4.5963974 13.898375 10.742625
5.9688282 18.069355 11.268123
12.986626 39.429543 14.537428
13.237664 40.238979 10.307499
13.349541 40.602909 6.0534577
13.465942 41.005157 1.834691
0.059516203 0.065721668 8.7389402
0.47076645 1.3095206 8.8466349
0.60010546 1.7031235 8.7049751
0.32827425 0.95238966 3.2676392
0.57779342 1.6948191 4.2779646
0.57005304 1.6835511 3.3246322
0.75973791 2.2539101 3.5659468
2.7698293 8.2449045 10.490069
0.21624269 0.4698762 8.7847471
0.3664389 0.8818993 8.8640022
0.77866465 2.2267561 9.1197968
0.3744998 1.0875471 3.1821103
0.61866057 1.8125248 4.0238295
0.71338403 2.1006856 3.6989844
2.3259189 6.8758497 9.6862879
2.9432693 8.7258129 10.061316
3.3701966 10.101943 10.544827
4.0620227 12.196841 10.448038
2.3448186 7.0530272 4.9576311
7.0184255 21.135221 11.74392
13.096181 39.483677 16.895374
13.250345 39.995155 12.474358
13.373561 40.414307 8.1735582
13.518563 40.900333 3.9601626
3.6961293 11.027556 10.4399
4.6564269 13.916744 10.769114
6.0318661 18.04841 11.268123
8.1745167 24.502199 12.027992
13.168969 39.518372 14.586734
13.393394 40.238644 10.319223
13.520891 40.645344 6.0665808
13.621597 40.995831 1.8363032
0.059745252 0.065513514 8.7389402
0.47560033 1.3085996 8.8515739
0.6060468 1.7010183 8.7049751
0.33208838 0.95264739 3.2724111
0.49643484 1.4397686 3.6474187
0.5759263 1.681551 3.3246322
0.7703256 2.2592344 3.5783455
2.7511501 8.0955849 10.313544
0.21788153 0.46911851 8.7847471
0.36951506 0.88061482 8.8640022
0.78643268 2.2240243 9.1197968
0.37829375 1.0862333 3.1821103
0.61645722 1.7856616 3.969815
0.74443877 2.1672456 3.8184304
2.349906 6.8676887 9.6862879
2.9868474 8.7539873 10.105418
3.4031575 10.083359 10.537818
4.1045728 12.182588 10.448038
2.3734229 7.0566893 4.9658556
7.0949798 21.118992 11.748558
13.238349 39.450905 16.900993
13.409694 40.007793 12.492688
13.534824 40.427933 8.1856823
13.684938 40.923737 3.9668686
3.7501862 11.060555 10.483132
6.0948296 18.027245 11.268123
8.278863 24.529419 12.055267
13.547732 40.233109 10.329774
13.689538 40.677685 6.0783219
13.77735 40.985916 1.8379154
0.059973575 0.065304562 8.7389402
0.48043346 1.3076608 8.856514
0.6119808 1.6988925 8.7049751
0.33590829 0.9528901 3.2771833
0.58257657 1.6817935 3.3290212
0.78554755 2.2778139 3.6114094
2.75647 8.0192471 10.229119
0.21951774 0.46835512 8.7847471
0.37258673 0.87931961 8.8640022
0.79419118 2.2212658 9.1197968
0.38208312 1.0849061 3.1821103
0.61048543 1.7485601 3.8932943
0.7733987 2.226223 3.9250786
2.3738642 6.8594441 9.6862879
3.0350819 8.7947845 10.164221
3.4383342 10.071418 10.537818
4.1483288 12.17187 10.451177
2.4034283 7.0641956 4.9768209
7.1700816 21.098291 11.750877
13.401311 39.479084 16.932837
13.580071 40.051598 12.520888
13.701075 40.454884 8.2006044
13.834089 40.894588 3.968657
3.7984624 11.075652 10.509736
6.1577196 18.005859 11.268123
8.3673687 24.508961 12.059464
13.70533 40.236183 10.342669
13.837831 40.648407 6.0810847
13.939635 40.994331 1.8403339
0.060201164 0.065094821 8.7389402
0.48526582 1.306704 8.8614531
0.61790729 1.6967459 8.7049751
0.34023538 0.95452368 3.2867272
0.45773217 1.2980883 3.3022294
0.58844358 1.6797496 3.3290212
0.81388396 2.3335118 3.7023342
2.7686579 7.9641643 10.171556
0.22127557 0.4678466 8.7897396
0.37544364 0.87752384 8.8590307
0.80236751 2.219662 9.1246357
0.3858678 1.0835658 3.1821103
0.60571206 1.7156279 3.8257763
0.80450827 2.2899446 4.0402594
2.3967981 6.8482718 9.6822977
3.0769343 8.816144 10.200973
3.4874372 10.099806 10.579872
4.1920595 12.160995 10.454315
2.4280722 7.0557632 4.9768209
7.2480044 21.085703 11.757833
13.560114 39.49345 16.959059
13.722909 40.013027 12.523709
13.839022 40.397518 8.1987391
13.99449 40.897881 3.9735749
3.8432186 11.079964 10.526363
6.2205343 17.984255 11.268123
8.4602766 24.501053 12.069953
13.859945 40.229454 10.35322
13.992532 40.63731 6.0866098
14.100522 40.997395 1.8425508
0.060428023 0.064884283 8.7389402
0.4900974 1.3057296 8.8663921
0.62417817 1.6955341 8.7098703
0.34457797 0.95613861 3.2962713
0.45504102 1.2762414 3.2516015
0.5951032 1.6799427 3.3334103
0.84729934 2.4023085 3.8139238
2.770927 7.8818793 10.079456
0.2229073 0.46707135 8.7897396
0.37850448 0.87620795 8.8590307
0.81011063 2.2168477 9.1246357
0.38964781 1.0822122 3.1821103
0.59998423 1.6807005 3.753757
0.80551159 2.2674623 4.0061316
2.4247098 6.8512263 9.6982584
3.1358974 8.885272 10.292851
3.5297256 10.107773 10.6009
4.235765 12.149964 10.457454
2.4595587 7.0669899 4.9905281
7.3244724 21.068642 11.762471
13.71918 39.507187 16.985281
13.879787 40.014732 12.539219
14.159966 40.914665 3.9798338
3.9214201 11.179225 10.63278
4.9558196 14.151745 11.001622
6.2832732 17.962433 11.268123
8.5577211 24.505651 12.086738
14.016281 40.226734 10.364944
14.147326 40.625633 6.0921354
14.261598 40.999828 1.8447676
0.060654141 0.064672954 8.7389402
0.49492806 1.3047373 8.8713322
0.63009292 1.693345 8.7098703
0.34893593 0.95773476 3.3058152
0.45750496 1.2691319 3.2377942
0.60096371 1.6778551 3.3334103
0.87364149 2.4496951 3.8924499
2.7801716 7.8208175 10.014218
0.22466241 0.46655008 8.7947311
0.38156071 0.87488139 8.8590307
0.81784391 2.2140064 9.1246357
0.39342305 1.0808455 3.1821103
0.60141212 1.6663102 3.7267497
0.79402363 2.2106385 3.912281
2.4465799 6.8370461 9.6902781
3.1611965 8.8583069 10.274475
3.5768621 10.129018 10.635945
4.2794452 12.138776 10.460592
2.4911535 7.0780826 5.0042357
7.4023781 21.055483 11.769427
13.878508 39.520294 17.011503
14.033672 40.006783 12.551909
3.9791424 11.218254 10.682663
5.0132842 14.157222 11.019281
6.3574352 17.9729 11.288387
8.6537886 24.505587 12.101424
14.172766 40.223404 10.376667
14.290695 40.580673 6.0928264
14.422863 41.001637 1.8469845
0.060911905 0.064490087 8.7439404
0.50003606 1.3044525 8.8812094
0.63599992 1.6911352 8.7098703
0.3527931 0.95791155 3.3105872
0.45925567 1.2601851 3.219384
0.60763246 1.6779991 3.3377995
0.88791484 2.4625137 3.9172478
2.803118 7.7990003 9.9988689
0.22628962 0.465763 8.7947311
0.38461229 0.87354416 8.8590307
0.82556731 2.211138 9.1246357
0.39778963 1.081085 3.1868029
0.60200059 1.6498858 3.6952412
0.77680743 2.1392155 3.792835
2.472481 6.8341317 9.6982584
3.2001524 8.8695402 10.300201
3.6145949 10.123186 10.642954
4.3217912 12.123764 10.460592
1.3620162 3.8272235 2.748009
7.4802823 21.042038 11.776383
14.027234 39.50219 17.024614
14.189273 40.002762 12.56601
15.653189 44.227802 4.3048606
4.0283608 11.232412 10.709267
5.0708466 14.162468 11.036941
6.4259405 17.966837 11.29852
8.7484322 24.500875 12.114012
14.33103 40.224052 10.389563
14.463822 40.619179 6.1059494
14.582642 40.998116 1.8489997
0.061136648 0.064277075 8.7439404
0.5048672 1.3034236 8.8861494
0.64189917 1.6889048 8.7098703
0.35717675 0.95947182 3.3201311
0.46365172 1.2585744 3.219384
0.61348611 1.6758678 3.3377995
2.2256367 6.1052184 9.6165838
2.8292298 7.7861557 9.9950314
0.22791407 0.46497029 8.7947311
0.38765919 0.87219626 8.8590307
0.83328062 2.2082427 9.1246357
0.4015609 1.0796899 3.1868029
0.60549563 1.6416471 3.6817374
0.7896629 2.1511798 3.8184304
0.94583148 2.5862525 3.7212021
3.2310934 8.8583155 10.300201
3.6547532 10.123925 10.656972
4.3654046 12.112267 10.463731
1.3767831 3.8263803 2.7507505
7.556684 21.024136 11.781021
14.185401 39.509705 17.048964
14.346636 40.002655 12.58152
4.0764537 11.242853 10.732545
5.1422653 14.205493 11.084031
6.5032763 17.984835 11.323852
8.841609 24.491531 12.124503
14.489471 40.224083 10.402458
14.625652 40.624359 6.1142373
14.742568 40.993973 1.851015
0.061360642 0.064063273 8.7439404
0.50969732 1.3023767 8.8910885
0.64779067 1.6866539 8.7098703
0.36104968 0.95961624 3.324903
0.46736017 1.2551174 3.2147813
0.6201635 1.6759622 3.3421884
2.2245541 6.0366826 9.5215263
2.8497601 7.7581801 9.9720058
0.22953571 0.46417189 8.7947311
0.3909201 0.87132388 8.8640022
0.84098375 2.2053206 9.1246357
0.40532729 1.0782815 3.1868029
0.611983 1.6415634 3.6862388
0.8053335 2.1704164 3.8568239
0.95903307 2.5942402 3.7371624
3.2643406 8.8533449 10.307552
3.6509457 10.003902 10.544827
4.4089899 12.100611 10.466869
1.3815547 3.7979743 2.734302
7.6330514 21.005957 11.785659
14.50417 40.001942 12.597031
4.1182437 11.235566 10.739196
5.2001543 14.21023 11.101689
6.5719357 17.97822 11.333984
8.9363832 24.486101 12.137091
14.649749 40.228069 10.416525
14.79108 40.638203 6.1239066
14.900936 40.984516 1.8528287
0.061583895 0.063848697 8.7439404
0.51452625 1.3013122 8.8960276
0.65367424 1.6843824 8.7098703
0.36492798 0.95974523 3.329675
0.47173849 1.2534784 3.2147813
0.62600994 1.6737872 3.3421884
2.8701301 7.7301569 9.9489813
0.23115458 0.46336785 8.7947311
0.39395922 0.86995399 8.8640022
0.84867662 2.2023716 9.1246357
0.4090887 1.0768601 3.1868029
0.61924481 1.6434913 3.6952412
0.8715229 2.323874 4.1298437
0.95331597 2.5513599 3.6813018
3.2964089 8.8450727 10.311227
3.6278291 9.8338423 10.380113
4.4512024 12.085147 10.466869
1.3875878 3.7735062 2.7205946
7.704802 20.975027 11.78334
14.660224 39.996109 12.611131
4.1535468 11.21062 10.729219
5.2511282 14.195783 11.104633
6.6137333 17.898561 11.29852
9.0296545 24.476048 12.147581
14.810233 40.231422 10.430593
14.958492 40.656036 6.1342669
15.061144 40.979149 1.8548441
0.061773602 0.063604541 8.7389402
0.51935405 1.3002297 8.9009676
0.65954983 1.6820904 8.7098703
0.36881161 0.95985889 3.3344471
0.47541639 1.2499981 3.2101789
0.64031833 1.6939943 3.3860793
0.84785008 2.2523584 3.6072764
2.8993478 7.7260919 9.9566555
0.23277062 0.46255815 8.7947311
0.39699352 0.86857349 8.8640022
0.85635912 2.1993959 9.1246357
0.41284516 1.0754256 3.1868029
0.62575275 1.6433542 3.6997426
0.87962937 2.3208177 4.1298437
0.95582831 2.5311029 3.6573615
3.328459 8.8366852 10.314902
3.6160312 9.697485 10.250445
4.4947181 12.073183 10.470007
1.3963809 3.756881 2.7123702
7.7795138 20.952158 11.785659
9.0799408 24.480673 10.637571
14.816412 39.989674 12.625231
4.157299 11.101643 10.639431
5.3091416 14.200082 11.122292
6.6716466 17.863251 11.290921
9.1245508 24.469894 12.16017
14.969222 40.229591 10.443489
15.1124 40.636063 6.139102
15.214535 40.954422 1.8560532
0.061995246 0.063388526 8.7389402
0.52388948 1.2984089 8.9009676
0.66541743 1.679778 8.7098703
0.37378141 0.96273971 3.348763
0.4797768 1.2483311 3.2101789
0.66759694 1.7476804 3.4958065
0.85570711 2.2493849 3.6072764
2.9251626 7.7129273 9.9528179
0.23438384 0.46174279 8.7947311
0.40002298 0.86718249 8.8640022
0.8640312 2.1963933 9.1246357
0.41659656 1.0739779 3.1868029
0.63226718 1.6431913 3.7042434
0.87932885 2.2958143 4.0914502
0.95713651 2.5080447 3.6294315
3.3604906 8.8281813 10.318578
3.6825593 9.7715683 10.341563
4.5382047 12.061064 10.473146
7.8479342 20.912432 11.778703
2.9880266 7.9707046 3.5275393
14.972736 39.982635 12.639332
4.1590199 10.989286 10.546316
5.3701072 14.211712 11.145838
6.7309151 17.831785 11.285854
9.2227163 24.47187 12.176954
15.12838 40.227139 10.456385
15.266351 40.615513 6.1439366
15.385499 40.975899 1.8592778
0.062183157 0.063143179 8.7339401
0.5284186 1.2965723 8.9009676
0.67165536 1.67839 8.7147646
0.37823051 0.96420819 3.3583069
0.48342392 1.2448276 3.2055764
0.68404436 1.7721505 3.5484753
0.85850453 2.2332513 3.5866117
2.9463327 7.6877055 9.9336309
0.23599419 0.46092182 8.7947311
0.40304756 0.86578089 8.8640022
0.87169278 2.1933637 9.1246357
0.42034292 1.0725172 3.1868029
0.63957715 1.6450323 3.7132461
0.89110303 2.3024595 4.1085138
0.96696973 2.5075002 3.6334214
3.3925033 8.819562 10.322253
3.720454 9.7686529 10.352077
4.5816612 12.048786 10.476284
7.9255962 20.897335 11.785659
15.12919 39.974991 12.653432
4.1480041 10.845668 10.423273
5.3951702 14.128689 11.095804
6.7915821 17.804155 11.28332
9.3226213 24.477701 12.195837
15.289426 40.228603 10.470451
15.422102 40.59901 6.1494622
15.547935 40.973324 1.8614945
0.062403183 0.062925734 8.7339401
0.53264529 1.2940015 8.8960276
0.6775099 1.6760353 8.7147646
0.38874686 0.98092073 3.4203427
0.48705244 1.2413139 3.200974
0.70415211 1.8054519 3.6187005
0.8683328 2.2354872 3.5948777
2.9812524 7.6982961 9.9604931
0.23760167 0.46009523 8.7947311
0.40606728 0.86436868 8.8640022
0.87887532 2.189141 9.1197968
0.42408416 1.0710434 3.1868029
0.64611161 1.6448159 3.7177474
0.90293431 2.3090503 4.1255779
0.97571665 2.5041094 3.6334214
3.4244969 8.8108253 10.325929
3.7442827 9.7289801 10.32404
4.6250877 12.036354 10.479424
7.9921522 20.852997 11.776383
9.35569 24.436203 10.660048
15.287488 39.971226 12.668942
4.1764154 10.806744 10.399995
5.425539 14.060747 11.057543
6.8397346 17.744139 11.260522
9.4210482 24.478891 12.212621
15.450671 40.229443 10.48452
15.570824 40.563423 6.152225
15.715906 40.984112 1.8643161
0.062622458 0.062707521 8.7339401
0.53715897 1.2921343 8.8960276
0.68335623 1.6736602 8.7147646
0.3977192 0.9934144 3.4680624
0.49138245 1.2396063 3.200974
0.72362232 1.8364056 3.6845365
0.8730464 2.2245839 3.5824785
3.0151141 7.7057524 9.9835186
0.23934045 0.4595187 8.7997227
0.40931091 0.8634274 8.8689747
0.8865115 2.18606 9.1197968
0.42782021 1.0695565 3.1868029
0.65345544 1.6465971 3.7267497
0.83527654 2.1142659 3.788569
0.98776329 2.5090995 3.6453915
3.4552314 8.7988186 10.325929
3.7717576 9.6992321 10.306518
4.6670747 12.020136 10.479424
6.1356344 15.826922 11.213656
15.439025 39.94894 12.678813
4.2100382 10.781666 10.390018
6.8906798 17.692036 11.24279
9.5212431 24.483929 12.231503
15.612105 40.229641 10.498588
15.712321 40.508823 6.152225
15.880531 40.984901 1.8667344
0.062840968 0.062488545 8.7339401
0.54136509 1.289535 8.8910885
0.68919426 1.6712646 8.7147646
0.40846321 1.0100085 3.5300984
0.4957065 1.2378836 3.200974
0.7566061 1.900622 3.8162091
0.88703001 2.2372184 3.6072764
3.0455289 7.704123 9.9950314
0.24094303 0.45868045 8.7997227
0.41232237 0.86199337 8.8689747
0.89413691 2.1829522 9.1197968
0.43219784 1.0696566 3.1914957
0.66081959 1.6483474 3.7357521
0.8117125 2.0338271 3.6520593
0.99985653 2.5140359 3.6573615
3.487174 8.789854 10.329603
3.804287 9.6826878 10.303013
4.7104254 12.007395 10.482561
6.1420426 15.680819 11.125929
3.1192768 7.980021 3.5500154
15.606297 39.966301 12.701373
4.2024293 10.652287 10.280277
5.3724656 13.638929 10.75734
9.6199274 24.484337 12.248288
15.550414 39.61898 14.902287
15.775503 40.233727 10.513827
15.915061 40.610489 6.1757078
16.045355 40.985046 1.8691528
0.063058704 0.062268808 8.7339401
0.54586315 1.2876375 8.8910885
0.69502383 1.6688486 8.7147646
0.41650414 1.0196306 3.5682743
0.49929172 1.2343347 3.1963713
0.75787371 1.8846374 3.7898748
2.2687647 5.6639724 9.0338383
3.0890455 7.7351179 10.048756
0.24254265 0.4578366 8.7997227
0.41532877 0.86054885 8.8689747
0.9017514 2.1798177 9.1197968
0.43592897 1.0681415 3.1914957
0.66902113 1.6520838 3.7492557
1.0119965 2.5189188 3.6693318
3.5178349 8.7776279 10.329603
3.8367469 9.6660337 10.299508
4.7537446 11.994498 10.485701
6.1551991 15.554306 11.051909
15.773877 39.982979 12.723934
4.2409692 10.641021 10.283603
5.4140635 13.605071 10.745567
6.7528534 16.98654 10.827349
9.7187309 24.484356 12.265072
15.587656 39.309856 14.806963
15.93912 40.237156 10.529067
16.087713 40.632969 6.1874495
16.210369 40.984535 1.8715711
0.06327568 0.062048312 8.7339401
0.55004853 1.28501 8.8861494
0.700845 1.6664125 8.7147646
0.42290848 1.0250694 3.5921342
0.50285822 1.2307758 3.1917689
0.73650306 1.8131952 3.6538131
2.2674117 5.6038475 8.9511795
3.1124296 7.7153707 10.037244
0.24413933 0.45698717 8.7997227
0.4183301 0.8590939 8.8689747
0.90935487 2.1766567 9.1197968
0.43965486 1.0666133 3.1914957
0.67643243 1.6537679 3.7582579
1.0241824 2.523747 3.6813018
3.550998 8.7715797 10.336953
3.8651555 9.6393433 10.285491
4.7970314 11.981444 10.488838
6.1396093 15.358006 10.928544
15.941764 39.99897 12.746493
16.122984 40.494743 8.3666105
4.2627482 10.588052 10.247022
5.4615211 13.586089 10.745567
6.7815833 16.886858 10.779219
9.8311634 24.517681 12.298641
16.102955 40.239941 10.544308
16.277264 40.696106 6.2054071
16.377434 40.988014 1.874191
0.063458316 0.061799202 8.728941
0.55453068 1.2830821 8.8861494
0.70665753 1.6639558 8.7147646
0.42705846 1.0249647 3.5969059
0.50715137 1.2290131 3.1917689
0.74100947 1.8061821 3.6450353
2.2763126 5.5698495 8.9098501
3.1320851 7.6866498 10.014218
0.24573302 0.45613217 8.7997227
0.42132637 0.85762841 8.8689747
0.91694725 2.1734693 9.1197968
0.44337532 1.0650721 3.1914957
0.68386376 1.6554207 3.7672606
1.0364144 2.5285208 3.6932716
3.5803113 8.7559929 10.333278
3.9001181 9.629097 10.288995
4.8402843 11.968236 10.491977
6.235456 15.441168 11.002564
16.104582 40.000931 12.764825
16.264238 40.438217 8.3666105
4.3081212 10.593862 10.266975
5.5013089 13.548218 10.730852
6.7870135 16.731258 10.695623
9.9320211 24.521072 12.317524
16.265179 40.237564 10.558375
16.450758 40.717098 6.2171488
16.544716 40.990822 1.8768109
0.063673653 0.061577316 8.728941
0.55869514 1.2804265 8.8812094
0.71246153 1.661479 8.7147646
0.43295032 1.0289708 3.615994
0.51068658 1.225432 3.1871662
2.2656775 5.4890375 8.7941265
3.1405995 7.6312094 9.9566555
0.24732372 0.45527166 8.7997227
0.42431745 0.85615247 8.8689747
0.92452848 2.1702552 9.1197968
0.44709042 1.0635179 3.1914957
0.68963808 1.6530235 3.7672606
1.1201899 2.6966634 4.8465204
1.046387 2.5276718 3.6972618
3.6082659 8.7371759 10.325929
3.9296553 9.6055231 10.278481
4.8835034 11.95487 10.495115
6.2924757 15.427051 11.008046
16.265795 39.997795 12.781745
16.412691 40.399399 8.3703413
16.437309 40.500515 4.0169415
4.3521676 10.596027 10.283603
5.5408983 13.510233 10.716136
6.8045163 16.607742 10.632294
10.058799 24.587069 12.367877
16.42942 40.239044 10.573616
16.600269 40.677761 6.2199111
16.712219 40.992962 1.8794309
0.063888207 0.061354678 8.728941
0.56316125 1.2784685 8.8812094
0.71825683 1.658982 8.7147646
0.43595546 1.0260795 3.611222
0.51420301 1.2218413 3.1825638
3.1524558 7.5846829 9.9106064
0.2489114 0.45440552 8.7997227
0.42706448 0.85418952 8.8640022
0.93209851 2.1670148 9.1197968
0.45080006 1.0619508 3.1914957
0.69709468 1.6546183 3.7762628
1.1346411 2.7047615 4.8678503
1.0540414 2.5212235 3.6932716
3.6100318 8.6556911 10.245074
3.9781413 9.6280031 10.317032
4.9281735 11.944947 10.501392
1.4995669 3.6401343 2.6657653
16.425364 39.989582 12.797256
16.587177 40.423664 8.3871288
16.63336 40.576519 4.0299067
4.3948503 10.594564 10.296904
1.5400277 3.7180779 3.0138853
6.8558536 16.567955 10.622161
10.141096 24.543417 12.363681
16.592018 40.235371 10.587684
16.762918 40.66993 6.2275085
16.879938 40.994431 1.8820508
0.064101987 0.061131291 8.728941
0.56762052 1.276495 8.8812094
0.72404337 1.6564647 8.7147646
0.43953452 1.0245514 3.611222
0.51846492 1.220039 3.1825638
0.89413875 2.1159973 4.2770624
0.82668829 1.9639807 3.2022474
3.1677475 7.5470343 9.8760691
0.25049606 0.45353389 8.7997227
0.43004352 0.85269362 8.8640022
0.93965709 2.163748 9.1197968
0.45518428 1.0619566 3.1961884
0.71138966 1.6722064 3.821275
1.1105026 2.6215377 4.7270746
1.0675238 2.5286329 3.7092319
3.6283805 8.6149168 10.211998
4.0117249 9.6140585 10.317032
4.9728327 11.934856 10.507669
1.5106579 3.6310167 2.6630237
16.588749 39.989605 12.815586
16.75827 40.438126 8.40205
16.89872 40.817295 4.0589671
4.4404621 10.599823 10.316857
1.532719 3.6642039 2.9756241
6.8970232 16.50415 10.596829
10.233698 24.524624 12.372073
16.756659 40.235542 10.602924
16.91049 40.624886 6.2295809
17.045952 40.990612 1.884469
0.064348936 0.060934551 8.7339401
0.57239121 1.2752146 8.8861494
0.72982115 1.6539272 8.7147646
0.4431082 1.023011 3.611222
0.52194989 1.2164264 3.1779611
0.90057945 2.1106603 4.2726731
0.83133703 1.9559035 3.1939816
3.1865671 7.5182238 9.8530436
0.25207767 0.45265678 8.7997227
0.43301737 0.85118729 8.8640022
0.94720429 2.1604548 9.1197968
0.45888844 1.0603613 3.1961884
0.73354971 1.7077159 3.9067984
1.1216983 2.6224411 4.7356067
2.8442087 6.6715984 9.6783075
3.6345475 8.5460443 10.145844
5.0159726 11.921014 10.510807
1.5200839 3.6180112 2.6575408
16.752335 39.988976 12.833917
16.9126 40.411102 8.4085789
17.112173 40.928051 4.0755086
4.4774351 10.584259 10.316857
1.5455002 3.6588311 2.9756241
6.9445348 16.456144 10.58163
10.319242 24.488752 12.372073
16.921499 40.23505 10.618164
17.094414 40.666042 6.2447758
17.214079 40.990742 1.887089
0.064561248 0.060709558 8.7339401
0.57715994 1.2739165 8.8910885
0.73558998 1.6513696 8.7147646
0.44667646 1.021458 3.611222
0.52619284 1.214597 3.1779611
0.91078478 2.1141026 4.2858405
0.83926928 1.9555756 3.1981144
3.212791 7.5070543 9.8530436
0.25351402 0.45152277 8.7947311
0.43598592 0.84967059 8.8640022
0.95473987 2.1571355 9.1197968
0.46327817 1.0603344 3.2008812
0.74210525 1.7111363 3.9203019
2.8579483 6.6394877 9.6463881
3.6937859 8.6018381 10.226699
5.0575538 11.903431 10.510807
1.5408696 3.6319296 2.6712482
16.730309 39.510044 17.423571
16.916115 39.98769 12.852246
17.099451 40.460419 8.4309616
17.283989 40.936886 4.0822148
4.5158205 10.571999 10.320183
1.4948292 3.5046971 2.8578975
7.0019355 16.431803 10.58163
10.420654 24.490166 12.390955
17.086544 40.233902 10.633405
17.261415 40.665386 6.2537551
17.384365 40.994797 1.8899105
0.06477277 0.060483828 8.7339401
0.58224988 1.2733071 8.9009676
0.74134988 1.6487918 8.7147646
0.4502393 1.0198926 3.611222
0.52964634 1.2109631 3.1733589
0.92962343 2.1372647 4.3385096
0.85168505 1.9655439 3.2187793
3.236433 7.4899096 9.8453684
0.2550886 0.45063514 8.7947311
0.43894917 0.84814358 8.8640022
0.96175098 2.1526418 9.1149569
0.46767324 1.0602895 3.205574
1.8003718 4.1114335 9.344264
0.7834602 1.7969519 3.2766569
2.8859115 6.6405258 9.6623478
4.1262589 9.6042871 10.352077
5.0990739 11.885705 10.510807
1.5732968 3.672652 2.7041457
17.080093 39.985748 12.870578
17.256006 40.436626 8.4384232
17.440451 40.908371 4.0853448
4.5556536 10.563027 10.326834
1.5182453 3.5254445 2.8785
7.0626578 16.415182 10.586697
10.522201 24.491171 12.409838
17.251785 40.232086 10.648644
17.43252 40.673157 6.2641149
17.550957 40.988979 1.8923289
0.064949267 0.06023033 8.728941
0.58734262 1.2726779 8.9108458
0.74710071 1.646194 8.7147646
0.45379665 1.0183147 3.611222
0.53387016 1.2091069 3.1733589
0.93226296 2.1230423 4.3165641
0.9104262 2.0811505 3.4088948
3.2612765 7.4756289 9.8415308
0.25666004 0.44974193 8.7947311
0.44190708 0.84660614 8.8640022
0.9692592 2.1492715 9.1149569
0.47137147 1.0586505 3.205574
1.8103114 4.0951691 9.3217592
0.79077882 1.7965932 3.2809229
2.9199698 6.6552458 9.6982584
4.1767893 9.6290865 10.394132
5.1389847 11.864263 10.507669
1.586107 3.6671379 2.7041457
3.0984104 7.1703887 4.1753578
3.4142501 7.9088621 3.5687459
17.240465 39.974339 12.886087
17.430096 40.452839 8.454277
17.622522 40.938732 4.0942864
4.5924973 10.547061 10.326834
1.5402126 3.5423639 2.8961587
7.1267853 16.406244 10.596829
10.591372 24.416821 12.390955
17.419151 40.234066 10.665056
17.617657 40.712044 6.2793097
17.721684 40.991665 1.8951503
0.065159112 0.060003247 8.728941
0.59210968 1.2713239 8.9157839
0.75284243 1.6435761 8.7147646
0.45734844 1.0167245 3.611222
0.53808749 1.2072361 3.1733589
0.91054726 2.0540912 4.1848917
3.2938111 7.4788666 9.8607178
0.25837317 0.44909307 8.7997227
0.44485959 0.84505844 8.8640022
0.97675568 2.145875 9.1149569
0.47577173 1.0585726 3.2102668
1.8245952 4.0888247 9.3217592
0.79386795 1.7866721 3.2681251
2.9492848 6.6587882 9.7182083
4.1889167 9.5654469 10.341563
5.1788077 11.842685 10.50453
1.5721245 3.6002672 2.6602821
3.1340487 7.1838908 4.1892705
3.4362795 7.8841472 3.563127
17.402874 39.96669 12.903008
17.80303 40.963741 4.1027808
4.6638451 10.609583 10.40332
1.5281984 3.4814491 2.8520114
7.1909351 16.397058 10.606962
10.641947 24.300713 12.351092
17.406216 39.784527 15.20305
17.586742 40.235374 10.681469
17.767591 40.668449 6.2820725
17.890642 40.989079 1.8977702
0.065368161 0.059775434 8.728941
0.59687459 1.2699525 8.9207239
0.75857502 1.6409382 8.7147646
0.4608947 1.0151218 3.611222
0.5422982 1.2053504 3.1733589
0.8707521 1.9459697 3.974216
2.2862771 5.1280699 8.3188381
3.3198974 7.4673228 9.8607178
0.25993922 0.44818845 8.7997227
0.44780669 0.84350044 8.8640022
0.98424023 2.1424525 9.1149569
0.47946391 1.0569055 3.2102668
1.8451154 4.0963249 9.3532667
0.80009973 1.7838901 3.2681251
2.9700506 6.642951 9.7102289
4.1934409 9.4855318 10.271472
5.2201147 11.824535 10.50453
1.5829953 3.5909312 2.6575408
3.1716049 7.2012854 4.205502
17.383015 39.505981 17.526587
17.555792 39.93644 12.912878
4.7417421 10.685384 10.493109
1.5403415 3.4760935 2.8520114
7.2551088 16.387625 10.617096
10.680829 24.159643 12.298641
17.598404 39.844479 15.249067
17.754555 40.235992 10.697882
17.935423 40.665085 6.2910519
18.061815 40.990383 1.9005916
0.065576419 0.059546895 8.728941
0.60163713 1.2685633 8.925663
0.76429832 1.6382802 8.7147646
0.46443534 1.0135068 3.611222
0.54650235 1.2034501 3.1733589
0.82824171 1.8337866 3.7547622
2.279911 5.0661697 8.2320452
1.2094042 2.6950085 3.6132615
0.26150212 0.44727838 8.7997227
0.45074832 0.84193218 8.8640022
0.99171275 2.1390038 9.1149569
0.48386887 1.0567942 3.2149594
0.72950703 1.6047833 3.7087448
0.8063218 1.7810863 3.2681251
2.9907415 6.6270499 9.7022486
3.8795347 8.6164351 10.322253
4.2047257 9.4219856 10.218904
5.2597747 11.802687 10.501392
3.2003222 7.198266 4.2101398
17.543392 39.495903 17.549063
17.741789 39.980152 12.946719
4.8156457 10.750547 10.572921
5.9905887 13.392246 10.76617
7.3193035 16.377941 10.627228
10.717008 24.014454 12.244092
17.731611 39.769863 15.244137
17.922585 40.235935 10.714293
18.097403 40.647469 6.2979584
18.229155 40.981861 1.90301
0.065783881 0.059317626 8.728941
0.60639715 1.2671562 8.9306021
0.77001232 1.6356024 8.7147646
0.46797031 1.0118794 3.611222
0.55069989 1.2015351 3.1733589
0.81079215 1.778584 3.6494238
2.295254 5.0530567 8.2237806
1.2148364 2.6820114 3.6017487
0.26306179 0.44636282 8.7997227
0.45368448 0.84035367 8.8640022
0.99917328 2.135529 9.1149569
0.48755482 1.0550988 3.2149594
0.74872351 1.6319056 3.7762628
0.81145 1.7758887 3.263859
3.0113578 6.6110859 9.6942682
3.9067829 8.5966673 10.314902
4.2009706 9.3259621 10.13129
5.3009415 11.784255 10.501392
6.8116174 15.163719 10.983373
3.2308702 7.1991749 4.2170959
17.707705 39.493649 17.575285
17.916534 39.996773 12.972098
4.8992915 10.835737 10.672686
6.0389638 13.374939 10.769114
7.3835182 16.36801 10.637361
10.724342 23.80724 12.158072
17.893581 39.759403 15.263859
18.086845 40.226322 10.728362
18.263536 40.638248 6.3062463
18.398699 40.97723 1.9056299
0.066025242 0.059114065 8.7339401
0.61081666 1.2650318 8.9306021
0.77571696 1.6329045 8.7147646
0.47149956 1.0102398 3.611222
0.55571103 1.2013785 3.1779611
0.80498171 1.7496349 3.5967553
2.3140512 5.0475717 8.2279139
1.213529 2.6544342 3.5710487
0.26447004 0.4451941 8.7947311
0.45661509 0.83876485 8.8640022
1.0066216 2.1320283 9.1149569
0.49123484 1.0533905 3.2149594
0.85230404 1.8406479 4.2578931
0.81764406 1.7730454 3.263859
3.0318992 6.595058 9.6862879
3.9466608 8.6045485 10.340629
4.2334986 9.3112411 10.13129
5.3420439 11.765679 10.501392
6.8420606 15.090343 10.947735
3.2596359 7.1959233 4.2217336
18.091616 40.012669 12.997479
4.9727387 10.896696 10.749173
6.0856147 13.353778 10.769114
7.4495397 16.361753 10.650026
10.728482 23.596134 12.069953
18.067413 39.774086 15.293442
18.255272 40.224911 10.744774
18.43392 40.63739 6.3159156
18.558123 40.949162 1.9072422
0.066231184 0.058883235 8.7339401
0.61522871 1.262892 8.9306021
0.78141207 1.6301869 8.7147646
0.47502309 1.0085877 3.611222
0.55990124 1.1994314 3.1779611
0.80906659 1.7424698 3.5879772
1.183058 2.5570827 4.2106872
1.2241302 2.6530924 3.5748863
0.26602244 0.44426823 8.7947311
0.45954013 0.83716583 8.8640022
1.0140575 2.1285014 9.1149569
0.49564394 1.0532308 3.2196524
1.903051 4.0721359 9.3577681
0.82382816 1.7701806 3.263859
3.0510972 6.5762348 9.6743183
3.9795208 8.5968723 10.347979
4.2481265 9.2575111 10.089235
5.3830814 11.746962 10.501392
6.8424945 14.952302 10.865491
3.2902608 7.196588 4.2286901
18.255075 40.001644 13.0144
5.0201168 10.899619 10.769125
6.1288128 13.325109 10.763227
7.5138078 16.351318 10.660159
10.740746 23.40592 11.992326
18.253374 39.813801 15.332887
18.419863 40.213974 10.758842
18.608643 40.64484 6.3269668
18.740435 40.970455 1.9110713
0.066471219 0.058677878 8.7389402
0.61963332 1.2607367 8.9306021
0.78754127 1.628366 8.7196598
0.47854084 1.0069236 3.611222
0.56408465 1.1974696 3.1779611
0.81616038 1.7418038 3.592366
1.2419815 2.6600268 4.3842711
3.4632447 7.4373016 9.8990936
0.2675716 0.4433369 8.7947311
0.46245959 0.83555669 8.8640022
1.0214813 2.1249487 9.1149569
0.49931738 1.0514942 3.2196524
1.9116821 4.0536547 9.330761
0.82889342 1.7649335 3.259593
3.0714784 6.5600863 9.666338
4.0109401 8.5860014 10.351654
4.2804155 9.2426262 10.089235
5.4256864 11.73163 10.50453
6.9262037 14.996655 10.914836
3.3190732 7.1931033 4.2333279
18.182413 39.440777 17.635223
18.412659 39.976898 13.027091
5.0660019 10.898957 10.785752
6.1752887 13.303634 10.763227
7.5780935 16.340635 10.670292
10.72511 23.158251 11.885324
18.590715 40.215607 10.776426
18.762869 40.606606 6.331111
18.91893 40.981899 1.9144973
0.066675641 0.058445491 8.7389402
0.62403029 1.2585661 8.9306021
0.79322052 1.625607 8.7196598
0.48269844 1.0065929 3.615994
0.56826115 1.1954933 3.1779611
0.82121152 1.736779 3.5879772
1.0773337 2.2865663 3.7849929
3.475553 7.3961587 9.8607178
0.2691175 0.44240022 8.7947311
0.46537343 0.83393735 8.8640022
1.0288925 2.1213701 9.1149569
0.50373065 1.0513009 3.2243452
1.9248848 4.044991 9.3262596
0.83504915 1.7620293 3.259593
3.0982203 6.557498 9.6783075
4.0452228 8.5811472 10.362679
4.3186917 9.2405519 10.103254
5.4666042 11.71262 10.50453
6.8159928 14.62371 10.662621
3.3479016 7.1895051 4.2379651
18.349308 39.440113 17.663319
18.558157 39.925426 13.031321
5.1135297 10.901491 10.805706
6.219974 13.278336 10.760283
7.6405687 16.325794 10.677891
10.74439 22.9891 11.818187
18.759752 40.212139 10.792839
18.963097 40.666527 6.3504496
19.097733 40.992592 1.9179232
0.066879243 0.058212392 8.7389402
0.62841976 1.2563802 8.9306021
0.79889011 1.6228282 8.7196598
0.48620915 1.0049018 3.615994
0.57243073 1.1935024 3.1779611
0.82726896 1.7339019 3.5879772
1.0720166 2.2548366 3.7395308
3.5068426 7.3955665 9.8760691
0.27066013 0.44145814 8.7947311
0.46828157 0.83230776 8.8640022
1.0362911 2.1177657 9.1149569
0.50739729 1.0495362 3.2243452
1.9380505 4.0362854 9.3217592
0.84119469 1.7591037 3.259593
3.1236851 6.552083 9.6862879
4.0736957 8.5639124 10.359005
4.355485 9.2350969 10.113768
5.5091143 11.696988 10.507669
6.7869115 14.429558 10.539256
3.3786294 7.1898031 4.2449217
18.555826 39.522701 17.728874
18.748339 39.968983 13.066572
5.1515517 10.883574 10.805706
6.2662859 13.256543 10.760283
7.7048726 16.314617 10.688025
10.79166 22.881672 11.78252
18.723639 39.735806 15.377261
18.933128 40.216774 10.811596
19.161865 40.721069 6.3690982
19.274717 40.99802 1.9211478
0.06708204 0.057978589 8.7389402
0.63280147 1.2541789 8.9306021
0.80454999 1.6200297 8.7196598
0.49036902 1.0045397 3.6207662
0.57659334 1.191497 3.1779611
0.83331645 1.7310036 3.5879772
1.0981395 2.2891381 3.8015251
1.5764744 3.2949619 4.4498372
0.27219945 0.44051066 8.7947311
0.47144756 0.83113146 8.8689747
1.0436772 2.1141355 9.1149569
0.51105779 1.0477587 3.2243452
0.84732997 1.7561567 3.259593
3.1491497 6.5465708 9.6942682
4.1123667 8.5679779 10.381056
4.3922925 9.2294979 10.124281
5.5515814 11.681202 10.510807
6.7906232 14.307564 10.467978
3.4056041 7.1819682 4.2472405
18.713522 39.49958 17.747604
18.914423 39.959656 13.084902
5.1911197 10.868895 10.809031
6.3125219 13.234589 10.760283
7.7673373 16.299295 10.695623
18.892645 39.734177 15.401914
19.098425 40.203129 10.825665
19.318758 40.685249 6.3739333
19.454113 41.007221 1.9245738
0.06728401 0.057744071 8.7389402
0.63717556 1.2519624 8.9306021
0.81020004 1.6172113 8.7196598
0.49387255 1.0028219 3.6207662
0.58160627 1.1912327 3.1825638
0.83830714 1.72593 3.5835879
1.2937132 2.6728213 4.433866
1.5782119 3.2692337 4.4229751
0.27373546 0.43955785 8.7947311
0.47434589 0.82948077 8.8689747
1.0510507 2.1104796 9.1149569
0.5154742 1.0475166 3.2290378
0.85345495 1.7531883 3.259593
3.1746135 6.5409598 9.7022486
4.1407714 8.5505199 10.37738
4.4291139 9.2237549 10.134795
5.5940056 11.665262 10.513947
6.7953725 14.189491 10.399442
3.4344769 7.1780286 4.2518783
18.887278 39.509304 17.781321
19.086872 39.96265 13.107463
5.2290277 10.850708 10.809031
6.3569283 13.208833 10.75734
7.8391309 16.303165 10.715889
19.045527 39.697788 15.413419
19.272259 40.206341 10.844421
19.492756 40.684555 6.3842936
19.629494 41.006657 1.9275968
0.067485161 0.057508852 8.7389402
0.64154178 1.2497306 8.9306021
0.81584024 1.6143734 8.7196598
0.49737003 1.001092 3.6207662
0.58576095 1.1891952 3.1825638
0.84432662 1.7229933 3.5835879
2.7799885 5.6924734 9.376873
1.5783854 3.2406521 4.3922749
0.27526814 0.43859962 8.7947311
0.47723845 0.82781994 8.8689747
1.0584111 2.1067979 9.1149569
0.51912755 1.0457109 3.2290378
0.81132811 1.6455077 3.8572848
0.85956949 1.7501985 3.259593
3.2000768 6.5352511 9.7102289
4.4675031 9.2210741 10.148813
5.6363864 11.649168 10.517084
6.8121157 14.097916 10.350095
3.4633636 7.1739745 4.2565155
19.079453 39.555874 17.83189
19.242912 39.930351 13.118742
5.2668719 10.832389 10.809031
6.3906379 13.161109 10.736738
7.9053993 16.295094 10.728555
11.034638 22.775578 11.786716
19.146948 39.554562 15.383835
19.427299 40.169456 10.852627
19.664827 40.678684 6.3939629
19.807278 41.009865 1.9308212
0.0676855 0.057272941 8.7389402
0.6462577 1.2481735 8.9355421
0.82147044 1.6115158 8.7196598
0.50086147 0.99934965 3.6207662
0.58990842 1.1871432 3.1825638
0.8503359 1.7200356 3.5835879
2.7874048 5.6574922 9.3355427
1.5769652 3.2092326 4.3577371
0.27679747 0.43763611 8.7947311
0.48012516 0.82614899 8.8689747
1.0651906 2.1019692 9.110117
0.52277464 1.0438924 3.2290378
0.80349213 1.6153787 3.7942681
0.8656736 1.7471874 3.259593
3.2255387 6.5294442 9.7182083
4.5012302 9.2086287 10.152317
5.6770153 11.629422 10.517084
6.8576202 14.066533 10.344612
3.492264 7.1698065 4.2611532
19.243786 39.543224 17.856239
19.438814 39.97942 13.156814
19.655039 40.460022 8.6314754
5.3046517 10.813938 10.809031
6.4294271 13.124203 10.724965
11.108092 22.724689 11.780422
19.243454 39.402618 15.350965
19.618557 40.206238 10.880763
19.837093 40.672108 6.4036322
19.985325 41.012337 1.9340458
0.067920536 0.057061661 8.7439404
0.65061074 1.24591 8.9355421
0.82662493 1.607733 8.7147646
0.5050205 0.99892718 3.6255379
0.59404874 1.1850768 3.1825638
0.85740381 1.7192 3.5879772
2.8058839 5.6452084 9.3314104
1.5810395 3.1893497 4.3385496
0.27832341 0.4366672 8.7947311
0.48300603 0.82446802 8.8689747
1.0725212 2.0982382 9.110117
0.52719361 1.0436014 3.2337308
0.80326724 1.60089 3.7672606
0.87176716 1.7441548 3.259593
3.2509992 6.5235386 9.7261887
1.7318574 3.4828541 4.2949829
4.5301924 9.1864643 10.145308
5.7192945 11.613027 10.520222
6.8919158 14.012493 10.32268
3.5192239 7.1615481 4.2634721
19.398046 39.509102 17.871225
19.614164 39.984539 13.180784
19.826416 40.452919 8.6445312
20.078773 41.004013 4.1917496
5.3423672 10.795356 10.809031
6.4626637 13.076314 10.704364
3.426774 6.9397368 4.6337266
11.143188 22.596228 11.734265
19.537411 39.652901 15.474227
19.79957 40.220364 10.903037
20.016113 40.678146 6.4153738
20.161425 41.009571 1.9370687
0.068119302 0.056824222 8.7439404
0.6549558 1.2436314 8.9355421
0.83223194 1.6048377 8.7147646
0.50850433 0.99715823 3.6255379
0.59818178 1.182996 3.1825638
0.86555266 1.7204756 3.5967553
2.8268332 5.6378942 9.3355427
1.596464 3.1924121 4.3500624
0.27984595 0.43569303 8.7947311
0.48560938 0.82231826 8.8640022
1.079839 2.0944817 9.110117
0.53083324 1.0417548 3.2337308
0.78721946 1.555347 3.6682339
0.87785006 1.7411013 3.259593
3.2764575 6.5175352 9.734169
1.7409643 3.4707274 4.2876329
4.5685854 9.1833658 10.159327
5.761529 11.596478 10.523361
6.9519386 14.010824 10.339128
3.5481362 7.1571579 4.2681098
19.564648 39.49931 17.897448
19.796171 40.001816 13.208984
20.008871 40.467129 8.6622515
20.113701 40.714897 4.1698427
5.3783503 10.773301 10.805706
6.4758058 12.988564 10.651386
3.4509776 6.9277329 4.6337266
19.736658 39.707088 15.52189
19.985247 40.242428 10.927655
20.195415 40.683437 6.4271154
20.335529 41.001606 1.93989
0.068317242 0.056586094 8.7439404
0.65929288 1.2413377 8.9355421
0.83782881 1.6019229 8.7147646
0.51198196 0.99537712 3.6255379
0.60141969 1.1791605 3.1779611
0.88239247 1.7388003 3.640646
1.1483788 2.2706604 3.8097908
1.597492 3.1667876 4.3231997
0.28136513 0.43471354 8.7947311
0.48847684 0.82061821 8.8640022
1.0871434 2.0906997 9.110117
0.53525549 1.0414302 3.2384233
0.75601369 1.4808537 3.501689
0.88392234 1.7380264 3.259593
3.3019137 6.5114336 9.7421494
1.7530688 3.4646289 4.2876329
1.8125043 3.6117506 4.0509028
5.8019729 11.576295 10.523361
7.000803 13.986473 10.339128
3.5770605 7.1526532 4.2727475
19.978537 40.018311 13.237185
20.171932 40.440998 8.6715775
20.113539 40.35918 4.1412296
5.4142442 10.751128 10.802381
6.5864859 13.095877 10.75734
3.4770744 6.9194965 4.63626
19.95134 39.789917 15.581056
20.177851 40.276722 10.955791
20.381651 40.701252 6.4409289
20.51206 40.997391 1.9429131
0.068514347 0.056347281 8.7439404
0.66325492 1.2383438 8.9306021
0.84389067 1.5998892 8.7196598
0.516141 0.99490887 3.6303101
0.60553205 1.1770539 3.1779611
0.89937055 1.757028 3.6845365
1.1562979 2.266638 3.8097908
1.607083 3.1583357 4.3193626
0.28288084 0.43372875 8.7947311
0.49133837 0.8189081 8.8640022
1.0944347 2.0868919 9.110117
0.53968191 1.0410874 3.2431161
0.7103433 1.3795035 3.2721272
0.88998377 1.7349304 3.259593
3.325995 6.5025501 9.7461386
1.7435749 3.4162142 4.2361803
1.8267114 3.6085835 4.0544076
5.8441024 11.559446 10.526499
7.0552359 13.973147 10.347353
3.6059964 7.1480331 4.2773848
20.163416 40.038303 13.266796
20.359341 40.46249 8.6911631
20.489162 40.755909 4.1881728
5.450048 10.728833 10.799055
6.6211863 13.051178 10.739681
3.4758692 6.8573308 4.6033282
20.094374 39.728462 15.584344
20.329281 40.227734 10.961653
20.568256 40.718262 6.4547424
20.69556 41.005825 1.9465406
0.068710618 0.056107778 8.7439404
0.66757351 1.2360212 8.9306021
0.8494702 1.5969337 8.7196598
0.5196107 0.99310112 3.6303101
0.60963708 1.1749331 3.1779611
0.94395745 1.8283594 3.8381546
1.6151706 3.1470034 4.3116875
0.28455245 0.43297943 8.7997227
0.49419391 0.81718796 8.8640022
1.1017127 2.0830591 9.110117
0.54411244 1.0407263 3.2478089
0.70612264 1.3596288 3.231616
0.89723301 1.7341294 3.263859
3.3500545 6.4935789 9.7501287
1.7353165 3.370923 4.1884031
1.8230783 3.5704236 4.019362
5.8861852 11.542443 10.529638
7.105866 13.952161 10.350095
3.6349437 7.1432981 4.2820225
