# .PCD v0.7 - Point Cloud Data file format
VERSION 0.7
FIELDS x y z
SIZE 4 4 4
TYPE F F F
COUNT 1 1 1
WIDTH 1533
HEIGHT 1
VIEWPOINT 0 0 0 1 0 0 0
POINTS 1533
DATA ascii
2.2417111 -4.1301894 8.6793089
2.7067161 -4.9704599 8.3849649
3.2998705 -6.0446968 8.3218784
0.21405074 -0.51744783 9.5235128
0.39477736 -0.86079419 8.7894306
0.51151091 -0.9647339 4.2416568
1.4915953 -2.7826092 8.6397972
1.9546657 -3.6223547 8.5745573
2.4427521 -4.510025 8.4597664
2.9814339 -5.4886556 8.3456402
1.9536382 -3.5890403 4.5081425
6.4773536 -11.806527 13.313417
4.8587794 -8.8452921 8.2197342
5.8165503 -10.575807 7.9979167
7.07551 -12.854287 7.767179
9.0129519 -16.360609 7.6351004
11.231125 -20.370312 6.927289
4.3690047 -7.9899611 8.1918631
6.1952319 -11.315725 9.4770651
6.4100189 -11.698362 7.9243259
7.9684315 -14.524467 7.7458668
8.9987192 -16.368586 2.697443
0.0074742758 -0.088044047 8.7039413
1.2751096 -2.4791417 17.722481
1.6876938 -3.2303405 17.545753
1.2707567 -2.392529 8.7077007
2.2374961 -4.1569695 8.7188101
2.6880124 -4.9774022 8.3808317
3.2772248 -6.0533605 8.3180418
0.21256904 -0.51899439 9.5384884
0.39177024 -0.862167 8.7894306
0.51106364 -0.97207713 4.2658539
1.4802533 -2.7847517 8.6304121
1.9420093 -3.6291556 8.5745573
2.4269943 -4.5185242 8.4597664
2.9636855 -5.5016813 8.3496294
1.9410982 -3.5958378 4.5081425
4.8167024 -8.8416901 8.2009039
5.7755942 -10.588705 7.992434
7.1006403 -13.007216 7.843699
8.9380064 -16.359425 7.6201162
11.164554 -20.417809 6.930109
4.3606668 -8.0412674 8.2284431
6.1556954 -11.337282 9.4770651
6.3650284 -11.71309 7.9192595
7.9090071 -14.536249 7.7374754
8.9273033 -16.373812 2.6932988
0.0071668997 -0.088069603 8.7039413
1.2660952 -2.4828854 17.717543
1.6796854 -3.2425408 17.580021
1.271439 -2.4141207 8.7697372
1.8249468 -3.4362416 9.2256784
2.2207165 -4.1605287 8.7100325
2.6692929 -4.9842734 8.3766994
3.2545586 -6.0619388 8.3142042
0.21097146 -0.52026886 9.5484705
0.38897654 -0.86401558 8.7944021
0.50069785 -0.96047825 4.2077808
1.4697192 -2.7883749 8.6257191
1.9313699 -3.6397581 8.583559
2.4099813 -4.5246673 8.4555016
2.9430435 -5.5093355 8.3456402
1.9269347 -3.5996029 4.5044675
4.0865884 -7.573647 8.5367222
4.7839589 -8.8550253 8.1977654
5.7346187 -10.601445 7.9869509
7.0530849 -13.028028 7.8413806
11.106935 -20.481956 6.9385691
12.022776 -22.133974 2.3542545
4.3467178 -8.0827475 8.2550468
6.1160831 -11.358702 9.4770651
6.320013 -11.727647 7.9141932
7.8517523 -14.551785 7.7311807
8.8559618 -16.378736 2.6891551
0.0068594357 -0.088094078 8.7039413
1.2560188 -2.4845157 17.697786
1.669287 -3.250196 17.589811
1.2616225 -2.4158974 8.7601929
1.8120307 -3.4408624 9.221076
2.2028191 -4.1619048 8.6968651
2.6505587 -4.9910755 8.3725662
3.2318723 -6.0704331 8.3103666
0.20947431 -0.52180684 9.563446
0.3861748 -0.86585522 8.7993736
0.48926547 -0.94658542 4.1400285
1.4591777 -2.7919588 8.621027
1.9237211 -3.6561108 8.6060658
2.3929543 -4.530746 8.4512348
2.922384 -5.5169125 8.34165
1.914358 -3.6063073 4.5044675
4.0651741 -7.5972986 8.5472355
4.7125812 -8.7961893 8.1287184
5.693624 -10.614028 7.9814677
7.0012803 -13.04086 7.8344245
8.2179594 -15.294311 7.103159
11.094445 -20.630451 6.9752302
12.280803 -22.798382 2.4177396
4.3430743 -8.1439943 8.3016043
2.5086145 -4.6981192 3.9615827
6.2749739 -11.742032 7.9091268
7.794486 -14.567099 7.7248869
8.7823544 -16.379 2.6843202
0.0065518883 -0.088117488 8.7039413
1.2494267 -2.4930534 17.727423
1.6593174 -3.2587256 17.604498
1.2463193 -2.4070306 8.7124729
1.7945834 -3.4367757 9.1934605
2.1893909 -4.1716895 8.7012539
2.6331205 -5.0002975 8.3725662
3.2091665 -6.0788431 8.306529
0.20786321 -0.52307206 9.5734301
0.38336489 -0.86768579 8.8043451
0.48595831 -0.94828749 4.1400285
1.4486291 -2.7955029 8.616334
1.9069196 -3.6550827 8.5880604
2.3759148 -4.5367608 8.446969
2.9017072 -5.5244122 8.3376598
1.9017581 -3.6129677 4.5044675
4.0286007 -7.5925407 8.5262079
4.6617613 -8.7747755 8.0941963
5.6526127 -10.626455 7.9759851
6.9515529 -13.057399 7.8297868
8.1645222 -15.322904 7.103159
11.114911 -20.842596 7.0330415
4.3250928 -8.1789093 8.321557
2.4808519 -4.6854148 3.943924
6.2278929 -11.752438 7.9015274
7.7372088 -14.582191 7.7185926
8.7065287 -16.374577 2.6787946
0.0062446492 -0.088096187 8.6989422
0.61655718 -1.240589 8.8071213
1.6488496 -3.2663157 17.614288
1.2331383 -2.4020705 8.6790686
1.782576 -3.4430192 9.1934605
2.1726046 -4.1750574 8.6924763
2.6143477 -5.0069637 8.368434
3.1864414 -6.0871682 8.3026915
0.20624585 -0.52433246 9.5834131
0.38033378 -0.86901867 8.8043451
0.48207614 -0.94885731 4.1351891
1.4380736 -2.7990077 8.6116409
1.9031507 -3.6791193 8.6285715
2.3588622 -4.5427117 8.4427032
2.882406 -5.5345073 8.3376598
1.8875663 -3.6165786 4.500792
3.9921105 -7.5876212 8.5051813
4.6311035 -8.7909946 8.0941963
5.6115832 -10.638725 7.9705024
6.903863 -13.077666 7.8274674
8.1088209 -15.347212 7.1012859
11.111606 -21.01273 7.0767527
4.2965164 -8.1939573 8.321557
2.4663606 -4.6976247 3.9468672
6.1828208 -11.766474 7.896461
7.6778064 -14.593043 7.7102003
11.014329 -20.917023 8.3167458
8.6331511 -16.374205 2.67396
0.0059370985 -0.08811745 8.6989422
0.61256611 -1.2434309 8.8120604
1.6388049 -3.2747834 17.628973
2.3079102 -4.5349441 16.314241
1.7687625 -3.4457443 9.1842556
2.1569195 -4.1804872 8.6880875
2.5968542 -5.0160594 8.368434
3.1636972 -6.0954089 8.2988539
0.20472609 -0.52585715 9.5983877
0.37729803 -0.870341 8.8043451
0.47650036 -0.94604325 4.1158314
1.4275113 -2.8024726 8.6069479
1.8893031 -3.6838031 8.6240702
2.3417971 -4.5485997 8.4384375
2.8616867 -5.5418577 8.3336697
1.8749305 -3.6231453 4.500792
3.9639509 -7.5983477 8.5016766
4.5949821 -8.7967558 8.0847807
5.5705371 -10.650837 7.9650192
6.8540626 -13.093837 7.8228297
8.0487461 -15.363105 7.0956674
11.109474 -21.187338 7.1218734
4.2558317 -8.1857157 8.2982788
2.4443483 -4.6954489 3.9380374
6.1377273 -11.780338 7.8913946
7.6205235 -14.607683 7.7039065
10.915021 -20.905111 8.2970238
8.5575876 -16.369133 2.6684346
0.0056294748 -0.088137634 8.6989422
0.60856277 -1.2462598 8.8169994
1.6287209 -3.2832203 17.64366
2.291394 -4.5416403 16.309471
1.7540658 -3.4466739 9.1704473
2.1401327 -4.1837263 8.6793089
2.5780444 -5.0225902 8.3643007
3.1409342 -6.1035652 8.2950163
0.20319822 -0.52737767 9.6133633
0.37425768 -0.87165272 8.8043451
0.47151142 -0.94432676 4.1013131
1.4177202 -2.8074384 8.6069479
1.901098 -3.7388885 8.7366009
2.3259053 -4.5567465 8.4384375
2.8423247 -5.5518131 8.3336697
1.8622719 -3.629668 4.500792
3.9357653 -7.6089706 8.4981718
4.5624576 -8.8092861 8.0816422
5.5313997 -10.666506 7.9622774
6.8042336 -13.109818 7.818192
7.9843831 -15.370535 7.0863013
11.11511 -21.379211 7.1726346
4.2665796 -8.2768536 8.3747654
2.4242356 -4.6967692 3.9321513
6.0926118 -11.794031 7.8863282
7.5632305 -14.6221 7.6976118
10.81376 -20.888569 8.2756586
8.4821644 -16.363731 2.662909
0.005321783 -0.088156752 8.6989422
0.6048854 -1.2497755 8.8268785
1.6190473 -3.2925406 17.66324
2.2761943 -4.5509458 16.314241
1.7420239 -3.4527757 9.1704473
2.1233492 -4.1868987 8.6705303
2.5604966 -5.0315585 8.3643007
3.1181531 -6.1116366 8.2911787
0.20166224 -0.52889395 9.6283379
0.37121275 -0.87295383 8.8043451
0.46654028 -0.9425869 4.0867953
1.4079118 -2.8123701 8.6069479
1.8997934 -3.7688296 8.7906151
2.3099849 -4.5648375 8.4384375
2.822928 -5.5617013 8.3336697
1.8480538 -3.6331251 4.497117
3.8977895 -7.6004496 8.4736404
4.5263462 -8.8147707 8.0722265
5.4903092 -10.678311 7.9567952
6.7523499 -13.121674 7.8112359
7.9200687 -15.377706 7.0769362
11.086573 -21.507423 7.2022452
4.2172718 -8.2517986 8.3348589
2.4023018 -4.6944075 3.9233217
6.0474753 -11.807552 7.8812618
7.5059319 -14.636297 7.691318
10.695498 -20.837967 8.2411442
8.4068851 -16.358006 2.6573837
0.0050130282 -0.088218413 8.7039413
0.60085505 -1.2525799 8.8318176
1.6075443 -3.298172 17.66324
1.7238438 -3.446604 9.1382303
2.1033423 -4.1835861 8.6485853
2.5416498 -5.0379534 8.3601675
3.0953538 -6.1196241 8.2873421
0.20011812 -0.53040582 9.6433125
0.367957 -0.87375277 8.7993736
0.46214044 -0.94195247 4.077116
1.3988532 -2.8188133 8.6116409
1.8983026 -3.7988062 8.8446293
2.2940366 -4.5728726 8.4384375
2.8034966 -5.5715208 8.3336697
1.8353606 -3.6395538 4.497117
3.8405259 -7.5536089 8.4070539
4.4902515 -8.8201113 8.0628109
5.4511027 -10.693686 7.9540534
6.7004662 -13.133327 7.8042798
7.8558006 -15.384614 7.0675712
11.087836 -21.695496 7.2515965
5.9485507 -11.74034 11.803356
2.3822434 -4.6955557 3.9174354
6.0023193 -11.820903 7.8761954
7.4486251 -14.650273 7.6850238
10.618411 -20.866756 8.2378578
8.331748 -16.351954 2.6518583
0.0047050579 -0.088235378 8.7039413
0.59647906 -1.2546698 8.8318176
1.5960218 -3.3037632 17.66324
1.7057283 -3.4403477 9.1060123
2.0887263 -4.1909027 8.6485853
2.5227897 -5.0442772 8.3560343
3.0725369 -6.1275263 8.2835045
0.19856593 -0.53191346 9.658288
0.36470017 -0.87453961 8.7944021
0.45775074 -0.9412989 4.0674376
1.3890052 -2.823679 8.6116409
1.8966258 -3.828819 8.8986444
2.2780604 -4.580853 8.4384375
2.7826865 -5.5785766 8.3296804
1.8211291 -3.6429055 4.4934416
3.783637 -7.5064607 8.3404675
4.4524217 -8.8218317 8.0502577
5.4099693 -10.705184 7.9485703
6.6505823 -13.148729 7.7996421
7.7915816 -15.391263 7.0582066
11.053231 -21.815371 7.2783871
5.9008298 -11.747687 11.790053
2.3622062 -4.6966209 3.9115491
5.955205 -11.830231 7.8685956
7.3913121 -14.664024 7.6787295
8.2545233 -16.341156 2.645642
0.0043970305 -0.088251263 8.7039413
0.59308863 -1.2588531 8.8466349
1.5822816 -3.3047223 17.638765
2.0772672 -4.2046103 8.6617527
2.503917 -5.0505319 8.351902
3.0497024 -6.135344 8.2796669
0.19700561 -0.53341663 9.6732626
0.36144239 -0.87531441 8.7894306
0.4533712 -0.94062608 4.0577583
1.3791403 -2.8285103 8.6116409
1.9024378 -3.8744986 8.9886694
2.2620564 -4.5887766 8.4384375
2.7631967 -5.5882564 8.3296804
1.8084019 -3.6492405 4.4934416
3.7494414 -7.5036716 8.3229446
4.4146342 -8.8233967 8.0377035
5.3706956 -10.720264 7.9458289
6.5986881 -13.159985 7.792686
7.7274117 -15.39765 7.0488415
11.011465 -21.922409 7.3009477
5.8464727 -11.741474 11.763451
2.3439939 -4.7012205 3.9086061
5.9100242 -11.843233 7.8635297
7.3339944 -14.677557 7.6724353
8.1796942 -16.334448 2.6401167
0.0040904037 -0.088222459 8.6989422
0.58934784 -1.2623241 8.856514
0.7864815 -1.6570996 8.842041
0.56794602 -1.1759512 4.2220359
1.6183612 -3.3221996 8.7654257
2.0636303 -4.2139859 8.6661415
2.4850307 -5.0567155 8.3477688
3.0268509 -6.1430769 8.2758293
0.19543722 -0.53491539 9.6882372
0.35737899 -0.87410247 8.7645731
0.449002 -0.93993431 4.04808
1.3692584 -2.8333073 8.6116409
1.9012855 -3.9065626 9.047184
2.2448797 -4.5943012 8.4341707
2.742347 -5.5951614 8.3256903
1.7941582 -3.652488 4.4897671
3.7216434 -7.5135193 8.3194399
4.3820782 -8.8352652 8.034565
5.3313823 -10.735201 7.9430876
6.5467954 -13.171038 7.7857289
7.663291 -15.403774 7.0394754
5.7971888 -11.74507 11.746823
2.3239875 -4.7021265 3.9027195
5.8648243 -11.856063 7.8584633
7.2766719 -14.690866 7.6661415
8.107213 -16.33185 2.635282
0.0037824251 -0.088236198 8.6989422
0.58330774 -1.2608471 8.8318176
0.77852625 -1.6552275 8.817565
0.5612607 -1.1725407 4.2029481
1.6050559 -3.3243101 8.7562208
2.0499542 -4.2233186 8.6705303
2.4661322 -5.062829 8.3436356
3.0039825 -6.1507249 8.2719917
0.19376348 -0.53613794 9.6982212
0.35532278 -0.87781638 8.7894306
0.44518068 -0.94035959 4.0432405
1.35936 -2.8380697 8.6116409
1.9112815 -3.9621947 9.1597147
2.2265553 -4.597415 8.4256392
2.721483 -5.6019897 8.3217001
1.7813976 -3.6587286 4.4897671
3.7048237 -7.545671 8.3404675
4.3529282 -8.854001 8.0377035
5.2901831 -10.746243 7.9376044
6.4949064 -13.181889 7.7787728
7.601275 -15.413801 7.0319839
5.7381058 -11.728342 11.710242
2.3057816 -4.7065802 3.8997765
5.8196077 -11.868721 7.8533969
7.2213464 -14.70803 7.6619453
8.0326633 -16.324503 2.6297565
0.0034744001 -0.088248864 8.6989422
1.160365 -2.5323131 17.707664
0.77188367 -1.6560889 8.8077745
0.54821038 -1.1556102 4.1361403
1.596815 -3.3369417 8.7746305
2.036238 -4.2326069 8.6749191
2.4484446 -5.0714073 8.3436356
2.9810977 -6.158288 8.2681541
0.19217993 -0.53762746 9.7131968
0.35146561 -0.87707108 8.7695436
0.44082823 -0.93963164 4.0335612
1.3501849 -2.8443563 8.616334
1.8711495 -3.9138482 9.0336809
2.2093654 -4.602808 8.4213734
2.7006044 -5.6087399 8.3177099
1.7686155 -3.6649244 4.4897671
4.3458657 -8.9181271 8.0816422
5.2508059 -10.760885 7.9348626
6.4449658 -13.196519 7.7741351
7.5352082 -15.41525 7.0207458
5.6710649 -11.694547 11.657034
2.2875731 -4.7109647 3.8968334
5.774374 -11.881208 7.8483305
7.1640043 -14.720904 7.6556516
7.9604359 -16.321287 2.6249218
12.325684 -25.249016 1.2270753
0.0031663326 -0.088260457 8.6989422
1.1524818 -2.5384707 17.722481
0.7660982 -1.6587733 8.8077745
0.54417324 -1.1575168 4.1361403
2.0204201 -4.2375269 8.6705303
2.4295125 -5.0773845 8.3395023
2.959583 -6.1686563 8.2681541
0.19049291 -0.53883994 9.7231789
0.34918585 -0.88027555 8.7894306
0.43701604 -0.94002491 4.0287223
1.3402481 -2.849052 8.616334
1.8071456 -3.8141205 8.7906151
2.1910446 -4.6057816 8.4128418
2.6797123 -5.6154137 8.3137207
1.7558117 -3.6710758 4.4897671
3.7744534 -7.825109 8.6173267
4.3299446 -8.9647865 8.1098881
5.2095704 -10.771622 7.9293804
6.4316735 -13.286719 7.8135552
7.4712467 -15.420599 7.0113807
11.232645 -23.122435 2.4007509
5.6269736 -11.70754 11.650383
2.2711148 -4.7189212 3.8968334
5.7291245 -11.893526 7.8432646
7.1066594 -14.733558 7.6493568
7.8883281 -16.317766 2.6200869
12.178721 -25.170464 1.2216339
0.0028582269 -0.08827097 8.6989422
1.1420207 -2.5389349 17.697786
0.76072687 -1.6623634 8.8126698
0.538239 -1.1553496 4.1218243
1.6274886 -3.4629385 9.0737953
2.0056159 -4.2445536 8.6705303
2.4117744 -5.0858335 8.3395023
2.936656 -6.176055 8.2643166
0.18889426 -0.54032004 9.7381544
0.69923902 -1.7839561 17.827623
0.43320641 -0.94040275 4.0238829
1.330295 -2.853713 8.616334
1.778093 -3.7869062 8.7140951
2.1738422 -4.611043 8.408576
2.6575179 -5.6192851 8.3057404
1.7429866 -3.6771822 4.4897671
3.7517302 -7.8478894 8.62784
4.3137507 -9.0114441 8.138134
5.168324 -10.782198 7.9238973
6.4005837 -13.34104 7.8321052
7.4113522 -15.434046 7.0057611
11.141062 -23.139069 2.3985152
2.2528887 -4.7231717 3.8938901
5.6838589 -11.905671 7.8381977
7.0512714 -14.750085 7.6451607
9.9586735 -20.813261 8.119525
7.8163428 -16.31394 2.6152523
0.0025478711 -0.088323988 8.7039413
1.1325189 -2.5414863 17.687906
0.75491953 -1.6650088 8.8126698
0.53295195 -1.1545106 4.1122804
1.6170402 -3.4721401 9.0829992
1.989772 -4.2493596 8.6661415
2.3940067 -5.0942216 8.3395023
2.9150796 -6.1862679 8.2643166
0.18719406 -0.54152232 9.7481375
0.69185257 -1.7834038 17.797796
0.42992115 -0.94190919 4.0238829
1.3203255 -2.8583393 8.616334
1.7777194 -3.8207226 8.7771111
2.1577332 -4.6186032 8.408576
2.6353295 -5.6230707 8.29776
1.7301402 -3.6832442 4.4897671
3.7350011 -7.8834972 8.6523724
4.2956152 -9.0545797 8.1632414
5.1270671 -10.79262 7.9184141
6.3939219 -13.447313 7.8807998
7.3434868 -15.430519 6.9926496
2.236388 -4.7310066 3.8938901
5.6385784 -11.917645 7.8331313
6.9958549 -14.766406 7.6409645
9.8859615 -20.847897 8.119525
7.7444797 -16.309811 2.6104176
0.0022395474 -0.088332348 8.7039413
1.1239543 -2.5461352 17.692846
1.4993994 -3.3386788 17.619183
0.52705669 -1.1522913 4.0979643
1.596725 -3.4600246 9.0369749
1.971903 -4.2497625 8.6529741
2.37621 -5.1025472 8.3395023
2.8921118 -6.1935019 8.260479
0.18548776 -0.5427193 9.7581205
0.68333381 -1.7798346 17.738136
0.42611304 -0.94225878 4.019043
1.3096218 -2.8613615 8.6116409
2.1415982 -4.6261067 8.408576
2.6118774 -5.6240358 8.2857895
1.7172726 -3.6892612 4.4897671
3.7013972 -7.8835745 8.6383533
4.2689505 -9.0800867 8.172657
5.0840197 -10.799102 7.9101901
6.3658257 -13.509623 7.9039884
7.2915587 -15.460255 6.994523
13.983293 -29.56851 3.0293441
2.2198601 -4.7387843 3.8938901
5.5932837 -11.929449 7.8280649
6.9404111 -14.782521 7.6367688
9.7709532 -20.792528 8.0850115
7.6727409 -16.30538 2.6055827
0.0019311963 -0.088339627 8.7039413
1.1150599 -2.5500429 17.692846
1.4877361 -3.3438923 17.619183
0.52179945 -1.1514047 4.0884204
1.961058 -4.2653236 8.6705303
2.3583841 -5.1108103 8.3395023
2.8704746 -6.2035594 8.260479
0.18377538 -0.54391104 9.7681036
0.67711687 -1.782209 17.738136
0.42230767 -0.94259322 4.0142035
1.2996259 -2.8659155 8.6116409
1.8251709 -3.9954119 9.1462107
2.125437 -4.633554 8.408576
2.589711 -5.627645 8.2778101
1.7043843 -3.6952329 4.4897671
3.7039428 -7.9611154 8.7084446
4.260241 -9.1443272 8.2165956
5.042757 -10.809204 7.904707
6.3280005 -13.55183 7.9155822
7.2238069 -15.456214 6.9814119
5.4331269 -11.720601 11.587198
2.203305 -4.7465043 3.8938901
5.5497913 -11.94499 7.8255315
6.8830242 -14.794312 7.6304741
9.7341957 -20.903563 8.1145945
7.6032205 -16.305134 2.6014385
0.0016201506 -0.088389382 8.7089415
1.1064602 -2.5546324 17.697786
1.476876 -3.3509288 17.628973
0.51594353 -1.1491337 4.0741048
1.9302726 -4.2372708 8.6003056
2.33936 -5.1164527 8.3353691
2.8474672 -6.210628 8.2566423
0.18205696 -0.54509741 9.7780876
0.67295188 -1.7900516 17.792824
0.41799554 -0.94176358 4.0045252
1.289614 -2.8704345 8.6116409
1.8094182 -3.9977925 9.1372089
2.1103289 -4.6433191 8.4128418
2.5663011 -5.6284251 8.2658396
1.6914753 -3.7011597 4.4897671
3.7268944 -8.0841112 8.8275995
4.2641869 -9.2368889 8.2856417
5.0014858 -10.819148 7.8992238
7.1756549 -15.493955 6.987031
5.3828311 -11.719137 11.567245
2.1850343 -4.750494 3.8909469
5.504457 -11.95646 7.8204656
6.827539 -14.810003 7.6262779
8.8163586 -19.106558 7.412816
7.5337958 -16.304604 2.5972943
0.001311604 -0.0883945 8.7089415
1.0975362 -2.5584793 17.697786
1.4667993 -3.3597965 17.648556
0.51192921 -1.1509277 4.0741048
1.9125144 -4.2374339 8.5871382
2.321486 -5.1245871 8.3353691
2.824445 -6.2176113 8.2528048
0.18033251 -0.54627848 9.7880707
0.66335946 -1.7833948 17.703337
0.41419995 -0.94206607 3.9996855
1.2788849 -2.873342 8.6069479
1.7945615 -4.0020976 9.1327076
2.0941079 -4.6506572 8.4128418
2.5441575 -5.6318564 8.2578592
1.6785455 -3.7070415 4.4897671
3.7356963 -8.1781673 8.9152126
4.340395 -9.4888697 8.4959183
4.960207 -10.828938 7.8937411
7.1215272 -15.518908 6.987031
13.137878 -28.550655 2.9144447
2.1667624 -4.7544141 3.8880038
5.4591093 -11.967756 7.8153992
6.7701445 -14.821362 7.6199841
8.7201576 -19.072798 7.3881631
11.391434 -24.892488 6.6932449
7.464468 -16.303787 2.5931506
0.0010030413 -0.088398531 8.7089415
1.0889025 -2.56301 17.702724
1.4538502 -3.362092 17.633869
0.50790858 -1.1527076 4.0741048
1.9172626 -4.2878118 8.6749191
2.3024313 -5.1300926 8.3312368
2.8014088 -6.2245097 8.2489672
0.17851327 -0.54717934 9.7930632
0.65951973 -1.7922044 17.767965
0.41090903 -0.94350618 3.9996855
1.2688472 -2.8777885 8.6069479
1.7779294 -4.0023689 9.1192036
2.0778613 -4.657939 8.4128418
2.5207906 -5.632452 8.2458897
1.6655952 -3.7128785 4.4897671
3.7100668 -8.1976547 8.9222212
4.3249202 -9.5429611 8.5304413
4.9206481 -10.842378 7.8909993
7.0865002 -15.585872 7.0057611
3.7876525 -8.4003067 8.2883024
2.14849 -4.758265 3.8850608
5.4137502 -11.978883 7.8103328
6.7146249 -14.836635 7.615788
8.6535282 -19.103121 7.3881631
7.3952365 -16.302683 2.5890064
0.00069446728 -0.088401496 8.7089415
1.0805517 -2.5682278 17.712603
1.4421054 -3.3671465 17.633869
0.50447863 -1.1558416 4.0788765
1.911013 -4.3141866 8.7144213
2.2845101 -5.1380982 8.3312368
2.7783589 -6.2313232 8.2451296
0.17677771 -0.54834908 9.8030453
0.65398788 -1.7964996 17.787853
0.40711549 -0.94378054 3.9948459
1.2587941 -2.8822002 8.6069479
1.7613176 -4.002573 9.1057005
2.0615892 -4.6651635 8.4128418
2.4986718 -5.6357074 8.2379093
1.6526246 -3.7186697 4.4897671
3.6755931 -8.1975403 8.9082041
4.286799 -9.5473471 8.5210257
4.8793426 -10.851862 7.8855166
7.0358615 -15.61897 7.0095072
10.066045 -22.324932 7.2882576
3.7369878 -8.3657503 8.241745
2.1302168 -4.7620459 3.8821175
5.3683796 -11.989839 7.8052664
6.6572242 -14.847559 7.6094942
8.5867929 -19.133211 7.3881631
7.3261046 -16.301296 2.5848622
0.00038588376 -0.088403389 8.7089415
1.0724766 -2.574136 17.727423
1.4299456 -3.3712227 17.628973
0.50044096 -1.1575955 4.0788765
1.9065272 -4.3449564 8.762701
2.2654266 -5.1434665 8.3271036
2.7565906 -6.2409835 8.2451296
0.17494933 -0.5492382 9.8080368
0.64789325 -1.799273 17.792824
0.40381861 -0.94519585 3.9948459
1.2487258 -2.8865767 8.6069479
1.7473352 -4.0086966 9.1057005
2.0452924 -4.6723313 8.4128418
2.4801958 -5.6471539 8.2418995
1.639634 -3.7244158 4.4897671
3.646956 -8.2103195 8.9082041
4.2502832 -9.5551395 8.5147495
4.8397312 -10.865008 7.8827753
9.9860983 -22.355553 7.2868471
3.707763 -8.3787441 8.241745
2.110306 -4.7620616 3.8762312
5.322999 -12.000624 7.8002005
6.6016707 -14.862411 7.6052976
8.4604836 -19.029306 7.3372145
11.424598 -25.672083 6.8679204
7.2570734 -16.299627 2.5807183
7.7296056e-05 -0.088404194 8.7089415
1.0605223 -2.5706804 17.678028
1.4181693 -3.3761935 17.628973
0.49639714 -1.1593353 4.0788765
1.9028041 -4.3779426 8.8153696
2.2463336 -5.1487632 8.3229713
2.7335038 -6.2476311 8.241292
0.17320278 -0.5503968 9.8180208
0.64089447 -1.7995147 17.772936
0.40051681 -0.94659972 3.9948459
1.2379626 -2.8893316 8.6022549
1.7255663 -3.9967837 9.0651894
2.0279329 -4.6770496 8.408576
2.4628723 -5.661303 8.2498789
1.6266234 -3.7301166 4.4897671
3.6125288 -8.2099428 8.8941851
4.221612 -9.5806036 8.5241642
4.8000879 -10.878011 7.880034
6.9394679 -15.711511 9.0773001
7.2696838 -16.443636 7.3522725
9.8691778 -22.30254 7.2586465
3.6949818 -8.4292517 8.2783251
2.0920458 -4.765698 3.8732882
5.2776084 -12.011237 7.7951341
6.5406122 -14.864594 7.5948076
8.3292923 -18.911789 7.2813354
11.278054 -25.582825 6.8339229
7.1901417 -16.302206 2.577265
-0.0002277099 -0.088360444 8.7039413
1.0515426 -2.5743668 17.678028
1.4059844 -3.380183 17.624077
0.49292982 -1.1624354 4.0836482
1.4349233 -3.3523881 8.650363
1.9007682 -4.4153557 8.8768177
2.227231 -5.1539893 8.3188381
2.7104044 -6.2541943 8.2374544
0.17136537 -0.55127394 9.8230124
0.63372511 -1.7992264 17.748079
0.39721009 -0.94799203 3.9948459
1.2251735 -2.8872812 8.5834846
1.691064 -3.9547429 8.95716
2.0115948 -4.6841002 8.408576
2.444288 -5.6726327 8.2538691
1.613593 -3.7357717 4.4897671
3.5752997 -8.2028885 8.8731585
4.1803584 -9.577445 8.5084724
4.7604127 -10.890868 7.8772922
6.8934612 -15.755932 9.0888948
7.2085218 -16.460419 7.3485265
9.7893419 -22.33246 7.2572365
2.0737858 -4.7692647 3.8703449
5.2322087 -12.021682 7.7900672
6.4868712 -14.883174 7.5927091
8.2726688 -18.962389 7.2895527
10.904691 -24.971689 6.6627645
7.1212969 -16.299978 2.5731208
-0.0005361443 -0.08835911 8.7039413
1.04255 -2.5780215 17.678028
1.3937892 -3.3841286 17.619183
0.48886913 -1.1641489 4.0836482
1.4194005 -3.3483827 8.6273499
1.8787689 -4.4065413 8.8460932
2.2092266 -5.1617327 8.3188381
2.6885567 -6.2636166 8.2374544
0.16960788 -0.55242127 9.8329964
0.62639058 -1.7984066 17.718252
0.39341715 -0.94821161 3.9900069
1.6466906 -3.8884552 8.7951164
1.9942111 -4.688693 8.4043093
2.4268374 -5.6866736 8.2618494
1.6005428 -3.7413814 4.4897671
3.515548 -8.1432858 8.7960587
4.1438122 -9.5848322 8.5021954
4.7207055 -10.903581 7.8745508
6.8454657 -15.796156 9.0981693
7.1417956 -16.464216 7.3391614
9.6864901 -22.309292 7.2389059
2.0555265 -4.7727618 3.8674016
5.1868 -12.031955 7.7850008
6.4546666 -14.95156 7.615788
8.1951885 -18.965141 7.2796912
10.958319 -25.33527 6.7483439
7.0525551 -16.297464 2.5689766
-0.00084457156 -0.088356696 8.7039413
0.51045841 -1.2744981 8.7280931
1.3819679 -3.3889732 17.619183
0.48594835 -1.1686052 4.0931926
1.4001426 -3.3353033 8.5813255
2.1900973 -5.166822 8.3147049
2.6654222 -6.2700138 8.2336168
0.16776149 -0.55328643 9.8379879
0.62010914 -1.8005822 17.718252
0.38962752 -0.94841641 3.9851673
1.612061 -3.8439901 8.6825867
1.9778323 -4.6956253 8.4043093
2.4081457 -5.697886 8.2658396
1.5874732 -3.7469454 4.4897671
3.435226 -8.0341816 8.6663895
4.6793203 -10.912307 7.8690677
7.1885915 -16.731833 7.4459243
9.599081 -22.320934 7.2318559
2.0372682 -4.7761903 3.8644586
5.1413841 -12.042057 7.7799349
6.4006529 -14.969829 7.6136904
8.1215057 -18.976267 7.273118
10.854504 -25.337624 6.7389655
6.9858694 -16.299227 2.5655231
-0.0011529883 -0.088353209 8.7039413
0.50686496 -1.2784394 8.7429113
1.3682243 -3.3890557 17.594707
0.48357049 -1.1744353 4.1075082
1.3839924 -3.3293459 8.553709
2.1720483 -5.1744356 8.3147049
2.642276 -6.2763252 8.2297792
0.16599309 -0.55442226 9.84797
0.61467779 -1.8052593 17.743109
0.38536793 -0.9474417 3.9754882
0.57501465 -1.3953226 4.1582055
1.6069816 -3.869699 8.7275982
1.9604257 -4.7000937 8.4000435
2.3882415 -5.7062573 8.2658396
1.5743843 -3.7524641 4.4897671
3.3710053 -7.9607401 8.5752716
4.6395659 -10.924726 7.8663263
7.1246963 -16.744024 7.4403048
11.850828 -27.770432 2.8035691
2.0174382 -4.7758255 3.8585722
5.0959606 -12.051991 7.7748685
8.0496883 -18.991457 7.268187
6.9173222 -16.296164 2.561379
-0.0014613924 -0.088348649 8.7039413
0.50126475 -1.2773074 8.7231531
1.3586526 -3.3994839 17.624077
0.48059452 -1.1788808 4.1170521
1.3701319 -3.328737 8.5399027
1.7784696 -4.2954168 8.5871382
2.1528928 -5.1793871 8.3105717
2.6203513 -6.2855105 8.2297792
0.16405679 -0.55499828 9.84797
0.60888171 -1.8089098 17.758022
0.38158914 -0.94761503 3.9706492
0.56362301 -1.3813424 4.1112776
1.9440074 -4.7069087 8.4000435
2.3683083 -5.7145591 8.2658396
1.5599754 -3.7548058 4.4860916
3.32251 -7.9231272 8.5227032
4.0371866 -9.6133461 8.4896412
4.5981622 -10.933146 7.8608437
7.0572047 -16.747435 7.4309397
9.3777676 -22.232706 7.1825051
3.7861955 -9.064373 8.8303585
1.9991955 -4.7791104 3.855629
5.05053 -12.061752 7.7698021
6.3977838 -15.256903 7.7353768
7.9760365 -19.002026 7.2616134
6.8508005 -16.297382 2.5579257
-0.0017697779 -0.088343009 8.7039413
0.49624079 -1.2776004 8.713275
1.3467779 -3.4042058 17.624077
0.47703502 -1.1819354 4.1218243
1.3629273 -3.3443546 8.5675173
1.7625567 -4.2993827 8.5827494
2.1337295 -5.1842685 8.3064384
2.5971718 -6.291656 8.2259417
0.16219856 -0.55584496 9.8529625
0.60273182 -1.8115302 17.762995
0.37781385 -0.94777352 3.9658096
0.55556703 -1.375301 4.0878143
1.6299945 -4.0038166 9.0021725
1.9275653 -4.7136655 8.4000435
2.3483465 -5.7227912 8.2658396
1.5468593 -3.7602284 4.4860916
3.3303912 -8.0203104 8.613822
3.9901545 -9.5950346 8.4613953
4.5567551 -10.94141 7.8553605
6.9915605 -16.75485 7.4234471
9.2871618 -22.234322 7.1726346
3.7531054 -9.0740852 8.827034
1.9809542 -4.7823248 3.8526859
5.0050941 -12.071344 7.7647357
6.365375 -15.329442 7.7605538
7.9005952 -19.007946 7.2533956
6.7824526 -16.293768 2.5537817
-0.0020781413 -0.088336289 8.7039413
0.49177811 -1.2793249 8.713275
1.3352581 -3.4098346 17.628973
0.47235274 -1.1822071 4.1170521
1.3534379 -3.3545272 8.5813255
1.7403328 -4.287755 8.547637
2.1156199 -5.1916852 8.3064384
2.5739818 -6.2977166 8.2221041
0.16025731 -0.55640775 9.8529625
0.59706956 -1.8156489 17.782881
0.37404212 -0.94791728 3.9609702
0.54820067 -1.3708224 4.0690432
1.6160086 -4.0094819 9.0021725
1.9110998 -4.7203655 8.4000435
2.3283558 -5.7309537 8.2658396
1.5324454 -3.762465 4.4824162
3.2833891 -7.9857097 8.5647583
3.8869834 -9.439744 8.3138876
4.5169401 -10.953383 7.8526192
6.9241815 -16.757732 7.4140821
9.2461615 -22.355259 7.2008352
11.249854 -27.17293 5.6750693
11.568905 -27.916012 2.8058043
3.7214081 -9.0871305 8.827034
1.9611813 -4.7817316 3.8467996
4.9612894 -12.084753 7.7622023
7.8270097 -19.017944 7.2468219
6.7160997 -16.294451 2.5503283
-0.0023864799 -0.088328496 8.7039413
0.48730946 -1.2810336 8.713275
0.65932763 -1.7007556 8.7930889
0.46767446 -1.1824607 4.1122804
1.727141 -4.2982483 8.5564146
2.0964317 -5.1964283 8.3023062
2.5507805 -6.3036923 8.2182665
0.15831411 -0.55696374 9.8529625
0.58990586 -1.8151867 17.758022
0.37027401 -0.94804627 3.9561307
0.53960228 -1.3630998 4.0408864
1.8936406 -4.7245865 8.3957777
2.3072126 -5.7362504 8.2618494
1.5193026 -3.7677913 4.4824162
3.1990211 -7.8583941 8.4175673
3.7908242 -9.2982702 8.1789341
4.4755173 -10.961341 7.847136
6.8586226 -16.764637 7.4065905
9.1462555 -22.334127 7.1839147
11.177293 -27.266575 5.6862602
3.6896653 -9.1000652 8.827034
1.942957 -4.7848029 3.8438563
4.9158297 -12.094012 7.7571363
7.753449 -19.027657 7.2402477
6.6516962 -16.299456 2.5475657
-0.0026899937 -0.08827626 8.6989422
0.48283482 -1.2827269 8.713275
0.65375137 -1.7039974 8.7979832
0.4624562 -1.1813058 4.1027365
1.7077011 -4.2931242 8.5344687
2.0772367 -5.2011018 8.2981739
2.5275693 -6.3095822 8.2144289
0.15636899 -0.557513 9.8529625
0.58437949 -1.819773 17.782881
0.36650953 -0.94816035 3.9512913
0.53484088 -1.3649752 4.0408864
2.2604575 -5.7234945 12.787693
1.8771372 -4.7311678 8.3957777
2.2871749 -5.7442689 8.2618494
1.5061412 -3.7730718 4.4824162
3.1169152 -7.7338953 8.273881
3.7350347 -9.2536955 8.1287184
4.4356604 -10.97302 7.8443947
6.7930999 -16.77129 7.3990984
9.0466099 -22.312572 7.1669946
10.971208 -27.032322 5.6303029
3.6523142 -9.0990286 8.8137312
1.9232279 -4.7840552 3.83797
4.8703647 -12.103099 7.75207
6.8135371 -16.906475 8.5137539
7.6799154 -19.037086 7.2336736
6.5873399 -16.304211 2.5448029
11.42973 -28.261162 1.3234071
-0.0029981185 -0.088266328 8.6989422
0.47808346 -1.2836765 8.7083368
0.6470769 -1.7043653 8.7881937
0.46048611 -1.1884807 4.1218243
1.6900727 -4.2923732 8.5213013
2.0590687 -5.2083211 8.2981739
2.5043478 -6.3153872 8.2105913
0.15442194 -0.5580554 9.8529625
0.57898927 -1.8248509 17.81271
0.36274877 -0.94825983 3.9464519
0.53132051 -1.3700516 4.0502715
2.2285767 -5.7009377 12.720175
1.8596576 -4.7352643 8.3915119
2.2671099 -5.7522178 8.2618494
1.4929616 -3.7783062 4.4824162
3.0753632 -7.7082915 8.2353306
3.7027104 -9.2666769 8.1287184
4.3957772 -10.984554 7.8416533
6.9815712 -17.428612 9.9143877
6.7293396 -16.78199 7.3934789
8.9597349 -22.321756 7.1599445
3.6177733 -9.1047831 8.8070803
1.9035276 -4.7832284 3.8320837
4.8264918 -12.116021 7.7495365
6.8066168 -17.060835 8.5787945
7.6046605 -19.041853 7.2254558
6.5230308 -16.308712 2.5420401
11.358866 -28.370457 1.3264301
-0.0033062068 -0.088255331 8.6989422
0.47359967 -1.2853376 8.7083368
0.63969195 -1.7028005 8.7686119
0.46060842 -1.2012316 4.1599998
1.6724705 -4.2915521 8.5081348
2.0398502 -5.2128558 8.2940407
2.4822876 -6.3240905 8.2105913
0.15247303 -0.55859107 9.8529625
0.28616536 -0.91111648 8.8640022
0.35899177 -0.94834453 3.9416125
0.52653486 -1.3718979 4.0502715
2.2228017 -5.7452273 12.801197
1.8431172 -4.7417264 8.3915119
2.2459221 -5.7572894 8.2578592
1.4797639 -3.7834947 4.4824162
3.0445075 -7.7090282 8.2248173
3.8407006 -9.7102642 8.5021954
4.3558669 -10.995944 7.838912
6.9125266 -17.432285 9.9027939
6.663877 -16.788143 7.3859873
8.8746777 -22.335064 7.154304
3.5736697 -9.0860825 8.7771502
1.8838565 -4.7823219 3.8261974
4.7810068 -12.124774 7.7444701
6.8353758 -17.308216 8.689991
7.5312009 -19.050714 7.2188816
6.4605947 -16.317572 2.539968
11.235836 -28.349556 1.3238101
-0.0036142555 -0.088243246 8.6989422
0.46884418 -1.2862526 8.7033968
0.63480788 -1.7078866 8.7832985
1.6548945 -4.2906604 8.4949675
2.0216415 -5.2199445 8.2940407
2.4590366 -6.3297291 8.2067537
0.15044801 -0.55884087 9.84797
0.28282589 -0.91160053 8.8590307
0.35523868 -0.9484148 3.9367731
0.52419299 -1.3801811 4.0690432
2.2120738 -5.7773476 12.855211
1.8256178 -4.745697 8.3872452
2.2258117 -5.7650938 8.2578592
1.466548 -3.7886369 4.4824162
3.0214746 -7.7295742 8.2353306
3.8195527 -9.7562313 8.5304413
4.3144045 -11.003296 7.8334289
6.8597274 -17.476927 9.9143877
6.5984535 -16.794043 7.3784947
8.7913914 -22.35251 7.1500735
1.8656837 -4.7851033 3.8232543
4.7355194 -12.133357 7.7394037
6.753437 -17.277021 8.6627169
7.4560533 -19.054901 7.2106643
6.3945618 -16.316969 2.5365148
11.169651 -28.472321 1.3274376
-0.0039222599 -0.088230096 8.6989422
0.46408814 -1.2871504 8.6984577
0.62849116 -1.7091364 8.7784033
0.49993733 -1.3315938 4.5942507
1.6390533 -4.2941728 8.4905777
2.0024011 -5.2243423 8.2899075
2.4357765 -6.3352818 8.2029161
0.14842312 -0.5590834 9.8429785
0.27933091 -0.91156244 8.8490877
0.35148942 -0.94847023 3.9319336
0.51573074 -1.3723097 4.0408864
1.8090411 -4.7520409 8.3872452
2.2045987 -5.7700129 8.2538691
1.4533141 -3.7937331 4.4824162
2.9944749 -7.7400737 8.2353306
3.7967241 -9.7985392 8.5555487
4.274457 -11.014391 7.8306875
6.7986794 -17.500765 9.9143877
6.5330696 -16.799688 7.3710027
8.6767693 -22.289188 7.1204634
3.4108186 -8.8529844 8.531064
1.8460587 -4.7840443 3.817368
4.6900315 -12.141772 7.7343378
6.6767125 -17.258162 8.6417351
7.3826714 -19.063196 7.2040901
6.3250303 -16.306873 2.5316801
-0.0042357692 -0.088259146 8.7039413
0.45933157 -1.2880305 8.6935186
0.62460876 -1.7170613 8.8077745
0.49736446 -1.3389281 4.6133385
1.6223615 -4.2953873 8.4818001
1.9841528 -5.2312999 8.2899075
2.4125075 -6.3407502 8.1990786
0.14639838 -0.5593186 9.8379879
0.27491683 -0.90844893 8.8093157
0.34817648 -0.94969136 3.9319336
0.5091337 -1.369249 4.0268083
1.7924423 -4.7583265 8.3872452
2.1833787 -5.7748551 8.2498789
1.4400628 -3.7987831 4.4824162
2.968714 -7.7538099 8.2388353
3.7624977 -9.8117332 8.5555487
4.2344842 -11.025341 7.8279457
6.4677277 -16.805086 7.3635101
8.5161324 -22.104475 7.0527816
3.3825555 -8.8718138 8.537715
1.8279061 -4.7866826 3.8144248
4.6445417 -12.150015 7.7292709
6.6148071 -17.277124 8.6396379
7.3076344 -19.066805 7.1958728
6.2662959 -16.324228 2.5309892
-0.0045438246 -0.088243827 8.7039413
0.4548327 -1.289626 8.6935186
0.61551017 -1.7106079 8.7637167
0.49217308 -1.3392551 4.6085668
1.6073579 -4.3010244 8.4818001
1.9658799 -5.238194 8.2899075
2.3881011 -6.3431334 8.1914043
0.14430249 -0.55926675 9.8280039
0.27235219 -0.91144675 8.8292027
0.34485933 -0.95090097 3.9319336
0.50256419 -1.3661588 4.0127296
1.4284804 -3.8509746 8.5565519
1.774911 -4.7621107 8.3829803
2.1632073 -5.7824411 8.2498789
1.4279844 -3.8069611 4.4860916
2.9416301 -7.7641253 8.2388353
3.7282255 -9.8248072 8.5555487
4.1930017 -11.032238 7.8224626
6.4024277 -16.81023 7.3560185
8.3398027 -21.874094 6.9710002
3.3884695 -8.9813824 8.6308289
1.8097576 -4.7892532 3.8114817
4.6021018 -12.166154 7.7292709
7.2343354 -19.074535 7.1892986
6.1776218 -16.262674 2.5185568
-0.0048518255 -0.088227428 8.7039413
0.45032829 -1.2912059 8.6935186
0.61055899 -1.7156241 8.7784033
0.49004418 -1.3479797 4.6324267
1.5915043 -4.3043628 8.4774113
1.9466037 -5.2423863 8.2857742
2.37042 -6.3634453 8.2067537
0.14227906 -0.55948704 9.8230124
0.26931924 -0.91290337 8.8341742
0.3419621 -0.95328224 3.9367731
0.49779233 -1.3679048 4.0127296
1.4150293 -3.8559372 8.5565519
1.7582775 -4.7682772 8.3829803
2.141964 -5.7871318 8.2458897
1.4146869 -3.8119223 4.4860916
2.9145105 -7.7743464 8.2388353
3.6939077 -9.8377609 8.5555487
4.1515226 -11.03898 7.8169804
5.1572924 -13.698874 7.7486281
6.3371706 -16.815126 7.3485265
8.258317 -21.889605 6.9667697
3.3858247 -9.0701122 8.70399
1.7930291 -4.7955413 3.8114817
4.5460062 -12.145808 7.7064724
7.1610723 -19.081987 7.1827245
6.1469526 -16.353672 2.5289173
11.272458 -29.958122 1.384874
-0.0051597673 -0.088209957 8.7039413
0.44581842 -1.2927699 8.6935186
0.60558027 -1.7206264 8.7930889
0.48281139 -1.3426585 4.6085668
1.5756469 -4.3076425 8.4730225
1.9282925 -5.2491493 8.2857742
2.3537347 -6.3867183 8.2259417
0.14018652 -0.55941975 9.8130293
0.26642784 -0.9148618 8.8441172
0.33863246 -0.9544701 3.9367731
0.49768853 -1.382624 4.0502715
1.3911622 -3.8322051 8.493535
1.7416222 -4.7743859 8.3829803
2.1217501 -5.7945728 8.2458897
1.4025406 -3.82002 4.4897671
2.8861148 -7.7811289 8.2353306
3.6893659 -9.9308662 8.6245956
4.1100478 -11.045566 7.8114972
5.112535 -13.725095 7.7532659
6.2703376 -16.815424 7.3391614
8.1734695 -21.895828 6.9597197
10.67641 -28.570517 5.8821106
1.7748765 -4.7979803 3.8085387
4.4975939 -12.145433 7.6963401
7.0878458 -19.089163 7.1761508
6.0777469 -16.342539 2.5240824
11.263684 -30.254797 1.3959582
-0.0054676463 -0.088191405 8.7039413
0.44130307 -1.2943182 8.6935186
0.33964899 -0.97549725 4.9894972
0.47612172 -1.3387097 4.589479
1.559786 -4.310864 8.4686327
1.9099576 -5.2558484 8.2857742
2.3358178 -6.4069409 8.241292
0.13816455 -0.55962527 9.8080368
0.26323277 -0.91578627 8.8441172
0.33571449 -0.95683247 3.9416125
0.49633089 -1.3941077 4.0784287
1.3763055 -3.8329399 8.4845324
1.7240609 -4.7779827 8.3787146
2.1015103 -5.8019443 8.2458897
1.3903549 -3.8280785 4.4934416
2.8577077 -7.7878079 8.2318258
3.6855612 -10.027712 8.6967793
4.0685778 -11.051998 7.8060141
5.0538721 -13.713762 7.7370343
6.2051845 -16.819813 7.3316689
8.0969887 -21.924225 6.9597197
10.654973 -28.819553 5.9250112
3.1250997 -8.5534458 8.1918631
1.7567284 -4.8003507 3.8055954
4.4388595 -12.116533 7.6684747
7.0130281 -19.091623 7.1679335
-0.0057754586 -0.08817178 8.7039413
0.43678239 -1.2958508 8.6935186
0.33425477 -0.9708997 4.9601254
0.46847534 -1.3319142 4.5608468
1.5439217 -4.3140273 8.4642439
1.8915998 -5.2624831 8.2857742
2.3177886 -6.4271164 8.2566423
0.13614285 -0.55982339 9.8030453
0.26017931 -0.91721249 8.8490877
0.33237249 -0.95799851 3.9416125
0.49604484 -1.4088541 4.1159706
1.3629177 -3.8377209 8.4845324
1.7073721 -4.7839718 8.3787146
2.0802286 -5.8064075 8.2418995
1.3781301 -3.8360991 4.497117
2.8280718 -7.7910304 8.2248173
3.6664946 -10.084412 8.7344408
4.027112 -11.058273 7.8005309
5.0105228 -13.743805 7.7439904
6.1400766 -16.823948 7.3241768
8.0072403 -21.916309 6.9484396
10.466568 -28.616674 5.8765149
3.0799949 -8.5221643 8.1519566
1.7372097 -4.7988524 3.7997091
4.3980069 -12.136008 7.6710081
6.9382782 -19.093794 7.1597152
10.316333 -28.343859 4.29913
-0.0060832002 -0.08815109 8.7039413
0.43250173 -1.2981048 8.6984577
0.3344695 -0.9826647 5.0139737
0.46333307 -1.3321314 4.5560746
0.56681275 -1.6117885 4.0846586
1.5272555 -4.3148751 8.4554653
1.8722761 -5.2664022 8.281641
2.2974932 -6.4412055 8.2643166
0.13412146 -0.56001431 9.7980537
0.25711918 -0.91862857 8.8540592
0.32495072 -0.94726223 3.8932183
0.48658615 -1.3975388 4.0784287
1.3523985 -3.8506711 8.5025377
1.6897945 -4.7874432 8.3744478
2.0599477 -5.8136334 8.2418995
1.3658662 -3.8440804 4.500792
2.7996538 -7.7974987 8.2213125
3.6352227 -10.108137 8.7438564
3.9856532 -11.064397 7.7950487
4.9324632 -13.67787 7.6976151
6.0734425 -16.823479 7.3148117
7.920907 -21.917059 6.9399791
10.189464 -28.163399 5.777657
10.361871 -28.60873 2.8245819
3.0452006 -8.5187998 8.1386547
1.7190855 -4.8010821 3.796766
4.3585258 -12.1594 7.676074
6.1825171 -17.219645 8.5452251
6.8636003 -19.09568 7.1514978
-0.0063842596 -0.08808618 8.6989422
0.42796788 -1.2996066 8.6984577
0.33103731 -0.98382622 5.0139737
0.45819503 -1.332329 4.5513029
0.56054157 -1.6119119 4.0800562
1.5113932 -4.3179193 8.4510765
1.8538815 -5.2729058 8.281641
2.2803264 -6.4642997 8.2835045
0.13203499 -0.55991673 9.7880707
0.25405225 -0.92003447 8.8590307
0.48623595 -1.4341037 5.867703
0.48058182 -1.3959653 4.0690432
1.6722136 -4.7908502 8.370182
2.0386455 -5.817945 8.2379093
1.3546871 -3.8552217 4.5081425
2.7700317 -7.8005028 8.214304
3.6038301 -10.131767 8.7532721
3.9456038 -11.074303 7.7923069
4.8876648 -13.703347 7.7022519
6.0084443 -16.827112 7.3073192
7.8346648 -21.917471 6.9315186
10.107643 -28.245045 5.786983
10.409743 -29.057287 2.8639245
3.0129573 -8.522337 8.1320038
1.6982683 -4.7956228 3.7879364
4.3174963 -12.178604 7.6786075
6.1223717 -17.241121 8.5452251
6.790575 -19.101723 7.1449237
-0.006691698 -0.088063359 8.6989422
0.42342877 -1.3010925 8.6984577
0.32856423 -0.98787445 5.0286589
0.45786428 -1.3466402 4.5942507
0.55110103 -1.6027733 4.0524406
1.4947451 -4.3186426 8.4422989
1.8354644 -5.279345 8.281641
2.254581 -6.463141 8.2719917
0.12975745 -0.55896711 9.7631121
0.25097868 -0.92143017 8.8640022
0.48242483 -1.4393679 5.8822217
0.47570604 -1.3976343 4.0690432
1.6554801 -4.796658 8.370182
2.017338 -5.8221784 8.2339191
1.343447 -3.8663321 4.5154929
2.7416046 -7.8067598 8.2107992
3.904144 -11.08012 7.7868237
4.8250656 -13.678551 7.6790643
5.9434953 -16.830498 7.2998271
7.7501173 -21.922071 6.9244685
9.9975157 -28.24774 5.7804551
10.369789 -29.267126 2.8804667
2.9881189 -8.5469007 8.1453056
1.6828541 -4.805336 3.7908795
4.2763844 -12.197669 7.6811404
6.0606484 -17.258104 8.5431271
6.7113271 -19.089672 7.1317759
-0.0069990568 -0.088039458 8.6989422
0.41888455 -1.3025627 8.6984577
0.32574928 -0.99095011 5.0384493
0.45696381 -1.3595501 4.6324267
0.54424572 -1.6009879 4.0432358
1.4781104 -4.3193016 8.4335203
1.8170248 -5.2857199 8.281641
2.2476833 -6.5164223 8.3295536
0.12767857 -0.55885345 9.75313
0.24789846 -0.92281562 8.8689747
0.47976813 -1.4482026 5.9112582
0.47192475 -1.4025575 4.0784287
1.6378843 -4.7999392 8.3659163
1.9970026 -5.829185 8.2339191
1.3310444 -3.8742044 4.5191684
2.7131672 -7.8129129 8.2072945
3.3923452 -9.7522907 8.408042
3.8640673 -11.089731 7.7840824
4.7247648 -13.544734 7.5955873
5.8770676 -16.829256 7.290462
7.6640477 -21.92182 6.9160085
9.8209591 -28.059914 5.7356892
10.260977 -29.284346 2.8786783
2.9619265 -8.5678654 8.155282
1.66607 -4.8111811 3.7908795
4.2337809 -12.212522 7.6811404
5.9839926 -17.231995 8.5200491
6.6446505 -19.112982 7.1317759
9.6165972 -27.630583 7.1469321
-0.0073063285 -0.088014491 8.6989422
0.41433519 -1.3040169 8.6984577
0.32323119 -0.99498659 5.0531354
0.45221534 -1.3611369 4.6324267
0.5324322 -1.5843585 3.9972105
1.4614891 -4.3198972 8.4247417
1.7976577 -5.2893658 8.2775087
2.2518206 -6.6031051 8.4293289
0.12510218 -0.55647725 9.7032127
0.24467574 -0.9236753 8.8689747
0.47627378 -1.4546471 5.9306159
0.49206936 -1.4795233 4.2942958
1.6211195 -4.8056269 8.3659163
1.9756762 -5.8332658 8.229929
1.3186032 -3.8820372 4.5228434
2.6847205 -7.8189635 8.2037897
3.3608146 -9.7714348 8.414319
3.8226094 -11.095245 7.7785993
4.6644568 -13.523455 7.574718
5.8122344 -16.832142 7.28297
7.5796432 -21.92577 6.9089584
9.3919992 -27.137753 5.5435696
9.8440332 -28.411818 2.792392
2.9344163 -8.5852184 8.1619339
3.5477159 -10.361886 8.0584621
4.1897273 -12.223147 7.6786075
5.9149618 -17.227022 8.5074606
6.5671482 -19.104801 7.1202717
9.2085018 -26.758553 6.9159851
-0.0076135127 -0.087988451 8.6989422
0.41001329 -1.3061967 8.7033968
0.32131064 -1.0009567 5.077611
0.46468413 -1.4151833 4.80899
0.53243983 -1.6028942 4.0386333
1.444882 -4.3204298 8.4159641
1.7791834 -5.2956085 8.2775087
2.2349014 -6.6291485 8.4523544
0.12272844 -0.55493611 9.6682711
0.24158411 -0.92503971 8.8739462
0.4739005 -1.4646727 5.9644918
0.4982146 -1.51566 4.3928437
1.6035098 -4.8087826 8.3616505
1.9553022 -5.8401265 8.229929
1.3061233 -3.8898299 4.5265183
2.6562645 -7.8249097 8.200285
3.4444742 -10.129504 8.7093334
3.7825081 -11.104563 7.7758579
4.6172223 -13.539655 7.574718
5.7474527 -16.83478 7.2754784
7.4953051 -21.929399 6.9019084
9.2542744 -27.044884 5.5183887
9.7141333 -28.356495 2.7838976
2.9068208 -8.6024837 8.1685839
3.5115247 -10.374207 8.0584621
4.1456513 -12.233615 7.676074
5.8402042 -17.204588 8.4864798
6.5064979 -19.145493 7.1268458
9.1009502 -26.749119 6.9054346
-0.0079206023 -0.087961346 8.6989422
0.40545133 -1.3076199 8.7033968
0.31812224 -1.0030428 5.0825062
0.48783362 -1.50341 5.100081
0.52927834 -1.612168 4.0570431
1.4282887 -4.3208985 8.4071856
1.7598006 -5.2991161 8.2733755
2.215801 -6.6490731 8.4677048
0.12048803 -0.55394965 9.6433125
0.23822135 -0.92536098 8.8689747
0.47031525 -1.4711074 5.9838495
1.585898 -4.8118734 8.3573837
1.9339578 -5.8440557 8.2259388
1.2925373 -3.8943653 4.5265183
2.6277997 -7.8307538 8.1967802
3.3036776 -9.8278637 8.442564
3.7410545 -11.109774 7.7703753
4.5614414 -13.530503 7.5608058
5.6812406 -16.832775 7.2661133
7.4110336 -21.932705 6.8948584
9.1125898 -26.937426 5.4904103
2.8767745 -8.6125774 8.1685839
3.4573345 -10.332738 8.0172586
4.1015539 -12.243925 7.6735415
5.7772255 -17.216265 8.4822836
8.9238482 -26.531946 6.8421292
-0.008227597 -0.08793316 8.6989422
0.40111175 -1.3097703 8.7083368
0.31431484 -1.0031754 5.077611
0.50809467 -1.584707 5.3673124
0.52364761 -1.6140057 4.0570431
1.4117101 -4.3213053 8.3984079
1.740415 -5.3025532 8.2692423
2.1915753 -6.6537228 8.4638672
0.11706541 -0.54730469 9.5185213
0.23498979 -0.92618692 8.8689747
0.46744761 -1.479932 6.012886
0.48867571 -1.5223875 4.4022293
1.5682842 -4.8149004 8.3531179
1.9135464 -5.8507714 8.2259388
1.277879 -3.8956325 4.5228434
2.5993264 -7.8364935 8.1932764
3.1183918 -9.385005 8.0565338
3.7009306 -11.118796 7.7676339
4.5057807 -13.521129 7.5468926
5.61658 -16.834915 7.2586207
7.3268304 -21.935692 6.8878083
8.9686527 -26.81999 5.460566
2.8478639 -8.626112 8.1719093
3.4123611 -10.317879 7.9966555
4.0560794 -12.249982 7.6684747
5.7185225 -17.240633 8.4843817
8.8986521 -26.765881 6.8937116
-0.0085421512 -0.087946862 8.7039413
0.39653733 -1.3111625 8.7083368
0.31051052 -1.0032939 5.0727162
0.52148521 -1.6462398 5.5677352
0.51145178 -1.595359 4.0064158
1.3951459 -4.3216481 8.3896294
1.7210269 -5.3059196 8.26511
2.1663518 -6.6552367 8.456192
0.11404195 -0.54233891 9.4236803
0.23175536 -0.92700154 8.8689747
0.46302724 -1.4839547 6.0225649
0.48648766 -1.533954 4.4303861
1.5498694 -4.8153801 8.3445873
1.8931118 -5.8574147 8.2259388
1.2642729 -3.9000692 4.5228434
2.5697346 -7.8387423 8.1862679
3.079541 -9.3773422 8.0408421
3.659483 -11.123704 7.7621508
4.4460835 -13.498906 7.5260239
5.5519743 -16.836807 7.2511287
7.2411923 -21.933802 6.8793478
8.8950195 -26.911766 5.4726901
2.8165779 -8.632452 8.1685839
3.3713017 -10.314361 7.9848833
4.0106134 -12.255873 7.6634083
5.6540661 -17.247551 8.4780874
8.8051672 -26.79678 6.8937116
8.9600229 -27.252028 4.0933075
-0.0088412808 -0.087873578 8.6989422
0.39218017 -1.3132831 8.713275
0.30373552 -0.99365944 5.0188684
0.52063757 -1.6637211 5.6202273
0.50470024 -1.5934094 3.9972105
1.3793241 -4.3242097 8.3852406
1.7016366 -5.3092151 8.2609768
2.1421261 -6.6597066 8.4523544
0.11070924 -0.53566128 9.2988892
0.22864498 -0.92832261 8.8739462
0.46080461 -1.495172 6.0612803
1.5314704 -4.8157897 8.3360548
1.8726542 -5.8639874 8.2259388
1.2506515 -3.9044588 4.5228434
2.5412574 -7.8442717 8.1827631
3.0467894 -9.3880348 8.0408421
3.6193385 -11.132433 7.759409
4.4044209 -13.531194 7.5352988
5.4859862 -16.834045 7.2417636
7.157146 -21.936144 6.8722978
8.8498354 -27.092073 5.5025344
2.786428 -8.642231 8.1685839
3.3327925 -10.318373 7.9789968
3.9651549 -12.261594 7.6583419
5.586832 -17.245594 8.467598
8.7025681 -26.799612 6.8866773
8.8281145 -27.170105 4.0767312
-0.0091479626 -0.087842181 8.6989422
0.38781309 -1.3153895 8.718214
0.29850146 -0.98886466 4.9894972
0.51923352 -1.67979 5.6679468
0.49563569 -1.5839741 3.9695954
1.362782 -4.32443 8.376462
1.6813946 -5.3097568 8.2527113
2.116925 -6.6610341 8.4446793
0.1082165 -0.53293031 9.2439804
0.22452764 -0.92548782 8.8391457
0.45668012 -1.5003791 6.0757985
0.43853638 -1.4169663 4.0878143
1.5130876 -4.8161297 8.3275223
1.8512667 -5.8676143 8.2219496
1.2380373 -3.9120324 4.5265183
2.5116858 -7.8463011 8.1757536
3.0092461 -9.3837872 8.0282879
3.5791783 -11.141019 7.7566676
4.369369 -13.584438 7.5561681
5.4215069 -16.835442 7.234271
7.0716987 -21.933598 6.8638372
9.0041981 -27.894133 5.6564164
2.7551105 -8.6483469 8.1652584
3.2942965 -10.322242 7.9731102
3.9197056 -12.267148 7.653276
8.5555048 -26.663212 6.8444738
8.8982258 -27.714693 4.1520152
-0.0094545335 -0.087809712 8.6989422
0.38300225 -1.315989 8.713275
0.2924329 -0.98111761 4.9454403
0.51423818 -1.6844476 5.6774912
0.48837337 -1.5800947 3.9557877
1.3462549 -4.3245873 8.3676844
1.6620096 -5.3129077 8.2485781
2.0936608 -6.6683831 8.4446793
0.10374332 -0.51999015 9.0093718
0.22104919 -0.92522866 8.8292027
0.45686439 -1.5200213 6.1483898
0.43459603 -1.4217891 4.0971994
1.4947211 -4.8164005 8.3189907
1.8307737 -5.8740411 8.2219496
1.2243743 -3.9163301 4.5265183
2.4832063 -7.8516197 8.1722488
2.9823506 -9.4127874 8.0439806
3.5377371 -11.145473 7.7511849
4.374248 -13.764256 7.6466012
5.3570848 -16.836592 7.226779
6.9892683 -21.939867 6.8581972
9.1530638 -28.697588 5.8102989
2.7237844 -8.6543503 8.1619339
3.2558141 -10.325969 7.9672246
3.8742661 -12.272533 7.6482096
8.4756002 -26.734613 6.8550248
8.7984343 -27.736143 4.1506338
-0.0097692488 -0.087819025 8.7039413
0.37840623 -1.317318 8.713275
0.28699636 -0.97529429 4.9111738
0.51266211 -1.7005248 5.7252111
0.47886333 -1.5687096 3.9235702
1.3297435 -4.3246818 8.3589058
1.6417927 -5.3132997 8.2403116
2.0694215 -6.6725893 8.4408417
0.10132711 -0.51723081 8.954464
0.21672513 -0.9213233 8.7844582
0.4572745 -1.5408883 6.225821
0.42614099 -1.4117327 4.0643501
0.55974627 -1.8361285 4.0328321
1.4763712 -4.8166022 8.3104591
