# .PCD v0.7 - Point Cloud Data file format
VERSION 0.7
FIELDS x y z
SIZE 4 4 4
TYPE F F F
COUNT 1 1 1
WIDTH 1503
HEIGHT 1
VIEWPOINT 0 0 0 1 0 0 0
POINTS 1503
DATA ascii
-0.37441534 0.7497521 3.2640929
-0.62592196 1.2392642 3.8297122
-0.74774235 1.4704087 3.4746816
-1.0347416 2.0270624 3.792835
-1.0819577 2.1132343 3.2184591
-1.0622 2.070219 2.6007321
-1.0619678 2.0529921 2.3511977
-0.96448839 1.8621652 1.7733443
-0.92501479 1.7836826 1.4019494
-0.90266246 1.73911 1.1122231
-0.88941067 1.7121322 0.8678326
-0.86759335 1.6687247 0.64277273
-0.85030782 1.6340941 0.4412047
-0.83490431 1.6031414 0.25521845
-1.0195665 1.9777905 2.0629661
-0.94114459 1.8233329 1.5776229
-0.91294056 1.7671916 1.2544659
-0.89713663 1.7343874 0.99013841
-0.87734169 1.6946843 0.75331712
-0.85874641 1.6573638 0.54092294
-0.83860099 1.6178026 0.34636822
-0.82352614 1.5873806 0.16581348
-0.0053167176 0.088418506 8.728941
-0.60014933 1.2399825 8.7577286
-0.78483427 1.5957006 8.5728035
-0.43675375 0.87285894 3.1674278
-1.2439744 2.4655206 6.5654192
-1.1300507 2.2281535 4.6457453
-1.0583767 2.0796623 3.4998198
-1.0613728 2.0801976 2.8726232
-0.18400845 0.48217443 8.76478
-0.37100479 0.87246299 8.7993736
-0.37179592 0.75105447 3.2640929
-0.74260509 1.4730099 3.4746816
-1.0276595 2.0306621 3.792835
-1.0868484 2.1411808 3.254369
-1.0595782 2.0829797 2.6117578
-1.062932 2.0725534 2.3687205
-0.96687216 1.8828332 1.7890366
-0.92643076 1.8017753 1.4129152
-0.90266716 1.7540671 1.1191796
-0.88767415 1.7234693 0.87157869
-0.86835694 1.6845348 0.64700282
-0.85135531 1.6501489 0.44400257
-0.83387285 1.6148958 0.25611261
-1.0262499 2.0079353 2.08957
-0.94213939 1.8409998 1.5893955
-0.91462672 1.7857149 1.2645986
-0.89728999 1.7496235 0.99643254
-0.87788981 1.7103399 0.75824767
-0.85961896 1.6733217 0.54443991
-0.8374759 1.629529 0.34774956
-0.82255054 1.5991309 0.16621654
-0.0050080465 0.088436522 8.728941
-0.59615314 1.2427706 8.7626677
-0.77970546 1.5993457 8.5776987
-0.43370426 0.8743782 3.1674278
-1.244099 2.4873211 6.6114445
-1.126569 2.2406435 4.6633015
-1.065053 2.1109807 3.5452821
-1.0642316 2.1039112 2.8994856
-0.18232422 0.48281378 8.76478
-0.36795706 0.87375277 8.7993736
-0.36972541 0.75347638 3.2689323
-1.3413266 2.7028754 8.2596836
-0.73745883 1.4755931 3.4746816
-1.0626631 2.1181583 3.9464085
-1.0902028 2.1664956 3.2862895
-1.0584065 2.0987737 2.6264584
-1.062156 2.0889668 2.3827386
-0.96559161 1.8966029 1.7984519
-0.92773169 1.8198997 1.4238811
-0.90459138 1.7729909 1.1284548
-0.88797748 1.7389437 0.87719774
-0.86902064 1.7003702 0.65123296
-0.85230106 1.6662307 0.44680041
-0.83276951 1.6266625 0.25700676
-1.0310472 2.0348196 2.1128485
-0.94119364 1.8550912 1.5982249
-0.91424298 1.8004279 1.2721982
-0.89734799 1.7648821 1.0027267
-0.87833899 1.7260196 0.76317817
-0.86039048 1.6893058 0.54795682
-0.8385272 1.6456794 0.3498216
-0.82377237 1.6153442 0.16682112
-0.0046981657 0.088497072 8.7339401
-0.59181148 1.244844 8.7626677
-0.77411795 1.6020577 8.5776987
-0.43064946 0.87588674 3.1674278
-1.2475575 2.5161538 6.6758795
-1.1251504 2.2574236 4.6896358
-1.0740407 2.1474042 3.5990105
-1.0669379 2.1276698 2.9263482
-0.18063778 0.48344728 8.76478
-0.36510944 0.87552404 8.8043451
-0.36709303 0.75476229 3.2689323
-1.3318835 2.707541 8.2596836
-0.73133731 1.4762076 3.4701805
-1.0436504 2.0985024 3.903749
-1.0933934 2.1918592 3.3182096
-1.0586532 2.1176174 2.6448343
-1.0628835 2.1085846 2.4002614
-0.9642266 1.9103864 1.8078673
-0.92891729 1.8380548 1.4348469
-0.90439504 1.7879965 1.1354111
-0.88818353 1.754441 0.88281685
-0.8674162 1.7119516 0.65405303
-0.85314476 1.6823391 0.44959828
-0.83384794 1.6428816 0.25834802
-1.0356696 2.0617619 2.136127
-0.94197714 1.8728096 1.6099977
-0.91570586 1.81901 1.2823309
-0.89731032 1.7801621 1.0090209
-0.87868953 1.7417233 0.76810873
-0.86106086 1.7053156 0.5514738
-0.83947605 1.6618568 0.35189366
-0.82263702 1.6271268 0.16722418
-0.0043892246 0.088512935 8.7339401
-0.58746254 1.2469022 8.7626677
-0.76896065 1.6056685 8.5825939
-0.42693576 0.87604266 3.1626556
-1.2577229 2.5590677 6.7771349
-1.1246892 2.2763684 4.7203593
-1.0902864 2.1990438 3.6775367
-1.0680646 2.1486025 2.9493732
-0.17894913 0.48407489 8.76478
-0.36205107 0.87679321 8.8043451
-0.36445618 0.75603914 3.2689323
-0.72617996 1.4787514 3.4701805
-1.0997391 2.2307928 4.1383753
-1.0977559 2.2199726 3.35412
-1.0602865 2.1395259 2.6668851
-1.0634868 2.1282327 2.417784
-0.96277696 1.9241832 1.8172827
-0.93186027 1.8599788 1.4485543
-0.9060905 1.806982 1.1446863
-0.88829207 1.7699609 0.8884359
-0.86789465 1.7278291 0.65828311
-0.85388625 1.6984732 0.45239612
-0.83258486 1.6546794 0.25924215
-1.0401162 2.0887613 2.1594057
-0.94264817 1.8905555 1.6217704
-0.91704994 1.8376241 1.2924637
-0.89920545 1.799523 1.0174131
-0.878941 1.7574503 0.77303928
-0.85945415 1.7170039 0.55381846
-0.8403219 1.6780607 0.3539657
-0.82366788 1.6433876 0.16782878
-0.0040802299 0.088527717 8.7339401
-0.58343494 1.2496494 8.7676067
-0.76335114 1.608343 8.5825939
-0.42387518 0.87752759 3.1626556
-0.70467997 1.4463834 3.8499298
-1.1335887 2.3146956 4.7905846
-1.0826037 2.202836 3.6775367
-1.0704744 2.1724439 2.9762356
-0.17725831 0.48469657 8.76478
-0.35898829 0.87805164 8.8043451
-0.36181489 0.75730669 3.2689323
-0.57942224 1.1987244 3.6748505
-0.72101372 1.4812773 3.4701805
-1.0919454 2.2346179 4.1383753
-1.0979567 2.2400253 3.3780599
-1.0617796 2.1614711 2.6889362
-1.0623831 2.1447148 2.4318025
-0.95951337 1.9345062 1.8235595
-0.93466139 1.8819454 1.4622616
-0.90766436 1.826001 1.1539615
-0.88830316 1.7855028 0.89405507
-0.8682726 1.7437305 0.6625132
-0.85452551 1.7146331 0.455194
-0.83347249 1.6709448 0.2605834
-1.0443866 2.1158159 2.1826839
-0.94320679 1.908329 1.633543
-0.92018652 1.8601335 1.3051294
-0.89896166 1.8148518 1.0237073
-0.87909323 1.7732 0.77796978
-0.85993683 1.7330558 0.55733538
-0.83886302 1.689855 0.35534707
-0.82237226 1.655201 0.16823184
-0.0037695791 0.088585027 8.7389402
-0.57906926 1.2516783 8.7676067
-0.75773233 1.6109978 8.5825939
-0.42080948 0.87900186 3.1626556
-0.7021749 1.4541124 3.8637373
-1.1422342 2.3531122 4.8608098
-1.0884626 2.2344301 3.7229989
-1.0699177 2.190568 2.9954233
-0.17556532 0.48531237 8.76478
-0.35592112 0.8792994 8.8043451
-0.35916919 0.75856507 3.2689323
-0.57597977 1.202296 3.6795435
-0.71489292 1.4818243 3.4656792
-1.0977793 2.266583 4.1895666
-1.1019809 2.2682376 3.4139702
-1.0631323 2.1834528 2.7109871
-1.0627488 2.1644163 2.4493251
-0.96992737 1.9727737 1.8549441
-0.9354735 1.9002024 1.4732274
-0.90715849 1.8410792 1.160918
-0.88821638 1.801066 0.89967412
-0.86855018 1.7596557 0.66674334
-0.8528865 1.7264138 0.45705923
-0.83425647 1.6872362 0.26192465
-1.0468398 2.1395719 2.202637
-0.94543082 1.9297587 1.6482587
-0.92127919 1.8788165 1.3152622
-0.90062213 1.8342745 1.0320994
-0.88122886 1.7932101 0.78454381
-0.86031783 1.7491318 0.56085235
-0.83951831 1.7061027 0.3574191
-0.82321137 1.6715071 0.16883643
-0.0034603367 0.08859764 8.7389402
-0.5746966 1.253692 8.7676067
-0.75210422 1.6136329 8.5825939
-0.41773862 0.88046545 3.1626556
-0.69203556 1.4459808 3.8361223
-1.1506251 2.3916173 4.931035
-1.0794328 2.2356818 3.7188659
-1.0692472 2.208714 3.0146108
-0.17387019 0.48592225 8.76478
-0.3528496 0.88053644 8.8043451
-0.3565191 0.75981414 3.2689323
-0.55550098 1.1700015 3.5763025
-0.70971602 1.4843107 3.4656792
-1.1056602 2.3033183 4.24929
-1.096671 2.2775004 3.4219503
-1.0687646 2.2146301 2.7440636
-1.0629898 2.1841464 2.4668479
-0.97497064 2.0006404 1.8769133
-0.93800336 1.922246 1.4869348
-0.9085024 1.8601565 1.1701932
-0.88803178 1.8166505 0.90529323
-0.86872697 1.7756038 0.67097336
-0.85333598 1.7426156 0.45985708
-0.83493686 1.7035533 0.26326588
-1.0507692 2.1667304 2.2259157
-0.94575119 1.9475912 1.6600313
-0.92225254 1.8975294 1.3253949
-0.90017188 1.84965 1.0383936
-0.87909967 1.8047659 0.78783083
-0.8605969 1.7652315 0.56436926
-0.83789951 1.7179246 0.35880047
-0.82175505 1.6833496 0.16923951
-0.0031510524 0.088609181 8.7389402
-0.570638 1.256398 8.7725468
-0.74646705 1.6162485 8.5825939
-0.41466266 0.88191819 3.1626556
-1.1566994 2.425885 4.9924822
-1.0728369 2.2419744 3.7229989
-1.0684631 2.2268825 3.0337982
-0.17207752 0.48625371 8.7597885
-0.34957784 0.88126701 8.7993736
-0.3538647 0.76105404 3.2689323
-0.553617 1.1766181 3.5903809
-0.7035985 1.4848118 3.4611781
-1.0987337 2.3095188 4.2535558
-1.0887144 2.2813146 3.4219503
-1.0639528 2.2244639 2.7514141
-1.0600072 2.1974797 2.4773614
-0.98152375 2.0320706 1.9020209
-0.9385699 1.9405656 1.4979006
-0.90779394 1.8752781 1.1771495
-0.88977051 1.8364276 0.91278535
-0.86880302 1.7915744 0.6752035
-0.85368258 1.7588413 0.46265495
-0.83551335 1.7198956 0.2646071
-1.0545214 2.1939421 2.2491941
-0.94595838 1.9654492 1.671804
-0.92310649 1.9162722 1.3355277
-0.9015969 1.8691323 1.0467858
-0.88100654 1.8248339 0.79440486
-0.86077404 1.7813542 0.56788623
-0.83836353 1.7342142 0.36087251
-0.82240188 1.6996994 0.16984409
-0.0028417292 0.088619642 8.7389402
-0.56656754 1.259091 8.7774858
-0.74082077 1.6188443 8.5825939
-0.4115817 0.88336027 3.1626556
-1.1635716 2.4623897 5.0583181
-1.0517417 2.217737 3.6775367
-1.0689415 2.2479668 3.0568233
-0.17037913 0.48685139 8.7597885
-0.34649953 0.88248193 8.7993736
-0.35120595 0.76228464 3.2689323
-0.54804844 1.1754153 3.5809953
-0.69841123 1.4872587 3.4611781
-1.0962259 2.3251352 4.2748857
-1.0807444 2.2851009 3.4219503
-1.0605376 2.2373545 2.7624395
-1.0569445 2.2108192 2.487875
-0.98618865 2.06006 1.9239902
-0.93721253 1.955142 1.5061251
-0.90890706 1.8944114 1.1864247
-0.88937497 1.8520595 0.91840452
-0.86877811 1.8075671 0.67943364
-0.85392636 1.7750907 0.46545282
-0.8359859 1.7362626 0.26594836
-1.0564908 2.2178347 2.2691472
-0.94779259 1.9869806 1.6865199
-0.92384064 1.9350435 1.3456604
-0.90093917 1.884552 1.05308
-0.88074583 1.8406771 0.79933542
-0.85874963 1.7931156 0.5702309
-0.83872408 1.7505279 0.36294454
-0.82294464 1.716074 0.17044869
-0.0025323716 0.088629015 8.7389402
-0.56248522 1.2617708 8.7824249
-0.73516542 1.6214203 8.5825939
-0.40849569 0.88479161 3.1626556
-1.281378 2.7513247 7.2097726
-1.1630937 2.4837883 5.093431
-1.0463876 2.2264881 3.6858025
-1.0665531 2.2632823 3.0721734
-0.16858518 0.48717013 8.7547979
-0.34341699 0.88368607 8.7993736
-0.34854296 0.76350594 3.2689323
-0.54321849 1.1757544 3.5763025
-0.69321549 1.4896876 3.4611781
-1.0969337 2.347851 4.3090129
-1.0740399 2.2915878 3.42594
-1.0570453 2.2502484 2.7734649
-1.0538015 2.2241638 2.4983885
-0.99066997 2.0881066 1.9459594
-0.93755901 1.9735092 1.5170909
-0.90799528 1.9095742 1.1933811
-0.89087331 1.8718969 0.92589664
-0.87071496 1.827912 0.68507373
-0.85406691 1.7913628 0.46825066
-0.83635426 1.7526535 0.26728958
-1.058306 2.2417681 2.2891002
-0.94776052 2.0048943 1.6982924
-0.92445493 1.9538432 1.3557931
-0.90018487 1.89999 1.0593741
-0.88038504 1.8565404 0.80426592
-0.85873759 1.8092756 0.57374781
-0.83898079 1.7668651 0.36501658
-0.82338291 1.732473 0.17105328
-0.0022229832 0.088637322 8.7389402
-0.55839103 1.2644374 8.787364
-0.72950113 1.6239766 8.5825939
-0.40602538 0.88756973 3.1674278
-1.3069633 2.8320589 7.407681
-1.1655047 2.5117311 5.1417112
-1.0386093 2.2301271 3.6858025
-1.066783 2.2844167 3.0951984
-0.1668836 0.48775563 8.7547979
-0.34033024 0.88487941 8.7993736
-0.34587571 0.76471794 3.2689323
-0.53767484 1.1745051 3.5669169
-0.68709987 1.4901212 3.4566767
-1.1029742 2.3824334 4.3644705
-1.0673034 2.2980561 3.4299302
-1.0549065 2.2662187 2.7881656
-1.047547 2.2310567 2.5018933
-0.99496734 2.116209 1.9679285
-0.93956953 1.9956855 1.5307982
-0.90887696 1.928761 1.2026563
-0.89026636 1.8875741 0.93151569
-0.87047225 1.8439541 0.68930382
-0.85410428 1.8076576 0.47104853
-0.83448929 1.7645661 0.26818374
-1.0599669 2.2657406 2.3090532
-0.9493295 2.0264919 1.7130083
-0.92494917 1.9726707 1.3659258
-0.90126252 1.9195536 1.0677663
-0.8799243 1.8724236 0.80919647
-0.85862321 1.8254575 0.57726479
-0.83913362 1.7832251 0.36708862
-0.82371658 1.7488956 0.17165788
-0.0019160868 0.088600986 8.7339401
-0.55397397 1.2663789 8.787364
-0.72382796 1.6265132 8.5825939
-0.40292472 0.88898164 3.1674278
-0.66750658 1.4596149 3.8407245
-1.1687348 2.5418968 5.1943798
-1.0296394 2.2311838 3.6816692
-1.0655322 2.3026712 3.1143858
-0.16518001 0.48833519 8.7547979
-0.33723938 0.88606203 8.7993736
-0.34371787 0.76706779 3.2737718
-0.53214657 1.1732315 3.5575314
-0.68189418 1.4925106 3.4566767
-1.0903018 2.3767862 4.3474059
-1.066833 2.3181918 3.4538705
-1.0526688 2.2822011 2.8028662
-1.0563005 2.2702677 2.5404434
-0.99908048 2.1443667 1.9898978
-0.93966877 2.0141106 1.541764
-0.91150999 1.9519907 1.2142503
-0.89152366 1.9074696 0.93900776
-0.87216091 1.8643619 0.69494396
-0.85403806 1.823974 0.47384638
-0.83466458 1.7809962 0.26952499
-1.0599029 2.2863643 2.3256807
-0.95075899 2.0481246 1.727724
-0.92532307 1.9915252 1.3760586
-0.90029997 1.935033 1.0740606
-0.8813566 1.8926067 0.81577051
-0.85840625 1.8416603 0.58078176
-0.83918244 1.7996078 0.36916068
-0.8239457 1.7653416 0.17226246
-0.0016068001 0.088607125 8.7339401
-0.54985875 1.2690178 8.7923031
-0.71814597 1.62903 8.5825939
-0.39981914 0.89038265 3.1674278
-1.1717685 2.5721152 5.2470489
-1.0499269 2.296186 3.7808604
-1.0641668 2.3209445 3.1335733
-0.1634744 0.48890883 8.7547979
-0.33433166 0.88773286 8.8043451
-0.3410382 0.76826292 3.2737718
-0.5266338 1.1719335 3.5481458
-0.67668021 1.4948817 3.4566767
-1.0776825 2.3710806 4.3303423
-1.0774853 2.3630276 3.5137208
-1.0517415 2.3012788 2.8212419
-1.0603137 2.2998502 2.5684795
-1.003009 2.1725786 2.0118668
-0.93965083 2.0325603 1.55273
-0.91213149 1.9712418 1.2235255
-0.89265269 1.9273965 0.94649988
-0.87170023 1.8804517 0.69917405
-0.85386842 1.840312 0.47664425
-0.83473527 1.797449 0.27086622
-1.0597078 2.3070152 2.342308
-0.95373803 2.0734639 1.7453829
-0.92557651 2.010406 1.3861912
-0.90114039 1.9546504 1.0824528
-0.88068038 1.9085351 0.82070106
-0.85808653 1.8578836 0.58429867
-0.84120411 1.8205076 0.37192339
-0.82406992 1.7818104 0.17286706
-0.0013003164 0.088568665 8.728941
-0.54542571 1.2709295 8.7923031
-0.71245515 1.6315267 8.5825939
-0.39670867 0.89177287 3.1674278
-1.1746054 2.6023855 5.2997179
-1.0929956 2.4126217 3.9627099
-1.0626869 2.3392365 3.152761
-0.16176678 0.48947644 8.7547979
-0.33123088 0.8888945 8.8043451
-0.33784875 0.76829791 3.2689323
-0.52183819 1.1721883 3.5434532
-0.67145795 1.4972347 3.4566767
-1.0993804 2.4414146 4.449789
-1.0692303 2.3667743 3.5137208
-1.0520922 2.3234663 2.8432932
-1.0626513 2.3262444 2.5930114
-1.0083716 2.2043834 2.0369747
-0.9412567 2.054836 1.5664372
-0.9144758 1.9945477 1.2351196
-0.89365345 1.9473546 0.95399201
-0.87313992 1.9009199 0.7048142
-0.85359508 1.8566711 0.47944215
-0.83470124 1.8139238 0.27220747
-1.0562881 2.3208954 2.3522847
-0.95487547 2.0951707 1.7600988
-0.92570931 2.0293128 1.3963239
-0.90185457 1.9742968 1.090845
-0.88186687 1.9287759 0.8272751
-0.85766387 1.8741271 0.58781564
-0.84102851 1.8369405 0.37399539
-0.82617038 1.8028431 0.17367318
-0.00099114573 0.088572666 8.728941
-0.54128975 1.2735409 8.7972422
-0.70715982 1.6349384 8.5874891
-0.39359337 0.89315218 3.1674278
-0.60456395 1.3594148 3.5645733
-1.1782225 2.6348929 5.3567758
-1.1087633 2.4703362 4.0495019
-1.0624076 2.3604689 3.175786
-0.16005722 0.49003813 8.7547979
-0.32812604 0.89004529 8.8043451
-0.33516484 0.76947254 3.2689323
-0.51704717 1.1724235 3.5387604
-0.66534388 1.4975799 3.4521756
-1.1237873 2.5190732 4.5820327
-1.0757327 2.403497 3.5616009
-1.0523007 2.3456838 2.865344
-1.0559952 2.3331885 2.5965159
-1.0119176 2.2327061 2.0589437
-0.94099045 2.0733399 1.5774032
-0.91483617 2.0138602 1.2443948
-0.89260703 1.9631228 0.95961118
-0.87246019 1.9170547 0.70904434
-0.85321778 1.8730502 0.48223996
-0.83456218 1.83042 0.27354869
-1.0527843 2.3347795 2.3622611
-0.95753622 2.1205947 1.7777578
-0.92749673 2.0521729 1.4089899
-0.90244263 1.9939719 1.0992371
-0.88097429 1.9447466 0.83220553
-0.8591454 1.8948166 0.59250492
-0.84074849 1.8533945 0.37606746
-0.82606858 1.819363 0.17427778
-0.00068196346 0.088575587 8.728941
-0.53684098 1.2754226 8.7972422
-0.7014485 1.6373969 8.5874891
-0.39047331 0.8945207 3.1674278
-0.59824008 1.3579409 3.5553682
-1.180657 2.6652672 5.4094448
-1.1115657 2.4999049 4.0908318
-1.0619929 2.3817279 3.1988111
-0.15843342 0.49086881 8.7597885
-0.32501721 0.89118522 8.8043451
-0.33247685 0.77063781 3.2689323
-0.51226091 1.1726398 3.5340676
-0.66011226 1.4998933 3.4521756
-1.1307991 2.5587633 4.6460218
-1.0856557 2.4485574 3.6214516
-1.0523667 2.3679307 2.8873951
-1.0522217 2.3466229 2.6070297
-1.015278 2.2610805 2.0809131
-0.94060636 2.0918665 1.588369
-0.91507298 2.0331995 1.25367
-0.89336526 1.9831342 0.9671033
-0.87167841 1.9332078 0.71327436
-0.85273647 1.8894495 0.48503786
-0.8343181 1.8469373 0.27488995
-1.0491965 2.3486676 2.3722377
-0.96168154 2.1497521 1.79836
-0.92913568 2.0750701 1.4216557
-0.90476096 2.0178163 1.1097274
-0.88191438 1.9650426 0.83877957
-0.8585012 1.9111056 0.59602183
-0.84036374 1.8698688 0.37813953
-0.82586139 1.835904 0.17488237
-0.00037277382 0.088577427 8.728941
-0.53268439 1.278006 8.8021812
-0.69572866 1.6398354 8.5874891
-0.38675636 0.89450794 3.1626556
-0.59271514 1.3582302 3.5507658
-1.1828938 2.6956904 5.4621139
-1.1073695 2.514071 4.1073632
-1.0549676 2.3883522 3.2026484
-0.156719 0.49141887 8.7597885
-0.32190442 0.89231431 8.8043451
-0.32978481 0.77179366 3.2689323
-0.50816453 1.1744208 3.5340676
-0.65487266 1.5021883 3.4521756
-1.1365014 2.5961432 4.7057447
-1.0928535 2.488198 3.673322
-1.0522902 2.3902066 2.909446
-1.048367 2.360059 2.6175432
-1.0184524 2.289505 2.1028821
-0.94010419 2.1104155 1.5993348
-0.91698951 2.0566108 1.2652639
-0.89399445 2.0031743 0.97459543
-0.87275088 1.9537584 0.71891451
-0.85415608 1.9103522 0.48876834
-0.8339687 1.8634748 0.27623117
-1.0409918 2.3523157 2.3722377
-0.96399713 2.1752682 1.8160189
-0.93062592 2.0980036 1.4343216
-0.90508157 2.0375535 1.1181196
-0.88080502 1.9810541 0.84371012
-0.85972977 1.9318535 0.60071111
-0.83987415 1.8863624 0.38021153
-0.82758236 1.8570288 0.17568849
-6.3578198e-05 0.088578194 8.728941
-0.52822 1.2798576 8.8021812
-0.6900003 1.642254 8.5874891
-0.38363159 0.89585251 3.1626556
-0.58797038 1.360291 3.5507658
-1.1858867 2.7283578 5.5191717
-1.1132152 2.5514514 4.1610918
-1.0658957 2.4360678 3.2602112
-0.15500268 0.49196294 8.7597885
-0.31878766 0.8934325 8.8043451
-0.32708874 0.7729401 3.2689323
-0.50406194 1.1761875 3.5340676
-0.649625 1.5044652 3.4521756
-1.1637428 2.6838427 4.8550525
-1.1009895 2.5306811 3.729182
-1.053426 2.4156182 2.9351723
-1.0444313 2.373497 2.628057
-1.0198714 2.3144176 2.1217129
-0.94117212 2.132812 1.6130422
-0.91696405 2.0760078 1.2745391
-0.89449465 2.0232427 0.98208755
-0.87369043 1.9743398 0.72455466
-0.85345042 1.9267961 0.49156618
-0.83553255 1.8845851 0.27801949
-1.0432673 2.3798726 2.3955162
-0.96614611 2.2008264 1.8336779
-0.93196732 2.1209726 1.4469875
-0.90710288 2.0614712 1.1286099
-0.88149786 2.0014029 0.85028416
-0.85886329 1.9481859 0.60422808
-0.8412779 1.9074063 0.38297427
-0.82714808 1.8736174 0.17629308
0.00024920021 0.088621348 8.7339401
-0.52404296 1.282413 8.8071213
-0.68465447 1.6455925 8.5923843
-0.38050213 0.89718616 3.1626556
-0.57937515 1.3533548 3.5277531
-1.1896131 2.7632785 5.5806189
-1.1154644 2.5811534 4.2024207
-1.0739541 2.4780061 3.3100986
-0.15328446 0.49250096 8.7597885
-0.31566709 0.89453983 8.8043451
-0.32438868 0.77407718 3.2689323
-0.49995321 1.1779398 3.5340676
-0.64436948 1.5067236 3.4521756
-1.1646582 2.7118526 4.8977118
-1.1028804 2.5594146 3.7650924
-1.0530528 2.4379544 2.9572232
-1.0432644 2.3934741 2.6455796
-1.0211284 2.3393672 2.1405437
-0.94209492 2.1552413 1.6267495
-0.91681433 2.0954297 1.2838144
-0.89486557 2.043339 0.98957968
-0.87257105 1.9905583 0.72878474
-0.85264063 1.9432584 0.49436405
-0.83495647 1.9011689 0.27936071
-1.0438759 2.4040492 2.4154692
-0.96812844 2.2264264 1.8513367
-0.93315965 2.143976 1.4596534
-0.90715504 2.0812669 1.137002
-0.88205934 2.0217807 0.85685819
-0.85983825 1.9689896 0.60891736
-0.84056234 1.923945 0.3850463
-0.82660812 1.8902255 0.17689767
0.00055854471 0.08861994 8.7339401
-0.51956332 1.2842344 8.8071213
-0.67890608 1.6479723 8.5923843
-0.37794578 0.89988536 3.1674278
-0.57312268 1.3517714 3.5185483
-1.1921705 2.7960546 5.6376772
-1.1175199 2.6109018 4.2437506
-1.0867895 2.5318112 3.3753364
-0.15164831 0.49330932 8.76478
-0.31254262 0.89563632 8.8043451
-0.32168466 0.77520478 3.2689323
-0.49583837 1.1796778 3.5340676
-0.63910615 1.5089637 3.4521756
-1.1694751 2.7495015 4.9574347
-1.104584 2.588192 3.8010025
-1.0525365 2.4603169 2.9792743
-1.040557 2.410198 2.6595979
-1.0222239 2.3643539 2.1593745
-0.94287258 2.1777029 1.6404569
-0.91830134 2.1189399 1.2954084
-0.89510697 2.0634625 0.9970718
-0.87325948 2.0111928 0.73442489
-0.85368407 1.9642437 0.49809453
-0.83626127 1.9223381 0.28114903
-1.0443283 2.4282584 2.4354222
-0.97154248 2.2557788 1.8719389
-0.93420267 2.1670136 1.4723194
-0.9070797 2.101088 1.1453942
-0.88248914 2.0421865 0.86343223
-0.86067837 1.9898238 0.61360663
-0.84170824 1.9450465 0.38780904
-0.82596207 1.9068524 0.17750227
0.0008678828 0.088617451 8.7339401
-0.51507735 1.2860402 8.8071213
-0.67314947 1.6503321 8.5923843
-0.37480232 0.9011991 3.1674278
-0.56613219 1.3483596 3.5047405
-1.1963767 2.8332951 5.7035131
-1.1226757 2.6484685 4.2974792
-1.0904844 2.5650871 3.4137111
-0.14992543 0.49383563 8.76478
-0.30941436 0.89672184 8.8043451
-0.31897673 0.77632296 3.2689323
-0.49171749 1.1814014 3.5340676
-0.63383502 1.5111854 3.4521756
-1.1669565 2.7703915 4.9872961
-1.1072729 2.6197872 3.8409026
-1.0518767 2.4827056 3.0013251
-1.0377457 2.4269319 2.6736159
-1.0231571 2.3893764 2.1782053
-0.94350493 2.2001963 1.6541643
-0.91963542 2.1424859 1.3070024
-0.89521861 2.083612 1.0045639
-0.87381434 2.0318558 0.74006504
-0.85264909 1.9807476 0.5008924
-0.8354578 1.9389662 0.28249028
-1.0475504 2.4593704 2.4620261
-0.97317737 2.2814639 1.8895979
-0.93509597 2.1900842 1.4849851
-0.90866143 2.1251068 1.1558845
-0.88278711 2.0626194 0.87000626
-0.8613835 2.0106878 0.61829591
-0.84076607 1.9616275 0.38988104
-0.82521003 1.9234976 0.17810686
0.0011772097 0.088613883 8.7339401
-0.51029897 1.2871079 8.8021812
-0.66738462 1.6526718 8.5923843
-0.37165424 0.90250188 3.1674278
-0.55992246 1.3467194 3.4955354
-1.1994134 2.8683889 5.7649603
-1.1264932 2.6835079 4.3470745
-1.0889858 2.5866029 3.4367363
-0.14820071 0.49435598 8.76478
-0.30645382 0.89830106 8.8093157
-0.31626493 0.77743167 3.2689323
-0.48759064 1.1831106 3.5340676
-0.62855607 1.5133886 3.4521756
-1.1643066 2.7912977 5.017158
-1.1085912 2.6486533 3.8768129
-1.0589427 2.5238762 3.0454271
-1.0348302 2.4436755 2.6876342
-1.0224084 2.4108503 2.1938975
-0.94562596 2.2265687 1.6706131
-0.92081606 2.1660666 1.3185964
-0.89520061 2.1037879 1.0120561
-0.87235588 2.0481343 0.74429512
-0.8534357 2.0017867 0.50462288
-0.83650297 1.960192 0.2842786
-1.0433125 2.4733329 2.4720025
-0.97936326 2.3183579 1.9160864
-0.93583965 2.2131875 1.4976511
-0.90831673 2.1449831 1.1642767
-0.88479602 2.0874271 0.87822384
-0.8619532 2.0315802 0.62298518
-0.84165329 1.982784 0.39264378
-0.82435179 1.9401609 0.17871146
0.0014865228 0.088609226 8.7339401
-0.50580299 1.2888813 8.8021812
-0.66161168 1.6549914 8.5923843
-0.36850166 0.90379375 3.1674278
-0.55447453 1.346859 3.4909327
-1.2031355 2.9057505 5.8307962
-1.13116 2.7212043 4.4008026
-1.0910499 2.6170149 3.4712739
-0.14647417 0.49487028 8.76478
-0.30331632 0.89936531 8.8093157
-0.31354925 0.7785309 3.2689323
-0.48345786 1.1848054 3.5340676
-0.62244171 1.5135601 3.4476743
-1.1694889 2.8315029 5.0811467
-1.110875 2.6803436 3.9167132
-1.0631326 2.5588646 3.0821788
-1.0345685 2.4670057 2.7086616
-1.0230291 2.4359367 2.2127283
-0.94595313 2.2491279 1.6843203
-0.92184323 2.1896813 1.3301903
-0.89505243 2.1239882 1.0195483
-0.87265855 2.0688467 0.74993527
-0.85408568 2.0228553 0.50835335
-0.83547139 1.9768614 0.28561983
-1.0375509 2.4838505 2.4786537
-0.98374337 2.3515937 1.9396317
-0.9364332 2.2363219 1.510317
-0.9095993 2.1690676 1.174767
-0.88481462 2.1079195 0.88479787
-0.8623876 2.0525014 0.6276744
-0.84048402 1.9994055 0.39471582
-0.82532483 1.961446 0.17951758
0.0017958177 0.088603497 8.7339401
-0.50101978 1.2899147 8.7972422
-0.65583062 1.6572907 8.5923843
-0.36534458 0.90507454 3.1674278
-0.54903257 1.3469771 3.4863303
-1.2057029 2.9409573 5.8922439
-1.1355771 2.7589655 4.4545312
-1.0929149 2.6474719 3.5058112
-0.14474586 0.49537855 8.76478
-0.3003431 0.9009245 8.8142872
-0.31082976 0.77962065 3.2689323
-0.47931916 1.1864858 3.5340676
-0.6171546 1.5157236 3.4476743
-1.1674949 2.8548801 5.1152744
-1.1129509 2.7120819 3.9566133
-1.067091 2.5939124 3.1189303
-1.0437298 2.5134187 2.7542205
-1.0219926 2.4574625 2.2284205
-0.94774193 2.2755764 1.7007691
-0.92271668 2.2133298 1.3417844
-0.89477414 2.1442132 1.0270404
-0.87282717 2.0895858 0.75557542
-0.85459894 2.0439527 0.51208383
-0.8343336 1.9935473 0.28696108
-1.0331554 2.4978077 2.4886301
-0.98944998 2.388622 1.96612
-0.93687665 2.2594876 1.5229828
-0.91072458 2.193187 1.1852573
-0.88470095 2.1284373 0.89137191
-0.86268634 2.0734501 0.63236368
-0.8392089 2.0160427 0.39678788
-0.82423759 1.9781499 0.18012217
0.0021050905 0.088596694 8.7339401
-0.49651405 1.2916557 8.7972422
-0.65004158 1.65957 8.5923843
-0.36218303 0.90634435 3.1674278
-0.54359645 1.3470736 3.4817278
-1.2098404 2.980655 5.9624686
-1.1386822 2.7941844 4.5041265
-1.0945805 2.6779737 3.5403488
-0.14301579 0.49588078 8.76478
-0.29719645 0.90196735 8.8142872
-0.30810645 0.78070092 3.2689323
-0.47517464 1.1881517 3.5340676
-0.61185998 1.5178686 3.4476743
-1.1741598 2.9000344 5.1877952
-1.1148187 2.7438669 3.9965136
-1.0708175 2.6290188 3.1556821
-1.0457989 2.5434334 2.7822568
-1.0208181 2.4790108 2.2441127
-0.94935751 2.3020649 1.717218
-0.92512643 2.2411053 1.3556972
-0.89613557 2.168746 1.0364054
-0.87469506 2.1147842 0.76262552
-0.8549751 2.0650778 0.5158143
-0.83499599 2.0148499 0.2887494
-1.0272602 2.5083094 2.495281
-0.99337631 2.4219792 1.9896654
-0.93716961 2.2826834 1.5356488
-0.91169262 2.2173407 1.1957476
-0.88625199 2.1533465 0.89958948
-0.86284924 2.0944254 0.63705301
-0.83971477 2.0372732 0.39955059
-0.8249492 1.9994881 0.18092829
0.0024143383 0.088588804 8.7339401
-0.49172628 1.2926548 8.7923031
-0.64424467 1.6618289 8.5923843
-0.3590171 0.90760309 3.1674278
-0.5381664 1.3471485 3.4771254
-1.2128222 3.0181944 6.0283051
-1.1426079 2.8320677 4.5578547
-1.0972486 2.7114904 3.5787239
-0.14120583 0.49609903 8.7597885
-0.29421064 0.90350634 8.8192587
-0.30537945 0.7817716 3.2689323
-0.47102433 1.1898031 3.5340676
-0.60575122 1.5179733 3.4431732
-1.1795532 2.9428487 5.2560501
-1.1176023 2.7784934 4.0404038
-1.0743119 2.6641824 3.1924336
-1.0503602 2.5800991 2.8173025
-1.0195056 2.5005803 2.259805
-0.94921899 2.3247209 1.7309252
-0.92567736 2.2648234 1.3672911
-0.89558131 2.1890237 1.0438976
-0.87457949 2.1355815 0.76826566
-0.85335094 2.0816851 0.51861215
-0.83362919 2.0315738 0.29009062
-1.022707 2.5222604 2.5052576
-0.99708152 2.4553921 2.0132108
-0.93731195 2.3059084 1.5483147
-0.91079181 2.237324 1.2041397
-0.8858577 2.1739192 0.90616351
-0.86287618 2.1154273 0.64174229
-0.83821148 2.0539467 0.40162262
-0.82552183 2.0208554 0.18173441
0.0027187611 0.088536479 8.728941
-0.48666409 1.2929088 8.7824249
-0.6388045 1.6650184 8.5972795
-0.35584682 0.90885073 3.1674278
-0.53346068 1.3490189 3.4771254
-1.2173271 3.0602417 6.1029191
-1.1452394 2.867399 4.60745
-1.1008878 2.7480333 3.6209364
-0.13947327 0.49658892 8.7597885
-0.29105502 0.90452778 8.8192587
-0.30264869 0.7828328 3.2689323
-0.46686828 1.1914401 3.5340676
-0.60044885 1.5200784 3.4431732
-1.1837002 2.9833117 5.3200393
-1.1190431 2.8103731 4.0803041
-1.0763167 2.6962535 3.2255101
-1.049346 2.6035964 2.8383298
-1.018055 2.5221708 2.2754972
-0.95050079 2.35128 1.7473741
-0.92773551 2.2926791 1.3812039
-0.89663678 2.2136211 1.0532628
-0.87613183 2.1608493 0.77531582
-0.8534686 2.1028578 0.52234262
-0.83403015 2.0529263 0.29187894
-1.026414 2.5570006 2.535187
-0.99905783 2.4851098 2.0338128
-0.93730348 2.3291619 1.5609806
-0.91315538 2.2657466 1.2167281
-0.88709718 2.1988943 0.91438103
-0.86458677 2.1409614 0.64760381
-0.83845705 2.0752261 0.40438533
-0.82595521 2.0422506 0.18254055
0.0030327404 0.08856979 8.7339401
-0.48187706 1.2938715 8.7774858
-0.63298857 1.667238 8.5972795
-0.35267216 0.91008735 3.1674278
-0.52803665 1.3490535 3.4725227
-1.2127789 3.0800717 6.1336427
-1.1486722 2.9053996 4.6611786
-1.1042851 2.7846346 3.6631491
-0.137739 0.49707276 8.7597885
-0.28773496 0.90503007 8.8142872
-0.29991424 0.78388453 3.2689323
-0.46270654 1.1930624 3.5340676
-0.59434658 1.5201375 3.4386718
-1.1875788 3.0238383 5.3840284
-1.11917 2.8394926 4.1162143
-1.0793564 2.7315238 3.2622619
-1.0495018 2.6304297 2.8628614
-1.0164658 2.5437815 2.2911897
-0.95316219 2.3817585 1.7665644
-0.92961037 2.3205764 1.3951167
-0.89753133 2.2382519 1.062628
-0.87573135 2.1817017 0.78095597
-0.85344881 2.1240568 0.52607316
-0.83429217 2.0743062 0.29366726
-1.028512 2.5883269 2.5617909
-1.0008388 2.5148709 2.054415
-0.93873924 2.3564479 1.5761796
-0.9136498 2.2899976 1.2272184
-0.88817298 2.2239044 0.9225986
-0.86432534 2.1620197 0.65229309
-0.84040332 2.10113 0.40783876
-0.82624918 2.0636735 0.18334667
0.0033469864 0.088601999 8.7389402
-0.4768208 1.2940872 8.7676067
-0.62716496 1.6694374 8.5972795
-0.34949321 0.91131288 3.1674278
-0.52261883 1.3490667 3.4679203
-1.208977 3.1021388 6.1687555
-1.1508284 2.9408379 4.7107739
-1.1062688 2.8183086 3.701524
-0.13600305 0.49755049 8.7597885
-0.28457406 0.90602893 8.8142872
-0.29717618 0.78492665 3.2689323
-0.45853913 1.1946703 3.5340676
-0.58903664 1.522203 3.4386718
-1.190244 3.0619977 5.4437513
-1.1202019 2.871454 4.1561146
-1.0809282 2.7636907 3.2953384
-1.0481731 2.6539791 2.883889
-1.0161697 2.5690308 2.3100204
-0.95408225 2.408396 1.7830131
-0.93130171 2.3485146 1.4090296
-0.89826465 2.2629154 1.0719931
-0.87696737 2.2070353 0.78800613
-0.85510671 2.1498451 0.53073621
-0.83441496 2.0957129 0.29545557
-1.029037 2.6162241 2.5850697
-1.0009426 2.5409138 2.0720737
-0.93841457 2.3797619 1.5888456
-0.91398603 2.3142793 1.2377086
-0.88908494 2.2489486 0.93081611
-0.86571586 2.1876216 0.65815473
-0.84035575 2.122468 0.41060147
-0.82456285 2.0804784 0.18395126
0.0036614949 0.088633098 8.7439404
-0.47203481 1.2950137 8.7626677
-0.62168831 1.6725709 8.6021748
-0.34631002 0.91252726 3.1674278
-0.51720732 1.3490585 3.4633176
-1.2033119 3.1197474 6.1950898
-1.1537671 2.9789507 4.764502
-1.1091917 2.8550179 3.7437367
-0.13419124 0.49774334 8.7547979
-0.28140968 0.90701675 8.8142872
-0.29443443 0.78595918 3.2689323
-0.45436618 1.1962637 3.5340676
-0.58294123 1.5222168 3.4341707
-1.1935934 3.1026459 5.5077405
-1.1199392 2.9006462 4.1920247
-1.0835121 2.7990625 3.3320899
-1.0492895 2.6841938 2.9119253
-1.0157096 2.5943093 2.328851
-0.95788074 2.4428549 1.8049449
-0.93280905 2.3764925 1.4229424
-0.89883673 2.2876115 1.0813583
-0.87803692 2.232404 0.79505628
-0.85479528 2.1710999 0.53446668
-0.83439833 2.1171451 0.29724389
-1.0307343 2.6476357 2.6116736
-1.0008765 2.5669875 2.0897326
-0.93793851 2.4031019 1.6015114
-0.91416371 2.3385909 1.2481989
-0.88983279 2.2740257 0.93903369
-0.86516529 2.2087333 0.66284394
-0.84197628 2.1484416 0.41405487
-0.82459366 2.1019473 0.18475738
0.0039708596 0.088619769 8.7439404
-0.46724817 1.2959224 8.7577286
-0.61584616 1.6747309 8.6021748
-0.34312257 0.91373056 3.1674278
-0.5124951 1.3508556 3.4633176
-1.1847287 3.1037908 6.1555882
-1.1544394 3.0118639 4.8099647
-1.1130217 2.8947732 3.7897868
-0.13245298 0.4982087 8.7547979
-0.2780863 0.90748376 8.8093157
-0.29168913 0.78698218 3.2689323
-0.45018768 1.1978424 3.5340676
-0.57762414 1.5242423 3.4341707
-1.1948177 3.1384799 5.5631976
-1.1237879 2.9411306 4.2438951
-1.0858622 2.8344862 3.3688416
-1.051494 2.7177744 2.9434662
-1.0150853 2.6196151 2.3476818
-0.95993721 2.4734709 1.8241352
-0.9341324 2.4045091 1.4368552
-0.90092736 2.3166592 1.0925965
-0.87894005 2.2578068 0.80210644
-0.85612947 2.1969554 0.53912979
-0.83605194 2.1432421 0.29947928
-1.0322247 2.6790905 2.6382775
-1.0020957 2.5968626 2.1103349
-0.93731076 2.4264677 1.6141773
-0.9141826 2.3629315 1.258689
-0.89041632 2.2991357 0.94725126
-0.86623484 2.2344 0.66870558
-0.84163487 2.1698353 0.41681761
-0.82448459 2.1234417 0.1855635
0.004280176 0.088605374 8.7439404
-0.46272171 1.2975456 8.7577286
-0.60999656 1.6768703 8.6021748
-0.33993098 0.91492271 3.1674278
-0.50709015 1.3508073 3.4587152
-1.173041 3.1056666 6.1511989
-1.1558939 3.0474494 4.85956
-1.1154478 2.9315939 3.8319993
-0.13071309 0.49866802 8.7547979
-0.27491689 0.90844887 8.8093157
-0.28894028 0.78799558 3.2689323
-0.44660488 1.2010239 3.5387604
-0.57230002 1.5262493 3.4341707
-1.1976447 3.1792407 5.6271863
-1.1294987 2.9873137 4.3037457
-1.0879779 2.8699598 3.4055934
-1.0547521 2.7547331 2.9785113
-1.0142967 2.6449482 2.3665125
-0.96329075 2.5080342 1.8460668
-0.93368179 2.4284289 1.4484491
-0.9011609 2.3414228 1.1019617
-0.87967634 2.2832427 0.8091566
-0.85729343 2.2228463 0.5437929
-0.83573997 2.1647308 0.30126759
-1.0321777 2.707099 2.661556
-1.0016766 2.6230011 2.1279938
-0.93807048 2.4538846 1.6293764
-0.91566545 2.3915391 1.2712774
-0.89083517 2.3242767 0.95546871
-0.86539435 2.2555623 0.67339486
-0.84292889 2.1958756 0.42027098
-0.82423544 2.1449606 0.18636963
0.0045894412 0.088589892 8.7439404
-0.45793137 1.2984201 8.7527885
-0.60379487 1.6780313 8.5972795
-0.33622053 0.91470253 3.1626556
-0.50169182 1.3507376 3.4541125
-1.159678 3.1030118 6.138032
-1.1561251 3.080446 4.9050221
-1.1187595 2.9714663 3.8780491
-0.12904291 0.49940091 8.7597885
-0.27174416 0.90940303 8.8093157
-0.28618789 0.78899932 3.2689323
-0.44300544 1.2041954 3.5434532
-0.56696892 1.5282377 3.4341707
-1.1992909 3.2176151 5.6869097
-1.1338446 3.0307493 4.3596058
-1.0910496 2.9086564 3.4460201
-1.0577649 2.7917476 3.013557
-1.0147243 2.6739464 2.3884819
-0.96344346 2.5348334 1.8625156
-0.93622583 2.4606552 1.4646807
-0.90288252 2.3705482 1.1131999
-0.8802458 2.3087113 0.81620675
-0.85653532 2.2441828 0.54752338
-0.83706528 2.1908948 0.30350298
-1.0332655 2.7386329 2.6881599
-1.0025157 2.6529491 2.148596
-0.93865019 2.4813359 1.6445755
-0.9169597 2.4201858 1.2838658
-0.89108944 2.3494487 0.96368629
-0.86614197 2.2812898 0.67925638
-0.84229279 2.2173219 0.42303368
-0.82384598 2.1665037 0.18717575
0.0048986482 0.088573329 8.7439404
-0.45314062 1.2992769 8.7478504
-0.59793377 1.6801287 8.5972795
-0.33302557 0.91587055 3.1626556
-0.49697384 1.3524806 3.4541125
-1.1455173 3.0980556 6.1204758
-1.1580988 3.1187575 4.9587507
-1.1206875 3.008393 3.9202616
-0.12729889 0.49984831 8.7597885
-0.26871833 0.91085744 8.8142872
-0.28343204 0.78999352 3.2689323
-0.4382093 1.2041126 3.5387604
-0.56088102 1.5281638 3.4296696
-1.2006837 3.2560399 5.7466331
-1.1379011 3.0742519 4.4154663
-1.0938642 2.9474089 3.4864466
-1.0617836 2.8321552 3.0521069
-1.0149617 2.7029793 2.4104509
-0.96489251 2.5655775 1.8817059
-0.93699545 2.4887829 1.4785935
-0.90277672 2.3953755 1.122565
-0.88064802 2.3342113 0.82325697
-0.85737425 2.2701364 0.55218649
-0.83645695 2.212436 0.3052913
-1.0341457 2.7702069 2.7147641
-1.0031579 2.6829348 2.169198
-0.94056052 2.5128582 1.6623077
-0.91806483 2.4488702 1.2964541
-0.89117849 2.37465 0.9719038
-0.86672038 2.3070502 0.68511802
-0.84325957 2.2434258 0.42648712
-0.82507551 2.1927454 0.18818341
0.0052017928 0.088512473 8.7389402
-0.44834945 1.3001162 8.7429113
-0.59206539 1.6822057 8.5972795
-0.32982656 0.91702747 3.1626556
-0.49158257 1.352371 3.4495103
-1.1355188 3.1042848 6.1248646
-1.1569083 3.1491957 5.0000801
-1.1223711 3.0453694 3.9624743
-0.12555332 0.50028962 8.7597885
-0.2655372 0.91178995 8.8142872
-0.28067273 0.79097807 3.2689323
-0.43867764 1.2186249 3.5763025
-0.5555433 1.5301124 3.4296696
-1.2027162 3.296963 5.8106217
-1.1416672 3.1178186 4.4713264
-1.0964217 2.9862165 3.5268738
-1.065533 2.8726246 3.0906572
-1.0150087 2.7320466 2.4324203
-0.96322221 2.5885248 1.8954132
-0.93757993 2.5169451 1.4925063
-0.90412825 2.4245746 1.1338032
-0.8808828 2.3597417 0.83030707
-0.85632282 2.2915211 0.55591697
-0.83745325 2.2386639 0.30752671
-1.0361115 2.8053229 2.7446935
-1.0036029 2.7129567 2.1898003
-0.94226211 2.5444238 1.68004
-0.92055899 2.4818463 1.3111404
-0.89110255 2.3998809 0.98012137
-0.86712945 2.3328419 0.69097954
-0.84405404 2.2695627 0.42994049
-0.82613182 2.2190223 0.18919106
0.0055107269 0.088493772 8.7389402
-0.44355792 1.3009378 8.7379713
-0.58652431 1.6852238 8.6021748
-0.3266235 0.91817313 3.1626556
-0.48685893 1.3540787 3.4495103
-1.124676 3.1082296 6.1248646
-1.1632079 3.2008219 5.0744734
-1.1238101 3.0823936 4.0046868
-0.12380621 0.50072485 8.7597885
-0.26235282 0.91271126 8.8142872
-0.27790999 0.79195297 3.2689323
-0.43152824 1.21202 3.5528388
-0.55019885 1.5320423 3.4296696
-1.1991667 3.3232203 5.8490152
-1.1420648 3.1529498 4.5152168
-1.098721 3.0250771 3.5673006
-1.0690128 2.9131544 3.1292071
-1.0162078 2.7647998 2.4575279
-0.96718144 2.6271873 1.9200864
-0.9379791 2.5451419 1.5064191
-0.90368229 2.4494631 1.1431684
-0.88094991 2.3853023 0.83735728
-0.85683584 2.3175335 0.56058007
-0.83827639 2.2649252 0.30976209
-1.0365633 2.8369787 2.7712977
-1.0038502 2.7430143 2.2104025
-0.94523764 2.5800791 1.7003053
-0.92127073 2.5106091 1.3237287
-0.89248937 2.4295723 0.98998243
-0.86736894 2.3586645 0.69684118
-0.8429665 2.2910855 0.43270323
-0.82701457 2.2453327 0.19019872
0.005819594 0.088473998 8.7389402
-0.43876615 1.3017418 8.7330322
-0.58063817 1.6872609 8.6021748
-0.32391161 0.92071593 3.1674278
-0.48212931 1.3557699 3.4495103
-1.1138194 3.1121366 6.1248646
-1.1653533 3.2419367 5.1323342
-1.1250041 3.1194649 4.0468998
-0.12205761 0.50115395 8.7597885
-0.25916529 0.91362149 8.8142872
-0.27514386 0.79291821 3.2689323
-0.42786774 1.2151465 3.5575314
-0.54484767 1.5339534 3.4296696
-1.2121035 3.3961623 5.968461
-1.1422307 3.1881208 4.5591068
-1.1007625 3.0639896 3.6077271
-1.073439 2.9570949 3.1712615
-1.0158604 2.7939367 2.479497
-0.9780364 2.6855533 1.9584669
-0.93819278 2.5733719 1.520332
-0.90466279 2.4787321 1.1544065
-0.88249552 2.4153972 0.84581745
-0.85886496 2.3481905 0.56617582
-0.83892643 2.2912195 0.3119975
-1.0368066 2.8686717 2.7979016
-1.0038999 2.7731059 2.2310045
-0.94650674 2.6117332 1.7180376
-0.92334127 2.543673 1.3384151
-0.89206696 2.454864 0.9982
-0.8674385 2.3845167 0.70270276
-0.84343249 2.317281 0.43615663
-0.82772362 2.2716763 0.19120637
0.0061283903 0.088453144 8.7389402
-0.43397415 1.3025283 8.7280931
-0.574745 1.6892774 8.6021748
-0.32069573 0.92184103 3.1674278
-0.47674587 1.3556014 3.4449077
-1.1029491 3.1160057 6.1248646
-1.1747665 3.304317 5.2232594
-1.1259528 3.1565812 4.0891118
-0.12030751 0.50157696 8.7597885
-0.25597456 0.91452056 8.8142872
-0.27237439 0.79387385 3.2689323
-1.0872847 3.1234789 9.048068
-0.54021114 1.5379 3.4341707
-1.2176014 3.4495595 6.0537796
-1.1411586 3.2204909 4.5990076
-1.1025456 3.1029532 3.6481543
-1.0763663 2.997745 3.2098114
-1.0166392 2.826767 2.5046046
-0.98282707 2.7282906 1.9858816
-0.93972331 2.6058009 1.5365635
-0.90702415 2.5123985 1.1675179
-0.88384157 2.4455318 0.85427767
-0.8590191 2.3742702 0.57083887
-0.83940303 2.3175457 0.31423289
-1.0355843 2.8968844 2.8211801
-1.0037516 2.8032315 2.2516067
-0.94756627 2.6434271 1.73577
-0.92519206 2.5767813 1.3531015
-0.89307594 2.4846258 1.0080611
-0.86733806 2.4103978 0.70856434
-0.84372586 2.3435075 0.43961003
-0.82825857 2.2980514 0.19221403
0.0064371121 0.088431217 8.7389402
-0.42918202 1.303297 8.7231531
-0.56884485 1.6912733 8.6021748
-0.31747594 0.92295486 3.1674278
-0.47201103 1.3572574 3.4449077
-1.0912743 3.1175756 6.1204758
-1.180025 3.3561831 5.2976527
-1.1266562 3.1937418 4.1313243
-0.11855594 0.50199383 8.7597885
-0.25278074 0.91540855 8.8142872
-0.26960158 0.79481977 3.2689323
-1.0741287 3.1207278 9.0292969
-0.53483957 1.5397763 3.4341707
-1.222741 3.503036 6.1390986
-1.1378814 3.2472045 4.6309276
-1.0995744 3.1291718 3.6738801
-1.0802163 3.0418122 3.2518663
-1.0172009 2.8596363 2.5297122
-0.99434793 2.7907884 2.0270035
-0.94103885 2.6382718 1.5527952
-0.90760225 2.5417447 1.178756
-0.88498795 2.4757049 0.86273783
-0.85900158 2.4003797 0.57550198
-0.83970582 2.3439023 0.31646827
-1.0453782 2.9568059 2.874388
-1.0034051 2.833389 2.2722087
-0.9498564 2.6792228 1.7560353
-0.92682284 2.6099331 1.3677878
-0.89388782 2.5144243 1.0179222
-0.86869711 2.4408863 0.71559823
-0.84384614 2.3697639 0.44306341
-0.8286196 2.3244579 0.19322167
0.0067457561 0.088408209 8.7389402
-0.42463005 1.3047872 8.7231531
-0.56293774 1.6932486 8.6021748
-0.31425229 0.92405736 3.1674278
-0.46727046 1.3588967 3.4449077
-1.0803853 3.121366 6.1204758
-1.1867834 3.4134414 5.3803115
-1.1281692 3.2339721 4.1773744
-0.11686739 0.50268608 8.76478
-0.24958384 0.91628534 8.8142872
-0.2668255 0.79575598 3.2689323
-1.0637847 3.126092 9.0339899
-0.5294615 1.5416337 3.4341707
-1.2283728 3.5590551 6.2286835
-1.1462693 3.3081007 4.7107282
-1.1064477 3.1842289 3.7326827
-1.0814081 3.0792122 3.2869115
-1.0188371 2.8962157 2.5579584
-0.99293774 2.8179049 2.0434523
-0.94066548 2.6666057 1.566708
-0.90953016 2.5754969 1.1918672
-0.88593417 2.5059154 0.87119806
-0.86045104 2.4311481 0.58109772
-0.83983487 2.3702896 0.31870368
-1.0498374 3.0027318 2.914294
-1.0028603 2.8635786 2.2928109
-0.95190805 2.7150664 1.7763008
-0.92823333 2.6431274 1.3824742
-0.89450264 2.5442586 1.0277832
-0.86985379 2.4714134 0.72263211
-0.8454383 2.4007206 0.44720748
-0.82880622 2.3508949 0.19422933
0.0070612263 0.088427208 8.7439404
-0.41983524 1.3055217 8.718214
-0.55734146 1.6961708 8.60707
-0.31102484 0.92514873 3.1674278
-0.46189556 1.3586698 3.4403052
-1.0687077 3.1228523 6.1160865
-1.190412 3.4628036 5.4505715
-1.1304601 3.2772813 4.227262
-0.11511198 0.50309092 8.76478
-0.24638389 0.91715097 8.8142872
-0.26404616 0.79668254 3.2689323
-1.0528661 3.1297863 9.0339899
-0.52337724 1.5414113 3.4296696
-1.2327858 3.6126871 6.314002
-1.1454569 3.3434384 4.7546182
-1.1008334 3.204103 3.7510586
-1.0835217 3.1200266 3.3254619
-1.0202302 2.9328406 2.5862045
-0.99272615 2.8489943 2.0626426
-0.94156462 2.6991515 1.5829396
-0.91123337 2.609293 1.2049785
-0.88826346 2.5406909 0.88106829
-0.86007333 2.457319 0.58576083
-0.83978969 2.3967056 0.32093906
-1.0539882 3.0487244 2.9542
-1.0034393 2.8976176 2.3163562
-0.95513278 2.7550297 1.7990994
-0.92942321 2.6763632 1.3971606
-0.89647043 2.5785878 1.0392877
-0.87080789 2.5019779 0.72966611
-0.84682459 2.4317169 0.45135161
-0.8288182 2.3773608 0.19523698
0.0073698512 0.088402018 8.7439404
-0.41527557 1.3069793 8.718214
-0.55141735 1.6981059 8.60707
-0.30779356 0.92622876 3.1674278
-0.45715013 1.3602738 3.4403052
-1.0562656 3.1220262 6.1073084
-1.1900885 3.5015745 5.5043001
-1.1324623 3.3206453 4.2771497
-0.11341764 0.50377154 8.7697725
-0.24331681 0.91852081 8.8192587
-0.26126364 0.79759943 3.2689323
-1.0419347 3.1334422 9.0339899
-0.51799351 1.5432287 3.4296696
-1.2385064 3.671335 6.4078522
-1.1550441 3.4102051 4.8423986
-1.1125383 3.275337 3.8282371
-1.080731 3.1474001 3.3499935
-1.0226456 2.973191 2.6175892
-0.99230957 2.8801157 2.0818329
-0.94080341 2.7275479 1.5968524
-0.91271174 2.6431322 1.2180897
-0.88879323 2.5709789 0.88952851
-0.86112988 2.4881589 0.59135652
-0.83957034 2.4231501 0.32317448
-1.0578309 3.0947826 2.9941063
-1.0024836 2.9278712 2.3369584
-0.95809007 2.795048 1.821898
-0.92744452 2.7010536 1.4076508
-0.89820933 2.6129611 1.0507922
-0.87155908 2.5325789 0.7367
-0.84800458 2.4627516 0.45549569
-0.82865548 2.4038553 0.19624464
0.0076783872 0.088375755 8.7439404
-0.41071084 1.3084209 8.718214
-0.54548645 1.7000204 8.60707
-0.30455855 0.92729753 3.1674278
-0.4523991 1.3618613 3.4403052
-1.0446017 3.1234231 6.1029191
-1.1904048 3.5430524 5.562161
-1.1351993 3.3671005 4.3308749
-0.11165846 0.50416434 8.7697725
-0.24010909 0.91936457 8.8192587
-0.2584779 0.7985065 3.2689323
-1.0309906 3.1370602 9.0339899
-0.51191807 1.5429612 3.4251683
-1.2446573 3.7325406 6.505969
-1.1603523 3.4656489 4.9142194
-1.1183637 3.330622 3.8870397
-1.0915183 3.2153163 3.4165797
-1.0260448 3.0172784 2.652112
-0.99303573 2.9152269 2.1037648
-0.94128513 2.760164 1.6130838
-0.91546249 2.6814001 1.2330739
-0.89067382 2.6058404 0.89939874
-0.86198145 2.5190358 0.59695226
-0.83917654 2.4496222 0.32540986
-1.0613647 3.1409035 3.0340123
-1.0026246 2.9619818 2.3605034
-0.96077937 2.83512 1.8446966
-0.92676365 2.7300608 1.4202391
-0.89971912 2.6473777 1.0622969
-0.87210697 2.5632153 0.74373388
-0.84897798 2.493824 0.45963976
-0.82831776 2.4303772 0.19725229
0.0079794703 0.088305406 8.7389402
-0.40591115 1.3091042 8.713275
-0.53954893 1.7019142 8.60707
-0.30131981 0.92835498 3.1674278
-0.44764253 1.3634322 3.4403052
-1.0329409 3.1247764 6.0985303
-1.1868984 3.5738924 5.6034908
-1.1366122 3.4105732 4.3807626
-0.10989792 0.50455105 8.7697725
-0.23689845 0.92019713 8.8192587
-0.255689 0.79940391 3.2689323
-1.0205671 3.1422815 9.038682
-0.50652903 1.5447388 3.4251683
-1.2512122 3.7963104 6.6083512
-1.1662341 3.5240314 4.9900298
-1.1227487 3.3827693 3.942167
-1.0961716 3.2664406 3.4656434
-1.0279083 3.0577362 2.6834967
-0.9961977 2.9583035 2.1311793
-0.94155055 2.7928169 1.6293155
-0.91795713 2.7197194 1.2480582
-0.89232165 2.6407459 0.90926892
-0.86105382 2.5452955 0.60161537
-0.84020543 2.4808373 0.32809234
-1.0634061 3.1835449 3.0705926
-1.0025398 2.9961283 2.3840487
-0.96320045 2.8752446 1.8674953
-0.92444754 2.7547929 1.4307294
-0.90099949 2.6818366 1.0738014
-0.87400115 2.5984929 0.75194007
-0.85132432 2.5296259 0.4644745
-0.82940006 2.4616609 0.19846149
0.0082876645 0.088277012 8.7389402
-0.40133905 1.3105131 8.713275
-0.53360492 1.7037872 8.60707
-0.29853299 0.93082255 3.1721995
-0.44288054 1.3649864 3.4403052
-1.0212835 3.1260867 6.0941415
-1.1937213 3.6368351 5.6944151
-1.1387379 3.4571409 4.4344873
-0.10813604 0.50493157 8.7697725
-0.23368493 0.92101842 8.8192587
-0.25289699 0.8002916 3.2689323
-1.0095922 3.1458249 9.038682
-0.5011338 1.5464973 3.4251683
-1.2565292 3.8576908 6.7064681
-1.1698488 3.5767684 5.0578599
-1.1215 3.4188807 3.9789188
-1.0993586 3.3142509 3.5112026
-1.0307291 3.1019368 2.7180197
-0.9990707 3.0014369 2.1585939
-0.94159937 2.8255048 1.6455472
-0.92019516 2.7580881 1.2630424
-0.89373648 2.6756942 0.91913921
-0.86151099 2.5762377 0.60721111
-0.84102648 2.512089 0.33077481
-1.0663332 3.2297843 3.1104987
-1.0022284 3.0303104 2.407594
-0.96535301 2.9154201 1.8902937
-0.92625642 2.792465 1.4475138
-0.90353829 2.7208178 1.0869495
-0.87412614 2.6292024 0.75897402
-0.85343093 2.5654745 0.46930927
-0.8286953 2.4882407 0.19946913
0.0085880999 0.088204592 8.7339401
-0.39653742 1.3111625 8.7083368
-0.52765429 1.7056395 8.60707
-0.29528198 0.93185896 3.1721995
-0.43811315 1.3665241 3.4403052
-1.0096294 3.1273532 6.0897522
-1.2027236 3.7078984 5.797739
-1.1385682 3.497669 4.4805374
-0.10637284 0.50530595 8.7697725
-0.23046856 0.92182857 8.8192587
-0.25010192 0.80116946 3.2689323
-0.99912655 3.1509748 9.043375
-0.49573252 1.5482373 3.4251683
-1.2670254 3.9365318 6.834446
-1.1749628 3.6353078 5.1336708
-1.1189673 3.4517996 4.0119953
-1.1022247 3.3621228 3.5567617
-1.0344681 3.1498919 2.755681
-1.0016546 3.0446262 2.1860087
-0.94004554 2.8540192 1.6594599
-0.92072475 2.7921026 1.2761538
-0.8949182 2.7106845 0.92900944
-0.86176252 2.6072137 0.6128068
-0.84163958 2.5433764 0.33345729
-1.0689502 3.276082 3.1504045
-1.0016906 3.0645263 2.4311395
-0.96589607 2.9515483 1.9105593
-0.92781353 2.8301828 1.4642982
-0.90434307 2.7553616 1.098454
-0.87556452 2.6645617 0.7671802
-0.85375071 2.5966637 0.47345334
-0.82937706 2.5195911 0.20067832
0.0088959383 0.088174075 8.7339401
-0.39173606 1.311794 8.7033968
-0.52199465 1.7084446 8.6119652
-0.29202741 0.93288404 3.1721995
-0.43334043 1.368045 3.4403052
-0.99870682 3.1308584 6.0897522
-1.2069499 3.7656696 5.8803983
-1.1440177 3.5565453 4.5496125
-0.10460834 0.50567418 8.7697725
-0.22724935 0.92262739 8.8192587
-0.24730381 0.8020376 3.2689323
-0.98812157 3.1544433 9.043375
-0.49032512 1.5499582 3.4251683
-1.2524863 3.9384453 6.8301802
-1.1787653 3.6910548 5.2054911
