# .PCD v0.7 - Point Cloud Data file format
VERSION 0.7
FIELDS x y z
SIZE 4 4 4
TYPE F F F
COUNT 1 1 1
WIDTH 1497
HEIGHT 1
VIEWPOINT 0 0 0 1 0 0 0
POINTS 1497
DATA ascii
-0.29193893 1.3248197 8.6243687
-0.39614514 1.7450656 8.6266508
-0.2229204 0.95176631 3.1721995
-0.35592681 1.4968455 3.6842389
-0.75108284 3.1303842 5.9668579
-0.78133929 3.2366776 4.9628835
-0.80795985 3.3317425 4.1812119
-0.067292742 0.51197755 8.7697725
-0.15924475 0.93784434 8.8292027
-0.18818092 0.8192209 3.2737718
-0.7568047 3.2284207 9.0715313
-0.37297893 1.5711159 3.4026623
-0.76670182 3.2078853 5.4650812
-0.78701121 3.2752542 4.5351672
-0.81746632 3.3890545 3.8576384
-0.83764684 3.422919 3.5427437
-0.87413108 3.5639772 3.0412805
-1.0396049 4.2291522 2.9399118
-0.99257487 4.031785 2.2600291
-0.95571715 3.8762679 1.7013322
-0.91545963 3.7074478 1.2124259
-0.88207406 3.5669105 0.78907198
-0.8451587 3.4125507 0.40856656
-0.84005159 3.4536476 3.2468441
-1.0136864 4.151845 2.5970509
-0.98195082 4.0127702 1.9972036
-0.93644398 3.8210537 1.4583826
-0.89680529 3.6538236 0.9981268
-0.85991824 3.5009153 0.59501302
-0.82815498 3.3665574 0.23352787
0.01563435 0.087231718 8.7339401
-0.28731266 1.3258307 8.6243687
-0.39005134 1.7464378 8.6266508
-0.21959676 0.95253867 3.1721995
-0.35069969 1.4980788 3.6842389
-0.73960066 3.130656 5.9624686
-0.76938564 3.2366474 4.9587507
-0.79483616 3.3283076 4.1735373
-0.065505199 0.5122093 8.7697725
-0.1559701 0.93839443 8.8292027
-0.18532015 0.8198728 3.2737718
-0.74553084 3.2310429 9.0715313
-0.36749244 1.5724082 3.4026623
-0.75490218 3.2080033 5.4608154
-0.77487993 3.2750492 4.531177
-0.80406451 3.3852904 3.8502879
-0.82485795 3.4223552 3.5392389
-0.85711557 3.5480895 3.0255885
-1.0445149 4.3140354 2.9947412
-0.99624139 4.1084108 2.2994487
-0.95530903 3.9336402 1.7238085
-0.91725057 3.7712159 1.2307564
-0.88356876 3.6272399 0.80026346
-0.84504443 3.4638608 0.41303736
-0.8271212 3.4529278 3.2435184
-0.90744072 3.7795627 2.9138179
-1.0163202 4.2266111 2.6401148
-0.98495126 4.0867686 2.0307724
-0.93750393 3.8839736 1.4797481
-0.89660883 3.7089019 1.0110222
-0.86050129 3.5568407 0.60261053
-0.82933939 3.4228377 0.2357447
0.015938751 0.087176614 8.7339401
-0.28252122 1.3260655 8.6194296
-0.38395274 1.7477887 8.6266508
-0.21627045 0.9532994 3.1721995
-0.34590679 1.5011977 3.6888416
-0.72812569 3.1308858 5.9580798
-0.75744176 3.2365735 4.9546175
-0.78247982 3.3279414 4.1696997
-0.063716859 0.51243484 8.7697725
-0.15277849 0.93945944 8.8341742
-0.18245712 0.82051468 3.2737718
-0.7342478 3.2336254 9.0715313
-0.36200148 1.5736815 3.4026623
-0.74311113 3.2080779 5.4565492
-0.76275969 3.2747993 4.5271869
-0.79069912 3.3814745 3.8429377
-0.81208324 3.4217436 3.5357344
-0.8429237 3.5434864 3.0193114
-1.0478749 4.3949361 3.046829
-1.0004137 4.1894193 2.341187
-0.95774668 4.0045824 1.751904
-0.91748989 3.8303759 1.2476767
-0.88579875 3.6923995 0.81238753
-0.84690899 3.5248957 0.41840231
-0.81506318 3.4557939 3.2435184
-0.8830837 3.7355042 2.8785
-1.017451 4.2972507 2.6806457
-0.98535097 4.1520042 2.0601451
-0.9403199 3.9561355 1.5044008
-0.89828992 3.7734792 1.0262624
-0.86070436 3.6128128 0.61020797
-0.83014089 3.4791663 0.23796155
0.016231583 0.087078325 8.728941
-0.27789065 1.3270437 8.6194296
-0.37784946 1.7491183 8.6266508
-0.21294148 0.95404851 3.1721995
-0.34066454 1.502396 3.6888416
-0.71665817 3.1310737 5.9536905
-0.74613947 3.2391977 4.9546175
-0.7701357 3.3275297 4.1658621
-0.06192774 0.51265413 8.7697725
-0.14949824 0.93998706 8.8341742
-0.17959189 0.82114661 3.2737718
-0.72295588 3.2361686 9.0715313
-0.35650611 1.5749354 3.4026623
-0.73132867 3.2081096 5.4522834
-0.75065058 3.2745047 4.5231967
-0.77737015 3.3776062 3.8355873
-0.80013418 3.4245574 3.5357344
-0.82877463 3.5388277 3.0130348
-1.0535494 4.4881248 3.1071413
-1.0030184 4.2661934 2.3806067
-0.94801247 4.0259514 1.7593961
-0.9195295 3.898921 1.2674173
-0.88758451 3.7576184 0.82451159
-0.84721088 3.5811386 0.42332017
-0.80299532 3.4586182 3.2435184
-0.86820668 3.7306902 2.8726134
-1.0190793 4.3721461 2.7237098
-0.98737204 4.2261305 2.093714
-0.93941551 4.0145693 1.524123
-0.89398533 3.8144512 1.035641
-0.86278856 3.6784711 0.61918682
-0.83055902 3.5355418 0.24017838
0.016535444 0.087021142 8.728941
-0.27310035 1.3272444 8.6144905
-0.37174162 1.7504265 8.6266508
-0.20960994 0.954786 3.1721995
-0.33584327 1.5054828 3.6934438
-0.70519817 3.1312199 5.9493017
-0.73420602 3.2390382 4.9504848
-0.75780398 3.3270726 4.1620245
-0.060137868 0.51286715 8.7697725
-0.14621617 0.94050318 8.8341742
-0.17672445 0.82176852 3.2737718
-0.7120254 3.2403581 9.0762243
-0.35053334 1.5740453 3.3981609
-0.7195552 3.2080982 5.4480176
-0.73855293 3.2741656 4.519207
-0.7648266 3.3769929 3.8319125
-0.78737611 3.4238539 3.5322297
-0.81554246 3.5379062 3.0098963
-1.053879 4.5610347 3.1537461
-1.0050993 4.3430367 2.4200263
-0.95698303 4.128592 1.8006029
-0.91350782 3.9348166 1.2772875
-0.88892549 3.8228936 0.83663565
-0.8482601 3.6422765 0.42868513
-0.79008597 3.4577603 3.2401931
-0.85337412 3.7258184 2.8667274
-1.0163417 4.4302988 2.7566411
-0.98176789 4.2693596 2.1125965
-0.94129401 4.0868492 1.5487754
-0.90033144 3.9028008 1.0567427
-0.85662687 3.7104113 0.62333095
-0.83059359 3.5919621 0.24239522
0.016839106 0.086962886 8.728941
-0.26846573 1.3281896 8.6144905
-0.36562923 1.7517135 8.6266508
-0.20627584 0.95551181 3.1721995
-0.33058611 1.5066459 3.6934438
-0.69374597 3.1313243 5.9449124
-0.72228277 3.2388346 4.946352
-0.74548495 3.3265698 4.1581874
-0.058347259 0.51307398 8.7697725
-0.1429323 0.94100779 8.8341742
-0.17385487 0.82238036 3.2737718
-0.70071012 3.2428238 9.0762243
-0.34503677 1.5752593 3.3981609
-0.70779067 3.2080436 5.4437513
-0.72646677 3.2737823 4.5152168
-0.75303406 3.3796422 3.8319125
-0.77463287 3.4231036 3.5287254
-0.8023268 3.5369353 3.0067577
-1.0453684 4.5973043 3.175678
-1.0056719 4.415626 2.4571271
-0.95390707 4.1816254 1.8212063
-0.92113715 4.0315127 1.3054882
-0.89091718 3.8930116 0.84969229
-0.84666723 3.6937561 0.43315592
-0.77801132 3.4604971 3.2401931
-0.83503169 3.7051156 2.8490682
-1.0274478 4.5515594 2.82757
-0.98989677 4.3745723 2.1608515
-0.93328524 4.1177425 1.5586365
-0.90391916 3.9817598 1.0754998
-0.86561239 3.8099587 0.63714451
-0.83024418 3.6484251 0.24461207
0.017142558 0.08690358 8.728941
-0.26382786 1.3291187 8.6144905
-0.35951239 1.7529792 8.6266508
-0.20293923 0.95622605 3.1721995
-0.32532492 1.5077907 3.6934438
-0.68230158 3.1313865 5.9405231
-0.70976704 3.2358389 4.9380856
-0.73317856 3.3260219 4.1543498
-0.056555942 0.51327449 8.7697725
-0.13972428 0.9420284 8.8391457
-0.17098318 0.82298225 3.2737718
-0.68974483 3.2469385 9.0809174
-0.33953595 1.5764542 3.3981609
-0.69603527 3.2079458 5.4394855
-0.71439224 3.2733538 4.5112267
-0.74050659 3.3789384 3.8282371
-0.76190436 3.4223056 3.5252209
-0.78912801 3.5359154 3.0036192
-1.0067186 4.4925938 2.4965467
-0.95351803 4.2482572 1.8474287
-0.92705005 4.1236281 1.3322787
-0.89243007 3.9631894 0.86274898
-0.84691662 3.7549841 0.43852085
-0.7659272 3.463192 3.2401931
-0.82121843 3.7040615 2.8461249
-1.0311781 4.6434927 2.8807669
-0.9913857 4.4533124 2.1965184
-0.94562608 4.2408085 1.6013678
-0.90802592 4.0655346 1.0954292
-0.86743152 3.8806164 0.64681405
-0.82841909 3.700053 0.24662738
0.017457765 0.086885162 8.7339401
-0.25903836 1.3292688 8.6095505
-0.35359207 1.7552216 8.631547
-0.19960013 0.95692861 3.1721995
-0.32005978 1.5089171 3.6934438
-0.67086524 3.1314073 5.9361343
-0.69787437 3.2355459 4.9339533
-0.7208851 3.3254282 4.1505122
-0.054763932 0.5134688 8.7697725
-0.13643515 0.94251037 8.8391457
-0.16810939 0.82357407 3.2737718
-0.67875928 3.2510154 9.0856104
-0.33403105 1.5776297 3.3981609
-0.68374515 3.2052546 5.4309535
-0.70232964 3.2728813 4.5072365
-0.72799325 3.3781884 3.8245618
-0.74919087 3.4214604 3.5217161
-0.77594614 3.534847 3.0004809
-0.88923925 4.0409355 2.7973557
-1.0062864 4.5652962 2.5336475
-0.96666753 4.3783126 1.8998736
-0.93025929 4.2064652 1.3562493
-0.89452606 4.0382204 0.87673825
-0.84027636 3.7870882 0.44120333
-0.75383371 3.4658442 3.2401931
-0.80828387 3.7069054 2.8461249
-1.0361184 4.7439284 2.9390299
-0.99233687 4.5321155 2.2321854
-0.94599104 4.3132715 1.6260204
-0.90947282 4.1398907 1.1130139
-0.87089443 3.9610052 0.65786493
-0.82409453 3.7419546 0.24823962
0.017773051 0.086865611 8.7389402
-0.25439677 1.3301649 8.6095505
-0.34746304 1.7564453 8.631547
-0.1962586 0.95761955 3.1721995
-0.31479073 1.510025 3.6934438
-0.65894353 3.1290426 5.9273562
-0.6859923 3.2352095 4.9298201
-0.70860469 3.3247895 4.1466746
-0.052971259 0.51365685 8.7697725
-0.13314435 0.94298089 8.8391457
-0.16523355 0.82415581 3.2737718
-0.6677537 3.2550554 9.0903034
-0.32852206 1.5787861 3.3981609
-0.67201746 3.2050691 5.4266877
-0.69027901 3.2723649 4.5032468
-0.71619678 3.3807089 3.8245618
-0.73649257 3.4205682 3.5182116
-0.76360244 3.5375342 3.0004809
-0.85478824 3.9500177 2.734302
-1.0091122 4.6553664 2.5800233
-0.97400218 4.4858584 1.9429535
-0.93188167 4.2846861 1.3788098
-0.89506328 4.1085138 0.88979501
-0.84828657 3.8873076 0.45014492
-0.74173111 3.4684544 3.2401931
-0.79533941 3.7097044 2.8461249
-1.041275 4.8486695 2.999826
-0.99179441 4.6065412 2.2657542
-0.94287509 4.3719397 1.6457425
-0.91246414 4.2238078 1.1329433
-0.8706671 4.0269442 0.66684377
-0.82583219 3.8131666 0.25106105
0.018076159 0.086803041 8.7389402
-0.24975206 1.3310448 8.6095505
-0.34132978 1.7576474 8.631547
-0.19291471 0.9582988 3.1721995
-0.30951783 1.5111147 3.6934438
-0.64704657 3.1266332 5.9185777
-0.67412108 3.2348292 4.9256868
-0.69633764 3.3241057 4.142837
-0.051177941 0.51383865 8.7697725
-0.12985191 0.9434399 8.8391457
-0.16235571 0.82472759 3.2737718
-0.65604657 3.2556748 9.0856104
-0.32300907 1.5799233 3.3981609
-0.65977311 3.2022865 5.4181557
-0.6782406 3.2718039 4.4992566
-0.70439148 3.3831882 3.8245618
-0.72380972 3.4196296 3.5147073
-0.75044155 3.5363705 2.9973423
-0.83316416 3.9161682 2.7096288
-1.013168 4.7541757 2.631037
-0.98059744 4.5935078 1.9860331
-0.93497556 4.3723516 1.4041904
-0.8961494 4.1836624 0.90378422
-0.84724909 3.9486747 0.45550987
-0.72885138 3.4673684 3.2368677
-0.78238529 3.7124579 2.8461249
-1.0448223 4.9492855 3.0580893
-0.9888649 4.6721377 2.2951269
-0.95307225 4.4953113 1.6884738
-0.91488057 4.307795 1.1528727
-0.87204897 4.1026163 0.67720395
-0.83228475 3.9088676 0.25489014
0.018379048 0.086739413 8.7389402
-0.24510434 1.3319086 8.6095505
-0.33519238 1.758828 8.631547
-0.18956845 0.95896631 3.1721995
-0.30424118 1.5121859 3.6934438
-0.63517451 3.1241789 5.9098001
-0.66226089 3.2344058 4.9215541
-0.68408394 3.3233767 4.1389995
-0.049383998 0.51401412 8.7697725
-0.1265579 0.94388747 8.8391457
-0.159714 0.82652354 3.2786112
-0.64501303 3.2596378 9.0903034
-0.31749213 1.5810411 3.3981609
-0.64755648 3.1994579 5.4096241
-0.66621441 3.2711987 4.4952669
-0.69325709 3.388948 3.8282371
-0.71041602 3.4151521 3.5076981
-0.73809272 3.5389683 2.9973423
-0.8186332 3.9149594 2.7068872
-1.0129133 4.8357267 2.6727755
-0.98454893 4.6921825 2.0253668
-0.93549484 4.4506998 1.426751
-0.89773369 4.2636752 0.91870624
-0.85401523 4.0490632 0.46445143
-0.71523303 3.4625781 3.2302165
-0.76942164 3.7151663 2.8461249
-1.0511823 5.0668669 3.1264851
-0.99935281 4.80442 2.3559706
-0.9556765 4.5864453 1.7197005
-0.91672152 4.39185 1.1728021
-0.86683702 4.1492624 0.68342006
-0.83500886 3.9899893 0.25811464
0.018681714 0.086674735 8.7389402
-0.24045362 1.3327559 8.6095505
-0.32905087 1.7599875 8.631547
-0.18621986 0.9596222 3.1721995
-0.2989608 1.5132387 3.6934438
-0.62332749 3.1216795 5.9010215
-0.65041196 3.2339392 4.9174213
-0.67120862 3.3194606 4.1313243
-0.047589451 0.5141834 8.7697725
-0.12319397 0.94379479 8.8341742
-0.15682793 0.82707596 3.2786112
-0.63692063 3.2788098 9.1372309
-0.31197134 1.5821397 3.3981609
-0.63587606 3.1991408 5.4053578
-0.65479171 3.2735045 4.4952669
-0.68142319 3.3913474 3.8282371
-0.69777656 3.4141169 3.5041933
-0.72495359 3.53771 2.9942038
-0.80832851 3.9341767 2.7178531
-1.0192456 4.9520435 2.7330644
-0.98782325 4.7909393 2.0647006
-0.93935978 4.5478964 1.4549516
-0.89877003 4.3437486 0.93362814
-0.85604781 4.1300406 0.4716047
-0.70165712 3.4577353 3.2235656
-0.75644857 3.7178295 2.8461249
-1.056734 5.1845531 3.194881
-1.0016592 4.901258 2.4000297
-0.95860314 4.6822782 1.7525707
-0.91896319 4.4807305 1.1939038
-0.87325889 4.2541323 0.69792438
-0.83717668 4.0711765 0.26133913
0.018984152 0.086608991 8.7389402
-0.2356649 1.332822 8.6046114
-0.32290536 1.7611253 8.631547
-0.18286902 0.96026641 3.1721995
-0.29367679 1.514273 3.6934438
-0.61196625 3.1214859 5.8966322
-0.6385743 3.233429 4.9132881
-0.6589933 3.31864 4.1274872
-0.045818988 0.51463401 8.7747641
-0.11989877 0.94421905 8.8341742
-0.15393993 0.82761836 3.2786112
-0.62805605 3.2945743 9.1747732
-0.30603322 1.5810817 3.3936598
-0.62370616 3.1962214 5.3968258
-0.64278048 3.2728133 4.4912767
-0.6702373 3.3970315 3.8319125
-0.68515295 3.4130354 3.5006888
-0.71183223 3.5364029 2.9910653
-0.79541796 3.9410732 2.7205946
-1.0230221 5.0597777 2.7887156
-0.99041975 4.8897753 2.1040342
-0.93588001 4.6122642 1.4732821
-0.90023667 4.4286942 0.94948268
-0.85851896 4.215961 0.47920504
-0.68812364 3.4528401 3.2169144
-0.74267441 3.7164841 2.8431821
-1.0580915 5.285429 3.253144
-1.0059811 5.011519 2.4503829
-0.96180302 4.782815 1.7870845
-0.9196353 4.5649142 1.2138332
-0.87602252 4.3445334 0.71035665
-0.83779836 4.1475291 0.2643621
0.019273521 0.086500503 8.7339401
-0.23101105 1.3336365 8.6046114
-0.31675595 1.7622417 8.631547
-0.17951596 0.96089888 3.1721995
-0.28838918 1.5152889 3.6934438
-0.60061407 3.1212516 5.8922439
-0.62728363 3.2356384 4.9132881
-0.64679182 3.3177741 4.1236496
-0.044022299 0.51479083 8.7747641
-0.11660209 0.94463181 8.8341742
-0.15105006 0.82815069 3.2786112
-0.6175034 3.3018353 9.1888504
-0.30051237 1.5821404 3.3936598
-0.61205506 3.1958175 5.3925605
-0.63078195 3.2720783 4.487287
-0.66417623 3.4293053 3.864989
-0.67323506 3.4154062 3.5006888
-0.69872892 3.5350482 2.9879272
-0.78328198 3.9520288 2.7260773
-1.0269213 5.1719427 2.8466854
-0.99324262 4.9932332 2.145241
-0.92727447 4.6531396 1.4845623
-0.90208268 4.5185189 0.96626979
-0.85942376 4.2970643 0.48635831
-0.67463303 3.4478924 3.2102637
-0.72969693 3.719054 2.8431821
-1.0171878 5.1748838 3.1847482
-1.0086675 5.1174159 2.4986382
-0.96614194 4.8926954 1.824885
-0.92161715 4.6586924 1.2361072
-0.87816542 4.4350042 0.72278881
-0.83886915 4.2288356 0.26758659
0.019575346 0.086432695 8.7339401
-0.22635438 1.3344349 8.6046114
-0.31060261 1.7633367 8.631547
-0.17616069 0.96151966 3.1721995
-0.2830981 1.5162864 3.6934438
-0.58971524 3.1233289 5.8922439
-0.61545944 3.235044 4.9091554
-0.63460445 3.3168633 4.119812
-0.042225078 0.51494139 8.7747641
-0.11324116 0.94450372 8.8292027
-0.14815837 0.82867289 3.2786112
-0.60784143 3.3141549 9.2170076
-0.29498783 1.5831797 3.3936598
-0.60041428 3.1953714 5.3882942
-0.61879647 3.2712996 4.4832969
-0.6553663 3.4482553 3.8833644
-0.66266382 3.4247379 3.5076981
-0.68564367 3.5336444 2.9847887
-0.7702806 3.9588435 2.7288189
-1.0308973 5.2885432 2.9069743
-0.99535489 5.0967693 2.1864479
-0.90331233 4.6084094 0.98305702
-0.85977274 4.3782244 0.49351156
-0.66188931 3.4465594 3.206938
-0.7159462 3.7176092 2.8402388
-0.88560611 4.5900517 2.8326364
-1.0106266 5.2233906 2.5468934
-0.96882671 4.9980278 1.8610423
-0.919249 4.7334533 1.2536919
-0.87968719 4.5255418 0.73522109
-0.83842742 4.3052955 0.27060956
0.019876933 0.086363837 8.7339401
-0.22182201 1.3359833 8.6095505
-0.30444556 1.7644103 8.631547
-0.1728033 0.9621287 3.1721995
-0.27780354 1.5172653 3.6934438
-0.5788092 3.1253686 5.8922439
-0.60364711 3.2344062 4.9050221
-0.62302256 3.3190582 4.119812
-0.040427338 0.51508564 8.7747641
-0.10994354 0.9448933 8.8292027
-0.14526485 0.82918507 3.2786112
-0.59718508 3.3213518 9.2310858
-0.28945971 1.5841998 3.3936598
-0.5887841 3.1948826 5.3840284
-0.6068241 3.2704768 4.4793067
-0.64891738 3.4805167 3.916441
-0.66334385 3.4935999 3.5742843
-0.67184871 3.5283689 2.9785116
-0.75567275 3.9574008 2.7260773
-1.0257479 5.3617239 2.9440751
-0.99501097 5.1912737 2.2239084
-0.95085448 4.951581 1.5719843
-0.90485328 4.7031865 1.0007768
-0.85862285 4.4545484 0.5002178
-0.64916319 3.4451797 3.2036126
-0.70221442 3.7161138 2.8372955
-0.85594702 4.5211101 2.7895722
-1.0093182 5.3160639 2.5888543
-0.97608203 5.1312704 1.9070605
-0.92455959 4.8512259 1.2818277
-0.87873155 4.6064148 0.74627197
-0.83746189 4.3818026 0.2736325
0.02019155 0.086335495 8.7389402
-0.21715719 1.3367496 8.6095505
-0.29828474 1.7654622 8.631547
-0.16944379 0.96272606 3.1721995
-0.27250561 1.5182258 3.6934438
-0.56746829 3.1250134 5.8878546
-0.59184676 3.2337258 4.9008894
-0.61085284 3.3180604 4.1159744
-0.038629107 0.51522362 8.7747641
-0.10658544 0.94474155 8.8242302
-0.14236957 0.82968706 3.2786112
-0.2200651 1.2483177 3.5012183
-0.28392807 1.5852005 3.3936598
-0.57716465 3.1943519 5.3797622
-0.59486496 3.2696104 4.4753165
-0.63676411 3.4827607 3.916441
-0.66746879 3.5835431 3.6618979
-0.6588136 3.5268664 2.975373
-0.7426241 3.9641244 2.7288189
-1.0413461 5.5481305 3.0414648
-0.99830294 5.3086166 2.2707343
-0.93978179 4.9878693 1.5818546
-0.90574348 4.7980299 1.0184965
-0.85695034 4.5309167 0.50692397
-0.63713336 3.4474244 3.2036126
-0.68850189 3.7145679 2.8343523
-0.8283543 4.4604959 2.7515745
-1.0148538 5.448947 2.6496978
-0.9624958 5.1578569 1.9152781
-0.92012602 4.9213133 1.2982399
-0.87904382 4.6970701 0.75870425
-0.83689302 4.4632649 0.27685699
0.020492794 0.086264484 8.7389402
-0.21248974 1.3374994 8.6095505
-0.29228625 1.7674969 8.6364412
-0.16608222 0.96331167 3.1721995
-0.26720434 1.5191678 3.6934438
-0.55655646 3.1269751 5.8878546
-0.58005846 3.2330022 4.8967566
-0.59869766 3.317018 4.1121368
-0.03683041 0.51535535 8.7747641
-0.10328703 0.94510782 8.8242302
-0.13947256 0.83017898 3.2786112
-0.2145326 1.2422761 3.4824471
-0.27839294 1.586182 3.3936598
-0.56601077 3.196347 5.3797622
-0.5829193 3.2687001 4.4713264
-0.62520117 3.4882991 3.9201162
-0.65880013 3.6069009 3.6829252
-0.64579731 3.5253162 2.9722347
-0.74540436 4.0571704 2.7891312
-1.0356061 5.6257939 3.0808845
-0.9898566 5.3667769 2.2932105
-0.9068765 4.8977652 1.037149
-0.85293823 4.5975337 0.51273596
-0.62443012 3.4459541 3.2002873
-0.67553145 3.7169483 2.8343523
-0.80505651 4.420949 2.7262428
-1.0007197 5.4792447 2.6622863
-0.96148586 5.2540855 1.9481483
-0.9283632 5.0631418 1.3322372
-0.87515777 4.7683001 0.76837379
-0.83305472 4.530035 0.27947691
0.020793788 0.086192422 8.7389402
-0.2077007 1.3374652 8.6046114
-0.28611475 1.7685065 8.6364412
-0.16271861 0.96388555 3.1721995
-0.26189983 1.5200913 3.6934438
-0.54522657 3.1265395 5.8834653
-0.56876963 3.2350073 4.8967566
-0.58655721 3.3159316 4.1082997
-0.035012629 0.51519263 8.7697725
-0.099931903 0.94493234 8.8192587
-0.13657384 0.83066076 3.2786112
-0.21105741 1.2481221 3.4965255
-0.27285445 1.5871441 3.3936598
-0.55440426 3.1957338 5.3754964
-0.57150584 3.2707152 4.4713264
-0.61184818 3.4837818 3.9127657
-0.63426489 3.5424802 3.616339
-0.63348776 3.527549 2.9722347
-0.74457902 4.1338215 2.8384776
-1.049005 5.8124685 3.1782737
-1.0156634 5.6165442 2.3943543
-0.95710784 5.2822409 1.6678666
-0.90556926 4.9878993 1.0539361
-0.84401494 4.6396799 0.5163126
-0.61239767 3.4481125 3.2002873
-0.66184396 3.7153049 2.8314095
-0.79795164 4.4704137 2.754108
-1.0111802 5.6480012 2.7399142
-0.98566312 5.4944563 2.0319672
-0.93046188 5.176383 1.3592006
-0.88043135 4.8931708 0.78564078
-0.83851093 4.6509151 0.28431365
0.021080824 0.086077891 8.7339401
-0.20291449 1.3374137 8.5996723
-0.27993974 1.7694944 8.6364412
-0.15935305 0.96444762 3.1721995
-0.25659212 1.5209962 3.6934438
-0.53430957 3.1284237 5.8834653
-0.55699635 3.2341995 4.8926234
-0.57497895 3.3179588 4.1082997
-0.033214055 0.51531172 8.7697725
-0.096632868 0.94527549 8.8192587
-0.13347423 0.82989132 3.2737718
-0.20669936 1.2488512 3.4965255
-0.26731262 1.588087 3.3936598
-0.54280901 3.1950786 5.3712306
-0.55957735 3.2697203 4.4673367
-0.59910911 3.4825556 3.9090908
-0.60833883 3.4673951 3.5392389
-0.62049586 3.5259054 2.9690962
-0.74395418 4.2146325 2.8905654
-1.0611126 5.9993029 3.2756634
-0.99605173 5.6200552 2.3943543
-0.94537365 5.3233347 1.6791469
-0.90622532 5.0925918 1.0735211
-0.8592847 4.8190928 0.53240746
-0.60035777 3.4502294 3.2002873
-0.64817613 3.7136106 2.8284662
-0.78011417 4.4604325 2.7465081
-1.0236113 5.8347774 2.8259342
-0.98446423 5.6001825 2.0681243
-0.93178087 5.2896981 1.3861638
-0.87882417 4.9839973 0.79807293
-0.83791769 4.7423692 0.28794122
0.021381162 0.086003788 8.7339401
-0.19824481 1.3381139 8.5996723
-0.27376136 1.770461 8.6364412
-0.15598552 0.96499801 3.1721995
-0.25128132 1.5218827 3.6934438
-0.52299118 3.1279073 5.879076
-0.54570347 3.236124 4.8926234
-0.56285733 3.3167856 4.1044621
-0.031415079 0.51542449 8.7697725
-0.093384393 0.94613761 8.8242302
-0.13057655 0.83035219 3.2737718
-0.2026144 1.2512686 3.5012183
-0.26176754 1.5890104 3.3936598
-0.53165281 3.1969538 5.3712306
-0.54766262 3.2686818 4.4633465
-0.58582294 3.4779394 3.9017403
-0.58898437 3.4273207 3.4971845
-0.6081844 3.5280499 2.9690962
-0.73208749 4.233685 2.9015312
-1.0825166 6.2473974 3.4055161
-1.0152881 5.8473096 2.4861329
-0.96296632 5.5345488 1.7411882
-0.90616143 5.1973486 1.0931062
-0.86045593 4.9250822 0.54179615
-0.58768338 3.4486232 3.1969616
-0.63520932 3.7158506 2.8284662
-0.77036214 4.4971199 2.7667737
-1.0478165 6.0977468 2.9476213
-0.9921549 5.7618103 2.1240036
-0.93314642 5.4078746 1.4142994
-0.87490761 5.0651112 0.80912381
-0.83840019 4.84372 0.29197183
0.021681242 0.085928626 8.7339401
-0.19346175 1.3380287 8.5947323
-0.26773152 1.7724125 8.6413364
-0.1526161 0.96553659 3.1721995
-0.2459674 1.5227505 3.6934438
-0.51206958 3.1297138 5.879076
-0.5339458 3.2352326 4.8884902
-0.55127621 3.3187301 4.1044621
-0.029615721 0.515531 8.7697725
-0.090081193 0.9464578 8.8242302
-0.12767729 0.83080292 3.2737718
-0.19689713 1.2434459 3.4777546
-0.25587305 1.5877651 3.3891585
-0.52007133 3.1962159 5.3669643
-0.53576195 3.2676001 4.4593563
-0.57312775 3.4766181 3.8980651
-0.57346714 3.4082549 3.4761569
-0.59586549 3.5301514 2.9690962
-0.71521062 4.2238464 2.893307
-1.071077 6.3122816 3.4379795
-1.0197388 5.9970684 2.5460701
-0.9549222 5.6040816 1.7609288
-0.90455014 5.2973232 1.1117586
-0.86089748 5.0311365 0.55118477
-0.57564187 3.4506536 3.1969616
-0.62156755 3.7140586 2.8255229
-0.75965041 4.529542 2.7845061
-1.0837513 6.441515 3.1070733
-0.99244827 5.8863063 2.1667349
-0.92964935 5.502161 1.4365735
-0.88034564 5.2048512 0.8284629
-0.83651525 4.9352794 0.29559937
0.021981057 0.085852422 8.7339401
-0.18878998 1.3386958 8.5947323
-0.26154304 1.7733363 8.6413364
-0.14947242 0.96753871 3.1769717
-0.24065052 1.5235997 3.6934438
-0.50114173 3.1314821 5.879076
-0.52264947 3.2370768 4.8884902
-0.53968829 3.3206341 4.1044621
-0.027816001 0.51563126 8.7697725
-0.086824916 0.94729733 8.8292027
-0.12477647 0.83124352 3.2737718
-0.51638633 3.3383617 9.2404718
-0.25032917 1.5886486 3.3891585
-0.50891125 3.1980119 5.3669643
-0.52435261 3.2694502 4.4593563
-0.55990922 3.4719038 3.8907149
-0.56156665 3.4102356 3.4761569
-0.58290493 3.5283692 2.9659576
-0.70046234 4.2263174 2.893307
-1.0353343 6.2200952 2.6359756
-0.96376812 5.7777214 1.8116899
-0.91844988 5.4942493 1.1490633
-0.8622545 5.1470766 0.56146759
-0.56359333 3.452642 3.1969616
-0.6079461 3.7122166 2.8225796
-0.74383467 4.532166 2.7845061
-1.084855 6.5885615 3.174211
-1.0041853 6.0854192 2.2357624
-0.9318493 5.6348505 1.4682261
-0.88481838 5.3446879 0.84780192
-0.83563656 5.0367403 0.29962999
0.022280604 0.085775167 8.7339401
-0.18411592 1.3393468 8.5947323
-0.25535133 1.7742385 8.6413364
-0.14609416 0.96805459 3.1769717
-0.2353307 1.5244305 3.6934438
-0.48983768 3.1308465 5.8746872
-0.51090807 3.2361019 4.8843579
-0.52759075 3.3193324 4.1006246
-0.026015943 0.5157252 8.7697725
-0.083517708 0.9475947 8.8292027
-0.12205601 0.83291775 3.2786112
-0.50369912 3.3333187 9.2216997
-0.24478222 1.5895127 3.3891585
-0.49774501 3.1997688 5.3669643
-0.51247025 3.2682836 4.4553661
-0.5462026 3.4637909 3.8796897
-0.54965925 3.4121752 3.4761569
-0.57058507 3.5303824 2.9659576
-0.65425056 4.0347433 2.7644579
-1.1044313 6.7962022 3.6907284
-1.041188 6.3929701 2.7052777
-0.96986765 5.9420204 1.8596311
-0.90402383 5.5265088 1.1546592
-0.85636717 5.2237706 0.56817377
-0.55153793 3.4545882 3.1969616
-0.59498429 3.7143161 2.8225796
-0.72869331 4.5389915 2.7870393
-1.06185 6.5923085 3.174211
-0.98368979 6.0935497 2.2374058
-0.9447782 5.8395944 1.5174633
-0.87407404 5.3966279 0.85470879
-0.82925671 5.1086664 0.30245143
0.022579879 0.085696876 8.7339401
-0.17954251 1.3407513 8.5996723
-0.24915652 1.7751189 8.6413364
-0.14271413 0.96855867 3.1769717
-0.23000801 1.5252427 3.6934438
-0.47890598 3.1325374 5.8746872
-0.49960887 3.2378657 4.8843579
-0.51600093 3.3211536 4.1006246
-0.024228161 0.5161013 8.7747641
-0.080209479 0.94788045 8.8292027
-0.11914785 0.83333874 3.2786112
-0.49180883 3.3333495 9.2170076
-0.2392323 1.5903574 3.3891585
-0.4861809 3.1989083 5.3626986
-0.50105864 3.2700524 4.4553661
-0.53255945 3.4556243 3.8686638
-0.53774518 3.414073 3.4761569
-0.55825824 3.5323527 2.9659576
-0.63950777 4.0328722 2.7617164
-1.0890446 6.8525152 3.7185543
-1.0757446 6.7536654 2.8513744
-0.96500069 6.0448484 1.8892417
-0.91887408 5.7430553 1.1956943
-0.8673014 5.4086623 0.58471566
-0.54005158 3.4601815 3.2002873
-0.58139002 3.7123775 2.8196368
-0.70749748 4.5074377 2.7667737
-1.1052026 7.0174012 3.371428
-0.99701786 6.3161731 2.3146508
-0.94033867 5.943676 1.5420821
-0.88466847 5.5855074 0.88095456
-0.84196609 5.3039613 0.31031114
0.022893449 0.085658662 8.7389402
-0.17486131 1.34137 8.5996723
-0.24295868 1.7759778 8.6413364
-0.13933235 0.96905094 3.1769717
-0.22468251 1.5260363 3.6934438
-0.46796846 3.1341898 5.8746872
-0.48788419 3.2368073 4.8802247
-0.50440478 3.3229346 4.1006246
-0.022426484 0.51618272 8.7747641
-0.076900266 0.94815463 8.8292027
-0.11641143 0.83499455 3.2834506
-0.47746611 3.3162572 9.1653872
-0.23367946 1.5911829 3.3891585
-0.47501171 3.2005858 5.3626986
-0.48919511 3.2688019 4.4513764
-0.51948464 3.4507575 3.8613136
-0.52582455 3.4159293 3.4761569
-0.54592466 3.5342801 2.9659576
-0.61966276 3.9978909 2.7370431
-1.0753181 6.9219341 3.7533362
-1.0949571 7.0322232 2.9637563
-0.96608466 6.190371 1.9315428
-0.9193179 5.8772655 1.2208751
-0.85535824 5.4559364 0.5887394
-0.52796996 3.4620457 3.2002873
-0.56781644 3.7103884 2.8166935
-0.68522382 4.4672699 2.741442
-1.0896759 7.0795307 3.3987026
-1.0160033 6.5856323 2.4083309
-0.94855368 6.1342602 1.5878024
-0.89092427 5.75495 0.90443766
-0.82727689 5.331553 0.31131878
0.023192316 0.085578226 8.7389402
-0.17027551 1.342743 8.6046114
-0.2367579 1.7768152 8.6413364
-0.13594888 0.96953136 3.1769717
-0.21935429 1.5268112 3.6934438
-0.45702526 3.1358042 5.8746872
-0.47658265 3.2384906 4.8802247
-0.49233264 3.3215044 4.096787
-0.020624533 0.51625788 8.7747641
-0.073590122 0.94841731 8.8292027
-0.11349604 0.83539581 3.2834506
-0.46564743 3.3161945 9.1606941
-0.2284324 1.5941439 3.3936598
-0.46383667 3.2022245 5.3626986
-0.47778186 3.2704897 4.4513764
-0.50299996 3.4223626 3.8282371
-0.51336735 3.414217 3.4726524
-0.53358436 3.536164 2.9659576
-0.60507786 3.9958959 2.734302
-1.0730846 7.0701733 3.8298564
-1.1213014 7.3705745 3.1004877
-0.97411829 6.3881373 1.989354
-0.92180443 6.0309701 1.2497864
-0.86496526 5.6459451 0.60572845
-0.51588196 3.4638674 3.2002873
-0.55486131 3.7123482 2.8166935
-0.67409664 4.4994774 2.7591741
-1.0730542 7.1371479 3.4238794
-1.0239711 6.7945938 2.4806452
-0.9518193 6.3009419 1.6276612
-0.88786215 5.8706417 0.92032337
-0.83786422 5.5270486 0.31917849
0.023490896 0.085496746 8.7389402
-0.16558743 1.3433292 8.6046114
-0.23055421 1.7776307 8.6413364
-0.13256375 0.97000003 3.1769717
-0.21429427 1.5295025 3.6980464
-0.44607645 3.1373806 5.8746872
-0.4648754 3.237349 4.8760915
-0.48073539 3.3232026 4.096787
-0.018812757 0.51603818 8.7697725
-0.070317842 0.94920003 8.8341742
-0.11074378 0.83703309 3.28829
-0.45313329 3.3109608 9.141923
-0.2228664 1.5949315 3.3936598
-0.45229125 3.201242 5.3584328
-0.46636283 3.2721374 4.4513764
-0.48768225 3.4006069 3.8025112
-0.50248218 3.4230454 3.4796617
-0.52123761 3.5380051 2.9659576
-0.59051424 3.9938467 2.7315605
-1.0620364 7.1658974 3.8785515
-1.1221347 7.5532832 3.1735363
-0.98855525 6.6382256 2.0626757
-0.92395431 6.189621 1.2796302
-0.8629387 5.7671332 0.6164583
-0.50432467 3.4693415 3.2036126
-0.54189938 3.7142622 2.8166935
-0.65901017 4.5060682 2.7617073
-1.0824066 7.3743515 3.5329778
-1.0174319 6.9149237 2.5217328
-0.95109558 6.4484839 1.6628308
-0.88761985 6.0108752 0.9396624
-0.83831781 5.6633759 0.32461983
0.023789193 0.085414223 8.7389402
-0.16089733 1.343899 8.6046114
-0.22434771 1.7784246 8.6413364
-0.12917702 0.9704569 3.1769717
-0.20895401 1.5302413 3.6980464
-0.43512225 3.1389184 5.8746872
-0.45357212 3.2389519 4.8760915
-0.46868458 3.321687 4.0929494
-0.017011335 0.5161007 8.7697725
-0.067004092 0.94943976 8.8341742
-0.1078213 0.83741456 3.28829
-0.44043347 3.3039696 9.1184597
-0.2172977 1.5956998 3.3936598
-0.44111407 3.2028012 5.3584328
-0.45493811 3.2737453 4.4513764
-0.47064468 3.3653557 3.762084
-0.49255276 3.4388995 3.4936798
-0.50888449 3.539803 2.9659576
-0.57895803 4.0124383 2.7425263
-1.0408208 7.1958656 3.8924642
-1.095762 7.5571542 3.1735363
-0.98538744 6.7793036 2.1035666
-0.92854863 6.3726625 1.3141372
-0.86943322 5.9524355 0.63300025
-0.49221134 3.471081 3.2036126
-0.5289309 3.7161312 2.8166935
-0.64449489 4.5168762 2.7667737
-1.0656663 7.4409819 3.5623505
-1.0389209 7.2362814 2.6334915
-0.95766217 6.6538286 1.7120681
-0.88994074 6.1756845 0.96245486
-0.83925837 5.8096614 0.33046421
0.024087202 0.085330665 8.7389402
-0.15620527 1.3444524 8.6046114
-0.21813849 1.779197 8.6413364
-0.1257887 0.97090185 3.1769717
-0.2036112 1.5309614 3.6980464
-0.42416275 3.1404183 5.8746872
-0.44226328 3.2405155 4.8760915
-0.45708686 3.3233027 4.0929494
-0.015209703 0.51615691 8.7697725
-0.063689515 0.94966787 8.8341742
-0.10489753 0.83778584 3.28829
-0.42911977 3.3071983 9.1231527
-0.21172634 1.5964485 3.3936598
-0.42993152 3.2043214 5.3584328
-0.44350779 3.2753134 4.4513764
-0.45752132 3.3569009 3.7510586
-0.48695791 3.4865136 3.5392389
-0.49652514 3.5415578 2.9659576
-0.56553113 4.0185752 2.7452679
-1.0895011 7.7032299 3.2316
-0.97922635 6.9061904 2.1402276
-0.92911094 6.536356 1.3449136
-0.86972636 6.1033387 0.64641261
-0.48009199 3.4727778 3.2036126
-0.51651156 3.7219586 2.8196368
-0.62931806 4.5233679 2.7693069
-1.0568688 7.5485158 2.7419629
-0.95469904 6.8015337 1.7472376
-0.89870268 6.3945236 0.9928447
-0.83570242 5.9312859 0.33530098
0.024369627 0.085205205 8.7339401
-0.1515113 1.3449895 8.6046114
-0.21192661 1.7799475 8.6413364
-0.12239886 0.97133505 3.1769717
-0.1985165 1.5336002 3.7026489
-0.41351023 3.144254 5.879076
-0.43094909 3.2420397 4.8760915
-0.44548362 3.324878 4.0929494
-0.013407887 0.51620686 8.7697725
-0.060407359 0.95041639 8.8391457
-0.10197248 0.83814692 3.28829
-0.41735685 3.3069637 9.1184597
-0.20587391 1.5950187 3.3891585
-0.4187437 3.2058024 5.3584328
-0.43207216 3.2768416 4.4513764
-0.4453547 3.3551168 3.7473834
-0.48199847 3.5411973 3.5918071
-0.4846867 3.5471261 2.9690962
-0.55263668 4.02881 2.7507505
-1.0394422 7.5584259 4.0802875
-1.0708364 7.7666879 3.2559493
-0.99846488 7.2231908 2.2332897
-0.93191308 6.7244582 1.3803532
-0.86966181 6.2592478 0.66027206
-0.46796682 3.4744327 3.2036126
-0.50405788 3.7277441 2.8225796
-0.61410379 4.529809 2.7718401
-1.1195734 8.2262335 3.9253139
-1.0828638 7.9358225 2.8767309
-0.96455133 7.0504289 1.8070258
-0.89855468 6.5595279 1.0156373
-0.83334672 6.0678024 0.34074232
0.024651473 0.085078813 8.728941
-0.14681548 1.3455102 8.6046114
-0.20571214 1.7806764 8.6413364
-0.11900752 0.97175634 3.1769717
-0.19340588 1.5362222 3.7072515
-0.40253219 3.1456783 5.879076
-0.41962963 3.2435241 4.8760915
-0.43387491 3.3264127 4.0929494
-0.011605907 0.51625055 8.7697725
-0.057089422 0.95062149 8.8391457
-0.099046171 0.8384977 3.28829
-0.40581086 3.3084006 9.1184597
-0.200305 1.5957277 3.3891585
-0.40755084 3.2072446 5.3584328
-0.4206312 3.2783301 4.4513764
-0.43364045 3.3566511 3.7473834
-0.47478873 3.5817471 3.6303573
-0.47281545 3.5526547 2.9722347
-0.53912389 4.0348592 2.7534921
-1.0095229 7.5356641 4.0663743
-1.0751933 8.0047064 3.351474
-1.0020565 7.4405684 2.2967412
-0.93407029 6.9175248 1.4167253
-0.87185949 6.4399033 0.67636693
-0.45583597 3.4760451 3.2036126
-0.49157014 3.7334883 2.8255229
-0.59885222 4.5361986 2.7743733
-1.1057595 8.3425703 3.9777653
-1.0688419 8.0425367 2.9128881
-0.96433121 7.2368388 1.8515739
-0.89071584 6.6755214 1.0315229
-0.8379975 6.2637949 0.34860203
0.024948303 0.084992245 8.728941
-0.14203651 1.3452418 8.5996723
-0.19949517 1.7813838 8.6413364
-0.11561473 0.97216582 3.1769717
-0.18851644 1.5407664 3.7164567
-0.3918449 3.149441 5.8834653
-0.40830508 3.2449691 4.8760915
-0.42226094 3.3279068 4.0929494
-0.0098083206 0.51657659 8.7747641
-0.05374131 0.95028269 8.8341742
-0.096118666 0.83883834 3.28829
-0.3942599 3.3097968 9.1184597
-0.19447024 1.5942563 3.3846574
-0.39635298 3.2086477 5.3584328
-0.40918514 3.2797782 4.4513764
-0.42234352 3.3615079 3.7510586
-0.45224613 3.5055695 3.5532572
-0.46141139 3.5620031 2.9785116
-0.52827197 4.0615959 2.7699411
-0.9734742 7.464468 4.0269547
-1.090524 8.3393784 3.4863324
-1.0060133 7.6723261 2.3644228
-0.93745214 7.1301675 1.456828
-0.87085372 6.6058364 0.69112051
-0.44369951 3.4776149 3.2036126
-0.47956201 3.7432001 2.8314095
-0.58356357 4.5425377 2.7769065
-1.1271452 8.7379856 4.1602955
-1.0431848 8.0649519 2.9194622
-0.97157377 7.4908137 1.9125344
-0.90376335 6.9585071 1.0708916
-0.83806396 6.4351215 0.35545409
0.025244828 0.084904641 8.728941
-0.13733989 1.3457294 8.5996723
-0.19327576 1.7820692 8.6413364
-0.11222054 0.97256351 3.1769717
-0.18336731 1.543355 3.7210591
-0.38084891 3.1507897 5.8834653
-0.39697552 3.2463746 4.8760915
-0.41064179 3.3293607 4.0929494
-0.0080050724 0.5166077 8.7747641
-0.050423875 0.95046455 8.8341742
-0.093189992 0.83916879 3.28829
-0.38270417 3.3111529 9.1184597
-0.18890406 1.5949254 3.3846574
-0.38515028 3.210012 5.3584328
-0.39809656 3.2841775 4.4553661
-0.4106071 3.3629618 3.7510586
-0.42979735 3.4257407 3.4726524
-0.45092082 3.5790393 2.9910653
-0.51041752 4.0343761 2.7507505
-0.93124485 7.3403778 3.9597094
-1.0725235 8.4305134 3.52192
-1.0120062 7.9327493 2.4405644
-0.93749028 7.3282981 1.4941328
-0.87060082 6.7866583 0.70721537
-0.43155763 3.4791427 3.2036126
-0.4674921 3.7528732 2.8372955
-0.5677036 4.5445466 2.7769065
-1.1401342 9.0886154 4.3218455
-1.0503899 8.3496571 3.0180726
-0.96732086 7.6677666 1.9547378
-0.90739781 7.1827049 1.1019722
-0.83443266 6.5866971 0.36149999
0.025541047 0.084816001 8.728941
-0.13264158 1.3462006 8.5996723
-0.18705401 1.7827331 8.6413364
-0.10882498 0.97294933 3.1769717
-0.17820242 1.5459267 3.7256618
-0.37012729 3.1544785 5.8878546
-0.38564116 3.2477405 4.8760915
-0.3993988 3.333956 4.096787
-0.0062017264 0.5166325 8.7747641
-0.04710583 0.95063478 8.8341742
-0.090260178 0.83948892 3.28829
-0.37114376 3.3124688 9.1184597
-0.18333557 1.5955751 3.3846574
-0.37364134 3.2087462 5.354167
-0.38663021 3.285547 4.4553661
-0.39886567 3.3643744 3.7510586
-0.4152475 3.4059799 3.4516253
-0.43984392 3.5921824 3.0004809
-0.49326998 4.0112329 2.734302
-1.0795045 8.7286606 3.641794
-1.0032034 8.0885725 2.4856856
-0.94161344 7.5703859 1.5398313
-0.87895823 7.0466232 0.73046345
-0.41941056 3.4806278 3.2036126
-0.4553605 3.7625079 2.8431821
-0.55235606 4.5507803 2.7794394
-1.1611229 9.5250368 4.5232587
-1.0384288 8.4938917 3.067378
-0.96953392 7.9074965 2.0121813
-0.90283912 7.3529439 1.1254553
-0.84196484 6.8374944 0.37157652
0.025836956 0.084726334 8.728941
-0.12794165 1.3466554 8.5996723
-0.18082997 1.783375 8.6413364
-0.10542809 0.97332329 3.1769717
-0.17280504 1.5465393 3.7256618
-0.35911387 3.1557512 5.8878546
-0.37430206 3.2490671 4.8760915
-0.3877587 3.33533 4.096787
-0.004399816 0.51693964 8.7797556
-0.043787207 0.95079339 8.8341742
-0.087329261 0.83979887 3.28829
-0.35957882 3.3137441 9.1184597
-0.17776486 1.5962052 3.3846574
-0.36243847 3.2100308 5.354167
-0.37515914 3.2868769 4.4553661
-0.38750663 3.3691142 3.754734
-0.40335587 3.4074087 3.4516253
-0.43005925 3.6168859 3.0193114
-0.47976092 4.0170817 2.7370431
-1.0554048 8.8113565 4.7318697
-1.0899459 9.0729856 3.7803988
-1.0174248 8.444459 2.5900278
-0.94170022 7.7930818 1.5817991
-0.88910574 7.3363886 0.75639403
-0.40725836 3.4820707 3.2036126
-0.44363883 3.7761173 2.8520114
-0.53646749 4.5526805 2.7794394
-1.1870799 10.029316 4.7561426
-1.0471834 8.821022 3.1807799
-0.97065938 8.1521587 2.0707972
-0.90765703 7.6117473 1.1613708
-0.83233094 6.9594455 0.37641329
0.026148684 0.084676161 8.7339401
-0.12324017 1.3470938 8.5996723
-0.17460372 1.7839954 8.6413364
-0.10202991 0.97368532 3.1769717
-0.16761553 1.5490754 3.7302639
-0.34809604 3.1569855 5.8878546
-0.36295843 3.2503536 4.8760915
-0.37611386 3.336663 4.096787
-0.0025958372 0.51724058 8.7847471
-0.040468048 0.95094043 8.8341742
-0.084397286 0.84009856 3.28829
-0.3480095 3.3149788 9.1184597
-0.17219198 1.5968161 3.3846574
-0.35123116 3.2112763 5.354167
-0.36368352 3.2881663 4.4553661
-0.3757439 3.3704462 3.754734
-0.39186618 3.4123392 3.4551299
-0.41743138 3.618365 3.0193114
-0.46766111 4.0353465 2.748009
-1.0241295 8.8105869 4.7295508
-1.1076597 9.500371 3.9527178
-0.98905635 8.4574881 2.5928481
-0.9368099 7.9865947 1.6181713
-0.8768748 7.4532022 0.7666769
-0.39552191 3.4871812 3.206938
-0.43137014 3.7856748 2.8578975
-0.52057242 4.5545254 2.7794394
-1.2038348 10.484288 4.9659476
-1.0552872 9.1623878 3.2991128
-0.98180276 8.4983225 2.1540318
-0.90441775 7.8165574 1.1896886
-0.84258991 7.260066 0.38850513
0.0264441 0.08458437 8.7339401
-0.11860505 1.3482897 8.6046114
-0.16847083 1.7856078 8.6462317
-0.098480426 0.97255039 3.1721995
-0.16220723 1.5496509 3.7302639
-0.33732808 3.160563 5.8922439
-0.35191283 3.2543986 4.8802247
-0.36481228 3.3411422 4.1006246
-0.00079031498 0.51724648 8.7847471
-0.037168588 0.9516086 8.8391457
-0.081464276 0.84038812 3.28829
-0.33643594 3.3161736 9.1184597
-0.16661701 1.5974075 3.3846574
-0.34001958 3.2124829 5.354167
-0.35252422 3.292412 4.4593563
-0.36434034 3.375108 3.7584088
-0.37995252 3.413686 3.4551299
-0.40263575 3.6004591 3.0036192
-0.45450589 4.0452647 2.7534921
-0.99436074 8.8229122 4.7341886
-1.1286517 9.9832621 4.1475129
-1.0362859 9.1377335 2.7930727
-0.94279492 8.2875433 1.6750611
-0.87569588 7.673924 0.78634834
-0.38334697 3.4885404 3.206938
-0.41904017 3.795193 2.8637841
-0.50467104 4.5563149 2.7794394
-1.0035888 9.0179453 4.2819824
-1.0636399 9.5273781 3.425663
-0.98404914 8.7866936 2.2231987
-0.90417552 8.0608063 1.223532
-0.84238058 7.4863706 0.39757401
0.026739195 0.084491543 8.7339401
-0.11389791 1.3486956 8.6046114
-0.16223687 1.786185 8.6462317
-0.095084988 0.97288823 3.1721995
-0.15660055 1.548264 3.7256618
-0.32629362 3.1617212 5.8922439
-0.34055069 3.2556071 4.8802247
-0.3531473 3.3423953 4.1006246
0.0010152169 0.51724607 8.7847471
-0.033846624 0.95173252 8.8391457
-0.078413732 0.83941573 3.2834506
-0.32485828 3.3173277 9.1184597
-0.16104001 1.5979794 3.3846574
-0.32880384 3.2136502 5.354167
-0.34102941 3.2936225 4.4593563
-0.35290879 3.3797309 3.762084
-0.36841622 3.4185371 3.4586341
-0.38922733 3.5941036 2.9973423
-0.4498812 4.1341214 2.8110628
-0.96259552 8.817522 4.7295508
-1.1477995 10.480236 4.3479276
-1.0248153 9.327261 2.8480639
-0.94561344 8.5788622 1.7300857
-0.86641836 7.8353271 0.80065489
-0.37156218 3.4935701 3.2102637
-0.40707847 3.8086898 2.8726134
-0.48784426 4.5494761 2.7743733
-0.97161794 9.016881 4.2798843
-1.0846828 10.033378 3.6015184
-0.97643226 9.0026951 2.2747805
-0.90437794 8.3248367 1.2601379
-0.83897746 7.6978598 0.40603831
0.027033962 0.084397689 8.7339401
-0.10925184 1.3498594 8.6095505
-0.15600093 1.7867404 8.6462317
-0.091688402 0.97321415 3.1721995
-0.15119514 1.5488013 3.7256618
-0.31549257 3.1652238 5.8966322
-0.32946736 3.2595758 4.8843579
-0.34180361 3.3467963 4.1044621
0.0028207367 0.51723939 8.7847471
-0.030524254 0.95184487 8.8391457
-0.075370975 0.83843243 3.2786112
-0.31327668 3.3184414 9.1184597
-0.15546103 1.5985317 3.3846574
-0.3178404 3.2173738 5.3584328
-0.32953042 3.2947929 4.4593563
-0.34144944 3.3843155 3.7657592
-0.35685074 3.4233494 3.4621389
-0.37546271 3.583827 2.9879272
-0.44201469 4.1980433 2.8521848
-0.93274146 8.8296385 4.7341886
-1.1737517 11.074272 4.587676
-1.0206574 9.5979118 2.927026
-0.94536704 8.860528 1.783245
-0.86874586 8.1155977 0.82569128
-0.35974696 3.4985604 3.2135892
-0.39461216 3.8181291 2.8785
-0.47373912 4.5683026 2.7845061
-0.93919641 9.0111914 4.2756886
-1.0884533 10.40813 3.7313554
-0.98608667 9.3976088 2.3697383
-0.90740663 8.6332893 1.3029602
-0.83358383 7.9044452 0.4143011
0.0273284 0.084302805 8.7339401
-0.10453929 1.3502326 8.6095505
-0.14984794 1.7882887 8.6511269
-0.088156179 0.97204167 3.1674278
-0.14578789 1.5493195 3.7256618
-0.30421287 3.1639221 5.8922439
-0.31754103 3.2551045 4.8760915
-0.33011901 3.3479688 4.1044621
0.0046262215 0.5172264 8.7847471
-0.027201509 0.9519456 8.8391457
-0.072336033 0.83743805 3.2737718
-0.30169126 3.319515 9.1184597
-0.14988017 1.5990646 3.3846574
-0.30660775 3.2184637 5.3584328
-0.31831679 3.2989225 4.4633465
-0.32996237 3.3888612 3.7694347
-0.34525615 3.4281225 3.4656434
-0.36295053 3.5851157 2.9879272
-0.43159106 4.2411604 2.8795996
-0.90236455 8.8372478 4.7365074
-1.1932074 11.64555 4.818059
-1.0362086 10.078607 3.0680292
-0.9522391 9.2302485 1.8531915
-0.8763057 8.4653263 0.85698682
-0.34790137 3.50351 3.2169144
-0.38328928 3.8395934 2.8932157
-0.4607974 4.5999537 2.8022382
-0.90500742 8.987319 4.2631001
-1.1067111 10.952164 3.9203591
-0.98416919 9.7056503 2.4435942
-0.911295 8.9714212 1.3499264
-0.83790338 8.2204294 0.42699754
0.027622504 0.084206901 8.7339401
-0.099825464 1.3505893 8.6095505
-0.14360473 1.788801 8.6511269
-0.084762581 0.9723435 3.1674278
-0.14037888 1.549819 3.7256618
-0.29294604 3.1625798 5.8878546
-0.30617666 3.2561929 4.8760915
-0.31873372 3.3522918 4.1082997
0.0064271153 0.51691842 8.7797556
-0.023878433 0.95203477 8.8391457
-0.069412388 0.83768547 3.2737718
-0.29010212 3.3205476 9.1184597
-0.14429748 1.5995781 3.3846574
-0.2956095 3.2221112 5.3626986
-0.30679947 3.3000135 4.4633465
-0.31844771 3.3933673 3.7731099
-0.33363259 3.4328563 3.4691482
-0.35156932 3.5979822 2.9973423
-0.41678399 4.2426414 2.8795996
-0.87194592 8.8447523 4.7388258
-1.1922574 12.05101 4.9810128
-1.0474678 10.549974 3.2062123
-0.95069671 9.5414639 1.9119467
-0.87747031 8.7755604 0.88470578
-0.33602566 3.50842 3.2202401
-0.36949685 3.8368845 2.8902726
-0.44722575 4.6272793 2.8174374
-0.869241 8.9452515 4.2421198
-1.136309 11.651543 4.1635985
-1.008521 10.304041 2.5877893
-0.9099341 9.2801104 1.3927485
-0.83611244 8.4967585 0.43808174
0.027916273 0.084109969 8.7339401
-0.095110416 1.3509295 8.6095505
-0.13735977 1.7892914 8.6511269
-0.081367955 0.97263348 3.1674278
-0.13496815 1.5502996 3.7256618
-0.28169233 3.1611977 5.8834653
-0.29354066 3.2432289 4.8554268
-0.30703011 3.353384 4.1082997
0.0082370015 0.51718152 8.7847471
-0.020555068 0.95211232 8.8391457
-0.066388845 0.83666962 3.2689323
-0.27865359 3.3232601 9.1231527
-0.13871303 1.600072 3.3846574
-0.28458956 3.2257216 5.3669643
-0.2955468 3.3040657 4.4673367
-0.3069056 3.3978348 3.7767847
-0.32231268 3.4411013 3.4761569
-0.33973774 3.6069376 3.0036192
-0.40551999 4.2815356 2.9042728
-0.8414858 8.8521519 4.7411447
-0.87851518 9.2076664 3.8253515
-1.0627649 11.09794 3.366956
-0.9587419 9.9750185 1.9940171
-0.87695754 9.0908575 0.91287172
-0.3241199 3.5132895 3.2235656
-0.35535461 3.8301013 2.8843861
-0.43386868 4.6588573 2.8351696
-0.83377922 8.9030437 4.2211394
-1.1243565 11.961031 4.2704268
-1.0154656 10.762377 2.6979871
-0.91528344 9.6825676 1.4486935
-0.83570576 8.8079891 0.45057666
0.028209701 0.084012009 8.7339401
-0.090342581 1.3504779 8.6046114
-0.13111314 1.7897599 8.6511269
-0.077972338 0.9729116 3.1674278
-0.12955578 1.5507613 3.7256618
-0.26983932 3.1526165 5.8659091
-0.28343686 3.2582512 4.8760915
-0.29560375 3.3576281 4.1121368
0.010048802 0.51743823 8.7897396
-0.017231449 0.9521783 8.8391457
-0.06346792 0.83689624 3.2689323
-0.26732776 3.3276527 9.1325378
-0.13312688 1.6005465 3.3846574
-0.27376807 3.2318928 5.3754964
-0.28426954 3.3080792 4.4713264
-0.29533619 3.4022627 3.7804599
-0.31061915 3.4457574 3.4796617
-0.32784796 3.6158545 3.0098963
-0.37234652 4.0830455 2.7726822
-0.81017715 8.8506241 4.7388258
-0.84594482 9.2060595 3.8234785
-1.0671989 11.569707 3.5051391
-0.96331865 10.403851 2.0751553
-0.87609738 9.4260893 0.94282603
-0.31218421 3.5181189 3.2268913
-0.34054565 3.8152144 2.8726134
-0.41952708 4.6818118 2.8478355
-0.80025232 8.8787785 4.2085505
-1.1404685 12.604485 4.4939437
-1.0284557 11.322536 2.8328035
-0.9169361 10.075307 1.5032573
-0.83631766 9.1541414 0.46448228
0.028502787 0.083913028 8.7339401
-0.08557906 1.3500097 8.5996723
-0.12486491 1.7902067 8.6511269
-0.074575767 0.97317779 3.1674278
-0.12398614 1.5492566 3.7210591
-0.25981212 3.1654739 5.8878546
-0.27276373 3.2676334 4.8884902
-0.28415152 3.3618333 4.1159744
0.011862493 0.51768857 8.7947311
-0.013907623 0.9522326 8.8391457
-0.060546219 0.83711272 3.2689323
-0.25584257 3.3302863 9.1372309
-0.12753913 1.6010014 3.3846574
-0.26269594 3.2354279 5.3797622
-0.2729679 3.3120544 4.4753165
-0.2837396 3.4066515 3.7841353
-0.29920474 3.4539263 3.4866705
-0.31590006 3.6247323 3.0161729
-0.35699627 4.0718241 2.7644579
-0.7792778 8.8533983 4.7388258
-0.81339645 9.204339 3.8216054
-1.0882765 12.266215 3.709594
-0.968835 10.876865 2.1646867
-0.88000417 9.840785 0.97993356
-0.30021873 3.522907 3.2302165
-0.32515448 3.7922165 2.8549547
-0.40540025 4.7090168 2.8630345
-0.76925474 8.8815184 4.2085505
-1.1676474 13.426958 4.7799144
-1.019367 11.674695 2.9172106
-0.9210369 10.527369 1.5661092
-0.83539724 9.5103569 0.478791
0.028795524 0.083813027 8.7339401
-0.080866121 1.3503001 8.5996723
-0.11861517 1.7906317 8.6511269
-0.071286827 0.97492093 3.1721995
-0.11842861 1.547732 3.7164567
-0.24913594 3.1711369 5.8966322
-0.26202857 3.2769814 4.9008894
-0.27267355 3.3659997 4.119812
0.013669492 0.51764405 8.7947311
-0.010583625 0.9522754 8.8391457
-0.057709705 0.83857292 3.2737718
-0.24434221 3.3328798 9.141923
-0.12178469 1.5992662 3.380156
-0.25180441 3.2415259 5.3882942
-0.26187888 3.3189952 4.4832969
-0.27211598 3.4110007 3.7878106
-0.28744176 3.458504 3.4901752
-0.30389416 3.6335704 3.02245
-0.34523511 4.102212 2.7836483
-0.74762291 8.8472357 4.7341886
-0.7812624 9.2071218 3.8216054
-1.1008385 12.919985 3.9013586
-0.97859764 11.438141 2.2710054
-0.88486218 10.300274 1.0210649
-0.28822368 3.5276551 3.233542
-0.31257758 3.8013852 2.8608408
-0.39073384 4.7318845 2.8757002
-0.73824775 8.8841496 4.2085505
-1.1690708 14.009768 4.9820662
-1.0407084 12.419261 3.096575
-0.92530733 11.019054 1.6344866
-0.84165484 9.9811726 0.4977349
0.029105455 0.083751947 8.7389402
-0.076108694 1.3497984 8.5947323
-0.1123004 1.7900186 8.6462317
-0.067883283 0.97516382 3.1721995
-0.11288323 1.5461874 3.711854
-0.23949836 3.1910934 5.9317451
-0.251017 3.2834876 4.9091554
-0.26116991 3.3701265 4.1236496
0.015476323 0.51759315 8.7947311
-0.0072594997 0.95230651 8.8391457
-0.054782189 0.83876926 3.2737718
-0.23294695 3.3371553 9.151309
-0.11620147 1.5996815 3.380156
-0.24087349 3.2475867 5.3968258
-0.25051832 3.3228936 4.487287
-0.26046541 3.4153099 3.7914853
-0.2756505 3.4630413 3.4936798
-0.29151958 3.638489 3.0255885
-0.33158576 4.1117282 2.7891312
-0.71637821 8.845377 4.7318697
-0.74911875 9.2097931 3.8216054
-1.118613 13.693511 4.1283736
-0.98284644 11.980024 2.3735936
-0.88447803 10.735094 1.0599607
-0.2761991 3.5323622 3.2368677
-0.300892 3.8226006 2.8755567
-0.37693185 4.7675982 2.8959658
-0.70759183 8.8911963 4.210649
-1.1197841 14.009055 4.9804225
-1.0397487 12.950927 3.2243576
-0.92893606 11.545445 1.7076986
-0.84463525 10.452142 0.51667881
0.029415313 0.083689734 8.7439404
-0.071396559 1.3500558 8.5947323
