# .PCD v0.7 - Point Cloud Data file format
VERSION 0.7
FIELDS x y z
SIZE 4 4 4
TYPE F F F
COUNT 1 1 1
WIDTH 1453
HEIGHT 1
VIEWPOINT 0 0 0 1 0 0 0
POINTS 1453
DATA ascii
-0.81953728 0.58065706 3.2580953
-0.96601689 0.67949843 2.8419769
-1.026291 0.71873915 2.3634241
-1.0018699 0.69957811 1.867305
-0.93516904 0.6515612 1.441234
-0.3874737 0.3369574 8.7198553
-0.7120893 0.57377309 8.4861679
-1.4688959 1.0505472 6.9904499
-0.9077431 0.6427415 3.0788693
-1.0071226 0.70897096 2.6104486
-1.0389578 0.72897983 2.1461844
-0.95265877 0.6667074 1.6144693
-0.92643476 0.64716709 1.3033991
-0.92049998 0.63849837 1.1806793
-0.89833349 0.622437 0.96362251
-0.88542622 0.61281943 0.79060239
-0.87922877 0.60808527 0.64614433
-0.87021351 0.60141027 0.51570243
-0.85288626 0.58900422 0.39460698
-0.84902471 0.58590591 0.28732237
-0.82796746 0.57095689 0.18323873
-0.9131943 0.63532698 1.071967
-0.88504237 0.61506402 0.86832118
-0.87958449 0.61082482 0.71489882
-0.88099194 0.61112821 0.58311623
-0.86203498 0.59754109 0.45419851
-0.84720856 0.58683497 0.33928433
-0.82637841 0.57219893 0.23240602
-0.82557225 0.57122386 0.13417313
-0.046052717 0.07561443 8.7239418
-1.1062322 0.8118071 8.7231531
-1.326493 0.96054554 7.8972621
-0.81750548 0.58351421 3.2580953
-0.96363914 0.68286628 2.8419769
-1.0257326 0.72369808 2.3678129
-1.0017232 0.70469028 1.8714379
-0.9355123 0.65666318 1.4450716
-0.38651171 0.33849883 8.7248468
-0.71090919 0.57692808 8.4961119
-1.4723581 1.0608127 7.0243258
-0.90830344 0.64791089 3.0882547
-1.0046417 0.71248209 2.6104486
-1.0385363 0.73410749 2.1504502
-0.95525086 0.67350173 1.6224493
-0.92694241 0.65234834 1.3070743
-0.92118871 0.64375061 1.1841838
-0.8961553 0.62556893 0.96362251
-0.88328165 0.61590642 0.79060239
-0.87710077 0.61115068 0.64614433
-0.87191337 0.60709327 0.51757544
-0.85082507 0.59197772 0.39460698
-0.85100758 0.59167022 0.28825498
-0.83005917 0.57668495 0.18368581
-0.91402853 0.64065397 1.0752926
-0.88289005 0.61814964 0.86832118
-0.87744695 0.61389148 0.71489882
-0.87885332 0.6141997 0.58311623
-0.85994393 0.60054654 0.45419851
-0.84914076 0.59257025 0.34045666
-0.82843751 0.5779134 0.23309669
-0.82357329 0.57410216 0.13417313
-0.045788493 0.075774722 8.7239418
-1.1046411 0.81658775 8.7330322
-1.3223094 0.96456975 7.8923669
-0.81425196 0.58549261 3.2533233
-0.9628396 0.68736124 2.8465796
-1.0251523 0.72866195 2.3722022
-1.0015531 0.70980996 1.8755709
-0.93583137 0.66177553 1.448909
-0.38532779 0.33984593 8.7248468
-0.71012801 0.58041966 8.5110264
-1.4747492 1.0703766 7.0533624
-0.90883875 0.65309203 3.0976403
-1.0039198 0.71725035 2.6149497
-1.0402162 0.74075431 2.158982
-0.95535058 0.67857718 1.6264393
-0.92742515 0.65754092 1.3107494
-0.92185199 0.64901537 1.1876884
-0.89714992 0.63093251 0.96676093
-0.88454777 0.62138957 0.79334384
-0.87858778 0.61675388 0.64846313
-0.869789 0.61013317 0.51757544
-0.85268158 0.59769762 0.39601701
-0.84893709 0.59463716 0.28825498
-0.82804114 0.57957894 0.18368581
-0.91483659 0.64599448 1.078618
-0.88402981 0.62355769 0.87126434
-0.87882215 0.61943424 0.71743202
-0.88041484 0.61987656 0.58521426
-0.86170435 0.60626191 0.45584202
-0.8510434 0.59832633 0.34162897
-0.82641512 0.58080161 0.23309669
-0.82565278 0.57984477 0.13437465
-0.045523711 0.075934097 8.7239418
-1.1017839 0.82043868 8.7330322
-1.3197548 0.96978265 7.8972621
-0.81220323 0.58833134 3.2533233
-0.96202028 0.69185877 2.851182
-1.0264968 0.73502493 2.3809803
-1.0036495 0.71657234 1.8838367
-0.93612593 0.66689807 1.4527465
-0.38413915 0.34118891 8.7248468
-0.71056443 0.58493054 8.5408554
-1.4750623 1.078486 7.0727201
-0.90795112 0.65727258 3.1023331
-1.0031767 0.72202218 2.6194508
-1.0397432 0.74590129 2.1632481
-0.95542634 0.68366146 1.6304293
-0.92512429 0.66077423 1.3107494
-0.92248958 0.65429258 1.191193
-0.89494205 0.63406032 0.96676093
-0.88578629 0.62688911 0.7960853
-0.8764295 0.6198169 0.64846313
-0.8714397 0.61584109 0.51944846
-0.85059005 0.60067034 0.39601701
-0.84685624 0.59759688 0.28825498
-0.82601297 0.58246577 0.18368581
-0.91561836 0.65134841 1.0819435
-0.88514256 0.62898117 0.8742075
-0.87665462 0.62249815 0.71743202
-0.87824571 0.62294602 0.58521426
-0.86343545 0.61199689 0.45748553
-0.85291612 0.60410285 0.3428013
-0.82842427 0.58654439 0.23378737
-0.82362372 0.58272332 0.13437465
-0.045277633 0.076131694 8.728941
-1.0989133 0.82427961 8.7330322
-1.3163615 0.97438353 7.8972621
-0.80893892 0.59028274 3.2485511
-0.95959938 0.69521266 2.851182
-1.025867 0.7400049 2.3853693
-1.0057107 0.72335792 1.8921027
-0.93639624 0.67203075 1.4565841
-0.38294584 0.34252775 8.7248468
-0.71343768 0.59149587 8.6005125
-1.4783725 1.0888472 7.106596
-0.90565133 0.66043794 3.1023331
-1.0024126 0.72679764 2.6239522
-1.0392468 0.75105381 2.1675138
-0.95547831 0.68875456 1.6344193
-0.92556369 0.66597968 1.3144246
-0.92310166 0.6595822 1.1946975
-0.89589137 0.63944179 0.96989942
-0.88359267 0.62997729 0.7960853
-0.87786835 0.62544298 0.65078193
-0.86928475 0.61887926 0.51944846
-0.85239691 0.6064167 0.39742702
-0.84476501 0.60054934 0.28825498
-0.82803452 0.5882296 0.18413289
-0.91637397 0.65671563 1.0852691
-0.8862282 0.6344201 0.87715065
-0.87798226 0.62806255 0.71996522
-0.87975848 0.62864661 0.58731234
-0.86129397 0.6150071 0.45748553
-0.85080224 0.60707635 0.3428013
-0.82637185 0.58943254 0.23378737
-0.8256529 0.58849442 0.13457619
-0.04501161 0.076289281 8.728941
-1.0966492 0.82857913 8.7379713
-1.3129523 0.97897261 7.8972621
-0.80567098 0.59221852 3.2437794
-0.95874476 0.69971001 2.8557847
-1.0271523 0.74639744 2.3941474
-1.0054582 0.72851539 1.8962357
-0.93664211 0.67717338 1.4604216
-0.38174787 0.34386235 8.7248468
-0.71136868 0.59398264 8.6005125
-1.4685065 1.0895064 7.077559
-0.90473104 0.66461712 3.1070261
-1.0016272 0.73157638 2.6284533
-1.038727 0.75621206 2.1717799
-0.95794451 0.69562703 1.6423994
-0.92597818 0.67119628 1.3180997
-0.92079365 0.66280043 1.1946975
-0.89681387 0.6448375 0.97303784
-0.8847844 0.63549721 0.79882681
-0.87567979 0.62850356 0.65078193
-0.87088627 0.62461179 0.52132148
-0.85027492 0.60938847 0.39742702
-0.84665728 0.60635465 0.28918761
-0.83002585 0.59401464 0.18457997
-0.91710317 0.66209608 1.0885946
-0.88728654 0.63987404 0.88009381
-0.87928182 0.63364398 0.72249836
-0.87755871 0.63171375 0.58731234
-0.86297524 0.62076741 0.45912904
-0.85262477 0.61287963 0.34397361
-0.82833081 0.59520328 0.23447806
-0.82765174 0.59428686 0.13477771
-0.044764012 0.076485217 8.7339401
-1.0943685 0.83287287 8.7429113
-1.309527 0.98354965 7.8972621
-0.80359888 0.59502721 3.2437794
-0.9578703 0.70420974 2.8603871
-1.0264732 0.75139314 2.3985367
-1.0074549 0.73533911 1.9045017
-0.93686336 0.68232584 1.464259
-0.38054523 0.34519285 8.7248468
-0.70806831 0.59543151 8.5855989
-1.486843 1.111183 7.1840267
-0.90240556 0.66777116 3.1070261
-1.0008209 0.73635864 2.6329546
-1.038184 0.7613759 2.1760459
-0.95794231 0.70074588 1.6463894
-0.92636746 0.67642385 1.321775
-0.92136139 0.66810423 1.198202
-0.89770967 0.65024751 0.97617632
-0.88256073 0.63858181 0.79882681
-0.87707031 0.634152 0.65310073
-0.87245828 0.63036305 0.52319455
-0.85203177 0.61516088 0.39883706
-0.84453553 0.6093064 0.28918761
-0.82794732 0.59690833 0.18457997
-0.91780603 0.66748959 1.09192
-0.88504755 0.64296734 0.88009381
-0.88055295 0.63924193 0.72503155
-0.87902236 0.63743764 0.58941036
-0.86080313 0.62377596 0.45912904
-0.85441697 0.61870289 0.34514591
-0.82624805 0.59809107 0.23447806
-0.82557225 0.59717232 0.13477771
-0.04449676 0.076641001 8.7339401
-1.0920711 0.83716077 8.7478504
-1.3036501 0.98627138 7.8825765
-0.80032057 0.59693599 3.2390072
-0.95540637 0.70754904 2.8603871
-1.0257714 0.75639313 2.4029255
-1.0116829 0.74385262 1.9169004
-0.93964422 0.68938434 1.4719341
-0.37933797 0.34651905 8.7248468
-0.70598561 0.5978995 8.5855989
-1.4909883 1.1224153 7.2227421
-0.90006912 0.67091709 3.1070261
-0.99999326 0.74114412 2.6374559
-1.0376177 0.766545 2.1803117
-0.96034175 0.70766085 1.6543695
-0.92673141 0.6816622 1.3254501
-0.91902363 0.67131627 1.198202
-0.89543438 0.65337718 0.97617632
-0.88370526 0.64412171 0.80156827
-0.87843186 0.63981777 0.65541953
-0.87025261 0.63340467 0.52319455
-0.84987926 0.61813122 0.39883706
-0.84240347 0.61225069 0.28918761
-0.82988811 0.60272127 0.18502705
-0.9184823 0.67289603 1.0952456
-0.88605952 0.64844006 0.88303697
-0.88179576 0.64485651 0.72756475
-0.88045669 0.64317936 0.59150839
-0.86243445 0.62956119 0.46077254
-0.85225213 0.62168157 0.34514591
-0.82415533 0.60097152 0.23447806
-0.82752037 0.60299265 0.13497925
-0.04422896 0.076795861 8.7339401
-1.0891421 0.84096766 8.7478504
-1.2977704 0.98896402 7.8678908
-0.79703885 0.59882915 3.2342353
-0.95293069 0.71087974 2.8603871
-1.0250474 0.7613976 2.4073148
-1.0136026 0.75072956 1.9251662
-0.93980968 0.69456536 1.4757715
-0.37812606 0.34784108 8.7248468
-0.70348907 0.60001379 8.5806274
-1.4990789 1.1367283 7.2808151
-0.89772171 0.6740548 3.1070261
-0.99740005 0.74463022 2.6374559
-1.0391198 0.77327663 2.1888437
-0.96028519 0.71280485 1.6583595
-0.9270702 0.6869114 1.3291253
-0.91954702 0.67663401 1.2017065
-0.89628434 0.65880418 0.97931474
-0.88145143 0.64720249 0.80156827
-0.87619305 0.6428802 0.65541953
-0.87177491 0.63917989 0.52506757
-0.85158598 0.62392932 0.4002471
-0.84422475 0.61808932 0.29012021
-0.82777911 0.60561442 0.18502705
-0.91612792 0.67609805 1.0952456
-0.88379067 0.65152907 0.88303697
-0.87953943 0.64793062 0.72756475
-0.88186157 0.64893895 0.59360647
-0.86023158 0.63256782 0.46077254
-0.85399365 0.62753099 0.34631824
-0.82205254 0.60384476 0.23447806
-0.82541054 0.60587752 0.13497925
-0.043960623 0.076949783 8.7339401
-1.0868131 0.84524149 8.7527885
-1.2918874 0.99162757 7.8532047
-0.79494369 0.60160768 3.2342353
-0.95200515 0.71537554 2.8649898
-1.0243009 0.766406 2.4117036
-1.0154865 0.75762898 1.9334321
-0.93995035 0.69975579 1.479609
-0.37690958 0.34915888 8.7248468
-0.70179427 0.6028136 8.5855989
-1.5010948 1.1465329 7.3098516
-0.89536333 0.67718434 3.1070261
-0.99653441 0.74941581 2.641957
-1.0385009 0.7784636 2.1931098
-0.9626174 0.71976173 1.6663395
-0.92738354 0.69217134 1.3328004
-0.91717952 0.67983973 1.2017065
-0.89397925 0.66192877 0.97931474
-0.88254863 0.652762 0.80430973
-0.87750596 0.64856786 0.65773833
-0.86953849 0.64221901 0.52506757
-0.8494029 0.62689811 0.4002471
-0.84206206 0.62103248 0.29012021
-0.82966894 0.61145473 0.18547413
-0.91675866 0.68151951 1.0985711
-0.88475609 0.65702009 0.88598019
-0.88073415 0.65356588 0.73009789
-0.87959099 0.65201324 0.59360647
-0.85801828 0.63556671 0.46077254
-0.851798 0.63050812 0.34631824
-0.81993967 0.60671055 0.23447806
-0.82329059 0.60875505 0.13497925
-0.043691751 0.077102765 8.7339401
-1.083856 0.84903002 8.7527885
-1.2860019 0.99426228 7.8385196
-0.79165184 0.60347372 3.2294633
-0.94950223 0.71869439 2.8649898
-1.0235319 0.77141851 2.4160929
-1.0195842 0.76624143 1.9458311
-0.94006628 0.70495576 1.4834466
-0.37568849 0.35047242 8.7248468
-0.70008856 0.60560882 8.5905704
-1.5060489 1.1586649 7.3534069
-0.89299411 0.6803056 3.1070261
-0.9939124 0.75288981 2.641957
-1.0378585 0.78365558 2.1973755
-0.96250588 0.72493052 1.6703296
-0.92767125 0.69744164 1.3364756
-0.91765827 0.68517083 1.2052112
-0.89478314 0.66737258 0.98245323
-0.88361776 0.65833706 0.80705118
-0.87878996 0.6542725 0.66005719
-0.86729145 0.64525038 0.52506757
-0.8510592 0.63272142 0.40165716
-0.84383225 0.62689751 0.29105285
-0.82752955 0.61434704 0.18547413
-0.91736269 0.68695366 1.1018965
-0.88569379 0.66252565 0.88892335
-0.88190001 0.65921724 0.73263109
-0.88094622 0.65779513 0.5957045
-0.85957921 0.64138204 0.46241605
-0.85348845 0.63638312 0.34749055
-0.82178736 0.61252844 0.23516873
-0.82116061 0.61162519 0.13497925
-0.043422345 0.077254802 8.7339401
-1.0808856 0.85280818 8.7527885
-1.2801138 0.99686801 7.8238339
-0.78954053 0.60623342 3.2294633
-0.9485411 0.72318906 2.869592
-1.0208329 0.77498657 2.4160929
-1.0191467 0.77149433 1.9499639
-0.94015718 0.71016502 1.4872841
-0.37446281 0.3517817 8.7248468
-0.69797027 0.60804898 8.5905704
-1.509943 1.1700754 7.3921223
-0.89061391 0.68341863 3.1070261
-0.99300885 0.75767535 2.6464584
-1.0371926 0.78885269 2.2016416
-0.96477062 0.73192871 1.6783097
-0.92793363 0.70272243 1.3401507
-0.91811097 0.69051361 1.2087157
-0.89555997 0.67282993 0.98559165
-0.88131428 0.66141748 0.80705118
-0.87650079 0.65733606 0.66005719
-0.86874348 0.65105408 0.52694058
-0.84884536 0.6356883 0.40165716
-0.8416388 0.62983924 0.29105285
-0.82936817 0.62021434 0.18592121
-0.9179399 0.69240022 1.105222
-0.88660383 0.66804588 0.89186651
-0.88303727 0.66488481 0.73516428
-0.8786447 0.6608662 0.5957045
-0.85733515 0.6443786 0.46241605
-0.85126185 0.6393584 0.34749055
-0.81964421 0.61539334 0.23516873
-0.82301688 0.61748612 0.13518077
-0.043152411 0.077405907 8.7339401
-1.0772942 0.85609251 8.7478504
-1.2750241 1.0000732 7.814043
-0.78623897 0.60807228 3.2246914
-0.94910961 0.72887594 2.8787971
-1.0200238 0.78000021 2.4204819
-1.0186852 0.77675366 1.9540969
-0.93767256 0.71344244 1.4872841
-0.3732326 0.35308665 8.7248468
-0.69584352 0.61048156 8.5905704
-1.5117941 1.17998 7.4211583
-0.88685769 0.68546772 3.1023331
-0.99208391 0.76246369 2.6509595
-1.0365027 0.79405451 2.2059073
-0.9646039 0.7371217 1.6822997
-0.92817038 0.70801353 1.3438259
-0.91853756 0.6958679 1.2122202
-0.89630949 0.67830092 0.98873013
-0.8823356 0.66701144 0.80979264
-0.87773544 0.66306192 0.66237599
-0.86646557 0.6540826 0.52694058
-0.85045087 0.64153647 0.4030672
-0.84335774 0.63573021 0.29198545
-0.8311758 0.62610197 0.18636829
-0.91551739 0.69560027 1.105222
-0.8842665 0.67113662 0.89186651
-0.8841455 0.67056811 0.73769742
-0.87994987 0.66666996 0.59780258
-0.85884541 0.65021777 0.46405956
-0.85290116 0.64525867 0.34866288
-0.82144082 0.62123781 0.23585941
-0.82484215 0.62336743 0.13538231
-0.042881951 0.077556066 8.7339401
-1.0742993 0.85984778 8.7478504
-1.2707266 1.0038865 7.8091478
-0.78411162 0.61081308 3.2246914
-0.94810474 0.73338002 2.8833997
-1.0191922 0.78501761 2.424871
-1.0181992 0.78201896 1.9582298
-0.93772036 0.71866107 1.4911215
-0.3719978 0.35438731 8.7248468
-0.6937083 0.61290681 8.5905704
-1.5135944 1.1899118 7.4501953
-0.88445956 0.68855929 3.1023331
-0.99113774 0.76725483 2.6554608
-1.0357893 0.79926121 2.2101734
-0.96680033 0.74416053 1.6902797
-0.92838144 0.71331477 1.347501
-0.92177302 0.70339721 1.2192293
-0.89703178 0.68378526 0.99186856
-0.88332856 0.67262059 0.81253409
-0.87894076 0.66880435 0.66469479
-0.86786735 0.65990925 0.5288136
-0.85202575 0.64740354 0.40447721
-0.84113348 0.63867021 0.29198545
-0.82898533 0.62899947 0.18636829
-0.91604865 0.70106107 1.1085476
-0.88512951 0.67667425 0.89480966
-0.88179946 0.67365032 0.73769742
-0.87761742 0.66973752 0.59780258
-0.86032528 0.65607524 0.46570307
-0.85064363 0.64823186 0.34866288
-0.82320648 0.62710226 0.23655009
-0.82663637 0.62926894 0.13558383
-0.042610969 0.077705279 8.7339401
-1.0712913 0.86359251 8.7478504
-1.2664181 1.007682 7.8042531
-0.78197473 0.61354637 3.2246914
-0.94862098 0.73908693 2.8926048
-1.0183378 0.79003865 2.42926
-1.0176889 0.78729039 1.9623629
-0.93774313 0.7238887 1.494959
-0.3707585 0.35568368 8.7248468
-0.69156468 0.61532462 8.5905704
-1.5074608 1.1936271 7.440516
-0.88205069 0.6916424 3.1023331
-0.99017 0.77204859 2.6599619
-1.0371112 0.80607319 2.2187052
-0.96657801 0.74937713 1.6942697
-0.92856675 0.71862614 1.3511763
-0.92213941 0.70878386 1.2227339
-0.89772654 0.68928283 0.99500704
-0.8842932 0.67824489 0.81527555
-0.88011664 0.67456317 0.66701359
-0.86923891 0.66575366 0.53068668
-0.84976071 0.6503737 0.40447721
-0.84280074 0.64458668 0.29291809
-0.83074129 0.63491338 0.18681537
-0.91359597 0.70425445 1.1085476
-0.88596445 0.682226 0.89775282
-0.88285893 0.67935336 0.74023062
-0.87887245 0.67556286 0.5999006
-0.86177486 0.66195101 0.46734658
-0.85223138 0.65415698 0.34983522
-0.82886994 0.63600123 0.23793145
-0.82443482 0.63215059 0.13558383
-0.04232173 0.077813692 8.728941
-1.0682703 0.8673268 8.7478504
-1.261304 1.0108225 7.7944622
-0.77982825 0.61627227 3.2246914
-0.94757205 0.74359989 2.8972073
-1.0174609 0.79506338 2.4336493
-1.0193737 0.79429758 1.9706287
-0.94027102 0.73109281 1.502634
-0.36951467 0.3569757 8.7248468
-0.68941253 0.61773485 8.5905704
-1.5042678 1.1996658 7.4453554
-0.87963104 0.69471711 3.1023331
-0.98918104 0.7768451 2.6644633
-1.0363446 0.81129622 2.222971
-0.96633118 0.75460136 1.6982597
-0.92872638 0.72394747 1.3548514
-0.92247951 0.71418172 1.2262385
-0.89839387 0.69479364 0.99814546
-0.88522905 0.68388391 0.81801701
-0.87775666 0.67763126 0.66701359
-0.87058026 0.67161554 0.53255969
-0.85128444 0.65626478 0.40588725
-0.84054559 0.64752465 0.29291809
-0.83246613 0.64084715 0.18726245
-0.9140811 0.70972919 1.111873
-0.8835777 0.68531442 0.89775282
-0.88388932 0.68507189 0.74276382
-0.87650901 0.6786266 0.5999006
-0.86319369 0.66784477 0.46899009
-0.85378814 0.66010094 0.35100752
-0.83056307 0.64191896 0.23862213
-0.826177 0.63807827 0.13578537
-0.042049855 0.077960946 8.728941
-1.0652362 0.87105036 8.7478504
-1.2569757 1.0145795 7.789567
-0.77650464 0.61806077 3.2199194
-0.94803566 0.74932629 2.9064121
-1.0165613 0.80009151 2.4380381
-1.0188084 0.79958844 1.9747616
-0.94023669 0.73634702 1.5064715
-0.36826634 0.35826337 8.7248468
-0.68685675 0.61978 8.5855989
-1.5010508 1.2056967 7.4501953
-0.87585032 0.69670886 3.0976403
-0.98646331 0.78029317 2.6644633
-1.0355543 0.81652385 2.2272372
-0.96605945 0.7598328 1.7022496
-0.92885995 0.72927862 1.3585266
-0.92279303 0.7195906 1.229743
-0.89903367 0.70031744 1.0012839
-0.88613653 0.68953788 0.82075852
-0.87888271 0.68341029 0.66933239
-0.86823058 0.67465037 0.53255969
-0.8527773 0.66217452 0.40729728
-0.84216106 0.65346617 0.29385069
-0.83022404 0.64374912 0.18726245
-0.91453916 0.7152158 1.1151985
-0.88436532 0.69088298 0.90069598
-0.88489038 0.69080585 0.74529696
-0.87771362 0.68447316 0.60199869
-0.86458194 0.6737566 0.47063357
-0.85147876 0.66307718 0.35100752
-0.83222491 0.64785624 0.23931281
-0.82394469 0.64095831 0.13578537
-0.041777462 0.078107253 8.728941
-1.0615896 0.87426937 8.7429113
-1.2550064 1.0202459 7.7993574
-0.77434242 0.62076747 3.2199194
-0.94694269 0.75384808 2.9110148
-1.0156389 0.80512315 2.4424274
-1.0204259 0.80663037 1.9830275
-0.94017702 0.74160969 1.5103091
-0.36701354 0.35954669 8.7248468
-0.6846891 0.62217385 8.5855989
-1.4997644 1.2133011 7.4647131
-0.87341297 0.69976193 3.0976403
-0.98543602 0.78508842 2.6689644
-1.0347399 0.82175565 2.231503
-0.96812487 0.76694286 1.7102298
-0.92896771 0.7346195 1.3622017
-0.92308015 0.7250104 1.2332475
-0.89964575 0.70585418 1.0044224
-0.8870151 0.69520634 0.82349998
-0.87997925 0.68920559 0.67165118
-0.8695209 0.68053424 0.53443271
-0.85046071 0.66514719 0.40729728
-0.84374535 0.65942687 0.29478332
-0.82797188 0.64664322 0.18726245
-0.91496998 0.72071433 1.1185241
-0.88512462 0.69646537 0.90363914
-0.88586235 0.69655514 0.74783015
-0.87888813 0.69033635 0.60409671
-0.86593932 0.67968601 0.47227708
-0.85298347 0.66904521 0.35217986
-0.83385527 0.65381283 0.24000348
-0.82563484 0.6469118 0.13598689
-0.041504562 0.078252614 8.728941
-1.0585314 0.87796962 8.7429113
-1.2545882 1.0272012 7.8189383
-0.77100968 0.62252873 3.2151475
-0.94582945 0.75837117 2.9156172
-1.0146939 0.81015795 2.4468162
-1.0220068 0.81369323 1.9912934
-0.94260162 0.74887502 1.517984
-0.36575627 0.3608256 8.7248468
-0.68212038 0.62419975 8.5806274
-1.5072124 1.228058 7.5227861
-0.870965 0.70280641 3.0976403
-0.98438734 0.78988612 2.6734657
-1.0339017 0.8269918 2.235769
-0.96779716 0.77219713 1.7142198
-0.92904943 0.73996997 1.3658769
-0.9233405 0.7304408 1.236752
-0.90023011 0.71140367 1.0075608
-0.88786489 0.70088929 0.82624143
-0.87756813 0.69227308 0.67165118
-0.87078077 0.68643534 0.53630573
-0.85190201 0.67108035 0.40870732
-0.84529817 0.66540647 0.29571593
-0.82570958 0.64952946 0.18726245
-0.91537368 0.7262246 1.1218495
-0.88268811 0.69955081 0.90363914
-0.88342547 0.69964314 0.74783015
-0.87647301 0.69340003 0.60409671
-0.86356145 0.68270463 0.47227708
-0.85064292 0.67201859 0.35217986
-0.83156794 0.65671957 0.24000348
-0.82337165 0.64978987 0.13598689
-0.041248336 0.078437112 8.7339401
-1.0554602 0.88165927 8.7429113
-1.258064 1.0374057 7.8629956
-0.76883191 0.62521625 3.2151475
-0.94317651 0.76166815 2.9156172
-1.0137259 0.81519598 2.4512055
-1.025746 0.82253754 2.0036924
-0.94248432 0.75416356 1.5218216
-0.3644945 0.36210015 8.7248468
-0.6799373 0.62657696 8.5806274
-1.5097175 1.2388942 7.5566626
-0.86716747 0.70475382 3.0929477
-0.98331708 0.79468596 2.6779668
-1.0350703 0.8338685 2.2443008
-0.9697932 0.77934611 1.7221999
-0.92910516 0.74532998 1.3695521
-0.92357427 0.73588187 1.2402567
-0.9007867 0.71696579 1.0106993
-0.88868588 0.70658678 0.82898289
-0.87861454 0.69808793 0.67396998
-0.86837935 0.68947071 0.53630573
-0.8495543 0.67404991 0.40870732
-0.84681946 0.67140502 0.29664856
-0.8273406 0.65550035 0.18770951
-0.91574985 0.73174632 1.125175
-0.88339978 0.70514947 0.9065823
-0.8843478 0.70541078 0.75036329
-0.87759686 0.69928372 0.60619479
-0.86486715 0.68865639 0.47392058
-0.84829193 0.6749838 0.35217986
-0.83314604 0.66270101 0.24069417
-0.82109851 0.65266001 0.13598689
-0.040974289 0.078580618 8.7339401
-1.0517818 0.88483775 8.7379713
-1.2638334 1.0495989 7.9217381
-0.7666449 0.62789619 3.2151475
-0.94202757 0.76618874 2.9202199
-1.0127352 0.82023716 2.4555948
-1.0272467 0.82964963 2.0119581
-0.94483709 0.76147181 1.5294967
-0.36322832 0.36337024 8.7248468
-0.677746 0.62894654 8.5806274
-1.5141029 1.2513645 7.6002169
-0.86470211 0.70777649 3.0929477
-0.98391354 0.80086237 2.6869693
-1.0341783 0.83911985 2.2485666
-0.97175097 0.78651834 1.7301799
-0.92913473 0.75069946 1.3732272
-0.92378116 0.74133354 1.2437612
-0.90131533 0.72254044 1.0138377
-0.88947779 0.71229845 0.83172441
-0.87963104 0.70391852 0.67628878
-0.86958796 0.6953932 0.5381788
-0.85094362 0.68000603 0.41011736
-0.84830928 0.67742229 0.2975812
-0.82504743 0.65838432 0.18770951
-0.91609865 0.73727959 1.1285006
-0.88408303 0.71076149 0.90952545
-0.88187999 0.70849347 0.75036329
-0.8751505 0.70234287 0.60619479
-0.86245799 0.69167113 0.47392058
-0.84972346 0.6809805 0.35335216
-0.83082765 0.66560519 0.24069417
-0.82271534 0.6586445 0.13618843
-0.040699739 0.078723162 8.7339401
-1.048094 0.88800126 8.7330322
-1.2726564 1.0644585 8.000062
-0.76329708 0.62961829 3.2103753
-0.93934739 0.76947236 2.9202199
-1.0117215 0.82528126 2.4599836
-1.0308931 0.83855796 2.0243571
-0.94466186 0.76678538 1.5333341
-0.36216041 0.36484152 8.7298393
-0.67554641 0.6313085 8.5806274
-1.5145556 1.2606634 7.6244144
-0.86222625 0.71079057 3.0929477
-0.98279548 0.80567229 2.6914704
-1.0332623 0.84437513 2.2528327
-0.97600597 0.79561788 1.7421501
-0.929138 0.756078 1.3769025
-0.92118776 0.74455363 1.2437612
-0.89878774 0.7256822 1.0138377
-0.88698602 0.71539897 0.83172441
-0.88061744 0.70976472 0.67860758
-0.87076563 0.70133245 0.54005182
-0.85230178 0.68598008 0.4115274
-0.8459394 0.68037927 0.2975812
-0.82274425 0.66126025 0.18770951
-0.91641992 0.74282408 1.131826
-0.88473797 0.71638697 0.91246861
-0.8827526 0.71427917 0.75289649
-0.87622315 0.70824653 0.60829288
-0.86371189 0.69764477 0.47556409
-0.84734124 0.68394244 0.35335216
-0.8284992 0.66850126 0.24069417
-0.82041121 0.66151226 0.13618843
-0.040424697 0.078864753 8.7339401
-1.0449879 0.89165443 8.7330322
-1.2798336 1.0780801 8.0685949
-0.76109463 0.63227892 3.2103753
-0.93665564 0.77274656 2.9202199
-1.0106851 0.83032829 2.4643729
-1.0323131 0.84571832 2.0326231
-0.94694227 0.77413589 1.5410092
-0.36088467 0.36610344 8.7298393
-0.67333865 0.63366276 8.5806274
-1.5149617 1.2699807 7.6486115
-0.86106747 0.71489847 3.0976403
-0.98333436 0.8118704 2.7004728
-1.032322 0.84963423 2.2570984
-0.97788036 0.80284429 1.7501302
-0.92911506 0.76146585 1.3805776
-0.92134881 0.75001615 1.2472657
-0.89926893 0.73127097 1.0169762
-0.88772881 0.72112733 0.83446586
-0.87813461 0.71283424 0.67860758
-0.86831224 0.7043677 0.54005182
-0.84990203 0.68895096 0.4115274
-0.84737635 0.68642002 0.29851383
-0.82430172 0.66726142 0.18815659
-0.9167136 0.74837983 1.1351515
-0.88536412 0.72202551 0.91541177
-0.88359553 0.72007954 0.75542969
-0.87726504 0.71416616 0.6103909
-0.86127138 0.70065546 0.47556409
-0.84494865 0.68689603 0.35335216
-0.82616067 0.67138916 0.24069417
-0.82197535 0.66752154 0.13638996
-0.04014916 0.079005376 8.7339401
-1.0412799 0.89479017 8.7280931
-1.2884839 1.0930824 8.1469183
-0.75888294 0.6349318 3.2103753
-0.93545496 0.77726012 2.9248226
-1.0114707 0.83690512 2.473151
-1.0336955 0.85289872 2.040889
-0.94670856 0.77947414 1.5448467
-0.35960454 0.36736095 8.7298393
-0.67112267 0.63600928 8.5806274
-1.5105194 1.275261 7.6486115
-0.85856676 0.7178998 3.0976403
-0.98384178 0.81808192 2.7094753
-1.0333655 0.85656154 2.2656305
-0.98203808 0.81201369 1.7621001
-0.92906588 0.76686269 1.3842528
-0.9214828 0.75548887 1.2507702
-0.89972204 0.73687202 1.0201148
-0.8884424 0.72686946 0.83720732
-0.87907034 0.71869916 0.68092638
-0.86943829 0.71032757 0.54192483
-0.85120791 0.69494736 0.4129374
-0.84497511 0.68937379 0.29851383
-0.82582724 0.67328155 0.18860367
-0.91697967 0.7539466 1.138477
-0.88596177 0.72767723 0.91835493
-0.88440859 0.72589457 0.75796282
-0.87476683 0.717224 0.6103909
-0.86247301 0.70665038 0.4772076
-0.8463065 0.69292051 0.35452449
-0.82764417 0.67740554 0.24138485
-0.82350737 0.67354965 0.13659149
-0.039856661 0.079104654 8.728941
-1.039325 0.89943671 8.7379713
-1.2993668 1.1101428 8.2399282
-0.75666195 0.63757688 3.2103753
-0.93273616 0.78052074 2.9248226
-1.010383 0.84196407 2.47754
-1.0350404 0.86009914 2.0491548
-0.94644904 0.78482002 1.5486841
-0.35832003 0.36861396 8.7298393
-0.66889846 0.6383481 8.5806274
-1.5070162 1.2813404 7.653451
-0.85737538 0.72200418 3.1023331
-0.9843179 0.82430691 2.7184777
-1.0323713 0.86183506 2.2698965
-0.98382843 0.81929356 1.7700801
-0.93159711 0.7744357 1.3916031
-0.92158997 0.76097167 1.2542748
-0.89714438 0.74000812 1.0201148
-0.88912678 0.73262548 0.83994877
-0.87997591 0.72457927 0.68324518
-0.87053323 0.71630383 0.54379785
-0.84877688 0.69791436 0.4129374
-0.84256357 0.6923191 0.29851383
-0.82347202 0.67616016 0.18860367
-0.91721797 0.75952441 1.1418025
-0.88653076 0.73334187 0.92129809
-0.88519192 0.73172402 0.76049602
-0.87575752 0.72316313 0.61248899
-0.86364329 0.71266222 0.47885111
-0.84388262 0.69587046 0.35452449
-0.82527453 0.6802904 0.24138485
-0.82500738 0.6795966 0.13679302
-0.039580289 0.079243295 8.728941
-1.0320797 0.89948434 8.7033968
-1.2923971 1.1120148 8.2203474
-0.75329393 0.63924819 3.2056036
-0.93000591 0.78377181 2.9248226
-1.0111066 0.8485654 2.4863181
-1.0363475 0.86731923 2.0574207
-0.94862378 0.7922284 1.5563592
-0.35723096 0.37007084 8.7348309
-0.66666615 0.64067906 8.5806274
-1.503489 1.2874106 7.6582904
-0.85616577 0.72610897 3.1070261
-0.98476243 0.83054513 2.7274802
-1.0313528 0.86711186 2.2741623
-0.98788846 0.82853216 1.7820503
-0.93148744 0.7798593 1.3952782
-0.9216699 0.76646435 1.2577794
-0.89754969 0.74562258 1.0232532
-0.88656402 0.73572463 0.83994877
-0.87744135 0.72764653 0.68324518
-0.87159705 0.72229636 0.54567093
-0.85003012 0.70393258 0.41434744
-0.84392619 0.6983878 0.29944643
-0.82494444 0.68220413 0.18905075
-0.91742849 0.765113 1.145128
-0.88707101 0.73901933 0.92424124
-0.88594514 0.73756766 0.76302922
-0.87671721 0.72911775 0.61458701
-0.86478198 0.71869087 0.48049462
-0.84518772 0.70191735 0.3556968
-0.82670492 0.68633026 0.24207552
-0.82647508 0.68566215 0.13699456
-0.039303441 0.079380974 8.728941
-1.0254307 0.9000051 8.6737604
-1.2931238 1.1205208 8.2497187
-0.75105792 0.64187378 3.2056036
-0.92726445 0.78701335 2.9248226
-1.0099674 0.85363585 2.4907072
-1.0354651 0.8727451 2.0615535
-0.94830555 0.79759824 1.5601966
-0.35593697 0.3713156 8.7348309
-0.66442573 0.64300227 8.5806274
-1.4999377 1.2934721 7.6631298
-0.85493803 0.73021412 3.1117187
-0.98517543 0.83679646 2.7364826
-1.0323002 0.87407762 2.2826943
-0.98959404 0.83586454 1.7900304
-0.93135118 0.78529149 1.3989534
-0.92172271 0.77196693 1.2612839
-0.89792669 0.75124878 1.0263916
-0.88719869 0.74149644 0.84269029
-0.87829578 0.73354453 0.68556398
-0.86907047 0.72533441 0.54567093
-0.85125166 0.70996803 0.41575748
-0.84148324 0.70132941 0.29944643
-0.8225581 0.68507957 0.18905075
-0.91761112 0.77071226 1.1484535
-0.88758218 0.74470931 0.9271844
-0.88336521 0.74065566 0.76302922
-0.87764603 0.73508793 0.61668509
-0.86588907 0.72473603 0.48213813
-0.84646076 0.70798188 0.35686913
-0.82430416 0.68921179 0.24207552
-0.82791042 0.69174618 0.13719608
-0.039026108 0.079517685 8.728941
-1.0222828 0.90357906 8.6737604
-1.2922727 1.1277063 8.2692986
-0.74768156 0.64351755 3.2008314
-0.92599642 0.79151487 2.929425
-1.0088052 0.85870862 2.4950962
-1.0367029 0.87999666 2.0698195
-0.95040685 0.80504727 1.5678717
-0.3546387 0.37255576 8.7348309
-0.66217721 0.64531761 8.5806274
-1.4963624 1.2995241 7.6679692
-0.85238391 0.73319387 3.1117187
-0.98555672 0.84306079 2.7454851
-1.0312271 0.87936813 2.2869601
-0.99126035 0.84321886 1.7980103
-0.93118834 0.79073226 1.4026285
-0.92174834 0.77747911 1.2647884
-0.89827526 0.75688672 1.02953
-0.88780397 0.74728167 0.84543175
-0.87911987 0.73945749 0.68788278
-0.87008196 0.73134661 0.54754394
-0.85244131 0.71602046 0.41716751
-0.84655499 0.71057886 0.30131167
-0.82397717 0.69114703 0.18949783
-0.91776592 0.77632219 1.1517791
-0.88806456 0.75041199 0.93012756
-0.88406801 0.74651593 0.76556236
-0.87854385 0.74107337 0.61878312
-0.86696452 0.73079771 0.48378164
-0.84398425 0.71093225 0.35686913
-0.82568127 0.69527465 0.2427662
-0.8293134 0.69784862 0.13739762
-0.038748302 0.079653427 8.728941
-1.0139005 0.90249097 8.6293077
-1.2913873 1.1348994 8.2888803
-0.74543077 0.64612353 3.2008314
-0.92470837 0.79601717 2.9340274
-1.0094379 0.86534262 2.5038743
-1.0357636 0.88543874 2.0739524
-0.95002919 0.81044024 1.5717092
-0.35333607 0.37379143 8.7348309
-0.65992057 0.64762515 8.5806274
-1.4927632 1.3055671 7.6728086
-0.85112351 0.73729491 3.1164114
-0.98425704 0.8479169 2.7499864
-1.0301297 0.88466173 2.2912261
-0.99059916 0.84863442 1.8020003
-0.93099886 0.79618144 1.4063038
-0.92174673 0.78300089 1.268293
-0.89859551 0.76253623 1.0326686
-0.88519007 0.75037611 0.84543175
-0.87991327 0.74538511 0.69020158
-0.86752385 0.73437929 0.54754394
-0.85359913 0.72208995 0.41857755
-0.84782082 0.71670085 0.30224431
-0.82536387 0.69723272 0.18994491
-0.91789252 0.78194249 1.1551045
-0.88543969 0.75350732 0.93012756
-0.88145679 0.74959737 0.76556236
-0.87941051 0.74707407 0.6208812
-0.86440831 0.73381954 0.48378164
-0.845204 0.71701843 0.35804144
-0.82702613 0.70135558 0.24345689
-0.82687235 0.70073926 0.13739762
-0.038470026 0.079788201 8.728941
-1.0020677 0.89824253 8.5552187
-1.2904674 1.1421001 8.3084612
-0.74204648 0.64773983 3.1960595
-0.92340016 0.80052 2.9386299
-1.0082239 0.87042624 2.5082636
-1.034799 0.89088494 2.0780854
-0.94962561 0.81584036 1.5755466
-0.35183224 0.37481138 8.7298393
-0.65765589 0.6499247 8.5806274
-1.4881968 1.3107699 7.6728086
-0.84984493 0.74139607 3.1211042
-0.98457968 0.85420102 2.7589886
-1.0309803 0.89166456 2.299758
-0.99219358 0.85602415 1.8099804
-0.93078268 0.80163884 1.4099789
-0.9217177 0.78853208 1.2717975
-0.8988871 0.76819718 1.035807
-0.88574541 0.75617647 0.8481732
-0.88067597 0.75132722 0.69252038
-0.86848283 0.74041069 0.54941696
-0.85472488 0.72817618 0.41998756
-0.84905422 0.72284031 0.30317691
-0.82671797 0.70333654 0.19039199
-0.91799116 0.78757304 1.15843
-0.88587308 0.759224 0.93307072
-0.88210881 0.75547385 0.76809555
-0.88024586 0.75308973 0.62297922
-0.86543065 0.73990107 0.48542514
-0.84269601 0.71996439 0.35804144
-0.82457292 0.70423812 0.24345689
-0.82822144 0.70686454 0.13759914
-0.038191278 0.079921998 8.728941
-0.9897005 0.8934018 8.4761906
-1.2887527 1.1486305 8.3231468
-0.73978096 0.65032607 3.1960595
-0.92354321 0.80630857 2.947835
-1.0069866 0.87551188 2.5126526
-1.035935 0.89817882 2.0863512
-0.95161963 0.82334495 1.5832217
-0.35052177 0.37603721 8.7298393
-0.65538323 0.65221643 8.5806274
-1.4845526 1.3167909 7.6776481
-0.84725177 0.74435806 3.1211042
-0.98487037 0.86049759 2.7679911
-1.029828 0.89697093 2.3040237
-0.99147385 0.86145884 1.8139704
-0.93053967 0.80710447 1.4136541
-0.92166114 0.79407245 1.2753021
-0.89915019 0.77386945 1.0389454
-0.886271 0.76198989 0.85091466
-0.88140792 0.75728363 0.69483918
-0.8694104 0.74645787 0.55129004
-0.85581845 0.73427898 0.4213976
-0.85398412 0.73219448 0.30504215
-0.82425785 0.706218 0.19039199
-0.91806167 0.7932139 1.1617556
-0.88627732 0.76495278 0.93601388
-0.87946635 0.75854838 0.76809555
-0.8776117 0.75615776 0.62297922
-0.86284262 0.74291748 0.48542514
-0.84386224 0.72607177 0.35921374
-0.82586396 0.71034139 0.24414757
-0.82953769 0.71300781 0.13780068
-0.037912067 0.08005482 8.728941
-0.96703315 0.87907475 8.3082561
-1.2870084 1.1551629 8.3378325
-0.73638886 0.65191472 3.1912875
-0.92219013 0.8108176 2.9524376
-1.0057261 0.88059944 2.5170417
-1.0349131 0.90364045 2.0904841
-0.95115626 0.82876736 1.5870591
-0.34920701 0.37725848 8.7298393
-0.65310258 0.65450019 8.5806274
-1.4808844 1.3228024 7.6824875
-0.8446483 0.74731094 3.1211042
-0.98349488 0.86536837 2.7724922
-1.0286514 0.90228027 2.30829
-0.99299592 0.86888325 1.8219506
-0.93282288 0.81480849 1.4210044
-0.92157727 0.79962218 1.2788066
-0.89938456 0.77955282 1.0420839
-0.88676685 0.76781613 0.85365611
-0.88210899 0.7632544 0.69715798
-0.86679947 0.74948806 0.55129004
-0.85325015 0.73726183 0.4213976
-0.85142308 0.73517096 0.30504215
-0.82555807 0.71234429 0.19083907
-0.91810387 0.79886472 1.165081
-0.88665217 0.77069354 0.93895704
-0.88006759 0.76444066 0.77062875
-0.87839472 0.76219112 0.62507725
-0.86381173 0.74901843 0.48706865
-0.84132254 0.72901303 0.35921374
-0.82712251 0.71646225 0.24483825
-0.83082104 0.71916884 0.1380022
-0.037647732 0.080227509 8.7339401
-0.94104052 0.86145175 8.1106853
-1.2844787 1.1610141 8.3476229
-0.73410887 0.65448123 3.1912875
-0.92081672 0.81532699 2.9570401
-1.0044423 0.88568884 2.5214307
-1.0359787 0.91096419 2.0987501
-0.95066667 0.83419669 1.5908966
-0.34788802 0.37847513 8.7298393
-0.65081394 0.65677595 8.5806274
-1.4790612 1.3304859 7.6970057
-0.84074634 0.74910659 3.1164114
-0.98372656 0.87168401 2.7814946
-1.0294045 0.90931904 2.3168218
-0.99447823 0.87632877 1.8299305
-0.93251836 0.82029903 1.4246795
-0.92146575 0.80518091 1.2823112
-0.89959008 0.78524727 1.0452224
-0.8872326 0.77365506 0.85639757
-0.87943935 0.76632881 0.69715798
-0.86767405 0.75555372 0.55316305
-0.85429019 0.74338484 0.42280763
-0.85255843 0.74136186 0.30597478
-0.82682544 0.71848816 0.19128615
-0.9181177 0.80452549 1.1684066
-0.88699782 0.77644622 0.94190019
-0.88063836 0.7703464 0.77316189
-0.87914628 0.7682392 0.62717533
-0.86119187 0.75202918 0.48706865
-0.842435 0.73514128 0.36038607
-0.82461655 0.71934509 0.24483825
-0.8320716 0.72534746 0.13820374
-0.037367456 0.080358438 8.7339401
-0.93060321 0.85788256 8.0464754
-1.2819239 1.1668619 8.3574133
-0.73181975 0.65703976 3.1912875
-0.91796511 0.81853628 2.9570401
-1.0031353 0.89078003 2.5258198
-1.034899 0.91644055 2.1028829
-0.95255232 0.84175533 1.5985717
-0.34656477 0.37968719 8.7298393
-0.64851743 0.65904367 8.5806274
-1.4753393 1.3364846 7.7018452
-0.83812636 0.75203675 3.1164114
-0.98230201 0.87656212 2.785996
-1.0281726 0.91464025 2.3210876
-0.99592048 0.8837952 1.8379105
-0.93472439 0.82804549 1.4320298
-0.92132676 0.81074858 1.2858157
-0.90269011 0.79352248 1.0514992
-0.88766849 0.77950644 0.85913903
-0.88008851 0.77231592 0.69947678
-0.86851692 0.76163453 0.55503613
-0.85169005 0.74636233 0.42280763
-0.84996539 0.74433333 0.30597478
-0.82806015 0.72464967 0.19173324
-0.91810322 0.8101961 1.1717321
-0.88731408 0.78221077 0.94484335
-0.88441324 0.77911508 0.77822834
-0.8764593 0.77130324 0.62717533
-0.86210757 0.75814921 0.48871216
-0.84351474 0.74128598 0.36155838
-0.82582086 0.72548753 0.24552894
-0.83328897 0.73154348 0.13840528
-0.037086725 0.080488384 8.7339401
-0.92760307 0.86112577 8.0464754
-1.2800944 1.173394 8.3720989
-0.72952181 0.65959024 3.1912875
-0.91510224 0.82173562 2.9570401
-1.0018049 0.89587283 2.5302088
-1.035894 0.92379373 2.1111491
-0.95200247 0.84720612 1.6024091
-0.34523731 0.3808946 8.7298393
-0.646213 0.6613034 8.5806274
-1.4771647 1.3475572 7.7357211
-0.83549613 0.75495785 3.1164114
-0.98085523 0.88144088 2.7904971
-1.026916 0.91996402 2.3253536
-0.99732268 0.89128226 1.8458906
-0.93435782 0.83356017 1.4357051
-0.92382896 0.81869054 1.2928247
-0.90282899 0.79924875 1.0546377
-0.88807434 0.78537047 0.86188054
-0.88070643 0.7783168 0.70179558
-0.86932778 0.76773041 0.55690914
-0.85267627 0.752505 0.42421767
-0.84736204 0.74729574 0.30597478
-0.82926172 0.73082834 0.19218032
-0.92085117 0.81835675 1.1783831
-0.8876009 0.78798687 0.94778651
-0.88491273 0.78505838 0.78076148
-0.87715816 0.77736831 0.62927336
-0.85945588 0.76115394 0.48871216
-0.84456182 0.74744725 0.36273071
-0.82699227 0.73164713 0.24621962
-0.83821619 0.74106598 0.13880834
-0.03680554 0.080617353 8.7339401
-0.9211868 0.86117351 8.016839
-1.2774868 1.1792367 8.3818903
-0.72611147 0.66112763 3.1865156
-0.91512609 0.82754594 2.9662452
-1.0004512 0.90096724 2.5345981
-1.0368501 0.9311648 2.119415
-0.95381296 0.85480273 1.6100842
-0.34409803 0.3823126 8.7348309
-0.64390063 0.66355515 8.5806274
-1.4696752 1.3501538 7.7212029
-0.83285576 0.75786966 3.1164114
-0.97938651 0.88632023 2.7949984
-1.0275711 0.92703742 2.3338854
-0.9986847 0.89878988 1.8538706
-0.93396425 0.83908242 1.4393802
-0.92362618 0.82428497 1.2963293
-0.90293878 0.80498564 1.0577762
-0.88844997 0.79124671 0.864622
-0.87798423 0.78138632 0.70179558
-0.86664265 0.7707603 0.55690914
-0.85362989 0.75866354 0.42562771
-0.84842116 0.75351107 0.30690739
-0.83043015 0.73702425 0.19262739
-0.92077106 0.82405621 1.1817086
-0.88785815 0.79377455 0.95072967
-0.8853817 0.79101479 0.78329468
-0.87782532 0.7834475 0.63137144
-0.86031783 0.76729256 0.49035567
-0.84557623 0.75362486 0.36390302
-0.83182806 0.74111784 0.24760097
-0.83935553 0.74730951 0.13900986
-0.036523908 0.080745332 8.7339401
-0.92552763 0.87131 8.0810499
-1.2748539 1.1850754 8.3916798
-0.72379929 0.6636582 3.1865156
-0.9136762 0.83205098 2.9708476
-0.99907404 0.90606296 2.5389869
-1.0377673 0.93855375 2.1276808
-0.9555822 0.86242229 1.6177592
-0.34276146 0.38351139 8.7348309
-0.64194989 0.66618294 8.5855989
-1.4667985 1.3569832 7.7308817
-0.8302052 0.76077223 3.1164114
-0.97789544 0.89120007 2.7994995
-1.0262591 0.93237245 2.3381512
-0.99777395 0.90429425 1.8578608
-0.93605727 0.84688669 1.4467305
-0.92339545 0.82988793 1.2998339
-0.90301955 0.81073302 1.0609146
-0.88879532 0.79713506 0.86736345
-0.87855005 0.78740293 0.70411438
-0.86740017 0.77687371 0.55878216
-0.8545509 0.76483792 0.42703772
-0.84944713 0.7597428 0.30784002
-0.83156538 0.74323714 0.19307446
-0.9206624 0.82976508 1.185034
-0.8880856 0.79957354 0.95367283
-0.88261509 0.79410052 0.78329468
-0.87846065 0.78954089 0.63346946
-0.8611474 0.77344644 0.49199918
-0.84294039 0.75657189 0.36390302
-0.83292192 0.74732411 0.24829166
-0.84046155 0.75357002 0.1392114
-0.036241833 0.080872335 8.7339401
-0.94277406 0.89378649 8.2588634
-1.2721959 1.1909103 8.4014702
-0.72147828 0.66618067 3.1865156
-0.90500742 0.82995272 2.9524376
-0.99767351 0.91116017 2.5433762
-1.0386456 0.94596052 2.1359468
-0.9549377 0.86790848 1.6215967
-0.34142062 0.38470551 8.7348309
-0.6396206 0.66841972 8.5855989
-1.4602135 1.360381 7.7212029
-0.8288126 0.76483607 3.1211042
-0.97638237 0.89608026 2.8040009
-1.0268463 0.93947023 2.3466833
-0.9990623 0.91183448 1.8658408
-0.93560129 0.85243237 1.4504057
-0.92578113 0.83789271 1.306843
-0.90307117 0.81649071 1.0640531
-0.88911045 0.8030355 0.87010491
-0.87908453 0.79343301 0.70643318
-0.86812556 0.7830019 0.56065518
-0.85543919 0.77102792 0.42844775
-0.85043991 0.76599091 0.30877262
-0.83266735 0.7494669 0.19352154
-0.92052507 0.83548331 1.1883595
-0.88828355 0.80538374 0.95661598
-0.8830322 0.800071 0.78582788
-0.87906402 0.7956481 0.63556755
-0.86194438 0.77961528 0.49364269
-0.84390026 0.76276904 0.36507532
-0.83398247 0.75354701 0.24898234
-0.84153396 0.75984728 0.13941292
-0.035959315 0.080998354 8.7339401
-0.96043652 0.91693056 8.4416161
-1.2717352 1.1988368 8.4259472
-0.71805549 0.6676783 3.1817434
-0.92076075 0.85034001 3.0122702
-0.99624962 0.91625863 2.5477653
-1.0394846 0.9533847 2.1442127
-0.95663089 0.87556499 1.6292717
-0.34007567 0.38589495 8.7348309
-0.63765019 0.67103523 8.5905704
-1.4517897 1.3620293 7.7018452
-0.82613772 0.76772451 3.1211042
-0.97484702 0.90096068 2.808502
-1.0254786 0.94481629 2.3509493
-0.9980917 0.91735548 1.8698307
-0.93511796 0.8579852 1.4540808
-0.92548627 0.8435216 1.3103476
-0.90309346 0.82225859 1.0671915
-0.88939506 0.8089478 0.87284636
-0.87630957 0.79649669 0.70643318
-0.86538702 0.78602743 0.56065518
-0.85629451 0.77723336 0.42985779
-0.85139936 0.77225506 0.30970526
-0.83373594 0.7557134 0.19396862
-0.92035902 0.8412106 1.1916851
-0.8884517 0.81120509 0.95955914
-0.88341844 0.80605423 0.78836101
-0.87963545 0.8017692 0.63766557
-0.86270881 0.78579926 0.49528623
-0.84123254 0.76571018 0.36507532
-0.83500975 0.75978637 0.24967301
-0.83887649 0.76278019 0.13941292
-0.03567636 0.081123382 8.7339401
-0.96674937 0.92943501 8.5255833
-1.2778794 1.2130847 8.4944801
-0.71572047 0.67018074 3.1817434
-0.92493916 0.86020207 3.0352831
-0.99480224 0.92135817 2.5521543
-1.0402845 0.96082628 2.1524785
-0.95828223 0.88324374 1.6369468
-0.33891597 0.3872976 8.7398224
-0.63530397 0.67325693 8.5905704
-1.4497674 1.3696789 7.7163634
-0.82471263 0.77178288 3.125797
-0.97488296 0.90732461 2.8175044
-1.0259979 0.95193815 2.3594811
-0.99930596 0.92492777 1.8778108
-0.93709713 0.86584574 1.4614313
-0.92516339 0.84915864 1.3138521
-0.9030866 0.82803661 1.07033
-0.88656592 0.81204748 0.87284636
-0.87679148 0.80254179 0.70875198
-0.86605877 0.79217237 0.56252825
-0.85711706 0.78345424 0.43126783
-0.85232538 0.77853531 0.31063786
-0.83109295 0.75861907 0.19396862
-0.92016411 0.8469469 1.1950105
-0.89156532 0.81977332 0.96544552
-0.88377362 0.81204987 0.79089421
-0.88017493 0.80790389 0.63976365
-0.85996062 0.7888059 0.49528623
-0.84213769 0.77192634 0.36624765
-0.83235252 0.7626965 0.24967301
-0.83620882 0.76570374 0.13941292
-0.03539297 0.081247419 8.7339401
-0.97633487 0.94523829 8.6391859
-1.2846754 1.2280936 8.5679083
-0.712291 0.67165077 3.1769717
-0.93048555 0.87143934 3.0628982
-0.99333125 0.92645866 2.5565434
-1.0389847 0.9663682 2.1566114
-0.9598915 0.89094466 1.6446217
-0.33756202 0.38847828 8.7398224
-0.63331401 0.67585993 8.595542
-1.4495302 1.3790635 7.7405605
-0.82201362 0.77465695 3.125797
-0.97488636 0.91369969 2.8265069
-1.0264797 0.95907509 2.3680129
-0.99827546 0.9304651 1.8818009
-0.9365508 0.87142098 1.4651064
-0.92481244 0.85480368 1.3173567
-0.9030503 0.83382446 1.0734684
-0.88679934 0.8179723 0.87558782
-0.87724191 0.80859989 0.71107078
-0.86669797 0.7983315 0.56440127
-0.85790634 0.78969014 0.43267787
-0.85321796 0.7848314 0.3115705
-0.83210617 0.76488572 0.1944157
-0.91994035 0.85269195 1.198336
-0.89166403 0.82562673 0.96838868
-0.8809337 0.81512982 0.79089421
-0.88068217 0.8140521 0.64186168
-0.86067069 0.79500723 0.49692973
-0.83943802 0.77486128 0.36624765
-0.83332449 0.76895553 0.25036371
-0.82985818 0.76523125 0.1392114
-0.035109147 0.081370465 8.7339401
-0.97859138 0.95406634 8.6885786
-1.2884485 1.2403396 8.6217556
-0.70994216 0.674133 3.1769717
-0.93454355 0.88138497 3.0859108
-0.99183685 0.93156022 2.5609324
-1.0376587 0.97191292 2.1607444
-0.95911711 0.89647871 1.6484592
-0.3362039 0.38965422 8.7398224
-0.63095099 0.67806649 8.595542
-1.451968 1.3910725 7.7792764
-0.8205561 0.77870971 3.1304898
-0.97485703 0.92008585 2.8355093
-1.025025 0.96443957 2.3722787
-0.99941528 0.93806875 1.889781
-0.93597704 0.87700301 1.4687816
-0.92443323 0.86045653 1.3208612
-0.90013415 0.83697164 1.0734684
-0.88700241 0.82390875 0.87832928
-0.87766063 0.81467086 0.71338952
-0.86730474 0.80450481 0.56627429
-0.85514456 0.79267997 0.43267787
-0.85047317 0.7878049 0.3115705
-0.8367402 0.77455157 0.19530986
-0.91968763 0.85844582 1.2016616
-0.89173281 0.83149093 0.97133183
-0.88123661 0.82113868 0.79342741
-0.87783527 0.81712133 0.64186168
-0.86134779 0.80122286 0.49857324
-0.84028816 0.7810961 0.36741996
-0.83426279 0.77523071 0.25105438
-0.83084285 0.77152288 0.13941292
-0.034824897 0.081492528 8.7339401
-0.98079801 0.96292156 8.7379713
-1.2738775 1.2349057 8.5532217
-0.70758468 0.67660707 3.1769717
-0.93571055 0.88867843 3.0997183
-0.99205875 0.93830842 2.5697107
-1.0363066 0.97746003 2.1648772
-0.96064967 0.90421516 1.6561341
-0.33484173 0.39082542 8.7398224
-0.62858027 0.68026477 8.595542
-1.4480077 1.3970051 7.7841153
-0.81783295 0.78156924 3.1304898
-0.97479498 0.92648292 2.8445115
-1.0254383 0.97159952 2.3808105
-1.0005141 0.94569159 1.897761
-0.93537569 0.88259161 1.4724567
-0.92402589 0.86611712 1.3243657
-0.9000482 0.84276909 1.0766069
-0.88717461 0.8298564 0.88107073
-0.87804765 0.82075459 0.71570832
-0.86449116 0.80752736 0.56627429
-0.85587907 0.79893363 0.43408787
-0.85131001 0.79411954 0.3125031
-0.83767414 0.78086329 0.19575694
-0.92212641 0.86676562 1.2083125
-0.89177138 0.83736545 0.97427499
-0.88150847 0.8271597 0.79596055
-0.87828881 0.82328445 0.6439597
-0.86199194 0.80745298 0.50021678
-0.84110487 0.78734612 0.36859229
-0.83878332 0.78490537 0.25243574
-0.82814467 0.77441841 0.13941292
-0.034540221 0.081613585 8.7339401
-0.98129749 0.97016436 8.7725468
-1.2666453 1.2364995 8.5336418
-0.70521861 0.67907286 3.1769717
-0.93824965 0.89734119 3.1181283
-0.99224555 0.94506943 2.5784888
-1.0349287 0.98300964 2.1690104
-0.95981371 0.9097681 1.6599717
-0.33347544 0.39199182 8.7398224
-0.62584192 0.68206149 8.5905704
-1.4323051 1.391539 7.7260423
-0.81509972 0.78441924 3.1304898
-0.97470009 0.93289071 2.853514
-1.0239273 0.97697365 2.3850765
-1.001572 0.9533335 1.905741
-0.93720412 0.890522 1.479807
-0.92359024 0.87178534 1.3278702
-0.89993274 0.84857613 1.0797453
-0.88731605 0.83581531 0.88381225
-0.87840277 0.82685095 0.71802717
-0.86504382 0.81371653 0.5681473
-0.85658026 0.80520207 0.43549791
-0.8485328 0.79708636 0.3125031
-0.83857411 0.78719097 0.19620402
-0.92180675 0.87254602 1.211638
-0.89177984 0.84325045 0.97721815
-0.88174886 0.83319247 0.79849374
-0.87870997 0.82946074 0.64605778
-0.86260319 0.81369734 0.50186026
-0.84542513 0.79694563 0.3709369
-0.83964241 0.79122472 0.25312641
-0.82907349 0.78072947 0.13961446
-0.034255128 0.081733659 8.7339401
-0.97460216 0.97029364 8.7429113
-1.2427197 1.2216372 8.4014702
-0.7028439 0.68153042 3.1769717
-0.93933266 0.90467697 3.1319361
-0.99239731 0.95184332 2.5872669
-1.0335244 0.98856145 2.1731431
-0.96126902 0.91753942 1.6676468
-0.33191952 0.39293233 8.7348309
-0.62345725 0.68424195 8.5905704
-1.427439 1.3965303 7.7260423
-0.81235665 0.7872597 3.1304898
-0.97457242 0.93930912 2.8625166
-1.0242717 0.98415607 2.3936086
-1.0047636 0.96307945 1.917711
-0.93653929 0.89613187 1.4834822
-0.92312628 0.87746114 1.3313749
-0.8997876 0.85439259 1.0828838
-0.88742673 0.84178537 0.8865537
-0.87872607 0.83295971 0.72034597
-0.86556375 0.81991941 0.57002032
-0.85724807 0.81148493 0.43690795
-0.84931386 0.80341917 0.31343573
-0.84305906 0.79695541 0.19709818
-0.92145795 0.87833476 1.2149636
-0.89468515 0.85193312 0.98310447
-0.88195795 0.83923697 0.80102688
-0.87909859 0.83564991 0.64815581
-0.86318123 0.81995577 0.5035038
-0.84616333 0.80323833 0.37210923
-0.83687538 0.79415071 0.25312641
-0.83359349 0.7904942 0.14001752
-0.033969615 0.081852734 8.7339401
-0.97230637 0.97479028 8.7527885
-1.2326598 1.2202362 8.3623085
-0.69939286 0.68293649 3.1721995
-0.94037575 0.91203123 3.1457434
-0.99423629 0.96029365 2.6004343
-1.0341207 0.99606764 2.1814091
-0.96268177 0.92533189 1.6753218
-0.33054593 0.39408857 8.7348309
-0.62106502 0.68641406 8.5905704
-0.81083846 0.79129606 3.1351826
-0.97441161 0.9457379 2.8715191
-1.0245786 0.99135274 2.4021404
-1.0057316 0.97076643 1.925691
-0.93828773 0.90410048 1.4908326
-0.92521 0.88561034 1.3383839
