# .PCD v0.7 - Point Cloud Data file format
VERSION 0.7
FIELDS x y z
SIZE 4 4 4
TYPE F F F
COUNT 1 1 1
WIDTH 1543
HEIGHT 1
VIEWPOINT 0 0 0 1 0 0 0
POINTS 1543
DATA ascii
1.0818498 -0.89732224 8.9355421
1.4278834 -1.1691428 8.8958883
2.1621234 -1.7462194 8.9319849
2.8966169 -2.3229244 8.8068485
1.5569376 -1.2396539 2.9956
5.6253114 -4.4696689 8.6787672
0.36514172 -0.3602154 8.7098732
1.4225886 -1.3034276 17.951912
1.8433659 -1.502023 9.1923876
2.7012057 -2.1801519 9.4938803
3.4427478 -2.762929 9.1912231
1.5063746 -1.2049729 3.2254655
1.8415945 -1.4694908 3.1945188
6.1687899 -4.9138231 8.6280022
6.8413281 -5.4125772 8.6523724
8.6445436 -6.8318849 8.9666862
10.668047 -8.42204 8.9958096
3.8958645 -3.0910745 4.5105343
9.6413593 -7.6415877 9.0414782
11.048303 -8.7504501 8.3676319
0.041145243 -0.078196473 8.7039413
1.0787109 -0.90109313 8.9355421
1.4237938 -1.1741201 8.8958883
2.1560149 -1.7537559 8.9319849
2.8930497 -2.336704 8.8206558
3.708585 -2.9826927 8.7890358
1.6096768 -1.2908567 3.1030567
5.6071725 -4.4872751 8.6749296
0.36388206 -0.36148778 8.7098732
1.4156809 -1.3062152 17.922083
1.835197 -1.506056 9.1778698
2.6922402 -2.1884794 9.4891882
3.4330823 -2.7749295 9.1912231
1.5021592 -1.2102238 3.2254655
1.848197 -1.4853486 3.214469
6.1595325 -4.9416909 8.6390276
6.833549 -5.4453144 8.6663895
8.6206436 -6.8620186 8.9666862
10.651675 -8.4696379 9.0067759
3.882134 -3.1023235 4.5072088
9.5893555 -7.6550226 9.0179329
11.017691 -8.7889624 8.3676319
0.040872034 -0.078339621 8.7039413
1.075559 -0.90485305 8.9355421
1.4196866 -1.1790829 8.8958883
2.1487255 -1.7603251 8.9272127
2.892453 -2.3529532 8.8436689
3.6981509 -2.99562 8.7890358
1.6314298 -1.3176867 3.152652
5.5814929 -4.498775 8.6595793
0.36261806 -0.36275575 8.7098732
1.4079902 -1.3082442 17.882311
1.8231469 -1.5068465 9.1439934
2.6832495 -2.1967702 9.4844952
3.4149339 -2.7800243 9.1687174
1.5121013 -1.2269638 3.2553272
1.8617374 -1.5069581 3.2463892
6.1527925 -4.9716845 8.6537275
6.8145003 -5.4691353 8.6663895
8.5207176 -6.8312006 8.8882246
10.62531 -8.5093822 9.0095177
3.8712809 -3.1158559 4.5072088
9.5373755 -7.6681867 8.9943876
10.993666 -8.8327684 8.3726988
0.040598329 -0.078481816 8.7039413
1.0729866 -0.90910435 8.9404812
1.4163431 -1.1846848 8.9007835
2.143719 -1.7687649 8.9319849
2.8872445 -2.3655117 8.8528728
3.6839602 -3.0054827 8.7802572
1.6290032 -1.3251493 3.156785
5.568244 -4.5202503 8.6634169
0.36134958 -0.36401933 8.7098732
1.4034151 -1.3131511 17.882311
1.8024203 -1.5003331 9.0665627
2.675565 -2.2061234 9.4844952
3.3984752 -2.7864063 9.150712
1.511848 -1.2355355 3.263859
1.8377824 -1.4982152 3.214469
6.1354008 -4.9931316 8.6537275
6.7898207 -5.4884052 8.6593809
8.3544903 -6.7459741 8.7407179
10.595542 -8.5464191 9.0095177
3.8574808 -3.1269989 4.5038829
9.4948435 -7.6887131 8.9796715
11.009682 -8.9090528 8.4081631
0.040324129 -0.078623049 8.7039413
1.0703976 -0.91334879 8.9454203
1.4121993 -1.1896214 8.9007835
2.1283479 -1.7686044 8.8938084
2.894038 -2.38801 8.8988991
3.6678953 -3.0137622 8.7670908
1.6243677 -1.3308275 3.156785
5.5499501 -4.537631 8.6595793
0.3600767 -0.36527845 8.7098732
1.3984351 -1.3176763 17.87734
1.7798349 -1.4920782 8.9794531
2.6585548 -2.2077312 9.4516459
3.3803358 -2.7913218 9.1282063
1.5276617 -1.2573802 3.3065183
6.1153121 -5.0123687 8.650053
6.7706213 -5.5120726 8.6593809
8.1950016 -6.6645823 8.5994873
10.568891 -8.585988 9.0122595
3.8407576 -3.1357226 4.497232
9.4648151 -7.719255 8.9767284
11.00859 -8.97194 8.4309616
0.040049437 -0.078763328 8.7039413
1.0707378 -0.92011899 8.9750557
1.4072616 -1.1938847 8.8958883
2.1152933 -1.7702743 8.8651762
2.8766699 -2.3906054 8.8712835
3.6573532 -3.0265474 8.7670908
1.6001784 -1.3203697 3.1195884
5.5340767 -4.5569763 8.6595793
0.3585982 -0.36632615 8.7048807
1.3934405 -1.3221825 17.872368
1.7707744 -1.495038 8.9600954
2.6455376 -2.2125695 9.4328747
3.36555 -2.7989278 9.1147022
1.5112165 -1.2527181 3.2809229
6.0951638 -5.0315261 8.6463776
6.7458234 -5.5311503 8.6523724
8.1144762 -6.646287 8.5398569
3.8269045 -3.1467385 4.4939065
11.010526 -9.0376625 8.4562931
0.039774258 -0.078902647 8.7039413
1.0634078 -0.92029059 8.9404812
1.4023116 -1.1981282 8.8909931
2.1022534 -1.7718748 8.836544
2.8668094 -2.3993785 8.8666811
3.6522853 -3.0438957 8.7802572
1.584739 -1.3169543 3.0989237
5.5156689 -4.5742197 8.6557417
0.3573173 -0.36757568 8.7048807
1.3884315 -1.3266701 17.867397
1.7588423 -1.4955097 8.9262199
2.6259198 -2.2117848 9.3906403
3.3440776 -2.800874 9.0831938
1.5048326 -1.256314 3.2766569
6.0749574 -5.0506048 8.6427031
6.7237258 -5.5523934 8.6488676
8.0011511 -6.600265 8.4457026
4.0289578 -3.3199823 3.5073953
3.8101459 -3.1553149 4.4872556
9.2113714 -7.6202493 8.7883663
11.012136 -9.1035089 8.4816256
0.039482255 -0.07900054 8.6989422
1.0631169 -0.92655039 8.9651775
1.3973491 -1.2023517 8.8860979
2.0858142 -1.7705077 8.7935963
2.8599102 -2.41063 8.8712835
3.6746573 -3.084342 8.8592606
1.5650271 -1.3098347 3.069993
5.4972086 -4.5913906 8.6519041
0.35603204 -0.3688207 8.7048807
1.3830243 -1.3307688 17.857452
1.7507473 -1.4991872 8.9117012
2.6168673 -2.219821 9.3859472
3.3426003 -2.8195481 9.1057005
1.5004381 -1.2615592 3.2766569
6.3623681 -5.336658 11.070827
6.0520911 -5.0674267 8.6353521
6.7015615 -5.5735493 8.6453629
7.9181857 -6.5784078 8.3829336
3.9980383 -3.3180032 3.4909463
3.7933736 -3.1638124 4.4806046
9.1474514 -7.6213083 8.7530479
11.016733 -9.1722317 8.50949
0.039206252 -0.079137877 8.6989422
1.0592923 -0.92974293 8.9602375
1.3908355 -1.2052213 8.8714123
2.0784867 -1.7768077 8.7888241
2.8633928 -2.4307134 8.9081039
3.6967909 -3.1249816 8.9382648
1.5496875 -1.306221 3.0493283
5.4811478 -4.6105514 8.6519041
0.35454336 -0.36985219 8.6998892
1.377988 -1.3352171 17.85248
1.7464553 -1.5061103 8.9165411
2.6130388 -2.2323048 9.4000254
3.3343968 -2.8326085 9.1102009
1.5139374 -1.2819581 3.3150501
6.364418 -5.3763351 11.106736
6.031774 -5.0863357 8.6316767
6.6765971 -5.5923281 8.6383533
7.8235302 -6.546061 8.3076115
3.9864321 -3.3319387 3.4909463
3.779448 -3.174633 4.4772792
9.1517553 -7.6791735 8.7824793
11.017682 -9.2383299 8.5348225
0.038913716 -0.079233676 8.6939421
2.1100948 -1.8656554 17.905233
1.3843188 -1.20806 8.8567266
2.0688784 -1.7811303 8.7745094
2.8623147 -2.4470413 8.9311161
3.7259793 -3.1720231 9.0348234
1.5301021 -1.2988741 3.0203977
5.462575 -4.627584 8.6480665
0.35325018 -0.37108749 8.6998892
1.3729376 -1.3396466 17.847509
1.7402384 -1.511373 8.9117012
2.606539 -2.242538 9.4047184
3.2632861 -2.7918658 8.9436569
1.5173906 -1.2940046 3.332114
6.402988 -5.4473319 11.206487
6.0113988 -5.105165 8.6280022
6.6543093 -5.6132998 8.6348486
7.7500334 -6.5306911 8.2542572
3.9683795 -3.3404481 3.4854636
3.7626424 -3.1829836 4.4706283
9.1619415 -7.7423801 8.8177977
11.041356 -9.3240137 8.5778856
0.038636897 -0.079369038 8.6939421
2.1000884 -1.8699092 17.875599
1.378564 -1.2115401 8.8469362
2.0615208 -1.7873632 8.7697372
2.862639 -2.4646666 8.9587317
3.7330661 -3.2005992 9.0787144
1.5255588 -1.3042072 3.0203977
5.4415116 -4.6424632 8.6403913
0.35195267 -0.37231833 8.6998892
1.3682529 -1.3444309 17.847509
1.7358981 -1.5182661 8.9165411
2.5999994 -2.2527533 9.4094114
3.245275 -2.7961347 8.9211502
4.9789672 -4.265872 8.7566128
5.9909654 -5.1239142 8.6243267
6.6319571 -5.6341848 8.6313438
7.6767397 -6.5148892 8.2009039
3.9439368 -3.3434644 3.4744978
3.7486665 -3.1936769 4.4673028
9.147172 -7.7847919 8.8295698
10.98904 -9.3457432 8.5626869
0.038375385 -0.079544097 8.6989422
2.0923915 -1.8761907 17.865721
1.3712773 -1.2136452 8.8273554
2.0541449 -1.7935663 8.7649651
2.862874 -2.4823234 8.9863472
3.7218711 -3.2136104 9.0787144
1.5209972 -1.3095245 3.0203977
5.4228425 -4.6593409 8.6365547
0.35065091 -0.3735446 8.6998892
1.3635517 -1.3491988 17.847509
1.7362467 -1.5293016 8.9455767
2.5895195 -2.2595458 9.4000254
3.2075431 -2.7831905 8.8446293
4.9572029 -4.2773209 8.7446432
5.9704747 -5.1425829 8.6206512
6.6068301 -5.6526637 8.6243353
7.6184449 -6.5112996 8.1632414
3.9227018 -3.3490658 3.4662735
3.7346618 -3.2043114 4.4639769
10.97272 -9.3980656 8.5753527
17.506096 -14.951604 3.3031695
0.03809749 -0.079677567 8.6989422
2.0846763 -1.8824413 17.855843
1.3647524 -1.2163916 8.8126698
2.0467505 -1.79974 8.7601929
2.8630209 -2.5000117 9.0139618
3.7395468 -3.2517276 9.1489401
1.539803 -1.3351051 3.0658603
5.4016976 -4.674047 8.6288795
0.34954101 -0.37497813 8.7048807
1.3588338 -1.3539503 17.847509
1.7355994 -1.5395242 8.9697742
2.5777278 -2.2651536 9.3859472
3.1732206 -2.7728827 8.7771111
4.9376926 -4.2906456 8.7366629
5.9499259 -5.1611705 8.6169758
6.5843573 -5.6733637 8.6208315
7.5661697 -6.5124612 8.1318569
3.9014757 -3.3545594 3.4580488
3.720629 -3.2148871 4.4606519
8.2236252 -7.098381 7.9937129
10.949641 -9.4447575 8.5829525
17.341169 -14.915745 3.2824492
0.037834622 -0.079850867 8.7039413
2.0752187 -1.8870927 17.831146
1.3589828 -1.2197875 8.8028784
2.0404558 -1.8068736 8.7601929
2.8630788 -2.5177314 9.0415764
3.7407856 -3.2758064 9.1796637
1.5520899 -1.3552797 3.0989237
5.3829327 -4.6907678 8.625042
0.34822997 -0.376196 8.7048807
1.3540994 -1.3586853 17.847509
1.7423999 -1.5564604 9.0326862
2.5659287 -2.2707067 9.3718691
3.1618876 -2.7825038 8.7726097
4.9204173 -4.3058705 8.7326727
5.9293213 -5.1796784 8.6133013
6.5591264 -5.691638 8.613822
7.5080981 -6.5082393 8.0941963
3.8802593 -3.3599463 3.4498246
3.7065675 -3.2254035 4.4573264
8.1896448 -7.1190882 7.9848833
10.916605 -9.4829206 8.5829525
0.037555657 -0.079982445 8.7039413
2.0691917 -1.8948498 17.836084
1.352451 -1.2224752 8.7881937
2.0330222 -1.8129914 8.7554207
2.8630483 -2.5354819 9.0691929
3.7203472 -3.2809236 9.1577187
1.5621412 -1.3736978 3.1278543
5.3641171 -4.7074151 8.6212044
0.34710932 -0.37762246 8.7098732
1.3493483 -1.3634036 17.847509
1.7528411 -1.5768257 9.1149569
2.5554099 -2.277353 9.362484
3.1423807 -2.7848608 8.7456026
4.8963151 -4.3150501 8.716712
5.9086595 -5.1981049 8.6096268
6.5365334 -5.712152 8.6103172
7.4560118 -6.50881 8.0628109
3.8559012 -3.3624775 3.4388587
11.462831 -9.9890556 8.045435
3.6952863 -3.2383223 4.4573264
8.1677866 -7.1502948 7.9878263
10.922372 -9.5550299 8.6133509
0.037291441 -0.08015395 8.7089415
2.0637071 -1.9031147 17.845963
1.3466699 -1.2258176 8.7784033
2.0266812 -1.8200771 8.7554207
2.8629282 -2.5532627 9.0968075
3.7088718 -3.29389 9.1577187
1.5573367 -1.3791423 3.1278543
5.3452506 -4.7239881 8.6173668
0.345983 -0.37904564 8.7148647
1.344581 -1.3681054 17.847509
1.7454635 -1.5812466 9.105278
2.5448766 -2.2839539 9.3530979
3.1310165 -2.7943633 8.7411013
4.8902373 -4.340116 8.7326727
5.8904786 -5.218698 8.6096268
6.5112 -5.7302217 8.6033077
7.3952441 -6.5013871 8.0220118
3.856708 -3.3869534 3.4498246
11.427893 -10.029007 8.045435
3.6839597 -3.2512016 4.4573264
8.1518726 -7.1867805 7.9966555
10.90836 -9.6101952 8.6285496
0.037011422 -0.080283634 8.7089415
2.057621 -1.9108359 17.850903
1.3423827 -1.2305108 8.7784033
2.0203156 -1.8271403 8.7554207
2.8627186 -2.5710735 9.1244221
3.6937809 -3.303623 9.1489401
1.5147116 -1.3508546 3.0534613
5.326334 -4.7404866 8.6135292
0.34465778 -0.38025102 8.7148647
1.3394252 -1.372409 17.842539
1.7445759 -1.5915661 9.1294756
2.5317676 -2.2881944 9.3343267
3.1196239 -2.8038201 8.7366009
4.8368649 -4.3230233 8.6648417
5.8696966 -5.2369709 8.6059513
6.4884887 -5.7505498 8.599803
7.3637624 -6.5194216 8.0125961
3.8417294 -3.3976247 3.447083
11.406092 -10.08057 8.0547094
3.6697977 -3.2615609 4.4540005
8.1116238 -7.2017746 7.9819398
0.03671604 -0.080371335 8.7039413
2.0509384 -1.9180065 17.850903
1.3388273 -1.2358799 8.7832985
2.0139256 -1.8341814 8.7554207
2.8624201 -2.5889142 9.1520376
3.6786678 -3.3132906 9.1401615
1.4723036 -1.3222868 2.9790683
5.3073673 -4.7569108 8.6096916
0.3435207 -0.38166699 8.7198553
1.3346264 -1.377076 17.842539
1.7464139 -1.6044501 9.168191
2.5263174 -2.2993417 9.3437119
3.1082041 -2.8132317 8.7320995
4.8217449 -4.3398805 8.6648417
5.8488584 -5.2551622 8.6022758
6.4657159 -5.7707887 8.5962992
7.3351498 -6.5399055 8.006319
11.364216 -10.114433 8.0500717
3.6583903 -3.2743509 4.4540005
8.0773954 -7.2219625 7.9731102
0.036435269 -0.080499008 8.7039413
2.0442307 -1.925154 17.850903
1.3345051 -1.2405457 8.7832985
2.0064108 -1.8401911 8.7506485
2.8620312 -2.6067834 9.1796532
3.6617579 -3.3212843 9.1269951
1.4697659 -1.3293056 2.983201
5.2907305 -4.7754083 8.6096916
0.34218636 -0.38286376 8.7198553
1.3294419 -1.3813421 17.837566
1.7398803 -1.6096828 9.1633511
2.5042827 -2.2953193 9.2920923
3.0967565 -2.822598 8.7275982
4.8087997 -4.3587093 8.6688318
5.8304791 -5.2755466 8.6022758
6.4402275 -5.7885556 8.5892897
7.3093801 -6.5628691 8.0031805
11.315647 -10.142215 8.0407972
3.6469386 -3.287101 4.4540005
8.0491333 -7.2474103 7.9701676
0.036154054 -0.080625698 8.7039413
2.0369344 -1.931743 17.845963
1.3309098 -1.2458925 8.7881937
1.999975 -1.8471836 8.7506485
2.8615525 -2.6246817 9.2072678
3.6466055 -3.3308156 9.1182165
1.48384 -1.3514827 3.0203977
5.2716575 -4.7916913 8.605855
0.34103876 -0.38427243 8.7248468
1.324612 -1.3859742 17.837566
1.7370094 -1.618317 9.1778698
2.4835751 -2.2923419 9.2451649
3.0852811 -2.8319185 8.7230968
1.5443119 -1.4095414 2.8433967
5.8095222 -5.2935829 8.5986004
6.4173393 -5.8086081 8.5857859
7.280653 -6.5831232 7.9969039
11.270309 -10.172747 8.0338402
3.6382065 -3.3023207 4.4573264
8.0148039 -7.2673173 7.961338
10.872146 -9.8512936 8.707078
0.035857908 -0.080710247 8.6989422
2.0296173 -1.9383049 17.841024
1.3272936 -1.2512292 8.7930889
1.992422 -1.8531368 8.7458763
2.8609836 -2.6426079 9.2348824
3.6261435 -3.3354173 9.0962715
1.5102193 -1.3851873 3.082392
5.254899 -4.8100638 8.605855
0.33969536 -0.38546056 8.7248468
1.3193994 -1.3902026 17.832596
1.7276835 -1.6209298 9.1585121
2.4376404 -2.2657495 9.1043806
3.0753772 -2.8426709 8.7230968
3.9176888 -3.609935 8.7839775
1.5438191 -1.4190019 2.8513768
5.7885108 -5.3115373 8.5949249
6.3864813 -5.821363 8.5717669
7.2547517 -6.6058769 7.9937654
11.22162 -10.200108 8.0245657
3.6376812 -3.3250771 4.4706283
7.9834175 -7.2897992 7.9554515
10.875903 -9.9240522 8.7374763
0.03557596 -0.080834925 8.6989422
2.0228388 -1.9453778 17.841024
1.3236562 -1.2565558 8.7979832
1.9859413 -1.8600804 8.7458763
2.8588941 -2.6592319 9.2578955
3.6144786 -3.3480546 9.0962715
1.5467161 -1.4286392 3.165051
5.2357202 -4.8262053 8.6020174
0.33853716 -0.38686183 8.7298393
1.3145386 -1.3947998 17.832596
1.7211013 -1.6260874 9.1536722
2.3919222 -2.2388649 8.9635983
3.0638421 -2.8519051 8.7185965
3.893594 -3.6129446 8.7583818
1.5499128 -1.434617 2.8713269
5.7574854 -5.3202071 8.5765495
6.3687491 -5.8460326 8.5752716
7.2259107 -6.6258993 7.9874883
9.6094112 -8.8022633 8.6284542
11.176143 -10.230242 8.0176086
3.6260524 -3.3377547 4.4706283
3.6377747 -3.3450422 3.6819825
10.895158 -10.011542 8.7805405
0.035293575 -0.080958612 8.6989422
2.0154777 -1.9518862 17.836084
1.3199978 -1.2618722 8.8028784
1.9794363 -1.8670013 8.7458763
2.8552973 -2.6745377 9.2763052
3.6080232 -3.3655517 9.1094379
1.5396594 -1.4321128 3.1609178
5.2164927 -4.8422709 8.5981798
0.33737335 -0.38825974 8.7348309
1.3100258 -1.3997693 17.837566
1.7135936 -1.6303521 9.1439934
2.366513 -2.2306285 8.8978996
3.0538683 -2.8625824 8.7185965
3.8752418 -3.6211717 8.7455845
1.5448956 -1.4400184 2.8713269
5.7239885 -5.3264146 8.5544987
6.3535419 -5.8730698 8.5822811
7.1970191 -6.6458006 7.9812112
9.5817013 -8.8385878 8.6311951
11.130594 -10.260186 8.0106525
7.0043335 -6.4928222 8.5875969
3.6171789 -3.3494811 3.6731532
10.894948 -10.081717 8.8084049
0.035024818 -0.081122629 8.7039413
2.008652 -1.9589096 17.836084
1.3163184 -1.2671784 8.8077745
1.9729071 -1.8738995 8.7458763
2.8516288 -2.6898508 9.2947159
3.5997448 -3.3814054 9.1182165
1.534651 -1.4374785 3.1609178
5.1995583 -4.8604507 8.5981798
0.336016 -0.38943505 8.7348309
1.3051318 -1.4043336 17.837566
1.7069849 -1.6354544 9.1391544
2.3624666 -2.2424397 8.9119778
3.0438573 -2.873225 8.7185965
3.8568802 -3.6293147 8.7327871
1.5354658 -1.4412777 2.8633468
5.6979394 -5.3394089 8.5434732
3.4120619 -3.1761525 4.6606936
7.1680756 -6.6655807 7.9749341
9.5293455 -8.8520594 8.6120052
11.081724 -10.28692 8.0013771
6.9707098 -6.5070415 8.574295
3.6054649 -3.3620872 3.6731532
10.843921 -10.104993 8.7957392
0.034741435 -0.081244394 8.7039413
2.001802 -1.9659092 17.836084
1.3126181 -1.2724744 8.8126698
1.9663539 -1.8807749 8.7458763
2.8478875 -2.7051704 9.3131256
3.5966187 -3.4021797 9.1401615
1.5152953 -1.42931 3.1319873
5.1802263 -4.8763738 8.5943422
0.3348417 -0.39082542 8.7398224
1.300583 -1.4092728 17.842539
1.700361 -1.6405299 9.1343155
2.3546247 -2.2506726 8.9119778
3.0338094 -2.8838327 8.7185965
3.8460813 -3.6445498 8.7370529
1.5282357 -1.4445586 2.8593569
5.6546106 -5.3359981 8.5067215
3.4035561 -3.1904824 4.6641984
7.1419239 -6.6879015 7.9717965
9.48312 -8.870986 8.5982981
11.042514 -10.322515 7.9990592
6.9397917 -6.5236616 8.5643187
3.6025465 -3.3829527 3.6819825
10.796008 -10.130984 8.7856064
0.034457628 -0.081365176 8.7039413
1.9949274 -1.9728848 17.836084
1.3088968 -1.27776 8.817565
1.9608519 -1.8886628 8.7506485
2.8483095 -2.7245486 9.3453445
3.5795186 -3.4097574 9.1269951
1.512337 -1.4365288 3.1361201
5.1631727 -4.8944263 8.5943422
0.33347541 -0.39199185 8.7398224
1.2956558 -1.4138041 17.842539
1.6946241 -1.6464552 9.1343155
2.3467541 -2.2588782 8.9119778
3.0221519 -2.8928998 8.7140951
3.8672976 -3.6903622 8.813839
4.6637688 -4.4395776 8.6010017
5.6433229 -5.36271 8.5177469
3.3820252 -3.1925511 4.6501803
7.1128721 -6.7074499 7.9655194
9.4247036 -8.8782291 8.5736246
11.019317 -10.373144 8.0083342
6.9115548 -6.5427127 8.5576677
3.5789685 -3.3843985 3.6702099
10.716714 -10.127156 8.7501421
0.034173399 -0.081484951 8.7039413
1.9880285 -1.9798363 17.836084
1.3051547 -1.283035 8.8224602
1.9542472 -1.895496 8.7506485
2.8472238 -2.7426066 9.3729591
3.5641382 -3.418916 9.1182165
1.5052799 -1.4398538 3.1319873
5.1437383 -4.9102058 8.5905046
0.33229062 -0.39337465 8.7448139
1.2903544 -1.4179237 17.837566
1.6879683 -1.6514814 9.1294756
2.3388548 -2.2670562 8.9119778
3.0120356 -2.9034314 8.7140951
3.8882413 -3.736367 8.890626
4.6417174 -4.4495749 8.5890312
5.6294675 -5.3870635 8.5250969
3.3656912 -3.1994231 4.6431708
7.0865932 -6.7295575 7.9623809
9.3906221 -8.9081964 8.5708838
10.986255 -10.414593 8.0106525
6.8805666 -6.5590701 8.5476913
3.5554249 -3.3857214 3.6584373
10.665685 -10.149644 8.7374763
0.033875279 -0.081562243 8.6989422
1.9811056 -1.9867638 17.836084
1.3013916 -1.2882997 8.8273554
1.9497545 -1.9043921 8.7601929
2.848851 -2.7634113 9.4097795
3.5504594 -3.4296718 9.1138277
1.4921383 -1.4372902 3.1154556
5.1242561 -4.92591 8.5866671
0.33091545 -0.39453214 8.7448139
1.2850398 -1.4220235 17.832596
1.6839839 -1.6591282 9.1391544
2.3309271 -2.2752063 8.9119778
2.9987583 -2.9108951 8.7050924
3.8939164 -3.7680531 8.9332857
4.6239896 -4.4636574 8.585041
5.6203933 -5.4160914 8.5397978
3.3467739 -3.2037537 4.6326575
7.0574327 -6.7488728 7.9561038
10.330027 -9.8680811 9.4508944
6.852242 -6.5778756 8.5410404
3.555254 -3.4093018 3.6702099
10.592842 -10.151021 8.707078
0.033590365 -0.081679992 8.6989422
1.973612 -1.9931151 17.831146
1.2976077 -1.2935534 8.8322506
1.9441592 -1.9122334 8.7649651
2.8489699 -2.7828948 9.4419966
3.5350327 -3.4387045 9.1050491
1.4628744 -1.4189775 3.0658603
5.1024246 -4.9393077 8.5789919
0.32972032 -0.39590734 8.7498064
1.2797123 -1.4261035 17.827623
1.6701522 -1.6570276 9.0956001
2.3131258 -2.2736509 8.8744354
2.9870224 -2.9198229 8.7005911
3.8639293 -3.7652407 8.8948917
4.6105409 -4.4818711 8.5890312
5.6111846 -5.4451203 8.5544987
3.3304355 -3.2104664 4.625648
7.0310278 -6.7707663 7.9529653
10.364827 -9.9707546 9.5139475
6.8238707 -6.5965648 8.5343895
3.5433316 -3.4216912 3.6702099
10.554241 -10.184941 8.704545
0.033291858 -0.081755154 8.6939421
1.9660978 -1.9994378 17.826206
1.2938027 -1.2987963 8.8371449
1.9395934 -1.9211092 8.7745094
2.8406312 -2.7941928 9.446599
3.5212972 -3.4493475 9.1006603
1.4579124 -1.4240751 3.0658603
5.0828571 -4.9548516 8.5751553
0.32851958 -0.39727896 8.7547979
1.2743722 -1.4301637 17.822653
1.658134 -1.6566278 9.0617228
2.3039489 -2.2804973 8.8697424
2.9752607 -2.9287045 8.6960897
3.8153954 -3.7439983 8.813839
4.5905619 -4.4937224 8.5810518
5.5969934 -5.4694133 8.5618486
3.314091 -3.2171042 4.618639
6.9989681 -6.7871389 7.9435501
10.372005 -10.047605 9.5523281
4.6956482 -4.5455875 3.5075433
6.7981267 -6.6177397 8.531064
3.5226731 -3.4255853 3.6613805
10.478436 -10.182666 8.6716137
0.033006277 -0.081870869 8.6939421
1.9580212 -2.0051768 17.816328
1.2899773 -1.3040287 8.842041
1.934989 -1.9299761 8.7840519
2.8336363 -2.8068414 9.4558048
3.505825 -3.4582539 9.0918827
1.4248475 -1.4015275 3.0079987
5.0632434 -4.9703188 8.5713177
0.32731321 -0.39864695 8.7597885
1.2690191 -1.4342039 17.81768
1.6452529 -1.6552728 9.0230074
2.2813089 -2.2739062 8.8134298
2.9634738 -2.9375398 8.6915894
3.7670567 -3.7224634 8.7327871
4.5748477 -4.5097189 8.5810518
5.5754509 -5.4865389 8.5581732
3.2977405 -3.2236669 4.61163
6.975234 -6.8115292 7.9435501
10.38476 -10.130466 9.5961914
4.6670642 -4.549582 3.4982681
6.7696533 -6.6362019 8.5244131
10.439747 -10.216165 8.6690807
0.032733191 -0.082027264 8.6989422
1.9504689 -2.0114415 17.811388
1.2854176 -1.3085237 8.842041
1.9324529 -1.9409504 8.8031406
2.8155224 -2.8084369 9.4281883
3.4920328 -3.4687827 9.0874929
1.4099509 -1.3965906 2.9873343
5.0435834 -4.9857092 8.5674801
0.32610139 -0.40001142 8.76478
1.2636535 -1.4382243 17.81271
1.6332847 -1.654743 8.9891319
2.2623966 -2.2708523 8.7711945
2.9516611 -2.9463286 8.687088
3.7466452 -3.7282314 8.715723
4.5569396 -4.5235376 8.5770617
5.5514498 -5.5011954 8.5508242
3.2788434 -3.227653 4.6011162
6.9680667 -6.8522105 7.9623809
10.334419 -10.152002 9.5824842
4.651155 -4.5658455 3.4982681
6.7437901 -6.6571689 8.5210876
8.2157354 -8.1017504 8.4852209
10.404022 -10.252544 8.6690807
0.032459412 -0.082182758 8.7039413
1.9466691 -2.0215962 17.841024
1.2815528 -1.3137316 8.8469362
1.9288141 -1.9508687 8.8174562
2.8015673 -2.8140941 9.414382
3.4714375 -3.4724817 9.065547
5.0261493 -5.003284 8.5674801
0.324884 -0.40137228 8.7697725
1.2586255 -1.4426265 17.81271
1.618701 -1.6514565 8.9407377
2.2459607 -2.270148 8.7383461
2.9413586 -2.9566138 8.687088
3.7372932 -3.7449794 8.7242546
4.538991 -4.5372863 8.5730715
5.5298133 -5.5181451 8.5471487
3.2624917 -3.2340577 4.5941076
6.977293 -6.9093571 8.000042
9.1633577 -9.0646753 8.535244
4.6099858 -4.5571389 3.4797177
6.7178631 -6.6780367 8.5177622
8.1902733 -8.1332273 8.488163
0.032184947 -0.082337335 8.7089415
1.9401373 -2.0289407 17.845963
1.2776676 -1.3189286 8.8518314
1.9251297 -1.9607854 8.8317719
2.7862332 -2.8182986 9.3959713
3.4660444 -3.4913771 9.0831041
5.0063906 -5.0185289 8.5636425
0.32366109 -0.40272954 8.7747641
1.2535821 -1.4470111 17.81271
1.6120501 -1.6561961 8.9358988
2.2404416 -2.2804363 8.7477312
2.93102 -2.9668632 8.687088
3.7223623 -3.7561498 8.7199888
4.5210013 -4.5509653 8.5690813
5.5081263 -5.5350113 8.5434732
3.2461348 -3.2403867 4.5870981
7.0027428 -6.9831419 8.0565338
9.1820211 -9.1467743 8.5818491
4.5846324 -4.563828 3.4727614
6.6918721 -6.6988034 8.5144367
8.1532583 -8.1531935 8.4793339
4.7802939 -4.771914 3.2098777
16.195181 -16.138733 3.2810678
0.03189734 -0.082449175 8.7089415
1.9314383 -2.0340102 17.831146
1.2737617 -1.3241142 8.8567266
1.9224416 -1.971769 8.8508606
2.7709041 -2.8224306 9.3775616
3.4571986 -3.5068657 9.0918827
4.9865856 -5.0336967 8.5598049
0.32243264 -0.40408307 8.7797556
1.2488708 -1.4517823 17.81768
1.5992712 -1.654582 8.8971834
2.2348773 -2.2907133 8.7571163
2.920646 -2.9770763 8.687088
3.7073989 -3.767261 8.715723
4.5029716 -4.5645733 8.5650911
5.4863887 -5.5517931 8.5397978
3.2322888 -3.2491696 4.5835934
7.0167761 -7.0461564 8.1004734
9.1618462 -9.1906157 8.5928154
6.6631894 -6.7168207 8.5077848
8.1190529 -8.1758671 8.4734478
4.7700095 -4.7950068 3.2140741
16.121269 -16.177628 3.2776144
0.031621657 -0.082601875 8.7139416
1.9312555 -2.0480897 17.895357
1.2691319 -1.3285525 8.8567266
1.9186616 -1.9816847 8.8651762
2.7555802 -2.8264902 9.3591509
3.4482872 -3.5223355 9.1006603
1.415941 -1.4422461 3.0410624
4.9667363 -5.0487871 8.5559673
0.3211987 -0.40543303 8.7847471
1.2441416 -1.4565386 17.822653
1.5908747 -1.6574336 8.8826647
2.2268679 -2.2985005 8.7571163
2.9102361 -2.987253 8.687088
3.6996944 -3.7857754 8.7285204
4.4849019 -4.5781112 8.561101
5.4646015 -5.5684905 8.5361223
3.2159152 -3.2553589 4.5765848
7.0085588 -7.0872126 8.1193037
9.120883 -9.213625 8.5845909
6.6370826 -6.7373786 8.5044594
8.0847883 -8.1984024 8.4675617
4.7755694 -4.8342295 3.2287602
0.031320963 -0.082669854 8.7089415
1.9294045 -2.0604911 17.944748
1.2651874 -1.3337133 8.8616219
1.9148359 -1.9915985 8.8794928
2.740262 -2.830477 9.3407412
3.4393094 -3.5377848 9.1094379
1.4207196 -1.457255 3.0617273
4.9468431 -5.0638003 8.5521297
0.32013702 -0.40700671 8.7947311
1.2390498 -1.4608725 17.822653
1.5842124 -1.6620667 8.8778257
2.2188308 -2.3062599 8.7571163
2.9043314 -3.0020869 8.7005911
3.6810081 -3.7930517 8.715723
4.4646921 -4.5894189 8.5531216
5.4427648 -5.585104 8.5324478
3.2020342 -3.2640185 4.5730801
6.9974127 -7.1255188 8.1349955
4.6266794 -4.703167 3.5400066
6.6109123 -6.7578354 8.5011339
8.0504646 -8.2207975 8.4616756
4.5602517 -4.6534696 3.9143038
4.7459526 -4.8379102 3.2203681
0.031032201 -0.082778677 8.7089415
1.9243163 -2.0694897 17.964506
1.2612221 -1.3388628 8.8665171
1.9109645 -2.0015097 8.8938084
2.7249491 -2.8343911 9.3223305
3.4302661 -3.5532153 9.1182165
1.4175816 -1.4642272 3.0658603
4.9269052 -5.0787368 8.5482922
0.31906816 -0.40857792 8.8047142
1.234286 -1.4655966 17.827623
1.579265 -1.6684995 8.8826647
2.2226872 -2.3264692 8.8040438
2.8968511 -3.0153468 8.7095938
3.6767943 -3.8152678 8.7370529
4.4465513 -4.6028085 8.5491314
5.4208779 -5.6016321 8.5287724
3.1881328 -3.2726214 4.5695753
3.2875981 -3.371207 3.8792486
10.335691 -10.58762 9.7853527
4.6195202 -4.7287941 3.546963
6.5820804 -6.7755156 8.4944839
8.0132666 -8.2401562 8.4528456
4.5409737 -4.6662698 3.9117706
4.7100344 -4.8349414 3.2077796
0.030731188 -0.082844511 8.7039413
0.94945341 -1.0279537 8.8960276
1.2565409 -1.3432571 8.8665171
1.907047 -2.0114176 8.908124
2.7069447 -2.835407 9.2947159
3.4194996 -3.5668964 9.1226063
1.4105115 -1.4671379 3.0617273
4.9091473 -5.0959044 8.5482922
0.3178162 -0.40991795 8.8097057
1.2295043 -1.4703052 17.832596
1.5717096 -1.67217 8.8729858
2.2240539 -2.3442292 8.8415861
2.889313 -3.0285904 8.7185965
3.6868951 -3.8525741 8.79251
4.4283719 -4.6161275 8.5451412
5.396594 -5.6156321 8.5214224
3.171731 -3.278604 4.5625663
3.2703953 -3.3770702 3.8729718
10.385983 -10.713702 9.8675966
4.6214924 -4.7639685 3.5608759
6.5532045 -6.7930751 8.4878321
7.9788384 -8.2622614 8.4469595
4.5216618 -4.6789923 3.9092374
4.7152176 -4.874187 3.2224662
0.030441821 -0.082951277 8.7039413
0.94375926 -1.0289706 8.8762703
1.2525374 -1.3483813 8.8714123
1.904107 -2.0224099 8.9272127
2.6862781 -2.8334959 9.2578955
3.3987718 -3.5701377 9.1006603
1.4014955 -1.4679816 3.0534613
4.8891139 -5.1106935 8.5444546
0.31673408 -0.4114835 8.8196888
1.2240241 -1.4741777 17.827623
1.5761541 -1.6886741 8.9310589
2.2288737 -2.3657956 8.8932066
2.8817179 -3.0418186 8.7275982
3.7237289 -3.9183559 8.9119558
4.4122314 -4.6315575 8.5451412
5.3746185 -5.6319828 8.5177469
3.1577969 -3.2870836 4.559062
3.2531912 -3.382854 3.8666947
10.653017 -11.066196 10.155451
4.604835 -4.7800713 3.5608759
6.5242867 -6.8105164 8.4811811
7.9443536 -8.2842274 8.4410725
4.5202255 -4.7102995 3.9219034
0.030152079 -0.083057038 8.7039413
0.94120783 -1.0334079 8.8861494
1.247823 -1.3527452 8.8714123
1.9011132 -2.033406 8.9462996
2.6656582 -2.8314755 9.221076
3.3862889 -3.58198 9.1006603
1.3924909 -1.4687804 3.0451953
4.8712444 -5.1277289 8.5444546
0.31547034 -0.41281655 8.8246813
1.2192097 -1.478853 17.832596
1.580502 -1.705229 8.9891319
2.2264965 -2.3798625 8.9166708
2.8725739 -3.0534446 8.7320995
3.7637267 -3.988234 9.0399342
4.3939667 -4.644742 8.541152
5.3525944 -5.6482487 8.5140724
3.1413796 -3.2929251 4.5520525
3.225234 -3.3772995 3.8478642
10.758794 -11.254442 10.292524
4.5911837 -4.7993169 3.5631948
6.4953265 -6.8278379 8.4745302
7.9098129 -8.3060551 8.4351873
4.5126777 -4.7354112 3.9295027
0.029861974 -0.083161786 8.7039413
0.94020003 -1.0395693 8.9108458
1.2430935 -1.3570927 8.8714123
1.8990816 -2.0454998 8.9701605
2.6450853 -2.8293459 9.1842556
3.360651 -3.5798087 9.065547
1.3873553 -1.4736321 3.0451953
4.8511162 -5.1423697 8.540617
0.31420118 -0.41414583 8.8296728
1.2140402 -1.4830997 17.832596
1.5753914 -1.7116609 8.9939709
2.2205245 -2.3901484 8.9260559
2.8633838 -3.0650439 8.7366009
3.7676158 -4.0203781 9.082593
4.3797898 -4.6622472 8.5451412
5.3281989 -5.6619601 8.5067215
3.1274137 -3.3012819 4.5485482
3.2187822 -3.3941858 3.854141
10.779898 -11.355612 10.350095
4.5835557 -4.8249493 3.5701511
6.4688897 -6.847755 8.4712048
7.875217 -8.3277407 8.4293003
4.5079722 -4.7636585 3.9396355
11.496307 -12.135727 7.8151031
0.029571502 -0.083265513 8.7039413
0.93500847 -1.04111 8.8960276
1.2404037 -1.3636836 8.8860979
1.8969884 -2.0576041 8.9940195
2.6285472 -2.8314023 9.1612425
3.3399694 -3.5827589 9.043602
1.3802811 -1.4764102 3.0410624
4.8331366 -5.1592717 8.540617
0.31292659 -0.41547126 8.8346643
1.2091917 -1.4877423 17.837566
1.5897565 -1.7394196 9.110117
2.2121677 -2.3978851 8.9260559
2.8541481 -3.0766165 8.7411013
3.7553358 -4.0354142 9.0868597
4.3634887 -4.6775074 8.5451412
5.3060875 -5.6780477 8.503046
3.1109841 -3.3069835 4.5415392
3.2015774 -3.3997333 3.8478642
10.79469 -11.450981 10.402183
6.4423933 -6.8675718 8.4678793
7.8405657 -8.3492861 8.4234142
4.5060763 -4.7950726 3.9523015
11.450767 -12.172478 7.8130054
0.029291809 -0.083410412 8.7089415
0.9318856 -1.0449475 8.9009676
1.2335889 -1.3657379 8.8714123
1.8948338 -2.0697186 9.0178795
2.6159995 -2.8376877 9.1520376
3.3160541 -3.5820925 9.0128784
1.3770338 -1.4832817 3.0451953
4.8129148 -5.1737642 8.5367794
0.31147441 -0.41656104 8.8346643
1.2043257 -1.4923692 17.842539
1.5726945 -1.732857 9.047205
2.2026186 -2.4043198 8.9213629
2.844866 -3.0881617 8.7456026
3.7465367 -4.0542445 9.0996571
4.3471346 -4.6927104 8.5451412
5.2816229 -5.6915646 8.4956961
3.0969868 -3.3152161 4.5380344
3.1896906 -3.4108882 3.8478642
10.751796 -11.48554 10.399442
10.758106 -11.484256 8.3236904
14.692131 -15.650985 4.1670222
6.4158363 -6.8872852 8.4645538
7.8086166 -8.3736486 8.4204712
4.5040169 -4.8265309 3.9649673
11.414401 -12.219006 7.8172007
14.793024 -15.797111 0.96669739
0.029000476 -0.083512157 8.7089415
0.92771739 -1.0476122 8.8960276
1.2254153 -1.366245 8.8469362
1.8926179 -2.0818431 9.0417395
2.6126738 -2.8540072 9.1750507
3.2938054 -3.5830662 8.9865446
1.3661258 -1.4818722 3.0327964
4.7926507 -5.1881785 8.5329418
0.31036103 -0.41811043 8.8446474
1.199442 -1.4969801 17.847509
1.5556978 -1.7261964 8.984292
2.1930513 -2.4107172 8.9166708
2.8384774 -3.1028922 8.7591066
3.7358885 -4.0711408 9.1081886
4.3286877 -4.7056384 8.541152
5.2548323 -5.7024875 8.4846706
3.0805454 -3.3207777 4.5310254
3.1724682 -3.4162972 3.8415871
10.680322 -11.489313 10.369285
10.717954 -11.521739 8.3236904
14.51013 -15.565637 4.1315827
6.3892207 -6.9068975 8.4612284
7.7738471 -8.3949223 8.4145842
4.4959316 -4.8517094 3.9725668
11.377853 -12.26543 7.8213968
15.179421 -16.334988 3.2023304
14.727585 -15.837674 0.96609271
0.028708786 -0.083612874 8.7089415
0.9240548 -1.0508442 8.8960276
1.2179306 -1.3674725 8.8273554
1.8903401 -2.0939772 9.0655994
2.6118939 -2.8732293 9.2072678
3.2925806 -3.6069245 9.0172682
1.366645 -1.4928591 3.0451953
4.7723446 -5.2025142 8.5291042
0.30924067 -0.41965717 8.8546305
1.1938778 -1.5007405 17.842539
1.5471487 -1.7288063 8.9697742
2.1834662 -2.4170771 8.9119778
2.8305564 -3.1160045 8.7681093
3.7269244 -4.0899401 9.1209869
4.3122354 -4.7207198 8.541152
5.2280288 -5.7132916 8.4736452
3.0665185 -3.3288875 4.5275211
3.1552463 -3.4216273 3.8353105
10.529539 -11.406697 10.262368
10.662642 -11.542812 8.3120966
14.472392 -15.634215 4.1362457
15.24246 -16.454592 2.1065729
6.3650723 -6.9291582 8.4612284
7.7390246 -8.4160576 8.4086981
9.5609207 -10.390084 8.3828306
11.316521 -12.285044 7.8088093
15.19619 -16.467939 3.217525
0.028416747 -0.083712578 8.7089415
0.92038107 -1.0540632 8.8960276
1.2084289 -1.3663756 8.7930889
1.8870045 -2.1050093 9.0846882
2.5979216 -2.8779786 9.1934605
3.2461922 -3.581131 8.9250965
1.3519616 -1.4872087 3.0245306
4.751997 -5.2167716 8.5252666
0.30811328 -0.4212012 8.8646145
1.1879716 -1.5040618 17.832596
1.5327557 -1.7247995 8.92138
2.1738634 -2.4233992 8.9072847
2.8269525 -3.1339483 8.7906151
3.6986265 -4.0874534 9.0868597
4.2937064 -4.733511 8.5371618
5.2012143 -5.723979 8.4626188
3.0500658 -3.3343084 4.5205121
3.1380265 -3.4268794 3.8290334
10.407721 -11.353992 10.182865
10.610306 -11.566902 8.3028212
14.357892 -15.61954 4.1194587
15.060187 -16.372086 2.0900309
6.3458791 -6.9568515 8.4678793
7.7041483 -8.4370508 8.402812
9.5071478 -10.404302 8.3676319
11.258252 -12.307726 7.7983184
15.118542 -16.498978 3.2133813
0.028124362 -0.083811261 8.7089415
0.91567844 -1.0560951 8.8861494
1.2036519 -1.3705856 8.7930889
1.8836148 -2.1160433 9.103775
2.57482 -2.8724811 9.1474352
3.2144451 -3.5710793 8.8724289
4.733758 -5.2333274 8.5252666
0.3071478 -0.42297664 8.8795891
1.1827142 -1.5081995 17.832596
1.5300519 -1.7339095 8.9407377
2.1653907 -2.4309728 8.9072847
2.8189006 -3.1470404 8.7996178
3.6773636 -4.0925794 9.0697956
4.2751403 -4.7462316 8.5331717
5.1721177 -5.7320318 8.4479189
3.0360105 -3.3422952 4.5170074
3.1208079 -3.4320526 3.8227565
10.283583 -11.297487 10.100621
10.557935 -11.590771 8.2935467
14.270164 -15.633283 4.1101322
14.976076 -16.395142 2.0864542
6.3340888 -6.9927969 8.4845066
7.6692204 -8.4579029 8.3969259
9.4591846 -10.424655 8.3574991
11.199963 -12.330152 7.787828
14.96754 -16.449095 3.194042
0.027831636 -0.083908923 8.7089415
0.91452044 -1.0622301 8.9108458
1.1995294 -1.3755462 8.7979832
1.890056 -2.1382644 9.1705837
2.5439959 -2.8581021 9.0737953
3.1700397 -3.5465643 8.784646
3.8883855 -4.3381014 8.628809
4.7133198 -5.2474346 8.5214291
0.30617356 -0.42475033 8.8945637
1.1764606 -1.5110562 17.81768
1.5140508 -1.7278942 8.8826647
2.1557491 -2.4372241 8.9025927
2.8107915 -3.160114 8.8086195
3.6578467 -4.0995526 9.0569983
4.2565379 -4.7588792 8.5291815
5.1430283 -5.7399507 8.433218
3.0219367 -3.3502243 4.5135026
3.1035914 -3.4371471 3.8164794
10.210439 -11.29609 10.067724
10.508495 -11.617698 8.2865896
14.16932 -15.632045 4.0970755
14.898683 -16.425186 2.0837717
6.3246222 -7.0315204 8.5044594
7.6342406 -8.4786139 8.3910389
9.4198532 -10.454409 8.3549662
11.141657 -12.352323 7.777338
14.890109 -16.479195 3.189898
0.02753857 -0.084005564 8.7089415
0.90273136 -1.0559639 8.8318176
1.1940542 -1.3789551 8.7930889
1.896365 -2.1605561 9.2373915
2.5145969 -2.8450062 9.0047569
3.1528711 -3.5522346 8.7714796
3.8694775 -4.3474441 8.6205435
4.6928401 -5.2614627 8.5175915
0.30519077 -0.42652249 8.9095392
1.1754137 -1.5206388 17.882311
1.4964606 -1.7198918 8.8149128
2.1449509 -2.4421408 8.8932066
2.8170362 -3.1894867 8.8626347
3.6435144 -4.1122961 9.0569983
4.2399001 -4.7737083 8.5291815
5.1139474 -5.7477374 8.4185181
3.0078447 -3.3580959 4.5099983
3.0889769 -3.4450622 3.8133409
8.1878872 -9.1222839 8.1212826
10.458998 -11.644422 8.2796335
14.075233 -15.637597 4.0858841
6.3124757 -7.0674787 8.5210876
7.5992103 -8.4991846 8.3851528
9.3718052 -10.474375 8.3448334
11.098472 -12.391138 7.777338
14.776274 -16.46841 3.1781564
0.027235063 -0.084058732 8.7039413
0.89300787 -1.0519984 8.7725468
1.1918882 -1.3862034 8.8126698
1.9045026 -2.1851683 9.3137426
2.4763007 -2.8214624 8.9035015
3.1325345 -3.5542343 8.7495337
3.8375068 -4.3419476 8.5833464
4.6723208 -5.2754126 8.5137539
0.30436569 -0.42852876 8.9295053
1.1730171 -1.5285401 17.927053
2.4591866 -2.8466077 14.520595
2.1352789 -2.4483125 8.8885145
2.818804 -3.2140312 8.9031458
3.6360278 -4.1328216 9.0740614
4.2212186 -4.7862196 8.5251913
5.0826297 -5.7528505 8.4001417
2.9937341 -3.3659101 4.506494
3.0795202 -3.4587305 3.8164794
8.125392 -9.1164732 8.0911264
10.409443 -11.670942 8.2726774
13.971457 -15.631695 4.0718946
6.3026314 -7.1062298 8.5410404
7.5641294 -8.5196133 8.3792667
9.3265963 -10.497357 8.3372345
11.061183 -12.436586 7.7815342
14.675874 -16.471823 3.1691778
0.026941478 -0.084153287 8.7039413
0.88682735 -1.052138 8.7478504
1.1843983 -1.3872576 8.7930889
1.901747 -2.1974466 9.3376026
2.4304984 -2.7888484 8.7746305
3.1122227 -3.5561359 8.7275887
3.8056219 -4.3362813 8.5461502
4.6496444 -5.2868767 8.5060797
0.30336478 -0.43029809 8.9444809
0.58243138 -0.76354921 8.9137182
2.4606917 -2.8685319 14.588346
2.1244605 -2.4531422 8.8791285
2.8204346 -3.2386262 8.9436569
3.6250114 -4.1494169 9.082593
4.2025003 -4.7986584 8.5212011
5.0513387 -5.7578149 8.3817663
2.9796059 -3.3736665 4.5029893
3.0674284 -3.4694588 3.8164794
8.0768919 -9.1259928 8.0746775
10.359829 -11.697257 8.2657204
13.893983 -15.654653 4.0653663
6.302465 -7.156208 8.574295
7.5289974 -8.5399008 8.3733807
9.2813406 -10.520151 8.3296347
11.02972 -12.488728 7.7899265
14.569066 -16.467318 3.1588173
0.026637755 -0.084204294 8.6989422
0.88763595 -1.0605911 8.7923031
1.18284 -1.3952672 8.817565
1.8969834 -2.2074683 9.3519182
2.4002948 -2.7736778 8.7009897
3.0903649 -3.5561309 8.7012539
3.7867651 -4.3452964 8.5378847
4.6290531 -5.3006606 8.5022421
0.30268469 -0.43253967 8.9694386
0.57944119 -0.76515228 8.9087458
2.4563687 -2.8838024 14.622222
2.1136341 -2.4579258 8.8697424
2.8205037 -3.2616253 8.9796667
3.6156323 -4.1679554 9.0953913
4.1837468 -4.8110242 8.517211
5.0200753 -5.7626309 8.36339
2.9678113 -3.3840468 4.5029893
3.0578668 -3.4830704 3.819618
8.0201435 -9.1258631 8.050004
10.310158 -11.72337 8.2587643
13.810022 -15.669888 4.056973
6.2897358 -7.1922169 8.5909224
7.4938173 -8.5600471 8.3674936
9.2360411 -10.542758 8.3220348
11.007008 -12.55104 7.8046131
14.455935 -16.454828 3.1470759
0.026343664 -0.08429677 8.6989422
0.88243914 -1.06189 8.7774858
2.2760599 -2.7043445 17.017071
1.8892663 -2.2140765 9.3519182
2.3918717 -2.7835214 8.7055922
3.0716746 -3.5596437 8.6836977
3.7660496 -4.3521037 8.525485
4.6042228 -5.3095217 8.4907293
0.30199265 -0.43478176 8.9943972
0.57612711 -0.76631731 8.8988028
1.4706781 -1.7386985 8.805234
2.1028006 -2.4626641 8.8603573
2.8218646 -3.2863159 9.0201778
3.604465 -4.1845026 9.1039228
4.1649585 -4.823319 8.5132217
4.9844046 -5.7621713 8.3376646
2.953639 -3.3916962 4.4994845
3.0482481 -3.4966571 3.8227565
7.9497495 -9.1096954 8.0116243
10.260432 -11.749278 8.2518082
13.729361 -15.688426 4.0495119
6.3062105 -7.2620549 8.6474562
7.4585876 -8.5800533 8.3616076
9.1906948 -10.565176 8.314436
11.034661 -12.671527 7.8549657
14.349578 -16.449215 3.1367157
0.026039742 -0.084345631 8.6939421
0.87922138 -1.0655632 8.7824249
2.2679119 -2.7138357 17.026861
1.868018 -2.2047124 9.2851114
2.3821406 -2.7918534 8.7055922
3.0467637 -3.5557945 8.6485853
3.7490013 -4.3630891 8.5213528
4.5814776 -5.320703 8.4830542
0.30128866 -0.43702427 9.0193548
0.57408535 -0.76917887 8.9087458
1.4613665 -1.7399709 8.7858763
2.0908437 -2.4660404 8.8462791
2.8216751 -3.3093989 9.0561867
3.5813611 -4.1871495 9.082593
4.1461358 -4.8355408 8.5092316
4.9532156 -5.7666759 8.3192883
2.9417818 -3.4019859 4.4994845
3.0334764 -3.504333 3.819618
7.8877802 -9.1026287 7.9814677
10.21065 -11.774981 8.2448511
13.645514 -15.702884 4.0411186
6.3052053 -7.3123007 8.6807117
7.4233103 -8.5999165 8.3557215
9.1481247 -10.590669 8.3093691
11.034891 -12.761465 7.8864369
14.230467 -16.428085 3.1235929
0.025745163 -0.084436014 8.6939421
0.87500429 -1.0680245 8.7774858
2.2668762 -2.7319226 17.090498
1.8439757 -2.1918004 9.2039871
2.3685925 -2.7956798 8.6917858
3.0343335 -3.5664079 8.6485853
3.7337484 -4.3761487 8.5213528
4.5566287 -5.3293548 8.4715424
0.30057269 -0.43926719 9.0443144
0.57044637 -0.76989204 8.8938313
1.4512595 -1.7402344 8.7616796
2.0800004 -2.4706833 8.8368931
2.8227649 -3.3341815 9.0966978
3.5599699 -4.1916733 9.0655289
4.1272779 -4.8476892 8.5052414
4.9286556 -5.7787719 8.3119373
2.9275653 -3.409528 4.4959798
3.028837 -3.523756 3.8290334
7.8150496 -9.0825634 7.9403458
10.160813 -11.800481 8.237895
13.558527 -15.713227 4.0317922
6.2310748 -7.2775407 8.6142015
7.3879852 -8.6196394 8.3498354
9.0914555 -10.599633 8.2916374
11.043496 -12.861888 7.924202
14.137514 -16.436359 3.1159954
0.025450271 -0.084525362 8.6939421
0.87078065 -1.0704694 8.7725468
2.2638004 -2.747678 17.139452
1.8238739 -2.1833301 9.1419506
2.3563039 -2.8009405 8.68258
3.0203202 -3.5751483 8.6441965
3.7184501 -4.3891554 8.5213528
4.5317745 -5.3378973 8.4600296
0.29984468 -0.44151038 9.069272
0.56775546 -0.7718786 8.8938313
1.4483823 -1.7491624 8.7810364
2.0713634 -2.4779289 8.8368931
2.8251169 -3.3606787 9.1417103
3.5402732 -4.1980939 9.0527315
4.1083856 -4.8597655 8.5012512
4.9062638 -5.793354 8.3082628
2.9156461 -3.4197264 4.4959798
6.690516 -7.8390474 8.3923492
7.761569 -9.0843544 7.9184141
10.110926 -11.825776 8.2309389
13.471634 -15.723158 4.0224662
6.2153077 -7.3106256 8.6275034
7.3526125 -8.6392183 8.3439484
9.0292444 -10.601767 8.2688389
11.045645 -12.955618 7.9577708
14.015732 -16.410297 3.1021817
0.025155067 -0.084613688 8.6939421
0.86655068 -1.0728979 8.7676067
2.2593524 -2.7618687 17.178612
1.7847962 -2.1517668 8.9844761
2.3440077 -2.8061495 8.6733751
3.0062833 -3.5838346 8.6398067
3.7031064 -4.4021087 8.5213528
4.506917 -5.3463316 8.4485168
0.29894412 -0.44351396 9.0892391
0.56474388 -0.77342498 8.8888607
1.4398732 -1.7512946 8.7665186
2.0660074 -2.4891281 8.8509722
2.827318 -3.3872325 9.1867218
3.5155511 -4.1984277 9.0271358
4.0913968 -4.8740764 8.5012512
2.901387 -3.4271612 4.4924755
6.6580791 -7.8564153 8.3860722
7.7108755 -9.0890722 7.8992238
10.060982 -11.850867 8.2239819
13.381654 -15.72893 4.012207
6.1849337 -7.3265705 8.6208525
7.3171935 -8.658658 8.3380623
8.9643459 -10.600304 8.2435064
11.041408 -13.042589 7.9871435
13.89751 -16.387363 3.0890589
0.024868472 -0.084743686 8.6989422
0.86280024 -1.0759162 8.7676067
2.2541912 -2.7752712 17.212879
1.7611432 -2.1383946 8.9033518
2.3329511 -2.8128109 8.6687727
2.9922221 -3.5924664 8.6354179
3.6859136 -4.412848 8.5172195
4.4841127 -5.3571157 8.4408417
0.29787341 -0.44527611 9.1042137
0.56204063 -0.77539158 8.8888607
1.4337512 -1.7563101 8.7665186
2.0595009 -2.4989879 8.8603573
2.8293681 -3.4138427 9.2317343
3.5008745 -4.2106738 9.0271358
4.0724287 -4.886014 8.497261
4.8461437 -5.8040438 8.2751865
2.8894062 -3.437268 4.4924755
6.6205897 -7.8676953 8.373518
7.6575508 -9.0903492 7.8772922
10.010989 -11.875752 8.2170258
13.291799 -15.734268 4.0019484
6.1041555 -7.2823014 8.5443659
7.2817283 -8.6779537 8.3321762
8.8995686 -10.598517 8.2181749
11.039618 -13.133164 8.0186148
13.72539 -16.299408 3.0641942
0.024572508 -0.084829979 8.6989422
0.85855556 -1.0783134 8.7626677
2.249603 -2.789464 17.252041
1.7716204 -2.1664858 8.9940195
2.321876 -2.8194289 8.6641703
2.9796638 -3.6028893 8.6354179
3.6704874 -4.4256873 8.5172195
4.4551415 -5.3604097 8.4216537
0.29679403 -0.44703621 9.1191883
0.55964136 -0.77778172 8.8938313
1.426029 -1.7593508 8.7568398
2.0540435 -2.5101686 8.8744354
2.8312669 -3.4405081 9.2767467
3.4861553 -4.2228684 9.0271358
4.0553484 -4.9001994 8.497261
4.8496552 -5.8496332 8.3156128
2.8773904 -3.4473331 4.4924755
6.5831037 -7.8788104 8.3609648
7.6043115 -9.0913649 7.8553605
9.9637871 -11.903831 8.212388
13.208383 -15.746696 3.9935546
19.831387 -23.62574 2.8621364
6.0786982 -7.3035645 8.5443659
7.2488046 -8.7002125 8.3292332
8.8321533 -10.593098 8.1903095
11.034423 -13.220401 8.047987
13.550879 -16.206654 3.0386391
0.024276247 -0.084915236 8.6989422
0.85478634 -1.0813036 8.7626677
2.2398522 -2.7972996 17.252041
1.7819226 -2.1946759 9.0846882
2.3120203 -2.8275166 8.6641703
2.9670691 -3.6132681 8.6354179
3.6532276 -4.4363008 8.5130863
4.4486442 -5.3907623 8.4446793
0.295706 -0.44879416 9.1341629
0.55723232 -0.7801646 8.8988028
1.4183031 -1.7623593 8.7471609
2.0463572 -2.5186627 8.8791285
2.8357685 -3.4705999 9.330761
3.4763534 -4.2410631 9.0399342
4.0363059 -4.9119973 8.4932709
4.8485975 -5.8900828 8.3486891
2.8630638 -3.4546101 4.4889712
6.5530758 -7.8987455 8.3578262
7.5484867 -9.0889034 7.8306875
9.9136801 -11.928319 8.2054319
13.109324 -15.739865 3.9804981
19.707344 -23.64509 2.8563244
6.0293818 -7.2959566 8.5111113
7.2132378 -8.7192335 8.3233461
8.7951221 -10.623863 8.1903095
11.034544 -13.31475 8.0815554
13.557491 -16.330059 3.0524526
0.02397969 -0.084999464 8.6989422
0.85100669 -1.0842808 8.7626677
2.2421119 -2.8202457 17.345049
1.7920489 -2.2229638 9.175355
2.3021364 -2.8355699 8.6641703
2.9544384 -3.6236031 8.6354179
3.6359386 -4.446847 8.5089531
4.4318309 -5.4087367 8.4485168
0.29445207 -0.45030788 9.1441469
0.55450565 -0.78210497 8.8988028
1.4113581 -1.7663172 8.742321
2.0386362 -2.5271337 8.8838215
2.8263791 -3.4838583 9.3397627
3.4631748 -4.2551951 9.0441999
4.0172305 -4.9237223 8.4892807
4.8258624 -5.9043469 8.3450136
2.8509877 -3.4645829 4.4889712
6.5180397 -7.912559 8.3484106
7.4927716 -9.0861616 7.8060141
9.8635244 -11.952602 8.1984758
13.054302 -15.785528 3.9804981
6.0062461 -7.3198452 8.5144367
7.1776266 -8.7381124 8.3174601
8.744298 -10.637848 8.1776438
11.022605 -13.395239 8.1067324
13.525604 -16.407854 3.0579782
0.02368284 -0.08508265 8.6989422
0.84721661 -1.0872449 8.7626677
2.2360384 -2.8328505 17.374422
1.8029324 -2.2525146 9.2707949
2.2922244 -2.8435886 8.6641703
2.9432788 -3.6357558 8.6398067
3.620394 -4.4595113 8.5089531
4.4169693 -5.4291468 8.456192
0.29319119 -0.45181829 9.15413
0.55238479 -0.78490841 8.9087458
1.4036219 -1.7692635 8.7326431
2.0298026 -2.5342343 8.8838215
2.8114703 -3.4903126 9.330761
3.4515786 -4.2713151 9.0527315
3.9981222 -4.9353728 8.4852905
4.8180404 -5.9369512 8.3670654
2.8366201 -3.4717519 4.4854665
6.4879155 -7.93225 8.3452721
7.4477644 -9.0960846 7.7923069
9.8133183 -11.976679 8.1915188
12.958596 -15.781648 3.9683743
5.9900913 -7.3523445 8.5277376
7.1419721 -8.7568502 8.311574
11.01311 -13.479323 8.1340075
13.424336 -16.401318 3.0483086
0.023385702 -0.0851648 8.6989422
0.84341621 -1.0901955 8.7626677
2.2317884 -2.847852 17.418478
1.8024877 -2.2681439 9.3089705
2.2822845 -2.8515725 8.6641703
2.9305696 -3.6460075 8.6398067
3.6030397 -4.4699316 8.5048208
4.4020195 -5.4495187 8.4638672
0.29192337 -0.45332548 9.164114
0.55055588 -0.78814381 8.9236612
1.3966597 -1.7731647 8.7278032
2.0209441 -2.5413043 8.8838215
2.7992697 -3.5001051 9.330761
3.4382799 -4.2853713 9.0569983
3.9808702 -4.9492989 8.4852905
4.8057952 -5.964292 8.3817663
2.8244841 -3.4816325 4.4854665
6.4552798 -7.9488058 8.338995
7.4344316 -9.1447392 7.8114972
9.7602711 -11.997117 8.1822443
12.828933 -15.735411 3.9459913
6.9318571 -8.569211 9.8978443
7.1062737 -8.7754431 8.3056879
8.705102 -10.742174 8.2105751
10.991724 -13.549406 8.1528893
13.238955 -16.290514 3.0199909
0.023088278 -0.085245907 8.6989422
0.83960563 -1.093133 8.7626677
2.229336 -2.8652692 17.477221
1.7936349 -2.2732499 9.3041983
2.2723167 -2.8595219 8.6641703
2.9193184 -3.6580865 8.6441965
3.5874147 -4.4824815 8.5048208
4.3809652 -5.4623508 8.4600296
0.29049388 -0.45458543 9.1691055
0.54780138 -0.79006082 8.9236612
1.3896875 -1.7770389 8.7229643
2.0109916 -2.5469887 8.8791285
2.7829738 -3.5047402 9.3172579
3.4265499 -4.3014264 9.0655289
3.9616895 -4.9608107 8.4813013
4.7891827 -5.9863257 8.3891163
2.8100767 -3.488693 4.4819617
6.4250512 -7.9682608 8.3358574
3.8043628 -4.7130489 4.0556884
9.7099819 -12.020774 8.1752872
12.69975 -15.688461 3.9236081
6.9019027 -8.5933552 9.8978443
7.0705338 -8.7938957 8.2998009
8.6756582 -10.782572 8.2181749
10.952903 -13.598296 8.1591835
13.079389 -16.209446 2.9971983
0.022790575 -0.085325986 8.6989422
0.83578479 -1.0960571 8.7626677
2.2317686 -2.8891504 17.575127
1.7829275 -2.2759717 9.2898836
2.2611113 -2.8659024 8.6595669
2.9095066 -3.6720095 8.6529741
3.5699956 -4.4927731 8.5006876
4.3618712 -5.4776101 8.4600296
0.28905916 -0.45584098 9.1740971
1.0850763 -1.5786077 17.822653
1.3827053 -1.7808862 8.7181244
2.001024 -2.5526345 8.8744354
2.7626364 -3.5041759 9.2902508
3.4098966 -4.311316 9.061264
3.942477 -4.9722481 8.4773111
4.7745833 -6.0109706 8.4001417
2.7956543 -3.4956956 4.478457
6.3923326 -7.9845629 8.3295803
3.7643528 -4.6969342 4.0310154
