# .PCD v0.7 - Point Cloud Data file format
VERSION 0.7
FIELDS x y z
SIZE 4 4 4
TYPE F F F
COUNT 1 1 1
WIDTH 1584
HEIGHT 1
VIEWPOINT 0 0 0 1 0 0 0
POINTS 1584
DATA ascii
14.267128 40.00053 12.57306
4.0441589 11.214828 10.69929
5.1092491 14.191627 11.066372
6.460207 17.963707 11.303587
8.7942486 24.494112 12.118208
14.40449 40.20813 10.391907
14.551389 40.640495 6.1128559
14.654173 40.972603 1.8489997
0.061216202 0.064141192 8.7389402
0.50657713 1.3010925 8.8762703
0.64484596 1.6877819 8.7098703
0.35780385 0.95605123 3.3105872
0.46652636 1.2595952 3.2239864
0.61723739 1.677042 3.3421884
2.2246678 6.0696197 9.5669889
2.8395152 7.7721734 9.9835186
0.22872522 0.4645718 8.7947311
0.38939875 0.87200487 8.8640022
0.83668751 2.20561 9.1197968
0.40344471 1.0789874 3.1868029
0.60911703 1.6426289 3.6862388
0.79793179 2.1620321 3.8397601
0.94618398 2.5732853 3.7052422
3.2477164 8.8558455 10.303877
3.662683 10.090713 10.628936
4.3878641 12.108288 10.466869
1.3806142 3.8161075 2.7452679
7.5933661 21.010916 11.781021
14.259059 39.497967 17.054583
14.414804 39.973045 12.58011
4.0973492 11.239229 10.73587
5.1629033 14.185101 11.075201
6.5272913 17.953201 11.311186
8.8874388 24.484596 12.128699
14.564619 40.212448 10.405974
14.711704 40.640678 6.1204538
14.817491 40.977573 1.851418
0.061407093 0.063898154 8.7339401
0.51111567 1.2993163 8.8762703
0.65073347 1.6855206 8.7098703
0.36166728 0.95619255 3.3153591
0.47092035 1.257959 3.2239864
0.6222524 1.6726327 3.3377995
2.2262876 6.0090423 9.4843292
2.8599651 7.7441735 9.9604931
0.23034549 0.46377057 8.7947311
0.3926599 0.871126 8.8689747
0.84438139 2.2026758 9.1197968
0.40720862 1.0775725 3.1868029
0.61484712 1.6404928 3.6862388
0.81823683 2.1934426 3.8994834
0.95726025 2.5756154 3.713222
3.2797878 8.8476343 10.307552
4.4314418 12.096552 10.470007
1.3809997 3.7759221 2.7205946
7.6697025 20.992603 11.785659
14.573965 39.976566 12.597031
4.1443024 11.245878 10.755823
13.742885 37.352215 29.063799
6.5735617 17.885799 11.28332
8.9822321 24.478989 12.141287
14.724953 40.216133 10.420043
14.875599 40.649529 6.1294322
14.979306 40.977215 1.8536348
0.061629765 0.063683413 8.7339401
0.51593518 1.2982463 8.8812094
0.6569832 1.6841873 8.7147646
0.36446959 0.95353001 3.3105872
0.47461706 1.2544804 3.219384
0.63314557 1.6839007 3.3641338
2.8847377 7.728138 9.9528179
0.23196295 0.4629637 8.7947311
0.39569831 0.86975008 8.8689747
0.85206503 2.1997149 9.1197968
0.41096756 1.0761445 3.1868029
0.62134099 1.6403722 3.6907399
0.86361527 2.2906256 4.0743866
0.95458841 2.54123 3.6693318
3.3118412 8.8393059 10.311227
3.6288645 9.7840281 10.334554
4.4736395 12.081009 10.470007
1.3767717 3.724015 2.6876969
7.7475381 20.97817 11.792616
14.731667 39.97496 12.612541
4.1691966 11.192856 10.719243
13.8915 37.353264 29.10206
6.6404591 17.874868 11.290921
9.0755167 24.46876 12.151777
14.883801 40.214626 10.432938
15.039736 40.657734 6.138411
15.1413 40.976227 1.8558517
0.061851688 0.063467905 8.7339401
0.52046382 1.2964374 8.8812094
0.66285813 1.6818838 8.7147646
0.37102434 0.96060598 3.3392189
0.47899315 1.252816 3.219384
0.64837909 1.7063066 3.4124138
0.84879166 2.2429795 3.5948777
2.9083025 7.7090249 9.9413061
0.23357759 0.46215117 8.7947311
0.39873189 0.86836356 8.8689747
0.85973829 2.1967273 9.1197968
0.41472149 1.0747033 3.1868029
0.62861997 1.6422595 3.6997426
0.87067711 2.2851598 4.0701203
0.95810544 2.523797 3.6493816
3.3438766 8.830862 10.314902
3.6404622 9.711195 10.271472
4.5171471 12.068966 10.473146
1.3897626 3.7191865 2.6876969
7.8207178 20.950998 11.792616
14.891211 39.977242 12.629462
5.3396063 14.205929 11.134065
6.6997824 17.843506 11.285854
9.1736174 24.47093 12.168562
15.04282 40.212509 10.445833
15.202377 40.660648 6.1466994
15.303471 40.974609 1.8580686
0.062072851 0.063251615 8.7339401
0.52527827 1.2953327 8.8861494
0.66872495 1.6795597 8.7147646
0.37546113 0.9620859 3.348763
0.48265904 1.249314 3.2147813
0.67408091 1.7554556 3.5133626
0.85661602 2.2400031 3.5948777
2.9363363 7.7018213 9.9451437
0.23518938 0.46133301 8.7947311
0.40198529 0.86744976 8.8739462
0.86740106 2.1937129 9.1197968
0.41847038 1.0732492 3.1868029
0.6351341 1.6420853 3.7042434
0.88520879 2.2991433 4.0999818
0.96259189 2.5091839 3.6334214
3.3758936 8.8223028 10.318578
3.7109797 9.7951403 10.373104
4.5592484 12.053124 10.473146
7.890676 20.915281 11.787978
2.9872196 7.9264345 3.5106819
15.049257 39.9744 12.644971
4.1383624 10.877318 10.446552
5.3920326 14.194761 11.139951
6.7620268 17.820011 11.285854
9.2718449 24.472712 12.185346
15.202003 40.209766 10.458729
15.363472 40.658291 6.1542969
15.465813 40.972355 1.8602854
0.062293261 0.063034549 8.7339401
0.5297966 1.2934912 8.8861494
0.67458361 1.6772152 8.7147646
0.38100839 0.96632367 3.3678508
0.48630643 1.2458018 3.2101789
0.69493461 1.7910488 3.5879772
0.86544418 2.2396238 3.5990105
2.9678116 7.7034879 9.9604931
0.23693116 0.46076557 8.7997227
0.40501079 0.86604136 8.8739462
0.87505323 2.1906717 9.1197968
0.42221418 1.0717819 3.1868029
0.64244729 1.6439135 3.7132461
0.89417458 2.2984703 4.104248
0.97243387 2.5086181 3.6374116
3.4066684 8.8104649 10.318578
3.7438731 9.7787962 10.369599
4.601294 12.037136 10.473146
7.9667921 20.895889 11.792616
15.209171 39.975426 12.661892
4.1655869 10.834927 10.419948
5.4285116 14.141891 11.113462
6.8072114 17.752024 11.25799
9.3701963 24.474106 12.20213
15.359615 40.201859 10.470451
15.526502 40.659931 6.1625853
15.628325 40.969463 1.8625022
0.062512919 0.062816724 8.7339401
0.53460574 1.292352 8.8910885
0.68043405 1.6748502 8.7147646
0.3926689 0.98578727 3.4394307
0.48993516 1.2422793 3.2055764
0.70555365 1.7997608 3.6099226
0.87120956 2.2313468 3.5907447
2.9935212 7.6900945 9.9566555
0.23853809 0.45993572 8.7997227
0.4080314 0.86462229 8.8739462
0.8822242 2.1864381 9.1149569
0.42595282 1.0703017 3.1868029
0.64898139 1.6436857 3.7177474
0.98118466 2.5052085 3.6374116
3.4386356 8.8016777 10.322253
3.7754111 9.759016 10.362591
4.6446857 12.024632 10.476284
15.367556 39.971348 12.677402
4.1966228 10.802919 10.40332
6.8706937 17.732174 11.260522
9.4686708 24.475111 12.218915
15.519109 40.197876 10.483347
15.687947 40.656311 6.1701827
15.789209 40.961281 1.8645176
0.06273181 0.062598124 8.7339401
0.53881389 1.2897611 8.8861494
0.68627626 1.672465 8.7147646
0.40502733 1.0065658 3.5157826
0.49354523 1.2387468 3.200974
0.74182111 1.8729929 3.759151
0.87899315 2.2282922 3.5907447
3.0332513 7.71241 9.9988689
0.24014211 0.45910028 8.7997227
0.41081724 0.86271173 8.8689747
0.88985097 2.1833453 9.1149569
0.42968628 1.0688082 3.1868029
0.65632826 1.6454542 3.7267497
0.83800268 2.1103806 3.7843029
0.99214089 2.5073717 3.6453915
3.470583 8.7927742 10.325929
3.8055587 9.7358141 10.352077
4.6866312 12.008346 10.476284
6.1374393 15.749957 11.167051
15.526096 39.966648 12.692913
4.2042942 10.71174 10.330159
5.3693008 13.700972 10.798545
9.5672655 24.475727 12.2357
15.507005 39.71204 14.92694
15.676997 40.188747 10.49507
15.847756 40.647438 6.1770892
15.95204 40.957123 1.8667344
0.062949933 0.062378772 8.7339401
0.54331273 1.2878723 8.8861494
0.69211006 1.6700592 8.7147646
0.41022536 1.009294 3.5300984
0.49713665 1.2352041 3.1963713
0.746575 1.8659451 3.7503729
0.88884956 2.2304382 3.5990105
3.0684388 7.7226248 10.025731
0.2418787 0.45851403 8.8047142
0.4138262 0.86127245 8.8689747
0.89746684 2.1802258 9.1149569
0.43341452 1.0673019 3.1868029
0.66369551 1.6471915 3.7357521
1.0949298 2.7295115 4.8806481
1.0042429 2.5122869 3.6573615
3.5012543 8.7806063 10.325929
3.8329701 9.7058849 10.334554
4.7299476 11.995535 10.479424
6.1602111 15.646731 11.109481
3.1298096 7.9659367 3.5462697
15.679533 39.947933 12.704193
4.240283 10.693528 10.326834
5.4007254 13.640806 10.76617
9.6659803 24.475952 12.252483
15.577946 39.486351 14.862844
15.847485 40.210655 10.515
16.00951 40.642551 6.1846867
16.102226 40.919788 1.8675406
0.063167296 0.062158655 8.7339401
0.54780489 1.2859681 8.8861494
0.69793546 1.6676332 8.7147646
0.41941738 1.0216637 3.5778182
0.50070935 1.2316517 3.1917689
0.75039113 1.8566664 3.7372057
2.2765448 5.6547828 9.0255718
3.1025412 7.7297149 10.048756
0.24347773 0.45766693 8.8047142
0.41683006 0.85982269 8.8689747
0.90507179 2.1770799 9.1149569
0.43713745 1.0657824 3.1868029
0.67108274 1.6488973 3.7447543
1.1034715 2.7232561 4.8763824
1.0163913 2.5171487 3.6693318
3.5344164 8.7746191 10.333278
3.8602192 9.6758852 10.317032
4.771791 11.978951 10.479424
6.1730652 15.520228 11.035461
15.847173 39.964306 12.726753
4.251205 10.612807 10.26365
5.4408026 13.603106 10.751454
6.7616963 16.922686 10.794417
9.7614489 24.467356 12.265072
15.60554 39.155376 14.759301
16.01292 40.218311 10.531412
16.173254 40.641632 6.1929746
16.280031 40.951538 1.8713697
0.063383877 0.061937779 8.7339401
0.55198318 1.2833343 8.8812094
0.70375228 1.6651866 8.7147646
0.42526892 1.0257084 3.5969059
0.5050056 1.2298964 3.1917689
0.73695058 1.8052553 3.640646
2.2740085 5.592061 8.9387798
3.1234822 7.7039862 10.029569
0.24507381 0.45681423 8.8047142
0.41982886 0.85836244 8.8689747
0.91266572 2.1739073 9.1149569
0.44085506 1.06425 3.1868029
0.67849004 1.6505716 3.753757
1.0308619 2.5275362 3.6892819
3.5650239 8.762229 10.333278
3.8873053 9.645812 10.299508
4.8150291 11.965833 10.482561
6.1601686 15.331748 10.917579
16.013334 39.97554 12.747904
16.173559 40.41637 8.3563519
4.2868237 10.594441 10.260324
5.4791679 13.561545 10.733794
6.7739367 16.783054 10.720956
9.8586712 24.462599 12.279758
16.178602 40.225307 10.547825
16.333494 40.630882 6.199882
16.448946 40.959366 1.874191
0.063599698 0.061716154 8.7339401
0.55645955 1.2813997 8.8812094
0.70956057 1.66272 8.7147646
0.42884672 1.0242177 3.5969059
0.50854707 1.2263215 3.1871662
0.75329113 1.8270271 3.6889257
2.2667856 5.5190139 8.8354568
3.1430671 7.6752396 10.006544
0.24666689 0.45595598 8.8047142
0.42305899 0.85736948 8.8739462
0.92024845 2.1707082 9.1149569
0.44523355 1.0642966 3.1914957
0.68842161 1.6582454 3.7762628
1.0385305 2.521136 3.685292
3.5955882 8.7497311 10.333278
3.9142287 9.6156702 10.281986
4.8626308 11.963375 10.495115
6.2623963 15.430262 11.002564
16.181568 39.990551 12.770465
16.360565 40.473526 8.3796673
16.484076 40.820057 4.0451074
4.325192 10.58287 10.26365
5.5325823 13.557306 10.745567
6.8031859 16.687454 10.675359
9.9525566 24.449055 12.290249
16.34453 40.231632 10.564238
16.497578 40.628677 6.2081699
16.621866 40.975769 1.8774155
0.063814737 0.061493777 8.7339401
0.56092906 1.2794496 8.8812094
0.71536028 1.660233 8.7147646
0.4335824 1.0254641 3.6064501
0.51282459 1.2245388 3.1871662
2.2763326 5.4876742 8.7982597
3.1355381 7.5812879 9.8990936
0.24825697 0.45509216 8.8047142
0.42604917 0.85588747 8.8739462
0.92782003 2.1674826 9.1149569
0.44894594 1.062736 3.1914957
0.69168019 1.6498097 3.7627592
1.1269044 2.6995177 4.8550525
1.0473245 2.5174954 3.685292
3.6079147 8.6932898 10.281826
3.9653993 9.6448259 10.327545
4.910274 11.960731 10.507669
6.3257351 15.43152 11.019012
16.348284 40.000427 12.791615
16.496172 40.402527 8.3768692
16.494804 40.439487 4.0138121
4.3735037 10.595318 10.290254
1.5412374 3.739445 3.0286009
6.8285685 16.583883 10.624695
10.037839 24.414164 12.290249
16.510698 40.237289 10.580649
16.650572 40.598331 6.2123141
16.789423 40.9776 1.8800355
0.064062819 0.061298214 8.7389402
0.56539178 1.2774837 8.8812094
0.72115117 1.6577259 8.7147646
0.43715927 1.0239443 3.6064501
0.51633477 1.220942 3.1825638
0.88580185 2.1065161 4.2551169
3.1619828 7.5702963 9.8990936
0.24970412 0.45397043 8.7997227
0.4290342 0.85439515 8.8739462
0.93538034 2.1642308 9.1149569
0.4533301 1.0627495 3.1961884
0.7152608 1.6894823 3.8572848
1.1383468 2.7003736 4.863584
1.0596074 2.5221581 3.6972618
3.6146495 8.6243639 10.215672
3.9963069 9.6243382 10.320536
4.9579577 11.957899 10.520222
1.4899229 3.5988772 2.6383505
16.515268 40.009632 12.812765
16.695158 40.485477 8.4057808
4.4205184 10.604111 10.313532
1.5496212 3.7228475 3.0197713
6.878139 16.540045 10.612029
10.164772 24.479574 12.340602
16.675241 40.237782 10.595889
16.828192 40.626888 6.2254367
16.959103 40.983372 1.882857
0.064276405 0.06107422 8.7389402
0.57016468 1.2762116 8.8861494
0.72693336 1.6551985 8.7147646
0.44132203 1.0237827 3.611222
0.52059352 1.2191322 3.1825638
0.89783055 2.1144335 4.2770624
0.83559662 1.9754931 3.2229121
3.1821604 7.5444469 9.8799067
0.25128725 0.453096 8.7997227
0.43201396 0.85289228 8.8739462
0.94292921 2.1609526 9.1149569
0.45703706 1.0611607 3.1961884
0.72115386 1.6869755 3.8572848
2.8631594 6.7486744 9.7820482
3.6288764 8.5742302 10.171572
4.0340152 9.6201973 10.331049
5.0101924 11.965653 10.542192
1.5169929 3.6283746 2.6630237
16.678822 40.009296 12.831096
16.843931 40.445091 8.4095106
17.017757 40.902683 4.0701442
4.4618526 10.59894 10.323508
1.5438108 3.6727016 2.9844534
6.9174724 16.472214 10.584164
10.27824 24.51091 12.374171
16.839993 40.237621 10.61113
16.994747 40.627293 6.234416
17.129026 40.988461 1.8856784
0.064489201 0.06084948 8.7389402
0.57493567 1.2749219 8.8910885
0.73311955 1.6535817 8.7196598
0.444893 1.022236 3.611222
0.52407217 1.2155136 3.1779611
0.90520585 2.1112866 4.2770624
0.83696032 1.9596252 3.2022474
3.2034519 7.5214977 9.8645554
0.25272557 0.45196456 8.7947311
0.4347454 0.8509047 8.8689747
0.95046657 2.1576478 9.1149569
0.46142682 1.0611414 3.2008812
0.74084318 1.7164261 3.9293041
0.77610058 1.8058215 3.2851889
2.8570352 6.669394 9.6822977
3.6534545 8.5490408 10.15687
5.0428343 11.92658 10.523361
1.5231434 3.6076486 2.6520579
16.833269 39.986206 12.842376
17.005955 40.43586 8.4197702
17.195152 40.925671 4.0781913
4.4973621 10.579864 10.320183
1.5503043 3.6524076 2.9726808
6.9766116 16.451937 10.586697
10.390284 24.537573 12.405643
17.004942 40.236797 10.626369
17.16151 40.627022 6.2433944
17.297249 40.988255 1.8882982
0.064701207 0.060624003 8.7389402
0.57970452 1.2736143 8.8960276
0.73888713 1.6510127 8.7196598
0.44845855 1.0206769 3.611222
0.52831191 1.2136769 3.1779611
0.92303705 2.1322901 4.3253422
0.84713882 1.9644434 3.2146463
3.2271547 7.5043807 9.8568802
0.2543017 0.45107964 8.7947311
0.43771297 0.84938192 8.8689747
0.95799243 2.1543169 9.1149569
0.46512809 1.0595242 3.2008812
0.74161142 1.701856 3.902297
0.78447586 1.8078864 3.2937207
2.8671398 6.6289592 9.6384087
5.0829062 11.905325 10.520222
1.5521257 3.6407743 2.6794724
16.974621 39.931614 12.843786
17.183483 40.462158 8.4374895
17.345686 40.883739 4.0799799
4.5327926 10.56067 10.316857
1.5025361 3.5057979 2.8608408
7.0356946 16.431446 10.589231
10.47944 24.509499 12.409838
17.170094 40.235313 10.64161
17.336248 40.644306 6.255136
17.465681 40.987373 1.8909183
0.064912431 0.060397781 8.7389402
0.58447134 1.2722889 8.9009676
0.74464571 1.6484234 8.7196598
0.45141318 1.0177408 3.6064501
0.53254521 1.2118254 3.1779611
0.93431133 2.1378331 4.3428984
0.86073142 1.9769547 3.239444
3.2507772 7.4871893 9.849206
0.25587472 0.4501892 8.7947311
0.4406752 0.84784889 8.8689747
0.96499169 2.1498132 9.110117
0.46952304 1.0594716 3.205574
1.8049148 4.1023078 9.330761
0.78764194 1.7979707 3.2809229
2.9011147 6.6437635 9.6743183
4.159977 9.6363611 10.394132
5.1213517 11.880363 10.513947
1.5813577 3.6737413 2.7068872
17.155531 39.969101 12.874807
17.349785 40.460621 8.4496136
17.515747 40.887028 4.0862389
4.5696287 10.544783 10.316857
1.5292119 3.5339179 2.8873293
7.0912967 16.402828 10.586697
10.573925 24.493607 12.420328
17.333517 40.228699 10.655678
17.511316 40.660862 6.2668777
17.63629 40.99041 1.8937396
0.065122865 0.060170829 8.7389402
0.5892359 1.2709459 8.9059067
0.7503953 1.6458139 8.7196598
0.454963 1.0161588 3.6064501
0.53756452 1.2117448 3.1825638
0.92726517 2.1016917 4.2770624
1.0273011 2.3371689 3.8221896
3.2794664 7.481668 9.8568802
0.25744459 0.44929329 8.7947311
0.44363207 0.84630549 8.8689747
0.97249007 2.1464317 9.110117
0.47321847 1.0578262 3.205574
1.8174561 4.0920033 9.3217592
0.7918033 1.7904398 3.2723908
2.931581 6.6501393 9.6982584
4.1893139 9.6119738 10.383617
5.1596837 11.855275 10.507669
1.5941718 3.6681991 2.7068872
3.1232703 7.1934133 4.1915894
17.323557 39.974995 12.895958
17.500671 40.422352 8.454277
17.707785 40.939907 4.0974159
4.618382 10.556133 10.343461
1.5302109 3.5026309 2.8667274
7.1588573 16.401682 10.601896
10.632158 24.394138 12.388857
17.499043 40.225895 10.670918
17.688686 40.681236 6.2793097
17.805141 40.988163 1.8963594
0.065332502 0.05994314 8.7389402
0.59399831 1.2695851 8.9108458
0.75613564 1.6431847 8.7196598
0.4585073 1.0145645 3.6064501
0.54179102 1.2098609 3.1825638
0.8965897 2.0131192 4.1058884
1.0263216 2.3129916 3.7891262
3.302968 7.4643126 9.849206
0.25886616 0.44814241 8.7897396
0.44658351 0.84475172 8.8689747
0.97997659 2.143024 9.110117
0.47761852 1.0577407 3.2102668
1.8317287 4.0856342 9.3217592
0.79698503 1.7852838 3.2681251
2.9584517 6.6481247 9.7102289
4.189806 9.5222139 10.303013
5.1994691 11.833628 10.50453
1.5784057 3.597518 2.6602821
3.1519179 7.1905818 4.1962271
17.495678 39.988995 12.919929
17.886457 40.959995 4.1054635
4.6974406 10.635581 10.436575
1.542428 3.4972682 2.8667274
7.2212806 16.388426 10.609495
10.669721 24.248867 12.334309
17.469925 39.741123 15.198119
17.662802 40.217964 10.684986
17.870394 40.70993 6.2931237
17.9762 40.989815 1.8991809
0.065506868 0.059687987 8.7339401
0.59875816 1.2682062 8.9157839
0.76186687 1.6405352 8.7196598
0.462046 1.0129579 3.6064501
0.54601091 1.2079624 3.1825638
0.84762925 1.8854694 3.8557107
2.2860208 5.1035271 8.2857742
0.26057497 0.44748506 8.7947311
0.44952956 0.84318769 8.8689747
0.98745114 2.13959 9.110117
0.48130783 1.0560671 3.2102668
0.72042203 1.5921712 3.6772363
0.80321199 1.782491 3.2681251
2.9804053 6.6350088 9.7062387
4.2027516 9.4619017 10.253949
5.2391667 11.811849 10.501392
1.5909538 3.5919862 2.6602821
3.1769984 7.1795359 4.1962271
17.48568 39.551903 17.560301
17.666168 39.99789 12.942489
4.7527823 10.660041 10.476481
1.5464061 3.4733999 2.8520114
7.2854514 16.378876 10.619628
10.71561 24.124371 12.290249
17.650681 39.774853 15.234275
17.830662 40.218273 10.701398
18.026432 40.678993 6.2979584
18.149509 40.995342 1.9022039
0.065714821 0.05945896 8.7339401
0.60351586 1.2668099 8.9207239
0.76758873 1.6378658 8.7196598
0.46557906 1.0113388 3.6064501
0.55022418 1.2060491 3.1825638
0.81956393 1.8061675 3.7020931
2.2899091 5.0647464 8.2361784
1.2127886 2.6899714 3.6094239
0.26213539 0.44657275 8.7947311
0.45221707 0.8411442 8.8640022
0.9949137 2.1361303 9.110117
0.48499125 1.0543805 3.2102668
0.73863822 1.6173686 3.7402532
0.80834925 1.7773023 3.263859
3.0035477 6.6245646 9.7062387
3.8945675 8.6096506 10.322253
4.2124095 9.3951092 10.197877
5.2803659 11.793489 10.501392
6.8278103 15.271016 11.051909
3.2020404 7.1684022 4.1962271
17.640638 39.528725 17.577158
17.831076 39.992935 12.960819
4.866581 10.813628 10.642756
7.3496428 16.369076 10.629761
10.723623 23.917028 12.204228
17.818369 39.777641 15.258928
17.98484 40.186844 10.709604
18.196627 40.679108 6.3076277
18.321037 40.995598 1.9050254
0.06592197 0.05922921 8.7339401
0.60793418 1.2646955 8.9207239
0.77286577 1.6342559 8.7147646
0.46910644 1.0097075 3.6064501
0.55443072 1.2041211 3.1825638
0.80691355 1.7619241 3.6187005
2.306406 5.054163 8.2320452
1.2168603 2.6740522 3.594074
0.26369262 0.44565502 8.7947311
0.45515049 0.83956057 8.8640022
1.0023642 2.1326444 9.110117
0.48939559 1.0542462 3.2149594
0.76159596 1.6523432 3.8257763
0.81454825 1.7744697 3.263859
3.0216377 6.6030798 9.6902781
3.9288208 8.6052551 10.333278
4.2040076 9.2893753 10.09975
5.3215008 11.774986 10.501392
3.237968 7.1814103 4.2101398
17.788033 39.488045 17.586525
17.998129 39.991692 12.980559
4.9382706 10.871363 10.715918
6.0539484 13.345971 10.754396
7.4138541 16.359026 10.639894
10.735936 23.722328 12.124503
17.99213 39.792652 15.288511
18.159027 40.199127 10.729534
18.340551 40.619858 6.3083186
18.496895 41.004257 1.9082497
0.066128314 0.058998737 8.7339401
0.61268437 1.2632648 8.925663
0.7785657 1.6315482 8.7147646
0.47262812 1.0080639 3.6064501
0.55863047 1.2021784 3.1825638
0.80702919 1.7460532 3.592366
2.3275661 5.0537486 8.2444448
1.2194978 2.6552248 3.5748863
0.26524663 0.44473183 8.7947311
0.45782208 0.8374992 8.8590307
1.0098023 2.1291325 9.110117
0.49307257 1.0525315 3.2149594
0.82073742 1.7716157 3.263859
3.0421414 6.5870209 9.6822977
3.9645104 8.6038055 10.347979
4.2364082 9.2746429 10.09975
5.3641853 11.759878 10.50453
6.7643862 14.850063 10.783246
3.2703555 7.1861916 4.2194147
17.956463 39.493233 17.616491
18.165392 39.989769 13.0003
4.9995298 10.904969 10.7658
6.1055465 13.335785 10.763227
7.4762926 16.344807 10.647493
10.741364 23.515451 12.038483
18.142685 39.755379 15.298372
18.345615 40.237213 10.756497
18.543837 40.690773 6.3290386
18.6689 41.003101 1.9110713
0.066368707 0.058793802 8.7389402
0.61709023 1.2611184 8.925663
0.7842561 1.6288205 8.7147646
0.47678268 1.0077572 3.611222
0.56282347 1.2002212 3.1825638
0.81109399 1.7388847 3.5835879
1.2029389 2.5881875 4.2644153
1.2287588 2.6509519 3.5748863
0.26694697 0.44405022 8.7997227
0.46074271 0.83589602 8.8590307
1.0172282 2.1255946 9.110117
0.49748141 1.052364 3.2196524
1.9064544 4.060926 9.3397627
0.82581174 1.7663774 3.259593
3.0625701 6.5709 9.6743183
3.9959488 8.592988 10.351654
4.2597985 9.2403669 10.078722
5.4068303 11.744618 10.507669
6.8685808 14.940337 10.865491
3.3028159 7.1908345 4.2286901
18.094212 39.430313 17.616491
18.328863 39.978443 13.01722
5.0407009 10.89423 10.772451
6.145278 13.299715 10.751454
7.5387206 16.330353 10.655092
10.734078 23.284098 11.939875
18.305054 39.743279 15.318094
18.530659 40.270077 10.782289
18.749908 40.765263 6.3504496
18.849459 41.01939 1.9146987
0.06657353 0.058561772 8.7389402
0.62148857 1.2589568 8.925663
0.79038209 1.6269889 8.7196598
0.48029751 1.0060867 3.611222
0.56617373 1.1964833 3.1779611
0.81817907 1.7382097 3.5879772
1.2525973 2.6705933 4.4049354
3.4680715 7.4138265 9.8760691
0.26849538 0.44311568 8.7997227
0.4639172 0.83474827 8.8640022
1.0246418 2.1220307 9.110117
0.5011518 1.050621 3.2196524
1.9178221 4.0483446 9.3262596
0.83197254 1.7634841 3.259593
3.0829232 6.5547156 9.666338
4.027359 8.582056 10.35533
4.2965403 9.2351418 10.089235
5.4494338 11.729203 10.510807
6.9435687 14.965579 10.901129
3.3334854 7.1913185 4.2356462
18.274601 39.459461 17.6577
18.498518 39.979527 13.03837
5.0913353 10.903632 10.799055
6.1916652 13.278182 10.751454
7.6047807 16.323475 10.667758
10.719566 23.040737 11.834971
18.707966 40.284496 10.803391
18.887922 40.690578 6.3490686
19.011446 40.994137 1.9165126
0.066777542 0.058329031 8.7389402
0.62587935 1.2567796 8.925663
0.79605657 1.62422 8.7196598
0.48445454 1.0057489 3.615994
0.57034677 1.1944997 3.1779611
0.82321382 1.7331798 3.5835879
1.0813228 2.2846825 3.7849929
3.4898245 7.3929801 9.8645554
0.27004051 0.44217578 8.7997227
0.4668282 0.8331238 8.8640022
1.0320427 2.1184413 9.110117
0.50481611 1.0488654 3.2196524
1.930064 4.0376973 9.3172579
0.8381232 1.7605692 3.259593
3.1096606 6.5520806 9.6783075
4.0587425 8.5710096 10.359005
4.3287506 9.2200871 10.089235
5.4903431 11.71011 10.510807
3.3641984 7.1916757 4.2426028
18.435783 39.445827 17.680176
18.660284 39.962524 13.053881
5.1277742 10.882417 10.79573
6.2396975 13.260145 10.754396
7.6653819 16.30463 10.672825
10.778711 22.957989 11.811893
18.842283 40.205746 10.799873
19.04875 40.664764 6.3552852
19.17984 40.981823 1.918931
0.066980742 0.058095582 8.7389402
0.63026255 1.2545873 8.925663
0.80172127 1.6214315 8.7196598
0.48796231 1.0040517 3.615994
0.5745129 1.1925015 3.1779611
0.83029401 1.7324554 3.5879772
1.0856528 2.2732761 3.7725942
3.5197449 7.3894348 9.8760691
0.27158237 0.44123045 8.7997227
0.46999627 0.83195305 8.8689747
1.0394312 2.114826 9.110117
0.50847423 1.0470968 3.2196524
1.9469837 4.036818 9.330761
0.84426361 1.7576329 3.259593
3.1351159 6.5466218 9.6862879
4.0915599 8.5629072 10.366355
4.3731236 9.2307034 10.117271
5.5328503 11.694392 10.513947
6.787077 14.364761 10.500875
3.3949549 7.1919069 4.2495594
18.616867 39.47348 17.721382
18.824203 39.949215 13.070802
5.1689363 10.871195 10.802381
6.2911477 13.249239 10.763227
7.7351828 16.305038 10.690557
10.833523 22.866903 11.784618
18.835388 39.792698 15.411775
19.021992 40.223209 10.822146
19.218092 40.656227 6.3642635
19.352644 40.977871 1.9217525
0.067183122 0.057861414 8.7389402
0.63463801 1.2523795 8.925663
0.80737627 1.618623 8.7196598
0.49212152 1.0036824 3.6207662
0.57867199 1.1904888 3.1779611
0.83529353 1.7273905 3.5835879
1.2756079 2.6471896 4.3884034
1.5669497 3.2604275 4.4076247
0.27296788 0.4400349 8.7947311
0.47289747 0.83030736 8.8689747
1.0473655 2.1123109 9.1149569
0.51212621 1.0453155 3.2196524
0.85039377 1.754675 3.259593
3.1605706 6.5410647 9.6942682
4.1214247 8.5485735 10.366355
4.4130092 9.2314701 10.134795
5.573638 11.675008 10.513947
6.8425765 14.352304 10.509099
3.4238486 7.1880112 4.2541971
18.768488 39.437557 17.734493
18.977957 39.913589 13.080672
5.208467 10.856452 10.805706
6.3321176 13.216261 10.754396
7.8032193 16.301268 10.705756
18.974176 39.726707 15.411775
19.199961 40.235531 10.843248
19.387608 40.646999 6.3732424
19.506311 40.932613 1.92276
0.06738469 0.057626553 8.7389402
0.63900584 1.2501566 8.925663
0.81302136 1.6157948 8.7196598
0.49562204 1.0019585 3.6207662
0.58282405 1.1884617 3.1779611
0.84236848 1.7266167 3.5879772
1.2909931 2.6553748 4.4090686
1.5769227 3.252054 4.4037871
0.27450225 0.4390794 8.7947311
0.47579288 0.82865161 8.8689747
1.0547326 2.1086419 9.1149569
0.51653683 1.0450685 3.2243452
0.82380575 1.678187 3.9293041
0.85651356 1.751696 3.259593
3.1860247 6.535409 9.7022486
4.1512399 8.5341349 10.366355
4.4514027 9.228858 10.148813
5.614357 11.655481 10.513947
6.8056264 14.147464 10.377509
3.4508376 7.1800079 4.2565155
18.924095 39.409412 17.75135
19.164892 39.946575 13.113102
5.2495852 10.844926 10.812357
6.383491 13.204995 10.763227
7.8638229 16.281694 10.710823
19.143484 39.724041 15.436427
19.340294 40.168266 10.843248
19.559439 40.641548 6.3829117
19.703197 40.976837 1.9277983
0.067550041 0.05736547 8.7339401
0.6433658 1.2479185 8.925663
0.81865662 1.612947 8.7196598
0.49911651 1.0002223 3.6207662
0.58696902 1.18642 3.1779611
0.84733254 1.721517 3.5835879
2.787441 5.68256 9.3686066
1.5784047 3.2263758 4.376925
0.27587855 0.43787479 8.7897396
0.47868252 0.82698572 8.8689747
1.0620866 2.1049473 9.1149569
0.52018166 1.043259 3.2243452
0.8132326 1.6421384 3.8527834
0.86262286 1.7486955 3.259593
3.2114782 6.5296559 9.7102289
4.4820304 9.2100582 10.145308
5.6567097 11.639313 10.517084
6.8330588 14.078481 10.344612
3.4778123 7.1719046 4.2588344
19.158569 39.543373 17.841257
19.329294 39.931248 13.130023
5.2874088 10.826536 10.812357
6.4100552 13.142671 10.730852
3.3091905 6.7909513 4.5247998
19.209759 39.508343 15.378904
19.503752 40.148605 10.856144
19.701183 40.573025 6.3829117
19.878822 40.975235 1.9308212
0.067749873 0.057129323 8.7339401
0.64771789 1.2456651 8.925663
0.82428181 1.6100796 8.7196598
0.5026049 0.998474 3.6207662
0.5919795 1.1861118 3.1825638
0.8554672 1.7228389 3.592366
2.7972746 5.6526184 9.3355427
1.5797267 3.2007272 4.3500624
0.27740532 0.43690914 8.7897396
0.48156634 0.82530981 8.8689747
1.0694277 2.1012273 9.1149569
0.52459574 1.0429784 3.2290378
0.80241793 1.6061842 3.7762628
0.86988384 1.7480086 3.263859
3.2369299 6.5238042 9.7182083
4.5172954 9.200758 10.152317
5.6973038 11.619496 10.517084
6.8784828 14.047032 10.339128
3.5067191 7.1676793 4.2634721
19.296486 39.476257 17.841257
19.529612 39.988537 13.170914
19.725626 40.425655 8.6314754
5.3251686 10.808013 10.812357
6.4416156 13.0912 10.707306
19.239408 39.220589 15.293442
19.710091 40.21558 10.892487
19.908049 40.637421 6.4036322
20.063463 40.990856 1.9346504
0.067948878 0.056892484 8.7339401
0.65206212 1.2433965 8.925663
0.82989705 1.6071924 8.7196598
0.50676316 0.99804419 3.6255379
0.59611619 1.1840383 3.1825638
0.86254859 1.7219836 3.5967553
2.822017 5.6528907 9.3520756
1.589461 3.1923244 4.3462248
0.27892876 0.43593815 8.7897396
0.48444426 0.82362378 8.8689747
1.0761817 2.0963633 9.110117
0.52901429 1.0426798 3.2337308
0.79920125 1.5858779 3.7357521
0.8759802 1.7449615 3.263859
3.2623801 6.5178552 9.7261887
1.7288448 3.4616287 4.2729321
4.5493846 9.1849337 10.152317
5.7395544 11.603026 10.520222
6.9219184 14.011691 10.330905
3.5336783 7.1593671 4.2657909
19.473124 39.487659 17.876842
19.724205 40.032005 13.207575
19.905668 40.435883 8.648262
20.095362 40.857189 4.1805725
5.3612003 10.786016 10.809031
6.4782872 13.050533 10.692591
3.4599497 6.9762263 4.6615915
19.6024 39.610275 15.470941
19.910673 40.268536 10.925311
20.100245 40.669785 6.4195175
20.24403 40.996723 1.9380764
0.068147056 0.056654952 8.7339401
0.65639842 1.2411129 8.925663
0.83550215 1.6042858 8.7196598
0.51024389 0.99626923 3.6255379
0.60024559 1.1819502 3.1825638
0.87071455 1.7232373 3.6055334
2.841732 5.6430058 9.3520756
1.6005948 3.1867566 4.3462248
0.28044876 0.43496183 8.7897396
0.48731628 0.82192773 8.8689747
1.0834929 2.0925939 9.110117
0.53343701 1.0423628 3.2384233
0.78006661 1.5345652 3.6232216
0.88206589 1.7418932 3.263859
3.287828 6.511807 9.734169
1.7363416 3.4464903 4.2619066
4.5830121 9.1721888 10.155822
5.7817597 11.586405 10.523361
6.9763808 13.99867 10.339128
3.5625968 7.1549201 4.2704287
19.674856 39.548115 17.934908
19.876633 39.988686 13.216035
20.101318 40.476143 8.6715775
20.105047 40.519131 4.1537476
5.398818 10.767235 10.809031
6.5473309 13.074825 10.730852
3.4842806 6.9641061 4.6615915
19.818588 39.697933 15.531752
20.079319 40.255329 10.940551
20.299536 40.714603 6.4374757
20.424883 41.001827 1.9415023
0.068344407 0.056416731 8.7339401
0.66072667 1.2388141 8.925663
0.84109706 1.6013596 8.7196598
0.51371843 0.99448204 3.6255379
0.60436773 1.1798477 3.1825638
0.89195192 1.75006 3.6669803
1.1485168 2.261126 3.7973921
1.6001195 3.1582766 4.3155251
0.28196535 0.43398026 8.7897396
0.49018237 0.82022166 8.8689747
1.0902088 2.0876849 9.105278
0.53786409 1.0420277 3.2431161
0.74369633 1.4504758 3.4341707
0.88814086 1.7388035 3.263859
3.3119061 6.5029759 9.7381592
1.7483615 3.4404082 4.2619066
1.8236206 3.618135 4.0614161
5.8221684 11.566152 10.523361
7.0252028 13.974233 10.339128
3.5915267 7.1503572 4.2750659
20.065554 40.017685 13.248466
20.262285 40.445255 8.6799707
20.239676 40.435349 4.1524062
5.4313145 10.738329 10.799055
6.5965753 13.059106 10.736738
3.4638956 6.8633876 4.6033282
20.00589 39.725513 15.569551
20.252483 40.250126 10.958136
20.443756 40.647919 6.4381661
20.608259 41.010635 1.9451299
0.068540916 0.056177821 8.7339401
0.66504699 1.2365001 8.925663
0.84668171 1.5984139 8.7196598
0.5171867 0.99268281 3.6255379
0.60848248 1.1777309 3.1825638
0.91448212 1.7788854 3.7328167
1.1859168 2.3147047 3.8924499
1.6096755 3.1498177 4.3116875
0.2836374 0.43323436 8.7947311
0.4930425 0.81850559 8.8689747
1.0974896 2.0838666 9.105278
0.54149812 1.040144 3.2431161
0.70774913 1.3685935 3.2496209
0.89420503 1.7356929 3.263859
3.3359623 6.4940557 9.7421494
1.7479882 3.4101491 4.2325048
1.8313905 3.602211 4.0509028
5.8642688 11.549228 10.526499
7.0739393 13.949625 10.339128
3.6224706 7.149631 4.2820225
20.2311 39.998768 13.265386
20.443222 40.453197 8.6967583
20.623114 40.844559 4.2006912
5.4721589 10.725958 10.805706
6.66047 13.072014 10.76617
3.4917438 6.8589377 4.6083946
20.163683 39.693329 15.584344
20.421457 40.235531 10.973375
20.659456 40.72205 6.460959
20.791943 41.018658 1.9487575
0.068736598 0.055938225 8.7339401
0.66935909 1.2341712 8.925663
0.85225606 1.5954487 8.7196598
0.52134323 0.99219275 3.6303101
0.61168677 1.1738672 3.1779611
0.95376247 1.839466 3.8644891
1.3128496 2.5405431 4.2726812
1.6265351 3.1555755 4.3270373
0.28514796 0.43224165 8.7947311
0.49589658 0.81677961 8.8689747
1.1041672 2.078913 9.1004381
0.545928 1.0397751 3.2478089
0.70849454 1.3583943 3.231616
0.9002583 1.7325609 3.263859
3.3586104 6.4823718 9.7421494
1.7552102 3.3949921 4.2214794
1.8325616 3.5735824 4.0263705
5.9045472 11.528688 10.526499
7.1244941 13.928571 10.341871
3.6494217 7.1408882 4.2843413
20.403299 39.992001 13.286536
20.628923 40.46912 8.7154102
20.851444 40.940948 4.21768
5.5164003 10.720071 10.819008
6.702364 13.041494 10.760283
3.494004 6.8045244 4.5805297
20.312881 39.643715 15.59256
20.839827 40.724625 6.4727001
20.97821 41.030346 1.9525867
0.068931438 0.055697951 8.7339401
0.67366308 1.2318271 8.925663
0.85782003 1.592464 8.7196598
0.5296976 0.99959868 3.6637139
0.61578065 1.1717249 3.1779611
1.0101258 1.9316269 4.0619974
1.345122 2.5808618 4.3470745
1.6567608 3.1868486 4.376925
0.28665501 0.43124366 8.7947311
0.4984659 0.8145892 8.8640022
1.1114173 2.0750461 9.1004381
0.54955417 1.037863 3.2478089
0.71323192 1.3559129 3.231616
0.90751129 1.7317178 3.2681251
3.3826129 6.473278 9.7461386
1.7639153 3.3828328 4.2141294
1.8417479 3.5608289 4.019362
5.9465404 11.511465 10.529638
7.1749873 13.907332 10.344612
3.684474 7.1477923 4.2959352
12.795785 24.844614 11.379293
20.533993 39.903473 13.280896
20.801506 40.458027 8.728467
21.044291 40.96537 4.2275157
1.9039129 3.6684418 3.7622967
6.7534275 13.028787 10.769114
3.517735 6.7922869 4.5805297
20.468487 39.606133 15.605709
20.984127 40.656036 6.4733911
21.160234 41.032352 1.9560126
0.069125444 0.055456996 8.7339401
0.67795885 1.2294681 8.925663
0.86337352 1.5894599 8.7196598
0.53670257 1.0043256 3.6875737
0.61986691 1.1695683 3.1779611
1.0649087 2.0191789 4.2507277
1.3632884 2.5935867 4.3760047
1.6753172 3.1952395 4.3961124
0.28815857 0.43024042 8.7947311
0.5013063 0.81284428 8.8640022
1.1180563 2.0700481 9.0956001
0.55398679 1.0374607 3.2525017
0.71489966 1.347646 3.2181125
0.91355056 1.7285395 3.2681251
3.4065933 6.464097 9.7501287
1.7741348 3.3736544 4.2104545
1.8558158 3.5575404 4.0228662
5.9938807 11.504446 10.542192
7.2350702 13.904458 10.361061
3.7094018 7.1348872 4.2959352
12.818319 24.676376 11.323102
4.7203503 9.094862 3.1018701
20.926775 40.354645 8.7219391
21.207775 40.931454 4.2315397
1.9132433 3.6551576 3.7556458
6.8007379 13.008715 10.772056
3.5015066 6.7035475 4.5298662
20.648083 39.614006 15.636935
20.88209 40.097076 10.994477
21.137348 40.6045 6.4768443
21.324083 40.998135 1.9578265
0.0693186 0.055215362 8.7339401
0.68224639 1.2270941 8.925663
0.86940581 1.5873294 8.724555
0.54516357 1.0116435 3.7209778
0.62394577 1.1673974 3.1779611
0.98534483 1.8526363 3.9127688
1.3802418 2.6037297 4.4008026
1.6744738 3.1667047 4.3654122
0.28965867 0.42923194 8.7947311
0.50414062 0.8110894 8.8640022
1.124674 2.0650287 9.0907602
0.55842316 1.0370398 3.2571945
0.71857244 1.343223 3.2136111
0.92080551 1.7276415 3.2723908
3.4291365 6.4521666 9.7501287
1.7938424 3.382416 4.2288303
1.8698829 3.5541966 4.0263705
6.0412436 11.497234 10.554746
7.2097254 13.738421 10.256885
3.7425137 7.1375895 4.3052106
4.6920013 8.9635782 3.0637989
21.051577 40.250877 8.7154102
21.350525 40.857174 4.2315397
1.9259905 3.6484568 3.7556458
6.8479905 12.988473 10.775
3.4806831 6.6073766 4.4741359
20.865337 39.692162 15.696102
21.121374 40.21328 11.04606
21.28586 40.543621 6.4789162
21.494911 40.976536 1.9602448
0.069510914 0.054973062 8.7339401
0.68652552 1.2247051 8.925663
0.87494135 1.5842849 8.724555
0.55083036 1.0136687 3.7352936
0.62801689 1.1652123 3.1779611
0.94199234 1.7563229 3.7196496
1.3972825 2.6137853 4.4256001
3.8603773 7.23913 9.8990936
0.29115519 0.42821825 8.7947311
0.50696874 0.80932468 8.8640022
1.1318755 2.0610905 9.0907602
0.56203967 1.0350841 3.2571945
0.72222304 1.3387905 3.20911
0.92806536 1.7267139 3.2766569
3.4601789 6.4560928 9.7740688
1.8136328 3.3910809 4.2472062
1.8789352 3.5413475 4.019362
6.0922751 11.496713 10.573577
7.3319645 13.85361 10.361061
21.116449 40.000183 13.385239
21.472116 40.742748 4.2275157
1.9369597 3.6384158 3.7523203
6.8951845 12.968058 10.777943
3.5745125 6.7284293 4.5627975
21.07896 39.760933 15.751981
21.334423 40.276756 11.083574
21.554703 40.709782 6.5169039
21.64716 40.918919 1.9610509
0.069702387 0.054730088 8.7339401
0.69079638 1.2223012 8.925663
0.88046616 1.5812212 8.724555
0.55077779 1.005195 3.7114339
0.63301361 1.1647295 3.1825638
1.1931062 2.2059326 4.6633015
1.3917085 2.5816453 4.3801379
3.8856232 7.2256107 9.8990936
0.2926482 0.4271993 8.7947311
0.50979078 0.80755013 8.8640022
1.1390631 2.0571268 9.0907602
0.56647843 1.0346296 3.2618873
0.72585148 1.3343493 3.2046089
0.93532985 1.7257568 3.2809229
3.481261 6.4413247 9.7700787
4.3231182 8.0156393 9.9510612
1.8912854 3.5347672 4.019362
6.1378727 11.485676 10.582992
3.8284554 7.1731625 5.4154558
10.670916 20.010136 11.957251
21.00687 39.425205 18.137196
21.253696 39.921993 13.383829
1.9549468 3.6415014 3.7622967
6.9423194 12.947472 10.780885
3.6122274 6.7425094 4.5805297
21.26438 39.774567 15.786494
21.493206 40.236336 11.092953
21.715334 40.669239 6.5224295
21.836893 40.931263 1.9650815
0.069893003 0.054486446 8.7339401
0.69505882 1.2198825 8.925663
0.88598031 1.5781382 8.724555
0.55789357 1.0097984 3.7352936
0.63707536 1.1625128 3.1825638
1.2363508 2.2669339 4.7993627
1.3859274 2.5495765 4.3346758
3.9062378 7.2035508 9.8875809
0.2941376 0.42617515 8.7947311
0.5126065 0.80576575 8.8640022
1.1462369 2.0531383 9.0907602
0.57092071 1.0341564 3.2665799
0.72945774 1.3298987 3.2001076
0.94259906 1.7247698 3.2851889
3.5037241 6.4291329 9.7700787
4.3526912 8.0034781 9.9547367
1.8748236 3.4747887 3.9597845
1.6890992 3.1344852 2.9534039
3.8316724 7.1192532 5.3852997
10.705031 19.906439 11.91783
21.223358 39.498657 18.204624
21.474607 39.999718 13.43459
23.626286 44.081333 4.5829439
1.9712011 3.641222 3.7689478
6.9874721 12.923161 10.780885
3.666476 6.7867498 4.6185274
21.421017 39.733349 15.799643
21.679626 40.246651 11.116399
21.915857 40.702198 6.5396962
22.048279 40.98238 1.9709258
0.070082776 0.054242145 8.7339401
0.69931275 1.2174488 8.925663
0.8914836 1.5750359 8.724555
0.55632859 0.99871755 3.7018898
0.64112943 1.1602819 3.1825638
1.2154022 2.2101409 4.6896358
1.3434179 2.4509542 4.1776233
3.9298215 7.1870599 9.8837442
0.29562342 0.42514583 8.7947311
0.51541609 0.80397153 8.8640022
1.1533967 2.0491245 9.0907602
0.57536668 1.0336651 3.2712729
0.73304176 1.3254395 3.1956065
0.95868438 1.7397418 3.3193161
1.6091285 2.9283812 4.4992566
4.3871226 8.0001259 9.9694366
1.8647842 3.4274995 3.9142253
1.707464 3.1422501 2.9659576
7.4965801 13.812821 10.388475
10.727996 19.783281 11.866817
21.407484 39.50993 18.243959
4.8212633 8.905632 3.0666192
1.9874775 3.6408737 3.7755985
7.0306048 12.895143 10.777943
3.7025175 6.7966237 4.6337266
4.1911569 7.7031794 4.1414132
21.618223 39.766205 15.842375
21.861742 40.247612 11.137501
22.107422 40.716835 6.5542006
22.241228 40.997387 1.975158
0.070271686 0.053997181 8.7339401
0.70355821 1.2150004 8.925663
0.89697611 1.5719144 8.724555
1.4043303 2.4998405 9.2135305
0.64517564 1.1580368 3.1825638
1.2428548 2.2414913 4.7642498
1.3165723 2.3822153 4.0701666
3.9579799 7.1789117 9.8914185
0.29710567 0.42411134 8.7947311
0.51821929 0.80216742 8.8640022
1.1605424 2.0450861 9.0907602
0.57981604 1.033155 3.2759655
0.7366035 1.3209714 3.1911051
0.96221787 1.7318255 3.3107843
1.6222613 2.9280176 4.5072365
4.4265051 8.0055304 9.995163
1.86473 3.3990829 3.8896935
1.7090702 3.1192031 2.9502654
7.5226688 13.746221 10.358319
10.728979 19.62134 11.792616
21.580832 39.500053 18.273928
4.8316336 8.850853 3.0539289
2.0073762 3.6469977 3.7889006
7.0989413 12.913026 10.81326
3.7324457 6.7949929 4.641326
4.2289362 7.7083988 4.1519036
22.044128 40.247787 11.158602
22.292221 40.717609 6.5666327
22.441746 41.024693 1.9799948
0.070459746 0.053751554 8.7339401
0.70779508 1.2125372 8.925663
0.90194976 1.5678914 8.7196598
1.4093692 2.4884293 9.1896715
0.65017098 1.157481 3.1871662
1.2541779 2.2434108 4.7774177
1.2632366 2.2669904 3.8841841
3.9876871 7.1734562 9.9029312
0.29875153 0.42330697 8.7997227
0.52101624 0.80035365 8.8640022
1.1682984 2.0421135 9.0956001
0.58341891 1.0311247 3.2759655
0.7412101 1.3183922 3.1911051
1.6398201 2.9354904 4.5271869
1.8731309 3.3863118 3.8826842
1.7161835 3.1064048 2.9439886
7.5847473 13.745504 10.377509
10.701158 19.409201 11.68827
21.723055 39.432602 18.277672
4.8624992 8.8339338 3.0539289
2.0128469 3.62691 3.7755985
7.132216 12.866958 10.795602
3.7686739 6.8045497 4.6565251
4.2689986 7.7174182 4.1644917
5.0394282 9.117672 3.7149203
22.229132 40.251438 11.180877
22.477295 40.717583 6.5790653
22.628244 41.024853 1.9836224
0.070646942 0.053505279 8.7339401
0.71202332 1.210059 8.925663
0.90741718 1.5647334 8.7196598
1.418047 2.4834943 9.1896715
0.65420741 1.1552043 3.1871662
1.2714099 2.2557099 4.81253
1.0767852 1.9166515 3.3014381
4.0174041 7.167881 9.914444
0.30022731 0.42226157 8.7997227
0.52380681 0.7985301 8.8640022
1.1754194 2.038023 9.0956001
0.58958048 1.0335786 3.2900438
0.74473405 1.313903 3.186604
1.6470994 2.9244974 4.519207
1.8394015 3.2725623 4.1479764
1.8918884 3.392211 3.8967025
1.7251221 3.0969949 2.94085
7.6428466 13.737215 10.391216
10.684902 19.22073 11.597836
21.898838 39.425434 18.309515
2.0182021 3.6068285 3.7622967
3.8071153 6.8176985 4.6742573
4.2914896 7.6945415 4.1602955
5.0137563 8.9969034 3.6738327
22.409698 40.245792 11.200806
22.684315 40.755699 6.5977135
22.817446 41.028572 1.9874514
0.070833281 0.053258348 8.7339401
0.71624285 1.2075663 8.925663
0.91287363 1.5615565 8.7196598
1.4244729 2.4746482 9.175355
0.65920472 1.1546103 3.1917689
1.2840095 2.2595873 4.8300862
1.0501816 1.8541176 3.2022474
4.0424004 7.1538143 9.914444
0.30169949 0.421211 8.7997227
0.526591 0.79669678 8.8640022
1.1825265 2.0339074 9.0956001
0.59748715 1.0389932 3.3135076
0.74823564 1.3094053 3.1821027
1.2835884 2.2542386 4.3132787
1.6543219 2.9134896 4.5112267
1.8508137 3.2661216 4.1479764
1.9072139 3.3918035 3.9037118
1.7321103 3.0841672 2.9345734
7.705071 13.73598 10.410406
10.721608 19.129215 11.565372
4.14118 7.3946638 3.5125551
22.38962 40.012344 13.567133
2.0216064 3.5835016 3.7456691
2.3208086 4.1188674 3.5259953
3.8308902 6.8043675 4.6742573
5.0497575 8.9875822 3.6771197
22.597635 40.25209 11.224252
22.848253 40.715141 6.6039295
23.009392 41.035828 1.9914821
0.071018755 0.053010769 8.7339401
0.72045368 1.2050587 8.925663
0.91831899 1.5583603 8.7196598
1.4331024 2.469661 9.175355
0.66323102 1.1523021 3.1917689
1.3002234 2.2696378 4.8608098
1.0454832 1.8308915 3.169184
1.7477301 3.0679851 4.3040118
0.30333757 0.42038879 8.8047142
0.52936876 0.79485375 8.8640022
1.1896188 2.0297673 9.0956001
0.60543877 1.0443655 3.3369715
0.75280172 1.3067856 3.1821027
1.2706735 2.2135556 4.2450237
1.6644818 2.9076972 4.5112267
1.8773391 3.286134 4.1810532
1.9225596 3.39133 3.9107206
6.4166608 11.332285 10.582992
7.7632642 13.727201 10.424114
10.727295 18.983688 11.500446
4.1601291 7.368052 3.5069358
22.54565 39.963192 13.577003
2.0304112 3.569932 3.7390182
2.3451548 4.1283135 3.5407109
22.74758 40.189884 11.228941
23.021935 40.691162 6.6129084
23.204123 41.046589 1.9957142
0.071240366 0.052785657 8.7389402
0.72465569 1.2025366 8.925663
0.92427313 1.5560206 8.724555
1.4417144 2.4646435 9.175355
0.66724926 1.1499801 3.1917689
1.3093357 2.2671592 4.8651991
1.0476557 1.8199147 3.156785
1.7488511 3.0451894 4.2809873
0.30480316 0.41932741 8.8047142
0.53214014 0.79300112 8.8640022
1.1966969 2.0256023 9.0956001
0.61953151 1.0601231 3.3932846
0.75626534 1.3022674 3.1776016
1.2770861 2.2068493 4.2407579
1.6640784 2.8836007 4.4832969
1.8904904 3.2824986 4.1847281
1.9396948 3.393887 3.9212346
6.4484601 11.296297 10.570438
7.8152766 13.707283 10.429598
10.738676 18.849903 11.442476
22.425161 39.395397 18.403166
22.7111 39.930119 13.592513
23.006578 40.482487 8.931778
2.0502894 3.5757792 3.7523203
2.3595512 4.1201024 3.5407109
3.8055043 6.6502461 4.5881295
22.6266 39.620491 15.968924
22.940727 40.203114 11.254732
23.193277 40.662178 6.6211967
23.39921 41.056492 1.9999464
0.071424194 0.052536663 8.7389402
0.72884899 1.1999997 8.925663
0.929699 1.5527849 8.724555
1.4503088 2.4595959 9.175355
0.67224592 1.1493301 3.1963713
2.2813132 3.9183517 8.376462
1.054002 1.8162466 3.156785
1.7755302 3.0668049 4.3193626
0.30626503 0.41826087 8.8047142
0.53490502 0.79113871 8.8640022
1.2037601 2.0214128 9.0956001
0.66615742 1.1308043 3.6232302
0.76080644 1.2996197 3.1776016
2.9078791 4.9844341 9.5091867
3.6803546 6.3261924 9.7660885
1.9019368 3.2758796 4.1847281
1.956871 3.3963656 3.9317482
6.4995008 11.29396 10.589269
7.8859963 13.719795 10.459753
10.720573 18.66633 11.354362
22.56254 39.316879 18.403166
22.878979 39.900536 13.609434
23.11356 40.342262 8.9187212
23.432676 40.932343 4.3272147
5.8877382 10.185657 10.559619
2.3375404 4.0488324 3.4877341
3.4624982 6.0021391 4.1574888
22.752983 39.520805 15.960708
23.080923 40.122791 11.254732
23.335073 40.580967 6.6211967
23.597137 41.069862 2.00438
0.071607143 0.052287024 8.7389402
0.7330333 1.1974483 8.925663
0.93511367 1.5495301 8.724555
1.4581228 2.4532354 9.1705837
0.67625374 1.1469765 3.1963713
2.2792172 3.8835132 8.3194046
1.0603355 1.8125564 3.156785
1.7959186 3.0771976 4.3423872
0.30772316 0.41718924 8.8047142
0.53766328 0.78926671 8.8640022
1.2108089 2.0171986 9.0956001
0.71328372 1.2011719 3.8531759
0.7642318 1.2950813 3.1731002
2.9212942 4.9675097 9.4963884
3.6932685 6.2977118 9.7421494
1.9253476 3.2897015 4.2104545
1.970506 3.3925982 3.9352527
6.5291181 11.254369 10.573577
7.9527073 13.724747 10.484426
10.741275 18.552126 11.307986
22.936493 39.679222 13.561493
23.259155 40.269844 8.9205875
23.58786 40.871864 4.3294497
5.9063382 10.136008 10.52969
2.3374271 4.0161948 3.4671321
3.4769275 5.9788375 4.1498895
22.774649 39.24102 15.880175
23.133055 39.89061 11.212528
23.489 40.520683 6.6246495
23.742857 40.991566 2.0045817
0.07178922 0.052036747 8.7389402
0.73720866 1.1948822 8.925663
0.94104612 1.5471264 8.7294502
1.4659101 2.4468503 9.1658115
0.68025327 1.144609 3.1963713
2.275686 3.8466761 8.2579575
1.066656 1.8088441 3.156785
1.8098999 3.0764353 4.3500624
0.30900466 0.41588145 8.7997227
0.54041505 0.78738517 8.8640022
1.2171921 2.0118845 9.0907602
0.72899616 1.2179222 3.9141815
0.76874781 1.2924057 3.1731002
2.9426062 4.9640121 9.5091867
3.7182963 6.2899685 9.7501287
1.9385418 3.2858806 4.2141294
1.9733264 3.3703113 3.9177299
6.5487146 11.197911 10.542192
8.025876 13.740231 10.517324
10.768008 18.449478 11.268566
15.918853 27.296566 12.855243
22.973425 39.424843 13.502272
23.355091 40.111996 8.9038
23.680302 40.70319 4.3205085
5.9605947 10.147524 10.562944
2.3350685 3.9801204 3.4435868
3.4716146 5.9220371 4.1194911
4.4218793 7.5520654 4.1330209
23.181396 39.654358 11.169153
23.492887 40.203293 6.5866628
23.870686 40.882553 2.0033724
0.071933098 0.051763248 8.7339401
0.74137509 1.1923016 8.925663
0.94644082 1.5438321 8.7294502
1.4736705 2.4404404 9.1610394
0.68424457 1.1422274 3.1963713
2.2792859 3.8222528 8.2228451
1.0729635 1.8051097 3.156785
1.8255324 3.0783691 4.3615746
0.31045449 0.41480032 8.7997227
0.54316032 0.78549397 8.8640022
1.2242074 2.0076234 9.0907602
0.73502642 1.2183251 3.9235673
0.77325445 1.2897143 3.1731002
2.9452002 4.9290833 9.4622612
1.633224 2.7410128 4.2997556
1.9586639 3.2936628 4.2325048
1.9832664 3.3603315 3.9142253
6.6095057 11.211866 10.576715
10.80988 18.373598 11.245378
22.808561 38.798698 18.272053
23.093895 39.315456 13.492401
23.397993 39.865005 8.8674278
23.736578 40.474224 4.3053074
5.9370074 10.027059 10.459854
2.3530626 3.9789035 3.4494729
3.5514786 6.0100865 4.1878872
4.4459071 7.5326757 4.1309228
23.297464 39.535507 11.158602
23.577785 40.027168 6.5714674
23.975237 40.734398 2.0003493
0.072113357 0.051511839 8.7339401
0.74553245 1.1897063 8.925663
0.9512887 1.5396529 8.724555
1.4814041 2.4340067 9.1562672
0.68822747 1.139832 3.1963713
2.2654688 3.769114 8.1262846
1.079258 1.8013535 3.156785
1.8412005 3.0802317 4.3730874
0.31172594 0.41348413 8.7947311
0.54589885 0.78359318 8.8640022
1.2312078 2.0033379 9.0907602
0.73927474 1.215752 3.9235673
0.77775174 1.2870073 3.1731002
2.9650793 4.9232411 9.4707928
1.6629514 2.7688758 4.3516259
1.9913373 3.3472586 3.9072163
6.6664968 11.218841 10.60496
10.87169 18.33194 11.24306
23.521994 39.757717 8.8618317
23.824497 40.301094 4.2959189
5.9738855 10.00948 10.463179
2.387634 4.0053849 3.4789047
4.2783623 7.182797 4.9985042
23.73506 39.974426 6.5763025
24.045902 40.530151 1.9947065
0.072292723 0.051259801 8.7339401
0.74968082 1.1870967 8.925663
0.95665729 1.5363228 8.724555
1.4883301 2.426276 9.1467228
