# .PCD v0.7 - Point Cloud Data file format
VERSION 0.7
FIELDS x y z
SIZE 4 4 4
TYPE F F F
COUNT 1 1 1
WIDTH 1586
HEIGHT 1
VIEWPOINT 0 0 0 1 0 0 0
POINTS 1586
DATA ascii
3.8076265 6.7630472 4.6463923
5.0127478 8.9217119 3.6508236
22.592876 40.243614 11.221908
22.8531 40.723778 6.6053109
23.014275 41.04454 1.9918851
0.071055681 0.053034011 8.7389402
0.72085255 1.2057256 8.9306021
0.91883606 1.5592375 8.724555
1.4338516 2.470952 9.1801271
0.66323102 1.1523021 3.1917689
1.297842 2.2654817 4.8520317
1.0440876 1.8284479 3.165051
1.7477301 3.0679851 4.3040118
0.30282858 0.41968819 8.7897396
0.52966481 0.79529715 8.8689747
1.1902544 2.0308518 9.1004381
0.60630453 1.0458584 3.3416643
0.75171489 1.3048993 3.1776016
1.269375 2.2112937 4.2407579
1.6629846 2.905082 4.5072365
1.8773391 3.286134 4.1810532
1.9225596 3.39133 3.9107206
6.4128246 11.325511 10.576715
7.7714972 13.741757 10.43508
10.725116 18.979832 11.498128
4.1897602 7.4205317 3.5312855
22.526796 39.929771 13.565723
2.0304112 3.569932 3.7390182
2.3451548 4.1283135 3.5407109
4.862318 8.5836773 3.5226297
22.754763 40.202576 11.232458
23.041443 40.725643 6.618434
23.206581 41.050938 1.9959158
0.071240366 0.052785657 8.7389402
0.72505695 1.2032019 8.9306021
0.92427313 1.5560206 8.724555
1.4417144 2.4646435 9.175355
0.66724926 1.1499801 3.1917689
1.3093357 2.2671592 4.8651991
1.0490597 1.8223535 3.1609178
1.7520437 3.0507481 4.288662
0.3042917 0.41862857 8.7897396
0.53243774 0.79344344 8.8689747
1.1973363 2.0266845 9.1004381
0.61953151 1.0601231 3.3932846
0.75626534 1.3022674 3.1776016
1.2810053 2.2136211 4.2535558
3.668793 6.3572693 9.7940187
1.8854142 3.2736852 4.1737022
1.9396948 3.393887 3.9212346
6.4503894 11.299677 10.573577
7.8214898 13.718181 10.437821
10.736484 18.846054 11.440158
22.402227 39.35511 18.384436
22.720587 39.946796 13.598154
22.996872 40.465408 8.9280481
2.0354311 3.5498667 3.7257161
2.3535244 4.1095796 3.5318813
3.4351029 6.002965 4.1498895
22.675776 39.7066 16.003437
22.945547 40.211559 11.257077
23.23008 40.7267 6.631557
23.411581 41.078197 2.0009542
0.071387105 0.052513678 8.7339401
0.72884899 1.1999997 8.925663
0.929699 1.5527849 8.724555
1.4495506 2.4583104 9.1705837
0.6712594 1.1476439 3.1917689
2.2752879 3.9080031 8.354517
1.0554146 1.8186805 3.1609178
1.7787422 3.0723524 4.3270373
0.30575112 0.41756383 8.7897396
0.53520411 0.79158002 8.8689747
1.2044034 2.0224929 9.1004381
0.66703343 1.132291 3.627923
0.75970644 1.2977409 3.1731002
1.3426086 2.3014958 4.4284592
3.6773243 6.3209834 9.7581091
1.89683 3.2670839 4.1737022
1.9586514 3.3994558 3.9352527
6.4859104 11.270345 10.5673
7.8901644 13.727046 10.465236
10.716162 18.658649 11.349724
22.548693 39.292751 18.391928
22.859888 39.867245 13.598154
23.133097 40.376358 8.9261827
23.437622 40.940983 4.3281083
5.8896065 10.18889 10.562944
2.3233936 4.0243292 3.4671321
3.4624982 6.0021391 4.1574888
22.743557 39.504436 15.954133
23.085772 40.131218 11.257077
23.362226 40.628189 6.6287942
23.574736 41.030876 2.0025661
0.071569979 0.052264169 8.7339401
0.7330333 1.1974483 8.925663
0.93511367 1.5495301 8.724555
1.45736 2.4519522 9.1658115
0.67625374 1.1469765 3.1963713
2.2743678 3.8752511 8.3018475
1.0603355 1.8125564 3.156785
1.7991502 3.0827343 4.3500624
0.30720684 0.41649401 8.7897396
0.53796393 0.78970695 8.8689747
1.2114559 2.0182762 9.1004381
0.71416497 1.2026554 3.8578684
0.7642318 1.2950813 3.1731002
2.9133618 4.9540215 9.4707928
3.6947925 6.3003101 9.7461386
1.9167851 3.2750721 4.1920786
1.9651322 3.3833466 3.9247389
6.5291181 11.254369 10.573577
7.9569006 13.731983 10.489909
10.732395 18.536789 11.298711
22.912487 39.637691 13.547393
23.278811 40.303875 8.9280481
23.595327 40.884804 4.330791
5.9119778 10.145686 10.539666
2.327261 3.9987273 3.4524162
3.4769275 5.9788375 4.1498895
22.746206 39.192013 15.860453
23.130615 39.886402 11.211356
23.498934 40.537819 6.6274123
23.772905 41.043446 2.007
0.071714737 0.051991303 8.728941
0.73720866 1.1948822 8.925663
0.94051677 1.5462565 8.724555
1.4659101 2.4468503 9.1658115
0.68025327 1.144609 3.1963713
2.2744665 3.8446145 8.2535686
1.066656 1.8088441 3.156785
1.811525 3.0791976 4.3538995
0.30865881 0.41541913 8.7897396
0.54071724 0.78782433 8.8689747
1.2184936 2.0140352 9.1004381
0.73076916 1.2208835 3.9235673
0.76763481 1.2905349 3.1685991
2.9346266 4.950552 9.4835911
3.7182963 6.2899685 9.7501287
1.9385418 3.2858806 4.2141294
1.9715245 3.3672338 3.9142253
6.5663986 11.22815 10.570438
10.770242 18.453304 11.270885
15.923524 27.304577 12.85899
22.946857 39.37925 13.486761
23.340261 40.086525 8.8982048
23.665276 40.677364 4.3178258
5.9624858 10.150744 10.56627
2.3350685 3.9801204 3.4435868
3.4825151 5.9406314 4.1321573
4.3920674 7.5011501 4.1057463
23.174034 39.641766 11.165636
23.505379 40.224667 6.5901155
23.910992 40.951584 2.0065968
0.071895786 0.051740654 8.728941
0.74137509 1.1923016 8.925663
0.94590849 1.5429641 8.724555
1.4736705 2.4404404 9.1610394
0.68424457 1.1422274 3.1963713
2.2756057 3.8160818 8.2096777
1.0729635 1.8051097 3.156785
1.8271676 3.0811265 4.3654122
0.31028071 0.41456974 8.7947311
0.543464 0.78593212 8.8689747
1.2255164 2.0097694 9.1004381
0.73680961 1.22128 3.9329526
0.7721349 1.2878474 3.1685991
2.9492135 4.9358001 9.4750595
1.636309 2.7461898 4.3077354
1.9814537 3.3572602 3.9107206
6.6035757 11.201807 10.5673
10.816618 18.38505 11.252336
22.815609 38.810684 18.277672
23.089035 39.307182 13.489582
23.365667 39.809929 8.8553038
23.701309 40.414085 4.2990484
5.9408121 10.033484 10.466505
2.3571777 3.985862 3.4553595
3.555865 6.0175095 4.1929536
4.4274521 7.5014076 4.1141386
23.302401 39.543884 11.160947
23.587839 40.044239 6.5742302
23.957497 40.704254 1.9989387
0.072113357 0.051511839 8.7339401
0.74553245 1.1897063 8.925663
0.9512887 1.5396529 8.724555
1.4806279 2.4327316 9.151495
0.68822747 1.139832 3.1963713
2.264235 3.7670612 8.1218958
1.079258 1.8013535 3.156785
1.8428451 3.082983 4.376925
0.31172594 0.41348413 8.7947311
0.54620409 0.78403026 8.8689747
1.2325244 2.0054796 9.1004381
0.73927474 1.215752 3.9235673
0.77662563 1.2851443 3.1685991
2.9664249 4.9254751 9.4750595
1.6645027 2.7714589 4.3556156
1.9876903 3.3411286 3.900207
6.6545672 11.198766 10.586131
10.867171 18.32432 11.238422
23.509489 39.736584 8.8571692
23.809294 40.275375 4.2932363
5.9853668 10.028717 10.483132
2.3917732 4.0123286 3.4847908
4.2717447 7.1716866 4.9909048
23.757812 40.012749 6.5825181
24.033157 40.508671 1.993699
0.072292723 0.051259801 8.7339401
0.74968082 1.1870967 8.925663
0.95665729 1.5363228 8.724555
1.4883301 2.426276 9.1467228
0.69321787 1.1390915 3.200974
1.3366719 2.2064674 4.7949739
1.0855393 1.7975751 3.156785
1.8569037 3.082022 4.3845997
0.31334275 0.41262284 8.7997227
0.54863077 0.78168291 8.8640022
1.2395173 2.0011649 9.1004381
0.74351394 1.2131641 3.9235673
0.78110689 1.2824256 3.1685991
2.9957805 4.9351554 9.5134525
1.6975745 2.8042974 4.4154663
2.0011749 3.3372285 3.9037118
6.685617 11.162112 10.573577
2.2422526 3.7480967 2.9481363
10.912886 18.255859 11.219872
6.0184126 10.004564 10.479807
2.4307458 4.0455313 3.5201087
4.3588829 7.2602153 5.0618334
0.072471209 0.05100714 8.7339401
0.75382 1.1844727 8.925663
0.96201426 1.5329742 8.724555
1.4952202 2.4185266 9.1371794
0.69718981 1.1366647 3.200974
1.309417 2.1445551 4.6720796
1.0932705 1.7961787 3.1609178
1.8743056 3.0864799 4.3999496
0.31478116 0.41152656 8.7997227
0.55135602 0.77976304 8.8640022
1.2464951 1.9968261 9.1004381
0.74774414 1.2105614 3.9235673
0.78557867 1.2796912 3.1685991
3.0293226 4.951364 9.5646439
1.7183392 2.8163605 4.4433966
1.9962093 3.3027544 3.8721707
6.7506924 11.182026 10.614377
2.2466855 3.7259238 2.9371703
10.978829 18.221447 11.222191
6.0494261 9.977108 10.473156
2.4636972 4.0681381 3.5465972
4.3975897 7.2670846 5.077033
0.072648823 0.050753858 8.7339401
0.75795001 1.1818341 8.925663
0.96735948 1.5296067 8.724555
1.5028639 2.4120257 9.1324072
0.70218068 1.1358858 3.2055764
1.2942996 2.1032577 4.5930762
1.0995338 1.7923515 3.1609178
1.8817215 3.074451 4.3922749
0.3163926 0.41065332 8.8047142
0.55376482 0.7773999 8.8590307
1.2541273 1.9935266 9.105278
0.75196522 1.2079439 3.9235673
0.78889525 1.27509 3.1640978
3.0643833 4.9696183 9.620101
1.7344735 2.820612 4.4593563
1.818256 2.9626133 3.8466129
1.9984487 3.2805381 3.8546481
6.7937298 11.165044 10.620654
2.2596779 3.7180586 2.9371703
4.2637796 7.0210304 4.3863688
5.1855636 8.5455961 4.1269097
6.0900574 9.9654894 10.483132
2.5178955 4.1250648 3.6025174
4.4319091 7.2664108 5.0871654
0.072825544 0.050499957 8.7339401
0.76207078 1.1791811 8.925663
0.97269291 1.5262207 8.724555
1.5096867 2.4042373 9.1228638
0.70614141 1.1334277 3.2055764
1.2915342 2.0824449 4.5579634
1.1072634 1.7908959 3.165051
1.9008563 3.0815036 4.4114623
0.31782416 0.40954638 8.8047142
0.55616379 0.77502942 8.8540592
1.2610782 1.9891368 9.105278
0.75617713 1.2053117 3.9235673
0.79334134 1.2723285 3.1640978
3.0913482 4.9743967 9.6499624
1.7443087 2.8145404 4.4593563
1.8285865 2.9562485 3.8466129
1.9874957 3.2370729 3.8125935
1.847193 3.0120838 2.9314349
2.2682738 3.7030168 2.9316874
4.1865077 6.8398619 4.2843413
5.2395506 8.5669928 4.1456399
6.1345963 9.9600658 10.49976
2.5110996 4.0818233 3.5730855
4.4707918 7.2729316 5.102365
0.073001377 0.050245441 8.7339401
0.76575804 1.1758629 8.9207239
0.97801453 1.5228162 8.724555
1.5180699 2.3989527 9.1228638
0.71113259 1.1326104 3.2101789
1.2835613 2.0535536 4.5052948
1.1135082 1.7870198 3.165051
1.9048315 3.0639615 4.3961124
0.31925181 0.40843448 8.8047142
0.55855292 0.77265167 8.8490877
1.268014 1.9847226 9.105278
0.76130223 1.2041233 3.9282601
0.79777771 1.2695514 3.1640978
3.1086934 4.9635758 9.6499624
1.7525263 2.8058786 4.4553661
1.8245465 2.9268322 3.8172119
2.0137959 3.2543762 3.8406298
1.8638352 3.0155501 2.94085
2.2965622 3.7199824 2.9508777
4.2382674 6.8704486 4.3121672
5.2086077 8.4499903 4.098814
6.1575112 9.9195585 10.479807
2.5253327 4.0730333 3.5730855
4.5120444 7.2829323 5.1200972
0.073176317 0.049990315 8.7339401
0.76985782 1.1731827 8.9207239
0.98332411 1.519393 8.724555
1.5256318 2.3923807 9.1180916
0.71508181 1.1301212 3.2101789
0.92178786 1.4634302 3.2368507
1.1212358 1.7855052 3.169184
1.9001986 3.0328486 4.3615746
0.32067555 0.40731761 8.8047142
0.56061798 0.76983625 8.8391457
1.2749343 1.9802843 9.105278
0.76550072 1.2014585 3.9282601
0.80220443 1.2667589 3.1640978
3.1343529 4.9659266 9.6755581
1.7623099 2.7997441 4.4553661
1.834752 2.9204454 3.8172119
2.0364668 3.2654829 3.8616571
1.8846402 3.0255446 2.9565425
2.3095334 3.7119434 2.9508777
2.7606442 4.4404058 2.8234975
5.2160544 8.3963165 4.0819569
6.1980405 9.9075003 10.489783
2.5031216 4.0059204 3.523052
4.5488539 7.2854204 5.1327629
5.0513167 8.099577 4.5001802
0.07335037 0.049734574 8.7339401
0.77351952 1.1698402 8.9157839
0.98862177 1.5159513 8.724555
1.5347806 2.3882964 9.1228638
0.72007281 1.1292654 3.2147813
0.93202519 1.4682914 3.2544069
1.1289666 1.7839583 3.1733167
1.8987948 3.0072262 4.3347125
0.32209539 0.40619573 8.8047142
0.56298602 0.76744521 8.8341742
1.2811548 1.9747676 9.1004381
0.76968998 1.198779 3.9282601
0.80779266 1.2657861 3.1685991
1.7607733 2.7757645 4.4274364
1.8503755 2.922616 3.8282371
2.068728 3.2915678 3.900207
1.8889813 3.009058 2.9471271
2.3246977 3.7074013 2.953619
2.7596629 4.4044652 2.807266
6.2286038 9.879488 10.483132
2.4869354 3.9492741 3.4818475
5.1326914 8.1664314 4.5463371
0.073523529 0.049478233 8.7339401
0.77716744 1.1664866 8.9108458
0.99390745 1.5124911 8.724555
1.543108 2.3829243 9.1228638
0.72506666 1.1283885 3.219384
0.92810988 1.4509069 3.2236834
1.1367 1.7823793 3.1774499
1.8937935 2.9762425 4.3001747
0.32333049 0.40484405 8.7997227
0.56502688 0.76461864 8.8242302
1.2873523 1.9692315 9.0956001
0.77480739 1.1975336 3.9329526
0.81220621 1.2629586 3.1685991
1.2984723 2.0258837 4.0061316
1.8623898 2.9189973 3.8319125
2.0782969 3.2813137 3.8967025
1.8973924 2.9991565 2.9439886
2.7206233 4.3086572 2.7539334
2.180352 3.4318182 3.7024374
2.4942081 3.9303308 3.4730182
10.608817 16.729801 11.726627
0.073695801 0.049221285 8.7339401
0.78080118 1.1631216 8.9059067
0.99974322 1.5098614 8.7294502
1.5514166 2.3775234 9.1228638
0.7290011 1.1258507 3.219384
0.93187112 1.4456455 3.2192943
1.1459579 1.7831352 3.1857157
1.9162822 2.9885006 4.3270373
0.32474169 0.40371293 8.7997227
0.56705481 0.76178724 8.8142872
1.2935268 1.9636762 9.0907602
0.77898282 1.1948218 3.9329526
0.8166098 1.2601157 3.1685991
1.2800645 1.9819055 3.9293447
1.8045866 2.8014014 4.487287
1.8578997 2.8896661 3.8025112
2.0801442 3.2590089 3.87918
1.9057573 2.989233 2.94085
2.6402657 4.1460614 3.3072681
2.7189994 4.2729731 2.7377019
2.192318 3.4241865 3.7024374
2.4839578 3.8841434 3.4406435
10.660186 16.68177 11.719028
0.073905326 0.048984885 8.7389402
0.78398544 1.1591021 8.8960276
1.0050076 1.5063624 8.7294502
1.5605265 2.3733406 9.127636
0.73399431 1.1249352 3.2239864
0.93430227 1.4383671 3.2105162
1.1552346 1.7838477 3.1939816
1.9371399 2.997946 4.3500624
0.32614893 0.40257689 8.7997227
0.56874973 0.75852489 8.7993736
1.2989829 1.9570546 9.0810814
0.78504413 1.1949797 3.9423382
0.8221938 1.2590802 3.1731002
1.2841295 1.9730536 3.9208131
1.8143543 2.795085 4.487287
1.89747 2.9286854 3.8613136
2.0857198 3.2427297 3.8686662
1.9140761 2.9792876 2.9377115
2.6727896 4.1649733 3.3292
2.1657965 3.3569024 3.6392531
2.5215862 3.9128222 3.4730182
10.655335 16.5466 11.650632
0.074075863 0.048726607 8.7389402
0.78758889 1.1557164 8.8910885
1.0102596 1.502845 8.7294502
1.5688013 2.3678789 9.127636
0.73899013 1.1239985 3.2285891
0.93669379 1.4310893 3.2017381
1.178372 1.8057264 3.239444
1.9388481 2.9777358 4.3308749
0.32755217 0.40143597 8.7997227
0.57075042 0.75568497 8.7894306
1.3044086 1.9504187 9.0714016
0.7901634 1.193671 3.9470313
0.8265838 1.2562025 3.1731002
1.8240999 2.7887347 4.487287
2.0540965 3.146302 4.1516519
2.0562925 3.1725845 3.7950706
1.9223489 2.969321 2.9345734
2.6850407 4.1521068 3.3264587
2.5155554 3.8929873 2.5127783
2.1062691 3.2397597 3.5228605
2.5462363 3.9209459 3.4877341
10.661404 16.42975 11.594902
0.074245498 0.048467737 8.7389402
0.79117841 1.1523198 8.8861494
1.0149282 1.4984665 8.724555
1.5770572 2.3623884 9.127636
0.74398816 1.1230407 3.2331915
0.93904603 1.4238125 3.1929598
1.1722987 1.7827929 3.2063804
1.9492304 2.9709499 4.3308749
0.32876742 0.40006769 8.7947311
0.57209176 0.75199252 8.7695436
1.3098038 1.9437691 9.0617228
0.79719836 1.195212 3.9611094
0.83096379 1.2533095 3.1731002
1.1929022 1.8052069 3.6093998
1.8305068 2.7773187 4.4793067
2.0725195 3.1504416 4.1663523
2.0322518 3.1116431 3.7319891
1.939082 2.9723723 2.9439886
2.7040837 4.1497154 3.3319414
2.4928718 3.8284998 2.4779963
6.3325539 9.666213 10.373391
2.5599074 3.9120343 3.4877341
10.678584 16.3311 11.551838
2.5146587 3.8501878 2.2133029
0.074375853 0.048187535 8.7339401
0.7943114 1.1482732 8.8762703
1.0201527 1.4949147 8.724555
1.585294 2.356869 9.127636
0.74898863 1.1220616 3.2377942
0.94268465 1.4185313 3.1885707
1.6199619 2.4448862 4.3801379
1.9189322 2.9026318 4.2426119
0.33016193 0.39891765 8.7947311
0.57406384 0.74914563 8.7596016
1.3151685 1.9371053 9.0520449
0.80329114 1.1952864 3.9704952
0.83533353 1.2504013 3.1731002
1.1847408 1.7793241 3.5667403
1.8035146 2.7156899 4.3915262
2.1172202 3.1940506 4.2325048
2.1450498 3.2594376 3.9142253
1.9622743 2.9851003 2.9628191
2.7024868 4.1157842 3.3127513
2.5062203 3.8197749 2.4779963
2.1473484 3.253021 3.5527902
2.5624223 3.8862021 3.4730182
10.692833 16.228931 11.506241
2.5280831 3.8413863 2.2133029
0.074543603 0.047927622 8.7339401
0.79787052 1.1448563 8.8713322
1.0253646 1.4913445 8.724555
1.5935113 2.351321 9.127636
0.75399131 1.1210613 3.2423966
0.94629782 1.4132422 3.1841817
1.6316113 2.443897 4.3884034
1.9290527 2.8959157 4.2426119
0.33155239 0.39776272 8.7947311
0.5743919 0.74418598 8.7248001
1.3205028 1.930428 9.042366
0.80939394 1.1953325 3.9798803
0.83969319 1.2474778 3.1731002
1.1909447 1.7751778 3.5667403
1.7828184 2.6643014 4.319706
2.1396544 3.2035553 4.2545562
5.8913469 8.8841133 10.55534
1.9769812 2.9847224 2.9690962
2.7053006 4.0888896 3.2990439
2.5195386 3.811003 2.4779963
6.3957462 9.61555 10.36674
2.5200517 3.7930675 3.3994391
10.706499 16.126862 11.460644
2.5414767 3.8325384 2.2133029
0.074710444 0.04766712 8.7339401
0.80141521 1.1414285 8.8663921
1.0305642 1.4877563 8.724555
1.6017091 2.3457441 9.127636
0.75899613 1.1200397 3.246999
0.94988561 1.407945 3.1797926
1.6322788 2.4265127 4.3677392
1.9462947 2.8998096 4.2579622
0.33293882 0.39660296 8.7947311
0.57764143 0.74301732 8.7347431
1.3258063 1.9237369 9.0326862
0.81453425 1.1939255 3.9845734
0.8440426 1.2445391 3.1731002
1.1956733 1.7688493 3.5624745
1.7247255 2.558126 4.1601048
2.1659665 3.2185674 4.2839575
5.9342098 8.8812857 10.576368
1.9895487 2.981041 2.9722347
2.7241962 4.08638 3.3045268
3.0780408 4.6206284 2.99277
6.4334297 9.599369 10.373391
2.4500802 3.6599703 3.2905421
10.729173 16.039228 11.425179
2.5296247 3.7859075 2.1923225
0.074876383 0.047406044 8.7339401
0.80494583 1.1379899 8.8614531
1.0357512 1.4841498 8.724555
1.6098876 2.3401392 9.127636
0.76400286 1.1189969 3.2516015
0.95479441 1.4046206 3.1797926
1.6107403 2.3765423 4.2892127
1.9528139 2.8876882 4.2502871
0.3343212 0.3954384 8.7947311
0.58056068 0.7414158 8.7397146
1.3289284 1.9139353 9.0084896
0.82162988 1.1953409 3.9986515
0.8483817 1.2415854 3.1731002
1.2018405 1.7646649 3.5624745
1.6625273 2.4474049 3.9925237
2.1809933 3.216599 4.2913079
2.1173236 3.1450891 3.8055847
2.0520713 3.0515957 3.0475576
2.640518 3.9310617 3.1893852
3.1385889 4.6760612 3.0345082
6.4689884 9.5799494 10.376717
10.712815 15.894441 11.349184
2.5428245 3.7770543 2.1923225
0.075041398 0.047144387 8.7339401
0.80891317 1.1351731 8.8614531
1.0409254 1.4805253 8.724555
1.6180465 2.3345053 9.127636
0.76901168 1.1179327 3.2562041
0.95833832 1.3993036 3.1754036
1.5856992 2.3221049 4.2024207
1.9628819 2.8808539 4.2502871
0.3356995 0.39426899 8.7947311
0.58347577 0.73980296 8.7446871
1.328395 1.8989859 8.9600954
0.82088423 1.1853727 3.9751875
0.85271043 1.2386163 3.1731002
1.2168472 1.7733611 3.5880699
1.2932261 1.8895671 3.1067383
2.1807337 3.1921709 4.2692571
2.130291 3.1406305 3.8090889
2.1041937 3.1056378 3.1071882
9.0524387 13.375502 10.673588
2.5940509 3.8357825 2.5104597
6.4897866 9.5387869 10.356763
8.2894764 12.197679 10.82209
10.698 15.753527 11.275722
2.5636365 3.7794228 2.1986165
5.3946357 7.9589067 3.435524
0.075205512 0.046882156 8.7339401
0.81287074 1.1323426 8.8614531
1.0460871 1.4768828 8.724555
1.6261855 2.3288429 9.127636
0.7751354 1.1184528 3.2654092
0.96321696 1.3959497 3.1754036
1.4933043 2.1705043 3.9420452
1.9692978 2.8686996 4.2426119
0.33707371 0.39309478 8.7947311
0.58605456 0.73776168 8.7446871
1.3299463 1.8871458 8.9262199
0.83094245 1.1909909 4.0033445
0.85702884 1.2356323 3.1731002
1.2423116 1.7969905 3.643527
1.2946823 1.8775996 3.0947683
2.1687975 3.1510284 4.2251549
2.1150818 3.0948992 3.7635298
2.1720796 3.1818552 3.1887882
9.101428 13.347276 10.676329
2.6049299 3.8230433 2.5081408
6.5230436 9.5160751 10.356763
8.3183012 12.148658 10.804431
10.723715 15.673395 11.245324
2.589618 3.7891862 2.2091069
5.4064054 7.9166298 3.425663
0.075368702 0.046619356 8.7339401
0.81681842 1.1294982 8.8614531
1.051236 1.4732223 8.724555
1.6343048 2.3231523 9.127636
0.78127199 1.1189436 3.2746143
0.96671659 1.3906125 3.1710143
1.5457608 2.2300341 4.0577679
1.9756528 2.8565359 4.2349372
0.33844385 0.39191577 8.7947311
0.58895981 0.73612738 8.7496586
1.3307033 1.8742932 8.8875046
0.84998244 1.2092584 4.0737357
0.86133677 1.2326331 3.1731002
1.284353 1.8440036 3.7459095
1.3081056 1.8829675 3.1107283
2.1469412 3.0960791 4.1626773
2.1238496 3.0845602 3.7600255
2.1721442 3.1582189 3.1730957
2.6578603 3.8687305 3.1619706
2.6282878 3.8285356 2.517416
5.1955729 7.5738029 3.7991288
6.5540996 9.4901752 10.353437
8.3583632 12.11622 10.801488
10.709852 15.536487 11.174394
2.6105504 3.7913377 2.2154009
5.4340067 7.8977103 3.425663
0.075530976 0.046355985 8.7339401
0.82075614 1.1266401 8.8614531
1.0563722 1.4695438 8.724555
1.6424042 2.3174334 9.127636
0.78629726 1.1178075 3.2792168
0.97156489 1.3872296 3.1710143
1.5390344 2.2038608 4.0205712
1.9801146 2.841733 4.2234249
0.33980981 0.39073199 8.7947311
0.59152579 0.73406702 8.7496586
1.3328495 1.8635027 8.8584671
0.8656342 1.229619 3.1731002
1.3177484 1.8779354 3.8226964
1.3025749 1.8611094 3.0827982
2.1344361 3.055217 4.1185751
2.140702 3.0859182 3.770539
2.0833936 3.0066507 3.0318654
2.6761081 3.8663058 3.1674535
2.6391158 3.8156943 2.5150971
5.2641511 7.6166401 3.8290973
6.5871863 9.4672394 10.353437
8.3475466 12.010631 10.733794
2.9837565 4.2963305 3.1594164
2.6341166 3.7971184 2.2237933
5.4992056 7.9330258 3.4486721
0.075653382 0.04607239 8.728941
0.82514369 1.1243945 8.8663921
1.0614953 1.4658475 8.724555
1.6504836 2.3116863 9.127636
0.79245394 1.1182437 3.2884219
0.97640121 1.3838298 3.1710143
1.9826553 2.8243103 4.2080746
0.34117162 0.38954344 8.7947311
0.5940845 0.73199767 8.7496586
1.3349367 1.8527205 8.8294306
0.89248371 1.2510555 4.2332897
0.86992115 1.2265899 3.1731002
1.3062286 1.8477696 3.7715054
1.3108001 1.8590139 3.0867882
2.141185 3.0422029 4.1112247
2.2924254 3.2801197 4.0123525
2.0582268 2.9482958 2.9816501
2.6800208 3.8432217 3.1564877
2.6600165 3.8173618 2.5220535
6.6223364 9.4472446 10.356763
2.6606588 3.7998962 3.4612455
3.1247733 4.4660244 3.2886086
2.6473548 3.7879004 2.2237933
5.5268636 7.9137812 3.4486721
0.075813748 0.045808028 8.728941
0.82952565 1.1221321 8.8713322
1.0666057 1.4621332 8.724555
1.6585428 2.3059108 9.127636
0.79862314 1.1186506 3.297627
0.97983801 1.378461 3.1666255
3.739857 5.2762952 9.5711222
1.992502 2.8173723 4.2080746
0.34252933 0.38835016 8.7947311
0.59663612 0.72991949 8.7496586
1.3354881 1.8399121 8.7907152
0.90087426 1.2535374 4.2520609
0.87546313 1.2253171 3.1776016
1.3155361 1.8519704 3.0827982
2.1498306 3.031945 4.1075497
2.3038611 3.2720978 4.0123525
1.9878939 2.8264794 2.8686657
2.6758709 3.8116791 2.5243723
6.655273 9.4240713 10.356763
2.6739068 3.7905858 3.4612455
3.023612 4.2894893 3.169549
2.6788511 3.8046126 2.2384796
0.075973183 0.045543108 8.728941
0.83390176 1.1198527 8.8762703
1.0717031 1.4584011 8.724555
1.6665819 2.3001075 9.127636
0.80138218 1.11427 3.2930243
0.98464382 1.3750323 3.1666255
3.7762401 5.2883987 9.6165838
2.0451026 2.8704395 4.2963371
0.34407529 0.38736737 8.7997227
0.59951967 0.72824359 8.7546301
1.3419024 1.8352392 8.7907152
0.92143852 1.2727482 4.3271451
0.87973493 1.2222537 3.1776016
1.1412083 1.5906826 3.2723908
1.3219926 1.8473672 3.0827982
2.1702538 3.0382152 4.1259251
2.2987623 3.2407658 3.9843161
2.0202513 2.8512821 2.9000502
2.6917181 3.8059323 2.5266912
6.6881285 9.4007835 10.356763
7.9390106 11.171355 10.062755
3.2582092 4.5882044 3.3924689
2.6868641 3.7878354 2.2342834
0.076131694 0.045277636 8.728941
0.83827204 1.1175563 8.8812094
1.0767872 1.4546514 8.724555
1.6746004 2.2942758 9.127636
0.81329173 1.1225395 3.325242
0.98803622 1.3696446 3.1622362
3.7897475 5.2683325 9.6041851
2.0999663 2.9257767 4.3884373
0.34523213 0.38594943 8.7947311
0.60103583 0.72491652 8.7397146
1.3475549 1.8295319 8.7858763
0.93096066 1.2764947 4.3506088
0.88399607 1.2191755 3.1776016
1.1330037 1.5676662 3.2339973
1.3301954 1.8451856 3.0867882
2.1947076 3.0498831 4.1516519
2.2748117 3.1833959 3.9247389
7.3941903 10.358713 10.344469
3.0939655 4.3392534 3.5786736
2.7101278 3.8037286 2.5313287
6.7209029 9.3773804 10.356763
7.9544277 11.110709 10.033323
3.271697 4.5732975 3.3899355
0.076289281 0.04501161 8.728941
0.84263653 1.1152433 8.8861494
1.0812495 1.4500676 8.7196598
1.6817145 2.287214 9.1228638
0.83563566 1.1449406 3.3988824
0.99281114 1.3661875 3.1622362
3.8213241 5.2733006 9.637249
2.0932634 2.8950524 4.3538995
0.34677121 0.38495585 8.7997227
0.60219413 0.72117913 8.7198296
1.353933 1.8248168 8.7858763
0.93132329 1.2676749 4.3318381
0.88953054 1.21784 3.1821027
1.1307932 1.5531602 3.2126679
1.3366281 1.8405311 3.0867882
2.197381 3.0312245 4.136951
2.2504895 3.1262336 3.8651619
2.1809981 3.0330341 3.0946343
3.1090934 4.3284268 3.5786736
2.7208056 3.7906468 2.5290098
6.7535949 9.3538628 10.356763
8.0002565 11.09271 10.042152
3.3304877 4.6213017 3.4329996
0.076445937 0.044745035 8.728941
0.84699512 1.1129134 8.8910885
1.0863047 1.4462845 8.7196598
1.6896881 2.2813296 9.1228638
0.85467362 1.1624775 3.4587152
0.99757403 1.3627136 3.1622362
1.9598308 2.6848071 4.9546175
2.1033564 2.887728 4.3538995
0.34811282 0.38374308 8.7997227
0.60402071 0.71825755 8.7098866
1.3595419 1.819073 8.7810364
1.999415 2.7013628 9.1935434
0.89377618 1.2147275 3.1821027
1.1331227 1.5449976 3.2041361
1.3430446 1.8358542 3.0867882
2.1999509 3.0125844 4.1222506
2.2613883 3.1183589 3.8651619
7.5919166 10.480208 10.517084
3.1241837 4.3175478 3.5786736
2.7469993 3.7990746 2.5406039
6.7862048 9.3302307 10.356763
8.0318012 11.054907 10.033323
3.2934144 4.5363917 3.3798029
0.076641001 0.04449676 8.7339401
0.85134763 1.1105665 8.8960276
1.0913465 1.4424838 8.7196598
1.697641 2.2754178 9.1228638
1.0023247 1.359223 3.1622362
1.9691906 2.6779497 4.9546175
2.1456587 2.9242995 4.4191375
0.34925479 0.38231304 8.7947311
0.60307425 0.71208102 8.6601706
1.3658834 1.8143162 8.7810364
2.0088325 2.6943672 9.1935434
0.89930737 1.2133492 3.186604
1.1369591 1.5389353 3.1998701
1.3494449 1.8311549 3.0867882
2.2104537 3.0048869 4.1222506
2.3311644 3.1910765 3.963289
7.6536922 10.48823 10.551607
3.1367726 4.303237 3.575932
2.7732842 3.8073654 2.5521977
2.8050489 3.8537867 2.0141287
6.8187323 9.3064861 10.356763
8.6957951 11.881378 10.804431
3.2990501 4.5109496 3.3696702
0.076795861 0.044228964 8.7339401
0.85569417 1.1082028 8.9009676
1.0963751 1.4386655 8.7196598
1.7064704 2.2706711 9.127636
1.0070632 1.355716 3.1622362
1.9751765 2.6665373 4.946352
2.1444223 2.9013267 4.3961124
0.35058719 0.38109162 8.7947311
0.60313141 0.7071355 8.625371
1.3722081 1.8095373 8.7810364
2.0182254 2.6873386 9.1935434
0.90353727 1.2102026 3.186604
1.1407669 1.532865 3.1956041
1.3540323 1.8240138 3.0827982
2.1805604 2.942677 4.0487471
2.342289 3.1829197 3.963289
7.7063942 10.483401 10.573577
3.1492996 4.2888913 3.5731905
2.7944195 3.8083766 2.5591543
6.8467417 9.2766199 10.350113
8.7492085 11.867219 10.819146
3.3096626 4.4924655 3.364604
2.6610999 3.6160834 2.1629498
0.076949775 0.043960627 8.7339401
0.86003447 1.1058223 8.9059067
1.1013902 1.4348297 8.7196598
1.714386 2.2647007 9.127636
2.2718768 3.0228117 8.9679365
1.0117893 1.3521924 3.1622362
1.987838 2.6641369 4.9546175
2.1009395 2.8218386 4.288662
0.3519153 0.3798655 8.7947311
0.60107446 0.6997745 8.5607405
1.3785163 1.8047364 8.7810364
2.0317583 2.6857824 9.2123156
0.90906471 1.208781 3.1911051
1.144546 1.5267869 3.1913381
1.3603911 1.8192762 3.0827982
2.1462042 2.8752792 3.9678934
2.3470137 3.1661296 3.9527755
7.738308 10.450181 10.5673
2.8656237 3.8769693 2.6101677
2.8126049 3.8080068 2.0010173
6.865715 9.2346849 10.330159
8.78335 11.826871 10.810317
3.2996337 4.4462681 3.339272
2.6926255 3.6322939 2.1776359
0.077102765 0.043691754 8.7339401
0.86436862 1.1034253 8.9108458
1.1063921 1.4309764 8.7196598
1.7231858 2.2598891 9.1324072
2.2600083 2.9852688 8.8804893
1.0165032 1.3486524 3.1622362
2.0005071 2.6616807 4.9628835
2.0819297 2.7760251 4.2310996
0.35323915 0.37863478 8.7947311
0.59967202 0.69324213 8.5060549
1.3848076 1.7999134 8.7810364
2.0390294 2.6759288 9.2029295
0.9145934 1.2073356 3.1956065
1.1467252 1.51862 3.1828063
1.3685462 1.8169235 3.0867882
2.1603024 2.8731894 3.9752436
6.2201858 8.3299437 10.296003
7.7747383 10.423106 10.5673
10.034616 13.467447 11.095773
3.0590339 4.1085534 2.7678463
2.8120439 3.7795691 1.9916524
6.8889556 9.1987085 10.316857
8.8318443 11.805849 10.819146
3.2996478 4.4140072 3.3240731
2.789469 3.7356048 2.2426758
0.077254802 0.043422349 8.7339401
0.86869639 1.1010109 8.9157839
1.1113803 1.4271057 8.7196598
1.7310637 2.2538602 9.1324072
2.2680457 2.9742546 8.8712835
1.0212047 1.3450959 3.1622362
2.0046902 2.6479509 4.9504848
2.1031997 2.7840858 4.2541246
0.35436034 0.3771897 8.7897396
0.59858197 0.68712962 8.4563398
1.390312 1.7940751 8.7761974
2.0494082 2.6701639 9.2076225
0.9201228 1.2058662 3.2001076
1.1504402 1.5125322 3.1785405
1.3748802 1.8121352 3.0867882
2.151897 2.8413084 3.942167
6.2299309 8.2825308 10.264462
7.8110752 10.395904 10.5673
10.076546 13.42565 11.090291
2.9750149 3.9667284 2.6820507
2.7974169 3.7326331 1.972922
6.9187746 9.1716251 10.313532
8.8730001 11.774949 10.819146
3.3020697 4.3852439 3.3114071
2.8024919 3.7258451 2.2426758
0.077405907 0.043152414 8.7339401
0.87301797 1.0985801 8.9207239
1.1163552 1.4232175 8.7196598
1.7398342 2.2489848 9.1371794
2.278414 2.9663198 8.8712835
1.0258937 1.3415231 3.1622362
4.9894705 6.5568647 9.9413061
0.35567483 0.37595046 8.7897396
0.59569645 0.67903173 8.3817673
1.3973395 1.7902019 8.7810364
2.0576608 2.6616285 9.2029295
0.92565328 1.204373 3.2046089
1.1541268 1.5064371 3.1742744
1.3830271 1.809719 3.0907781
2.1803081 2.8580377 3.9752436
6.2372684 8.2323093 10.229418
7.8473153 10.368575 10.5673
10.153608 13.43042 11.123188
2.8419797 3.7619195 2.5545166
2.8104293 3.7228453 1.972922
6.9258986 9.1147165 10.276951
8.9164925 11.747125 10.82209
3.265255 4.3049994 3.2607436
2.8483703 3.759449 2.2678523
0.077516332 0.042863943 8.728941
0.87684745 1.095526 8.9207239
1.1213162 1.419312 8.7196598
1.7485915 2.2440751 9.1419506
1.1553994 1.4935439 4.508091
1.0305703 1.3379339 3.1622362
1.3288609 1.7300856 3.2766404
5.0181775 6.547039 9.9528179
0.35678512 0.37449825 8.7847471
0.59664935 0.67535198 8.3618803
1.4028031 1.7843254 8.7761974
2.0669391 2.6544297 9.2029295
0.93118441 1.2028557 3.20911
1.1577847 1.5003346 3.1700087
1.3930119 1.8096557 3.0987582
2.2088623 2.8746028 4.0083203
6.2443304 8.1821365 10.194372
7.8811026 10.338025 10.564161
10.200427 13.394896 11.123188
2.9677615 3.9000347 2.6519063
7.0007901 9.1468201 10.340136
2.660327 3.4796402 3.2728834
3.2279208 4.2250652 3.2100801
2.8835034 3.7783465 2.2846367
0.077665485 0.042593095 8.728941
0.881154 1.0930634 8.925663
1.1262639 1.4153893 8.7196598
1.7554924 2.2367837 9.1371794
1.1618066 1.4910424 4.5126929
1.0367025 1.3362206 3.1666255
1.3331699 1.7232109 3.2725077
2.1988366 2.8481696 4.3845997
0.35809019 0.37325054 8.7847471
0.59758395 0.67167401 8.3419952
1.4105837 1.7813885 8.7858763
2.0772574 2.6485565 9.2076225
0.93671626 1.2013147 3.2136111
1.1630148 1.496284 3.1700087
1.4011669 1.8071635 3.1027484
2.2458589 2.901727 4.0560975
6.2641597 8.1489811 10.180354
7.9171405 10.310452 10.564161
2.864326 3.7342801 3.1701949
3.2373683 4.2236533 2.8721921
7.0007606 9.0809278 10.293579
2.6255991 3.4094865 3.2169633
3.1926978 4.1488619 3.1619496
2.8966749 3.7682583 2.2846367
0.077813685 0.042321734 8.728941
0.88496417 1.089981 8.925663
1.1311975 1.4114492 8.7196598
1.7651412 2.2329843 9.1467228
1.1621791 1.4808309 4.4942832
1.0413605 1.3325937 3.1666255
1.3305279 1.7074486 3.2518427
2.2382793 2.8784306 4.4421625
0.35939088 0.37199831 8.7847471
0.59956861 0.66918737 8.3370237
1.4175771 1.7774363 8.7907152
2.0864899 2.6412892 9.2076225
0.94224864 1.1997495 3.2181125
1.1666229 1.4901617 3.1657426
1.4111758 1.807011 3.1107283
2.2622273 2.9018908 4.0671229
6.2903829 8.1242447 10.176849
7.9507003 10.279673 10.561023
2.8747876 3.7209506 3.1674535
3.2710419 4.2368727 2.8884239
6.954556 8.9561672 10.180512
2.4145207 3.1128578 2.9520788
3.1781104 4.100214 3.1340847
2.904254 3.7509472 2.2804408
0.077960946 0.042049855 8.728941
0.88925552 1.0874866 8.9306021
1.1367571 1.4082841 8.724555
0.91375053 1.1478386 4.7374101
1.1782459 1.490558 4.535706
1.0460058 1.3289505 3.1666255
1.3277925 1.6917262 3.231178
2.2443602 2.8655531 4.4344873
0.36068723 0.37074152 8.7847471
0.60154331 0.66669506 8.3320522
1.4292839 1.7793363 8.8245916
2.0956969 2.63399 9.2076225
0.9477815 1.1981603 3.2226136
1.1718174 1.4860803 3.1657426
1.4230639 1.8091789 3.1226983
2.243031 2.8566473 4.0156708
6.3362489 8.1247358 10.204885
7.9865341 10.251857 10.561023
10.301617 13.237845 11.082066
3.1879153 4.0995393 2.8049471
6.8845649 8.8024311 10.03419
2.3109007 2.9578941 2.8166935
3.2958627 4.2216125 3.2328784
2.9089561 3.7300498 2.2741463
0.078067265 0.041760001 8.7239418
0.8930462 1.0843759 8.9306021
1.1416661 1.4043075 8.724555
0.92055357 1.1481355 4.7517266
1.1968285 1.5032476 4.5863338
1.0506383 1.3252912 3.1666255
1.3301991 1.6826661 3.2229121
2.2344971 2.8325372 4.3961124
0.36197916 0.36948022 8.7847471
0.60350788 0.66419709 8.3270798
0.84483725 1.0444247 5.2095413
2.105958 2.6280053 9.2123156
0.95331478 1.1965472 3.2271149
1.1753756 1.4799387 3.1614769
1.433113 1.8089241 3.1306784
2.2614009 2.8594365 4.0303712
6.379992 8.1222 10.229418
8.0174665 10.217792 10.554746
10.345183 13.198515 11.079325
3.035583 3.8756552 2.6635003
6.0780554 7.7656221 4.0725918
6.8459334 8.6903563 9.9344254
2.3637052 3.003809 2.8667274
3.3105791 4.2100821 3.2328784
2.924762 3.7234418 2.2762444
0.078212552 0.041487243 8.7239418
0.89682591 1.081252 8.9306021
1.146561 1.4003139 8.724555
0.92549354 1.1460763 4.7564979
1.2020686 1.4990608 4.5863338
1.055258 1.3216157 3.1666255
1.3308059 1.6714085 3.2105134
2.234401 2.8121724 4.376925
0.36326668 0.36821443 8.7847471
0.60546231 0.66169357 8.3221083
0.84450728 1.0365974 5.1853442
2.1096988 2.6139238 9.1888504
0.95884824 1.1949099 3.231616
1.1805344 1.475827 3.1614769
1.4450573 1.8109765 3.1426485
2.292491 2.878042 4.0671229
6.4149427 8.1082706 10.239931
8.0530834 10.189743 10.554746
10.409329 13.185297 11.098515
3.2823057 4.1606517 2.8605981
6.1797481 7.8390164 4.1212907
6.8228488 8.5991325 9.8579378
2.7106075 3.4200108 3.2611108
3.2128432 4.0565705 3.1264851
2.9377415 3.7132099 2.2762444
0.078356899 0.041213978 8.7239418
0.90109301 1.078711 8.9355421
1.1514421 1.3963031 8.724555
0.93796664 1.15326 4.7994461
1.2048386 1.4918159 4.5771284
1.0598649 1.3179241 3.1666255
1.3331109 1.6623626 3.2022474
2.2281816 2.7843359 4.3462248
0.36454979 0.36694416 8.7847471
0.60740668 0.65918452 8.3171368
0.85450047 1.0414158 5.2240596
2.1177216 2.6052048 9.1841583
0.9657504 1.1949416 3.2406185
1.1856787 1.4716971 3.1614769
1.4570329 1.8129671 3.1546185
5.7330165 7.1458578 10.009864
6.4232044 8.0607271 10.20839
8.1007252 10.176798 10.570438
10.452687 13.145607 11.095773
3.2968092 4.149169 2.8605981
6.2531972 7.8754869 4.1512594
6.8551545 8.5781813 9.8612633
9.1932726 11.516291 10.81326
3.2162309 4.0318513 3.1163523
2.9478567 3.6993833 2.2741463
0.078540459 0.040957253 8.728941
0.90485299 1.075559 8.9355421
1.1556584 1.3914921 8.7196598
1.8010051 2.1983743 9.1324072
1.0659664 1.3160775 3.1710143
1.3371372 1.6555098 3.1981144
2.24191 2.7815318 4.3538995
0.36603329 0.36587286 8.7897396
0.60970396 0.65706027 8.3171368
0.85813046 1.0384268 5.2240596
2.1289892 2.600467 9.1935434
0.97266454 1.1949396 3.2496209
1.1908087 1.4675493 3.1614769
1.4709361 1.8172383 3.1705787
5.7579255 7.125802 10.009864
6.4446063 8.0299139 10.197877
3.0428085 3.7954133 4.004787
10.482828 13.089458 11.079325
3.3223436 4.1514702 2.8698733
6.2459049 7.8101649 4.1287827
6.8569636 8.5192957 9.8213577
9.2435474 11.496732 10.825033
5.5063772 6.8535128 5.251822
0.078682944 0.040682845 8.728941
0.90860182 1.072394 8.9355421
1.1605086 1.3874496 8.7196598
1.807718 2.190923 9.127636
2.2701702 2.7708848 8.4984798
1.0705539 1.3123485 3.1710143
1.3393561 1.6464664 3.1898487
2.2617066 2.7861316 4.3730874
0.3673082 0.36459294 8.7897396
0.61162937 0.65453899 8.3121653
0.86496711 1.0392889 5.2434173
0.84583151 1.025986 3.6701579
0.98097068 1.1965873 3.2631247
1.1959242 1.4633837 3.1614769
1.4829825 1.8190989 3.1825488
5.7891836 7.1135478 10.020889
6.456903 7.9879541 10.173346
3.0633743 3.7938535 4.0142021
10.544206 13.072313 11.095773
3.2561965 4.0398293 2.8026283
6.2585893 7.7702627 4.1194177
6.8325801 8.4285984 9.7448711
9.3039722 11.489525 10.848578
5.4462047 6.7303677 5.1732936
0.078824475 0.040407944 8.728941
0.91233963 1.0692159 8.9355421
1.1653447 1.3833903 8.7196598
1.820125 2.1903393 9.151495
2.2773414 2.7599297 8.489274
1.0751283 1.3086036 3.1710143
1.3433119 1.6396047 3.1857157
2.2531586 2.7558873 4.3385496
0.36857861 0.36330855 8.7897396
0.61391044 0.65240002 8.3121653
0.867782 1.0353001 5.2385783
0.84830523 1.0216997 3.6654651
0.98791385 1.1965131 3.2721272
1.2026825 1.4612138 3.1657426
1.4950598 1.8208978 3.1945188
5.8139791 7.0932965 10.020889
6.4847469 7.9653668 10.173346
3.0790546 3.7861571 4.0173407
10.515949 12.944557 11.019012
3.0580888 3.7670598 2.6263995
6.364532 7.8455758 4.1699896
6.8383465 8.3757744 9.7116165
3.1923869 3.9143271 3.7614481
5.4124737 6.6411428 5.1200972
0.078965046 0.040132549 8.728941
0.91555977 1.0654355 8.9306021
1.1701665 1.3793141 8.7196598
1.8411729 2.1999977 9.2183027
2.2732255 2.7354362 8.4386463
1.0812166 1.3066878 3.1754036
1.3472357 1.632735 3.1815827
2.26684 2.7529542 4.3462248
0.36984459 0.36201978 8.7897396
0.6165511 0.65063953 8.3171368
0.86814666 1.0284233 5.2192206
0.85961664 1.0279981 3.6983144
0.99626052 1.1980784 3.2856307
1.2077758 1.4570067 3.1657426
1.5090883 1.8249563 3.210479
2.2538831 2.7304029 3.916441
6.510251 7.9399247 10.169841
3.0873189 3.7693639 4.0110636
10.624619 12.98544 11.084808
2.9226098 3.5746021 2.5035031
6.3918786 7.8233118 4.1699896
3.2676048 3.9781213 3.8320837
5.4766479 6.6721902 5.1580944
0.079104654 0.039856665 8.728941
0.91876459 1.0616457 8.925663
1.1749741 1.3752209 8.7196598
1.0252969 1.2166054 5.1334848
2.2727284 2.7154994 8.4018259
1.0857713 1.3029057 3.1754036
1.3529267 1.6280223 3.1815827
2.2518826 2.7154186 4.3001747
0.37089831 0.360526 8.7847471
0.61881852 0.64848346 8.3171368
0.86928827 1.0225141 5.2047019
0.85652906 1.0170723 3.6701579
1.0032322 1.1979312 3.2946329
1.2145258 1.4547839 3.1700087
1.5135208 1.817362 3.2064888
2.4302859 2.9232483 4.199429
6.5379267 7.9171515 10.169841
3.1029346 3.7615669 4.0142021
10.680518 12.961181 11.095773
2.9575968 3.5917351 2.5220535
2.1003096 2.5362225 3.0140591
3.2711654 3.9542332 3.8203113
5.5713177 6.7394171 5.2239575
5.7920637 7.0139055 4.2924733
0.079243295 0.039580293 8.728941
0.92195415 1.0578465 8.9207239
1.1797673 1.3711112 8.7196598
1.0266391 1.2096053 5.1191688
2.2708609 2.6941061 8.3604031
1.0918523 1.3009421 3.1797926
1.3567953 1.6211321 3.1774499
0.37215453 0.35922912 8.7847471
0.62144822 0.6467033 8.3221083
0.87039924 1.0166094 5.1901836
0.86230683 1.0167081 3.6795435
1.0158298 1.2044058 3.3216405
1.2195966 1.4505355 3.1700087
1.5159825 1.8074504 3.1985087
2.5514729 3.0473108 4.3868618
6.5700831 7.899765 10.176849
3.123508 3.7596939 4.0236177
2.8987498 3.4928665 3.0605364
3.0945413 3.7314196 2.6240807
2.1115415 2.531743 3.0173848
3.2590749 3.9117367 3.7908795
5.6196327 6.7497444 5.2467561
5.8107076 6.9866662 4.2882767
0.079380974 0.039303441 8.728941
0.92461574 1.0534543 8.9108458
1.1838791 1.3662152 8.7147646
1.0260051 1.2003416 5.0953088
2.2650788 2.6682909 8.3051739
1.0963868 1.2971228 3.1797926
1.362446 1.6163862 3.1774499
2.1181011 2.518121 4.0161991
0.37340617 0.35792789 8.7847471
0.62407303 0.64491272 8.3270798
0.86901647 1.0078542 5.1611471
0.86472958 1.0123799 3.6748505
1.029894 1.2124659 3.3531489
1.226338 1.4482597 3.1742744
1.5203379 1.7998459 3.1945188
2.5358684 3.0072856 4.3427601
6.588459 7.8658476 10.162831
3.1316175 3.7427979 4.0173407
2.9270144 3.5019767 3.0769851
6.1716008 7.3890643 5.1260657
2.1275704 2.5329337 3.0273612
3.2753079 3.9034328 3.7938228
0.079517685 0.039026111 8.728941
0.92725778 1.0490562 8.9009676
1.1919891 1.3659098 8.7392416
1.0301889 1.1967529 5.0953088
2.2718399 2.6573982 8.2959681
1.1024606 1.2951115 3.1841817
1.3662585 1.6094753 3.1733167
2.1372373 2.5229404 4.035387
0.37465334 0.35662225 8.7847471
0.62632036 0.64273036 8.3270798
0.869232 1.0010188 5.1417894
0.86825818 1.0093553 3.6748505
1.0298743 1.2039012 3.3396454
1.2313859 1.4439702 3.1742744
1.5246587 1.792233 3.1905289
2.5814631 3.0397601 4.4015627
2.246851 2.6635966 3.5041933
3.127106 3.7110085 3.9953713
2.9257567 3.4757435 3.0632777
6.1317701 7.2895074 5.0727334
2.136399 2.5254915 3.0273612
0.079653427 0.038748305 8.728941
0.93039721 1.0452329 8.8960276
1.1980944 1.36327 8.749032
1.8616852 2.1472301 9.1324072
2.2734537 2.6405692 8.2683535
1.1085335 1.2930734 3.1885707
1.3718684 1.6046964 3.1733167
2.1730757 2.5471637 4.0852742
0.37589589 0.35531229 8.7847471
0.62856013 0.64054018 8.3270798
0.86941046 0.99419439 5.1224318
0.87177628 1.0063183 3.6748505
1.2381181 1.4416416 3.1785405
1.5289451 1.7846117 3.1865389
2.633925 3.0796816 4.4713907
2.2584438 2.6584554 3.5076981
2.9662611 3.4953012 3.7788181
2.9270556 3.4527514 3.0523119
6.2516689 7.3795986 5.1492538
2.1403589 2.5123348 3.0207102
0.079788201 0.038470026 8.728941
0.93404013 1.0419788 8.8960276
1.2048706 1.3613666 8.7637167
1.8662237 2.1373458 9.1180916
2.2762573 2.625237 8.2453403
1.1130404 1.289196 3.1885707
1.3774616 1.5998979 3.1733167
2.1401765 2.4909406 4.0085244
0.37713388 0.35399801 8.7847471
0.6307922 0.6383422 8.3270798
0.86872101 0.9864378 5.0982351
0.8752836 1.0032691 3.6748505
1.2431428 1.4373109 3.1785405
1.5351651 1.7792639 3.1865389
2.2862577 2.6722341 3.5357344
2.8519998 3.3369832 3.6218951
2.9390903 3.4425132 3.0523119
6.2946415 7.3779507 5.1631665
7.0093355 8.1693611 9.6683846
3.3186347 3.8719897 3.796766
5.7077174 6.6640754 5.2416897
0.079921998 0.038191281 8.728941
0.93715078 1.0381354 8.8910885
0.72444749 0.81299454 5.2587347
1.8726872 2.1296973 9.1133194
2.2776968 2.6084464 8.2177258
1.1191053 1.2871103 3.1929598
1.3830378 1.5950798 3.1733167
1.689543 1.9526451 3.1681111
0.37836725 0.35267943 8.7847471
0.63301653 0.63613647 8.3270798
0.87299323 0.98433959 5.1030741
0.87878036 1.0002077 3.6748505
2.9605401 3.387958 9.3667707
1.2498654 1.4349293 3.1828063
1.53939 1.7716198 3.1825488
2.6354456 3.0586805 4.0473981
3.1099329 3.6131587 3.9263256
10.742428 12.4937 10.887422
6.3463392 7.3861723 5.1840358
7.0085149 8.1109419 9.628479
0.08005482 0.037912067 8.728941
0.94076884 1.0348579 8.8910885
0.72796118 0.81121838 5.2636299
1.8830791 2.1265001 9.127636
2.2790473 2.5916774 8.1901102
1.1251692 1.2849977 3.1973488
1.3885971 1.5902424 3.1733167
1.6900314 1.9394861 3.1565986
0.37980855 0.35155195 8.7897396
0.63485545 0.63354683 8.3221083
0.87558639 0.980349 5.0982351
0.88226634 0.99713409 3.6748505
2.9637184 3.3677976 9.3397627
1.2548666 1.4305576 3.1828063
1.5435804 1.763968 3.1785588
2.0794384 2.3804543 3.5048227
2.6718171 3.0790913 4.085948
3.1709664 3.6581621 3.9859562
10.791447 12.462447 10.892905
6.3894753 7.3840742 5.1979489
7.0563931 8.1089611 9.6550827
9.9618111 11.459826 11.139951
0.080186673 0.037632395 8.728941
0.94385058 1.0309948 8.8861494
0.73351997 0.81169331 5.2832108
1.8904903 2.1199138 9.127636
2.2803082 2.5749311 8.1624947
1.131232 1.2828586 3.2017381
1.3959981 1.5874987 3.1774499
1.6819917 1.9167113 3.1297359
0.38103336 0.35022402 8.7897396
0.63706309 0.63132697 8.3221083
0.85882503 0.95486093 4.9820886
0.88688982 0.99533659 3.6795435
2.9841199 3.3672073 9.3667707
1.2615793 1.4281231 3.1870723
1.547736 1.7563084 3.1745687
2.1168458 2.406271 3.5525999
2.7388701 3.1341949 4.1700573
3.178597 3.641207 3.9796793
3.4421754 3.9472938 3.5183611
6.4443145 7.3951216 5.2211366
2.2441323 2.5608315 3.1138241
9.9059048 11.315496 11.033998
0.080317549 0.03735226 8.728941
0.94691688 1.0271226 8.8812094
0.73566341 0.80837518 5.2783155
1.8988758 2.1144121 9.1324072
2.2801795 2.5567496 8.1302767
1.1372935 1.2806927 3.2061269
1.401531 1.5826161 3.1774499
1.6844268 1.9060251 3.122061
0.38225356 0.34889185 8.7897396
0.63964331 0.62947273 8.3270798
0.84864885 0.93695384 4.9046578
0.89035881 0.99223471 3.6795435
2.9958556 3.3567703 9.3667707
1.2665567 1.4237107 3.1870723
1.5518571 1.7486415 3.1705787
2.0622842 2.3278167 3.4496953
2.7545056 3.1299691 4.1770663
2.4691312 2.8086538 3.0977728
3.4421368 3.9195447 3.5046537
6.3795085 7.2693677 5.1492538
2.2604692 2.5613806 3.1238005
9.875844 11.20202 10.957476
6.6351552 7.5314646 5.983911
0.080447443 0.037071671 8.728941
0.94891 1.0221033 8.8663921
0.7391687 0.80655265 5.2832108
1.906245 2.1077709 9.1324072
2.279952 2.5386009 8.0980597
1.1433537 1.2785002 3.2105162
1.4089197 1.5798141 3.1815827
1.6825459 1.8905566 3.1067109
0.3834691 0.3475554 8.7897396
0.64145499 0.62686408 8.3221083
0.83751094 0.91820103 4.8223877
0.89381695 0.98912072 3.6795435
2.9988229 3.3365779 9.3397627
1.273259 1.4212233 3.1913381
1.5579517 1.743214 3.1705787
1.9891448 2.2295365 3.3173892
3.2736037 3.6976125 4.0644174
3.3228304 3.7571607 3.3730636
6.3549747 7.1906276 5.1098342
2.2569942 2.5395203 3.107173
10.024914 11.291404 11.078145
3.8004766 4.2836499 3.450732
0.08057636 0.036790632 8.728941
0.95141041 1.0176499 8.856514
0.74197966 0.8039676 5.2832108
1.9135909 2.101104 9.1324072
2.2809365 2.5219336 8.0704451
1.1494124 1.2762809 3.2149053
1.4163063 1.5769802 3.1857157
1.6848564 1.8798982 3.099036
0.38467994 0.34621474 8.7897396
0.64363927 0.62462115 8.3221083
0.84581393 0.92082536 4.8514242
0.89610249 0.98471856 3.6748505
3.0089908 3.3244758 9.3352623
1.2799594 1.4187065 3.1956041
1.5620111 1.7355254 3.1665885
1.9198775 2.1368399 3.1924336
2.0472565 2.2938502 3.1011708
2.4705472 2.7710114 3.0758038
3.8708041 4.3491292 3.1342165
2.245924 2.5093694 3.080569
10.069655 11.262368 11.084031
3.783812 4.2349968 3.4228671
0.080704287 0.036509141 8.728941
0.95335847 1.0126258 8.8416958
0.74408823 0.80062717 5.2783155
1.9209133 2.0944116 9.1324072
2.2884102 2.512512 8.0658417
1.1554695 1.2740349 3.2192943
1.4218024 1.5720267 3.1857157
1.7021463 1.8859023 3.1182234
0.38588613 0.34486985 8.7897396
0.64581567 0.6223706 8.3221083
0.85414523 0.92340267 4.8804607
0.9030326 0.98540086 3.6889291
3.0367084 3.3316495 9.3847752
1.2884116 1.4180903 3.2041361
1.5680598 1.7300624 3.1665885
1.8772833 2.0748212 3.1115801
2.0552511 2.28669 3.1011708
2.3163781 2.5799108 2.8780811
10.803491 12.04498 10.692779
3.9037023 4.3553839 3.1481295
2.2421706 2.4876473 3.0639415
10.19275 11.320268 11.175269
3.6688204 4.077558 3.3088739
8.8040848 9.802021 4.6747298
0.080831237 0.036227211 8.728941
0.95528316 1.0076007 8.8268785
0.74687845 0.79802489 5.2783155
1.9282126 2.0876935 9.1324072
2.2918837 2.4987497 8.0474319
1.1615249 1.271762 3.2236834
1.429176 1.5691344 3.1898487
1.7173425 1.8894362 3.1335733
0.38708761 0.34352076 8.7897396
0.64798421 0.62011248 8.3221083
0.85993427 0.92317438 4.894979
0.91700137 0.99365485 3.731164
1.2951144 1.4155083 3.2084019
1.5740892 1.7245781 3.1665885
1.8845145 2.0682554 3.1115801
2.0512545 2.2662818 3.083648
2.3175378 2.563148 2.8686657
10.803428 11.96065 10.651656
3.901072 4.322 3.1342165
2.2357836 2.4632177 3.0439887
10.272929 11.329534 11.219417
3.6830316 4.0647264 3.3088739
8.8604212 9.795743 4.6862345
0.080957197 0.035944834 8.728941
0.95718437 1.0025744 8.8120604
0.74896085 0.79467213 5.2734203
1.9344718 2.0798573 9.127636
2.3072205 2.4979098 8.0704451
1.1675786 1.2694625 3.2280724
1.4346445 1.564136 3.1898487
1.7325844 1.8928875 3.1489234
0.38828436 0.34216747 8.7897396
0.65014488 0.61784685 8.3221083
0.87777376 0.93574911 4.9772491
0.91341478 0.98286438 3.7030075
1.412248 1.5279549 4.365922
1.3035822 1.4148147 3.2169337
1.5800995 1.7190732 3.1665885
1.8917226 2.0616648 3.1115801
2.0615549 2.2617435 3.0871525
2.3343327 2.5636768 2.8780811
10.816978 11.891936 10.624242
3.9161351 4.3083563 3.1342165
2.2443683 2.4553983 3.0439887
10.342396 11.32644 11.251792
3.6448953 3.9945269 3.2632766
0.08108218 0.035662025 8.728941
0.95852345 0.99698728 8.7923031
0.75102907 0.79131466 5.2685251
1.9406997 2.0720029 9.1228638
2.3332241 2.5084364 8.1302767
1.1720027 1.2653791 3.2280724
1.4420052 1.5611857 3.1939816
1.7456985 1.8938981 3.1604359
0.38947636 0.34081003 8.7897396
0.65190947 0.61520827 8.3171368
0.8957113 0.9482103 5.0595198
1.3296041 1.4206052 5.3454752
1.4205395 1.5262027 4.3749247
1.312061 1.4140792 3.2254655
1.5860906 1.7135471 3.1665885
1.8966069 2.0525591 3.1079049
2.0670257 2.2519064 3.083648
3.2245209 3.5165589 3.9294639
10.753919 11.740021 10.522807
3.892267 4.2521825 3.1040723
2.2529256 2.4475489 3.0439887
10.302526 11.203984 11.16644
3.667567 3.9913023 3.2708764
0.081164904 0.035364576 8.7239418
0.96037596 0.99196124 8.7774858
0.75378668 0.78868824 5.2685251
1.9479204 2.0652158 9.1228638
2.3446372 2.5031283 8.1394825
