# .PCD v0.7 - Point Cloud Data file format
VERSION 0.7
FIELDS x y z
SIZE 4 4 4
TYPE F F F
COUNT 1 1 1
WIDTH 1493
HEIGHT 1
VIEWPOINT 0 0 0 1 0 0 0
POINTS 1493
DATA ascii
-0.56064671 0.79529428 3.1578836
-1.2616673 1.777046 5.1938667
-0.96387899 1.3516035 3.1095674
-1.0137085 1.4173367 2.6319005
-1.0412095 1.4526057 2.2164099
-0.25333524 0.4479785 8.7398224
-0.49618107 0.80535835 8.7794867
-0.49071777 0.7024731 3.3366842
-0.66101456 0.93709165 3.1727247
-0.93311089 1.3152173 3.3981609
-0.99764818 1.4015718 2.884191
-1.0307617 1.4443948 2.424444
-0.99440449 1.3909005 1.9318523
-0.96085286 1.334603 1.6958475
-0.91894817 1.2750028 1.3496526
-0.90164334 1.249629 1.0949051
-0.88772053 1.2294402 0.88034314
-0.87476361 1.2106174 0.69176745
-0.86313796 1.1936628 0.52291995
-0.84952223 1.1739781 0.36659506
-0.83231539 1.1493672 0.22034629
-0.94048607 1.3101748 1.517584
-0.90964764 1.2658291 1.2185574
-0.89704454 1.2473842 0.98848218
-0.88366884 1.2274405 0.78662729
-0.86707079 1.2035114 0.60540134
-0.8528707 1.182943 0.44244829
-0.83419836 1.1566267 0.29111382
-0.82437015 1.1421722 0.15049712
-0.018187195 0.086779848 8.7389402
-0.77572519 1.140294 8.7676067
-0.95924294 1.3909969 8.1469183
-0.55786723 0.79724652 3.1578836
-1.2588323 1.7862301 5.2076745
-0.96192235 1.3588697 3.1183455
-1.0120128 1.4254559 2.6401665
-1.041707 1.4640666 2.2279224
-0.25191036 0.4491123 8.7448139
-0.49336681 0.80708539 8.7794867
-0.48826268 0.70418179 3.3366842
-0.65872902 0.94080704 3.1774173
-0.92976749 1.3202465 3.4026623
-0.99425441 1.4071757 2.8884568
-1.0291969 1.452902 2.4324241
-0.99542898 1.4026574 1.9428777
-0.96240884 1.3466536 1.7063613
-0.91902143 1.284534 1.3559296
-0.90214533 1.2595677 1.1003881
-0.88858473 1.2397325 0.88498074
-0.87323439 1.2174305 0.69364047
-0.86176324 1.2005655 0.52433002
-0.85115075 1.1849157 0.3684603
-0.83120501 1.1563092 0.22079337
-0.9402402 1.3195313 1.524235
-0.91226518 1.2788687 1.2273868
-0.89769387 1.2575251 0.99354851
-0.88465637 1.2379026 0.7908234
-0.86835825 1.2142127 0.60868835
-0.85156512 1.1898656 0.44362062
-0.83592129 1.1675847 0.29249516
-0.82328784 1.149104 0.15069866
-0.017884167 0.086842805 8.7389402
-0.77217472 1.1436388 8.7725468
-0.97967994 1.4313118 8.3623085
-0.55508089 0.79918891 3.1578836
-1.263787 1.8066229 5.2536998
-0.95992672 1.3661385 3.1271236
-1.0118935 1.4358808 2.6525652
-1.0402881 1.4729302 2.2355974
-0.25034112 0.4499889 8.7448139
-0.49082243 0.80925876 8.7844582
-0.48580164 0.70588183 3.3366842
-0.6564256 0.94451797 3.1821103
-0.92640036 1.3252681 3.4071634
-0.99233127 1.4149083 2.8969886
-1.0293182 1.4638808 2.4443944
-0.99638355 1.4144385 1.9539032
-0.96595562 1.3616397 1.7203795
-0.92129272 1.2972546 1.3653449
-0.90258867 1.2695251 1.105871
-0.88938779 1.2500457 0.88961834
-0.8743571 1.2280244 0.69738662
-0.86313444 1.2113799 0.52715003
-0.85271323 1.1958789 0.37032557
-0.83005625 1.1632574 0.22124045
-0.94209653 1.3319508 1.5342115
-0.91246688 1.2886429 1.2332731
-0.89579111 1.2641684 0.99608171
-0.88295579 1.2446849 0.79292148
-0.86684805 1.221087 0.61033183
-0.85303646 1.2007557 0.44596523
-0.83757788 1.1785686 0.29387653
-0.82216722 1.1560422 0.15090019
-0.017580921 0.086904705 8.7389402
-0.76861036 1.146973 8.7774858
-0.98726225 1.4532542 8.4700031
-0.55228782 0.80112165 3.1578836
-1.2608153 1.8158375 5.2675071
-0.95789206 1.3734099 3.1359019
-1.010101 1.4440162 2.6608312
-1.0406597 1.4844263 2.2471099
-0.24890749 0.45111325 8.7498064
-0.48799458 0.81096715 8.7844582
-0.48262602 0.70653522 3.331845
-0.65410423 0.94822407 3.1868029
-0.92425042 1.3320712 3.4161658
-0.9918561 1.4247853 2.9097865
-1.0276511 1.4724069 2.4523742
-1.001153 1.4317999 1.972279
-0.9673562 1.3737512 1.7308931
-0.92124403 1.3068254 1.3716217
-0.90297353 1.2795007 1.1113539
-0.89012969 1.2603794 0.89425594
-0.87274081 1.2348548 0.69925964
-0.86167073 1.2183019 0.5285601
-0.85137141 1.2028576 0.3712582
-0.8288691 1.1702116 0.22168753
-0.94173205 1.341343 1.5408626
-0.91261154 1.2984341 1.2391595
-0.8963328 1.2743394 1.001148
-0.88383144 1.2551813 0.79711759
-0.8680203 1.2318257 0.61361885
-0.85164094 1.2076983 0.44713756
-0.83916789 1.1895783 0.2952579
-0.82388937 1.1670679 0.15130325
-0.017277459 0.086965546 8.7389402
-0.76503217 1.1502961 8.7824249
-0.98958164 1.4676681 8.5336418
-0.54948801 0.80304468 3.1578836
-1.266663 1.8379232 5.3181348
-0.9558183 1.3806838 3.14468
-1.0098685 1.4544679 2.6732299
-1.0409636 1.495943 2.2586224
-0.24746907 0.45223308 8.7547979
-0.48516083 0.81266558 8.7844582
-0.47945175 0.7071749 3.3270054
-0.65176505 0.95192575 3.1914957
-0.92082959 1.3370823 3.4206672
-0.99132389 1.4346759 2.9225843
-1.0259367 1.4809391 2.4603543
-1.0096791 1.4547821 1.9980052
-0.97072685 1.3888117 1.7449113
-0.92337096 1.3196007 1.3810372
-0.90329981 1.2894948 1.1168369
-0.88826758 1.2671063 0.8965748
-0.87374973 1.2454842 0.70300567
-0.86292529 1.2291546 0.53138018
-0.85281527 1.213861 0.37312344
-0.83050764 1.1812454 0.22258168
-0.94344819 1.3538122 1.5508391
-0.91269875 1.3082418 1.2450458
-0.89434671 1.2809951 1.0036812
-0.88464451 1.2656987 0.80131364
-0.86912817 1.2425873 0.61690587
-0.85299456 1.218628 0.4494822
-0.83785075 1.1965567 0.29594857
-0.82267755 1.174028 0.15150478
-0.016973786 0.087025322 8.7389402
-0.76144004 1.1536081 8.787364
-0.98558474 1.4728061 8.5434322
-0.54668152 0.80495781 3.1578836
-1.2624456 1.8455588 5.3273401
-0.95234925 1.3859859 3.1490691
-1.0079787 1.4626185 2.6814959
-1.0411999 1.5074798 2.2701349
-0.24588896 0.45309415 8.7547979
-0.48232117 0.81435418 8.7844582
-0.4762789 0.70780116 3.3221662
-0.64940798 0.95562232 3.1961884
-0.92229843 1.349275 3.4431732
-0.99073488 1.4445803 2.9353821
-1.0241753 1.4894773 2.4683344
-1.0161335 1.475049 2.0200562
-0.97400415 1.4039125 1.7589295
-0.92319977 1.3292098 1.3873141
-0.90356702 1.2995062 1.1223198
-0.88889921 1.2774717 0.90121239
-0.87469506 1.2561355 0.70675176
-0.86411458 1.2400306 0.53420019
-0.85138267 1.2208598 0.37405604
-0.8292293 1.1882211 0.22302876
-0.94508851 1.3663095 1.5608156
-0.91272873 1.3180661 1.250932
-0.89478034 1.2911956 1.0087476
-0.88280797 1.272508 0.80341172
-0.86747837 1.2494925 0.61854941
-0.85150886 1.2255899 0.45065451
-0.83932126 1.2076068 0.29732993
-0.82427967 1.1850954 0.15190785
-0.016669909 0.08708404 8.7389402
-0.75740856 1.1562591 8.787364
-0.98043764 1.4762374 8.5434322
-0.54386836 0.80686122 3.1578836
-0.8434217 1.2421858 3.5967908
-0.95020396 1.3932592 3.1578474
-1.0060443 1.4707735 2.6897616
-1.0413682 1.5190363 2.2816474
-0.24444182 0.45420429 8.7597885
-0.47947559 0.81603283 8.7844582
-0.4724097 0.70736837 3.3124871
-0.64799774 0.96074504 3.205574
-0.92124909 1.357891 3.4566767
-0.99155599 1.4566538 2.9524457
-1.0240654 1.5005102 2.4803045
-1.0243721 1.4981772 2.0457823
-0.97516507 1.4161158 1.769443
-0.92518157 1.3420382 1.3967296
-0.90377545 1.3095353 1.1278027
-0.88946921 1.2878567 0.90584999
-0.87557656 1.2668084 0.7104978
-0.86250967 1.2469848 0.53561026
-0.84991163 1.2278633 0.37498868
-0.83074796 1.1992959 0.22392292
-0.9445399 1.3757567 1.5674665
-0.91270101 1.3279063 1.2568183
-0.89515364 1.3014147 1.013814
-0.8835085 1.283058 0.80760783
-0.86847043 1.2602899 0.62183642
-0.8527444 1.2365576 0.45299914
-0.8379128 1.2146056 0.29802063
-0.82297629 1.1920768 0.15210937
-0.016361199 0.087098315 8.7339401
-0.75336784 1.1588959 8.787364
-0.9758389 1.4805011 8.5483274
-0.54104859 0.80875474 3.1578836
-0.83908045 1.2451224 3.5967908
-0.94667715 1.3985509 3.1622362
-1.0056458 1.481261 2.7021606
-1.0396655 1.5279621 2.2893224
-0.24271981 0.45479971 8.7547979
-0.47662416 0.81770152 8.7844582
-0.46924353 0.70796525 3.3076477
-0.64559996 0.9644354 3.2102668
-0.92501384 1.3737391 3.4881854
-0.99084496 1.4665897 2.9652438
-1.0222008 1.5090653 2.4882846
-1.0324615 1.5213808 2.0715086
-0.97826499 1.4312884 1.7834612
-0.92708504 1.3548967 1.4061449
-0.90392476 1.3195816 1.1332856
-0.88997757 1.2982613 0.91048759
-0.87639427 1.2775028 0.71424389
-0.8635816 1.2578975 0.53843033
-0.84840208 1.2348715 0.37592128
-0.83219939 1.2103957 0.22481708
-0.94603926 1.3883021 1.5774431
-0.91489363 1.3411014 1.2656479
-0.89546633 1.3116522 1.0188802
-0.88414621 1.2936283 0.81180394
-0.86939758 1.2711092 0.62512344
-0.8511681 1.2435378 0.45417145
-0.83646578 1.221609 0.2987113
-0.82445806 1.2031847 0.15251243
-0.016057068 0.087154895 8.7339401
-0.74931794 1.1615185 8.787364
-0.97122216 1.4847504 8.5532217
-0.53822225 0.81063843 3.1578836
-0.82821333 1.2382996 3.5691757
-0.94446051 1.4058231 3.1710143
-1.0051861 1.4917637 2.7145593
-1.0397067 1.5395509 2.3008351
-0.24113078 0.45564419 8.7547979
-0.47376695 0.81936032 8.7844582
-0.46607894 0.70854849 3.3028083
-0.64413899 0.96955806 3.2196524
-0.92021292 1.3769597 3.4881854
-0.99152905 1.4787043 2.9823074
-1.0219703 1.5201265 2.5002546
-1.0328259 1.533411 2.0825341
-0.97926885 1.4435486 1.7939749
-0.92672324 1.3645645 1.4124217
-0.90636575 1.3331027 1.14151
-0.89042407 1.3086849 0.91512519
-0.87714785 1.2882183 0.71798992
-0.86458784 1.2688328 0.54125035
-0.8496213 1.2459424 0.37778652
-0.83358335 1.2215201 0.22571123
-0.94746238 1.4008744 1.5874195
-0.91473895 1.3509809 1.2715342
-0.89813656 1.3254762 1.0264798
-0.88472062 1.3042185 0.81600004
-0.8702597 1.2819501 0.62841046
-0.85228503 1.2545425 0.45651609
-0.83776343 1.2327129 0.30009267
-0.82306278 1.2101864 0.15271397
-0.015752744 0.087210417 8.7339401
-0.74525893 1.164127 8.787364
-0.96658778 1.4889857 8.5581179
-0.53621036 0.81375879 3.1626556
-0.82712674 1.2460665 3.5829835
-0.94220448 1.4130969 3.1797926
-1.0046654 1.502281 2.7269583
-1.0414642 1.5538211 2.316185
-0.2394055 0.45622703 8.7498064
-0.47090399 0.82100904 8.7844582
-0.46291599 0.70911837 3.2979689
-0.64265007 0.97468233 3.2290378
-0.91660398 1.3819778 3.4926865
-0.99069554 1.4886701 2.9951053
-1.0216748 1.5312043 2.5122247
-1.031235 1.5426438 2.0898843
-0.98019886 1.4558328 1.8044887
-0.9284808 1.3774741 1.4218372
-0.90638453 1.3431908 1.146993
-0.89080858 1.3191276 0.91976279
-0.87524152 1.2951133 0.719863
-0.86552823 1.2797904 0.54407042
-0.84802032 1.2529687 0.37871915
-0.83210713 1.2285458 0.22615832
-0.94880933 1.4134737 1.5973961
-0.91452634 1.3608756 1.2774205
-0.89831543 1.3357575 1.0315461
-0.88523197 1.3148285 0.82019615
-0.87105662 1.2928126 0.63169748
-0.85333532 1.2655702 0.45886073
-0.83622444 1.2397352 0.30078334
-0.82442367 1.2213336 0.15311703
-0.015448227 0.087264866 8.7339401
-0.74119079 1.1667213 8.787364
-0.96138436 1.4923506 8.5581179
-0.5333665 0.81562561 3.1626556
-0.8184737 1.2424198 3.5645733
-0.94123065 1.4223694 3.1929598
-1.0056394 1.5151575 2.7434902
-1.0431346 1.5681221 2.3315351
-0.23781151 0.45705995 8.7498064
-0.46803525 0.82264787 8.7844582
-0.45975477 0.70967478 3.2931294
-0.6420778 0.98125207 3.2431161
-0.91177434 1.3851688 3.4926865
-0.9898048 1.4986482 3.0079031
-1.0196507 1.5397862 2.5202048
-1.0239698 1.5434092 2.0862093
-0.98303628 1.4711064 1.8185068
-0.92799509 1.3871771 1.4281141
-0.90634376 1.353295 1.152476
-0.89113092 1.3295885 0.92440039
-0.87587994 1.3058608 0.72360903
-0.86372912 1.2867869 0.54548049
-0.84911966 1.2640765 0.38058439
-0.83337021 1.2397088 0.22705248
-0.95007962 1.4260992 1.6073725
-0.9142558 1.370785 1.2833068
-0.90082651 1.3496418 1.0391457
-0.88567996 1.3254579 0.82439226
-0.86916345 1.2997707 0.63334101
-0.85431886 1.2766203 0.46120536
-0.83464676 1.2467617 0.30147403
-0.82293606 1.2283546 0.15331855
-0.015147544 0.087361708 8.7389402
-0.73711365 1.1693015 8.787364
-0.95616925 1.4956974 8.5581179
-0.53051615 0.81748241 3.1626556
-0.81306291 1.2436339 3.5599706
-0.93888903 1.4296501 3.2017381
-1.0049881 1.5257089 2.7558892
-1.0447178 1.5824536 2.346885
-0.23621462 0.45788726 8.7498064
-0.46516085 0.82427657 8.7844582
-0.45727471 0.71127528 3.2931294
-0.64146751 0.98782957 3.2571945
-0.90693361 1.3883431 3.4926865
-0.98885608 1.5086379 3.0207007
-1.0192341 1.5508907 2.5321748
-1.0223045 1.5526372 2.0935595
-0.98380798 1.4834453 1.8290204
-0.92960572 1.4001361 1.4375293
-0.90624356 1.3634152 1.1579589
-0.89139098 1.340068 0.92903793
-0.876454 1.3166283 0.72735512
-0.86455119 1.2977787 0.54830056
-0.84742683 1.2711201 0.38151699
-0.83180153 1.2467529 0.22749956
-0.9512735 1.4387509 1.617349
-0.91615802 1.3840798 1.2921362
-0.90087104 1.3599659 1.0442121
-0.88606441 1.3361063 0.82858837
-0.86984342 1.3106658 0.63662797
-0.8552357 1.2876925 0.46355
-0.83577055 1.2579169 0.30285537
-0.82417566 1.2395403 0.15372162
-0.014842503 0.087414049 8.7389402
-0.73302752 1.1718674 8.787364
-0.95094246 1.4990259 8.5581179
-0.52765942 0.81932926 3.1626556
-0.80659044 1.2431864 3.5507658
-0.93781567 1.4389384 3.2149053
-1.0058147 1.5386297 2.7724209
-1.0462135 1.5968152 2.3622351
-0.23461486 0.45870903 8.7498064
-0.46228072 0.82589525 8.7844582
-0.45411342 0.71180725 3.28829
-0.63988447 0.99296415 3.2665799
-0.90208197 1.3915004 3.4926865
-0.98927182 1.5208256 3.0377645
-1.0187522 1.562011 2.5441449
-1.0113155 1.5476822 2.0825341
-0.98450553 1.4958074 1.839534
-0.92899573 1.4098729 1.4438063
-0.90608364 1.3735512 1.1634418
-0.89158881 1.3505651 0.93367553
-0.87440813 1.3235478 0.72922814
-0.86530709 1.3087919 0.55112064
-0.8484056 1.2822638 0.38338223
-0.83019388 1.253801 0.22794664
-0.95239037 1.4514282 1.6273257
-0.91575944 1.3940259 1.2980225
-0.90085435 1.3703065 1.0492785
-0.8863852 1.3467733 0.83278447
-0.8678605 1.3176379 0.63827151
-0.85341054 1.2947284 0.46472231
-0.83410048 1.2649608 0.30354607
-0.82259548 1.2465795 0.15392315
-0.01453728 0.087465331 8.7389402
-0.72852296 1.1737587 8.7824249
-0.9457041 1.5023363 8.5581179
-0.52479619 0.82116616 3.1626556
-0.80118865 1.2443516 3.5461633
-0.93408769 1.4442143 3.2192943
-1.0050318 1.5492138 2.7848196
-1.0511158 1.6165807 2.3852601
-0.23301224 0.4595252 8.7498064
-0.45939502 0.82750386 8.7844582
-0.45162597 0.71338809 3.28829
-0.64106202 1.0024616 3.2900438
-0.89721918 1.3946408 3.4926865
-0.98820013 1.5308433 3.0505624
-1.0165678 1.570617 2.552125
-1.0169735 1.5682698 2.1045849
-0.98707867 1.511178 1.8535522
-0.9304592 1.4228803 1.4532217
-0.90586394 1.3837026 1.1689247
-0.89415163 1.3647854 0.94063193
-0.87486643 1.3343461 0.73297417
-0.86599642 1.319826 0.55394071
-0.84931695 1.2934297 0.38524747
-0.8312819 1.265015 0.2288408
-0.95343029 1.4641304 1.637302
-0.91530257 1.4039863 1.3039091
-0.90077633 1.3806635 1.0543448
-0.88664228 1.3574588 0.83698058
-0.86842293 1.3285645 0.64155853
-0.85420746 1.3058348 0.46706694
-0.83510298 1.276152 0.30492741
-0.82371324 1.2578022 0.15432622
-0.014228312 0.087472051 8.7339401
-0.7240141 1.1756328 8.7774858
-0.94045413 1.5056282 8.5581179
-0.52192658 0.82299304 3.1626556
-0.79578841 1.2454944 3.5415606
-0.93162775 1.4514973 3.2280724
-1.0057106 1.5621772 2.8013513
-1.0454665 1.62024 2.3852601
-0.23140678 0.46033573 8.7498064
-0.45650369 0.82910246 8.7844582
-0.44913304 0.71496022 3.28829
-0.64957625 1.0236367 3.3510499
-0.89234549 1.3977642 3.4926865
-0.98707044 1.5408719 3.0633602
-1.0159643 1.5817622 2.564095
-1.0316722 1.6031705 2.1450119
-0.98761684 1.5235921 1.8640658
-0.92972422 1.4326496 1.4594986
-0.90786237 1.3973755 1.1771491
-0.89421135 1.375326 0.94526953
-0.87525988 1.3451632 0.73672026
-0.86400175 1.3268608 0.55535072
-0.85016072 1.3046176 0.38711271
-0.82958144 1.2720803 0.22928788
-0.95236653 1.4737216 1.6439531
-0.91698265 1.417354 1.3127384
-0.90063703 1.3910366 1.0594112
-0.88683558 1.3681625 0.84117669
-0.86891967 1.3395113 0.64484555
-0.85229057 1.3128854 0.46823925
-0.83334035 1.2832124 0.30561811
-0.82204008 1.264859 0.15452774
-0.013922892 0.087521188 8.7339401
-0.71950096 1.1774896 8.7725468
-0.93519282 1.5089018 8.5581179
-0.51905066 0.82480991 3.1626556
-0.79039013 1.2466146 3.5369582
-0.92784178 1.4567605 3.2324615
-1.0047959 1.5727926 2.8137503
-1.0415328 1.6265789 2.3890977
-0.2297985 0.46114072 8.7498064
-0.45360678 0.83069086 8.7844582
-0.44597 0.71545666 3.2834506
-0.66254675 1.0521853 3.4355197
-0.88629615 1.3990315 3.4881854
-0.98448378 1.5487102 3.071892
-1.0152949 1.592922 2.5760651
-1.0497887 1.6439071 2.1927891
-0.98808026 1.5360284 1.8745794
-0.93103981 1.4457037 1.468914
-0.90751058 1.4075649 1.1826321
-0.89420837 1.3858836 0.94990712
-0.87558854 1.3559995 0.7404663
-0.86457181 1.3379269 0.5581708
-0.85093653 1.3158271 0.38897794
-0.83054745 1.28333 0.23018204
-0.95326298 1.4864662 1.6539296
-0.91639692 1.4273489 1.3186247
-0.9004361 1.4014255 1.0644776
-0.88696486 1.378884 0.8453728
-0.86935061 1.3504775 0.64813256
-0.85296726 1.3240249 0.47058392
-0.83422118 1.2944387 0.30699944
-0.82303542 1.2761174 0.1549308
-0.0136173 0.087569259 8.7339401
-0.71498376 1.1793295 8.7676067
-0.92992014 1.5121571 8.5581179
-0.51616836 0.82661664 3.1626556
-0.78603381 1.2493659 3.5369582
-0.9329865 1.4761875 3.2675743
-1.0053262 1.5857974 2.830282
-1.0392864 1.6356152 2.3967726
-0.22818743 0.46194005 8.7498064
-0.45070437 0.83226913 8.7844582
-0.44346988 0.71700907 3.2834506
-0.67349726 1.0779095 3.5106039
-0.8814072 1.4021168 3.4881854
-0.98046309 1.5543431 3.0761578
-1.0161707 1.6066432 2.592025
-1.0476731 1.653289 2.2001393
-0.9903875 1.5514925 1.8885976
-0.93227541 1.4587843 1.4783293
-0.90935206 1.4212909 1.1908565
-0.89414239 1.3964578 0.95454472
-0.87585217 1.3668544 0.74421245
-0.86507523 1.3490127 0.56099087
-0.8516444 1.3270578 0.39084318
-0.83144498 1.2946017 0.23107618
-0.95408195 1.4992349 1.663906
-0.91792428 1.4407661 1.3274543
-0.90017372 1.4118298 1.0695438
-0.88702995 1.3896229 0.8495689
-0.86971539 1.361463 0.65141958
-0.85357648 1.3351848 0.47292855
-0.83503371 1.3056865 0.30838081
-0.82396221 1.2873985 0.15533386
-0.013311544 0.08761625 8.7339401
-0.71046245 1.1811521 8.7626677
-0.92463595 1.515394 8.5581179
-0.51327974 0.82841343 3.1626556
-0.78166789 1.252102 3.5369582
-0.93800664 1.4956677 3.3026869
-1.0057777 1.598825 2.8468139
-1.0369895 1.6446558 2.4044476
-0.22669968 0.46299347 8.7547979
-0.44804811 0.83430731 8.7894306
-0.4403072 0.7174812 3.2786112
-0.68154883 1.0993221 3.5716097
-0.87535554 1.4033376 3.4836841
-0.97641498 1.5599669 3.0804241
-1.016963 1.6203897 2.6079853
-1.0527228 1.674156 2.2221904
-0.99069065 1.5639784 1.8991114
-0.93134654 1.468604 1.4846063
-0.90886754 1.4315168 1.1963394
-0.89401364 1.4070485 0.95918238
-0.87605053 1.3777276 0.74795848
-0.86551172 1.3601185 0.56381088
-0.8496455 1.3341659 0.39177582
-0.83227378 1.3058953 0.23197034
-0.95482343 1.5120274 1.6738826
-0.91720921 1.4507946 1.3333406
-0.90215433 1.4258922 1.0771434
-0.8870309 1.4003789 0.85376495
-0.87001401 1.3724672 0.6547066
-0.85411811 1.346365 0.47527319
-0.83577782 1.3169557 0.30976218
-0.82482016 1.2987013 0.15573692
-0.013008586 0.087705716 8.7389402
-0.70593715 1.1829575 8.7577286
-0.91934067 1.5186123 8.5581179
-0.51038498 0.83020008 3.1626556
-0.77626377 1.253162 3.5323555
-0.94037157 1.5111339 3.3290212
-1.0061504 1.6118748 2.8633456
-1.0380421 1.6591347 2.4197977
-0.22508214 0.46378198 8.7547979
-0.44513315 0.83586621 8.7894306
-0.43714663 0.71793997 3.2737718
-0.68403512 1.1119843 3.6044593
-0.87045163 1.4063847 3.4836841
-0.97096378 1.5633657 3.0804241
-1.0176717 1.6341614 2.6239452
-1.048667 1.6806966 2.2258654
-0.99281621 1.5795045 1.9131296
-0.93243349 1.4817293 1.4940217
-0.90832263 1.4417562 1.2018223
-0.89382172 1.4176551 0.96381998
-0.87618357 1.3886186 0.75170451
-0.8658812 1.3712437 0.56663096
-0.85023165 1.3454289 0.39364108
-0.83303386 1.3172104 0.2328645
-0.9574694 1.528007 1.6871846
-0.91858304 1.4642595 1.34217
-0.90175557 1.4363346 1.0822097
-0.88696748 1.4111519 0.85796106
-0.87276065 1.3874874 0.65963709
-0.85459203 1.3575653 0.47761783
-0.83645338 1.3282459 0.31114352
-0.82294559 1.3057992 0.15593846
-0.012702356 0.087750591 8.7389402
-0.70180351 1.1854146 8.7577286
-0.91403413 1.5218121 8.5581179
-0.5074839 0.83197653 3.1626556
-0.77188474 1.255864 3.5323555
-0.94893062 1.5368241 3.3773012
-1.0064442 1.6249468 2.8798773
-1.039006 1.673641 2.4351475
-0.22346187 0.46456486 8.7547979
-0.4422127 0.83741492 8.7894306
-0.4346379 0.7194615 3.2737718
-0.69003654 1.1305693 3.6560795
-0.86439812 1.4075594 3.479183
-0.96686876 1.5689658 3.0846899
-1.0198804 1.6505209 2.6438954
-1.0481473 1.6929944 2.236891
-0.99295819 1.5920384 1.9236431
-0.93343985 1.4948796 1.5034369
-0.90993375 1.4555551 1.2100466
-0.89356649 1.4282773 0.96845758
-0.87625128 1.3995272 0.75545061
-0.86618334 1.3823879 0.56945103
-0.85074919 1.3567119 0.39550632
-0.83372504 1.3285465 0.23375866
-0.95804399 1.5408525 1.697161
-0.91987407 1.4777517 1.3509996
-0.90129483 1.4467914 1.0872761
-0.88683969 1.4219413 0.86215717
-0.87291265 1.3985373 0.66292417
-0.85499805 1.368785 0.47996244
-0.83706021 1.3395567 0.31252488
-0.82368028 1.3171356 0.15634152
-0.012395972 0.087794401 8.7389402
-0.69726813 1.187187 8.7527885
-0.9092375 1.5258683 8.5630131
-0.50457668 0.83374298 3.1626556
-0.76749623 1.2585508 3.5323555
-0.94356036 1.5401272 3.3773012
-1.006659 1.6380403 2.8964093
-1.0415623 1.6909032 2.4543352
-0.2219622 0.46560296 8.7597885
-0.43928689 0.83895344 8.7894306
-0.43147796 0.71989596 3.2689323
-0.69502288 1.1477336 3.7030075
-0.85947949 1.4105682 3.479183
-0.9695484 1.585682 3.1102853
-1.0204123 1.6643467 2.6598556
-1.0457801 1.7024204 2.2442412
-0.99302483 1.6045926 1.9341568
-0.93436593 1.5080552 1.5128524
-0.90925545 1.4658293 1.2155296
-0.89558429 1.4426786 0.97541398
-0.87869978 1.4143912 0.76106972
-0.86641824 1.3935508 0.57227111
-0.84860331 1.3638443 0.39643893
-0.83171481 1.3356761 0.23420574
-0.95854068 1.5537207 1.7071376
-0.92108208 1.4912705 1.3598289
-0.90077209 1.4572626 1.0923425
-0.8890354 1.4366063 0.86845136
-0.87299806 1.4096051 0.66621119
-0.85533607 1.3800241 0.48230708
-0.83759826 1.3508878 0.31390625
-0.82434583 1.328493 0.15674458
-0.012089437 0.08783713 8.7389402
-0.69272888 1.1889423 8.7478504
-0.90390575 1.5290327 8.5630131
-0.50166327 0.83549917 3.1626556
-0.76309842 1.2612222 3.5323555
-0.93693471 1.5413648 3.3729122
-1.0067946 1.6511549 2.912941
-1.0406677 1.7027334 2.4658477
-0.2203356 0.46637493 8.7597885
-0.43635571 0.8404817 8.7894306
-0.42896244 0.72139776 3.2689323
-0.70434016 1.1723427 3.7733986
-0.85455048 1.4135598 3.479183
-0.97212291 1.6024359 3.1358809
-1.0208601 1.6781962 2.6758156
-1.0451238 1.7147449 2.2552667
-0.99488175 1.6202055 1.948175
-0.93521118 1.5212551 1.5222677
-0.91070819 1.4796774 1.223754
-0.89518923 1.4533396 0.98005158
-0.87862247 1.4253424 0.76481575
-0.86658585 1.4047321 0.57509118
-0.84899849 1.3751577 0.39830416
-0.83228254 1.3470442 0.2350999
-0.96090811 1.5697954 1.7204396
-0.92220682 1.5048158 1.3686585
-0.90244079 1.4714223 1.0999421
-0.88876486 1.4474362 0.87264746
-0.87301689 1.4206904 0.66949821
-0.85560608 1.3912821 0.48465171
-0.83806729 1.362239 0.31528762
-0.82494211 1.3398708 0.15714765
-0.011782754 0.087878793 8.7389402
-0.68818587 1.1906803 8.7429113
-0.89856285 1.5321786 8.5630131
-0.49874377 0.83724523 3.1626556
-0.75869125 1.2638782 3.5323555
-0.93031186 1.542575 3.3685231
-1.0068507 1.6642903 2.9294727
-1.041365 1.7173189 2.4811976
-0.21870629 0.46714121 8.7597885
-0.43341923 0.84199977 8.7894306
-0.42580336 0.7218079 3.2640929
-0.71261072 1.1955483 3.8390975
-0.84849137 1.414667 3.4746816
-0.97459221 1.6192271 3.1614769
-1.0212234 1.6920689 2.6917758
-1.0461488 1.729987 2.2699676
-0.99293083 1.6297597 1.9551841
-0.93597555 1.5344795 1.5316831
-0.90989602 1.4899848 1.229237
-0.89473051 1.4640151 0.98468918
-0.88089818 1.4402654 0.77043486
-0.86668569 1.4159315 0.5779112
-0.849325 1.3864906 0.4001694
-0.83017814 1.3541869 0.23554698
-0.96317506 1.5859056 1.7337415
-0.92324817 1.5183871 1.377488
-0.90178072 1.4819287 1.1050084
-0.88842934 1.4582816 0.87684357
-0.87296873 1.431793 0.67278522
-0.85580778 1.4025588 0.48699635
-0.83846724 1.3736099 0.31666899
-0.82286447 1.3470056 0.15734917
-0.011475928 0.087919392 8.7389402
-0.68363911 1.1924011 8.7379713
-0.89320916 1.5353059 8.5630131
-0.49581823 0.83898103 3.1626556
-0.7542749 1.2665188 3.5323555
-0.92492157 1.545813 3.3685231
-1.0068274 1.6774462 2.9460046
-1.040321 1.7291832 2.4927104
-0.21707435 0.46790177 8.7597885
-0.43047747 0.84350753 8.7894306
-0.42328116 0.72328979 3.2640929
-0.70755494 1.196543 3.8344047
-0.84354812 1.4176202 3.4746816
-0.97561908 1.6338154 3.1828063
-1.0215023 1.7059646 2.7077358
-1.0453355 1.7423495 2.2809927
-0.9946149 1.6454238 1.9692023
-0.93665916 1.5477275 1.5410986
-0.91118962 1.5038807 1.2374614
-0.89420819 1.4747052 0.98932678
-0.88067532 1.4512582 0.77418089
-0.86920798 1.4312488 0.58214134
-0.84958261 1.3978424 0.40203464
-0.83062202 1.365586 0.23644114
-0.96534109 1.6020505 1.7470435
-0.92211807 1.5285226 1.3833743
-0.90105832 1.4924482 1.1100746
-0.88802904 1.4691422 0.88103968
-0.8728537 1.4429123 0.67607224
-0.85594112 1.4138535 0.48934099
-0.83879793 1.3849999 0.31805035
-0.82333654 1.3584146 0.15775223
-0.011168963 0.087958917 8.7389402
-0.67947274 1.1947801 8.7379713
-0.88784444 1.5384145 8.5630131
-0.4928866 0.84070671 3.1626556
-0.74984938 1.2691441 3.5323555
-0.92074239 1.5510917 3.3729122
-1.0052848 1.6882041 2.9584033
-1.0408492 1.7438133 2.5080602
-0.21532005 0.46839404 8.7547979
-0.42753047 0.84500504 8.7894306
-0.42075381 0.72476292 3.2640929
-0.69289798 1.1811427 3.7780917
-0.83859462 1.4205561 3.4746816
-0.97788501 1.6506745 3.2084019
-1.0216966 1.7198826 2.723696
-1.0461828 1.7576408 2.2956934
-1.0017039 1.670295 1.9937341
-0.93726128 1.5609987 1.5505139
-0.91024297 1.5142199 1.2429444
-0.89590561 1.4892054 0.99628317
-0.88277751 1.4662384 0.7798
-0.86915809 1.4424919 0.58496141
-0.84977126 1.4092127 0.40389988
-0.83099627 1.3770045 0.23733529
-0.96932197 1.6214347 1.763671
-0.92300403 1.5421368 1.3922038
-0.90027326 1.5029808 1.115141
-0.88989764 1.48391 0.88733381
-0.8726716 1.4540484 0.67935926
-0.85600597 1.4251664 0.4916856
-0.83905929 1.3964089 0.31943169
-0.82373899 1.3698432 0.15815529
-0.010859964 0.087953776 8.7339401
-0.67529804 1.1971446 8.7379713
-0.882469 1.5415041 8.5630131
-0.48994899 0.84242201 3.1626556
-0.74640238 1.2734394 3.5369582
-0.93233514 1.5831895 3.4343591
-1.0051105 1.7013944 2.9749353
-1.039655 1.7557099 2.5195727
-0.21368374 0.46914279 8.7547979
-0.42457822 0.84649223 8.7894306
-0.41822138 0.72622716 3.2640929
-0.68182856 1.1716213 3.7405496
-0.83253086 1.4215962 3.4701805
-0.98136634 1.6698177 3.2382634
-1.0202762 1.7312266 2.735666
-1.0452121 1.7700398 2.3067191
-1.012278 1.7013651 2.025275
-0.93778229 1.574293 1.5599293
-0.91137683 1.5281618 1.2511686
-0.89524221 1.4999311 1.0009208
-0.88240856 1.477271 0.78354609
-0.86904025 1.4537519 0.58778149
-0.84989077 1.4206012 0.40576512
-0.83385909 1.3927151 0.23867653
-0.9712745 1.6376542 1.7769731
-0.92380619 1.555776 1.4010333
-0.9016279 1.5172319 1.1227406
-0.88935345 1.4948081 0.89152992
-0.8724224 1.4652005 0.68264627
-0.85600227 1.4364967 0.49403024
-0.83925116 1.4078366 0.32081306
-0.82407159 1.381291 0.15855835
-0.010552883 0.087991148 8.7339401
-0.67149425 1.2001728 8.7429113
-0.87708271 1.5445752 8.5630131
-0.48700541 0.84412718 3.1626556
-0.74195272 1.2760371 3.5369582
-0.94371486 1.6153868 3.4958065
-1.0034336 1.7121763 2.9873343
-1.0400138 1.7703831 2.5349226
-0.21204484 0.46988583 8.7547979
-0.42162082 0.84796917 8.7894306
-0.41568384 0.72768265 3.2640929
-0.68204755 1.1814673 3.7640131
-0.82756352 1.4244936 3.4701805
-0.98472589 1.6890051 3.2681251
-1.0203098 1.745183 2.7516263
-1.0458812 1.7853783 2.3214197
-1.0208344 1.7294579 2.0533113
-0.93822187 1.5876096 1.5693445
-0.9124245 1.5421301 1.2593931
-0.89451498 1.5106704 1.0055584
-0.88197327 1.4883187 0.78729212
-0.86885434 1.4650288 0.59060156
-0.84994113 1.4320078 0.40763035
-0.83407903 1.4041804 0.23957069
-0.97501874 1.6571251 1.7936004
-0.92452431 1.5694393 1.4098626
-0.90070474 1.5277971 1.127807
-0.888744 1.5057204 0.89572603
-0.87210596 1.4763685 0.68593329
-0.85592979 1.4478443 0.49637488
-0.83685261 1.41502 0.32150373
-0.82433426 1.392758 0.15896143
-0.010245672 0.088027447 8.7339401
-0.66767764 1.2031889 8.7478504
-0.87218535 1.5485146 8.5679083
-0.48405591 0.84582198 3.1626556
-0.7384699 1.2803116 3.5415606
-0.95488089 1.6476827 3.5572534
-1.0031078 1.7253999 3.003866
-1.0386689 1.7823107 2.5464354
-0.21040334 0.47062314 8.7547979
-0.41865829 0.84943575 8.7894306
-0.41314122 0.7291292 3.2640929
-0.67791933 1.1838409 3.7640131
-0.82258606 1.4273735 3.4701805
-0.98796326 1.708236 3.2979865
-1.0187466 1.7565539 2.7635963
-1.0464559 1.8007432 2.3361204
-1.029207 1.7576311 2.0813477
-0.93857974 1.6009487 1.57876
-0.91338563 1.5561241 1.2676175
-0.8959673 1.5252424 1.0125147
-0.88147163 1.4993814 0.79103822
-0.86860019 1.4763218 0.59342158
-0.84992218 1.443432 0.40949559
-0.83422899 1.4156642 0.24046485
-0.97675693 1.6734174 1.8069026
-0.9251582 1.5831265 1.4186922
-0.90189481 1.5420953 1.1354066
-0.89036232 1.5205632 0.90202022
-0.87172192 1.487552 0.68922031
-0.85578841 1.4592088 0.49871951
-0.83691996 1.4264749 0.3228851
-0.82452691 1.4042434 0.15936449
-0.009938336 0.088062674 8.7339401
-0.66347361 1.2055123 8.7478504
-0.86677468 1.5515497 8.5679083
-0.48110047 0.84750652 3.1626556
-0.73496634 1.2845773 3.5461633
-0.96344578 1.6759228 3.6099226
-0.99989039 1.7337663 3.0121319
-1.0388573 1.7970254 2.5617852
-0.20875926 0.47135469 8.7547979
-0.41569066 0.85089195 8.7894306
-0.41059354 0.73056692 3.2640929
-0.67463493 1.1877007 3.7687061
-0.81759858 1.4302362 3.4701805
-0.98978049 1.7252476 3.3235822
-1.0261316 1.7836065 2.7995064
-1.0486288 1.8190708 2.3544962
-1.0338126 1.7797155 2.102375
-0.93885589 1.6143092 1.5881753
-0.91215611 1.56653 1.2731004
-0.89732862 1.539843 1.0194712
-0.88090324 1.5104585 0.79478431
-0.86585963 1.4834877 0.59483165
-0.84983373 1.4548732 0.41136083
-0.83430886 1.4271661 0.24135901
-0.98026371 1.692973 1.8235301
-0.92773485 1.600334 1.4304649
-0.902996 1.5564203 1.1430061
-0.8896082 1.5315108 0.90621626
-0.87364376 1.5028335 0.69415081
-0.85802251 1.4747913 0.50223649
-0.83691758 1.4379475 0.32426646
-0.82464921 1.4157468 0.15976755
-0.0096295932 0.088053226 8.728941
-0.65963364 1.2085029 8.7527885
-0.86184686 1.5554565 8.5728035
-0.47813919 0.8491807 3.1626556
-0.73337007 1.2922325 3.5599706
-0.95996231 1.6834365 3.6187005
-0.99942124 1.7470165 3.0286636
-1.0389557 1.811763 2.5771353
-0.20711266 0.47208053 8.7547979
-0.41294968 0.85281783 8.7944021
-0.40804088 0.7319957 3.2640929
-0.67048496 1.1900483 3.7687061
-0.81260115 1.4330815 3.4701805
-0.99149108 1.7422929 3.3491776
-1.0303532 1.8054975 2.8274367
-1.0490037 1.8344922 2.3691969
-1.0364962 1.7987635 2.1198976
-0.94099504 1.6310626 1.6007291
-0.91295636 1.580567 1.2813249
-0.89859885 1.5544714 1.0264276
-0.88258988 1.5255626 0.80040342
-0.86548322 1.494804 0.59765172
-0.84967571 1.4663314 0.41322607
-0.83431864 1.4386858 0.24225317
-0.98178631 1.7093354 1.836832
-0.92818767 1.6140746 1.4392942
-0.90400821 1.5707717 1.1506057
-0.89105433 1.5464042 0.91251045
-0.87311041 1.5140553 0.69743782
-0.85772842 1.486197 0.50458109
-0.83684504 1.4494373 0.3256478
-0.82470131 1.4272681 0.16017061
-0.0093221711 0.0880863 8.728941
-0.65541112 1.210798 8.7527885
-0.85641205 1.5584556 8.5728035
-0.4751721 0.8508445 3.1626556
-0.7259804 1.289677 3.5461633
-0.97765982 1.7284712 3.7064819
-0.99331689 1.7504946 3.0286636
-1.0389638 1.8265229 2.5924852
-0.20546354 0.47280064 8.7547979
-0.40997028 0.85425413 8.7944021
-0.40548328 0.7334156 3.2640929
-0.66632682 1.1923815 3.7687061
-0.80652672 1.4340117 3.4656792
-0.99181265 1.7570994 3.3705075
-1.0344343 1.8274397 2.8553669
-1.0492836 1.8499383 2.3838975
-1.0390592 1.8178517 2.1374204
-0.94302863 1.6478505 1.6132829
-0.91366971 1.5946287 1.2895492
-0.89977765 1.5691271 1.033384
-0.88187414 1.5366759 0.80414945
-0.86503828 1.5061356 0.60047174
-0.84944803 1.4778061 0.41509131
-0.83425796 1.4502226 0.24314731
-0.98505491 1.7289734 1.8534596
-0.92855585 1.6278379 1.4481238
-0.90493107 1.5851488 1.1582052
-0.89015508 1.5573858 0.91670656
-0.87485409 1.5293907 0.70236832
-0.85736519 1.4976187 0.50692576
-0.83670264 1.4609442 0.32702917
-0.82468289 1.4388071 0.16057368
-0.0090146363 0.088118307 8.728941
-0.65118062 1.2130785 8.7527885
-0.85096681 1.5614355 8.5728035
-0.4721992 0.85249799 3.1626556
-0.72528309 1.2990268 3.5645733
-1.0114584 1.8028928 3.8557107
-0.98306012 1.7465942 3.0162647
-1.0388815 1.841305 2.6078353
-0.20392513 0.47378042 8.7597885
-0.40698591 0.85567999 8.7944021
-0.40292069 0.73482651 3.2640929
-0.66048789 1.1916813 3.7593205
-0.80151623 1.4368184 3.4656792
-0.99076903 1.7696538 3.3875711
-1.0368997 1.8468045 2.879307
-1.0511307 1.8683634 2.4022732
-1.0415014 1.8369794 2.154943
-0.94303501 1.6612873 1.6226983
-0.91429591 1.6087145 1.2977736
-0.9008652 1.58381 1.0403403
-0.88338494 1.5518315 0.80976856
-0.86452478 1.5174822 0.60329181
-0.84915048 1.4892969 0.41695657
-0.83412683 1.4617765 0.24404147
-0.98636121 1.7454039 1.8667616
-0.93082947 1.6451412 1.4598964
-0.90576452 1.5995516 1.1658047
-0.88919002 1.56838 0.92090267
-0.87417084 1.5406495 0.7056554
-0.85933262 1.5132823 0.51044267
-0.83648998 1.4724674 0.32841054
-0.82459396 1.4503633 0.16097674
-0.0087069906 0.088149235 8.728941
-0.64694226 1.2153442 8.7527885
-0.8455112 1.5643964 8.5728035
-0.46922055 0.85414112 3.1626556
-1.1087909 1.9926788 4.2463388
-1.0057602 1.8016151 3.1030567
-1.0402737 1.8589058 2.6270227
-0.20227008 0.47448936 8.7597885
-0.40422326 0.85757786 8.7993736
-0.40035322 0.73622847 3.2640929
-0.65383083 1.1894424 3.7452421
-0.79649591 1.4396073 3.4656792
-0.99091566 1.784502 3.408901
-1.0392423 1.8662084 2.9032471
-1.0512098 1.883863 2.4169738
-1.0420747 1.8530377 2.1689615
-0.94486856 1.6781359 1.6352521
-0.91688812 1.6264664 1.3087394
-0.90186113 1.5985196 1.0472968
-0.88252127 1.5629795 0.81351459
-0.8639425 1.5288435 0.60611188
-0.85120118 1.5050794 0.41975445
-0.83392519 1.4733471 0.24493563
-0.98756468 1.7618647 1.8800635
-0.93101549 1.6589552 1.468726
-0.90650827 1.6139792 1.1734042
-0.89038348 1.5833421 0.92719686
-0.87341958 1.5519221 0.70894241
-0.85881579 1.5247428 0.51278734
-0.83863795 1.4883214 0.33048257
-0.82443428 1.4619361 0.1613798
-0.0083992397 0.088179089 8.728941
-0.64233351 1.2169079 8.7478504
-0.84004527 1.5673382 8.5728035
-0.46623617 0.85577375 3.1626556
-1.1191846 2.0279911 4.3121748
-1.0103691 1.8248103 3.1361201
-1.0415554 1.8765383 2.6462102
-0.20061257 0.47519252 8.7597885
-0.4012273 0.85898364 8.7993736
-0.39778087 0.73762149 3.2640929
-0.64719748 1.1871718 3.731164
-0.79146588 1.4423789 3.4656792
-0.98971272 1.7970884 3.4259646
-1.0414619 1.8856511 2.9271872
-1.0528351 1.9023522 2.4353497
-1.0425485 1.8691224 2.1829796
-0.94659591 1.6950173 1.6478059
-0.91732693 1.6406062 1.3169639
-0.90060204 1.6093894 1.0519344
-0.8838557 1.578185 0.8191337
-0.86329138 1.5402192 0.60893196
-0.85074878 1.51661 0.42161968
-0.83365297 1.484934 0.24582979
-0.98866522 1.7783548 1.8933655
-0.93308204 1.6763221 1.4804987
-0.90716237 1.6284317 1.1810037
-0.89148337 1.5983317 0.93349099
-0.87260026 1.563208 0.71222943
-0.85822934 1.5362182 0.51513195
-0.84068537 1.5042078 0.33255461
-0.82420385 1.4735255 0.16178286
-0.0080913855 0.088207871 8.728941
-0.63808179 1.2191426 8.7478504
-0.83456916 1.570261 8.5728035
-0.4639554 0.85870945 3.1674278
-1.1281956 2.0612988 4.3736224
-1.0216 1.8603925 3.1898487
-1.0427268 1.8942025 2.6653979
-0.19895262 0.47588989 8.7597885
-0.39822647 0.86037898 8.7993736
-0.39520365 0.73900551 3.2640929
-0.63976753 1.1833512 3.7123928
-0.78642619 1.4451329 3.4656792
-0.98468357 1.802821 3.4302304
-1.0421109 1.9024889 2.9471374
-1.0510817 1.9149315 2.4463751
-1.0429226 1.8852326 2.1969979
-0.9482168 1.7119309 1.6603597
-0.91970587 1.6584253 1.3279297
-0.90142763 1.624143 1.0588907
-0.88284349 1.5893658 0.82287979
-0.86490214 1.5558015 0.61316204
-0.85261434 1.5324482 0.42441753
-0.83330983 1.4965367 0.24672395
-0.99146545 1.7981439 1.9099932
-0.93503863 1.6937234 1.4922713
-0.90772653 1.6429079 1.1886032
-0.89029241 1.6093765 0.9376871
-0.87399989 1.5786383 0.71715993
-0.85757315 1.5477077 0.51747662
-0.84023124 1.5157957 0.33393598
-0.82390237 1.4851308 0.16218592
-0.0077834339 0.088235579 8.728941
-0.63382232 1.2213625 8.7478504
-0.82908285 1.5731647 8.5728035
-0.46095511 0.86032379 3.1674278
-1.2139302 2.2476099 6.0775518
-1.1278479 2.0778539 4.3999567
-1.0312488 1.8936034 3.239444
-1.0437875 1.9118974 2.6845856
-0.19729024 0.47658148 8.7597885
-0.39522073 0.86176383 8.7993736
-0.39262164 0.74038053 3.2640929
-0.63400263 1.1825353 3.7030075
-0.78137696 1.4478691 3.4656792
-1.0069517 1.8589929 3.528347
-1.042655 1.9193543 2.9670875
-1.0524948 1.9334769 2.464751
-1.0449121 1.9044945 2.2145205
-0.94973105 1.7288765 1.6729136
-0.92197156 1.6762812 1.3388957
-0.90002495 1.6350411 1.0635283
-0.88400096 1.6046196 0.82849884
-0.86409831 1.5672128 0.61598212
-0.85200644 1.544017 0.42628276
-0.83289587 1.5081551 0.24761811
-0.99234807 1.8146976 1.9232951
-0.9349438 1.7076131 1.5011007
-0.90612906 1.6536274 1.1936696
-0.89121807 1.6244115 0.94398123
-0.87530237 1.5940973 0.72209048
-0.85684717 1.5592114 0.51982123
-0.84209204 1.531738 0.33600801
-0.82353002 1.4967519 0.16258898
-0.0074753864 0.088262215 8.728941
-0.62955511 1.2235675 8.7478504
-0.8235864 1.5760491 8.5728035
-0.45794925 0.86192757 3.1674278
-1.211611 2.262167 6.1051664
-1.1285336 2.0965409 4.4306803
-1.039341 1.9244282 3.2849064
-1.0462632 1.9324415 2.7076104
-0.19562545 0.47726724 8.7597885
-0.39221022 0.86313814 8.7993736
-0.39003485 0.74174649 3.2640929
-0.63230056 1.1893125 3.7170856
-0.77734524 1.4525074 3.4701805
-1.0004565 1.8624965 3.528347
-1.041665 1.9335938 2.9830475
-1.0441289 1.9341559 2.461076
-1.0467799 1.9237934 2.2320433
-0.95113844 1.7458532 1.6854674
-0.92212135 1.6905017 1.3471199
-0.90067983 1.6498375 1.0704848
-0.88506263 1.6199005 0.83411795
-0.86552691 1.5828464 0.62021226
-0.85132802 1.5555998 0.428148
-0.83241087 1.5197887 0.24851227
-0.99490684 1.8345615 1.9399225
-0.93669218 1.725075 1.5128733
-0.90858442 1.6719311 1.2038023
-0.89204967 1.6394726 0.95027542
-0.87424916 1.6054372 0.7253775
-0.85837728 1.5749968 0.5233382
-0.84148115 1.5433638 0.33738938
-0.82308644 1.5083885 0.16299205
-0.0071672485 0.088287771 8.728941
-0.62563306 1.2264498 8.7527885
-0.81807995 1.5789143 8.5728035
-0.45493776 0.8635208 3.1674278
-1.2110375 2.2801862 6.1419868
-1.1291022 2.1152575 4.4614038
-1.0498873 1.9602939 3.3386347
-1.0486079 1.9530257 2.7306354
-0.19385065 0.47767943 8.7547979
-0.38919491 0.86450189 8.7993736
-0.3874433 0.7431035 3.2640929
-0.62653607 1.1884592 3.7077
-0.77227032 1.455212 3.4701805
-1.027051 1.9281282 3.643527
-1.040588 1.9478493 2.9990077
-1.0565703 1.9736553 2.505178
-1.0502189 1.9462669 2.2530704
-0.95243877 1.7628607 1.6980213
-0.9221831 1.7047439 1.3553444
-0.9012422 1.6646581 1.0774411
-0.88602829 1.6352082 0.83973712
-0.86456996 1.5942918 0.62303233
-0.85292232 1.5715142 0.43094587
-0.83185482 1.5314374 0.24940643
-0.99733907 1.8544655 1.9565501
-0.93641365 1.7390109 1.5217029
-0.90887779 1.6864769 1.2114018
-0.89278686 1.654559 0.95656961
-0.87537122 1.6209441 0.730308
-0.85749644 1.5865355 0.52568281
-0.84079927 1.5550038 0.33877075
-0.82257158 1.5200402 0.16339511
-0.0068590231 0.088312246 8.728941
-0.62134814 1.2286261 8.7527885
-0.81256354 1.5817604 8.5728035
-0.45192072 0.8651036 3.1674278
-1.2249169 2.3258872 6.2524476
-1.1284338 2.131887 4.4877386
-1.0562363 1.9887999 3.3799641
-1.0508219 1.97365 2.7536604
-0.19218205 0.47835317 8.7547979
-0.38595828 0.86536813 8.7944021
-0.38484702 0.7444514 3.2640929
-0.63437223 1.2135805 3.7780917
-0.76718599 1.4578987 3.4701805
-1.0410196 1.9709065 3.716048
-1.047887 1.9780974 3.0389078
-1.0592115 1.995298 2.5272288
-1.0518314 1.9656433 2.2705932
-0.95179385 1.7764674 1.7074367
-0.92215657 1.7190069 1.3635689
-0.90171206 1.6795025 1.0843976
-0.88470352 1.6464585 0.84348315
-0.86581564 1.6099747 0.62726241
-0.85208768 1.583133 0.43281111
-0.8335892 1.5474849 0.25074768
-0.99964446 1.8744086 1.9731777
-0.93795305 1.7565312 1.5334755
-0.90908068 1.7010452 1.2190014
-0.89342946 1.6696703 0.96286368
-0.87639552 1.6364784 0.73523855
-0.85884166 1.6023713 0.52919978
-0.84004641 1.5666579 0.34015211
-0.82198542 1.5317065 0.16379817
-0.0065507139 0.088335648 8.728941
-0.61705559 1.2307876 8.7527885
-0.80703717 1.5845871 8.5728035
-0.4488982 0.86667579 3.1674278
-1.2158864 2.3284168 6.2478452
-1.1287756 2.1506579 4.5184617
-1.0571544 2.0074143 3.404762
-1.0529042 1.9943129 2.7766855
-0.19051112 0.4790211 8.7547979
-0.38293523 0.86671007 8.7944021
-0.38224605 0.74579018 3.2640929
-0.64124662 1.2372385 3.8437903
-0.76209229 1.460568 3.4701805
-1.0559119 2.0161157 3.792835
-1.0591908 2.016423 3.0907781
-1.0648723 2.0229828 2.5566301
-1.0549926 1.9882044 2.2916205
-0.9547177 1.7969658 1.723129
-0.92204159 1.7332902 1.3717932
-0.90417081 1.6982807 1.0936728
-0.88549089 1.6618109 0.8491022
-0.86696231 1.6256856 0.6314925
-0.85118228 1.5947649 0.43467635
-0.83287513 1.5591702 0.25164184
-1.0035679 1.8976908 1.9931306
-0.93938136 1.7740834 1.545248
-0.91121131 1.7194443 1.2291342
-0.8939774 1.6848063 0.96915793
-0.87732208 1.6520394 0.74016905
-0.85780543 1.6139436 0.53154445
-0.83922231 1.5783254 0.34153345
-0.82367474 1.5477973 0.16440275
-0.0062423251 0.088357978 8.728941
-0.61310118 1.2336299 8.7577286
-0.80150104 1.5873945 8.5728035
-0.44655183 0.86956543 3.1721995
-1.2266127 2.369081 6.3444982
-1.1301056 2.1715813 4.5535746
-1.0579553 2.0260592 3.4295595
-1.0548551 2.0150142 2.7997105
-0.1889427 0.47995207 8.7597885
-0.37990752 0.86804152 8.7944021
-0.37964043 0.74711996 3.2640929
-0.6392895 1.2440741 3.8578684
-0.75698936 1.4632192 3.4701805
-1.0644916 2.0498791 3.8482921
-1.0674559 2.0495059 3.1346686
-1.0687842 2.0477259 2.5823565
-1.0563486 2.0076554 2.3091431
-0.95569575 1.8140622 1.7356828
-0.92183816 1.7475935 1.3800176
-0.90444136 1.7131786 1.1006291
-0.88618183 1.6771885 0.85472137
-0.86800969 1.6414239 0.63572258
-0.85020596 1.6064098 0.43654159
-0.8320896 1.5708694 0.25253597
-1.0073408 1.9210228 2.0130837
-0.94069856 1.7916666 1.5570207
-0.91322446 1.7378787 1.2392669
-0.89443052 1.6999661 0.97545201
-0.87595034 1.6634483 0.74345607
-0.85896504 1.6298282 0.53506136
-0.83832705 1.5900062 0.34291482
-0.82293004 1.5595001 0.16480581
-0.0059344009 0.088335596 8.7239418
-0.60879129 1.2357626 8.7577286
-0.79595512 1.5901825 8.5728035
-0.44351375 0.8711189 3.1721995
-1.2290409 2.3942051 6.3997283
-1.1302052 2.1904118 4.5842977
-1.0586388 2.044734 3.4543574
-1.0566742 2.0357535 2.8227355
-0.1872662 0.48060867 8.7597885
-0.37666374 0.868873 8.7894306
-0.37703019 0.74844056 3.2640929
-0.63494295 1.2462981 3.8578684
-0.75187713 1.4658527 3.4701805
-1.0406173 2.0211191 3.788569
-1.0755026 2.0826707 3.1785588
-1.0631877 2.054455 2.5860314
-1.0575814 2.0271399 2.3266659
-0.96017015 1.8380871 1.7545135
-0.92348385 1.7656218 1.3909835
-0.90461892 1.7280993 1.1075855
-0.88677609 1.6925911 0.86034042
-0.8689577 1.6571892 0.63995266
-0.85144132 1.6224166 0.43933943
-0.83354825 1.586991 0.25387722
-1.0126854 1.947717 2.0363619
-0.94190419 1.8092805 1.5687933
-0.91312808 1.752525 1.2468663
-0.89478862 1.7151496 0.9817462
-0.87669528 1.6790538 0.74838662
-0.85777301 1.6414325 0.53740603
-0.83736032 1.6016999 0.34429619
-0.82211363 1.5712165 0.16520888
-0.0056260158 0.08835578 8.7239418
-0.60447401 1.2378801 8.7577286
-0.79039949 1.5929513 8.5728035
-0.44047028 0.87266177 3.1721995
-1.2366246 2.429822 6.482574
-1.1312776 2.2114017 4.6194105
-1.0617746 2.0684447 3.487421
-1.0583614 2.0565298 2.8457606
-0.18558742 0.48125947 8.7597885
-0.3736285 0.87018251 8.7894306
-0.37441534 0.7497521 3.2640929
-0.62669975 1.2408047 3.8344047
-0.74675578 1.4684682 3.4701805
-1.0027292 1.9643427 3.6776545
-1.0805845 2.1105521 3.214469
-1.0622 2.070219 2.6007321
-1.0603294 2.0498245 2.3476932
-0.96448839 1.8621652 1.7733443
-0.92308974 1.7799705 1.3992078
-0.90470314 1.7430419 1.114542
-0.88727355 1.7080181 0.86595953
-0.86759335 1.6687247 0.64277273
-0.85030782 1.6340941 0.4412047
-0.83260405 1.5987246 0.25477138
-1.0178558 1.9744716 2.0596406
-0.94114459 1.8233329 1.5776229
-0.91294056 1.7671916 1.2544659
-0.89505148 1.7303561 0.98804033
-0.87734169 1.6946843 0.75331712
-0.85874641 1.6573638 0.54092294
-0.83860099 1.6178026 0.34636822
-0.82352614 1.5873806 0.16581348
-0.0053167176 0.088418506 8.728941
-0.60014933 1.2399825 8.7577286
-0.78483427 1.5957006 8.5728035
-0.43742141 0.87419397 3.1721995
-1.2342949 2.4463336 6.5147915
-1.1300507 2.2281535 4.6457453
-1.0583767 2.0796623 3.4998198
-1.0599161 2.0773425 2.8687856
-0.18400845 0.48217443 8.76478
-0.37058872 0.87148136 8.7894306
-0.37235326 0.75218117 3.2689323
-0.62081993 1.2398984 3.8250191
-0.74162531 1.471066 3.4701805
-1.0347246 2.0446241 3.8184304
-1.0841209 2.1358068 3.2463892
-1.0595782 2.0829797 2.6117578
-1.0596772 2.0662067 2.3617113
-0.97220612 1.8932208 1.7984519
-0.92643076 1.8017753 1.4129152
-0.90469402 1.7580059 1.1214983
-0.88767415 1.7234693 0.87157869
-0.86835694 1.6845348 0.64700282
-0.85135531 1.6501489 0.44400257
-0.83387285 1.6148958 0.25611261
-1.0245507 2.0046103 2.0862446
-0.94029814 1.8374017 1.5864522
-0.91266167 1.7818781 1.2620655
-0.89521903 1.7455852 0.99433452
-0.87573344 1.7061386 0.75660414
-0.85961896 1.6733217 0.54443991
-0.8374759 1.629529 0.34774956
-0.82255054 1.5991309 0.16621654
-0.0050080465 0.088436522 8.728941
-0.59581727 1.24207 8.7577286
-0.77925944 1.5984304 8.5728035
-0.43436727 0.87571555 3.1721995
-1.2449729 2.4890685 6.6160469
-1.1276449 2.2427835 4.6676908
-1.0637856 2.1084685 3.5411494
-1.062785 2.1010509 2.895648
-0.18232422 0.48281378 8.76478
-0.36754441 0.87276971 8.7894306
-0.36972541 0.75347638 3.2689323
-1.3413266 2.7028754 8.2596836
-0.73648584 1.4736458 3.4701805
-1.0638325 2.1204896 3.9506745
-1.087494 2.1611121 3.2783093
-1.0599328 2.1018007 2.6301334
-1.0605397 2.0857878 2.3792341
-0.97088921 1.907009 1.8078673
-0.92773169 1.8198997 1.4238811
-0.90459138 1.7729909 1.1284548
-0.88797748 1.7389437 0.87719774
-0.86902064 1.7003702 0.65123296
-0.85230106 1.6662307 0.44680041
-0.8350389 1.6310953 0.25745386
-1.0293598 2.0314891 2.1095231
-0.93936491 1.8514867 1.5952818
-0.91229129 1.7965841 1.269665
-0.89529103 1.7608362 1.0006286
-0.8761974 1.7218111 0.76153469
-0.85818458 1.6849746 0.54678452
-0.8385272 1.6456794 0.3498216
-0.82150275 1.6108936 0.1666196
-0.0046993149 0.088453472 8.728941
-0.59147805 1.2441421 8.7577286
-0.77411795 1.6020577 8.5776987
-0.43064946 0.87588674 3.1674278
-1.2397479 2.5004008 6.6344571
-1.1240822 2.2552803 4.6852469
-1.0715233 2.1423707 3.5907447
-1.0669379 2.1276698 2.9263482
-0.18063778 0.48344728 8.76478
-0.36470026 0.87453955 8.7944021
-0.36709303 0.75476229 3.2689323
-1.3318835 2.707541 8.2596836
-0.73133731 1.4762076 3.4701805
-1.0703592 2.1522129 4.0018659
-1.0907035 2.1864662 3.3102293
-1.060169 2.1206498 2.6485093
-1.0612782 2.1053998 2.3967569
-0.9677341 1.9173361 1.8141443
-0.92891729 1.8380548 1.4348469
-0.90639448 1.7919496 1.13773
-0.88608962 1.7503048 0.88094378
-0.8674162 1.7119516 0.65405303
-0.85314476 1.6823391 0.44959828
-0.83384794 1.6428816 0.25834802
-1.0339936 2.0584254 2.1328015
-0.94016093 1.8691986 1.6070545
-0.91182929 1.811309 1.2772646
-0.89526749 1.7761092 1.0069228
-0.8765626 1.7375072 0.76646519
-0.85887003 1.7009767 0.55030149
-0.83724326 1.6574367 0.35120299
-0.82263702 1.6271268 0.16722418
-0.0043892246 0.088512935 8.7339401
-0.58713156 1.2461991 8.7577286
-0.76852101 1.6047502 8.5776987
-0.42758945 0.87738466 3.1674278
-1.1225675 2.2720737 4.7115812
-1.0852867 2.1889586 3.6610048
-1.0680646 2.1486025 2.9493732
-0.17894913 0.48407489 8.76478
-0.36164531 0.87580729 8.7944021
-0.36445618 0.75603914 3.2689323
-0.59797114 1.2261666 3.7640131
-0.7252205 1.4767973 3.4656792
-1.1008922 2.2331321 4.1426415
-1.093749 2.211869 3.3421495
-1.0602865 2.1395259 2.6668851
-1.0618929 2.1250424 2.4142797
-0.96451867 1.9276643 1.8204211
-0.93186027 1.8599788 1.4485543
-0.9060905 1.806982 1.1446863
-0.88621277 1.7658176 0.88656294
-0.86789465 1.7278291 0.65828311
-0.85388625 1.6984732 0.45239612
-0.83482325 1.6591281 0.25968924
-1.0384519 2.0854187 2.15608
-0.94084454 1.886938 1.6188271
-0.91320038 1.8299098 1.2873973
-0.8971768 1.7954631 1.0153151
