# .PCD v0.7 - Point Cloud Data file format
VERSION 0.7
FIELDS x y z
SIZE 4 4 4
TYPE F F F
COUNT 1 1 1
WIDTH 1375
HEIGHT 1
VIEWPOINT 0 0 0 1 0 0 0
POINTS 1375
DATA ascii
-0.95551318 -0.12029707 1.4870737
-0.93037218 -0.1181061 1.1994712
-0.5064736 -0.0096495915 8.6000557
-0.92846084 -0.052532703 8.6303425
-1.2746832 -0.14593104 4.9772491
-1.0513138 -0.12535161 2.9333935
-1.0324106 -0.12598181 2.2143419
-0.99041921 -0.12241638 1.7025272
-0.93555194 -0.11678053 1.3231975
-0.92617452 -0.11641622 1.0902396
-0.92359674 -0.11919707 0.99493837
-0.89083666 -0.1154352 0.80669963
-0.88536876 -0.11518801 0.66997784
-0.87994605 -0.11478735 0.55107355
-0.8833946 -0.11554291 0.44827321
-0.85172027 -0.11169565 0.34243578
-0.85230088 -0.11206923 0.25468066
-0.84406161 -0.11127793 0.16937928
-0.9146167 -0.11673547 0.90236646
-0.88861954 -0.1138815 0.735879
-0.8868413 -0.11396059 0.61103851
-0.86983842 -0.11223166 0.49289995
-0.85757345 -0.11094616 0.39010164
-0.84368867 -0.10944191 0.2959086
-0.8347131 -0.10842073 0.20961356
-0.83698714 -0.1090054 0.12772413
-0.084782518 0.025197685 8.7139416
-1.3426374 -0.13702522 8.579916
-1.4470007 -0.15699393 7.0210166
-1.1060246 -0.12759168 3.6064501
-1.0350664 -0.12302738 2.5151978
-1.0084858 -0.12198079 1.928905
-0.95592725 -0.11696097 1.4870737
-0.9307788 -0.11485778 1.1994712
-0.50650424 -0.0078816107 8.6000557
-0.92863858 -0.049291451 8.6303425
-1.2739354 -0.1413423 4.9724097
-1.0517449 -0.12168108 2.9333935
-1.0328441 -0.12237725 2.2143419
-0.98825103 -0.11864782 1.6982613
-0.93595386 -0.11351414 1.3231975
-0.92321008 -0.11277176 1.0865644
-0.92400724 -0.11597238 0.99493837
-0.89123416 -0.11232489 0.80669963
-0.88576543 -0.11209679 0.66997784
-0.87594676 -0.11115755 0.54875475
-0.88379252 -0.11245859 0.44827321
-0.85210496 -0.10872191 0.34243578
-0.85268688 -0.10909346 0.25468066
-0.84444487 -0.10833094 0.16937928
-0.91501862 -0.11354215 0.90236646
-0.88901162 -0.11077894 0.735879
-0.88723367 -0.11086424 0.61103851
-0.87022489 -0.10919467 0.49289995
-0.85795552 -0.107952 0.39010164
-0.84406555 -0.10649621 0.2959086
-0.83508646 -0.10550637 0.20961356
-0.83736253 -0.10608312 0.12772413
-0.08469405 0.025493477 8.7139416
-1.3438809 -0.13241367 8.5848551
-1.4424766 -0.15141161 6.9965401
-1.0975624 -0.12273648 3.5778182
-1.0354894 -0.11941357 2.5151978
-1.0065267 -0.11818077 1.9245161
-0.95353538 -0.11329173 1.4829408
-0.93117404 -0.11160805 1.1994712
-0.50652868 -0.0061135325 8.6000557
-0.92827249 -0.046023831 8.625371
-1.2719214 -0.13662654 4.9627309
-1.0504484 -0.11781701 2.9287009
-1.033265 -0.11877121 2.2143419
-0.98865914 -0.11519746 1.6982613
-0.93634439 -0.11024635 1.3231975
-0.92359811 -0.10954846 1.0865644
-0.92440641 -0.11274628 0.99493837
-0.89162087 -0.10921323 0.80669963
-0.88615137 -0.10900421 0.66997784
-0.87632948 -0.10809926 0.54875475
-0.88417971 -0.10937289 0.44827321
-0.85247928 -0.10574685 0.34243578
-0.85306251 -0.10611637 0.25468066
-0.83987623 -0.10476621 0.1689322
-0.91540939 -0.11034744 0.90236646
-0.88538009 -0.10718944 0.73293579
-0.88761526 -0.10776654 0.61103851
-0.87060076 -0.10615636 0.49289995
-0.85832709 -0.10495652 0.39010164
-0.84443218 -0.10354923 0.2959086
-0.83053458 -0.10198724 0.20892289
-0.83772773 -0.10315952 0.12772413
-0.084604546 0.025788961 8.7139416
-1.3443348 -0.12772185 8.5848551
-1.4379311 -0.14586277 6.972064
-1.1039203 -0.11954626 3.5969059
-1.0359 -0.11579831 2.5151978
-1.0069332 -0.11466661 1.9245161
-0.95392501 -0.10996258 1.4829408
-0.93155795 -0.10835697 1.1994712
-0.50683558 -0.0043468922 8.6050472
-0.92842752 -0.042783279 8.625371
-1.2686398 -0.13179696 4.9482126
-1.0508533 -0.11414955 2.9287009
-1.0315096 -0.11492293 2.2098405
-0.98905522 -0.1117457 1.6982613
-0.93672353 -0.10697723 1.3231975
-0.92060691 -0.10593653 1.0828893
-0.92479438 -0.10951882 0.99493837
-0.89199662 -0.10610022 0.80669963
-0.88652647 -0.10591029 0.66997784
-0.87230313 -0.10451283 0.54643595
-0.88455611 -0.10628586 0.44827321
-0.84808052 -0.10219668 0.34102574
-0.85342777 -0.10313798 0.25468066
-0.84023678 -0.10183387 0.1689322
-0.91949761 -0.10758509 0.90569204
-0.88574886 -0.10409823 0.73293579
-0.887986 -0.10466753 0.61103851
-0.87096602 -0.10311674 0.49289995
-0.85868824 -0.10195976 0.39010164
-0.84478843 -0.10060098 0.2959086
-0.83088553 -0.099087514 0.20892289
-0.83808273 -0.10023468 0.12772413
-0.084514007 0.026084127 8.7139416
-1.3447725 -0.12302846 8.5848551
-1.4333646 -0.14034756 6.947588
-1.1087847 -0.1161579 3.611222
-1.0343556 -0.11197166 2.5105953
-1.0073273 -0.11115106 1.9245161
-0.95430303 -0.10663209 1.4829408
-0.93193054 -0.10510457 1.1994712
-0.50684768 -0.0025776792 8.6050472
-0.92857116 -0.039542198 8.625371
-1.2640892 -0.12686667 4.9288549
-1.0512453 -0.11048069 2.9287009
-1.0275756 -0.11085516 2.2008381
-0.98943925 -0.10829256 1.6982613
-0.93709123 -0.10370681 1.3231975
-0.9209711 -0.10272238 1.0828893
-0.92162812 -0.10588323 0.9914338
-0.89236152 -0.10298593 0.80669963
-0.88689077 -0.10281509 0.66997784
-0.87266266 -0.1014673 0.54643595
-0.88492173 -0.10319754 0.44827321
-0.84843212 -0.099235706 0.34102574
-0.85866135 -0.10073061 0.2556133
-0.84058714 -0.098900266 0.1689322
-0.91615742 -0.10395405 0.90236646
-0.88610685 -0.10100576 0.73293579
-0.88406307 -0.10107775 0.60850531
-0.87132066 -0.10007589 0.49289995
-0.85903895 -0.098961763 0.39010164
-0.8451345 -0.097651504 0.2959086
-0.83122629 -0.096186571 0.20892289
-0.83346486 -0.096732669 0.1275226
-0.084422439 0.026378976 8.7139416
-1.3459677 -0.11840143 8.5897932
-1.4308045 -0.1350569 6.9329023
-1.1017578 -0.11153645 3.5873621
-1.0347401 -0.10836041 2.5105953
-1.0077091 -0.10763415 1.9245161
-0.95466948 -0.1033003 1.4829408
-0.93229175 -0.10185087 1.1994712
-0.50714231 -0.00080793118 8.6100397
-0.92923629 -0.036320824 8.6303425
-1.2620221 -0.12221157 4.9191761
-1.0516247 -0.10681049 2.9287009
-1.0257913 -0.10704192 2.196337
-0.98721766 -0.1045637 1.6939954
-0.93744755 -0.10043512 1.3231975
-0.92132407 -0.099506959 1.0828893
-0.92199212 -0.10266549 0.9914338
-0.89271563 -0.099870369 0.80669963
-0.88724422 -0.099718645 0.66997784
-0.87301153 -0.098420508 0.54643595
-0.88067001 -0.099587172 0.4464002
-0.84877336 -0.096273519 0.34102574
-0.85900778 -0.0977327 0.2556133
-0.84092724 -0.095965467 0.1689322
-0.91651469 -0.10075542 0.90236646
-0.88645405 -0.097912051 0.73293579
-0.8844105 -0.097991183 0.60850531
-0.8716647 -0.097033791 0.49289995
-0.85937911 -0.095962554 0.39010164
-0.84547019 -0.094700843 0.2959086
-0.83155704 -0.093284473 0.20892289
-0.83379745 -0.09382274 0.1275226
-0.084329851 0.026673507 8.7139416
-1.3463728 -0.1137024 8.5897932
-1.4231548 -0.12932621 6.8937402
-1.0976835 -0.10725528 3.5730462
-1.0351121 -0.10474782 2.5105953
-1.0080787 -0.10411593 1.9245161
-0.95502418 -0.099967249 1.4829408
-0.93264157 -0.098595947 1.1994712
-0.50714201 0.00096233067 8.6100397
-0.92935741 -0.033076968 8.6303425
-1.2461709 -0.11629047 4.8562636
-1.051991 -0.10313898 2.9287009
-1.0218266 -0.10302438 2.1873345
-0.98757666 -0.10111702 1.6939954
-0.93779242 -0.097162202 1.3231975
-0.92166585 -0.096290328 1.0828893
-0.9223448 -0.09944652 0.9914338
-0.89305878 -0.096753612 0.80669963
-0.88758689 -0.096620977 0.66997784
-0.87775332 -0.095853247 0.54875475
-0.88101226 -0.096512459 0.4464002
-0.84910423 -0.093310155 0.34102574
-0.85934371 -0.094733611 0.2556133
-0.8462069 -0.093576841 0.16937928
-0.91686088 -0.097555578 0.90236646
-0.88679039 -0.094817154 0.73293579
-0.88474715 -0.094903417 0.60850531
-0.87199807 -0.093990527 0.49289995
-0.85970885 -0.092962168 0.39010164
-0.84579563 -0.091749027 0.2959086
-0.83187753 -0.09038122 0.20892289
-0.83411992 -0.090911672 0.1275226
-0.08423622 0.02696771 8.7139416
-1.347536 -0.10906444 8.5947323
-1.4195402 -0.12400414 6.8741593
-1.0921066 -0.10286421 3.5539584
-1.0354714 -0.10113398 2.5105953
-1.0108192 -0.1008339 1.928905
-0.95536733 -0.09663298 1.4829408
-0.93298006 -0.09533982 1.1994712
-0.50742424 0.0027351002 8.6150312
-0.9294672 -0.029832702 8.6303425
-1.2478211 -0.11205199 4.8611031
-1.0523447 -0.099466212 2.9287009
-1.0200132 -0.09924636 2.1828332
-0.98532826 -0.09741281 1.6897295
-0.93812585 -0.093888104 1.3231975
-0.92536932 -0.093412764 1.0865644
-0.92268634 -0.096226327 0.9914338
-0.89339107 -0.093635663 0.80669963
-0.88791877 -0.093522131 0.66997784
-0.87808257 -0.092788734 0.54875475
-0.87673366 -0.092947952 0.44452715
-0.84942478 -0.090345666 0.34102574
-0.85966909 -0.091733359 0.2556133
-0.84652841 -0.090622455 0.16937928
-0.9171958 -0.09435454 0.90236646
-0.88711596 -0.091721103 0.73293579
-0.88507307 -0.091814496 0.60850531
-0.87232089 -0.090946108 0.49289995
-0.85533154 -0.089469522 0.38845813
-0.84127665 -0.088288866 0.29473627
-0.83218801 -0.087476879 0.20892289
-0.83443213 -0.087999493 0.1275226
-0.084141575 0.027261585 8.7139416
-1.3486831 -0.10441975 8.5996723
-1.4219939 -0.11921795 6.8839502
-1.0850258 -0.098378859 3.5300984
-1.0358181 -0.097518891 2.5105953
-1.0111649 -0.097304866 1.928905
-0.95569885 -0.093297541 1.4829408
-0.93011737 -0.091768086 1.1956338
-0.5074116 0.0045063244 8.6150312
-0.92956567 -0.026588075 8.6303425
-1.2106346 -0.10446149 4.7159204
-1.0544039 -0.095948331 2.9333935
-1.018186 -0.095482275 2.1783321
-0.98566228 -0.093972787 1.6897295
-0.93544853 -0.09032353 1.3192074
-0.92568976 -0.090182059 1.0865644
-0.92301661 -0.093004964 0.9914338
-0.89371246 -0.090516575 0.80669963
-0.8882398 -0.090422146 0.66997784
-0.8784011 -0.089723088 0.54875475
-0.87244105 -0.089414507 0.44265413
-0.84973496 -0.087380067 0.34102574
-0.8599841 -0.088731997 0.2556133
-0.84683961 -0.087666966 0.16937928
-0.91751951 -0.091152355 0.90236646
-0.88743073 -0.088623926 0.73293579
-0.88538814 -0.088724457 0.60850531
-0.86811739 -0.087445885 0.49080193
-0.85563862 -0.086483307 0.38845813
-0.84157974 -0.08535172 0.29473627
-0.83248824 -0.084571473 0.20892289
-0.83473426 -0.085086249 0.1275226
-0.084045902 0.027555127 8.7139416
-1.3490394 -0.099711329 8.5996723
-1.4305209 -0.11490399 6.9231119
-1.0942851 -0.095366724 3.5587301
-1.0361522 -0.09390261 2.5105953
-1.0138832 -0.093995467 1.9332942
-0.95601863 -0.089960963 1.4829408
-0.93043208 -0.088520817 1.1956338
-0.5071041 0.0062729595 8.6100397
-0.92911988 -0.023330376 8.625371
-1.2247716 -0.1013727 4.7691541
-1.0564517 -0.0924173 2.9380865
-1.0163449 -0.091732144 2.1738307
-0.98598427 -0.090531603 1.6897295
-0.93575817 -0.087057658 1.3192074
-0.92599893 -0.08695025 1.0865644
-0.92333561 -0.089782462 0.9914338
-0.89402294 -0.087396383 0.80669963
-0.88855004 -0.087321065 0.66997784
-0.87870896 -0.086656347 0.54875475
-0.87274784 -0.086368568 0.44265413
-0.85003477 -0.084413409 0.34102574
-0.85540056 -0.085242517 0.25468066
-0.84714043 -0.084710412 0.16937928
-0.91783214 -0.08794906 0.90236646
-0.88773471 -0.085525677 0.73293579
-0.8899833 -0.086048 0.61103851
-0.86841732 -0.084415063 0.49080193
-0.85593534 -0.083496049 0.38845813
-0.84187251 -0.082413532 0.29473627
-0.83277839 -0.081665024 0.20892289
-0.83999807 -0.082661219 0.12772413
-0.083949201 0.027848335 8.7139416
-1.3501544 -0.095056027 8.6046114
-1.4410657 -0.11068744 6.972064
-1.0975865 -0.09179464 3.5682743
-1.0364738 -0.090285197 2.5105953
-1.0165907 -0.090668261 1.9376832
-0.95632684 -0.086623281 1.4829408
-0.93073541 -0.085272454 1.1956338
-0.50707912 0.0080430442 8.6100397
-0.92919564 -0.020087002 8.625371
-1.2414078 -0.098384582 4.8320665
-1.0584874 -0.088873133 2.9427791
-1.0166589 -0.08818388 2.1738307
-0.98369634 -0.086860202 1.6854634
-0.93605632 -0.08379072 1.3192074
-0.92629677 -0.083717376 1.0865644
-0.92009264 -0.086226359 0.98792928
-0.89819777 -0.084640071 0.80983812
-0.88884944 -0.084218904 0.66997784
-0.87900609 -0.083588555 0.54875475
-0.86842895 -0.082881279 0.44078106
-0.85032427 -0.081445716 0.34102574
-0.85569286 -0.082256094 0.25468066
-0.84247398 -0.081274651 0.1689322
-0.91813356 -0.084744692 0.90236646
-0.88802779 -0.082426384 0.73293579
-0.89027822 -0.082940854 0.61103851
-0.87322539 -0.081806369 0.49289995
-0.85622156 -0.080507763 0.38845813
-0.83731592 -0.079017766 0.29356396
-0.83305842 -0.078757592 0.20892289
-0.84028155 -0.079728574 0.12772413
-0.083851486 0.028141202 8.7139416
-1.3504779 -0.090342529 8.6046114
-1.4424587 -0.10573074 6.9769592
-1.1023641 -0.088319592 3.5825901
-1.0367826 -0.086666681 2.5105953
-1.016901 -0.087119147 1.9376832
-0.95381993 -0.083040759 1.4788078
-0.92783451 -0.081742041 1.1917962
-0.50704801 0.009813033 8.6100397
-0.92926013 -0.016843379 8.625371
-1.2417437 -0.094050668 4.8320665
-1.0605114 -0.085315883 2.9474719
-1.0169606 -0.084634542 2.1738307
-0.98399353 -0.083425932 1.6854634
-0.93634313 -0.080522761 1.3192074
-0.92658335 -0.080483489 1.0865644
-0.92038804 -0.083014108 0.98792928
-0.89848775 -0.081504256 0.80983812
-0.88913798 -0.08111573 0.66997784
-0.87929255 -0.080519743 0.54875475
-0.86871296 -0.079849385 0.44078106
-0.85060334 -0.078477032 0.34102574
-0.85597473 -0.079268672 0.25468066
-0.83779407 -0.077872507 0.16848512
-0.91842377 -0.081539288 0.90236646
-0.88831013 -0.079326086 0.73293579
-0.8905623 -0.079832695 0.61103851
-0.87350565 -0.078757741 0.49289995
-0.85649735 -0.0775185 0.38845813
-0.8375867 -0.076094508 0.29356396
-0.83332825 -0.07584919 0.20892289
-0.84055471 -0.07679496 0.12772413
-0.083752744 0.028433727 8.7139416
-1.3507851 -0.085627928 8.6046114
-1.4357088 -0.10020027 6.9426928
-1.1041539 -0.084584817 3.5873621
-1.0351312 -0.082891434 2.5059927
-1.0195858 -0.083764799 1.9420724
-0.95410401 -0.079710804 1.4788078
-0.92811412 -0.078502797 1.1917962
-0.50672203 0.011575343 8.6050472
-0.92984629 -0.013606719 8.6303425
-1.2433181 -0.089805909 4.836906
-1.0642439 -0.081877656 2.9568574
-1.0172498 -0.081084177 2.1738307
-0.98427874 -0.079990655 1.6854634
-0.93661845 -0.077253826 1.3192074
-0.92348021 -0.076967299 1.0828893
-0.92067224 -0.079800852 0.98792928
-0.89876676 -0.078367457 0.80983812
-0.88941574 -0.078011565 0.66997784
-0.87956828 -0.077449948 0.54875475
-0.86898643 -0.076816529 0.44078106
-0.85087216 -0.075507395 0.34102574
-0.85624629 -0.076280281 0.25468066
-0.83806074 -0.074947588 0.16848512
-0.91870278 -0.078332901 0.90236646
-0.88858157 -0.076224819 0.73293579
-0.89083552 -0.076723568 0.61103851
-0.87377524 -0.075708158 0.49289995
-0.86146718 -0.074937396 0.39010164
-0.83784717 -0.073170319 0.29356396
-0.83358794 -0.072939873 0.20892289
-0.83584088 -0.073423244 0.1275226
-0.083652981 0.028725905 8.7139416
-1.3503001 -0.080866076 8.5996723
-1.4360498 -0.095188096 6.9426928
-1.10742 -0.080947183 3.5969059
-1.0354143 -0.07927765 2.5059927
-1.0198721 -0.080205262 1.9420724
-0.9515714 -0.076155655 1.4746748
-0.92838258 -0.075262599 1.1917962
-0.50667858 0.013344062 8.6050472
-0.92988813 -0.010360867 8.6303425
-1.2549101 -0.086238742 4.8804607
-1.0696864 -0.078540511 2.9709356
-1.0175266 -0.077532813 2.1738307
-0.98455197 -0.076554388 1.6854634
-0.93688244 -0.073983945 1.3192074
-0.92374331 -0.073743284 1.0828893
-0.92094523 -0.076586619 0.98792928
-0.89903486 -0.075229697 0.80983812
-0.88968265 -0.074906453 0.66997784
-0.87983322 -0.074379206 0.54875475
-0.86924922 -0.073782727 0.44078106
-0.84635079 -0.072129592 0.3396157
-0.8565073 -0.073290959 0.25468066
-0.83335561 -0.071595512 0.16803804
-0.91897064 -0.075125545 0.90236646
-0.88884228 -0.073122635 0.73293579
-0.89109796 -0.073613502 0.61103851
-0.87403423 -0.07265766 0.49289995
-0.86172354 -0.071929865 0.39010164
-0.84294116 -0.070651129 0.29473627
-0.82890278 -0.069615282 0.20823221
-0.83609211 -0.070505172 0.1275226
-0.083592154 0.029035281 8.7189417
-1.3505743 -0.076152153 8.5996723
-1.4221462 -0.089284658 6.8741593
-1.110674 -0.077287756 3.6064501
-1.0356847 -0.075662896 2.5059927
-1.0201459 -0.076644763 1.9420724
-0.9518314 -0.07283359 1.4746748
-0.92863959 -0.072021477 1.1917962
-0.50662887 0.015112619 8.6050472
-0.93045163 -0.0071183303 8.635314
-1.2577122 -0.082020871 4.8901396
-1.0579036 -0.073965602 2.9380865
-1.017791 -0.07398051 2.1738307
-0.98481315 -0.073117197 1.6854634
-0.93713498 -0.070713162 1.3192074
-0.92399508 -0.070518367 1.0828893
-0.92120689 -0.073371455 0.98792928
-0.89929199 -0.072091021 0.80983812
-0.88993865 -0.071800426 0.66997784
-0.88008755 -0.07130757 0.54875475
-0.87412226 -0.071123868 0.44265413
-0.84659743 -0.069174834 0.3396157
-0.85186213 -0.06989909 0.25374803
-0.8336004 -0.06868612 0.16803804
-0.91922724 -0.071917288 0.90236646
-0.88909209 -0.070019551 0.73293579
-0.88705206 -0.070162818 0.60850531
-0.87428248 -0.069606267 0.49289995
-0.86667645 -0.069297694 0.39174515
-0.84318262 -0.067708284 0.29473627
-0.82914066 -0.066721454 0.20823221
-0.83135337 -0.06718383 0.12732106
-0.08349029 0.029326895 8.7189417
-1.3508317 -0.071437307 8.5996723
-1.4437944 -0.085580565 6.9769592
-1.116895 -0.073802903 3.6255379
-1.0359426 -0.072047219 2.5059927
-1.0180182 -0.072912499 1.9376832
-0.95207983 -0.069510639 1.4746748
-0.92888534 -0.068779483 1.1917962
-0.50657302 0.016880993 8.6050472
-0.93100393 -0.0038719864 8.6402855
-1.2517178 -0.077244267 4.8659425
-1.0547116 -0.070044242 2.9287009
-1.0180432 -0.070427306 2.1738307
-0.98506242 -0.069679111 1.6854634
-0.93737614 -0.067441523 1.3192074
-0.92423558 -0.067292593 1.0828893
-0.92145741 -0.070155397 0.98792928
-0.89565724 -0.068654209 0.80669963
-0.89018387 -0.068693519 0.66997784
-0.87591451 -0.067892894 0.54643595
-0.87436521 -0.068072177 0.44265413
-0.84683371 -0.06621924 0.3396157
-0.85210091 -0.066925108 0.25374803
-0.83383507 -0.065775894 0.16803804
-0.91947275 -0.068708144 0.90236646
-0.8893311 -0.066915609 0.73293579
-0.88729161 -0.067066006 0.60850531
-0.87452012 -0.066554025 0.49289995
-0.86691302 -0.066272005 0.39174515
-0.84341389 -0.064764611 0.29473627
-0.82936853 -0.063826807 0.20823221
-0.83158284 -0.064281449 0.12732106
-0.083387412 0.029618153 8.7189417
-1.3502969 -0.066683494 8.5947323
-1.4573005 -0.081274539 7.0405974
-1.1216153 -0.070182614 3.639854
-1.0342383 -0.068302222 2.5013902
-1.0182666 -0.069358513 1.9376832
-0.9523167 -0.06618683 1.4746748
-0.92911977 -0.065536648 1.1917962
-0.50651103 0.018649159 8.6050472
-0.9310118 -0.00062215276 8.6402855
-1.2469604 -0.07258331 4.8465848
-1.0480605 -0.065929972 2.9099298
-1.0182828 -0.066873245 2.1738307
-0.98269749 -0.066065513 1.6811975
-0.9376058 -0.064169057 1.3192074
-0.92446482 -0.064066 1.0828893
-0.92169666 -0.066938482 0.98792928
-0.89589137 -0.065527365 0.80669963
-0.89041823 -0.065585785 0.66997784
-0.8761462 -0.064834967 0.54643595
-0.87459749 -0.06501966 0.44265413
-0.84705973 -0.063262835 0.3396157
-0.85232937 -0.063950315 0.25374803
-0.8390255 -0.063239127 0.16848512
-0.9159826 -0.065233164 0.899041
-0.88955927 -0.063810855 0.73293579
-0.88752031 -0.063968375 0.60850531
-0.8747471 -0.063500971 0.49289995
-0.8671391 -0.063245513 0.39174515
-0.84363478 -0.061820157 0.29473627
-0.83452505 -0.06129406 0.20892289
-0.82681972 -0.061010659 0.12711954
-0.083283521 0.029909046 8.7189417
-1.3505213 -0.061969675 8.5947323
-1.4768953 -0.077192865 7.1336069
-1.1322843 -0.066881247 3.6732578
-1.0344704 -0.064691633 2.5013902
-1.0161126 -0.065649539 1.9332942
-0.95254195 -0.062862225 1.4746748
-0.92934287 -0.062293015 1.1917962
-0.50644284 0.0204171 8.6050472
-0.93100828 0.0026276887 8.6402855
-1.2346553 -0.067546025 4.7981901
-1.0431162 -0.061965019 2.8958514
-1.01851 -0.063318364 2.1738307
-0.98031932 -0.062469281 1.6769315
-0.93782413 -0.060895808 1.3192074
-0.92468286 -0.060838629 1.0828893
-0.92192471 -0.063720748 0.98792928
-0.89611471 -0.062399719 0.80669963
-0.89064175 -0.062477242 0.66997784
-0.8719483 -0.061464928 0.54411715
-0.8748191 -0.061966348 0.44265413
-0.84727538 -0.060305659 0.3396157
-0.85254735 -0.060974743 0.25374803
-0.83924115 -0.060309995 0.16848512
-0.91620475 -0.062035386 0.899041
-0.88977659 -0.060705326 0.73293579
-0.88773817 -0.060869962 0.60850531
-0.87043571 -0.060134511 0.49080193
-0.86264378 -0.05989131 0.39010164
-0.84384543 -0.058874946 0.29473627
-0.8347339 -0.058380652 0.20892289
-0.82702768 -0.058124151 0.12711954
-0.083138905 0.030181477 8.7139416
-1.3507295 -0.057255097 8.5947323
-1.4791898 -0.072135836 7.1433969
-1.1325108 -0.062928423 3.6732578
-1.0346899 -0.061080266 2.5013902
-1.0139449 -0.061956447 1.928905
-0.95275557 -0.059536852 1.4746748
-0.92955464 -0.059048619 1.1917962
-0.50636852 0.022184789 8.6050472
-0.9309935 0.0058774976 8.6402855
-1.2210748 -0.062531516 4.744957
-1.0450493 -0.058419522 2.9005444
-1.0187248 -0.059762716 2.1738307
-0.97792804 -0.058890454 1.6726656
-0.93803096 -0.057621825 1.3192074
-0.92150587 -0.057399996 1.0792141
-0.92214155 -0.06050225 0.98792928
-0.89632702 -0.059271317 0.80669963
-0.89085436 -0.05936794 0.66997784
-0.87215751 -0.058420889 0.54411715
-0.8750301 -0.058912285 0.44265413
-0.84748071 -0.057347748 0.3396157
-0.85765594 -0.05833168 0.25468066
-0.83944654 -0.057380129 0.16848512
-0.91641569 -0.058836859 0.899041
-0.88998306 -0.057599057 0.73293579
-0.88794523 -0.057770807 0.60850531
-0.8706404 -0.057095762 0.49080193
-0.85813564 -0.056569271 0.38845813
-0.84404582 -0.055929013 0.29473627
-0.83493268 -0.055466533 0.20892289
-0.82722557 -0.055236932 0.12711954
-0.083033048 0.030471502 8.7139416
-1.3516976 -0.052569788 8.5996723
-1.481467 -0.067063734 7.1531878
-1.1193073 -0.058278762 3.6303101
-1.0348969 -0.05746815 2.5013902
-1.014155 -0.058416743 1.928905
-0.95295757 -0.056210753 1.4746748
-0.92655563 -0.055611748 1.1879587
-0.50599962 0.023937605 8.6000557
-0.93096727 0.009127235 8.6402855
-1.2187746 -0.058149491 4.7352781
-1.0521401 -0.05513132 2.9193153
-1.0189272 -0.056206338 2.1738307
-0.97812766 -0.05547649 1.6726656
-0.94123459 -0.054521114 1.3231975
-0.92170066 -0.054182991 1.0792141
-0.92234713 -0.057283003 0.98792928
-0.89652848 -0.056142189 0.80669963
-0.89105624 -0.056257918 0.66997784
-0.87235618 -0.055376131 0.54411715
-0.8706038 -0.055562366 0.44078106
-0.84767574 -0.054389141 0.3396157
-0.85785437 -0.055337545 0.25468066
-0.83964175 -0.054449562 0.16848512
-0.91661549 -0.055637613 0.899041
-0.89017868 -0.054492086 0.73293579
-0.88814145 -0.054670945 0.60850531
-0.87083435 -0.054056309 0.49080193
-0.85832787 -0.053573471 0.38845813
-0.8442359 -0.052982409 0.29473627
-0.83512115 -0.052551731 0.20892289
-0.83239925 -0.052664477 0.12732106
-0.082926176 0.030761156 8.7139416
-1.3518728 -0.047851164 8.5996723
-1.47864 -0.061765186 7.1385016
-1.1195039 -0.054371294 3.6303101
-1.0350912 -0.053855337 2.5013902
-1.0119612 -0.054747224 1.9245161
-0.95314795 -0.052883964 1.4746748
-0.9267441 -0.052377123 1.1879587
-0.50591302 0.025703728 8.6000557
-0.93092972 0.012376862 8.6402855
-1.2076683 -0.053397417 4.6917233
-1.0557734 -0.051626325 2.9287009
-1.0191172 -0.052649274 2.1738307
-0.97571099 -0.051923539 1.6683997
-0.94141918 -0.051235259 1.3231975
-0.92188412 -0.050965324 1.0792141
-0.92254144 -0.054063063 0.98792928
-0.89671898 -0.053012379 0.80669963
-0.8870731 -0.052898493 0.66723639
-0.876966 -0.052595738 0.54643595
-0.87079245 -0.052523054 0.44078106
-0.84786046 -0.051429868 0.3396157
-0.8580423 -0.052342735 0.25468066
-0.83982664 -0.051518336 0.16848512
-0.91680413 -0.052437689 0.899041
-0.88632816 -0.051151775 0.72999263
-0.88832688 -0.051570419 0.60850531
-0.87101775 -0.0510162 0.49080193
-0.85850966 -0.050577022 0.38845813
-0.84441572 -0.050035149 0.29473627
-0.83529949 -0.049636297 0.20892289
-0.83257806 -0.049758542 0.12732106
-0.082818292 0.031050432 8.7139416
-1.3528082 -0.043156497 8.6046114
-1.4717243 -0.056332268 7.1042352
-1.1047748 -0.049793843 3.5825901
-1.0352728 -0.050241865 2.5013902
-1.0097542 -0.051093731 1.9201269
-0.95332676 -0.049556535 1.4746748
-0.92692125 -0.049141865 1.1879587
-0.50582021 0.027469538 8.6000557
-0.93088084 0.015626337 8.6402855
-1.2103592 -0.049283307 4.7014017
-1.0662906 -0.048408553 2.9568574
-1.0192947 -0.04909157 2.1738307
-0.97328144 -0.048388135 1.6641337
-0.94159228 -0.047948781 1.3231975
-0.92205644 -0.047747038 1.0792141
-0.92272455 -0.05084246 0.98792928
-0.89689857 -0.049881924 0.80669963
-0.88725239 -0.049801707 0.66723639
-0.87714428 -0.049534235 0.54643595
-0.87097049 -0.049483098 0.44078106
-0.8480348 -0.048469972 0.3396157
-0.8582198 -0.049347293 0.25468066
-0.84000134 -0.04858648 0.16848512
-0.91698158 -0.049237128 0.899041
-0.88650131 -0.048057597 0.72999263
-0.88850152 -0.048469264 0.60850531
-0.87119049 -0.047975473 0.49080193
-0.853966 -0.047318824 0.38681462
-0.84458518 -0.047087286 0.29473627
-0.8354677 -0.046720255 0.20892289
-0.8377347 -0.047132619 0.1275226
-0.082709402 0.031339332 8.7139416
-1.3529506 -0.038434055 8.6046114
-1.4668239 -0.051018752 7.0797591
-1.0930104 -0.045443334 3.5444143
-1.0354419 -0.046627786 2.5013902
-1.0075341 -0.047456324 1.9157379
-0.95349395 -0.046228502 1.4746748
-0.92708719 -0.045906007 1.1879587
-0.5060094 0.029252635 8.6050472
-0.93028766 0.018864179 8.635314
-1.2331338 -0.045895036 4.7885118
-1.0647289 -0.044614248 2.9521646
-1.0172852 -0.04543642 2.1693296
-0.97344446 -0.04499045 1.6641337
-0.94175392 -0.044661719 1.3231975
-0.92221743 -0.044528171 1.0792141
-0.91933483 -0.047437705 0.98442477
-0.89706725 -0.046750862 0.80669963
-0.88742083 -0.046704315 0.66723639
-0.87731183 -0.046472128 0.54643595
-0.87113792 -0.046442542 0.44078106
-0.84819883 -0.045509484 0.3396157
-0.85838681 -0.046351247 0.25468066
-0.84016585 -0.045654032 0.16848512
-0.91714782 -0.046035964 0.899041
-0.88666368 -0.044962838 0.72999263
-0.88866532 -0.04536752 0.60850531
-0.87588513 -0.045167726 0.49289995
-0.85412598 -0.044337638 0.38681462
-0.84474438 -0.044138845 0.29473627
-0.83562565 -0.043803643 0.20892289
-0.83789414 -0.044208091 0.1275226
-0.082638882 0.031646647 8.7189417
-1.3530765 -0.033711139 8.6046114
-1.4629222 -0.045771759 7.0601783
-1.0857043 -0.041345134 3.5205543
-1.0355984 -0.043013133 2.5013902
-1.0053009 -0.043835029 1.9113487
-0.95364952 -0.042899907 1.4746748
-0.92724174 -0.042669587 1.1879587
-0.5059042 0.03101876 8.6050472
-0.93021613 0.022111375 8.635314
-1.2521304 -0.042222027 4.8611031
-1.059705 -0.040699549 2.9380865
-1.0174376 -0.041885156 2.1693296
-0.97359556 -0.041592225 1.6641337
-0.94190407 -0.041374113 1.3231975
-0.92575413 -0.041460186 1.0828893
-0.91949481 -0.044228338 0.98442477
-0.8972249 -0.043619227 0.80669963
-0.88757843 -0.043606352 0.66723639
-0.87746871 -0.043409456 0.54643595
-0.87129474 -0.04340142 0.44078106
-0.84835249 -0.042548437 0.3396157
-0.85854334 -0.043354634 0.25468066
-0.84032011 -0.042721029 0.16848512
-0.91730297 -0.042834237 0.899041
-0.88681519 -0.041867532 0.72999263
-0.8888182 -0.042265225 0.60850531
-0.87603748 -0.042110041 0.49289995
-0.85427552 -0.041355912 0.38681462
-0.84003848 -0.040953275 0.29356396
-0.83577347 -0.040886499 0.20892289
-0.83804333 -0.041283026 0.1275226
-0.082527913 0.031934917 8.7189417
-1.353186 -0.028987816 8.6046114
-1.4528949 -0.040384185 7.0112262
-1.0813664 -0.037401125 3.5062382
-1.0357422 -0.039397959 2.5013902
-1.0054477 -0.040325608 1.9113487
-0.95379347 -0.039570786 1.4746748
-0.92738503 -0.039432649 1.1879587
-0.50608087 0.032804143 8.6100397
-0.93013328 0.025358301 8.635314
-1.2572957 -0.038001925 4.8804607
-1.0546666 -0.036820468 2.9240079
-1.0175775 -0.038333379 2.1693296
-0.97634089 -0.038295425 1.6683997
-0.94204277 -0.038086005 1.3231975
-0.92589325 -0.038228448 1.0828893
-0.91964364 -0.041018434 0.98442477
-0.8934834 -0.040311851 0.80356121
-0.88772523 -0.04050786 0.66723639
-0.87761486 -0.040346254 0.54643595
-0.87144089 -0.040359769 0.44078106
-0.8484959 -0.039586876 0.3396157
-0.85378265 -0.04012695 0.25374803
-0.84046412 -0.039787505 0.16848512
-0.91744691 -0.039631993 0.899041
-0.88695598 -0.038771715 0.72999263
-0.88896036 -0.039162409 0.60850531
-0.8761791 -0.039051846 0.49289995
-0.85913211 -0.038585428 0.38845813
-0.84017634 -0.038020741 0.29356396
-0.83591115 -0.037968855 0.20892289
-0.83319163 -0.038129084 0.12732106
-0.082415938 0.0322228 8.7189417
-1.3532789 -0.024264138 8.6046114
-1.4530271 -0.035312388 7.0112262
-1.0829824 -0.033672333 3.5110104
-1.0339209 -0.035715144 2.4967875
-1.0055823 -0.036815699 1.9113487
-0.95392579 -0.036241185 1.4746748
-0.93071985 -0.036319952 1.1917962
-0.50625122 0.034591135 8.6150312
-0.93003911 0.028604915 8.635314
-1.2637035 -0.033779629 4.9046578
-1.042715 -0.032761447 2.8911588
-1.0177052 -0.034781136 2.1693296
-0.97646862 -0.034887128 1.6683997
-0.94216996 -0.034797426 1.3231975
-0.92602104 -0.034996245 1.0828893
-0.91978121 -0.037808031 0.98442477
-0.89361864 -0.037192769 0.80356121
-0.88786125 -0.037408877 0.66723639
-0.87775034 -0.03728256 0.54643595
-0.86694479 -0.037119452 0.43890804
-0.84862888 -0.03662483 0.3396157
-0.85391748 -0.037146449 0.25374803
-0.84059787 -0.036853496 0.16848512
-0.91757965 -0.036429264 0.899041
-0.88708586 -0.035675425 0.72999263
-0.88909167 -0.036059123 0.60850531
-0.87631005 -0.035993174 0.49289995
-0.85926157 -0.03558626 0.38845813
-0.8403039 -0.035087749 0.29356396
-0.83603853 -0.03505075 0.20892289
-0.8333196 -0.035220474 0.12732106
-0.082302958 0.032510288 8.7189417
-1.3533553 -0.019540166 8.6046114
-1.4551773 -0.030282099 7.0210166
-1.078617 -0.029769121 3.4966943
-1.0320865 -0.032045525 2.4921851
-1.0057048 -0.033305336 1.9113487
-0.95123404 -0.032814406 1.470542
-0.93084097 -0.033070914 1.1917962
-0.50612736 0.036358073 8.6150312
-0.92993361 0.031851184 8.635314
-1.2600437 -0.029281404 4.8901396
-1.0548979 -0.029456668 2.9240079
-1.0199963 -0.031294949 2.1738307
-0.97919106 -0.031562142 1.6726656
-0.94228572 -0.031508427 1.3231975
-0.92613757 -0.031763617 1.0828893
-0.91990757 -0.034597162 0.98442477
-0.89374304 -0.034073226 0.80356121
-0.88798636 -0.034309436 0.66723639
-0.87787515 -0.034218412 0.54643595
-0.86706907 -0.034093026 0.43890804
-0.84875154 -0.033662342 0.3396157
-0.85404193 -0.034165494 0.25374803
-0.84072137 -0.033919036 0.16848512
-0.91770124 -0.033226091 0.899041
-0.887205 -0.032578699 0.72999263
-0.88490421 -0.032795925 0.60597211
-0.87643039 -0.032934058 0.49289995
-0.8593806 -0.03258666 0.38845813
-0.84042126 -0.032154325 0.29356396
-0.84110421 -0.032322314 0.20961356
-0.8334375 -0.032311428 0.12732106
-0.082188971 0.032797381 8.7189417
-1.3534153 -0.014815956 8.6046114
-1.4552742 -0.025202397 7.0210166
-1.0936371 -0.02636075 3.5444143
-1.0458624 -0.028817361 2.5244026
-1.0058149 -0.029794566 1.9113487
-0.95134282 -0.029493781 1.470542
-0.9309507 -0.029821469 1.1917962
-0.50628525 0.038147215 8.6200228
-0.92981672 0.035097063 8.635314
-1.2601383 -0.024882853 4.8901396
-1.049819 -0.025648626 2.9099298
-1.0200993 -0.027734308 2.1738307
-0.9819023 -0.028218577 1.6769315
-0.93937808 -0.028129129 1.3192074
-0.92624277 -0.028530598 1.0828893
-0.92002273 -0.031385876 0.98442477
-0.89385653 -0.030953277 0.80356121
-0.88810074 -0.031209575 0.66723639
-0.87798929 -0.031153848 0.54643595
-0.86718279 -0.031066183 0.43890804
-0.84406996 -0.030526169 0.33820567
-0.859065 -0.031363271 0.25468066
-0.84083468 -0.030984161 0.16848512
-0.91781163 -0.030022515 0.899041
-0.88731331 -0.029481577 0.72999263
-0.88501328 -0.029706834 0.60597211
-0.87654001 -0.029874546 0.49289995
-0.85948908 -0.029586663 0.38845813
-0.84052843 -0.029220514 0.29356396
-0.84121192 -0.029386114 0.20961356
-0.83354521 -0.029401992 0.12732106
-0.082073994 0.033084076 8.7189417
-1.3534588 -0.010091565 8.6046114
-1.4553533 -0.020122388 7.0210166
-1.1071539 -0.022817399 3.5873621
-1.051816 -0.025306573 2.5382104
-1.0059128 -0.026283437 1.9113487
-0.95143998 -0.026172794 1.470542
-0.93104917 -0.026571663 1.1917962
-0.50614899 0.039914247 8.6200228
-0.93022114 0.038365122 8.6402855
-1.2463925 -0.020261994 4.836906
-1.0499021 -0.021983918 2.9099298
-1.0201899 -0.024173329 2.1738307
-0.98460209 -0.024856467 1.6811975
-0.93947053 -0.024849916 1.3192074
-0.92633677 -0.025297234 1.0828893
-0.92012668 -0.028174207 0.98442477
-0.89395911 -0.027832946 0.80356121
-0.88820428 -0.028109336 0.66723639
-0.87809265 -0.028088903 0.54643595
-0.86265242 -0.027889296 0.43703499
-0.8441714 -0.027579628 0.33820567
-0.85916924 -0.028364385 0.25468066
-0.84093773 -0.028048914 0.16848512
-0.91791081 -0.02681857 0.899041
-0.88741088 -0.026384097 0.72999263
-0.88511163 -0.02661738 0.60597211
-0.87210262 -0.02667607 0.49080193
-0.85958713 -0.026586307 0.38845813
-0.84062529 -0.026286345 0.29356396
-0.84130931 -0.026449557 0.20961356
-0.83364278 -0.026492197 0.12732106
-0.081958003 0.033370364 8.7189417
-1.3534857 -0.0053670499 8.6046114
-1.4554147 -0.015042135 7.0210166
-1.1072268 -0.018952571 3.5873621
-1.0616641 -0.021834355 2.5612228
-1.0059984 -0.022771986 1.9113487
-0.95152551 -0.022851489 1.470542
-0.93113625 -0.023321534 1.1917962
-0.50571889 0.041656137 8.6150312
-0.93061393 0.041636415 8.645256
-1.2502263 -0.015958535 4.8514242
-1.0603249 -0.018497838 2.9380865
-1.0202681 -0.020612054 2.1738307
-0.98989767 -0.02153229 1.6897295
-0.93955153 -0.021570399 1.3192074
-0.92641944 -0.022063561 1.0828893
-0.92021942 -0.024962194 0.98442477
-0.89405084 -0.024712278 0.80356121
-0.88829702 -0.025008753 0.66723639
-0.87818533 -0.025023617 0.54643595
-0.86274457 -0.02487791 0.43703499
-0.84426254 -0.02463275 0.33820567
-0.859263 -0.02536515 0.25468066
-0.84103054 -0.025113322 0.16848512
-0.91799879 -0.0236143 0.899041
-0.88749754 -0.023286292 0.72999263
-0.88519913 -0.023527602 0.60597211
-0.87219042 -0.023631701 0.49080193
-0.85967469 -0.023585627 0.38845813
-0.84557068 -0.023486724 0.29473627
-0.83644646 -0.02337441 0.20892289
-0.83373016 -0.023582079 0.12732106
-0.081841022 0.033656247 8.7189417
-1.3534963 -0.00064247067 8.6046114
-1.4534221 -0.0099481922 7.0112262
-1.1057937 -0.015067454 3.5825901
-1.061734 -0.018128321 2.5612228
-1.0060717 -0.019260257 1.9113487
-0.95159948 -0.019529907 1.470542
-0.93121195 -0.020071119 1.1917962
-0.50557041 0.043421168 8.6150312
-0.9309954 0.044910934 8.6502275
-1.2150807 -0.011274913 4.7159204
-1.0655594 -0.014867879 2.9521646
-1.0203338 -0.017050527 2.1738307
-0.99257433 -0.018124109 1.6939954
-0.93962109 -0.018290622 1.3192074
-0.92649078 -0.01882962 1.0828893
-0.92030096 -0.021749876 0.98442477
-0.89413166 -0.021591308 0.80356121
-0.88837886 -0.021907866 0.66723639
-0.87826735 -0.021958025 0.54643595
-0.86746061 -0.021983527 0.43890804
-0.8443433 -0.021685576 0.33820567
-0.85934633 -0.022365609 0.25468066
-0.84111303 -0.022177426 0.16848512
-0.91807568 -0.020409744 0.899041
-0.88757342 -0.020188209 0.72999263
-0.88958555 -0.020536842 0.60850531
-0.87226754 -0.020587044 0.49080193
-0.85975176 -0.020584656 0.38845813
-0.84564751 -0.020534987 0.29473627
-0.836523 -0.020454526 0.20892289
-0.83380741 -0.020671675 0.12732106
-0.081723042 0.03394172 8.7189417
-1.3542672 0.0040846933 8.6095505
-1.4585388 -0.0048907357 7.0357018
-1.0998691 -0.011148022 3.5635023
-1.0696048 -0.014527089 2.5796332
-1.0061328 -0.015748294 1.9113487
-0.95447552 -0.016255723 1.4746748
-0.93127638 -0.016820461 1.1917962
-0.50541574 0.045185674 8.6150312
-0.93083292 0.048160441 8.6502275
-1.2264252 -0.007096603 4.7594748
-1.0742327 -0.011237142 2.9756284
-1.0203872 -0.013488794 2.1738307
-0.99263155 -0.014659267 1.6939954
-0.93967921 -0.01501062 1.3192074
-0.92655087 -0.015595449 1.0828893
-0.92037129 -0.018537294 0.98442477
-0.89420158 -0.018470075 0.80356121
-0.88844991 -0.018806709 0.66723639
-0.87833863 -0.018892165 0.54643595
-0.86753201 -0.018955393 0.43890804
-0.84441394 -0.018738136 0.33820567
-0.85941917 -0.019365793 0.25468066
-0.84118533 -0.019241257 0.16848512
-0.91814131 -0.017204937 0.899041
-0.88763845 -0.017089875 0.72999263
-0.88965183 -0.017431485 0.60850531
-0.87233412 -0.017542137 0.49080193
-0.8598184 -0.017583439 0.38845813
-0.84571403 -0.017583001 0.29473627
-0.83658922 -0.017534392 0.20892289
-0.83387452 -0.017761016 0.12732106
-0.081604064 0.034226783 8.7189417
-1.3542447 0.0088119432 8.6095505
-1.4605834 0.0002012554 7.0454926
-1.096916 -0.0072894166 3.5539584
-1.0579275 -0.010676769 2.5520179
-1.0061816 -0.01223614 1.9113487
-0.95452648 -0.012923884 1.4746748
-0.93132943 -0.013569597 1.1917962
-0.50496763 0.046921957 8.6100397
-0.93119138 0.051439393 8.6551991
-1.2553527 -0.002876089 4.8707819
-1.0759912 -0.0074990476 2.9803214
-1.0204279 -0.0099268956 2.1738307
-0.99528456 -0.011223379 1.6982613
-0.93972588 -0.011730437 1.3192074
-0.92659962 -0.012361088 1.0828893
-0.92043036 -0.015324485 0.98442477
-0.89426059 -0.015348616 0.80356121
-0.88432938 -0.015631622 0.66449493
-0.87839925 -0.015826078 0.54643595
-0.87222809 -0.016011978 0.44078106
-0.84447414 -0.015790466 0.33820567
-0.85948151 -0.016365742 0.25468066
-0.84622633 -0.016401326 0.1689322
-0.91819578 -0.013999921 0.899041
-0.88769269 -0.013991334 0.72999263
-0.88970721 -0.014325913 0.60850531
-0.87239003 -0.014497016 0.49080193
-0.85987455 -0.014582004 0.38845813
-0.8457703 -0.014630802 0.29473627
-0.83169407 -0.014527617 0.20823221
-0.83393139 -0.014850143 0.12732106
-0.081484094 0.034511425 8.7189417
-1.3542057 0.013539086 8.6095505
-1.4656649 0.0053191897 7.0699687
-1.0939493 -0.003451563 3.5444143
-1.054051 -0.0069586146 2.5428128
-1.0062182 -0.0087238355 1.9113487
-0.95456576 -0.0095918858 1.4746748
-0.93137109 -0.010318568 1.1917962
-0.50480074 0.048684336 8.6100397
-0.93100613 0.054689545 8.6551991
-1.2528412 0.0015024173 4.8611031
-1.0777364 -0.0037488139 2.985014
-1.0204564 -0.0063648778 2.1738307
-0.9927097 -0.0077290908 1.6939954
-0.9397611 -0.0084501104 1.3192074
-0.92663717 -0.0091265766 1.0828893
-0.91691232 -0.012064809 0.9809202
-0.89430869 -0.01222697 0.80356121
-0.88437855 -0.012544641 0.66449493
-0.87844914 -0.012759795 0.54643595
-0.87227863 -0.012967235 0.44078106
-0.84452415 -0.012842606 0.33820567
-0.85462177 -0.013289191 0.25374803
-0.84627843 -0.013447345 0.1689322
-0.91823906 -0.010794734 0.899041
-0.88369447 -0.010843243 0.72704947
-0.88975179 -0.011220168 0.60850531
-0.87243533 -0.011451717 0.49080193
-0.8599202 -0.011580394 0.38845813
-0.84095597 -0.011611407 0.29356396
-0.83173972 -0.011624374 0.20823221
-0.83397818 -0.01193909 0.12732106
-0.081363127 0.034795646 8.7189417
-1.3541502 0.018266063 8.6095505
-1.4676737 0.010450209 7.0797591
-1.0939547 0.00036705358 3.5444143
-1.048208 -0.0032618577 2.5290053
-1.0062426 -0.0052114259 1.9113487
-0.95459342 -0.0062597711 1.4746748
-0.93140149 -0.007067414 1.1917962
-0.5046277 0.050446127 8.6100397
-0.93080956 0.05793903 8.6551991
-1.2653978 0.0059370655 4.9094973
-1.0708402 1.2006619e-05 2.966243
-1.0182955 -0.0027970823 2.1693296
-0.99273068 -0.0042638402 1.6939954
-0.93978482 -0.0051696808 1.3192074
-0.9266634 -0.0058919536 1.0828893
-0.9169488 -0.008864115 0.9809202
-0.89434594 -0.0091051748 0.80356121
-0.884417 -0.0094575072 0.66449493
-0.88291782 -0.0097420644 0.54875475
-0.87231857 -0.0099223359 0.44078106
-0.84456384 -0.009894588 0.33820567
-0.85466295 -0.010305923 0.25374803
-0.84632021 -0.010493201 0.1689322
-0.91453755 -0.0075587882 0.89571548
-0.88372695 -0.007758507 0.72704947
-0.88978559 -0.0081142867 0.60850531
-0.87246996 -0.0084062805 0.49080193
-0.85995537 -0.0085786413 0.38845813
-0.84099138 -0.0086758519 0.29356396
-0.83177519 -0.0087209903 0.20823221
-0.83401477 -0.0090278899 0.12732106
-0.081241176 0.035079446 8.7189417
-1.3540783 0.022992818 8.6095505
-1.4635557 0.015529212 7.0601783
-1.0954394 0.004191658 3.5491862
-1.0443057 0.00039504521 2.5198004
-1.0062547 -0.0016989519 1.9113487
-0.95460945 -0.0029275804 1.4746748
-0.93142045 -0.0038161729 1.1917962
-0.50444859 0.052207299 8.6100397
-0.93060166 0.061187807 8.6551991
-1.2653694 0.010354092 4.9094973
-1.0691079 0.0037436115 2.96155
-1.0182991 0.00075744966 2.1693296
-0.9901315 -0.00079671654 1.6897295
-0.93979716 -0.0018891876 1.3192074
-0.9266783 -0.0026572591 1.0828893
-0.91697419 -0.0056633125 0.9809202
-0.89437228 -0.0059832698 0.80356121
-0.88444459 -0.0063702581 0.66449493
-0.88294649 -0.0066600475 0.54875475
-0.87234795 -0.0068773157 0.44078106
-0.84459323 -0.0069464501 0.33820567
-0.85469371 -0.0073225303 0.25374803
-0.84137195 -0.007494601 0.16848512
-0.91455835 -0.00436641 0.89571548
-0.88374865 -0.0046736775 0.72704947
-0.88980848 -0.0050083054 0.60850531
-0.87249404 -0.0053607412 0.49080193
-0.85525799 -0.00554629 0.38681462
-0.84101653 -0.0057401909 0.29356396
-0.83675253 -0.005852072 0.20892289
-0.83404118 -0.0061165802 0.12732106
-0.081118226 0.035362817 8.7189417
-1.3539897 0.027719293 8.6095505
-1.4685831 0.020710738 7.0846543
-1.0969108 0.0080266315 3.5539584
-1.0482053 0.0040560346 2.5290053
-1.0038595 0.0018089447 1.9069598
-0.95461386 0.0004046461 1.4746748
-0.93142807 -0.00056488579 1.1917962
-0.50455022 0.053999513 8.6150312
-0.9298507 0.064398386 8.6502275
-1.2703531 0.014830663 4.9288549
-1.0639116 0.0074384273 2.9474719
-1.0182903 0.0043119718 2.1693296
-0.98752022 0.0026522093 1.6854634
-0.93979806 0.0013913282 1.3192074
-0.92668194 0.00057746778 1.0828893
-0.91698837 -0.0024624406 0.9809202
-0.89438772 -0.0028612914 0.80356121
-0.88864279 -0.003298257 0.66723639
-0.88296431 -0.0035779483 0.54875475
-0.87236661 -0.0038322117 0.44078106
-0.84461236 -0.0039982265 0.33820567
-0.85471404 -0.0043390482 0.25374803
-0.84139299 -0.0045576198 0.16848512
-0.91456801 -0.0011739794 0.89571548
-0.88375956 -0.0015887907 0.72704947
-0.88550967 -0.001893235 0.60597211
-0.87250745 -0.0023151361 0.49080193
-0.85055 -0.0025468376 0.38517112
-0.83617085 -0.0027883416 0.29239166
-0.83676785 -0.0029312249 0.20892289
-0.83405745 -0.0032051958 0.12732106
-0.081032708 0.035666447 8.7239418
-1.3538847 0.032445431 8.6095505
-1.4532313 0.025565045 7.0112262
-1.0983686 0.011871927 3.5587301
-1.0501382 0.0077295899 2.5336077
-1.003847 0.005313057 1.9069598
-0.95460665 0.0037368678 1.4746748
-0.93142438 0.0026864083 1.1917962
-0.50464547 0.055793073 8.6200228
-0.92962021 0.067643769 8.6502275
-1.2728072 0.019303542 4.9385343
-1.0638791 0.011152127 2.9474719
-1.0160921 0.0078493441 2.1648283
-0.9875049 0.0060992818 1.6854634
-0.93978745 0.004671827 1.3192074
-0.92667425 0.0038121876 1.0828893
-0.91699141 0.00073846104 0.9809202
-0.89439225 0.00026072169 0.80356121
-0.88864893 -0.00019629476 0.66723639
-0.88297147 -0.00049580605 0.54875475
-0.87237465 -0.00078706065 0.44078106
-0.84462112 -0.0010499553 0.33820567
-0.85472399 -0.0013555128 0.25374803
-0.84140378 -0.0016205821 0.16848512
-0.91456652 0.0020184659 0.89571548
-0.88375974 0.0014961156 0.72704947
-0.88551092 0.001197782 0.60597211
-0.87251019 0.0007304973 0.49080193
-0.85055375 0.00042215135 0.38517112
-0.8361755 0.00013045622 0.29239166
-0.83677298 -1.0342236e-05 0.20892289
-0.82906765 -0.0002920283 0.12711954
-0.080907717 0.035949085 8.7239418
-1.3545399 0.037192732 8.6144905
-1.4622948 0.030832721 7.0552826
-1.1013057 0.015749125 3.5682743
-1.0501049 0.011395209 2.5336077
-1.0038223 0.0088171056 1.9069598
-0.95458782 0.0070690438 1.4746748
-0.9314093 0.0059376699 1.1917962
-0.50444764 0.057554279 8.6200228
-0.9288469 0.070847161 8.645256
-1.2677051 0.023651581 4.9191761
-1.0465788 0.014621737 2.9005444
-1.0269425 0.011519601 2.1873345
-0.9874776 0.0095462799 1.6854634
-0.93976539 0.0079522692 1.3192074
-0.92665529 0.0070468611 1.0828893
-0.91698319 0.0039393534 0.9809202
-0.89438587 0.0033827317 0.80356121
-0.88864422 0.0029056701 0.66723639
-0.88296777 0.0025863424 0.54875475
-0.87237209 0.0022580998 0.44078106
-0.84461969 0.0018983291 0.33820567
-0.85472351 0.0016280389 0.25374803
-0.84140432 0.0013164751 0.16848512
-0.91455394 0.0052108862 0.89571548
-0.88779104 0.0046021668 0.72999263
-0.88550138 0.0042887847 0.60597211
-0.87250233 0.0037761214 0.49080193
-0.85054708 0.0033911353 0.38517112
-0.83616996 0.0030492526 0.29239166
-0.83676797 0.0029105407 0.20892289
-0.82906359 0.0026019595 0.12711954
-0.080781735 0.036231287 8.7239418
-1.3512952 0.041823648 8.5947323
-1.4774468 0.036315378 7.1287117
-1.0952741 0.019485971 3.5491862
-1.0520122 0.015088991 2.5382104
-1.0037855 0.012321045 1.9069598
-0.9545573 0.010401133 1.4746748
-0.93138295 0.0091888588 1.1917962
-0.50424367 0.059314776 8.6200228
-0.92859399 0.074089013 8.645256
-1.2638448 0.027992321 4.9046578
-1.0361688 0.018092383 2.8723876
-1.0334262 0.01520111 2.2008381
-0.98743826 0.012993162 1.6854634
-0.93973196 0.011232615 1.3192074
-0.92662501 0.010281448 1.0828893
-0.91696388 0.0071401983 0.9809202
-0.89436865 0.0065047005 0.80356121
-0.8886286 0.0060075996 0.66723639
-0.88295335 0.0056684595 0.54875475
-0.87235892 0.0053032329 0.44078106
-0.84460789 0.0048465901 0.33820567
-0.85471261 0.0046115709 0.25374803
-0.8413946 0.004253516 0.16848512
-0.91453016 0.0084032435 0.89571548
-0.88776958 0.0077011082 0.72999263
-0.88548094 0.0073797354 0.60597211
-0.87248385 0.0068216999 0.49080193
-0.85053009 0.0063600778 0.38517112
-0.83615422 0.0059680115 0.29239166
-0.8318007 0.0057968167 0.20823221
-0.82904947 0.0054959152 0.12711954
-0.080616578 0.036491957 8.7189417
-1.3488116 0.046459354 8.579916
-1.4946136 0.041961759 7.2119303
-1.0892299 0.023180904 3.5300984
-1.0519531 0.018761106 2.5382104
-1.0037364 0.015824836 1.9069598
-0.95451516 0.013733097 1.4746748
-0.93134516 0.012439935 1.1917962
-0.50432003 0.061110239 8.6250143
-0.92832971 0.077329963 8.645256
-1.2612264 0.032338861 4.894979
-1.0222971 0.021417649 2.8348453
-1.0442495 0.019007808 2.2233443
-0.98738688 0.016439885 1.6854634
-0.93968701 0.014512822 1.3192074
-0.92658353 0.013515911 1.0828893
-0.91693336 0.010340956 0.9809202
-0.89434052 0.0096265897 0.80356121
-0.88860232 0.0091094561 0.66723639
-0.88292819 0.0087505067 0.54875475
-0.87233508 0.008348302 0.44078106
-0.84458584 0.0077947923 0.33820567
-0.85469133 0.0075950469 0.25374803
-0.84137458 0.007190505 0.16848512
-0.91822869 0.011643068 0.899041
-0.88773727 0.010799955 0.72999263
-0.88544983 0.010470595 0.60597211
-0.87699288 0.0099186813 0.49289995
-0.85522455 0.009380864 0.38681462
-0.83612829 0.0088866986 0.29239166
-0.83177543 0.0087003075 0.20823221
-0.82902521 0.0083898045 0.12711954
-0.080488712 0.036773138 8.7189417
-1.3447589 0.051018838 8.5552187
-1.4975111 0.047275692 7.2266159
-1.0831735 0.026833879 3.5110104
-1.0499279 0.022391057 2.5336077
-1.0060695 0.019374829 1.9113487
-0.9544614 0.017064892 1.4746748
-0.93129611 0.015690861 1.1917962
-0.50410366 0.062870272 8.6250143
-0.92858517 0.080616698 8.6502275
-1.2573364 0.036630612 4.8804607
-1.0084149 0.024646295 2.7973032
-1.055059 0.022890249 2.2458501
-0.98732352 0.019886408 1.6854634
-0.93963063 0.017792854 1.3192074
-0.92653066 0.016750209 1.0828893
-0.92045754 0.013594492 0.98442477
-0.89430147 0.012748362 0.80356121
-0.88856506 0.012211201 0.66723639
-0.88289231 0.011832449 0.54875475
-0.87230062 0.011393269 0.44078106
-0.84455347 0.010742899 0.33820567
-0.85465962 0.010578429 0.25374803
-0.84134436 0.010127407 0.16848512
-0.91818249 0.014848214 0.899041
-0.88769418 0.013898671 0.72999263
-0.88971823 0.013627535 0.60850531
-0.87695289 0.012979898 0.49289995
-0.85518658 0.012366097 0.38681462
-0.83609217 0.011805276 0.29239166
-0.83174002 0.011603693 0.20823221
-0.82899088 0.011283591 0.12711954
-0.080359854 0.037053872 8.7189417
-1.34302 0.055647805 8.5453396
-1.4963193 0.052466799 7.2217207
-1.0785968 0.030487318 3.4966943
-1.0498434 0.026055852 2.5336077
-1.0059958 0.022886548 1.9113487
-0.95439601 0.020396482 1.4746748
-0.93123561 0.018941594 1.1917962
-0.5038811 0.06462954 8.6250143
-0.92829806 0.083857581 8.6502275
-1.2559447 0.040978078 4.8756213
-0.99624789 0.027826782 2.7644541
-1.0375627 0.026132263 2.2098405
-0.98724806 0.023332689 1.6854634
-0.9395628 0.021072669 1.3192074
-0.92646658 0.019984303 1.0828893
-0.92040449 0.016807405 0.98442477
-0.89425153 0.015869979 0.80356121
-0.88851702 0.015312797 0.66723639
-0.88284564 0.014914245 0.54875475
-0.8722555 0.014438096 0.44078106
-0.84451079 0.013690876 0.33820567
-0.85461748 0.013561685 0.25374803
-0.84130394 0.013064185 0.16848512
-0.91812503 0.018053178 0.899041
-0.88359898 0.01691962 0.72704947
-0.88966525 0.016733147 0.60850531
-0.87690228 0.016040955 0.49289995
-0.85985965 0.015436065 0.38845813
-0.83604586 0.014723712 0.29239166
-0.83169442 0.014506935 0.20823221
-0.82894647 0.01417724 0.12711954
-0.08023002 0.037334155 8.7189417
-1.3381604 0.060124818 8.5157051
-1.4940923 0.057610732 7.2119303
-1.0725161 0.034061462 3.4776065
-1.0477933 0.02966476 2.5290053
