# .PCD v0.7 - Point Cloud Data file format
VERSION 0.7
FIELDS x y z
SIZE 4 4 4
TYPE F F F
COUNT 1 1 1
WIDTH 1491
HEIGHT 1
VIEWPOINT 0 0 0 1 0 0 0
POINTS 1491
DATA ascii
-0.92446369 1.2839364 3.335144
-1.0013003 1.3861159 2.8671272
-1.0302165 1.4225203 2.4005039
-0.99015498 1.3647157 1.906126
-0.9575243 1.3105845 1.6748203
-0.91863596 1.2559893 1.3370987
-0.90046477 1.2298088 1.0839393
-0.88842744 1.2124928 0.87338674
-0.87222886 1.1895263 0.68427533
-0.86009854 1.1721375 0.51727986
-0.84897506 1.1561404 0.36379722
-0.82852352 1.1274767 0.21855797
-0.93861818 1.2884872 1.5009565
-0.906555 1.2431184 1.2038416
-0.8930254 1.2236804 0.97581625
-0.8841846 1.2102472 0.78033316
-0.86430395 1.1821805 0.5988273
-0.84962821 1.1612687 0.43775901
-0.83347863 1.1387866 0.28904179
-0.82346779 1.1242979 0.14989254
-0.018786747 0.086607523 8.7339401
-0.78013647 1.1297346 8.7280931
-0.92748576 1.3250332 7.7993574
-0.5634194 0.79333246 3.1578836
-0.96579653 1.3443403 3.1007893
-1.0120702 1.4046568 2.6153688
-1.0368924 1.4359692 2.1972225
-0.25518176 0.44759399 8.7498064
-0.49870858 0.8031683 8.7745152
-0.49388996 0.70178407 3.3415239
-0.66328222 0.93337172 3.1680319
-0.92630488 1.2960116 3.3576503
-0.99949509 1.3938417 2.875659
-1.030521 1.4334481 2.4124742
-0.98934758 1.3736658 1.9134763
-0.95713103 1.319693 1.6818293
-0.91881973 1.2654878 1.3433758
-0.90108311 1.2397093 1.0894222
-0.8867954 1.2191691 0.87570554
-0.87352771 1.2000601 0.68802142
-0.85882622 1.1790102 0.51868987
-0.85072142 1.1670361 0.36566246
-0.83045262 1.1384083 0.21945213
-0.93849045 1.2978071 1.5076076
-0.90695035 1.2528236 1.2097279
-0.8938064 1.2337722 0.98088264
-0.88528359 1.2206743 0.78452927
-0.86294574 1.1890121 0.60047078
-0.84842575 1.1681602 0.43893132
-0.83240908 1.1456952 0.28973246
-0.82247615 1.1312062 0.15009406
-0.018484317 0.086672574 8.7339401
-0.77794456 1.1350151 8.7478504
-0.93098634 1.3399709 7.8678908
-0.56064671 0.79529428 3.1578836
-1.2673217 1.7850113 5.2168798
-0.96387899 1.3516035 3.1095674
-1.0120716 1.4150478 2.6277676
-1.0374751 1.4473953 2.2087348
-0.2534765 0.44823024 8.7448139
-0.49618107 0.80535835 8.7794867
-0.49143732 0.70350379 3.3415239
-0.66002011 0.93568134 3.1680319
-0.92681336 1.3063394 3.3756549
-0.99764818 1.4015718 2.884191
-1.0290115 1.4419421 2.4204543
-0.99046129 1.3853846 1.924502
-0.95876938 1.3317088 1.6923431
-0.91894817 1.2750028 1.3496526
-0.90164334 1.249629 1.0949051
-0.88772053 1.2294402 0.88034314
-0.87476361 1.2106174 0.69176745
-0.86032706 1.1897753 0.52150995
-0.84952223 1.1739781 0.36659506
-0.82939458 1.1453338 0.21989921
-0.93830889 1.3071417 1.5142586
-0.90728903 1.2625468 1.2156142
-0.89452773 1.2438843 0.98594898
-0.88366884 1.2274405 0.78662729
-0.86431056 1.19968 0.6037578
-0.8500281 1.1790003 0.44127598
-0.83419836 1.1566267 0.29111382
-0.82144636 1.1381211 0.1502956
-0.018181657 0.086736567 8.7339401
-0.77354097 1.1370811 8.7429113
-0.95230836 1.3809372 8.0881758
-0.55786723 0.79724652 3.1578836
-1.2565818 1.7830361 5.1984696
-0.96192235 1.3588697 3.1183455
-1.0103838 1.4231613 2.6360335
-1.0379908 1.4588432 2.2202475
-0.25191036 0.4491123 8.7448139
-0.4936443 0.80754054 8.7844582
-0.48897862 0.70521498 3.3415239
-0.65773946 0.93939328 3.1727247
-0.92851418 1.3184664 3.3981609
-0.99575937 1.4093059 2.8927228
-1.0274552 1.4504431 2.4284341
-0.98954326 1.3943632 1.9318523
-0.96033537 1.343752 1.7028567
-0.91902143 1.284534 1.3559296
-0.8997106 1.2561682 1.0976466
-0.88600415 1.2361319 0.88266194
-0.87323439 1.2174305 0.69364047
-0.86176324 1.2005655 0.52433002
-0.85115075 1.1849157 0.3684603
-0.83120501 1.1563092 0.22079337
-0.93807364 1.3164907 1.5209095
-0.90757072 1.2722874 1.2215005
-0.89518934 1.2540164 0.99101532
-0.88465637 1.2379026 0.7908234
-0.86561137 1.2103716 0.60704482
-0.84873629 1.1859128 0.44244829
-0.83303857 1.1635581 0.29180449
-0.82037818 1.1450428 0.15049712
-0.017873397 0.086756222 8.728941
-0.77304399 1.1449271 8.7824249
-0.97278053 1.4212279 8.303566
-0.55422962 0.79796273 3.1531117
-1.2649066 1.8082235 5.2583022
-0.95992672 1.3661385 3.1271236
-1.0102725 1.4335804 2.6484323
-1.0365901 1.4676939 2.2279224
-0.25034112 0.4499889 8.7448139
-0.49082243 0.80925876 8.7844582
-0.48580164 0.70588183 3.3366842
-0.65544099 0.94310075 3.1774173
-0.92640036 1.3252681 3.4071634
-0.99382865 1.4170437 2.9012547
-1.0258521 1.4589508 2.4364142
-0.98857445 1.403352 1.9392027
-0.96182895 1.3558222 1.7133703
-0.92129272 1.2972546 1.3653449
-0.90016586 1.2661171 1.1031295
-0.8868199 1.2464362 0.88729954
-0.8743571 1.2280244 0.69738662
-0.86313444 1.2113799 0.52715003
-0.84986132 1.1918793 0.36939296
-0.83294886 1.1673111 0.22168753
-0.93994051 1.3289022 1.5308859
-0.90779549 1.2820454 1.2273868
-0.89579111 1.2641684 0.99608171
-0.88295579 1.2446849 0.79292148
-0.86684805 1.221087 0.61033183
-0.85022151 1.1967933 0.44479293
-0.83184063 1.1704954 0.29249516
-0.81927174 1.1519709 0.15069866
-0.017570453 0.086818077 8.728941
-0.76861036 1.146973 8.7774858
-0.9826861 1.4465156 8.4308414
-0.55144083 0.79989249 3.1531117
-1.2597013 1.8142327 5.2629046
-0.95789206 1.3734099 3.1359019
-1.0084881 1.4417102 2.6566982
-1.0388199 1.4818017 2.2432723
-0.24876884 0.45085999 8.7448139
-0.48799458 0.81096715 8.7844582
-0.48262602 0.70653522 3.331845
-0.65312463 0.94680351 3.1821103
-0.92425042 1.3320712 3.4161658
-0.9918561 1.4247853 2.9097865
-1.0259267 1.469936 2.4483843
-0.99144018 1.417908 1.9539032
-0.96324986 1.3679193 1.7238841
-0.92124403 1.3068254 1.3716217
-0.90056264 1.2760844 1.1086124
-0.88757432 1.256761 0.89193714
-0.87274081 1.2348548 0.69925964
-0.86167073 1.2183019 0.5285601
-0.84853357 1.1988482 0.37032557
-0.83174747 1.1742754 0.22213461
-0.94173205 1.341343 1.5408626
-0.91028738 1.2951272 1.2362163
-0.89385283 1.2708135 0.99861485
-0.88383144 1.2551813 0.79711759
-0.86530036 1.2279656 0.61197537
-0.85164094 1.2076983 0.44713756
-0.83345884 1.1814852 0.29387653
-0.82100815 1.1629864 0.15110172
-0.017272376 0.086922206 8.7339401
-0.76546228 1.1509432 8.787364
-0.9867363 1.4634465 8.5091658
-0.54864532 0.80181253 3.1531117
-1.2633375 1.8330972 5.3043275
-0.95445526 1.3787146 3.140291
-1.0082637 1.4521563 2.6690972
-1.039133 1.4933119 2.2547848
-0.24719353 0.45172563 8.7448139
-0.48543355 0.81312364 8.7894306
-0.47945175 0.7071749 3.3270054
-0.65079027 0.95050156 3.1868029
-0.92206413 1.3388753 3.4251683
-0.99132389 1.4346759 2.9225843
-1.0242209 1.4784622 2.4563644
-1.0058134 1.4492117 1.9906548
-0.96664095 1.3829657 1.7379023
-0.92113954 1.3164115 1.3778987
-0.90090078 1.2860699 1.1140954
-0.88826758 1.2671063 0.8965748
-0.87374973 1.2454842 0.70300567
-0.86292529 1.2291546 0.53138018
-0.84999138 1.2098416 0.3721908
-0.83337188 1.1853193 0.22302876
-0.94344819 1.3538122 1.5508391
-0.9103862 1.3049269 1.2421026
-0.89434671 1.2809951 1.0036812
-0.88204461 1.2619787 0.79921561
-0.86642164 1.2387177 0.61526239
-0.85020733 1.2146459 0.44830987
-0.83216995 1.1884437 0.2945672
-0.81981057 1.1699367 0.15130325
-0.016968856 0.086981975 8.7339401
-0.76186782 1.1542567 8.7923031
-0.98728305 1.4753449 8.5581179
-0.54584318 0.80372274 3.1531117
-1.2580339 1.8391086 5.3089299
-0.95234925 1.3859859 3.1490691
-1.0063821 1.4603014 2.6773629
-1.0393784 1.5048424 2.2662973
-0.2456152 0.45258573 8.7448139
-0.48259228 0.8148132 8.7894306
-0.4762789 0.70780116 3.3221662
-0.64843833 0.95419496 3.1914957
-0.92107004 1.3474777 3.4386718
-0.99073488 1.4445803 2.9353821
-1.0224682 1.4869944 2.4643445
-1.0122873 1.4694651 2.0127058
-0.96790582 1.3951219 1.7484158
-0.92319977 1.3292098 1.3873141
-0.90118003 1.2960731 1.1195784
-0.88889921 1.2774717 0.90121239
-0.87204599 1.252331 0.70487875
-0.86411458 1.2400306 0.53420019
-0.84857285 1.2168305 0.37312344
-0.83207929 1.192305 0.22347584
-0.94296461 1.3632388 1.5574901
-0.91042769 1.3147429 1.2479889
-0.89478034 1.2911956 1.0087476
-0.88280797 1.272508 0.80341172
-0.86747837 1.2494925 0.61854941
-0.85150886 1.2255899 0.45065451
-0.83366889 1.1994741 0.29594857
-0.82142699 1.180994 0.15170631
-0.016665129 0.087040678 8.7339401
-0.75783408 1.156909 8.7923031
-0.98212707 1.4787822 8.5581179
-0.54303426 0.80562323 3.1531117
-0.94885463 1.3912804 3.1534581
-1.0060443 1.4707735 2.6897616
-1.039556 1.5163926 2.2778101
-0.24416989 0.453695 8.7498064
-0.47974512 0.8164928 8.7894306
-0.4724097 0.70736837 3.3124871
-0.6470331 0.95931429 3.2008812
-0.92002708 1.3560894 3.4521756
-0.99008864 1.4544979 2.94818
-1.0223668 1.4980211 2.4763145
-1.0262854 1.5009757 2.0494576
-0.97112006 1.4102411 1.7624339
-0.92297244 1.3388336 1.393591
-0.90140051 1.3060939 1.1250613
-0.88695192 1.2842118 0.90353119
-0.87294078 1.2629948 0.70862478
-0.86250967 1.2469848 0.53561026
-0.84991163 1.2278633 0.37498868
-0.83074796 1.1992959 0.22392292
-0.9445399 1.3757567 1.5674665
-0.91270101 1.3279063 1.2568183
-0.89515364 1.3014147 1.013814
-0.8809346 1.2793199 0.80550975
-0.86847043 1.2602899 0.62183642
-0.8527444 1.2365576 0.45299914
-0.83228874 1.206453 0.29663923
-0.82297629 1.1920768 0.15210937
-0.016361199 0.087098315 8.7339401
-0.75379109 1.1595473 8.7923031
-0.97527868 1.4796507 8.5434322
-0.54021883 0.80751383 3.1531117
-0.84235531 1.2499831 3.6105986
-0.94667715 1.3985509 3.1622362
-1.0040653 1.4789327 2.6980276
-1.0396655 1.5279621 2.2893224
-0.24258471 0.45454457 8.7498064
-0.47689208 0.81816244 8.7894306
-0.46924353 0.70796525 3.3076477
-0.64464015 0.96300107 3.205574
-0.92015082 1.3665159 3.4701805
-0.99084496 1.4665897 2.9652438
-1.020511 1.5065705 2.4842944
-1.0267507 1.512965 2.060483
-0.97222829 1.4224554 1.7729477
-0.92488724 1.3516843 1.4030064
-0.90392476 1.3195816 1.1332856
-0.88747299 1.2946075 0.90816879
-0.87377179 1.27368 0.71237087
-0.8635816 1.2578975 0.53843033
-0.84840208 1.2348715 0.37592128
-0.82937801 1.206292 0.22437
-0.94603926 1.3883021 1.5774431
-0.9126159 1.3377625 1.2627047
-0.89546633 1.3116522 1.0188802
-0.88158536 1.2898813 0.80970585
-0.86673176 1.2672114 0.62347996
-0.8511681 1.2435378 0.45417145
-0.83366799 1.217523 0.29802063
-0.82163411 1.1990635 0.15231091
-0.016057068 0.087154895 8.7339401
-0.74973887 1.1621715 8.7923031
-0.97122216 1.4847504 8.5532217
-0.53739679 0.80939466 3.1531117
-0.83147126 1.2431717 3.5829835
-0.94446051 1.4058231 3.1710143
-1.0036138 1.48943 2.7104266
-1.0397067 1.5395509 2.3008351
-0.24113078 0.45564419 8.7547979
-0.47403327 0.81982213 8.7894306
-0.46607894 0.70854849 3.3028083
-0.64318419 0.96812046 3.2149594
-0.92021292 1.3769597 3.4881854
-0.9900766 1.4765379 2.9780414
-1.0202892 1.5176258 2.4962647
-1.0290383 1.5277873 2.0751836
-0.97526491 1.4376458 1.7869658
-0.92453665 1.3613446 1.4092834
-0.90401483 1.3296447 1.1387686
-0.88793224 1.3050225 0.91280639
-0.87453872 1.2843863 0.71611691
-0.86188668 1.2648686 0.53984034
-0.8496213 1.2459424 0.37778652
-0.83077627 1.2174066 0.22526415
-0.94537079 1.3977816 1.584094
-0.91247284 1.3476338 1.268591
-0.89571846 1.3219074 1.0239466
-0.88217288 1.3004626 0.81390196
-0.86760753 1.2780432 0.62676698
-0.85228503 1.2545425 0.45651609
-0.83219647 1.2245214 0.2987113
-0.82306278 1.2101864 0.15271397
-0.015752744 0.087210417 8.7339401
-0.74525893 1.164127 8.787364
-0.96547937 1.4872776 8.5483274
-0.53456825 0.81126559 3.1531117
-0.82712674 1.2460665 3.5829835
-0.94220448 1.4130969 3.1797926
-1.0031012 1.4999417 2.7228253
-1.0396798 1.5511584 2.3123474
-0.23953882 0.45648316 8.7547979
-0.4711687 0.82147181 8.7894306
-0.46291599 0.70911837 3.2979689
-0.64170033 0.97324151 3.2243452
-0.92021334 1.3874207 3.5061903
-0.98925084 1.486499 2.9908392
-1.0183301 1.5261912 2.5042446
-1.031235 1.5426438 2.0898843
-0.97621554 1.4499161 1.7974794
-0.92412996 1.3710189 1.4155602
-0.9040457 1.3397245 1.1442515
-0.88832951 1.3154563 0.91744399
-0.8726458 1.2912722 0.71798992
-0.86284089 1.2758168 0.54266042
-0.84802032 1.2529687 0.37871915
-0.82931435 1.2244225 0.22571123
-0.94672847 1.4103736 1.5940706
-0.91227186 1.3575206 1.2744772
-0.89590985 1.3321803 1.0290129
-0.88523197 1.3148285 0.82019615
-0.86577952 1.2849802 0.62841046
-0.85333532 1.2655702 0.45886073
-0.83345526 1.2356298 0.30009267
-0.82162851 1.2171928 0.15291549
-0.015585283 0.087240495 8.7339401
-0.74302262 1.1655557 8.787364
-0.96317464 1.4899834 8.5532217
-0.53397036 0.81344545 3.1578836
-0.82279575 1.2442487 3.5737784
-0.94263434 1.4185648 3.1885707
-1.0069859 1.5108824 2.739357
-1.0428551 1.5606037 2.3238599
-0.23898093 0.45677546 8.7547979
-0.47030818 0.8219648 8.7894306
-0.46148747 0.70854926 3.2931294
-0.64369607 0.97812611 3.2384233
-0.91659915 1.3845924 3.4971879
-0.99254262 1.493706 3.0036371
-1.022276 1.534425 2.5162146
-1.0285445 1.5403643 2.0862093
-0.979388 1.460674 1.8079931
-0.92824489 1.3823237 1.4249755
-0.90637165 1.3482409 1.1497345
-0.89120859 1.3242002 0.92208159
-0.87579572 1.3003316 0.72173601
-0.86642224 1.2849751 0.54548049
-0.85154486 1.262444 0.38058439
-0.83317792 1.2338336 0.2266054
-0.95148391 1.4206713 1.6040471
-0.91760254 1.3685471 1.2833068
-0.89955181 1.3401201 1.0340793
-0.88891602 1.3232898 0.82439226
-0.86992818 1.2935722 0.63169748
-0.85494435 1.2703468 0.46003303
-0.83812511 1.244426 0.30147403
-0.82636309 1.2260517 0.15331855
-0.015295898 0.087291695 8.7339401
-0.73873806 1.1673566 8.7824249
-0.95767879 1.4923124 8.5483274
-0.53112769 0.81530434 3.1578836
-0.81630397 1.2438464 3.5645733
-0.94006479 1.4260095 3.1973488
-1.0060974 1.5216051 2.751756
-1.0439371 1.5752841 2.33921
-0.23714541 0.4577311 8.7547979
-0.46659875 0.82346344 8.7844582
-0.45851544 0.7104761 3.2931294
-0.64242047 0.98515069 3.2525017
-0.9107914 1.3884197 3.4971879
-0.99031693 1.5045581 3.0164349
-1.02055 1.546416 2.5281849
-1.0234137 1.5478436 2.0898843
-0.9804672 1.4728199 1.8185068
-0.92773098 1.3920336 1.4312525
-0.90630114 1.3583531 1.1552174
-0.89126873 1.334826 0.92671913
-0.87640393 1.3110892 0.72548205
-0.86437404 1.2921294 0.54689056
-0.85237604 1.2737216 0.38244963
-0.83397627 1.2452992 0.22749956
-0.95196867 1.4338112 1.6140234
-0.91657633 1.378952 1.2891932
-0.89870536 1.3510551 1.0391457
-0.88839495 1.3345577 0.82858837
-0.86689353 1.3012856 0.63334101
-0.85478562 1.2821536 0.46237767
-0.838184 1.25631 0.30285537
-0.82377964 1.2338006 0.15352009
-0.0149911 0.087344564 8.7339401
-0.73465872 1.1699281 8.7824249
-0.95301044 1.4965049 8.5532217
-0.52827847 0.81715339 3.1578836
-0.80982512 1.2434139 3.5553682
-0.93770349 1.4332908 3.2061269
-1.005411 1.5321664 2.7641549
-1.0454767 1.5896307 2.3545601
-0.23554619 0.45855609 8.7547979
-0.46372148 0.82508719 8.7844582
-0.45535505 0.71101362 3.28829
-0.63974243 0.98894763 3.2571945
-0.90450913 1.3899238 3.4926865
-0.98907316 1.5147291 3.0292325
-1.0198264 1.5577095 2.5401547
-1.0140151 1.5459146 2.0825341
-0.98121738 1.48516 1.8290204
-0.92716062 1.4017563 1.4375293
-0.90617102 1.3684813 1.1607003
-0.89149767 1.3453143 0.93135673
-0.87671685 1.3220198 0.72922814
-0.86493748 1.3032826 0.54971057
-0.85336006 1.2848731 0.38431486
-0.83238095 1.2523502 0.22794664
-0.9528684 1.4466454 1.6240001
-0.91596609 1.3890511 1.2950795
-0.89849609 1.361536 1.0442121
-0.8887344 1.3452243 0.83278447
-0.86755455 1.3121819 0.63662797
-0.85298687 1.2891833 0.46355
-0.8390401 1.2676325 0.30423674
-0.82476991 1.245142 0.15392315
-0.014682324 0.087352894 8.728941
-0.73057044 1.1724855 8.7824249
-0.94723719 1.4989618 8.5483274
-0.52542287 0.81899244 3.1578836
-0.80335915 1.2429514 3.5461633
-0.93530273 1.440573 3.2149053
-1.0061988 1.5450991 2.7806866
-1.0469286 1.6040071 2.36991
-0.23394409 0.4593755 8.7547979
-0.46083859 0.82670081 8.7844582
-0.45287037 0.71259874 3.28829
-0.64374268 1.0027934 3.2947366
-0.89965189 1.3930727 3.4926865
-0.9894523 1.5269276 3.0462966
-1.0193076 1.5688403 2.552125
-1.0104622 1.5522861 2.0862093
-0.98384863 1.5005058 1.8430386
-0.92866945 1.4147462 1.4469448
-0.90598124 1.378625 1.1661832
-0.89166433 1.3558204 0.93599433
-0.87719399 1.332817 0.73297417
-0.86566007 1.3143063 0.55253065
-0.85157317 1.2919455 0.38524747
-0.83348852 1.2635622 0.2288408
-0.9539414 1.4593388 1.6339766
-0.91775161 1.4023867 1.3039091
-0.8984614 1.3718767 1.0492785
-0.8865217 1.3521138 0.8348825
-0.86814988 1.3230988 0.63991499
-0.8538174 1.3002789 0.46589461
-0.83732903 1.2746925 0.30492741
-0.82590723 1.2563628 0.15432622
-0.014377316 0.087403618 8.728941
-0.72606486 1.1743674 8.7774858
-0.94199908 1.5022593 8.5483274
-0.52256083 0.82082152 3.1578836
-0.797961 1.2441036 3.5415606
-0.93156552 1.4458424 3.2192943
-1.0053809 1.5556924 2.7930856
-1.0465504 1.6157227 2.3814225
-0.23233914 0.46018934 8.7547979
-0.45820743 0.82877123 8.7894306
-0.45038021 0.71417522 3.28829
-0.64023834 1.0050344 3.2947366
-0.89478374 1.3962047 3.4926865
-0.98834777 1.5369531 3.0590942
-1.0170906 1.5774539 2.5601048
-1.0289503 1.5928242 2.1339862
-0.98443967 1.5128986 1.8535522
-0.92797434 1.424502 1.4532217
-0.90573168 1.3887841 1.1716661
-0.89176828 1.3663439 0.94063193
-0.87760633 1.3436335 0.73672026
-0.8663162 1.3253509 0.55535072
-0.8524363 1.3031319 0.38711271
-0.83452797 1.2747971 0.22973496
-0.95493722 1.4720571 1.6439531
-0.91725367 1.4123615 1.3097954
-0.89836526 1.3822336 1.0543448
-0.88674682 1.3628083 0.83907861
-0.86867964 1.3340355 0.64320201
-0.85458076 1.3113959 0.46823925
-0.83828306 1.2859045 0.30630878
-0.82697606 1.2676064 0.15472928
-0.014072133 0.087453268 8.728941
-0.72196108 1.1768947 8.7774858
-0.93728715 1.5064026 8.5532217
-0.51969248 0.8226406 3.1578836
-0.79256469 1.2452332 3.5369582
-0.92909294 1.4531211 3.2280724
-1.0060204 1.5686677 2.8096173
-1.0443702 1.6247587 2.3890977
-0.23073137 0.46099755 8.7547979
-0.45531169 0.8303656 8.7894306
-0.4478845 0.71574301 3.28829
-0.65977281 1.0437334 3.4120557
-0.88990456 1.3993195 3.4926865
-0.9871853 1.5469896 3.071892
-1.0164498 1.5886095 2.5720751
-1.0361906 1.6163853 2.1597126
-0.98689061 1.5283096 1.8675704
-0.92933553 1.4375391 1.4626372
-0.90769398 1.4024684 1.1798905
-0.89421773 1.3806027 0.94758832
-0.87795395 1.3544692 0.7404663
-0.86690563 1.3364158 0.5581708
-0.85055709 1.3102198 0.38804534
-0.83278602 1.2818784 0.23018204
-0.95585597 1.4848002 1.6539296
-0.91669714 1.4223498 1.3156817
-0.90054429 1.3962291 1.0619444
-0.88690817 1.373521 0.84327471
-0.86914337 1.344992 0.64648902
-0.85527688 1.3225341 0.47058392
-0.83916897 1.2971386 0.30769014
-0.82526141 1.2746791 0.1549308
-0.013763438 0.08745835 8.7239418
-0.71744478 1.1787437 8.7725468
-0.93202317 1.5096651 8.5532217
-0.51681775 0.82444966 3.1578836
-0.78717005 1.2463403 3.5323555
-0.93299568 1.4705122 3.2587962
-1.0065817 1.5816664 2.826149
-1.0438629 1.6365012 2.40061
-0.22912078 0.46180016 8.7547979
-0.45266449 0.8324185 8.7944021
-0.4447206 0.71623397 3.2834506
-0.67904449 1.0825802 3.5293748
-0.88385296 1.4005764 3.4881854
-0.98456955 1.5548331 3.0804241
-1.0173583 1.6023234 2.5880351
-1.0450983 1.6428763 2.1891139
-0.98924589 1.5437561 1.8815886
-0.93061674 1.4506027 1.4720525
-0.9073121 1.412665 1.1853735
-0.89418334 1.3911687 0.95222592
-0.87823647 1.3653237 0.74421245
-0.86742842 1.3475009 0.56099087
-0.85129893 1.3214399 0.38991058
-0.83370316 1.2931486 0.23107618
-0.95669711 1.4975674 1.663906
-0.91825974 1.4357566 1.3245111
-0.90031266 1.4066257 1.0670106
-0.88700545 1.3842514 0.84747082
-0.86954117 1.3559678 0.64977604
-0.85590559 1.333693 0.47292855
-0.83998662 1.3083943 0.30907148
-0.82620788 1.2859584 0.15533386
-0.013458068 0.087505855 8.7239418
-0.71292436 1.1805756 8.7676067
-0.92674774 1.5129093 8.5532217
-0.5139367 0.82624865 3.1578836
-0.78281468 1.2490804 3.5323555
-0.93678808 1.4879478 3.2895195
-1.0085666 1.5970672 2.8468139
-1.0415725 1.6455518 2.4082851
-0.22750741 0.4625971 8.7547979
-0.44975606 0.83399355 8.7944021
-0.4422178 0.71778196 3.2834506
-0.67617321 1.0864093 3.5340676
-0.8789587 1.4036529 3.4881854
-0.98052359 1.5604687 3.0846899
-1.0165774 1.6135134 2.6000051
-1.0538336 1.669449 2.2185149
-0.98959166 1.556228 1.8921022
-0.93181813 1.4636927 1.4814678
-0.90911728 1.4264021 1.1935979
-0.89408594 1.4017512 0.95686358
-0.87845379 1.3761965 0.74795848
-0.86788422 1.3586059 0.56381088
-0.85197276 1.3326809 0.39177582
-0.83186799 1.3002458 0.23152326
-0.95746094 1.5103586 1.6738826
-0.91757399 1.4457786 1.3303974
-0.90001929 1.4170377 1.072077
-0.88703841 1.3949988 0.85166693
-0.86987299 1.3669628 0.65306306
-0.85646659 1.3448722 0.47527319
-0.84073579 1.3196715 0.31045285
-0.82439983 1.2930472 0.1555354
-0.013152533 0.087552302 8.7239418
-0.70839983 1.1823903 8.7626677
-0.92198974 1.5170053 8.5581179
-0.51104945 0.82803762 3.1578836
-0.77844977 1.2518053 3.5323555
-0.94047004 1.5054278 3.3202431
-1.0089622 1.6101165 2.8633456
-1.0426408 1.6600349 2.423635
-0.22589125 0.46338844 8.7547979
-0.44684213 0.83555841 8.7944021
-0.43905431 0.71824855 3.2786112
-0.6832552 1.1063834 3.5903809
-0.87290484 1.4048634 3.4836841
-0.97645038 1.5660951 3.0889559
-1.0189252 1.6298276 2.6199553
-1.0479997 1.6731174 2.2185149
-0.99176544 1.5717373 1.9061204
-0.93501806 1.4800996 1.4940217
-0.9086026 1.4366348 1.1990808
-0.89392555 1.4123498 0.96150118
-0.87860584 1.3870872 0.75170451
-0.86827314 1.3697304 0.56663096
-0.85257858 1.343943 0.39364108
-0.8326624 1.3115501 0.23241742
-0.95814681 1.523173 1.683859
-0.91898346 1.4592338 1.339227
-0.9019627 1.4311117 1.0796765
-0.88700724 1.4057634 0.85586303
-0.87013859 1.3779764 0.65635008
-0.85696012 1.3560716 0.47761783
-0.83877027 1.3267839 0.31114352
-0.82522339 1.3043609 0.15593846
-0.012846839 0.087597683 8.7239418
-0.70387143 1.1841879 8.7577286
-0.91668874 1.5202144 8.5581179
-0.50815594 0.8298164 3.1578836
-0.77407551 1.2545149 3.5323555
-0.94530302 1.5249871 3.3553557
-1.0092788 1.6231878 2.8798773
-1.0419254 1.6718252 2.4351475
-0.22427236 0.46417412 8.7547979
-0.44392279 0.83711308 8.7944021
-0.43589294 0.71870184 3.2737718
-0.68750179 1.1220056 3.6326158
-0.86799574 1.4079018 3.4836841
-0.9682337 1.565058 3.0804241
-1.019583 1.643617 2.6359155
-1.0475215 1.6854037 2.2295406
-0.99195039 1.5842576 1.916634
-0.93604743 1.4932482 1.5034369
-0.91025019 1.450423 1.2073052
-0.89370197 1.4229643 0.96613878
-0.87869257 1.3979957 0.75545061
-0.86604065 1.3768134 0.56804103
-0.85311586 1.3552251 0.39550632
-0.83338809 1.3228759 0.23331158
-0.95875496 1.5360107 1.6938356
-0.9203099 1.4727161 1.3480563
-0.90153295 1.4415612 1.0847429
-0.88691163 1.4165446 0.86005914
-0.87284493 1.39301 0.66128063
-0.85480344 1.3631727 0.47879013
-0.83939689 1.3380938 0.31252488
-0.82332158 1.3114648 0.15613998
-0.012543719 0.08768554 8.728941
-0.69933909 1.1859682 8.7527885
-0.91137666 1.5234051 8.5581179
-0.50525624 0.83158517 3.1578836
-0.76969165 1.2572093 3.5323555
-0.94248319 1.5323577 3.3641338
-1.0080391 1.6338859 2.8922763
-1.0428261 1.6863565 2.4504976
-0.22277451 0.46521488 8.7597885
-0.44099799 0.83865756 8.7944021
-0.4327338 0.71914184 3.2689323
-0.69523239 1.1435694 3.6936216
-0.86307591 1.4109231 3.4836841
-0.97095013 1.5817647 3.1060195
-1.0201569 1.6574308 2.6518755
-1.0451908 1.6948211 2.236891
-0.99394184 1.5998276 1.9306521
-0.93699652 1.506422 1.5128524
-0.91181242 1.4642401 1.2155296
-0.89575803 1.4373538 0.97309518
-0.87871385 1.4089216 0.75919664
-0.86630929 1.387967 0.57086104
-0.85358477 1.3665273 0.39737156
-0.83140498 1.3299996 0.23375866
-0.95928496 1.548871 1.703812
-0.92155355 1.4862255 1.3568859
-0.90104121 1.4520253 1.0898093
-0.88914639 1.4311973 0.86635327
-0.87296373 1.4040691 0.66456765
-0.85517555 1.3744023 0.48113477
-0.83995467 1.349424 0.31390625
-0.82402176 1.3228117 0.15654305
-0.012237563 0.087728798 8.728941
-0.69480288 1.1877314 8.7478504
-0.906573 1.5274528 8.5630131
-0.50235039 0.8333438 3.1578836
-0.76529849 1.2598884 3.5323555
-0.93837601 1.5376828 3.3685231
-1.0082058 1.6469951 2.9088082
-1.0419618 1.6981827 2.4620101
-0.22114924 0.46598965 8.7597885
-0.43782195 0.83971888 8.7894306
-0.43022087 0.72064793 3.2689323
-0.69658297 1.1548558 3.7217784
-0.85814559 1.4139271 3.4836841
-0.97356182 1.5985094 3.1316152
-1.0206467 1.6712685 2.6678357
-1.0445764 1.7071347 2.2479162
-0.99396539 1.6123949 1.9411659
-0.93786484 1.5196205 1.5222677
-0.91109157 1.4745287 1.2210126
-0.89539462 1.4480072 0.97773278
-0.87866938 1.4198648 0.76294273
-0.86651045 1.3991392 0.57368112
-0.85139734 1.3736739 0.39830416
-0.83200735 1.3413576 0.23465282
-0.959737 1.5617536 1.7137885
-0.92059594 1.4963187 1.3627722
-0.90048742 1.4625032 1.0948756
-0.88890827 1.4420193 0.87054938
-0.87301582 1.4151455 0.66785467
-0.85547954 1.3856506 0.48347941
-0.84044361 1.3607743 0.31528762
-0.82465267 1.3341794 0.15694611
-0.011933685 0.087814532 8.7339401
-0.69026297 1.1894773 8.7429113
-0.9012357 1.5306081 8.5630131
-0.49943843 0.83509225 3.1578836
-0.76089597 1.2625521 3.5323555
-0.93300277 1.540949 3.3685231
-1.0068325 1.65772 2.921207
-1.0410275 1.7100229 2.4735227
-0.2195213 0.46675876 8.7597885
-0.43488812 0.84124207 8.7894306
-0.42706245 0.72106355 3.2640929
-0.71735406 1.1987454 3.8531759
-0.85320485 1.416914 3.4836841
-0.97471952 1.6130593 3.1529448
-1.0210522 1.6851296 2.6837957
-1.0438888 1.7194644 2.2589419
-0.99577385 1.6280242 1.9551841
-0.93661976 1.5295238 1.5285445
-0.91249508 1.4883944 1.229237
-0.89496779 1.4586756 0.98237038
-0.8809849 1.4347751 0.76856184
-0.8666442 1.4103295 0.57650119
-0.85174358 1.3850062 0.4001694
-0.83254039 1.3527359 0.23554698
-0.96205425 1.5778462 1.7270906
-0.9216848 1.509873 1.3716016
-0.90211868 1.4766738 1.1024752
-0.8886053 1.4528571 0.87474555
-0.8730011 1.4262395 0.67114168
-0.85571545 1.3969181 0.48582402
-0.84086347 1.3721443 0.31666899
-0.82260227 1.3413086 0.15714765
-0.011627084 0.087855652 8.7339401
-0.68610668 1.1918795 8.7429113
-0.89588732 1.5337447 8.5630131
-0.4965204 0.8368305 3.1578836
-0.75648427 1.2652005 3.5323555
-0.92638493 1.5421432 3.3641338
-1.0068489 1.6708657 2.9377387
-1.0400232 1.7218776 2.4850352
-0.21789065 0.4675222 8.7597885
-0.43194899 0.8427549 8.7894306
-0.4245429 0.72254992 3.2640929
-0.71316528 1.2012421 3.8531759
-0.84713745 1.4180148 3.479183
-0.97712821 1.6298733 3.1785405
-1.0213734 1.6990139 2.6997557
-1.0431277 1.7318103 2.2699676
-0.99563503 1.6406366 1.9656976
-0.93733793 1.5427637 1.5379601
-0.91164005 1.4987155 1.2347199
-0.89447737 1.4693584 0.98700798
-0.88079494 1.4457598 0.77230787
-0.86671025 1.4215378 0.57932127
-0.85202098 1.3963575 0.40203464
-0.83300412 1.3641342 0.23644114
-0.96620327 1.5971686 1.7437181
-0.92478436 1.5269109 1.3833743
-0.90142733 1.4871869 1.1075416
-0.8882373 1.46371 0.87894166
-0.87291956 1.4373505 0.6744287
-0.85588306 1.408204 0.48816866
-0.83864135 1.3793026 0.31735966
-0.82310915 1.3527076 0.15755071
-0.011322463 0.087939285 8.7389402
-0.681557 1.1935924 8.7379713
-0.89052808 1.5368625 8.5630131
-0.49359626 0.83855861 3.1578836
-0.75305986 1.2695137 3.5369582
-0.9234482 1.5494822 3.3729122
-1.006786 1.6840316 2.9542706
-1.0405962 1.736495 2.5003853
-0.21613723 0.46801752 8.7547979
-0.42900458 0.84425759 8.7894306
-0.42201817 0.72402745 3.2640929
-0.69495845 1.1799315 3.7780917
-0.84218246 1.4209632 3.479183
-0.97943139 1.6467236 3.2041361
-1.0216099 1.7129208 2.7157159
-1.044032 1.7470816 2.2846682
-1.0009388 1.6624336 1.986725
-0.93797499 1.5560269 1.5473754
-0.91288447 1.5126288 1.2429444
-0.89621323 1.4838475 0.99396437
-0.88053918 1.4567605 0.77605397
-0.8667087 1.4327637 0.58214134
-0.84968561 1.4035254 0.40296727
-0.83339834 1.3755521 0.23733529
-0.97022897 1.6165389 1.7603455
-0.92361236 1.5370589 1.3892606
-0.90289515 1.5014073 1.115141
-0.89014536 1.4784664 0.88523579
-0.87277102 1.4484783 0.67771572
-0.85598212 1.4195076 0.49051329
-0.83893734 1.390702 0.31874102
-0.82354653 1.3641264 0.15795377
-0.011015428 0.087978274 8.7389402
-0.6773864 1.1959642 8.7379713
-0.88515806 1.5399617 8.5630131
-0.49141857 0.84156561 3.1626556
-0.74862385 1.2721347 3.5369582
-0.92656547 1.5671281 3.4036357
-1.0066432 1.6972172 2.9708023
-1.0394419 1.7483823 2.5118976
-0.21450223 0.46876913 8.7547979
-0.42605498 0.84574997 8.7894306
-0.41948828 0.72549611 3.2640929
-0.69170588 1.1838403 3.7827842
-0.83611399 1.4220176 3.4746816
-0.98295391 1.665856 3.2339973
-1.0217618 1.7268499 2.7316759
-1.0448422 1.7623802 2.2993689
-1.0134171 1.6965343 2.0217705
-0.9385308 1.5693132 1.5567907
-0.91189468 1.5229813 1.2484273
-0.89558196 1.4945666 0.99860191
-0.88021708 1.4677769 0.7798
-0.86663914 1.4440067 0.58496141
-0.84983969 1.4149048 0.40483251
-0.83372295 1.3869894 0.23822945
-0.97222096 1.6327482 1.7736475
-0.92445046 1.5506893 1.39809
-0.90206593 1.5119538 1.1202074
-0.88963372 1.4893572 0.88943189
-0.87255549 1.4596225 0.68100274
-0.8560127 1.4308294 0.49285793
-0.83916396 1.4021204 0.32012239
-0.82391393 1.3755648 0.15835683
-0.010708259 0.08801619 8.7389402
-0.67358798 1.198999 8.7429113
-0.87977719 1.5430421 8.5630131
-0.48847795 0.84327585 3.1626556
-0.74417871 1.2747402 3.5369582
-0.94289798 1.6075394 3.4826391
-1.0064204 1.7104223 2.9873343
-1.0398456 1.7630434 2.5272477
-0.21286461 0.46951503 8.7547979
-0.42333776 0.84770918 8.7944021
-0.41695324 0.72695601 3.2640929
-0.68237817 1.1772889 3.7546277
-0.83114511 1.4249275 3.4746816
-0.98503745 1.6827822 3.259593
-1.0233542 1.7433996 2.7516263
-1.0455585 1.7777059 2.3140695
-1.0202152 1.7215375 2.0463021
-0.93900526 1.5826223 1.5662062
-0.91297919 1.5369401 1.2566516
-0.89715022 1.509107 1.0055584
-0.88219923 1.482793 0.78541911
-0.86650163 1.4552665 0.58778149
-0.84992462 1.4263023 0.40669775
-0.83397776 1.3984454 0.23912361
-0.97601062 1.6522062 1.7902751
-0.92520458 1.5643443 1.4069196
-0.90336978 1.5262227 1.127807
-0.88905692 1.5002626 0.893628
-0.87227261 1.4707825 0.68428975
-0.85845542 1.4463482 0.49637488
-0.83679271 1.4092991 0.32081306
-0.82421166 1.3870223 0.15875989
-0.010399293 0.088009432 8.7339401
-0.66939855 1.2013429 8.7429113
-0.8743856 1.5461037 8.5630131
-0.48553139 0.84497583 3.1626556
-0.74070334 1.2790208 3.5415606
-0.94932461 1.6315224 3.5265298
-1.0061177 1.7236464 3.003866
-1.041778 1.7804952 2.5464354
-0.21134178 0.47051886 8.7597885
-0.42037615 0.84918177 8.7944021
-0.41441315 0.72840703 3.2640929
-0.67826456 1.1796637 3.7546277
-0.8250761 1.4259357 3.4701805
-0.98832417 1.7019982 3.2894547
-1.0248431 1.7599812 2.7715764
-1.0461804 1.7930576 2.3287699
-1.0286584 1.7496834 2.0743387
-0.93939817 1.5959536 1.5756215
-0.91397732 1.5509251 1.264876
-0.89637762 1.5198607 1.010196
-0.88173074 1.4938481 0.78916514
-0.86629605 1.466543 0.59060156
-0.84994036 1.4377177 0.40856299
-0.83416271 1.4099201 0.24001777
-0.97778821 1.6684886 1.8035771
-0.92587441 1.578023 1.415749
-0.90240222 1.5368015 1.1328733
-0.88841474 1.5111818 0.89782411
-0.87192237 1.4819584 0.68757677
-0.85833395 1.457713 0.49871951
-0.83689499 1.4207453 0.32219443
-0.82190228 1.3941947 0.15896143
-0.010092019 0.088045195 8.7339401
-0.66520101 1.2036722 8.7429113
-0.86898339 1.5491464 8.5630131
-0.48257893 0.8466655 3.1626556
-0.73623425 1.2815984 3.5415606
-0.96517217 1.6721643 3.6055334
-1.0085548 1.7417597 3.0286636
-1.0419922 1.7952095 2.5617852
-0.20969808 0.47125369 8.7597885
-0.41764364 0.85112286 8.7993736
-0.41186801 0.72984916 3.2640929
-0.67499733 1.1835232 3.7593205
-0.82009357 1.4288071 3.4701805
-0.99018687 1.7189976 3.3150501
-1.0262289 1.7765944 2.7915263
-1.0467075 1.8084352 2.3434706
-1.0351206 1.7748278 2.0988705
-0.94167185 1.6126682 1.5881753
-0.91277856 1.5613258 1.2703589
-0.8977778 1.534451 1.0171524
-0.88353819 1.5089188 0.79478431
-0.86602217 1.4778355 0.59342158
-0.8498866 1.4491504 0.41042823
-0.83427775 1.4214129 0.24091193
-0.98134053 1.6880316 1.8202046
-0.92646021 1.5917256 1.4245785
-0.90354145 1.5511169 1.1404729
-0.88770705 1.5221149 0.90202022
-0.87150478 1.4931496 0.69086379
-0.85814363 1.4690945 0.50106418
-0.83692747 1.4322091 0.32357576
-0.82207477 1.4056803 0.15936449
-0.009784623 0.088079885 8.7339401
-0.66136861 1.2066684 8.7478504
-0.86357057 1.5521703 8.5630131
-0.48035493 0.84964442 3.1674278
-0.73465735 1.2892531 3.5553682
-0.96170908 1.6796801 3.6143112
-0.99966592 1.7403892 3.0203977
-1.0405172 1.8071693 2.5732977
-0.2081674 0.47224739 8.76478
-0.41467011 0.85257548 8.7993736
-0.40931785 0.73128241 3.2640929
-0.67171144 1.1873742 3.7640131
-0.81510115 1.431661 3.4701805
-0.99194294 1.7360306 3.3406458
-1.029009 1.7958529 2.8154664
-1.048828 1.8267783 2.3618467
-1.0378482 1.7938648 2.1163931
-0.94188952 1.6260499 1.5975907
-0.91361594 1.575354 1.2785833
-0.89908683 1.5490693 1.0241088
-0.88292265 1.5200111 0.79853034
-0.86567992 1.489144 0.59624165
-0.85223365 1.4648461 0.41322607
-0.83432245 1.4329238 0.24180609
-0.9810378 1.7011503 1.830181
-0.9269613 1.6054512 1.4334079
-0.90459162 1.5654588 1.1480724
-0.88920659 1.5369898 0.90831435
-0.87101948 1.5043559 0.69415081
-0.85788411 1.4804921 0.50340879
-0.83688998 1.4436902 0.32495713
-0.82217693 1.417184 0.15976755
-0.0094771069 0.088113502 8.7339401
-0.65715253 1.2089696 8.7478504
-0.8581472 1.5551753 8.5630131
-0.47738621 0.85131603 3.1674278
-0.73399705 1.2986132 3.5737784
-0.96766633 1.7038534 3.6582022
-0.99776357 1.7512033 3.0327964
-1.0405607 1.8219237 2.5886478
-0.2065177 0.47297117 8.76478
-0.41169155 0.85401779 8.7993736
-0.40676269 0.73270673 3.2640929
-0.66756266 1.1897117 3.7640131
-0.81009871 1.4344976 3.4701805
-0.99230623 1.7508277 3.3619757
-1.0331557 1.817772 2.8433967
-1.0491556 1.8422123 2.3765471
-1.0404552 1.8129421 2.1339159
-0.94396418 1.6428274 1.6101445
-0.91436642 1.5894071 1.2868078
-0.89809453 1.5598762 1.0287464
-0.8845548 1.5351343 0.80414945
-0.8652693 1.5004679 0.59906173
-0.85202599 1.4763212 0.41509131
-0.83429706 1.444452 0.24270025
-0.98250926 1.7175283 1.843483
-0.927378 1.6191998 1.4422375
-0.90555269 1.5798271 1.155672
-0.88835394 1.5479571 0.91251045
-0.87281841 1.5196718 0.6990813
-0.85755545 1.4919059 0.50575346
-0.83678263 1.4551886 0.3263385
-0.82220894 1.4287055 0.16017061
-0.0091694761 0.088146046 8.7339401
-0.65292847 1.2112563 8.7478504
-0.85271341 1.5581613 8.5630131
-0.47441167 0.85297728 3.1674278
-0.73041475 1.3028716 3.5783808
-0.98639512 1.7510426 3.7503729
-0.98472255 1.7424258 3.0121319
-1.0420935 1.8394891 2.6078353
-0.20486546 0.47368914 8.76478
-0.40847874 0.85496831 8.7944021
-0.40420261 0.7341221 3.2640929
-0.66340572 1.1920346 3.7640131
-0.80508643 1.4373167 3.4701805
-0.99385619 1.7679218 3.3875711
-1.0356823 1.837117 2.8673368
-1.0493879 1.8576705 2.3912477
-1.0411774 1.8289602 2.147934
-0.94400573 1.6562572 1.6195598
-0.91502994 1.6034845 1.2950323
-0.89923453 1.5745418 1.0357027
-0.88379163 1.5462624 0.80789554
-0.86717194 1.5159709 0.60329181
-0.85418904 1.4920757 0.41788921
-0.83420116 1.4559973 0.24359439
-0.98387825 1.7339374 1.8567851
-0.92970634 1.636485 1.4540101
-0.90642428 1.5942208 1.1632714
-0.8896808 1.5628814 0.91880459
-0.87218344 1.5309153 0.70236832
-0.85715753 1.5033352 0.50809807
-0.83660507 1.4667038 0.32771987
-0.82217044 1.4402443 0.16057368
-0.0088617336 0.088177525 8.7339401
-0.64869642 1.2135279 8.7478504
-0.84775472 1.5620233 8.5679083
-0.47143131 0.85462803 3.1674278
-0.98688948 1.7605811 3.0369296
-1.0419464 1.854293 2.6231852
-0.20321073 0.47440138 8.76478
-0.40549183 0.85638899 8.7944021
-0.40163758 0.73552859 3.2640929
-0.65840697 1.1928322 3.7593205
-0.80006433 1.4401181 3.4701805
-0.99275869 1.7804919 3.404635
-1.0395569 1.8591317 2.895267
-1.0511822 1.8761101 2.4096236
-1.0435538 1.8481108 2.1654568
-0.94588059 1.6730959 1.6321138
-0.91560608 1.6175857 1.3032565
-0.8980996 1.58538 1.0403403
-0.88524783 1.5614368 0.81351459
-0.86660951 1.5273334 0.60611188
-0.8538267 1.5035915 0.41975445
-0.83403486 1.4675597 0.24448855
-0.98697579 1.7536306 1.8734126
-0.92994094 1.6502848 1.4628397
-0.90720636 1.6086398 1.170871
-0.8909142 1.5778337 0.92509878
-0.87380373 1.5462841 0.70729887
-0.85669011 1.5147798 0.51044267
-0.8363573 1.4782352 0.3291012
-0.8220613 1.4518002 0.16097674
-0.0085531287 0.0881643 8.728941
-0.64445645 1.2157849 8.7478504
-0.84229708 1.564973 8.5679083
-0.46844524 0.85626841 3.1674278
-1.1320086 2.0427938 4.3472877
-1.0094506 1.8156654 3.1237214
-1.0432688 1.8719178 2.6423728
-0.20155351 0.47510785 8.76478
-0.4025 0.85779917 8.7944021
-0.39906764 0.73692608 3.2640929
-0.65175384 1.1905818 3.7452421
-0.7950325 1.4429021 3.4701805
-0.99284768 1.7953584 3.4259646
-1.0403675 1.8759249 2.9152172
-1.0495671 1.8886583 2.4206491
-1.0440665 1.8641883 2.1794751
-0.94574553 1.6865724 1.6415291
-0.91814196 1.6353564 1.3142223
-0.89906979 1.6000912 1.0472968
-0.88433653 1.5725991 0.81726068
-0.86833096 1.5428905 0.61034197
-0.8558051 1.5194029 0.42255229
-0.83379793 1.4791385 0.24538271
-0.98812783 1.770106 1.8867146
-0.93206251 1.6676341 1.4746124
-0.90789872 1.6230835 1.1784705
-0.88983631 1.5888536 0.92929488
-0.87532723 1.5616826 0.71222943
-0.85615331 1.5262395 0.51278734
-0.83846253 1.4941013 0.33117324
-0.82188147 1.4633728 0.1613798
-0.0082459273 0.088237233 8.7339401
-0.64020866 1.2180271 8.7478504
-0.83682919 1.5679036 8.5679083
-0.46545345 0.85789841 3.1674278
-1.1248709 2.0467329 4.3472877
-1.0207695 1.8512138 3.1774499
-1.0444808 1.8895745 2.6615605
-0.19989385 0.4758085 8.76478
-0.39950329 0.85919893 8.7944021
-0.39649287 0.73831457 3.2640929
-0.6451245 1.1882995 3.731164
-0.78999102 1.4456685 3.4701805
-0.98908263 1.8033864 3.4344964
-1.0425255 1.8953867 2.9391572
-1.0495133 1.9041868 2.4353497
-1.0444796 1.8802917 2.1934931
-0.94741964 1.7034701 1.6540829
-0.91853058 1.6495112 1.3224468
-0.89994806 1.6148282 1.0542531
-0.88561618 1.5878227 0.82287979
-0.86761618 1.5542896 0.61316204
-0.85528767 1.5309578 0.42441753
-0.83349025 1.4907334 0.24627687
-0.99098545 1.7898775 1.9033421
-0.93211442 1.6814831 1.4834417
-0.90850133 1.6375515 1.1860701
-0.89089608 1.6038526 0.93558902
-0.87445945 1.5729833 0.71551645
-0.85790998 1.5419612 0.51630425
-0.83805871 1.5056729 0.33255461
-0.82163078 1.4749618 0.16178286
-0.0079378709 0.088265479 8.7339401
-0.63631189 1.2209435 8.7527885
-0.83182728 1.5717152 8.5728035
-0.46245599 0.85951793 3.1674278
-1.2085383 2.2283137 6.0315261
-1.1291806 2.0716765 4.3911786
-1.0345522 1.8918006 3.239444
-1.0471228 1.9100728 2.6845856
-0.19823176 0.47650334 8.76478
-0.39650169 0.86058825 8.7944021
-0.39391324 0.73969412 3.2640929
-0.63688338 1.1829463 3.7077
-0.78493989 1.4484173 3.4701805
-0.99524212 1.8297391 3.4771557
-1.0416747 1.9095957 2.9551175
-1.0477378 1.9167631 2.4463751
-1.0465137 1.8995444 2.2110159
-0.94898725 1.7203997 1.6666367
-0.92085284 1.6673487 1.3334126
-0.89859158 1.6257138 1.0588907
-0.88455623 1.5990175 0.82662582
-0.86683232 1.5657023 0.61598212
-0.85469997 1.5425276 0.42628276
-0.83311176 1.502344 0.24717103
-0.9919197 1.8064173 1.9166441
-0.93402833 1.6988947 1.4952143
-0.90901387 1.6520432 1.1936696
-0.89186192 1.6188785 0.94188321
-0.87580323 1.5884318 0.72044694
-0.85721886 1.5534579 0.51864892
-0.83758438 1.51726 0.33393598
-0.82130909 1.4865665 0.16218592
-0.0076297186 0.088292651 8.7339401
-0.6320461 1.2231572 8.7527885
-0.82633585 1.5746093 8.5728035
-0.4594529 0.86112696 3.1674278
-1.2127815 2.2548871 6.0913591
-1.1264973 2.0840335 4.4087348
-1.048064 1.9325063 3.3014381
-1.0481035 1.9277965 2.7037728
-0.19645815 0.47692508 8.7597885
-0.39349526 0.86196709 8.7944021
-0.39132884 0.74106461 3.2640929
-0.6335628 1.1866847 3.7123928
-0.77987915 1.4511484 3.4701805
-1.0012294 1.8561565 3.519815
-1.0421708 1.9264719 2.9750674
-1.0458875 1.92935 2.4574008
-1.048426 1.918834 2.2285385
-0.9504481 1.737361 1.6791905
-0.92105305 1.6815549 1.341637
-0.89929932 1.640494 1.0658472
-0.88565874 1.6142888 0.83224493
-0.86828822 1.5813334 0.62021226
-0.85404176 1.5541116 0.428148
-0.83506215 1.5183337 0.24851227
-0.99453604 1.826264 1.9332715
-0.93583184 1.7163399 1.506987
-0.91150117 1.6703428 1.2038023
-0.89273363 1.6339302 0.94817728
-0.87478435 1.5997657 0.72373396
-0.85879141 1.5692323 0.52216589
-0.83941734 1.5332054 0.33600801
-0.82091641 1.4981871 0.16258898
-0.0073214737 0.08831875 8.7339401
-0.62777263 1.225356 8.7527885
-0.8208344 1.5774841 8.5728035
-0.45574638 0.86140591 3.1626556
-1.2205311 2.2884121 6.1696019
-1.1282668 2.10484 4.4438477
-1.0493087 1.9510233 3.3262358
-1.048973 1.94555 2.7229605
-0.19479217 0.47760794 8.7597885
-0.39048404 0.86333537 8.7944021
-0.38873965 0.7424261 3.2640929
-0.6310311 1.1919395 3.7217784
-0.77583265 1.455783 3.4746816
-1.0230346 1.9125346 3.6179318
-1.0382885 1.9354088 2.9830475
-1.0584081 1.968822 2.5015028
-1.0502164 1.9381598 2.2460613
-0.95180202 1.754353 1.6917443
-0.92116529 1.695783 1.3498615
-0.89991468 1.6552987 1.0728035
-0.88666528 1.6295872 0.83786404
-0.86735123 1.5927805 0.62303233
-0.85331309 1.5657099 0.43001324
-0.83452642 1.5299832 0.24940643
-0.99702585 1.8461512 1.9498991
-0.93752491 1.7338183 1.5187596
-0.91181988 1.6848881 1.2114018
-0.89351112 1.6490077 0.95447153
-0.87594795 1.6152629 0.72866452
-0.85794562 1.5807644 0.5245105
-0.83878624 1.5448302 0.33738938
-0.82283789 1.5142125 0.16319357
-0.0070131388 0.088343769 8.7339401
-0.62349153 1.2275398 8.7527885
-0.815323 1.5803398 8.5728035
-0.45273674 0.86299151 3.1626556
-1.2198417 2.3064752 6.2064223
-1.1287807 2.1235695 4.4745708
-1.0517609 1.9720553 3.3551667
-1.0512425 1.9661596 2.7459855
-0.19312383 0.47828498 8.7597885
-0.38746804 0.86469311 8.7944021
-0.38614574 0.74377859 3.2640929
-0.62606466 1.1926069 3.7170856
-0.77074629 1.4584823 3.4746816
-1.0371259 1.9552622 3.6904523
-1.0470926 1.9682847 3.0269377
-1.0690712 2.0054128 2.5419295
-1.0518844 1.9575213 2.2635841
-0.95304888 1.771376 1.7042983
-0.92118943 1.7100322 1.358086
-0.90253973 1.6740268 1.0820787
-0.88537437 1.6408321 0.84161013
-0.86862421 1.6084611 0.62726241
-0.85251379 1.5773219 0.43187848
-0.83628875 1.5460275 0.25074768
-0.99938887 1.8660779 1.9665265
-0.9391073 1.7513295 1.5305324
-0.91204816 1.6994559 1.2190014
-0.89419407 1.6641105 0.96076572
-0.87701392 1.6307875 0.73359501
-0.8593334 1.5965898 0.52802747
-0.84043175 1.560829 0.33946142
-0.82228744 1.5258715 0.16359663
-0.0067047193 0.088367708 8.7339401
-0.61920279 1.2297088 8.7527885
-0.80980158 1.5831761 8.5728035
-0.44972157 0.86456662 3.1626556
-1.226299 2.3384027 6.2800627
-1.1291777 2.1423283 4.5052948
-1.0553944 1.9956156 3.3882301
-1.0518795 1.9839766 2.765173
-0.19145311 0.47895619 8.7597885
-0.38444734 0.86604035 8.7944021
-0.38354713 0.7451219 3.2640929
-0.63304973 1.2162166 3.7827842
-0.76565057 1.4611638 3.4746816
-1.0448618 1.9865701 3.7416439
-1.0570853 2.0039103 3.0748181
-1.0668173 2.0181241 2.5529552
-1.05343 1.9769179 2.2811067
-0.95602036 1.7918626 1.7199905
-0.92112505 1.7243018 1.3663102
-0.90295649 1.688887 1.0890352
-0.88620281 1.6561754 0.84722924
-0.86753362 1.6199411 0.63008249
-0.85164386 1.5889473 0.43374372
-0.83559513 1.5577142 0.25164184
-1.0033761 1.889341 1.9864796
-0.9405787 1.7688724 1.542305
-0.91218573 1.7140456 1.2266009
-0.89478236 1.679238 0.96705979
-0.87798208 1.6463389 0.73852557
-0.8583324 1.6081561 0.53037208
-0.8396433 1.57249 0.34084278
-0.82166559 1.5375451 0.16399969
-0.0063962173 0.088390574 8.7339401
-0.61490655 1.2318627 8.7527885
-0.80427033 1.5859933 8.5728035
-0.44670096 0.86613119 3.1626556
-1.2289432 2.3634696 6.3352928
-1.1305664 2.1632378 4.5404072
-1.0575694 2.0167329 3.4171607
-1.0538962 2.0046592 2.788198
-0.18978009 0.47962159 8.7597885
-0.38142195 0.86737704 8.7944021
-0.3809438 0.74645621 3.2640929
-0.63908625 1.2383558 3.8437903
-0.76054543 1.4638275 3.4746816
-1.0716853 2.0549555 3.8610899
-1.0654453 2.0369594 3.1187084
-1.0676351 2.0368493 2.5713308
-1.0565189 1.9995021 2.302134
-0.95704025 1.8089509 1.7325443
-0.92097229 1.7385919 1.3745347
-0.90328026 1.7037699 1.0959915
-0.88693476 1.6715441 0.85284829
-0.86862332 1.6356697 0.63431257
-0.850703 1.6005857 0.43560895
-0.83483005 1.5694149 0.25253597
-1.0072129 1.9126542 2.0064325
-0.94193906 1.7864467 1.5540776
-0.91223258 1.7286571 1.2342005
-0.89527601 1.6943896 0.97335398
-0.87885231 1.661917 0.74345607
-0.85953462 1.6240305 0.53388906
-0.84110081 1.5885407 0.34291482
-0.82331133 1.553647 0.16460429
-0.0060876375 0.088412359 8.7339401
-0.6106028 1.2340016 8.7527885
-0.7987293 1.5887909 8.5728035
-0.44367486 0.86768514 3.1626556
-1.2323225 2.3903198 6.3951254
-1.1329247 2.1863096 4.5799088
-1.0609077 2.0403862 3.4502244
-1.0557812 2.0253794 2.811223
-0.18800037 0.48001203 8.7547979
-0.37839192 0.86870319 8.7944021
-0.37833586 0.7477814 3.2640929
-0.63475972 1.240579 3.8437903
-0.75543112 1.4664735 3.4746816
-1.0692968 2.0679507 3.8781536
-1.0722002 2.0674157 3.1586087
-1.0636452 2.0465798 2.5786812
-1.0578079 2.0189729 2.3196568
-0.95976055 1.8295149 1.7482367
-0.92267531 1.7566035 1.3855006
-0.90351117 1.7186757 1.102948
-0.88757038 1.6869382 0.8584674
-0.86737853 1.6471808 0.63713264
-0.85198146 1.6165826 0.43840683
-0.83399343 1.5811288 0.25343013
-1.0108989 1.9360173 2.0263855
-0.94318795 1.8040519 1.5658503
-0.91218841 1.7432894 1.2418
-0.89567447 1.7095649 0.97964811
-0.87743157 1.673339 0.74674314
-0.85837781 1.6356288 0.53623366
-0.84015453 1.6002361 0.34429619
-0.82253081 1.5653566 0.16500735
-0.0057789832 0.088433079 8.7339401
-0.60629165 1.2361255 8.7527885
-0.7931785 1.5915694 8.5728035
-0.44064337 0.86922854 3.1626556
-1.2355291 2.417222 6.4549584
-1.1340411 2.2072937 4.6150217
-1.0640938 2.0640872 3.483288
-1.0575342 2.0461371 2.8342481
-0.18632367 0.48066536 8.7547979
-0.37556788 0.87050849 8.7993736
-0.37572333 0.74909747 3.2640929
-0.63198638 1.2458655 3.8531759
-0.75030756 1.4691014 3.4746816
-1.0132943 1.9765151 3.7032504
-1.0787551 2.0979435 3.1985087
-1.0611533 2.0593214 2.5897067
-1.0606176 2.0416412 2.3406842
-0.96414489 1.8535728 1.7670673
-0.92426366 1.7746482 1.3964664
-0.90364891 1.7336038 1.1099044
-0.88596487 1.6982466 0.86221349
-0.86828423 1.6629555 0.64136273
-0.85088342 1.6282539 0.44027206
-0.83539307 1.5972689 0.25477138
-1.0161506 1.9627445 2.049664
-0.94246525 1.8180989 1.5746796
-0.91403824 1.7617689 1.2519327
-0.89597803 1.7247638 0.9859423
-0.87811995 1.6889609 0.75167364
-0.85939407 1.6515505 0.53975064
-0.83913678 1.6119441 0.34567752
-0.82167858 1.5770795 0.16541041
-0.0054702596 0.088452704 8.7339401
-0.60197306 1.2382343 8.7527885
-0.78761804 1.5943284 8.5728035
-0.43760651 0.87076139 3.1626556
-1.2367967 2.4406903 6.5055861
-1.1371986 2.2325802 4.6589122
-1.0671271 2.0878348 3.5163515
-1.0591553 2.0669317 2.8572731
-0.1846447 0.48131284 8.7547979
-0.37252697 0.87181419 8.7993736
-0.37310621 0.75040442 3.2640929
-0.62840873 1.2496055 3.8578684
-0.74517483 1.4717115 3.4746816
-1.0441996 2.0544403 3.8397601
-1.0837415 2.1258578 3.2344191
-1.0601275 2.075089 2.6044073
-1.0616488 2.0611835 2.358207
-0.96480483 1.8707646 1.7796211
-0.92573714 1.792725 1.4074323
-0.90369332 1.7485535 1.1168607
-0.88642108 1.7136819 0.8678326
-0.86688495 1.6744964 0.6441828
-0.85197425 1.6442989 0.44306993
-0.83439755 1.6090171 0.25566554
-1.0229329 1.9928539 2.0762682
-0.94165605 1.8321629 1.5835092
-0.91379845 1.7764491 1.2595323
-0.89618611 1.7399851 0.99223644
-0.87654632 1.7004105 0.75496066
-0.8603096 1.6674993 0.54326761
-0.83804739 1.6236644 0.34705889
-0.82304728 1.5932542 0.166015
-0.0051614684 0.088471264 8.7339401
-0.59798419 1.2410281 8.7577286
-0.78249568 1.5979824 8.5776987
-0.43456432 0.87228364 3.1626556
-1.2405462 2.4694338 6.5700216
-1.1315575 2.2408121 4.6676908
-1.0700074 2.1116288 3.5494151
-1.0620954 2.0906198 2.8841357
-0.18296349 0.4819544 8.7547979
-0.36948147 0.87310922 8.7993736
-0.37048453 0.75170225 3.2640929
-1.3329567 2.6742737 8.1799059
-0.74003309 1.4743037 3.4746816
-1.0569707 2.0976675 3.912281
-1.088546 2.1538322 3.2703295
-1.0590044 2.0908744 2.619108
-1.0625567 2.0807576 2.3757296
-0.9671284 1.8914491 1.7953135
-0.92900115 1.8145558 1.4211395
-0.90566438 1.7674669 1.1261359
-0.8867802 1.729141 0.87345165
-0.8676061 1.6903155 0.64841288
-0.85071862 1.6560017 0.44493517
-0.83560729 1.6252065 0.25700676
-1.0278238 2.0197062 2.0995464
-0.94075984 1.8462428 1.5923386
-0.91542548 1.7949892 1.269665
-0.896299 1.7552291 0.99853063
-0.87705219 1.7160742 0.75989115
-0.85891062 1.6791468 0.54561222
-0.83914232 1.639805 0.34913093
-0.82203561 1.6050107 0.16641806
-0.0048526148 0.088488743 8.7339401
-0.59364855 1.2431079 8.7577286
-0.77691287 1.6007042 8.5776987
-0.43151686 0.87379527 3.1626556
-1.2423683 2.4947355 6.6252518
