# .PCD v0.7 - Point Cloud Data file format
VERSION 0.7
FIELDS x y z
SIZE 4 4 4
TYPE F F F
COUNT 1 1 1
WIDTH 1510
HEIGHT 1
VIEWPOINT 0 0 0 1 0 0 0
POINTS 1510
DATA ascii
0.072758786 -0.05029073 8.7139416
0.56412971 -0.12248137 3.6702929
1.7997587 -0.37960953 8.8665171
2.8460333 -0.58037412 9.3328304
3.7632675 -0.75386965 9.1014099
1.49218 -0.29560968 2.8550007
2.3448374 -0.46121699 3.5824785
3.15378 -0.61695373 3.9240992
0.49132684 -0.15219828 8.7348309
0.9139511 -0.24596699 8.7844582
2.3031893 -0.4800702 9.0956001
1.3165134 -0.26790857 3.7077
4.3024116 -0.86347806 9.1372089
2.5288093 -0.50336283 4.2876835
2.6821418 -0.52808934 3.0417519
2.027734 -0.39225259 2.1093841
2.5827439 -0.49824077 2.2033129
3.2293606 -0.62008935 1.8078631
3.315429 -0.63542473 1.4522189
2.1363866 -0.41637483 2.0197346
3.2243717 -0.6267072 2.475287
2.8963823 -0.56191123 1.8193648
3.3742087 -0.65279299 1.6762016
7.5268102 -1.4507818 1.9394977
0.07261651 -0.050572105 8.7189417
1.3883098 -0.30711067 9.0392656
1.8024046 -0.38674468 8.8860979
2.8337593 -0.58818084 9.2994261
3.7567847 -0.76622033 9.092205
1.5357447 -0.30981874 2.9383934
2.147311 -0.43014741 3.2890394
3.0164397 -0.60102314 3.7590868
0.4907926 -0.15391241 8.7348309
0.91308695 -0.24915576 8.7844582
2.3014996 -0.48810694 9.0956001
1.3071215 -0.27075124 3.684236
4.2631121 -0.87108111 9.060688
2.5091448 -0.50855976 4.257822
2.6237748 -0.52611625 2.9792743
1.9493757 -0.38415635 2.032284
2.5809891 -0.50725323 2.2033129
3.2271764 -0.63135821 1.8078631
3.36324 -0.65676785 1.4728222
10.757512 -2.092984 2.1721475
2.1349201 -0.4238297 2.0197346
3.2221644 -0.63795853 2.475287
2.7886782 -0.55112231 1.7560353
3.4119849 -0.67246604 1.695084
7.5121608 -1.4751732 1.937153
0.072439544 -0.050825275 8.7189417
1.3788912 -0.31007737 8.9849348
1.8060176 -0.39412022 8.910574
2.8243866 -0.59652609 9.2755671
3.7732155 -0.78330106 9.1382303
1.5674977 -0.32192546 2.9998405
2.1044381 -0.42920324 3.2270451
2.9012392 -0.58860326 3.6209364
0.49025235 -0.15562466 8.7348309
0.91221172 -0.25234154 8.7844582
2.2973244 -0.49560729 9.0859203
1.3061684 -0.27531227 3.684236
4.264308 -0.88684338 9.0696898
2.4664869 -0.50888169 4.1895666
2.7980087 -0.57375318 3.8568628
2.615279 -0.53391528 2.9719238
1.9759948 -0.39657333 2.0603204
2.6211851 -0.52466357 2.2378359
2.9299192 -0.5848819 2.0434523
3.3200059 -0.66036397 1.4559649
11.010343 -2.1820903 2.2225091
2.1261084 -0.4297995 2.0130837
3.1565216 -0.63641918 2.4281962
2.8543544 -0.57446265 1.7965661
3.4140666 -0.68526518 1.6971821
7.5069656 -1.5013865 1.937153
0.072261684 -0.051077828 8.7189417
1.3793154 -0.31523538 8.994813
1.8056248 -0.40064272 8.9154701
2.8120716 -0.60418576 9.2421637
1.484354 -0.31345922 3.6336112
1.5944959 -0.33327714 3.0525093
2.892889 -0.59743023 3.6132615
0.48970613 -0.15733501 8.7348309
0.91132528 -0.25552419 8.7844582
2.2943525 -0.50335395 9.0810814
1.2984504 -0.27842188 3.6654651
1.6607448 -0.35135373 3.5737085
2.4315147 -0.51052016 4.1341095
2.7723916 -0.57859111 3.8249426
2.776042 -0.57684124 3.1520069
9.2981005 -1.9001083 9.4058495
5.9908266 -1.2209729 5.0122313
2.9196646 -0.59343988 2.0379694
3.1836181 -0.64594454 1.7869939
3.3176804 -0.67194891 1.4559649
2.1757946 -0.44775611 2.0596406
3.1265647 -0.64174432 2.407594
2.8058779 -0.57490402 1.7687012
3.3227215 -0.67900401 1.6552211
11.012522 -2.2465045 4.0008907
0.072082952 -0.051329754 8.7189417
1.3872882 -0.32215986 9.0540838
1.8052083 -0.40716723 8.9203644
2.7953625 -0.61081046 9.1944427
1.4832509 -0.31863868 3.6336112
1.5886377 -0.33784425 3.0437312
2.1124034 -0.44621128 3.243577
2.9315631 -0.61609542 3.6631491
0.48887968 -0.15895328 8.7298393
0.91042781 -0.25870374 8.7844582
2.290128 -0.5108121 9.0714016
1.2873546 -0.28074512 3.6373084
1.7084564 -0.3676869 3.6772363
2.3991122 -0.51246572 4.0829182
2.74088 -0.58200532 3.7850425
2.8270802 -0.59774995 3.2108095
1.973178 -0.41035858 2.0603204
5.9636607 -1.2371334 4.9934006
2.9175754 -0.60362774 2.0379694
3.1466382 -0.64988524 1.7684435
3.2789912 -0.67603654 1.4409807
2.2838526 -0.47831202 2.1594057
2.6811676 -0.56007779 2.07796
2.8460543 -0.59349561 1.7940331
3.3158875 -0.68967402 1.653123
11.004612 -2.2849317 4.0008907
0.071870014 -0.051552888 8.7139416
0.55963767 -0.13177228 3.6554751
1.8057611 -0.41392145 8.9301548
2.7946706 -0.62088829 9.1992149
1.4821296 -0.32381424 3.6336112
1.557018 -0.33680269 2.9866731
2.0833209 -0.44766909 3.2022474
2.9764102 -0.63637823 3.7207115
0.48832187 -0.16065882 8.7298393
0.9095192 -0.26188016 8.7844582
2.2858794 -0.51824689 9.0617228
1.2846822 -0.28486335 3.6326158
1.7220484 -0.37690756 3.7087448
2.4304402 -0.52803659 4.1383753
2.7034879 -0.58393407 3.7371624
2.914464 -0.62686443 3.310039
9.3683434 -1.9826965 9.4899588
5.9250307 -1.2507074 4.9651546
2.956368 -0.62242347 2.0653841
3.1443503 -0.66086507 1.7684435
3.3038342 -0.69319016 1.4522189
11.77583 -2.4665163 3.6264021
2.391722 -0.5096274 2.2591705
2.6436133 -0.56187004 2.0514717
2.8734837 -0.60969013 1.8117652
3.2646182 -0.69090736 1.6300443
10.723981 -2.2657385 3.9039242
0.071689621 -0.051803447 8.7139416
0.5591743 -0.13372497 3.6554751
1.8033136 -0.41999108 8.9252596
2.7910302 -0.63031077 9.1944427
1.4809902 -0.3289859 3.6336112
1.5324427 -0.33708867 2.9427824
2.0707493 -0.45253485 3.1857157
2.9679065 -0.6454016 3.7130363
0.48775807 -0.1623624 8.7298393
0.90808803 -0.26490352 8.7794867
2.2816067 -0.52565831 9.0520449
1.2870467 -0.29010534 3.6420014
1.727097 -0.38433543 3.7222483
2.4515014 -0.54158151 4.1767688
2.6425712 -0.58043665 3.6573615
2.955312 -0.64645278 3.3578162
9.4694424 -2.0386543 9.5985994
5.9130177 -1.2697476 4.9588776
2.9950638 -0.64149725 2.0927987
3.1420245 -0.67183691 1.7684435
3.305928 -0.70568627 1.4540918
11.617014 -2.4756122 3.5812812
10.426259 -2.2180586 2.115258
2.754832 -0.59706789 2.5917206
2.6850939 -0.58049047 2.0838463
2.8502691 -0.61516917 1.7990994
3.2178178 -0.69274646 1.6090639
10.203547 -2.1930161 3.7214947
10.113382 -2.1699519 2.5854447
7.8101015 -1.6743301 1.206265
0.071508355 -0.052053377 8.7139416
0.55945903 -0.13585994 3.6604142
1.8107539 -0.4283945 8.9693165
2.7888131 -0.64004946 9.1944427
1.4760214 -0.33329245 3.6244061
1.5382682 -0.34400442 2.9559495
2.1021209 -0.46708643 3.235311
2.9186912 -0.64537609 3.6554739
0.48746166 -0.16415703 8.7348309
0.90715778 -0.26807174 8.7794867
2.2760863 -0.53275961 9.0375261
1.2893902 -0.29536727 3.651387
1.7151288 -0.3879596 3.6997426
2.4165161 -0.54270494 4.1213117
2.5346606 -0.56601238 3.5137208
3.0258415 -0.67295837 3.4386694
2.5087504 -0.5492267 2.6035252
5.9541817 -1.3003463 4.9965391
2.9682927 -0.6466077 2.07635
3.0574164 -0.66491359 1.7243863
3.3125052 -0.71918911 1.4578379
10.452061 -2.2617121 2.1217861
2.8256559 -0.62275404 2.6582305
2.7777963 -0.61069077 2.1544824
2.8481042 -0.62511474 1.7990994
3.1710451 -0.69426745 1.5880834
9.965168 -2.1782007 3.6393192
10.105746 -2.205241 2.5854447
7.8912997 -1.7205709 1.2186971
0.071326219 -0.05230267 8.7139416
0.55520999 -0.13687937 3.6357181
1.8191475 -0.43709305 9.0182686
2.7909231 -0.65079755 9.2087593
1.5253812 -0.34671682 2.9340041
2.1114569 -0.47690168 3.2518427
2.8570042 -0.64220291 3.5825615
0.48688567 -0.1658576 8.7348309
0.9062165 -0.27123666 8.7794867
2.2717669 -0.54011965 9.0278473
1.6967914 -0.39004126 3.6637325
2.4120643 -0.5505563 4.1170459
2.2652669 -0.51415324 3.1506286
3.1094482 -0.70295465 3.534224
2.1900432 -0.48746312 2.2846115
5.9838042 -1.3287164 5.0247855
2.8966157 -0.64159173 2.0297451
2.9988477 -0.66314709 1.6942419
3.2963943 -0.72774917 1.4522189
9.8520851 -2.1715117 3.0553389
10.703165 -2.3551888 2.1721475
2.8234651 -0.63261366 2.6582305
2.7954173 -0.62378579 1.7687012
3.1818926 -0.70829076 1.5943774
0.071143217 -0.052551325 8.7139416
0.55623603 -0.13919489 3.6455965
1.8265129 -0.44561386 9.0623264
2.7900865 -0.66087985 9.2135305
1.5358292 -0.35473508 2.9559495
2.0549262 -0.47167581 3.169184
2.8422463 -0.64931607 3.5672116
0.48630375 -0.16755614 8.7348309
0.90475422 -0.27424306 8.7745152
2.2674243 -0.54745603 9.0181694
1.6339438 -0.3815994 3.5331974
2.3948846 -0.55543667 4.0914502
2.2076716 -0.50918823 3.0748181
3.1102796 -0.71456355 3.5378993
2.1187618 -0.47936359 2.2145205
5.9601455 -1.3453104 5.0090933
2.8698826 -0.64618748 2.0132964
2.8755004 -0.64640588 1.6293155
3.2576466 -0.73112935 1.4372346
9.8116798 -2.1985464 3.0454688
10.690084 -2.3914628 2.1712151
2.8758478 -0.65490228 2.708113
8.5596733 -1.9446627 6.4750423
2.7469788 -0.62305039 1.7408363
3.0687356 -0.69435233 1.5419261
9.6775913 -2.1826985 2.483453
0.070959345 -0.05279934 8.7139416
0.55499375 -0.14094387 3.6406572
1.8348294 -0.45443633 9.1112785
2.7906651 -0.67131352 9.2230749
1.4762524 -0.34963167 3.6336112
2.0149004 -0.46989661 3.1113224
2.7369294 -0.63531381 3.4405739
0.4857159 -0.16925263 8.7348309
0.90379149 -0.27739957 8.7745152
2.2630579 -0.55476868 9.0084896
1.5775307 -0.37423158 3.4161658
2.3853157 -0.56199837 4.0786529
2.1325364 -0.49970213 2.9750674
3.0747523 -0.71770912 3.5011473
2.1031733 -0.4835597 2.2005022
2.7952025 -0.64116102 2.3947587
2.835001 -0.64873898 1.9913646
2.9034562 -0.66334617 1.6455472
3.2867131 -0.74971336 1.4503458
9.8273315 -2.2381082 3.0525188
10.969071 -2.494112 2.2271721
2.8735442 -0.66493684 2.708113
8.560709 -1.9763479 6.4809279
2.7531884 -0.63457185 1.7459027
3.0220623 -0.69488913 1.5209457
9.6746511 -2.2175522 2.4846253
11.039415 -2.528353 1.6717833
0.070774607 -0.053046711 8.7139416
0.55525076 -0.14307474 3.6455965
1.8411317 -0.46282548 9.1504402
2.7897551 -0.68140495 9.2278471
1.471224 -0.35386845 3.6244061
1.9940807 -0.47238553 3.082392
2.3384988 -0.5514257 2.9532106
0.48512214 -0.17094707 8.7348309
0.90281767 -0.28055272 8.7745152
2.2586682 -0.5620575 8.9988108
6.3230343 -1.5423788 17.753149
1.5444696 -0.37208527 3.3486478
2.3655846 -0.56607181 4.0487909
2.0838778 -0.49597815 2.9112272
3.0029557 -0.71201128 3.423969
1.9243633 -0.44952059 2.0217705
2.7664123 -0.6447295 2.3727894
2.7960641 -0.65010786 1.9666914
2.8622875 -0.6644612 1.6246779
3.2931087 -0.76327521 1.4540918
9.796092 -2.2669907 3.0454688
10.965085 -2.5334918 2.2281048
2.7948773 -0.65701854 2.6382775
2.7299705 -0.63926387 1.7332367
2.9002917 -0.67755586 1.4642982
8.1448841 -1.8998462 2.9999943
9.6763191 -2.2535145 2.4869699
11.040169 -2.5691171 1.6731646
0.070589006 -0.05329344 8.7139416
0.55474794 -0.14501205 3.6455965
1.8473974 -0.47126412 9.1896019
2.7902572 -0.69185758 9.2373915
1.4718778 -0.35946554 3.6290085
2.0307226 -0.48856023 3.1402533
2.6825542 -0.64245957 3.3791735
0.48452246 -0.17263941 8.7348309
0.90183288 -0.28370243 8.7745152
2.2542551 -0.56932241 8.9891319
6.3393874 -1.5698339 17.814156
1.5368177 -0.37592191 3.335144
2.3610599 -0.57370991 4.0445251
2.1143517 -0.51103759 2.9551175
2.9411256 -0.70820236 3.3578162
1.9227824 -0.45623514 2.0217705
2.7565696 -0.65258867 2.3665125
2.7571528 -0.65121293 1.9420182
4.049932 -0.95509017 2.2646666
3.2949369 -0.77582824 1.4559649
2.770777 -0.66156739 2.6183245
2.6330283 -0.62722826 2.054415
2.7235284 -0.6477918 1.7307036
2.9288199 -0.69501126 1.4789846
8.1336069 -1.9271767 2.9983506
11.672093 -2.7591553 1.765025
0.070402548 -0.053539518 8.7139416
0.55423838 -0.14694759 3.6455965
1.8467269 -0.47796518 9.1944971
2.7907202 -0.70232201 9.2469349
1.4573406 -0.36130896 3.5967908
2.0180702 -0.49297416 3.1237214
2.7145543 -0.66015202 3.4213862
0.48391691 -0.17432965 8.7348309
0.90083706 -0.28684866 8.7745152
2.2498186 -0.57656348 8.9794531
3.2494109 -0.81661826 9.1653872
1.5228198 -0.37813526 3.3081367
2.3539786 -0.58069849 4.0359931
2.1330397 -0.52344269 2.9830475
2.8892381 -0.70638621 3.3026886
1.8761072 -0.45208195 1.9762113
2.6596634 -0.63945782 2.2880511
2.7060702 -0.64912814 1.9091206
3.9647222 -0.94961584 2.2206097
3.2922087 -0.78732497 1.4559649
2.768451 -0.67123508 2.6183245
2.6229658 -0.63451457 2.0485287
2.7086799 -0.65425819 1.723104
2.9219637 -0.70416707 1.4768865
8.0304165 -1.9323562 2.9638367
11.657577 -2.7987258 1.7643344
0.070215233 -0.05378494 8.7139416
0.55372202 -0.14888135 3.6455965
1.8450472 -0.48440853 9.1944971
2.7911441 -0.71279806 9.2564783
2.0217998 -0.50137043 3.1319873
0.48330542 -0.17601779 8.7348309
0.89983028 -0.28999144 8.7745152
2.2453597 -0.58378053 8.9697742
3.2632618 -0.83222115 9.2123156
1.529934 -0.38557732 3.3261416
2.379766 -0.59588134 4.0829182
2.1370473 -0.53234208 2.9910276
2.9459805 -0.73116803 3.3688416
2.0234718 -0.49507686 2.1269066
2.6271653 -0.64135259 2.2629435
2.6590986 -0.6476844 1.8789644
3.2804303 -0.79662406 1.4522189
2.7479634 -0.67643219 2.6016972
2.636436 -0.64752311 2.0603011
2.7105665 -0.66473609 1.7256372
2.8489525 -0.69710249 1.4433178
7.808023 -1.9076986 2.8865919
0.069994748 -0.054000396 8.7089415
0.55244946 -0.15060838 3.6406572
1.844329 -0.49110818 9.1993933
2.7915289 -0.72328562 9.2660227
2.2176116 -0.56143177 4.2595062
2.0200374 -0.50842476 3.1319873
2.1471357 -0.53804868 2.7267978
0.48268804 -0.17770377 8.7348309
0.89881247 -0.29313067 8.7745152
2.2420926 -0.59129399 8.9649353
3.2753727 -0.84749824 9.25455
1.5285789 -0.39091542 3.3261416
2.3801992 -0.60482711 4.0871844
2.9861472 -0.75221336 3.4166188
2.2120905 -0.5494225 2.3196568
2.5795746 -0.63928288 2.225282
2.6689992 -0.6599738 1.8871889
2.9516461 -0.72878414 1.6780103
2.6420035 -0.65867776 2.0661874
2.7124124 -0.67523503 1.7281704
2.87293 -0.71360767 1.455906
7.9754815 -1.9781405 2.9490452
0.069805823 -0.054244395 8.7089415
0.5511716 -0.15232836 3.6357181
1.8435862 -0.49780864 9.2042875
2.7933183 -0.73416406 9.2803392
3.6850586 -0.95492309 9.02777
2.2133186 -0.5685733 4.2551169
2.0155237 -0.51477641 3.1278543
2.1421382 -0.54475027 2.7229605
0.48206481 -0.17938757 8.7348309
0.89727777 -0.29609865 8.7695436
2.2388008 -0.5987919 8.9600954
3.2840781 -0.86199367 9.2873993
1.527205 -0.39624882 3.3261416
2.3755481 -0.61248058 4.0829182
2.9038205 -0.74494654 4.044394
2.9802186 -0.76179272 3.4129436
2.2966101 -0.57893604 2.4072704
2.5622287 -0.64448518 2.2127283
2.6464009 -0.66419655 1.8734815
2.9233029 -0.73262149 1.6640975
2.6599324 -0.67449009 2.5252106
2.6357698 -0.66690457 2.0632443
2.7183979 -0.68681103 1.7332367
2.8616197 -0.72141272 1.4517099
10.262475 -2.579644 2.6428883
0.06961605 -0.054487731 8.7089415
0.54839236 -0.153621 3.6209002
1.8428193 -0.50450993 9.2091827
2.7936232 -0.74467933 9.2898836
3.6835926 -0.96827722 9.0323725
2.0109904 -0.52110279 3.1237214
3.291646 -0.84935933 4.1466746
0.48143569 -0.18106921 8.7348309
0.89623868 -0.29922894 8.7695436
2.2354839 -0.60627395 8.9552555
3.292722 -0.87656003 9.3202486
1.5258125 -0.40157732 3.3261416
2.3885345 -0.62472939 4.1085138
2.8720419 -0.74748796 4.0044937
2.9348807 -0.7611264 3.3651664
2.3014853 -0.58871692 2.4142797
2.526021 -0.64476067 2.1844821
2.6319101 -0.67033386 1.8652571
2.9078481 -0.7395454 1.6571411
2.6611776 -0.68470132 2.5285361
2.5903606 -0.66504377 2.0308697
2.7368627 -0.70164883 1.7459027
2.8546875 -0.73027247 1.4496119
10.291087 -2.625062 2.6522667
0.069425426 -0.054730408 8.7089415
0.54934746 -0.15595978 3.6307788
1.8420281 -0.51121199 9.2140779
2.7953296 -0.75559515 9.3041983
3.685853 -0.98263949 9.0461798
1.3988959 -0.36974308 2.7189393
2.0064378 -0.52740371 3.1195884
3.3072658 -0.86571455 4.1696997
0.48080075 -0.18274863 8.7348309
0.89468402 -0.30218443 8.7645731
2.232142 -0.61374021 8.9504166
3.2963061 -0.88984782 9.3390188
1.5222982 -0.40633938 3.3216405
2.9125347 -0.76619107 3.3431156
2.2821567 -0.59226739 2.3967569
2.5312908 -0.65552598 2.1907589
2.5971668 -0.67114693 1.8433253
2.9052489 -0.74969119 1.6571411
2.6587715 -0.69398642 2.5285361
2.6662531 -0.69445908 2.0897326
2.7343967 -0.71119797 1.7459027
2.8609068 -0.74251318 1.4538081
6.5503278 -1.6952337 1.7226189
0.069233961 -0.054972414 8.7089415
0.55029273 -0.15830711 3.6406572
1.8402326 -0.51763874 9.2140779
2.796994 -0.766532 9.3185148
3.669199 -0.99193013 9.0139618
1.3952833 -0.37400362 2.7145503
2.0018656 -0.53367937 3.1154556
3.2732449 -0.86902827 4.1313243
0.48015988 -0.18442583 8.7348309
0.89362371 -0.3053056 8.7645731
2.2275643 -0.62085283 8.9407377
3.29318 -0.90134865 9.3390188
1.5208706 -0.41165069 3.3216405
2.6979318 -0.72231615 3.7730725
2.9032912 -0.77460492 3.3357651
2.2559345 -0.59387422 2.372225
2.5365162 -0.66633582 2.1970358
2.582674 -0.67702758 1.835101
2.8511896 -0.74636561 1.6293155
2.7718334 -0.73384428 2.6349521
2.6872602 -0.70995682 2.1073916
2.6818795 -0.70754176 1.7155044
2.8231857 -0.74325085 1.4370235
6.4832535 -1.7020432 1.7073787
0.069041647 -0.055213749 8.7089415
0.5512284 -0.16066292 3.6505358
1.8393935 -0.52433848 9.2189732
2.8014922 -0.77828896 9.3423748
3.6657143 -1.0047319 9.0139618
1.3777916 -0.37447339 2.6838267
1.9972738 -0.53992939 3.1113224
3.2237661 -0.86794841 4.0737619
0.47924441 -0.18599543 8.7298393
0.89255255 -0.3084231 8.7645731
2.2241743 -0.62828296 8.9358988
3.2900138 -0.91283846 9.3390188
1.5215236 -0.41753328 3.3261416
2.695394 -0.73172921 3.7730725
2.884207 -0.78030741 3.3173892
2.541697 -0.67719018 2.2033129
2.5560491 -0.67959177 1.8186522
2.8185966 -0.74835587 1.6130838
2.7692549 -0.74351537 2.6349521
2.7394254 -0.73397893 2.148596
2.6585717 -0.71132773 1.7028385
2.8161893 -0.7519303 1.4349256
0.068848491 -0.055454414 8.7089415
0.5514093 -0.16280663 3.6554751
1.8385303 -0.5310387 9.2238684
2.8045056 -0.78968197 9.3614626
3.6584201 -1.0164754 9.0047569
1.9980912 -0.54764187 3.1154556
3.1155863 -0.85049486 3.9432869
0.47859225 -0.18766718 8.7298393
0.89147055 -0.31153682 8.7645731
2.2207592 -0.63569689 8.9310589
3.2851458 -0.92384988 9.3343267
1.5221542 -0.42342544 3.3306429
1.9120382 -0.52870852 3.3150501
2.649245 -0.7291382 3.713222
2.8912742 -0.79306102 3.3284149
2.6648104 -0.72145241 2.7927706
2.5242875 -0.68199712 2.1907589
2.6424806 -0.71245855 1.8789644
2.7646377 -0.74436915 1.5852584
2.7990668 -0.76200497 2.6648817
2.7563496 -0.74883568 2.1633117
2.6352708 -0.7149595 1.6901727
0.0686545 -0.055694401 8.7089415
0.55158192 -0.16495356 3.6604142
1.8376426 -0.53773922 9.2287636
2.8117795 -0.80233449 9.3948669
3.6529694 -1.0287099 9.0001545
1.7857282 -0.49879745 3.4650826
2.0097237 -0.55838037 3.1361201
2.9272513 -0.81006825 3.7130363
0.47793424 -0.18933663 8.7298393
0.89037764 -0.31464672 8.7645731
2.2185268 -0.64344496 8.9310589
3.2819009 -0.93531156 9.3343267
1.5248573 -0.42991799 3.3396454
1.920226 -0.53819543 3.332114
2.6524889 -0.74000108 3.7212021
2.9015532 -0.80678171 3.3431156
2.665715 -0.7316941 2.7962751
2.4993675 -0.68463409 2.1719282
2.6359441 -0.72057557 1.876223
2.7192886 -0.74234843 1.5620704
2.8071871 -0.77475107 2.6748581
2.7537191 -0.75845253 2.1633117
2.5870383 -0.71157759 1.6623077
0.068459675 -0.055933714 8.7089415
0.55100274 -0.16687794 3.6604142
1.8377069 -0.54472959 9.238555
2.8089616 -0.81214452 9.3948669
3.6474776 -1.0409186 8.9955521
1.7793674 -0.50372279 3.4563046
2.0077624 -0.5653922 3.1361201
2.782445 -0.78045815 3.5365114
0.47727042 -0.19100377 8.7298393
0.88927388 -0.31775281 8.7645731
2.2162671 -0.6511851 8.9310589
3.278616 -0.94676185 9.3343267
1.5296267 -0.43703279 3.3531489
1.915827 -0.5441823 3.3278482
6.529489 -1.8463403 9.0598545
2.7877758 -0.78563672 3.2181599
2.6494017 -0.73717046 2.7822568
2.4857111 -0.69022989 2.1625128
2.685797 -0.74428988 1.911862
2.7764511 -0.76837796 1.5945336
2.7828915 -0.77850944 2.6549051
2.7549479 -0.76914728 2.166255
2.6011484 -0.72523499 1.6724405
0.068264015 -0.056172337 8.7089415
0.55041689 -0.16880028 3.6604142
1.8367692 -0.55143404 9.2434502
2.8061097 -0.82194471 9.3948669
3.643822 -1.0536444 8.9955521
2.0274243 -0.57857591 3.169184
2.7365408 -0.77789509 3.4827864
0.4766008 -0.1926686 8.7298393
0.88815933 -0.32085502 8.7645731
2.2139807 -0.65891737 8.9310589
3.2752912 -0.95820063 9.3343267
1.538547 -0.44539711 3.3756549
6.5056248 -1.8641409 9.0359144
8.0528603 -2.2999249 9.1572256
2.6502445 -0.74738216 2.7857616
2.5207543 -0.7094481 2.1938975
2.7113621 -0.76157612 1.9310523
2.7652216 -0.77567196 1.589896
2.7550116 -0.78108919 2.6316266
2.7522464 -0.77875912 2.166255
2.6110461 -0.73782712 1.68004
0.068067521 -0.056410283 8.7089415
0.5505662 -0.1709515 3.6653535
1.8367814 -0.55843484 9.2532396
2.8032236 -0.8317349 9.3948669
3.6401217 -1.0663573 8.9955521
1.9022954 -0.55290478 3.6977041
2.0443149 -0.59112191 3.1981144
0.47592536 -0.19433108 8.7298393
0.88703388 -0.3239533 8.7645731
2.2116671 -0.66664153 8.9310589
3.2719264 -0.96962756 9.3343267
1.5474273 -0.45382902 3.3981609
2.1798778 -0.63567942 3.7843029
6.4903965 -1.8843179 9.0239439
8.0512962 -2.3299055 9.1645765
2.7882071 -0.79680878 2.9294479
2.5407205 -0.72464871 2.2127283
2.6885786 -0.76531166 1.9173449
2.7582362 -0.7841084 1.5875772
2.7630343 -0.79379433 2.641603
2.7184279 -0.77944851 2.1427097
2.5711565 -0.73625594 1.6572415
0.0678702 -0.056647539 8.7089415
0.54848397 -0.17240526 3.6554751
1.835794 -0.56514269 9.2581348
2.800303 -0.84151489 9.3948669
3.6345043 -1.0785013 8.9909496
1.9256254 -0.5669843 3.7459838
2.0557415 -0.60221034 3.2187793
2.1741288 -0.63444388 2.788198
0.47497755 -0.19588023 8.7248468
0.8858977 -0.32704768 8.7645731
2.2105289 -0.67472476 8.9358988
3.2685218 -0.98104286 9.3343267
1.560441 -0.46356854 3.4296696
2.2301695 -0.65880316 3.8738875
6.4924521 -1.9095129 9.0359144
8.0788994 -2.3684869 9.2050028
2.8436425 -0.8233999 2.9890254
2.5381753 -0.73351306 2.2127283
2.6175911 -0.75499117 1.8707401
2.8108194 -0.80967242 1.6177214
2.7925115 -0.81282645 2.6715326
2.7001643 -0.78442204 2.1309371
2.5313103 -0.73441541 1.6344428
9.0904617 -2.6323907 4.4624152
0.067703106 -0.056914747 8.7139416
0.5508399 -0.17526318 3.6752322
1.8347822 -0.57185054 9.2630301
2.7944925 -0.85041529 9.3853226
3.6307173 -1.0911815 8.9909496
1.896094 -0.56548709 3.6933148
2.0698135 -0.61418647 3.243577
2.2087855 -0.65293378 2.8342481
0.47429091 -0.19753702 8.7248468
0.88475066 -0.330138 8.7645731
2.2105615 -0.68317926 8.9455767
3.2683799 -0.99345011 9.3437119
1.5734056 -0.47340438 3.4611781
2.2103667 -0.66135007 3.8440261
6.4828596 -1.9313037 9.0319242
8.0705833 -2.3966732 9.2050028
2.8407509 -0.83332109 2.9890254
5.6285763 -1.6479902 4.8113704
2.5507226 -0.74535739 1.8268765
2.807976 -0.81947917 1.6177214
2.7717505 -0.81728882 2.6549051
2.6625118 -0.78357154 2.1044486
2.565954 -0.75418794 1.6572415
9.0812178 -2.6641064 4.4624152
0.067504026 -0.057150729 8.7139416
0.54874587 -0.17670752 3.6653535
1.8337457 -0.57855815 9.2679262
2.7972131 -0.86192334 9.4044104
3.6268864 -1.1038485 8.9909496
1.8918155 -0.57140958 3.6889257
2.0434027 -0.61411726 3.2063804
2.200352 -0.65880102 2.8265731
0.47359851 -0.19919141 8.7248468
0.8835929 -0.33322439 8.7645731
2.209363 -0.69126695 8.9504166
3.2599447 -1.0033298 9.3296347
1.5842377 -0.48270166 3.4881854
2.1631179 -0.65544617 3.7672393
6.4789629 -1.9547918 9.0359144
8.0134716 -2.4101834 9.1498756
2.8207321 -0.83815283 2.9715025
5.6004 -1.6609869 4.7925396
2.5080109 -0.74238765 1.7994618
2.7583702 -0.8154608 1.5922148
2.597156 -0.77566773 2.495281
2.6636338 -0.79401541 2.1073916
8.889142 -2.6414919 4.3742971
0.067304119 -0.057386011 8.7139416
1.3354661 -0.43581238 8.9306021
1.8326851 -0.58526552 9.2728214
2.7984622 -0.87301612 9.418726
3.6230111 -1.1165019 8.9909496
1.8714877 -0.57240474 3.6538131
2.022402 -0.61551017 3.1774499
2.2103081 -0.67019838 2.841923
0.4729003 -0.20084336 8.7248468
0.88242429 -0.33630666 8.7645731
2.2093332 -0.69973415 8.9600954
3.2415948 -1.0100819 9.2873993
1.6012644 -0.49400601 3.5286961
1.6147912 -0.49543059 2.8329997
6.4778638 -1.9791569 9.0438948
7.9952798 -2.4351773 9.1388493
2.8109593 -0.84593827 2.9644933
2.5713601 -0.7723698 2.247251
2.4973936 -0.74873596 1.7939789
2.4729216 -0.74797302 2.3822141
2.6879325 -0.8114863 2.1279938
2.8288972 -0.85297674 1.821898
8.8885603 -2.6751206 4.3784933
0.067103393 -0.057620596 8.7139416
1.3346746 -0.44071525 8.9355421
1.8306309 -0.59165925 9.2728214
2.7982445 -0.8836785 9.4282703
3.6209569 -1.1297238 8.9955521
1.8534641 -0.57397372 3.6230896
2.0094843 -0.61925048 3.1609178
2.1711867 -0.6666193 2.7958732
0.47246131 -0.20260753 8.7298393
0.88124502 -0.33938485 8.7645731
2.2092712 -0.70820957 8.9697742
3.215009 -1.014122 9.2216997
1.5974523 -0.49894333 3.524195
1.5482967 -0.48094484 2.7220855
6.4766726 -2.0035377 9.0518742
7.9575739 -2.4540792 9.105773
2.651068 -0.8079192 2.8032842
2.5165153 -0.76548159 2.2033129
2.4787605 -0.75258946 1.7830131
2.3596244 -0.72270155 2.2791235
2.600045 -0.79486513 2.0632443
2.813534 -0.85906959 1.8142985
8.8444366 -2.6955459 4.3617086
0.066901855 -0.057854477 8.7139416
1.3250222 -0.44266081 8.8812094
1.8285545 -0.59804571 9.2728214
2.8022518 -0.89571357 9.4521303
3.6188543 -1.1429448 9.0001545
1.8514494 -0.58043998 3.6230896
1.9938792 -0.62207001 3.1402533
2.5483778 -0.79218698 3.2717235
0.47175121 -0.20425548 8.7298393
0.88005501 -0.3424589 8.7645731
2.2091765 -0.71669298 8.9794531
3.185147 -1.0169392 9.146616
1.5873985 -0.50189072 3.5061903
6.4840174 -2.0306361 9.071825
7.9457235 -2.4808311 9.1020985
2.7368317 -0.84450978 2.8944025
2.4580302 -0.7570743 2.1562359
2.4841123 -0.76369506 1.788496
9.3127766 -2.8560636 4.0238929
2.3428223 -0.72650981 2.2658215
2.4543884 -0.75971162 1.9543474
2.8105183 -0.8688854 1.8142985
8.8523207 -2.7317555 4.370101
0.066699497 -0.058087658 8.7139416
1.3212609 -0.44653639 8.8663921
1.8264558 -0.60442489 9.2728214
2.8019485 -0.90640897 9.4616737
3.6167033 -1.1561648 9.0047569
1.8402809 -0.58400095 3.6055334
1.9782789 -0.62478817 3.1195884
2.6709502 -0.84052914 3.4290612
0.47103533 -0.20590095 8.7298393
0.87885422 -0.34552875 8.7645731
2.2090497 -0.72518444 8.9891319
3.17501 -1.0259285 9.1278448
1.5545373 -0.49747363 3.4386718
2.2705564 -0.72277009 3.9677382
6.4567833 -2.0468829 9.0438948
7.9305501 -2.5065084 9.0947475
2.8053508 -0.87639117 2.9679978
2.6857536 -0.83749378 2.3508203
2.5053861 -0.77981812 1.8049449
8.5146742 -2.6438496 3.6904929
2.3972695 -0.75257808 2.3190296
2.6561451 -0.83233696 2.1103349
2.8897479 -0.90444398 1.864962
0.066465914 -0.058288846 8.7089415
1.3196943 -0.45114574 8.8663921
1.8233694 -0.61047328 9.2679262
2.7973487 -0.91571951 9.4569016
3.6145041 -1.1693839 9.0093594
1.8336707 -0.58895606 3.5967553
1.946602 -0.62226325 3.074126
2.7535124 -0.87708867 3.5365114
0.47031376 -0.20754392 8.7298393
0.87764275 -0.34859443 8.7645731
2.2088907 -0.73368376 8.9988108
3.158288 -1.0327138 9.0903034
1.5134426 -0.49014974 3.3531489
2.2829134 -0.73549062 3.9933336
6.4409914 -2.0666471 9.0319242
7.9217529 -2.5341759 9.0947475
2.9178834 -0.92274058 3.0871525
2.6419842 -0.83397448 2.3162973
2.5146134 -0.79232889 1.8131692
9.0759048 -2.8528898 3.9321144
2.3732772 -0.75415641 2.2990766
2.6724873 -0.84771436 2.1250505
2.9030111 -0.9197337 1.8750948
0.066262044 -0.0585205 8.7089415
1.3181114 -0.45574957 8.8663921
1.8212272 -0.61683428 9.2679262
3.6104 -1.1819937 9.0093594
4.6581593 -1.5143021 9.043602
1.944418 -0.62905443 3.074126
2.7717884 -0.89357966 3.563374
0.4695864 -0.20918435 8.7298393
0.87592614 -0.35145676 8.7596016
2.2098908 -0.74259138 9.0133295
3.1497488 -1.0421056 9.0762243
1.5158597 -0.49678591 3.3621514
2.2803323 -0.74345493 3.9933336
6.4251399 -2.0863256 9.0199537
7.9160838 -2.5628567 9.098423
2.8331292 -0.90682697 3.0030434
2.5945654 -0.8289755 2.2786357
2.5277669 -0.80618399 1.8241352
10.06429 -3.2022228 4.3554196
2.3635213 -0.76014966 2.2924254
2.7310884 -0.87680787 2.1721413
0.066057362 -0.058751442 8.7089415
1.3165125 -0.46034786 8.8663921
1.8171366 -0.62252748 9.2581348
2.6790776 -0.89775002 9.079916
3.6081069 -1.1952037 9.0139618
4.6073437 -1.5155841 8.9558201
1.9716276 -0.64546996 3.1195884
2.7534165 -0.89827865 3.5441864
0.46859047 -0.21070299 8.7248468
0.87469399 -0.35451221 8.7596016
2.2096651 -0.75111008 9.0230074
3.1444554 -1.052546 9.0715313
1.5244477 -0.50550097 3.3846574
2.2628632 -0.74650729 3.9677382
6.4092307 -2.1059189 9.0079842
7.9038677 -2.5894182 9.0947475
2.7756634 -0.89912564 2.9469705
2.554621 -0.82605094 2.247251
2.516979 -0.81243366 1.8186522
10.114829 -3.2572284 4.3816423
2.3502026 -0.76492828 2.282449
2.6857252 -0.87259638 2.1397665
7.2346153 -2.3478367 4.5551977
0.065851882 -0.058981668 8.7089415
1.3148975 -0.46494055 8.8663921
1.8139905 -0.62853324 9.2532396
2.6759276 -0.90709633 9.079916
3.600208 -1.2065493 9.0047569
4.5770283 -1.5233374 8.9075413
1.9506639 -0.64615345 3.0906579
2.686347 -0.88678294 3.4635987
0.46785212 -0.21233737 8.7248468
0.87345117 -0.35756329 8.7596016
2.2094069 -0.75963622 9.0326862
3.135859 -1.0618552 9.0574541
1.5185461 -0.5094341 3.3756549
2.2503481 -0.75109833 3.9506745
6.3989811 -2.1273279 9.003994
7.9076529 -2.6212585 9.1094484
2.5183473 -0.82549101 2.6841297
2.5480227 -0.83375263 2.2441127
2.553875 -0.83419842 1.8460668
2.3439715 -0.7719593 2.2791235
2.6481047 -0.8706038 2.1132779
7.2058983 -2.3663511 4.542532
0.065645598 -0.059211176 8.7089415
1.3132666 -0.46952757 8.8663921
1.8098638 -0.6341877 9.2434502
2.6925125 -0.92321092 9.1467228
3.5996749 -1.2203637 9.0139618
4.5784926 -1.5415978 8.9207077
1.961737 -0.65743005 3.1113224
2.677155 -0.89412385 3.455924
0.46710807 -0.2139692 8.7248468
0.87170535 -0.36040577 8.7546301
2.2091162 -0.76816982 9.042366
3.1288683 -1.0716764 9.048068
1.5167586 -0.51473171 3.3756549
2.2279453 -0.75227338 3.9165471
6.3858042 -2.1477304 8.9960136
7.8984542 -2.6488457 9.1094484
2.4612918 -0.81631291 2.628057
2.5081468 -0.83040744 2.2127283
2.5707986 -0.84966928 1.8597742
2.3412628 -0.78013659 2.2791235
2.6297081 -0.87473863 2.1015053
7.1812305 -2.3860531 4.5323997
0.065438509 -0.059439957 8.7089415
1.3116196 -0.47410884 8.8663921
1.8028405 -0.63880032 9.2189732
2.707607 -0.93896335 9.2087593
3.5990894 -1.234189 9.0231667
1.8276469 -0.6224128 3.6055334
1.9700904 -0.66788828 3.1278543
2.6527617 -0.89628094 3.4290612
0.46635833 -0.2155984 8.7248468
0.87044197 -0.36344638 8.7546301
2.2087929 -0.77671069 9.0520449
3.1169555 -1.0797668 9.0246038
1.5108347 -0.51860917 3.3666525
2.2104979 -0.75498742 3.8909514
6.3754158 -2.1690373 8.9920244
7.8731079 -2.6709545 9.091073
2.627027 -0.87995648 2.3162973
2.6114385 -0.87322485 1.8899302
2.3385253 -0.78830433 2.2791235
2.6113153 -0.87875581 2.0897326
7.1851158 -2.4152262 4.539999
0.06533467 -0.059554081 8.7089415
1.3107902 -0.47639734 8.8663921
1.7970392 -0.63992274 9.1944971
2.7441854 -0.95648289 9.3376026
3.5955153 -1.2385767 9.0185642
1.822244 -0.62341326 3.5967553
2.0118952 -0.6848045 3.1939816
2.6395233 -0.89540225 3.4137111
0.46616998 -0.2160053 8.7248468
0.87012452 -0.36420587 8.7546301
2.2094359 -0.77867049 9.0568848
3.1080501 -1.0791122 9.0011406
1.5085044 -0.51869214 3.3621514
2.1755564 -0.74432385 3.8312285
6.3718052 -2.1702909 8.9880342
2.8151565 -0.95007539 2.9995389
2.7879484 -0.93873584 2.4543893
2.6576254 -0.89331383 1.922828
2.3378365 -0.79034483 2.2791235
2.5494215 -0.8599081 2.0426424
7.1834278 -2.4202418 4.539999
0.065115951 -0.059793144 8.7089415
1.3090353 -0.48119843 8.8663921
1.7897794 -0.64509112 9.1700211
2.7770903 -0.97992957 9.4616737
1.7880466 -0.61974055 3.5353079
2.0568905 -0.70975018 3.2683747
2.6024086 -0.89498365 3.3714988
0.46540791 -0.21832313 8.7298393
0.86839855 -0.36830217 8.7546301
2.2079706 -0.79030585 9.0665627
3.0946023 -1.0914178 8.9776773
1.5017498 -0.52488381 3.3531489
2.0978634 -0.7296207 3.7032504
6.3575077 -2.2026372 8.9840441
2.7440073 -0.94797939 3.2255101
2.8049059 -0.95808148 2.9925296
2.6259117 -0.8954134 2.3194356
2.6858425 -0.91429192 1.9447596
2.3342259 -0.80094546 2.2791235
2.5950511 -0.88894165 2.0809033
2.6528223 -0.90770608 1.7332367
0.064917311 -0.060008746 8.7089415
1.3081607 -0.48580742 8.8713322
1.7818904 -0.64893121 9.1406498
2.7963207 -0.99715674 9.5380259
1.7385161 -0.60903507 3.4431372
2.128922 -0.74251848 3.3840973
2.5479591 -0.88571596 3.3062611
0.46471971 -0.21978417 8.7298393
0.86772704 -0.37123874 8.7596016
2.2078412 -0.79809338 9.0762415
3.0799706 -1.0965426 8.9448271
1.5042914 -0.53078634 3.3621514
1.9948004 -0.70041233 3.528347
6.3481002 -2.2204957 8.9800539
2.7859967 -0.97174913 3.2769625
2.7612622 -0.95340967 2.950475
2.5198932 -0.8685984 2.231559
2.7658269 -0.95176715 2.0023305
2.3316982 -0.80827463 2.2791235
2.6419017 -0.91427511 2.1191642
2.6825511 -0.92730314 1.7535021
0.064707451 -0.060234983 8.7089415
1.3071842 -0.49064398 8.8762703
1.7738817 -0.6530357 9.1112785
2.79844 -1.0089372 9.5571136
1.5172961 -0.54101914 3.8545325
1.7724993 -0.62789768 3.5133626
2.1316245 -0.75181741 3.3923631
2.5327568 -0.89035231 3.2909112
0.46394968 -0.22140501 8.7298393
0.86642593 -0.37426543 8.7596016
2.2074032 -0.80665845 9.0859203
3.0824254 -1.1101633 8.9635983
1.5002857 -0.53556418 3.3576503
1.9799322 -0.70335311 3.5070174
6.3370781 -2.2427425 8.9760647
2.7728257 -0.97856891 3.2659371
2.7747514 -0.96892124 2.9679978
2.6160805 -0.91198522 2.3162973
2.8533168 -0.99302816 2.0653841
2.3322434 -0.81805128 2.282449
2.6423481 -0.92528802 2.1221075
0.064496793 -0.060460489 8.7089415
1.30619 -0.49547973 8.8812094
1.7658659 -0.65709221 9.0819063
2.8061204 -1.0227896 9.5952902
1.5245874 -0.54962587 3.8775451
1.7928436 -0.64215833 3.5572534
2.1077833 -0.75169069 3.3592994
2.2185647 -0.7886048 2.895648
0.46317402 -0.22302316 8.7298393
0.86560255 -0.37750119 8.7645731
2.2057528 -0.81479448 9.0907602
3.085017 -1.1232781 8.9823685
1.5127404 -0.54597235 3.3891585
2.0216451 -0.72613108 3.5838039
6.3263745 -2.263834 8.9720745
2.8486953 -1.0059136 3.0486023
2.6679444 -0.94052386 2.3633742
2.8380003 -0.99881732 2.0571597
2.3293736 -0.82618731 2.282449
2.6086206 -0.92371184 2.0985622
0.064256109 -0.060652878 8.7039413
1.3051779 -0.50031447 8.8861494
1.7578436 -0.66110069 9.0525351
2.809536 -1.0351593 9.6191492
1.5208241 -0.55427521 3.8729424
1.8288722 -0.66227782 3.6318676
2.0442619 -0.73708779 3.2642415
2.2037332 -0.79200757 2.8802981
0.46213344 -0.22451156 8.7248468
0.86427951 -0.3805204 8.7645731
2.2052503 -0.82336855 9.1004381
3.0843163 -1.1352323 8.9917545
1.5271853 -0.55722016 3.4251683
1.9872305 -0.72160989 3.528347
6.3127666 -2.2838531 8.9640942
2.1568408 -0.77813792 2.5639806
2.8686767 -1.0242459 3.0731344
2.6499798 -0.9446032 2.3508203
2.3264754 -0.83431333 2.282449
2.5787423 -0.92327428 2.07796
0.064043999 -0.060876805 8.7039413
1.3048725 -0.50542909 8.8960276
1.7536217 -0.66650891 9.0427446
2.82409 -1.0517337 9.6811857
1.5152137 -0.55822939 3.8637373
1.8287984 -0.66948116 3.6362567
2.0125945 -0.73361683 3.2187793
2.1617923 -0.78546435 2.8304105
0.46134695 -0.22612335 8.7248468
0.86294597 -0.383535 8.7645731
2.2035387 -0.83150518 9.105278
3.0948908 -1.151408 9.0339899
1.4639595 -0.53994334 3.2901318
2.0263197 -0.7438224 3.600868
6.3104157 -2.307945 8.9720745
2.1063378 -0.7682361 2.508853
2.8449578 -1.0269876 3.0521069
2.4928732 -0.89841801 2.2190051
5.6283698 -2.0251844 4.0063419
6.0263834 -2.1636655 2.6753092
6.3084021 -2.2624431 2.0598557
2.327059 -0.84370184 2.2857745
2.5603013 -0.92676687 2.0661874
0.063831106 -0.061099991 8.7039413
1.3031002 -0.50998086 8.8960276
1.7493838 -0.67189574 9.0329552
2.8259895 -1.0636889 9.7002735
1.4217174 -0.52941763 3.6336112
1.8309425 -0.67752343 3.6450353
2.2162023 -0.8140043 2.9033232
0.46055481 -0.22773236 8.7248468
0.86160195 -0.38654488 8.7645731
2.2006228 -0.83919191 9.105278
3.0763156 -1.1567371 8.9917545
1.4457477 -0.53896546 3.2541223
2.1948671 -0.81440759 3.8994834
6.3107996 -2.3330932 8.9840441
2.1958871 -0.80959612 2.6154327
2.7844036 -1.0161269 2.9925296
2.5043502 -0.91244435 2.231559
5.6134071 -2.04196 4.0008593
6.0231528 -2.1862702 2.6771824
6.3185053 -2.2909904 2.0654957
2.3240998 -0.85181963 2.2857745
2.6101921 -0.95514536 2.1073916
9.0223513 -3.2981 5.7305932
0.063617446 -0.061322428 8.7039413
1.3020346 -0.51481235 8.9009676
1.7451292 -0.67726099 9.0231647
2.8208642 -1.0730163 9.6955013
1.3869499 -0.52198708 3.5507658
1.8375392 -0.68726707 3.6625915
2.3001335 -0.85668159 3.6775367
0.45975706 -0.2293386 8.7248468
0.86073273 -0.38977051 8.7695436
2.1988528 -0.8473205 9.110117
3.0690329 -1.1662422 8.9823685
2.2555006 -0.84587771 4.0103974
6.3110847 -2.3582721 8.9960136
2.713923 -1.0011532 2.9224389
5.5748491 -2.0499966 3.9789276
6.0198359 -2.2088785 2.6790552
6.2879496 -2.3047774 2.0584457
2.3386183 -0.86641318 2.302402
2.606842 -0.96425074 2.1073916
9.0107832 -3.3295736 5.7305932
0.063403003 -0.06154412 8.7039413
1.3009512 -0.51964259 8.9059067
1.7418067 -0.68297666 9.0182686
2.8184948 -1.0833919 9.7002735
1.3449483 -0.51154166 3.4495103
1.8172071 -0.68690133 3.6274788
2.3208313 -0.87362856 3.7147334
2.6275887 -0.98599333 3.4367363
0.45869625 -0.23081143 8.7198553
0.85985148 -0.39299485 8.7745152
2.1958816 -0.85499072 9.110117
3.0584998 -1.1744733 8.9635983
2.3061855 -0.8740831 4.104248
6.3112712 -2.3834813 9.0079842
2.780277 -1.047179 3.2990136
2.7037292 -1.0081286 2.9154298
2.6547711 -0.98830062 2.3665125
6.0164356 -2.2314904 2.6809282
6.2798657 -2.3267126 2.0584457
2.3775394 -0.89028424 2.342308
2.6186047 -0.97900677 2.1191642
8.9587221 -3.3459239 5.7052612
0.063187785 -0.061765064 8.7039413
1.2991294 -0.52418059 8.9059067
1.7384654 -0.68867737 9.0133734
2.8105218 -1.0916022 9.6859579
1.7857137 -0.68212831 3.5704205
2.2914665 -0.87171793 3.6734035
2.6061492 -0.98833954 3.4137111
0.45788777 -0.23241118 8.7198553
0.85847443 -0.39599389 8.7745152
2.1917143 -0.86219037 9.105278
3.0495551 -1.1832693 8.9495201
2.4443767 -0.93623799 4.3516722
6.3113585 -2.4087203 9.0199537
2.7766047 -1.0568776 3.2990136
2.7502503 -1.0364252 2.9679978
2.6513052 -0.99756145 2.3665125
6.2851839 -2.3536663 2.0626757
2.4128294 -0.91311586 2.3788886
2.6302958 -0.99385637 2.1309371
8.9308558 -3.3710856 5.6951284
0.062971801 -0.061985254 8.7039413
1.2980113 -0.52900571 8.9108458
1.7351058 -0.69436312 9.0084782
2.8039153 -1.1003153 9.6764135
4.4979544 -1.7363914 8.9031515
2.2805297 -0.87668175 3.6610048
2.6026833 -0.99743062 3.4137111
0.45707369 -0.23400809 8.7198553
0.85756993 -0.39921361 8.7794867
2.1875231 -0.86937124 9.1004381
3.0421929 -1.1926471 8.940135
2.4410939 -0.94476479 4.3516722
6.3085351 -2.432905 9.0279341
2.760242 -1.0616947 3.2843127
2.7532814 -1.0485578 2.9750071
2.7169318 -1.033096 2.4261432
6.4912767 -2.4644642 4.6368794
6.2365508 -2.3603096 2.0499854
2.4445016 -0.93487066 2.4121435
2.6343625 -1.0059158 2.1368234
0.062755048 -0.062204693 8.7039413
1.2961568 -0.53353339 8.9108458
1.7336153 -0.70079726 9.0133734
2.801445 -1.1106464 9.6811857
1.3577036 -0.53273553 3.4955354
4.4896345 -1.7512112 8.8987627
2.2774558 -0.88463694 3.6610048
2.5991857 -1.0065097 3.4137111
0.45625407 -0.23560216 8.7198553
0.85713565 -0.40265912 8.7894306
2.1833088 -0.87653345 9.0956001
3.0348027 -1.201988 8.9307489
6.5987768 -2.5925364 14.723216
2.4280653 -0.94948035 4.3346086
6.3056192 -2.4570994 9.0359144
2.7344 -1.0627261 3.2585866
2.8095131 -1.0812188 3.0380888
2.687876 -1.0328004 2.4041741
6.4670186 -2.4811168 4.6259131
6.2148323 -2.3769238 2.0457554
2.4899817 -0.96224153 2.4587004
2.6610031 -1.026746 2.1603687
0.062537529 -0.062423363 8.7039413
1.2978734 -0.53954685 8.9355421
1.7311584 -0.70684445 9.0133734
2.7920082 -1.1181982 9.662097
1.3576518 -0.53819168 3.5001378
4.4901791 -1.7695067 8.9119301
2.2717345 -0.89155322 3.6568718
2.6046112 -1.0190803 3.4252236
0.45568451 -0.23732755 8.7248468
0.85620624 -0.40587753 8.7944021
2.1790712 -0.88367677 9.0907602
3.027384 -1.2112919 8.9213629
6.5937333 -2.6171613 14.732218
6.3054152 -2.4824066 9.047884
2.6549404 -1.0425239 3.1703827
2.8555784 -1.1104075 3.0906572
2.6842544 -1.0421765 2.4041741
6.4349265 -2.4946074 4.6094646
2.4935637 -0.97364354 2.4653516
2.6348076 -1.0272188 2.1427097
8.3206511 -3.2406995 5.3328843
0.062347464 -0.062674567 8.7089415
1.2931166 -0.54287004 8.9157839
1.7286805 -0.712883 9.0133734
2.7894716 -1.1284971 9.6668692
1.3557649 -0.54292744 3.5001378
4.4706235 -1.7798538 8.8855953
2.2633767 -0.89740306 3.6486058
2.6099806 -1.031701 3.4367363
0.45485333 -0.23891674 8.7248468
0.8552649 -0.40909436 8.7993736
2.1748102 -0.89080119 9.0859203
3.0215375 -1.2212054 8.9166708
6.299511 -2.5055153 9.0518742
2.6008656 -1.0317818 3.1115801
2.8682811 -1.1268892 3.1081796
2.5900137 -1.016003 2.3257127
6.4028192 -2.5079041 4.5930161
2.5144625 -0.99193347 2.4886301
2.6612921 -1.0482609 2.166255
8.3052778 -3.2681458 5.3303509
0.062128309 -0.062891811 8.7089415
1.289068 -0.54647022 8.9009676
1.7271216 -0.71930456 9.0182686
2.7551172 -1.1258035 9.5618858
4.4599404 -1.7936611 8.8768177
2.2576184 -0.90425187 3.6444731
2.6004097 -1.0384276 3.4290612
0.4540166 -0.24050303 8.7248468
0.85431147 -0.41230956 8.8043451
2.1716874 -0.89838725 9.0859203
3.0156584 -1.2310926 8.9119778
1.9559984 -0.78857291 3.519815
6.3075037 -2.53423 9.0758152
2.817925 -1.1184746 3.0591161
2.5357926 -1.0049599 2.2817743
6.370698 -2.5210073 4.5765672
6.9660501 -2.7481949 2.2911012
2.5179217 -1.0034692 2.495281
2.6613722 -1.0590388 2.169198
8.4700756 -3.3671868 5.4418106
0.061936378 -0.063141778 8.7139416
1.2842957 -0.5497427 8.8812094
1.7255386 -0.7257238 9.0231647
2.7014983 -1.1149099 9.3900948
4.4447761 -1.8056126 8.8592606
2.2361879 -0.90473825 3.6155422
2.5819068 -1.0415027 3.4098735
0.45292008 -0.24194948 8.7198553
0.85382497 -0.41575697 8.8142872
2.1685383 -0.90596247 9.0859203
3.0097473 -1.2409538 8.9072847
1.679961 -0.68714845 3.8167739
1.9580649 -0.79736346 3.528347
6.2902427 -2.5528324 9.0638447
2.6313081 -1.0651801 3.1556821
2.7676625 -1.1097221 3.0100524
2.5792441 -1.032613 2.3225741
6.3540936 -2.5401254 4.571084
8.3689642 -3.3422287 4.8037524
6.9341335 -2.7636139 2.2840509
9.7152262 -3.9113448 9.4089966
2.5676513 -1.0321393 2.0985622
8.6822872 -3.4866955 5.5836687
0.061715595 -0.063357592 8.7139416
1.2795163 -0.55298859 8.8614531
1.7239321 -0.7321409 9.02806
2.6355898 -1.0984868 9.175355
6.4858561 -2.6770866 16.589718
4.4340148 -1.8192983 8.8504829
2.2225966 -0.90828001 3.5990105
2.5782557 -1.0505089 3.4098735
0.45207277 -0.24352901 8.7198553
0.85284662 -0.41897044 8.8192587
2.1653626 -0.91352648 9.0859203
3.0038044 -1.2507888 8.9025927
1.6654804 -0.68802053 3.7897668
1.9190903 -0.78931105 3.4643579
2.630712 -1.0756418 3.1593573
2.7208016 -1.1019715 2.9644933
2.6153162 -1.0576628 2.3570971
6.329679 -2.5560267 4.5601182
8.0696783 -3.2554119 4.6414366
6.8710451 -2.7663028 2.2671306
9.7672281 -3.9719577 9.4721804
2.5790131 -1.0471786 2.1103349
6.1638985 -2.4941065 2.4034002
0.06146631 -0.063538961 8.7089415
1.2811387 -0.55900621 8.8861494
1.7232374 -0.73895693 9.0378504
2.5615754 -1.0781426 8.9319849
6.4674554 -2.6959515 16.566706
4.423213 -1.8329312 8.8417053
2.1699913 -0.89563239 3.5204844
2.5567889 -1.052183 3.3868487
0.45096678 -0.24496692 8.7148647
0.85185635 -0.42218214 8.8242302
2.1621606 -0.92107946 9.0859203
2.9994202 -1.2612666 8.9025927
1.6510143 -0.68879986 3.7627592
1.8970557 -0.78800046 3.4302304
1.7369913 -0.71903837 2.564095
2.6081402 -1.0770535 3.1373062
2.726841 -1.1155133 2.9750071
2.557559 -1.0447066 2.3100204
6.3478198 -2.5891604 4.5793085
9.7774801 -4.0159578 9.4954586
2.6015201 -1.0669111 2.1309371
8.7694244 -3.5929856 5.6545973
9.7632027 -3.9941981 4.9638495
6.1682687 -2.5209672 2.4083309
0.061244149 -0.063753136 8.7089415
1.2798904 -0.56378824 8.8910885
1.7234503 -0.74618173 9.0525351
2.5523014 -1.0847417 8.9128962
6.4688087 -2.7230587 16.594318
4.4123688 -1.8465104 8.8329268
2.0395806 -0.85014558 3.31797
0.45010895 -0.24653962 8.7148647
0.85085392 -0.42539206 8.8292027
2.1589322 -0.92862117 9.0859203
2.9949992 -1.2717288 8.9025927
1.6425817 -0.6920228 3.7492557
1.8846738 -0.79058182 3.4131668
1.7205704 -0.71928543 2.5441449
2.5355284 -1.0574409 3.0564525
2.6800828 -1.1073208 2.9294479
2.4927292 -1.0283912 2.2566667
6.3928709 -2.6336014 4.6176891
9.7392607 -4.0400481 9.4721804
2.5865772 -1.0713452 2.1221075
9.7030611 -4.0091891 4.9407716
6.0895925 -2.5136547 2.3820348
0.060993724 -0.063932665 8.7039413
1.2793344 -0.56888425 8.9009676
1.723634 -0.75341707 9.0672216
2.5471277 -1.0930555 8.908124
6.4520717 -2.7425649 16.575909
4.4036903 -1.8609688 8.8285379
1.9380448 -0.81577015 3.1609178
1.8252976 -0.76607645 2.44666
0.44924557 -0.24810928 8.7148647
0.85031521 -0.4288407 8.8391457
2.1568305 -0.93665242 9.0907602
2.9905417 -1.2821754 8.9025927
1.6421592 -0.69860464 3.753757
1.8867056 -0.79919046 3.4216986
1.656978 -0.69950205 2.4563644
7.58076 -3.192812 8.9955187
2.5972123 -1.0837084 2.8453388
2.5394247 -1.0580449 2.3006048
2.6412206 -1.1064104 2.6316266
2.6835017 -1.1224829 2.2015729
7.209424 -3.0083442 3.6987243
0.060770184 -0.064145178 8.7039413
1.2759233 -0.57270974 8.8910885
1.7237879 -0.76066273 9.0819063
2.556993 -1.1078755 8.9558439
4.3927617 -1.8744493 8.8197594
1.9843904 -0.84344691 3.239444
1.8462212 -0.78245008 2.4773602
0.44862852 -0.24981718 8.7198553
0.84928799 -0.43204847 8.8441172
2.1535478 -0.94417542 9.0907602
2.986048 -1.2926066 8.9025927
1.6537117 -0.71034789 3.7852654
1.8910979 -0.80884856 3.4344964
1.6545262 -0.70528167 2.4563644
7.5602098 -3.2152741 8.9844923
2.5046809 -1.0553769 2.750716
2.6038816 -1.0955849 2.3602357
6.8677673 -2.8854885 4.9685965
2.5479352 -1.0778011 2.5451636
2.6497798 -1.1192605 2.1780276
8.7750063 -3.7030566 5.6824627
6.9061136 -2.9101236 3.5518603
0.060545906 -0.064356916 8.7039413
1.2725011 -0.57651836 8.8812094
1.7248424 -0.76833314 9.1014881
2.5572131 -1.1185893 8.9701605
4.3839922 -1.8888237 8.8153696
2.059011 -0.88366616 3.3634324
2.1352031 -0.91374218 2.8572731
0.44775376 -0.25138167 8.7198553
0.84777462 -0.4350104 8.8441172
2.150239 -0.95168698 9.0907602
2.9815178 -1.3030219 8.9025927
1.6432334 -0.71265084 3.7672606
1.8930515 -0.81751311 3.4430282
1.6603572 -0.71462691 2.4683344
7.5613999 -3.2469952 8.9991932
2.4747295 -1.052943 2.7226796
2.6681061 -1.1335874 2.4198663
6.9115443 -2.9323082 5.0069776
2.5578921 -1.0925552 2.5584655
2.6532927 -1.1316749 2.1839139
8.5796032 -3.6559296 5.5659366
0.060320888 -0.064567871 8.7039413
1.2697743 -0.58063334 8.8762703
1.72865 -0.77727324 9.1357546
2.614738 -1.1546477 9.1848993
4.3729801 -1.9022045 8.806592
2.092062 -0.90651321 3.421294
2.1320004 -0.9211899 2.8572731
0.44687355 -0.2529431 8.7198553
0.84672409 -0.43821257 8.8490877
2.146904 -0.95918697 9.0907602
2.9769511 -1.3134215 8.9025927
1.6028477 -0.70179015 3.6817374
1.8949676 -0.82620102 3.4515603
1.7103599 -0.74323821 2.5441449
7.5375786 -3.2679753 8.9844923
2.4382725 -1.0474974 2.6876342
2.6605558 -1.1413591 2.4167278
6.9089537 -2.9597094 5.0124602
9.1685419 -3.9239244 5.306932
2.5026352 -1.0792972 2.5085831
2.6530383 -1.1425284 2.186857
7.9450941 -3.4183688 5.1682272
0.060095139 -0.06477803 8.7039413
1.2670345 -0.58473647 8.8713322
1.7333431 -0.78667021 9.1749163
2.6706781 -1.1905134 9.3948669
4.3663135 -1.9174575 8.806592
2.192008 -0.95892799 3.5866117
0.44598788 -0.25450143 8.7198553
0.84566158 -0.44141278 8.8540592
2.1423969 -0.96615827 9.0859203
2.970772 -1.3231028 8.8978996
1.5605674 -0.68977624 3.5917132
1.9016199 -0.83701372 3.4686239
1.77122 -0.77704984 2.6359155
2.5104764 -1.0988121 3.0491023
2.4804051 -1.0758708 2.7366979
2.6636987 -1.1537334 2.4230046
6.8525262 -2.9638882 4.9795628
2.4851594 -1.0820639 2.495281
2.6416206 -1.1485587 2.1809707
7.9647446 -3.4598219 5.1884923
0.059868652 -0.064987406 8.7039413
1.2649857 -0.58915567 8.8713322
1.7361405 -0.79526103 9.2042875
2.750901 -1.23781 9.6907291
4.3574047 -1.9317166 8.8022032
2.1783509 -0.96202594 3.5700798
2.4628515 -1.0846225 3.2985859
0.44509676 -0.25605667 8.7198553
0.84458703 -0.44461083 8.8590307
2.1390114 -0.97363079 9.0859203
2.9645615 -1.332757 8.8932066
1.5422465 -0.68812203 3.5557036
1.9082197 -0.84788299 3.4856877
1.7988027 -0.7966513 2.6798058
2.52213 -1.1144199 3.0674782
2.5191019 -1.1031201 2.7822568
2.6560891 -1.1614649 2.4198663
6.8459711 -2.9894633 4.9823041
8.5887318 -3.7469339 4.9915752
2.4027512 -1.0561731 2.4187946
2.6746066 -1.1740196 2.2104025
7.9407759 -3.4824092 5.1808934
0.059641439 -0.065195993 8.7039413
1.2643275 -0.59422904 8.8812094
1.7453681 -0.80687279 9.2679262
2.7438457 -1.2461703 9.6811857
3.7351499 -1.6808279 9.7089434
4.3484488 -1.9459364 8.7978144
2.1621287 -0.96389431 3.5494151
2.4707656 -1.0984216 3.313936
0.44420028 -0.2576088 8.7198553
0.84255934 -0.4473058 8.8540592
2.1344573 -0.98056656 9.0810814
2.9598913 -1.3430971 8.8932066
1.5696077 -0.70691293 3.6232216
1.9147668 -0.85880852 3.5027514
1.9252993 -0.86073178 2.8673368
2.5244167 -1.1259791 3.0748284
2.5152359 -1.1119066 2.7822568
2.6555793 -1.1723013 2.4230046
