# .PCD v0.7 - Point Cloud Data file format
VERSION 0.7
FIELDS x y z
SIZE 4 4 4
TYPE F F F
COUNT 1 1 1
WIDTH 1471
HEIGHT 1
VIEWPOINT 0 0 0 1 0 0 0
POINTS 1471
DATA ascii
-0.99418533 0.95689589 2.596045
-1.0358574 0.99426126 2.1814091
-0.95966619 0.91921574 1.6676468
-0.33123323 0.39351103 8.7348309
-0.62297773 0.6861192 8.6005125
-0.81221837 0.78987968 3.1351826
-0.97136682 0.93949503 2.8580153
-1.02443 0.98775268 2.3978746
-1.0052528 0.96692067 1.9217011
-0.937419 0.90011322 1.4871573
-0.92675424 0.88399416 1.3383839
-0.90111274 0.85864687 1.0860223
-0.88595623 0.84333295 0.8865537
-0.87727094 0.83449209 0.72034597
-0.86749136 0.82462293 0.57189339
-0.86278641 0.81958783 0.43972805
-0.85147297 0.80828226 0.31436834
-0.83444095 0.7915709 0.19620402
-0.92262161 0.88252264 1.218289
-0.89319688 0.85349327 0.98310447
-0.88360941 0.84375215 0.80356008
-0.8776387 0.83718294 0.64815581
-0.86174881 0.82146102 0.5035038
-0.84124076 0.80136132 0.3709369
-0.83907413 0.79902512 0.25381708
-0.83221257 0.79194784 0.14001752
-0.033813305 0.081870385 8.728941
-0.970056 0.97593462 8.7478504
-1.2355839 1.2274096 8.396575
-0.69819981 0.68415618 3.1721995
-0.9429822 0.91775948 3.1595511
-0.99427831 0.96369439 2.6048231
-1.0344038 0.99982691 2.1855421
-0.96106535 0.92701066 1.6753218
-0.32985762 0.39466488 8.7348309
-0.62057894 0.68828958 8.6005125
-0.80945623 0.79271001 3.1351826
-0.97120011 0.94591808 2.8670177
-1.0228468 0.99313951 2.4021404
-1.0083644 0.97671354 1.9336712
-0.93914545 0.90809339 1.4945077
-0.92623472 0.88969433 1.3418884
-0.90091836 0.86448216 1.0891607
-0.88904399 0.85220754 0.89203662
-0.87755156 0.84061366 0.72266477
-0.86460763 0.82764602 0.57189339
-0.86338657 0.82591045 0.44113809
-0.84864634 0.81124955 0.31436834
-0.8388747 0.8013587 0.19709818
-0.92222446 0.88832819 1.2216145
-0.8960371 0.86221135 0.98899078
-0.88376606 0.84981942 0.80609328
-0.87798405 0.84338552 0.65025389
-0.86228269 0.82773429 0.50514728
-0.84194601 0.80765784 0.37210923
-0.83985406 0.80537671 0.25450778
-0.83665723 0.80176127 0.14042059
-0.033527318 0.081987917 8.728941
-0.96664345 0.97931486 8.7478504
-1.2255341 1.2259535 8.3574133
-0.69474512 0.68554056 3.1674278
-0.94535339 0.92651606 3.1779611
-0.99262214 0.96883225 2.6092124
-1.0349402 1.0073575 2.1938081
-0.96242166 0.93482649 1.6829967
-0.32847795 0.39581388 8.7348309
-0.61852771 0.69084918 8.605484
-0.80791271 0.79674256 3.1398752
-0.97100043 0.95235145 2.8760202
-1.0231031 1.0003507 2.4106722
-1.0114197 0.98653978 1.9456413
-0.93839866 0.91373128 1.4981829
-0.9256866 0.8954016 1.3453929
-0.90069425 0.87032646 1.0922991
-0.88907218 0.85820991 0.89477807
-0.87780005 0.84674728 0.72498357
-0.86505097 0.83387643 0.57376641
-0.86049837 0.82891917 0.44113809
-0.84934825 0.81761366 0.31530097
-0.83966124 0.80773455 0.19754526
-0.92179787 0.89414173 1.2249401
-0.89592463 0.86814678 0.99193394
-0.88389099 0.85589808 0.80862641
-0.87829673 0.84960073 0.65235192
-0.86278325 0.83402127 0.50679076
-0.84261751 0.81396896 0.37328154
-0.83703768 0.80830342 0.25450778
-0.83744836 0.808146 0.14062211
-0.033240922 0.082104452 8.728941
-0.96321911 0.98268312 8.7478504
-1.2198128 1.2287782 8.3476229
-0.69234788 0.68796146 3.1674278
-0.94628453 0.93392783 3.1917689
-0.99265015 0.97564918 2.6179905
-1.0354366 1.0149037 2.2020738
-0.9637351 0.94266307 1.6906718
-0.32709432 0.39695805 8.7348309
-0.61611241 0.69300407 8.605484
-0.80635089 0.8007741 3.1445682
-0.96921885 0.95726496 2.8805215
-1.0214633 1.0057459 2.4149382
-1.0144185 0.99639922 1.9576114
-0.94004446 0.92174864 1.5055332
-0.9276644 0.90360439 1.3524021
-0.90322977 0.87889427 1.0985761
-0.88906926 0.86422271 0.89751953
-0.87801641 0.85289288 0.72730237
-0.86213493 0.836891 0.57376641
-0.86104286 0.83525801 0.4425481
-0.84648907 0.82057345 0.31530097
-0.84041345 0.8141256 0.19799234
-0.92134202 0.89996302 1.2282655
-0.89288878 0.87126887 0.99193394
-0.88398415 0.86198777 0.81115961
-0.8785767 0.85582829 0.65445
-0.86325032 0.84032172 0.5084343
-0.84325516 0.82029456 0.37445387
-0.83421105 0.81122029 0.25450778
-0.84178799 0.81802779 0.14102517
-0.032967087 0.082261637 8.7339401
-0.95978308 0.98603928 8.7478504
-1.2069399 1.2243259 8.2888803
-0.68994224 0.69037402 3.1674278
-0.94717526 0.9413572 3.2055764
-0.99264258 0.98247808 2.6267686
-1.035893 1.0224658 2.2103398
-0.9650054 0.95052004 1.6983467
-0.32570666 0.39809743 8.7348309
-0.6136896 0.69515049 8.605484
-0.80477083 0.80480438 3.1492608
-0.96741492 0.96217763 2.8850226
-1.0197982 1.0111417 2.419204
-1.0152186 1.0041724 1.9655914
-0.93923342 0.92740643 1.5092083
-0.92705047 0.90933448 1.3559066
-0.90293634 0.8847661 1.1017146
-0.88903522 0.87024599 0.90026098
-0.87820047 0.85905021 0.72962117
-0.86252344 0.84313601 0.57563943
-0.86155343 0.84161055 0.44395813
-0.84713459 0.82695466 0.31623358
-0.84113127 0.82053167 0.19843942
-0.92085665 0.90579212 1.231591
-0.89272505 0.87721342 0.9948771
-0.88404566 0.86808866 0.81369281
-0.87882382 0.86206818 0.65654802
-0.863684 0.8466357 0.51007777
-0.84733099 0.83003581 0.37679848
-0.83491242 0.81759214 0.25519845
-0.83892739 0.82096124 0.14102517
-0.03267974 0.082376212 8.7339401
-0.95687509 0.98994237 8.7527885
-1.1784458 1.2037885 8.1224422
-0.68752825 0.69277817 3.1674278
-0.94802576 0.94880426 3.219384
-0.99090314 0.98762792 2.6311576
-1.0363089 1.0300432 2.2186055
-0.96850836 0.96065485 1.7098594
-0.32431507 0.39923191 8.7348309
-0.61161023 0.69768965 8.6104555
-1.3915529 1.4147139 7.6776481
-0.80317229 0.8088333 3.1539536
-0.96558833 0.9670893 2.889524
-1.0199533 1.018381 2.427736
-1.0181116 1.0140898 1.9775614
-0.94079822 0.93546039 1.5165586
-0.92894483 0.91757751 1.3629158
-0.90261292 0.89064658 1.104853
-0.88896996 0.87627953 0.9030025
-0.87835217 0.86521918 0.73193997
-0.86287874 0.84939378 0.57751244
-0.85861039 0.84461284 0.44395813
-0.84424287 0.82990664 0.31623358
-0.84181446 0.82695264 0.1988865
-0.92034185 0.91162866 1.2349164
-0.89253056 0.88316739 0.99782026
-0.88407522 0.87420028 0.81622595
-0.87903816 0.86832029 0.65864611
-0.86408395 0.85296273 0.51172131
-0.84788877 0.83640194 0.37797081
-0.83205342 0.82050151 0.25519845
-0.83961505 0.82739133 0.14122671
-0.032391995 0.082489781 8.7339401
-0.95341367 0.99327642 8.7527885
-1.153658 1.1867186 7.9804807
-0.68510574 0.69517386 3.1674278
-0.94883567 0.95626861 3.2331915
-0.99083018 0.99447423 2.6399357
-1.0366846 1.037636 2.2268715
-0.97195184 0.97082543 1.7213718
-0.32291949 0.4003616 8.7348309
-0.60917115 0.69982034 8.6104555
-1.3953881 1.4285556 7.7260423
-0.80034405 0.81163198 3.1539536
-0.96373928 0.972 2.8940251
-1.0182313 1.0237844 2.4320021
-1.0188203 1.0219055 1.9855415
-0.93992257 0.94113749 1.5202339
-0.92826456 0.92332971 1.3664203
-0.90225941 0.89653546 1.1079915
-0.88887328 0.88232309 0.90574402
-0.87847161 0.87139964 0.73425877
-0.86649323 0.85892814 0.58125854
-0.85906494 0.85098088 0.44536817
-0.84483182 0.83630443 0.31716621
-0.84246314 0.83338839 0.19933358
-0.92244083 0.92010963 1.2415675
-0.89230537 0.88913059 1.0007634
-0.8840729 0.88032287 0.81875914
-0.87921941 0.87458414 0.66074419
-0.86445028 0.85930294 0.51336479
-0.84841233 0.84278214 0.37914312
-0.83269817 0.82689035 0.25588912
-0.84026802 0.83383614 0.14142823
-0.032103851 0.082602352 8.7339401
-0.94994062 0.99659842 8.7527885
-1.1191053 1.159233 7.7699862
-0.68267494 0.69756109 3.1674278
-0.94960505 0.96375018 3.246999
-0.9890371 0.99962956 2.644325
-1.03702 1.045244 2.2351375
-0.97533631 0.98103178 1.7328844
-0.32152003 0.40148634 8.7348309
-0.60707271 0.70234621 8.615427
-1.3851427 1.4280037 7.6970057
-0.79871327 0.81565392 3.1586463
-0.96339476 0.97846079 2.9030275
-1.0183165 1.031044 2.4405339
-1.0194867 1.0297387 1.9935215
-0.94140607 0.94922721 1.5275841
-0.93007481 0.93161201 1.3734293
-0.90462703 0.90518594 1.1142684
-0.89170247 0.89133286 0.91122693
-0.87855846 0.87759155 0.73657757
-0.86677074 0.86522281 0.58313155
-0.85948539 0.85736233 0.44677821
-0.84538633 0.8427164 0.31809881
-0.843077 0.83983862 0.19978066
-0.92185766 0.92597014 1.2448931
-0.89490265 0.89796615 1.0066497
-0.88403857 0.88645595 0.82129234
-0.87936753 0.88085985 0.66284221
-0.86478281 0.86565596 0.51500833
-0.84890181 0.84917623 0.38031548
-0.83330828 0.83329362 0.25657982
-0.83735234 0.8367641 0.14142823
-0.031827707 0.082755744 8.7389402
-0.94699007 1.0004727 8.7577286
-1.1058937 1.1535753 7.7063479
-0.68023586 0.69993985 3.1674278
-0.95169985 0.97264528 3.2654092
-0.98722011 1.0047843 2.6487141
-1.0373147 1.0528669 2.2434032
-0.98091304 0.99355447 1.7482344
-0.32011661 0.40260622 8.7348309
-0.60496402 0.70486593 8.6203995
-0.79586124 0.81843692 3.1586463
-0.96149528 0.98337454 2.9075289
-1.0183634 1.0383164 2.4490657
-1.0201108 1.0375887 2.0015016
-0.94046557 0.95492303 1.5312593
-0.93183863 0.93991834 1.3804384
-0.90420353 0.91110092 1.1174068
-0.89153254 0.89740658 0.91396838
-0.88173586 0.88693619 0.74121517
-0.87028432 0.87481642 0.58687764
-0.85987175 0.86375695 0.44818825
-0.84590644 0.84914237 0.31903145
-0.84014034 0.84277642 0.19978066
-0.92386973 0.93449312 1.2515441
-0.89460582 0.90395755 1.0095929
-0.88397211 0.8925994 0.82382548
-0.87948263 0.88714725 0.6649403
-0.86508149 0.87202179 0.51665181
-0.84935677 0.85558385 0.38148779
-0.83388388 0.83971113 0.25727049
-0.83794785 0.84322566 0.14162977
-0.031538639 0.082866341 8.7389402
-0.943492 1.0037723 8.7577286
-1.1011584 1.1566911 7.7014532
-0.6777885 0.70231003 3.1674278
-0.95238268 0.9801653 3.2792168
-0.98537916 1.0099387 2.6531031
-1.035601 1.058493 2.2475364
-0.9841702 1.0038391 1.7597468
-0.31888741 0.40394834 8.7398224
-0.60284519 0.70737946 8.625371
-1.3820896 1.4449064 7.7357211
-0.79419804 0.82245159 3.1633391
-0.96108949 0.98984873 2.9165311
-1.0165522 1.0437331 2.4533315
-1.0185876 1.0432994 2.0054917
-0.94186711 0.96304774 1.5386096
-0.93105388 0.94570678 1.383943
-0.90648186 0.91979653 1.1236838
-0.89133114 0.90349001 0.91670984
-0.88174659 0.89316112 0.74353397
-0.87048334 0.88114703 0.58875066
-0.86022383 0.87016469 0.44959825
-0.8463918 0.85558218 0.31996405
-0.84069687 0.84924304 0.20022772
-0.92321771 0.94037676 1.2548696
-0.89427799 0.90995771 1.012536
-0.88387358 0.89875329 0.82635868
-0.87956446 0.89344615 0.66703832
-0.86534619 0.87840027 0.51829535
-0.84977728 0.86200482 0.38266009
-0.83442473 0.84614289 0.25796115
-0.83499938 0.84614551 0.14162977
-0.03124919 0.082975924 8.7389402
-0.93998241 1.0070596 8.7577286
-1.1006107 1.164228 7.7259288
-0.67533284 0.70467168 3.1674278
-0.95302463 0.98770189 3.2930243
-0.98518062 1.0168126 2.6618812
-1.0358214 1.0661384 2.2558022
-0.98736757 1.0141585 1.7712594
-0.31747547 0.40505901 8.7398224
-0.60071617 0.70988685 8.6303425
-1.3796341 1.4524564 7.7502394
-0.79132229 0.82521886 3.1633391
-0.96065009 0.99633205 2.9255335
-1.0165287 1.0510249 2.4618633
-1.0170369 1.0490122 2.0094817
-0.9432233 0.97119379 1.5459599
-0.932733 0.95405143 1.3909521
-0.90598792 0.92573702 1.1268222
-0.89109802 0.90958279 0.9194513
-0.88172454 0.89939696 0.74585277
-0.87064868 0.88748962 0.59062368
-0.8605417 0.87658542 0.45100829
-0.84684259 0.86203569 0.32089669
-0.83772737 0.85217243 0.20022772
-0.92514223 0.94894081 1.2615205
-0.89391917 0.91596663 1.0154792
-0.88374269 0.90491724 0.82889187
-0.87961298 0.89975643 0.6691364
-0.86557686 0.88479108 0.51993883
-0.8501634 0.8684392 0.38383242
-0.83839566 0.85612661 0.25934252
-0.83553743 0.85262328 0.14183129
-0.030947415 0.083042532 8.7339401
-0.93698949 1.0109046 8.7626677
-1.0979337 1.1695477 7.7357197
-0.67286897 0.70702469 3.1674278
-0.95362556 0.99525499 3.3068321
-0.98328561 1.0219712 2.6662703
-1.0340472 1.0717727 2.2599351
-0.98827696 1.0222079 1.7789344
-0.31605959 0.40616474 8.7398224
-0.59857702 0.71238792 8.635314
-0.78843689 0.82797605 3.1633391
-0.96017718 1.0028244 2.934536
-1.0164666 1.058329 2.4703953
-1.0154587 1.0547267 2.0134716
-0.94218075 0.97692072 1.5496351
-0.93188113 0.95986032 1.3944566
-0.90546358 0.93168521 1.1299607
-0.8908332 0.91568488 0.92219275
-0.88166958 0.90564328 0.74817157
-0.87078029 0.89384395 0.59249669
-0.86082512 0.88301885 0.45241833
-0.84725863 0.8685028 0.32182932
-0.83822632 0.85865498 0.2006748
-0.92442107 0.9548471 1.2648461
-0.89634222 0.92488676 1.0213655
-0.88658053 0.91418582 0.83395821
-0.87962818 0.90607786 0.67123443
-0.86577344 0.89119422 0.52158237
-0.85051483 0.87488675 0.38500473
-0.83540213 0.85904795 0.25934252
-0.83604032 0.85911512 0.14203283
-0.030657351 0.083150059 8.7339401
-0.93345505 1.0141691 8.7626677
-1.1118926 1.1927408 7.8629956
-0.67039686 0.70936918 3.1674278
-0.95418525 1.0028241 3.3206394
-0.98302096 1.0288608 2.6750484
-1.0322466 1.0774078 2.2640681
-0.98914212 1.0302758 1.7866094
-0.3146399 0.40726551 8.7398224
-0.59642768 0.71488279 8.6402855
-0.78554195 0.83072317 3.1633391
-0.95967054 1.0093255 2.9435384
-1.0163659 1.0656455 2.4789271
-1.0117708 1.058265 2.0134716
-0.9434545 0.98510063 1.5569855
-0.93099993 0.96567482 1.3979613
-0.90490872 0.93764108 1.1330991
-0.89053667 0.92179632 0.92493427
-0.88158172 0.91190028 0.75049037
-0.87087822 0.90021014 0.59436977
-0.86107409 0.88946503 0.45382836
-0.84422183 0.87145507 0.32182932
-0.83869016 0.86515141 0.20112188
-0.92625761 0.9634515 1.271497
-0.89591098 0.93092239 1.0243087
-0.88637424 0.92038012 0.83649141
-0.87960982 0.9124102 0.67333251
-0.86265731 0.89421088 0.52158237
-0.85083163 0.88134736 0.38617706
-0.83583844 0.86552101 0.26003322
-0.83650815 0.86562073 0.14223436
-0.030355269 0.083214529 8.728941
-0.92938519 1.0168476 8.7577286
-1.1326182 1.2235187 8.0392237
-0.66791666 0.71170497 3.1674278
-0.95336205 1.0089891 3.3298445
-0.98272026 1.0357611 2.6838267
-1.0323584 1.0850822 2.2723341
-0.98775142 1.0360423 1.790447
-0.31321633 0.40836132 8.7398224
-0.59426814 0.71737117 8.645256
-0.78381848 0.83471829 3.1680319
-0.95913029 1.0158353 2.9525409
-1.0162264 1.0729742 2.4874589
-1.0101452 1.0639756 2.0174615
-0.94468248 0.99330121 1.5643358
-0.93255574 0.97407103 1.4049703
-0.90701634 0.94641459 1.139376
-0.89020824 0.92791671 0.92767572
-0.88146096 0.91816771 0.75280917
-0.87094218 0.90658784 0.59624279
-0.86128855 0.89592355 0.4552384
-0.84458029 0.87793672 0.32276195
-0.83911884 0.87166142 0.20156896
-0.92546707 0.9693796 1.2748226
-0.89824116 0.93988854 1.030195
-0.88613558 0.92658412 0.83902454
-0.87955803 0.9187535 0.67543054
-0.86279738 0.90062672 0.52322584
-0.85111362 0.88782078 0.38734937
-0.83623964 0.87200761 0.26072389
-0.83348143 0.86853546 0.14223436
-0.030064611 0.083319977 8.728941
-0.92583013 1.0200856 8.7577286
-1.1531423 1.2544556 8.2154522
-0.66542828 0.71403205 3.1674278
-0.94983429 1.0123107 3.3298445
-0.98238337 1.0426718 2.692605
-1.0304968 1.0907247 2.2764668
-0.988536 1.0441394 1.7981219
-0.31178901 0.40945217 8.7398224
-0.59176046 0.71944112 8.645256
-0.59345257 0.64230424 3.4044361
-0.7809 0.83744931 3.1680319
-0.95855618 1.0223535 2.9615433
-1.0160482 1.0803148 2.4959908
-1.0064251 1.0674951 2.0174615
-0.94586468 1.0015224 1.5716861
-0.93160701 0.97990507 1.4084748
-0.90639043 0.95239455 1.1425145
-0.88984782 0.93404597 0.93041718
-0.88130718 0.92444533 0.75512797
-0.87097239 0.91297692 0.59811586
-0.86146832 0.90239435 0.45664841
-0.84151053 0.88087952 0.32276195
-0.83951229 0.87818491 0.20201604
-0.92464638 0.97531396 1.2781481
-0.89773715 0.94595021 1.0331382
-0.88586426 0.93279755 0.8415578
-0.87947261 0.9251076 0.67752856
-0.862903 0.90705425 0.52486938
-0.85136068 0.89430684 0.3885217
-0.83660561 0.87850738 0.26141456
-0.83389115 0.87505627 0.14243589
-0.029773585 0.083424419 8.728941
-0.92278373 1.0238885 8.7626677
-1.169346 1.2810373 8.3623085
-0.6629318 0.7163505 3.1674278
-0.9462949 1.0156201 3.3298445
-0.98201001 1.0495926 2.7013831
-1.0286087 1.0963676 2.2805998
-0.98708057 1.0499189 1.8019594
-0.31035784 0.41053802 8.7398224
-0.5895822 0.72191566 8.6502275
-0.59290594 0.64622474 3.414115
-0.77914429 0.84143645 3.1727247
-0.95794821 1.02888 2.9705458
-1.014051 1.085761 2.5002568
-1.004752 1.0732015 2.0214517
-0.94700098 1.0097638 1.5790365
-0.93307692 0.98833746 1.415484
-0.90840721 0.96121055 1.1487914
-0.8923291 0.94322169 0.93590009
-0.88112026 0.93073308 0.75744677
-0.8709684 0.91937721 0.59998888
-0.86161339 0.90887743 0.45805845
-0.84181136 0.88737535 0.32369456
-0.83987033 0.88472176 0.20246312
-0.92379558 0.9812544 1.2814735
-0.89720184 0.95201987 1.0360813
-0.88556033 0.93902045 0.844091
-0.87935352 0.93147218 0.67962664
-0.86297429 0.91349357 0.52651286
-0.85157281 0.90080529 0.38969401
-0.833534 0.88142228 0.26141456
-0.83083159 0.87796181 0.14243589
-0.029482197 0.083527833 8.728941
-0.91920406 1.0271033 8.7626677
-1.1758062 1.2971839 8.4406319
-0.65941739 0.71756089 3.1626556
-0.94141734 1.017483 3.325242
-0.98160022 1.0565236 2.7101612
-1.0247753 1.0999514 2.2805998
-0.98778403 1.0580441 1.8096343
-0.30892289 0.41161886 8.7398224
-0.58705866 0.72396928 8.6502275
-0.58641517 0.64364344 3.3899181
-0.77620238 0.84415102 3.1727247
-0.95730633 1.0354148 2.9795482
-1.0138016 1.0931188 2.5087888
-1.0009997 1.0767022 2.0214517
-0.94809115 1.0180254 1.5863868
-0.93449932 0.9967922 1.422493
-0.9077099 0.96721393 1.1519299
-0.8918941 0.94937831 0.93864155
-0.88090014 0.93703067 0.75976557
-0.87093031 0.92578852 0.60186189
-0.8617236 0.91537231 0.45946848
-0.84207702 0.89388406 0.32462719
-0.84019297 0.89127171 0.2029102
-0.92546427 0.98992819 1.2881246
-0.89663506 0.95809716 1.0390246
-0.88817024 0.94839901 0.84915733
-0.8792007 0.9378472 0.68172467
-0.86301112 0.91994435 0.5281564
-0.85174996 0.90731615 0.39086631
-0.83045214 0.88432652 0.26141456
-0.82776183 0.88085651 0.14243589
-0.029190453 0.083630234 8.728941
-0.91561317 1.0303057 8.7626677
-1.1685468 1.2982527 8.421052
-0.65690857 0.71985829 3.1626556
-0.93653828 1.0193242 3.3206394
-0.98277789 1.0652246 2.7233284
-1.0228404 1.1055875 2.2847328
-0.98626381 1.0638363 1.8134719
-0.30748421 0.41269469 8.7398224
-0.58486176 0.7264297 8.6551991
-0.58416486 0.64568651 3.3899181
-0.77441436 0.84812987 3.1774173
-0.95515841 1.0403539 2.9840493
-1.0135128 1.1004881 2.5173206
-1.0054107 1.0890464 2.0374117
-0.94913512 1.0263067 1.5937371
-0.93344402 1.0026584 1.4259976
-0.90963525 0.97607166 1.1582067
-0.89427924 0.95860112 0.94412446
-0.88064677 0.94333804 0.76208436
-0.87085807 0.93221074 0.60373497
-0.861799 0.92187905 0.46087852
-0.84230745 0.90040535 0.32555979
-0.84048015 0.89783478 0.20335729
-0.92454338 0.99588913 1.29145
-0.89878815 0.96714306 1.0449109
-0.88778973 0.95465028 0.85169047
-0.87901402 0.9442324 0.68382275
-0.86301333 0.92640638 0.52979988
-0.85189193 0.91383922 0.39203864
-0.83073753 0.89084166 0.26210526
-0.82809055 0.88739324 0.14263742
-0.028898351 0.083731629 8.728941
-0.91201115 1.0334955 8.7626677
-1.1633296 1.3015646 8.4161568
-0.65439183 0.72214699 3.1626556
-0.93429101 1.0240304 3.325242
-0.98228908 1.0721807 2.7321064
-1.0189749 1.1091511 2.2847328
-0.98688585 1.0719891 1.821147
-0.30621266 0.41399816 8.7448139
-0.58265477 0.72888362 8.6601706
-0.58022785 0.64585114 3.3802392
-0.77144915 0.85082787 3.1774173
-0.95152104 1.0436816 2.9840493
-1.0114253 1.1059438 2.5215867
-1.0138197 1.1058767 2.061352
-0.95013285 1.0346078 1.6010875
-0.93478 1.0111482 1.4330066
-0.90886617 0.9820978 1.1613452
-0.8937692 0.96478444 0.94686598
-0.88036001 0.94965494 0.76440316
-0.87075162 0.93864369 0.60560799
-0.86183947 0.92839748 0.46228856
-0.8458457 0.91053802 0.32742503
-0.84073156 0.9044106 0.20380437
-0.92612273 1.004601 1.2981011
-0.89814776 0.97324502 1.0478541
-0.88737661 0.96091056 0.85422367
-0.87879336 0.95062762 0.68592077
-0.86298096 0.93287975 0.53144342
-0.84869689 0.91680735 0.39203864
-0.82762283 0.893736 0.26210526
-0.82838368 0.89394289 0.14283895
-0.028595127 0.083789699 8.7239418
-0.90839809 1.0366727 8.7626677
-1.1621579 1.3094256 8.4406319
-0.65186709 0.72442687 3.1626556
-0.93595695 1.0330774 3.3436522
-0.98337507 1.0809182 2.7452738
-1.0188898 1.1168593 2.2929986
-0.98746294 1.0801589 1.828822
-0.30476567 0.41506451 8.7448139
-0.58010697 0.73091298 8.6601706
-0.57796991 0.64787251 3.3802392
-0.76847452 0.85351557 3.1774173
-0.9478721 1.0469968 2.9840493
-1.0110651 1.1133293 2.5301185
-1.0221233 1.1227789 2.0852921
-0.95108408 1.0429282 1.6084378
-0.93365633 1.0170323 1.4365112
-0.91069967 0.99099636 1.1676221
-0.89605778 0.97405332 0.95234889
-0.88003981 0.95598143 0.76672196
-0.87061059 0.94508713 0.607481
-0.86184478 0.93492728 0.46369857
-0.84599286 0.9170956 0.32835767
-0.83756948 0.90733981 0.20380437
-0.92765248 1.0133358 1.304752
-0.89747584 0.97935432 1.0507972
-0.88984382 0.97035664 0.85929
-0.87853879 0.95703286 0.68801886
-0.86291385 0.93936408 0.5330869
-0.84878087 0.9233427 0.39321095
-0.82785004 0.90026486 0.26279593
-0.82864106 0.90050524 0.14304048
-0.02830247 0.083889008 8.7239418
-0.90426397 1.039251 8.7577286
-1.1602725 1.3165303 8.4602137
-0.64933437 0.72669786 3.1626556
-0.94018412 1.0450535 3.3712673
-0.98601741 1.0914534 2.76283
-1.0225415 1.1287516 2.3095305
-0.98799509 1.0883459 1.8364969
-0.30331495 0.41612583 8.7448139
-0.57788157 0.73335266 8.665143
-0.57570487 0.64988607 3.3802392
-0.76549047 0.85619283 3.1774173
-0.94857734 1.0551561 2.9975529
-1.0106655 1.1207256 2.5386503
-1.0343624 1.1442232 2.1172123
-0.9519887 1.0512677 1.6157881
-0.93490535 1.0255563 1.4435203
-0.90985852 0.9970445 1.1707606
-0.89547229 0.98026246 0.95509034
-0.87968618 0.96231717 0.76904076
-0.87043536 0.95154113 0.60935402
-0.86181504 0.94146842 0.4651086
-0.8461045 0.9236654 0.32929027
-0.83776224 0.91392899 0.20425145
-0.92662102 1.0193307 1.3080776
-0.89677209 0.98547077 1.0537404
-0.88935357 0.97664422 0.8618232
-0.87825018 0.96344787 0.69011688
-0.86281192 0.94585925 0.53473043
-0.84882951 0.9298898 0.39438328
-0.82804173 0.90680599 0.26348662
-0.82886267 0.90708035 0.14324202
-0.028009472 0.083987288 8.7239418
-0.90012294 1.041813 8.7527885
-1.1583513 1.3236376 8.4797935
-0.64679378 0.72896004 3.1626556
-0.94303757 1.0556144 3.39428
-0.98699898 1.1002373 2.7759972
-1.0242409 1.1385908 2.3219295
-0.98848188 1.0965497 1.844172
-0.30186057 0.41718206 8.7448139
-0.5756461 0.73578554 8.6701145
-0.57343286 0.65189171 3.3802392
-0.76249719 0.85885972 3.1774173
-0.9521364 1.0665816 3.0200591
-1.008487 1.1261896 2.5429161
-1.0343875 1.1523118 2.1251922
-0.95284677 1.0596265 1.6231384
-0.93610626 1.0341015 1.4505293
-0.90898609 1.0030988 1.1738991
-0.89485443 0.98647946 0.9578318
-0.88227642 0.97194213 0.77367836
-0.87022561 0.95800525 0.6112271
-0.86175013 0.94802082 0.46651864
-0.8461805 0.93024707 0.3302229
-0.83456689 0.91684777 0.20425145
-0.92806083 1.0281024 1.3147285
-0.89603657 0.99159414 1.0566835
-0.88883024 0.9829402 0.8643564
-0.87792742 0.96987259 0.69221497
-0.86267519 0.95236528 0.53637397
-0.8488428 0.93644845 0.39555559
-0.82819778 0.9133594 0.26417729
-0.82904851 0.91366804 0.14344354
-0.02771613 0.084084548 8.7239418
-0.89597523 1.0443588 8.7478504
-1.1563951 1.3307478 8.4993753
-0.64424527 0.73121333 3.1626556
-0.94971758 1.0705926 3.4311001
-0.98793119 1.1090413 2.7891645
-1.0258839 1.1484555 2.3343282
-0.98892349 1.1047701 1.8518469
-0.30040249 0.41823322 8.7448139
-0.57340074 0.73821187 8.675086
-0.57115382 0.65388936 3.3802392
-0.76063555 0.86281073 3.1821103
-0.95273918 1.0747862 3.0335627
-1.0080156 1.1336012 2.5514481
-1.0343686 1.1604143 2.1331723
-0.95365787 1.0680037 1.6304888
-0.93725884 1.0426675 1.4575385
-0.9080826 1.0091591 1.1770375
-0.89420396 0.99270397 0.96057326
-0.8818441 0.97830641 0.77599716
-0.86998129 0.96447957 0.61310011
-0.86164981 0.95458406 0.46792868
-0.84622079 0.93684047 0.33115551
-0.83470082 0.92344981 0.20469853
-0.92695844 1.034116 1.318054
-0.89796853 1.0007329 1.0625699
-0.88827372 0.98924446 0.86688954
-0.87757051 0.97630662 0.69431299
-0.86566144 0.96239257 0.53966099
-0.84882057 0.94301838 0.39672789
-0.82831806 0.91992486 0.26486799
-0.82919842 0.92026794 0.14364508
-0.027422452 0.08418078 8.7239418
-0.89182055 1.0468885 8.7429113
-1.155068 1.3386313 8.5238514
-0.64168894 0.73345768 3.1626556
-0.94597471 1.0739013 3.4311001
-0.98881388 1.1178652 2.8023319
-1.0274704 1.1583453 2.3467271
-0.99144906 1.1154027 1.8633596
-0.29877394 0.41904366 8.7398224
-0.57114542 0.7406314 8.6800575
-0.56804454 0.65492928 3.3753996
-0.75761914 0.86546057 3.1821103
-0.95473456 1.0846421 3.0515676
-1.0057786 1.1390681 2.5557141
-1.0343059 1.1685308 2.1411526
-0.95217311 1.0738628 1.634164
-0.93598831 1.0485934 1.461043
-0.90974116 1.0181279 1.1833144
-0.89630854 1.0020525 0.96605617
-0.88137811 0.9846794 0.77831602
-0.8727954 0.97441697 0.61684614
-0.86151421 0.9611581 0.46933872
-0.8462255 0.94344544 0.33208814
-0.83479863 0.93006384 0.2051456
-0.92582542 1.0401345 1.3213795
-0.89715868 1.0068791 1.065513
-0.88768399 0.99555665 0.86942273
-0.87717938 0.98275 0.69641101
-0.86544234 0.96893024 0.54130447
-0.84876275 0.94959962 0.39790022
-0.82840258 0.92650229 0.26555866
-0.82931226 0.92688 0.1438466
-0.027128438 0.084275991 8.7239418
-0.88765919 1.0494018 8.7379713
-1.1503882 1.3426551 8.5238514
-0.63912481 0.73569316 3.1626556
-0.93578982 1.0698435 3.4080875
-0.98964685 1.1267085 2.8154991
-1.0271404 1.1661484 2.3549929
-0.99179143 1.1236629 1.8710346
-0.2973094 0.42008403 8.7398224
-0.56888014 0.74304414 8.6850281
-0.56575495 0.65690815 3.3753996
-0.75459349 0.86809993 3.1821103
-0.95667255 1.0945249 3.0695722
-1.0052348 1.1464942 2.5642459
-1.0341989 1.1766609 2.1491325
-0.95289928 1.0822691 1.6415143
-0.93705302 1.057192 1.468052
-0.9087649 1.0242088 1.1864529
-0.8955819 1.0083016 0.96879768
-0.88087845 0.99106103 0.78063476
-0.87246966 0.9809218 0.61871922
-0.8613432 0.96774286 0.47074872
-0.84619421 0.95006186 0.33302075
-0.83486056 0.93668985 0.20559268
-0.92713428 1.0489553 1.3280305
-0.89899528 1.0160593 1.0713993
-0.887061 1.0018768 0.87195593
-0.87675393 0.98920244 0.6985091
-0.86518818 0.97547823 0.54294801
-0.84866935 0.95619196 0.39907253
-0.82845128 0.93309146 0.26624933
-0.82939005 0.93350399 0.14404814
-0.026843978 0.084412679 8.728941
-0.88349116 1.0518987 8.7330322
-1.1450348 1.3458868 8.5189552
-0.63655281 0.73791963 3.1626556
-0.92564505 1.0657279 3.3850746
-0.99043024 1.1355715 2.8286664
-1.0286208 1.1760815 2.3673918
-0.99420053 1.1343497 1.882547
-0.29567602 0.42088249 8.7348309
-0.56660503 0.74545014 8.6899996
-0.5626418 0.65792346 3.3705604
-0.75155866 0.87072867 3.1821103
-0.95569962 1.1011461 3.0785747
-1.0046514 1.1539303 2.5727777
-1.0320666 1.1825342 2.1531224
-0.95357817 1.0906935 1.6488646
-0.93806922 1.0658108 1.4750612
-0.91033024 1.0332159 1.1927298
-0.89482266 1.0145577 0.97153914
-0.88034487 0.99745113 0.78295356
-0.872109 0.98743594 0.62059224
-0.86113656 0.97433805 0.47215876
-0.84612703 0.95668948 0.33395338
-0.83488631 0.94332749 0.20603976
-0.92592996 1.0549917 1.331356
-0.89811075 1.0222278 1.0743425
-0.88640469 1.0082047 0.87448907
-0.87629396 0.99566382 0.70060712
-0.86489886 0.98203611 0.54459149
-0.84854025 0.96279514 0.40024486
-0.82846397 0.9396922 0.26694003
-0.82943165 0.94013977 0.14424966
-0.02654916 0.084505863 8.728941
-0.87931645 1.0543793 8.7280931
-1.1403297 1.3498756 8.5189552
-0.63397312 0.7401371 3.1626556
-0.92064351 1.0674731 3.3804724
-0.99116361 1.1444533 2.8418336
-1.0281996 1.1839144 2.3756578
-0.99444294 1.1426492 1.890222
-0.2942051 0.42191201 8.7348309
-0.56432009 0.74784929 8.6949711
-0.56034178 0.6598835 3.3705604
-0.74851465 0.87334675 3.1821103
-0.95611316 1.1094229 3.0920784
-1.0040284 1.1613764 2.5813096
-1.0318791 1.1906841 2.1611025
-0.9564321 1.1016958 1.6598901
-0.93903649 1.0744494 1.4820702
-0.90928084 1.0393167 1.1958683
-0.89403063 1.0208207 0.97428066
-0.87977737 1.0038495 0.78527236
-0.87171358 0.99395967 0.62246525
-0.86089456 0.98094368 0.47356883
-0.84602386 0.96332812 0.33488598
-0.83487576 0.9499768 0.20648684
-0.92714769 1.0638472 1.3380071
-0.89985132 1.0314484 1.0802288
-0.88571489 1.0145401 0.87702227
-0.87878609 1.0055515 0.70480323
-0.86146563 0.98504925 0.54459149
-0.84837526 0.96940899 0.40141717
-0.82844067 0.94630438 0.2676307
-0.82614493 0.94302928 0.14424966
-0.026254017 0.084598027 8.728941
-0.87513524 1.0568436 8.7231531
-1.1356109 1.3538479 8.5189552
-0.63138568 0.74234557 3.1626556
-0.93215907 1.0884885 3.4357026
-0.99184704 1.1533542 2.8550007
-1.0277357 1.1917586 2.3839235
-0.99463964 1.1509639 1.897897
-0.29289407 0.42317435 8.7398224
-0.56202525 0.75024164 8.6999426
-0.55803496 0.66183543 3.3705604
-0.74546158 0.87595421 3.1821103
-0.95506531 1.1160619 3.1010809
-1.0050641 1.1708109 2.5941074
-1.0316472 1.1988469 2.1690826
-0.95700753 1.1101635 1.6672404
-0.93995494 1.0831078 1.4890795
-0.91075259 1.0483613 1.2021452
-0.89320564 1.0270905 0.97702211
-0.87917584 1.0102562 0.78759116
-0.87128323 1.0004926 0.62433827
-0.86061668 0.98755926 0.47497886
-0.84911317 0.97368002 0.33675122
-0.83482903 0.95663744 0.20693392
-0.92831486 1.072724 1.344658
-0.90153825 1.0406934 1.0861151
-0.88781524 1.0241404 0.8820886
-0.87824523 1.0120407 0.70690131
-0.86111808 0.99161571 0.54623502
-0.84817445 0.97603345 0.40258947
-0.82838118 0.95292771 0.26832137
-0.82612705 0.94967669 0.1444512
-0.025958555 0.084689155 8.728941
-0.8709476 1.0592917 8.718214
-1.1308782 1.3578037 8.5189552
-0.62879062 0.74454498 3.1626556
-0.92961931 1.093224 3.4403052
-0.9924804 1.1622736 2.8681679
-1.0272299 1.199614 2.3921895
-0.99479026 1.1592939 1.9055719
-0.29141513 0.42419419 8.7398224
-0.55972058 0.75262696 8.704915
-0.55652791 0.66474324 3.3753996
-0.74239939 0.87855107 3.1821103
-0.95257324 1.121048 3.1055822
-1.0060463 1.180267 2.6069052
-1.0333282 1.2093135 2.1810527
-0.95973974 1.121224 1.6782659
-0.93849635 1.0890839 1.492584
-0.91217214 1.0574286 1.2084221
-0.89508057 1.0365318 0.98250502
-0.88143665 1.0200226 0.79222876
-0.87081784 1.0070345 0.62621135
-0.85716426 0.99055737 0.47497886
-0.84892476 0.98035139 0.33768386
-0.83148468 0.95954573 0.20693392
-0.92943144 1.0816218 1.3513091
-0.90053588 1.0468985 1.0890583
-0.88704717 1.0305003 0.8846218
-0.88063234 1.0219767 0.71109742
-0.86073518 0.99819189 0.5478785
-0.84793758 0.9826681 0.4037618
-0.82828563 0.95956224 0.26901206
-0.82607281 0.95633537 0.14465272
-0.025672063 0.084821872 8.7339401
-0.86675334 1.0617234 8.713275
-1.1261317 1.3617427 8.5189552
-0.62618786 0.74673533 3.1626556
-0.95478266 1.1307981 3.5461633
-0.99306345 1.1712115 2.8813353
-1.0266815 1.2074802 2.4004555
-0.99697351 1.1700789 1.9170846
-0.29009447 0.42544785 8.7448139
-0.55708998 0.75457615 8.704915
-0.55420411 0.66668189 3.3753996
-0.73932809 0.88113713 3.1821103
-0.95146155 1.1276942 3.1145847
-1.0052898 1.1877532 2.615437
-1.0329993 1.2175087 2.1890328
-0.96240634 1.1323171 1.6892914
-0.93932587 1.0977727 1.499593
-0.91100752 1.0635626 1.2115605
-0.89417863 1.0428243 0.98524648
-0.88075525 1.0264549 0.79454756
-0.87031728 1.0135854 0.62808436
-0.85682762 0.99718183 0.4763889
-0.84870011 0.98703343 0.33861646
-0.83137828 0.96621716 0.207381
-0.93049693 1.0905404 1.3579601
-0.90212619 1.0561826 1.0949446
-0.88904619 1.0401443 0.88968813
-0.88001019 1.028493 0.7131955
-0.86338788 1.0083643 0.55116552
-0.84766477 0.98931301 0.40493411
-0.82815373 0.96620756 0.26970273
-0.82923466 0.96679735 0.14505579
-0.025375823 0.084910974 8.7339401
-0.86255306 1.0641388 8.7083368
-1.1220175 1.3664526 8.5238514
-0.62357742 0.74891663 3.1626556
-0.97843969 1.1670634 3.6474187
-0.99359608 1.1801676 2.8945024
-1.0260909 1.2153573 2.4087212
-0.99909347 1.1808929 1.928597
-0.2886076 0.42645788 8.7448139
-0.55476731 0.75694656 8.7098866
-0.55187362 0.6686123 3.3753996
-0.73514348 0.88238651 3.1774173
-0.94891721 1.1326773 3.1190858
-1.0061711 1.1972451 2.6282349
-1.0326257 1.2257162 2.1970129
-0.96500713 1.1434424 1.7003169
-0.94010621 1.1064807 1.506602
-0.91233265 1.0726662 1.2178375
-0.89595425 1.0523069 0.99072945
-0.88291252 1.0362672 0.79918516
-0.86978161 1.0201451 0.62995738
-0.85645509 1.0038161 0.47779894
-0.84843922 0.99372584 0.33954909
-0.83123535 0.97289956 0.20782807
-0.92909807 1.0966307 1.3612856
-0.90104824 1.0624079 1.0978878
-0.88819939 1.0465282 0.89222133
-0.87935323 1.0350175 0.71529353
-0.86292148 1.0149697 0.55280906
-0.85050559 0.99967009 0.40727875
-0.82798553 0.97286367 0.2703934
-0.82909405 0.9734894 0.14525732
-0.025079275 0.084999032 8.7339401
-0.85785925 1.0659322 8.6984577
-1.1172408 1.3703609 8.5238514
-0.6209594 0.75108874 3.1626556
-0.97560966 1.1719733 3.6520214
-0.99254245 1.1873039 2.9032805
-1.0236499 1.2210882 2.4128542
-1.0011501 1.1917361 1.9401096
-0.28711724 0.4274627 8.7448139
-0.55212164 0.75887847 8.7098866
-0.54953635 0.67053467 3.3753996
-0.73205894 0.88494724 3.1774173
-0.94634968 1.1376566 3.1235871
-1.0053275 1.2047552 2.6367669
-1.0341406 1.2362473 2.2089827
-0.96754205 1.1545995 1.7113425
-0.94083714 1.1152073 1.5136112
-0.91109407 1.0788181 1.2209759
-0.89497513 1.0586213 0.99347091
-0.88215089 1.0427247 0.80150396
-0.86921078 1.0267133 0.63183039
-0.85604668 1.0104597 0.47920895
-0.84814185 1.0004283 0.3404817
-0.83105588 0.97959268 0.20827515
-0.93007141 1.1055818 1.3679365
-0.90254134 1.0717304 1.103774
-0.89009655 1.056215 0.89728767
-0.87866133 1.0415497 0.71739161
-0.86241937 1.021584 0.55445254
-0.8501476 1.006346 0.40845108
-0.8277809 0.97953033 0.2710841
-0.82891697 0.9801923 0.14545885
-0.024791259 0.085128784 8.7389402
-0.85413313 1.0689201 8.6984577
-1.113091 1.3750437 8.5287466
-0.61833388 0.75325173 3.1626556
-0.97524637 1.1798896 3.6658287
-0.99298048 1.1962903 2.9164479
-1.0229815 1.2289797 2.4211199
-1.003143 1.2026079 1.951622
-0.28562334 0.42846233 8.7448139
-0.54946929 0.76080108 8.7098866
-0.54639935 0.67147368 3.3705604
-0.7289654 0.88749725 3.1774173
-0.9437589 1.1426315 3.1280882
-1.0044435 1.2122738 2.6452987
-1.0336695 1.2444857 2.2169628
-0.97001058 1.1657882 1.7223679
-0.94151849 1.1239524 1.5206202
-0.91232455 1.0879569 1.2272528
-0.89665103 1.0681442 0.99895382
-0.88420421 1.0525815 0.80614156
-0.8686046 1.0332898 0.63370347
-0.85869026 1.0207837 0.48202902
-0.84780788 1.0071409 0.34141433
-0.83083981 0.98629636 0.20872223
-0.92860013 1.1116873 1.3712621
-0.90138757 1.077975 1.1067171
-0.88917059 1.0626218 0.89982086
-0.87793463 1.0480897 0.71948963
-0.86491507 1.0318261 0.55773956
-0.85287696 1.0167553 0.41079572
-0.8275398 0.98620737 0.27177477
-0.82870299 0.98690581 0.14566039
-0.024493951 0.085214801 8.7389402
-0.84894848 1.0700686 8.6836395
-1.1082845 1.3789208 8.5287466
-0.61570072 0.75540549 3.1626556
-0.97855735 1.1923484 3.6934438
-0.99184471 1.2034457 2.925226
-1.0222707 1.2368816 2.4293861
-1.0071166 1.2159767 1.9669722
-0.28412601 0.42945674 8.7448139
-0.54681027 0.76271445 8.7098866
-0.54326248 0.67239892 3.3657207
-0.72477257 0.88869894 3.1727247
-0.941145 1.1476023 3.1325896
-1.0051762 1.2218151 2.6580963
-1.0350702 1.2550607 2.2289329
-0.97025359 1.1743944 1.7297182
-0.94215024 1.1327159 1.5276293
-0.91101176 1.0941262 1.2303913
-0.89559412 1.0744796 1.0016953
-0.88336188 1.0590634 0.80846035
-0.86796296 1.0398746 0.63557649
-0.85819697 1.0274565 0.48343906
-0.8474375 1.0138632 0.34234694
-0.83058697 0.99301046 0.20916931
-0.92948103 1.12067 1.377913
-0.9027831 1.0873349 1.1126035
-0.89096546 1.0723506 0.9048872
-0.88007492 1.0581267 0.72368574
-0.8643288 1.0384685 0.55938309
-0.85243338 1.0234612 0.41196805
-0.830432 0.99669921 0.27315614
-0.82845235 0.99362969 0.14586191
-0.024196349 0.085299782 8.7389402
-0.84328568 1.0705835 8.6638832
-1.1034644 1.3827811 8.5287466
-0.61399895 0.75871068 3.1674278
-0.98672903 1.2109032 3.7394691
-0.99067116 1.2106078 2.9340041
-1.0215169 1.2447933 2.4376521
-1.0089732 1.226912 1.9784846
-0.2826252 0.43044588 8.7448139
-0.54414463 0.76461852 8.7098866
-0.54012579 0.67331046 3.3608816
-0.72166604 0.89122343 3.1727247
-0.93850768 1.1525688 3.1370907
-1.0042045 1.2293561 2.6666281
-1.0345008 1.2633289 2.236913
-0.97044826 1.1830163 1.7370685
-0.94273233 1.1414975 1.5346385
-0.91214699 1.1032994 1.2366682
-0.89716989 1.0840421 1.0071782
-0.88531053 1.0689639 0.81309795
-0.8702442 1.0500369 0.63932252
-0.86072987 1.0378309 0.4862591
-0.84703046 1.0205952 0.34327957
-0.83029741 0.9997347 0.20961639
-0.93031037 1.1296722 1.384564
-0.90155315 1.0935985 1.1155467
-0.89270318 1.0821049 0.90995359
-0.8792659 1.0646918 0.72578382
-0.86069858 1.0414792 0.55938309
-0.85195327 1.0301762 0.41314036
-0.83010435 1.0034075 0.27384681
-0.82816476 1.0003637 0.14606345
-0.023898449 0.085383721 8.7389402
-0.8366726 1.0698472 8.6342468
-1.0986308 1.3866245 8.5287466
-0.61134678 0.7608493 3.1674278
-0.97881019 1.2097834 3.7256618
-0.98945957 1.2177762 2.9427824
-1.0207204 1.2527148 2.4459178
-1.0148199 1.2428405 1.9976722
-0.28127775 0.43167225 8.7498064
-0.54177928 0.766949 8.7148581
-0.53698939 0.67420834 3.3560419
-0.71855068 0.89373708 3.1727247
-0.93584734 1.1575308 3.1415918
-1.0048354 1.2389309 2.6794262
-1.0338863 1.2716085 2.2448931
-0.97059453 1.1916541 1.7444189
-0.94326448 1.1502967 1.5416477
-0.91075975 1.1094853 1.2398067
-0.89603508 1.0903978 1.0099196
-0.88438737 1.0754694 0.81541675
-0.86951929 1.056648 0.6411956
-0.86015117 1.0445322 0.48766914
-0.84658659 1.0273366 0.34421217
-0.8299709 1.006469 0.21006347
-0.92872483 1.1358033 1.3878895
-0.90285051 1.1029944 1.121433
-0.89165199 1.0885493 0.91248679
-0.8812995 1.0747737 0.72997987
-0.86005342 1.0481279 0.56102657
-0.85452116 1.0406569 0.41548499
-0.83288318 1.0139521 0.27522817
-0.82466775 1.0032486 0.14606345
-0.023600258 0.085466623 8.7389402
-0.81340325 1.0475926 8.4317369
-1.093784 1.390451 8.5287466
-0.60868722 0.76297867 3.1674278
-0.96112418 1.1964375 3.6750338
-0.98820996 1.2249509 2.9515605
-1.0198809 1.2606457 2.4541838
-1.0165306 1.253845 2.0091846
-0.27976924 0.43265143 8.7498064
-0.53940439 0.76927239 8.7198296
-0.53385329 0.67509246 3.3512027
-0.71542656 0.89623982 3.1727247
-0.93316364 1.1624881 3.1460929
-1.0054114 1.248525 2.6922238
-1.0332265 1.2798991 2.2528732
-0.97069222 1.2003071 1.7517692
-0.94374651 1.1591136 1.5486567
-0.91179931 1.118692 1.2460835
-0.89751005 1.0999987 1.0154026
-0.88623095 1.0854126 0.82005435
-0.86875874 1.0632668 0.64306861
-0.86257273 1.0549558 0.49048921
-0.84610617 1.0340874 0.34514484
-0.82960755 1.0132132 0.21051055
-0.929461 1.1448358 1.3945405
-0.90409321 1.1124129 1.1273193
-0.89328665 1.098344 0.91755313
-0.88040781 1.0813631 0.73207796
-0.86235464 1.0584455 0.56431359
-0.85395479 1.0474007 0.4166573
-0.83246857 1.0206909 0.27591884
-0.82431966 1.0099915 0.14626497
-0.02330178 0.085548483 8.7389402
-0.80784482 1.0479635 8.4119806
-1.0889237 1.3942605 8.5287466
-0.60602021 0.76509875 3.1674278
-1.0080999 1.2639385 3.8683398
-0.98692232 1.2321317 2.9603386
-1.0189985 1.2685862 2.4624498
-1.0081282 1.2523918 2.0015097
-0.27841243 0.43386891 8.7547979
-0.53701973 0.77158833 8.7248001
-0.53149354 0.67695189 3.3512027
-0.7122938 0.89873171 3.1727247
-0.93045688 1.167441 3.1505942
-1.0043042 1.2561013 2.7007556
-1.0325214 1.2882006 2.2608531
-0.97074133 1.2089752 1.7591195
-0.94417846 1.1679476 1.5556659
-0.91033727 1.1248937 1.249222
-0.89629692 1.106374 1.018144
-0.88522637 1.0919408 0.82237315
-0.87088329 1.0734935 0.6468147
-0.86190844 1.0616847 0.49189925
-0.84558874 1.0408473 0.34607744
-0.82920712 1.019967 0.21095763
-0.93014532 1.1538873 1.4011915
-0.90528113 1.1218532 1.1332057
-0.89215541 1.1048094 0.92008632
-0.87948096 1.0879593 0.73417598
-0.86162466 1.0651207 0.56595707
-0.85335171 1.054153 0.41782963
-0.83513349 1.0312876 0.27730021
-0.82393456 1.0167443 0.14646651
-0.023003019 0.085629299 8.7389402
-1.0834265 1.3972484 8.5238514
-0.60334587 0.76720953 3.1674278
-1.0388503 1.311869 4.0018129
-0.98708719 1.2411931 2.973506
-1.0163184 1.2743355 2.4665825
-1.0017495 1.2533995 1.9976722
-0.27689624 0.43483812 8.7547979
-0.53432316 0.77345818 8.7248001
-0.5291273 0.67880303 3.3512027
-0.7080853 0.89985627 3.1680319
-0.92907751 1.1740962 3.1595967
-1.0047776 1.2657275 2.7135537
-1.0317708 1.2965126 2.2688332
-0.97285503 1.2203093 1.7701451
-0.9467923 1.17958 1.5661794
-0.91128087 1.134133 1.2554989
-0.89767087 1.1160126 1.023627
-0.88696438 1.1019257 0.82701075
-0.87003887 1.0801373 0.64868772
-0.8612076 1.0684217 0.49330926
-0.84811842 1.0514395 0.34794268
-0.83189756 1.0306054 0.21185179
-0.93077791 1.1629574 1.4078425
-0.90641409 1.1313156 1.139092
-0.89098996 1.1112802 0.92261952
-0.88135934 1.0981015 0.73837209
-0.86381543 1.0754852 0.56924409
-0.8527118 1.0609139 0.41900194
-0.83463156 1.0380557 0.27799088
-0.82351226 1.0235065 0.14666803
-0.022703977 0.085709073 8.7389402
-0.75070149 0.98798263 7.8884192
-1.0785426 1.4010217 8.5238514
-0.59974569 0.76813412 3.1626556
-1.0559971 1.343134 4.0846586
-0.9857167 1.2483907 2.9822841
-1.0153576 1.2822877 2.4748485
-0.99736822 1.2568885 1.9976722
-0.27537668 0.43580201 8.7547979
-0.53192097 0.77575862 8.7297716
-0.52675468 0.68064588 3.3512027
-0.7049399 0.90232247 3.1680319
-0.92766297 1.1807561 3.1685991
-1.0051961 1.2753724 2.7263515
-1.0309749 1.3048351 2.2768133
-0.97490108 1.2316726 1.7811704
-0.94711411 1.1884558 1.5731884
-0.91459829 1.1464355 1.2649143
-0.89637899 1.1224066 1.0263685
-0.88587809 1.1084757 0.82932955
-0.87205392 1.0904087 0.65243381
-0.86047018 1.0751666 0.4947193
-0.84751368 1.0582277 0.34887531
-0.83140934 1.037389 0.21229887
-0.93135834 1.1720461 1.4144936
-0.90497577 1.1376359 1.1420351
-0.89247483 1.121129 0.92768586
-0.88034934 1.1047208 0.74047017
-0.86300009 1.082186 0.57088763
-0.85203511 1.0676831 0.42017427
-0.8340925 1.0448329 0.27868158
-0.82305276 1.0302782 0.14686957
-0.022404658 0.085787803 8.7389402
-0.74070013 0.98191053 7.8192692
-1.0736455 1.404778 8.5238514
-0.5970608 0.77022296 3.1626556
-1.0260606 1.3144692 3.9880056
-0.98578531 1.2574786 2.9954512
-1.0126145 1.2880367 2.4789815
-0.99892509 1.2679157 2.0091846
-0.27385378 0.4367606 8.7547979
-0.52920985 0.7776106 8.7297716
-0.52437556 0.68248039 3.3512027
-0.70178592 0.90477765 3.1680319
-0.9262132 1.1874201 3.1776016
-1.0039523 1.2829815 2.7348833
-1.0319929 1.3155388 2.2887833
-0.97687978 1.2430651 1.792196
-0.94959807 1.2001451 1.5837022
-0.91542417 1.1557235 1.2711912
-0.89765131 1.1320817 1.0318514
-0.88751018 1.1185015 0.83396715
-0.87112516 1.0970767 0.65430683
-0.86268049 1.0856754 0.49753937
-0.84687191 1.0650245 0.34980792
-0.83088392 1.0441816 0.21274593
-0.93419927 1.1840841 1.4244701
-0.90600944 1.147132 1.1479214
-0.89122885 1.1276195 0.93021905
-0.87930381 1.1113464 0.74256819
-0.86507982 1.0925964 0.57417464
-0.85434008 1.0782704 0.42251888
-0.83351624 1.0516189 0.27937225
-0.82255602 1.0370592 0.14707109
-0.022112561 0.08590848 8.7439404
-0.73587155 0.98262393 7.8044519
-1.0675048 1.4068946 8.51406
-0.59436852 0.77230239 3.1626556
-1.0190728 1.3149542 3.9788003
-0.98433167 1.2646923 3.0042293
-1.0115749 1.2960002 2.4872472
-1.0023918 1.2814939 2.0245347
-0.27232754 0.43771386 8.7547979
-0.52679008 0.77989525 8.7347431
-0.52199 0.68430668 3.3512027
-0.69757074 0.9058544 3.1633391
-0.92606097 1.19581 3.1911051
-1.0026675 1.2905974 2.7434151
-1.0329487 1.3262651 2.3007534
-0.97879076 1.2544864 1.8032216
-0.9498089 1.2090615 1.5907112
-0.91619635 1.1650311 1.2774682
-0.89886701 1.1417794 1.0373343
-0.88634163 1.1250725 0.83628595
-0.87303048 1.1073922 0.65805292
-0.8618567 1.0924461 0.49894941
-0.84923679 1.0756853 0.35167316
-0.83032113 1.0509833 0.21319301
-0.93466496 1.1932167 1.4311211
-0.90449369 1.1534684 1.1508646
-0.89260954 1.1375065 0.93528539
-0.88102621 1.1215471 0.7467643
-0.86417896 1.0993218 0.57581812
-0.85357618 1.0850663 0.42369121
-0.83290273 1.0584139 0.28006294
-0.82511276 1.0477741 0.14747415
-0.021812551 0.085985146 8.7439404
-0.72455961 0.97458345 7.7204843
-1.0613623 1.4089856 8.5042706
-0.59166908 0.7743724 3.1626556
-0.98588765 1.2813398 3.8683398
-0.98283952 1.271911 3.0130074
-1.0122155 1.3061967 2.4996462
-1.017571 1.3103012 2.0629098
-0.27079797 0.43866178 8.7547979
-0.52406454 0.78172934 8.7347431
-0.52035671 0.68712687 3.3560419
-0.69440448 0.90828389 3.1633391
-0.92586142 1.204213 3.2046089
-1.0029346 1.3002851 2.7562129
-1.0319991 1.3346304 2.3087335
-0.98270971 1.2686161 1.8179222
-0.95216209 1.2208059 1.6012248
-0.91691452 1.1743581 1.2837451
-0.89745086 1.1482046 1.0400758
-0.88513827 1.1316489 0.83860481
-0.87201703 1.1140835 0.65992594
-0.86099607 1.0992244 0.50035942
-0.84850711 1.0825093 0.35260579
-0.82972091 1.0577936 0.21364009
-0.93507826 1.2023669 1.437772
-0.90294486 1.1598082 1.1538078
-0.89393193 1.1474166 0.94035172
-0.879897 1.1281945 0.74886233
-0.86324155 1.1060543 0.57746166
-0.85277516 1.09187 0.42486352
-0.83225197 1.065217 0.28075361
-0.82452744 1.0545837 0.14767569
-0.021512274 0.086060755 8.7439404
-0.72807121 0.98648649 7.7945728
-1.0454639 1.3980025 8.4161568
-0.58896244 0.77643299 3.1626556
-1.0229117 1.3391155 4.0294285
-0.98130918 1.2791348 3.021786
-1.0110815 1.3141828 2.5079119
-1.0345178 1.341768 2.1051223
-0.26911512 0.43935767 8.7498064
-0.52162737 0.78399807 8.7397146
-0.51795506 0.68893903 3.3560419
-0.69122976 0.91070229 3.1633391
-0.92561436 1.2126291 3.2181125
-1.0015606 1.3079195 2.7647448
-1.0328385 1.3453954 2.3207035
-0.98447526 1.2801009 1.8289475
-0.95226157 1.2297618 1.6082339
-0.91757882 1.1837044 1.290022
-0.89856434 1.1579374 1.0455588
-0.88661635 1.1417292 0.84324241
-0.8738119 1.1244419 0.66367197
-0.86009866 1.1060101 0.50176948
-0.84774017 1.0893413 0.35353839
-0.82908332 1.0646125 0.21408717
-0.93543911 1.2115345 1.4444231
-0.90383434 1.1693492 1.1596941
-0.89519602 1.1573498 0.94541812
-0.88151062 1.1384361 0.75305843
-0.86226791 1.1127938 0.5791052
-0.85193706 1.0986812 0.42603585
-0.83156371 1.0720285 0.28144431
-0.82696807 1.0653484 0.14807875
-0.02120469 0.086092256 8.7389402
-0.73288554 1.0003067 7.8834796
-1.0235873 1.378749 8.2790899
-0.58624858 0.77848411 3.1626556
-1.0371169 1.3675863 4.1030688
-0.97974014 1.2863631 3.0305641
-1.0116119 1.3244133 2.5203109
-1.0337241 1.3504615 2.1127973
-0.26757982 0.44029438 8.7498064
-0.51918077 0.78625929 8.7446871
-0.51554704 0.69074291 3.3560419
-0.68700826 0.91173124 3.1586463
-0.92531979 1.221058 3.231616
-1.0001454 1.3155602 2.7732766
-1.0317887 1.3537859 2.3286836
-0.9841153 1.2889189 1.8362979
-0.95230997 1.2387331 1.615243
-0.91581511 1.1899847 1.2931604
-0.89962053 1.1676918 1.0510417
-0.88533026 1.1483254 0.84556121
-0.87271333 1.1311556 0.66554505
-0.86209577 1.1165998 0.5045895
-0.84693575 1.096181 0.35447103
-0.82840824 1.0714399 0.21453427
-0.93347567 1.2177557 1.4477484
-0.90220773 1.1757038 1.1626372
-0.89377612 1.1638867 0.94795126
-0.88029736 1.1451044 0.75515652
-0.86125749 1.1195396 0.58074868
-0.85106176 1.1054999 0.42720816
-0.83083797 1.0788481 0.28213498
-0.82629395 1.0721858 0.14828028
-0.020904042 0.086165749 8.7389402
-0.72801882 1.0009733 7.8686624
-0.96984935 1.3159132 7.8825765
-0.58352757 0.7805258 3.1626556
-1.0722841 1.4242679 4.2595544
-0.97813267 1.2935961 3.0393422
-1.0120834 1.3346636 2.5327098
-1.0348214 1.3617179 2.1243098
-0.26604128 0.44122571 8.7498064
-0.51672465 0.788513 8.7496586
-0.51313275 0.69253826 3.3560419
-0.68382156 0.91412371 3.1586463
-0.92497772 1.2294999 3.2451198
-0.99868923 1.3232068 2.7818084
-1.0306929 1.3621851 2.3366637
-0.9857536 1.3004516 1.8473235
-0.95230746 1.2477198 1.6222522
-0.91638184 1.1993603 1.2994373
-0.90061969 1.1774677 1.0565246
-0.88670129 1.1584442 0.85019881
-0.87157851 1.1378754 0.66741806
-0.8611111 1.1234094 0.50599957
-0.84908366 1.106926 0.35633627
-0.83072776 1.0822257 0.21542843
-0.93374133 1.2269493 1.4543995
-0.90299708 1.1852765 1.1685236
-0.89493489 1.1738559 0.95301759
-0.88180172 1.155386 0.75935262
-0.86021054 1.126292 0.58239222
-0.85014927 1.1123258 0.42838046
-0.83308262 1.0896097 0.28351635
-0.82861799 1.0829991 0.14868335
-0.020603141 0.086238198 8.7389402
-0.9544307 1.3044969 7.7944622
-0.58079946 0.7825579 3.1626556
-1.0673059 1.4280022 4.2595544
-0.9764865 1.3008336 3.0481203
-1.0124953 1.3449329 2.5451086
-1.0358527 1.3729982 2.1358223
-0.26435208 0.44190341 8.7448139
-0.51425916 0.79075915 8.7546301
-0.50996768 0.69331247 3.3512027
-0.68062651 0.91650516 3.1586463
-0.92458785 1.2379539 3.2586234
-0.99875551 1.3329467 2.7946064
-1.0313606 1.3730026 2.3486338
