# .PCD v0.7 - Point Cloud Data file format
VERSION 0.7
FIELDS x y z
SIZE 4 4 4
TYPE F F F
COUNT 1 1 1
WIDTH 1585
HEIGHT 1
VIEWPOINT 0 0 0 1 0 0 0
POINTS 1585
DATA ascii
7.0533514 13.969416 10.344612
3.6079915 7.151988 4.2797036
20.150471 40.012596 13.258336
20.361547 40.466877 8.6920948
20.509293 40.795948 4.1921964
5.450048 10.728833 10.799055
6.6175284 13.043968 10.733794
3.4700224 6.8457966 4.5957289
20.109293 39.757957 15.595848
20.344625 40.258099 10.969859
20.554859 40.691738 6.4505987
20.702312 41.019203 1.9471452
0.068638869 0.056058109 8.7339401
0.66757351 1.2360212 8.9306021
0.84899181 1.5960348 8.7147646
0.52099526 0.99574614 3.639854
0.60963708 1.1749331 3.1779611
0.93846333 1.8177192 3.8162091
1.6195613 3.1555579 4.3231997
0.2843931 0.43273866 8.7947311
0.49391752 0.81673217 8.8590307
1.1011249 2.081948 9.105278
0.54411244 1.0407263 3.2478089
0.70612264 1.3596288 3.231616
0.89723301 1.7341294 3.263859
3.3500545 6.4935789 9.7501287
1.73842 3.3769515 4.1957536
1.8263217 3.5767756 4.0263705
5.8879533 11.545911 10.532776
7.1001735 13.940984 10.341871
3.6369531 7.1472468 4.2843413
20.061245 39.457561 17.972368
20.313917 39.989059 13.273847
20.551592 40.491924 8.7126122
20.788965 40.995045 4.2194681
5.490871 10.716391 10.805706
6.675909 13.045976 10.754396
3.5017471 6.8489947 4.6058617
20.254391 39.700142 15.600779
20.491652 40.199825 10.973375
20.764219 40.75211 6.4713187
20.881636 41.017925 1.9503697
0.068834126 0.055818174 8.7339401
0.67188394 1.2336832 8.9306021
0.85455787 1.5930614 8.7147646
0.5272553 0.9992016 3.658942
0.6137346 1.1727978 3.1779611
0.99015903 1.9015241 3.9961612
1.3367267 2.5757129 4.3346758
1.6453019 3.1783497 4.3615746
0.28574175 0.43150315 8.7897396
0.49676543 0.8150031 8.8590307
1.1083856 2.0780916 9.105278
0.54854709 1.0403471 3.2525017
0.71086437 1.3571557 3.231616
0.90448743 1.7332991 3.2681251
3.3713098 6.4791722 9.7461386
1.7517595 3.3738716 4.199429
1.8371633 3.5672088 4.0228662
5.9300008 11.528749 10.535915
7.1468821 13.912395 10.339128
3.6639023 7.1384492 4.2866602
12.815867 24.990664 11.435484
20.470879 39.952061 13.285127
20.72191 40.47678 8.7247372
20.925137 40.908928 4.2181273
1.8940789 3.6651249 3.7556458
6.7288232 13.036961 10.76617
3.5098269 6.8060789 4.5855961
20.410131 39.662788 15.613927
20.631849 40.128056 10.973375
20.895027 40.65736 6.4678655
21.068048 41.029228 1.954199
0.069064595 0.055602137 8.7389402
0.6761862 1.2313305 8.9306021
0.86011344 1.5900688 8.7147646
0.53354591 1.0026255 3.6780298
0.6187368 1.1723762 3.1825638
1.0391097 1.9786283 4.1629462
1.3561496 2.590976 4.3677392
1.6563865 3.1725874 4.3615746
0.28724626 0.43050307 8.7897396
0.49960732 0.81326413 8.8590307
1.1156327 2.0742099 9.105278
0.55217522 1.0384259 3.2525017
0.71051252 1.3450421 3.20911
0.9105323 1.7301313 3.2681251
3.3953061 6.4700332 9.7501287
1.7666713 3.3737426 4.206779
1.8512477 3.5639384 4.0263705
5.9720001 11.511434 10.539053
7.1992493 13.894789 10.344612
3.6949069 7.1374168 4.2936163
12.753933 24.657536 11.304372
20.863075 40.404202 8.7247372
21.145437 40.986107 4.2333279
1.9051353 3.6551802 3.7523203
6.7761569 13.01698 10.769114
3.4858229 6.7019997 4.5247998
20.546282 39.587112 15.612283
20.812075 40.133465 10.994477
21.050495 40.610554 6.4720097
21.236412 41.004238 1.9564158
0.069258258 0.055360716 8.7389402
0.68048024 1.2289627 8.9306021
0.86614639 1.5879507 8.7196598
0.53986675 1.0060176 3.6971178
0.62282544 1.1702092 3.1825638
1.0673102 2.0152011 4.2463388
1.3730679 2.6011577 4.3925366
1.6659573 3.16395 4.3577371
0.28874722 0.42949778 8.7897396
0.50244308 0.81151521 8.8590307
1.1228663 2.0703032 9.105278
0.55661231 1.0380127 3.2571945
0.71520323 1.3425537 3.20911
0.9177888 1.7292459 3.2723908
3.4136417 6.4501524 9.7381592
1.7942692 3.3975329 4.2435308
1.8669871 3.5637729 4.03338
6.0157552 11.497416 10.54533
7.1741166 13.728747 10.240436
3.7197986 7.124476 4.2936163
21.003984 40.331131 8.7247372
21.281481 40.898792 4.2319865
1.9178826 3.6485078 3.7523203
6.8253107 13.000404 10.775
20.787268 39.711781 15.689528
20.983578 40.120869 11.01089
21.205891 40.56316 6.4761539
21.409483 40.987423 1.9590356
0.069414869 0.055094294 8.7339401
0.68476593 1.2265799 8.9306021
0.87168401 1.5849175 8.7196598
0.54763895 1.0120031 3.7257495
0.62690639 1.168028 3.1825638
0.9355402 1.7516267 3.7064819
1.3900737 2.6112523 4.4173346
3.8417239 7.2345338 9.8837442
0.29040739 0.42872575 8.7947311
0.50527275 0.8097564 8.8590307
1.1294829 2.0652683 9.1004381
0.56023228 1.0360636 3.2571945
0.7188549 1.3381314 3.2046089
0.9250502 1.7283311 3.2766569
3.4432302 6.451489 9.7581091
1.8093052 3.3972332 4.2508807
1.8744175 3.5477746 4.0228662
6.063118 11.490117 10.557884
7.2921782 13.836791 10.339128
3.7570293 7.1349664 4.3075294
20.964018 39.879871 13.333068
21.424114 40.824257 4.2319865
1.9376019 3.6549861 3.7656221
6.8725405 12.980073 10.777943
21.005125 39.789314 15.748694
21.211937 40.215046 11.05661
21.416637 40.620304 6.4968739
21.585026 40.974319 1.961857
0.069606759 0.054851655 8.7339401
0.68942469 1.224859 8.9355421
0.87770504 1.5827556 8.724555
0.55259871 1.0127057 3.7352936
0.63097978 1.1658325 3.1825638
0.94619197 1.7567846 3.7240384
1.3858695 2.5815911 4.3760047
3.8730061 7.2323813 9.8990936
0.29190212 0.4277094 8.7947311
0.50838053 0.80843866 8.8640022
1.1366851 2.0613132 9.1004381
0.56467175 1.0356168 3.2618873
0.72248441 1.3336999 3.2001076
0.93355531 1.7296815 3.2851889
3.4700136 6.4473906 9.7700787
4.3123298 8.0291462 9.9584122
1.8750509 3.5191784 3.9983344
6.1178169 11.49637 10.582992
3.819855 7.1872182 5.420939
10.64844 20.052202 11.971163
20.927168 39.441338 18.127831
21.188478 39.967506 13.386649
1.9485883 3.644908 3.7622967
6.9197111 12.959569 10.780885
3.6268327 6.7982483 4.613461
21.18605 39.794945 15.779921
21.402403 40.235165 11.082401
21.616421 40.654606 6.5141411
21.727921 40.898724 1.961857
0.069797799 0.054608352 8.7339401
0.69369602 1.222445 8.9355421
0.88322461 1.5796821 8.724555
0.55325109 1.0055398 3.7162056
0.63504541 1.163623 3.1825638
1.2301061 2.2648795 4.7905846
1.3908534 2.569314 4.363606
3.8982284 7.2188182 9.8990936
0.2935577 0.42692524 8.7997227
0.51119941 0.80665916 8.8640022
1.1432626 2.0562344 9.0956001
0.56911486 1.0351514 3.2665799
0.72609174 1.3292595 3.1956065
0.94083416 1.7287029 3.2894547
3.4838736 6.4193478 9.7461386
4.3371015 8.0080824 9.9510612
1.883948 3.5063291 3.9913254
6.1689529 11.495523 10.601823
3.8350434 7.1554132 5.4072313
10.680728 19.944618 11.929424
21.139078 39.507023 18.191513
21.373098 39.977909 13.41485
23.591518 44.201576 4.590991
1.9648429 3.6446569 3.7689478
6.9649062 12.935336 10.780885
3.65871 6.8007312 4.6235938
21.338234 39.745712 15.789783
21.602457 40.271576 11.112882
21.809683 40.674919 6.529336
21.957846 40.985573 1.9693137
0.069987997 0.054364379 8.7339401
0.69795889 1.2200161 8.9355421
0.88873327 1.5765893 8.724555
0.56110388 1.0114335 3.7448375
0.63910335 1.1613991 3.1825638
1.2195966 2.2269628 4.7203593
1.3499248 2.4730549 4.2106872
3.9203372 7.1995368 9.8914185
0.29504615 0.42589793 8.7997227
0.51401204 0.80486983 8.8640022
1.1504332 2.0522311 9.0956001
0.57272476 1.0331584 3.2665799
0.73072731 1.3267169 3.1956065
0.94937235 1.7299808 3.2979865
1.6054615 2.9338286 4.5032468
4.3699031 8.0018196 9.9620867
1.8621972 3.4370201 3.9212346
1.6927148 3.1281092 2.9502654
10.7145 19.840952 11.890005
21.316479 39.506432 18.225227
23.660704 43.961094 4.5748963
1.9793365 3.6410563 3.7722731
7.0158033 12.921602 10.789716
3.6885936 6.7992864 4.6311936
4.1690578 7.6945219 4.1330209
21.533049 39.774807 15.83087
21.793777 40.289986 11.138673
22.008059 40.703087 6.5459123
22.14827 40.996582 1.9733443
0.070177339 0.054119743 8.7339401
0.70221335 1.2175725 8.9355421
0.8942312 1.5734776 8.724555
1.401423 2.5048931 9.2230749
0.64315349 1.1591612 3.1825638
1.2088375 2.1891477 4.6501341
1.3191973 2.3968356 4.0908318
3.9500723 7.1942372 9.9029312
0.29653102 0.42486545 8.7997227
0.51681846 0.80307066 8.8640022
1.1575898 2.0482025 9.0956001
0.57801193 1.0341654 3.2759655
0.73429686 1.322255 3.1911051
0.9566682 1.7289385 3.3022525
1.6156927 2.9282064 4.5032468
4.4157963 8.0191841 10.002513
1.8587946 3.4023323 3.8896935
1.7036237 3.1221814 2.9502654
7.4986658 13.759329 10.358319
10.713782 19.675047 11.813484
21.496349 39.509155 18.260817
4.81847 8.8634872 3.0553389
1.9956237 3.6406734 3.7789242
7.0666876 12.90767 10.798545
3.7185121 6.7977152 4.638793
4.2089477 7.7038193 4.1456094
21.726059 39.798874 15.870314
21.969194 40.277668 11.156258
22.199785 40.717319 6.5604167
22.348598 41.024311 1.978181
0.070365824 0.053874448 8.7339401
0.70645916 1.2151139 8.9355421
0.89921188 1.5694631 8.7196598
1.4072243 2.4947855 9.2039871
0.64719582 1.1569091 3.1825638
1.2642422 2.2707062 4.8300862
1.2865891 2.3184016 3.9668429
3.9751611 7.1804056 9.9029312
0.29801229 0.42382777 8.7997227
0.51961857 0.80126172 8.8640022
1.1647323 2.0441494 9.0956001
0.58246583 1.0336449 3.2806582
0.73784429 1.3177844 3.186604
1.6302993 2.9304483 4.5152168
4.4437618 8.0037212 10.002513
1.8672179 3.389576 3.8826842
1.7145116 3.1162157 2.9502654
7.5567174 13.751392 10.372026
10.709907 19.505508 11.734646
21.647511 39.458263 18.272053
4.853992 8.8550272 3.0581591
1.999289 3.617346 3.7622967
7.1234217 12.904156 10.816204
3.7526276 6.8035669 4.6514587
4.242383 7.7010064 4.1519036
5.0280619 9.1347284 3.7182076
22.144791 40.264622 11.173841
22.391878 40.730709 6.5749207
22.534962 41.024872 1.9818085
0.070553452 0.053628497 8.7339401
0.7106964 1.2126404 8.9355421
0.90468496 1.5663148 8.7196598
1.4166622 2.4911556 9.2087593
0.65123022 1.1546428 3.1825638
1.2698159 2.2621024 4.8213081
1.0706902 1.9136164 3.2931724
4.0033255 7.1720834 9.9106064
0.29932222 0.42254987 8.7947311
0.5224123 0.79944307 8.8640022
1.1718607 2.0400712 9.0956001
0.58862823 1.0361062 3.2947366
0.74136937 1.3133051 3.1821027
1.2206197 2.170007 4.1426415
1.644941 2.9326236 4.5271869
1.8237512 3.2580185 4.1259251
1.8773067 3.37992 3.87918
1.7197143 3.1000011 2.94085
7.6148067 13.743219 10.385735
10.679232 19.289732 11.62798
21.827749 39.459534 18.307642
2.0137212 3.6136067 3.7656221
3.7910199 6.8167982 4.6691909
4.2516084 7.6544099 4.135119
5.0370021 9.0758324 3.7017722
22.337067 40.280594 11.199633
22.598743 40.769245 6.5935693
22.728857 41.037735 1.9860407
0.070740215 0.053381898 8.7339401
0.71492499 1.2101521 8.9355421
0.91014689 1.5631473 8.7196598
1.4201516 2.4771309 9.175355
0.65525675 1.1523626 3.1825638
1.2777044 2.2576561 4.8213081
4.0251927 7.1524787 9.9029312
0.30079538 0.42150247 8.7947311
0.52519971 0.79761463 8.8640022
1.1796046 2.037056 9.1004381
0.59395707 1.0370399 3.304122
0.74594909 1.3107092 3.1821027
1.289945 2.2746239 4.3474059
1.6522011 2.9216182 4.519207
1.8434442 3.2663946 4.1443014
1.9030339 3.3982387 3.9072163
6.3762388 11.399698 10.614377
7.6810856 13.749408 10.410406
10.720592 19.205919 11.600155
22.31041 40.034599 13.561493
2.0080333 3.5740039 3.732367
3.8253331 6.8223233 4.6818566
5.0640402 9.0499525 3.6984856
22.522602 40.282982 11.221908
22.77957 40.759274 6.60462
22.923119 41.049747 1.9902728
0.07092613 0.053134639 8.7339401
0.71914488 1.2076494 8.9355421
0.91559774 1.5599608 8.7196598
1.4302839 2.4747431 9.1848993
0.65927523 1.1500684 3.1825638
1.2891382 2.2594228 4.8344755
1.042286 1.8327135 3.169184
1.7455366 3.0766065 4.3116875
0.30226487 0.42044994 8.7947311
0.52798069 0.79577649 8.8640022
1.1867081 2.0329258 9.1004381
0.6018889 1.042432 3.3275859
0.74943632 1.3062094 3.1776016
1.273281 2.2270904 4.2663536
1.6623894 2.9158332 4.519207
1.8732774 3.292352 4.1847281
1.9166377 3.3946803 3.9107206
6.4159918 11.377371 10.614377
7.7331381 13.729798 10.41589
10.735425 19.075729 11.544503
22.464121 39.981575 13.569954
2.027858 3.5799677 3.7456691
2.3279939 4.1148105 3.5259953
3.8342743 6.7826605 4.6641245
4.8844538 8.6579561 3.5489264
22.694107 40.259167 11.237147
22.95088 40.731281 6.6129084
23.117743 41.060905 1.994505
0.071111165 0.052886739 8.7339401
0.72335595 1.2051316 8.9355421
0.92103738 1.5567553 8.7196598
1.4381621 2.4684455 9.1801271
0.66426343 1.1494514 3.1871662
1.0458776 1.8241817 3.1609178
1.7451251 3.0510192 4.2848248
0.30373067 0.41939226 8.7947311
0.53075528 0.79392862 8.8640022
1.1937972 2.0287712 9.1004381
0.61333877 1.0537463 3.3698208
0.75399119 1.3035854 3.1776016
1.2719302 2.2068155 4.2364922
1.662046 2.8917253 4.4912767
1.8830715 3.2828524 4.1810532
1.9337683 3.3972673 3.9212346
6.4268103 11.304151 10.5673
7.7913408 13.720902 10.429598
10.731993 18.914848 11.470302
22.624825 39.940479 13.582644
2.0496004 3.5890789 3.7622967
2.3503537 4.1207037 3.5377676
22.543406 39.635292 15.959064
22.834499 40.179703 11.237147
23.122272 40.702595 6.6211967
23.310253 41.066853 1.9985356
0.071295343 0.052638192 8.7339401
0.72755826 1.2025994 8.9355421
0.92646587 1.5535307 8.7196598
1.4467698 2.4634106 9.1801271
0.66827172 1.1471256 3.1871662
1.0494221 1.8156471 3.152652
1.7653714 3.061569 4.3078494
0.30519277 0.41832948 8.7947311
0.53352338 0.7920711 8.8640022
1.2008717 2.0245917 9.1004381
0.63710403 1.085829 3.4777546
0.75853699 1.3009455 3.1776016
1.3228661 2.2767761 4.3772678
3.6708186 6.3352137 9.7700787
1.9013079 3.2879982 4.1957536
1.9562653 3.4090552 3.9422617
6.4623585 11.274893 10.561023
7.8454204 13.704508 10.437821
10.734168 18.765764 11.403057
22.411072 39.211304 18.335737
22.785515 39.89875 13.595334
23.047985 40.391075 8.9205875
23.395733 41.033745 4.3334737
5.8774037 10.208861 10.572921
2.3506193 4.0879459 3.5171657
3.4369843 5.9820085 4.1397567
22.7286 39.63829 15.991933
23.003613 40.150364 11.251215
23.278976 40.647411 6.6253405
23.490683 41.050278 2.0015585
0.07147865 0.052389003 8.7339401
0.73175168 1.2000524 8.9355421
0.9318831 1.5502874 8.7196598
1.4545994 2.4570608 9.175355
0.6732614 1.1464705 3.1917689
2.2712266 3.8854175 8.3150148
1.0585872 1.8168356 3.1609178
1.7889341 3.0775561 4.3385496
0.30665115 0.4172616 8.7947311
0.53628498 0.79020393 8.8640022
1.2079315 2.0203876 9.1004381
0.69712698 1.1786516 3.7780917
0.76307356 1.2982898 3.1776016
2.9073474 4.9635992 9.4793253
3.6853111 6.3093514 9.7501287
1.9196031 3.2930567 4.2104545
1.9681531 3.4022057 3.9422617
6.5055714 11.259007 10.5673
7.9203815 13.72412 10.473461
10.711092 18.57468 11.310305
22.485315 39.02438 18.285164
22.888746 39.756611 13.574183
23.232925 40.38702 8.9373741
23.491671 40.869793 4.3249788
2.0727322 3.5714533 3.758971
2.3243322 4.0097766 3.4583023
3.4686475 5.9886265 4.1524229
22.760479 39.374737 15.917975
23.119312 40.027729 11.239492
23.450434 40.617371 6.6336288
23.671278 41.032944 2.0045817
0.071661085 0.052139174 8.7339401
0.73552912 1.1968288 8.9306021
0.93728888 1.547025 8.7196598
1.4624022 2.4506869 9.1705837
0.67725915 1.1441134 3.1917689
2.2774801 3.8650854 8.288681
1.0620722 1.8082767 3.152652
1.8029071 3.0768239 4.3462248
0.3081058 0.41618866 8.7947311
0.53904003 0.78832716 8.8640022
1.2149765 2.0161588 9.1004381
0.7268694 1.2191926 3.9141815
0.76760077 1.2956183 3.1776016
2.9233296 4.9511747 9.4750595
3.7057834 6.2938519 9.7461386
1.9310861 3.2863362 4.2104545
1.9674411 3.3737504 3.9177299
6.5448327 11.23623 10.5673
7.9808555 13.718075 10.489909
10.749148 18.491222 11.282479
22.570173 38.85746 18.243959
22.955145 39.552006 13.531882
23.292439 40.165447 8.9065981
23.654165 40.822018 4.3285556
5.9372187 10.148245 10.552968
2.332197 3.9911697 3.4494729
3.4612734 5.9280868 4.1194911
4.511579 7.7361956 4.2274332
22.807442 39.140011 15.855523
23.158617 39.774563 11.191427
23.497414 40.372627 6.6073828
23.831947 40.980297 2.0059924
0.071842648 0.051888715 8.7339401
0.7397024 1.1942542 8.9306021
0.94268334 1.5437438 8.7196598
1.469409 2.4430089 9.1610394
0.68224996 1.14342 3.1963713
2.2762806 3.8324025 8.2360115
1.0683776 1.8045582 3.152652
1.8201569 3.0815508 4.3615746
0.30955669 0.41511062 8.7947311
0.54178852 0.78644079 8.8640022
1.2220069 2.0119054 9.1004381
0.73200977 1.2181271 3.9188745
0.77100235 1.291062 3.1731002
2.9419286 4.9431815 9.4793253
3.7415719 6.3041992 9.7820482
1.9546403 3.299993 4.2361803
1.9755911 3.3607135 3.9107206
6.5879564 11.220029 10.573577
10.786754 18.407722 11.254654
23.034931 39.372265 13.498041
23.340773 39.926983 8.8720903
23.706093 40.584396 4.3124609
5.9669161 10.117809 10.542992
2.3399601 3.9725564 3.4406435
3.5366104 6.0088458 4.1828208
4.4557538 7.5795493 4.1519036
23.233349 39.584492 11.160947
23.512899 40.076797 6.5728488
23.949581 40.85376 2.0039768
0.07202334 0.051637623 8.7339401
0.74386656 1.1916648 8.9306021
0.94806629 1.5404438 8.7196598
1.4771538 2.4365883 9.1562672
0.6862371 1.1410315 3.1963713
1.0746702 1.800818 3.152652
1.8341818 3.0806863 4.3692498
0.3110038 0.41402754 8.7947311
0.54453039 0.78454477 8.8640022
1.2296788 2.0086994 9.105278
0.73894 1.2199922 3.9329526
0.77550429 1.2883629 3.1731002
2.9551404 4.9261723 9.466527
1.6488342 2.756259 4.3276858
1.9644096 3.2902393 4.2325048
1.983674 3.3476608 3.9037118
6.6330285 11.207013 10.582992
10.844184 18.358517 11.247698
23.157604 39.266827 13.489582
23.430126 39.760624 8.8534384
23.746542 40.329742 4.2945776
5.9773936 10.055195 10.49976
2.3703218 3.9921684 3.4641888
3.5663621 6.0112944 4.1929536
4.3341069 7.3140626 4.0176277
23.398603 39.549168 11.173841
23.652651 39.99448 6.5728488
23.957336 40.54195 1.9932958
0.072203152 0.051385898 8.7339401
0.74760783 1.1884034 8.925663
0.95343757 1.537125 8.7196598
1.4840932 2.4288697 9.1467228
0.69122875 1.1402996 3.200974
1.0809498 1.7970557 3.152652
1.848223 3.0797617 4.376925
0.31244716 0.41293943 8.7947311
0.5469597 0.78220272 8.8590307
1.2366829 2.004395 9.105278
0.74229479 1.2159327 3.9282601
0.77886742 1.2837869 3.1685991
2.9790657 4.9269862 9.4878578
1.6864533 2.7969344 4.3995061
1.99169 3.3345926 3.8967025
6.678091 11.19382 10.592408
10.890071 18.290102 11.229147
23.899883 40.268021 4.296813
6.0239711 10.053486 10.519712
2.4112272 4.0289578 3.50245
4.286468 7.1679201 4.9934382
24.119162 40.492416 1.9949081
0.072382078 0.051133551 8.7339401
0.7517516 1.1857865 8.925663
0.95879734 1.5337876 8.7196598
1.4909968 2.4211326 9.1371794
0.69520491 1.1378798 3.200974
1.321852 2.1734381 4.7291374
1.088675 1.7956777 3.156785
1.86228 3.0787766 4.3845997
0.31388664 0.41184628 8.7947311
0.54968673 0.7802887 8.8590307
1.243672 2.0000658 9.105278
0.74653465 1.2133342 3.9282601
0.78334397 1.2810603 3.1685991
3.0084608 4.9366002 9.5262499
1.7055962 2.8064799 4.4234462
2.0088363 3.3367863 3.9072163
6.7311654 11.19379 10.614377
2.2444847 3.7370081 2.9426532
10.944731 18.236784 11.219872
16.315521 27.207397 12.905815
6.0358644 9.9940443 10.479807
2.4357152 4.0378218 3.5171657
4.3960266 7.2932086 5.0896988
0.072560124 0.050880574 8.7339401
0.75588614 1.1831552 8.925663
0.96414548 1.5304314 8.7196598
1.4986517 2.414645 9.1324072
0.70019716 1.1371096 3.2055764
1.2893751 2.1034715 4.5886869
1.0949365 1.7918665 3.156785
1.8763528 3.0777307 4.3922749
0.31532237 0.41074806 8.7947311
0.5520981 0.77793092 8.8540592
1.2506459 1.9957125 9.105278
0.75076544 1.2107209 3.9282601
0.78781092 1.2783182 3.1685991
3.0597997 4.9816256 9.6328983
1.7279739 2.8210654 4.4553661
2.0038207 3.302314 3.8756754
6.7722144 11.173553 10.617515
2.2596815 3.732728 2.9453948
4.2446408 7.0170908 4.3794122
5.1754375 8.5625696 4.1306558
6.0726547 9.9761038 10.483132
2.5043924 4.1190915 3.5936878
4.4102669 7.259398 5.077033
0.072737291 0.050626982 8.7339401
0.76001155 1.1805094 8.925663
0.96948177 1.5270566 8.7196598
1.5054883 2.4068685 9.1228638
0.70416212 1.1346585 3.2055764
1.2891564 2.0867331 4.5623522
1.1026604 1.7904297 3.1609178
1.8937969 3.0820858 4.4076247
0.31675422 0.4096449 8.7947311
0.55449969 0.77556568 8.8490877
1.2576046 1.9913348 9.105278
0.75498706 1.2080928 3.9282601
0.79111946 1.2737112 3.1640978
3.0716794 4.9620447 9.6158352
1.7393937 2.8175805 4.4593563
2.0004501 3.2709606 3.8476391
1.8459913 3.021946 2.9377115
2.2618074 3.70697 2.9316874
4.236825 6.9492793 4.3469491
5.2197657 8.5682058 4.1418939
6.1035357 9.9484806 10.476481
2.5166435 4.1068783 3.5907447
4.4558401 7.2770462 5.0998316
0.07287582 0.050350904 8.728941
0.76370454 1.1771976 8.9207239
0.97480625 1.5236632 8.7196598
1.5138806 2.4015987 9.1228638
0.70811856 1.1321936 3.2055764
1.2901028 2.0720551 4.5404072
1.1089034 1.7865697 3.1609178
1.9079189 3.0809062 4.4152999
0.31800413 0.40830958 8.7897396
0.5568915 0.77319324 8.8441172
1.2645481 1.9869328 9.105278
0.75919944 1.2054501 3.9282601
0.79556072 1.2709419 3.1640978
3.0986447 4.9667807 9.6456966
1.7524022 2.8166089 4.4673367
1.8194355 2.9300122 3.8172119
1.9875286 3.2244918 3.8020799
1.8585694 3.0187984 2.94085
2.2813046 3.709738 2.9399118
4.2796106 6.9646416 4.3654995
5.259346 8.5657358 4.1493859
6.1500068 9.9461679 10.496434
2.471493 4.0017772 3.5083361
4.4970627 7.287128 5.1175637
0.07305114 0.050096214 8.728941
0.76780903 1.1745245 8.9207239
0.98011893 1.5202512 8.7196598
1.5222546 2.3962996 9.1228638
0.7131083 1.1313677 3.2101789
1.2553172 2.0005946 4.3955679
1.1166254 1.7850738 3.165051
1.8949023 3.0361605 4.3615746
0.31942743 0.40719703 8.7897396
0.55895996 0.77038246 8.8341742
1.2707974 1.9814485 9.1004381
0.76432747 1.2042495 3.9329526
0.79999226 1.2681571 3.1640978
3.1215162 4.964766 9.6627607
1.7590215 2.8053687 4.4593563
1.8278536 2.9207697 3.8135364
2.0307641 3.2690322 3.8616571
1.8670431 3.008985 2.9377115
2.3228767 3.747956 2.9755509
4.2152662 6.8065491 4.2773848
5.2867742 8.5433836 4.1475129
6.1827135 9.9214706 10.493109
2.4918544 4.0034199 3.5171657
4.5270247 7.2787066 5.1226301
0.073225565 0.049840912 8.728941
0.77147663 1.1711885 8.9157839
0.98541963 1.5168207 8.7196598
1.5306098 2.3909714 9.1228638
0.71810079 1.1305205 3.2147813
1.1243505 1.7835456 3.169184
1.8833036 2.9942567 4.3116875
0.32084689 0.40607953 8.7897396
0.56133068 0.76799661 8.8292027
1.2777061 1.9770006 9.1004381
0.76852649 1.2015741 3.9329526
0.80441409 1.2653569 3.1640978
1.7688035 2.7992115 4.4593563
1.8470806 2.9287088 3.8319125
2.0591953 3.2891281 3.8931983
1.8816627 3.0090501 2.9439886
2.3337302 3.7362785 2.9728096
2.7613535 4.4243069 2.8165412
6.2113509 9.8903437 10.483132
2.4864826 3.9638813 3.4906774
2.7208219 4.3408008 3.096087
5.1039801 8.152297 4.5337491
0.073399089 0.049585003 8.728941
0.77513039 1.1678413 8.9108458
0.99070835 1.5133717 8.7196598
1.5389466 2.3856139 9.1228638
0.72204268 1.1280069 3.2147813
0.92943764 1.4585836 3.2368507
1.1320785 1.7819852 3.1733167
1.8903118 2.98225 4.3040118
0.32226241 0.40495712 8.7897396
0.56337488 0.76517475 8.8192587
1.2845993 1.9725285 9.1004381
0.77271605 1.1988841 3.9329526
0.80882615 1.2625412 3.1640978
1.3075668 2.0479298 4.0445251
1.8591106 2.9251044 3.8355873
2.0744696 3.2879519 3.900207
1.8921549 3.0024633 2.9439886
2.7649875 4.3958926 2.8049471
2.1523943 3.400914 3.6658571
2.4916646 3.9415112 3.4789047
2.7336557 4.3276329 3.0935538
5.1517801 8.1651373 4.5505333
0.073571727 0.049328495 8.728941
0.77876997 1.1644826 8.9059067
0.99598491 1.5099041 8.7196598
1.5480783 2.381479 9.127636
0.72703499 1.1271213 3.219384
0.92805237 1.4452544 3.2149053
1.1413264 1.7827623 3.1815827
1.9041615 2.9810359 4.3116875
0.32385525 0.4040544 8.7947311
0.56540638 0.76234794 8.8093157
1.2907872 1.9669816 9.0956001
0.77783638 1.1976266 3.9376454
0.81322831 1.2597102 3.1640978
1.2921271 2.0082617 3.97627
1.7948122 2.7969387 4.4753165
1.8601674 2.9043233 3.8172119
2.0763664 3.2656436 3.8826842
1.9026238 2.9958403 2.9439886
2.5971873 4.0941691 3.2634048
2.721024 4.2926779 2.7469771
2.1662605 3.3965282 3.6691828
2.494549 3.915745 3.4641888
10.647259 16.725805 11.73676
0.07374347 0.049071379 8.728941
0.78196126 1.1604686 8.8960276
1.0012494 1.5064183 8.7196598
1.5563817 2.3760607 9.127636
0.7320298 1.1262145 3.2239864
0.93048912 1.4379848 3.2061269
1.1505939 1.7834967 3.1898487
1.9249651 2.9905419 4.3347125
0.32526371 0.40292144 8.7947311
0.56742495 0.75951636 8.7993736
1.296952 1.9614155 9.0907602
0.78201216 1.1949042 3.9376454
0.81762052 1.2568638 3.1640978
1.2991295 2.0037391 3.97627
1.8078371 2.7957172 4.4832969
1.8758094 2.9063573 3.8282371
2.0685132 3.2283487 3.8476391
1.9130697 2.9891808 2.9439886
2.6497502 4.1449699 3.3100097
2.6930671 4.2159567 2.7052386
2.1619532 3.3638184 3.6425788
2.5169368 3.9206185 3.4759614
10.631095 16.57243 11.655699
0.073914312 0.048813663 8.728941
0.78557068 1.1570892 8.8910885
1.0065017 1.5029142 8.7196598
1.5646663 2.3706133 9.127636
0.73595655 1.1236525 3.2239864
0.93419468 1.432722 3.2017381
1.1675494 1.7959841 3.2187793
1.9545792 3.0133836 4.376925
0.32666817 0.40178365 8.7947311
0.56943065 0.75667995 8.7894306
1.3030937 1.9558305 9.0859203
0.78712857 1.1936077 3.9423382
0.82319647 1.2558228 3.1685991
1.8175849 2.7893896 4.4832969
2.0623591 3.1941447 3.8160982
1.9234923 2.9824846 2.9439886
2.6868482 4.1708474 3.3374245
2.1371467 3.2998409 3.5827196
2.5393889 3.9253843 3.4877341
10.635054 16.451954 11.597435
0.074084252 0.048555359 8.728941
0.78916603 1.1536989 8.8861494
1.0117418 1.4993917 8.7196598
1.5729316 2.3651373 9.127636
0.7409507 1.122707 3.2285891
0.93787479 1.4274508 3.1973488
1.1815218 1.8036669 3.239444
1.9650861 3.0065424 4.376925
0.32806867 0.4006409 8.7947311
0.57142347 0.75383878 8.7794867
1.3085115 1.9491829 9.0762415
0.79415596 1.1951643 3.9564166
0.82757515 1.2529416 3.1685991
1.2040912 1.8290693 3.6520593
1.8273106 2.7830281 4.4832969
2.0670178 3.1540539 4.1663523
2.022928 3.1092067 3.7249799
1.9338914 2.9757521 2.9439886
2.7036672 4.1649504 3.3401661
2.4982393 3.8514271 2.4895904
2.0935545 3.2079377 3.4929309
2.5530758 3.916496 3.4877341
10.657123 16.360548 11.559438
2.5005095 3.8431582 2.2070088
0.074253291 0.048296463 8.728941
0.79274726 1.1502974 8.8812094
1.0169694 1.4958509 8.7196598
1.5820088 2.3608718 9.1324072
0.74594706 1.1217405 3.2331915
0.94020736 1.4201745 3.1885707
1.9491239 2.9595129 4.3193626
0.32946518 0.39949328 8.7947311
0.57307941 0.7505697 8.7645731
1.314603 1.9435622 9.0714016
0.80120373 1.1966866 3.9704952
0.83194369 1.2500452 3.1685991
1.185959 1.7879093 3.5795383
1.825375 2.7590415 4.4553661
2.0929606 3.1694512 4.1957536
2.0239921 3.0872145 3.7074571
1.9527967 2.9820082 2.9565425
2.718189 4.1554875 3.3401661
2.5116682 3.8426831 2.4895904
6.3391576 9.6395473 10.356763
2.5622931 3.9008036 3.4818475
10.678685 16.269192 11.521441
2.5163977 3.838202 2.2091069
0.074421428 0.048036974 8.728941
0.79631442 1.1468852 8.8762703
1.0221846 1.4922919 8.7196598
1.5902401 2.3553352 9.1324072
0.75094593 1.1207527 3.2377942
0.94382983 1.4148916 3.1841817
1.6289021 2.4490843 4.3925366
1.9293125 2.9072902 4.2541246
0.33085766 0.39834079 8.7947311
0.57504499 0.74772036 8.7546301
1.3199633 1.9368843 9.0617228
0.80730647 1.1967435 3.9798803
0.8363021 1.2471336 3.1685991
1.1863954 1.7750856 3.5624745
1.8032373 2.7050166 4.3795562
2.1284258 3.1988177 4.2435308
2.1527011 3.2586644 3.9177299
1.9589061 2.9686759 2.9502654
2.7326782 4.1459742 3.3401661
2.5104468 3.8116953 2.4756775
6.3707042 9.6142483 10.353437
2.5401986 3.8379066 3.434757
10.697361 16.174288 11.480909
2.5272787 3.8256078 2.2070088
0.074588656 0.047776904 8.728941
0.79986733 1.1434619 8.8713322
1.0273876 1.4887147 8.7196598
1.5984521 2.3497701 9.1324072
0.75704008 1.1213627 3.246999
0.94742686 1.4096007 3.1797926
1.6358744 2.4410455 4.3884034
1.9430124 2.9058666 4.2617998
0.33243209 0.39740431 8.7997227
0.57732457 0.74528748 8.7496586
1.3231584 1.9270842 9.0375261
0.81730038 1.2024808 4.0080371
0.84065032 1.2442068 3.1685991
1.1925844 1.7709335 3.5624745
1.7773845 2.6461773 4.2957654
2.1471305 3.202632 4.2582316
5.8811541 8.8352251 10.509781
1.9735671 2.9683027 2.9565425
2.7008662 4.0667453 3.2853365
2.5212877 3.7992184 2.4733589
6.4187388 9.6136894 10.376717
2.4818144 3.7214079 3.3405759
10.725067 16.093801 11.450511
2.5280428 3.7978723 2.1965184
0.074793525 0.047536656 8.7339401
0.80340618 1.140028 8.8663921
1.0331593 1.4859554 8.724555
1.6066446 2.3441761 9.1324072
0.76204872 1.1203285 3.2516015
0.95234144 1.406285 3.1797926
1.6254876 2.4073353 4.3388081
1.9316523 2.8671682 4.2157497
0.33381727 0.39624149 8.7997227
0.57959419 0.74284786 8.7446871
1.325586 1.9162518 9.0084896
0.81954241 1.1967731 3.9986515
0.84498823 1.2412648 3.1685991
1.2002231 1.7689177 3.5667403
1.6903427 2.4977167 4.0683341
2.1696827 3.2119727 4.280282
5.9814858 8.9183044 10.632441
2.6917906 4.022542 3.2579219
2.5394583 3.7977588 2.4779963
6.4501739 9.5881262 10.373391
2.6277997 3.9106622 3.5142226
10.730717 15.981112 11.397314
2.5311723 3.7739477 2.1881263
0.074959002 0.047275286 8.7339401
0.80738074 1.1372166 8.8663921
1.03834 1.4823399 8.724555
1.6156658 2.3397818 9.1371794
0.76705939 1.1192732 3.2562041
0.95589453 1.4009739 3.1754036
1.6196344 2.3807073 4.3016114
1.9560508 2.8816235 4.2464495
0.33519837 0.39507383 8.7997227
0.58185381 0.74040139 8.7397146
1.3272352 1.9043951 8.9746141
0.82469511 1.1953254 4.0033445
0.84931594 1.2383077 3.1685991
1.2063904 1.7647173 3.5667403
1.6481224 2.4171147 3.9486334
2.1827891 3.2071824 4.2839575
2.1228096 3.1413891 3.8055847
2.1379683 3.1673758 3.1636806
2.6871142 3.9853857 3.2359903
6.4794135 9.559371 10.36674
8.274972 12.222168 10.830919
10.701891 15.818591 11.308653
2.549413 3.7726104 2.1923225
0.075123571 0.047013342 8.7339401
0.81089318 1.1337596 8.8614531
1.0435079 1.4787064 8.724555
1.6238233 2.3341277 9.1371794
0.77207184 1.1181964 3.2608066
0.96077907 1.3976287 3.1754036
1.5165616 2.2125652 4.0123053
1.9624785 2.8694868 4.2387748
0.33657539 0.39390138 8.7997227
0.58443475 0.73836577 8.7397146
1.3295401 1.8935784 8.9455767
0.82590717 1.1881888 3.9892662
0.85363322 1.2353355 3.1685991
1.2288171 1.7841213 3.6136658
1.2999346 1.8922744 3.1147182
2.1747983 3.1715844 4.2472062
2.1156983 3.1074295 3.7740436
2.1468225 3.1566749 3.160542
9.0640211 13.342386 10.659881
2.6007419 3.8312492 2.5104597
6.5085306 9.5305281 10.360088
8.3107519 12.183192 10.82209
10.71091 15.713459 11.260522
2.5804462 3.7899487 2.2070088
5.3978925 7.9338617 3.4289498
0.075287215 0.046750829 8.7339401
0.81484586 1.1309221 8.8614531
1.0486633 1.4750547 8.724555
1.6311042 2.3272231 9.1324072
0.77708626 1.1170982 3.2654092
0.96565181 1.3942665 3.1754036
1.5114825 2.1887341 3.9792416
1.9743016 2.8652582 4.2426119
0.33775929 0.39250585 8.7947311
0.58700854 0.73632127 8.7397146
1.3310599 1.8817433 8.9117012
0.83202982 1.1881254 3.9986515
0.85918415 1.2341347 3.1731002
1.2558546 1.8098178 3.6733885
1.3116769 1.8951582 3.1266885
2.1569502 3.1221349 4.1920786
2.1184628 3.0882623 3.7600255
2.1732295 3.171638 3.1825113
9.141242 13.355523 10.695519
2.6115985 3.8184912 2.5081408
6.5396419 9.5046759 10.356763
8.3326235 12.124127 10.795602
10.73641 15.633333 11.230124
2.6167665 3.8146014 2.2258914
5.4282241 7.9188666 3.4305935
0.075449951 0.046487741 8.7339401
0.81878847 1.1280708 8.8614531
1.0538057 1.4713852 8.724555
1.6392179 2.3215153 9.1324072
0.78210235 1.1159785 3.2700117
0.96914226 1.3889232 3.1710143
1.5383998 2.2111633 4.0288372
1.9751518 2.8451846 4.2234249
0.33912733 0.39132446 8.7947311
0.58957523 0.73426771 8.7397146
1.3332429 1.870944 8.8826647
0.86502641 1.2261025 4.1347418
0.86348683 1.231128 3.1731002
1.3159631 1.88237 3.8269625
1.3027719 1.8683232 3.0907781
2.1329741 3.0645025 4.1259251
2.1292298 3.0808487 3.7600255
2.1489058 3.112782 3.1322958
2.6646082 3.8640857 3.1619706
2.6399925 3.8312373 2.5220535
6.570653 9.4787216 10.353437
8.3748941 12.094968 10.795602
10.675633 15.429148 11.111065
2.6249049 3.7979767 2.2216952
5.455833 7.8998704 3.4305935
0.075611763 0.046224087 8.7339401
0.82272124 1.1252059 8.8614531
1.0589354 1.4676979 8.724555
1.6473114 2.3157792 9.1324072
0.78711998 1.1148375 3.2746143
0.97398454 1.3855318 3.1710143
1.9832343 2.8356462 4.2195873
0.34030071 0.38992146 8.7897396
0.59247041 0.7326194 8.7446871
1.3353668 1.8601528 8.8536282
0.89529836 1.2596437 4.2567539
0.86903542 1.2298841 3.1776016
1.3345408 1.8948225 3.8610899
1.3006247 1.8514365 3.0708282
2.1378188 3.0487111 4.1149001
2.2785456 3.2724092 3.9983344
2.0797479 2.9902282 3.0193114
2.6780803 3.8547611 3.1619706
2.6533499 3.8219986 2.5220535
6.6037002 9.4557276 10.353437
2.6563354 3.8078492 3.4641888
2.9641335 4.2522163 3.1315515
2.6381464 3.7887909 2.2216952
5.4968605 7.9001584 3.4388111
0.075772651 0.045959871 8.7339401
0.82664388 1.1223272 8.8614531
1.0640522 1.4639926 8.724555
1.6545157 2.3088021 9.127636
0.79213929 1.1136751 3.2792168
0.9774307 1.3801692 3.1666255
3.7306423 5.282814 9.5711222
1.9931204 2.828706 4.2195873
0.34165972 0.38873121 8.7897396
0.59502411 0.73054677 8.7446871
1.3374317 1.8493694 8.8245916
0.89968991 1.2565109 4.2567539
0.8733232 1.2268432 3.1776016
1.3003958 1.8327254 3.7459095
1.3053386 1.8444256 3.066838
2.1445355 3.0356927 4.1075497
2.2899547 3.2644358 3.9983344
1.9963598 2.8490705 2.8874962
2.7154975 3.8796461 3.1893852
2.6692142 3.8163435 2.5243723
6.6366658 9.4326191 10.353437
2.6696112 3.7985537 3.4641888
3.0755808 4.3794255 3.2303455
2.6513557 3.7795589 2.2216952
5.5542202 7.9234571 3.4568894
0.075893581 0.045675639 8.728941
0.8310197 1.1200588 8.8663921
1.0691559 1.4602693 8.724555
1.6625648 2.3030126 9.127636
0.79943621 1.115667 3.2930243
0.98224241 1.3767488 3.1666255
3.7506912 5.2720528 9.5752544
2.0104039 2.8321862 4.2349372
0.34301457 0.3875362 8.7897396
0.59790909 0.72887707 8.7496586
1.3394375 1.8385943 8.7955551
0.91012847 1.2617593 4.2849102
0.87886918 1.2255561 3.1821027
1.1672479 1.6329833 3.3534436
1.3152676 1.8447647 3.0748181
2.1590505 3.0337124 4.1149001
2.2807534 3.2272992 3.963289
1.9928242 2.8230057 2.8686657
2.6850712 3.8106244 2.5266912
6.671711 9.4124422 10.356763
2.6828544 3.789212 3.4641888
3.0485227 4.3088393 3.1872814
5.6009121 7.9310212 3.468394
0.076052554 0.045410443 8.728941
0.83538973 1.1177733 8.8713322
1.0742466 1.4565284 8.724555
1.6697156 2.2959881 9.1228638
0.80561298 1.1160375 3.3022294
0.98704219 1.3733118 3.1666255
3.7772679 5.2703643 9.5959196
2.0873988 2.9190087 4.3730874
0.34417242 0.38612163 8.7847471
0.60044974 0.72678554 8.7496586
1.3443596 1.831881 8.7858763
0.92873132 1.2781177 4.3506088
0.88314182 1.2224809 3.1821027
1.133314 1.573874 3.2425294
1.323457 1.8426098 3.0788083
2.1775284 3.037178 4.1296005
2.2899363 3.2164128 3.9597845
7.3918915 10.393807 10.366439
3.103339 4.3685083 3.5978637
2.7009208 3.8048408 2.5290098
6.7045259 9.3890953 10.356763
7.9279819 11.114703 10.024493
3.3212578 4.659739 3.4481988
0.076210603 0.045144692 8.728941
0.83975381 1.115471 8.8762703
1.0793245 1.4527698 8.724555
1.67772 2.2901456 9.1228638
0.82329363 1.1321778 3.3574595
0.99182993 1.369858 3.1666255
3.8055253 5.2708359 9.620717
2.0957017 2.9091041 4.3692498
0.34551814 0.38491786 8.7847471
0.60298306 0.72468513 8.7496586
1.3507459 1.8271772 8.7858763
0.92808998 1.2679061 4.3271451
0.88740361 1.2193906 3.1821027
1.1311436 1.5593535 3.2211998
1.3316473 1.84042 3.0827982
2.1940722 3.0378032 4.1406264
2.2408726 3.1243606 3.8581526
7.4417286 10.386926 10.385269
3.1015341 4.333847 3.5786736
2.7193389 3.8025956 2.5336475
6.7372589 9.3656349 10.356763
7.9808836 11.106657 10.042152
3.3375032 4.6481175 3.4481988
0.076367728 0.044878393 8.728941
0.84458178 1.113771 8.8861494
1.0837787 1.4481782 8.7196598
1.6857038 2.2842753 9.1228638
0.83301407 1.1371768 3.3804724
0.99519414 1.3644526 3.1622362
3.8305218 5.266623 9.637249
2.1058435 2.9017711 4.3692498
0.34685963 0.38370946 8.7847471
0.60482323 0.72175956 8.7397146
1.3563648 1.821443 8.7810364
1.9977704 2.7090149 9.2076225
0.89294201 1.2180413 3.186604
1.1319633 1.5490785 3.2084019
1.3398385 1.8381954 3.0867882
2.208652 3.0356085 4.1479764
2.2329674 3.0905037 3.8266118
7.5189428 10.417695 10.441761
3.1166434 4.3229942 3.5786736
2.7325959 3.7930803 2.5336475
6.7699103 9.342061 10.356763
8.0124941 11.068909 10.033323
3.3309691 4.6050034 3.4254003
0.076523915 0.044611547 8.728941
0.84893626 1.1114333 8.8910885
1.0888273 1.4443864 8.7196598
1.6936672 2.2783771 9.1228638
0.95415443 1.2930218 3.8453271
0.99995089 1.3609704 3.1622362
1.9595243 2.6745727 4.9422188
2.12731 2.9099274 4.3922749
0.34819692 0.38249636 8.7847471
0.60251915 0.7139464 8.6701145
1.3627146 1.8166974 8.7810364
2.0061853 2.7006397 9.2029295
0.89718837 1.2149169 3.186604
1.1342714 1.5409173 3.1998701
1.3462468 1.8335073 3.0867882
2.2192347 3.0278804 4.1479764
2.2521362 3.0942235 3.8406298
7.6147747 10.473238 10.523361
3.1218855 4.2985554 3.5677075
2.761431 3.8050296 2.5475602
6.8024783 9.3183718 10.356763
2.6426184 3.6240137 3.3494053
3.3114812 4.5445724 3.3899355
4.0496826 5.5637474 3.2686234
0.07667917 0.044344157 8.728941
0.8532846 1.1090789 8.8960276
1.0938624 1.4405768 8.7196598
1.7016098 2.2724512 9.1228638
1.0717292 1.4417616 4.2917724
1.0046954 1.3574716 3.1622362
1.9738613 2.6745088 4.9546175
2.1545608 2.9257119 4.4268126
0.34952998 0.38127857 8.7847471
0.60362476 0.71021587 8.6502275
1.3690479 1.8119295 8.7810364
2.017668 2.6963837 9.2123156
0.90142369 1.2117777 3.186604
1.1380898 1.5348538 3.1956041
1.3526388 1.8287969 3.0867882
2.1895168 2.9655693 4.0744734
2.3346212 3.1841269 3.9597845
7.678885 10.484275 10.561023
3.1368713 4.287632 3.5677075
2.7851539 3.8096714 2.5568354
6.8327527 9.291563 10.353437
8.7260904 11.879214 10.816204
3.3120198 4.512135 3.3747365
4.0395589 5.5093169 3.2455447
0.076833494 0.044076227 8.728941
0.85810316 1.1073217 8.9059067
1.0988843 1.4367498 8.7196598
1.7095318 2.2664976 9.1228638
2.2654266 3.0252085 8.963335
1.0094278 1.3539562 3.1622362
1.9815063 2.6653442 4.9504848
2.1322956 2.8744113 4.3615746
0.35085875 0.38005617 8.7847471
0.60124069 0.7024408 8.5806274
1.3753643 1.8071396 8.7810364
2.0270677 2.6893244 9.2123156
0.90695363 1.2103658 3.1911051
1.1418797 1.5287821 3.1913381
1.3590143 1.8240641 3.0867882
2.1634376 2.9089437 4.0083203
2.3436029 3.1730895 3.9562798
7.720057 10.463671 10.5673
3.129492 4.2463617 3.5430343
2.8535993 3.8748312 2.6055303
2.8196931 3.8315787 2.0103827
6.8540325 9.2526541 10.33681
8.7650995 11.845432 10.81326
3.3046834 4.4693513 3.351938
0.076986879 0.043807756 8.728941
0.86244148 1.1049321 8.9108458
1.1032712 1.4320986 8.7147646
1.7183361 2.2617052 9.127636
2.2642071 3.0016861 8.9173088
1.0141479 1.3504244 3.1622362
1.9941716 2.6629157 4.9587507
2.1020241 2.8130326 4.2809873
0.35238051 0.37903994 8.7897396
0.60020375 0.69630432 8.5309114
1.381664 1.8023276 8.7810364
2.036443 2.6822321 9.2123156
0.91117311 1.2071924 3.1911051
1.1440729 1.520619 3.1828063
1.365373 1.8193091 3.0867882
2.1532519 2.8742423 3.9715686
2.3482785 3.156306 3.9457662
7.761179 10.442907 10.573577
2.9594827 3.9893661 2.6866882
2.8330507 3.8217132 2.0103827
6.875123 9.2137108 10.320183
8.8160572 11.827727 10.825033
3.2996638 4.4301305 3.3316727
2.7585626 3.7076964 2.2237933
0.077139333 0.043538757 8.728941
0.8672539 1.1031362 8.9207239
1.1082635 1.4282387 8.7147646
1.7262204 2.2556932 9.127636
2.2652154 2.9813199 8.8804893
1.0188555 1.3468763 3.1622362
2.0034547 2.6559386 4.9587507
2.0752058 2.7570221 4.2080746
0.35370147 0.37780759 8.7897396
0.59843159 0.68937963 8.4712543
1.3879468 1.7974938 8.7810364
2.044745 2.6737366 9.2076225
0.91669911 1.2057375 3.1956065
1.1477985 1.5145379 3.1785405
1.3717153 1.814532 3.0867882
2.2020724 2.918124 4.0413966
2.3336165 3.1138446 3.9037118
7.7952514 10.412637 10.570438
10.058106 13.449913 11.095773
2.9574802 3.957721 2.6727755
2.8130884 3.7672262 1.9879062
6.8556452 9.1210079 10.243696
8.8645697 11.806578 10.833862
3.2944109 4.3910003 3.3114071
2.771488 3.6980445 2.2237933
0.077251188 0.043250997 8.7239418
0.87158179 1.1007112 8.925663
1.1132423 1.4243616 8.7147646
1.7349949 2.2508357 9.1324072
2.2625465 2.9563293 8.8298607
1.0235507 1.3433115 3.1622362
2.0042009 2.6377263 4.9380856
4.9780192 6.5655627 9.9413061
0.35501811 0.37657064 8.7897396
0.59626698 0.68207484 8.4066238
1.3934411 1.7916459 8.7761974
2.0540655 2.6665828 9.2076225
0.92222607 1.2042584 3.2001076
1.1514957 1.5084491 3.1742744
1.3798664 1.8121301 3.0907781
2.1999354 2.8942258 4.0193458
6.2379313 8.2631063 10.253949
7.8292074 10.382255 10.5673
10.097446 13.404704 11.087549
2.9579568 3.929677 2.6611814
2.7955673 3.7166307 1.9673029
6.8784266 9.0851145 10.230394
8.8984137 11.765892 10.825033
3.2733312 4.331326 3.2759426
2.8171937 3.7318144 2.2489698
0.07740169 0.042981077 8.7239418
0.87541872 1.0976621 8.925663
1.1182073 1.4204669 8.7147646
1.7446722 2.2471237 9.1419506
2.2871661 2.9669805 8.8850918
1.0282335 1.3397305 3.1622362
4.9950705 6.5405045 9.9297934
0.35633042 0.37532911 8.7897396
0.5975861 0.67879039 8.3917103
1.4004618 1.7877604 8.7810364
2.0633612 2.6593966 9.2076225
0.92775393 1.2027556 3.2046089
1.1567541 1.5044204 3.1742744
1.3880175 1.8096933 3.0947683
2.189415 2.8596115 3.982594
6.2386746 8.2043781 10.20839
7.8630466 10.351764 10.564161
10.16187 13.392694 11.106739
2.926157 3.8593199 2.6217618
2.8365202 3.7437999 1.9860331
6.9689665 9.1382418 10.316857
2.6664968 3.5003545 3.2875991
3.2623193 4.2855735 3.2506111
2.8686631 3.7725356 2.2783427
0.077551253 0.042710632 8.7239418
0.87973171 1.0952053 8.9306021
1.1231589 1.4165549 8.7147646
1.7534252 2.2421958 9.1467228
1.1568061 1.4899819 4.5034881
1.0329038 1.3361331 3.1622362
1.3267241 1.7210778 3.2642415
5.019825 6.525569 9.9336309
0.35763842 0.37408298 8.7897396
0.59782714 0.67430955 8.3618803
1.4059151 1.7818743 8.7761974
2.0736942 2.6535375 9.2123156
0.93328232 1.2012287 3.20911
1.1604015 1.4983115 3.1700087
1.3980106 1.8096062 3.1027484
2.1683283 2.8116834 3.9274664
6.2542644 8.1655636 10.187363
7.8991337 10.324254 10.564161
10.221252 13.373751 11.120446
2.9369218 3.845562 2.6194429
7.0144696 9.1316261 10.33681
2.6516323 3.4557517 3.2552242
3.2038133 4.1783743 3.1796818
2.8514574 3.7228653 2.255264
0.07769987 0.042439669 8.7239418
0.88354933 1.0921277 8.9306021
1.1287323 1.4134214 8.7196598
1.7584701 2.2325437 9.1324072
1.1620001 1.4859347 4.5034881
1.0375615 1.3325194 3.1622362
1.3275459 1.7097683 3.2518427
2.2057674 2.8468614 4.3884373
0.35894203 0.37283233 8.7897396
0.5987553 0.67062998 8.3419952
1.4136907 1.7789237 8.7858763
2.0840116 2.6476386 9.2170076
0.93881148 1.1996779 3.2136111
1.1656245 1.4942518 3.1700087
1.4061693 1.8070931 3.1067383
2.2342823 2.8763845 4.0266962
6.269659 8.1267414 10.166336
7.9351234 10.296618 10.564161
10.239815 13.301543 11.090291
3.1637053 4.1126637 2.8026283
6.986896 9.0303059 10.250347
2.5821099 3.3409362 3.1581001
3.2183788 4.1671653 3.1796818
2.8672073 3.7164826 2.2573621
0.077847533 0.042168185 8.7239418
0.88784713 1.0896392 8.9355421
1.1336592 1.4094727 8.7196598
1.7690358 2.2298999 9.1467228
1.168389 1.4834043 4.508091
1.0422066 1.3288896 3.1622362
1.328305 1.698474 3.239444
2.2354114 2.8644123 4.4268126
0.36024126 0.37157711 8.7897396
0.60073566 0.66813987 8.3370237
1.4214627 1.7759408 8.7955551
2.0953851 2.6430523 9.2263927
0.94434112 1.1981031 3.2181125
1.1692219 1.4881233 3.1657426
1.4161865 1.8069168 3.1147182
2.2547543 2.8819182 4.0450721
6.2979884 8.1048059 10.166336
7.9710169 10.268856 10.564161
10.278497 13.255805 11.082066
3.3137033 4.2766781 2.9185681
6.94034 8.9057293 10.13728
2.33553 3.0001962 2.8520114
3.280549 4.2171507 3.2252791
2.8857327 3.7136192 2.2615583
0.077994257 0.041896194 8.7239418
0.89164525 1.0865334 8.9355421
1.1385723 1.405507 8.7196598
0.91854823 1.1497405 4.7517266
1.1808456 1.4884993 4.535706
1.0468389 1.3252435 3.1622362
1.3272604 1.6849852 3.2229121
2.239454 2.8490322 4.4152999
0.36153612 0.37031737 8.7897396
0.60234767 0.66524941 8.3270798
1.4323872 1.776839 8.8245916
2.104598 2.6357219 9.2263927
0.95122492 1.1982093 3.2271149
1.1744093 1.4840329 3.1657426
1.4262193 1.8066926 3.1226983
2.2480135 2.8527281 4.0156708
6.3526177 8.1164732 10.20839
8.006813 10.24097 10.564161
10.332427 13.229732 11.090291
6.8468924 8.7228498 9.9577036
2.3085778 2.9443138 2.8078642
3.2979085 4.2090673 3.2278123
2.9182589 3.7285409 2.2762444
0.078140028 0.041623686 8.7239418
0.89543259 1.0834143 8.9355421
1.1434715 1.4015241 8.7196598
0.9206841 1.1442013 4.7421823
1.1860342 1.4843683 4.535706
1.0529498 1.3234553 3.1666255
1.3296357 1.6759329 3.2146463
2.2294893 2.8160679 4.376925
0.36282656 0.36905313 8.7897396
0.60430658 0.66274935 8.3221083
0.84269673 1.0380697 5.1853442
2.1116228 2.6256702 9.2170076
0.95676124 1.1965816 3.231616
1.1779568 1.477885 3.1614769
1.4381434 1.8087788 3.1346686
2.2769265 2.8687623 4.0487471
6.4007812 8.1194544 10.239931
8.0376959 10.206842 10.557884
10.3863 13.203444 11.098515
3.2504008 4.1350307 2.8397291
6.1145096 7.7841673 4.0875759
6.8471961 8.66082 9.9144716
3.2297935 4.0926275 3.1492836
2.911588 3.6933825 2.2615583
0.078284845 0.041350674 8.7239418
0.8992089 1.0802821 8.9355421
1.1483568 1.397524 8.7196598
0.93125242 1.1490974 4.7755861
1.0575631 1.3197719 3.1666255
1.3319643 1.666885 3.2063804
2.2073317 2.7681725 4.3155251
0.36431631 0.36798885 8.7947311
0.60625529 0.66024363 8.3171368
0.84790683 1.0370678 5.1950235
2.1109991 2.6062152 9.1747732
0.9636634 1.1966254 3.2406185
1.1831083 1.4737643 3.1614769
1.4500992 1.8108034 3.1466384
2.3906543 2.9905486 4.2288303
6.4313025 8.0998554 10.243436
8.0684385 10.172624 10.551607
10.434922 13.170385 11.101256
3.2758138 4.1375518 2.8490043
6.2595778 7.9118385 4.1643705
6.8308687 8.5784492 9.8479624
9.2083855 11.576604 10.854465
3.2494245 4.0880775 3.15435
2.9244628 3.683197 2.2615583
0.078428708 0.041077156 8.7239418
0.90297437 1.0771366 8.9355421
1.153228 1.393507 8.7196598
1.8132142 2.2211707 9.2135305
1.0621635 1.3160722 3.1666255
1.3342458 1.657841 3.1981144
2.2209949 2.7654483 4.3231997
0.36559865 0.36671489 8.7947311
0.60819387 0.65773249 8.3121653
0.85711598 1.0408931 5.228899
2.1211746 2.6001673 9.1794653
0.96920609 1.1949449 3.2451198
1.1882457 1.4696255 3.1614769
1.4620867 1.8127668 3.1586087
5.7539845 7.1464028 10.024564
6.4305816 8.0411491 10.197877
3.0410383 3.8068004 4.0110636
10.488657 13.143687 11.109481
3.2902365 4.126092 2.8490043
6.113811 7.6724048 4.0519881
6.8607721 8.554553 9.8479624
9.2310495 11.522309 10.833862
5.5509834 6.9337826 5.3050189
2.9344666 3.6694212 2.2594602
0.078571618 0.040803138 8.7239418
0.9067288 1.0739782 8.9355421
1.1580853 1.389473 8.7196598
1.8067354 2.1975334 9.1419506
2.2776859 2.7899756 8.5445042
1.0682617 1.3142151 3.1710143
1.3382525 1.6509876 3.1939816
2.2487772 2.7801068 4.3577371
0.36687648 0.36543649 8.7947311
0.61012238 0.65521592 8.3071947
0.86074418 1.0378948 5.228899
0.850613 1.0354605 3.6983144
0.97612596 1.194926 3.2541223
1.1933682 1.4654688 3.1614769
1.4760053 1.8170069 3.1745687
5.7788944 7.1262746 10.024564
6.4541373 8.0130987 10.190867
3.0591881 3.802227 4.0173407
10.537092 13.110252 11.112222
3.2796538 4.0834975 2.828135
6.152163 7.6654792 4.0594807
6.8624363 8.495697 9.8080559
9.2712126 11.490017 10.833862
5.4993892 6.8204012 5.2340899
0.078753829 0.040545456 8.728941
0.91047215 1.0708066 8.9355421
1.1629285 1.385422 8.7196598
1.8153474 2.192363 9.1467228
2.2712801 2.7623913 8.4846716
1.0728427 1.3104781 3.1710143
1.3422277 1.6441263 3.1898487
2.266566 2.7821801 4.3730874
0.36814985 0.36415365 8.7947311
0.61240578 0.65308219 8.3071947
0.8675856 1.0387423 5.2482567
0.8476209 1.0245081 3.6701579
0.98305762 1.1948735 3.2631247
1.1984764 1.4612942 3.1614769
1.4918796 1.8235043 3.1945188
5.8080235 7.1113095 10.031915
6.4730816 7.9794416 10.176849
3.0724418 3.7915256 4.0173407
10.598577 13.092892 11.128672
3.1490178 3.8929331 2.7075574
6.8378549 8.4050751 9.7315693
9.3189125 11.466995 10.842692
5.4470725 6.7074661 5.1631613
0.07884562 0.040366665 8.728941
0.91289932 1.068738 8.9355421
1.1660688 1.3827798 8.7196598
1.827571 2.1977375 9.1848993
2.2683527 2.7470834 8.4524546
1.0768795 1.3102645 3.1754036
1.3418139 1.6371937 3.1815827
2.2536397 2.7554939 4.3385496
0.36878487 0.36351052 8.7947311
0.61343092 0.6521194 8.3071947
0.86760128 1.0354515 5.2385783
0.85033149 1.0245032 3.6748505
0.98749614 1.1968578 3.2721272
1.2021724 1.4616334 3.1657426
1.5036612 1.8333292 3.214469
5.8188548 7.106832 10.03559
6.4844108 7.9564414 10.166336
3.0877466 3.7941387 4.0267563
10.607512 13.047955 11.109481
3.1096804 3.8278799 2.6681378
6.3892703 7.8732629 4.1849737
6.8227186 8.3596115 9.6916628
3.247894 3.9838052 3.8261974
5.4183211 6.653059 5.127696
0.078972049 0.040118765 8.728941
0.91574568 1.0652757 8.9306021
1.1704072 1.3791097 8.7196598
1.02509 1.2245767 5.1525726
2.2762008 2.7380438 8.4478512
1.0814446 1.3064991 3.1754036
1.3472357 1.632735 3.1815827
