# .PCD v0.7 - Point Cloud Data file format
VERSION 0.7
FIELDS x y z
SIZE 4 4 4
TYPE F F F
COUNT 1 1 1
WIDTH 1543
HEIGHT 1
VIEWPOINT 0 0 0 1 0 0 0
POINTS 1543
DATA ascii
1.4051757 -1.1963391 8.8958883
2.1076288 -1.7701232 8.8460884
2.8769939 -2.3993766 8.8850918
3.6520653 -3.0329261 8.7670908
1.5935369 -1.3195708 3.1113224
5.5261149 -4.566628 8.6595793
0.35795829 -0.36695147 8.7048807
1.3899733 -1.3235092 17.857452
1.7710394 -1.5005646 8.9746141
2.6429937 -2.218293 9.4375677
3.3606598 -2.8047976 9.1147022
1.5170473 -1.2620257 3.2979865
6.0837626 -5.0399942 8.6427031
6.7334061 -5.5406499 8.6488676
8.0427265 -6.6110063 8.477087
3.8156471 -3.1486602 4.4872556
9.3119869 -7.6761494 8.8707743
11.011371 -9.070569 8.4689589
0.039652895 -0.079012372 8.7089415
1.0647324 -0.92469347 8.9651775
1.4002182 -1.2005738 8.8909931
2.09232 -1.7697568 8.8079128
2.8745849 -2.4144309 8.9035015
3.663501 -3.0640948 8.8197594
1.573794 -1.3125085 3.082392
5.5076771 -4.5838394 8.6557417
0.35667518 -0.36819872 8.7048807
1.3857293 -1.328722 17.862425
1.7543173 -1.4969453 8.9165411
2.6325986 -2.2252769 9.4281816
3.3491824 -2.8151107 9.1102009
1.5006386 -1.2572634 3.2723908
6.3693614 -5.3236132 11.066837
6.0635295 -5.0590281 8.6390276
6.7112784 -5.5618443 8.6453629
7.9746289 -6.60181 8.4300108
3.9909339 -3.3003609 3.4799805
3.8017616 -3.1595738 4.4839301
9.1482992 -7.5950031 8.7412758
11.016136 -9.1392288 8.4968243
0.039376847 -0.079150304 8.7089415
1.0614982 -0.92840445 8.9651775
1.3944778 -1.204123 8.8812027
2.0804484 -1.7722093 8.7840519
2.8721054 -2.4294975 8.9219122
3.6692684 -3.0907509 8.8592606
1.5584292 -1.3089442 3.0617273
5.491643 -4.6030374 8.6557417
0.35538778 -0.36944154 8.7048807
1.3810828 -1.333551 17.862425
1.7481282 -1.5022405 8.9117012
2.6221869 -2.2322156 9.4187965
3.3509662 -2.8366303 9.1417103
1.5042135 -1.2692219 3.2894547
6.3691816 -5.3613381 11.098757
6.0432377 -5.0779815 8.6353521
6.6863475 -5.580667 8.6383533
7.8618488 -6.5548291 8.3358574
3.9826024 -3.3169482 3.482722
3.7849829 -3.1680319 4.4772792
9.1372356 -7.6398544 8.755991
11.007323 -9.1969738 8.5145559
0.039084196 -0.07924673 8.7039413
2.1215088 -1.8691621 17.974384
1.3879616 -1.2069786 8.8665171
2.0731165 -1.7784886 8.7792807
2.869556 -2.444576 8.9403219
3.7223783 -3.1577685 9.0128784
1.5452571 -1.3071064 3.0451953
5.4730926 -4.620111 8.6519041
0.35409603 -0.3706798 8.7048807
1.3760375 -1.3379921 17.857452
1.7419233 -1.5075109 8.9068613
2.6130688 -2.2402318 9.4141035
3.3045988 -2.8172381 9.0426826
1.5037484 -1.2778428 3.2979865
6.3757105 -5.4049716 11.142647
6.0228877 -5.0968552 8.6316767
6.6640959 -5.6016774 8.6348486
7.7852659 -6.537179 8.2793646
3.9645925 -3.3254554 3.4772394
3.7710469 -3.1788182 4.4739537
9.1692572 -7.7211699 8.8119116
11.04442 -9.2936287 8.5677538
0.038807336 -0.07938268 8.7039413
2.1126466 -1.874493 17.954628
1.3814423 -1.2098033 8.8518314
2.0657666 -1.7847384 8.7745094
2.8699012 -2.4622107 8.9679365
3.7186162 -3.1769652 9.0304346
1.5299748 -1.3033676 3.0245306
5.4544902 -4.6371112 8.6480665
0.35299796 -0.37212369 8.7098732
1.370978 -1.3424139 17.85248
1.7375979 -1.514408 8.9117012
2.6039274 -2.2482119 9.4094114
3.2617118 -2.8003936 8.9526596
1.5072043 -1.2898675 3.3150501
6.0024791 -5.1156487 8.6280022
6.6417804 -5.622601 8.6313438
7.7148466 -6.5241008 8.2291498
3.962543 -3.3473692 3.4854636
3.7542348 -3.1871293 4.4673028
9.1514969 -7.7609735 8.8207407
10.998757 -9.3209753 8.557621
0.038530003 -0.079517655 8.7039413
2.093925 -1.8709826 17.850903
1.3749202 -1.2125971 8.8371449
2.058398 -1.7909585 8.7697372
2.8686802 -2.4786003 8.9909496
3.707504 -3.1899264 9.0304346
1.5232803 -1.306868 3.0203977
5.4358354 -4.654038 8.6442289
0.35169685 -0.3733536 8.7098732
1.3659043 -1.3468169 17.847509
1.7323011 -1.5204642 8.9117012
2.5934594 -2.2550228 9.4000254
3.2206297 -2.7847078 8.867136
4.9600906 -4.2647328 8.7366629
5.9820132 -5.1343627 8.6243267
6.6194 -5.6434379 8.62784
7.6475768 -6.5131354 8.1820726
3.9317255 -3.3449235 3.4690146
3.7402487 -3.1977882 4.4639769
10.982549 -9.3733034 8.5702868
17.505766 -14.898561 3.2983348
0.038252197 -0.079651669 8.7039413
2.0862262 -1.8772407 17.841024
1.3683957 -1.2153603 8.8224602
2.0510113 -1.7971488 8.7649651
2.8673799 -2.4950111 9.0139618
3.7379766 -3.2389224 9.1313839
1.5187092 -1.3121772 3.0203977
5.417129 -4.6708908 8.6403913
0.35039145 -0.37457898 8.7098732
1.3608168 -1.3512008 17.842539
1.7345169 -1.5331624 8.9504166
2.5816772 -2.2606511 9.3859472
3.1911891 -2.7787771 8.8131208
4.9520073 -4.2879381 8.7486324
5.9589248 -5.1507783 8.6169758
6.5969543 -5.664186 8.6243353
7.598206 -6.516984 8.1538267
3.9168506 -3.3559072 3.4662735
3.7262344 -3.2083886 4.4606519
10.953032 -9.4143925 8.5728188
17.367174 -14.885454 3.2824492
0.03798949 -0.079825468 8.7089415
2.0802362 -1.8850332 17.845963
1.3618685 -1.2180927 8.8077745
2.0436063 -1.8033096 8.7601929
2.8645303 -2.5101554 9.0323725
3.7356703 -3.2598243 9.1533289
1.5395932 -1.3396378 3.069993
5.3983722 -4.6876712 8.6365547
0.34908178 -0.3757998 8.7098732
1.356092 -1.3559427 17.842539
1.7413589 -1.5500737 9.0133295
2.5711818 -2.2673662 9.3765612
3.1683762 -2.7784169 8.7771111
4.9347391 -4.3032179 8.7446432
5.9383526 -5.169322 8.6133013
6.5744452 -5.6848464 8.6208315
7.5371184 -6.5103908 8.1130266
3.8892834 -3.3559005 3.4525661
3.7121911 -3.2189295 4.4573264
8.2142782 -7.1153693 7.9966555
10.942919 -9.4723186 8.5905523
18.90365 -16.305679 1.1007154
0.037710615 -0.07995759 8.7089415
2.0742176 -1.8928071 17.850903
1.3560953 -1.2214758 8.7979832
2.0372992 -1.8104321 8.7601929
2.8645394 -2.5278957 9.0599871
3.7296655 -3.2775872 9.1664972
1.5603037 -1.3672599 3.1195884
5.3795633 -4.7043757 8.6327171
0.34776789 -0.37701604 8.7098732
1.3517259 -1.3610466 17.847509
1.745296 -1.5645337 9.0617228
2.5580904 -2.2717438 9.3577909
3.1472363 -2.779372 8.7456026
4.9106307 -4.3124633 8.7286825
5.9177232 -5.1877842 8.6096268
6.5491829 -5.7030768 8.613822
7.4849806 -6.5111141 8.0816422
3.8775454 -3.3694563 3.4525661
11.456833 -9.9487019 8.0292025
3.6981204 -3.2294118 4.4540005
8.180254 -7.1360283 7.9878263
10.913036 -9.5132904 8.5930853
18.827761 -16.355183 1.0997077
0.037431281 -0.080088742 8.7089415
2.0675979 -1.9000361 17.850903
1.3510693 -1.225518 8.7930889
2.0309672 -1.8175325 8.7601929
2.8629992 -2.5443685 9.0829992
3.7182021 -3.2905862 9.1664972
1.5555216 -1.3726981 3.1195884
5.3607035 -4.7210069 8.6288795
0.34644973 -0.37822765 8.7098732
1.3473407 -1.3661363 17.85248
1.7510196 -1.5807251 9.1197968
2.5462863 -2.2772081 9.3437119
3.1358888 -2.7888942 8.7411013
4.8978047 -4.3315744 8.7326727
5.8970366 -5.2061658 8.6059513
6.5265536 -5.7235518 8.6103172
7.427074 -6.5064244 8.0439806
3.8531737 -3.3719561 3.4416001
11.442043 -10.006129 8.0431156
3.6868248 -3.2423012 4.4540005
8.152257 -7.161871 7.9848833
10.912156 -9.5797653 8.6184168
0.037151489 -0.080218911 8.7089415
2.0615227 -1.9077693 17.855843
1.3460317 -1.2295399 8.7881937
2.0235016 -1.8236115 8.7554207
2.8642905 -2.5634675 9.1152182
3.7031171 -3.3003581 9.1577187
1.5444105 -1.3725113 3.1071897
5.3417935 -4.7375636 8.625042
0.34532088 -0.37964892 8.7148647
1.3429368 -1.3712122 17.857452
1.7501409 -1.5910558 9.1439934
2.5331931 -2.2814627 9.3249416
3.1245129 -2.7983711 8.7366009
4.8646536 -4.332612 8.7007523
5.8762941 -5.2244654 8.6022758
6.5038619 -5.7439375 8.6068125
7.3838859 -6.5142846 8.0220118
3.8633389 -3.4047382 3.4607904
11.426993 -10.063576 8.0570288
3.6754847 -3.2551508 4.4540005
8.112072 -7.1768928 7.9701676
0.036871247 -0.080348104 8.7089415
2.0548508 -1.9149538 17.855843
1.3409822 -1.2335413 8.7832985
2.0171237 -1.8306637 8.7554207
2.865483 -2.5826061 9.1474352
3.6897919 -3.3116643 9.1533289
1.4913836 -1.334729 3.0121319
5.3228335 -4.754046 8.6212044
0.34399357 -0.38085198 8.7148647
1.338142 -1.3758917 17.857452
1.7473575 -1.5997016 9.1585121
2.5213792 -2.286813 9.3108625
3.1147256 -2.8092606 8.7366009
4.838285 -4.3395066 8.6808023
5.8554955 -5.2426844 8.5986004
6.4784422 -5.7618651 8.599803
7.349462 -6.5296783 8.0094576
11.398423 -10.109282 8.0616665
3.6613133 -3.2654755 4.450675
8.0869703 -7.2051659 7.9701676
0.036575712 -0.080435291 8.7039413
2.0475876 -1.9215833 17.850903
1.3366683 -1.2382147 8.7832985
2.0107212 -1.8376936 8.7554207
2.8665764 -2.6017842 9.1796532
3.6746562 -3.3213122 9.1445513
1.4679033 -1.3229703 2.9749353
5.303823 -4.7704539 8.6173668
0.34266207 -0.38205042 8.7148647
1.3337011 -1.3809378 17.862425
1.7408388 -1.6049392 9.1536722
2.5159297 -2.2979281 9.3202486
3.1032894 -2.8186524 8.7320995
4.8029823 -4.338191 8.6448927
5.8346415 -5.2608218 8.5949249
6.4529781 -5.779686 8.5927944
7.3208232 -6.5501018 8.0031805
11.353154 -10.140154 8.0547094
3.6498921 -3.2782362 4.450675
8.0587616 -7.2306509 7.9672246
0.036294717 -0.080562472 8.7039413
2.0408676 -1.928719 17.850903
1.3323379 -1.242873 8.7832985
2.0042942 -1.8447012 8.7554207
2.8661292 -2.6196833 9.2072678
3.659498 -3.3308947 9.1357737
1.4695272 -1.3337601 2.9873343
5.2847633 -4.7867866 8.6135292
0.34132636 -0.38324422 8.7148647
1.3288727 -1.3855848 17.862425
1.7361469 -1.6118615 9.1585121
2.4901125 -2.2903402 9.25455
3.0934315 -2.8294678 8.7320995
4.794497 -4.3610125 8.6568623
5.8137321 -5.2788773 8.5912504
6.4274673 -5.797399 8.5857859
7.295023 -6.5730114 8.000042
11.297929 -10.161948 8.0407972
3.635658 -3.2884519 4.44735
8.0304737 -7.2560277 7.9642811
10.870126 -9.81497 8.6918793
0.035998721 -0.080647543 8.6989422
2.0335596 -1.9352952 17.845963
1.3287334 -1.2482135 8.7881937
1.9978427 -1.8516861 8.7554207
2.8655915 -2.6376107 9.2348824
3.6443176 -3.3404114 9.1269951
1.4960182 -1.3673605 3.0493283
5.2656541 -4.8030443 8.6096916
0.33998653 -0.38443333 8.7148647
1.3236607 -1.3898289 17.857452
1.7314281 -1.6187707 9.1633511
2.4631126 -2.2814276 9.1841583
3.0819349 -2.8387737 8.7275982
4.7881331 -4.3858638 8.672822
5.7927685 -5.2968512 8.587575
6.399272 -5.8126054 8.5752716
7.2691522 -6.5958204 7.9969039
9.6584673 -8.7546358 8.6311951
11.249255 -10.189428 8.0315218
3.6434791 -3.3187232 4.4706283
7.9991179 -7.278574 7.9583945
10.858124 -9.8731546 8.7096109
0.035716988 -0.080772713 8.6989422
2.0262311 -1.9418443 17.841024
1.3243682 -1.2528441 8.7881937
1.9913671 -1.8586488 8.7554207
2.8649638 -2.6555665 9.2624989
3.6308756 -3.3514881 9.1226063
1.532644 -1.4106909 3.1319873
5.2464957 -4.8192282 8.605855
0.33864254 -0.38561779 8.7148647
1.3184351 -1.3940533 17.85248
1.7266822 -1.6256664 9.168191
2.4109685 -2.2488124 9.0199118
3.0720069 -2.8495142 8.7275982
3.8998938 -3.6061437 8.7583818
4.779439 -4.4086795 8.6847916
5.7767377 -5.3193359 8.5912504
6.3815746 -5.8373151 8.5787764
7.2403374 -6.6159029 7.9906268
9.6432896 -8.8023911 8.6449022
11.200527 -10.216691 8.0222464
3.6346238 -3.333945 4.4739537
7.9855824 -7.3173757 7.9701676
10.893538 -9.9750433 8.7653418
0.03543482 -0.080896892 8.6989422
2.0188813 -1.9483656 17.836084
1.320724 -1.2581617 8.7930889
1.9837793 -1.8645662 8.7506485
2.8613892 -2.6708834 9.2809086
3.6174002 -3.3625109 9.1182165
1.5442203 -1.4313365 3.165051
5.2272887 -4.8353357 8.6020174
0.3372944 -0.38679752 8.7148647
1.3131963 -1.3982583 17.847509
1.721909 -1.6325485 9.1730309
2.3854954 -2.2406731 8.9542122
3.0620415 -2.8602204 8.7275982
3.881556 -3.6144025 8.7455845
4.7706437 -4.4314885 8.6967621
5.7382479 -5.3210268 8.5618486
6.3690281 -5.8668036 8.5892897
7.2143354 -6.6385007 7.9874883
9.5971136 -8.8218508 8.6311951
11.155009 -10.246737 8.0152903
7.0074272 -6.4729872 8.5776215
3.6230192 -3.343163 3.6731532
10.903021 -10.05392 8.800806
0.035152223 -0.081020094 8.6989422
2.0115111 -1.9548595 17.831146
1.3170587 -1.2634691 8.7979832
1.9772587 -1.8714794 8.7506485
2.856319 -2.6848698 9.2947159
3.6038921 -3.3734806 9.1138277
1.5392147 -1.4367182 3.165051
5.2103786 -4.8535528 8.6020174
0.33613038 -0.38819134 8.7198553
1.3075808 -1.4020536 17.837566
1.7161999 -1.6385492 9.1730309
2.3638697 -2.2359414 8.9025927
3.0504534 -2.8694 8.7230968
3.8632085 -3.6225777 8.7327871
4.7573462 -4.4501724 8.7007523
5.704772 -5.3271418 8.5397978
6.3589687 -5.8987012 8.6033077
7.1882634 -6.6609974 7.9843497
9.5447807 -8.8354139 8.6120052
11.112669 -10.279596 8.0106525
6.9875231 -6.4999509 8.580946
3.6231713 -3.3667953 3.6849258
10.858382 -10.083117 8.7932062
0.034869194 -0.081142299 8.6989422
2.0041194 -1.9613254 17.826206
1.3133726 -1.2687664 8.8028784
1.970714 -1.87837 8.7506485
2.8526046 -2.7001958 9.3131256
3.5920949 -3.38604 9.1138277
1.5239384 -1.4324452 3.1443861
5.1910672 -4.8695183 8.5981798
0.33496079 -0.38958186 8.7248468
1.3026787 -1.4066093 17.837566
1.7086579 -1.6427875 9.1633511
2.3610482 -2.2489402 8.9213629
3.0404186 -2.8800306 8.7230968
3.8448515 -3.6306689 8.7199888
4.7198505 -4.4460902 8.6608524
5.6762633 -5.3377328 8.5250969
3.4091191 -3.1845372 4.6641984
7.1621227 -6.683393 7.9812112
9.4924707 -8.8487186 8.5928154
11.070237 -10.312284 8.0060148
6.9593425 -6.5191975 8.574295
3.6084454 -3.3766599 3.6819825
10.804228 -10.103293 8.7780075
0.034585744 -0.081263527 8.6989422
1.997261 -1.968309 17.826206
1.3096654 -1.2740533 8.8077745
1.9630685 -1.8842038 8.7458763
2.8445759 -2.7114849 9.317728
3.5802534 -3.3985581 9.1138277
1.5148419 -1.4338869 3.1361201
5.1717072 -4.8854074 8.5943422
0.33378559 -0.39096889 8.7298393
1.2974002 -1.4107555 17.832596
1.7011069 -1.6469927 9.1536722
2.350693 -2.2547789 8.9119778
3.0287716 -2.8891232 8.7185965
3.8434939 -3.6548512 8.7455845
4.6889992 -4.4480219 8.6329222
5.6477509 -5.3481903 8.510397
3.3953848 -3.1939743 4.6606936
7.1330771 -6.7030215 7.9749341
9.4554281 -8.8760767 8.5873318
11.034173 -10.350864 8.0060148
6.9229636 -6.5306396 8.5576677
3.5907536 -3.3836911 3.6760964
10.762618 -10.135035 8.7729406
0.034315567 -0.08142519 8.7039413
1.9903783 -1.9752688 17.826206
1.3059374 -1.2793298 8.8126698
1.9564794 -1.8910447 8.7458763
2.8491874 -2.7349272 9.3637533
3.5683684 -3.4110348 9.1138277
1.5098275 -1.4391661 3.1361201
5.1522999 -4.9012213 8.5905046
0.3326048 -0.39235243 8.7348309
1.292468 -1.4152756 17.832596
1.6926479 -1.6502881 9.1391544
2.3415668 -2.2617714 8.9072847
3.0170984 -2.89817 8.7140951
3.8834546 -3.7187524 8.8650303
4.6472979 -4.4393849 8.585041
5.6437683 -5.3819098 8.5324478
3.3764479 -3.1984491 4.6501803
7.1068087 -6.7252049 7.9717965
9.4183102 -8.9032831 8.5818491
11.010855 -10.401486 8.0152903
6.894711 -6.549623 8.5510168
3.564261 -3.3822932 3.6613805
10.692767 -10.139912 8.7450752
0.03403113 -0.081544474 8.7039413
1.9834712 -1.9822044 17.826206
1.3021885 -1.2845957 8.817565
1.9498664 -1.8978626 8.7458763
2.8480511 -2.7530034 9.3913689
3.5564399 -3.42347 9.1138277
1.4987046 -1.4385812 3.1237214
5.1351604 -4.9191756 8.5905046
0.33160353 -0.39395401 8.7448139
1.2878776 -1.4201736 17.837566
1.6859801 -1.6553056 9.1343155
2.3324208 -2.2687283 8.9025927
3.0053988 -2.9071703 8.7095938
3.8723276 -3.7340956 8.869297
4.636116 -4.4597583 8.5930214
5.629838 -5.4062734 8.5397978
3.3471999 -3.1929843 4.625648
7.0776548 -6.7446003 7.9655194
10.256375 -9.7635441 9.3686495
10.977689 -10.44291 8.0176086
6.8664103 -6.5684881 8.5443659
3.5582769 -3.4002991 3.6672666
10.638601 -10.159312 8.7298765
0.03374628 -0.081662767 8.7039413
1.9765399 -1.9891161 17.826206
1.2984188 -1.2898512 8.8224602
1.9442958 -1.9057022 8.7506485
2.8482232 -2.7724674 9.4235868
3.5427482 -3.4341965 9.1094379
1.4876041 -1.4379363 3.1113224
5.1156511 -4.9348459 8.5866671
0.33041081 -0.39533126 8.7498064
1.2832689 -1.4250568 17.842539
1.6757228 -1.6567614 9.110117
2.3220217 -2.274441 8.8932066
2.9936733 -2.9161243 8.7050924
3.8835921 -3.7712095 8.9247532
4.6183562 -4.4738173 8.5890312
5.623117 -5.437676 8.5581732
3.3360336 -3.2046487 4.625648
7.0484509 -6.7638745 7.9592423
10.34599 -9.9179249 9.4810495
6.8380618 -6.587235 8.537715
3.5551236 -3.4211073 3.6760964
10.578217 -10.172482 8.7096109
0.033461016 -0.081780069 8.7039413
1.9701302 -1.9965566 17.831146
1.2946284 -1.2950959 8.8273554
1.938694 -1.9135262 8.7554207
2.846899 -2.7905984 9.4512024
3.5290258 -3.444869 9.1050491
1.4422482 -1.4038624 3.0286636
5.0960951 -4.950439 8.5828295
0.32921249 -0.39670497 8.7547979
1.2782867 -1.4295276 17.842539
1.6699295 -1.6626009 9.110117
2.3054688 -2.274049 8.8603573
2.9819217 -2.9250317 8.7005911
3.833112 -3.7482743 8.8394356
4.6005549 -4.4878073 8.585041
5.6065307 -5.4596362 8.5618486
3.3171375 -3.2088356 4.6151347
7.0219998 -6.7857327 7.9561038
10.386517 -10.026583 9.5495863
6.8096666 -6.6058645 8.531064
3.5460622 -3.4363089 3.6790392
10.536449 -10.203346 8.704545
0.033188462 -0.081937984 8.7089415
1.963149 -2.0034215 17.831146
1.2915339 -1.3010525 8.8371449
1.9330615 -1.9213344 8.7601929
2.8343596 -2.7977738 9.4419966
3.5152714 -3.455488 9.1006603
1.429301 -1.4010085 3.0121319
5.0764923 -4.9659562 8.5789919
0.3280085 -0.39807507 8.7597885
1.273289 -1.4339809 17.842539
1.6516899 -1.6559592 9.042366
2.2877226 -2.2723534 8.8228159
2.9701445 -2.933893 8.6960897
3.7772648 -3.7195435 8.7413187
4.5827117 -4.5017271 8.5810518
5.5825977 -5.4744258 8.5544987
3.3033619 -3.2179065 4.61163
6.9954801 -6.807488 7.9529653
10.393431 -10.103583 9.5879679
4.6972394 -4.563036 3.5144999
6.7838955 -6.6269846 8.5277376
10.469907 -10.209968 8.6792135
0.032902241 -0.082053334 8.7089415
1.9566854 -2.0108187 17.836084
1.2876993 -1.3062782 8.842041
1.9316176 -1.9333504 8.7840519
2.8259618 -2.8090279 9.446599
3.499784 -3.4643676 9.0918827
1.4143887 -1.3961045 2.991467
5.0591269 -4.9836464 8.5789919
0.32698113 -0.39966568 8.7697725
1.2682756 -1.4384168 17.842539
1.6397082 -1.6554625 9.0084896
2.2700167 -2.2705617 8.7852736
2.9598854 -2.9442427 8.6960897
3.7549987 -3.7235231 8.7199888
4.5648279 -4.5155773 8.5770617
5.5610423 -5.491498 8.5508242
3.2870173 -3.2244229 4.6046209
6.9716744 -6.8318648 7.9529653
10.367063 -10.148577 9.5961914
4.64645 -4.54533 3.4889929
6.7553988 -6.6453891 8.5210876
8.2471609 -8.1043978 8.5028791
10.418825 -10.23135 8.6665478
0.032615621 -0.082167685 8.7089415
1.9507341 -2.0187542 17.845963
1.2838438 -1.3114928 8.8469362
1.9301137 -1.9453801 8.8079128
2.809236 -2.8119648 9.4235868
3.4842775 -3.4731815 9.0831041
1.415494 -1.4069849 3.003866
5.0394254 -4.9990187 8.5751553
0.32576534 -0.40102932 8.7747641
1.2632469 -1.4428352 17.842539
1.6259876 -1.65311 8.9649353
2.2535665 -2.2698984 8.7524233
2.9480522 -2.9530163 8.6915894
3.7382874 -3.7329223 8.7114563
4.5469027 -4.5293574 8.5730715
5.5370317 -5.5060949 8.5434732
3.2706678 -3.2308643 4.5976119
6.9782605 -6.8862329 7.9874883
4.6305556 -4.5615215 3.4889929
6.7295084 -6.6663013 8.5177622
8.2015839 -8.1160774 8.4852209
10.361591 -10.246438 8.6488152
0.032341279 -0.082322784 8.7139416
1.9442135 -2.0261121 17.850903
1.2799678 -1.3166965 8.8518314
1.9295965 -1.9584858 8.836544
2.7952757 -2.8175926 9.4097795
3.4670615 -3.480232 9.0699368
5.0196767 -5.0143142 8.5713177
0.32454398 -0.40238929 8.7797556
1.2582028 -1.4472359 17.842539
1.6123034 -1.650682 8.92138
2.2419951 -2.2740643 8.7383461
2.9392586 -2.9648347 8.6960897
3.7270732 -3.7477977 8.715723
4.531065 -4.5452018 8.5730715
5.5153823 -5.5229902 8.5397978
3.2543137 -3.2372313 4.5906029
7.0093985 -6.9654226 8.0502577
9.1742315 -9.1071672 8.5599174
4.5957355 -4.558939 3.4750803
6.7035537 -6.6871133 8.5144367
8.1760654 -8.1475105 8.488163
4.7886152 -4.7635636 3.2098777
16.307655 -16.194185 3.2976439
0.03205372 -0.082435176 8.7139416
1.9382011 -2.0340114 17.860781
1.2760707 -1.321889 8.8567266
1.9310988 -1.9737457 8.8747206
2.778568 -2.8203738 9.3867664
3.4548922 -3.4923131 9.0699368
4.9998832 -5.0295324 8.5674801
0.32331714 -0.40374568 8.7847471
1.2531434 -1.4516191 17.842539
1.5995312 -1.6490811 8.8826647
2.2352507 -2.2831099 8.7430382
2.9288914 -2.9750767 8.6960897
3.7121358 -3.7589295 8.7114563
4.5130515 -4.5588489 8.5690813
5.4936833 -5.5398021 8.5361223
3.2379546 -3.2435234 4.5835934
7.0098033 -7.0146255 8.0785036
9.1778727 -9.1746111 8.5928154
6.6749024 -6.7051802 8.5077848
8.1447229 -8.1731367 8.4852209
4.7815776 -4.7898865 3.2161722
0.031753391 -0.082504719 8.7089415
1.9326912 -2.0424583 17.875599
1.2714487 -1.3263354 8.8567266
1.928358 -1.9847574 8.8938084
2.7632415 -2.8244696 9.3683567
3.4544296 -3.5163116 9.1006603
1.4303051 -1.4518009 3.0658603
4.9800448 -5.0446734 8.5636425
0.32208478 -0.40509838 8.7897396
1.2480687 -1.4559846 17.842539
1.5911494 -1.6519383 8.8681459
2.2272675 -2.2908986 8.7430382
2.9200103 -2.9868388 8.7005911
3.698992 -3.7718639 8.7114563
4.4949985 -4.5724258 8.5650911
5.4743123 -5.5589447 8.5361223
3.2215917 -3.2497411 4.5765848
7.0209174 -7.0749693 8.1193037
9.1457911 -9.2065916 8.5928154
6.6488309 -6.7257838 8.5044594
8.1047707 -8.1900253 8.4734478
4.5845542 -4.6295285 3.9143038
4.7903895 -4.8323331 3.2329566
16.054626 -16.167086 3.2700169
0.031465203 -0.082615063 8.7089415
1.9255499 -2.049192 17.875599
1.2675133 -1.331503 8.8616219
1.9193454 -1.9893279 8.884264
2.7465589 -2.8270915 9.3453445
3.4454787 -3.5317767 9.1094379
1.4134216 -1.4447153 3.0410624
4.9601617 -5.0597372 8.5598049
0.32084686 -0.40644738 8.7947311
1.2429787 -1.4603322 17.842539
1.5871109 -1.6592993 8.8778257
2.2276468 -2.3073499 8.7758875
2.9110832 -2.9985754 8.7050924
3.6949008 -3.794095 8.7327871
4.4748001 -4.5837755 8.5571108
5.4525042 -5.5755959 8.5324478
3.2077262 -3.258425 4.5730801
7.0098381 -7.1132951 8.1349955
9.0959787 -9.2205992 8.5763655
4.634881 -4.6950846 3.5400066
6.6200814 -6.7436223 8.4978085
8.070466 -8.2125006 8.4675617
4.5804563 -4.6577978 3.9244366
4.751205 -4.826385 3.2182701
0.031164538 -0.082682468 8.7039413
1.9231551 -2.0610144 17.920053
1.2628577 -1.3359195 8.8616219
1.9144549 -1.9981713 8.8938084
2.7298918 -2.8296311 9.3223305
3.4464612 -3.557544 9.1445513
1.4162133 -1.4577141 3.0575943
4.9402332 -5.0747237 8.5559673
0.31942618 -0.40756485 8.7947311
1.2375296 -1.4642547 17.837566
1.5821747 -1.6657406 8.8826647
2.2207732 -2.3163576 8.7805805
2.9021094 -3.0102861 8.7095938
3.6870732 -3.8125942 8.7455845
4.4566755 -4.5972042 8.5531216
5.4306464 -5.5921626 8.5287724
3.1938398 -3.2670519 4.5695753
3.2662537 -3.3376448 3.8478642
10.278075 -10.491902 9.7140751
4.6277666 -4.7207246 3.546963
6.5938964 -6.7640171 8.4944839
8.0332813 -8.2319431 8.4587326
4.5641699 -4.673758 3.9244366
4.7438469 -4.8526769 3.2245643
0.030875731 -0.082790755 8.7039413
1.9191173 -2.071135 17.949686
1.2588835 -1.3410619 8.8665171
1.9074683 -2.0048418 8.8938084
2.7118893 -2.8306782 9.2947159
3.4223988 -3.5574708 9.1138277
1.4091625 -1.4606234 3.0534613
4.9224892 -5.0919371 8.5559673
0.31817812 -0.40890583 8.7997227
1.2324109 -1.4685657 17.837566
1.5763505 -1.6712532 8.8826647
2.2269523 -2.3390942 8.8368931
2.8945944 -3.0235431 8.7185965
3.6900005 -3.842371 8.7839775
4.4406009 -4.6127329 8.5531216
5.4110928 -5.6110849 8.5287724
3.1774485 -3.2730632 4.5625663
10.378426 -10.668584 9.8429232
4.6205301 -4.7463727 3.5539196
6.5650511 -6.7816267 8.4878321
7.9988728 -8.2541294 8.4528456
4.5328221 -4.6741886 3.9117706
4.7237177 -4.8659496 3.2224662
0.030574748 -0.082856007 8.6989422
0.94502777 -1.0267501 8.8713322
1.2541946 -1.3454481 8.8665171
1.9045587 -2.0158281 8.9128962
2.6952589 -2.8330498 9.2717028
3.4116149 -3.5711274 9.1182165
1.4001622 -1.4614693 3.0451953
4.9024649 -5.1067767 8.5521297
0.31710026 -0.41047201 8.8097057
1.2272772 -1.4728587 17.837566
1.5756621 -1.6822506 8.9117012
2.2270718 -2.3556314 8.8697424
2.8855228 -3.0352068 8.7230968
3.6963642 -3.8759897 8.8309031
4.42239 -4.6260271 8.5491314
5.3891287 -5.6274905 8.5250969
3.1635289 -3.2815673 4.559062
3.2563872 -3.3743701 3.8635561
10.576443 -10.948343 10.064982
4.6100917 -4.7688417 3.558557
6.5361633 -6.7991185 8.4811811
7.9616027 -8.273262 8.4440165
4.5194693 -4.6930876 3.9143038
0.030285342 -0.08296223 8.6989422
0.94143796 -1.0300426 8.8713322
1.2494905 -1.349818 8.8665171
1.9026167 -2.0279074 8.9367552
2.677304 -2.8339195 9.2440882
3.3941834 -3.5778017 9.1050491
1.3931125 -1.4643089 3.0410624
4.8823977 -5.1215382 8.5482922
0.31584048 -0.41180602 8.8146973
1.2217889 -1.4767228 17.832596
1.5800523 -1.6987864 8.9697742
2.2318277 -2.3772309 8.9213629
2.8764048 -3.0468435 8.7275982
4.4062152 -4.6414356 8.5491314
5.3647804 -5.6413546 8.5177469
3.1495883 -3.2900136 4.5555573
3.2311234 -3.3716652 3.8478642
10.740789 -11.19642 10.256885
4.5964851 -4.7881007 3.5608759
6.5098114 -6.8191915 8.4778557
7.9242983 -8.2922373 8.4351873
4.5179563 -4.7244124 3.9269698
0.029995564 -0.083067439 8.6989422
0.93940276 -1.035049 8.8861494
1.2447711 -1.3541712 8.8665171
1.9006138 -2.0399976 8.9606161
2.6607125 -2.8361239 9.221076
3.366894 -3.5739381 9.065547
1.3879926 -1.4691628 3.0410624
4.8600841 -5.1338954 8.540617
0.31474936 -0.41336653 8.8246813
1.2162886 -1.4805664 17.827623
1.5834928 -1.7144493 9.0230074
2.223516 -2.3850071 8.9213629
2.8687291 -3.0600417 8.7366009
3.7710533 -4.0099959 9.0740614
4.389987 -4.6567883 8.5491314
5.3427281 -5.6575823 8.5140724
3.1331708 -3.2958186 4.5485482
3.2193346 -3.3829234 3.8478642
10.776628 -11.312559 10.328162
4.588913 -4.813735 3.5678322
6.4808311 -6.8364539 8.4712048
7.8897395 -8.313983 8.4293003
4.5133114 -4.7526574 3.9371026
11.50809 -12.105777 7.8088093
0.029705422 -0.083171636 8.6989422
0.93890411 -1.0417858 8.9157839
1.240723 -1.3592602 8.8714123
1.8985494 -2.0520985 8.9844761
2.6454697 -2.8396759 9.2026653
3.3429451 -3.5734258 9.0348234
1.3828559 -1.4739989 3.0410624
4.8399382 -5.1484933 8.5367794
0.31382453 -0.41515529 8.8396559
1.211113 -1.484803 17.827623
1.5851442 -1.7283044 9.0665627
2.2151773 -2.3927541 8.9213629
2.8595135 -3.0716302 8.7411013
3.7605932 -4.026948 9.082593
4.3716459 -4.6698842 8.5451412
5.3159895 -5.6687779 8.503046
3.1167512 -3.3015487 4.5415392
3.2101798 -3.3969693 3.8510025
10.777304 -11.392635 10.366543
4.572082 -4.8297243 3.5678322
14.956439 -15.76629 4.2173839
6.4518094 -6.8535972 8.4645538
7.8551259 -8.3355894 8.4234142
4.5114813 -4.7840643 3.9497681
11.478224 -12.159073 7.8172007
0.029414918 -0.083274826 8.6989422
0.934744 -1.0444778 8.9108458
1.2366544 -1.3643374 8.8763075
1.8964238 -2.0642097 9.0083361
2.6222746 -2.8345513 9.1566401
3.3076308 -3.5605068 8.9733772
1.3777022 -1.4788169 3.0410624
4.8197498 -5.1630135 8.5329418
0.31271848 -0.41671112 8.8496389
1.2055875 -1.4886073 17.822653
1.583333 -1.738474 9.0907602
2.2068114 -2.4004717 8.9213629
2.8502517 -3.0831916 8.7456026
3.748287 -4.0419621 9.0868597
4.3553185 -4.6851158 8.5451412
5.2915487 -5.6823378 8.4956961
3.1003296 -3.3072045 4.5345302
3.1956389 -3.4053159 3.8478642
10.754648 -11.448471 10.382992
10.781169 -11.46869 8.3260098
14.820475 -15.732587 4.1950006
6.420198 -6.8678946 8.4545774
7.8204575 -8.3570547 8.4175272
4.5035944 -4.8092232 3.9573679
11.438815 -12.202377 7.8192992
14.87189 -15.825876 0.9697203
0.029124055 -0.083376996 8.6989422
0.93057632 -1.0471534 8.9059067
1.2325653 -1.3694025 8.8812027
1.8942366 -2.0763309 9.032196
2.6189725 -2.8508816 9.1796532
3.3081732 -3.5861139 9.0084896
1.3725318 -1.4836169 3.0410624
4.8016987 -5.1798058 8.5329418
0.31160545 -0.4182643 8.859622
1.202053 -1.4948844 17.847509
1.5620805 -1.7272081 9.0036507
2.1972556 -2.4068859 8.9166708
2.8424163 -3.0963297 8.7546053
3.7447546 -4.0665326 9.1124544
4.336894 -4.6980762 8.541152
5.2670784 -5.695796 8.4883461
3.0863366 -3.3153961 4.5310254
3.1810794 -3.4136028 3.8447256
10.683244 -11.452309 10.352836
10.74107 -11.506253 8.3260098
14.574188 -15.579747 4.1418414
6.3961854 -6.8902631 8.4545774
7.788487 -8.3813419 8.4145842
4.4955864 -4.8343849 3.9649673
11.393058 -12.238909 7.8172007
14.772246 -15.830209 0.96710038
0.028832838 -0.083478145 8.6989422
0.92691547 -1.0503953 8.9059067
1.2230289 -1.3683817 8.8469362
1.8919876 -2.0884621 9.0560551
2.6116385 -2.8628929 9.188858
3.2923999 -3.5941079 8.999711
1.3616338 -1.4821819 3.0286636
4.7814174 -5.1941772 8.5291042
0.31031445 -0.41958216 8.8646145
1.2001508 -1.5032388 17.897224
1.537567 -1.7120742 8.8971834
2.1876812 -2.4132624 8.9119778
2.8330574 -3.1078417 8.7591066
3.7287774 -4.0776548 9.1081886
4.3184319 -4.7109647 8.5371618
5.2402854 -5.706656 8.4773207
3.0699034 -3.3209116 4.5240164
3.163857 -3.4189723 3.8384485
10.586371 -11.42818 10.298006
10.691806 -11.53393 8.3190527
14.459537 -15.565742 4.1250544
15.386436 -16.551975 2.1217735
6.3720946 -6.9125481 8.4545774
7.7537012 -8.4025373 8.4086981
4.4699101 -4.8405466 3.9573679
11.344107 -12.271939 7.8130054
15.302298 -16.524961 3.2334111
14.727087 -15.892671 0.96770501
0.02855204 -0.083620571 8.7039413
0.92324322 -1.0536244 8.9059067
1.2148663 -1.3688344 8.8224602
1.8896773 -2.1006029 9.079916
2.5963826 -2.8662 9.1704473
3.2846687 -3.6108937 9.0128784
1.3640375 -1.495242 3.0451953
4.763257 -5.2108355 8.5291042
0.30918816 -0.42112935 8.8745975
1.192911 -1.5049115 17.867397
1.5324177 -1.7183686 8.9020224
2.1780896 -2.4196014 8.9072847
2.8265741 -3.1225533 8.7726097
3.716274 -4.0925765 9.1124544
4.3019609 -4.7260103 8.5371618
5.2134805 -5.7173972 8.4662943
3.0558808 -3.3289802 4.5205121
3.146636 -3.424263 3.8321719
10.461491 -11.37274 10.215762
10.642479 -11.561404 8.3120966
14.371807 -15.580014 4.1157279
15.139405 -16.400665 2.0967369
6.3630524 -6.951273 8.4745302
7.7188621 -8.4235916 8.402812
9.5369473 -10.400403 8.3777657
11.285854 -12.294745 7.8025146
0.028259978 -0.08371973 8.7039413
0.91955972 -1.0568407 8.9059067
1.2094077 -1.3723027 8.817565
1.884322 -2.1094129 9.0894594
2.5863621 -2.8752456 9.1704473
3.2592015 -3.608119 8.977766
3.9299381 -4.3385396 8.6701384
4.7428846 -5.2250576 8.5252666
0.30805477 -0.42267367 8.8845806
1.1860036 -1.506971 17.842539
1.5280766 -1.7255898 8.9117012
2.1696303 -2.4271896 8.9072847
2.8214781 -3.1388774 8.7906151
3.6932335 -4.09584 9.0911255
4.2834177 -4.7387624 8.5331717
5.1866651 -5.7280221 8.4552698
3.0418394 -3.3369911 4.5170074
3.1267934 -3.4266005 3.8227565
10.339947 -11.319656 10.136261
10.590101 -11.585402 8.3028212
14.317336 -15.630087 4.1157279
15.011399 -16.37632 2.0873482
6.3513069 -6.987257 8.4911575
7.6866918 -8.4474945 8.399869
9.4860716 -10.417691 8.365099
11.233697 -12.324003 7.7962203
15.026277 -16.455858 3.200258
0.027978042 -0.083860219 8.7089415
0.9173885 -1.0618085 8.9207239
1.2039397 -1.3757496 8.8126698
1.8908137 -2.1316118 9.1562672
2.5502818 -2.8551145 9.0783978
3.2114062 -3.5802503 8.8812065
3.9091241 -4.3459539 8.6577396
4.724617 -5.2415814 8.5252666
0.30691442 -0.42421532 8.8945637
1.1810639 -1.5115219 17.847509
1.5129147 -1.7205287 8.8584671
2.158854 -2.4321673 8.8978996
2.8148534 -3.15358 8.8041191
3.6771741 -4.1067634 9.0868597
4.2668505 -4.753686 8.5331717
5.1598387 -5.7385292 8.4442434
3.0277793 -3.3449447 4.5135026
3.109586 -3.4317253 3.8164794
10.255422 -11.306126 10.092397
10.540666 -11.612459 8.2958651
14.193277 -15.603658 4.0961432
14.944086 -16.417572 2.0860071
6.3393869 -7.0232425 8.5077848
7.6517367 -8.468276 8.3939819
9.4409761 -10.441149 8.3574991
11.172335 -12.342951 7.7836318
14.945459 -16.482529 3.1954234
0.027685143 -0.083957374 8.7089415
0.90861905 -1.0591056 8.8713322
1.1951237 -1.3753316 8.7832985
1.8942137 -2.1505218 9.2087593
2.5156698 -2.8362284 8.9909496
3.1622519 -3.5503032 8.7802572
3.8751845 -4.3385849 8.6164103
4.704154 -5.2556534 8.5214291
0.30576706 -0.42575413 8.9045477
0.58776635 -0.75675201 8.8938313
1.5077262 -1.7267463 8.863307
2.14921 -2.4383934 8.8932066
2.8153794 -3.1764197 8.8401289
3.6558847 -4.1117773 9.0697956
4.2502308 -4.7685509 8.5331717
5.1307449 -5.7463903 8.4295435
3.0137007 -3.3528411 4.5099983
3.0897777 -3.4338787 3.8070643
8.2065945 -9.1110868 8.1240244
10.488203 -11.636021 8.2865896
14.076162 -15.583844 4.078423
6.324801 -7.0564504 8.5210876
7.6167321 -8.4889174 8.3880968
9.392952 -10.46121 8.3473663
11.126148 -12.3785 7.7815342
14.831504 -16.472038 3.183682
0.027391911 -0.084053494 8.7089415
0.90340549 -1.0604959 8.856514
2.2889776 -2.6532056 16.870214
1.8965217 -2.1683569 9.2564783
2.4825125 -2.8186021 8.9081039
3.1466665 -3.5577321 8.7714796
3.8562822 -4.3478751 8.6081448
4.68365 -5.2696457 8.5175915
0.30477953 -0.4275257 8.9195223
0.58609629 -0.76006663 8.9087458
1.49181 -1.7206014 8.805234
2.1406851 -2.4458809 8.8932066
2.8157804 -3.1993015 8.8761387
3.6449618 -4.1284242 9.0783272
4.2315621 -4.7811012 8.5291815
5.1016583 -5.7541175 8.4148426
2.9996042 -3.3606799 4.506494
3.0751789 -3.4417403 3.8039258
8.1580153 -9.1209774 8.1075754
10.438659 -11.662659 8.2796335
14.00528 -15.614601 4.07376
6.3125424 -7.0924301 8.537715
7.5816765 -8.5094175 8.3822098
9.3477716 -10.484281 8.3397675
11.07985 -12.413877 7.7794366
14.7112 -16.453568 3.1705589
0.027088312 -0.08410614 8.7039413
0.89718997 -1.0606761 8.8318176
2.2896373 -2.6727793 16.943642
1.9046006 -2.192997 9.3328304
2.4482229 -2.7993083 8.8206558
3.1263266 -3.5596962 8.7495337
3.8280625 -4.3465266 8.5792131
4.663106 -5.2835588 8.5137539
0.30394933 -0.42953172 8.9394884
0.58149838 -0.75956607 8.8789177
2.4533947 -2.8499429 14.515755
2.1298707 -2.4507332 8.8838215
2.8174877 -3.2238636 8.9166498
3.6322484 -4.1430836 9.082593
4.2148471 -4.7958431 8.5291815
5.0703416 -5.7591686 8.3964672
2.9854896 -3.3684611 4.5029893
3.0708961 -3.4611886 3.8133409
8.1039143 -9.1243887 8.0856438
10.389057 -11.689093 8.2726774
13.931087 -15.641385 4.0681648
6.2926922 -7.120018 8.5443659
7.5465698 -8.5297756 8.3763237
9.3025455 -10.507164 8.3321676
11.04849 -12.466062 7.787828
14.610937 -16.456678 3.1615801
0.026794562 -0.084200181 8.7039413
0.89148384 -1.0614208 8.8120604
2.2802935 -2.6807554 16.943642
1.9018081 -2.2052846 9.3566904
2.4115369 -2.77686 8.7240028
3.1028633 -3.5579522 8.7188101
3.7999001 -4.3450351 8.5502825
4.6404099 -5.2949839 8.5060797
0.30310884 -0.43153724 8.9594555
0.5810979 -0.76456463 8.9137182
2.4556816 -2.8728223 14.588346
2.1201756 -2.4568462 8.8791285
2.8190579 -3.2484765 8.95716
3.6194761 -4.1577044 9.0868597
4.1960998 -4.8082557 8.5251913
5.0390501 -5.7640696 8.3780909
2.9713573 -3.3761847 4.4994845
3.0613685 -3.4748073 3.8164794
8.0415907 -9.1181231 8.0554876
10.339396 -11.715321 8.2657204
13.856877 -15.667839 4.0625687
6.3022795 -7.1812282 8.5909224
7.5114141 -8.5499926 8.3704367
9.2572727 -10.529859 8.3245678
11.007907 -12.50796 7.7899265
14.507555 -16.455576 3.1519108
0.026500486 -0.084293194 8.7039413
0.88578343 -1.0621387 8.7923031
2.2650099 -2.6816974 16.899584
1.8931278 -2.2107759 9.3519182
2.3967261 -2.7793427 8.7055922
3.0810182 -3.5578985 8.6924763
3.779175 -4.3518987 8.5378847
4.6197948 -5.3087316 8.5022421
0.30225801 -0.43354201 8.9794216
0.57714313 -0.76488471 8.8938313
2.4456384 -2.8813765 14.588346
2.1082184 -2.4603009 8.8650503
2.8204908 -3.2731395 8.9976711
3.6083524 -4.1742597 9.0953913
4.1753435 -4.8183188 8.517211
5.0077877 -5.7688241 8.3597155
2.959554 -3.3865359 4.4994845
3.0594721 -3.4971907 3.8290334
7.9821658 -9.1146812 8.0280724
10.286762 -11.738015 8.2564459
13.776169 -15.686585 4.0551076
6.2967987 -7.2257037 8.617527
7.4762087 -8.5700684 8.3645506
9.2147903 -10.555613 8.3195009
11.011963 -12.600987 7.8234954
14.401098 -16.450226 3.1415503
0.026206085 -0.084385186 8.7039413
0.88058442 -1.0634284 8.7774858
2.2661026 -2.702071 16.977907
1.8853992 -2.2173705 9.3519182
2.3844688 -2.7847238 8.6963882
3.0576501 -3.5559199 8.6617527
3.7584481 -4.3586702 8.525485
4.5949483 -5.3175497 8.4907293
0.30139691 -0.43554613 8.9993887
0.57478875 -0.76732165 8.8988028
1.4668313 -1.7403014 8.800395
2.0973811 -2.4650161 8.8556652
2.8232007 -3.2995064 9.0426826
3.5937593 -4.1868296 9.0953913
4.1565342 -4.8305807 8.5132217
4.976553 -5.7734294 8.3413391
2.9453773 -3.3941526 4.4959798
3.0421405 -3.501972 3.8227565
7.9146314 -9.10147 7.992434
10.237001 -11.763826 8.2494888
13.708415 -15.719769 4.0513773
6.3130713 -7.2956381 8.6740599
7.4409552 -8.590003 8.3586645
9.175065 -10.584458 8.3169689
11.036325 -12.71819 7.8717504
14.30785 -16.459282 3.1339529
0.025901929 -0.084433548 8.6989422
0.87637365 -1.0658953 8.7725468
2.2651262 -2.7201371 17.041546
1.8497238 -2.1908598 9.2135305
2.3747337 -2.79303 8.6963882
3.0421085 -3.562928 8.6529741
3.7432108 -4.3717632 8.525485
4.5700974 -5.3262591 8.4792175
0.30068815 -0.43778798 9.0243473
0.57178921 -0.76889533 8.8938313
1.4534878 -1.7367346 8.7568398
2.0831957 -2.4657309 8.8322001
2.8257608 -3.3259318 9.0876951
3.5740478 -4.1933942 9.082593
4.1376896 -4.8427696 8.5092316
4.9387341 -5.7701612 8.3119373
2.9335117 -3.4044132 4.4959798
3.0298979 -3.5125697 3.8227565
7.8418212 -9.0815697 7.9513121
10.187186 -11.789433 8.2425327
13.608441 -15.715536 4.0383205
13.788423 -15.912169 1.983179
6.3021665 -7.3346219 8.6940126
7.4056535 -8.6097956 8.3527784
9.1155653 -10.590283 8.2967033
11.039265 -12.811648 7.9053192
14.182359 -16.430405 3.1194487
0.025597755 -0.084480815 8.6939421
0.87215638 -1.0683459 8.7676067
2.2627537 -2.73666 17.095394
1.8315173 -2.1847196 9.1610394
2.3611889 -2.7968237 8.68258
3.0296531 -3.5735254 8.6529741
3.726105 -4.382659 8.5213528
4.5431628 -5.3324194 8.4638672
0.29980558 -0.43979114 9.0443144
0.56910175 -0.77088654 8.8938313
1.4466133 -1.7408309 8.7519999
2.0734668 -2.4716654 8.827508
2.8295748 -3.354079 9.1372089
3.5526488 -4.1978807 9.0655289
4.1188102 -4.8548851 8.5052414
4.9163671 -5.7847824 8.3082628
2.9216101 -3.4146326 4.4959798
3.0201504 -3.5260808 3.8258948
7.7855778 -9.0803185 7.9266386
10.137319 -11.814836 8.2355766
13.518271 -15.721971 4.0280619
13.710058 -15.933779 1.9800495
6.2062469 -7.2742028 8.5975742
7.3703041 -8.629446 8.3468914
9.061738 -10.602376 8.2815046
11.056437 -12.922524 7.9493785
14.089469 -16.43845 3.1118512
0.025302706 -0.084569655 8.6939421
0.8679328 -1.07078 8.7626677
2.2609394 -2.7539861 17.154137
1.8095567 -2.1738899 9.0894594
2.3501568 -2.8035517 8.6779776
3.0156183 -3.5822465 8.6485853
3.7107837 -4.3956385 8.5213528
4.5121007 -5.3335633 8.4408417
0.29907364 -0.44203305 9.069272
0.56640744 -0.77286839 8.8938313
1.4437274 -1.7497485 8.7713585
2.0681398 -2.4828663 8.8415861
2.83043 -3.3789551 9.1777201
3.5312629 -4.2022696 9.0484657
4.1018386 -4.8692331 8.5052414
4.8808398 -5.783772 8.2825365
2.909673 -3.4248099 4.4959798
6.6869106 -7.8625727 8.4049034
7.7348599 -9.0851517 7.9074488
10.087397 -11.840033 8.2286196
13.425034 -15.72423 4.01687
6.1784039 -7.2929735 8.5942488
7.334908 -8.6489553 8.3410053
8.9912014 -10.594501 8.2511063
11.046523 -13.002545 7.9745545
13.945346 -16.385708 3.0932028
0.025007349 -0.08465746 8.6939421
0.8641898 -1.0738032 8.7626677
2.260318 -2.7729113 17.22267
1.7705781 -2.1422217 8.9319849
2.3391063 -2.8102365 8.6733751
3.0015595 -3.5909135 8.6441965
3.6936097 -4.4064083 8.5172195
4.4913945 -5.346827 8.4370041
0.29832974 -0.4442752 9.0942297
0.56370616 -0.77484077 8.8938313
1.4352213 -1.75186 8.7568398
2.0638595 -2.4953897 8.8603573
2.8381064 -3.4122467 9.240737
3.5065479 -4.2025552 9.0228701
4.0828838 -4.8812103 8.5012512
4.860621 -5.8007741 8.2825365
2.8954012 -3.4322197 4.4924755
6.6318002 -7.8531542 8.3703794
7.6815038 -9.0865507 7.8855166
10.040283 -11.868408 8.2239819
13.341475 -15.737274 4.0084767
6.1192598 -7.2744937 8.5476913
7.2994666 -8.6683226 8.3351192
8.937499 -10.606044 8.2359066
11.04204 -13.089594 8.0039282
13.801762 -16.332163 3.0745544
0.024711687 -0.084744237 8.6939421
0.85995138 -1.0762061 8.7577286
2.2608731 -2.7934487 17.300993
1.7640364 -2.1495428 8.9367552
2.328038 -2.8168786 8.6687727
2.9874771 -3.5995264 8.6398067
3.6782057 -4.4192743 8.5172195
4.4624376 -5.3501649 8.4178162
0.29741445 -0.44627681 9.1141968
0.56099802 -0.77680373 8.8938313
1.4290975 -1.7568592 8.7568398
2.0573263 -2.5052459 8.8697424
2.8317225 -3.4288468 9.2587414
3.4918568 -4.2147698 9.0228701
4.0638947 -4.8931141 8.497261
4.8576889 -5.8385539 8.3119373
2.8834026 -3.4423058 4.4924755
6.5968447 -7.8673086 8.3609648
7.628232 -9.0876865 7.863585
9.9902468 -11.893208 8.2170258
13.2485 -15.738652 3.9972854
6.0938301 -7.2958093 8.5476913
7.263978 -8.6875477 8.3292332
8.8561602 -10.584278 8.1953764
11.03708 -13.176766 8.0333004
13.617344 -16.228502 3.0469272
0.024424415 -0.084872738 8.6989422
0.85618943 -1.0792013 8.7577286
2.2536592 -2.8044987 17.320574
1.7829216 -2.1880908 9.0703716
2.3169518 -2.823477 8.6641703
2.973371 -3.6080842 8.6354179
3.660965 -4.4299178 8.5130863
4.4539571 -5.3780522 8.4370041
0.29664737 -0.44851869 9.1391544
0.55890322 -0.77962452 8.9037743
1.4213768 -1.7598811 8.7471609
2.0518403 -2.5164247 8.8838215
2.8321593 -3.4538612 9.2992525
3.4837501 -4.2349892 9.0399342
4.0448728 -4.9049449 8.4932709
4.8459153 -5.8659296 8.3266382
2.8690891 -3.4496076 4.4889712
6.5718322 -7.8932781 8.3641024
7.5750461 -9.088563 7.8416533
9.9401588 -11.917803 8.2100697
13.18718 -15.777264 3.99542
6.0373402 -7.2796745 8.5044594
7.2310271 -8.7097416 8.3262901
8.8301802 -10.628392 8.2055092
11.034549 -13.267553 8.0647707
13.604991 -16.329201 3.0565968
0.024128005 -0.08495748 8.6989422
0.85241711 -1.0821834 8.7577286
2.2483008 -2.81792 17.354841
1.7893546 -2.211709 9.1419506
2.3058479 -2.8300331 8.6595669
2.9607584 -3.6184413 8.6354179
3.6454794 -4.4426699 8.5130863
4.4392285 -5.3985181 8.4446793
0.29571056 -0.45051885 9.1591225
0.55617845 -0.78157067 8.9037743
1.4144388 -1.7638513 8.742321
2.0452154 -2.5262542 8.8932066
2.8310809 -3.477232 9.3352623
3.4722457 -4.251164 9.0484657
4.0277271 -4.9190345 8.4932709
4.8361602 -5.895915 8.3450136
2.8570299 -3.4596016 4.4889712
6.5367999 -7.9071712 8.3546877
7.5139503 -9.0795135 7.8114972
9.8900204 -11.942191 8.2031126
13.056737 -15.732482 3.9730372
6.0142655 -7.3035865 8.5077848
7.1954379 -8.7286911 8.3204031
8.7793093 -10.642522 8.1928425
11.028627 -13.354983 8.0941439
13.585786 -16.422379 3.0648849
0.023839695 -0.085084006 8.7039413
0.84863442 -1.0851523 8.7577286
2.2428761 -2.8313382 17.389107
1.803122 -2.2447093 9.2517061
2.2959552 -2.8380647 8.6595669
2.9465992 -3.6268954 8.6310282
3.6281717 -4.453186 8.5089531
4.4264383 -5.4214292 8.456192
0.29444975 -0.45203313 9.1691055
0.55498207 -0.78568614 8.9286327
1.4074904 -1.7677944 8.7374811
2.0342226 -2.5306878 8.8838215
2.8189261 -3.4870932 9.3352623
3.4623134 -4.2693357 9.061264
4.0086312 -4.9307261 8.4892807
4.8219728 -5.9206467 8.35604
2.8426752 -3.4667959 4.4854665
6.5066891 -7.9269314 8.3515491
7.4689379 -9.0895338 7.7977896
9.8398333 -11.966376 8.1961565
12.995492 -15.770379 3.9711721
5.9721913 -7.3043013 8.4845066
7.1598058 -8.7474995 8.314517
11.025109 -13.446044 8.1256151
13.468658 -16.396997 3.0517621
0.023542551 -0.085166708 8.7039413
0.84484142 -1.0881079 8.7577286
2.2380142 -2.8455532 17.42827
1.8064436 -2.2649944 9.3089705
2.2860346 -2.8460617 8.6595669
2.9369285 -3.6408873 8.6398067
3.6126051 -4.4658237 8.5089531
4.4115243 -5.4418273 8.4638672
0.29318199 -0.45354402 9.1790886
0.54948646 -0.78368723 8.8838892
1.4005316 -1.7717105 8.7326431
2.0242999 -2.5364242 8.8791285
2.8080993 -3.4986093 9.3397627
3.4539318 -4.2895207 9.0783272
3.9895022 -4.9423437 8.4852905
4.8098025 -5.9479871 8.3707399
2.8305564 -3.4766974 4.4854665
6.474061 -7.9435611 8.3452721
7.4371638 -9.11555 7.7977896
9.7923994 -11.993788 8.1915188
12.912369 -15.78143 3.9627783
5.9560709 -7.3366985 8.4978085
7.1241293 -8.7661648 8.3086309
8.6911983 -10.686831 8.1801767
11.003894 -13.516122 8.1444969
13.339354 -16.355646 3.0358765
0.023253214 -0.085291237 8.7089415
0.84103799 -1.0910504 8.7577286
2.2343335 -2.8613737 17.477221
1.7957464 -2.2677753 9.2946548
2.2760859 -2.8540242 8.6595669
2.9271958 -3.6548555 8.6485853
3.5952327 -4.4762135 8.5048208
4.3945112 -5.4596901 8.4677048
0.29175216 -0.45480815 9.1840801
0.54917943 -0.78910351 8.9236612
1.3927869 -1.7746108 8.7229643
2.0143621 -2.5421221 8.8744354
2.7945132 -3.5066879 9.3352623
3.4421947 -4.3056254 9.0868597
3.9722257 -4.9562392 8.4852905
4.7932558 -5.970027 8.3780909
2.8161614 -3.4837832 4.4819617
6.4413967 -7.9600601 8.338995
3.8152149 -4.709651 4.0584302
9.7421064 -12.017573 8.1845627
12.736405 -15.677712 3.9264064
6.9145474 -8.5783892 9.8945189
7.0884089 -8.784688 8.3027449
8.6998806 -10.774121 8.2232409
10.965205 -13.565039 8.1507912
13.188687 -16.286655 3.015156
0.022955351 -0.085371889 8.7089415
0.83722442 -1.0939795 8.7577286
2.2311935 -2.8780081 17.531069
1.7878195 -2.2740297 9.2946548
2.2661097 -2.8619518 8.6595669
2.9174016 -3.6688006 8.6573639
3.5795858 -4.4887357 8.5048208
4.373426 -5.4724927 8.4638672
0.29031706 -0.45606777 9.1890717
0.54218715 -0.78487062 8.8540592
1.3858114 -1.7784702 8.7181244
2.0044091 -2.5477817 8.8697424
2.7714498 -3.5027633 9.2992525
3.4206586 -4.3094435 9.0697956
3.9530253 -4.9677176 8.4813013
4.7787275 -5.9946756 8.3891163
2.8017514 -3.4908111 4.478457
6.4135714 -7.9824963 8.338995
3.7987518 -4.72294 4.0584302
9.6889868 -12.037703 8.1752872
12.644592 -15.676192 3.9152145
6.8915596 -8.6112185 9.9044952
7.0526471 -8.8030682 8.2968578
8.654129 -10.794333 8.215641
10.960401 -13.656325 8.1822624
13.134858 -16.336451 3.0158467
0.022665001 -0.085494421 8.7139416
0.83340061 -1.0968953 8.7577286
2.2335534 -2.9019177 17.628973
1.7798707 -2.2802567 9.2946548
2.2561059 -2.8698444 8.6595669
2.9075451 -3.6827209 8.6661415
3.5621486 -4.4989972 8.5006876
4.3523045 -5.4852147 8.4600296
0.28872332 -0.4570784 9.1890717
1.0829214 -1.5813791 17.832596
1.3788259 -1.7823023 8.7132845
1.9944416 -2.5534034 8.8650503
2.7511375 -3.5021446 9.2722454
3.4152806 -4.3336482 9.0953913
3.9337928 -4.9791212 8.4773111
4.761981 -6.0166368 8.3964672
2.7873266 -3.4977808 4.4749527
6.3735328 -7.9896216 8.3233032
3.7718053 -4.7231021 4.0474644
9.6386127 -12.061069 8.1683311
11.561929 -14.457442 7.5676708
12.500746 -15.609043 3.8881688
6.8475227 -8.6176825 9.8845425
7.0193601 -8.8244696 8.2939148
8.6190815 -10.827848 8.2181749
10.940948 -13.729996 8.2032423
12.327006 -15.441757 2.8480113
0.022366431 -0.085573018 8.7139416
0.82956666 -1.0997977 8.7577286
2.226501 -2.9137418 17.65345
1.7719004 -2.2864556 9.2946548
2.2472763 -2.8792424 8.6641703
2.8961496 -3.6947327 8.6705303
3.5446835 -4.509191 8.4965553
4.3311472 -5.4978552 8.456192
0.28712603 -0.45808345 9.1890717
1.0767959 -1.5842675 17.822653
1.372596 -1.7871044 8.7132845
1.9844588 -2.5589859 8.8603573
2.7308636 -3.5014269 9.2452383
3.3776331 -4.3167863 9.0356674
3.9145286 -4.9904518 8.473321
4.7430444 -6.0358882 8.4001417
2.7728875 -3.5046921 4.4714484
6.3528547 -8.0209742 8.3327188
3.7319148 -4.7067504 4.0227909
9.5881939 -12.084231 8.161375
11.496981 -14.479562 7.5583057
12.342237 -15.521857 3.8564599
2.768074 -3.5086737 4.0615916
6.9835038 -8.8425741 8.2880287
8.5732145 -10.847723 8.2105751
10.895772 -13.771663 8.2053413
12.220739 -15.418718 2.8362699
0.02206759 -0.085650571 8.7139416
0.82572258 -1.1026868 8.7577286
1.1105773 -1.4636821 8.8567266
1.7629982 -2.2914438 9.2898836
2.2372124 -2.8870692 8.6641703
2.884706 -3.7067099 8.6749191
3.5289216 -4.5215373 8.4965553
4.3099551 -5.5104156 8.4523544
0.28552529 -0.45908293 9.1890717
1.0694721 -1.585364 17.792824
1.3655875 -1.7908852 8.7084455
1.9755142 -2.5658972 8.8603573
2.7119606 -3.5023313 9.2227316
3.3577449 -4.322372 9.0228701
3.8970847 -5.0040855 8.473321
4.7240314 -6.0550799 8.4038162
2.7584338 -3.5115457 4.4679437
6.3392534 -8.0614586 8.3515491
3.7102895 -4.7131777 4.0173078
9.5377283 -12.107186 8.154418
11.457847 -14.534168 7.5657983
11.965334 -15.156157 3.757602
2.7581117 -3.5212541 4.0649171
6.9476066 -8.8605366 8.2821426
8.5299749 -10.870801 8.2055092
10.819596 -13.773921 8.1843596
12.681325 -16.115074 2.9523039
0.021768479 -0.085727081 8.7139416
0.82186842 -1.1055623 8.7577286
1.1048489 -1.4667366 8.8518314
1.7531769 -2.2952113 9.2803392
2.2259297 -2.8933127 8.6595669
2.8732142 -3.718652 8.6793089
3.5113938 -4.5316033 8.4924221
4.2887282 -5.5228953 8.4485168
0.28392106 -0.46007678 9.1890717
1.0627464 -1.587315 17.772936
1.3593278 -1.7956411 8.7084455
1.9654977 -2.5714064 8.8556652
2.6930852 -3.5031469 9.2002258
3.3187456 -4.3030882 8.9588804
3.8777504 -5.0152745 8.4693308
4.7028666 -6.0715332 8.4038162
2.7439663 -3.5183406 4.4644389
6.3278418 -8.1050138 8.373518
3.6809404 -4.7096272 4.0036006
9.4844913 -12.126448 8.1451426
11.4099 -14.577724 7.5676708
11.954781 -15.251956 3.7706585
2.7320514 -3.5131757 4.0449643
6.9141521 -8.8815441 8.2791996
8.4866781 -10.893708 8.2004423
10.754705 -13.790132 8.171772
12.585362 -16.108511 2.9433253
0.021469103 -0.085802548 8.7139416
0.81846553 -1.1090498 8.7626677
1.0985031 -1.4689531 8.842041
1.7442526 -2.3001275 9.2755671
2.2158167 -2.9010649 8.6595669
2.8602159 -3.7286592 8.6793089
3.4938381 -4.5416021 8.4882889
4.2674665 -5.5352941 8.4446793
0.28231338 -0.46106505 9.1890717
