# .PCD v0.7 - Point Cloud Data file format
VERSION 0.7
FIELDS x y z
SIZE 4 4 4
TYPE F F F
COUNT 1 1 1
WIDTH 1414
HEIGHT 1
VIEWPOINT 0 0 0 1 0 0 0
POINTS 1414
DATA ascii
-0.77513075 -0.50991207 8.6104555
-1.4482826 -1.0766817 6.9856105
-0.90878838 -0.68230826 3.1445682
-1.0958383 -0.827438 2.9030275
-1.0366359 -0.78527212 2.1973755
-1.0052093 -0.76337862 1.74614
-0.95605606 -0.72735256 1.3805776
-0.94594949 -0.72461963 1.2507702
-0.91667765 -0.70294815 1.0138377
-0.90722454 -0.69644141 0.83446586
-0.90044683 -0.69172883 0.68092638
-0.88642144 -0.68143743 0.54005182
-0.87096018 -0.67002624 0.4129374
-0.86411059 -0.66523081 0.29851383
-0.84801614 -0.65330273 0.18905075
-0.9404524 -0.71832138 1.1351515
-0.90755028 -0.69393289 0.91541177
-0.90524745 -0.69266343 0.75542969
-0.89442503 -0.68511605 0.60829288
-0.88117856 -0.67544854 0.47556409
-0.86401099 -0.66275889 0.35335216
-0.84457225 -0.64807612 0.24069417
-0.84776485 -0.65098643 0.13679302
-0.085986622 -0.02071953 8.7139416
-1.0878304 -0.78824884 8.5404015
-1.4169222 -1.0404543 8.4748983
-1.303558 -0.97083735 5.2432408
-1.0588504 -0.79433042 3.1779611
-1.0580922 -0.79718834 2.4950962
-1.0131034 -0.76548994 1.9375652
-0.97765136 -0.74029368 1.5448467
-0.435738 -0.26172304 8.6300068
-0.77690595 -0.50720328 8.6104555
-1.4459633 -1.0671422 6.9565735
-0.91116452 -0.67913187 3.1445682
-1.0952359 -0.82099676 2.8940251
-1.0352017 -0.77851415 2.1888437
-1.0054618 -0.7580514 1.7421501
-0.9558838 -0.72196782 1.3769025
-0.94563442 -0.71915472 1.2472657
-0.91912585 -0.69974405 1.0138377
-0.90632427 -0.69073588 0.83172441
-0.8993336 -0.68589514 0.67860758
-0.88879478 -0.67833912 0.54005182
-0.86948127 -0.66407025 0.4115274
-0.86642736 -0.66221046 0.29851383
-0.84633577 -0.64731318 0.18860367
-0.93997878 -0.71277839 1.131826
-0.90674758 -0.68831706 0.91246861
-0.90422708 -0.68689185 0.75289649
-0.89319837 -0.67924267 0.60619479
-0.87977302 -0.66950893 0.47392058
-0.86631924 -0.65973896 0.35335216
-0.8468293 -0.64512408 0.24069417
-0.84605896 -0.64499438 0.13659149
-0.08605843 -0.020419255 8.7139416
-1.0905753 -0.78444678 8.5404015
-1.4205455 -1.0355021 8.4748983
-1.3021374 -0.96273208 5.2241526
-1.0631838 -0.79179627 3.1825638
-1.0589505 -0.79205573 2.4907072
-1.0112668 -0.75857192 1.9292994
-0.97766733 -0.73495078 1.5410092
-0.43664894 -0.26020044 8.6300068
-0.77867168 -0.50448829 8.6104555
-1.4435952 -1.0576321 6.9275374
-0.91491693 -0.67697334 3.1492608
-1.094602 -0.81456971 2.8850226
-1.0358231 -0.77333575 2.1845777
-1.0032768 -0.7509262 1.7341701
-0.95568568 -0.71659321 1.3732272
-0.94529271 -0.71370071 1.2437612
-0.91845751 -0.69418466 1.0106993
-0.90872991 -0.68756807 0.83172441
-0.89819056 -0.68007773 0.67628878
-0.88746208 -0.67243284 0.5381788
-0.87179399 -0.66103113 0.4115274
-0.8687337 -0.65918201 0.29851383
-0.84462404 -0.64134347 0.18815659
-0.9394781 -0.70724744 1.1285006
-0.90591663 -0.68271512 0.90952545
-0.90317738 -0.68113577 0.75036329
-0.89194161 -0.6733861 0.60409671
-0.87833691 -0.66358745 0.47227708
-0.86861682 -0.65671092 0.35335216
-0.84512633 -0.63917696 0.24000348
-0.84432167 -0.63902217 0.13638996
-0.086086042 -0.020112213 8.7089415
-1.0933069 -0.78063518 8.5404015
-1.4241513 -1.0305371 8.4748983
-1.2741996 -0.93522108 5.100081
-1.0675122 -0.78924149 3.1871662
-1.0578629 -0.78549927 2.4819291
-1.0093945 -0.75167626 1.9210334
-0.97765797 -0.7296167 1.5371716
-0.43755457 -0.25867468 8.6300068
-0.78042787 -0.50176716 8.6104555
-1.439145 -1.0466729 6.8888221
-0.91866541 -0.674797 3.1539536
-1.0921854 -0.80686373 2.8715191
-1.0343252 -0.76660979 2.1760459
-1.0034732 -0.74562246 1.7301799
-0.95274204 -0.70920455 1.3658769
-0.94492447 -0.70825797 1.2402567
-0.92087507 -0.69097441 1.0106993
-0.90778095 -0.68188053 0.82898289
-0.90055895 -0.67693835 0.67628878
-0.88609904 -0.6665442 0.53630573
-0.87026352 -0.65509903 0.41011736
-0.86710572 -0.65319002 0.2975812
-0.84685755 -0.63839126 0.18815659
-0.93895018 -0.7017287 1.125175
-0.9082942 -0.67954874 0.90952545
-0.90209866 -0.67539555 0.74783015
-0.89428669 -0.67026854 0.60409671
-0.87687021 -0.65768409 0.47063357
-0.87090391 -0.6536749 0.35335216
-0.84339237 -0.63324982 0.23931281
-0.84255302 -0.63306999 0.13618843
-0.08615572 -0.019811595 8.7089415
-1.0960252 -0.7768141 8.5404015
-1.42774 -1.0255595 8.4748983
-1.2822825 -0.93428296 5.1191688
-1.0718358 -0.78666621 3.1917689
-1.0586704 -0.78038096 2.47754
-1.0097491 -0.74647552 1.9169004
-0.97762334 -0.72429174 1.5333341
-0.43845484 -0.25714573 8.6300068
-0.78217465 -0.49903986 8.6104555
-1.4397321 -1.0394361 6.8743033
-0.92240977 -0.67260265 3.1586463
-1.0914842 -0.80047196 2.8625166
-1.0348941 -0.76144922 2.1717799
-1.0036446 -0.74032646 1.7261899
-0.9524852 -0.70385981 1.3622017
-0.94452977 -0.70282638 1.236752
-0.92015988 -0.68543071 1.0075608
-0.90680343 -0.67620814 0.82624143
-0.89936614 -0.67114145 0.67396998
-0.88842034 -0.66344708 0.53630573
-0.86870229 -0.64918578 0.40870732
-0.86938047 -0.65015924 0.2975812
-0.84509373 -0.63244748 0.18770951
-0.93839526 -0.69622231 1.1218495
-0.90741575 -0.67396408 0.9065823
-0.90099078 -0.669671 0.74529696
-0.89297968 -0.6644336 0.60199869
-0.87916064 -0.65461922 0.47063357
-0.87318033 -0.65063083 0.35335216
-0.84162724 -0.62734246 0.23862213
-0.84075308 -0.62713796 0.13598689
-0.086224347 -0.019510733 8.7089415
-1.0987301 -0.77298355 8.5404015
-1.4313111 -1.0205696 8.4748983
-1.2903744 -0.93329984 5.138257
-1.0761544 -0.78407019 3.1963713
-1.0575221 -0.77385241 2.4687617
-1.0100799 -0.74128163 1.9127675
-0.97756338 -0.71897584 1.5294967
-0.43959972 -0.25575799 8.6349974
-0.78391188 -0.49630651 8.6104555
-1.4290468 -1.0241554 6.8065519
-0.92615008 -0.67039037 3.1633391
-1.0907514 -0.79409486 2.853514
-1.0354396 -0.75629401 2.1675138
-1.0037915 -0.73503858 1.7221999
-0.95220268 -0.69852567 1.3585266
-0.94410872 -0.69740629 1.2332475
-0.9194172 -0.67990047 1.0044224
-0.90579754 -0.67055088 0.82349998
-0.89814383 -0.66536117 0.67165118
-0.88700652 -0.65758109 0.53443271
-0.8709631 -0.64614952 0.40870732
-0.86770046 -0.64419234 0.29664856
-0.8472963 -0.62949371 0.18770951
-0.93781334 -0.69072831 1.1185241
-0.9065094 -0.66839391 0.90363914
-0.90332288 -0.66652191 0.74529696
-0.89529353 -0.66131252 0.60199869
-0.87764287 -0.64873952 0.46899009
-0.87544614 -0.6475789 0.35335216
-0.84381193 -0.62440085 0.23862213
-0.83892208 -0.62122625 0.13578537
-0.086291924 -0.019209636 8.7089415
-1.1020586 -0.76958811 8.5453396
-1.4348648 -1.0155672 8.4748983
-1.2972623 -0.93140125 5.1525726
-1.0804678 -0.78145361 3.200974
-1.058279 -0.76874888 2.4643729
-1.0103867 -0.73609436 1.9086344
-0.97488952 -0.71177942 1.5218216
-0.4404898 -0.25422195 8.6349974
-0.78563952 -0.49356714 8.6104555
-1.4223695 -1.0118757 6.7581573
-0.9298861 -0.6681602 3.1680319
-1.0882232 -0.78645772 2.8400104
-1.0359617 -0.75114429 2.1632481
-1.0039135 -0.72975862 1.7182097
-0.95189464 -0.69320208 1.3548514
-0.94366139 -0.69199771 1.229743
-0.91864723 -0.6743837 1.0012839
-0.90476322 -0.66490889 0.82075852
-0.89689213 -0.65959764 0.66933239
-0.88556278 -0.65173304 0.53255969
-0.86935067 -0.6402607 0.40729728
-0.86598945 -0.63824528 0.29571593
-0.84548062 -0.62357628 0.18726245
-0.93720448 -0.68524683 1.1151985
-0.90557534 -0.6628384 0.90069598
-0.90216625 -0.6608175 0.74276382
-0.89393646 -0.65549964 0.5999006
-0.87990201 -0.64567202 0.46899009
-0.87770134 -0.64451909 0.35335216
-0.8419953 -0.6185199 0.23793145
-0.84108543 -0.61829412 0.13578537
-0.086358458 -0.018908303 8.7089415
-1.1047384 -0.76573658 8.5453396
-1.4392344 -1.0111375 8.4797935
-1.3017213 -0.92773348 5.1573448
-1.084776 -0.77881658 3.2055764
-1.0570706 -0.76224887 2.4555948
-1.0106697 -0.73091418 1.9045017
-0.97477269 -0.70649123 1.517984
-0.44137454 -0.25268278 8.6349974
-0.78735763 -0.49082175 8.6104555
-1.4176779 -1.0011053 6.7194419
-0.93221277 -0.6649102 3.1680319
-1.0856549 -0.77884787 2.8265069
-1.0343436 -0.74447674 2.1547163
-1.0015675 -0.72272378 1.7102298
-0.95156103 -0.6878891 1.3511763
-0.94607115 -0.68869954 1.229743
-0.9178499 -0.6688807 0.99814546
-0.90370047 -0.65928233 0.81801701
-0.89561135 -0.65385103 0.66701359
-0.88783234 -0.64863789 0.53255969
-0.87158024 -0.63722211 0.40729728
-0.86424756 -0.63231802 0.29478332
-0.84765214 -0.6206212 0.18726245
-0.93656898 -0.67977822 1.111873
-0.90461344 -0.65729743 0.89775282
-0.90446746 -0.65766436 0.74276382
-0.89621907 -0.65237522 0.5999006
-0.87833357 -0.6398164 0.46734658
-0.87601787 -0.63858825 0.35217986
-0.84414923 -0.61557698 0.23793145
-0.83920306 -0.61240947 0.13558383
-0.086423934 -0.018606741 8.7089415
-1.1067643 -0.76143551 8.5404015
-1.442755 -1.0061076 8.4797935
-1.2964208 -0.91715038 5.1239409
-1.0906702 -0.77729255 3.2147813
-1.0558296 -0.75576663 2.4468162
-1.0086427 -0.72409999 1.8962357
-0.97202897 -0.69934082 1.5103091
-0.44225386 -0.25114056 8.6349974
-0.78906608 -0.48807037 8.6104555
-1.4036641 -0.98388803 6.6371717
-0.94438791 -0.66863078 3.2008812
-1.0848202 -0.77252835 2.8175044
-1.0326917 -0.7378298 2.1461844
-1.0016346 -0.71746874 1.7062398
-0.95120192 -0.68258697 1.347501
-0.94557875 -0.68330431 1.2262385
-0.91387165 -0.66111028 0.99186856
-0.90599632 -0.65612382 0.81801701
-0.89430124 -0.64812142 0.66469479
-0.88633817 -0.64281321 0.53068668
-0.86991686 -0.63135827 0.40588725
-0.86247492 -0.62641072 0.29385069
-0.84578496 -0.61473078 0.18681537
-0.93287718 -0.67213982 1.105222
-0.90690231 -0.6541357 0.89775282
-0.9032622 -0.65198028 0.74023062
-0.89481217 -0.64658481 0.59780258
-0.88056159 -0.63674653 0.46734658
-0.87824166 -0.63552648 0.35217986
-0.84228146 -0.60972285 0.23724076
-0.84133565 -0.60947639 0.13558383
-0.086445086 -0.018299339 8.7039413
-1.1094155 -0.75756752 8.5404015
-1.4462583 -1.0010653 8.4797935
-1.2935059 -0.90833116 5.100081
-1.0949719 -0.77460879 3.219384
-1.0545564 -0.74930233 2.4380381
-1.0088724 -0.71894187 1.8921027
-0.96924728 -0.69221818 1.502634
-0.44312781 -0.24959528 8.6349974
-0.79076499 -0.48531303 8.6104555
-1.4246324 -0.99118376 6.7194419
-0.94812804 -0.66632211 3.205574
-1.0821769 -0.76496762 2.8040009
-1.031006 -0.73120344 2.1376524
-0.99922109 -0.71047616 1.6982597
-0.95081753 -0.6772958 1.3438259
-0.94506031 -0.67792088 1.2227339
-0.91301215 -0.65564597 0.98873013
-0.90488589 -0.65051669 0.81527555
-0.89296216 -0.64240885 0.66237599
-0.8848142 -0.63700688 0.5288136
-0.86822331 -0.62551385 0.40447721
-0.86067158 -0.62052351 0.29291809
-0.8479256 -0.61177468 0.18681537
-0.93218064 -0.66670746 1.1018965
-0.90589362 -0.64861315 0.89480966
-0.90202826 -0.64631265 0.73769742
-0.89337581 -0.64081222 0.5957045
-0.87894261 -0.63091534 0.46570307
-0.87650698 -0.62962127 0.35100752
-0.84440464 -0.60677904 0.23724076
-0.843458 -0.60653585 0.13558383
-0.086508438 -0.017997479 8.7039413
-1.1120532 -0.7536903 8.5404015
-1.4497439 -0.99601078 8.4797935
-1.2905452 -0.8995434 5.076221
-1.100867 -0.773027 3.2285891
-1.0532509 -0.74285626 2.42926
-1.0090783 -0.71379089 1.8879696
-0.9664278 -0.68512362 1.494959
-0.44399637 -0.24804696 8.6349974
-0.79245424 -0.48254979 8.6104555
-1.4322213 -0.9890613 6.7387996
-0.98866636 -0.68965989 3.3322787
-1.079494 -0.7574349 2.7904971
-1.0314194 -0.72609884 2.1333864
-0.99923301 -0.70524645 1.6942697
-0.9531759 -0.67397267 1.3438259
-0.94451582 -0.67254961 1.2192293
-0.91212559 -0.65019584 0.98559165
-0.90374732 -0.6449253 0.81253409
-0.89519912 -0.63928795 0.66237599
-0.88703239 -0.63391435 0.5288136
-0.86649942 -0.61968893 0.4030672
-0.86283237 -0.61751544 0.29291809
-0.85005599 -0.60881108 0.18681537
-0.93450218 -0.66344947 1.1018965
-0.9048574 -0.64310551 0.89186651
-0.90076584 -0.64066172 0.73516428
-0.89191002 -0.63505757 0.59360647
-0.88113958 -0.62784344 0.46570307
-0.87474185 -0.62373596 0.34983522
-0.84248602 -0.60095215 0.23655009
-0.84557009 -0.60358793 0.13558383
-0.08657074 -0.017695399 8.7039413
-1.1146772 -0.7498039 8.5404015
-1.4523704 -0.99037069 8.4748983
-1.287539 -0.89078742 5.052361
-1.1067646 -0.77141345 3.2377942
-1.0499513 -0.73505521 2.4160929
-1.0069574 -0.70703048 1.8797038
-0.96619207 -0.6799016 1.4911215
-0.4448595 -0.24649562 8.6349974
-0.79322064 -0.47923043 8.6005125
-1.446034 -0.99116105 6.7871943
-1.0279597 -0.71174037 3.4542906
-1.0749854 -0.74868625 2.7724922
-1.0296718 -0.71950686 2.1248546
-0.99675268 -0.69829673 1.6862897
-0.9527477 -0.66869396 1.3401507
-0.94394523 -0.66719019 1.2157247
-0.91121221 -0.64475989 0.98245323
-0.90599298 -0.64176673 0.81253409
-0.89381123 -0.63359755 0.66005719
-0.88545859 -0.62813199 0.52694058
-0.86474556 -0.61388361 0.40165716
-0.86097813 -0.611655 0.29198545
-0.84811711 -0.60295469 0.18636829
-0.93376029 -0.65803277 1.0985711
-0.90709674 -0.63994306 0.89186651
-0.90299666 -0.63751352 0.73516428
-0.89041495 -0.62932092 0.59150839
-0.87947047 -0.62203711 0.46405956
-0.8729462 -0.61787063 0.34866288
-0.84457856 -0.59800768 0.23655009
-0.84359545 -0.59774429 0.13538231
-0.086631976 -0.017393103 8.7039413
-1.1172878 -0.74590844 8.5404015
-1.4558185 -0.98529488 8.4748983
-1.2857181 -0.88290834 5.0332732
-1.1126641 -0.76976806 3.246999
-1.04661 -0.7272861 2.4029255
-1.0094193 -0.70351124 1.8797038
-0.96593159 -0.67468953 1.4872841
-0.44571725 -0.24494126 8.6349974
-0.79443115 -0.4761852 8.595542
-1.4474062 -0.98469359 6.7775149
-1.0403943 -0.71498799 3.4871402
-1.0722197 -0.74121618 2.7589886
-1.0278908 -0.71293592 2.1163228
-0.99671018 -0.69309306 1.6822997
-0.95507604 -0.66536415 1.3401507
-0.94334888 -0.66184306 1.2122202
-0.91027206 -0.63933825 0.97931474
-0.90480709 -0.63619542 0.80979264
-0.89601743 -0.63047367 0.66005719
-0.88764572 -0.62503737 0.52694058
-0.86296183 -0.60809827 0.4002471
-0.85909349 -0.60581499 0.29105285
-0.85021669 -0.59999049 0.18636829
-0.9299323 -0.65048927 1.09192
-0.90601397 -0.63445443 0.88892335
-0.90168613 -0.63188374 0.73263109
-0.89260626 -0.62620896 0.59150839
-0.87777162 -0.61625022 0.46241605
-0.87112039 -0.6120255 0.34749055
-0.84260935 -0.59220839 0.23585941
-0.84567684 -0.59479594 0.13538231
-0.086692162 -0.017090594 8.7039413
-1.1205324 -0.74243265 8.5453396
-1.459249 -0.9802072 8.4748983
-1.2838578 -0.87505281 5.014185
-1.1169549 -0.76698512 3.2516015
-1.0432276 -0.71954954 2.3897583
-1.0095545 -0.69838268 1.8755709
-0.96564668 -0.66948766 1.4834466
-0.44656953 -0.24338393 8.6349974
-0.79287905 -0.47150585 8.5607405
-1.4508346 -0.97963512 6.7775149
-1.041458 -0.71037984 3.4824471
-1.0694151 -0.73377442 2.7454851
-1.0282248 -0.70786482 2.112057
-0.99664336 -0.68789816 1.6783097
-0.95739275 -0.66202623 1.3401507
-0.93980008 -0.65447038 1.2052112
-0.91249818 -0.63615692 0.97931474
-0.90359336 -0.63064015 0.80705118
-0.89821273 -0.62734216 0.66005719
-0.88602233 -0.61927933 0.52506757
-0.86507922 -0.60508221 0.4002471
-0.85717851 -0.59999573 0.29012021
-0.84822696 -0.59416193 0.18592121
-0.93219727 -0.64723927 1.09192
-0.90490413 -0.62898123 0.88598019
-0.90034747 -0.62627101 0.73009789
-0.8910622 -0.62049592 0.58941036
-0.87991738 -0.61318249 0.46241605
-0.86527771 -0.60342044 0.34514591
-0.84467143 -0.58926356 0.23585941
-0.84365147 -0.5889805 0.13518077
-0.086794652 -0.016792735 8.7089415
-1.1231172 -0.73851675 8.5453396
-1.4626617 -0.97510749 8.4748983
-1.2819587 -0.86722106 4.9950972
-1.1196253 -0.76308155 3.2516015
-1.0417801 -0.71319807 2.3809803
-1.0119861 -0.69485444 1.8755709
-0.9653371 -0.66429597 1.479609
-0.44741637 -0.24182363 8.6349974
-0.79727674 -0.47035715 8.5905704
-1.4469354 -0.96966755 6.743639
-1.0482187 -0.70964175 3.4965255
-1.0701704 -0.7288118 2.7409837
-1.028536 -0.70280015 2.1077909
-0.99655241 -0.68271214 1.6743195
-0.95969778 -0.65868032 1.3401507
-0.93914527 -0.6491583 1.2017065
-0.91151249 -0.6307531 0.97617632
-0.9023518 -0.62510121 0.80430973
-0.89675641 -0.62167919 0.65773833
-0.88817859 -0.6161828 0.52506757
-0.86324555 -0.59932315 0.39883706
-0.85523349 -0.59419715 0.28918761
-0.84620702 -0.58835459 0.18547413
-0.93137622 -0.64186275 1.0885946
-0.90376693 -0.62352335 0.88303697
-0.90252805 -0.62312442 0.73009789
-0.89322269 -0.61738181 0.58941036
-0.8781687 -0.60742098 0.46077254
-0.8633821 -0.59763002 0.34397361
-0.8467232 -0.58631146 0.23585941
-0.84159589 -0.58318651 0.13497925
-0.086852737 -0.016489662 8.7089415
-1.1263391 -0.73501629 8.5502796
-1.4660566 -0.96999592 8.4748983
-1.2800205 -0.85941333 4.9760094
-1.1222823 -0.75916868 3.2516015
-1.0403012 -0.70686561 2.3722022
-1.0167309 -0.69290221 1.8797038
-0.96500319 -0.65911472 1.4757715
-0.44851267 -0.24039592 8.6399889
-0.7993741 -0.46784002 8.595542
-1.4450777 -0.96113116 6.7194419
-1.0506895 -0.70597851 3.4965255
-1.0709043 -0.72385287 2.7364826
-1.0288244 -0.69774193 2.1035249
-0.99643761 -0.67753524 1.6703296
-0.95918924 -0.65341783 1.3364756
-0.9384647 -0.64385873 1.198202
-0.91050011 -0.62536401 0.97303784
-0.90108275 -0.6195786 0.80156827
-0.89892095 -0.61854517 0.65773833
-0.88650578 -0.61044955 0.52319455
-0.86533225 -0.5963062 0.39883706
-0.85730243 -0.59120822 0.28918761
-0.84415692 -0.58256865 0.18502705
-0.93052924 -0.63649988 1.0852691
-0.90260279 -0.61808115 0.88009381
-0.90114158 -0.6175335 0.72756475
-0.89162976 -0.61169267 0.58731234
-0.88028359 -0.60435194 0.46077254
-0.86145669 -0.59186023 0.3428013
-0.84468353 -0.58054745 0.23516873
-0.84362644 -0.58024526 0.13497925
-0.086909771 -0.016186388 8.7089415
-1.1282456 -0.73065799 8.5453396
-1.4694335 -0.96487248 8.4748983
-1.2780434 -0.85162973 4.9569216
-1.1249253 -0.75524652 3.2516015
-1.0407764 -0.70189095 2.3678129
-1.0168126 -0.68777257 1.8755709
-0.96464485 -0.65394378 1.4719341
-0.44934911 -0.23882887 8.6399889
-0.80192488 -0.46558097 8.605484
-1.4421293 -0.9519273 6.6904058
-1.0603266 -0.70709276 3.5199893
-1.0734245 -0.7201103 2.7364826
-1.02909 -0.69269025 2.0992589
-0.99629873 -0.67236745 1.6663395
-0.96146429 -0.6500656 1.3364756
-0.93775862 -0.63857186 1.1946975
-0.90946126 -0.61998969 0.96989942
-0.89978617 -0.61407256 0.79882681
-0.89741647 -0.61290538 0.65541953
-0.88480377 -0.60473549 0.52132148
-0.86740851 -0.59328204 0.39883706
-0.85530722 -0.58543748 0.28825498
-0.84207678 -0.57680416 0.18457997
-0.92965615 -0.63115072 1.0819435
-0.90141183 -0.61265486 0.87715065
-0.89972711 -0.61195982 0.72503155
-0.89375949 -0.6085766 0.58731234
-0.88238782 -0.60127544 0.46077254
-0.8595016 -0.58611119 0.34162897
-0.84670484 -0.57759541 0.23516873
-0.84152055 -0.57448012 0.13477771
-0.08696574 -0.015882919 8.7089415
-1.1307892 -0.72671527 8.5453396
-1.4736458 -0.96029305 8.4797935
-1.2760277 -0.8438704 4.9378333
-1.125929 -0.75023216 3.246999
-1.0392392 -0.69558972 2.3590348
-1.019207 -0.684219 1.8755709
-0.96426219 -0.6487835 1.4680965
-0.44992414 -0.23712511 8.6349974
-0.80354518 -0.4627789 8.605484
-1.4359794 -0.94068968 6.6468506
-1.0728626 -0.71005273 3.5528388
-1.0741193 -0.71515274 2.7319813
-1.029333 -0.68764538 2.0949931
-0.99613601 -0.66720897 1.6623495
-0.96091241 -0.6448167 1.3328004
-0.93702716 -0.63329774 1.191193
-0.91161996 -0.61681128 0.96989942
-0.90192419 -0.61092794 0.79882681
-0.89955044 -0.60976905 0.65541953
-0.88307273 -0.59904087 0.51944846
-0.86947417 -0.59025055 0.39883706
-0.85734558 -0.58244836 0.28825498
-0.83996671 -0.57106143 0.18413289
-0.92875707 -0.62581557 1.078618
-0.90019387 -0.60724431 0.8742075
-0.90185773 -0.60881543 0.72503155
-0.89211804 -0.60291189 0.58521426
-0.88448131 -0.59819168 0.46077254
-0.86154228 -0.58310735 0.34162897
-0.84461528 -0.57186002 0.23447806
-0.8435207 -0.57153916 0.13477771
-0.087020651 -0.015579253 8.7089415
-1.133319 -0.72276366 8.5453396
-1.4769888 -0.95514315 8.4797935
-1.2739733 -0.83613563 4.9187455
-1.1269112 -0.74521983 3.2423966
-1.0396659 -0.69063288 2.3546457
-1.0169054 -0.67753696 1.867305
-0.96385533 -0.64363384 1.464259
-0.45074913 -0.23555315 8.6349974
-0.80561882 -0.46023503 8.6104555
-1.4318764 -0.93087673 6.6129746
-1.1085119 -0.72808856 3.6607723
-1.0766091 -0.7113989 2.7319813
-1.0273794 -0.68116611 2.0864613
-0.99594939 -0.66205972 1.6583595
-0.96033561 -0.63957953 1.3291253
-0.93923199 -0.63002306 1.191193
-0.91053599 -0.61145562 0.96676093
-0.90058088 -0.60544306 0.7960853
-0.89799803 -0.60415274 0.65310073
-0.88131291 -0.59336579 0.51757544
-0.87152922 -0.58721197 0.39883706
-0.85937345 -0.5794521 0.28825498
-0.84195495 -0.5681259 0.18413289
-0.93093592 -0.62256974 1.078618
-0.89894921 -0.60184979 0.87126434
-0.90039617 -0.60326439 0.72249836
-0.89421707 -0.59979415 0.58521426
-0.88264316 -0.59246892 0.45912904
-0.8595376 -0.5773862 0.34045666
-0.84249598 -0.56614625 0.23378737
-0.84136498 -0.56580335 0.13457619
-0.087074503 -0.015275401 8.7089415
-1.1351784 -0.71838802 8.5404015
-1.4803139 -0.94998175 8.4797935
-1.2718806 -0.82842541 4.8996577
-1.1295055 -0.74128169 3.2423966
-1.0400707 -0.68568152 2.3502567
-1.0169168 -0.67243111 1.8631719
-0.96342432 -0.63849497 1.4604216
-0.4515686 -0.2339783 8.6349974
-0.80722046 -0.45742008 8.6104555
-1.4213849 -0.91701627 6.5500622
-1.1327336 -0.73834676 3.731164
-1.0754447 -0.70524937 2.7229788
-1.027572 -0.67614233 2.0821953
-0.99322373 -0.65526086 1.6503794
-0.95973396 -0.63435423 1.3254501
-0.93845683 -0.62476462 1.1876884
-0.91266489 -0.60827351 0.96676093
-0.89921057 -0.59997517 0.79334384
-0.89641738 -0.59855467 0.65078193
-0.88337874 -0.59028584 0.51757544
-0.87357366 -0.58416611 0.39883706
-0.86139089 -0.5764488 0.28825498
-0.83979523 -0.56241244 0.18368581
-0.92999238 -0.61725175 1.0752926
-0.90104461 -0.59870821 0.87126434
-0.9024964 -0.6001178 0.72249836
-0.8925274 -0.5941543 0.58311623
-0.88077599 -0.58676636 0.45748553
-0.85750359 -0.57168621 0.33928433
-0.84446704 -0.56320196 0.23378737
-0.84333479 -0.56286299 0.13457619
-0.087127298 -0.014971361 8.7089415
-1.1376791 -0.71442109 8.5404015
-1.483621 -0.94480872 8.4797935
-1.2684959 -0.81992996 4.8757977
-1.1320863 -0.73733443 3.2423966
-1.0404536 -0.68073583 2.3458676
-1.0145522 -0.6657899 1.8549061
-0.96296906 -0.63336688 1.4565841
-0.45238259 -0.23240061 8.6349974
-0.8088122 -0.45459956 8.6104555
-1.4171664 -0.90730596 6.5161862
-1.1700817 -0.75687844 3.8437903
-1.0760753 -0.70030385 2.7184777
-1.0255585 -0.66969979 2.0736635
-0.99298394 -0.65013945 1.6463894
-0.95627278 -0.62728167 1.3180997
-0.94063199 -0.62148488 1.1876884
-0.91153616 -0.60293686 0.96362251
-0.89781296 -0.5945242 0.79060239
-0.89850128 -0.59542197 0.65078193
-0.88157022 -0.58463651 0.51570243
-0.87560743 -0.58111322 0.39883706
-0.8593058 -0.57072079 0.28732237
-0.8417533 -0.55947757 0.18368581
-0.93214136 -0.61400175 1.0752926
-0.89975446 -0.59333426 0.86832118
-0.90098768 -0.59458953 0.71996522
-0.89459598 -0.59103513 0.58311623
-0.87887961 -0.58108395 0.45584202
-0.85544026 -0.56600744 0.33811203
-0.84229845 -0.55751759 0.23309669
-0.84112936 -0.55715686 0.13437465
-0.08717902 -0.014667139 8.7089415
-1.1401659 -0.71044552 8.5404015
-1.4869099 -0.93962413 8.4797935
-1.2650675 -0.81146824 4.8519378
-1.136294 -0.7344386 3.246999
-1.0408145 -0.67579573 2.3414786
-1.0121537 -0.65917331 1.8466402
-0.96248996 -0.62824988 1.4527465
-0.4531911 -0.23082009 8.6349974
-0.81039417 -0.45177355 8.6104555
-1.4235079 -0.90437526 6.530704
-1.1741689 -0.75372154 3.8484831
-1.0748556 -0.69418168 2.7094753
-1.0235122 -0.66327953 2.0651317
-0.99272043 -0.64502776 1.6423994
-0.95561528 -0.62209046 1.3144246
-0.9398132 -0.61624241 1.1841838
-0.91038126 -0.59761548 0.96048403
-0.89638823 -0.58909029 0.78786093
-0.89687294 -0.58984792 0.64846313
-0.88360566 -0.58155572 0.51570243
-0.87763059 -0.5780533 0.39883706
-0.86129278 -0.56771773 0.28732237
-0.83954406 -0.55379385 0.18323873
-0.93115348 -0.60870129 1.071967
-0.90182012 -0.59018993 0.86832118
-0.89945149 -0.5890792 0.71743202
-0.89285809 -0.58542037 0.58101815
-0.8769545 -0.57542211 0.45419851
-0.85334778 -0.56035006 0.33693972
-0.84423941 -0.55457401 0.23309669
-0.84306908 -0.55421734 0.13437465
-0.087229691 -0.014362738 8.7089415
-1.1432998 -0.70686954 8.5453396
-1.4901807 -0.9344281 8.4797935
-1.2603364 -0.80223924 4.8233061
-1.1388508 -0.73046774 3.246999
-1.0411538 -0.67086142 2.3370893
-1.012085 -0.65410906 1.8425074
-0.9619869 -0.62314391 1.448909
-0.45425218 -0.22936603 8.6399889
-0.81196618 -0.44894198 8.6104555
-1.4351634 -0.90476221 6.5694199
-1.1767927 -0.74961835 3.8484831
-1.0736064 -0.6880765 2.7004728
-1.0214341 -0.65688181 2.0565996
-0.99243337 -0.6399259 1.6384094
-0.95208555 -0.61507201 1.3070743
-0.94195849 -0.61295807 1.1841838
-0.90920037 -0.59230953 0.9573456
-0.89843911 -0.58595771 0.78786093
-0.89521676 -0.58429259 0.64614433
-0.88174886 -0.57593274 0.51382935
-0.8756277 -0.57236165 0.39742702
-0.85915834 -0.56201881 0.28638974
-0.84147209 -0.55085987 0.18323873
-0.93014014 -0.60341537 1.0686415
-0.90048498 -0.58483708 0.86537802
-0.89788765 -0.58358687 0.71489882
-0.89109194 -0.57982498 0.57892013
-0.87500048 -0.56978071 0.452555
-0.85122621 -0.55471414 0.33576739
-0.84617007 -0.5516237 0.23309669
-0.84081423 -0.54854137 0.13417313
-0.087235801 -0.01405467 8.7039413
-1.1457604 -0.70287448 8.5453396
-1.4934335 -0.92922068 8.4797935
-1.2593427 -0.79544407 4.80899
-1.1298559 -0.71914601 3.2147813
-1.0414712 -0.66593301 2.3327003
-1.0119932 -0.64905322 1.8383743
-0.96145982 -0.61804914 1.4450716
-0.45505005 -0.227779 8.6399889
-0.81352836 -0.44610497 8.6104555
-1.4393786 -0.90041357 6.5742593
-1.1721082 -0.74089664 3.8250191
-1.0723275 -0.6819886 2.6914704
-1.021522 -0.65190953 2.0523336
-0.98958457 -0.63320988 1.6304293
-0.95137262 -0.60991538 1.3033991
-0.94109637 -0.60773182 1.1806793
-0.90799356 -0.58701915 0.95420712
-0.89696866 -0.58054614 0.78511947
-0.89353281 -0.57875603 0.64382553
-0.87986362 -0.57032979 0.51195633
-0.87762028 -0.56930172 0.39742702
-0.86111492 -0.55901635 0.28638974
-0.83921367 -0.54520619 0.18279165
-0.92910129 -0.59814394 1.065316
-0.89912337 -0.57950056 0.86243486
-0.89629656 -0.5781126 0.71236569
-0.89311045 -0.57671094 0.57892013
-0.87698406 -0.56672287 0.452555
-0.85315734 -0.55173945 0.33576739
-0.84393263 -0.54597682 0.23240602
-0.84272385 -0.54560304 0.13417313
-0.087284334 -0.013750075 8.7039413
-1.1482068 -0.69887072 8.5453396
-1.496668 -0.92400199 8.4797935
-1.2583168 -0.78866559 4.7946739
-1.1274036 -0.7120685 3.200974
-1.0397447 -0.65972763 2.3239222
-1.0142527 -0.64551669 1.8383743
-0.96090907 -0.6129657 1.441234
-0.45584238 -0.22618918 8.6399889
-0.81508058 -0.44326249 8.6104555
-1.4371727 -0.89207 6.5500622
-1.1717633 -0.73496723 3.8156335
-1.0710194 -0.67591804 2.6824682
-1.0193844 -0.64554942 2.0438018
-0.98924506 -0.62813681 1.6264393
-0.94777489 -0.60295171 1.2960488
-0.94020945 -0.60251904 1.1771748
-0.91003716 -0.58384615 0.95420712
-0.89898968 -0.57741159 0.78511947
-0.89554757 -0.57563347 0.64382553
-0.88184911 -0.56725502 0.51195633
-0.87556857 -0.56363821 0.39601701
-0.85893148 -0.55334681 0.28545713
-0.84111172 -0.54227346 0.18279165
-0.92803693 -0.59288716 1.0619905
-0.90114069 -0.57635856 0.86243486
-0.89467818 -0.57265657 0.70983243
-0.8912968 -0.5711413 0.57682204
-0.87498176 -0.56110913 0.45091146
-0.85098732 -0.5461328 0.33459508
-0.8458333 -0.54302758 0.23240602
-0.84042013 -0.53995758 0.13397159
-0.087331802 -0.013445312 8.7039413
-1.1513047 -0.69525987 8.5502796
-1.4998841 -0.91877198 8.4797935
-1.257259 -0.78190404 4.7803578
-1.1232603 -0.70397967 3.1825638
-1.0400144 -0.65481836 2.3195331
-1.0141205 -0.64046997 1.8342415
-0.96033442 -0.60789365 1.4373965
-0.45636964 -0.22447005 8.6349974
-0.81709242 -0.44066712 8.615427
-1.4274334 -0.87913978 6.4919887
-1.1684608 -0.7272259 3.7968626
-1.0715271 -0.67102015 2.6779668
-1.0216315 -0.64198714 2.0438018
-0.98888212 -0.62307376 1.6224493
-0.94700688 -0.59783012 1.2923737
-0.93929744 -0.59731996 1.1736702
-0.90878612 -0.57857579 0.95106864
-0.89747351 -0.5720228 0.78237802
-0.89381665 -0.57012188 0.64150673
-0.87991607 -0.56167907 0.51008332
-0.87753063 -0.56057853 0.39601701
-0.86085784 -0.55034518 0.28545713
-0.83880448 -0.5366503 0.18234457
-0.92694736 -0.58764505 1.058665
-0.89973426 -0.57104361 0.85949171
-0.89667171 -0.56953007 0.70983243
-0.89328504 -0.56802666 0.57682204
-0.87693512 -0.55805147 0.45091146
-0.85288852 -0.54315901 0.33459508
-0.84354711 -0.53741103 0.23171534
-0.8380872 -0.5343349 0.13377006
-0.087378196 -0.013140386 8.7039413
-1.1537246 -0.69123691 8.5502796
-1.503082 -0.91353089 8.4797935
-1.2612511 -0.77829432 4.78513
-1.1190742 -0.69592834 3.1641538
-1.0402626 -0.64991528 2.3151441
-1.0139654 -0.635432 1.8301084
-0.95973623 -0.60283303 1.4335591
-0.45689055 -0.22275002 8.6300068
-0.81862563 -0.43781227 8.615427
-1.4186941 -0.86694384 6.4387555
-1.1665871 -0.72042316 3.7827842
-1.0701646 -0.66497821 2.6689644
-1.0216532 -0.63703746 2.039536
-0.98849601 -0.61802089 1.6184592
-0.94621491 -0.59272134 1.2886984
-0.93836069 -0.59213454 1.1701657
-0.91080016 -0.57539999 0.95106864
-0.89946479 -0.56888658 0.78237802
-0.89205819 -0.56462938 0.63918799
-0.87795496 -0.55612355 0.5082103
-0.87948215 -0.55751193 0.39601701
-0.85862559 -0.54470545 0.2845245
-0.84067267 -0.53371912 0.18234457
-0.92899293 -0.5844059 1.058665
-0.90172213 -0.56789947 0.85949171
-0.89500725 -0.56409818 0.70729923
-0.891424 -0.56248319 0.57472402
-0.87488496 -0.5524658 0.44926795
-0.85067034 -0.53758198 0.33342275
-0.84541792 -0.53446329 0.23171534
-0.83994728 -0.53140616 0.13377006
-0.087467067 -0.012838182 8.7089415
-1.1561304 -0.68720537 8.5502796
-1.5062617 -0.90827852 8.4797935
-1.2461362 -0.76297724 4.7183223
-1.1165084 -0.68894058 3.150346
-1.0384535 -0.64375675 2.306366
-1.0137874 -0.63040292 1.8259755
-0.95911437 -0.59778404 1.4297215
-0.45766532 -0.22115383 8.6300068
-0.82014894 -0.43495205 8.615427
-1.400213 -0.84895605 6.3419671
-1.1676232 -0.71544516 3.7780917
-1.0687729 -0.65895391 2.6599619
-1.0238706 -0.63346726 2.039536
-0.98808658 -0.61297834 1.6144693
-0.94539869 -0.58762532 1.2850233
-0.93739921 -0.586963 1.1666611
-0.90950507 -0.5701499 0.94793022
-0.89790326 -0.56352067 0.77963656
-0.89402366 -0.56151205 0.63918799
-0.8798908 -0.55305552 0.5082103
-0.88142282 -0.55443859 0.39601701
-0.86052173 -0.54170501 0.2845245
-0.83831698 -0.5281269 0.18189749
-0.92785972 -0.57918251 1.0553395
-0.90027118 -0.56260651 0.85654855
-0.89697087 -0.56097066 0.70729923
-0.89338201 -0.55936813 0.57472402
-0.87680811 -0.54940856 0.44926795
-0.85254169 -0.53460938 0.33342275
-0.84308332 -0.52887738 0.23102465
-0.83756584 -0.52581465 0.13356853
-0.087554894 -0.01253552 8.7139416
-1.1585221 -0.68316555 8.5502796
-1.509423 -0.9030152 8.4797935
-1.2322056 -0.74855006 4.6562862
-1.1139076 -0.68197936 3.1365385
-1.0386541 -0.63887334 2.3019767
-1.0135868 -0.62538284 1.8218426
-0.95846903 -0.59274679 1.425884
-0.45843449 -0.21955493 8.6300068
-0.82166219 -0.43208653 8.615427
-1.4063995 -0.84600645 6.3564849
-1.1686387 -0.71046883 3.7733986
-1.0673523 -0.65294755 2.6509595
-1.0238528 -0.6285252 2.03527
-0.98765409 -0.60794616 1.6104792
-0.94455844 -0.58254224 1.2813481
-0.93944234 -0.58368725 1.1666611
-0.91148973 -0.56697166 0.94793022
-0.89986479 -0.56038302 0.77963656
-0.89221883 -0.55604511 0.63686919
-0.87788236 -0.54752749 0.50633723
-0.87928331 -0.54881853 0.39460698
-0.8582412 -0.53609556 0.2835919
-0.84015542 -0.52519745 0.18189749
-0.92987573 -0.57594019 1.0553395
-0.90222949 -0.55946052 0.85654855
-0.89526075 -0.55556339 0.70476609
-0.89147389 -0.55385125 0.57262594
-0.8747102 -0.54385126 0.44762444
-0.85027564 -0.52906233 0.33225045
-0.84492433 -0.52593124 0.23102465
-0.83939618 -0.52288783 0.13356853
-0.087598123 -0.01222982 8.7139416
-1.160229 -0.6787253 8.5453396
-1.5125661 -0.89774084 8.4797935
-1.2348109 -0.74424428 4.6562862
-1.1129416 -0.67605877 3.1273334
-1.0388334 -0.63399637 2.2975879
-1.0133636 -0.620372 1.8177097
-0.95780021 -0.58772135 1.4220465
-0.45919809 -0.21795335 8.6300068
-0.82269245 -0.42896986 8.6104555
-1.4007083 -0.83594 6.3177695
-1.1711117 -0.7063852 3.7733986
-1.0659028 -0.64695919 2.641957
-1.0238131 -0.62359101 2.0310042
-0.98719847 -0.60292453 1.6064892
-0.94369441 -0.57747227 1.277673
-0.93843824 -0.57853311 1.1631566
-0.91015095 -0.56174237 0.94479173
-0.89825827 -0.5550406 0.77689505
-0.89415431 -0.55292732 0.63686919
-0.87978822 -0.54445976 0.50633723
-0.8811937 -0.54574591 0.39460698
-0.8601073 -0.53309649 0.2835919
-0.84198362 -0.52226156 0.18189749
-0.92869931 -0.57073599 1.052014
-0.90073419 -0.5541898 0.85360539
-0.89719456 -0.55243492 0.70476609
-0.8934018 -0.55073607 0.57262594
-0.87660325 -0.54079461 0.44762444
-0.85211724 -0.5260911 0.33225045
-0.84254175 -0.52037656 0.23033397
-0.83696663 -0.51732785 0.133367
-0.087683842 -0.0119264 8.7189417
-1.1625911 -0.67467117 8.5453396
-1.5165681 -0.89297199 8.4846888
-1.2309952 -0.73609996 4.6324267
-1.1102747 -0.66914505 3.1135259
-1.0389912 -0.62912595 2.2931986
-1.0131177 -0.61537021 1.8135767
-0.95984584 -0.58437437 1.4220465
-0.45995611 -0.21634914 8.6300068
-0.82418483 -0.42609552 8.6104555
-1.402536 -0.83040535 6.3129301
-1.1735702 -0.70229298 3.7733986
-1.0662897 -0.64211166 2.6374559
-1.0237513 -0.61866468 2.0267382
-0.98671985 -0.59791344 1.6024991
-0.9457044 -0.57417464 1.277673
-0.94045198 -0.57525378 1.1631566
-0.90878683 -0.55652934 0.94165331
-0.90019029 -0.55190176 0.77689505
-0.89230311 -0.54748619 0.63455039
-0.87773281 -0.53895974 0.50446421
-0.87900627 -0.54015523 0.39319694
-0.86196285 -0.53009087 0.2835919
-0.83956039 -0.51670909 0.18145041
-0.93068588 -0.56749076 1.052014
-0.90266323 -0.55104226 0.85360539
-0.89543867 -0.5470525 0.7022329
-0.89144707 -0.54524618 0.57052791
-0.87445813 -0.53526622 0.44598094
-0.84980363 -0.52057445 0.33107814
-0.84013075 -0.51484489 0.22964329
-0.83876735 -0.51440316 0.133367
-0.087724939 -0.011620252 8.7189417
-1.164939 -0.67060888 8.5453396
-1.5196759 -0.88767278 8.4846888
-1.2322733 -0.73103708 4.6276546
-1.1075729 -0.66225809 3.0997183
-1.041181 -0.62549543 2.2931986
-1.0152595 -0.61183 1.8135767
-0.95913613 -0.57936329 1.418209
-0.4607085 -0.21474226 8.6300068
-0.82566714 -0.42321599 8.6104555
-1.3902512 -0.81659424 6.2451787
-1.1745306 -0.6973114 3.7687061
-1.0647866 -0.63615304 2.6284533
-1.0236677 -0.61374652 2.0224721
-0.98621839 -0.59291321 1.5985092
-0.94770288 -0.57087004 1.277673
-0.94245428 -0.57196754 1.1631566
-0.90739739 -0.55133277 0.93851483
-0.89853883 -0.54658318 0.77415359
-0.89420873 -0.54436815 0.63455039
-0.87960881 -0.53589267 0.50446421
-0.88088638 -0.53708363 0.39319694
-0.86380798 -0.52707887 0.2835919
-0.8413589 -0.51377535 0.18145041
-0.92946643 -0.56230611 1.0486885
-0.90112382 -0.54579419 0.85066223
-0.8973428 -0.5439235 0.7022329
-0.88946491 -0.53977668 0.56842989
-0.87228507 -0.52975941 0.44433743
-0.847462 -0.51508051 0.32990581
-0.84192276 -0.51190919 0.22964329
-0.83628988 -0.50887525 0.13316546
-0.087764971 -0.011313965 8.7189417
-1.1679476 -0.66692352 8.5502796
-1.5227652 -0.88236272 8.4846888
-1.2373906 -0.72824502 4.6371984
-1.1048368 -0.65539831 3.0859108
-1.0413007 -0.62063122 2.2888095
-1.0149735 -0.60683846 1.8094438
-0.95840329 -0.5743643 1.4143715
-0.46145529 -0.21313278 8.6300068
-0.82713944 -0.42033127 8.6104555
-1.362681 -0.7940219 6.1096745
-1.1739833 -0.69145602 3.7593205
-1.0632551 -0.63021278 2.6194508
-1.0213207 -0.60750341 2.0139403
-0.98569405 -0.58792365 1.5945191
-0.94968981 -0.56755847 1.277673
-0.94138974 -0.56683481 1.1596521
-0.90598279 -0.54615265 0.93537635
-0.8968612 -0.54128289 0.77141213
-0.89231163 -0.53895336 0.63223159
-0.87750655 -0.5304209 0.50259119
-0.87865126 -0.53152263 0.3917869
-0.86564261 -0.52406043 0.2835919
-0.83888793 -0.50825483 0.18100333
-0.92822212 -0.55713689 1.0453631
-0.89955884 -0.54056358 0.84771907
-0.89554173 -0.53856635 0.6996997
-0.89134359 -0.5366686 0.56842989
-0.87008417 -0.52427423 0.44269392
-0.84925479 -0.51211923 0.32990581
-0.83946425 -0.50640929 0.2289526
-0.83806109 -0.50595289 0.13316546
-0.087760337 -0.011005566 8.7139416
-1.1702685 -0.66284251 8.5502796
-1.5258359 -0.87704188 8.4846888
-1.2412143 -0.72467375 4.6419706
-1.1037501 -0.64955634 3.0767057
-1.0413991 -0.61577386 2.2844205
-1.0170857 -0.60329187 1.8094438
-0.95489198 -0.56773961 1.4066964
-0.46219644 -0.2115207 8.6300068
-0.8286016 -0.41744146 8.6104555
-1.3948299 -0.80623978 6.2403388
-1.1734097 -0.68561304 3.7499349
-1.061695 -0.624291 2.6104486
-1.0211889 -0.6026094 2.0096743
-0.98514694 -0.58294505 1.5905291
-0.94874889 -0.56251115 1.2739978
-0.94336265 -0.56354529 1.1596521
-0.9078837 -0.54298687 0.93537635
-0.89874518 -0.53814894 0.77141213
-0.89418751 -0.53583533 0.63223159
-0.87935275 -0.5273546 0.50259119
-0.88050127 -0.52845234 0.3917869
-0.86325556 -0.51850629 0.28265926
-0.840657 -0.50532347 0.18100333
-0.92695308 -0.55198324 1.0420375
-0.90144026 -0.53742021 0.84771907
-0.89371419 -0.5332284 0.69716656
-0.88931513 -0.53122663 0.5663318
-0.8719089 -0.52123386 0.44269392
-0.84686607 -0.50665623 0.3287335
-0.84122682 -0.5034759 0.2289526
-0.83982211 -0.50302446 0.13316546
-0.087798215 -0.010699159 8.7139416
-1.1725752 -0.65875351 8.5502796
-1.5297728 -0.87221462 8.4895849
-1.24632 -0.72183263 4.6515145
-1.1026361 -0.64372998 3.0675008
-1.0435421 -0.61213493 2.2844205
-1.01676 -0.59831089 1.8053107
-0.95410705 -0.56277466 1.402859
-0.46293196 -0.20990604 8.6300068
-0.83005369 -0.41454658 8.6104555
-1.4063599 -0.80636656 6.2790542
-1.1713164 -0.67891741 3.7358565
-1.0601068 -0.61838788 2.6014462
-1.0187844 -0.59640622 2.0011425
-0.98197836 -0.57645214 1.5825491
-0.95070666 -0.559196 1.2739978
-0.94225597 -0.55843085 1.1561475
-0.90642601 -0.53782839 0.93223786
-0.8970232 -0.53287303 0.76867068
-0.89224464 -0.53044713 0.62991279
-0.87720388 -0.52191144 0.50071812
-0.87821871 -0.52292138 0.39037687
-0.86506021 -0.51548982 0.28265926
-0.83813864 -0.49983525 0.18055625
-0.92887419 -0.54874414 1.0420375
-0.89983159 -0.53221279 0.84477592
-0.89556998 -0.53010559 0.69716656
-0.891164 -0.52811909 0.5663318
-0.86966145 -0.51577842 0.44105041
-0.84862947 -0.50369704 0.3287335
-0.83872116 -0.49800819 0.22826193
-0.83727801 -0.49753776 0.13296394
-0.087835029 -0.010392621 8.7139416
-1.1741887 -0.6542784 8.5453396
-1.5328081 -0.86686933 8.4895849
-1.251421 -0.71896458 4.6610584
-1.1014951 -0.63791943 3.0582957
-1.0436025 -0.60728419 2.2800314
-1.0164119 -0.59333968 1.8011779
-0.95329916 -0.55782229 1.3990214
-0.46392554 -0.20840624 8.6349974
-0.83149564 -0.4116466 8.6104555
-1.4069806 -0.80021 6.2693753
-1.1691908 -0.67224473 3.7217784
-1.0603746 -0.61359352 2.596945
-1.0186046 -0.59153688 1.9968767
-0.98138052 -0.57150471 1.578559
-0.95265281 -0.55587399 1.2739978
-0.94419956 -0.55513835 1.1561475
-0.90829778 -0.53466105 0.93223786
-0.8988778 -0.52973861 0.76867068
-0.89409083 -0.52732933 0.62991279
-0.87902039 -0.51884627 0.50071812
-0.88003874 -0.51985264 0.39037687
-0.86262572 -0.50996721 0.28172666
-0.83987832 -0.49690655 0.18055625
-0.92756265 -0.54361075 1.038712
-0.89819759 -0.52702314 0.84183276
-0.89369768 -0.52479351 0.69463336
-0.88908952 -0.52270502 0.56423378
-0.86738658 -0.51034504 0.4394069
-0.84619403 -0.49826542 0.32756117
-0.8404544 -0.49507749 0.22826193
-0.83900964 -0.49461204 0.13296394
-0.087870769 -0.010085955 8.7139416
-1.1764654 -0.65017575 8.5453396
-1.5358247 -0.86151361 8.4895849
-1.2539229 -0.71459192 4.6610584
-1.102021 -0.63309759 3.0536931
-1.0457159 -0.6036377 2.2800314
-1.0184768 -0.58978814 1.8011779
-0.95246828 -0.55288231 1.3951839
-0.46465021 -0.20678556 8.6349974
-0.83292753 -0.40874162 8.6104555
-1.4042909 -0.7922067 6.2451787
-1.1670328 -0.66559517 3.7077
-1.0568455 -0.60663778 2.5834413
-1.0206633 -0.58797771 1.9968767
-0.9807601 -0.56656843 1.574569
-0.95165318 -0.55084699 1.2703226
-0.94305092 -0.55004257 1.152643
-0.90679735 -0.52952468 0.92909944
-0.90072143 -0.52659774 0.76867068
-0.89210254 -0.52196825 0.62759399
-0.87682557 -0.51343232 0.49884507
-0.87770927 -0.51435232 0.38896683
-0.86016327 -0.50446796 0.28079402
-0.83731288 -0.491451 0.18010917
-0.92622656 -0.53849322 1.0353866
-0.90003181 -0.52388459 0.84183276
-0.89552414 -0.52167076 0.69463336
-0.89090866 -0.51959842 0.56423378
-0.86916268 -0.50731421 0.4394069
-0.84792811 -0.49530861 0.32756117
-0.83790177 -0.48964226 0.22757125
-0.84073108 -0.49168038 0.13296394
-0.087905444 -0.0097791683 8.7139416
-1.1787277 -0.64606518 8.5453396
-1.5388225 -0.85614729 8.4895849
-1.2499118 -0.70653868 4.6371984
-1.1025267 -0.62827992 3.0490906
-1.0478166 -0.59998375 2.2800314
-1.0156491 -0.58342648 1.792912
-0.95439243 -0.54955423 1.3951839
-0.46536916 -0.20516238 8.6349974
-0.83434922 -0.40583166 8.6104555
-1.4037566 -0.7854591 6.23066
-1.1648428 -0.65896893 3.6936216
-1.0570648 -0.60186809 2.5789402
-1.0227095 -0.58441132 1.9968767
-0.98011732 -0.56164348 1.5705789
-0.95357025 -0.54752183 1.2703226
-0.94187838 -0.54496157 1.1491385
-0.90864021 -0.52635616 0.92909944
-0.89893681 -0.52135271 0.76592922
-0.89008784 -0.51662743 0.62527519
-0.87460369 -0.50804001 0.49697205
-0.87535203 -0.50887454 0.38755682
-0.86191893 -0.50146234 0.28079402
-0.83902317 -0.48852527 0.18010917
-0.92810059 -0.53525674 1.0353866
-0.89835459 -0.51871878 0.8388896
-0.89733964 -0.51854163 0.69463336
-0.88878852 -0.51421267 0.5621357
-0.86684161 -0.5019111 0.43776339
-0.84544629 -0.48990884 0.32638884
-0.83960587 -0.48671445 0.22757125
-0.83812088 -0.48623568 0.1327624
-0.087939039 -0.0094722612 8.7139416
-1.1809758 -0.64194667 8.5453396
-1.5418016 -0.85077059 8.4895849
-1.2484641 -0.69998193 4.6228828
-1.1030122 -0.62346637 3.044488
-1.0478219 -0.59513992 2.2756422
-1.0152342 -0.57848465 1.788779
-0.95352161 -0.54462993 1.3913465
-0.46608248 -0.20353669 8.6349974
-0.83624125 -0.40314773 8.615427
-1.4020932 -0.77811515 6.2113023
-1.1626208 -0.6523661 3.6795435
-1.0553679 -0.59603393 2.5699377
-1.0247433 -0.58083785 1.9968767
-0.97945207 -0.55672997 1.5665889
-0.95252961 -0.54251224 1.2666475
-0.94068176 -0.53989542 1.1456339
-0.9070971 -0.52124208 0.92596096
-0.90075123 -0.51821166 0.76592922
-0.89188582 -0.51351732 0.62527519
-0.87637174 -0.50498402 0.49697205
-0.87296742 -0.50341952 0.38614678
-0.85940957 -0.49599528 0.27986142
-0.836411 -0.48310283 0.17966209
-0.92672241 -0.53015995 1.032061
-0.89665228 -0.51357096 0.83594644
-0.89540416 -0.51326251 0.69210023
-0.89057803 -0.51110709 0.5621357
-0.86858839 -0.49888223 0.43776339
-0.84715128 -0.48695472 0.32638884
-0.84129971 -0.48378071 0.22757125
-0.83981305 -0.48330709 0.1327624
-0.087971568 -0.0091652395 8.7139416
-1.1832094 -0.63782042 8.5453396
-1.544762 -0.84538352 8.4895849
-1.2456813 -0.69271868 4.6037946
-1.1034775 -0.61865711 3.0398853
-1.0415459 -0.58677727 2.258086
-1.0123476 -0.57216847 1.780513
-0.95262796 -0.53971839 1.387509
-0.4670555 -0.20202225 8.6399889
-0.83764344 -0.40022627 8.615427
-1.3992945 -0.77018666 6.1871057
-1.1633829 -0.64746481 3.6748505
-1.0536433 -0.59021896 2.5609353
-1.0244911 -0.57597935 1.9926107
-0.97876453 -0.55182803 1.5625988
-0.95441753 -0.53918397 1.2666475
-0.93946129 -0.53484434 1.1421293
-0.90552938 -0.51614523 0.92282254
-0.89892292 -0.51299196 0.76318777
-0.88982618 -0.5082041 0.6229564
-0.87410426 -0.49962142 0.49509901
-0.8705554 -0.49798745 0.38473675
-0.86113566 -0.49299234 0.27986142
-0.83809233 -0.48018023 0.17966209
-0.92856735 -0.52692187 1.032061
-0.89843953 -0.51043797 0.83594644
-0.89719033 -0.5101338 0.69210023
-0.88841242 -0.50575006 0.56003767
-0.87032443 -0.49584725 0.43776339
-0.84462339 -0.48158714 0.32521653
-0.83868182 -0.47838756 0.22688057
-0.84149504 -0.48037267 0.1327624
-0.088003032 -0.0088581052 8.7139416
-1.1854285 -0.63368636 8.5453396
-1.5477036 -0.83998615 8.4895849
-1.2454773 -0.68692476 4.5942507
-1.1039227 -0.61385232 3.0352831
-1.0373154 -0.57963395 2.2449188
-1.009429 -0.56587952 1.7722472
-0.95171183 -0.53481972 1.3836714
-0.46775782 -0.2003907 8.6399889
-0.83903533 -0.39729989 8.615427
-1.3964574 -0.76228708 6.1629081
-1.1611031 -0.6408987 3.6607723
-1.0537941 -0.58548045 2.5564339
-1.0264953 -0.57239974 1.9926107
-0.9780547 -0.54693764 1.5586089
-0.95333612 -0.53419214 1.2629722
-0.94132257 -0.53156173 1.1421293
-0.90393722 -0.51106572 0.91968405
-0.8970691 -0.50779128 0.76044625
-0.89159465 -0.50509495 0.6229564
-0.87584287 -0.49656716 0.49509901
-0.86811608 -0.4925783 0.38332671
-0.86285132 -0.48998341 0.27986142
-0.83976328 -0.47725183 0.17966209
-0.92714709 -0.52184612 1.0287355
-0.8966943 -0.50531447 0.83300328
-0.89521062 -0.50488138 0.68956703
-0.89017242 -0.50264585 0.56003767
-0.86793882 -0.49048305 0.43611988
-0.84629929 -0.47863591 0.32521653
-0.84034657 -0.4754571 0.22688057
-0.83881927 -0.47497076 0.13256088
-0.087989792 -0.0085501093 8.7089415
-1.1876333 -0.62954456 8.5453396
-1.5506263 -0.83457857 8.4895849
-1.2452482 -0.68114078 4.5847068
-1.1043478 -0.60905182 3.0306804
-1.0330476 -0.57252717 2.2317514
-1.0089387 -0.56098521 1.7681142
-0.95077306 -0.52993405 1.3798339
-0.46872064 -0.19886856 8.6449804
-0.84041709 -0.39436871 8.615427
-1.3935823 -0.75441664 6.138711
-1.1618193 -0.63601339 3.6560795
-1.0539247 -0.58074802 2.5519328
-1.0262048 -0.56755114 1.9883448
-0.97468752 -0.54059762 1.5506288
-0.95223176 -0.5292145 1.2592971
-0.94006073 -0.52653009 1.1386248
-0.90232062 -0.50600368 0.91654563
-0.89883614 -0.50465685 0.76044625
-0.88949049 -0.49980977 0.6206376
-0.87353009 -0.49123463 0.49322599
-0.86983019 -0.48954502 0.38332671
-0.86027628 -0.48455781 0.27892879
-0.84142411 -0.47431758 0.17966209
-0.92896301 -0.5186066 1.0287355
-0.8984527 -0.50218129 0.83300328
-0.89320534 -0.49964911 0.68703383
-0.88796175 -0.49731794 0.55793959
-0.86964566 -0.48745039 0.43611988
-0.84372568 -0.4733009 0.32404423
-0.83768255 -0.47009739 0.2261899
-0.8404721 -0.47203982 0.13256088
-0.088019095 -0.0082429163 8.7089415
-1.1891358 -0.62503392 8.5404015
-1.55353 -0.82916075 8.4895849
-1.2449938 -0.67536676 4.5751624
-1.1047531 -0.60425597 3.026078
-1.0308418 -0.56661081 2.2229733
-1.0059621 -0.55474257 1.7598482
-0.94981188 -0.52506155 1.3759965
-0.46941197 -0.19723122 8.6449804
-0.84178853 -0.3914327 8.615427
-1.3884544 -0.74538702 6.104835
-1.1594825 -0.62948459 3.6420014
-1.0540351 -0.57602185 2.5474315
-1.0236062 -0.56145746 1.979813
-0.97392833 -0.5357399 1.5466388
-0.9511041 -0.52425098 1.2556219
-0.94189298 -0.52324545 1.1386248
-0.9040814 -0.50285089 0.91654563
-0.89693904 -0.49948207 0.75770479
-0.88736022 -0.4945454 0.6183188
-0.87523949 -0.48818246 0.49322599
-0.86734509 -0.48416767 0.38191667
-0.8619625 -0.48155192 0.27892879
-0.84307468 -0.47137758 0.17966209
-0.92750096 -0.51355225 1.0254101
-0.89666492 -0.49708247 0.83006012
-0.89494401 -0.49652818 0.68703383
-0.88969237 -0.49421531 0.55793959
-0.86721456 -0.48211741 0.43447638
-0.84537268 -0.47035286 0.32404423
-0.83931839 -0.46717048 0.2261899
-0.83775026 -0.46667191 0.13235934
-0.088047333 -0.0079356218 8.7089415
-1.1913104 -0.62087923 8.5404015
-1.5555148 -0.82325673 8.4846888
-1.2447144 -0.66960281 4.565619
-1.1051382 -0.59946465 3.0214753
-1.0286075 -0.56071693 2.2141953
-1.0054234 -0.5498777 1.7557154
-0.95163888 -0.52174288 1.3759965
-0.47009754 -0.19559146 8.6449804
-0.84314978 -0.38849193 8.615427
-1.3832804 -0.73640233 6.0709591
-1.1571139 -0.62297976 3.627923
-1.0541253 -0.57130206 2.5429304
-1.0232686 -0.5566349 1.975547
-0.97314721 -0.53089416 1.5426488
-0.94995344 -0.51930183 1.2519468
-0.94059002 -0.51823366 1.1351203
-0.9024229 -0.49781212 0.91340715
-0.89867711 -0.49634811 0.75770479
-0.88908112 -0.49144492 0.6183188
-0.87288159 -0.48288032 0.49135295
-0.86902988 -0.4811371 0.38191667
-0.85934144 -0.47615945 0.27799615
-0.84907007 -0.47084692 0.18010917
-0.92601514 -0.50851452 1.0220846
-0.89839464 -0.4939495 0.83006012
-0.89289486 -0.49132314 0.68450069
-0.88743675 -0.48891675 0.55584157
-0.86889213 -0.47908732 0.43447638
-0.8470093 -0.46739909 0.32404423
-0.84094405 -0.46423787 0.2261899
-0.83937418 -0.46374479 0.13235934
-0.088074498 -0.0076282308 8.7089415
-1.1934704 -0.61671698 8.5404015
-1.5583789 -0.81782192 8.4846888
-1.2444099 -0.66384912 4.5560746
-1.1037827 -0.59375274 3.0122702
-1.0284514 -0.5559842 2.209806
-1.004863 -0.54502332 1.7515824
-0.95063818 -0.51688695 1.3721589
-0.47077742 -0.19394933 8.6449804
-0.84450072 -0.38554639 8.615427
-1.3780607 -0.72746295 6.0370831
-1.1531918 -0.61568671 3.6091518
-1.0541954 -0.56658852 2.538429
-1.02291 -0.55182165 1.9712811
-0.96969372 -0.52462667 1.5346687
