# .PCD v0.7 - Point Cloud Data file format
VERSION 0.7
FIELDS x y z
SIZE 4 4 4
TYPE F F F
COUNT 1 1 1
WIDTH 1452
HEIGHT 1
VIEWPOINT 0 0 0 1 0 0 0
POINTS 1452
DATA ascii
-0.7833789 0.51580232 8.704915
-1.4018461 0.81168276 6.2742147
-0.94121081 0.53905308 3.0037851
-1.0250324 0.58333218 2.5024195
-1.0382559 0.58873177 2.0224721
-0.93873376 0.53079617 1.5027486
-0.9251501 0.52206677 1.2298958
-0.91834027 0.51422447 1.1140929
-0.89270926 0.49926835 0.90713024
-0.88167918 0.49250472 0.74673891
-0.87931138 0.4907881 0.6136812
-0.86311829 0.48136297 0.48760688
-0.85512954 0.47652492 0.37768659
-0.84977132 0.47315612 0.27613091
-0.8353616 0.46475938 0.17876793
-0.91129088 0.5119552 1.0121081
-0.8799957 0.49377742 0.81828749
-0.88143921 0.49419186 0.6794343
-0.87215257 0.48839346 0.54954737
-0.85352486 0.47757903 0.42954585
-0.83591574 0.46735123 0.32169959
-0.82554358 0.46136883 0.22411785
-0.82417792 0.46023697 0.13175476
-0.053111333 0.070889249 8.728941
-1.1635956 0.69289392 8.6095505
-1.4177184 0.83207792 7.9266338
-1.0260412 0.59286398 3.8355052
-0.9873668 0.5659821 2.7407215
-1.0362897 0.59119266 2.2536969
-0.97904122 0.55674154 1.7267847
-0.9300251 0.5275951 1.3568089
-0.41694206 0.29972565 8.7198553
-0.78112978 0.51823843 8.6999426
-1.4011751 0.81783879 6.2838941
-0.94231212 0.54406148 3.0131705
-1.0229899 0.58690667 2.5024195
-1.0361944 0.59235239 2.0224721
-0.93949288 0.53556222 1.5067385
-0.9262687 0.52696955 1.2335709
-0.91964513 0.51918036 1.1175975
-0.89435136 0.50429338 0.91026872
-0.88359791 0.4976314 0.74948037
-0.8775928 0.49385449 0.6136812
-0.86547363 0.48664513 0.48947993
-0.85346091 0.47950697 0.37768659
-0.84811449 0.47611949 0.27613091
-0.83807749 0.47010884 0.17921501
-0.91274697 0.51697344 1.0154335
-0.88178474 0.49883652 0.82123065
-0.87970883 0.49726561 0.6794343
-0.87439454 0.49366632 0.55164546
-0.8559655 0.48287573 0.43118936
-0.8342793 0.47026628 0.32169959
-0.82392806 0.4642477 0.22411785
-0.82691979 0.46556208 0.13195628
-0.052863557 0.07107421 8.728941
-1.1631681 0.69815171 8.6243687
-1.4183103 0.83909607 7.9462142
-1.0059094 0.58592039 3.7686975
-0.98369372 0.56844747 2.7361188
-1.0362957 0.59600061 2.258086
-0.97953302 0.56155539 1.7309177
-0.92817783 0.53083825 1.3568089
-0.41589332 0.3011792 8.7198553
-0.77887326 0.52066517 8.6949711
-1.3993951 0.82336235 6.288733
-0.94488114 0.54995239 3.0272489
-1.0209349 0.59047401 2.5024195
-1.0363799 0.59726816 2.0267382
-0.94023013 0.54034001 1.5107286
-0.92442358 0.53019965 1.2335709
-0.91782731 0.52238733 1.1175975
-0.89258558 0.5074122 0.91026872
-0.88185549 0.50071269 0.74948037
-0.87586361 0.49691483 0.6136812
-0.86376965 0.48966327 0.48947993
-0.85595584 0.48484761 0.37909663
-0.85072237 0.48149672 0.27706355
-0.83643138 0.4730314 0.17921501
-0.91093689 0.52015632 1.0154335
-0.88003808 0.50191152 0.82123065
-0.88171297 0.50246787 0.6819675
-0.87266606 0.49671549 0.55164546
-0.85427469 0.48586068 0.43118936
-0.83685857 0.47557721 0.32287189
-0.8266083 0.46956694 0.22480853
-0.82528961 0.46844572 0.13195628
-0.052592088 0.071221255 8.7239418
-1.1627178 0.70341474 8.6391859
-1.4197447 0.84665012 7.9706907
-0.99356139 0.58337986 3.7305217
-0.98339152 0.57286137 2.7407215
-1.0362808 0.60081583 2.2624753
-0.98000324 0.56637949 1.7350507
-0.92909575 0.53567612 1.3606465
-0.41483948 0.30262911 8.7198553
-0.77705103 0.52338076 8.6949711
-1.3975935 0.82888353 6.2935724
-0.94593221 0.55499429 3.0366344
-1.0207481 0.5951308 2.5069206
-1.0365438 0.60219252 2.0310042
-0.94094545 0.54512942 1.5147187
-0.925502 0.53512037 1.2372462
-0.91909128 0.527363 1.121102
-0.8941859 0.51246029 0.91340715
-0.88373119 0.50586534 0.75222182
-0.87796891 0.5021686 0.616
-0.86608005 0.49497584 0.49135295
-0.85425824 0.48783249 0.37909663
-0.84903646 0.48446336 0.27706355
-0.83910131 0.47841486 0.17966209
-0.91235149 0.52519584 1.018759
-0.8817848 0.50699526 0.82417381
-0.87995362 0.50554258 0.6819675
-0.87486321 0.50201762 0.55374348
-0.85667002 0.49118865 0.43283287
-0.8351934 0.47849548 0.32287189
-0.82496417 0.47244951 0.22480853
-0.82364941 0.4713237 0.13195628
-0.05234316 0.071404397 8.7239418
-1.1622454 0.70868325 8.6540041
-1.4211437 0.85422438 7.9951663
-0.96711469 0.57239467 3.639854
-0.99149311 0.58222759 2.7683365
-1.0362449 0.60563821 2.2668641
-0.98045158 0.57121372 1.7391837
-0.92999142 0.54052693 1.364484
-0.41378057 0.30407533 8.7198553
-0.77433789 0.52549028 8.6850281
-1.3957705 0.83440214 6.2984118
-0.94695956 0.56005019 3.04602
-1.0186645 0.59869021 2.5069206
-1.0366858 0.60712522 2.03527
-0.94163877 0.54993045 1.5187087
-0.92655718 0.54005504 1.2409213
-0.92033184 0.53235382 1.1246065
-0.89239168 0.51557851 0.91340715
-0.88196003 0.50894707 0.75222182
-0.87621063 0.50523025 0.616
-0.86434698 0.49799597 0.49135295
-0.85255021 0.49081144 0.37909663
-0.8515982 0.48987353 0.27799615
-0.83742619 0.48134091 0.17966209
-0.91374189 0.53025156 1.0220846
-0.8835066 0.5120973 0.82711697
-0.88191378 0.51077169 0.68450069
-0.87310553 0.50506842 0.55374348
-0.85495025 0.49417597 0.43283287
-0.83351809 0.48140797 0.32287189
-0.82330996 0.4753263 0.22480853
-0.82632667 0.47669235 0.13215782
-0.052093595 0.071586676 8.7239418
-1.1617501 0.71395695 8.6688213
-1.4233776 0.86234653 8.024538
-0.94203883 0.561997 3.5539584
-0.9944979 0.58867109 2.7821441
-1.0382513 0.61168343 2.2756422
-0.980878 0.57605785 1.7433165
-0.93086427 0.54539037 1.3683214
-0.41271663 0.30551785 8.7198553
-0.77249885 0.52819002 8.6850281
-1.3950025 0.84056693 6.3080912
-0.94648099 0.56423622 3.0507126
-1.0165684 0.60224235 2.5069206
-1.036806 0.61206627 2.039536
-0.94230998 0.55474293 1.5226986
-0.9246664 0.54328609 1.2409213
-0.918468 0.53556317 1.1246065
-0.89394987 0.52064943 0.91654563
-0.88379228 0.51412523 0.75496328
-0.87444174 0.50828576 0.616
-0.86661214 0.50333852 0.49322599
-0.85498065 0.49619234 0.38050666
-0.84988296 0.49284318 0.27799615
-0.83574086 0.48426116 0.17966209
-0.91188538 0.53343785 1.0220846
-0.88171363 0.5151782 0.82711697
-0.88012546 0.51384705 0.68450069
-0.87525773 0.5103994 0.55584157
-0.85729998 0.49953476 0.43447638
-0.83603299 0.48676026 0.32404423
-0.82592571 0.48068824 0.22549921
-0.82465768 0.47957385 0.13215782
-0.051843394 0.071768083 8.7239418
-1.1585904 0.71759862 8.6638832
-1.4194901 0.86677903 8.0196428
-0.92600131 0.55681771 3.5014665
-0.99914724 0.59614384 2.800554
-1.0381689 0.61652702 2.2800314
-0.98128265 0.58091199 1.7474495
-0.93171448 0.55026644 1.3721589
-0.41164765 0.30695665 8.7198553
-0.76977324 0.53027755 8.675086
-1.3877628 0.84282076 6.288733
-0.94746369 0.56931466 3.0600982
-1.0163291 0.60690355 2.5114219
-1.0369042 0.61701548 2.0438018
-0.94295907 0.5595668 1.5266887
-0.92568123 0.54823822 1.2445965
-0.9196673 0.54057324 1.1281111
-0.89212698 0.52376676 0.91654563
-0.88559926 0.51932245 0.75770479
-0.87266213 0.51133502 0.616
-0.86484987 0.50636053 0.49322599
-0.85324341 0.49917373 0.38050666
-0.85239822 0.49828592 0.27892879
-0.83404541 0.48717546 0.17966209
-0.91323394 0.53851438 1.0254101
-0.88339263 0.52030426 0.83006012
-0.88204163 0.51910275 0.68703383
-0.87347078 0.51345152 0.55584157
-0.85962278 0.50491595 0.43611988
-0.83432877 0.48967558 0.32404423
-0.82424277 0.48356837 0.22549921
-0.82297856 0.48244953 0.13215782
-0.051592559 0.07194861 8.7239418
-1.1547605 0.72081518 8.6540041
-1.4164557 0.87172872 8.0196428
-0.92788118 0.56236845 3.5157826
-1.0020825 0.60264915 2.8143618
-1.0380653 0.62137741 2.2844205
-0.98408157 0.58721805 1.7557154
-0.92978811 0.55351543 1.3721589
-0.41034347 0.30821759 8.7148647
-0.7670424 0.53235239 8.665143
-1.4073236 0.86144388 6.3903608
-0.94989848 0.57530105 3.0741765
-1.0142044 0.61044753 2.5114219
-1.0369806 0.62197292 2.0480678
-0.94358587 0.56440192 1.5306787
-0.9237619 0.55146611 1.2445965
-0.92084271 0.54559827 1.1316158
-0.89364284 0.52886021 0.91968405
-0.88378114 0.52241063 0.75770479
-0.87468606 0.51663101 0.6183188
-0.86706942 0.5117327 0.49509901
-0.85562778 0.50458592 0.38191667
-0.85065371 0.50125825 0.27892879
-0.83233976 0.49008387 0.17966209
-0.91455817 0.54360688 1.0287355
-0.88157105 0.52338469 0.83006012
-0.88022423 0.52217847 0.68703383
-0.87557769 0.51881111 0.55793959
-0.85785502 0.50791353 0.43611988
-0.83679777 0.49505994 0.32521653
-0.82681227 0.4889634 0.2261899
-0.82559061 0.48786095 0.13235934
-0.051341098 0.072128266 8.7239418
-1.1522373 0.72484165 8.6540041
-1.4116738 0.87559402 8.0098524
-0.91190189 0.55704176 3.4632907
-1.0016434 0.6071564 2.8189645
-1.03589 0.62499714 2.2844205
-0.98684853 0.59355074 1.7639813
-0.93059862 0.55840707 1.3759965
-0.40926507 0.30964807 8.7148647
-0.76387 0.5341087 8.6502275
-1.4043081 0.86635113 6.3903608
-0.95230287 0.58131135 3.0882547
-1.0139284 0.61511344 2.5159233
-1.037035 0.62693834 2.0523336
-0.94419044 0.5692482 1.5346687
-0.92473602 0.55643535 1.2482716
-0.91893262 0.54880929 1.1316158
-0.89513397 0.53397053 0.92282254
-0.88554418 0.52763283 0.76044625
-0.87287736 0.5196811 0.6183188
-0.86527789 0.5147562 0.49509901
-0.85386121 0.50756955 0.38191667
-0.85312223 0.50673324 0.27986142
-0.83062398 0.49298632 0.17966209
-0.91265506 0.54679602 1.0287355
-0.88320702 0.52853447 0.83300328
-0.88209581 0.52746028 0.68956703
-0.87376136 0.5218643 0.55793959
-0.85607684 0.51090491 0.43611988
-0.83506459 0.49797791 0.32521653
-0.82510036 0.49184653 0.2261899
-0.82388264 0.49073985 0.13235934
-0.051089007 0.072307043 8.7239418
-1.1365777 0.7205348 8.5552187
-1.4068823 0.87943661 8.000062
-0.90995193 0.56022143 3.4632907
-0.99951792 0.61064905 2.8189645
-1.0357482 0.6298539 2.2888095
-0.98958308 0.5999099 1.7722472
-0.9286437 0.56165206 1.3759965
-0.40795267 0.31089902 8.7098732
-0.76113021 0.53615689 8.6402855
-1.4151511 0.87987792 6.4532733
-0.95320719 0.58644092 3.0976403
-1.0117751 0.61864889 2.5159233
-1.0370674 0.6319117 2.0565996
-0.94219762 0.57254052 1.5346687
-0.92278808 0.5596599 1.2482716
-0.92006665 0.55385303 1.1351203
-0.89660031 0.53909773 0.92596096
-0.88369703 0.53072077 0.76044625
-0.87485629 0.52500439 0.6206376
-0.86347574 0.51777345 0.49509901
-0.85619915 0.51301265 0.38332671
-0.85134816 0.50970817 0.27986142
-0.83317167 0.49843943 0.18010917
-0.91393691 0.55190873 1.032061
-0.88135678 0.53161424 0.83300328
-0.8802492 0.53053617 0.68956703
-0.87582254 0.52725196 0.56003767
-0.85833466 0.51632428 0.43776339
-0.83748716 0.50339395 0.32638884
-0.82762331 0.49727416 0.22688057
-0.82216465 0.49361271 0.13235934
-0.050836299 0.072484933 8.7239418
-1.1320918 0.7232424 8.5404015
-1.402081 0.88325638 7.9902711
-0.90925896 0.56418163 3.4680624
-0.9990437 0.6151588 2.8235669
-1.0335433 0.63346553 2.2888095
-0.99228531 0.60629535 1.780513
-0.92941421 0.56655866 1.3798339
-0.40686494 0.31232116 8.7098732
-0.75925398 0.53881043 8.6402855
-1.4205915 0.89015305 6.4919887
-0.95555377 0.59249359 3.1117187
-1.0114626 0.62331915 2.5204244
-1.0370775 0.63689291 2.0608656
-0.94276285 0.57739991 1.5386587
-0.92372125 0.56464589 1.2519468
-0.91812772 0.55706131 1.1351203
-0.89471298 0.54222423 0.92596096
-0.88541615 0.53596771 0.76318777
-0.87680852 0.5303477 0.6229564
-0.86563063 0.52318245 0.49697205
-0.85850948 0.51847821 0.38473675
-0.84956378 0.51267678 0.27986142
-0.83142674 0.50134468 0.18010917
-0.91200483 0.55509555 1.032061
-0.88294941 0.53678739 0.83594644
-0.87839192 0.53360558 0.68956703
-0.87397677 0.53030592 0.56003767
-0.85652715 0.51931733 0.43776339
-0.83572489 0.50631422 0.32638884
-0.82588243 0.50016004 0.22688057
-0.82471085 0.49906614 0.13256088
-0.050582971 0.072661944 8.7239418
-1.1197623 0.72087771 8.4663115
-1.3972702 0.88705343 7.9804807
-0.9110806 0.56972712 3.4823785
-0.9952305 0.61761206 2.8189645
-1.0333632 0.63832814 2.2931986
-0.9925589 0.61123109 1.7846459
-0.93016177 0.57147753 1.3836714
-0.40577227 0.31373948 8.7098732
-0.75260258 0.53804159 8.5855989
-1.42704 0.90114808 6.5355439
-0.95494306 0.59674019 3.1164114
-1.0092806 0.62684608 2.5204244
-1.0370655 0.64188182 2.0651317
-0.94330561 0.58227021 1.5426488
-0.92463094 0.56964529 1.2556219
-0.91921997 0.56212348 1.1386248
-0.8961364 0.54737312 0.92909944
-0.88353986 0.53905511 0.76318777
-0.87495196 0.53340513 0.6229564
-0.8637991 0.52620089 0.49697205
-0.86079198 0.52396607 0.38614678
-0.8519659 0.51819193 0.28079402
-0.82967162 0.50424385 0.18010917
-0.9100616 0.5582757 1.032061
-0.88107032 0.53986621 0.83594644
-0.88020033 0.53891957 0.69210023
-0.87599212 0.53572142 0.5621357
-0.85470915 0.522304 0.43776339
-0.83810079 0.51176155 0.32756117
-0.82413149 0.5030399 0.22688057
-0.82296371 0.50194192 0.13256088
-0.050329026 0.072838068 8.7239418
-1.1100703 0.7201283 8.4119806
-1.3933078 0.89137661 7.9755859
-0.90277272 0.56892347 3.4585185
-0.99306858 0.62108231 2.8189645
-1.0331619 0.64319742 2.2975879
-0.99520105 0.6176604 1.792912
-0.93088621 0.57640857 1.387509
-0.40467465 0.31515399 8.7098732
-0.74034756 0.53317642 8.4662828
-1.4376702 0.91489893 6.5984564
-0.95285428 0.60006988 3.1164114
-1.0070864 0.63036531 2.5204244
-1.0370313 0.64687854 2.0693977
-0.94382578 0.58715129 1.5466388
-0.92551684 0.57465786 1.2592971
-0.92028803 0.56720006 1.1421293
-0.89422023 0.55049783 0.92909944
-0.88521463 0.54432631 0.76592922
-0.87685889 0.53877515 0.62527519
-0.86590773 0.53163862 0.49884507
-0.86304659 0.52947623 0.38755682
-0.8501519 0.52116269 0.28079402
-0.83215302 0.50973815 0.18055625
-0.91128308 0.56341261 1.0353866
-0.88261944 0.54506236 0.8388896
-0.87831378 0.54198879 0.69210023
-0.87411672 0.53877598 0.5621357
-0.85288084 0.52528423 0.43776339
-0.83630931 0.5146839 0.32756117
-0.82658827 0.50850838 0.22757125
-0.8254627 0.50742781 0.1327624
-0.050074466 0.073013306 8.7239418
-1.0919441 0.71379054 8.2934389
-1.3884765 0.89513099 7.9657955
-0.8957417 0.56886929 3.4394307
-0.98924184 0.62350297 2.8143618
-1.0329391 0.64807296 2.3019767
-0.99542457 0.62262291 1.7970449
-0.9315877 0.58135158 1.3913465
-0.40357208 0.31656465 8.7098732
-0.71908301 0.52164775 8.2425642
-1.436584 0.92126918 6.6081352
-0.95075381 0.6033923 3.1164114
-1.0048798 0.63387686 2.5204244
-1.0369748 0.65188271 2.0736635
-0.94432336 0.59204304 1.5506288
-0.92350537 0.57788509 1.2592971
-0.92133182 0.5722909 1.1456339
-0.89560056 0.55566818 0.93223786
-0.88330919 0.54741299 0.76592922
-0.87497288 0.54183275 0.62527519
-0.86404669 0.53465796 0.49884507
-0.8652733 0.53500849 0.38896683
-0.84832752 0.52412707 0.28079402
-0.83036864 0.51263982 0.18055625
-0.90931082 0.56659019 1.0353866
-0.88071144 0.54813999 0.8388896
-0.88007712 0.54732811 0.69463336
-0.87608594 0.5442189 0.56423378
-0.85505402 0.53074867 0.4394069
-0.83863819 0.52016217 0.3287335
-0.82480824 0.51139057 0.22757125
-0.82793331 0.51293725 0.13296394
-0.049819298 0.073187657 8.7239418
-1.0738755 0.707335 8.1748953
-1.3844897 0.89941734 7.9608998
-0.86609411 0.55428517 3.3344471
-0.98541045 0.62590462 2.8097594
-1.0326947 0.65295482 2.306366
-0.99562556 0.62759459 1.8011779
-0.93226576 0.58630639 1.3951839
-0.4024646 0.31797141 8.7098732
-0.70349807 0.51407301 8.083477
-1.4386374 0.92968994 6.6323323
-0.94718814 0.60577738 3.1117187
-1.0044981 0.63854873 2.5249257
-1.0368961 0.65689439 2.0779295
-0.94479829 0.59694541 1.5546188
-0.9243499 0.58291364 1.2629722
-0.9223513 0.57739598 1.1491385
-0.89695573 0.56085485 0.93537635
-0.88493943 0.55270821 0.76867068
-0.87683415 0.54722911 0.62759399
-0.86610878 0.540124 0.50071812
-0.86340046 0.53802562 0.38896683
-0.85066277 0.52968168 0.28172666
-0.83280241 0.51816607 0.18100333
-0.91048938 0.57174659 1.038712
-0.88221669 0.55335879 0.84183276
-0.8818137 0.55268627 0.69716656
-0.87418091 0.5472737 0.56423378
-0.8531962 0.53373009 0.4394069
-0.83681738 0.52308637 0.3287335
-0.82301813 0.51426661 0.22757125
-0.82613778 0.5158242 0.13296394
-0.04956352 0.073361106 8.7239418
-1.055866 0.70076233 8.0563536
-1.3796381 0.90312886 7.9511094
-0.8616454 0.55568641 3.324903
-0.98651028 0.63144743 2.8189645
-1.0324289 0.6578427 2.3107548
-0.99580389 0.63257515 1.8053107
-0.93292075 0.59127307 1.3990214
-0.4015775 0.31955487 8.7148647
-0.69397932 0.51082766 7.9939895
-1.4395963 0.93745041 6.65169
-0.94506782 0.60908002 3.1117187
-1.0022631 0.64205116 2.5249257
-1.038993 0.66331697 2.0864613
-0.94525039 0.60185838 1.5586089
-0.92517066 0.58795524 1.2666475
-0.92334616 0.582515 1.152643
-0.89828539 0.56605762 0.93851483
-0.88654339 0.55802137 0.77141213
-0.87491858 0.55028653 0.62759399
-0.86421812 0.54314405 0.50071812
-0.86151713 0.54103613 0.38896683
-0.84880859 0.53264785 0.28172666
-0.83098865 0.52106994 0.18100333
-0.91164303 0.57691813 1.0420375
-0.88027978 0.55643493 0.84183276
-0.87987918 0.55576098 0.69716656
-0.87610364 0.55274367 0.5663318
-0.85532242 0.53922343 0.44105041
-0.83909899 0.52859503 0.32990581
-0.8254084 0.51977515 0.22826193
-0.82856065 0.52136552 0.13316546
-0.049328491 0.073571734 8.728941
-1.0437272 0.69796187 7.982265
-1.3756273 0.90737844 7.9462142
-0.85594606 0.55624986 3.3105872
-0.98594171 0.63594627 2.8235669
-1.0321414 0.66273677 2.3151441
-0.99595964 0.63756472 1.8094438
-0.93355221 0.59625143 1.402859
-0.40068424 0.32113594 8.7198553
-0.69005311 0.5116567 7.9691319
-1.4415693 0.9459185 6.6758871
-0.94293594 0.6123752 3.1117187
-1.0036736 0.64790761 2.5339279
-1.0388644 0.66835093 2.0907271
-0.94567978 0.60678166 1.5625988
-0.92311275 0.5911811 1.2666475
-0.92130715 0.58573455 1.152643
-0.89630401 0.56918979 0.93851483
-0.88459021 0.56111258 0.77141213
-0.8767339 0.55570883 0.62991279
-0.86623341 0.54863816 0.50259119
-0.85962331 0.54404008 0.38896683
-0.84694415 0.53560752 0.28172666
-0.83337456 0.52662778 0.18145041
-0.91277158 0.58210456 1.0453631
-0.88174111 0.56167603 0.84477592
-0.88157034 0.56114393 0.6996997
-0.87416881 0.55579847 0.5663318
-0.85742074 0.54473817 0.44269392
-0.84135222 0.53412598 0.33107814
-0.82777023 0.5253067 0.2289526
-0.82673573 0.52425456 0.13316546
-0.049071375 0.07374347 8.728941
-1.0412844 0.70160085 7.982265
-1.3707559 0.91104728 7.9364243
-0.85275048 0.55841625 3.3058152
-0.98699164 0.64151382 2.8327718
-1.0318323 0.66763681 2.3195331
-0.99845725 0.64408863 1.8177097
-0.93416041 0.60124141 1.4066964
-0.39956084 0.32253262 8.7198553
-0.69210285 0.51693821 8.013875
-1.4445492 0.95510519 6.7049236
-0.94079262 0.61566293 3.1117187
-1.0032305 0.65259433 2.538429
-1.0387135 0.67339212 2.0949931
-0.94608623 0.61171526 1.5665889
-0.9238919 0.59623826 1.2703226
-0.92225969 0.59087092 1.1561475
-0.89758998 0.57441318 0.94165331
-0.88614923 0.56644928 0.77415359
-0.8747887 0.55876583 0.62991279
-0.86431301 0.55165851 0.50259119
-0.86176336 0.54961693 0.39037687
-0.84506935 0.53856063 0.28172666
-0.83153117 0.52953362 0.18145041
-0.91387504 0.58730596 1.0486885
-0.88317651 0.56693411 0.84771907
-0.87960625 0.56421775 0.6996997
-0.87604481 0.56129503 0.56842989
-0.85949093 0.55027413 0.44433743
-0.84357703 0.53967905 0.33225045
-0.82593149 0.52819294 0.2289526
-0.82911044 0.52982742 0.133367
-0.048834737 0.073952511 8.7339401
-1.0426854 0.70785105 8.0118999
-1.3667215 0.9152599 7.931529
-0.84830463 0.55974483 3.2962713
-0.9880147 0.6470964 2.8419769
-1.0315018 0.67254275 2.3239222
-0.99856204 0.64910382 1.8218426
-0.93474501 0.6062429 1.4105339
-0.39865598 0.32410827 8.7248468
-0.69284755 0.52127713 8.043705
-1.4474822 0.96432412 6.7339602
-0.93863785 0.61894321 3.1117187
-1.0045874 0.65847951 2.5474315
-1.0385398 0.67844027 2.0992589
-0.94899422 0.61830419 1.574569
-0.92464691 0.60130799 1.2739978
-0.92019159 0.59408665 1.1561475
-0.89557952 0.5775429 0.94165331
-0.88416654 0.56953907 0.77415359
-0.87655777 0.56421369 0.63223159
-0.86628109 0.55718005 0.50446421
-0.85983962 0.55262166 0.39037687
-0.84731758 0.54416168 0.28265926
-0.83386886 0.53512257 0.18189749
-0.9118194 0.59049243 1.0486885
-0.88119221 0.57001358 0.84771907
-0.88125157 0.5696249 0.7022329
-0.87789297 0.5668115 0.57052791
-0.85756487 0.55327094 0.44433743
-0.84168804 0.54262042 0.33225045
-0.82824528 0.5337553 0.22964329
-0.82725596 0.5327183 0.133367
-0.048576299 0.074122526 8.7339401
-1.0402081 0.7114864 8.0118999
-1.3626744 0.91945535 7.9266338
-0.84510267 0.56187582 3.2914991
-0.9857499 0.65054125 2.8419769
-1.0311494 0.67745447 2.3283112
-0.99629015 0.65258551 1.8218426
-0.93530619 0.61125571 1.4143715
-0.39752221 0.32549787 8.7248468
-0.69102371 0.52369243 8.043705
-1.4503686 0.97357512 6.7629967
-0.93647164 0.62221581 3.1117187
-1.0059155 0.66438204 2.5564339
-1.0383435 0.68349558 2.1035249
-0.94934911 0.62326705 1.578559
-0.92254239 0.604532 1.2739978
-0.92110145 0.59924001 1.1596521
-0.89682168 0.58278656 0.94479173
-0.88568032 0.57489866 0.77689505
-0.87829936 0.56968075 0.63455039
-0.86433095 0.56020051 0.50446421
-0.86193174 0.55822748 0.3917869
-0.8495369 0.54978496 0.2835919
-0.83199584 0.53803009 0.18189749
-0.91287941 0.5957123 1.052014
-0.8825832 0.57529336 0.85066223
-0.87925786 0.57269758 0.7022329
-0.87590909 0.56987244 0.57052791
-0.85958737 0.55883497 0.44598094
-0.8438648 0.54820311 0.33342275
-0.83053023 0.53934032 0.23033397
-0.82539141 0.53560275 0.133367
-0.048317268 0.074291632 8.7339401
-1.0357994 0.71378988 7.9970832
-1.3586146 0.92363364 7.9217381
-0.84065628 0.5631603 3.2819552
-0.98021972 0.65181422 2.8327718
-1.0307752 0.68237197 2.3327003
-0.99635464 0.65760952 1.8259755
-0.93584347 0.61627984 1.418209
-0.39638358 0.32688349 8.7248468
-0.69427097 0.52998918 8.1033621
-1.4552901 0.98426664 6.801712
-0.91565406 0.61299789 3.0507126
-1.0072145 0.67030185 2.5654364
-1.040298 0.68999928 2.112057
-0.94968069 0.62823975 1.5825491
-0.92325556 0.60961676 1.277673
-0.91900408 0.60245162 1.1596521
-0.89478189 0.58591348 0.94479173
-0.88366818 0.57798672 0.77689505
-0.87630552 0.57274312 0.63455039
-0.86625147 0.56574923 0.50633723
-0.8599779 0.56123281 0.3917869
-0.84761256 0.55274707 0.2835919
-0.83428496 0.54364985 0.18234457
-0.9107945 0.59889519 1.052014
-0.88394785 0.58058977 0.85360539
-0.88085729 0.57812881 0.70476609
-0.87770993 0.5754149 0.57262594
-0.85763139 0.56183207 0.44598094
-0.84194613 0.55114543 0.33342275
-0.82864249 0.54223609 0.23033397
-0.82351673 0.53848064 0.133367
-0.048036974 0.074421428 8.728941
-1.0364919 0.71961772 8.0217791
-1.3545423 0.92779499 7.9168429
-0.8374483 0.56525594 3.2771833
-0.97631568 0.65414423 2.8281696
-1.0303794 0.6872952 2.3370893
-0.99873918 0.66420043 1.8342415
-0.93368661 0.61954278 1.418209
-0.39524013 0.32826513 8.7248468
-0.69832712 0.53696591 8.1729641
-1.4580773 0.99358851 6.830749
-0.8977735 0.60557288 2.9990923
-1.0084845 0.67623872 2.5744388
-1.0400513 0.69507575 2.1163228
-0.94998908 0.63322234 1.5865391
-0.92394429 0.61471385 1.2813481
-0.91987115 0.60762161 1.1631566
-0.89597994 0.59117705 0.94793022
-0.88513643 0.5833689 0.77963656
-0.87800038 0.57823509 0.63686919
-0.86814392 0.57131821 0.5082103
-0.86202174 0.56686711 0.39319694
-0.84978318 0.55840003 0.2845245
-0.83238226 0.54655874 0.18234457
-0.91181082 0.60413331 1.0553395
-0.88528645 0.58590275 0.85654855
-0.87883383 0.58120006 0.70476609
-0.87948281 0.58097684 0.57472402
-0.85960591 0.56742388 0.44762444
-0.84407449 0.55675739 0.33459508
-0.83087891 0.54785126 0.23102465
-0.82580394 0.54410064 0.13356853
-0.0477769 0.074588656 8.728941
-1.0371566 0.72545928 8.0464754
-1.3512954 0.93251753 7.9168429
-0.83423591 0.56733602 3.2724111
-0.97402632 0.65754819 2.8281696
-1.0299617 0.69222385 2.3414786
-0.99875218 0.66924924 1.8383743
-0.93418282 0.62457985 1.4220465
-0.39387101 0.32945681 8.7198553
-0.6998167 0.54201573 8.2127361
-1.4659978 1.0064995 6.8839827
-0.8913728 0.60579228 2.985014
-1.0097252 0.68219268 2.5834413
-1.0397819 0.70015883 2.1205888
-0.95027429 0.63821477 1.5905291
-0.92179292 0.61793524 1.2813481
-0.91774452 0.61082888 1.1631566
-0.89715225 0.59645617 0.95106864
-0.88309473 0.58645505 0.77963656
-0.87597662 0.58129638 0.63686919
-0.8661443 0.57434505 0.5082103
-0.86003768 0.56987268 0.39319694
-0.84782881 0.56136292 0.2845245
-0.83046931 0.54946095 0.18234457
-0.9128018 0.60938579 1.058665
-0.88323593 0.58898944 0.85654855
-0.88038689 0.58665472 0.70729923
-0.87744945 0.58404326 0.57472402
-0.85761994 0.57042098 0.44762444
-0.84212589 0.55970037 0.33459508
-0.83308619 0.55348867 0.23171534
-0.82389957 0.54697996 0.13356853
-0.047516245 0.074754968 8.728941
-1.0390629 0.73220956 8.0810499
-1.348032 0.9372288 7.9168429
-0.83101916 0.56940061 3.2676392
-0.97172511 0.66094416 2.8281696
-1.0295221 0.69715798 2.3458676
-0.9987421 0.67430621 1.8425074
-0.93465519 0.629628 1.425884
-0.39249846 0.330643 8.7148647
-0.70883739 0.55299366 8.3419952
-1.4624755 1.0116106 6.8839827
-0.89779502 0.61475122 3.0131705
-1.0091373 0.68693835 2.5879426
-1.0394895 0.70524848 2.1248546
-0.95053613 0.64321685 1.5945191
-0.92243958 0.62304688 1.2850233
-0.91856855 0.61601514 1.1666611
-0.89829844 0.60175061 0.95420712
-0.88451737 0.59185964 0.78237802
-0.87762451 0.58681285 0.63918799
-0.86798882 0.57994062 0.51008332
-0.86203271 0.575535 0.39460698
-0.84995043 0.56704527 0.28545713
-0.83268982 0.55511886 0.18279165
-0.91376704 0.6146524 1.0619905
-0.88452947 0.59432328 0.85949171
-0.87833375 0.5897243 0.70729923
-0.87917471 0.5896306 0.57682204
-0.85954636 0.57604015 0.44926795
-0.84420574 0.56534117 0.33576739
-0.8311491 0.55639338 0.23171534
-0.82613784 0.55263031 0.13377006
-0.047255013 0.074920379 8.728941
-1.3447523 0.94192857 7.9168429
-0.82779831 0.57144976 3.2628672
-0.97102338 0.66543663 2.8327718
-1.0290605 0.70209736 2.3502567
-0.99870878 0.6793713 1.8466402
-0.93510354 0.63468689 1.4297215
-0.39134192 0.33201104 8.7148647
-0.7035529 0.55282569 8.3022232
-1.4640912 1.0203035 6.9081798
-0.89990449 0.62082183 3.0272489
-1.0085284 0.69168812 2.5924437
-1.0413274 0.71181661 2.1333864
-0.95077467 0.64822859 1.5985092
-0.92306173 0.62817055 1.2886984
-0.91936749 0.62121457 1.1701657
-0.89941859 0.60706025 0.9573456
-0.8859129 0.59728116 0.78511947
-0.87924463 0.59234798 0.64150673
-0.86595917 0.58296692 0.51008332
-0.86001849 0.5785405 0.39460698
-0.8479659 0.57000864 0.28545713
-0.83074707 0.55802208 0.18279165
-0.91470659 0.61993319 1.065316
-0.88579655 0.59967333 0.86243486
-0.87984031 0.59520221 0.70983243
-0.88087153 0.59523708 0.57892013
-0.86144376 0.58167964 0.45091146
-0.84222716 0.56828451 0.33576739
-0.83330733 0.56206036 0.23240602
-0.82420373 0.5555107 0.13377006
-0.046993203 0.075084873 8.728941
-1.0933205 0.78195244 8.5453396
-1.3414562 0.94661689 7.9168429
-0.82579857 0.57433581 3.2628672
-0.97030228 0.66993243 2.8373744
-1.028577 0.7070421 2.3546457
-0.9986524 0.68444443 1.8507732
-0.93288237 0.63794714 1.4297215
-0.38996172 0.33318681 8.7098732
-0.70454192 0.5575974 8.3370237
-1.4646354 1.0282975 6.9275374
-0.90198255 0.62691468 3.0413272
-1.0078986 0.69644213 2.596945
-1.0409842 0.71692675 2.1376524
-0.95098972 0.65324974 1.6024991
-0.92365927 0.63330603 1.2923737
-0.92014128 0.62642711 1.1736702
-0.90051258 0.61238503 0.96048403
-0.88382268 0.60036993 0.78511947
-0.87717152 0.59541345 0.64150673
-0.86775553 0.58858854 0.51195633
-0.85799372 0.58153898 0.39460698
-0.85003817 0.57571989 0.28638974
-0.82879412 0.56091857 0.18279165
-0.91253704 0.62312239 1.065316
-0.88369793 0.60276175 0.86243486
-0.87775731 0.59826982 0.70983243
-0.87878841 0.59830832 0.57892013
-0.86331236 0.5873394 0.452555
-0.84425795 0.57395381 0.33693972
-0.83134025 0.56496572 0.23240602
-0.8222596 0.55838436 0.13377006
-0.046730824 0.07524845 8.728941
-1.0987779 0.79167134 8.6095505
-1.3381437 0.95129365 7.9168429
-0.8237887 0.57721484 3.2628672
-0.96956152 0.67443109 2.8419769
-1.0280714 0.71199191 2.3590348
-0.99857253 0.68952531 1.8549061
-0.93328923 0.64301836 1.4335591
-0.3887963 0.334546 8.7098732
-0.70467329 0.56171721 8.3618803
-1.4671936 1.0377598 6.9565735
-0.90402895 0.63302952 3.0554056
-1.0054615 0.69995606 2.596945
-1.0406179 0.72204292 2.1419184
-0.95118135 0.65828031 1.6064892
-0.92423224 0.63845336 1.2960488
-0.92088979 0.63165259 1.1771748
-0.89836943 0.61552465 0.96048403
-0.88517207 0.60581315 0.78786093
-0.87874418 0.60097253 0.64382553
-0.86569571 0.59161395 0.51195633
-0.85595858 0.58453041 0.39460698
-0.84802336 0.57868356 0.28638974
-0.8268311 0.5638082 0.18279165
-0.91343236 0.62842035 1.0686415
-0.88491964 0.60813218 0.86537802
-0.87921715 0.60377055 0.71236569
-0.88043714 0.60393959 0.58101815
-0.8612569 0.59034938 0.452555
-0.84625947 0.57964408 0.33811203
-0.82936311 0.56786418 0.23240602
-0.82442868 0.56407231 0.13397159
-0.046467874 0.075411111 8.728941
-1.1073241 0.80372077 8.6984577
-1.3339871 0.95536584 7.9119477
-0.82054955 0.57922578 3.2580953
-0.96720141 0.67781132 2.8419769
-1.0275438 0.71694684 2.3634241
-1.0007793 0.69622117 1.8631719
-0.93367183 0.64810008 1.4373965
-0.38784373 0.33609086 8.7148647
-0.7051999 0.56617904 8.3917103
-1.4686801 1.0465227 6.9807711
-0.90463364 0.63817126 3.064791
-1.0047941 0.70471168 2.6014462
-1.0402285 0.7271654 2.1461844
-0.95134932 0.66332012 1.6104792
-0.92478043 0.64361244 1.299724
-0.92161298 0.63689083 1.1806793
-0.89941847 0.62086815 0.96362251
-0.88305205 0.6088993 0.78786093
-0.88028878 0.6065498 0.64614433
-0.86744362 0.59726137 0.51382935
-0.85391295 0.5875147 0.39460698
-0.84599817 0.58164018 0.28638974
-0.82896268 0.56951094 0.18323873
-0.91430175 0.63373214 1.071967
-0.88279146 0.61121738 0.86537802
-0.87710422 0.6068359 0.71236569
-0.87832361 0.60700923 0.58101815
-0.86307657 0.59603566 0.45419851
-0.84823143 0.58535534 0.33928433
-0.82329959 0.56794375 0.23171534
-0.82245469 0.56694663 0.13397159
-0.046204355 0.075572863 8.728941
-1.1076473 0.80987513 8.7231531
-1.3298186 0.95942062 7.9070525
-0.81852263 0.5820865 3.2580953
-0.96642542 0.6823104 2.8465796
-1.0269941 0.72190672 2.3678129
-1.0006473 0.70132565 1.867305
-0.93403041 0.65319234 1.441234
-0.38666818 0.33744264 8.7148647
-0.70818818 0.57266527 8.4513674
-1.4711442 1.0560418 7.0098076
-0.90661991 0.64432484 3.0788693
-1.0041059 0.70947123 2.6059475
-1.0398161 0.73229384 2.1504502
-0.95149368 0.66836905 1.6144693
-0.92530382 0.64878303 1.3033991
-0.91938418 0.64010394 1.1806793
-0.89724576 0.62400395 0.96362251
-0.88435525 0.61436385 0.79060239
-0.87816614 0.6096189 0.64614433
-0.86916256 0.60292816 0.51570243
-0.85185695 0.59049183 0.39460698
-0.84396273 0.58458972 0.28638974
-0.82696968 0.57240111 0.18323873
-0.91514528 0.6390577 1.0752926
-0.88396752 0.61660779 0.86832118
-0.87851709 0.61235911 0.71489882
-0.87992394 0.61266488 0.58311623
-0.86099076 0.59904474 0.45419851
-0.85017377 0.59108734 0.34045666
-0.82131207 0.57081419 0.23171534
-0.82457399 0.57266384 0.13417313
-0.045940276 0.075733677 8.728941
-1.1060646 0.81465858 8.7330322
-1.3256379 0.96345794 7.9021573
-0.81527251 0.58407056 3.2533233
-0.96403778 0.68567967 2.8465796
-1.0264225 0.72687161 2.3722022
-1.0004917 0.70643753 1.8714379
-0.93436474 0.65829498 1.4450716
-0.3857041 0.3389816 8.7198553
-0.70866239 0.57715654 8.4811964
-1.4735597 1.0655909 7.0388436
-0.90717125 0.64949518 3.0882547
-1.0033966 0.71423447 2.6104486
-1.0393806 0.73742831 2.1547163
-0.95161438 0.67342716 1.6184592
-0.92580241 0.65396512 1.3070743
-0.92006379 0.64535737 1.1841838
-0.89824975 0.62936574 0.96676093
-0.88220537 0.61744708 0.79060239
-0.87966281 0.61521947 0.64846313
-0.86705267 0.6059584 0.51570243
-0.85372347 0.59620845 0.39601701
-0.8459453 0.59034336 0.28732237
-0.82905138 0.57813281 0.18368581
-0.91596264 0.64439684 1.078618
-0.88180977 0.61968964 0.86832118
-0.87637419 0.61542195 0.71489882
-0.87778002 0.61573267 0.58311623
-0.85889447 0.60204649 0.45419851
-0.84810531 0.59405142 0.34045666
-0.8193146 0.5736776 0.23171534
-0.82257003 0.57553869 0.13417313
-0.045675635 0.075893581 8.728941
-1.1019664 0.81758809 8.7231531
-1.3214453 0.9674778 7.8972621
-0.81322879 0.58691287 3.2533233
-0.96163839 0.68904066 2.8465796
-1.0258285 0.73184109 2.3765912
-1.0026056 0.71318817 1.8797038
-0.93467492 0.66340786 1.448909
-0.38451847 0.34032586 8.7198553
-0.71364284 0.58538228 8.565712
-1.4749105 1.0744293 7.0630412
-0.90629804 0.65366757 3.0929477
-1.0044353 0.72027016 2.6194508
-1.0389217 0.74256873 2.158982
-0.95171136 0.67849422 1.6224493
-0.92627615 0.65915859 1.3107494
-0.92071784 0.65062332 1.1876884
-0.89604741 0.63249737 0.96676093
-0.88346189 0.62293243 0.79334384
-0.87750995 0.61828637 0.64846313
-0.8687228 0.61165029 0.51757544
-0.85163713 0.59918493 0.39601701
-0.84387946 0.59329271 0.28732237
-0.82702833 0.58102322 0.18368581
-0.91675377 0.64974934 1.0819435
-0.88294011 0.62509966 0.87126434
-0.87773973 0.62096715 0.71743202
-0.87933165 0.62141222 0.58521426
-0.85678774 0.60504091 0.45419851
-0.84602648 0.59700823 0.34045666
-0.82135361 0.57938856 0.23240602
-0.82463944 0.58128488 0.13437465
-0.045410439 0.076052561 8.728941
-1.0997281 0.82189506 8.7280931
-1.3180602 0.97208464 7.8972621
-0.80996794 0.58886993 3.2485511
-0.95922738 0.69239324 2.8465796
-1.0271571 0.7382133 2.3853693
-1.0023973 0.71832299 1.8838367
-0.9349606 0.66853094 1.4527465
-0.3833282 0.34166601 8.7198553
-0.70954245 0.58616984 8.5408554
-1.4752042 1.0825462 7.0823989
-0.90540665 0.65784174 3.0976403
-1.0036795 0.72504693 2.6239522
-1.0405561 0.74923885 2.1675138
-0.95423168 0.68532795 1.6304293
-0.92672467 0.66436327 1.3144246
-0.92134625 0.65590167 1.191193
-0.89700603 0.63787717 0.96989942
-0.88469088 0.62843412 0.7960853
-0.87895864 0.62390983 0.65078193
-0.87036353 0.61736107 0.51944846
-0.85345399 0.60492808 0.39742702
-0.8458119 0.59907407 0.28825498
-0.8290599 0.58678353 0.18413289
-0.91448021 0.65294546 1.0819435
-0.88404346 0.63052511 0.8742075
-0.87556684 0.62402719 0.71743202
-0.87715715 0.62447792 0.58521426
-0.85467052 0.60802794 0.45419851
-0.8478989 0.60277414 0.34162897
-0.82336277 0.58512074 0.23309669
-0.82260543 0.58415991 0.13437465
-0.045144688 0.076210611 8.728941
-1.097473 0.82619637 8.7330322
-1.314659 0.97667956 7.8972621
-0.80790746 0.59169364 3.2485511
-0.95838451 0.69688642 2.851182
-1.0265137 0.74319893 2.3897583
-1.0044466 0.7251122 1.8921027
-0.93522185 0.67366397 1.4565841
-0.38213322 0.34300199 8.7198553
-0.70953882 0.59035015 8.565712
-1.4754591 1.0906783 7.1017566
-0.90449727 0.66201758 3.1023331
-1.0029026 0.72982711 2.6284533
-1.0400454 0.75439805 2.1717799
-0.95427477 0.6904211 1.6344193
-0.92714822 0.66957909 1.3180997
-0.92194903 0.6611923 1.1946975
-0.89793801 0.64327133 0.97303784
-0.88249183 0.63151848 0.7960853
-0.87677538 0.62697423 0.65078193
-0.86820328 0.62039548 0.51944846
-0.85133725 0.60790354 0.39742702
-0.84771425 0.60487604 0.28918761
-0.83106136 0.59256512 0.18457997
-0.9152264 0.65831399 1.0852691
-0.88511962 0.63596582 0.87715065
-0.87688476 0.62959397 0.71996522
-0.8786599 0.63018113 0.58731234
-0.856381 0.6137585 0.45584202
-0.84578967 0.60573018 0.34162897
-0.82534182 0.59087396 0.23378737
-0.82462448 0.58993459 0.13457619
-0.04487839 0.076367728 8.728941
-1.0945824 0.83002216 8.7330322
-1.3112416 0.98126262 7.8972621
-0.80583715 0.5945102 3.2485511
-0.95752203 0.70138228 2.8557847
-1.025848 0.74818903 2.3941474
-1.0064608 0.7319243 1.9003686
-0.93805277 0.68068969 1.464259
-0.38093358 0.3443338 8.7198553
-0.70788199 0.59316617 8.5706835
-1.471643 1.095822 7.1017566
-0.90218085 0.66517085 3.1023331
-1.0021045 0.73461074 2.6329546
-1.0395114 0.75956279 2.1760459
-0.95672894 0.69729787 1.6423994
-0.92754668 0.674806 1.321775
-0.92252606 0.66649514 1.198202
-0.8956871 0.64640176 0.97303784
-0.88367391 0.6370405 0.79882681
-0.87458146 0.63003093 0.65078193
-0.86979479 0.62613088 0.52132148
-0.85310417 0.61367279 0.39883706
-0.84559768 0.60783148 0.28918761
-0.83303255 0.59836775 0.18502705
-0.91594625 0.66369569 1.0885946
-0.88289422 0.63905162 0.87715065
-0.8781746 0.63517761 0.72249836
-0.88013357 0.63590246 0.58941036
-0.85806197 0.61950845 0.45748553
-0.84761196 0.61152279 0.3428013
-0.82729071 0.59664804 0.23447806
-0.82661331 0.59573048 0.13477771
-0.044611543 0.076523915 8.728941
-1.0922958 0.83430976 8.7379713
-1.3069954 0.98522067 7.8923669
-0.80255914 0.59642887 3.2437794
-0.95506793 0.70472038 2.8557847
-1.0251601 0.7531836 2.3985367
-1.0084398 0.73875946 1.9086344
-0.93825859 0.68585169 1.4680965
-0.3797293 0.34566143 8.7198553
-0.70621407 0.59597784 8.575655
-1.4849014 1.1137764 7.1840267
-0.89985347 0.66831601 3.1023331
-0.99953419 0.73810422 2.6329546
-1.0389539 0.7647329 2.1803117
-0.95671785 0.70241672 1.6463894
-0.92791975 0.68004376 1.3254501
-0.92019397 0.66971129 1.198202
-0.89657342 0.65181327 0.97617632
-0.88144487 0.64012122 0.79882681
-0.87596208 0.63568187 0.65310073
-0.87135679 0.63188487 0.52319455
-0.85484123 0.61946189 0.4002471
-0.84744942 0.61366051 0.29012021
-0.83093876 0.60127187 0.18502705
-0.91663969 0.66909045 1.09192
-0.88392401 0.64451104 0.88009381
-0.8794359 0.64077777 0.72503155
-0.87790847 0.63897085 0.58941036
-0.85971308 0.6252774 0.45912904
-0.84547216 0.61447781 0.3428013
-0.82920927 0.60244298 0.23516873
-0.82452875 0.59861231 0.13477771
-0.044344153 0.07667917 8.728941
-1.0893768 0.83811754 8.7379713
-1.3027376 0.98916107 7.8874717
-0.80047232 0.59922671 3.2437794
-0.95416999 0.70921546 2.8603871
-1.0244497 0.75818235 2.4029255
-1.0126473 0.74728835 1.9210334
-0.93843961 0.69102329 1.4719341
-0.3785204 0.3469848 8.7198553
-0.7041294 0.59843934 8.575655
-1.4910326 1.1265316 7.2324209
-0.89751518 0.671453 3.1023331
-0.99869823 0.74288833 2.6374559
-1.0383731 0.76990843 2.1845777
-0.95910525 0.70933586 1.6543695
-0.92554027 0.68327868 1.3254501
-0.9207266 0.67502809 1.2017065
-0.89429271 0.65493894 0.97617632
-0.88257968 0.64566308 0.80156827
-0.87373787 0.63873565 0.65310073
-0.86914575 0.63492256 0.52319455
-0.85267371 0.62244207 0.4002471
-0.84530216 0.61661494 0.29012021
-0.83285916 0.60710222 0.18547413
-0.91730648 0.67449802 1.0952456
-0.88492644 0.64998555 0.88303697
-0.880669 0.64639455 0.72756475
-0.87933278 0.64471513 0.59150839
-0.86133432 0.63106549 0.46077254
-0.85116583 0.62316811 0.34514591
-0.82710129 0.60533381 0.23516873
-0.82646668 0.60443598 0.13497925
-0.044076223 0.076833494 8.728941
-1.0864446 0.84191501 8.7379713
-1.2976595 0.99246496 7.8776813
-0.79718405 0.60111827 3.2390072
-0.95325226 0.71371293 2.8649898
-1.0217969 0.76175374 2.4029255
-1.0168073 0.75585538 1.9334321
-0.94117022 0.69811428 1.479609
-0.37730688 0.34830397 8.7198553
-0.70244074 0.60124075 8.5806274
-1.4990929 1.1408657 7.290494
-0.89516586 0.67458183 3.1023331
-0.99609894 0.7463699 2.6374559
-1.0398581 0.77664989 2.1931098
-0.95903963 0.7144798 1.6583595
-0.92586982 0.68852842 1.3291253
-0.9183647 0.67823786 1.2017065
-0.8951332 0.66036749 0.97931474
-0.88032049 0.64873993 0.80156827
-0.87506974 0.64440846 0.65541953
-0.87065804 0.6407004 0.52506757
-0.85436034 0.62825662 0.40165716
-0.84710306 0.62247068 0.29105285
-0.83073491 0.6100058 0.18547413
-0.91794676 0.67991841 1.0985711
-0.88265216 0.65307057 0.88303697
-0.88187349 0.65202773 0.73009789
-0.88072765 0.65047705 0.59360647
-0.86292565 0.63687247 0.46241605
-0.85289711 0.62902051 0.34631824
-0.82896912 0.61115587 0.23585941
-0.82435179 0.60731721 0.13497925
-0.043807756 0.076986887 8.728941
-1.0834991 0.84570235 8.7379713
-1.2909613 0.99450243 7.8581004
-0.79389244 0.6029942 3.2342353
-0.95075512 0.71703607 2.8649898
-1.0210468 0.76675427 2.4073148
-1.0209199 0.76446074 1.9458311
-0.94129521 0.70331401 1.4834466
-0.3760888 0.34961891 8.7198553
-0.70074111 0.60403752 8.5855989
-1.502084 1.1514455 7.3243699
-0.8928057 0.67770243 3.1023331
-0.99522495 0.75115389 2.641957
-1.0392246 0.78184301 2.1973755
-0.95894974 0.71963191 1.6623495
-0.92617404 0.69378877 1.3328004
-0.91885275 0.68356818 1.2052112
-0.89282262 0.66348803 0.97931474
-0.88140798 0.65430129 0.80430973
-0.87637269 0.65009844 0.65773833
-0.86841625 0.64373565 0.52506757
-0.85216218 0.63123506 0.40165716
-0.84492511 0.62542385 0.29105285
-0.83260423 0.61586332 0.18592121
-0.91856021 0.68535149 1.1018965
-0.88360804 0.65856332 0.88598019
-0.87959206 0.65510207 0.73009789
-0.8784517 0.65354747 0.59360647
-0.86448687 0.64269817 0.46405956
-0.85459787 0.63489252 0.34749055
-0.82683074 0.61404574 0.23585941
-0.82623875 0.61316836 0.13518077
-0.043538753 0.077139333 8.728941
-1.0805404 0.84947932 8.7379713
-1.285069 0.99712968 7.8434148
-0.79059738 0.60485446 3.2294633
-0.94980186 0.7215324 2.869592
-1.0202739 0.77175868 2.4117036
-1.0227383 0.77140921 1.9540969
-0.94139522 0.70852298 1.4872841
-0.3748661 0.35092959 8.7198553
-0.69862837 0.60647988 8.5855989
-1.5070088 1.1635967 7.3679247
-0.89043462 0.6808148 3.1023331
-0.99432975 0.75594109 2.6464584
-1.0385678 0.78704125 2.2016416
-0.95883554 0.72479212 1.6663395
-0.92915869 0.70110178 1.3401507
-0.91646105 0.68677139 1.2052112
-0.89361703 0.66893321 0.98245323
-0.88246739 0.65987825 0.80705118
-0.87764663 0.65580535 0.66005719
-0.86987847 0.64953685 0.52694058
-0.85379821 0.63707471 0.4030672
-0.84667486 0.63130575 0.29198545
-0.8304494 0.61876589 0.18592121
-0.91914701 0.69079703 1.105222
-0.88453609 0.66407055 0.88892335
-0.88074815 0.66075546 0.73263109
-0.8797968 0.65933168 0.5957045
-0.86601782 0.64854258 0.46570307
-0.85237646 0.63787174 0.34749055
-0.8246823 0.61692822 0.23585941
-0.82409334 0.61604869 0.13518077
-0.043269221 0.07729084 8.728941
-1.0775687 0.85324585 8.7379713
-1.2783719 0.99910069 7.8238339
-0.7884813 0.60761052 3.2294633
-0.95038027 0.72721827 2.8787971
-1.0194788 0.77676708 2.4160929
-1.0222797 0.77667701 1.9582298
-0.93891633 0.71180475 1.4872841
-0.37342948 0.35203728 8.7148647
-0.69690794 0.60926616 8.5905704
-1.511867 1.1757962 7.4114799
-0.88668573 0.68286568 3.0976403
-0.99341315 0.76073104 2.6509595
-1.037887 0.79224426 2.2059073
-0.96109432 0.73178583 1.6743195
-0.92940474 0.70639247 1.3438259
-0.91690445 0.69211495 1.2087157
-0.89438426 0.67439198 0.98559165
-0.88349837 0.66547048 0.80979264
-0.87889135 0.66152894 0.66237599
-0.86760587 0.65256935 0.52694058
-0.85156924 0.64005113 0.4030672
-0.84446603 0.63425732 0.29198545
-0.83226734 0.62465036 0.18636829
-0.91673005 0.69400132 1.105222
-0.88543653 0.66959226 0.89186651
-0.87843627 0.66382581 0.73263109
-0.87748992 0.6623987 0.5957045
-0.86374873 0.65156162 0.46570307
-0.85402608 0.64376909 0.34866288
-0.82647866 0.62278342 0.23655009
-0.82592887 0.62192684 0.13538231
-0.042999163 0.077441409 8.728941
-1.0745836 0.85700208 8.7379713
-1.2724768 1.0016671 7.8091478
-0.78517652 0.6094436 3.2246914
-0.94938332 0.7317242 2.8833997
-1.0205606 0.78323764 2.424871
-1.0217971 0.78195107 1.9623629
-0.93897325 0.71702337 1.4911215
-0.37219837 0.35333863 8.7148647
-0.69477695 0.61169517 8.5905704
-1.5107217 1.1833922 7.4259977
-0.88565999 0.68701452 3.1023331
-0.99075162 0.76419407 2.6509595
-1.0371827 0.79745221 2.2101734
-0.96092504 0.73697025 1.6783097
-0.92962497 0.71169335 1.347501
-0.91732162 0.69747001 1.2122202
-0.89202476 0.67750984 0.98559165
-0.88450116 0.67107785 0.81253409
-0.88010675 0.66726923 0.66469479
-0.86901778 0.6583935 0.5288136
-0.85315442 0.64591545 0.40447721
-0.84616423 0.64016491 0.29291809
-0.83008182 0.62755167 0.18636829
-0.91727084 0.69946122 1.1085476
-0.88630915 0.67512834 0.89480966
-0.87954384 0.66949922 0.73516428
-0.87878495 0.66820478 0.59780258
-0.86522895 0.6574297 0.46734658
-0.85564488 0.64968574 0.34983522
-0.82429969 0.62566453 0.23655009
-0.82375294 0.62480605 0.13538231
-0.042728581 0.077591032 8.728941
-1.0709801 0.86026108 8.7330322
-1.2673771 1.0048373 7.7993574
-0.78304434 0.61218065 3.2246914
-0.94990945 0.7374301 2.8926048
-1.0197151 0.78826016 2.42926
-1.0190613 0.78551304 1.9623629
-0.93900508 0.72225094 1.494959
-0.37096271 0.35463572 8.7148647
-0.69223911 0.61376256 8.5855989
-1.5065817 1.1886582 7.4259977
-0.88325649 0.69010192 3.1023331
-0.98979712 0.7689836 2.6554608
-1.0364546 0.80266482 2.2144392
-0.96311557 0.74400449 1.6862897
-0.92981964 0.71700436 1.3511763
-0.91771269 0.70283633 1.2157247
-0.89274567 0.68298465 0.98873013
-0.88547558 0.67670041 0.81527555
-0.87777215 0.67033738 0.66469479
-0.87039959 0.66423553 0.53068668
-0.85089457 0.6488896 0.40447721
-0.84783155 0.64609212 0.29385069
-0.8318482 0.63346255 0.18681537
-0.91778475 0.70493335 1.111873
-0.88715386 0.68067867 0.89775282
-0.88062239 0.6751883 0.73769742
-0.87644714 0.67126822 0.59780258
-0.86292881 0.66044593 0.46734658
-0.85337186 0.6526686 0.34983522
-0.82604474 0.63154584 0.23724076
-0.82553685 0.63071078 0.13558383
-0.04245748 0.077739708 8.728941
-1.0679706 0.8639943 8.7330322
-1.2606797 1.0067132 7.7797766
-0.78090268 0.61491024 3.2246914
-0.94886839 0.74194497 2.8972073
-1.018847 0.79328638 2.4336493
-1.0185357 0.79079127 1.9664958
-0.93901193 0.72748744 1.4987966
-0.36972255 0.35592845 8.7148647
-0.69009244 0.61617517 8.5855989
-1.5034075 1.1946923 7.4308376
-0.87948626 0.6921134 3.0976403
-0.98882109 0.77377564 2.6599619
-1.0377589 0.80948627 2.222971
-0.96289074 0.7492125 1.6902797
-0.92731112 0.72024566 1.3511763
-0.91807741 0.70821393 1.2192293
-0.89343911 0.68847269 0.99186856
-0.88642138 0.68233788 0.81801701
-0.87893796 0.67609829 0.66701359
-0.86807561 0.66726971 0.53068668
-0.8524285 0.654778 0.40588725
-0.84557104 0.64904767 0.29385069
-0.83358335 0.63939327 0.18726245
-0.91827148 0.71041751 1.1151985
-0.88477242 0.68377125 0.89775282
-0.88167185 0.68089318 0.74023062
-0.87769204 0.67709583 0.5999006
-0.86435801 0.66633719 0.46899009
-0.85493898 0.65860975 0.35100752
-0.82775867 0.63744688 0.23793145
-0.82333022 0.63358855 0.13558383
-0.042185858 0.077887438 8.728941
-1.0649482 0.86771697 8.7330322
-1.2611245 1.014299 7.8042531
-0.77875149 0.61763233 3.2246914
-0.94934201 0.74767053 2.9064121
-1.0198407 0.79979426 2.4424274
-1.0202023 0.79780912 1.9747616
-0.93899357 0.73273283 1.502634
-0.36847788 0.35721686 8.7148647
-0.68793744 0.61858028 8.5855989
-1.5021716 1.2022895 7.4453554
-0.87706494 0.69517916 3.0976403
-0.98782372 0.77857029 2.6644633
-1.0369778 0.81471521 2.2272372
-0.96501267 0.7562868 1.6982597
-0.92746139 0.72556734 1.3548514
-0.92123163 0.71579075 1.2262385
-0.8941052 0.6939739 0.99500704
-0.88733864 0.68799019 0.82075852
-0.88007414 0.68187535 0.66933239
-0.86940676 0.67313397 0.53255969
-0.85013771 0.65774953 0.40588725
-0.84718651 0.65499997 0.29478332
-0.83134633 0.64229912 0.18726245
-0.91578609 0.71361858 1.1151985
-0.88556975 0.68933845 0.90069598
-0.88269234 0.68661356 0.74276382
-0.87532324 0.6801554 0.5999006
-0.86202675 0.66935033 0.46899009
-0.85263473 0.66159004 0.35100752
-0.8255285 0.64033246 0.23793145
-0.8250621 0.63951927 0.13578537
-0.041913722 0.078034222 8.728941
-1.0619128 0.87142903 8.7330322
-1.2544119 1.0161308 7.7846723
-0.77542466 0.61941504 3.2199194
-0.94825691 0.75219417 2.9110148
-1.0189219 0.80483389 2.4468162
-1.0196217 0.80310684 1.9788946
-0.93895006 0.73798686 1.5064715
-0.36743459 0.3587032 8.7198553
-0.68577397 0.62097782 8.5855989
-1.5018798 1.2106816 7.4647131
-0.87463301 0.69823647 3.0976403
-0.98680478 0.78336734 2.6689644
-1.0361725 0.81994849 2.231503
-0.96709698 0.76338488 1.7062398
-0.92758566 0.73089862 1.3585266
-0.92153579 0.72120011 1.229743
-0.89780998 0.70188552 1.0012839
-0.88822711 0.69365716 0.82349998
-0.88118082 0.68766868 0.67165118
-0.87070733 0.67901558 0.53443271
-0.85162032 0.66366184 0.40729728
-0.84877062 0.66097146 0.29571593
-0.83302939 0.64825559 0.18770951
-0.91622651 0.71911627 1.1185241
-0.88315815 0.69242549 0.90069598
-0.88368332 0.6923492 0.74529696
-0.87651771 0.68600404 0.60199869
-0.86340463 0.67526448 0.47063357
-0.85414994 0.66755545 0.35217986
-0.82719064 0.64625895 0.23862213
-0.82282472 0.64239538 0.13578537
-0.041658465 0.078220062 8.7339401
-1.0588645 0.87513041 8.7330322
-1.2563792 1.02501 7.8189383
-0.77325779 0.622118 3.2199194
-0.9471516 0.75671917 2.9156172
-1.0179803 0.80987704 2.4512055
-1.021221 0.81015921 1.9871606
-0.94139427 0.7452392 1.5141466
-0.36618021 0.35998362 8.7198553
-0.68360221 0.62336785 8.5855989
-1.5074021 1.2238408 7.5131078
-0.87219036 0.70128524 3.0976403
-0.9857645 0.78816688 2.6734657
-1.0353434 0.82518607 2.235769
-0.96678483 0.7686314 1.7102298
-0.92768413 0.73623973 1.3622017
-0.92461401 0.72882819 1.236752
-0.89841241 0.70742327 1.0044224
-0.88908678 0.69933867 0.82624143
-0.88225764 0.69347799 0.67396998
-0.86833185 0.68205082 0.53443271
-0.84929854 0.66663045 0.40729728
