# .PCD v0.7 - Point Cloud Data file format
VERSION 0.7
FIELDS x y z
SIZE 4 4 4
TYPE F F F
COUNT 1 1 1
WIDTH 1488
HEIGHT 1
VIEWPOINT 0 0 0 1 0 0 0
POINTS 1488
DATA ascii
-0.86953568 1.0020118 0.62433827
-0.85889179 0.98905981 0.47497886
-0.84419036 0.97145259 0.33581862
-0.83315814 0.95809299 0.20693392
-0.9288795 1.0771703 1.3479836
-0.89972055 1.0422653 1.0861151
-0.88602644 1.0256883 0.8820886
-0.87944615 1.0170051 0.70899934
-0.86247605 0.99668813 0.5478785
-0.8496514 0.98118663 0.4037618
-0.83320141 0.96185815 0.26970273
-0.82446831 0.9511171 0.1444512
-0.025829427 0.084819555 8.7389402
-0.86762071 1.0590067 8.7033968
-1.1285067 1.3597753 8.5189552
-0.62749016 0.74564129 3.1626556
-0.93654966 1.1052794 3.4725227
-0.99200225 1.1658282 2.8725572
-1.026961 1.2035458 2.3963223
-0.99693125 1.1659007 1.913247
-0.29083657 0.42494088 8.7448139
-0.55808932 0.75317407 8.6999426
-0.55456197 0.66474819 3.3705604
-0.73975354 0.87852526 3.1774173
-0.95061517 1.1227088 3.1055822
-1.0039847 1.1820211 2.6069052
-1.0331693 1.2134095 2.1850426
-0.96218127 1.1280563 1.6856163
-0.93891734 1.093426 1.4960885
-0.91032511 1.0590192 1.2084221
-0.89599735 1.041262 0.98524648
-0.88254535 1.0249162 0.79454756
-0.86905885 1.0085529 0.62621135
-0.85856664 0.99568492 0.4763889
-0.84400338 0.97811258 0.33675122
-0.83306336 0.96476465 0.207381
-0.9299705 1.0860785 1.3546345
-0.89870733 1.0484686 1.0890583
-0.88805383 1.0353191 0.887155
-0.87884736 1.0235121 0.71109742
-0.86206913 1.0032742 0.54952204
-0.84939021 0.98783207 0.40493411
-0.83306807 0.96851504 0.2703934
-0.82440245 0.95777571 0.14465272
-0.025533194 0.084909201 8.7389402
-0.86391878 1.0620288 8.7033968
-1.1244006 1.3644922 8.5238514
-0.62488359 0.74782717 3.1626556
-0.97418696 1.1578785 3.6244061
-0.99256331 1.1747725 2.8857243
-1.0245726 1.2092702 2.4004555
-0.99700421 1.1742605 1.920922
-0.28919005 0.42571419 8.7398224
-0.55545682 0.7551176 8.6999426
-0.55303973 0.66764808 3.3753996
-0.73668247 0.88110214 3.1774173
-0.94809109 1.1276866 3.1100833
-1.0032152 1.1895059 2.615437
-1.0347635 1.2239121 2.1970129
-0.96481049 1.1391693 1.6966418
-0.9397223 1.1021245 1.5030977
-0.90914977 1.065151 1.2115605
-0.89507335 1.0475624 0.987988
-0.88184112 1.0313575 0.79686636
-0.8685469 1.0151029 0.62808436
-0.85820574 1.0023197 0.47779894
-0.8469761 0.98851317 0.33861646
-0.83293211 0.97144729 0.20782807
-0.93101054 1.0950074 1.3612856
-0.90028149 1.0577556 1.0949446
-0.88722944 1.0416944 0.88968813
-0.88115829 1.0334811 0.71529353
-0.86162668 1.0098697 0.55116552
-0.85224909 0.9981842 0.40727875
-0.83289832 0.97518265 0.2710841
-0.827546 0.96824318 0.14505579
-0.025236651 0.08499781 8.7389402
-0.85923028 1.0638287 8.6935186
-1.1196308 1.3684088 8.5238514
-0.62322229 0.75115281 3.1674278
-0.98141086 1.1747671 3.6658287
-0.993074 1.1837349 2.8988914
-1.0239681 1.2171463 2.4087212
-0.99909675 1.1850857 1.9324346
-0.28770229 0.42672107 8.7398224
-0.55313146 0.75748277 8.704915
-0.55070585 0.6695745 3.3753996
-0.73360234 0.88366824 3.1774173
-0.94554394 1.1326606 3.1145847
-1.0040799 1.1989994 2.6282349
-1.0343595 1.2321326 2.2049928
-0.96737373 1.1503143 1.7076672
-0.94047791 1.1108416 1.5101067
-0.91045916 1.0742568 1.2178375
-0.89682138 1.0570576 0.99347091
-0.88396943 1.0411835 0.80150396
-0.87100142 1.0251946 0.63183039
-0.85780889 1.0089639 0.47920895
-0.84670353 0.99520504 0.33954909
-0.82953602 0.9743489 0.20782807
-0.93199962 1.1039568 1.3679365
-0.89919257 1.0639789 1.0978878
-0.88915503 1.0513682 0.89475453
-0.88047791 1.0400145 0.71739161
-0.86420107 1.0200772 0.55445254
-0.85190272 1.0048606 0.40845108
-0.83269221 0.98186082 0.27177477
-0.82739377 0.974935 0.14525732
-0.024930885 0.08504267 8.7339401
-0.85599744 1.0674279 8.6984577
-1.1154892 1.3730991 8.5287466
-0.62059647 0.75332367 3.1674278
-0.97730422 1.1781857 3.6658287
-0.99353415 1.192715 2.9120588
-1.0233212 1.2250328 2.4169872
-1.0011258 1.1959395 1.943947
-0.28621098 0.42772272 8.7398224
-0.550484 0.75940895 8.704915
-0.54836524 0.67149276 3.3753996
-0.73051327 0.88622361 3.1774173
-0.94297355 1.1376303 3.1190858
-1.0032232 1.206508 2.6367669
-1.0339106 1.240365 2.2129729
-0.96987098 1.1614912 1.7186928
-0.94118404 1.1195775 1.5171157
-0.91171592 1.0833848 1.2241144
-0.89582002 1.0633796 0.99621236
-0.88318473 1.0476497 0.80382276
-0.87040669 1.0317723 0.63370347
-0.85737616 1.0156178 0.48061898
-0.84639448 1.0019071 0.3404817
-0.82934493 0.98104167 0.20827515
-0.93053895 1.1100649 1.3712621
-0.90066952 1.0733039 1.103774
-0.88825172 1.0577669 0.89728767
-0.88268286 1.05003 0.72158772
-0.86367476 1.0267013 0.55609608
-0.85465026 1.0152653 0.41079572
-0.8324495 0.98854947 0.27246544
-0.82720488 0.9816376 0.14545885
-0.024633877 0.085129179 8.7339401
-0.85033101 1.0679772 8.6787004
-1.1106895 1.3769845 8.5287466
-0.61796314 0.75548542 3.1674278
-0.97318554 1.1815898 3.6658287
-0.9924174 1.1998671 2.9208369
-1.0226315 1.2329295 2.4252532
-1.0030912 1.2068219 1.9554596
-0.28471622 0.42871919 8.7398224
-0.54782981 0.76132584 8.704915
-0.54522657 0.67242628 3.3705604
-0.72741532 0.8887682 3.1774173
-0.94038004 1.142596 3.1235871
-1.0039865 1.2160362 2.6495645
-1.0334169 1.2486093 2.220953
-0.97013807 1.1700894 1.7260431
-0.94184065 1.1283319 1.5241249
-0.91292 1.0925344 1.2303913
-0.89478534 1.0697075 0.99895382
-0.88520902 1.05752 0.80846035
-0.86977655 1.0383581 0.63557649
-0.85998887 1.0259571 0.48343906
-0.84604883 1.008619 0.34141433
-0.82911712 0.98774499 0.20872223
-0.93143547 1.119046 1.377913
-0.89950484 1.0795467 1.1067171
-0.89007515 1.0674829 0.902354
-0.88192034 1.056589 0.72368574
-0.86311293 1.0333341 0.55773956
-0.85421836 1.0219719 0.41196805
-0.83217031 0.99524826 0.27315614
-0.82697928 0.98835063 0.14566039
-0.024327956 0.085171886 8.728941
-0.84418964 1.0678906 8.6540041
-1.1058761 1.3808531 8.5287466
-0.61438137 0.75647897 3.1626556
-0.97771144 1.195567 3.6980464
-0.99126273 1.207026 2.9296153
-1.0218991 1.2408361 2.4335189
-1.0070329 1.2202047 1.9708096
-0.28321797 0.42971042 8.7398224
-0.54547828 0.76366764 8.7098866
-0.54208809 0.67334604 3.3657207
-0.72430855 0.89130193 3.1774173
-0.93776315 1.1475574 3.1280882
-1.0046954 1.2255846 2.6623623
-1.0347912 1.2591933 2.2329228
-0.97035694 1.1787034 1.7333934
-0.94244754 1.1371045 1.5311339
-0.9140712 1.1017058 1.2366682
-0.89638907 1.0792578 1.0044367
-0.8843435 1.0640104 0.81077915
-0.86911112 1.0449522 0.6374495
-0.85947108 1.03264 0.4848491
-0.84566665 1.0153407 0.34234694
-0.82885253 0.99445856 0.20916931
-0.92990208 1.1251687 1.3812386
-0.90088397 1.0889088 1.1126035
-0.8890925 1.0739039 0.9048872
-0.88112283 1.0631555 0.72578382
-0.86251509 1.0399754 0.55938309
-0.85374999 1.0286877 0.41314036
-0.8318544 1.0019572 0.27384681
-0.82671684 0.99507409 0.14586191
-0.024030503 0.085256286 8.728941
-0.83757949 1.0671626 8.6243687
-1.1004158 1.3839079 8.5238514
-0.61173701 0.75861895 3.1626556
-0.98830813 1.2171738 3.7532768
-0.99007016 1.2141913 2.9383934
-1.021124 1.2487528 2.4417849
-1.0108931 1.2336296 1.9861596
-0.28187349 0.43093851 8.7448139
-0.54280925 0.76556706 8.7098866
-0.53894985 0.67425215 3.3608816
-0.7211929 0.89382482 3.1774173
-0.93512321 1.1525145 3.1325896
-1.0069962 1.2371753 2.6794262
-1.0341992 1.2674674 2.2409031
-0.97052753 1.1873333 1.7407438
-0.94300455 1.1458948 1.538143
-0.91516948 1.1108983 1.2429451
-0.89527649 1.0856063 1.0071782
-0.88626307 1.0739241 0.81541675
-0.86841017 1.0515542 0.63932252
-0.85891718 1.0393317 0.4862591
-0.84524786 1.022072 0.34327957
-0.82855123 1.0011823 0.20961639
-0.93070573 1.1341807 1.3878895
-0.90220869 1.0982937 1.1184899
-0.89081323 1.0836613 0.90995359
-0.883174 1.0732338 0.72997987
-0.86188138 1.0466253 0.56102657
-0.85324502 1.0354128 0.41431266
-0.83465159 1.0124969 0.27522817
-0.82641751 1.0018077 0.14606345
-0.023732757 0.085339651 8.728941
-0.82286888 1.0559798 8.5107651
-1.0955783 1.3877406 8.5238514
-0.6090852 0.7607497 3.1626556
-0.97179312 1.2054056 3.7072515
-0.98883963 1.2213628 2.9471714
-1.020306 1.2566791 2.4500508
-1.0146719 1.2470962 2.0015097
-0.28036752 0.43191981 8.7448139
-0.5401336 0.76745719 8.7098866
-0.5358119 0.67514449 3.3560419
-0.71806848 0.89633679 3.1774173
-0.93382567 1.1591623 3.1415918
-1.007589 1.2467684 2.6922238
-1.0335622 1.2757525 2.2488832
-0.97064948 1.1959788 1.7480941
-0.94576812 1.1574646 1.5486567
-0.91375041 1.1170989 1.2460835
-0.89677966 1.0951954 1.0126611
-0.88531649 1.0804378 0.81773555
-0.86767375 1.058164 0.6411956
-0.86136979 1.0497403 0.48907918
-0.84790963 1.0326091 0.34514484
-0.8282131 1.007916 0.21006347
-0.92909932 1.1403172 1.391215
-0.90347868 1.1077009 1.1243762
-0.88975078 1.0901039 0.91248679
-0.88229388 1.0798248 0.73207796
-0.86121178 1.0532831 0.56267005
-0.85270363 1.0421467 0.41548499
-0.83424878 1.0192363 0.27591884
-0.82608116 1.0085512 0.14626497
-0.023434721 0.085421972 8.728941
-0.80634582 1.0422491 8.3774061
-1.0900995 1.3907549 8.5189552
-0.606426 0.76287115 3.1626556
-0.96513808 1.2057399 3.6980464
-0.98907125 1.2304074 2.9603386
-1.0194451 1.2646148 2.4583166
-1.0082985 1.2481371 1.9976722
-0.27885813 0.43289584 8.7448139
-0.53775615 0.76977521 8.7148581
-0.53345191 0.67701072 3.3560419
-0.71386129 0.89748716 3.1727247
-0.93113333 1.1641151 3.1460929
-1.006495 1.2543465 2.7007556
-1.0328797 1.2840486 2.2568631
-0.97072291 1.2046392 1.7554444
-0.94621545 1.1662979 1.5556659
-0.9147529 1.1263245 1.2523605
-0.89558887 1.1015636 1.0154026
-0.88433522 1.0869577 0.82005435
-0.86982858 1.0683767 0.64494163
-0.86073011 1.0564597 0.49048921
-0.84740406 1.0393698 0.34607744
-0.82783782 1.0146595 0.21051055
-0.92980963 1.1493592 1.397866
-0.90215033 1.1139892 1.1273193
-0.89136827 1.0999013 0.91755313
-0.88137841 1.0864226 0.73417598
-0.86348236 1.0636153 0.56595707
-0.85212547 1.0488895 0.4166573
-0.83380902 1.0259852 0.27660954
-0.82570785 1.0153047 0.14646651
-0.023144417 0.085546136 8.7339401
-0.78141248 1.0173215 8.155139
-1.0852382 1.3945516 8.5189552
-0.60375941 0.7649833 3.1626556
-0.98775804 1.2375964 2.9691167
-1.0167829 1.2703627 2.4624498
-1.0059409 1.2541494 2.0015097
-0.27734533 0.43386659 8.7448139
-0.5353691 0.77208608 8.7198296
-0.53031123 0.67787844 3.3512027
-0.71072412 0.89997345 3.1727247
-0.92977154 1.1707679 3.1550953
-1.0069852 1.263972 2.7135537
-1.0321518 1.2923554 2.2648432
-0.97286552 1.2159622 1.7664698
-0.94661272 1.1751485 1.5626749
-0.91325891 1.1325408 1.2554989
-0.89699101 1.1111904 1.0208856
-0.8861028 1.09693 0.82469195
-0.86900836 1.0750118 0.6468147
-0.86005408 1.0631874 0.49189925
-0.84686154 1.0461395 0.34701008
-0.82742572 1.0214127 0.21095763
-0.93046814 1.1584201 1.4045171
-0.90332174 1.1234316 1.1332057
-0.89292818 1.1097234 0.92261952
-0.88327461 1.0965616 0.73837209
-0.8627277 1.0702994 0.56760061
-0.85151052 1.0556407 0.41782963
-0.8333323 1.0327435 0.27730021
-0.82529736 1.0220677 0.14666803
-0.022845665 0.085626401 8.7339401
-0.75996011 0.9965589 7.9674473
-1.0797414 1.3975254 8.51406
-0.60108542 0.76708615 3.1626556
-1.0583397 1.3412889 4.0846586
-0.98789406 1.2466683 2.9822841
-1.0158434 1.2783105 2.4707155
-0.99956036 1.2551459 1.9976722
-0.2758292 0.4348321 8.7448139
-0.53267074 0.77395022 8.7198296
-0.52794176 0.67972547 3.3512027
-0.7075783 0.90244889 3.1727247
-0.92837453 1.1774255 3.1640978
-1.0058026 1.2715704 2.7220855
-1.0313785 1.3006727 2.2728233
-0.9728322 1.2246599 1.77382
-0.94695956 1.184016 1.569684
-0.91416526 1.1417989 1.2617759
-0.89833659 1.1208404 1.0263685
-0.88503987 1.103472 0.82701075
-0.86815226 1.0816541 0.64868772
-0.8623454 1.0736632 0.4947193
-0.84628201 1.0529181 0.34794268
-0.82697642 1.0281752 0.21140471
-0.93107462 1.1674994 1.411168
-0.9044382 1.1328958 1.139092
-0.89173961 1.1162015 0.92515266
-0.88227612 1.1031827 0.74047017
-0.8648876 1.0806781 0.57088763
-0.85085887 1.0624006 0.41900194
-0.83281851 1.0395108 0.27799088
-0.82484967 1.0288402 0.14686957
-0.022546634 0.085705623 8.7339401
-0.74897605 0.98929131 7.8884192
-1.0748565 1.401286 8.51406
-0.59840417 0.7691797 3.1626556
-1.0428092 1.3311328 4.0432358
-0.98649776 1.2538739 2.9910622
-1.013118 1.2840579 2.4748485
-0.99517292 1.2586273 1.9976722
-0.27430964 0.43579224 8.7448139
-0.53026599 0.77624524 8.7248001
-0.52556586 0.68156421 3.3512027
-0.70442384 0.90491337 3.1727247
-0.92694247 1.1840875 3.1731002
-1.0045792 1.2791761 2.7306173
-1.0324235 1.3113679 2.2847934
-0.97484928 1.2360344 1.7848457
-0.94947362 1.1956929 1.5801976
-0.91259605 1.14803 1.2649143
-0.89702231 1.1272414 1.02911
-0.88394207 1.11002 0.82932955
-0.87014949 1.0919291 0.65243381
-0.86158323 1.0804174 0.49612933
-0.8456654 1.0597053 0.34887531
-0.82959747 1.0388385 0.21229887
-0.93162906 1.1765971 1.417819
-0.90298885 1.1392136 1.1420351
-0.89319557 1.1260623 0.93021905
-0.88124216 1.10981 0.74256819
-0.86404765 1.0873877 0.5725311
-0.85017037 1.0691687 0.42017427
-0.83226764 1.0462871 0.27868158
-0.82436472 1.035622 0.14707109
-0.022254895 0.085826777 8.7389402
-0.74551815 0.99189973 7.8884192
-1.0699586 1.4050294 8.51406
-0.59571558 0.77126378 3.1626556
-1.0225656 1.3147159 3.983403
-0.98506331 1.2610849 2.9998405
-1.0121 1.2920173 2.4831142
-1.0026479 1.2772212 2.0206971
-0.27293894 0.4369925 8.7498064
-0.52755314 0.77809149 8.7248001
-0.52318358 0.68339461 3.3512027
-0.70020568 0.90600115 3.1680319
-0.92681086 1.1924729 3.186604
-1.0033149 1.2867886 2.7391491
-1.0315508 1.3197119 2.2927732
-0.97679877 1.2474376 1.7958713
-0.94970971 1.2046012 1.5872066
-0.91340566 1.1573194 1.2711912
-0.89826626 1.1369277 1.0345929
-0.88280928 1.1165738 0.83164835
-0.86920911 1.0985955 0.65430683
-0.86376202 1.0909402 0.49894941
-0.84501177 1.0665009 0.34980792
-0.8290602 1.0456302 0.21274593
-0.93213123 1.1857128 1.4244701
-0.90400589 1.1487116 1.1479214
-0.89192647 1.13256 0.93275219
-0.88017255 1.1164435 0.74466628
-0.86609632 1.0978118 0.57581812
-0.85245681 1.0797598 0.42251888
-0.83167952 1.0530722 0.27937225
-0.82384247 1.0424129 0.14727263
-0.02195517 0.085903935 8.7389402
-0.73601323 0.98639828 7.8242087
-1.0613641 1.4038818 8.4846888
-0.59301972 0.77333856 3.1626556
-0.99528599 1.2888955 3.8959553
-0.98359042 1.268301 3.0086186
-1.0110388 1.2999852 2.4913802
-1.0178859 1.3059949 2.0590723
-0.27141187 0.43794256 8.7498064
-0.52513105 0.78037089 8.7297716
-0.52079487 0.68521672 3.3512027
-0.69703895 0.90843982 3.1680319
-0.92530221 1.1991479 3.1956065
-1.0036061 1.2964703 2.7519469
-1.0324798 1.3304466 2.3047435
-0.98076111 1.2615459 1.8105719
-0.95209336 1.216334 1.5977204
-0.9165622 1.1696923 1.2806066
-0.89945346 1.1466365 1.0400758
-0.88437676 1.1266177 0.83628595
-0.87109643 1.1089143 0.65805292
-0.86291331 1.0977201 0.50035942
-0.84432095 1.073305 0.35074055
-0.83156586 1.0563438 0.21364009
-0.93487817 1.1977895 1.4344465
-0.90247917 1.1550453 1.1508646
-0.893278 1.1424586 0.93781859
-0.88186473 1.126657 0.74886233
-0.86517072 1.104546 0.57746166
-0.85168105 1.0865544 0.42369121
-0.83410984 1.0637629 0.28075361
-0.82328278 1.0492127 0.14747415
-0.021655174 0.08598005 8.7389402
-0.73487699 0.99208403 7.8489051
-1.0509576 1.4002479 8.4406319
-0.59031665 0.77540386 3.1626556
-1.0050428 1.3109686 3.9511855
-0.98207915 1.2755222 3.0173967
-1.011654 1.3101887 2.5037792
-1.0368581 1.3399605 2.1051223
-0.27003193 0.43913373 8.7547979
-0.52240378 0.7821992 8.7297716
-0.51839983 0.68703043 3.3512027
-0.69386363 0.91086739 3.1680319
-0.92508197 1.2075553 3.20911
-1.0022527 1.3041016 2.760479
-1.0315071 1.3388166 2.3127234
-0.98256534 1.2730131 1.8215973
-0.95221817 1.225282 1.6047294
-0.91486353 1.1759567 1.2837451
-0.90058392 1.1563674 1.0455588
-0.88316178 1.1331921 0.83860481
-0.87292224 1.1192594 0.66179895
-0.86202765 1.1045072 0.50176948
-0.84359288 1.0801171 0.35167316
-0.83094019 1.0631639 0.21408717
-0.93526524 1.2069485 1.4410975
-0.90339655 1.1645762 1.1567509
-0.89457124 1.1523803 0.94288492
-0.88071132 1.1333121 0.75096041
-0.86420882 1.1112871 0.5791052
-0.85086817 1.0933566 0.42486352
-0.83343357 1.0705756 0.28144431
-0.82575589 1.0599623 0.14787722
-0.021354917 0.086055122 8.7389402
-0.72956908 0.99213862 7.8291483
-1.0326825 1.3859429 8.3329372
-0.58760637 0.77745974 3.1626556
-1.0359528 1.3611099 4.0892611
-0.98052949 1.2827482 3.0261748
-1.0122101 1.3204123 2.5161779
-1.0399846 1.353739 2.1204722
-0.26849744 0.44007364 8.7547979
-0.51996428 0.78446263 8.7347431
-0.51675177 0.68984199 3.3560419
-0.68963921 0.91190732 3.1633391
-0.92481416 1.2159756 3.2226136
-1.0008582 1.3117391 2.7690108
-1.0304887 1.347196 2.3207035
-0.98430145 1.2845082 1.8326229
-0.95229214 1.2342455 1.6117386
-0.91551143 1.185304 1.290022
-0.89909959 1.1628119 1.0483003
-0.88462234 1.1432749 0.84324241
-0.87184811 1.1259652 0.66367197
-0.86110508 1.1113014 0.50317949
-0.84583759 1.0908191 0.35353839
-0.83332992 1.0739268 0.21498135
-0.93559963 1.2161247 1.4477484
-0.90179205 1.1709249 1.1596941
-0.89317471 1.1589105 0.94541812
-0.88229454 1.1435663 0.75515652
-0.86321014 1.1180347 0.58074868
-0.85298991 1.1040128 0.42720816
-0.83574796 1.0813146 0.28282565
-0.82510746 1.0667901 0.14807875
-0.021047428 0.086086065 8.7339401
-0.72793311 0.99719018 7.8489051
-0.99696457 1.3477852 8.0832806
-0.58488899 0.77950615 3.1626556
-1.0641695 1.4083648 4.218132
-0.97894126 1.2899791 3.0349529
-1.012707 1.3306556 2.5285769
-1.0371965 1.3599097 2.1243098
-0.26695964 0.44100821 8.7547979
-0.51751518 0.78671855 8.7397146
-0.5143407 0.69164163 3.3560419
-0.68645185 0.91430902 3.1633391
-0.92449898 1.2244086 3.2361174
-1.0009971 1.3214617 2.7818084
-1.0312464 1.3579843 2.3326735
-0.98596919 1.2960309 1.8436482
-0.95231509 1.2432245 1.6187476
-0.91610515 1.1946701 1.2962989
-0.90012729 1.1725771 1.0537832
-0.88602322 1.1533819 0.84788001
-0.87356317 1.1363527 0.66741806
-0.86307049 1.1219049 0.50599957
-0.84801775 1.10155 0.35540363
-0.83261532 1.0807742 0.21542843
-0.93588132 1.2253177 1.4543995
-0.90260941 1.1804876 1.1655804
-0.89436287 1.1688684 0.95048445
-0.88105714 1.1502421 0.75725454
-0.86217499 1.124789 0.58239222
-0.85208935 1.1108403 0.42838046
-0.83498305 1.088154 0.28351635
-0.82746416 1.0775888 0.14848182
-0.020746805 0.086159013 8.7339401
-0.7317394 1.0097942 7.9279332
-0.95369345 1.298725 7.7699862
-0.58216441 0.78154302 3.1626556
-1.0627635 1.4167595 4.2319393
-0.97731441 1.2972144 3.0437312
-1.0131449 1.3409185 2.5409758
-1.0382475 1.3711882 2.1358223
-0.2652708 0.44168937 8.7498064
-0.51505679 0.78896695 8.7446871
-0.51192325 0.69343275 3.3560419
-0.68325615 0.91669965 3.1633391
-0.92413592 1.2328544 3.2496209
-1.0010804 1.3312016 2.7946064
-1.0301276 1.3663881 2.3406537
-0.98552543 1.3048754 1.8509985
-0.9522869 1.2522187 1.6257567
-0.91664469 1.2040548 1.3025758
-0.90109771 1.1823635 1.0592661
-0.88467807 1.1599901 0.85019881
-0.8724038 1.1430802 0.66929108
-0.86206067 1.128723 0.50740957
-0.85013336 1.1123091 0.35726887
-0.83186305 1.0876296 0.21587551
-0.93836617 1.2375029 1.4643761
-0.90337074 1.1900703 1.1714667
-0.89288473 1.175416 0.95301759
-0.88253099 1.1605361 0.76145065
-0.861103 1.1315495 0.58403569
-0.85115141 1.1176749 0.42955279
-0.83418047 1.0950012 0.28420702
-0.82672644 1.0844437 0.14868335
-0.020439262 0.086187795 8.728941
-0.74181575 1.0312697 8.0761108
-0.94675571 1.2987546 7.7504053
-0.57943279 0.78357041 3.1626556
-1.0706456 1.4376976 4.282567
-0.975649 1.3044538 3.0525093
-1.0135232 1.3512005 2.5533745
-1.0373065 1.3799284 2.1434972
-0.2637274 0.44261265 8.7498064
-0.51258892 0.79120773 8.7496586
-0.50949961 0.69521552 3.3560419
-0.6800521 0.91907907 3.1633391
-0.92502475 1.2430589 3.2676258
-1.0011078 1.3409576 2.807404
-1.0307682 1.3772131 2.3526237
-0.98706537 1.316445 1.8620242
-0.95435619 1.264074 1.6362704
-0.91712976 1.2134577 1.3088527
-0.89948785 1.1888363 1.0620075
-0.88597143 1.1701345 0.85483634
-0.87120801 1.1498137 0.6711641
-0.86101383 1.1355479 0.50881964
-0.84921473 1.1191832 0.3582015
-0.83107299 1.0944929 0.21632259
-0.93853176 1.2467371 1.471027
-0.90407628 1.1996726 1.177353
-0.89396733 1.1854093 0.95808399
-0.88120908 1.1672317 0.76354873
-0.86284089 1.1420841 0.58732271
-0.85310733 1.1283937 0.43189743
-0.83632743 1.1058059 0.28558838
-0.82595098 1.0913066 0.14888488
-0.020138284 0.08625862 8.728941
-0.75084835 1.0515625 8.2144108
-0.93982929 1.2987514 7.7308245
-0.57669407 0.78558826 3.1626556
-1.0621369 1.4367131 4.2687593
-0.97394484 1.3116975 3.0612874
-1.0138422 1.3615015 2.5657735
-1.038234 1.3912475 2.1550097
-0.26218078 0.44353053 8.7498064
-0.51011175 0.79344094 8.7546301
-0.50633061 0.69597316 3.3512027
-0.67683977 0.92144728 3.1633391
-0.92456019 1.2515335 3.2811296
-1.0010792 1.3507302 2.8202019
-1.0313455 1.3880591 2.364594
-0.98651248 1.3253217 1.8693745
-0.95421547 1.2731051 1.6432794
-0.91756028 1.2228786 1.3151296
-0.90035492 1.1986557 1.0674905
-0.88720471 1.1803021 0.85947394
-0.86997581 1.1565527 0.67303717
-0.86281466 1.1462117 0.51163971
-0.84825844 1.1260643 0.35913411
-0.83324289 1.1053405 0.21721675
-0.93864417 1.2559875 1.4776781
-0.90714687 1.2125307 1.1861825
-0.89240748 1.1919734 0.96061713
-0.88257307 1.1775643 0.76774484
-0.86168236 1.1488667 0.58896625
-0.852081 1.1352521 0.43306974
-0.83543569 1.1126785 0.28627905
-0.82513767 1.0981771 0.14908642
-0.019830696 0.086285219 8.7239418
-0.75929892 1.0712967 8.3477697
-0.93647796 1.3036782 7.7406149
-0.57394838 0.78759646 3.1626556
-1.068673 1.456163 4.314785
-0.97220206 1.3189452 3.0700655
-1.0141014 1.3718209 2.5781722
-1.039095 1.4025898 2.1665225
-0.26063097 0.44444302 8.7498064
-0.50762522 0.79566646 8.7596016
-0.50389808 0.69773626 3.3512027
-0.67361921 0.92380428 3.1633391
-0.92533487 1.2617755 3.2991343
-1.0009946 1.3605189 2.8329997
-1.0318596 1.3989258 2.3765638
-0.9879241 1.3369368 1.8803998
-0.95615202 1.2850116 1.653793
-0.91793615 1.2323171 1.3214065
-0.90116435 1.2084954 1.0729734
-0.88837767 1.1904925 0.86411154
-0.871481 1.1670114 0.6767832
-0.86167991 1.1530594 0.51304972
-0.85020626 1.1368861 0.36099935
-0.83236331 1.1122295 0.21766382
-0.93870342 1.2652537 1.484329
-0.90772879 1.22218 1.1920689
-0.89338422 1.2020011 0.96568352
-0.8811664 1.1842791 0.76984292
-0.86048692 1.1556551 0.59060973
-0.8510173 1.1421171 0.43424204
-0.83450603 1.1195583 0.28696972
-0.82428634 1.1050553 0.14928794
-0.019529384 0.086353913 8.7239418
-0.76672703 1.0898312 8.4712515
-0.93310356 1.3085976 7.7504053
-0.57032102 0.78838557 3.1578836
-1.065884 1.4630426 4.3239899
-0.97042048 1.3261966 3.0788438
-1.0126362 1.3798901 2.5864379
-1.0379906 1.4113729 2.1741974
-0.25907797 0.44535008 8.7498064
-0.50512934 0.79788429 8.7645731
-0.50072736 0.69846916 3.3463631
-0.67039043 0.92614996 3.1633391
-0.92476803 1.270278 3.3126378
-1.0008537 1.3703232 2.8457975
-1.0323104 1.409813 2.3885341
-0.98926663 1.3485782 1.8914254
-0.95801705 1.2969474 1.6643068
-0.91825724 1.2417731 1.3276834
-0.89942825 1.2149945 1.0757148
-0.88685352 1.1971458 0.86643034
-0.87016284 1.1737704 0.67865622
-0.86050785 1.1599127 0.51445979
-0.84916073 1.1437911 0.36193198
-0.83144563 1.1191256 0.21811089
-0.93870938 1.2745355 1.49098
-0.90825421 1.2318478 1.1979553
-0.89430165 1.2120501 0.97074991
-0.88242 1.1946491 0.77403903
-0.86206138 1.1662465 0.59389675
-0.85280645 1.1528964 0.43658668
-0.83353865 1.1264453 0.28766042
-0.82339716 1.1119409 0.14948948
-0.019227834 0.086421557 8.7239418
-0.77492428 1.1097049 8.6046114
-0.92735374 1.3101842 7.7406149
-0.56756556 0.79037154 3.1578836
-1.0596257 1.4651712 4.319387
-0.96860003 1.3334515 3.0876219
-1.0127838 1.3902401 2.5988369
-1.0387272 1.4227538 2.1857097
-0.25752184 0.44625172 8.7498064
-0.50262409 0.80009431 8.7695436
-0.49755776 0.69918847 3.3415239
-0.6681602 0.92988604 3.1680319
-0.92670316 1.282321 3.335144
-1.0006565 1.380143 2.8585954
-1.0309261 1.4182829 2.3965139
-0.98854434 1.3575044 1.8987757
-0.95770156 1.3060355 1.6713158
-0.91852349 1.2512463 1.3339603
-0.90013373 1.2248657 1.0811977
-0.88791806 1.2073718 0.87106794
-0.87155586 1.1842684 0.68240231
-0.86214298 1.1706345 0.51727986
-0.8480773 1.1507026 0.36286458
-0.83049005 1.1260289 0.21855797
-0.93866193 1.2838329 1.497631
-0.90872324 1.2415342 1.2038416
-0.89515972 1.2221198 0.97581625
-0.8836118 1.205042 0.77823514
-0.86357236 1.1768631 0.59718376
-0.8516537 1.159784 0.43775901
-0.83546489 1.1373301 0.28904179
-0.82246971 1.1188335 0.149691
-0.018926049 0.086488143 8.7239418
-0.77945232 1.1245389 8.6984577
-0.92687112 1.3192462 7.7748814
-0.56393695 0.79113215 3.1531117
-1.2185508 1.6974076 4.982151
-0.96674073 1.3407099 3.0964
-1.0128714 1.4006078 2.6112356
-1.039397 1.4341573 2.1972225
-0.25596258 0.44714791 8.7498064
-0.50010961 0.80229664 8.7745152
-0.49511409 0.700921 3.3415239
-0.6649102 0.93221271 3.1680319
-0.92856538 1.2943928 3.3576503
-1.000403 1.3899783 2.871393
-1.0312581 1.4292035 2.408484
-0.98975772 1.3691894 1.9098014
-0.95943284 1.3180205 1.6818293
-0.91873473 1.2607366 1.3402373
-0.90078127 1.2347566 1.0866808
-0.88892186 1.2176194 0.87570554
-0.87288618 1.1947902 0.68614835
-0.86088264 1.1775094 0.51868987
-0.8498565 1.161585 0.36472982
-0.83243823 1.1369573 0.21945213
-0.9385609 1.2931453 1.504282
-0.90913552 1.2512387 1.2097279
-0.89595842 1.2322103 0.98088264
-0.8820709 1.2117885 0.78033316
-0.86223936 1.1836872 0.5988273
-0.85046333 1.1666776 0.43893132
-0.83440751 1.1442406 0.28973246
-0.82150429 1.1257334 0.14989254
-0.018629799 0.086596943 8.728941
-0.77816349 1.1310945 8.7280931
-0.92691845 1.3291557 7.814043
-0.56117201 0.79309583 3.1531117
-0.96484268 1.3479716 3.1051781
-1.0128989 1.4109932 2.6236346
-1.0381281 1.4429806 2.2048974
-0.25440016 0.4480387 8.7498064
-0.49758595 0.8044911 8.7794867
-0.49194306 0.70161557 3.3366842
-0.66165215 0.93452799 3.1680319
-0.92909187 1.3047198 3.3756549
-0.99857682 1.3977062 2.879925
-1.029772 1.4376941 2.4164641
-0.99090135 1.3808993 1.9208267
-0.95900345 1.3271427 1.6888385
-0.91889077 1.2702433 1.3465142
-0.90137064 1.2446668 1.0921637
-0.8872655 1.2243019 0.87802434
-0.87143195 1.2015828 0.68802142
-0.85958475 1.1843897 0.52009988
-0.84868324 1.168519 0.36566246
-0.83139229 1.1438844 0.21989921
-0.93840629 1.3024725 1.510933
-0.90949124 1.2609613 1.2156142
-0.8966974 1.2423211 0.98594898
-0.88315171 1.2222176 0.78452927
-0.86363614 1.194343 0.60211432
-0.85208464 1.1775148 0.44127598
-0.83621579 1.155169 0.29111382
-0.82050055 1.1326399 0.15009406
-0.018327406 0.086661443 8.728941
-0.77552438 1.1357293 8.7429113
-0.93154287 1.3457803 7.8923669
-0.55840009 0.79504991 3.1531117
-1.2698447 1.7951955 5.239892
-0.96290553 1.3552362 3.1139565
-1.0128661 1.4213957 2.6360335
-1.0386726 1.4544208 2.2164099
-0.25283468 0.44892395 8.7498064
-0.49505293 0.8066777 8.7844582
-0.48949093 0.70332855 3.3366842
-0.65937805 0.93824393 3.1727247
-0.92955756 1.3150661 3.3936598
-0.99670887 1.4054382 2.8884568
-1.0299852 1.4486477 2.4284341
-0.99197537 1.3926339 1.9318523
-0.96060073 1.3391759 1.6993521
-0.91899163 1.2797662 1.3527911
-0.89946103 1.2512008 1.0949051
-0.88816029 1.2345836 0.88266194
-0.87264937 1.2121422 0.69176745
-0.86105323 1.1951673 0.52291995
-0.85034472 1.1794437 0.36752769
-0.83322185 1.1548567 0.22079337
-0.9403699 1.3148514 1.5209095
-0.90978992 1.2707014 1.2215005
-0.89486605 1.2489479 0.98848218
-0.88417041 1.2326688 0.78872538
-0.86221546 1.2011865 0.6037578
-0.85080481 1.1844296 0.44244829
-0.83506811 1.1621025 0.29180449
-0.81945866 1.1395532 0.1502956
-0.018024787 0.086724892 8.728941
-0.77547681 1.1442195 8.787364
-0.96949524 1.4111345 8.2546139
-0.55562145 0.79699421 3.1531117
-1.2635704 1.7996172 5.239892
-0.96092939 1.3625036 3.1227345
-1.0127732 1.431815 2.6484323
-1.03915 1.4658825 2.2279224
-0.25126609 0.4498038 8.7498064
-0.49251083 0.80885655 8.7894306
-0.48703286 0.70503283 3.3366842
-0.6560989 0.94053984 3.1727247
-0.9274618 1.3218671 3.4026623
-0.99329817 1.4110416 2.8927228
-1.0283968 1.4571581 2.4364142
-0.99297935 1.4043926 1.9428777
-0.96212548 1.3512365 1.7098659
-0.92129636 1.2924752 1.3622065
-0.89994556 1.2611403 1.1003881
-0.88899392 1.2448865 0.88729954
-0.87380368 1.2227247 0.69551355
-0.85966659 1.2020677 0.52433002
-0.8490814 1.1863995 0.3684603
-0.83208525 1.1618068 0.22124045
-0.94009715 1.3242152 1.5275606
-0.9100318 1.2804589 1.2273868
-0.8954978 1.2590899 0.99354851
-0.88249451 1.2394447 0.7908234
-0.86349756 1.2118806 0.60704482
-0.85230899 1.1953076 0.44479293
-0.8367579 1.1730734 0.29318586
-0.82128102 1.1505392 0.15069866
-0.017721953 0.086787283 8.728941
-0.77104455 1.1462746 8.7824249
-0.98234177 1.4405916 8.4063654
-0.55283606 0.79892886 3.1531117
-1.2662164 1.8168399 5.2767119
-0.95891428 1.3697739 3.1315129
-1.0110028 1.4399478 2.6566982
-1.0395601 1.477365 2.2394347
-0.24969447 0.45067814 8.7498064
-0.48968437 0.81057084 8.7894306
-0.48456889 0.70672864 3.3366842
-0.65379399 0.94424325 3.1774173
-0.92657393 1.330456 3.4161658
-0.99135393 1.4187762 2.9012547
-1.0267618 1.465675 2.4443944
-0.99196583 1.4134002 1.950228
-0.96357763 1.3633237 1.7203795
-0.92127532 1.3020381 1.3684834
-0.90037155 1.2710984 1.105871
-0.88976634 1.2552099 0.89193714
-0.87221247 1.2295486 0.69738662
-0.86101896 1.2128844 0.52715003
-0.85062474 1.1973653 0.37032557
-0.83091021 1.1687632 0.22168753
-0.941921 1.336645 1.537537
-0.91021645 1.2902335 1.2332731
-0.89606953 1.2692515 0.99861485
-0.88340145 1.2499304 0.79501951
-0.86471552 1.2225981 0.61033183
-0.85093933 1.2022427 0.44596523
-0.83551955 1.1800287 0.29387653
-0.82014823 1.1574754 0.15090019
-0.017418899 0.086848617 8.728941
-0.76703858 1.148959 8.7824249
-0.98586553 1.4566619 8.4797935
-0.55004388 0.80085373 3.1531117
-1.2698687 1.8357097 5.3181348
-0.95686007 1.3770467 3.140291
-1.0107967 1.4503944 2.6690972
-1.0399024 1.4888682 2.2509475
-0.24811977 0.45154697 8.7498064
-0.48685199 0.81227517 8.7894306
-0.48139215 0.70737642 3.331845
-0.6514712 0.94794208 3.1821103
-0.9231618 1.3354732 3.4206672
-0.98936784 1.4265141 2.9097865
-1.0250796 1.4741982 2.4523742
-1.0005903 1.4363269 1.9759542
-0.96700507 1.3783568 1.7343976
-0.92343575 1.3148018 1.3778987
-0.90073901 1.2810749 1.1113539
-0.88792849 1.2619312 0.89425594
-0.87325317 1.2401668 0.70113266
-0.85954303 1.2198039 0.5285601
-0.84927076 1.2043417 0.3712582
-0.83256805 1.1797941 0.22258168
-0.94366956 1.3491039 1.5475135
-0.91034395 1.300025 1.2391595
-0.89658111 1.2794323 1.0036812
-0.88424581 1.2604374 0.79921561
-0.86586905 1.2333388 0.61361885
-0.85232604 1.2131602 0.44830987
-0.83709043 1.191041 0.2952579
-0.82185113 1.168504 0.15130325
-0.017115636 0.086908892 8.728941
-0.76345229 1.1522774 8.787364
-0.98872137 1.4719291 8.5483274
-0.54724503 0.80276889 3.1531117
-1.2634532 1.8401312 5.3181348
-0.95476675 1.3843216 3.1490691
-1.0089293 1.4585427 2.6773629
-1.0401773 1.5003918 2.26246
-0.24640475 0.45215634 8.7448139
-0.48401368 0.81396967 8.7894306
-0.47892001 0.7090525 3.331845
-0.65010267 0.95306182 3.1914957
-0.922189 1.3440729 3.4341707
-0.99029708 1.4385524 2.9268503
-1.0250621 1.4852076 2.4643445
-1.0090665 1.4593307 2.0016804
-0.97033936 1.3934306 1.7484158
-0.92329234 1.3244034 1.3841758
-0.90344077 1.2944983 1.1195784
-0.88859099 1.2722865 0.89889359
-0.87423038 1.250807 0.70487875
-0.86077875 1.2306588 0.53138018
-0.85069531 1.2153476 0.37312344
-0.83130187 1.186772 0.22302876
-0.94321311 1.3585237 1.5541645
-0.9104141 1.3098329 1.2450458
-0.8970325 1.2896321 1.0087476
-0.88243413 1.2672408 0.80131364
-0.86695808 1.2441024 0.61690587
-0.85364664 1.2241018 0.45065451
-0.83859432 1.2020786 0.29663923
-0.82348704 1.1795586 0.15170631
-0.016812162 0.086968102 8.728941
-0.75942546 1.1549354 8.787364
-0.98244798 1.4736767 8.538537
-0.54443949 0.80467421 3.1531117
-0.95128143 1.3896222 3.1534581
-1.0070171 1.4666954 2.6856289
-1.0403841 1.5119352 2.2739725
-0.24468851 0.45275933 8.7398224
-0.48116943 0.81565422 8.7894306
-0.47504282 0.70863134 3.3221662
-0.64773911 0.95675433 3.1961884
-0.92239243 1.3544816 3.4521756
-0.99115443 1.4506142 2.9439139
-1.023277 1.4937487 2.4723246
-1.0154759 1.4796156 2.0237315
-0.97155231 1.4056104 1.7589295
-0.92530775 1.3372207 1.393591
-0.90367866 1.3045186 1.1250613
-0.88919199 1.2826618 0.90353119
-0.87250131 1.2576602 0.70675176
-0.86194903 1.241537 0.53420019
-0.84925056 1.2223439 0.37405604
-0.83283985 1.1978441 0.22392292
-0.94482106 1.3710315 1.5641412
-0.91272205 1.3229842 1.2538751
-0.89742362 1.2998505 1.013814
-0.88316607 1.2777805 0.80550975
-0.86798245 1.2548883 0.62019289
-0.85213488 1.2310709 0.45182684
-0.83721232 1.2090697 0.29732993
-0.82221007 1.1865323 0.15190785
-0.016508484 0.087026253 8.728941
-0.75581372 1.1582299 8.7923031
-0.9772979 1.477097 8.538537
-0.54245931 0.80780917 3.1578836
-1.2483871 1.8456702 5.3089299
-0.94911671 1.3968965 3.1622362
-1.006645 1.4771781 2.6980276
-1.0405231 1.5234983 2.285485
-0.24310659 0.45361069 8.7398224
-0.47805065 0.81686842 8.7844582
-0.47187033 0.70923853 3.3173265
-0.64631993 0.96187449 3.205574
-0.92131555 1.3631041 3.4656792
-0.99193943 1.4626994 2.9609778
-1.023139 1.504787 2.4842944
-1.0236641 1.5027647 2.0494576
-0.97470951 1.4207565 1.7729477
-0.92504138 1.3468595 1.3998679
-0.90385741 1.3145562 1.1305442
-0.88973111 1.2930566 0.90816879
-0.87336427 1.2683346 0.7104978
-0.8630538 1.2524383 0.53702027
-0.84776735 1.2293448 0.37498868
-0.83148217 1.2048427 0.22437
-0.94424522 1.3804852 1.5707921
-0.91266567 1.3328323 1.2597615
-0.89775419 1.3100872 1.0188802
-0.88383526 1.2883407 0.80970585
-0.86894214 1.2656968 0.62347996
-0.85333723 1.2420503 0.45417145
-0.83859658 1.2201471 0.2987113
-0.82372564 1.1976277 0.15231091
-0.016200053 0.087039955 8.7239418
-0.75176615 1.1608611 8.7923031
-0.97269464 1.4813507 8.5434322
-0.53963619 0.80969781 3.1578836
-0.83146214 1.2384744 3.5737784
-0.94691271 1.4041727 3.1710143
-1.0046353 1.4853449 2.7062936
-1.0405939 1.5350807 2.2969975
-0.24138708 0.45420113 8.7348309
-0.47519627 0.81853217 8.7844582
-0.46800718 0.70878309 3.3076477
-0.6448729 0.96699643 3.2149594
-0.92140222 1.3735436 3.4836841
-0.99265212 1.4748076 2.9780414
-1.021251 1.5133449 2.4922745
-1.0298046 1.5231805 2.0715086
-0.97777259 1.4359415 1.7869658
-0.92471892 1.3565127 1.4061449
-0.90397716 1.3246111 1.1360271
-0.89020854 1.3034707 0.91280639
-0.87416327 1.2790304 0.71424389
-0.86409301 1.2633625 0.53984034
-0.84902006 1.240404 0.37685391
-0.83289987 1.2159549 0.22526415
-0.94571185 1.3930402 1.5807685
-0.91255158 1.3426962 1.2656479
-0.89802426 1.3203421 1.0239466
-0.88444126 1.2989209 0.81390196
-0.86983675 1.276527 0.62676698
-0.85447323 1.2530531 0.45651609
-0.83712304 1.227158 0.29940197
-0.82235688 1.2046218 0.15251243
-0.015896127 0.087095968 8.7239418
-0.74770939 1.1634783 8.7923031
-0.96807367 1.4855902 8.5483274
-0.53680658 0.81157655 3.1578836
-0.83688205 1.2560024 3.615201
-0.94333744 1.4094598 3.1754036
-1.0041493 1.4958522 2.7186925
-1.0405962 1.5466821 2.3085101
-0.23993389 0.45529681 8.7398224
-0.47207072 0.81972367 8.7794867
-0.46484157 0.70936084 3.3028083
-0.64339793 0.97212005 3.2243452
-0.92022085 1.3821881 3.4971879
-0.99184376 1.4847701 2.9908392
-1.0209923 1.5244116 2.5042446
-1.0339257 1.5408417 2.0898843
-0.97874463 1.4482101 1.7974794
-0.92652142 1.3694038 1.4155602
-0.90403765 1.3346826 1.14151
-0.89062411 1.3139039 0.91744399
-0.8748982 1.2897472 0.71798992
-0.86506635 1.2743088 0.54266042
-0.84744555 1.2474233 0.37778652
-0.83425009 1.2270916 0.22615832
-0.94710231 1.4056226 1.5907451
-0.91463977 1.3559263 1.2744772
-0.89823353 1.3306146 1.0290129
-0.8849842 1.3095211 0.81809807
-0.87066633 1.2873788 0.630054
-0.85554284 1.2640789 0.45886073
-0.83838695 1.2382737 0.30078334
-0.82375169 1.2157569 0.15291549
-0.015592009 0.087150924 8.7239418
-0.74364352 1.1660812 8.7923031
-0.96288216 1.4889604 8.5483274
-0.53397036 0.81344545 3.1578836
-0.82387316 1.2458785 3.5783808
-0.94238675 1.4187293 3.1885707
-1.003602 1.5063741 2.7310913
-1.0405304 1.558302 2.3200223
-0.23834315 0.45613158 8.7398224
-0.46920648 0.82136655 8.7794867
-0.46167764 0.70992523 3.2979689
-0.64189506 0.97724497 3.2337308
-0.91539055 1.3853918 3.4971879
-0.99097782 1.4947445 3.0036371
-1.0190008 1.5329852 2.5122247
-1.0266619 1.5416197 2.0862093
-0.97964293 1.4605031 1.8079931
-0.92607522 1.3790925 1.4218372
-0.90403885 1.3447707 1.146993
-0.89097744 1.3243557 0.92208159
-0.87297976 1.2966388 0.719863
-0.86329323 1.2812991 0.54407042
-0.84857839 1.2585198 0.37965176
-0.83274716 1.2341243 0.2266054
-0.94841635 1.4182314 1.6007215
-0.91439825 1.3658283 1.2803636
-0.89838201 1.3409046 1.0340793
-0.88293588 1.3163716 0.82019615
-0.86879897 1.294331 0.63169748
-0.85383546 1.2710924 0.46003303
-0.83682144 1.245303 0.30147403
-0.82229078 1.2227707 0.15311703
-0.0152918 0.087248266 8.728941
-0.73915339 1.1680132 8.787364
-0.95822841 1.4931692 8.5532217
-0.53112769 0.81530434 3.1578836
-0.81951916 1.2487468 3.5783808
-0.94006479 1.4260095 3.1973488
-1.0029935 1.5169103 2.7434902
-1.0421666 1.5726122 2.3353724
-0.23688145 0.45721751 8.7448139
-0.46633652 0.82299936 8.7794867
-0.45851544 0.7104761 3.2931294
-0.64130634 0.98381692 3.2478089
-0.91054899 1.3885787 3.4971879
-0.99005437 1.5047311 3.0164349
-1.018621 1.5440788 2.5241947
-1.0212743 1.545194 2.0862093
-0.9804672 1.4728199 1.8185068
-0.92773098 1.3920336 1.4312525
-0.90398043 1.3548747 1.152476
-0.89126873 1.334826 0.92671913
-0.87359947 1.3073874 0.72360903
-0.8641485 1.2922802 0.54689056
-0.84691215 1.2655566 0.38058439
-0.83397627 1.2452992 0.22749956
-0.94965392 1.4308664 1.6106981
-0.91409874 1.3757453 1.2862499
-0.89846957 1.3512119 1.0391457
-0.88336521 1.3270017 0.82439226
-0.8695116 1.3052157 0.63498449
-0.85478562 1.2821536 0.46237767
-0.83521706 1.2523364 0.3021647
-0.82356435 1.2339444 0.15352009
-0.014987154 0.08730112 8.728941
-0.73465872 1.1699281 8.7824249
-0.95301044 1.4965049 8.5532217
-0.52827847 0.81715339 3.1578836
-0.81089115 1.245051 3.5599706
-0.93901455 1.4352951 3.2105162
-1.0038673 1.5298134 2.7600219
-1.0437155 1.5869526 2.3507226
-0.23528403 0.45804158 8.7448139
-0.46346086 0.82462215 8.7794867
-0.4560326 0.71207231 3.2931294
-0.63786829 0.98604947 3.2478089
-0.90569639 1.3917487 3.4971879
-0.99049896 1.5169129 3.0334985
-1.0181761 1.5551883 2.5361648
-1.0158744 1.5487496 2.0862093
-0.98121738 1.48516 1.8290204
-0.92716062 1.4017563 1.4375293
-0.9038626 1.3649949 1.1579589
-0.89149767 1.3453143 0.93135673
-0.87415475 1.3181561 0.72735512
-0.8622849 1.2992857 0.54830056
-0.84792471 1.2766892 0.38244963
-0.83238095 1.2523502 0.22794664
-0.95081466 1.4435272 1.6206745
-0.91596609 1.3890511 1.2950795
-0.89849609 1.361536 1.0442121
-0.88373107 1.3376507 0.82858837
-0.87015885 1.3161211 0.63827151
-0.85298687 1.2891833 0.46355
-0.83630687 1.2635031 0.30354607
-0.82201099 1.2409769 0.15372162
-0.014682324 0.087352894 8.728941
-0.7301597 1.1718259 8.7774858
-0.94778085 1.4998225 8.5532217
-0.52542287 0.81899244 3.1578836
-0.80335915 1.2429514 3.5461633
-0.93660682 1.4425818 3.2192943
-1.0031277 1.5403827 2.7724209
-1.043425 1.5986388 2.3622351
-0.23381391 0.4591178 8.7498064
-0.46057957 0.82623494 8.7794867
-0.45287037 0.71259874 3.28829
-0.64001459 0.99698406 3.2759655
-0.89965189 1.3930727 3.4926865
-0.9894523 1.5269276 3.0462966
-1.0176661 1.5663135 2.548135
-1.0086128 1.5494448 2.0825341
-0.9818933 1.4975234 1.839534
-0.92653358 1.4114921 1.4438063
-0.90368497 1.3751307 1.1634418
-0.89166433 1.3558204 0.93599433
-0.87464541 1.3289444 0.73110116
-0.86302149 1.3103002 0.55112064
-0.8488698 1.2878441 0.38431486
-0.83074641 1.2594051 0.22839372
-0.95189857 1.4562135 1.630651
-0.91553837 1.3990045 1.3009658
-0.8984614 1.3718767 1.0492785
-0.88403326 1.3483183 0.83278447
-0.86814988 1.3230988 0.63991499
-0.8538174 1.3002789 0.46589461
-0.83461022 1.2705536 0.30423674
-0.82316285 1.2521881 0.15412468
-0.014377316 0.087403618 8.728941
-0.72606486 1.1743674 8.7774858
-0.94253969 1.5031217 8.5532217
-0.52256083 0.82082152 3.1578836
-0.797961 1.2441036 3.5415606
-0.93545657 1.4518825 3.2324615
-1.0038537 1.553329 2.7889526
-1.0448079 1.6130323 2.3775849
-0.23220986 0.45993116 8.7498064
-0.45795003 0.82830441 8.7844582
-0.45038021 0.71417522 3.28829
-0.6383844 1.0021232 3.285351
-0.89478374 1.3962047 3.4926865
-0.98693734 1.5347594 3.0548284
-1.0154579 1.5749215 2.5561152
-1.0289503 1.5928242 2.1339862
-0.98249465 1.5099092 1.8500476
-0.92797434 1.424502 1.4532217
-0.90573168 1.3887841 1.1716661
-0.89176828 1.3663439 0.94063193
-0.87507135 1.3397522 0.73484725
-0.86369157 1.3213354 0.55394071
-0.84974724 1.299021 0.3861801
-0.8318004 1.2706305 0.22928788
-0.95290536 1.4689248 1.6406276
-0.91505212 1.4089714 1.3068521
-0.89836526 1.3822336 1.0543448
-0.88427174 1.3590043 0.83698058
-0.86867964 1.3340355 0.64320201
-0.85458076 1.3113959 0.46823925
-0.83557874 1.281756 0.30561811
-0.82151663 1.259238 0.15432622
-0.014072133 0.087453268 8.728941
-0.72155493 1.1762321 8.7725468
-0.93728715 1.5064026 8.5532217
-0.51969248 0.8226406 3.1578836
-0.79256469 1.2452332 3.5369582
-0.93038291 1.4551389 3.2324615
-1.0045015 1.566299 2.8054843
-1.0443702 1.6247587 2.3890977
-0.23060299 0.46073893 8.7498064
-0.45505592 0.82989788 8.7844582
-0.447218 0.71467721 3.2834506
-0.65700722 1.0393568 3.3979776
-0.88990456 1.3993195 3.4926865
-0.98578244 1.544791 3.067626
-1.0148258 1.5860711 2.568085
-1.0343611 1.613531 2.1560371
-0.98495609 1.5253135 1.8640658
-0.92722243 1.4342701 1.4594986
-0.90542209 1.398958 1.1771491
-0.89180964 1.3768847 0.94526953
-0.87543243 1.350579 0.73859328
-0.86429507 1.3323913 0.55676073
-0.84788239 1.3060995 0.38711271
-0.830073 1.2777023 0.22973496
-0.95383495 1.4816606 1.650604
-0.91669714 1.4223498 1.3156817
-0.89820784 1.3926064 1.0594112
-0.88444626 1.3697082 0.84117669
-0.86914337 1.344992 0.64648902
-0.85263735 1.3184525 0.46941158
-0.83378929 1.2888229 0.30630878
-0.8225463 1.2704854 0.15472928
-0.013766779 0.087501861 8.728941
-0.71744478 1.1787437 8.7725468
-0.93202317 1.5096651 8.5532217
-0.51681775 0.82444966 3.1578836
-0.78717005 1.2463403 3.5323555
-0.93427855 1.4725344 3.263185
-1.0050709 1.5792923 2.8220162
-1.0421394 1.633799 2.3967726
-0.22899331 0.46154109 8.7498064
-0.4524104 0.83194989 8.7894306
-0.4447206 0.71623397 3.2834506
-0.67721105 1.0796564 3.5199893
-0.88501459 1.4024173 3.4926865
-0.98317438 1.5526295 3.0761578
-1.0157433 1.5997794 2.5840452
-1.0487374 1.6485972 2.1964641
-0.98539788 1.5377506 1.8745794
-0.92851514 1.4473265 1.468914
-0.9073121 1.412665 1.1853735
-0.89178818 1.3874422 0.94990712
-0.87823647 1.3653237 0.74421245
-0.86483198 1.3434674 0.5595808
-0.84863859 1.3173103 0.38897794
-0.83100474 1.2889631 0.2306291
-0.95468712 1.4944209 1.6605806
-0.91608208 1.4323515 1.321568
-0.8979888 1.4029949 1.0644776
-0.88455689 1.38043 0.8453728
-0.86954117 1.3559678 0.64977604
-0.85328037 1.3296024 0.47175622
-0.83463603 1.3000599 0.30769014
-0.82350737 1.2817552 0.15513234
-0.013461256 0.087549381 8.728941
-0.71292436 1.1805756 8.7676067
-0.92674774 1.5129093 8.5532217
-0.5139367 0.82624865 3.1578836
-0.78281468 1.2490804 3.5323555
-0.93678808 1.4879478 3.2895195
-1.0055618 1.5923085 2.8385479
-1.0415725 1.6455518 2.4082851
-0.22738084 0.46233758 8.7498064
-0.4495036 0.83352411 8.7894306
-0.44155881 0.71671158 3.2786112
-0.67252654 1.0805485 3.5152967
-0.8789587 1.4036529 3.4881854
-0.97913617 1.5582603 3.0804241
-1.0149713 1.6109639 2.5960152
-1.0502145 1.6637154 2.2111647
-0.98767817 1.5532186 1.8885976
-0.92972791 1.4604093 1.4783293
-0.90687001 1.4228759 1.1908565
-0.89170378 1.3980162 0.95454472
-0.87845379 1.3761965 0.74795848
-0.86271942 1.3505206 0.56099087
-0.84932691 1.3285421 0.39084318
-0.83186799 1.3002458 0.23152326
-0.95546186 1.5072049 1.670557
-0.91757399 1.4457786 1.3303974
-0.90001929 1.4170377 1.072077
-0.88460326 1.391169 0.8495689
-0.86987299 1.3669628 0.65306306
-0.85385579 1.3407725 0.47410086
-0.83541435 1.3113185 0.30907148
-0.82439983 1.2930472 0.1555354
-0.013155569 0.087595835 8.728941
-0.70839983 1.1823903 8.7626677
-0.92198974 1.5170053 8.5581179
-0.51104945 0.82803762 3.1578836
-0.77844977 1.2518053 3.5323555
-0.93920124 1.5033965 3.3158541
-1.0059739 1.6053473 2.8550797
-1.0409361 1.6573206 2.4197977
-0.22576559 0.46312851 8.7498064
-0.44684213 0.83555841 8.7944021
-0.43905431 0.71824855 3.2786112
-0.6787225 1.0990415 3.5669169
-0.87405366 1.4067125 3.4881854
-0.97507054 1.5638819 3.0846899
-1.0157306 1.6247174 2.6119754
-1.0533984 1.6817368 2.2295406
-0.98986238 1.5687211 1.9026158
-0.93086058 1.473518 1.4877448
-0.9086026 1.4366348 1.1990808
-0.89392555 1.4123498 0.96150118
-0.87860584 1.3870872 0.75170451
-0.86313653 1.361627 0.56381088
-0.84994709 1.3397949 0.39270842
-0.8326624 1.3115501 0.23241742
-0.95615888 1.5200126 1.6805335
-0.91682953 1.4558134 1.3362837
-0.89966428 1.4274646 1.0771434
-0.88700724 1.4057634 0.85586303
-0.87013859 1.3779764 0.65635008
-0.8543635 1.3519627 0.4764455
-0.83612412 1.3225981 0.31045285
-0.82522339 1.3043609 0.15593846
-0.012849723 0.087641224 8.728941
-0.70387143 1.1841879 8.7577286
-0.91668874 1.5202144 8.5581179
-0.50815594 0.8298164 3.1578836
-0.77407551 1.2545149 3.5323555
-0.94151783 1.5188799 3.3421884
-1.0063072 1.6184082 2.8716116
-1.0402303 1.6691048 2.4313099
-0.22414759 0.46391374 8.7498064
-0.44392279 0.83711308 8.7944021
-0.43589294 0.71870184 3.2737718
-0.68389612 1.1161195 3.6138449
-0.86799574 1.4079018 3.4836841
-0.9682337 1.565058 3.0804241
-1.0179946 1.6410563 2.6319253
-1.0475215 1.6854037 2.2295406
-0.99195039 1.5842576 1.916634
-0.93191302 1.4866523 1.4971601
-0.90802753 1.4468812 1.2045637
-0.89370197 1.4229643 0.96613878
-0.87869257 1.3979957 0.75545061
-0.86348659 1.3727529 0.56663096
-0.85049897 1.3510679 0.39457369
-0.8307336 1.3186623 0.2328645
-0.95677799 1.5328432 1.69051
-0.91816801 1.4692883 1.3451133
-0.89924729 1.4379063 1.0822097
-0.88691163 1.4165446 0.86005914
-0.87033772 1.3890085 0.65963709
-0.85222125 1.3590547 0.47761783
-0.83676535 1.3338988 0.31183422
-0.82332158 1.3114648 0.15613998
-0.012546451 0.087729082 8.7339401
-0.69894463 1.1852988 8.7478504
-0.91137666 1.5234051 8.5581179
-0.50525624 0.83158517 3.1578836
-0.76969165 1.2572093 3.5323555
-0.94750154 1.5405182 3.3816903
-1.0065615 1.6314908 2.8881433
-1.0394547 1.6809043 2.4428227
-0.22252686 0.46469334 8.7498064
-0.44099799 0.83865756 8.7944021
-0.43338156 0.72021902 3.2737718
-0.68985486 1.1347213 3.6654651
-0.86307591 1.4109231 3.4836841
-0.9695859 1.5795419 3.1017535
-1.0185775 1.6548645 2.6478853
-1.0469701 1.6977067 2.240566
-0.99206001 1.5967984 1.9271477
-0.93288517 1.4998118 1.5065755
-0.90960222 1.4606906 1.2127882
-0.89341515 1.4335942 0.97077638
-0.87871385 1.4089216 0.75919664
-0.86376929 1.3838975 0.56945103
-0.85098243 1.3623611 0.39643893
-0.83140498 1.3299996 0.23375866
-0.9573192 1.5456967 1.7004865
-0.91942352 1.4827901 1.3539426
-0.89876831 1.4483624 1.0872761
-0.88675147 1.4273422 0.86425525
-0.8704704 1.4000587 0.66292417
-0.85260773 1.3702753 0.47996244
-0.83733779 1.3452199 0.31321558
-0.82402176 1.3228117 0.15654305
-0.012240143 0.087772347 8.7339401
-0.69480288 1.1877314 8.7478504
-0.90605342 1.5265771 8.5581179
-0.50235039 0.8333438 3.1578836
-0.76529849 1.2598884 3.5323555
-0.94336581 1.5458608 3.3860793
-1.0067366 1.6445949 2.904675
-1.0386094 1.6927186 2.4543352
-0.22090343 0.46546727 8.7498064
-0.43806785 0.84019184 8.7944021
-0.43022087 0.72064793 3.2689323
-0.69301862 1.1489447 3.7030075
-0.85814559 1.4139271 3.4836841
-0.97220522 1.5962818 3.1273491
-1.0190763 1.6686968 2.6638458
-1.0445764 1.7071347 2.2479162
-0.99396539 1.6123949 1.9411659
-0.93377656 1.5129958 1.5159907
-0.90889364 1.4709713 1.2182711
-0.89306492 1.4442395 0.97541398
-0.87866938 1.4198648 0.76294273
-0.86398476 1.3950609 0.57227111
-0.85139734 1.3736739 0.39830416
-0.83200735 1.3413576 0.23465282
-0.959737 1.5617536 1.7137885
-0.92059594 1.4963187 1.3627722
-0.90048742 1.4625032 1.0948756
-0.88652676 1.4381558 0.86845136
-0.87053663 1.4111266 0.66621119
-0.85292614 1.3815148 0.48230708
-0.83784145 1.3565609 0.31459692
-0.82465267 1.3341794 0.15694611
-0.011933685 0.087814532 8.7339401
-0.69026297 1.1894773 8.7429113
-0.9012357 1.5306081 8.5630131
-0.49943843 0.83509225 3.1578836
-0.76190424 1.2642256 3.5369582
-0.9354834 1.5450466 3.3773012
-1.0068325 1.65772 2.921207
