# .PCD v0.7 - Point Cloud Data file format
VERSION 0.7
FIELDS x y z
SIZE 4 4 4
TYPE F F F
COUNT 1 1 1
WIDTH 1444
HEIGHT 1
VIEWPOINT 0 0 0 1 0 0 0
POINTS 1444
DATA ascii
-1.0367484 -1.5348547 2.0862093
-1.0192697 -1.5198072 1.8780839
-0.99386972 -1.483597 1.5222677
-0.98487002 -1.4718108 1.2456857
-0.97586465 -1.4594418 1.0055584
-0.92764372 -1.3883634 0.76294273
-0.8978442 -1.3447672 0.56522095
-0.88329017 -1.3239604 0.39364108
-0.86450619 -1.296772 0.2328645
-1.0210547 -1.517874 1.7104629
-0.97306383 -1.4481549 1.3539426
-0.98623228 -1.468845 1.1252737
-0.96125394 -1.4332523 0.88523579
-0.91517806 -1.3655711 0.66128063
-0.88989908 -1.3288414 0.4764455
-0.87044191 -1.3002692 0.31045285
-0.85540712 -1.278762 0.15573692
-0.074765831 -0.047173906 8.7089415
-0.77543139 -1.0922428 8.5157051
-0.66730213 -0.95283616 5.616086
-0.51885724 -0.75164646 2.9670043
-0.66985512 -0.97746909 2.851182
-1.1786422 -1.7273873 3.8996017
-1.1225932 -1.6501559 3.003866
-1.0523387 -1.5503523 2.3200223
-0.32938617 -0.38826859 8.6449804
-0.56832939 -0.72323334 8.5358829
-0.4653827 -0.66803855 3.1721437
-0.59239733 -0.85871607 2.8911588
-0.7606504 -1.1090567 2.8445115
-1.1563445 -1.6915174 3.4216986
-1.0794222 -1.5831182 2.6119754
-1.0325621 -1.5172132 2.0678334
-1.0165814 -1.504421 1.8640658
-0.99250942 -1.4704404 1.5128524
-0.98065108 -1.4544963 1.2347199
-0.97352749 -1.4450053 0.99860191
-0.92730629 -1.3774257 0.75919664
-0.89717758 -1.3336645 0.56240088
-0.88242525 -1.3127154 0.39177582
-0.86347383 -1.2854786 0.23197034
-1.0200623 -1.5050287 1.7004865
-0.97131473 -1.4347086 1.3451133
-0.9841069 -1.4546822 1.1176742
-0.95608628 -1.4148467 0.87684357
-0.91201127 -1.3506279 0.65635008
-0.88909477 -1.3176688 0.47410086
-0.8694371 -1.2890122 0.30907148
-0.85707337 -1.2716255 0.1555354
-0.074930049 -0.046912637 8.7089415
-0.7792393 -1.0895294 8.5157051
-0.67238575 -0.95299649 5.6307716
-0.52147776 -0.74983072 2.9670043
-0.67326301 -0.9751249 2.851182
-1.1860216 -1.7252359 3.9039905
-1.1203912 -1.634622 2.983201
-1.0505061 -1.5360869 2.3046725
-0.33055121 -0.38689756 8.6399889
-0.57085049 -0.72124511 8.5358829
-0.46843415 -0.66743869 3.1769834
-0.59539115 -0.85664302 2.8911588
-0.76451701 -1.1063948 2.8445115
-1.1578035 -1.6810272 3.408901
-1.079823 -1.5718898 2.6000051
-1.024431 -1.4940282 2.0421071
-1.009784 -1.4831762 1.8430386
-0.99325836 -1.4605299 1.5065755
-0.97867316 -1.440688 1.2264955
-0.96861362 -1.4269378 0.98932678
-0.92690396 -1.3665072 0.75545061
-0.89644456 -1.3225831 0.5595808
-0.88149261 -1.3014929 0.38991058
-0.86237323 -1.2742083 0.23107618
-1.0189924 -1.4922087 1.69051
-0.96948355 -1.4212919 1.3362837
-0.97946668 -1.4369903 1.1075416
-0.95080191 -1.3964946 0.86845136
-0.91140765 -1.3396276 0.65306306
-0.89095604 -1.3105376 0.47292855
-0.86836445 -1.2777779 0.30769014
-0.85589349 -1.26036 0.15513234
-0.075093344 -0.046650797 8.7089415
-0.78303778 -1.0868027 8.5157051
-0.67570823 -0.9506436 5.6307716
-0.52409202 -0.74800587 2.9670043
-0.67666274 -0.97276884 2.851182
-1.178399 -1.7013975 3.8601
-1.1196936 -1.6214391 2.9666693
-1.0504056 -1.5244927 2.29316
-0.33189973 -0.38574135 8.6399889
-0.57336462 -0.71924806 8.5358829
-0.47003508 -0.66477329 3.1721437
-0.59837782 -0.85455948 2.8911588
-0.76837444 -1.1037194 2.8445115
-1.1636645 -1.6769754 3.408901
-1.0801585 -1.560678 2.5880351
-1.0103695 -1.462551 2.0053556
-1.0129379 -1.4767017 1.839534
-0.99174994 -1.4474214 1.4971601
-0.97661084 -1.4269112 1.2182711
-0.96608633 -1.4125789 0.98237038
-0.92382085 -1.351781 0.7498315
-0.89564502 -1.311523 0.55676073
-0.88049251 -1.290293 0.38804534
-0.86401016 -1.2670758 0.2306291
-1.0178457 -1.4794147 1.6805335
-0.96985996 -1.4112369 1.3303974
-0.97471505 -1.4193486 1.0974088
-0.94540137 -1.3781971 0.86005914
-0.9134084 -1.3325431 0.65141958
-0.8900317 -1.2993994 0.47058392
-0.86722392 -1.2665669 0.30630878
-0.8574667 -1.2532414 0.1549308
-0.075255729 -0.046388388 8.7089415
-0.78682655 -1.0840627 8.5157051
-0.68732458 -0.959867 5.6993051
-0.52669984 -0.74617183 2.9670043
-0.68117571 -0.97200072 2.8557847
-1.1898133 -1.7051299 3.8776562
-1.1189178 -1.6082813 2.9501376
-1.0484091 -1.5102851 2.2778101
-0.3332442 -0.38458046 8.6399889
-0.57587183 -0.71724224 8.5358829
-0.47235271 -0.6631285 3.1721437
-0.6013571 -0.85246557 2.8911588
-0.77097231 -1.0992484 2.8400104
-1.1680166 -1.6707658 3.404635
-1.0787054 -1.5470116 2.5720751
-1.0115952 -1.4534503 1.9980052
-1.0180862 -1.4731569 1.839534
-0.9945851 -1.4407477 1.4940217
-0.97446424 -1.4131666 1.2100466
-0.96095711 -1.3946073 0.97309518
-0.92327553 -1.3409115 0.74608546
-0.89749849 -1.3044367 0.55535072
-0.87942505 -1.2791159 0.3861801
-0.86278796 -1.2558429 0.22973496
-1.0144951 -1.4635786 1.6672316
-0.96787721 -1.3978736 1.321568
-0.96985233 -1.4017576 1.0872761
-0.9398846 -1.3599542 0.85166693
-0.9126873 -1.3215755 0.64813256
-0.88904041 -1.2882836 0.46823925
-0.86601567 -1.2553794 0.30492741
-0.85616517 -1.2420142 0.15452774
-0.075417198 -0.046125416 8.7089415
-0.79106468 -1.0819367 8.5206442
-0.69543821 -0.96406692 5.7384667
-0.53016657 -0.74554509 2.9717762
-0.68456441 -0.96961701 2.8557847
-1.1943805 -1.6990072 3.8732669
-1.118064 -1.5951487 2.9336057
-1.0463264 -1.4961101 2.26246
-0.33439404 -0.38319796 8.6349974
-0.57870758 -0.7156418 8.5408554
-0.4746646 -0.66147566 3.1721437
-0.60432911 -0.85036123 2.8911588
-0.77480471 -1.0965506 2.8400104
-1.1738415 -1.6666784 3.404635
-1.07717 -1.5333744 2.5561152
-1.0127696 -1.4443589 1.9906548
-1.0211844 -1.4666674 1.8360294
-0.9929406 -1.427681 1.4846063
-0.97223383 -1.3994545 1.2018223
-0.95824069 -1.3803281 0.96613878
-0.92266566 -1.3300624 0.74233937
-0.89658052 -1.2934109 0.55253065
-0.87829036 -1.2679622 0.38431486
-0.86149776 -1.244634 0.2288408
-1.0131841 -1.4508449 1.6572551
-0.96812552 -1.3878565 1.3156817
-0.96734399 -1.3877546 1.0796765
-0.93425226 -1.3417671 0.84327471
-0.91190076 -1.3106291 0.64484555
-0.88798249 -1.2771909 0.46589461
-0.86474013 -1.2442161 0.30354607
-0.85764563 -1.2349145 0.15432622
-0.075577743 -0.045861878 8.7089415
-0.79483652 -1.0791688 8.5206442
-0.70718205 -0.97316307 5.8070002
-0.53450495 -0.74611646 2.9813201
-0.68907738 -0.96881336 2.8603871
-1.1989195 -1.6928731 3.8688779
-1.1171321 -1.5820416 2.917074
-1.0441574 -1.4819682 2.2471099
-0.33553836 -0.38181219 8.6300068
-0.58120215 -0.71361738 8.5408554
-0.4769707 -0.65981472 3.1721437
-0.60729373 -0.84824651 2.8911588
-0.77989018 -1.0956126 2.8445115
-1.1736151 -1.6540632 3.3875711
-1.0755527 -1.5197668 2.5401547
-1.015849 -1.4380461 1.9869798
-1.030394 -1.4689329 1.8430386
-1.0023854 -1.4305815 1.4908831
-0.96991956 -1.3857753 1.1935979
-0.95289737 -1.3624547 0.95686358
-0.91933548 -1.3154339 0.73672026
-0.89559656 -1.2824076 0.54971057
-0.87989986 -1.2608603 0.38338223
-0.86298865 -1.2375345 0.22839372
-1.0117967 -1.4381385 1.6472787
-0.9683159 -1.3778547 1.3097954
-0.96227223 -1.3702586 1.0695438
-0.93111104 -1.3273513 0.83698058
-0.91104913 -1.2997046 0.64155853
-0.88964677 -1.2701024 0.46472231
-0.86623764 -1.2371336 0.30285537
-0.85622275 -1.2237264 0.15392315
-0.075737372 -0.045597784 8.7089415
-0.79906183 -1.0770116 8.5255833
-0.7280224 -0.99451047 5.9489617
-0.5388537 -0.74666655 2.990864
-0.69359308 -0.96799004 2.8649898
-1.199257 -1.6808796 3.8513215
-1.1161224 -1.5689608 2.9005423
-1.043758 -1.4704733 2.2355974
-0.33686909 -0.38063866 8.6300068
-0.58368957 -0.71158427 8.5408554
-0.48075143 -0.66017753 3.1818225
-0.61025095 -0.84612149 2.8911588
-0.78370988 -1.0928837 2.8445115
-1.167248 -1.6329832 3.3534436
-1.0738535 -1.5061895 2.5241947
-1.0169311 -1.4289672 1.9796295
-1.0272822 -1.4536778 1.8290204
-0.98941487 -1.4016353 1.4657755
-0.96752179 -1.3721294 1.1853735
-0.9499926 -1.3482567 0.94990712
-0.91858369 -1.3046358 0.73297417
-0.89730704 -1.2753503 0.54830056
-0.87864518 -1.2497444 0.38151699
-0.86157757 -1.2263649 0.22749956
-1.0103331 -1.4254594 1.637302
-0.96611249 -1.3645697 1.3009658
-0.95958 -1.356334 1.0619444
-0.92788047 -1.312974 0.83068645
-0.91013235 -1.2888019 0.63827151
-0.8884697 -1.2590464 0.46237767
-0.8648417 -1.2260092 0.30147403
-0.85473233 -1.2125633 0.15352009
-0.075896077 -0.045333132 8.7089415
-0.80281645 -1.0742158 8.5255833
-0.74962473 -1.0165433 6.095818
-0.54584688 -0.75081688 3.014724
-0.69696772 -0.96556306 2.8649898
-1.192536 -1.6591811 3.8118203
-1.1133958 -1.553619 2.8798773
-1.0414267 -1.4563924 2.2202475
-0.33800289 -0.37924555 8.6250143
-0.58616984 -0.70954245 8.5408554
-0.48454055 -0.66052198 3.1915014
-0.61421525 -0.84538203 2.8958514
-0.79261988 -1.0971996 2.8625166
-1.159224 -1.6098517 3.3150501
-1.0720729 -1.4926425 2.5082345
-1.017962 -1.4198984 1.972279
-1.0302819 -1.447178 1.8255159
-0.98527807 -1.3854853 1.4532217
-0.9674623 -1.3619262 1.1798905
-0.9470005 -1.3340957 0.94295073
-0.91508555 -1.2900777 0.72735512
-0.89620531 -1.2643831 0.54548049
-0.87732369 -1.2386526 0.37965176
-0.86009914 -1.2152202 0.2266054
-1.0109631 -1.4158468 1.630651
-0.96382809 -1.3513169 1.2921362
-0.95930451 -1.3459554 1.056878
-0.92456102 -1.2986356 0.82439226
-0.9091506 -1.2779217 0.63498449
-0.89004278 -1.2519759 0.46120536
-0.86624742 -1.2189463 0.30078334
-0.85606706 -1.2054989 0.15331855
-0.076053858 -0.045067929 8.7089415
-0.80609375 -1.0707862 8.5206442
-0.76167178 -1.0253617 6.1643515
-0.54846442 -0.74890697 3.014724
-0.70148301 -0.96470416 2.869592
-1.1884874 -1.6414295 3.7810965
-1.1089284 -1.5360342 2.8550797
-1.0408833 -1.4449463 2.2087348
-0.33932468 -0.37806341 8.6250143
-0.58898455 -0.70790136 8.5458269
-0.48833787 -0.66084796 3.2011805
-0.61716247 -0.84323281 2.8958514
-0.78875822 -1.0838655 2.8355093
-1.1525846 -1.5889075 3.2809229
-1.0702108 -1.4791265 2.4922745
-1.0189421 -1.4108399 1.9649286
-1.0207775 -1.4232874 1.800984
-0.97877365 -1.3662174 1.4375293
-0.96490985 -1.3483397 1.1716661
-0.94392121 -1.3199723 0.93599433
-0.91419244 -1.2793319 0.72360903
-0.89503795 -1.2534392 0.54266042
-0.87878877 -1.231584 0.37871915
-0.86144459 -1.2081558 0.22615832
-1.0093579 -1.4032162 1.6206745
-0.96382183 -1.3413794 1.2862499
-0.9564541 -1.3320938 1.0492785
-0.92115283 -1.2843364 0.81809807
-0.90810406 -1.267064 0.63169748
-0.88874733 -1.2409581 0.45886073
-0.86473155 -1.2078621 0.29940197
-0.85445625 -1.1943769 0.15291549
-0.076210707 -0.044802178 8.7089415
-0.80982661 -1.0679659 8.5206442
-0.76524627 -1.0226966 6.1643515
-0.54664308 -0.74098283 2.990864
-0.70600092 -0.96382564 2.8741946
-1.1829182 -1.621792 3.7459838
-1.1060072 -1.5207752 2.834415
-1.0383903 -1.4309279 2.1933849
-0.3406423 -0.37687662 8.6250143
-0.59145194 -0.70584112 8.5458269
-0.49439591 -0.66417968 3.2253776
-0.62010217 -0.84107345 2.8958514
-0.79897308 -1.0898837 2.8580153
-1.1458131 -1.5680293 3.2467954
-1.0682676 -1.4656417 2.4763145
-1.0198715 -1.4017919 1.9575783
-1.017385 -1.4081531 1.7869658
-0.97442502 -1.350168 1.4249755
-0.96471983 -1.3381796 1.1661832
-0.94075483 -1.3058867 0.92903793
-0.91323549 -1.2686082 0.719863
-0.89380521 -1.242519 0.53984034
-0.87734807 -1.2205316 0.37685391
-0.85984588 -1.197052 0.22526415
-1.0098679 -1.3936375 1.6140234
-0.96138799 -1.3281845 1.2774205
-0.95351863 -1.3182687 1.0416789
-0.92031425 -1.2737557 0.81390196
-0.90699279 -1.2562294 0.62841046
-0.88738573 -1.2299646 0.45651609
-0.86604583 -1.2008197 0.2987113
-0.85862017 -1.1913871 0.15291549
-0.076366633 -0.044535879 8.7089415
-0.81307775 -1.0645152 8.5157051
-0.77800733 -1.0322137 6.2377801
-0.54833573 -0.7378723 2.9860923
-0.7105211 -0.96292722 2.8787971
-1.1772264 -1.6022134 3.7108712
-1.1029932 -1.5055556 2.8137503
-1.0358121 -1.4169445 2.1780348
-0.34176072 -0.37547243 8.6200228
-0.59391218 -0.70377225 8.5458269
-0.50425488 -0.67250425 3.2737718
-0.62303424 -0.83890373 2.8958514
-0.80277264 -1.0870881 2.8580153
-1.1389101 -1.547218 3.2126679
-1.0680267 -1.4546177 2.4643445
-1.02075 -1.3927547 1.950228
-1.0138992 -1.3930597 1.7729477
-0.9722653 -1.337314 1.4155602
-0.96201342 -1.3246541 1.1579589
-0.94010371 -1.2954246 0.92440039
-0.91221493 -1.2579069 0.71611691
-0.88969225 -1.2277385 0.53561026
-0.87872207 -1.213483 0.37592128
-0.85818034 -1.1859742 0.22437
-1.008122 -1.381057 1.6040471
-0.95887375 -1.3150227 1.268591
-0.95303696 -1.3079643 1.0366125
-0.91941309 -1.2631966 0.80970585
-0.90859479 -1.2492368 0.62676698
-0.888816 -1.2229278 0.45534378
-0.86441052 -1.1897767 0.29732993
-0.85983855 -1.1843399 0.15271397
-0.076521628 -0.044269037 8.7089415
-0.81678861 -1.0616705 8.5157051
-0.7840693 -1.0327349 6.2573614
-0.54643399 -0.72997981 2.9622321
-0.71387804 -0.96044111 2.8787971
-1.1714125 -1.5826945 3.6757586
-1.0998863 -1.4903758 2.7930856
-1.033149 -1.4029968 2.1626849
-0.34306929 -0.37427714 8.6200228
-0.59601951 -0.70128906 8.5408554
-0.51948297 -0.68778765 3.3560419
-0.62595874 -0.8367238 2.8958514
-1.1349828 -1.530664 3.1870723
-1.0659301 -1.4411906 2.4483843
-1.0215782 -1.3837286 1.9428777
-1.0124295 -1.3808842 1.7624339
-0.97002763 -1.3244916 1.4061449
-0.95922452 -1.311164 1.1497345
-0.93677676 -1.281407 0.91744399
-0.91113079 -1.2472283 0.71237087
-0.8883155 -1.2168765 0.53279018
-0.87716264 -1.2024713 0.37405604
-0.8593815 -1.1789471 0.22392292
-1.0063007 -1.3685056 1.5940706
-0.95867234 -1.3051525 1.2627047
-0.94994426 -1.2942042 1.0290129
-0.91844958 -1.2526594 0.80550975
-0.90736806 -1.2384394 0.62347996
-0.88733667 -1.2119741 0.45299914
-0.86563367 -1.1827559 0.29663923
-0.86101818 -1.1772987 0.15251243
-0.076675691 -0.044001658 8.7089415
-0.82048953 -1.058813 8.5157051
-0.80066252 -1.0469736 6.3601604
-0.55257463 -0.73283458 2.9813201
-0.71839738 -0.95950723 2.8833997
-1.1754984 -1.5766759 3.6713693
-1.0983661 -1.4774942 2.7765536
-1.0304013 -1.3890849 2.1473348
-0.34437364 -0.37307733 8.6200228
-0.59846383 -0.69920433 8.5408554
-0.52416474 -0.68897057 3.3705604
-0.62887567 -0.83453375 2.8958514
-1.1387581 -1.5246034 3.1828063
-1.0655531 -1.430212 2.4364142
-1.0223557 -1.3747137 1.9355273
-1.013006 -1.3716044 1.7554249
-0.97002333 -1.3148333 1.3998679
-0.95635325 -1.2977096 1.14151
-0.93336338 -1.2674286 0.91048759
-0.91273111 -1.2403064 0.7104978
-0.88971591 -1.2099036 0.53138018
-0.87844586 -1.1954436 0.37312344
-0.85759646 -1.1679121 0.22302876
-1.0044039 -1.3559839 1.584094
-0.95600951 -1.2920506 1.2538751
-0.94676715 -1.2804819 1.0214134
-0.91742373 -1.2421445 0.80131364
-0.90607691 -1.2276657 0.62019289
-0.88579172 -1.2010459 0.45065451
-0.86681837 -1.1757413 0.29594857
-0.86215925 -1.1702639 0.15231091
-0.076828815 -0.043733742 8.7089415
-0.82418048 -1.0559425 8.5157051
-0.81114918 -1.053044 6.4140081
-0.55603248 -0.73208982 2.9860923
-0.72174233 -0.95699364 2.8833997
-1.1752416 -1.5649029 3.6538131
-1.0984564 -1.4668941 2.7641549
-1.0275692 -1.3752096 2.1319847
-0.34567386 -0.37187299 8.6200228
-0.60090083 -0.69711101 8.5408554
-0.54798222 -0.71506631 3.5060642
-0.63178492 -0.83233345 2.8958514
-1.1409369 -1.5164512 3.1742744
-1.0651125 -1.4192539 2.424444
-1.0251155 -1.3684235 1.9318523
-1.01353 -1.3623377 1.7484158
-0.96996355 -1.3051913 1.393591
-0.9533999 -1.2842913 1.1332856
-0.93250322 -1.2570473 0.90584999
-0.91153336 -1.2296644 0.70675176
-0.88822299 -1.1990813 0.5285601
-0.87676811 -1.1844735 0.3712582
-0.85870659 -1.1609077 0.22258168
-1.0024321 -1.3434922 1.5741175
-0.95568258 -1.2822241 1.2479889
-0.94350606 -1.2667978 1.013814
-0.91633576 -1.231652 0.79711759
-0.90753937 -1.2207059 0.61854941
-0.88418126 -1.1901431 0.44830987
-0.86501211 -1.1647573 0.2945672
-0.8632617 -1.1632354 0.15210937
-0.076981008 -0.043465294 8.7089415
-0.82786143 -1.0530591 8.5157051
-0.82168788 -1.0590537 6.4678555
-0.55949175 -0.73132974 2.990864
-0.72507846 -0.95446849 2.8833997
-1.1749169 -1.5531512 3.6362567
-1.1001807 -1.4585578 2.7558892
-1.0246528 -1.361371 2.1166348
-0.34696981 -0.37066409 8.6200228
-0.60333061 -0.69500923 8.5408554
-0.56968296 -0.73801947 3.6270497
-0.63468647 -0.83012301 2.8958514
-1.2487569 -1.6424155 4.3299122
-1.144648 -1.5103807 3.1700087
-1.0646086 -1.4083165 2.4124742
-1.0237595 -1.3567185 1.9208267
-1.0161405 -1.3559377 1.7449113
-0.96751553 -1.29245 1.3841758
-0.95036453 -1.2709097 1.1250613
-0.9289304 -1.2431393 0.89889359
-0.9102726 -1.219046 0.70300567
-0.88953424 -1.1921288 0.52715003
-0.8779611 -1.1774679 0.37032557
-0.85977823 -1.1539099 0.22213461
-1.0003856 -1.3310307 1.5641412
-0.95529872 -1.2724156 1.2421026
-0.94016099 -1.253152 1.0062144
-0.91246384 -1.2175506 0.7908234
-0.90613347 -1.2099711 0.61526239
-0.88250566 -1.1792663 0.44596523
-0.86610621 -1.1577654 0.29387653
-0.86133432 -1.152212 0.15170631
-0.077092618 -0.043178089 8.7039413
-0.83153224 -1.050163 8.5157051
-0.83604121 -1.0698154 6.5510745
-0.56204116 -0.72937226 2.990864
-0.7295931 -0.95348305 2.8880022
-1.1745245 -1.5414209 3.6187005
-1.0865375 -1.4300624 2.7104266
-1.023589 -1.3501236 2.1051223
-0.34826156 -0.36945069 8.6200228
-0.60575294 -0.69289899 8.5408554
-0.5807454 -0.74693972 3.6802835
-0.63758022 -0.8279025 2.8958514
-1.2452164 -1.625949 4.2984037
-1.1451654 -1.5001571 3.1572106
-1.0622157 -1.3950026 2.3965139
-1.0243859 -1.3477387 1.9134763
-1.0165701 -1.3466901 1.7379023
-0.96733397 -1.2828493 1.3778987
-0.94724739 -1.2575649 1.1168369
-0.92527181 -1.2292715 0.89193714
-0.90894884 -1.2084514 0.69925964
-0.88792568 -1.1813473 0.52433002
-0.87616563 -1.1665404 0.3684603
-0.86081141 -1.1469188 0.22168753
-1.0005181 -1.3215772 1.5574901
-0.95485812 -1.2626256 1.2362163
-0.93673223 -1.2395452 0.99861485
-0.91123939 -1.2071137 0.78662729
-0.90466392 -1.1992612 0.61197537
-0.88369083 -1.1722975 0.44479293
-0.86418182 -1.1468252 0.29249516
-0.86234576 -1.1452074 0.15150478
-0.077242866 -0.042908724 8.7039413
-0.83519298 -1.047254 8.5157051
-0.85362935 -1.0844893 6.6587696
-0.56458372 -0.72740597 2.990864
-0.73291695 -0.95093048 2.8880022
-1.1726065 -1.5278127 3.5967553
-1.0795503 -1.4106187 2.6814959
-1.0244046 -1.3414478 2.0974472
-0.34954908 -0.36823279 8.6200228
-0.60816789 -0.69078028 8.5408554
-0.59575313 -0.76073879 3.7577143
-0.64046627 -0.82567191 2.8958514
-1.2429057 -1.6112506 4.2713966
-1.1503949 -1.4961506 3.1572106
-1.0615768 -1.3841136 2.3845439
-1.0208402 -1.3333879 1.8987757
-1.0169474 -1.3374559 1.7308931
-0.96474296 -1.2701663 1.3684834
-0.9465763 -1.2475884 1.1113539
-0.92420441 -1.2189745 0.88729954
-0.90756238 -1.1978811 0.69551355
-0.88914824 -1.1744161 0.52291995
-0.87726843 -1.1595576 0.36752769
-0.86180639 -1.1399344 0.22124045
-1.0005968 -1.3121388 1.5508391
-0.95436084 -1.2528541 1.23033
-0.93583119 -1.2294078 0.99354851
-0.91270024 -1.2003129 0.78452927
-0.90313065 -1.1885763 0.60868835
-0.88189882 -1.1614633 0.44244829
-0.86518568 -1.1398572 0.29180449
-0.86029977 -1.1342293 0.15110172
-0.077392176 -0.042638835 8.7039413
-0.83884346 -1.0443323 8.5157051
-0.86183888 -1.0870872 6.6930361
-0.56619984 -0.72425503 2.9860923
-0.73623186 -0.94836634 2.8880022
-1.1691426 -1.5123419 3.5704205
-1.0707227 -1.3890127 2.6484323
-1.0251722 -1.3327829 2.0897722
-0.35083231 -0.36701035 8.6200228
-0.61057544 -0.68865317 8.5408554
-0.59840494 -0.75865459 3.7577143
-0.64334452 -0.82343119 2.8958514
-1.2338291 -1.5879937 4.2218833
-1.1428342 -1.475631 3.1230834
-1.0590328 -1.3708615 2.3685837
-1.0192775 -1.3217627 1.8877504
-1.0172727 -1.3282355 1.7238841
-0.96444052 -1.2606084 1.3622065
-0.94584715 -1.2376322 1.105871
-0.92038763 -1.2051795 0.88034314
-0.90611309 -1.1873351 0.69176745
-0.88742441 -1.1636764 0.52009988
-0.87535584 -1.1486741 0.36566246
-0.8597461 -1.1289954 0.22034629
-0.99834728 -1.2997549 1.5408626
-0.95380706 -1.2431017 1.2244437
-0.9348709 -1.2192919 0.98848218
-0.91136509 -1.1899135 0.78033316
-0.90153384 -1.1779169 0.60540134
-0.88299471 -1.1545169 0.44127598
-0.86314374 -1.1289622 0.29042313
-0.86122066 -1.1272495 0.15090019
-0.077540539 -0.042368423 8.7039413
-0.84248376 -1.0413978 8.5157051
-0.56872451 -0.72227418 2.9860923
-0.73953784 -0.94579059 2.8880022
-1.1655854 -1.496914 3.5440862
-1.0634834 -1.3697084 2.6195016
-1.025892 -1.3241289 2.0820973
-0.35211128 -0.36578351 8.6200228
-0.61262012 -0.68612051 8.5358829
-0.60183167 -0.75754511 3.7625537
-0.64728242 -0.82253653 2.9005444
-1.2192384 -1.5579629 4.1543651
-1.1383528 -1.4592952 3.0974877
-1.0564092 -1.3576444 2.3526237
-1.0155661 -1.3074875 1.8730495
-1.0153677 -1.3162056 1.7133703
-0.96170712 -1.2479851 1.3527911
-0.94506013 -1.2276963 1.1003881
-0.91918683 -1.1949371 0.87570554
-0.9046014 -1.1768141 0.68802142
-0.88855869 -1.1567674 0.51868987
-0.87337792 -1.1378183 0.36379722
-0.86065084 -1.122036 0.21989921
-0.9983086 -1.290356 1.5342115
-0.95319694 -1.2333685 1.2185574
-0.9338513 -1.2091978 0.98341578
-0.9099685 -1.1795381 0.77613705
-0.90275693 -1.1710229 0.6037578
-0.88108659 -1.1437267 0.43893132
-0.86405784 -1.1220189 0.28973246
-0.85905653 -1.1163177 0.15049712
-0.077687964 -0.042097498 8.7039413
-0.84611374 -1.0384506 8.5157051
-1.0915321 -1.3571143 8.396575
-0.57031447 -0.71911526 2.9813201
-0.74162585 -0.94166875 2.8833997
-1.163413 -1.4834141 3.5221407
-1.068258 -1.3659878 2.6195016
-1.0265638 -1.3154862 2.0744221
-0.35338596 -0.36455217 8.6200228
-0.61465448 -0.68358189 8.5309114
-0.60447234 -0.75543976 3.7625537
-0.65014958 -0.82027209 2.9005444
-1.2219739 -1.5502784 4.1453629
-1.1321599 -1.440958 3.067626
-1.0537064 -1.3444624 2.3366637
-1.0117676 -1.2932544 1.8583488
-1.0155795 -1.3070213 1.7063613
-0.96128416 -1.2384713 1.3465142
-0.94677752 -1.2210855 1.0976466
-0.91792601 -1.184718 0.87106794
-0.90586555 -1.1699836 0.68614835
-0.88672018 -1.1460707 0.5158698
-0.8743397 -1.1308765 0.36286458
-0.85847288 -1.1111434 0.21900505
-0.99821627 -1.2809733 1.5275606
-0.9525305 -1.2236549 1.212671
-0.93277276 -1.1991255 0.97834945
-0.91129559 -1.172771 0.77403903
-0.90104663 -1.1604052 0.60047078
-0.88209385 -1.1368041 0.43775901
-0.86189884 -1.1111703 0.28835109
-0.85988724 -1.1093637 0.1502956
-0.077834435 -0.041826062 8.7039413
-0.84973347 -1.0354908 8.5157051
-1.1020323 -1.3604157 8.4406319
-0.57282114 -0.71712011 2.9813201
-0.74369401 -0.93754381 2.8787971
-1.1611605 -1.4699476 3.5001953
-1.069537 -1.3578296 2.6112356
-1.0271877 -1.306855 2.0667472
-0.35465631 -0.36331639 8.6200228
-0.61703688 -0.68143219 8.5309114
-0.60631663 -0.75234663 3.7577143
-0.65300894 -0.81799763 2.9005444
-1.2206094 -1.5374792 4.1228566
-1.1274716 -1.4247271 3.0420306
-1.0527916 -1.3336809 2.3246934
-1.0120791 -1.2843894 1.8509985
-1.0135415 -1.2950432 1.6958475
-0.96080655 -1.2289755 1.3402373
-0.94588667 -1.2111824 1.0921637
-0.91660494 -1.1745224 0.86643034
-0.9042421 -1.1595032 0.68240231
-0.88776654 -1.1391847 0.51445979
-0.87224543 -1.1200663 0.36099935
-0.8592878 -1.1042098 0.21855797
-0.9980709 -1.271607 1.5209095
-0.95180786 -1.2139608 1.2067847
-0.93163532 -1.1890757 0.97328311
-0.91258645 -1.1660088 0.77194095
-0.90218246 -1.1535331 0.5988273
-0.88007027 -1.1260586 0.43541437
-0.86272353 -1.1042526 0.28766042
-0.85760564 -1.0984796 0.14989254
-0.078019977 -0.041571505 8.7089415
-0.85334283 -1.0325184 8.5157051
-1.1054866 -1.3549829 8.4308414
-0.57438499 -0.71395338 2.9765482
-0.74696207 -0.93494213 2.8787971
-1.1603193 -1.458389 3.4826391
-1.0707722 -1.3496792 2.6029699
-1.0297538 -1.3007487 2.0629098
-0.35592237 -0.36207622 8.6200228
-0.61905211 -0.67888069 8.5259399
-0.60814673 -0.74924988 3.7528749
-0.65586036 -0.81571329 2.9005444
-1.2178109 -1.5230081 4.095849
-1.1243097 -1.4105859 3.0207007
-1.0518144 -1.3229222 2.3127234
-1.0144486 -1.2781935 1.8473235
-1.0092245 -1.280295 1.6818293
-0.96027434 -1.2194982 1.3339603
-0.94752342 -1.2045867 1.0894222
-0.91522402 -1.1643504 0.86179274
-0.90542024 -1.152694 0.6805293
-0.88581377 -1.1285321 0.51163971
-0.87311822 -1.1131496 0.36006674
-0.85699272 -1.0933647 0.21766382
-0.99787217 -1.2622575 1.5142586
-0.94852418 -1.2011148 1.1979553
-0.93310976 -1.1824327 0.97074991
-0.91384119 -1.159252 0.76984292
-0.90035933 -1.1429582 0.59554029
-0.88098913 -1.1191604 0.43424204
-0.86044806 -1.0934511 0.28627905
-0.8583467 -1.0915521 0.149691
-0.078164615 -0.041298911 8.7089415
-0.85743904 -1.0301304 8.5206442
-1.1127959 -1.3542622 8.4504232
-0.5768736 -0.71194404 2.9765482
-0.75022113 -0.93232906 2.8787971
-1.159412 -1.4468545 3.4650826
-1.0719633 -1.3415366 2.5947039
-1.0282927 -1.289628 2.0513971
-0.35718408 -0.36083162 8.6200228
-0.62141806 -0.67671573 8.5259399
-0.60996258 -0.74614948 3.7480354
-0.65870368 -0.81341887 2.9005444
-1.2162921 -1.5102711 4.0733433
-1.1210628 -1.3964845 2.9993713
-1.0507751 -1.3121867 2.3007534
-1.0167872 -1.2719965 1.8436482
-1.0070347 -1.2683856 1.6713158
-0.95968789 -1.2100396 1.3276834
-0.94912583 -1.1979946 1.0866808
-0.91653299 -1.1576755 0.85947394
-0.90368563 -1.1422553 0.6767832
-0.88677251 -1.12167 0.51022971
-0.8739534 -1.1062407 0.35913411
-0.85771829 -1.0864578 0.21721675
-0.99529463 -1.2500038 1.504282
-0.94767874 -1.1914699 1.1920689
-0.93186677 -1.172419 0.96568352
-0.91223776 -1.1489463 0.76564676
-0.90140831 -1.1361091 0.59389675
-0.88187045 -1.1122698 0.43306974
-0.8611837 -1.08656 0.28558838
-0.85594803 -1.0807166 0.14928794
-0.078308299 -0.041025814 8.7089415
-0.86102968 -1.0271311 8.5206442
-1.1175164 -1.3503696 8.4504232
-0.57935524 -0.70992607 2.9765482
-0.75347096 -0.92970455 2.8787971
-1.1584382 -1.435344 3.4475265
-1.0731108 -1.3334024 2.5864379
-1.0287739 -1.2810329 2.0437222
-0.35844147 -0.3595826 8.6200228
-0.62413883 -0.67493337 8.5309114
-0.61256337 -0.74401575 3.7480354
-0.66153902 -0.81111467 2.9005444
-1.2133276 -1.4958725 4.0463357
-1.1193711 -1.3844509 2.9823074
-1.0496737 -1.3014749 2.2887833
-1.0190949 -1.2657989 1.8399732
-1.0047739 -1.2565072 1.6608021
-0.95904702 -1.2006003 1.3214065
-0.94808555 -1.1881375 1.0811977
-0.91504478 -1.1475424 0.85483634
-0.90477824 -1.1354682 0.67491019
-0.88470602 -1.1110624 0.50740957
-0.87475091 -1.0993396 0.3582015
-0.85530663 -1.0756614 0.21632259
-0.99264383 -1.2377839 1.4943056
-0.94677734 -1.1818455 1.1861825
-0.9305653 -1.1624285 0.96061713
-0.9134081 -1.1422105 0.76354873
-0.89947265 -1.1255779 0.59060973
-0.87968147 -1.1015884 0.4307251
-0.85879225 -1.075807 0.28420702
-0.85659969 -1.0738167 0.14908642
-0.078410834 -0.040735245 8.7039413
-0.86511123 -1.0247128 8.5255833
-1.1228753 -1.3472425 8.4553185
-0.58182979 -0.70789939 2.9765482
-0.75794727 -0.92858219 2.8833997
-1.1573983 -1.4238582 3.4299703
-1.0759866 -1.3274623 2.5823052
-1.0312234 -1.2749418 2.0398846
-0.35989967 -0.35853228 8.6250143
-0.62649101 -0.67275059 8.5309114
-0.61515677 -0.74187303 3.7480354
-0.66436636 -0.80880052 2.9005444
-1.2102777 -1.4815133 4.0193286
-1.1176091 -1.3724462 2.9652438
-1.0504104 -1.2931253 2.2808034
-1.0192366 -1.2569677 1.8326229
-1.0024427 -1.2446601 1.6502886
-0.95835209 -1.1911801 1.3151296
-0.94698811 -1.1783025 1.0757148
-0.91627097 -1.1408875 0.8525176
-0.90293282 -1.1250721 0.6711641
-0.88557774 -1.1042252 0.50599957
-0.87551105 -1.0924462 0.35726887
-0.85594314 -1.0687823 0.21587551
-0.98991984 -1.2255977 1.484329
-0.94328237 -1.1690965 1.177353
-0.9292056 -1.1524615 0.95555079
-0.91169584 -1.1319461 0.75935262
-0.90043533 -1.1187526 0.58896625
-0.88047504 -1.0947235 0.42955279
-0.85943931 -1.0689434 0.28351635
-0.85721362 -1.0669254 0.14888488
-0.078552552 -0.040461294 8.7039413
-0.86868286 -1.0216868 8.5255833
-1.1275712 -1.3433146 8.4553185
-0.5842973 -0.70586413 2.9765482
-0.76242477 -0.92743975 2.8880022
-1.1562924 -1.4123971 3.4124138
-1.0770545 -1.3193389 2.5740392
-1.0316185 -1.2663646 2.0322096
-0.36114895 -0.35727382 8.6250143
-0.6288355 -0.67055964 8.5309114
-0.61774266 -0.73972118 3.7480354
-0.66718549 -0.80647647 2.9005444
-1.2071424 -1.4671937 3.9923213
-1.1157771 -1.3604708 2.94818
-1.0491934 -1.2824544 2.2688332
-1.0193291 -1.2481508 1.8252726
-1.0022879 -1.2356143 1.6432794
-0.95515257 -1.1787555 1.3057142
-0.94320273 -1.1652396 1.0674905
-0.91746187 -1.1342381 0.85019881
-0.90394014 -1.1183081 0.66929108
-0.88339812 -1.0936638 0.50317949
-0.87314826 -1.0817387 0.35540363
-0.85341555 -1.0580356 0.21498135
-0.98712301 -1.2134458 1.4743526
-0.94225913 -1.1595231 1.1714667
-0.92778766 -1.1425183 0.95048445
-0.90992296 -1.1217074 0.75515652
-0.90136135 -1.1119344 0.58732271
-0.88123143 -1.0878665 0.42838046
-0.85693246 -1.0582399 0.28213498
-0.85779005 -1.060043 0.14868335
-0.078693308 -0.040186845 8.7039413
-0.87224394 -1.0186483 8.5255833
-1.132911 -1.3401481 8.4602137
-0.58675766 -0.70382023 2.9765482
-0.76690358 -0.92627746 2.8926048
-1.1551206 -1.4009613 3.3948576
-1.0762913 -1.3090504 2.5616403
-1.0319664 -1.2578002 2.0245347
-0.36260051 -0.35621262 8.6300068
-0.63117236 -0.66836047 8.5309114
-0.62113029 -0.73852217 3.7528749
-0.66999662 -0.80414271 2.9005444
-1.2039217 -1.452914 3.9653139
-1.1155363 -1.3505356 2.9353821
-1.0479147 -1.271808 2.2568631
-1.0193723 -1.2393486 1.8179222
-1.002082 -1.2265848 1.6362704
-0.95433915 -1.1693833 1.2994373
-0.93933767 -1.1522175 1.0592661
-0.91581953 -1.1241599 0.84556121
-0.90198451 -1.1079557 0.66554505
-0.88418305 -1.0868524 0.50176948
-0.87382019 -1.0748726 0.35447103
-0.85396355 -1.0511849 0.21453427
-0.9818871 -1.1984403 1.4610506
-0.94118065 -1.1499712 1.1655804
-0.92631179 -1.1325991 0.94541812
-0.91096133 -1.1150099 0.75305843
-0.89926428 -1.1014657 0.58403569
-0.88195062 -1.0810176 0.42720816
-0.85749137 -1.0514047 0.28144431
-0.85832876 -1.0531696 0.14848182
-0.078833103 -0.039911911 8.7039413
-0.87579435 -1.0155973 8.5255833
-1.1375821 -1.3361853 8.4602137
-0.59017098 -0.70291072 2.9813201
-0.77138358 -0.92509508 2.8972073
-1.152353 -1.3877083 3.3729122
-1.0772644 -1.3009509 2.5533745
-1.0302253 -1.246778 2.0130222
-0.36384171 -0.35494474 8.6300068
-0.63350153 -0.66615325 8.5309114
-0.62370443 -0.73634952 3.7528749
-0.67390889 -0.80312067 2.905237
-1.2006165 -1.4386749 3.9383068
-1.1135716 -1.338614 2.9183185
-1.0484992 -1.2635049 2.2488832
-1.0172038 -1.2279509 1.8068967
-1.0018255 -1.2175719 1.6292613
-0.95347196 -1.1600312 1.2931604
-0.93539339 -1.1392368 1.0510417
-0.91692811 -1.1175318 0.84324241
-0.90290707 -1.1012155 0.66367197
-0.88189077 -1.0763383 0.49894941
-0.8713429 -1.0642143 0.35260579
-0.85447407 -1.0443434 0.21408717
-0.98131138 -1.1892457 1.4543995
-0.94004697 -1.1404411 1.1596941
-0.92477793 -1.1227043 0.94035172
-0.90908039 -1.1048142 0.74886233
-0.90010446 -1.0946726 0.58239222
-0.87954706 -1.0704216 0.42486352
-0.85801303 -1.0445786 0.28075361
-0.85882998 -1.0463053 0.14828028
-0.078971945 -0.039636489 8.7039413
-0.87933409 -1.0125341 8.5255833
-1.1429021 -1.3329791 8.4651089
-0.59262097 -0.70084637 2.9813201
-0.77460808 -0.92239684 2.8972073
-1.1495072 -1.374492 3.3509667
-1.0745895 -1.2885386 2.5368426
-1.0304703 -1.238247 2.0053473
-0.36507848 -0.35367253 8.6300068
-0.63582301 -0.66393781 8.5309114
-0.62545502 -0.73321176 3.7480354
-0.67782235 -0.80208141 2.9099298
-1.1958257 -1.4228106 3.9067984
-1.1098624 -1.3247236 2.8969886
-1.0490384 -1.2552133 2.2409031
-1.0149684 -1.2165835 1.7958713
-1.0015184 -1.2085757 1.6222522
-0.95255125 -1.1506994 1.2868835
-0.93403488 -1.1295202 1.0455588
-0.91517967 -1.107495 0.83860481
-0.90084165 -1.0909079 0.65992594
-0.8825894 -1.0695534 0.49753937
-0.87192708 -1.0573765 0.35167316
-0.8517803 -1.0336678 0.21319301
-0.97829717 -1.1771986 1.4444231
-0.94144028 -1.1340429 1.1567509
-0.92593879 -1.1161517 0.93781859
-0.91003531 -1.0981396 0.7467643
-0.89789617 -1.0842501 0.5791052
-0.88017929 -1.0636003 0.42369121
-0.8584975 -1.0377614 0.28006294
-0.85929382 -1.0394505 0.14807875
-0.079109818 -0.039360583 8.7039413
-0.8823514 -1.0088738 8.5206442
-1.1475482 -1.3289815 8.4651089
-0.59603184 -0.69990975 2.9860923
-0.77908492 -0.92117894 2.9018097
-1.146583 -1.3613126 3.3290212
-1.0736508 -1.2783154 2.5244439
-1.0286092 -1.2272731 1.9938346
-0.36610207 -0.35219657 8.6250143
-0.63813668 -0.66171432 8.5309114
-0.62801057 -0.73102403 3.7480354
-0.68173665 -0.80102432 2.9146225
-1.1923455 -1.4086585 3.879791
-1.1077518 -1.3128686 2.879925
-1.0514729 -1.2492385 2.236913
-1.014847 -1.2078422 1.7885209
-1.0011604 -1.1995964 1.615243
-0.95157707 -1.1413883 1.2806066
-0.93261981 -1.1198268 1.0400758
-0.91620618 -1.1008886 0.83628595
-0.90167981 -1.0841924 0.65805292
-0.88325125 -1.0627768 0.49612933
-0.86933589 -1.0467685 0.34980792
-0.85220295 -1.0268562 0.21274593
-0.97760731 -1.1680502 1.437772
-0.94020754 -1.124548 1.1508646
-0.92706531 -1.1096047 0.93528539
-0.91095477 -1.091472 0.74466628
-0.89865077 -1.0774827 0.57746166
-0.88077462 -1.0567876 0.42251888
-0.85894477 -1.0309538 0.27937225
-0.85972035 -1.0326053 0.14787722
-0.079287276 -0.039100327 8.7089415
-0.88586771 -1.0057876 8.5206442
-1.1521802 -1.3249677 8.4651089
-0.59847134 -0.69782495 2.9860923
-0.7822957 -0.91845381 2.9018097
-1.1420317 -1.3463441 3.3026869
-1.0708365 -1.2659664 2.5079119
-1.0266842 -1.2163275 1.9823222
-0.36732927 -0.35091648 8.6250143
-0.64044261 -0.65948278 8.5309114
-0.62973583 -0.72787708 3.743196
-0.68677503 -0.80125993 2.9240079
-1.1887811 -1.3945482 3.8527834
-1.1038833 -1.2990575 2.8585954
-1.0519301 -1.2409637 2.2289329
-1.0124868 -1.1965287 1.7774954
-1.0007522 -1.1906347 1.6082339
-0.95054948 -1.1320981 1.2743297
-0.93114865 -1.1101573 1.0345929
-0.91435206 -1.0908939 0.83164835
-0.8995052 -1.0739305 0.65430683
-0.88387662 -1.0560087 0.4947193
-0.86983287 -1.0399597 0.34887531
-0.85258842 -1.0200541 0.21229887
-0.97686571 -1.1589211 1.4311211
-0.94152373 -1.1181673 1.1479214
-0.92538178 -1.0997651 0.93021905
-0.90891844 -1.0813372 0.74047017
-0.89633197 -1.0671077 0.57417464
-0.8782081 -1.0462608 0.42017427
-0.85935515 -1.0241557 0.27868158
-0.86010963 -1.0257697 0.14767569
-0.079423279 -0.038823321 8.7089415
-0.88937312 -1.0026892 8.5206442
-1.1567981 -1.3209379 8.4651089
-0.60187948 -0.69686103 2.990864
-0.78422469 -0.91423476 2.8972073
-1.1389456 -1.333245 3.2807415
-1.0661244 -1.2515106 2.4872472
-1.0246954 -1.2054104 1.9708096
-0.36855194 -0.34963211 8.6250143
-0.64274073 -0.65724319 8.5309114
-0.63227278 -0.72567445 3.743196
-0.69182342 -0.80146998 2.9333935
-1.1865512 -1.3821321 3.8302777
-1.0999317 -1.2852894 2.8372657
-1.0562555 -1.2372841 2.2289329
-1.0122594 -1.1878269 1.7701451
-1.0002939 -1.1816905 1.6012248
-0.94946879 -1.1228291 1.2680528
-0.93231982 -1.103706 1.0318514
-0.91529691 -1.0843107 0.82932955
-0.90025926 -1.0672406 0.65243381
-0.88446569 -1.0492493 0.49330926
-0.87029296 -1.0331602 0.34794268
-0.85293686 -1.013262 0.21185179
-0.97607219 -1.1498114 1.4244701
-0.94280672 -1.1117913 1.1449783
-0.92642802 -1.0932395 0.92768586
-0.90975511 -1.074694 0.73837209
-0.89700145 -1.0603672 0.5725311
-0.87871689 -1.039477 0.41900194
-0.85972852 -1.0173674 0.27799088
-0.86046171 -1.0189443 0.14747415
-0.079558313 -0.038545847 8.7089415
-0.8928678 -0.99957865 8.5206442
-1.1614021 -1.3168918 8.4651089
-0.60430831 -0.69475585 2.990864
-0.78996587 -0.91444814 2.9064121
-1.1357821 -1.3201839 3.2587962
-1.0631568 -1.239239 2.4707155
-1.022643 -1.1945218 1.9592969
-0.36955935 -0.34814623 8.6200228
-0.64503103 -0.65499562 8.5309114
-0.6381191 -0.72724146 3.7625537
-0.69574928 -0.80035245 2.9380865
-1.1828251 -1.3681016 3.8032703
-1.0976006 -1.2735401 2.8202019
-1.0507452 -1.2221656 2.2089827
-1.0119834 -1.1791412 1.7627947
-0.99978507 -1.1727638 1.5942158
-0.95085865 -1.1165447 1.2649143
-0.93074775 -1.0940752 1.0263685
-0.91333789 -1.0743592 0.82469195
-0.89797604 -1.0570256 0.64868772
-0.88501817 -1.0424985 0.49189925
-0.87071621 -1.0263702 0.34701008
-0.85324824 -1.0064799 0.21140471
-0.97522712 -1.1407216 1.417819
-0.94405693 -1.10542 1.1420351
-0.92464161 -1.0834411 0.92261952
-0.91055644 -1.0680581 0.73627406
-0.89763504 -1.0536351 0.57088763
-0.87918907 -1.0327023 0.41782963
-0.86006504 -1.0105889 0.27730021
-0.86077654 -1.0121287 0.14727263
-0.079692371 -0.038267899 8.7089415
-0.89635152 -0.99645591 8.5206442
-1.1659918 -1.3128297 8.4651089
-0.60771364 -0.69376481 2.9956362
-0.80726045 -0.92789662 2.9570401
-1.1325414 -1.3071612 3.2368507
-1.0582768 -1.224874 2.4500508
-1.0205271 -1.1836625 1.9477845
-0.37077236 -0.34685415 8.6200228
-0.64768928 -0.65311813 8.5358829
-0.64481652 -0.72971797 3.7867508
-0.70081264 -0.80051541 2.9474719
-1.181875 -1.3573974 3.7852654
-1.0952008 -1.2618231 2.8031383
-1.0451424 -1.2071007 2.1890328
-1.0116593 -1.1704719 1.7554444
-0.99922633 -1.1638553 1.5872066
-0.94968218 -1.1073098 1.2586373
-0.93184054 -1.0876445 1.023627
-0.91132045 -1.0644346 0.82005435
-0.89864641 -1.050362 0.6468147
-0.88553441 -1.0357568 0.49048921
-0.86791182 -1.0158551 0.34514484
-0.85352278 -0.999708 0.21095763
-0.97433043 -1.1316515 1.411168
-0.94263816 -1.095989 1.1361488
-0.92279798 -1.0736686 0.91755313
-0.91132253 -1.0614299 0.73417598
-0.89823252 -1.0469117 0.56924409
-0.87962478 -1.0259372 0.4166573
-0.85714203 -1.0000607 0.27591884
-0.86105448 -1.0053235 0.14707109
-0.079825468 -0.03798949 8.7089415
-0.89982432 -0.99332094 8.5206442
-1.1705673 -1.3087516 8.4651089
-0.61111927 -0.69275844 3.0004079
-0.81564498 -0.93095028 2.97545
-1.1307985 -1.295982 3.2192943
-1.0533097 -1.2105585 2.4293861
-1.0204495 -1.1752528 1.9401096
-0.37219301 -0.34575355 8.6250143
-0.65034229 -0.65123004 8.5408554
-0.65153903 -0.73215675 3.8109479
-0.70474404 -0.79935837 2.9521646
-1.1808646 -1.3467169 3.7672606
-1.0927327 -1.2501384 2.7860744
-1.0394474 -1.19209 2.1690826
-1.0112869 -1.1618193 1.7480941
-1.0009503 -1.1576627 1.5837022
-0.94845301 -1.098097 1.2523605
-0.93016803 -1.0780534 1.018144
-0.91213769 -1.0578922 0.81773555
-0.8992812 -1.0437067 0.64494163
-0.88288438 -1.0253891 0.48766914
-0.86824852 -1.0090955 0.34421217
-0.85376042 -0.99294651 0.21051055
-0.9709363 -1.1197808 1.4011915
-0.9438116 -1.0896367 1.1332057
-0.92089748 -1.0639223 0.91248679
-0.91205353 -1.0548092 0.73207796
-0.89570653 -1.0366237 0.56595707
-0.87684721 -1.0155027 0.41431266
-0.85739189 -0.99331391 0.27522817
-0.86129528 -0.99852872 0.14686957
-0.07995759 -0.037710615 8.7089415
-0.90328622 -0.99017394 8.5206442
-1.1751286 -1.3046576 8.4651089
-0.61353374 -0.69062102 3.0004079
-1.1305724 -1.2866299 3.2061269
-1.0501101 -1.1984091 2.4128542
-1.0182158 -1.1644453 1.928597
-0.37339765 -0.34445226 8.6250143
-0.65298998 -0.64933133 8.5458269
-0.66835576 -0.74578774 3.8932183
-0.70867598 -0.79818374 2.9568574
-1.179794 -1.3360599 3.7492557
-1.0919197 -1.2404439 2.7732766
-1.0296838 -1.1726059 2.1411526
-1.0131015 -1.155733 1.7444189
-1.0003012 -1.1487828 1.5766931
-0.94717109 -1.0889062 1.2460835
-0.92844009 -1.0684875 1.0126611
-0.9129203 -1.051357 0.81541675
-0.89988059 -1.0370598 0.64306861
-0.88331562 -1.0186768 0.4862591
-0.86854875 -1.0023463 0.34327957
-0.85396129 -0.98619556 0.21006347
-0.96992725 -1.1107601 1.3945405
-0.94229525 -1.0802438 1.1273193
-0.91894031 -1.0542024 0.90742046
-0.90976888 -1.0447737 0.72788185
-0.89621973 -1.0299286 0.56431359
-0.87719715 -1.0087678 0.41314036
-0.85760516 -0.98657769 0.2745375
-0.86149925 -0.99174452 0.14666803
-0.080088742 -0.037431281 8.7089415
-0.90673703 -0.98701483 8.5206442
-1.1796756 -1.3005477 8.4651089
-0.61693633 -0.68958747 3.0051801
-0.9129737 -1.0274516 3.297627
-1.1287075 -1.2755017 3.1885707
-1.0449767 -1.1841869 2.3921895
-1.015919 -1.1536678 1.9170846
-0.37481126 -0.34334105 8.6300068
-0.65563238 -0.64742213 8.5507984
-0.69201452 -0.76677358 4.0142035
-0.71145785 -0.7957052 2.9568574
-1.1786635 -1.3254269 3.731251
-1.0893222 -1.2288189 2.7562129
-1.0317744 -1.1667473 2.1371624
-1.0126419 -1.1471066 1.7370685
-0.99725091 -1.1372403 1.5661794
-0.94840139 -1.0826657 1.2429451
-0.92665666 -1.0589468 1.0071782
-0.91075248 -1.0414948 0.81077915
-0.89739382 -1.0269307 0.63932252
-0.88371068 -1.011974 0.4848491
-0.86881244 -0.9956072 0.34234694
-0.8541255 -0.97945541 0.20961639
-0.96886712 -1.1017601 1.3878895
-0.94072479 -1.0708747 1.121433
-0.9197706 -1.0477488 0.9048872
-0.91041785 -1.0381794 0.72578382
-0.8966971 -1.0232426 0.56267005
-0.87430853 -0.99838638 0.41079572
-0.85452002 -0.97612607 0.27315614
-0.86166638 -0.98497111 0.14646651
-0.080218911 -0.037151493 8.7089415
-0.91017681 -0.98384368 8.5206442
-1.184208 -1.296422 8.4651089
-0.61933964 -0.68742973 3.0051801
-1.1283724 -1.2661904 3.1754036
-1.0509733 -1.1826354 2.3963223
-1.0135595 -1.1429205 1.9055719
-0.37600744 -0.34203064 8.6300068
-0.65788829 -0.64512962 8.5507984
-0.71582752 -0.78760302 4.1351891
-0.71538597 -0.79449904 2.96155
-1.1789258 -1.3164399 3.7177474
-1.0883942 -1.2191727 2.7434151
-1.0338366 -1.1608883 2.1331723
-1.0121349 -1.1384977 1.7297182
-0.99413228 -1.1257334 1.5556659
-0.94702476 -1.0735109 1.2366682
-0.9248181 -1.0494317 1.0016953
-0.91145468 -1.0349851 0.80846035
-0.8979103 -1.0203118 0.6374495
-0.8840698 -1.0052809 0.48343906
-0.86903977 -0.98887861 0.34141433
-0.85425311 -0.97272617 0.20916931
-0.96775603 -1.0927812 1.3812386
-0.9391005 -1.06153 1.1155467
-0.91771168 -1.0380726 0.89982086
-0.90802753 -1.0281917 0.72158772
-0.894014 -1.0130252 0.55938309
-0.87457323 -0.99168301 0.40962341
-0.85464722 -0.9694227 0.27246544
-0.86179674 -0.97820866 0.14626497
-0.080348104 -0.036871251 8.7089415
-0.91307569 -0.98009223 8.5157051
-1.1887262 -1.2922804 8.4651089
-0.62173545 -0.68526363 3.0051801
-1.1263864 -1.2551144 3.1578474
-1.0513417 -1.1747661 2.3880565
-1.0132725 -1.1345944 1.897897
-0.37719908 -0.34071603 8.6300068
-0.66051853 -0.64320064 8.5557699
-0.74149203 -0.81012928 4.2658539
-0.71815491 -0.79199708 2.96155
-1.1776814 -1.3058505 3.6997426
-1.0804368 -1.2017905 2.7135537
-1.0378827 -1.1572726 2.1331723
-1.01158 -1.1299064 1.7223679
-0.99094564 -1.114262 1.5451521
-0.94818103 -1.067289 1.2335297
-0.92292446 -1.0399425 0.99621236
-0.91212255 -1.0284829 0.80614156
-0.89839149 -1.0137019 0.63557649
-0.88121253 -0.9950065 0.48061898
-0.86923069 -0.98216057 0.3404817
-0.85434419 -0.96600801 0.20872223
-0.9665941 -1.0838234 1.3745875
-0.93742239 -1.0522095 1.1096603
-0.91846305 -1.0316433 0.89728767
-0.90859485 -1.0216244 0.71948963
-0.89440769 -1.0063688 0.55773956
-0.87480164 -0.98498988 0.40845108
-0.85473818 -0.96273041 0.27177477
-0.86189049 -0.97145736 0.14606345
-0.080476321 -0.036590558 8.7089415
-0.91649133 -0.97689909 8.5157051
-1.1932298 -1.2881231 8.4651089
-0.62412369 -0.6830892 3.0051801
-1.1243367 -1.2440681 3.140291
-1.0535519 -1.1689987 2.3839235
-1.0129398 -1.1262844 1.890222
-0.37838608 -0.33939728 8.6300068
-0.66314328 -0.64126116 8.5607405
-0.75965327 -0.82416928 4.3529634
-0.72091514 -0.78948545 2.96155
-1.1763778 -1.2952859 3.6817374
-1.0758727 -1.1883454 2.6922238
-1.0398962 -1.1514065 2.1291823
-1.0109775 -1.1213328 1.7150176
-0.9900704 -1.1054832 1.538143
-0.95190078 -1.0639727 1.2335297
-0.92097592 -1.0304792 0.99072945
-0.9127562 -1.021989 0.80382276
-0.89883763 -1.0071012 0.63370347
-0.88148731 -0.98834443 0.47920895
-0.86938536 -0.97545332 0.33954909
-0.85439879 -0.95930099 0.20827515
-0.96538138 -1.0748873 1.3679365
-0.93569082 -1.0429139 1.103774
-0.91630304 -1.0220118 0.89222133
-0.90609944 -1.0116853 0.71529353
-0.89476579 -0.99972194 0.55609608
-0.87499422 -0.97830737 0.40727875
-0.85479283 -0.9560492 0.2710841
-0.86194754 -0.96471733 0.14586191
-0.080603555 -0.036309421 8.7089415
-0.91989571 -0.97369403 8.5157051
-1.1984136 -1.2846944 8.4700031
-0.62650424 -0.68090647 3.0051801
-1.2528033 -1.3707777 4.4344501
-1.1222237 -1.2330512 3.1227345
-1.0557346 -1.1632303 2.3797905
-1.0125617 -1.1179905 1.882547
-0.37956852 -0.33807439 8.6300068
-0.66537768 -0.63894242 8.5607405
-0.76851279 -0.82796013 4.3868394
-0.72366655 -0.78696412 2.96155
-1.1750146 -1.2847465 3.6637325
-1.064199 -1.1672385 2.6538305
-1.0398539 -1.1433115 2.1212022
-1.0103276 -1.1127774 1.7076672
-0.98675734 -1.0940759 1.5276293
-0.95300353 -1.0577518 1.2303913
-0.92176992 -1.0241501 0.987988
-0.91335565 -1.015503 0.80150396
-0.89614952 -0.99706179 0.62995738
-0.88172638 -0.98169267 0.47779894
-0.8695038 -0.96875691 0.33861646
-0.85774219 -0.95631284 0.20827515
-0.9641183 -1.0659728 1.3612856
-0.93390584 -1.0336432 1.0978878
-0.91697598 -1.0156075 0.88968813
-0.90658551 -1.005146 0.7131955
-0.89508849 -0.99308497 0.55445254
-0.8751508 -0.97163546 0.40610644
-0.85149765 -0.94569945 0.26970273
-0.86196816 -0.95798886 0.14566039
-0.080729812 -0.036027841 8.7089415
-0.92382473 -0.97103971 8.5206442
-1.2028906 -1.2805034 8.4700031
-0.62887728 -0.67871541 3.0051801
-1.2496418 -1.357772 4.4068351
-1.1184294 -1.220299 3.1007893
-1.0559915 -1.1553841 2.3715248
-1.0121379 -1.1097132 1.874872
-0.3807463 -0.33674741 8.6300068
-0.66799015 -0.63698334 8.565712
-0.77998352 -0.8344534 4.4352341
-0.72523642 -0.7831673 2.9568574
-1.1735923 -1.2742326 3.6457279
-1.0665029 -1.1615955 2.6495645
-1.0397677 -1.1352309 2.1132224
-1.0096302 -1.1042401 1.7003169
-0.98577476 -1.0853453 1.5206202
-0.95145887 -1.0486537 1.2241144
-0.91972286 -1.0147302 0.98250502
-0.913921 -1.0090255 0.79918516
-0.89651334 -0.9904905 0.62808436
-0.88192987 -0.97505122 0.4763889
-0.86958617 -0.96207172 0.33768386
-0.85773706 -0.94961727 0.20782807
-0.96280468 -1.0570803 1.3546345
-0.93206763 -1.0243979 1.0920014
-0.91761541 -1.0092111 0.887155
-0.90703708 -0.99861586 0.71109742
-0.89537573 -0.98645794 0.55280906
-0.8752715 -0.96497446 0.40493411
-0.85146719 -0.93905282 0.26901206
-0.86195236 -0.95127195 0.14545885
-0.080855079 -0.035745818 8.7089415
-0.92774636 -0.96836996 8.5255833
-1.2073531 -1.2762966 8.4700031
-0.63124257 -0.67651606 3.0051801
-1.2437485 -1.3419396 4.3700151
-1.1161842 -1.2093483 3.0832329
-1.0562063 -1.1475501 2.3632588
-1.0138371 -1.1038131 1.8710346
-0.38191944 -0.33541629 8.6300068
-0.67059714 -0.63501382 8.5706835
-0.79237056 -0.84179157 4.4884672
-0.72796583 -0.78063095 2.9568574
-1.1706307 -1.2621483 3.6232216
-1.0705512 -1.1578656 2.6495645
-1.0396379 -1.1271647 2.1052423
-1.0088856 -1.0957214 1.6929666
-0.98474324 -1.0766348 1.5136112
-0.95248789 -1.0424528 1.2209759
-0.92044032 -1.0084252 0.97976357
-0.91445231 -1.0025563 0.79686636
-0.89684236 -0.98392892 0.62621135
-0.88209766 -0.96842039 0.47497886
-0.86963254 -0.95539784 0.33675122
-0.8576957 -0.94293356 0.207381
-0.96144086 -1.04821 1.3479836
-0.93017626 -1.0151778 1.0861151
-0.91531014 -0.99964321 0.8820886
-0.90439075 -0.98874593 0.70690131
-0.89562768 -0.97984099 0.55116552
-0.87535632 -0.95832461 0.4037618
-0.85140067 -0.93241805 0.26832137
-0.86190015 -0.94456702 0.14525732
-0.081020594 -0.035477638 8.7139416
-0.93166059 -0.96568471 8.5305223
-1.2118009 -1.2720745 8.4700031
-0.63462263 -0.67539608 3.0099521
-1.2390933 -1.3275932 4.3377976
-1.1122457 -1.1966739 3.0612874
-1.0563797 -1.1397288 2.3549929
-1.0155073 -1.0979143 1.867197
-0.38286972 -0.33389211 8.6250143
-0.6731984 -0.63303381 8.575655
-0.80308855 -0.84722936 4.5320225
-0.7295047 -0.77682739 2.9521646
-1.167599 -1.2501003 3.6007156
-1.0728091 -1.1522132 2.6452987
-1.0374137 -1.1169057 2.093272
-1.0057888 -1.0847354 1.681941
-0.98366296 -1.0679449 1.506602
-0.95084977 -1.0333933 1.214699
-0.9182952 -0.99904931 0.97428066
-0.91494954 -0.9960959 0.79454756
-0.89713645 -0.97737712 0.62433827
-0.88223004 -0.9618004 0.47356883
-0.86964291 -0.9487353 0.33581862
-0.85761809 -0.93626165 0.20693392
-0.96002686 -1.0393622 1.3413326
-0.92823207 -1.0059837 1.0802288
-0.91587174 -0.99327308 0.87955546
-0.90476167 -0.98224497 0.70480323
-0.89264619 -0.96976024 0.5478785
-0.87540561 -0.95168591 0.40258947
-0.85129839 -0.92579532 0.2676307
-0.86519206 -0.94155264 0.14525732
-0.081143938 -0.035194606 8.7139416
-0.93502575 -0.96242672 8.5305223
-1.2162338 -1.2678368 8.4700031
-0.6369763 -0.67317671 3.0099521
-1.2356911 -1.3147191 4.3101821
-1.1098691 -1.1857904 3.0437312
-1.0545909 -1.1298633 2.3425941
-1.0149641 -1.0896723 1.859522
-0.38403291 -0.33255357 8.6250143
-0.67579406 -0.63104337 8.5806274
-0.8398968 -0.87987369 4.7207594
-0.73102611 -0.77302271 2.9474719
-1.165989 -1.2396744 3.582711
-1.0750406 -1.1465589 2.6410327
-1.0351307 -1.1066761 2.0813022
-1.0026277 -1.0737847 1.6709156
-0.98253417 -1.0592756 1.499593
-0.94651431 -1.0215027 1.2052836
-0.91893643 -0.99276918 0.97153914
-0.91240489 -0.98639238 0.78990996
-0.8942489 -0.96743101 0.62059224
-0.8823269 -0.95519108 0.47215876
-0.86961734 -0.94208443 0.33488598
-0.85750443 -0.92960185 0.20648684
-0.95856291 -1.0305372 1.3346816
-0.9262349 -0.99681556 1.0743425
-0.91346663 -0.98375231 0.87448907
