# .PCD v0.7 - Point Cloud Data file format
VERSION 0.7
FIELDS x y z
SIZE 4 4 4
TYPE F F F
COUNT 1 1 1
WIDTH 1413
HEIGHT 1
VIEWPOINT 0 0 0 1 0 0 0
POINTS 1413
DATA ascii
-0.87358648 -0.6744768 0.41434744
-0.87072265 -0.67274457 0.30037907
-0.8508144 -0.65782791 0.18949783
-0.94216061 -0.72223312 1.138477
-0.90954453 -0.69797653 0.91835493
-0.90403718 -0.6942423 0.75542969
-0.89682603 -0.6894421 0.6103909
-0.88374114 -0.6798647 0.4772076
-0.8667044 -0.66723084 0.35452449
-0.84343988 -0.64954919 0.24069417
-0.84662741 -0.65246511 0.13679302
-0.085907251 -0.02086268 8.7089415
-1.0864531 -0.79014629 8.5404015
-1.4151042 -1.0429257 8.4748983
-1.3078401 -0.9775787 5.2671008
-1.0590234 -0.79735219 3.1825638
-1.0586097 -0.80047822 2.4994855
-1.0162505 -0.77065724 1.9458311
-0.97890979 -0.74393809 1.5486841
-0.43528056 -0.26248312 8.6300068
-0.77512705 -0.5079751 8.6005125
-1.4420784 -1.0681683 6.9468951
-0.90997779 -0.6807211 3.1445682
-1.095541 -0.82421565 2.8985264
-1.0359231 -0.78189069 2.1931098
-1.0089433 -0.76344115 1.7501302
-0.95732409 -0.72568291 1.3805776
-0.94721276 -0.72296762 1.2507702
-0.91481018 -0.69898415 1.0106993
-0.90843862 -0.69485688 0.83446586
-0.89813507 -0.68746376 0.67860758
-0.88760948 -0.67988926 0.54005182
-0.87212831 -0.66850507 0.4129374
-0.86916798 -0.66671133 0.29944643
-0.84915507 -0.65182167 0.18905075
-0.94170463 -0.71667892 1.1351515
-0.90876007 -0.69234788 0.91541177
-0.90302682 -0.68846893 0.75289649
-0.89561945 -0.68355405 0.60829288
-0.88610893 -0.67677569 0.4772076
-0.86902821 -0.66420144 0.35452449
-0.84176803 -0.64359325 0.24000348
-0.84493196 -0.64647001 0.13659149
-0.085979551 -0.02056268 8.7089415
-1.0892045 -0.78634906 8.5404015
-1.418736 -1.0379797 8.4748983
-1.3040515 -0.96767145 5.2384686
-1.0633651 -0.79482013 3.1871662
-1.0575665 -0.79390275 2.4907072
-1.0144379 -0.76372051 1.9375652
-0.97894192 -0.73858631 1.5448467
-0.43644232 -0.2611095 8.6349974
-0.77644843 -0.50497633 8.595542
-1.4437726 -1.061639 6.9372158
-0.91234845 -0.67754048 3.1445682
-1.0966672 -0.81908399 2.8940251
-1.0365589 -0.7767061 2.1888437
-1.0067834 -0.75629532 1.7421501
-0.95714247 -0.72029841 1.3769025
-0.94688815 -0.71750319 1.2472657
-0.91724455 -0.6957866 1.0106993
-0.90752846 -0.68915302 0.83172441
-0.90052933 -0.68432444 0.67860758
-0.88628709 -0.67398077 0.5381788
-0.87063897 -0.66255176 0.4115274
-0.86758184 -0.66069728 0.29851383
-0.84746426 -0.6458351 0.18860367
-0.9382422 -0.70888609 1.1285006
-0.90794748 -0.68673337 0.91246861
-0.9019872 -0.68271106 0.75036329
-0.89438254 -0.6776827 0.60619479
-0.8847031 -0.67082548 0.47556409
-0.87521356 -0.66410196 0.3556968
-0.84400952 -0.64065105 0.24000348
-0.84718341 -0.64351678 0.13659149
-0.086050808 -0.020262429 8.7089415
-1.0919428 -0.78254217 8.5404015
-1.4223506 -1.0330211 8.4748983
-1.2905943 -0.95072109 5.1716604
-1.0677021 -0.7922675 3.1917689
-1.0584108 -0.78877532 2.4863181
-1.0125893 -0.75680584 1.9292994
-0.97638309 -0.73132193 1.5371716
-0.43735111 -0.25958446 8.6349974
-0.77820641 -0.50226295 8.595542
-1.4423929 -1.052888 6.9130192
-0.9160971 -0.67537552 3.1492608
-1.096022 -0.81265807 2.8850226
-1.0371711 -0.77152675 2.1845777
-1.0070014 -0.75097513 1.73816
-0.95421892 -0.71289521 1.3695521
-0.9465369 -0.71204984 1.2437612
-0.91655838 -0.69023925 1.0075608
-0.90658945 -0.68346387 0.82898289
-0.89937609 -0.67850912 0.67628878
-0.88493437 -0.66808969 0.53630573
-0.86911881 -0.65661699 0.41011736
-0.86596435 -0.65470237 0.2975812
-0.84971356 -0.64287299 0.18860367
-0.93772399 -0.7033664 1.125175
-0.91033912 -0.68355995 0.91246861
-0.90091854 -0.67696893 0.74783015
-0.89311552 -0.67182833 0.60409671
-0.88326651 -0.66489327 0.47392058
-0.8775264 -0.66104287 0.3556968
-0.84228581 -0.6347208 0.23931281
-0.84543568 -0.63754755 0.13638996
-0.086121008 -0.019961935 8.7089415
-1.0946677 -0.77872586 8.5404015
-1.4259478 -1.0280499 8.4748983
-1.2649847 -0.92506695 5.0571332
-1.0704612 -0.78853571 3.1917689
-1.0573068 -0.78222746 2.47754
-1.0107049 -0.74991345 1.9210334
-0.9763577 -0.72599691 1.5333341
-0.43825457 -0.25805622 8.6349974
-0.78040397 -0.49983034 8.6005125
-1.4460593 -1.0478468 6.9130192
-0.91984177 -0.67319262 3.1539536
-1.093592 -0.80495626 2.8715191
-1.0377599 -0.76635253 2.1803117
-1.007195 -0.74566275 1.7341701
-0.95397842 -0.70754063 1.3658769
-0.94901669 -0.70874143 1.2437612
-0.91896218 -0.68703562 1.0075608
-0.90562183 -0.67778975 0.82624143
-0.89819342 -0.67271012 0.67396998
-0.88726097 -0.66499668 0.53630573
-0.87140554 -0.65357912 0.41011736
-0.86824447 -0.65167558 0.2975812
-0.84797049 -0.63691223 0.18815659
-0.93717873 -0.69785899 1.1218495
-0.9094789 -0.67796242 0.90952545
-0.90327609 -0.67382002 0.74783015
-0.89545518 -0.66870672 0.60409671
-0.88558203 -0.66180605 0.47392058
-0.87982851 -0.65797567 0.3556968
-0.84449631 -0.63177687 0.23931281
-0.8436566 -0.63159847 0.13618843
-0.086190164 -0.019661194 8.7089415
-1.0973793 -0.77490002 8.5404015
-1.4295278 -1.0230662 8.4748983
-1.2923677 -0.93818086 5.1525726
-1.0747842 -0.7859472 3.1963713
-1.0581003 -0.77711451 2.473151
-1.0110505 -0.74471205 1.9169004
-0.97630703 -0.72068095 1.5294967
-0.43915269 -0.25652486 8.6349974
-0.78214401 -0.49710312 8.6005125
-1.4405236 -1.036188 6.8694644
-0.92218602 -0.66997766 3.1539536
-1.0928797 -0.79856575 2.8625166
-1.0362215 -0.75964183 2.1717799
-1.0073634 -0.74035805 1.7301799
-0.95371222 -0.70219642 1.3622017
-0.94861996 -0.70330065 1.2402567
-0.91822916 -0.68150407 1.0044224
-0.90462583 -0.67213076 0.82349998
-0.90053612 -0.66957074 0.67396998
-0.88585746 -0.65912813 0.53443271
-0.86983407 -0.6476686 0.40870732
-0.86657476 -0.64570582 0.29664856
-0.84619623 -0.63097155 0.18770951
-0.93660629 -0.69236398 1.1185241
-0.90859067 -0.67237931 0.9065823
-0.9021582 -0.6680975 0.74529696
-0.89413798 -0.6628741 0.60199869
-0.8840943 -0.65589732 0.47227708
-0.88211989 -0.65490049 0.3556968
-0.84272087 -0.62587261 0.23862213
-0.84184635 -0.6256696 0.13598689
-0.08625827 -0.019360214 8.7089415
-1.1000775 -0.7710647 8.5404015
-1.4330901 -1.01807 8.4748983
-1.2907902 -0.93017381 5.1334848
-1.0791023 -0.78333825 3.200974
-1.0569358 -0.77059472 2.4643729
-1.0113721 -0.73951751 1.9127675
-0.97623128 -0.71537423 1.5256591
-0.44004545 -0.25499037 8.6349974
-0.78432566 -0.49465379 8.605484
-1.430832 -1.0216597 6.8065519
-0.92591888 -0.66776371 3.1586463
-1.0903735 -0.79091185 2.8490129
-1.0367579 -0.75448561 2.1675138
-1.0075071 -0.73506129 1.7261899
-0.9534204 -0.6968627 1.3585266
-0.94532454 -0.69575745 1.2332475
-0.91746873 -0.67598599 1.0012839
-0.90696651 -0.66896892 0.82349998
-0.89930373 -0.66379261 0.67165118
-0.88815284 -0.65603191 0.53443271
-0.87208951 -0.64462835 0.40870732
-0.86487418 -0.63975573 0.29571593
-0.84439099 -0.62505102 0.18726245
-0.93600708 -0.6868816 1.1151985
-0.90767455 -0.66681075 0.90363914
-0.90101153 -0.66239107 0.74276382
-0.89644641 -0.65974891 0.60199869
-0.88257617 -0.65000707 0.47063357
-0.8804878 -0.64893365 0.35452449
-0.84490043 -0.62292719 0.23862213
-0.84402519 -0.62272722 0.13598689
-0.086325325 -0.019058999 8.7089415
-1.1027623 -0.76722002 8.5404015
-1.4366351 -1.0130613 8.4748983
-1.3037426 -0.9326089 5.1716604
-1.0834152 -0.78070867 3.2055764
-1.0576789 -0.76549655 2.4599836
-1.0116699 -0.73432982 1.9086344
-0.97613031 -0.71007681 1.5218216
-0.44093284 -0.25345275 8.6349974
-0.78604758 -0.49191296 8.605484
-1.4210566 -1.0072117 6.743639
-0.92824417 -0.6645276 3.1586463
-1.0878273 -0.78328532 2.8355093
-1.035157 -0.74780792 2.158982
-1.0051857 -0.72800535 1.7182097
-0.95035899 -0.68954885 1.3511763
-0.94486773 -0.6903497 1.229743
-0.91668105 -0.67048162 0.99814546
-0.90592229 -0.66332877 0.82075852
-0.89804202 -0.65803128 0.66933239
-0.88669896 -0.65018648 0.53255969
-0.87046677 -0.63874239 0.40729728
-0.86314267 -0.63382542 0.29478332
-0.84255469 -0.61915082 0.18681537
-0.93538105 -0.68141174 1.111873
-0.90673077 -0.66125679 0.90069598
-0.89983606 -0.65670079 0.74023062
-0.89507914 -0.65393841 0.5999006
-0.88102758 -0.6441353 0.46899009
-0.87882483 -0.6429863 0.35335216
-0.84307355 -0.6170494 0.23793145
-0.84216332 -0.61682516 0.13578537
-0.08639133 -0.018757552 8.7089415
-1.1054337 -0.76336598 8.5404015
-1.4401625 -1.0080404 8.4748983
-1.3009042 -0.92373198 5.1478009
-1.089312 -0.77919495 3.2147813
-1.0564542 -0.75900555 2.4512055
-1.0119439 -0.7291491 1.9045017
-0.97340566 -0.70291251 1.5141466
-0.44181487 -0.25191209 8.6349974
-0.78821307 -0.48944679 8.6104555
-1.4163388 -0.99646014 6.7049236
-0.93477863 -0.66428155 3.1727247
-1.0852414 -0.7756862 2.8220057
-1.0335219 -0.74115068 2.1504502
-1.0052742 -0.72273338 1.7142198
-0.95000905 -0.68424606 1.347501
-0.94438475 -0.68495357 1.2262385
-0.9158662 -0.66499096 0.99500704
-0.90484977 -0.65770411 0.81801701
-0.89675117 -0.65228689 0.66701359
-0.88521487 -0.64435917 0.53068668
-0.86881357 -0.63287556 0.40588725
-0.86534983 -0.63080865 0.29478332
-0.84068751 -0.61327112 0.18636829
-0.93472832 -0.6759547 1.1085476
-0.90575927 -0.65571755 0.89775282
-0.90212286 -0.65355581 0.74023062
-0.8936823 -0.6481455 0.59780258
-0.87944895 -0.63828248 0.46734658
-0.87319827 -0.634202 0.35100752
-0.84522229 -0.61410278 0.23793145
-0.8443113 -0.61388171 0.13578537
-0.086456276 -0.018455874 8.7089415
-1.1074506 -0.75906354 8.5354624
-1.4436727 -1.0030071 8.4748983
-1.2967994 -0.91402656 5.1191688
-1.0936183 -0.7765187 3.219384
-1.0551971 -0.7525323 2.4424274
-1.0121938 -0.72397536 1.9003686
-0.97324806 -0.69764322 1.5103091
-0.4426915 -0.25036833 8.6349974
-0.78991675 -0.48669243 8.6104555
-1.4105325 -0.98503435 6.6613688
-0.95260501 -0.67195386 3.2243452
-1.0808402 -0.76685524 2.8040009
-1.0318531 -0.734514 2.1419184
-1.0028852 -0.71571946 1.7062398
-0.9496339 -0.6789543 1.3438259
-0.94387561 -0.67956936 1.2227339
-0.9150241 -0.65951425 0.99186856
-0.90374911 -0.65209508 0.81527555
-0.89902258 -0.64915264 0.66701359
-0.8874588 -0.64126527 0.53068668
-0.86713022 -0.62702823 0.40447721
-0.86356688 -0.62490439 0.29385069
-0.83878964 -0.60741198 0.18592121
-0.93404883 -0.67051059 1.105222
-0.90476018 -0.65019321 0.89480966
-0.90089881 -0.64788604 0.73769742
-0.89593923 -0.64502209 0.59780258
-0.87784016 -0.63244843 0.46570307
-0.87146395 -0.62830752 0.34983522
-0.84334433 -0.60825187 0.23724076
-0.84239811 -0.60800701 0.13558383
-0.086520173 -0.018153973 8.7089415
-1.1100935 -0.75519323 8.5354624
-1.4480033 -0.99853951 8.4797935
-1.293866 -0.90521657 5.0953088
-1.0979192 -0.77382183 3.2239864
-1.0539078 -0.74607712 2.4336493
-1.0124203 -0.71880883 1.8962357
-0.97045398 -0.69052547 1.502634
-0.44356278 -0.2488215 8.6349974
-0.79161078 -0.48393217 8.6104555
-1.4315261 -0.99227542 6.743639
-0.95211715 -0.66664541 3.2149594
-1.0781704 -0.75931782 2.7904971
-1.0322807 -0.7294029 2.1376524
-1.0004596 -0.70873111 1.6982597
-0.95199811 -0.67563522 1.3438259
-0.94334054 -0.67419702 1.2192293
-0.91415507 -0.65405148 0.98873013
-0.90601987 -0.64893639 0.81527555
-0.89768255 -0.64342999 0.66469479
-0.8859247 -0.63546157 0.5288136
-0.86931366 -0.62399757 0.40447721
-0.86175328 -0.61902046 0.29291809
-0.84090477 -0.60448033 0.18592121
-0.93334287 -0.66507947 1.1018965
-0.90702426 -0.64703107 0.89480966
-0.90315491 -0.64473736 0.73769742
-0.89449286 -0.63925201 0.5957045
-0.88004243 -0.62938035 0.46570307
-0.87365186 -0.62526172 0.34983522
-0.84546244 -0.60530436 0.23724076
-0.84451532 -0.60506284 0.13558383
-0.086583018 -0.017851852 8.7089415
-1.1120787 -0.75087905 8.5305223
-1.45148 -0.99347901 8.4797935
-1.2908871 -0.8964383 5.0714488
-1.1022146 -0.7711044 3.2285891
-1.0525862 -0.73964012 2.424871
-1.0103226 -0.71202868 1.8879696
-0.96762204 -0.6834358 1.494959
-0.44468138 -0.24741121 8.6399889
-0.7932952 -0.48116598 8.6104555
-1.4463732 -0.99510789 6.7968726
-0.99553746 -0.69187182 3.3510499
-1.0754614 -0.75180846 2.7769935
-1.0305498 -0.72280031 2.1291206
-1.0004623 -0.7035014 1.6942697
-0.95157909 -0.6703558 1.3401507
-0.94568825 -0.67090005 1.2192293
-0.91325903 -0.6486029 0.98559165
-0.90487152 -0.64334702 0.81253409
-0.89631355 -0.63772452 0.66237599
-0.88813746 -0.63236529 0.5288136
-0.8675797 -0.61817563 0.4030672
-0.86390883 -0.61600858 0.29291809
-0.83895594 -0.59864879 0.18547413
-0.93261033 -0.65966141 1.0985711
-0.90597844 -0.64152527 0.89186651
-0.90188265 -0.63908863 0.73516428
-0.89301705 -0.63349992 0.59360647
-0.87838346 -0.62357116 0.46405956
-0.87186646 -0.61939323 0.34866288
-0.84353364 -0.59948081 0.23655009
-0.84255087 -0.59921575 0.13538231
-0.086644806 -0.017549511 8.7089415
-1.1146929 -0.74699265 8.5305223
-1.454939 -0.9884063 8.4797935
-1.2890917 -0.8885389 5.052361
-1.1081092 -0.76948059 3.2377942
-1.0492681 -0.73185164 2.4117036
-1.0104959 -0.7068848 1.8838367
-0.96737725 -0.67821425 1.4911215
-0.44554228 -0.24585746 8.6399889
-0.79496998 -0.47839391 8.6104555
-1.4498379 -0.99005306 6.7968726
-1.0363035 -0.71484345 3.4777546
-1.0745019 -0.7455681 2.7679911
-1.0287855 -0.71621877 2.1205888
-0.99796999 -0.69655603 1.6862897
-0.95391327 -0.6670301 1.3401507
-0.94510829 -0.66554171 1.2157247
-0.91233617 -0.64316851 0.98245323
-0.90369534 -0.63777357 0.80979264
-0.89853412 -0.63459194 0.66237599
-0.88655347 -0.6265856 0.52694058
-0.8658157 -0.61237341 0.40165716
-0.86204433 -0.61015141 0.29198545
-0.84104049 -0.59571666 0.18547413
-0.93185139 -0.6542567 1.0952456
-0.90821224 -0.63835889 0.89186651
-0.90410799 -0.63593656 0.73516428
-0.8952229 -0.63037884 0.59360647
-0.8805548 -0.62050122 0.46405956
-0.87402326 -0.61634606 0.34866288
-0.84562105 -0.59653264 0.23655009
-0.84463739 -0.59627104 0.13538231
-0.086705536 -0.017246958 8.7089415
-1.1179408 -0.74352711 8.5354624
-1.4583803 -0.98332155 8.4797935
-1.286025 -0.87982035 5.0285015
-1.1123971 -0.76671636 3.2423966
-1.0459086 -0.72409534 2.3985367
-1.0106456 -0.70174837 1.8797038
-0.9644767 -0.67117202 1.4834466
-0.44639778 -0.24430074 8.6399889
-0.79663503 -0.47561604 8.6104555
-1.453285 -0.98498613 6.7968726
-1.0416406 -0.71317112 3.4871402
-1.0717188 -0.73810899 2.7544875
-1.0291336 -0.71114081 2.1163228
-0.99791825 -0.69135243 1.6822997
-0.95623583 -0.66369617 1.3401507
-0.94450265 -0.66019559 1.2122202
-0.91138649 -0.63774854 0.97931474
-0.90591604 -0.63461524 0.80979264
-0.89711648 -0.62890887 0.66005719
-0.88494009 -0.62082481 0.52506757
-0.867948 -0.60934746 0.40165716
-0.86014944 -0.60431468 0.29105285
-0.84311479 -0.59277725 0.18547413
-0.93106616 -0.64886528 1.09192
-0.90711999 -0.63287216 0.88892335
-0.90278763 -0.63030905 0.73263109
-0.89369792 -0.62465018 0.59150839
-0.87884581 -0.61471725 0.46241605
-0.87616938 -0.61329144 0.34866288
-0.84364164 -0.59073693 0.23585941
-0.84262222 -0.59045208 0.13518077
-0.086765207 -0.016944194 8.7089415
-1.1205294 -0.73962033 8.5354624
-1.4618038 -0.97822487 8.4797935
-1.2841483 -0.87197232 5.0094137
-1.1166793 -0.76393163 3.246999
-1.0444818 -0.7177276 2.3897583
-1.0107719 -0.69661963 1.8755709
-0.96417624 -0.66597986 1.479609
-0.44724783 -0.24274102 8.6399889
-0.79829037 -0.47283235 8.6104555
-1.4567144 -0.97990721 6.7968726
-1.0426962 -0.70856106 3.4824471
-1.0724914 -0.73313522 2.7499864
-1.0273077 -0.70459414 2.1077909
-0.99784249 -0.68615764 1.6783097
-0.95854676 -0.66035426 1.3401507
-0.9438712 -0.65486193 1.2087157
-0.91041023 -0.63234305 0.97617632
-0.90469265 -0.62906218 0.80705118
-0.89567 -0.62324345 0.65773833
-0.88710177 -0.61773199 0.52506757
-0.86613399 -0.60357147 0.4002471
-0.86225373 -0.60130852 0.29105285
-0.84517884 -0.58983058 0.18547413
-0.93025458 -0.64348727 1.0885946
-0.90600055 -0.62740082 0.88598019
-0.90143913 -0.62469864 0.73009789
-0.89214385 -0.61893982 0.58941036
-0.88098627 -0.61164576 0.46241605
-0.87830478 -0.61022931 0.34866288
-0.8456986 -0.58778846 0.23585941
-0.84057671 -0.58465451 0.13497925
-0.086867198 -0.016646003 8.7139416
-1.1231043 -0.73570436 8.5354624
-1.4652096 -0.97311628 8.4797935
-1.2834703 -0.86498231 4.9950972
-1.1193391 -0.76002902 3.246999
-1.0430233 -0.71137875 2.3809803
-1.0131974 -0.6930871 1.8755709
-0.96649504 -0.66261011 1.479609
-0.44809246 -0.24117836 8.6399889
-0.79947615 -0.46977344 8.605484
-1.4465345 -0.96574515 6.7339602
-1.0494556 -0.70781124 3.4965255
-1.0732424 -0.72816497 2.7454851
-1.0276051 -0.6995365 2.1035249
-0.99774253 -0.6809718 1.6743195
-0.96084601 -0.65700436 1.3401507
-0.94321406 -0.64954066 1.2052112
-0.91261196 -0.6291613 0.97617632
-0.90344143 -0.62352532 0.80430973
-0.89784002 -0.62011313 0.65773833
-0.88543898 -0.61199588 0.52319455
-0.86823559 -0.60054439 0.4002471
-0.86030829 -0.59549934 0.29012021
-0.84313881 -0.58404112 0.18502705
-0.92941689 -0.63812298 1.0852691
-0.90818506 -0.62423456 0.88598019
-0.90006244 -0.61910534 0.72756475
-0.89429891 -0.6158219 0.58941036
-0.87922746 -0.60588735 0.46077254
-0.87642813 -0.60440034 0.34749055
-0.84774518 -0.58483279 0.23585941
-0.8385011 -0.57887846 0.13477771
-0.086924769 -0.016342679 8.7139416
-1.1256655 -0.73177952 8.5354624
-1.4685974 -0.96799576 8.4797935
-1.2815185 -0.85717797 4.9760094
-1.1236055 -0.75720876 3.2516015
-1.0415332 -0.7050488 2.3722022
-1.0132823 -0.68796563 1.8714379
-0.96615207 -0.6574294 1.4757715
-0.44867641 -0.23947766 8.6349974
-0.80111104 -0.46697989 8.605484
-1.4436094 -0.95652515 6.7049236
-1.0547884 -0.70606309 3.5059111
-1.0739717 -0.72319847 2.7409837
-1.0257185 -0.69302547 2.0949931
-0.99512374 -0.67410529 1.6663395
-0.96313351 -0.65364629 1.3401507
-0.94253135 -0.64423209 1.2017065
-0.91159022 -0.62377399 0.97303784
-0.90216273 -0.61800492 0.80156827
-0.89634538 -0.61447066 0.65541953
-0.88756984 -0.60890138 0.52319455
-0.87032652 -0.59751004 0.4002471
-0.86238176 -0.59249264 0.29012021
-0.84517241 -0.58109444 0.18502705
-0.9285531 -0.63277239 1.0819435
-0.90701926 -0.6187827 0.88303697
-0.89865768 -0.61352921 0.72503155
-0.89269596 -0.61013556 0.58731234
-0.87743938 -0.6001488 0.45912904
-0.87452155 -0.59859198 0.34631824
-0.84569544 -0.5790723 0.23516873
-0.84051663 -0.575948 0.13477771
-0.086981289 -0.016039155 8.7139416
-1.1282132 -0.72784579 8.5354624
-1.4728198 -0.96342081 8.4846888
-1.2795278 -0.84939778 4.9569216
-1.1246178 -0.75219607 3.246999
-1.0400118 -0.69873798 2.3634241
-1.0133438 -0.68285215 1.867305
-0.96578473 -0.65225911 1.4719341
-0.44950962 -0.23791003 8.6349974
-0.80273622 -0.46418062 8.605484
-1.4385366 -0.94595635 6.6662083
-1.058684 -0.70333159 3.5106039
-1.0746796 -0.71823579 2.7364826
-1.025965 -0.6879884 2.0907271
-0.99496996 -0.6689465 1.6623495
-0.96540928 -0.65028036 1.3401507
-0.94182307 -0.6389361 1.198202
-0.91054201 -0.61840141 0.96989942
-0.90085655 -0.6125012 0.79882681
-0.89848483 -0.61133808 0.65541953
-0.88585788 -0.60319036 0.52132148
-0.8724069 -0.59446841 0.4002471
-0.86038619 -0.58671129 0.28918761
-0.84308219 -0.57533365 0.18457997
-0.92766345 -0.62743556 1.078618
-0.90582669 -0.6133467 0.88009381
-0.89722508 -0.6079706 0.72249836
-0.89482033 -0.60701573 0.58731234
-0.87952894 -0.59708232 0.45912904
-0.86856449 -0.59007293 0.34397361
-0.84771162 -0.57611674 0.23516873
-0.83839089 -0.57020092 0.13457619
-0.087036744 -0.015735436 8.7139416
-1.1314013 -0.72432184 8.5404015
-1.4761736 -0.95827383 8.4846888
-1.2762519 -0.84082097 4.9330616
-1.1272366 -0.74826586 3.246999
-1.0404516 -0.69377488 2.3590348
-1.013382 -0.67774642 1.8631719
-0.96539313 -0.64709955 1.4680965
-0.45008132 -0.23620622 8.6300068
-0.80388892 -0.46111104 8.6005125
-1.4334079 -0.93543488 6.6274929
-1.0870678 -0.71672642 3.5950737
-1.0753659 -0.71327686 2.7319813
-1.0240177 -0.68151343 2.0821953
-0.9947924 -0.66379702 1.6583595
-0.96485478 -0.64502251 1.3364756
-0.94108933 -0.63365304 1.1946975
-0.91269511 -0.61521924 0.96989942
-0.90298909 -0.60935283 0.79882681
-0.89694226 -0.60571909 0.65310073
-0.88411695 -0.59749871 0.51944846
-0.87447673 -0.59141952 0.4002471
-0.85836083 -0.58095109 0.28825498
-0.84096217 -0.56959456 0.18413289
-0.9298479 -0.62419355 1.078618
-0.9046073 -0.60792673 0.87715065
-0.89934188 -0.60483497 0.72249836
-0.89693379 -0.60388857 0.58731234
-0.87769157 -0.59137005 0.45748553
-0.86658877 -0.58432013 0.3428013
-0.8497175 -0.57315415 0.23516873
-0.84037614 -0.56727093 0.13457619
-0.08709114 -0.015431525 8.7139416
-1.1339228 -0.72036815 8.5404015
-1.4795098 -0.95311517 8.4846888
-1.2754307 -0.83391076 4.9187455
-1.1282101 -0.74325192 3.2423966
-1.0408697 -0.68881732 2.3546457
-1.0110523 -0.67109293 1.8549061
-0.9649772 -0.64195055 1.464259
-0.45090309 -0.2346337 8.6300068
-0.80549359 -0.45830214 8.6005125
-1.4292784 -0.92564362 6.593617
-1.1155576 -0.72993135 3.6795435
-1.0742122 -0.70712531 2.7229788
-1.0242141 -0.67649758 2.0779295
-0.994591 -0.6586569 1.6543695
-0.96427548 -0.63977653 1.3328004
-0.94033021 -0.62838286 1.191193
-0.91160184 -0.60986543 0.96676093
-0.90163624 -0.60387039 0.7960853
-0.89905113 -0.60258454 0.65310073
-0.88234711 -0.59182668 0.51757544
-0.87653577 -0.58836341 0.4002471
-0.86038351 -0.57795131 0.28825498
-0.83881235 -0.56387728 0.18368581
-0.92891371 -0.61887401 1.0752926
-0.90336102 -0.60252267 0.8742075
-0.89786202 -0.59929889 0.71996522
-0.8952626 -0.59823257 0.58521426
-0.87975049 -0.58830267 0.45748553
-0.86458355 -0.57858837 0.34162897
-0.8475979 -0.56742978 0.23447806
-0.8423512 -0.56433398 0.13457619
-0.087101027 -0.015123405 8.7089415
-1.1370878 -0.71681976 8.5453396
-1.4819697 -0.94739658 8.4797935
-1.2695676 -0.82376736 4.8853416
-1.1307976 -0.73930913 3.2423966
-1.0412658 -0.68386525 2.3502567
-1.0110385 -0.66601181 1.8507732
-0.96453726 -0.63681251 1.4604216
-0.45171934 -0.23305832 8.6300068
-0.80708843 -0.45548764 8.6005125
-1.4208682 -0.91317517 6.5403833
-1.1441525 -0.74294603 3.7640131
-1.0730288 -0.70099044 2.7139764
-1.0222067 -0.67005914 2.0693977
-0.99436587 -0.65352631 1.6503794
-0.96083969 -0.63267821 1.3254501
-0.93954581 -0.62312567 1.1876884
-0.91372514 -0.60667968 0.96676093
-0.90025628 -0.59840482 0.79334384
-0.89746064 -0.59698921 0.65078193
-0.88054854 -0.58617431 0.51570243
-0.87858427 -0.58530015 0.4002471
-0.85830843 -0.57221967 0.28732237
-0.84077555 -0.56094587 0.18368581
-0.93106836 -0.61562771 1.0752926
-0.90208817 -0.59713471 0.87126434
-0.89635473 -0.59378064 0.71743202
-0.89734536 -0.5951038 0.58521426
-0.87786406 -0.58261698 0.45584202
-0.86254895 -0.57287776 0.34045666
-0.84544873 -0.56172723 0.23378737
-0.84015566 -0.55862409 0.13437465
-0.087153293 -0.014819273 8.7089415
-1.1395831 -0.71284622 8.5453396
-1.4852678 -0.94221777 8.4797935
-1.2623944 -0.81286711 4.8471661
-1.1300933 -0.73323113 3.2331915
-1.04164 -0.67891884 2.3458676
-1.0110016 -0.66093886 1.8466402
-0.96407306 -0.63168526 1.4565841
-0.45278752 -0.2316107 8.6349974
-0.80913895 -0.45292744 8.605484
-1.4198077 -0.90550697 6.5210257
-1.1743023 -0.75670427 3.8531759
-1.0718156 -0.69487244 2.7049739
-1.0223531 -0.66506487 2.0651317
-0.99411708 -0.64840537 1.6463894
-0.96020424 -0.62746608 1.321775
-0.94171524 -0.61984229 1.1876884
-0.91258699 -0.60134494 0.96362251
-0.89884919 -0.59295636 0.79060239
-0.89584213 -0.59141243 0.64846313
-0.88258928 -0.58309698 0.51570243
-0.88062197 -0.58222973 0.4002471
-0.86030066 -0.56922013 0.28732237
-0.83857626 -0.55525821 0.18323873
-0.93008971 -0.61032557 1.071967
-0.90078866 -0.59176302 0.86832118
-0.89481974 -0.58828014 0.71489882
-0.89562619 -0.58947289 0.58311623
-0.87989241 -0.57954913 0.45584202
-0.86048514 -0.5671885 0.33928433
-0.84327018 -0.55604666 0.23309669
-0.8421005 -0.55568802 0.13437465
-0.087204494 -0.014514961 8.7089415
-1.1420645 -0.70886397 8.5453396
-1.4885476 -0.93702751 8.4797935
-1.2589343 -0.80443776 4.8233061
-1.1310033 -0.72822446 3.2285891
-1.0419925 -0.67397809 2.3414786
-1.0085809 -0.65434307 1.8383743
-0.96358502 -0.62656909 1.4527465
-0.45385116 -0.23015851 8.6399889
-0.81071508 -0.45010027 8.605484
-1.4272087 -0.90323347 6.5403833
-1.1769366 -0.75260061 3.8531759
-1.0705729 -0.68877155 2.6959715
-1.020286 -0.65866357 2.0565996
-0.99384469 -0.64329416 1.6423994
-0.95669961 -0.62042165 1.3144246
-0.94088733 -0.61460114 1.1841838
-0.91142285 -0.59602565 0.96048403
-0.89741504 -0.58752489 0.78786093
-0.89419562 -0.58585417 0.64614433
-0.88074231 -0.57747078 0.51382935
-0.88264894 -0.57915229 0.4002471
-0.85817617 -0.56351745 0.28638974
-0.84050936 -0.55232763 0.18323873
-0.9322145 -0.60707521 1.071967
-0.90284884 -0.58861506 0.86832118
-0.89686775 -0.58515304 0.71489882
-0.89387852 -0.58386117 0.58101815
-0.8779574 -0.57389063 0.45419851
-0.85839206 -0.56152064 0.33811203
-0.84106231 -0.5503881 0.23240602
-0.83985561 -0.550008 0.13417313
-0.08729811 -0.01421404 8.7139416
-1.1445318 -0.70487303 8.5453396
-1.4918094 -0.93182588 8.4797935
-1.2428234 -0.78805071 4.7517266
-1.1285989 -0.7211169 3.2147813
-1.0403074 -0.6677497 2.3327003
-1.0108589 -0.65081847 1.8383743
-0.96037966 -0.61972624 1.4450716
-0.45491019 -0.22870167 8.6449804
-0.81228125 -0.44726759 8.605484
-1.4335465 -0.90025103 6.5549016
-1.1737278 -0.74479008 3.8344047
-1.0693005 -0.68268782 2.6869693
-1.0203826 -0.65369141 2.0523336
-0.99354875 -0.63819271 1.6384094
-0.9531576 -0.6134094 1.3070743
-0.94003427 -0.60937339 1.1806793
-0.91023272 -0.59072179 0.9573456
-0.89946043 -0.58438873 0.78786093
-0.89252126 -0.5803147 0.64382553
-0.88275266 -0.57439291 0.51382935
-0.88064522 -0.57345009 0.39883706
-0.86013794 -0.56051838 0.28638974
-0.83826083 -0.54667008 0.18279165
-0.93119192 -0.60179108 1.0686415
-0.90150428 -0.58326447 0.86537802
-0.89528614 -0.57967603 0.71236569
-0.89591104 -0.58073735 0.58101815
-0.87995535 -0.57082248 0.45419851
-0.85627002 -0.55587429 0.33693972
-0.84297842 -0.54744893 0.23240602
-0.84177035 -0.54707307 0.13417313
-0.087347195 -0.013909225 8.7139416
-1.1469854 -0.70087361 8.5453396
-1.4950529 -0.92661273 8.4797935
-1.2367219 -0.77814436 4.7183223
-1.1278092 -0.71508098 3.2055764
-1.0406117 -0.66282779 2.3283112
-1.0107532 -0.64577115 1.8342415
-0.95983779 -0.61464185 1.441234
-0.45570573 -0.22711235 8.6449804
-0.81336939 -0.44417453 8.6005125
-1.4366803 -0.89524156 6.5549016
-1.1719391 -0.73793048 3.8203266
-1.067999 -0.67662144 2.6779668
-1.0204573 -0.64872658 2.0480678
-0.99322927 -0.63310128 1.6344193
-0.95243561 -0.60825402 1.3033991
-0.93915641 -0.60415912 1.1771748
-0.90901673 -0.58543354 0.95420712
-0.89798051 -0.57897979 0.78511947
-0.8945415 -0.57719564 0.64382553
-0.88085771 -0.5687933 0.51195633
-0.87861258 -0.56776911 0.39742702
-0.86208934 -0.55751252 0.28638974
-0.84016401 -0.54374063 0.18279165
-0.93014377 -0.5965215 1.065316
-0.90353483 -0.58011407 0.86537802
-0.89730418 -0.57654738 0.71236569
-0.89411569 -0.57515126 0.57892013
-0.87797183 -0.56519139 0.452555
-0.854119 -0.55024958 0.33576739
-0.84072173 -0.54182041 0.23171534
-0.8436749 -0.5441314 0.13417313
-0.087395214 -0.013604242 8.7139416
-1.1494248 -0.69686562 8.5453396
-1.4982783 -0.92138839 8.4797935
-1.2508272 -0.78093576 4.76127
-1.1236836 -0.70697922 3.1871662
-1.0388699 -0.65663248 2.3195331
-1.0106244 -0.64073235 1.8301084
-0.95927203 -0.60956872 1.4373965
-0.45649573 -0.22552025 8.6449804
-0.81491488 -0.44133264 8.6005125
-1.4365889 -0.88823849 6.5403833
-1.1715807 -0.73200673 3.8109407
-1.0685112 -0.67173088 2.6734657
-1.0205095 -0.64376926 2.0438018
-0.99288648 -0.62801987 1.6304293
-0.94882578 -0.6012966 1.2960488
-0.93825352 -0.59895843 1.1736702
-0.90777493 -0.58016098 0.95106864
-0.89999598 -0.57584172 0.78511947
-0.89282024 -0.57168102 0.64150673
-0.88283783 -0.56571501 0.51195633
-0.88058907 -0.5646987 0.39742702
-0.85989594 -0.5518468 0.28545713
-0.84205687 -0.54080462 0.18279165
-0.92907035 -0.59126651 1.0619905
-0.90214527 -0.57478482 0.86243486
-0.89567631 -0.57109421 0.70983243
-0.89611787 -0.57202673 0.57892013
-0.87595975 -0.55958116 0.45091146
-0.85193926 -0.5446468 0.33459508
-0.83843595 -0.53621447 0.23102465
-0.84136122 -0.53849 0.13397159
-0.087442167 -0.013299094 8.7139416
-1.1518503 -0.69284916 8.5453396
-1.5014855 -0.91615283 8.4797935
-1.2624289 -0.78206629 4.7946739
-1.1211725 -0.69994926 3.1733589
-1.0391266 -0.65172988 2.3151441
-1.0128548 -0.63720077 1.8301084
-0.95868266 -0.60450715 1.4335591
-0.45728016 -0.22392541 8.6449804
-0.81645048 -0.43848535 8.6005125
-1.4246795 -0.87401855 6.472631
-1.1711951 -0.72609448 3.8015552
-1.0690023 -0.6668449 2.6689644
-1.0227505 -0.64020312 2.0438018
-0.99252045 -0.62294853 1.6264393
-0.94804889 -0.59617639 1.2923737
-0.93732578 -0.5937714 1.1701657
-0.90979457 -0.5769887 0.95106864
-0.89847052 -0.57045555 0.78237802
-0.89107138 -0.56618541 0.63918799
-0.88089508 -0.56014246 0.51008332
-0.87850773 -0.55904603 0.39601701
-0.861817 -0.54884189 0.28545713
-0.83973986 -0.53518552 0.18234457
-0.93112856 -0.58801985 1.0619905
-0.90414613 -0.57163233 0.86243486
-0.89402139 -0.5656594 0.70729923
-0.89427507 -0.56646675 0.57682204
-0.87391943 -0.55399191 0.44926795
-0.85383517 -0.54166961 0.33459508
-0.84030253 -0.53328449 0.23102465
-0.84323579 -0.53554982 0.13397159
-0.087488055 -0.012993782 8.7139416
-1.1542619 -0.68882424 8.5453396
-1.5046742 -0.91090608 8.4797935
-1.2613357 -0.77531034 4.7803578
-1.1169652 -0.69191682 3.1549485
-1.0393617 -0.64683342 2.3107548
-1.0126857 -0.63217139 1.8259755
-0.95806956 -0.59945709 1.4297215
-0.45779887 -0.22220264 8.6399889
-0.81797606 -0.43563277 8.6005125
-1.4202051 -0.86446643 6.4387555
-1.1722525 -0.72109783 3.7968626
-1.0676211 -0.66081828 2.6599619
-1.0227635 -0.63525331 2.039536
-0.99213099 -0.6178875 1.6224493
-0.94724792 -0.59106898 1.2886984
-0.93637329 -0.58859813 1.1666611
-0.9085086 -0.5717364 0.94793022
-0.90045631 -0.56731582 0.78237802
-0.89304227 -0.56307155 0.63918799
-0.87892425 -0.55459034 0.5082103
-0.88045382 -0.55597609 0.39601701
-0.85957497 -0.54320604 0.2845245
-0.84160292 -0.53225106 0.18234457
-0.93001151 -0.58278358 1.058665
-0.90271193 -0.56632483 0.85949171
-0.89599043 -0.56253529 0.70729923
-0.89624691 -0.56334168 0.57682204
-0.87584788 -0.55093801 0.44926795
-0.85160732 -0.53609651 0.33342275
-0.83796859 -0.52770919 0.23033397
-0.84087342 -0.52993941 0.13377006
-0.087532885 -0.012688312 8.7139416
-1.1566592 -0.68479091 8.5453396
-1.5087178 -0.90617234 8.4846888
-1.2474658 -0.7608012 4.7183223
-1.11438 -0.68494523 3.1411412
-1.0395755 -0.64194334 2.306366
-1.0124937 -0.62715095 1.8218426
-0.9601562 -0.59610915 1.4297215
-0.45857173 -0.22060327 8.6399889
-0.81996346 -0.43302321 8.605484
-1.4146054 -0.85430658 6.4000401
-1.1718162 -0.71520388 3.787477
-1.0680662 -0.65594852 2.6554608
-1.0227543 -0.63031119 2.03527
-0.98915488 -0.61125284 1.6144693
-0.94930536 -0.58775884 1.2886984
-0.93539619 -0.58343881 1.1631566
-0.9104988 -0.56856167 0.94793022
-0.89888543 -0.56195271 0.77963656
-0.89124697 -0.55760145 0.63686919
-0.88085479 -0.55151898 0.5082103
-0.88238913 -0.55289936 0.39601701
-0.85730422 -0.53759271 0.2835919
-0.83923751 -0.52666295 0.18189749
-0.9320401 -0.5795337 1.058665
-0.90125167 -0.56103438 0.85654855
-0.89428967 -0.55712503 0.70476609
-0.89435691 -0.55780804 0.57472402
-0.87375969 -0.54537708 0.44762444
-0.84935099 -0.53054553 0.33225045
-0.83980554 -0.52478093 0.23033397
-0.83848226 -0.52435207 0.13356853
-0.087576643 -0.012382688 8.7139416
-1.1583726 -0.68035597 8.5404015
-1.5118717 -0.90090048 8.4846888
-1.2360647 -0.74794352 4.6658306
-1.113428 -0.67901719 3.1319361
-1.0418099 -0.63831061 2.306366
-1.0122793 -0.62213963 1.8177097
-0.9595021 -0.59107304 1.425884
-0.45933899 -0.21900122 8.6399889
-0.82194251 -0.43040508 8.6104555
-1.414344 -0.84742588 6.3855219
-1.1728294 -0.71021545 3.7827842
-1.0666312 -0.64995116 2.6464584
-1.0227232 -0.62537694 2.0310042
-0.98871362 -0.6062215 1.6104792
-0.94846249 -0.58266717 1.2850233
-0.93742704 -0.58017009 1.1631566
-0.90916914 -0.56332999 0.94479173
-0.8972882 -0.5566076 0.77689505
-0.88942426 -0.55215079 0.63455039
-0.87883663 -0.54599446 0.50633723
-0.88023984 -0.54728305 0.39460698
-0.85917556 -0.53459686 0.2835919
-0.84107077 -0.52373028 0.18189749
-0.93087953 -0.57431632 1.0553395
-0.90320456 -0.55788493 0.85654855
-0.89622897 -0.55399996 0.70476609
-0.89243919 -0.55229449 0.57262594
-0.87565809 -0.54232377 0.44762444
-0.85119778 -0.52757752 0.33225045
-0.83742356 -0.51923674 0.22964329
-0.83606243 -0.51878792 0.133367
-0.087619334 -0.012076913 8.7139416
-1.1607404 -0.67630839 8.5404015
-1.5158839 -0.89613557 8.4895849
-1.2322683 -0.73978364 4.6419706
-1.1107767 -0.67209297 3.1181283
-1.041985 -0.63342625 2.3019767
-1.012042 -0.61713749 1.8135767
-0.95882452 -0.58604878 1.4220465
-0.46010065 -0.2173965 8.6399889
-0.8234399 -0.42753333 8.6104555
-1.4032458 -0.83413625 6.3226094
-1.1723427 -0.70434016 3.7733986
-1.0651673 -0.64397174 2.6374559
-1.0249 -0.62180316 2.0310042
-0.98824924 -0.60120064 1.6064892
-0.95049065 -0.57935286 1.2850233
-0.93944651 -0.57689434 1.1631566
-0.90781409 -0.55811465 0.94165331
-0.89922565 -0.55347204 0.77689505
-0.89134622 -0.5490427 0.63455039
-0.88073713 -0.54292345 0.50633723
-0.88214481 -0.5442071 0.39460698
-0.85685658 -0.52901399 0.28265926
-0.84289378 -0.52079117 0.18189749
-0.93287861 -0.57106346 1.0553395
-0.90170008 -0.55261683 0.85360539
-0.89815736 -0.55086821 0.70476609
-0.89049405 -0.54680121 0.57052791
-0.87352252 -0.53679156 0.44598094
-0.84889376 -0.52205688 0.33107814
-0.8392309 -0.51631045 0.22964329
-0.83786827 -0.51586634 0.133367
-0.087660953 -0.011770991 8.7139416
-1.163094 -0.67225254 8.5404015
-1.5190027 -0.89083874 8.4895849
-1.2348431 -0.73547769 4.6419706
-1.1097656 -0.66620088 3.1089232
-1.0421388 -0.62854844 2.2975879
-1.0117823 -0.61214453 1.8094438
-0.95812351 -0.58103639 1.418209
-0.46085671 -0.21578911 8.6399889
-0.82492721 -0.42465639 8.6104555
-1.4007349 -0.82604122 6.2984118
-1.1733117 -0.69936019 3.7687061
-1.0636747 -0.6380105 2.6284533
-1.0248294 -0.61687702 2.0267382
-0.98776197 -0.59619039 1.6024991
-0.94960606 -0.57427734 1.2813481
-0.94145453 -0.57361156 1.1631566
-0.90975672 -0.55494243 0.94165331
-0.89758348 -0.5481506 0.77415359
-0.88947743 -0.54361808 0.63223159
-0.87867218 -0.53742701 0.50446421
-0.8840391 -0.54112452 0.39460698
-0.85869789 -0.52601975 0.28265926
-0.84046096 -0.51524305 0.18145041
-0.93167496 -0.56586558 1.052014
-0.90016991 -0.54736608 0.85066223
-0.89639211 -0.54548883 0.7022329
-0.89239734 -0.54368949 0.57052791
-0.87539095 -0.53373921 0.44598094
-0.85071093 -0.51909047 0.33107814
-0.84102809 -0.51337785 0.22964329
-0.83540046 -0.51033401 0.13316546
-0.087701507 -0.011464925 8.7139416
-1.1654336 -0.66818845 8.5404015
-1.5221032 -0.88553095 8.4895849
-1.2399734 -0.73268116 4.6515145
-1.1087271 -0.66032404 3.0997183
-1.0422711 -0.62367725 2.2931986
-1.0139129 -0.60860902 1.8094438
-0.95739937 -0.5760361 1.4143715
-0.46160713 -0.21417911 8.6399889
-0.82640457 -0.42177427 8.6104555
-1.380824 -0.80782109 6.196784
-1.1742604 -0.69438219 3.7640131
-1.0621535 -0.63206756 2.6194508
-1.0247374 -0.61195892 2.0224721
-0.98466647 -0.58964312 1.5945191
-0.95160484 -0.57095909 1.2813481
-0.94345105 -0.57032174 1.1631566
-0.90835828 -0.54974818 0.93851483
-0.89949143 -0.54501408 0.77415359
-0.89136958 -0.54050988 0.63223159
-0.88054281 -0.53435665 0.50446421
-0.88182247 -0.53554541 0.39319694
-0.86052883 -0.52301913 0.28265926
-0.84225434 -0.51230609 0.18145041
-0.93044645 -0.56068301 1.0486885
-0.90207505 -0.54422057 0.85066223
-0.89829075 -0.54235649 0.7022329
-0.8904056 -0.53822345 0.56842989
-0.87320834 -0.52823621 0.44433743
-0.85251766 -0.51611781 0.33107814
-0.84281492 -0.51043898 0.22964329
-0.8371768 -0.50741488 0.13316546
-0.087740995 -0.011158721 8.7139416
-1.1677589 -0.66411626 8.5404015
-1.5251849 -0.88021243 8.4895849
-1.2463871 -0.73061246 4.6658306
-1.107661 -0.65446258 3.0905132
-1.0423824 -0.61881292 2.2888095
-1.0136132 -0.60362643 1.8053107
-0.95665187 -0.57104802 1.4105339
-0.46235192 -0.21256649 8.6399889
-0.82787174 -0.41888702 8.6104555
-1.3749373 -0.79795003 6.1580687
-1.1751884 -0.68940604 3.7593205
-1.0606039 -0.62614304 2.6104486
-1.0223795 -0.60571992 2.0139403
-0.984128 -0.58466351 1.5905291
-0.95359212 -0.56763393 1.2813481
-0.94543618 -0.56702507 1.1631566
-0.90693468 -0.54457057 0.93537635
-0.8978045 -0.53971678 0.77141213
-0.89325088 -0.53739512 0.63223159
-0.87843096 -0.52888852 0.50259119
-0.88368648 -0.53246397 0.39319694
-0.85814267 -0.51747561 0.28172666
-0.84403753 -0.50936294 0.18145041
-0.92919308 -0.55551594 1.0453631
-0.90050095 -0.5389927 0.84771907
-0.89648032 -0.53700256 0.6996997
-0.89227897 -0.53511208 0.56842989
-0.87099791 -0.52275485 0.44269392
-0.85014731 -0.51063621 0.32990581
-0.84459156 -0.50749391 0.22964329
-0.83894289 -0.50448948 0.13316546
-0.08777941 -0.010852379 8.7139416
-1.1700701 -0.66003597 8.5404015
-1.5273644 -0.87437749 8.4846888
-1.2515107 -0.72775769 4.6753745
-1.1065676 -0.64861667 3.0813081
-1.0424722 -0.61395526 2.2844205
-1.015714 -0.6000846 1.8053107
-0.95588142 -0.56607217 1.4066964
-0.46309111 -0.21095128 8.6399889
-0.82932895 -0.41599464 8.6104555
-1.3940558 -0.8025502 6.23066
-1.1746045 -0.68356407 3.7499349
-1.0590259 -0.62023711 2.6014462
-1.022239 -0.60082614 2.0096743
-0.98356682 -0.57969493 1.5865391
-0.95556772 -0.56430179 1.2813481
-0.94434476 -0.56189793 1.1596521
-0.90548593 -0.53940958 0.93223786
-0.89968306 -0.53657955 0.77141213
-0.89131743 -0.53200358 0.62991279
-0.88027179 -0.525819 0.50259119
-0.88553977 -0.52937609 0.39319694
-0.85994369 -0.51447695 0.28172666
-0.84581035 -0.50641364 0.18145041
-0.9279151 -0.55036455 1.0420375
-0.89890134 -0.53378248 0.84477592
-0.89464349 -0.53166783 0.69716656
-0.89024091 -0.52967364 0.5663318
-0.86875987 -0.51729548 0.44105041
-0.85192454 -0.50766546 0.32990581
-0.84210426 -0.50200695 0.2289526
-0.83640838 -0.49899828 0.13296394
-0.087816752 -0.010545906 8.7139416
-1.1723669 -0.65594763 8.5404015
-1.5304072 -0.86904061 8.4846888
-1.2579229 -0.7256217 4.6896906
-1.103758 -0.64180458 3.0675008
-1.044609 -0.61031264 2.2844205
-1.0153748 -0.5951128 1.8011779
-0.95508778 -0.56110859 1.402859
-0.4640882 -0.20945141 8.6449804
-0.83077598 -0.41309723 8.6104555
-1.4055818 -0.8026644 6.2693753
-1.1739942 -0.67773461 3.7405496
-1.0574195 -0.61434984 2.5924437
-1.0220768 -0.59594071 2.0054085
-0.98298299 -0.57473737 1.5825491
-0.95460647 -0.55924934 1.277673
-0.94630045 -0.55859816 1.1596521
-0.90401232 -0.53426534 0.92909944
-0.89795184 -0.53130668 0.76867068
-0.89316911 -0.52888906 0.62991279
-0.87811351 -0.52037966 0.50071812
-0.88325614 -0.52383476 0.3917869
-0.86173439 -0.51147205 0.28172666
-0.84329134 -0.50091487 0.18100333
-0.9266125 -0.54522878 1.038712
-0.9007591 -0.5306415 0.84477592
-0.89649391 -0.52854168 0.69716656
-0.89208442 -0.52656287 0.5663318
-0.86649454 -0.51185817 0.4394069
-0.84950733 -0.50221509 0.3287335
-0.84385145 -0.49906442 0.2289526
-0.83814508 -0.49607566 0.13296394
-0.087809429 -0.010237712 8.7089415
-1.1753287 -0.65222806 8.5453396
-1.5334314 -0.86369324 8.4846888
-1.2539696 -0.71752053 4.6658306
-1.1026068 -0.63599598 3.0582957
-1.0467329 -0.60666257 2.2844205
-1.0174459 -0.59156483 1.8011779
-0.95427132 -0.55615759 1.3990214
-0.46481648 -0.20783016 8.6449804
-0.83221287 -0.41019475 8.6104555
-1.4050937 -0.7958951 6.2548571
-1.1718599 -0.67106038 3.7264709
-1.0557852 -0.60848141 2.5834413
-1.0218931 -0.59106374 2.0011425
-0.98498321 -0.57130265 1.5825491
-0.9565528 -0.55591375 1.277673
-0.94516701 -0.55348957 1.1561475
-0.90251386 -0.52913803 0.92596096
-0.89980096 -0.52816898 0.76867068
-0.89119017 -0.52352446 0.62759399
-0.8799246 -0.51731128 0.50071812
-0.88507932 -0.52074844 0.3917869
-0.86351448 -0.50846088 0.28172666
-0.84503472 -0.49796817 0.18100333
-0.92528528 -0.54010892 1.0353866
-0.89911604 -0.5254547 0.84183276
-0.89461231 -0.52323294 0.69463336
-0.89000046 -0.5211525 0.56423378
-0.86827594 -0.50883043 0.4394069
-0.85125518 -0.49924672 0.3287335
-0.84558845 -0.49611577 0.2289526
-0.83556348 -0.49061736 0.1327624
-0.087844633 -0.0099311378 8.7089415
-1.1775984 -0.64812142 8.5453396
-1.5364369 -0.85833526 8.4846888
-1.2512734 -0.71019244 4.6467428
-1.1014285 -0.63020325 3.0490906
-1.0467678 -0.60181165 2.2800314
-1.0146292 -0.58519822 1.792912
-0.95343184 -0.55121905 1.3951839
-0.46553913 -0.20620637 8.6449804
-0.83363962 -0.4072873 8.6104555
-1.4056715 -0.78975451 6.2451787
-1.1696934 -0.6644094 3.7123928
-1.0541227 -0.60263187 2.5744388
-1.0239502 -0.58749306 2.0011425
-0.9843595 -0.56635839 1.578559
-0.95555031 -0.55087835 1.2739978
-0.94709331 -0.55018699 1.1561475
-0.90435547 -0.52598447 0.92596096
-0.89802551 -0.52292085 0.76592922
-0.88918483 -0.51818013 0.62527519
-0.8777203 -0.5119012 0.49884507
-0.88274854 -0.51523769 0.39037687
-0.86528409 -0.50544357 0.28172666
-0.84676778 -0.49501544 0.18100333
-0.92716497 -0.53687578 1.0353866
-0.89744788 -0.5202859 0.8388896
-0.89643323 -0.52010697 0.69463336
-0.89181423 -0.51804262 0.56423378
-0.86596429 -0.50342327 0.43776339
-0.8487913 -0.49382794 0.32756117
-0.8430351 -0.49067008 0.22826193
-0.83727098 -0.48769772 0.1327624
-0.087878764 -0.009624443 8.7089415
-1.1805357 -0.64437896 8.5502796
-1.5394237 -0.8529669 8.4846888
-1.2498423 -0.70362407 4.6324267
-1.1019224 -0.62539059 3.044488
-1.0530233 -0.60052657 2.2888095
-1.0142231 -0.58025569 1.788779
-0.9525696 -0.54629326 1.3913465
-0.46625608 -0.20458008 8.6449804
-0.83505625 -0.40437484 8.6104555
-1.4018312 -0.78117281 6.2161417
-1.1689984 -0.6586287 3.7030075
-1.0524324 -0.5968014 2.5654364
-1.0259947 -0.58391523 2.0011425
-0.98371321 -0.56142545 1.574569
-0.95452434 -0.54585671 1.2703226
-0.94591802 -0.54509723 1.152643
-0.90281445 -0.52087951 0.92282254
-0.89622456 -0.51769167 0.76318777
-0.89098817 -0.51507312 0.62527519
-0.87548906 -0.50651282 0.49697205
-0.88454169 -0.51215321 0.39037687
-0.86704314 -0.50242007 0.28172666
-0.84418255 -0.4895584 0.18055625
-0.92579567 -0.53177655 1.032061
-0.89575458 -0.51513517 0.83594644
-0.89450699 -0.51482445 0.69210023
-0.88968462 -0.51266068 0.5621357
-0.86771631 -0.50039744 0.43776339
-0.85050994 -0.49086213 0.32756117
-0.84474272 -0.48772436 0.22826193
-0.83464253 -0.48227262 0.13256088
-0.087911822 -0.00931763 8.7089415
-1.1827778 -0.6402542 8.5502796
-1.5423917 -0.84758812 8.4846888
-1.2483804 -0.69707435 4.6181107
-1.102396 -0.62058216 3.0398853
-1.0467744 -0.59213126 2.2712533
-1.0113474 -0.5739345 1.780513
-0.95168459 -0.54138017 1.387509
-0.4672325 -0.2030655 8.6499729
-0.83646268 -0.40145749 8.6104555
-1.3990482 -0.7732355 6.1919446
-1.1667706 -0.6520192 3.6889291
-1.0526116 -0.59205699 2.5609353
-1.0257554 -0.57904845 1.9968767
-0.98042226 -0.55501968 1.5665889
-0.953475 -0.54084891 1.2666475
-0.9447189 -0.54002249 1.1491385
-0.90124893 -0.51579171 0.91968405
-0.89802623 -0.5145601 0.76318777
-0.88893777 -0.50975639 0.6229564
-0.87725174 -0.50345367 0.49697205
-0.88216436 -0.5066734 0.38896683
-0.86879164 -0.49939048 0.28172666
-0.84588635 -0.48660865 0.18055625
-0.92764622 -0.52854168 1.032061
-0.89754725 -0.51200527 0.83594644
-0.89629865 -0.5116989 0.69210023
-0.89146876 -0.50955194 0.5621357
-0.86945778 -0.4973655 0.43776339
-0.84799987 -0.48547539 0.32638884
-0.84214276 -0.48231164 0.22757125
-0.83632088 -0.47935626 0.13256088
-0.087943815 -0.0090107033 8.7089415
-1.1850054 -0.63612163 8.5502796
-1.5453409 -0.84219903 8.4846888
-1.2468884 -0.69054353 4.6037946
-1.1045555 -0.61673027 3.0398853
-1.0404797 -0.5837869 2.2536969
-1.0084399 -0.56764042 1.7722472
-0.95077693 -0.53647995 1.3836714
-0.46793848 -0.20143332 8.6499729
-0.83785897 -0.39853525 8.6104555
-1.3962272 -0.76532716 6.167748
-1.1675301 -0.64710605 3.684236
-1.0508695 -0.58625835 2.5519328
-1.0254947 -0.57419044 1.9926107
-0.9797262 -0.55011892 1.5625988
-0.95535713 -0.53751743 1.2666475
-0.94349575 -0.53496265 1.1456339
-0.90304387 -0.51264262 0.91968405
-0.8961814 -0.5093562 0.76044625
-0.89071178 -0.50665027 0.6229564
-0.87497485 -0.49809507 0.49509901
-0.87559128 -0.49884182 0.38614678
-0.8662622 -0.49392173 0.28079402
-0.84757972 -0.48365301 0.18055625
-0.92948556 -0.52530038 1.032061
-0.89581102 -0.50687873 0.83300328
-0.89432806 -0.50644308 0.68956703
-0.88929379 -0.50419873 0.56003767
-0.87118858 -0.49432749 0.43776339
-0.84968936 -0.48251238 0.32638884
-0.84382123 -0.47936904 0.22757125
-0.83798903 -0.47643405 0.13256088
-0.087931104 -0.0087028369 8.7039413
-1.1879047 -0.63234621 8.5552187
-1.5482713 -0.83679962 8.4846888
-1.245366 -0.68403161 4.589479
-1.1067016 -0.61287087 3.0398853
-1.0362325 -0.57665819 2.2405298
-1.0055009 -0.56137377 1.7639813
-0.95264381 -0.53315789 1.3836714
-0.46863875 -0.19979867 8.6499729
-0.83972752 -0.39583489 8.615427
-1.393368 -0.75744796 6.1435504
-1.166757 -0.64136451 3.6748505
-1.0510045 -0.5815329 2.5474315
-1.0252126 -0.56934136 1.9883448
-0.97900784 -0.54522979 1.5586089
-0.95426702 -0.53252745 1.2629722
-0.94224888 -0.52991802 1.1421293
-0.90143609 -0.50757772 0.91654563
-0.89795393 -0.50622481 0.76044625
-0.89247483 -0.50353801 0.6229564
-0.87670821 -0.49503776 0.49509901
-0.87315094 -0.49342242 0.38473675
-0.86370516 -0.48847672 0.27986142
-0.84492892 -0.47823843 0.18010917
-0.92805648 -0.52022713 1.0287355
-0.89757484 -0.50374866 0.83300328
-0.89609045 -0.50331819 0.68956703
-0.88709247 -0.49886695 0.55793959
-0.87290877 -0.49128348 0.43776339
-0.85136843 -0.47954348 0.32638884
-0.84117514 -0.4739897 0.22688057
-0.839647 -0.473506 0.13256088
-0.087960951 -0.0083958479 8.7039413
-1.1901048 -0.62819582 8.5552187
-1.5511829 -0.83139002 8.4846888
-1.2438133 -0.67753863 4.5751624
-1.1071217 -0.60806382 3.0352831
-1.0298513 -0.56840914 2.2229733
-1.0049924 -0.55649751 1.7598482
-0.95169646 -0.52827388 1.3798339
-0.46906698 -0.19805019 8.6449804
-0.84110409 -0.3929013 8.615427
-1.390471 -0.74959809 6.1193533
-1.1659582 -0.63563627 3.6654651
-1.0511196 -0.57681358 2.5429304
-1.0249091 -0.56450111 1.9840788
-0.97562963 -0.53889561 1.5506288
-0.95315391 -0.52755171 1.2592971
-0.94409287 -0.52662575 1.1421293
-0.90320235 -0.50442803 0.91654563
-0.89606589 -0.50104672 0.75770479
-0.89036143 -0.49825656 0.6206376
-0.87438607 -0.48970929 0.49322599
-0.87068331 -0.48802611 0.38332671
-0.86540502 -0.48545888 0.27986142
-0.84659314 -0.47528619 0.18010917
-0.92986673 -0.51698446 1.0287355
-0.895796 -0.49864668 0.83006012
-0.89407605 -0.4980894 0.68703383
-0.88882846 -0.49576738 0.55793959
-0.87461835 -0.48823345 0.43776339
-0.8487938 -0.47419816 0.32521653
-0.83850181 -0.46863464 0.2261899
-0.83693451 -0.46813336 0.13235934
-0.088033348 -0.0080892807 8.7089415
-1.1922904 -0.62403774 8.5552187
-1.5540756 -0.82597035 8.4846888
-1.240917 -0.67035568 4.5560746
-1.1075218 -0.60326117 3.0306804
-1.0276272 -0.56251132 2.2141953
-1.0019954 -0.55027723 1.7515824
-0.95072681 -0.52340299 1.3759965
-0.46975547 -0.19641164 8.6449804
-0.84247047 -0.38996288 8.615427
-1.3842102 -0.74000043 6.0806379
-1.1636155 -0.62910092 3.651387
-1.0512143 -0.57210052 2.538429
-1.0245845 -0.55967003 1.979813
-0.97486192 -0.53403926 1.5466388
-0.95201761 -0.52259022 1.2556219
-0.94280481 -0.52160078 1.1386248
-0.90495771 -0.5012722 0.91654563
-0.89780939 -0.49791583 0.75770479
-0.89209527 -0.49514556 0.6206376
-0.87609023 -0.4866541 0.49322599
-0.8681888 -0.48265311 0.38191667
-0.86280167 -0.48004678 0.27892879
-0.84389615 -0.46990544 0.17966209
-0.92839587 -0.51193267 1.0254101
-0.89753115 -0.49551675 0.83006012
-0.89580923 -0.49496546 0.68703383
-0.88658214 -0.4904649 0.55584157
-0.87631732 -0.48517749 0.43776339
-0.8504439 -0.47123244 0.32521653
-0.8358013 -0.46330404 0.22549921
-0.8385635 -0.46520907 0.13235934
-0.08806105 -0.0077819382 8.7089415
-1.1944613 -0.61987209 8.5552187
-1.5569493 -0.82054055 8.4846888
-1.2432493 -0.66601992 4.5560746
-1.1079018 -0.59846324 3.026078
-1.0295845 -0.5589208 2.2141953
-1.0014389 -0.5454306 1.7474495
-0.94973463 -0.51854533 1.3721589
-0.47043821 -0.19477069 8.6449804
-0.84382653 -0.38701972 8.615427
-1.3845634 -0.73398691 6.0709591
-1.1612414 -0.62258971 3.6373084
-1.0512892 -0.5673939 2.5339279
-1.0242386 -0.55484813 1.975547
-0.97407228 -0.52919483 1.5426488
-0.95085835 -0.51764309 1.2519468
-0.94149315 -0.51659125 1.1351203
-0.90329039 -0.49623632 0.91340715
-0.89587808 -0.49276376 0.75496328
-0.88993746 -0.48989245 0.6183188
-0.8777836 -0.48359302 0.49322599
-0.8656674 -0.47730348 0.38050666
-0.86447203 -0.47703212 0.27892879
-0.84553123 -0.46695679 0.17966209
-0.92690122 -0.50689751 1.0220846
-0.89925534 -0.49238074 0.83006012
