# .PCD v0.7 - Point Cloud Data file format
VERSION 0.7
FIELDS x y z
SIZE 4 4 4
TYPE F F F
COUNT 1 1 1
WIDTH 1418
HEIGHT 1
VIEWPOINT 0 0 0 1 0 0 0
POINTS 1418
DATA ascii
-0.93088603 -0.91740984 1.1362376
-0.91242027 -0.9001407 0.92493427
-0.90577114 -0.89419466 0.75280917
-0.8943392 -0.88351524 0.59624279
-0.87357628 -0.86359632 0.45100829
-0.86605901 -0.85675585 0.32276195
-0.85986054 -0.85120738 0.20156896
-0.95369917 -0.93629587 1.271497
-0.92148954 -0.90561026 1.0243087
-0.91412145 -0.89898628 0.83902454
-0.90314913 -0.88911611 0.67333251
-0.88849241 -0.87528795 0.52322584
-0.87238932 -0.8600142 0.38617706
-0.85672086 -0.84485608 0.26003322
-0.85325754 -0.84201765 0.14203283
-0.082808241 -0.031200819 8.7189417
-0.97978747 -0.9145419 8.5206442
-1.2767154 -1.2069103 8.4700031
-0.69497037 -0.66603935 3.1244798
-1.2056402 -1.1632648 4.0064158
-1.0959417 -1.0618353 2.8637791
-1.0459541 -1.0162137 2.2144728
-1.0095651 -0.98289591 1.7635844
-0.40004739 -0.31357399 8.6300068
-0.70947951 -0.60037231 8.625371
-1.1471137 -1.089672 6.1290321
-0.78286403 -0.75071967 3.0037851
-1.1201471 -1.0800083 3.2811296
-1.067898 -1.0328456 2.5002568
-1.0143957 -0.9834795 1.9456413
-0.98821843 -0.95975584 1.5716861
-0.96425211 -0.94270486 1.4049703
-0.93130088 -0.91143262 1.1330991
-0.91256976 -0.89402413 0.92219275
-0.90256023 -0.88482541 0.74817157
-0.89410841 -0.87714159 0.59436977
-0.87658548 -0.8605417 0.45100829
-0.86554003 -0.85028505 0.32182932
-0.86282659 -0.84820068 0.20156896
-0.95428807 -0.93035477 1.2681715
-0.92175233 -0.89956522 1.0213655
-0.91416973 -0.89277804 0.83649141
-0.90300184 -0.88278562 0.67123443
-0.89154226 -0.87218124 0.52322584
-0.8719126 -0.85356355 0.38500473
-0.8596648 -0.84186047 0.26003322
-0.85619164 -0.83903408 0.14203283
-0.082916647 -0.030911574 8.7189417
-0.98297387 -0.91111618 8.5206442
-1.2809205 -1.2024465 8.4700031
-0.70378017 -0.66978246 3.1531117
-1.1955855 -1.1455343 3.9603903
-1.0944633 -1.053022 2.8506117
-1.0434191 -1.0066952 2.2020738
-1.0106854 -0.97713816 1.7597468
-0.40113953 -0.31217566 8.6300068
-0.71157086 -0.59789205 8.625371
-1.151825 -1.0865237 6.1338716
-0.78547972 -0.74798232 3.0037851
-1.1207652 -1.0730809 3.2721272
-1.0658535 -1.0236924 2.4874589
-1.0156516 -0.97784281 1.9416513
-0.986682 -0.95159394 1.5643358
-0.96497804 -0.93684912 1.4014658
-0.93168533 -0.90546358 1.1299607
-0.90969062 -0.8850019 0.91670984
-0.90246928 -0.87857956 0.74585277
-0.89384407 -0.87078029 0.59249669
-0.876149 -0.854128 0.44959825
-0.86498654 -0.84382832 0.32089669
-0.86221862 -0.84170496 0.20112188
-0.9548471 -0.92442107 1.2648461
-0.92198408 -0.8935293 1.0184224
-0.91109127 -0.88357955 0.83142501
-0.90282136 -0.87646687 0.6691364
-0.89119422 -0.86577344 0.52158237
-0.87140161 -0.84712678 0.38383242
-0.85904795 -0.83540207 0.25934252
-0.85553473 -0.83255607 0.14183129
-0.08302404 -0.030621951 8.7189417
-0.98614824 -0.90767944 8.5206442
-1.28511 -1.1979679 8.4700031
-0.71153939 -0.67244697 3.1769717
-1.1924994 -1.1346214 3.9373775
-1.0929371 -1.0442322 2.8374445
-1.0428627 -0.99915349 2.1938081
-1.0094656 -0.96916485 1.7520717
-0.40245578 -0.31094924 8.6349974
-0.71324384 -0.59506363 8.6203995
-1.1556106 -1.0824964 6.1338716
-0.78808588 -0.74523598 3.0037851
-1.1197708 -1.0646625 3.2586234
-1.0618708 -1.0127661 2.4703953
-1.0168806 -0.97220939 1.9376612
-0.98265213 -0.94110972 1.5533104
-0.96567482 -0.93099993 1.3979613
-0.93203944 -0.89950305 1.1268222
-0.90976685 -0.87891579 0.91396838
-0.90234566 -0.87234521 0.74353397
-0.89354628 -0.86443162 0.59062368
-0.87567842 -0.84772795 0.44818825
-0.86439854 -0.83738595 0.31996405
-0.86157572 -0.83522391 0.2006748
-0.95537645 -0.91849488 1.2615205
-0.922185 -0.88750279 1.0154792
-0.9110648 -0.87740362 0.82889187
-0.9026078 -0.87016022 0.66703832
-0.89081234 -0.85937881 0.51993883
-0.87085623 -0.84070396 0.38266009
-0.86195886 -0.83239836 0.25934252
-0.85484314 -0.8260929 0.14162977
-0.083130427 -0.030331958 8.7189417
-0.98931062 -0.90423167 8.5206442
-1.2892839 -1.1934748 8.4700031
-0.71388233 -0.66995913 3.1769717
-1.1950327 -1.1291103 3.9327753
-1.0913628 -1.0354658 2.8242772
-1.0422662 -0.99162805 2.1855421
-1.0105225 -0.96342367 1.7482344
-0.40353873 -0.30954251 8.6349974
-0.71449482 -0.59189117 8.6104555
-1.1603026 -1.0793118 6.138711
-0.79068249 -0.74248052 3.0037851
-1.1203142 -1.0577585 3.2496209
-1.0597185 -1.0036736 2.4575975
-1.0180827 -0.96657932 1.9336712
-0.98101777 -0.9330014 1.5459599
-0.96376652 -0.92269123 1.3909521
-0.92955297 -0.89085799 1.1205453
-0.90981185 -0.87284011 0.91122693
-0.9053852 -0.8691901 0.74353397
-0.893215 -0.85809571 0.58875066
-0.87517405 -0.84134167 0.44677821
-0.86377615 -0.83095801 0.31903145
-0.86089826 -0.82875764 0.20022772
-0.95317531 -0.90999806 1.2548696
-0.91943294 -0.87869328 1.0095929
-0.91100657 -0.87123877 0.82635868
-0.90236127 -0.86386579 0.6649403
-0.89039677 -0.85299742 0.51829535
-0.87027681 -0.83429545 0.38148779
-0.86128503 -0.82595694 0.25865185
-0.8541168 -0.81964475 0.14142823
-0.083193704 -0.030030087 8.7139416
-0.99303651 -0.90129477 8.5255833
-1.293442 -1.188967 8.4700031
-0.71730876 -0.66848052 3.1817434
-1.194692 -1.120922 3.9189675
-1.0914841 -1.0283655 2.8154991
-1.0416301 -0.984119 2.1772761
-1.0115515 -0.95768684 1.7443968
-0.40484706 -0.30830616 8.6399889
-0.7161445 -0.58905536 8.605484
-1.1649866 -1.0761079 6.1435504
-0.7932694 -0.73971599 3.0037851
-1.119235 -1.0493749 3.2361174
-1.0575157 -0.99460846 2.4447997
-1.0192579 -0.9609527 1.9296812
-0.98180372 -0.92724365 1.5422847
-0.96439666 -0.91686434 1.3874475
-0.92983741 -0.88492453 1.1174068
-0.9098255 -0.86677486 0.90848547
-0.90520734 -0.86296785 0.74121517
-0.89285046 -0.85177261 0.58687764
-0.87810552 -0.83828163 0.44677821
-0.86667144 -0.82793778 0.31903145
-0.86018616 -0.82230628 0.19978066
-0.95363623 -0.90409648 1.2515441
-0.91956258 -0.87269616 1.0066497
-0.91091621 -0.86508495 0.82382548
-0.90208179 -0.8575837 0.66284221
-0.88994741 -0.8466295 0.51665181
-0.86966324 -0.82790112 0.38031548
-0.86416286 -0.82294548 0.25865185
-0.853356 -0.81321174 0.14122671
-0.08329802 -0.029739505 8.7139416
-0.99675387 -0.89834297 8.5305223
-1.2975844 -1.1844448 8.4700031
-0.72073364 -0.66698623 3.1865156
-1.194309 -1.1127499 3.90516
-1.08982 -1.0196409 2.8023319
-1.0430067 -0.97855181 2.1731431
-1.0102175 -0.9497593 1.7367218
-0.4059208 -0.30689111 8.6399889
-0.71613002 -0.58486855 8.5806274
-1.1687357 -1.0720348 6.1435504
-0.79711312 -0.73811477 3.0084779
-1.1197045 -1.0424951 3.2271149
-1.0552627 -0.98557097 2.4320021
-1.0182065 -0.95327044 1.9217011
-0.98008859 -0.91917294 1.5349344
-0.96240467 -0.90859616 1.3804384
-0.92726272 -0.87632662 1.11113
-0.91284549 -0.8635937 0.90848547
-0.90499717 -0.85675746 0.73889637
-0.89245266 -0.84546262 0.58500457
-0.87754488 -0.83191103 0.44536817
-0.86599243 -0.82152677 0.31809881
-0.85943955 -0.81587005 0.19933358
-0.9513489 -0.89564365 1.2448931
-0.91671985 -0.86393678 1.0007634
-0.9107942 -0.85894257 0.82129234
-0.90176958 -0.85131413 0.66074419
-0.88946468 -0.84027505 0.51500833
-0.86901557 -0.82152128 0.37914312
-0.86343223 -0.81652147 0.25796115
-0.8525607 -0.80679417 0.14102517
-0.08340133 -0.029448558 8.7139416
-0.99988359 -0.89485824 8.5305223
-1.301711 -1.1799082 8.4700031
-0.72415674 -0.66547614 3.1912875
-1.1938835 -1.1045943 3.8913527
-1.0863537 -1.0093104 2.7847755
-1.042298 -0.9710688 2.1648772
-1.0088407 -0.94185281 1.7290468
-0.40698957 -0.30547231 8.6399889
-0.7202394 -0.58404142 8.605484
-1.1734 -1.0687947 6.1483898
-0.80095518 -0.73649555 3.0131705
-1.1185409 -1.0341471 3.2136111
-1.0529596 -0.97656137 2.419204
-1.0149068 -0.94355571 1.9097309
-0.98081005 -0.91343588 1.5312593
-0.96036673 -0.90035319 1.3734293
-0.92747778 -0.87042117 1.1079915
-0.91280687 -0.85753912 0.90574402
-0.9047547 -0.85055906 0.73657757
-0.89202178 -0.83916575 0.58313155
-0.8769505 -0.82555467 0.44395813
-0.86885482 -0.81849885 0.31809881
-0.85865861 -0.80944908 0.1988865
-0.95174181 -0.88976753 1.2415675
-0.9167788 -0.85796982 0.99782026
-0.9106403 -0.85281152 0.81875914
-0.90142459 -0.84505731 0.65864611
-0.88894838 -0.83393443 0.51336479
-0.86833411 -0.8151561 0.37797081
-0.86266726 -0.8101126 0.25727049
-0.85173106 -0.80039203 0.14082365
-0.083461411 -0.029146189 8.7089415
-1.0035821 -0.89187849 8.5354624
-1.3058218 -1.1753572 8.4700031
-0.73198938 -0.66797411 3.2151475
-1.1934158 -1.0964553 3.8775451
-1.0845891 -1.0006406 2.7716084
-1.0394841 -0.96169209 2.1524785
-1.007421 -0.93396759 1.7213718
-0.40828547 -0.30422151 8.6449804
-0.72268927 -0.58185756 8.6104555
-1.1771237 -1.0646923 6.1483898
-0.80479562 -0.73485863 3.0178635
-1.1189365 -1.0272923 3.2046089
-1.0525248 -0.96934658 2.4106722
-1.0115519 -0.93387574 1.897761
-0.97901452 -0.90540326 1.523909
-0.96089339 -0.89456546 1.3699248
-0.92766285 -0.86452478 1.104853
-0.91273707 -0.85149539 0.9030025
-0.90448004 -0.84437287 0.73425877
-0.89155787 -0.83288223 0.58125854
-0.87632257 -0.81921273 0.4425481
-0.8681193 -0.81210518 0.31716621
-0.85784328 -0.80304354 0.19843942
-0.94936895 -0.88135946 1.2349164
-0.91384614 -0.84926152 0.99193394
-0.90729803 -0.84375644 0.81369281
-0.90104687 -0.83881313 0.65654802
-0.88839865 -0.82760757 0.51172131
-0.8676188 -0.80880576 0.37679848
-0.86186802 -0.8037191 0.25657982
-0.85451978 -0.797414 0.14082365
-0.083562642 -0.028854677 8.7089415
-1.0066892 -0.88836986 8.5354624
-1.3106759 -1.1714703 8.4748983
-0.7398482 -0.67042542 3.2390072
-1.1929057 -1.088333 3.8637373
-1.0810112 -0.99037766 2.7540519
-1.03869 -0.9542504 2.1442127
-1.0059584 -0.92610377 1.7136967
-0.40934488 -0.30279449 8.6449804
-0.72513276 -0.57966375 8.615427
-1.1817683 -1.0614167 6.1532292
-0.80863452 -0.73320389 3.0225561
-1.117689 -1.0189806 3.1911051
-1.0520527 -0.96214682 2.4021404
-1.0103631 -0.92626685 1.889781
-0.97967184 -0.89968741 1.5202339
-0.95877266 -0.8863644 1.3629158
-0.92781812 -0.85863781 1.1017146
-0.91263622 -0.84546244 0.90026098
-0.90417325 -0.83819902 0.73193997
-0.89106101 -0.82661217 0.57938552
-0.87566108 -0.81288511 0.44113809
-0.86734974 -0.80572671 0.31623358
-0.86064118 -0.80004424 0.19843942
-0.9496944 -0.8755095 1.231591
-0.91383445 -0.84332526 0.98899078
-0.90707064 -0.83765972 0.81115961
-0.90063661 -0.832582 0.65445
-0.88781571 -0.82129484 0.51007777
-0.86686981 -0.80247039 0.37562618
-0.86103481 -0.79734105 0.25588912
-0.85363358 -0.79103059 0.14062211
-0.083662853 -0.028562814 8.7089415
-1.0097841 -0.88485044 8.5354624
-1.3147571 -1.166888 8.4748983
-0.76327056 -0.68680531 3.329675
-1.1923535 -1.0802277 3.8499298
-1.0791465 -0.98176348 2.7408845
-1.0357774 -0.94492954 2.1318138
-1.0068195 -0.92042428 1.7098594
-0.41039935 -0.30136374 8.6449804
-0.72715175 -0.57712895 8.615427
-1.1854662 -1.0572852 6.1532292
-0.81760204 -0.73614913 3.04602
-1.1180111 -1.0121511 3.1821027
-1.0515431 -0.95496213 2.3936086
-1.0113617 -0.92070597 1.8857908
-0.97779632 -0.89169371 1.5128835
-0.95923364 -0.88060069 1.3594111
-0.9250775 -0.8501265 1.0954376
-0.91250437 -0.8394407 0.89751953
-0.9038344 -0.83203775 0.72962117
-0.89053118 -0.82035589 0.57751244
-0.87143898 -0.80332088 0.43831801
-0.86654633 -0.79936355 0.31530097
-0.85976934 -0.7936573 0.19799234
-0.94999057 -0.86966807 1.2282655
-0.91379267 -0.8373996 0.98604763
-0.90681189 -0.83157498 0.80862641
-0.90353739 -0.8294332 0.65445
-0.88719946 -0.81499624 0.5084343
-0.86608726 -0.79615015 0.37445387
-0.8638128 -0.79433066 0.25588912
-0.85638952 -0.78804606 0.14062211
-0.083762042 -0.0282706 8.7089415
-1.0128666 -0.88132024 8.5354624
-1.3188223 -1.1622915 8.4748983
-0.78570265 -0.70203513 3.4155707
-1.1917593 -1.0721397 3.8361223
-1.0772351 -0.97317457 2.7277176
-1.0328127 -0.93564093 2.119415
-1.0076528 -0.9147498 1.7060218
-0.41144881 -0.29992932 8.6449804
-0.72958094 -0.57491666 8.6203995
-1.1900907 -1.0539739 6.1580687
-0.82531333 -0.73789066 3.064791
-1.1199185 -1.0067872 3.1776016
-1.0509964 -0.94779289 2.3850765
-1.0100987 -0.91312891 1.8778108
-0.97587693 -0.88372427 1.5055332
-0.95703036 -0.87244213 1.3524021
-0.92516416 -0.84426862 1.0922991
-0.91234171 -0.83343035 0.89477807
-0.9034636 -0.82588893 0.72730237
-0.88996875 -0.81411344 0.57563943
-0.87069923 -0.79703498 0.43690795
-0.86570919 -0.79301584 0.31436834
-0.85886347 -0.78728622 0.19754526
-0.94749463 -0.86132389 1.2216145
-0.91372055 -0.83148438 0.98310447
-0.90652174 -0.82550216 0.80609328
-0.90307295 -0.8232168 0.65235192
-0.89003891 -0.81189442 0.5084343
-0.86527115 -0.78984523 0.37328154
-0.86292338 -0.78797132 0.25519845
-0.85544711 -0.7816819 0.14042059
-0.083860219 -0.027978044 8.7089415
-1.0159369 -0.87777936 8.5354624
-1.3228714 -1.157681 8.4748983
-0.80825013 -0.71711659 3.5014665
-1.1896662 -1.0627675 3.8177123
-1.0770596 -0.96621007 2.7189393
-1.0297958 -0.92638445 2.1070161
-1.008459 -0.90908098 1.7021843
-0.41249323 -0.2984913 8.6449804
-0.73116314 -0.57203853 8.615427
-1.1947066 -1.0506432 6.1629081
-0.83820921 -0.74416924 3.1023331
-1.1201776 -0.99997264 3.1685991
-1.0504124 -0.94063908 2.3765447
-1.0132799 -0.90959746 1.8778108
-0.97391373 -0.87577891 1.4981829
-0.95742595 -0.86670291 1.3488976
-0.9252212 -0.83842057 1.0891607
-0.91214824 -0.82743126 0.89203662
-0.90306097 -0.81975287 0.72498357
-0.88937354 -0.80788481 0.57376641
-0.86992633 -0.79076427 0.43549791
-0.86847204 -0.78998917 0.31436834
-0.85424083 -0.77757901 0.1966511
-0.94772381 -0.85550946 1.218289
-0.91361827 -0.82557994 0.98016131
-0.90939772 -0.82233274 0.80609328
-0.90257621 -0.81701374 0.65025389
-0.88936764 -0.8056125 0.50679076
-0.86442161 -0.78355569 0.37210923
-0.86200017 -0.78162795 0.25450778
-0.85447067 -0.77533394 0.14021905
-0.083957367 -0.027685147 8.7089415
-1.0189947 -0.8742277 8.5354624
-1.3269043 -1.1530561 8.4748983
-0.81858987 -0.72119677 3.5348704
-1.1889838 -1.0547193 3.8039043
-1.0768489 -0.95925879 2.7101612
-1.0288256 -0.91903508 2.0987501
-1.0092376 -0.90341753 1.6983467
-0.41329762 -0.29688197 8.6399889
-0.73315543 -0.56948274 8.615427
-1.1993136 -1.0472932 6.167748
-0.84209639 -0.74237978 3.1070261
-1.1204031 -0.99316853 3.1595967
-1.0517403 -0.93523371 2.3722787
-1.0141995 -0.90405005 1.8738209
-0.97443604 -0.87011623 1.4945077
-0.95514089 -0.85858768 1.3418884
-0.9252488 -0.83258241 1.0860223
-0.911924 -0.82144374 0.88929516
-0.90262645 -0.81362981 0.72266477
-0.88874567 -0.80167031 0.57189339
-0.87268138 -0.78772283 0.43549791
-0.86757892 -0.78366011 0.31343573
-0.85325551 -0.77125305 0.19620402
-0.9479239 -0.84970409 1.2149636
-0.91649455 -0.82238585 0.98016131
-0.90905505 -0.81627333 0.80356008
-0.90204722 -0.81082428 0.64815581
-0.89217436 -0.80250317 0.50679076
-0.8671515 -0.78053349 0.37210923
-0.86104321 -0.77530068 0.25381708
-0.85717183 -0.77234656 0.14021905
-0.084053494 -0.027391912 8.7089415
-1.0220401 -0.87066543 8.5354624
-1.3309212 -1.1484174 8.4748983
-0.82110232 -0.71833497 3.5348704
-1.1867936 -1.0453976 3.7854943
-1.0748087 -0.95073402 2.6969938
-1.0278168 -0.91170377 2.0904841
-1.012385 -0.89988917 1.6983467
-0.41433144 -0.29543748 8.6399889
-0.73513883 -0.56692016 8.615427
-1.2039118 -1.0439237 6.1725869
-0.84338403 -0.73829937 3.1023331
-1.1205946 -0.98637515 3.1505942
-1.0510883 -0.92810464 2.3637469
-1.0150925 -0.89850724 1.8698307
-0.97239393 -0.86221135 1.4871573
-0.95547146 -0.85287362 1.3383839
-0.92234433 -0.82416087 1.0797453
-0.91166919 -0.81546801 0.8865537
-0.90546101 -0.8104741 0.72266477
-0.89153862 -0.79856318 0.57189339
-0.87185353 -0.78147006 0.43408787
-0.87030911 -0.78062695 0.31343573
-0.85223639 -0.76494348 0.19575694
-0.94809496 -0.84390759 1.211638
-0.91634166 -0.81649274 0.97721815
-0.90868127 -0.81022644 0.80102688
-0.904872 -0.80767053 0.64815581
-0.89144832 -0.79623842 0.50514728
-0.8662467 -0.77426273 0.3709369
-0.86005265 -0.76898974 0.25312641
-0.85613942 -0.76601845 0.14001752
-0.084148601 -0.027098345 8.7089415
-1.0250731 -0.86709255 8.5354624
-1.3349218 -1.1437646 8.4748983
-0.83600247 -0.72623014 3.5873621
-1.1830823 -1.0348182 3.7624817
-1.0745218 -0.94381571 2.6882157
-1.0267694 -0.90439081 2.0822184
-1.0131171 -0.89422899 1.6945094
-0.41536018 -0.29398939 8.6399889
-0.7371133 -0.56435055 8.615427
-1.2075485 -1.0397149 6.1725869
-0.84595609 -0.73535091 3.1023331
-1.1191132 -0.97816008 3.1370907
-1.0523605 -0.92271078 2.3594811
-1.0136958 -0.89098012 1.8618507
-0.9703086 -0.85433143 1.479807
-0.95577377 -0.84716779 1.3348794
-0.92230403 -0.81835312 1.0766069
-0.91138375 -0.80950397 0.88381225
-0.90497351 -0.80436569 0.72034597
-0.89085662 -0.79236531 0.57002032
-0.87457603 -0.778422 0.43408787
-0.86936045 -0.77431715 0.3125031
-0.85118365 -0.75865048 0.19530986
-0.94543958 -0.83564782 1.204987
-0.91615891 -0.81061077 0.97427499
-0.90827632 -0.80419201 0.79849374
-0.90428931 -0.8014968 0.64605778
-0.89068937 -0.78998846 0.5035038
-0.8653087 -0.7680077 0.3697646
-0.85902852 -0.76269507 0.25243574
-0.85507339 -0.75970709 0.13981599
-0.084242679 -0.026804445 8.7089415
-1.0280936 -0.86350906 8.5354624
-1.3389062 -1.1390979 8.4748983
-0.83966291 -0.72428238 3.5921342
-1.1793118 -1.0242774 3.7394691
-1.0705895 -0.93376273 2.6706595
-1.0278016 -0.89894867 2.0780854
-1.0114112 -0.88646203 1.6868343
-0.41614705 -0.29237252 8.6349974
-0.7390787 -0.56177408 8.615427
-1.2197701 -1.0428435 6.2161417
-0.84851778 -0.7323935 3.1023331
-1.1175883 -0.96996737 3.1235871
-1.0516407 -0.91560698 2.3509493
-1.0145296 -0.88545513 1.8578608
-0.96818018 -0.84647679 1.4724567
-0.95604795 -0.8414703 1.3313749
-0.92223442 -0.81255567 1.0734684
-0.91106784 -0.80355197 0.88107073
-0.90445453 -0.79827064 0.71802717
-0.89014232 -0.78618199 0.5681473
-0.87369341 -0.77218759 0.43267787
-0.87205803 -0.77127773 0.3125031
-0.85009754 -0.75237423 0.19486278
-0.94554448 -0.82987964 1.2016616
-0.91594636 -0.80474019 0.97133183
-0.90784043 -0.79817039 0.79596055
-0.90367454 -0.79533696 0.6439597
-0.88635391 -0.78063262 0.50021678
-0.86433774 -0.76176882 0.36859229
-0.85797107 -0.75641704 0.25174505
-0.85397363 -0.75341249 0.13961446
-0.084335729 -0.026510222 8.7089415
-1.0311015 -0.85991514 8.5354624
-1.3428743 -1.1344173 8.4748983
-0.84445381 -0.72328866 3.6016781
-1.1754822 -1.0137758 3.7164567
-1.0684108 -0.92531663 2.6574922
-1.0288086 -0.89351046 2.0739524
-1.0096635 -0.87871796 1.6791594
-0.4171651 -0.29091811 8.6349974
-0.74103522 -0.55919081 8.615427
-1.2310697 -1.0450858 6.2548571
-0.85106915 -0.72942716 3.1023331
-1.1160197 -0.96179724 3.1100833
-1.0508842 -0.90851945 2.3424172
-1.0107824 -0.87598836 1.8458906
-0.9685688 -0.84086961 1.4687816
-0.95360875 -0.83343452 1.3243657
-0.92213565 -0.80676872 1.07033
-0.9107216 -0.79761207 0.87832928
-0.90390396 -0.792189 0.71570832
-0.88939565 -0.78001338 0.56627429
-0.87277806 -0.76596898 0.43126783
-0.87105399 -0.76498753 0.3115705
-0.84897786 -0.74611479 0.1944157
-0.9456206 -0.82412106 1.198336
-0.91570389 -0.79888093 0.96838868
-0.90737361 -0.79216164 0.79342741
-0.90302783 -0.78919125 0.64186168
-0.88551879 -0.77442533 0.49857324
-0.86333382 -0.75554615 0.36741996
-0.85688019 -0.75015563 0.25105438
-0.84908265 -0.74384284 0.1392114
-0.084427752 -0.026215672 8.7089415
-1.0340968 -0.85631067 8.5354624
-1.3468258 -1.1297228 8.4748983
-0.84811062 -0.72130334 3.6064501
-1.1715935 -1.0033133 3.6934438
-1.0589223 -0.91065145 2.6267686
-1.02979 -0.88807619 2.0698195
-1.0078741 -0.87099695 1.6714844
-0.41817805 -0.28946018 8.6349974
-0.74298263 -0.55660075 8.615427
-1.2375939 -1.0432123 6.2693753
-0.8549245 -0.72757012 3.1070261
-1.1144079 -0.95365006 3.0965798
-1.0500913 -0.90144843 2.3338854
-1.0092658 -0.86852407 1.8379105
-0.96636236 -0.83305675 1.4614313
-0.95381862 -0.82776344 1.3208612
-0.92200768 -0.80099243 1.0671915
-0.9103449 -0.79168427 0.87558782
-0.90332198 -0.78612095 0.71338952
-0.88861686 -0.7738595 0.56440127
-0.87182993 -0.75976616 0.42985779
-0.87001675 -0.75871378 0.31063786
-0.84782499 -0.73987246 0.19396862
-0.9456681 -0.81837201 1.1950105
-0.91543174 -0.79303318 0.96544552
-0.90687591 -0.78616595 0.79089421
-0.90234923 -0.78305972 0.63976365
-0.88465118 -0.76823342 0.49692973
-0.86596596 -0.75252795 0.36741996
-0.85201871 -0.74066234 0.24967301
-0.84790456 -0.7375955 0.13900986
-0.084476151 -0.02591137 8.7039413
-1.0370797 -0.85269576 8.5354624
-1.3507612 -1.1250147 8.4748983
-0.85404527 -0.72122723 3.6207662
-1.169135 -0.99415594 3.6750338
-1.0675589 -0.91161478 2.6399357
-1.0328838 -0.88447613 2.0698195
-1.0060432 -0.86329913 1.6638092
-0.41918591 -0.28799868 8.6349974
-0.74492097 -0.55400383 8.615427
-1.2691845 -1.0622778 6.4097185
-0.85745895 -0.72458142 3.1070261
-1.1110936 -0.94411629 3.0785747
-1.0492616 -0.89439398 2.3253536
-1.0077095 -0.86108106 1.8299305
-0.96668869 -0.827474 1.457756
-0.95400065 -0.82210106 1.3173567
-0.92185074 -0.79522681 1.0640531
-0.90993798 -0.78576905 0.87284636
-0.90270871 -0.78006673 0.71107078
-0.88780606 -0.76772076 0.56252825
-0.87084925 -0.75357938 0.42844775
-0.86894637 -0.75245661 0.30970526
-0.85040247 -0.73690844 0.19396862
-0.94568712 -0.81263274 1.1916851
-0.91513002 -0.78719705 0.96250236
-0.90634739 -0.78018332 0.78836101
-0.90163887 -0.77694255 0.63766557
-0.88732743 -0.76514077 0.49692973
-0.86490744 -0.74632519 0.36624765
-0.85085022 -0.7344479 0.24898234
-0.8466934 -0.7313655 0.13880834
-0.084566087 -0.025616335 8.7039413
-1.0400498 -0.84907049 8.5354624
-1.3546799 -1.1202929 8.4748983
-0.85541356 -0.71728271 3.615994
-1.1651338 -0.98376775 3.6520214
-1.0670807 -0.90478534 2.6311576
-1.0338211 -0.87904263 2.0656865
-1.0041708 -0.85562479 1.6561341
-0.42018867 -0.28653368 8.6349974
-0.74685031 -0.55140024 8.615427
-1.2951219 -1.0763159 6.5210257
-0.86130512 -0.72269297 3.1117187
-1.1093906 -0.93602109 3.0650711
-1.0483955 -0.8873564 2.3168218
-1.0061135 -0.85365963 1.8219506
-0.9644047 -0.8197037 1.4504057
-0.95415467 -0.81644756 1.3138521
-0.92166483 -0.78947216 1.0609146
-0.90950096 -0.77986628 0.87010491
-0.90206426 -0.77402639 0.70875198
-0.89048052 -0.76461709 0.56252825
-0.87347442 -0.75053495 0.42844775
-0.87156761 -0.74941885 0.30970526
-0.84919465 -0.73068738 0.19352154
-0.94283694 -0.8044799 1.185034
-0.91479868 -0.78137285 0.95955914
-0.90578818 -0.77421397 0.78582788
-0.90089685 -0.77083999 0.63556755
-0.88640583 -0.75896752 0.49528623
-0.8675074 -0.74330151 0.36624765
-0.84964877 -0.72825068 0.24829166
-0.84544897 -0.72515297 0.1386068
-0.084654987 -0.025320988 8.7039413
-1.0430073 -0.84543484 8.5354624
-1.3585823 -1.1155573 8.4748983
-0.8670907 -0.72193158 3.65417
-1.1640689 -0.97592956 3.6382136
-1.0684004 -0.89951271 2.6267686
-1.0347328 -0.8736133 2.0615535
-0.99981028 -0.84590399 1.6446217
-0.42094672 -0.28490424 8.6300068
-0.74877048 -0.5487898 8.615427
-1.3153547 -1.0853862 6.6032958
-0.86514854 -0.72078645 3.1164114
-1.1076446 -0.92794931 3.0515676
-1.0474933 -0.88033587 2.30829
-1.0067827 -0.8482011 1.8179604
-0.96466923 -0.81414586 1.4467305
-0.95428097 -0.81080294 1.3103476
-0.92144996 -0.78372854 1.0577762
-0.90903378 -0.77397609 0.86736345
-0.9047606 -0.77087289 0.70875198
-0.88961631 -0.75849634 0.56065518
-0.87243956 -0.7443679 0.42703772
-0.87044245 -0.74318236 0.30877262
-0.84795386 -0.72448379 0.19307446
-0.94279051 -0.79877037 1.1817086
-0.91135514 -0.77294618 0.95367283
-0.90519851 -0.76825815 0.78329468
-0.90012336 -0.76475215 0.63346946
-0.88904971 -0.75586873 0.49528623
-0.86639458 -0.7371192 0.36507532
-0.84841448 -0.72207087 0.24760097
-0.84797513 -0.72219735 0.1386068
-0.084742859 -0.025025332 8.7039413
-1.0459521 -0.84178895 8.5354624
-1.362468 -1.1108081 8.4748983
-0.87305737 -0.72175312 3.6684859
-1.1584587 -0.96436167 3.6105986
-1.0678586 -0.89270592 2.6179905
-1.0356194 -0.86818838 2.0574207
-0.99784833 -0.83828568 1.6369468
-0.42193863 -0.28343314 8.6300068
-0.75068158 -0.5461728 8.615427
-1.3872045 -1.1365417 6.9420557
-0.86765933 -0.71776205 3.1164114
-1.1058558 -0.91990125 3.038064
-1.0465547 -0.87333238 2.299758
-1.0074259 -0.84274834 1.8139704
-0.96490675 -0.80859631 1.4430554
-0.9543795 -0.80516744 1.306843
-0.9212063 -0.777996 1.0546377
-0.90853667 -0.76809883 0.864622
-0.904064 -0.76484895 0.70643318
-0.88872021 -0.75239098 0.55878216
-0.8713724 -0.73821712 0.42562771
-0.87303126 -0.74013942 0.30877262
-0.8466801 -0.7182979 0.19262739
-0.9427157 -0.79307109 1.1783831
-0.91095591 -0.76715672 0.95072967
-0.90457821 -0.76231593 0.78076148
-0.89931834 -0.75867903 0.63137144
-0.8880744 -0.74971467 0.49364269
-0.86896229 -0.73409039 0.36507532
-0.8509298 -0.71910501 0.24760097
-0.84667611 -0.71600699 0.13840528
-0.084872425 -0.024738213 8.7089415
-1.048884 -0.8381328 8.5354624
-1.3663372 -1.1060455 8.4748983
-0.88364917 -0.72532922 3.7018898
-1.1618179 -0.96031207 3.6105986
-1.0672822 -0.88591385 2.6092124
-1.0321549 -0.85916775 2.0450218
-0.9958455 -0.83069152 1.6292717
-0.42292544 -0.28195858 8.6300068
-0.75258344 -0.54354912 8.615427
-1.5091611 -1.2276553 7.527626
-0.87149316 -0.71582413 3.1211042
-1.1040244 -0.91187692 3.0245602
-1.0455801 -0.8663463 2.2912261
-1.0103616 -0.8392266 1.8139704
-0.96511728 -0.80305493 1.4393802
-0.95718426 -0.80183113 1.306843
-0.92093378 -0.77227473 1.0514992
-0.90800965 -0.76223445 0.86188054
-0.90333629 -0.75883925 0.70411438
-0.89134121 -0.74928421 0.55878216
-0.87027299 -0.73208302 0.42421767
-0.8718515 -0.73392403 0.30784002
-0.84537357 -0.71212965 0.19218032
-0.93974698 -0.78498852 1.1717321
-0.91052735 -0.76137948 0.94778651
-0.90723372 -0.75915372 0.78076148
-0.89848185 -0.752621 0.62927336
-0.88706696 -0.74357671 0.49199918
-0.86779541 -0.727929 0.36390302
-0.84964126 -0.71294719 0.2469103
-0.84534425 -0.70983452 0.13820374
-0.084958255 -0.024441801 8.7089415
-1.0518034 -0.8344664 8.5354624
-1.3701897 -1.1012692 8.4748983
-0.89427644 -0.72884005 3.7352936
-1.1545908 -0.94757593 3.5783808
-1.0648232 -0.87761378 2.596045
-1.0264709 -0.84838927 2.0284901
-0.99627054 -0.82516593 1.6254343
-0.42390707 -0.28048056 8.6300068
-0.75404257 -0.5406087 8.6104555
-1.537886 -1.2421216 7.6486115
-0.87398654 -0.71277773 3.1211042
-1.1021506 -0.90387672 3.0110567
-1.0465837 -0.86103445 2.2869601
-1.0109601 -0.83377767 1.8099804
-0.96268725 -0.79536289 1.4320298
-0.95723534 -0.79620457 1.3033384
-0.92063266 -0.76656491 1.0483608
-0.90745264 -0.75638306 0.85913903
-0.899176 -0.75000679 0.69947678
-0.89039207 -0.74319768 0.55690914
-0.86914134 -0.72596562 0.42280763
-0.87440807 -0.73087621 0.30784002
-0.84785414 -0.70917439 0.19218032
-0.93960732 -0.77931988 1.1684066
-0.91006958 -0.75561452 0.94484335
-0.90656239 -0.75322759 0.77822834
-0.89761406 -0.74657798 0.62717533
-0.88602751 -0.73745489 0.49035567
-0.87033111 -0.72489542 0.36390302
-0.85212475 -0.70997703 0.2469103
-0.84397978 -0.7036801 0.1380022
-0.085043058 -0.024145095 8.7089415
-1.0547097 -0.8307898 8.5354624
-1.3740255 -1.0964798 8.4748983
-0.90377849 -0.73134679 3.7639256
-1.1503184 -0.93737 3.5553682
-1.064173 -0.87085825 2.5872669
-1.0228999 -0.83944601 2.0160913
-0.99419338 -0.81761169 1.6177592
-0.42488354 -0.27899912 8.6300068
-0.75592506 -0.53797328 8.6104555
-1.540251 -1.2351732 7.6389322
-0.8778106 -0.71080834 3.125797
-1.1019225 -0.89727515 3.0020542
-1.0455431 -0.85407639 2.2784283
-1.0115329 -0.82833469 1.8059905
-0.96283656 -0.78984761 1.4283547
-0.96000874 -0.79285836 1.3033384
-0.92030299 -0.7608667 1.0452224
-0.90686607 -0.75054502 0.85639757
-0.89837676 -0.74403805 0.69715798
-0.88941145 -0.73712695 0.55503613
-0.87167013 -0.72292727 0.42280763
-0.87317395 -0.72468233 0.30690739
-0.84649342 -0.7030288 0.19173324
-0.93943971 -0.77366191 1.165081
-0.90958273 -0.74986213 0.94190019
-0.90586072 -0.74731529 0.77569515
-0.8967151 -0.74055028 0.62507725
-0.8849563 -0.73134953 0.48871216
-0.86911047 -0.7187553 0.36273071
-0.85078233 -0.70384175 0.24621962
-0.84258258 -0.69754386 0.13780068
-0.085126817 -0.02384809 8.7089415
-1.0569911 -0.82662469 8.5305223
-1.3778446 -1.0916768 8.4748983
-0.90516198 -0.72725278 3.7591536
-1.1110537 -0.89894593 3.4264975
-1.0616297 -0.86260784 2.5740998
-1.0192789 -0.83053803 2.0036924
-0.99207562 -0.81008208 1.6100842
-0.42609718 -0.2776711 8.6349974
-0.75779837 -0.53533137 8.6104555
-1.5150502 -1.2063047 7.4937501
-0.88028634 -0.70773989 3.125797
-1.1016619 -0.89068627 2.9930518
-1.0464922 -0.84877884 2.2741623
-1.0120801 -0.82289791 1.8020003
-0.96295905 -0.7843411 1.4246795
-0.96001279 -0.78724122 1.2998339
-0.9199447 -0.75518006 1.0420839
-0.90624982 -0.74472022 0.85365611
-0.89754689 -0.73808402 0.69483918
-0.88839936 -0.73107213 0.55316305
-0.87048519 -0.71683085 0.4213976
-0.87190729 -0.7185061 0.30597478
-0.84894234 -0.70006973 0.19173324
-0.93924397 -0.76801449 1.1617556
-0.9090668 -0.74412239 0.93895704
-0.90846384 -0.74414867 0.77569515
-0.89578509 -0.7345379 0.62297922
-0.88385326 -0.72526056 0.48706865
-0.86785758 -0.71263266 0.36155838
-0.85323393 -0.70086771 0.24621962
-0.84501231 -0.69459844 0.13780068
-0.085209548 -0.023550797 8.7089415
-1.0598701 -0.82292998 8.5305223
-1.3808463 -1.0862312 8.4700031
-0.91353041 -0.72874206 3.7830136
-1.077628 -0.86570126 3.3160369
-1.0590417 -0.85438591 2.5609324
-1.019984 -0.82520533 1.9995594
-0.98991746 -0.80257732 1.6024091
-0.42706388 -0.27618203 8.6349974
-0.75966239 -0.53268284 8.6104555
-1.5192518 -1.2010088 7.4937501
-0.88275152 -0.7046628 3.125797
-1.099671 -0.88274747 2.9795482
-1.0453857 -0.84184945 2.2656305
-1.0102569 -0.81557482 1.7940203
-0.96041882 -0.77671164 1.4173292
-0.95998937 -0.78163385 1.2963293
-0.91955793 -0.74950528 1.0389454
-0.90560395 -0.73890895 0.85091466
-0.90011787 -0.73494655 0.69483918
-0.8873558 -0.7250334 0.55129004
-0.87298208 -0.71378785 0.4213976
-0.87060815 -0.71234751 0.30504215
-0.84752762 -0.69394708 0.19128615
-0.93902022 -0.76237792 1.15843
-0.90852201 -0.73839551 0.93601388
-0.90771139 -0.73825306 0.77316189
-0.89482409 -0.72854125 0.6208812
-0.88271856 -0.71918827 0.48542514
-0.86657262 -0.70652759 0.36038607
-0.85183764 -0.6947552 0.24552894
-0.84356129 -0.68848568 0.13759914
-0.085291237 -0.023253217 8.7089415
-1.0627362 -0.81922537 8.5305223
-1.3846296 -1.0814046 8.4700031
-1.053149 -0.84000945 3.2331915
-1.058279 -0.84768969 2.5521543
-1.0184702 -0.81811553 1.9912934
-0.99021614 -0.79710728 1.5985717
-0.42802531 -0.27468961 8.6349974
-0.76151717 -0.53002793 8.6104555
-1.5135459 -1.1879388 7.4453554
-0.88655841 -0.70264876 3.1304898
-1.0993406 -0.87619013 2.9705458
-1.0442439 -0.83493829 2.2570984
-1.0107464 -0.81015903 1.7900304
-0.96048063 -0.77123189 1.4136541
-0.957165 -0.77379435 1.2893202
-0.91914278 -0.7438423 1.035807
-0.90492857 -0.73311126 0.8481732
-0.89923662 -0.72901046 0.69252038
-0.88628089 -0.71901083 0.54941696
-0.8717441 -0.70771283 0.41998756
-0.86927676 -0.7062068 0.30410954
-0.84994483 -0.69098443 0.19128615
-0.93876868 -0.75675237 1.1551045
-0.91109395 -0.73521972 0.93601388
-0.9069289 -0.73237187 0.77062875
-0.89736176 -0.72541326 0.6208812
-0.88155228 -0.71313286 0.48378164
-0.86525565 -0.70044011 0.35921374
-0.85040915 -0.6886611 0.24483825
-0.84207797 -0.68239146 0.13739762
-0.085371889 -0.022955354 8.7089415
-1.0655893 -0.81551069 8.5305223
-1.3883959 -1.0765647 8.4700031
-1.339895 -1.0535196 5.4961557
-1.0392262 -0.82298845 3.1825638
-1.0574822 -0.8410092 2.5433762
-1.0213197 -0.81455541 1.9912934
-0.98798466 -0.78964388 1.5908966
-0.42898157 -0.2731939 8.6349974
-0.76336265 -0.52736652 8.6104555
-1.5117338 -1.1780134 7.4163194
-0.88900572 -0.69954985 3.1304898
-1.0989779 -0.86964601 2.9615433
-1.0430665 -0.82804531 2.2485666
-1.0112103 -0.80474973 1.7860402
-0.96051586 -0.76576132 1.4099789
-0.95707893 -0.76821625 1.2858157
-0.91869944 -0.73819143 1.0326686
-0.90748209 -0.72994798 0.8481732
-0.9017759 -0.72586715 0.69252038
-0.88517499 -0.71300471 0.54754394
-0.87420911 -0.7046656 0.41998756
-0.87173653 -0.70316821 0.30410954
-0.84847653 -0.68488544 0.19083907
-0.93848938 -0.75113785 1.1517791
-0.91050029 -0.72950763 0.93307072
-0.90611643 -0.72650516 0.76809555
-0.89634889 -0.71943569 0.61878312
-0.8803544 -0.70709431 0.48213813
-0.86390674 -0.69437051 0.35804144
-0.84894842 -0.6825853 0.24414757
-0.84445477 -0.67944795 0.13739762
-0.085451491 -0.02265721 8.7089415
-1.0684295 -0.81178617 8.5305223
-1.3921454 -1.0717117 8.4700031
-1.3412111 -1.0469995 5.4866118
-1.0344129 -0.81331903 3.1595511
-1.0566519 -0.83434474 2.5345981
-1.0219507 -0.80923861 1.9871606
-0.9857133 -0.78220594 1.5832217
-0.42993256 -0.27169481 8.6349974
-0.76519889 -0.52469867 8.6104555
-1.5108653 -1.1688842 7.3921223
-0.89280224 -0.69750458 3.1351826
-1.098583 -0.86311501 2.9525409
-1.0418537 -0.82117075 2.2400348
-1.0116489 -0.79934704 1.7820503
-0.9605248 -0.76029992 1.4063038
-0.95417655 -0.76042575 1.2788066
-0.91822779 -0.73255289 1.02953
-0.90675718 -0.72416663 0.84543175
-0.90084356 -0.71994942 0.69020158
-0.88765842 -0.70991063 0.54754394
-0.87291819 -0.69861239 0.41857755
-0.87035167 -0.69705033 0.30317691
-0.85086203 -0.68191957 0.19083907
-0.93818223 -0.74553448 1.1484535
-0.9098779 -0.72380871 0.93012756
-0.90527421 -0.72065312 0.76556236
-0.89885473 -0.71630245 0.61878312
-0.88281727 -0.70401698 0.48213813
-0.86252612 -0.68831891 0.35686913
-0.84745574 -0.67652828 0.24345689
-0.84291804 -0.67337787 0.13719608
-0.085487112 -0.022351148 8.7039413
-1.0712566 -0.80805171 8.5305223
-1.3958778 -1.0668457 8.4700031
-1.3377777 -1.0368257 5.4579797
-1.0341654 -0.80729938 3.150346
-1.055788 -0.82769632 2.5258198
-1.0225568 -0.80392736 1.9830275
-0.98591977 -0.77677691 1.5793842
-0.43087834 -0.27019238 8.6349974
-0.76702577 -0.52202439 8.6104555
-1.5049667 -1.1559477 7.3437276
-0.89523154 -0.69438386 3.1351826
-1.0964392 -0.8552587 2.9390371
-1.0406058 -0.81431484 2.231503
-1.012062 -0.79395115 1.7780602
-0.96050715 -0.75484782 1.4026285
-0.95402837 -0.75487769 1.2753021
-0.91772813 -0.72692657 1.0263916
-0.90600288 -0.71839911 0.84269029
-0.89988106 -0.71404713 0.68788278
-0.88650048 -0.70392495 0.54567093
-0.87159562 -0.69257677 0.41716751
-0.86893463 -0.69095069 0.30224431
-0.84934032 -0.67584455 0.19039199
-0.93784755 -0.73994249 1.145128
-0.90922678 -0.71812308 0.9271844
-0.90778428 -0.71748871 0.76556236
-0.89779037 -0.71034449 0.61668509
-0.88156718 -0.69799984 0.48049462
-0.86111373 -0.68228543 0.3556968
-0.84593123 -0.67049003 0.2427662
-0.84526342 -0.67043144 0.13719608
-0.085564606 -0.022052605 8.7039413
-1.0740707 -0.8043074 8.5305223
-1.3995934 -1.0619667 8.4700031
-1.3366563 -1.028509 5.4388919
-1.04161 -0.80727434 3.1641538
-1.0567806 -0.82253498 2.5214307
-1.0231385 -0.79862183 1.9788946
-0.98357576 -0.76938128 1.5717092
-0.43181884 -0.26868668 8.6349974
-0.76840121 -0.51904595 8.605484
-1.4860014 -1.1331601 7.2324209
-0.89901733 -0.69230735 3.1398752
-1.0959753 -0.84876066 2.9300346
-1.0393227 -0.80747765 2.222971
-1.0100725 -0.7867108 1.7700801
-0.96046329 -0.74940503 1.3989534
-0.95104861 -0.74713707 1.268293
-0.91720033 -0.7213127 1.0232532
-0.90850502 -0.71523219 0.84269029
-0.89888823 -0.70816034 0.68556398
-0.8889522 -0.70082623 0.54567093
-0.87024182 -0.68655896 0.41575748
-0.87134123 -0.68791336 0.30224431
-0.84778672 -0.66978848 0.18994491
-0.93748528 -0.73436201 1.1418025
-0.90854722 -0.71245092 0.92424124
-0.90689182 -0.71165448 0.76302922
-0.89669532 -0.70440274 0.61458701
-0.88399827 -0.69491833 0.48049462
-0.8634901 -0.67927545 0.3556968
-0.8443749 -0.66447067 0.24207552
-0.84367353 -0.66438597 0.13699456
-0.085641064 -0.021753795 8.7039413
-1.0774956 -0.80101669 8.5354624
-1.4032918 -1.0570748 8.4700031
-1.3307478 -1.0165888 5.4007158
-1.0444216 -0.80363357 3.1641538
-1.0577502 -0.81737697 2.5170417
-1.0214711 -0.79159832 1.9706287
-0.98119223 -0.76201159 1.5640341
-0.43275413 -0.26717773 8.6349974
-0.77020836 -0.51636058 8.605484
-1.4769182 -1.1181048 7.1695085
-0.90142846 -0.68916494 3.1398752
-1.0954796 -0.84227633 2.9210322
-1.0380045 -0.8006593 2.2144392
-1.0104287 -0.78133708 1.7660903
-0.96039319 -0.74397188 1.3952782
-0.94802654 -0.73942643 1.2612839
-0.91664457 -0.71571141 1.0201148
-0.90770161 -0.70948172 0.83994877
-0.89786547 -0.70228928 0.68324518
-0.88774246 -0.69486159 0.54379785
-0.86885649 -0.6805591 0.41434744
-0.86987102 -0.68183726 0.30131167
-0.84620118 -0.6637516 0.18949783
-0.94004297 -0.73108506 1.1418025
-0.90783918 -0.70679218 0.92129809
-0.90937042 -0.70848447 0.76302922
-0.89556986 -0.69847733 0.61248899
-0.88269603 -0.68892312 0.47885111
-0.86585599 -0.67625713 0.3556968
-0.84278691 -0.65847039 0.24138485
-0.84205174 -0.65835977 0.13679302
-0.085716471 -0.021454718 8.7039413
-1.0802851 -0.79725057 8.5354624
-1.4077888 -1.0527796 8.4748983
-1.328341 -1.0074281 5.3768559
-1.0487731 -0.80116868 3.1687562
-1.0586965 -0.812222 2.5126526
-1.0197673 -0.78459638 1.9623629
-0.98130774 -0.756625 1.5601966
-0.43368411 -0.2656655 8.6349974
-0.77156186 -0.51337409 8.6005125
-1.4647336 -1.1008615 7.0920777
-0.90382862 -0.68601418 3.1398752
-1.0949519 -0.83580589 2.91203
-1.0366516 -0.7938602 2.2059073
-1.0083693 -0.77413571 1.7581102
-0.95760942 -0.73648173 1.3879279
-0.9449622 -0.73174602 1.2542748
-0.91606081 -0.71012276 1.0169762
-0.90686905 -0.70374542 0.83720732
-0.89681268 -0.69643396 0.68092638
-0.89016259 -0.69175851 0.54379785
-0.87122679 -0.67752206 0.41434744
-0.87224573 -0.67879665 0.30131167
-0.84458387 -0.65773398 0.18905075
-0.93963379 -0.72551751 1.138477
-0.90710264 -0.70114714 0.91835493
-0.90842813 -0.70266855 0.76049602
-0.89441395 -0.69256836 0.6103909
-0.88509536 -0.68583775 0.47885111
-0.86437005 -0.67025214 0.35452449
-0.84116739 -0.65248936 0.24069417
-0.84039825 -0.65235299 0.13659149
-0.085790843 -0.021155382 8.7039413
-1.0836883 -0.79393387 8.5404015
-1.411455 -1.0478591 8.4748983
-1.312768 -0.98842186 5.3005042
-1.05312 -0.79868329 3.1733589
-1.0577145 -0.80561954 2.5038743
-1.0180271 -0.7776159 1.9540969
-0.97885233 -0.74929881 1.5525217
-0.43460879 -0.26415005 8.6349974
-0.77334923 -0.51067775 8.6005125
-1.4584918 -1.0882264 7.0436835
-0.90759611 -0.68389338 3.1445682
-1.0943924 -0.8293494 2.9030275
-1.0352638 -0.78708023 2.1973755
-1.0062722 -0.76695836 1.7501302
-0.95747983 -0.73107737 1.3842528
-0.94468331 -0.72626954 1.2507702
-0.91853404 -0.70692074 1.0169762
-0.90932006 -0.70057559 0.83720732
-0.8957299 -0.69059461 0.67860758
-0.88890129 -0.68581533 0.54192483
-0.86978942 -0.67154533 0.4129374
-0.87072265 -0.67274457 0.30037907
-0.84293491 -0.65173578 0.18860367
-0.93919724 -0.7199617 1.1351515
-0.90954453 -0.69797653 0.91835493
-0.90745628 -0.69686776 0.75796282
-0.89322788 -0.68667614 0.60829288
-0.88374114 -0.6798647 0.4772076
-0.8667044 -0.66723084 0.35452449
-0.84343988 -0.64954919 0.24069417
-0.8426702 -0.64941543 0.13659149
-0.085864164 -0.020855786 8.7039413
-1.0864531 -0.79014629 8.5404015
-1.4151042 -1.0429257 8.4748983
-1.3054487 -0.97579163 5.2575564
-1.0574625 -0.79617727 3.1779611
-1.0586097 -0.80047822 2.4994855
-1.0140082 -0.76895702 1.9416981
-0.97890979 -0.74393809 1.5486841
-0.43552822 -0.26263136 8.6349974
-0.77512705 -0.5079751 8.6005125
-1.4400579 -1.0666721 6.9372158
-0.90997779 -0.6807211 3.1445682
-1.0938014 -0.82290709 2.8940251
-1.0359231 -0.78189069 2.1931098
-1.0065402 -0.76162308 1.74614
-0.95732409 -0.72568291 1.3805776
-0.94154286 -0.71864051 1.2437612
-0.91790313 -0.70134711 1.0138377
-0.90843862 -0.69485688 0.83446586
-0.89461738 -0.68477136 0.67628878
-0.88760948 -0.67988926 0.54005182
-0.86832094 -0.66558677 0.4115274
-0.86916798 -0.66671133 0.29944643
-0.84520477 -0.64878941 0.18860367
-0.93873334 -0.71441787 1.131826
-0.90876007 -0.69234788 0.91541177
-0.90645498 -0.69108242 0.75542969
-0.89201152 -0.68080056 0.60619479
-0.88610893 -0.67677569 0.4772076
-0.86902821 -0.66420144 0.35452449
-0.84176803 -0.64359325 0.24000348
-0.84096414 -0.64343423 0.13638996
-0.085936449 -0.020555938 8.7039413
-1.0892045 -0.78634906 8.5404015
-1.418736 -1.0379797 8.4748983
-1.3040515 -0.96767145 5.2384686
-1.0618001 -0.79365075 3.1825638
-1.0575665 -0.79390275 2.4907072
-1.0121896 -0.76202804 1.9334321
-0.97894192 -0.73858631 1.5448467
-0.43644232 -0.2611095 8.6349974
-0.77689552 -0.50526637 8.6005125
-1.4417471 -1.06015 6.9275374
-0.91373402 -0.67856914 3.1492608
-1.0949229 -0.81778145 2.889524
-1.0344718 -0.77514243 2.1845777
-1.0043739 -0.75448567 1.73816
-0.95714247 -0.72029841 1.3769025
-0.94120312 -0.7131958 1.2402567
-0.92034572 -0.69813877 1.0138377
-0.90752846 -0.68915302 0.83172441
-0.89700222 -0.68164432 0.67628878
-0.88997728 -0.67678684 0.54005182
-0.87063897 -0.66255176 0.4115274
-0.86758184 -0.66069728 0.29851383
-0.84350336 -0.6428166 0.18815659
-0.9382422 -0.70888609 1.1285006
-0.90794748 -0.68673337 0.91246861
-0.90542454 -0.68531263 0.75289649
-0.89076495 -0.67494178 0.60409671
-0.8847031 -0.67082548 0.47556409
-0.86746937 -0.65822589 0.35335216
-0.84400952 -0.64065105 0.24000348
-0.84320503 -0.64049482 0.13638996
-0.086007677 -0.020255838 8.7039413
-1.0919428 -0.78254217 8.5404015
-1.4223506 -1.0330211 8.4748983
-1.2797769 -0.94275457 5.1287131
-1.064564 -0.78993952 3.1825638
-1.0584108 -0.78877532 2.4863181
-1.0103351 -0.75512135 1.9251662
-0.97894865 -0.73324335 1.5410092
-0.43759987 -0.25973099 8.6399889
-0.7791028 -0.50283992 8.605484
-1.4271624 -1.0417737 6.8404274
-0.9160971 -0.67537552 3.1492608
-1.0942732 -0.81136161 2.8805215
-1.0350784 -0.7699703 2.1803117
-1.0045859 -0.749174 1.7341701
-0.95421892 -0.71289521 1.3695521
-0.94083691 -0.7077623 1.236752
-0.91966772 -0.69258064 1.0106993
-0.90658945 -0.68346387 0.82898289
-0.89583969 -0.67584133 0.67396998
-0.88863432 -0.67088288 0.5381788
-0.86911881 -0.65661699 0.41011736
-0.86596435 -0.65470237 0.2975812
-0.84177071 -0.63686371 0.18770951
-0.94071096 -0.70560664 1.1285006
-0.90710682 -0.68113303 0.90952545
-0.90781122 -0.68214792 0.75289649
-0.88948852 -0.66910017 0.60199869
-0.88326651 -0.66489327 0.47392058
-0.86976171 -0.65519392 0.35335216
-0.84228581 -0.6347208 0.23931281
-0.84144682 -0.63453954 0.13618843
-0.086077854 -0.019955492 8.7039413
-1.0946677 -0.77872586 8.5404015
-1.4259478 -1.0280499 8.4748983
-1.2685997 -0.92770982 5.0714488
-1.0688881 -0.78737718 3.1871662
-1.0573068 -0.78222746 2.47754
-1.0107049 -0.74991345 1.9210334
-0.97892988 -0.72790927 1.5371716
-0.43850383 -0.2582019 8.6399889
-0.78085327 -0.5001173 8.605484
-1.4307902 -1.0367856 6.8404274
-0.91984177 -0.67319262 3.1539536
-1.093592 -0.80495626 2.8715191
-1.0356617 -0.76480341 2.1760459
-1.0047729 -0.7438699 1.7301799
-0.95397842 -0.70754063 1.3658769
-0.94330174 -0.70447385 1.236752
-0.91896218 -0.68703562 1.0075608
-0.9089697 -0.68029517 0.82898289
-0.89819342 -0.67271012 0.67396998
-0.88726097 -0.66499668 0.53630573
-0.86756796 -0.65070093 0.40870732
-0.86824447 -0.65167558 0.2975812
-0.84000671 -0.63093072 0.18726245
-0.94017351 -0.7000888 1.125175
-0.90623808 -0.67554682 0.9065823
-0.90673143 -0.67639744 0.75036329
-0.8918187 -0.66599119 0.60199869
-0.8817994 -0.65897942 0.47227708
-0.87204343 -0.65215385 0.35335216
-0.84053105 -0.62881047 0.23862213
-0.8436566 -0.63159847 0.13618843
-0.086146988 -0.019654904 8.7039413
-1.0973793 -0.77490002 8.5404015
-1.4295278 -1.0230662 8.4748983
-1.2911597 -0.9373042 5.1478009
-1.0747842 -0.7859472 3.1963713
-1.0581003 -0.77711451 2.473151
-1.0087847 -0.74304342 1.9127675
-0.97888595 -0.72258437 1.5333341
-0.43940246 -0.25666964 8.6399889
-0.78304446 -0.49767393 8.6104555
-1.4262365 -1.0259141 6.801712
-0.92358232 -0.67099172 3.1586463
-1.0928797 -0.79856575 2.8625166
-1.0362215 -0.75964183 2.1717799
-1.0049351 -0.73857367 1.7261899
-0.95098209 -0.70018649 1.3585266
-0.94289011 -0.69905305 1.2332475
-0.91822916 -0.68150407 1.0044224
-0.90798229 -0.67462438 0.82624143
-0.89698118 -0.6669277 0.67165118
-0.88957685 -0.66189545 0.53630573
-0.86983407 -0.6476686 0.40870732
-0.86657476 -0.64570582 0.29664856
-0.84220397 -0.62799472 0.18726245
-0.93960899 -0.69458342 1.1218495
-0.90534145 -0.66997504 0.90363914
-0.9056226 -0.67066288 0.74783015
-0.89049202 -0.66017133 0.5999006
-0.8840943 -0.65589732 0.47227708
-0.87431455 -0.64910585 0.35335216
-0.83874524 -0.62292004 0.23793145
-0.84184635 -0.6256696 0.13598689
-0.086215071 -0.019354073 8.7039413
-1.0994411 -0.77061892 8.5354624
-1.4339203 -1.0186595 8.4797935
-1.2992682 -0.93628162 5.1668892
-1.0791023 -0.78333825 3.200974
-1.058871 -0.77200544 2.4687617
-1.0091004 -0.73785669 1.9086344
-0.97623128 -0.71537423 1.5256591
-0.44054601 -0.2552782 8.6449804
-0.78477687 -0.4949376 8.6104555
-1.4236704 -1.0165476 6.7726755
-0.92871851 -0.6697821 3.1680319
-1.0903735 -0.79091185 2.8490129
-1.0367579 -0.75448561 2.1675138
-1.0050728 -0.73328555 1.7221999
-0.95068336 -0.69486243 1.3548514
-0.94245225 -0.69364369 1.229743
-0.91746873 -0.67598599 1.0012839
-0.90696651 -0.66896892 0.82349998
-0.89573956 -0.66116202 0.66933239
-0.88815284 -0.65603191 0.53443271
-0.86823183 -0.64177698 0.40729728
-0.86487418 -0.63975573 0.29571593
-0.8403883 -0.62208813 0.18681537
-0.93600708 -0.6868816 1.1151985
-0.90441704 -0.66441786 0.90069598
-0.90448481 -0.66494429 0.74529696
-0.89279103 -0.65705884 0.5999006
-0.88257617 -0.65000707 0.47063357
-0.87657505 -0.64605004 0.35335216
-0.84091455 -0.6199885 0.23793145
-0.84000504 -0.61976117 0.13578537
-0.086282104 -0.01905301 8.7039413
-1.1021243 -0.76677644 8.5354624
-1.4374673 -1.0136479 8.4797935
-1.3049568 -0.93347722 5.1764326
-1.0850003 -0.78185064 3.2101789
-1.0576789 -0.76549655 2.4599836
-1.0093925 -0.73267704 1.9045017
-0.97613031 -0.71007681 1.5218216
-0.44143441 -0.25373885 8.6449804
-0.7864998 -0.49219519 8.6104555
-1.4149029 -1.0028514 6.7146025
-0.93245417 -0.66754055 3.1727247
-1.0878273 -0.78328532 2.8355093
-1.0372713 -0.74933505 2.1632481
-1.0051857 -0.72800535 1.7182097
-0.95035899 -0.68954885 1.3511763
-0.94486773 -0.6903497 1.229743
-0.91668105 -0.67048162 0.99814546
-0.90592229 -0.66332877 0.82075852
-0.89804202 -0.65803128 0.66933239
-0.88669896 -0.65018648 0.53255969
-0.86659914 -0.63590449 0.40588725
-0.86314267 -0.63382542 0.29478332
-0.84255469 -0.61915082 0.18681537
-0.93538105 -0.68141174 1.111873
-0.90673077 -0.66125679 0.90069598
-0.90331829 -0.65924197 0.74276382
-0.8914144 -0.65126115 0.59780258
-0.88483971 -0.64692229 0.47063357
-0.87490201 -0.64011621 0.35217986
-0.83907741 -0.61412472 0.23724076
-0.84216332 -0.61682516 0.13578537
-0.08639133 -0.018757552 8.7089415
-1.1047941 -0.76292467 8.5354624
-1.4409969 -1.0086241 8.4797935
-1.2984697 -0.92200381 5.138257
-1.089312 -0.77919495 3.2147813
-1.0583994 -0.7604028 2.4555948
-1.0119439 -0.7291491 1.9045017
-0.97340566 -0.70291251 1.5141466
-0.44206616 -0.25205424 8.6399889
-0.78821307 -0.48944679 8.6104555
-1.4070855 -0.98995203 6.6613688
-0.94181263 -0.6692785 3.1961884
-1.0852414 -0.7756862 2.8220057
-1.0356414 -0.74267036 2.1547163
-1.0028274 -0.72097456 1.7102298
-0.95000905 -0.68424606 1.347501
-0.94438475 -0.68495357 1.2262385
-0.91271645 -0.66270423 0.99186856
-0.90484977 -0.65770411 0.81801701
-0.89675117 -0.65228689 0.66701359
-0.88896304 -0.6470874 0.53255969
-0.86881357 -0.63287556 0.40588725
-0.86138028 -0.62791502 0.29385069
-0.84068751 -0.61327112 0.18636829
-0.93170267 -0.67376691 1.105222
-0.90575927 -0.65571755 0.89775282
-0.90212286 -0.65355581 0.74023062
-0.8936823 -0.6481455 0.59780258
-0.88327068 -0.64105606 0.46899009
-0.8771311 -0.63705832 0.35217986
-0.84121603 -0.61119199 0.23724076
-0.84027064 -0.61094385 0.13558383
-0.086456276 -0.018455874 8.7089415
-1.1074506 -0.75906354 8.5354624
-1.4436727 -1.0030071 8.4748983
-1.2943591 -0.91230702 5.1096253
-1.0952113 -0.77764952 3.2239864
-1.0571471 -0.7539227 2.4468162
-1.0121938 -0.72397536 1.9003686
-0.97324806 -0.69764322 1.5103091
-0.4429433 -0.25050962 8.6399889
-0.78991675 -0.48669243 8.6104555
-1.4156858 -0.98863196 6.6855659
-0.94555348 -0.66698146 3.2008812
-1.0826157 -0.76811469 2.808502
-1.0361027 -0.73753846 2.1504502
-1.0028852 -0.71571946 1.7062398
-0.95239174 -0.68092579 1.347501
-0.94676989 -0.68165296 1.2262385
-0.91186643 -0.65723854 0.98873013
-0.90714008 -0.65454155 0.81801701
-0.8954311 -0.64655954 0.66469479
-0.8874588 -0.64126527 0.53068668
-0.86713022 -0.62702823 0.40447721
-0.86356688 -0.62490439 0.29385069
-0.84282315 -0.61033279 0.18636829
-0.93101561 -0.66833341 1.1018965
-0.90476018 -0.65019321 0.89480966
-0.90089881 -0.64788604 0.73769742
-0.89225596 -0.64237052 0.5957045
