# .PCD v0.7 - Point Cloud Data file format
VERSION 0.7
FIELDS x y z
SIZE 4 4 4
TYPE F F F
COUNT 1 1 1
WIDTH 1445
HEIGHT 1
VIEWPOINT 0 0 0 1 0 0 0
POINTS 1445
DATA ascii
-0.53304487 0.13674244 2.6691594
-0.78042448 0.19480371 2.6186495
-1.0273459 0.25275451 2.5520179
-1.0497429 0.25597203 2.0474102
-0.94963044 0.23016822 1.5077385
-0.93037069 0.22448535 1.2224963
-0.48150587 0.17250212 8.6849136
-0.8901599 0.28172413 8.665143
-0.6526342 0.16585708 2.6301284
-0.9134534 0.2277386 2.6142855
-1.0542475 0.2597886 2.3088672
-0.9921388 0.24284975 1.7409205
-0.93654108 0.22804354 1.3511276
-0.92362463 0.22405948 1.1086154
-0.91613507 0.21903567 1.005452
-0.89648497 0.21385063 0.82553035
-0.88890839 0.21156155 0.68368518
-0.87197751 0.2072175 0.55571121
-0.86685002 0.20568709 0.44827321
-0.84520942 0.20024782 0.34525582
-0.85089028 0.20128547 0.25747854
-0.83825922 0.19799626 0.17027344
-0.91098148 0.2191536 0.91566855
-0.8829354 0.21192639 0.74470848
-0.88627833 0.2124097 0.62117118
-0.86624366 0.20713557 0.49919412
-0.86404461 0.20629875 0.39831915
-0.83229357 0.19841789 0.29708093
-0.83808118 0.19964847 0.21237628
-0.83086628 0.19763109 0.12812719
-0.070373945 0.053720597 8.7239418
-0.41437688 0.11053395 2.7268946
-0.53256428 0.1386023 2.6691594
-0.77973974 0.19752671 2.6186495
-1.0264574 0.25633907 2.5520179
-1.048843 0.25963476 2.0474102
-0.9515537 0.23415433 1.5118713
-0.9295814 0.22773159 1.2224963
-0.48090082 0.17418183 8.6849136
-0.88917106 0.28482962 8.665143
-0.65205127 0.16813417 2.6301284
-0.91599858 0.23177299 2.6236711
-1.0533342 0.26346704 2.3088672
-0.99128509 0.2463115 1.7409205
-0.9357394 0.23131129 1.3511276
-0.9228369 0.22728217 1.1086154
-0.91536492 0.22223225 1.005452
-0.89573306 0.21697865 0.82553035
-0.89222872 0.21564564 0.68642664
-0.87555498 0.21129939 0.55803001
-0.87063366 0.20979787 0.45014626
-0.84450531 0.20319693 0.34525582
-0.85018247 0.2042544 0.25747854
-0.83756298 0.20092113 0.17027344
-0.91021091 0.22233218 0.91566855
-0.88219035 0.21500711 0.74470848
-0.88553149 0.2155021 0.62117118
-0.86992574 0.21122912 0.50129217
-0.86331922 0.20931359 0.39831915
-0.83632004 0.2024657 0.29825324
-0.83737922 0.2025727 0.21237628
-0.83017135 0.20053016 0.12812719
-0.070186004 0.053965922 8.7239418
-0.41398853 0.11197972 2.7268946
-0.53207725 0.14046043 2.6691594
-0.77904546 0.20024732 2.6186495
-1.0255563 0.25992054 2.5520179
-1.0502532 0.2638782 2.0517993
-0.95073056 0.23747444 1.5118713
-0.92878085 0.23097505 1.2224963
-0.48028988 0.17585944 8.6849136
-0.88817143 0.28793168 8.665143
-0.65267634 0.17072777 2.6349678
-0.91685534 0.23539844 2.6283638
-1.0545181 0.26767811 2.3133683
-0.99294794 0.2504082 1.7451864
-0.93784887 0.23530979 1.3551177
-0.92203796 0.23050208 1.1086154
-0.91804612 0.2262798 1.0089566
-0.89874983 0.2210338 0.82866883
-0.89147055 0.21875878 0.68642664
-0.87481207 0.21435435 0.55803001
-0.86989605 0.21283567 0.45014626
-0.84379089 0.20614357 0.34525582
-0.8542366 0.2083851 0.25841114
-0.84169501 0.20502214 0.17072052
-0.91305327 0.2264069 0.91899407
-0.88143438 0.21808523 0.74470848
-0.88477385 0.21859187 0.62117118
-0.86918306 0.21426444 0.50129217
-0.86716861 0.21345465 0.39996269
-0.83560824 0.20538376 0.29825324
-0.836667 0.20549446 0.21237628
-0.83431846 0.20461677 0.12832873
-0.069997199 0.054210588 8.7239418
-0.41359511 0.11342413 2.7268946
-0.53158373 0.14231689 2.6691594
-0.77978605 0.20334248 2.6234214
-1.0246428 0.26349881 2.5520179
-1.0493256 0.26754266 2.0517993
-0.9498958 0.24079166 1.5118713
-0.93107671 0.23500034 1.2263339
-0.47967309 0.17753488 8.6849136
-0.88716096 0.29103023 8.665143
-0.65207642 0.17300501 2.6349678
-0.91936785 0.23946801 2.6377494
-1.0535773 0.27135745 2.3133683
-0.99206775 0.25387272 1.7451864
-0.93702173 0.23858206 1.3551177
-0.92122769 0.23371918 1.1086154
-0.91725063 0.22948299 1.0089566
-0.89797282 0.22416967 0.82866883
-0.89070153 0.22186926 0.68642664
-0.87835729 0.21847613 0.56034881
-0.86914784 0.21587089 0.45014626
-0.84306616 0.2090877 0.34525582
-0.853504 0.21136567 0.25841114
-0.84097427 0.20795895 0.17072052
-0.91225737 0.22959268 0.91899407
-0.88066781 0.22116068 0.74470848
-0.88400543 0.22167897 0.62117118
-0.87283266 0.21839896 0.50339019
-0.86641824 0.21648033 0.39996269
-0.83960223 0.20947602 0.29942557
-0.83113962 0.20721571 0.21168561
-0.83359915 0.20752785 0.12832873
-0.06977538 0.054425109 8.7189417
-0.41319668 0.11486716 2.7268946
-0.5310837 0.1441716 2.6691594
-0.78051448 0.20644528 2.6281934
-1.0237168 0.26707387 2.5520179
-1.0507039 0.27180392 2.0561883
-0.94904947 0.24410595 1.5118713
-0.93025076 0.23824897 1.2263339
-0.47905046 0.17920817 8.6849136
-0.88664538 0.29429373 8.6701145
-0.65146858 0.17528014 2.6349678
-0.92353129 0.24399905 2.6518276
-1.0547298 0.27558404 2.3178697
-0.99369991 0.25798979 1.7494525
-0.93910062 0.24260536 1.3591076
-0.92040622 0.23693345 1.1086154
-0.9199006 0.23356125 1.0124611
-0.89718485 0.22730282 0.82866883
-0.88992161 0.22497703 0.68642664
-0.87758934 0.22154084 0.56034881
-0.86838901 0.21890347 0.45014626
-0.84698308 0.21320035 0.34666586
-0.85276097 0.21434367 0.25841114
-0.84024322 0.21089324 0.17072052
-0.91506797 0.23369977 0.92231953
-0.88380718 0.2252318 0.74765164
-0.88322622 0.22476338 0.62117118
-0.87206501 0.22144438 0.50339019
-0.87023461 0.22066416 0.4016062
-0.83886594 0.21240552 0.29942557
-0.8304112 0.21011567 0.21168561
-0.83771336 0.21166024 0.12853025
-0.069584973 0.054668341 8.7189417
-0.41279319 0.11630878 2.7268946
-0.53057718 0.14602454 2.6691594
-0.78267241 0.20994273 2.6377373
-1.0227783 0.27064568 2.5520179
-1.0497487 0.2754699 2.0561883
-0.94819164 0.24741726 1.5118713
-0.92941338 0.24149472 1.2263339
-0.47842199 0.18087928 8.6849136
-0.88561273 0.29738691 8.6701145
-0.65085274 0.17755312 2.6349678
-0.92600751 0.24811514 2.6612132
-1.0537615 0.27926406 2.3178697
-0.99279326 0.26145688 1.7494525
-0.93824804 0.24588196 1.3591076
-0.91957361 0.24014485 1.1086154
-0.91907966 0.23677087 1.0124611
-0.89638597 0.23043318 0.82866883
-0.88913089 0.22808208 0.68642664
-0.87681067 0.22460285 0.56034881
-0.86761957 0.22193336 0.45014626
-0.84623373 0.21615556 0.34666586
-0.85200757 0.21731906 0.25841114
-0.83950192 0.21382494 0.17072052
-0.91424662 0.23689255 0.92231953
-0.88301557 0.22831547 0.74765164
-0.88661021 0.22892292 0.62370437
-0.87128669 0.22448711 0.50339019
-0.8740322 0.22487725 0.40324971
-0.83811939 0.2153324 0.29942557
-0.82967269 0.21301307 0.21168561
-0.83696944 0.21458311 0.12853025
-0.069393717 0.054910906 8.7189417
-0.41163769 0.11753494 2.7219551
-0.53006423 0.14787571 2.6691594
-0.78337502 0.21306559 2.6425092
-1.0218273 0.27421421 2.5520179
-1.0487807 0.27913252 2.0561883
-0.95004249 0.2514458 1.5160043
-0.92856479 0.24473748 1.2263339
-0.47778767 0.1825482 8.6849136
-0.88456917 0.30047646 8.6701145
-0.65022904 0.17982392 2.6349678
-0.92846632 0.25225148 2.6705987
-1.0548824 0.28350592 2.3223708
-0.99439424 0.26559401 1.7537184
-0.93738401 0.24915558 1.3591076
-0.92200679 0.24422157 1.1122906
-0.91824758 0.23997763 1.0124611
-0.89557612 0.23356077 0.82866883
-0.88832933 0.23118432 0.68642664
-0.87602133 0.22766213 0.56034881
-0.86683959 0.22496057 0.45014626
-0.84547406 0.21910816 0.34666586
-0.85124379 0.22029179 0.25841114
-0.83875042 0.21675405 0.17072052
-0.91341412 0.24008241 0.92231953
-0.88221323 0.23139639 0.74765164
-0.88580567 0.23201637 0.62370437
-0.87488866 0.22867495 0.50548828
-0.87781101 0.22911952 0.40489322
-0.83736259 0.21825668 0.29942557
-0.82892412 0.21590787 0.21168561
-0.83621526 0.21750338 0.12853025
-0.069201618 0.055152796 8.7189417
-0.41122493 0.11897111 2.7219551
-0.52954483 0.14972508 2.6691594
-0.78550434 0.21659309 2.6520531
-1.0208639 0.27777937 2.5520179
-1.0501122 0.28341609 2.0605774
-0.94915897 0.25476056 1.5160043
-0.92770481 0.2479773 1.2263339
-0.47714755 0.18421486 8.6849136
-0.883515 0.30356234 8.6701145
-0.6508075 0.18243226 2.6398072
-0.92924374 0.25594947 2.6752915
-1.0538864 0.28718644 2.3223708
-0.99346107 0.26906347 1.7537184
-0.93650866 0.25242612 1.3591076
-0.92114866 0.24743849 1.1122906
-0.91740429 0.24318144 1.0124611
-0.89475536 0.23668547 0.82866883
-0.88751692 0.23428378 0.68642664
-0.87522131 0.23071861 0.56034881
-0.86604905 0.22798502 0.45014626
-0.84470403 0.22205807 0.34666586
-0.85046965 0.22326185 0.25841114
-0.83798867 0.2196805 0.17072052
-0.91257054 0.24326934 0.92231953
-0.88140017 0.23447448 0.74765164
-0.88499039 0.235107 0.62370437
-0.87408513 0.23172748 0.50548828
-0.8815707 0.23339091 0.40653673
-0.83659565 0.22117829 0.29942557
-0.82816541 0.21880004 0.21168561
-0.83545095 0.22042099 0.12853025
-0.069040425 0.055423949 8.7239418
-0.41006175 0.12018659 2.717016
-0.52901894 0.15157263 2.6691594
-0.78618103 0.21973586 2.6568253
-1.0217713 0.28186095 2.5566204
-1.0491166 0.28707993 2.0605774
-0.94826388 0.2580722 1.5160043
-0.92683357 0.25121409 1.2263339
-0.47677022 0.1859851 8.6899061
-0.88244998 0.30664456 8.6701145
-0.65016675 0.18470289 2.6398072
-0.93166876 0.2601203 2.6846771
-1.0528775 0.29086342 2.3223708
-0.9925158 0.27252969 1.7537184
-0.9356218 0.25569361 1.3591076
-0.92355037 0.25154352 1.1159657
-0.91654986 0.2463823 1.0124611
-0.89392376 0.23980732 0.82866883
-0.88669372 0.23738036 0.68642664
-0.87869 0.23491657 0.56266761
-0.86524796 0.23100671 0.45014626
-0.84392381 0.22500527 0.34666586
-0.84968513 0.22622918 0.25841114
-0.83721673 0.22260432 0.17072052
-0.91171581 0.24645334 0.92231953
-0.88057631 0.23754971 0.74765164
-0.88416433 0.23819478 0.62370437
-0.87765378 0.23595567 0.5075863
-0.87619007 0.23524217 0.40489322
-0.84051323 0.22535604 0.30059788
-0.82739663 0.22168955 0.21168561
-0.83467644 0.22333591 0.12853025
-0.068846546 0.055664606 8.7239418
-0.40963969 0.12161724 2.717016
-0.52848667 0.15341832 2.6691594
-0.78828144 0.2232932 2.6663692
-1.0207813 0.2854259 2.5566204
-1.0504159 0.29138073 2.0649664
-0.9500699 0.26212937 1.5201373
-0.92595106 0.25444782 1.2263339
-0.47611812 0.18764821 8.6899061
-0.88137418 0.30972302 8.6701145
-0.6507259 0.18731943 2.6446466
-0.93241543 0.263841 2.6893697
-1.0518558 0.29453689 2.3223708
-0.99407095 0.27669215 1.7579843
-0.93472356 0.25895798 1.3591076
-0.92266667 0.25476578 1.1159657
-0.91912496 0.2505182 1.0159656
-0.89308125 0.24292623 0.82866883
-0.88585973 0.24047405 0.68642664
-0.87786466 0.23798235 0.56266761
-0.86443633 0.2340256 0.45014626
-0.84313321 0.22794977 0.34666586
-0.85363269 0.23047423 0.25934377
-0.83643466 0.22552538 0.17072052
-0.91084993 0.24963433 0.92231953
-0.87974173 0.24062206 0.74765164
-0.88332748 0.24127963 0.62370437
-0.8768248 0.23901784 0.5075863
-0.87536359 0.23829922 0.40489322
-0.83972156 0.22828862 0.30059788
-0.83139658 0.22587474 0.21237628
-0.83871341 0.22755632 0.12873179
-0.068683363 0.055934742 8.728941
-0.40846878 0.12282196 2.7120767
-0.5279479 0.15526214 2.6691594
-0.78893191 0.22645566 2.6711414
-1.0216582 0.28952026 2.5612228
-1.0516979 0.29569408 2.0693557
-0.94914913 0.26544413 1.5201373
-0.92814481 0.25853875 1.2301713
-0.4754602 0.18930903 8.6899061
-0.88028771 0.3127977 8.6701145
-0.65127462 0.18994211 2.6494861
-0.93314755 0.26757008 2.6940625
-1.0529155 0.29880133 2.3268721
-0.99309903 0.28016043 1.7579843
-0.93671489 0.26303411 1.3630977
-0.92503631 0.25889891 1.1196409
-0.91824484 0.25372499 1.0159656
-0.89222783 0.24604219 0.82866883
-0.88501495 0.2435648 0.68642664
-0.87702858 0.24104522 0.56266761
-0.86361414 0.23704161 0.45014626
-0.84233236 0.23089145 0.34666586
-0.85282302 0.23345256 0.25934377
-0.840446 0.22975695 0.1711676
-0.90997303 0.25281227 0.92231953
-0.87889647 0.24369144 0.74765164
-0.88247991 0.24436153 0.62370437
-0.87598515 0.24207705 0.5075863
-0.87452644 0.24135335 0.40489322
-0.83891952 0.2312184 0.30059788
-0.83060306 0.22877546 0.21237628
-0.83791399 0.23048259 0.12873179
-0.068487696 0.056174152 8.728941
-0.4080376 0.12424702 2.7120767
-0.5274027 0.15710407 2.6691594
-0.78956974 0.22962534 2.6759133
-1.0225191 0.29362425 2.5658255
-1.0506593 0.2993634 2.0693557
-0.94821674 0.26875567 1.5201373
-0.92723668 0.26177701 1.2301713
-0.47479647 0.19096754 8.6899061
-0.8791905 0.31586856 8.6701145
-0.65181297 0.19257091 2.6543255
-0.93552202 0.27178919 2.7034481
-1.0518661 0.30247486 2.3268721
-0.99462247 0.28434235 1.7622502
-0.93579102 0.26630223 1.3630977
-0.92412698 0.26212633 1.1196409
-0.91735357 0.25692874 1.0159656
-0.89136356 0.24915513 0.82866883
-0.88415933 0.24665262 0.68642664
-0.88044912 0.24529417 0.56498641
-0.86278147 0.24005474 0.45014626
-0.84152132 0.23383033 0.34666586
-0.85200292 0.23642807 0.25934377
-0.83963889 0.23268926 0.1711676
-0.90908498 0.25598711 0.92231953
-0.87804043 0.24675791 0.74765164
-0.88162154 0.2474405 0.62370437
-0.87513477 0.24513334 0.5075863
-0.86913109 0.24313228 0.40324971
-0.83810729 0.23414537 0.30059788
-0.82979941 0.2316734 0.21237628
-0.83710438 0.23340605 0.12873179
-0.068291195 0.056412876 8.728941
-0.40760139 0.1256706 2.7120767
-0.52685112 0.15894412 2.6691594
-0.79162693 0.23322447 2.6854572
-1.0233638 0.29773778 2.5704281
-1.0519087 0.30369359 2.0737445
-0.94997752 0.27284101 1.5242703
-0.92939883 0.26589397 1.2340088
-0.47412699 0.19262372 8.6899061
-0.87858337 0.31911817 8.675086
-0.65234083 0.19520576 2.6591649
-0.93787825 0.27602816 2.7128336
-1.0528938 0.30675387 2.3313732
-0.99362385 0.2878125 1.7622502
-0.93485582 0.2695671 1.3630977
-0.9264645 0.26628724 1.123316
-0.91988182 0.26110336 1.0194702
-0.89048839 0.25226507 0.82866883
-0.88731664 0.2508752 0.6891681
-0.87958753 0.24836601 0.56498641
-0.8619383 0.24306495 0.45014626
-0.84531736 0.23806688 0.3480759
-0.85117245 0.23940067 0.25934377
-0.83882153 0.23561873 0.1711676
-0.91177624 0.26018363 0.92564505
-0.88106114 0.2509287 0.75059479
-0.88489866 0.25169593 0.62623757
-0.87427378 0.24818665 0.5075863
-0.86827707 0.24616465 0.40324971
-0.83728486 0.2370695 0.30059788
-0.82898563 0.23456855 0.21237628
-0.84109217 0.23768528 0.12893331
-0.068093859 0.056650914 8.728941
-0.40716025 0.12709261 2.7120767
-0.5262931 0.16078219 2.6691594
-0.79223824 0.23641354 2.6902292
-1.0241922 0.30186075 2.5750306
-1.0508423 0.30736357 2.0737445
-0.94901931 0.27615538 1.5242703
-0.92846501 0.26913655 1.2340088
-0.47345173 0.19427757 8.6899061
-0.87746406 0.32218307 8.675086
-0.65285832 0.19784667 2.6640043
-0.94187003 0.28078017 2.7269118
-1.0539044 0.3110438 2.3358746
-0.99511558 0.29201376 1.7665161
-0.93680143 0.27367395 1.3670877
-0.92552936 0.2695196 1.123316
-0.9189648 0.26431271 1.0194702
-0.89334351 0.25644609 0.83180726
-0.88643545 0.25397101 0.6891681
-0.87871522 0.25143486 0.56498641
-0.86108458 0.24607219 0.45014626
-0.84448123 0.24101613 0.3480759
-0.8503316 0.24237037 0.25934377
-0.83799398 0.23854533 0.1711676
-0.91086251 0.26336473 0.92564505
-0.88017988 0.25400263 0.75059479
-0.88401473 0.25478327 0.62623757
-0.87340212 0.25123692 0.5075863
-0.8719511 0.25049797 0.40489322
-0.83645225 0.23999071 0.30059788
-0.82816178 0.23746081 0.21237628
-0.84025741 0.24061979 0.12893331
-0.067895696 0.056888256 8.728941
-0.40671411 0.1285131 2.7120767
-0.52572864 0.16261831 2.6691594
-0.79283696 0.23960969 2.6950011
-1.0250041 0.30599311 2.5796332
-1.0520593 0.31171045 2.0781338
-0.95074874 0.28026235 1.5284033
-0.92751986 0.27237585 1.2340088
-0.473037 0.19604045 8.6948977
-0.87633413 0.32524401 8.675086
-0.65336525 0.20049353 2.6688437
-0.93923229 0.28356713 2.7222192
-1.0528122 0.31472069 2.3358746
-0.9940902 0.29548559 1.7665161
-0.93584043 0.27694234 1.3670877
-0.9245829 0.27274865 1.123316
-0.91803652 0.26751891 1.0194702
-0.89244294 0.25956288 0.83180726
-0.88554358 0.25706369 0.6891681
-0.87783217 0.2545006 0.56498641
-0.86022031 0.24907644 0.45014626
-0.84363478 0.24396247 0.3480759
-0.84948033 0.2453371 0.25934377
-0.83715618 0.24146901 0.1711676
-0.91352081 0.26759246 0.92897052
-0.88316739 0.25820795 0.75353795
-0.88725793 0.25907597 0.62877071
-0.87687701 0.25555414 0.50968438
-0.8710714 0.25354013 0.40489322
-0.83560944 0.242909 0.30059788
-0.82732791 0.2403502 0.21237628
-0.83941233 0.24355136 0.12893331
-0.067696705 0.057124913 8.728941
-0.40626305 0.12993202 2.7120767
-0.52515781 0.16445246 2.6691594
-0.793423 0.24281293 2.6997733
-1.0276697 0.31070045 2.5888383
-1.0509648 0.31538093 2.0781338
-0.94976461 0.28357935 1.5284033
-0.9265635 0.27561182 1.2340088
-0.47234982 0.19769047 8.6948977
-0.87569237 0.32848883 8.6800575
-0.65386164 0.20314637 2.6736832
-0.93988687 0.28734875 2.7269118
-1.0537907 0.3190248 2.3403757
-0.99555004 0.29970586 1.7707821
-0.93486792 0.28020734 1.3670877
-0.92362517 0.27597436 1.123316
-0.91709709 0.27072182 1.0194702
-0.89526504 0.26377675 0.83494574
-0.88865244 0.26133317 0.69190961
-0.87693846 0.25756323 0.56498641
-0.86379409 0.25338268 0.45201927
-0.84738159 0.2482546 0.34948593
-0.84861881 0.24830082 0.25934377
-0.83630818 0.24438976 0.1711676
-0.91258121 0.27077961 0.92897052
-0.88226068 0.26128918 0.75353795
-0.88634813 0.26217151 0.62877071
-0.8759796 0.25861347 0.50968438
-0.87018108 0.25657919 0.40489322
-0.83475643 0.24582437 0.30059788
-0.82648385 0.24323665 0.21237628
-0.83855706 0.24647999 0.12893331
-0.067465983 0.057330064 8.7239418
-0.40580705 0.13134934 2.7120767
-0.52458054 0.16628459 2.6691594
-0.79399633 0.24602316 2.704545
-1.0303149 0.31543013 2.5980432
-1.0521488 0.31974417 2.0825229
-0.95146245 0.28770766 1.5325361
-0.92866468 0.27976927 1.2378463
-0.47165686 0.19933806 8.6948977
-0.87454033 0.33154356 8.6800575
-0.65434748 0.20580509 2.6785226
-0.95041704 0.29420188 2.7597613
-1.0526707 0.32270128 2.3403757
-0.99449778 0.30317917 1.7707821
-0.9338842 0.28346893 1.3670877
-0.92590106 0.2801789 1.1269913
-0.91614652 0.27392143 1.0194702
-0.89433879 0.26690018 0.83494574
-0.88773477 0.26443353 0.69190961
-0.87603408 0.26062277 0.56498641
-0.86290437 0.25639632 0.45201927
-0.84650987 0.25121099 0.34948593
-0.84774691 0.25126153 0.25934377
-0.84022522 0.24872111 0.17161468
-0.91520619 0.27503827 0.93229604
-0.88134325 0.26436725 0.75353795
-0.88542765 0.26526383 0.62877071
-0.87507153 0.26166961 0.50968438
-0.8692801 0.25961512 0.40489322
-0.83389324 0.24873671 0.30059788
-0.83037537 0.24753484 0.21306697
-0.83769155 0.24940558 0.12893331
-0.067265458 0.057565212 8.7239418
-0.40534607 0.13276507 2.7120767
-0.52399689 0.16811471 2.6691594
-0.79598099 0.24968748 2.7140892
-1.0329396 0.32018206 2.6072483
-1.0533154 0.32411954 2.0869119
-0.95045233 0.29102713 1.5325361
-0.92768246 0.2830092 1.2378463
-0.4709582 0.20098324 8.6948977
-0.87337774 0.33459425 8.6800575
-0.65482271 0.20846967 2.683362
-0.98560989 0.30887705 2.8630023
-1.0536169 0.32701939 2.344877
-0.99343342 0.30664879 1.7707821
-0.9357692 0.28761259 1.3710777
-0.9249174 0.28340915 1.1269913
-0.918598 0.27815148 1.0229747
-0.89340174 0.27002043 0.83494574
-0.88680631 0.26753071 0.69190961
-0.87936038 0.26495725 0.56730521
-0.8620041 0.25940686 0.45201927
-0.84562784 0.25416434 0.34948593
-0.8468647 0.2542192 0.25934377
-0.83935183 0.25165251 0.17161468
-0.91424054 0.27823126 0.93229604
-0.88428253 0.26861715 0.75648111
-0.88449627 0.26835293 0.62877071
-0.87849653 0.26603818 0.51178247
-0.86836857 0.2626479 0.40489322
-0.83301997 0.25164601 0.30059788
-0.82950628 0.2504319 0.21306697
-0.83681589 0.25232816 0.12893331
-0.067064099 0.057799663 8.7239418
-0.40561748 0.13442433 2.717016
-0.52437514 0.17025776 2.6740549
-0.79510462 0.25246447 2.7140892
-1.0336795 0.32437092 2.6118507
-1.0521775 0.32779434 2.0869119
-0.95211846 0.2951766 1.5366691
-0.92975128 0.2871919 1.2416838
-0.47025374 0.20262596 8.6948977
-0.87220442 0.33764088 8.6800575
-0.65528721 0.21114007 2.6882014
-1.0272905 0.32588959 2.985014
-1.052469 0.33069518 2.344877
-0.99235696 0.31011465 1.7707821
-0.9347595 0.29087728 1.3710777
-0.92716032 0.28764078 1.1306664
-0.91762143 0.28135628 1.0229747
-0.89245373 0.2731373 0.83494574
-0.88986605 0.27184644 0.69465113
-0.87843013 0.26802516 0.56730521
-0.86552787 0.26376578 0.45389232
-0.84473544 0.25711456 0.34948593
-0.84597212 0.25717378 0.25934377
-0.83846837 0.25458089 0.17161468
-0.91326374 0.28142089 0.93229604
-0.88333946 0.27170223 0.75648111
-0.88355416 0.27143878 0.62877071
-0.87756252 0.26910308 0.51178247
-0.86744648 0.26567745 0.40489322
-0.83213645 0.25455225 0.30059788
-0.82862705 0.25332588 0.21306697
-0.83115184 0.25378868 0.12873179
-0.066861935 0.05803341 8.7239418
-0.40514576 0.13583936 2.717016
-0.52377766 0.17208713 2.6740549
-0.79563951 0.2556954 2.7188611
-1.0362648 0.3291606 2.6210558
-1.0533109 0.33218569 2.091301
-0.95108229 0.29849833 1.5366691
-0.92874312 0.29043561 1.2416838
-0.46980795 0.20438227 8.6998892
-0.87102056 0.3406834 8.6800575
-0.65574116 0.21381626 2.6930408
-1.0261467 0.32947353 2.985014
-1.0513083 0.33436698 2.344877
-0.99375486 0.31436354 1.775048
-0.93373847 0.2941384 1.3710777
-0.92615062 0.29087538 1.1306664
-0.91663373 0.28455767 1.0229747
-0.89521265 0.27740318 0.83808416
-0.88891166 0.27495101 0.69465113
-0.87748921 0.27108982 0.56730521
-0.86460191 0.26678544 0.45389232
-0.84383279 0.26006171 0.34948593
-0.84976411 0.26157042 0.26027638
-0.8375746 0.25750613 0.17161468
-0.91227585 0.28460702 0.93229604
-0.88238573 0.274784 0.75648111
-0.88260132 0.27452129 0.62877071
-0.87661785 0.2721647 0.51178247
-0.86651385 0.26870379 0.40489322
-0.83124286 0.25745541 0.30059788
-0.83246839 0.25768119 0.21375765
-0.83026093 0.25668839 0.12873179
-0.066658951 0.058266446 8.7239418
-0.40466914 0.13725276 2.717016
-0.52413976 0.17423615 2.6789498
-0.80325854 0.26124322 2.747493
-1.0388291 0.33397219 2.6302607
-1.0521449 0.3358604 2.091301
-0.95271641 0.30266869 1.5408021
-0.93077934 0.29464328 1.2455213
-0.46909165 0.20602095 8.6998892
-0.86982602 0.34372172 8.6800575
-0.65618438 0.2164982 2.6978805
-1.0364782 0.33678827 3.0178635
-1.0480624 0.33736739 2.3403757
-0.99265146 0.31783047 1.775048
-0.93557692 0.29831162 1.3750678
-0.92512965 0.29410651 1.1306664
-0.91563487 0.28775555 1.0229747
-0.89423889 0.28052637 0.83808416
-0.88794649 0.27805221 0.69465113
-0.87653756 0.27415121 0.56730521
-0.8636654 0.26980186 0.45389232
-0.84291989 0.26300561 0.34948593
-0.8488459 0.26453507 0.26027638
-0.83667064 0.26042825 0.17161468
-0.91127682 0.28778973 0.93229604
-0.88142115 0.27786243 0.75648111
-0.88163769 0.2776005 0.62877071
-0.87999213 0.27658397 0.51388049
-0.87007588 0.27314132 0.40653673
-0.83033907 0.26035544 0.30059788
-0.83156383 0.26058546 0.21375765
-0.83412772 0.26107728 0.12893331
-0.066455163 0.058498777 8.7239418
-0.40418759 0.13866448 2.717016
-0.52449334 0.17638977 2.6838453
-1.0432302 0.33941045 2.6440685
-1.0509661 0.33953103 2.091301
-0.95165402 0.30599242 1.5408021
-0.92974514 0.29789051 1.2455213
-0.46836966 0.20765713 8.6998892
-0.86862087 0.34675589 8.6800575
-0.65661675 0.2191858 2.7027197
-1.0434924 0.34310058 3.0413272
-1.0468785 0.34102374 2.3403757
-0.99401695 0.32209775 1.7793139
-0.9345299 0.30157557 1.3750678
-0.92409736 0.29733402 1.1306664
-0.91802323 0.29203129 1.0264792
-0.89325422 0.28364614 0.83808416
-0.88697052 0.28115001 0.69465113
-0.87979841 0.27854642 0.56962395
-0.86271834 0.27281496 0.45389232
-0.84657097 0.26739126 0.35089597
-0.85260195 0.26897442 0.26120901
-0.83575648 0.26334718 0.17161468
-0.9102667 0.29096895 0.93229604
-0.88044584 0.28093746 0.75648111
-0.88066328 0.28067628 0.62877071
-0.87902129 0.27965406 0.51388049
-0.86911714 0.27617681 0.40653673
-0.82942516 0.26325226 0.30059788
-0.8306492 0.26348656 0.21375765
-0.8332113 0.26398733 0.12893331
-0.066250555 0.05873039 8.7239418
-0.4037011 0.14007452 2.717016
-0.52483815 0.17854798 2.6887403
-0.98976254 0.32960901 3.3821669
-1.0438946 0.34366107 2.6486709
-1.0497745 0.34319749 2.091301
-0.95325595 0.31018344 1.544935
-0.92869967 0.30113414 1.2455213
-0.46764192 0.20929079 8.6998892
-0.8678993 0.34998575 8.6850281
-0.65703845 0.22187908 2.7075593
-1.0439259 0.34728593 3.04602
-1.0456817 0.34467596 2.3403757
-0.99288654 0.32556555 1.7793139
-0.9334715 0.30483586 1.3750678
-0.92305386 0.30055791 1.1306664
-0.91699821 0.29523399 1.0264792
-0.89596426 0.28795359 0.84122264
-0.88598371 0.28424442 0.69465113
-0.87882078 0.28161579 0.56962395
-0.86617601 0.27723807 0.45576534
-0.84563243 0.2703447 0.35089597
-0.85165781 0.2719489 0.26120901
-0.83483213 0.26626292 0.17161468
-0.90924549 0.29414457 0.93229604
-0.8794598 0.28400907 0.75648111
-0.88378072 0.28507218 0.63130391
-0.88235986 0.28411189 0.51597857
-0.86814779 0.27920887 0.40653673
-0.82850128 0.26614588 0.30059788
-0.82972437 0.26638448 0.21375765
-0.83228469 0.26689419 0.12893331
-0.066045143 0.058961291 8.7239418
-0.40394258 0.1417408 2.7219551
-0.5242117 0.18037893 2.6887403
-0.9871915 0.33258507 3.3773947
-1.0463955 0.34853813 2.657876
-1.0508441 0.34761226 2.09569
-0.95216739 0.31350902 1.544935
-0.92764282 0.30437407 1.2455213
-0.46690851 0.21092188 8.6998892
-0.86667234 0.35301316 8.6850281
-0.65625995 0.22417122 2.7075593
-1.0410718 0.35037708 3.0413272
-1.0444722 0.34832394 2.3403757
-0.99421936 0.32985088 1.7835798
-0.93526274 0.30903807 1.3790579
-0.9219991 0.30377811 1.1306664
-0.91935289 0.29953811 1.0299838
-0.89495361 0.29107934 0.84122264
-0.88498616 0.28733534 0.69465113
-0.88204604 0.28604844 0.57194275
-0.86520296 0.28025991 0.45576534
-0.84468359 0.27329487 0.35089597
-0.85070336 0.27492011 0.26120901
-0.83389759 0.26917538 0.17161468
-0.91176158 0.29847851 0.93562156
-0.88230503 0.288333 0.75942427
-0.88278031 0.28815541 0.63130391
-0.88136274 0.28719017 0.51597857
-0.86716789 0.28223759 0.40653673
-0.83218962 0.2705391 0.30177018
-0.82878947 0.26927912 0.21375765
-0.83610004 0.27133995 0.12913485
-0.065838926 0.059191473 8.7239418
-0.40344536 0.14314996 2.7219551
-0.52454036 0.18254289 2.6936357
-0.9860245 0.33602896 3.3773947
-1.0470239 0.35281271 2.6624784
-1.0496243 0.35127831 2.09569
-0.95373696 0.31772044 1.549068
-0.92961663 0.30862042 1.2493588
-0.46616942 0.21255042 8.6998892
-0.86543477 0.35603625 8.6850281
-0.65784931 0.22728242 2.7172382
-1.0382088 0.35345259 3.0366344
-1.0453126 0.3526639 2.344877
-0.99553436 0.33414951 1.7878458
-0.93417829 0.31230086 1.3790579
-0.92414916 0.30806699 1.1343416
-0.9183017 0.30274543 1.0299838
-0.89393216 0.29420152 0.84122264
-0.88397771 0.29042277 0.69465113
-0.88104218 0.28912559 0.57194275
-0.86421943 0.28327829 0.45576534
-0.84372449 0.27624172 0.35089597
-0.84973854 0.27788791 0.26120901
-0.83295292 0.27208459 0.17161468
-0.91071409 0.30165932 0.93562156
-0.88129324 0.29141104 0.75942427
-0.88586235 0.29258725 0.6338371
-0.88035488 0.29026493 0.51597857
-0.86169231 0.28378561 0.40489322
-0.83124024 0.27344236 0.30177018
-0.82314008 0.27062377 0.21306697
-0.8351478 0.27425686 0.12913485
-0.06566184 0.059452698 8.728941
-0.40294322 0.14455737 2.7219551
-0.5248602 0.18471129 2.6985307
-0.99190116 0.34190235 3.4012549
-1.0457859 0.35646534 2.6624784
-1.05066 0.35570824 2.1000791
-0.95262212 0.32104769 1.549068
-0.92853367 0.31186351 1.2493588
-0.46542466 0.21417636 8.6998892
-0.86418676 0.35905501 8.6850281
-0.65823841 0.22999236 2.7220774
-1.0369687 0.35707444 3.0366344
-1.0461353 0.35701391 2.3493781
-0.99436188 0.33762255 1.7878458
-0.93308246 0.31555986 1.3790579
-0.92306817 0.31129098 1.1343416
-0.92062223 0.30707768 1.0334884
-0.89289975 0.29732016 0.84122264
-0.88692647 0.29482585 0.69739258
-0.88002759 0.29219922 0.57194275
-0.8632254 0.28629327 0.45576534
-0.8473087 0.2806938 0.35230598
-0.84876335 0.28085238 0.26120901
-0.83672649 0.27655333 0.17206176
-0.90965563 0.30483648 0.93562156
-0.8802706 0.29448554 0.75942427
-0.88483554 0.29567772 0.6338371
-0.8793363 0.29333618 0.51597857
-0.86517638 0.28828463 0.40653673
-0.83028066 0.27634224 0.30177018
-0.8221904 0.27349544 0.21306697
-0.83418536 0.27717039 0.12913485
-0.065453909 0.059681538 8.728941
-0.40243617 0.14596303 2.7219551
-0.5251714 0.18688416 2.7034261
-0.98788285 0.34437937 3.3917108
-1.0445353 0.36011365 2.6624784
-1.0516777 0.36014977 2.1044683
-0.95149565 0.32437098 1.549068
-0.92743939 0.31510282 1.2493588
-0.4646742 0.21579967 8.6998892
-0.86243689 0.3618626 8.6800575
-0.65150642 0.23019281 2.6978805
-1.0357161 0.36069199 3.0366344
-1.0469406 0.36137396 2.3538795
-0.99564385 0.34193882 1.7921119
-0.93482625 0.31979054 1.3830478
-0.92197591 0.31451121 1.1343416
-0.9195447 0.31028938 1.0334884
-0.89185643 0.30043513 0.84122264
-0.88589191 0.29791999 0.69739258
-0.87900221 0.29526934 0.57194275
-0.86222076 0.28930476 0.45576534
-0.84632379 0.28364974 0.35230598
-0.84777784 0.28381342 0.26120901
-0.835756 0.27947235 0.17206176
-0.91212195 0.30920884 0.93894702
-0.88306594 0.29885238 0.76236743
-0.88379806 0.29876456 0.6338371
-0.87830704 0.29640386 0.51597857
-0.86416483 0.29130292 0.40653673
-0.82931101 0.27923876 0.30177018
-0.82123071 0.27636376 0.21306697
-0.83321279 0.28008053 0.12913485
-0.065245181 0.059909649 8.728941
-0.40192419 0.1473669 2.7219551
-0.52547371 0.18906145 2.7083211
-0.98808247 0.34832221 3.3964829
-1.0432719 0.36375755 2.6624784
-1.0504142 0.36381862 2.1044683
-0.95301783 0.32860789 1.553201
-0.92936504 0.31938019 1.2531964
-0.46391809 0.21742038 8.6998892
-0.8611685 0.36487088 8.6800575
-1.2708775 0.4542774 5.2337389
-1.0344507 0.36430508 3.0366344
-1.0477279 0.36574399 2.3583806
-0.99444419 0.34541219 1.7921119
-0.93370426 0.32305175 1.3830478
-0.92407721 0.31883359 1.1380167
-0.91845596 0.31349728 1.0334884
-0.89448649 0.30480212 0.84436107
-0.88880515 0.30235735 0.70013404
-0.87796623 0.29833582 0.57194275
-0.86120564 0.29231268 0.45576534
-0.84532845 0.28660223 0.35230598
-0.85143465 0.28834671 0.26214162
-0.83949274 0.28398383 0.17250884
-0.91103709 0.31239086 0.93894702
-0.88201737 0.30193308 0.76236743
-0.88274986 0.30184779 0.6338371
-0.877267 0.29946789 0.51597857
-0.86314273 0.29431763 0.40653673
-0.83293223 0.28369913 0.30294251
-0.82026106 0.27922869 0.21306697
-0.83223003 0.2829873 0.12913485
-0.065035656 0.06013703 8.728941
-0.40140733 0.14876898 2.7219551
-0.52576727 0.19124313 2.7132165
-0.98686057 0.35176915 3.3964829
-1.0419958 0.36739707 2.6624784
-1.051398 0.36827496 2.1088572
-0.95186496 0.33193254 1.553201
-0.92824453 0.32262236 1.2531964
-0.4634169 0.21916273 8.7048807
-0.85988963 0.36787468 8.6800575
-1.2740123 0.46042055 5.2530966
-1.0331727 0.36791378 3.0366344
-1.0484976 0.37012392 2.3628819
-0.99569291 0.3497459 1.7963778
-0.93541503 0.32730445 1.3870379
-0.92295861 0.32205728 1.1380167
-0.91735607 0.31670138 1.0334884
-0.89341712 0.3079226 0.84436107
-0.88774431 0.30545801 0.70013404
-0.87691951 0.30139869 0.57194275
-0.86456466 0.29682255 0.45763838
-0.84432286 0.28955123 0.35230598
-0.85042292 0.29131702 0.26214162
-0.83849633 0.28691247 0.17250884
-0.90994108 0.3155691 0.93894702
-0.88095802 0.30501002 0.76236743
-0.8816908 0.30492732 0.6338371
-0.87621635 0.30252832 0.51597857
-0.86657423 0.29886848 0.40818024
-0.83193684 0.28660485 0.30294251
-0.8239637 0.28370249 0.21375765
-0.83123714 0.28589061 0.12913485
-0.064825349 0.06036368 8.728941
-0.40088558 0.15016924 2.7219551
-0.52605194 0.19342916 2.7181118
-0.98562664 0.35521179 3.3964829
-1.0443872 0.3723447 2.6716835
-1.0523636 0.37274265 2.1132464
-0.9533543 0.33618927 1.5573338
-0.9271127 0.32586056 1.2531964
-0.46264905 0.22077902 8.7048807
-0.85860026 0.37087405 8.6800575
-1.2806612 0.46788573 5.286972
-1.0318822 0.37151799 3.0366344
-1.0512995 0.37524569 2.3718843
-0.99446601 0.35321936 1.7963778
-0.93426687 0.33056766 1.3870379
-0.92502564 0.32640532 1.1416919
-0.91624498 0.31990165 1.0334884
-0.89233685 0.31103933 0.84436107
-0.88667268 0.30855495 0.70013404
-0.87586212 0.30445787 0.57194275
-0.86352336 0.29983866 0.45763838
-0.83877492 0.29092467 0.35089597
-0.84940082 0.29428378 0.26214162
-0.83748972 0.2898376 0.17250884
-0.91235733 0.31997937 0.94227254
-0.879888 0.3080833 0.76236743
-0.88062108 0.30800313 0.6338371
-0.87087023 0.30408874 0.51388049
-0.86998439 0.30344689 0.40982375
-0.83552134 0.29110643 0.30411482
-0.82296836 0.28657693 0.21375765
-0.82551545 0.28714904 0.12893331
-0.064614236 0.060589597 8.728941
-0.40108541 0.15184349 2.7268946
-0.52537358 0.19526424 2.7181118
-0.98297828 0.3581388 3.3917108
-1.0467567 0.37731352 2.6808887
-1.0510561 0.37641382 2.1132464
-0.95217496 0.33951506 1.5573338
-0.92898965 0.33016843 1.2570338
-0.46161589 0.22226651 8.6998892
-0.85730046 0.37386885 8.6800575
-1.2778411 0.47191754 5.2821326
-1.0305791 0.37511766 3.0366344
-1.0540785 0.38039151 2.3808868
-0.99568146 0.35757029 1.8006437
-0.93594432 0.33484212 1.3910279
-0.9270736 0.33077174 1.145367
-0.91512275 0.323098 1.0334884
-0.89491647 0.31544644 0.84749955
-0.8855902 0.31164816 0.70013404
-0.87897301 0.30898258 0.57426155
-0.86247146 0.30285108 0.45763838
-0.83775425 0.29385075 0.35089597
-0.84836847 0.29724693 0.26214162
-0.83647287 0.29275924 0.17250884
-0.91123486 0.32316214 0.94227254
-0.88261735 0.31250203 0.76531059
-0.88360453 0.31251276 0.63637024
-0.86980343 0.30712679 0.51388049
-0.86891985 0.30648187 0.40982375
-0.83450007 0.29402116 0.30411482
-0.82663393 0.29109278 0.21444833
-0.82922101 0.29168671 0.12913485
-0.064373098 0.060782392 8.7239418
-0.40055293 0.15324262 2.7268946
-0.52564174 0.19745553 2.723007
-0.97892094 0.36053556 3.3821669
-1.0509398 0.38297254 2.6946962
-1.0519876 0.380896 2.1176355
-0.95363116 0.34379128 1.5614668
-0.92783153 0.33340919 1.2570338
-0.46083719 0.22387651 8.6998892
-0.85647768 0.37707445 8.6850281
-1.2726535 0.47505584 5.2676144
-1.0292634 0.37871274 3.0366344
-1.0568342 0.38556132 2.389889
-0.99442726 0.36104369 1.8006437
-0.93476981 0.33810711 1.3910279
-0.92591333 0.3340058 1.145367
-0.91734803 0.32748964 1.036993
-0.89380991 0.31856835 0.84749955
-0.88449699 0.31473753 0.70013404
-0.8778891 0.31204888 0.57426155
-0.86140901 0.30585983 0.45763838
-0.83672345 0.29677328 0.35089597
-0.84732568 0.30020648 0.26214162
-0.83544588 0.29567727 0.17250884
-0.91010123 0.32634097 0.94227254
-0.88152117 0.31558102 0.76531059
-0.88250828 0.31559521 0.63637024
-0.86872602 0.31016108 0.51388049
-0.86784476 0.30951309 0.40982375
-0.83804739 0.29856363 0.30528715
-0.82561278 0.29397649 0.21444833
-0.82819778 0.29457948 0.12913485
-0.064160541 0.061006725 8.7239418
-0.40001559 0.15463987 2.7268946
-0.52494931 0.19928917 2.723007
-0.97485882 0.3629083 3.372623
-1.0532628 0.38798979 2.7039013
-1.0506517 0.38456583 2.1176355
-0.95506912 0.34808183 1.5655998
-0.92967457 0.33774057 1.2608713
-0.46005291 0.22548376 8.6998892
-0.85515624 0.38006181 8.6850281
-1.2674596 0.47816366 5.2530966
-1.0279351 0.38230324 3.0366344
-1.0595667 0.39075497 2.3988914
-0.99560905 0.36541149 1.8049095
-0.93641382 0.34240305 1.395018
-0.92792672 0.33839756 1.1490422
-0.91619927 0.33068979 1.036993
-0.89635426 0.32300612 0.85063797
-0.88339293 0.31782308 0.70013404
-0.87679458 0.31511137 0.57426155
-0.8646993 0.31043139 0.4595114
-0.83568239 0.29969218 0.35089597
-0.84627259 0.3031624 0.26214162
-0.8344087 0.29859173 0.17250884
-0.90895653 0.32951581 0.94227254
-0.88041419 0.31865621 0.76531059
-0.88545525 0.32013971 0.63890344
-0.86763811 0.31319162 0.51388049
-0.87120122 0.31414244 0.41146725
-0.83700007 0.30148715 0.30528715
-0.82924086 0.29853407 0.21513902
-0.83186561 0.29915926 0.12933637
-0.063947193 0.061230317 8.7239418
-0.40019679 0.15631862 2.7318337
-0.5261513 0.20185082 2.7327974
-0.96799809 0.36420527 3.3535349
-1.0555637 0.3930279 2.7131064
-1.0493029 0.38823095 2.1176355
-0.95384824 0.35141352 1.5655998
-0.92848998 0.34098366 1.2608713
-0.45926306 0.22708827 8.6998892
-0.85382444 0.38304454 8.6850281
-1.2646083 0.48213699 5.2482567
-1.0265944 0.38588908 3.0366344
-1.0602361 0.39521176 2.4033928
-0.99677265 0.36979198 1.8091755
-0.93803912 0.34671456 1.3990079
-0.92673981 0.34163454 1.1490422
-0.91838944 0.33510858 1.0404975
-0.89522129 0.32613301 0.85063797
-0.88227814 0.32090476 0.70013404
-0.87985271 0.31968293 0.57658035
-0.86361045 0.31344786 0.4595114
-0.83463115 0.30260742 0.35089597
-0.84520924 0.30611455 0.26214162
-0.83336133 0.30150256 0.17250884
-0.9113065 0.33397165 0.94559801
-0.8830924 0.32311654 0.76825374
-0.88433236 0.32322857 0.63890344
-0.87080306 0.31777433 0.51597857
-0.87009937 0.31718159 0.41146725
-0.84050977 0.30607018 0.30645946
-0.82819378 0.30142686 0.21513902
-0.83081627 0.3020612 0.12933637
-0.063733071 0.06145316 8.7239418
-0.3996487 0.15771462 2.7318337
-0.52259606 0.20258057 2.7181118
-0.97788203 0.37182841 3.3917108
-1.0560137 0.39739841 2.7177088
-1.0479412 0.39189133 2.1176355
-0.95525289 0.3557232 1.5697327
-0.92729408 0.34422264 1.2608713
-0.45846754 0.22869001 8.6998892
-0.85248214 0.38602263 8.6850281
-1.2629176 0.48654836 5.2482567
-1.0252411 0.38947022 3.0366344
-1.0568129 0.39814255 2.3988914
-0.99547571 0.37326911 1.8091755
-0.93682313 0.34998685 1.3990079
-0.92871833 0.34605134 1.1527174
-0.9172141 0.3383123 1.0404975
-0.89772975 0.33060122 0.85377645
-0.88507706 0.32542568 0.70287549
-0.87873149 0.32275224 0.57658035
-0.86251104 0.31646049 0.4595114
-0.83807385 0.30716991 0.35230598
-0.84874827 0.310752 0.26307425
-0.83230382 0.30440968 0.17250884
-0.91013515 0.33715069 0.94559801
-0.88195914 0.32619715 0.76825374
-0.88319874 0.3263135 0.63890344
-0.86968851 0.32081208 0.51597857
-0.87341768 0.32184973 0.41311076
-0.83943623 0.30900225 0.30645946
-0.82713652 0.30431592 0.21513902
-0.83444607 0.30668288 0.12953791
-0.063518174 0.061675254 8.7239418
-0.39909574 0.15910868 2.7318337
-1.5787715 0.61901808 8.1762905
-0.98215133 0.37738228 3.4107988
-1.056446 0.40177688 2.7223115
-1.0488071 0.39639387 2.1220245
-0.95400536 0.35905549 1.5697327
-0.9290877 0.34858358 1.2647089
-0.45766646 0.23028897 8.6998892
-0.85112941 0.38899601 8.6850281
-1.2787807 0.49779662 5.3208485
-1.0222644 0.39242792 3.0319417
-1.0533823 0.40105426 2.3943901
-0.9966054 0.37766612 1.8134414
-0.93841469 0.35431945 1.402998
-0.92750478 0.34929106 1.1527174
-0.9193691 0.34275791 1.0440021
-0.89657032 0.33373287 0.85377645
-0.88393575 0.32851318 0.70287549
-0.87759948 0.32581764 0.57658035
-0.86140108 0.3194693 0.4595114
-0.8369965 0.31009346 0.35230598
-0.8476584 0.31371278 0.26307425
-0.83123612 0.30731308 0.17250884
-0.91244936 0.34163499 0.94892353
-0.88081509 0.32927379 0.76825374
-0.88205427 0.32939446 0.63890344
-0.86856335 0.32384589 0.51597857
-0.87228894 0.32489657 0.41311076
-0.83835256 0.31193054 0.30645946
-0.83071071 0.30892751 0.21582969
-0.83337045 0.3095938 0.12953791
-0.063302495 0.0618966 8.7239418
-0.3992584 0.16079177 2.736773
-1.5766011 0.62452525 8.1762905
-0.9822194 0.38134888 3.4155707
-1.0568606 0.40616319 2.7269139
-1.047417 0.40005246 2.1220245
-0.95537615 0.36338404 1.5738657
-0.92786527 0.35182455 1.2647089
-0.45685983 0.23188512 8.6998892
-0.84928274 0.3917408 8.6800575
-1.2828834 0.50455868 5.3450451
-1.0208883 0.39599386 3.0319417
-1.0499443 0.40394691 2.389889
-0.9952811 0.38114262 1.8134414
-0.93717217 0.35759294 1.402998
-0.92944819 0.35373259 1.1563925
-0.91816705 0.34596503 1.0440021
-0.89539993 0.33686045 0.85377645
-0.88669795 0.33306724 0.70561695
-0.88060415 0.33043545 0.57889915
-0.86462164 0.32410154 0.46138445
-0.84040141 0.31469554 0.35371602
-0.85115904 0.31839088 0.26400685
-0.83015835 0.31021279 0.17250884
-0.91125125 0.34481794 0.94892353
-0.87966037 0.33234638 0.76825374
-0.88089907 0.33247137 0.63890344
-0.87167448 0.32847628 0.5180766
-0.87114954 0.32793945 0.41311076
-0.83270907 0.31314409 0.30528715
-0.82962728 0.31182534 0.21582969
-0.83228469 0.31250092 0.12953791
-0.063086055 0.062117189 8.7239418
-0.39869469 0.16218446 2.736773
-1.5772471 0.63116014 8.1909752
-0.97254521 0.38150281 3.3869388
-1.0554363 0.40984985 2.7269139
-1.0482485 0.40456876 2.1264138
-0.95410192 0.36671671 1.5738657
-0.9296245 0.35620835 1.2685463
-0.45604762 0.23347844 8.6998892
-0.84791005 0.39470294 8.6800575
-1.2951311 0.51460594 5.4031181
-1.0178932 0.3989251 3.0272489
-1.0464989 0.40682039 2.3853879
-0.99637675 0.38555595 1.8177074
-0.93591821 0.36086211 1.402998
-0.92820776 0.35697481 1.1563925
-0.91695386 0.34916794 1.0440021
-0.89785671 0.34136739 0.85691494
-0.88552994 0.33616036 0.70561695
-0.87944537 0.3335073 0.57889915
-0.86348504 0.32711765 0.46138445
-0.83929777 0.31762716 0.35371602
-0.85004246 0.32136002 0.26400685
-0.83372927 0.31486818 0.17295592
-0.91004205 0.34799671 0.94892353
-0.87849492 0.33541495 0.76825374
-0.8797332 0.33554429 0.63890344
-0.87052262 0.33151701 0.5180766
-0.86999947 0.3309783 0.41311076
-0.83161098 0.31604886 0.30528715
-0.82853377 0.31471938 0.21582969
-0.8311888 0.31540421 0.12953791
-0.062868841 0.062337022 8.7239418
-0.3988446 0.16387114 2.7417121
-1.5722028 0.6355167 8.1762905
-0.96010673 0.38049346 3.348763
-1.0539993 0.41353151 2.7269139
-1.0490613 0.40909576 2.1308026
-0.95543909 0.37106392 1.5779986
-0.92837542 0.35945117 1.2685463
-0.45522985 0.23506893 8.6998892
-0.84652716 0.39766032 8.6800575
-1.2933269 0.51912361 5.4031181
-1.0164945 0.40247577 3.0272489
-1.0450724 0.41047087 2.3853879
-0.99502486 0.38903156 1.8177074
-0.93746048 0.36522096 1.406988
-0.93011594 0.3614409 1.1600677
-0.91905767 0.35364753 1.0475066
-0.89665967 0.34449941 0.85691494
-0.88825512 0.34074721 0.70835841
-0.87827587 0.33657512 0.57889915
-0.86233795 0.33012977 0.46138445
-0.83818394 0.32055494 0.35371602
-0.84891552 0.32432526 0.26400685
-0.83262509 0.3177765 0.17295592
-0.90882176 0.35117123 0.94892353
-0.88108969 0.33993456 0.7711969
-0.87855655 0.33861306 0.63890344
-0.87359577 0.33618385 0.52017462
-0.86883885 0.33401316 0.41311076
-0.83050263 0.31894982 0.30528715
-0.82743013 0.31760958 0.21582969
-0.83008277 0.31830367 0.12953791
-0.062679194 0.06258928 8.728941
-0.40185708 0.16675474 2.7664084
-1.5662043 0.63946062 8.1567087
-0.9657011 0.3866179 3.372623
-1.0525492 0.41720811 2.7269139
-1.0498551 0.41363338 2.1351919
-0.95413804 0.37439677 1.5779986
-0.9300999 0.36385757 1.2723838
-0.45466214 0.23679073 8.7048807
-0.8451339 0.4006128 8.6800575
-1.3078139 0.53024995 5.4708705
-1.0134813 0.40538043 3.0225561
-1.04161 0.41331324 2.3808868
-0.9960863 0.39346084 1.8219732
-0.93617994 0.36849108 1.406988
-0.92884862 0.36468539 1.1600677
-0.91781765 0.35685346 1.0475066
-0.89545172 0.34762722 0.85691494
-0.88706028 0.3438457 0.70835841
-0.87709564 0.33963883 0.57889915
-0.86118031 0.3331379 0.46138445
-0.83705992 0.32347879 0.35371602
-0.85236084 0.32905573 0.26493949
-0.83151072 0.32068098 0.17295592
-0.91106838 0.3556996 0.95224905
-0.87989777 0.34300804 0.7711969
-0.87736923 0.34167773 0.63890344
-0.87241697 0.33923122 0.52017462
-0.86766762 0.33704394 0.41311076
-0.83391559 0.32360536 0.30645946
-0.83093327 0.3222867 0.21652037
-0.82896662 0.32119927 0.12953791
-0.062460337 0.062807694 8.728941
-0.40127254 0.16815646 2.7664084
-1.5639626 0.64492381 8.1567087
-0.9684968 0.39166617 3.3869388
-1.0510865 0.42087966 2.7269139
-1.0484048 0.41729552 2.1351919
-0.95544118 0.37876233 1.5821315
-0.92882413 0.36710203 1.2723838
-0.45383283 0.23837636 8.7048807
-0.84421092 0.40379101 8.6850281
-1.2978132 0.53147596 5.4369946
-1.01206 0.40891567 3.0225561
-1.0401609 0.41694659 2.3808868
-0.99712902 0.39790231 1.8262392
-0.93768787 0.37287036 1.410978
-0.92756993 0.36792544 1.1600677
-0.91656637 0.36005509 1.0475066
-0.89785635 0.35217234 0.86005342
-0.8858546 0.34694004 0.70835841
-0.87590474 0.34269837 0.57889915
-0.86001217 0.33614194 0.46138445
-0.84039408 0.3281436 0.35512605
-0.85120708 0.33202904 0.26493949
-0.83038628 0.32358155 0.17295592
-0.90982121 0.35887766 0.95224905
-0.88245583 0.34755877 0.77414006
-0.88018256 0.34631675 0.64143664
-0.8712275 0.34227446 0.52017462
-0.86648583 0.34007064 0.41311076
-0.8327809 0.3265143 0.30645946
-0.82980323 0.32518521 0.21652037
-0.82784039 0.32409096 0.12953791
-0.062240712 0.06302534 8.728941
-1.2912138 0.54738051 8.9157839
-1.5598221 0.64959586 8.1469183
-0.96712375 0.39504448 3.3869388
-1.049611 0.42454606 2.7269139
-1.0491637 0.42184624 2.1395807
-0.95411325 0.38209513 1.5821315
-0.92753708 0.37034199 1.2723838
-0.45325264 0.24009506 8.7098732
-0.84327608 0.40696764 8.6899996
-1.2971115 0.53648365 5.441834
-1.0122242 0.41309825 3.0272489
-1.0407168 0.42139214 2.3853879
-0.99573398 0.40138051 1.8262392
-0.93638062 0.37614125 1.410978
-0.92942679 0.37242219 1.1637428
-0.91861862 0.364568 1.0510111
-0.89662158 0.3553043 0.86005342
-0.8885262 0.35156873 0.71109986
-0.87882274 0.34738234 0.58121794
-0.86314547 0.34084475 0.46325746
-0.83924353 0.3310751 0.35512605
-0.85004288 0.33499831 0.26493949
-0.82925171 0.32647815 0.17295592
-0.91203147 0.36343372 0.95557451
-0.88123721 0.35063699 0.77414006
-0.87896836 0.34938705 0.64143664
-0.87002742 0.34531352 0.52017462
-0.86529344 0.34309316 0.41311076
-0.83615506 0.33120939 0.30763176
-0.82866305 0.32807979 0.21652037
-0.83134979 0.32881621 0.12973943
-0.062020335 0.063242219 8.728941
-0.39866039 0.17034182 2.75653
-1.5481601 0.65108776 8.0979671
-0.98505586 0.40639168 3.4537466
-1.0481226 0.42820731 2.7269139
-1.0476848 0.42550597 2.1395807
-0.95277369 0.38542327 1.5821315
-0.92921114 0.3747766 1.2762213
-0.45241177 0.24167575 8.7098732
-0.84185028 0.40990871 8.6899996
-1.2755148 0.53276873 5.3595638
-1.010776 0.41662902 3.0272489
-1.0392395 0.42502236 2.3853879
-0.99674219 0.40583754 1.8305051
-0.93785399 0.3805407 1.414968
-0.92812115 0.37566426 1.1637428
-0.91734046 0.36777234 1.0510111
-0.89537585 0.35843194 0.86005342
-0.88729358 0.35466814 0.71109986
-0.87760478 0.35044789 0.58121794
-0.86195046 0.34385559 0.46325746
-0.84253895 0.33577862 0.35653609
-0.84886831 0.33796343 0.26493949
-0.82810706 0.3293708 0.17295592
-0.9107573 0.36661509 0.95557451
-0.88000792 0.35371098 0.77414006
-0.88174367 0.35405955 0.64396977
-0.86881679 0.34834838 0.52017462
-0.86409056 0.34611151 0.41311076
-0.83499384 0.33412609 0.30763176
-0.82751286 0.33097035 0.21652037
-0.83019698 0.33171612 0.12973943
-0.061799202 0.063458323 8.728941
-1.2581218 0.54373461 8.713275
-1.5374438 0.65290427 8.0539093
-0.98500901 0.41040203 3.4585185
-1.0466216 0.43186334 2.7269139
-1.0484089 0.43006968 2.14397
-0.95142251 0.38874674 1.5821315
-0.92789727 0.37801784 1.2762213
-0.45131171 0.24311574 8.7048807
-0.84089261 0.41308045 8.6949711
-1.2562762 0.52988714 5.286972
-1.0109086 0.42081818 3.0319417
-1.0397617 0.42947873 2.389889
-0.99531949 0.40931433 1.8305051
-0.93930811 0.38495505 1.4189581
-0.92680418 0.37890169 1.1637428
-0.91935652 0.37231106 1.0545157
-0.89411926 0.36155519 0.86005342
-0.88605016 0.3577632 0.71109986
-0.88048428 0.35516647 0.58353674
-0.86504477 0.34859517 0.46513051
-0.84136176 0.33871761 0.35653609
-0.84768343 0.34092447 0.26493949
-0.83157325 0.3341161 0.17340299
-0.90947199 0.36979198 0.95557451
-0.88251293 0.35830131 0.77708322
-0.8805024 0.35713527 0.64396977
-0.87180209 0.35308284 0.52227271
-0.86725456 0.35089689 0.41475427
-0.83832884 0.33886033 0.30880409
-0.82635248 0.33385691 0.21652037
-0.82903397 0.33461204 0.12973943
-0.061549559 0.063639976 8.7239418
-1.2490956 0.54501355 8.6638832
-1.5267338 0.65465403 8.0098524
-1.0042069 0.42252535 3.5300984
-1.046911 0.43626586 2.7315164
-1.0469012 0.43372667 2.14397
-0.95266086 0.39313915 1.5862645
-0.92657208 0.38125449 1.2762213
-0.45046031 0.24468963 8.7048807
-0.83944553 0.41601321 8.6949711
-1.2509499 0.53279096 5.2724543
-1.0094335 0.42434439 3.0319417
-1.0402651 0.43394387 2.3943901
-0.99629319 0.41378677 1.8347712
-0.9379586 0.38823149 1.4189581
-0.92547596 0.38213453 1.1637428
-0.92135197 0.37686831 1.0580202
-0.89645499 0.36614597 0.8631919
-0.8886677 0.36243314 0.71384138
-0.87923914 0.35823774 0.58353674
-0.8638227 0.35161263 0.46513051
-0.84017426 0.34165245 0.35653609
-0.85103929 0.3457303 0.26587209
-0.83040184 0.33701679 0.17340299
-0.91162944 0.374383 0.95890003
-0.88125688 0.36137965 0.77708322
-0.87925041 0.36020663 0.64396977
-0.87056422 0.35612383 0.52227271
-0.86602443 0.35392201 0.41475427
-0.83714092 0.3417846 0.30880409
-0.82518208 0.33673939 0.21652037
-0.82786089 0.33750388 0.12973943
-0.061327044 0.063854434 8.7239418
-1.2478964 0.54968375 8.6688213
-1.5160303 0.65633702 7.9657955
-1.023332 0.4347876 3.6016781
-1.0453818 0.43991756 2.7315164
-1.0475901 0.43830299 2.1483591
-0.9512828 0.39646217 1.5862645
-0.92819536 0.38571674 1.2800589
