# .PCD v0.7 - Point Cloud Data file format
VERSION 0.7
FIELDS x y z
SIZE 4 4 4
TYPE F F F
COUNT 1 1 1
WIDTH 1410
HEIGHT 1
VIEWPOINT 0 0 0 1 0 0 0
POINTS 1410
DATA ascii
-1.1444626 -0.49047112 3.4402122
-1.0327834 -0.44599852 2.389889
-1.0232359 -0.44375703 1.8944942
-0.95293617 -0.41463879 1.4508783
-0.94263476 -0.41111934 1.1931442
-0.92744243 -0.40815189 1.0755429
-0.90036076 -0.39678729 0.87574571
-0.89333522 -0.39423907 0.7248072
-0.88872629 -0.39256755 0.59513074
-0.86571074 -0.38275492 0.47074962
-0.84694529 -0.37480381 0.36217624
-0.85335332 -0.37799007 0.26866996
-0.84659082 -0.3753399 0.17608546
-0.92309755 -0.40469697 0.97885299
-0.89063275 -0.39101103 0.79179901
-0.88962287 -0.39092973 0.6566357
-0.8775354 -0.38615859 0.53066492
-0.87346768 -0.38472432 0.42132831
-0.84517664 -0.37260807 0.31349337
-0.83810443 -0.36965939 0.21997377
-0.83614194 -0.36913413 0.13054556
-0.088403925 0.00023128878 8.7089415
-1.2457261 -0.50906384 8.5552187
-1.5957643 -0.66393334 8.3329372
-1.2119119 -0.51390082 4.2554402
-1.0821471 -0.46330339 2.8327718
-1.0144081 -0.43679211 2.091301
-0.9925046 -0.42898193 1.6606575
-0.95753163 -0.41504043 1.3261089
-0.48560277 -0.15116227 8.6349974
-0.87543029 -0.30894876 8.615427
-1.3537931 -0.56712699 5.6886444
-1.1414018 -0.48445123 3.4261341
-1.0323322 -0.44153485 2.3853879
-1.0223824 -0.43915355 1.8902283
-0.95437765 -0.4113099 1.4508783
-0.94095182 -0.40648222 1.1894691
-0.9288615 -0.40491202 1.0755429
-0.90174031 -0.39364201 0.87574571
-0.89087456 -0.38944367 0.72206575
-0.88603282 -0.38768736 0.59281194
-0.86704159 -0.37973067 0.47074962
-0.84824842 -0.37184513 0.36217624
-0.85466748 -0.37500903 0.26866996
-0.84333616 -0.37037995 0.17563838
-0.9210797 -0.39998525 0.97552752
-0.89199221 -0.38789976 0.79179901
-0.89098197 -0.387822 0.6566357
-0.878878 -0.38309306 0.53066492
-0.87480533 -0.38167301 0.42132831
-0.84647214 -0.36965558 0.31349337
-0.83938968 -0.36673161 0.21997377
-0.83742541 -0.3662132 0.13054556
-0.088402577 0.00053987495 8.7089415
-1.2474954 -0.50471234 8.5552187
-1.596189 -0.65758365 8.3231468
-1.2109456 -0.50851184 4.2458959
-1.0819591 -0.45876077 2.8281696
-1.0137236 -0.43230927 2.0869119
-0.99140888 -0.4244076 1.6565247
-0.95897454 -0.41169551 1.3261089
-0.48612747 -0.14946629 8.6349974
-0.87700689 -0.30606607 8.6203995
-1.3522812 -0.56095356 5.6741261
-1.1383131 -0.47845867 3.4120557
-1.0318626 -0.43707982 2.3808868
-1.0215091 -0.43456134 1.8859622
-0.95303613 -0.40679333 1.4468882
-0.94236493 -0.4031952 1.1894691
-0.92699504 -0.40025377 1.0720384
-0.89953613 -0.3889474 0.87260723
-0.89222848 -0.38633153 0.72206575
-0.88738066 -0.38459218 0.59281194
-0.86836183 -0.37670183 0.47074962
-0.84954125 -0.36888194 0.36217624
-0.85597134 -0.3720234 0.26866996
-0.84462398 -0.36743391 0.17563838
-0.92247027 -0.39676765 0.97552752
-0.88962847 -0.383185 0.78885585
-0.89233035 -0.38470951 0.6566357
-0.88020986 -0.38002285 0.53066492
-0.87613231 -0.37861705 0.42132831
-0.84775734 -0.36669856 0.31349337
-0.84066468 -0.36379936 0.21997377
-0.83869857 -0.36328778 0.13054556
-0.088400155 0.00084845437 8.7089415
-1.2485282 -0.50006598 8.5502796
-1.5975319 -0.65162355 8.3182516
-1.2099564 -0.50313586 4.236352
-1.0835539 -0.45498121 2.8281696
-1.0130199 -0.42783651 2.0825229
-0.9902935 -0.41984624 1.6523917
-0.95745599 -0.40709162 1.3222713
-0.48664623 -0.14776847 8.6349974
-0.87806994 -0.30300289 8.6203995
-1.3507427 -0.55479777 5.6596084
-1.1351964 -0.47249365 3.3979776
-1.0313743 -0.43263343 2.3763855
-1.0206162 -0.42998067 1.8816965
-0.95445031 -0.40346411 1.4468882
-0.94376659 -0.39990327 1.1894691
-0.92510748 -0.39561346 1.0685339
-0.90088838 -0.38580507 0.87260723
-0.88972861 -0.38156679 0.71932429
-0.88871777 -0.38149229 0.59281194
-0.865412 -0.37183839 0.46887657
-0.84641683 -0.36401907 0.3607662
-0.85726476 -0.36903322 0.26866996
-0.84590137 -0.36448339 0.17563838
-0.92041451 -0.39208212 0.972202
-0.89096063 -0.38007727 0.78885585
-0.88970321 -0.37989971 0.65410256
-0.88153106 -0.37694806 0.53066492
-0.87744856 -0.37555647 0.42132831
-0.84903216 -0.36373711 0.31349337
-0.8419295 -0.36086267 0.21997377
-0.83996165 -0.360358 0.13054556
-0.088396654 0.0011570234 8.7089415
-1.2502662 -0.49570477 8.5502796
-1.5979083 -0.6452809 8.3084612
-1.2075642 -0.49720499 4.2220359
-1.0833313 -0.45044628 2.8235669
-1.0145073 -0.42429778 2.0825229
-0.99175298 -0.41638687 1.6523917
-0.955917 -0.40250334 1.3184339
-0.4868823 -0.14598688 8.6300068
-0.87912226 -0.299936 8.6203995
-1.3491777 -0.54865944 5.6450896
-1.1304566 -0.4658989 3.3792064
-1.0328783 -0.4290306 2.3763855
-1.0197039 -0.42541152 1.8774304
-0.95307326 -0.39896667 1.4428982
-0.94203061 -0.3952949 1.1857939
-0.92648274 -0.39238185 1.0685339
-0.89864618 -0.38113844 0.86946881
-0.89105511 -0.37845877 0.71932429
-0.88596725 -0.37665477 0.59049314
-0.8667047 -0.36881527 0.46887657
-0.84768242 -0.36106232 0.3607662
-0.85402894 -0.36411208 0.26773736
-0.84258813 -0.35957381 0.1751913
-0.92177749 -0.38886687 0.972202
-0.89228189 -0.37696493 0.78885585
-0.89102387 -0.37679175 0.65410256
-0.87866223 -0.37209895 0.52856684
-0.8787542 -0.37249133 0.42132831
-0.84582216 -0.35887283 0.31232107
-0.83862555 -0.35598665 0.21928309
-0.84121436 -0.35742378 0.13054556
-0.088392071 0.0014655784 8.7089415
-1.2527122 -0.49162117 8.5552187
-1.5973146 -0.6385659 8.2937756
-1.2051455 -0.49129698 4.2077203
-1.0830905 -0.4459185 2.8189645
-1.0159822 -0.4207539 2.0825229
-0.9906019 -0.41184241 1.6482588
-0.95731616 -0.39916408 1.3184339
-0.48738894 -0.14428645 8.6300068
-0.88016385 -0.29686549 8.6203995
-1.3487526 -0.54300815 5.6354108
-1.1288803 -0.46064651 3.3698208
-1.0343695 -0.42542258 2.3763855
-1.018772 -0.42085394 1.8731647
-0.95167637 -0.39448377 1.4389081
-0.94340467 -0.39200416 1.1857939
-0.92455792 -0.3877663 1.0650293
-0.89997107 -0.37799925 0.86946881
-0.8923707 -0.37534609 0.71932429
-0.88727665 -0.37355986 0.59049314
-0.86371464 -0.36398742 0.46700355
-0.84893757 -0.35810116 0.3607662
-0.8552947 -0.36112875 0.26773736
-0.84383816 -0.35663041 0.1751913
-0.91968393 -0.38420781 0.96887648
-0.8935923 -0.37384799 0.78885585
-0.8883574 -0.37201425 0.65156937
-0.87995571 -0.36902961 0.52856684
-0.88004905 -0.3694216 0.42132831
-0.84258848 -0.35403535 0.31114873
-0.83986312 -0.35305715 0.21928309
-0.84245688 -0.35448521 0.13054556
-0.088386424 0.0017741155 8.7089415
-1.2544206 -0.48724538 8.5552187
-1.5976402 -0.63223732 8.2839851
-1.2027001 -0.48541191 4.1934042
-1.0846404 -0.44213507 2.8189645
-1.0174447 -0.41720492 2.0825229
-0.9894312 -0.40731108 1.6441258
-0.95574093 -0.39459708 1.3145963
-0.48788962 -0.14258428 8.6300068
-0.88119471 -0.29379132 8.6203995
-1.3494719 -0.5378316 5.6305714
-1.1256809 -0.45476466 3.3557425
-1.033832 -0.42098862 2.3718843
-1.0178208 -0.41630808 1.8688986
-0.95025998 -0.39001554 1.4349182
-0.94163215 -0.38741904 1.1821188
-0.92261231 -0.38316903 1.0615247
-0.89769113 -0.3733609 0.86633033
-0.88981545 -0.37062129 0.71658283
-0.88448644 -0.36875591 0.58817434
-0.86497998 -0.36097026 0.46700355
-0.85018241 -0.35513562 0.3607662
-0.85201794 -0.35624611 0.26680472
-0.84507793 -0.3536827 0.1751913
-0.92101949 -0.38099518 0.96887648
-0.89489186 -0.3707265 0.78885585
-0.88965058 -0.36891103 0.65156937
-0.877047 -0.36421522 0.52646881
-0.88133323 -0.3663474 0.42132831
-0.83933145 -0.34922487 0.3099764
-0.83651859 -0.34822026 0.21859241
-0.83907753 -0.34962082 0.13034403
-0.088379689 0.0020826305 8.7089415
-1.2561139 -0.48286366 8.5552187
-1.5969929 -0.62554306 8.2692986
-1.2016147 -0.48010346 4.1838603
-1.0843654 -0.43761536 2.8143618
-1.0188948 -0.41365084 2.0825229
-0.98824096 -0.40279296 1.6399928
-0.95711249 -0.39125851 1.3145963
-0.48838434 -0.14088035 8.6300068
-0.8822149 -0.29071358 8.6203995
-1.3501718 -0.53265667 5.6257319
-1.1240567 -0.4495514 3.3463571
-1.0352952 -0.41737729 2.3718843
-1.0168505 -0.41177404 1.8646327
-0.94882393 -0.38556197 1.4309281
-0.93983895 -0.382851 1.1784436
-0.92394418 -0.37994617 1.0615247
-0.89898896 -0.3702251 0.86633033
-0.89110374 -0.36751297 0.71658283
-0.88576823 -0.36566624 0.58817434
-0.86623472 -0.35794872 0.46700355
-0.85141689 -0.35216579 0.3607662
-0.85325629 -0.35326985 0.26680472
-0.84170675 -0.34882411 0.17474423
-0.91888857 -0.37636292 0.96555102
-0.89618045 -0.36760047 0.78885585
-0.89093292 -0.36580333 0.65156937
-0.878313 -0.36115158 0.52646881
-0.87823987 -0.36147156 0.4196848
-0.84054536 -0.34629291 0.3099764
-0.83772898 -0.34529814 0.21859241
-0.84029281 -0.34668976 0.13034403
-0.08837188 0.0023911204 8.7089415
-1.2577918 -0.47847608 8.5552187
-1.5972679 -0.61922896 8.2595091
-1.2005069 -0.4748086 4.1743164
-1.084072 -0.433103 2.8097594
-1.0181103 -0.40919882 2.0781338
-0.98964101 -0.39934093 1.6399928
-0.95847243 -0.38791516 1.3145963
-0.48887315 -0.13917471 8.6300068
-0.88322431 -0.28763232 8.6203995
-1.3520229 -0.52794051 5.6257319
-1.1224098 -0.44435501 3.3369715
-1.0306799 -0.41134083 2.3583806
-1.0158607 -0.40725183 1.8603667
-0.95016396 -0.38224763 1.4309281
-0.93802536 -0.37830022 1.1747683
-0.92196172 -0.37537411 1.0580202
-0.90027577 -0.3670848 0.86633033
-0.89238119 -0.36440021 0.71658283
-0.88703924 -0.3625721 0.58817434
-0.86747897 -0.35492283 0.46700355
-0.85264099 -0.34919164 0.3607662
-0.85448426 -0.35028926 0.26680472
-0.84291929 -0.34588388 0.17474423
-0.92019671 -0.37315309 0.96555102
-0.89371312 -0.36294925 0.78591269
-0.88821083 -0.36106795 0.64903617
-0.87536472 -0.3563723 0.52437073
-0.87949622 -0.35840371 0.4196848
-0.83724844 -0.34152102 0.30880409
-0.83434421 -0.34050074 0.21790172
-0.84149796 -0.3437545 0.13034403
-0.088362999 0.0026995819 8.7089415
-1.2601815 -0.47435611 8.5601578
-1.5975182 -0.61292052 8.2497187
-1.1993768 -0.4695273 4.164772
-1.0837604 -0.42859799 2.8051567
-1.0173069 -0.40475729 2.0737445
-0.98841554 -0.3948403 1.63586
-0.95982063 -0.38456711 1.3145963
-0.48935598 -0.13746738 8.6300068
-0.88422292 -0.28454754 8.6203995
-1.3491673 -0.52140617 5.6063743
-1.1223472 -0.43980497 3.3322787
-1.0199609 -0.40294287 2.3313732
-1.0148519 -0.40274161 1.8561009
-0.94869298 -0.37781397 1.4269381
-0.93619162 -0.37376681 1.1710931
-0.92326647 -0.37215355 1.0580202
-0.8979423 -0.3624832 0.8631919
-0.88977104 -0.35971594 0.71384138
-0.88419318 -0.35781196 0.58585554
-0.86871254 -0.35189259 0.46700355
-0.85385466 -0.34621322 0.3607662
-0.8557018 -0.34730443 0.26680472
-0.84412152 -0.34293944 0.17474423
-0.92149365 -0.36993873 0.96555102
-0.89497459 -0.35982743 0.78591269
-0.88946587 -0.35796532 0.64903617
-0.87660336 -0.35331452 0.52437073
-0.88074195 -0.35533154 0.4196848
-0.83843547 -0.3385964 0.30880409
-0.83552766 -0.33758625 0.21790172
-0.83806121 -0.33894187 0.1301425
-0.088396385 0.0030129561 8.7139416
-1.2618296 -0.4699544 8.5601578
-1.597744 -0.60661793 8.2399282
-1.1968325 -0.46372059 4.1504564
-1.0834304 -0.42410043 2.800554
-1.0164852 -0.4003264 2.0693557
-0.98978776 -0.3913877 1.63586
-0.95817763 -0.38003287 1.3107588
-0.48955441 -0.13568218 8.6250143
-0.88521081 -0.28145927 8.6203995
-1.3415862 -0.51310295 5.5676589
-1.1222667 -0.4352608 3.3275859
-1.0254163 -0.40096518 2.3403757
-1.0162517 -0.39919665 1.8561009
-0.95000601 -0.37450013 1.4269381
-0.93433756 -0.36925077 1.167418
-0.92455989 -0.36892849 1.0580202
-0.89920211 -0.3593466 0.8631919
-0.89102125 -0.35660785 0.71384138
-0.88543671 -0.35472339 0.58585554
-0.86993557 -0.34885809 0.46700355
-0.8506062 -0.34144369 0.35935616
-0.85690892 -0.34431535 0.26680472
-0.84069318 -0.33813256 0.17429715
-0.91930944 -0.36534116 0.9622255
-0.89622515 -0.35670117 0.78591269
-0.88670522 -0.35326302 0.64650303
-0.87361592 -0.34857067 0.52227271
-0.8819769 -0.35225499 0.4196848
-0.83961231 -0.33566767 0.30880409
-0.83210307 -0.33282864 0.21721105
-0.83923924 -0.33601445 0.1301425
-0.088385329 0.0033214991 8.7139416
-1.2641915 -0.46581537 8.5650978
-1.5979452 -0.60032123 8.2301369
-1.1956563 -0.45847163 4.1409121
-1.0830824 -0.41961044 2.7959518
-1.0134133 -0.39503661 2.0605774
-0.99114794 -0.3879303 1.63586
-0.95949835 -0.37668586 1.3107588
-0.49002504 -0.13397251 8.6250143
-0.88618791 -0.27836758 8.6203995
-1.3374908 -0.50619322 5.5434618
-1.1205568 -0.4301044 3.3182003
-1.0125977 -0.39188513 2.3088672
-1.0176389 -0.39564681 1.8561009
-0.94850022 -0.37008664 1.4229481
-0.93246353 -0.36475232 1.1637428
-0.92252505 -0.364389 1.0545157
-0.90045094 -0.35620558 0.8631919
-0.88837308 -0.35195547 0.71109986
-0.88666958 -0.35163048 0.58585554
-0.87114805 -0.34581932 0.46700355
-0.85179287 -0.33847246 0.35935616
-0.85810554 -0.34132209 0.26680472
-0.8418684 -0.3351959 0.17429715
-0.9205792 -0.36212993 0.9622255
-0.89370412 -0.3520892 0.78296953
-0.88793296 -0.35016567 0.64650303
-0.87482733 -0.3455191 0.52227271
-0.87880963 -0.34743813 0.41804129
-0.84077889 -0.33273482 0.30880409
-0.83325982 -0.32992202 0.21721105
-0.83576256 -0.33124214 0.12994097
-0.088373192 0.0036300009 8.7139416
-1.2658099 -0.46139967 8.5650978
-1.5981222 -0.59403062 8.2203474
-1.194458 -0.45323655 4.1313686
-1.0808922 -0.41442892 2.7867467
-1.0103168 -0.38977307 2.0517993
-0.99249607 -0.3844682 1.63586
-0.95781976 -0.37217367 1.3069214
-0.49048969 -0.13226119 8.6250143
-0.88715422 -0.27527252 8.6203995
-1.3321863 -0.49887776 5.5144253
-1.1204381 -0.42557782 3.3135076
-1.0342897 -0.39613181 2.3538795
-1.0190138 -0.3920922 1.8561009
-0.94978625 -0.36677352 1.4229481
-0.93373108 -0.36149517 1.1637428
-0.92379141 -0.36116657 1.0545157
-0.89806443 -0.3516413 0.86005342
-0.88959622 -0.34885234 0.71109986
-0.88376802 -0.34691477 0.58353674
-0.87234986 -0.34277633 0.46700355
-0.85296917 -0.33549708 0.35935616
-0.85472107 -0.33652511 0.26587209
-0.83840019 -0.33042923 0.17385007
-0.91835821 -0.35755983 0.95890003
-0.89492774 -0.34896746 0.78296953
-0.88513392 -0.34549674 0.64396977
-0.87602806 -0.34246328 0.52227271
-0.87561959 -0.3426477 0.41639778
-0.84193522 -0.32979792 0.30880409
-0.82979572 -0.32520449 0.21652037
-0.8369137 -0.3283228 0.12994097
-0.088359989 0.0039384589 8.7139416
-1.2681438 -0.45724165 8.5700369
-1.5982746 -0.58774602 8.210557
-1.1904426 -0.44696647 4.1122804
-1.0786788 -0.40926778 2.7775416
-1.0071962 -0.38453609 2.0430212
-0.99120438 -0.3799943 1.631727
-0.95612121 -0.36767775 1.3030838
-0.49094838 -0.13054825 8.6250143
-0.88759983 -0.27201852 8.615427
-1.3268472 -0.49160555 5.4853888
-1.1203014 -0.42105728 3.308815
-1.0539877 -0.39946049 2.3943901
-1.0203762 -0.38853279 1.8561009
-0.94824594 -0.36238047 1.4189581
-0.93182147 -0.35702094 1.1600677
-0.92172045 -0.35665298 1.0510111
-0.89928645 -0.34850433 0.86005342
-0.89080852 -0.34574494 0.71109986
-0.88497359 -0.34382772 0.58353674
-0.86922032 -0.33804893 0.46513051
-0.84966475 -0.33077741 0.35794613
-0.85589051 -0.33353955 0.26587209
-0.83954847 -0.32750067 0.17385007
-0.91960073 -0.354352 0.95890003
-0.8961404 -0.34584144 0.78296953
-0.88633454 -0.34240493 0.64396977
-0.87721819 -0.33940324 0.52227271
-0.87681031 -0.33958912 0.41639778
-0.83854932 -0.32510009 0.30763176
-0.83092582 -0.32230598 0.21652037
-0.83339751 -0.32359111 0.12973943
-0.088388987 0.0042524207 8.7189417
-1.2697322 -0.45281225 8.5700369
-1.5974457 -0.58111966 8.1958704
-1.1877974 -0.44124955 4.0979643
-1.0782716 -0.40481353 2.772939
-1.0062917 -0.38017178 2.0386319
-0.99252474 -0.37653205 1.631727
-0.9544031 -0.36319828 1.2992463
-0.49140111 -0.12883373 8.6250143
-0.8885439 -0.26891857 8.615427
-1.3214736 -0.4843767 5.4563522
-1.1201468 -0.41654289 3.304122
-1.047222 -0.39272234 2.3763855
-1.0192854 -0.38404927 1.8518349
-0.94668657 -0.35800263 1.414968
-0.93306196 -0.35376611 1.1600677
-0.9229598 -0.3534334 1.0510111
-0.8968631 -0.34396946 0.85691494
-0.88810658 -0.34113416 0.70835841
-0.88203365 -0.33914682 0.58121794
-0.870395 -0.33501273 0.46513051
-0.85081422 -0.32780951 0.35794613
-0.85246634 -0.32878229 0.26493949
-0.8406865 -0.32456809 0.17385007
-0.91734332 -0.34980968 0.95557451
-0.89356601 -0.34126928 0.78002638
-0.88349777 -0.33776975 0.64143664
-0.87839758 -0.33633912 0.52227271
-0.87358093 -0.33483645 0.41475427
-0.839679 -0.322171 0.30763176
-0.83204579 -0.31940353 0.21652037
-0.83452195 -0.32068005 0.12973943
-0.088373601 0.0045609302 8.7189417
-1.271305 -0.44837731 8.5700369
-1.59659 -0.57450628 8.1811857
-1.1823248 -0.43452728 4.0741048
-1.0760152 -0.39968714 2.7637341
-1.0076127 -0.37665683 2.0386319
-0.99119842 -0.37207645 1.6275939
-0.95566511 -0.35986459 1.2992463
-0.49184781 -0.12711762 8.6250143
-0.88896626 -0.2656633 8.6104555
-1.3160657 -0.47719139 5.4273157
-1.1199743 -0.41203475 3.2994294
-1.0445043 -0.38755035 2.367383
-1.0206198 -0.38048893 1.8518349
-0.94793046 -0.35469589 1.414968
-0.93429118 -0.35050696 1.1600677
-0.9241879 -0.3502095 1.0510111
-0.89805835 -0.34083673 0.85691494
-0.88929194 -0.33803201 0.70835841
-0.88321209 -0.33606592 0.58121794
-0.86722684 -0.33032241 0.46325746
-0.847471 -0.32312867 0.35653609
-0.85360885 -0.32580465 0.26493949
-0.83716238 -0.31985423 0.17340299
-0.91855872 -0.34660542 0.95557451
-0.89475185 -0.33814809 0.78002638
-0.88467139 -0.33468369 0.64143664
-0.8753221 -0.33166292 0.52017462
-0.87032914 -0.33011049 0.41311076
-0.8407985 -0.31923804 0.30763176
-0.83315569 -0.31649721 0.21652037
-0.8356362 -0.31776506 0.12973943
-0.088357143 0.0048693838 8.7189417
-1.2728624 -0.44393688 8.5700369
-1.5947485 -0.56756473 8.1616039
-1.1782225 -0.42835835 4.0550165
-1.0737361 -0.39458144 2.754529
-1.0066751 -0.37230682 2.0342431
-0.98721504 -0.36665523 1.619328
-0.95691544 -0.35652649 1.2992463
-0.49228853 -0.12539998 8.6250143
-0.8893767 -0.26240838 8.605484
-1.3165402 -0.47217044 5.4224763
-1.119784 -0.40753284 3.2947366
-1.0438071 -0.38315213 2.3628819
-1.0194949 -0.3760218 1.847569
-0.94633687 -0.35033894 1.410978
-0.93550897 -0.34724355 1.1600677
-0.92206544 -0.34572956 1.0475066
-0.89924258 -0.33769986 0.85691494
-0.88655269 -0.33345383 0.70561695
-0.88023406 -0.33142012 0.57889915
-0.86837453 -0.32729325 0.46325746
-0.84859371 -0.3201685 0.35653609
-0.85474092 -0.32282302 0.26493949
-0.83827376 -0.31693003 0.17340299
-0.91626501 -0.34209117 0.95224905
-0.89214075 -0.33360723 0.77708322
-0.88583428 -0.3315936 0.64143664
-0.8764745 -0.32860547 0.52017462
-0.86705506 -0.32541132 0.41146725
-0.84190774 -0.31630117 0.30763176
-0.8342554 -0.31358704 0.21652037
-0.83674037 -0.31484622 0.12973943
-0.088339612 0.0051777782 8.7189417
-1.2736696 -0.43923798 8.5650978
-1.5938382 -0.56098092 8.1469183
-1.1740917 -0.42222336 4.0359287
-1.0732708 -0.39016381 2.7499266
-1.0079685 -0.3687906 2.0342431
-0.98584753 -0.36223671 1.615195
-0.95815408 -0.35318407 1.2992463
-0.49272326 -0.12368081 8.6250143
-0.89028728 -0.25930226 8.605484
-1.3169956 -0.467152 5.4176369
-1.1195761 -0.40303734 3.2900438
-1.0451382 -0.3795062 2.3628819
-1.0183511 -0.37156707 1.843303
-0.94755399 -0.34703347 1.410978
-0.93671536 -0.34397587 1.1600677
-0.92326665 -0.34250882 1.0475066
-0.8967672 -0.33320338 0.85377645
-0.88771123 -0.33035719 0.70561695
-0.88138556 -0.32834551 0.57889915
-0.86951178 -0.32426003 0.46325746
-0.84970617 -0.31720439 0.35653609
-0.85586262 -0.31983745 0.26493949
-0.83937496 -0.31400198 0.17340299
-0.91745347 -0.3388907 0.95224905
-0.88950884 -0.32908872 0.77414006
-0.88698637 -0.32849944 0.64143664
-0.87336093 -0.3239657 0.5180766
-0.8681857 -0.32238275 0.41146725
-0.84300661 -0.31336042 0.30763176
-0.83534491 -0.31067303 0.21652037
-0.83315229 -0.31018043 0.12953791
-0.088320993 0.0054861088 8.7189417
-1.2751951 -0.43478933 8.5650978
-1.5929017 -0.55441046 8.1322336
-1.1713389 -0.4166224 4.0216126
-1.0709492 -0.38509339 2.7407215
-1.0069975 -0.36445507 2.0298538
-0.98181623 -0.3568711 1.6069292
-0.95938116 -0.34983733 1.2992463
-0.49315199 -0.12196013 8.6250143
-0.89067447 -0.25604632 8.6005125
-1.3162459 -0.4617202 5.407958
-1.1193503 -0.39854822 3.285351
-1.0444076 -0.37512004 2.3583806
-1.0171885 -0.36712494 1.8390369
-0.94592649 -0.34269765 1.406988
-0.93472385 -0.33954674 1.1563925
-0.9244566 -0.33928394 1.0475066
-0.89792484 -0.33007106 0.85377645
-0.88493496 -0.32581195 0.70287549
-0.87836981 -0.32373512 0.57658035
-0.87063831 -0.3212229 0.46325746
-0.8508082 -0.31423643 0.35653609
-0.85236639 -0.31514454 0.26400685
-0.83579558 -0.30934155 0.17295592
-0.91863084 -0.33568615 0.95224905
-0.89065218 -0.32598177 0.77414006
-0.88812762 -0.32540125 0.64143664
-0.87448645 -0.32091513 0.5180766
-0.86930573 -0.31935027 0.41146725
-0.83953339 -0.30873829 0.30645946
-0.83642429 -0.30775523 0.21652037
-0.83422995 -0.30727029 0.12953791
-0.088258125 0.0057880674 8.7139416
-1.276705 -0.43033543 8.5650978
-1.5919386 -0.54785323 8.117547
-1.1699697 -0.41154101 4.0120687
-1.0686053 -0.38004392 2.7315164
-1.0082636 -0.36093777 2.0298538
-0.98040777 -0.35248992 1.6027963
-0.96059644 -0.34648633 1.2992463
-0.49357471 -0.12023797 8.6250143
-0.89156282 -0.25293577 8.6005125
-1.316662 -0.45671114 5.4031181
-1.1191069 -0.39406565 3.2806582
-1.0457107 -0.37147209 2.3583806
-1.018464 -0.36357203 1.8390369
-0.94711691 -0.33939365 1.406988
-0.93271285 -0.33513573 1.1527174
-0.92228305 -0.33483809 1.0440021
-0.89541352 -0.32560474 0.85063797
-0.88606691 -0.32272097 0.70287549
-0.87949455 -0.32066709 0.57658035
-0.87175429 -0.31818184 0.46325746
-0.85189992 -0.31126463 0.35653609
-0.85346121 -0.31216732 0.26400685
-0.83687025 -0.3064222 0.17295592
-0.91979706 -0.33247748 0.95224905
-0.88798404 -0.321495 0.7711969
-0.88925809 -0.32229915 0.64143664
-0.87133521 -0.31631213 0.51597857
-0.87041515 -0.31631389 0.41146725
-0.84060597 -0.30580589 0.30645946
-0.83749348 -0.30483371 0.21652037
-0.83529747 -0.30435643 0.12953791
-0.08823739 0.0060961107 8.7139416
-1.2774621 -0.4256309 8.5601578
-1.5928773 -0.54196525 8.1126518
-1.1685792 -0.40647417 4.0025249
-1.0662392 -0.37501556 2.7223115
-1.0095173 -0.35741606 2.0298538
-0.97898084 -0.34812292 1.5986633
-0.95878106 -0.34205428 1.2954088
-0.4939914 -0.11851434 8.6250143
-0.89244026 -0.24982208 8.6005125
-1.31587 -0.45129725 5.3934398
-1.1172161 -0.38902238 3.2712729
-1.044947 -0.36709833 2.3538795
-1.0172676 -0.35914677 1.8347712
-0.94545561 -0.33507919 1.402998
-0.93068254 -0.33074293 1.1490422
-0.92344624 -0.3316167 1.0440021
-0.89654464 -0.32247719 0.85063797
-0.88718796 -0.31962603 0.70287549
-0.8806085 -0.31759509 0.57658035
-0.87285966 -0.31513691 0.46325746
-0.85298127 -0.30828905 0.35653609
-0.85454565 -0.30918628 0.26400685
-0.83793479 -0.3034991 0.17295592
-0.91743612 -0.32800797 0.94892353
-0.88910079 -0.31839341 0.7711969
-0.8903777 -0.31919307 0.64143664
-0.87243408 -0.31326869 0.51597857
-0.87151402 -0.31327364 0.41146725
-0.84166831 -0.30286977 0.30645946
-0.83855247 -0.30190843 0.21652037
-0.83635473 -0.30143884 0.12953791
-0.088215567 0.006404079 8.7139416
-1.2789401 -0.42116913 8.5601578
-1.5889686 -0.53445518 8.0832806
-1.1671677 -0.40142214 3.992981
-1.0656965 -0.37064987 2.7177088
-1.0107588 -0.35389 2.0298538
-0.97753531 -0.34377021 1.5945303
-0.95996922 -0.33870545 1.2954088
-0.49440208 -0.11678927 8.6250143
-0.89279306 -0.24656409 8.595542
-1.3162469 -0.44629785 5.3886003
-1.1169354 -0.38455862 3.2665799
-1.0441656 -0.36273441 2.3493781
-1.018515 -0.35559365 1.8347712
-0.94661951 -0.33177689 1.402998
-0.92863292 -0.32636836 1.145367
-0.92459816 -0.32839122 1.0440021
-0.89766484 -0.31934568 0.85063797
-0.88829833 -0.31652725 0.70287549
-0.88171172 -0.31451926 0.57658035
-0.87395436 -0.31208816 0.46325746
-0.84953499 -0.30369502 0.35512605
-0.85099471 -0.30454636 0.26307425
-0.83430088 -0.29889277 0.17250884
-0.91857553 -0.32480353 0.94892353
-0.89020681 -0.31528792 0.7711969
-0.89148647 -0.31608316 0.64143664
-0.87352222 -0.3102214 0.51597857
-0.87260222 -0.31022957 0.41146725
-0.83814114 -0.29830027 0.30528715
-0.83493608 -0.29731834 0.21582969
-0.83740187 -0.29851758 0.12953791
-0.088149577 0.0067052119 8.7089415
-1.2804024 -0.41670221 8.5601578
-1.5859933 -0.52730012 8.0588045
-1.1671485 -0.39686522 3.9882088
-1.0632887 -0.36565748 2.7085037
-1.0119879 -0.35035968 2.0298538
-0.97872931 -0.34035587 1.5945303
-0.95811933 -0.33429682 1.2915714
-0.49452534 -0.11499832 8.6200228
-0.89364827 -0.24344616 8.595542
-1.3154131 -0.44090205 5.3789215
-1.1166373 -0.38010162 3.2618873
-1.0413076 -0.3576735 2.3403757
-1.0197501 -0.35203621 1.8347712
-0.94492465 -0.32748407 1.3990079
-0.92976648 -0.32312483 1.145367
-0.92237401 -0.32398015 1.0404975
-0.89877409 -0.3162103 0.85063797
-0.8893978 -0.31342456 0.70287549
-0.8786267 -0.309966 0.57426155
-0.8706671 -0.3074919 0.46138445
-0.85058999 -0.30072773 0.35512605
-0.85205257 -0.30157399 0.26307425
-0.83533913 -0.2959787 0.17250884
-0.91617906 -0.3203629 0.94559801
-0.89130193 -0.31217861 0.7711969
-0.88851637 -0.31154314 0.63890344
-0.87459981 -0.30717036 0.51597857
-0.87367982 -0.30718172 0.41146725
-0.83917731 -0.29537278 0.30528715
-0.83596885 -0.29440206 0.21582969
-0.83843881 -0.2955927 0.12953791
-0.088125631 0.0070128702 8.7089415
-1.2818493 -0.41223025 8.5601578
-1.5762156 -0.51794851 8.000062
-1.1656966 -0.39183792 3.9786646
-1.0627089 -0.36131507 2.7039013
-1.0132047 -0.34682503 2.0298538
-0.97725022 -0.33602262 1.5903975
-0.95322025 -0.3288601 1.2838963
-0.49492377 -0.1132714 8.6200228
-0.89397758 -0.24018757 8.5905704
-1.3157507 -0.43591258 5.3740821
-1.1179574 -0.37620154 3.2618873
-1.0404884 -0.35333675 2.3358746
-1.0185043 -0.3476322 1.8305051
-0.94606203 -0.32418364 1.3990079
-0.92768252 -0.31877592 1.1416919
-0.92349929 -0.32075849 1.0404975
-0.89619613 -0.31179231 0.84749955
-0.88653779 -0.30894226 0.70013404
-0.87970334 -0.30689713 0.57426155
-0.8717351 -0.30445081 0.46138445
-0.84710622 -0.29617363 0.35371602
-0.85310012 -0.29859793 0.26307425
-0.83636719 -0.29306102 0.17250884
-0.91729182 -0.31716287 0.94559801
-0.89238626 -0.30906549 0.7711969
-0.88959837 -0.30843976 0.63890344
-0.87566674 -0.30411556 0.51597857
-0.8747468 -0.30413014 0.41146725
-0.84020329 -0.29244173 0.30528715
-0.83231479 -0.28985363 0.21513902
-0.83474803 -0.29101956 0.12933637
-0.088057555 0.0073133856 8.7039413
-1.2832804 -0.40775326 8.5601578
-1.5702661 -0.50992888 7.9608998
-1.1642241 -0.38682571 3.969121
-1.0621116 -0.35698116 2.6992986
-1.0144093 -0.34328616 2.0298538
-0.97841722 -0.33260933 1.5903975
-0.95132869 -0.32449621 1.2800589
-0.49531612 -0.1115431 8.6200228
-0.8942951 -0.23692964 8.5855989
-1.3160697 -0.4309262 5.3692427
-1.1192638 -0.37229684 3.2618873
-1.0396515 -0.34901002 2.3313732
-1.0172403 -0.3432413 1.8262392
-0.94433385 -0.31991273 1.395018
-0.93199968 -0.31662604 1.145367
-0.92124039 -0.31637484 1.036993
-0.89727908 -0.30866209 0.84749955
-0.88761079 -0.3058458 0.70013404
-0.87658155 -0.30238014 0.57194275
-0.86841047 -0.2998929 0.4595114
-0.84813488 -0.29321489 0.35371602
-0.85413718 -0.29561824 0.26307425
-0.83738506 -0.29013979 0.17250884
-0.91839331 -0.31395903 0.94559801
-0.89345962 -0.30594859 0.7711969
-0.88659173 -0.30393484 0.63637024
-0.87672293 -0.30105707 0.51597857
-0.87580305 -0.30107486 0.41146725
-0.84121895 -0.28950706 0.30528715
-0.83332151 -0.28694651 0.21513902
-0.83103561 -0.28647581 0.12913485
-0.088031493 0.0076207183 8.7039413
-1.2854373 -0.40350375 8.5650978
-1.5555537 -0.49915883 7.8776813
-1.1627308 -0.38182843 3.9595766
-1.0633513 -0.35327151 2.6992986
-1.0178727 -0.34050271 2.0342431
-0.97957224 -0.32919201 1.5903975
-0.94941831 -0.32014951 1.2762213
-0.49570245 -0.10981345 8.6200228
-0.89460087 -0.23367243 8.5806274
-1.3151741 -0.42555612 5.3595638
-1.1205565 -0.36838761 3.2618873
-1.0387973 -0.34469348 2.3268721
-1.0159581 -0.3388634 1.8219732
-0.94544482 -0.31661445 1.395018
-0.93309921 -0.31337082 1.145367
-0.918962 -0.31201079 1.0334884
-0.89466596 -0.30427507 0.84436107
-0.88867301 -0.30274558 0.70013404
-0.87763172 -0.29931846 0.57194275
-0.869452 -0.29685977 0.4595114
-0.84461397 -0.28870109 0.35230598
-0.85516387 -0.29263493 0.26307425
-0.83839273 -0.28721496 0.17250884
-0.91594636 -0.30955607 0.94227254
-0.89069349 -0.30153203 0.76825374
-0.88764721 -0.3008382 0.63637024
-0.87776846 -0.29799491 0.51597857
-0.8768487 -0.29801589 0.41146725
-0.84222436 -0.28656888 0.30528715
-0.8296302 -0.28244007 0.21444833
-0.83203059 -0.28357324 0.12913485
-0.088047363 0.0079353191 8.7089415
-1.2868379 -0.39901429 8.5650978
-1.5427269 -0.48911285 7.8042531
-1.1612167 -0.3768464 3.9500329
-1.0627217 -0.34894836 2.6946962
-1.0190551 -0.33694756 2.0342431
-0.97804481 -0.32488385 1.5862645
-0.94444835 -0.31480685 1.2685463
-0.49608275 -0.10808246 8.6200228
-0.8948946 -0.23041597 8.575655
-1.3154541 -0.42058012 5.3547244
-1.1218356 -0.36447388 3.2618873
-1.0358568 -0.33970907 2.3178697
-1.0121809 -0.33368242 1.8134414
-0.94654423 -0.31331232 1.395018
-0.93740499 -0.31117967 1.1490422
-0.92004555 -0.30880111 1.0334884
-0.89203316 -0.29991004 0.84122264
-0.88576162 -0.2983073 0.69739258
-0.87867117 -0.29625311 0.57194275
-0.86609048 -0.29234052 0.45763838
-0.84561658 -0.28575107 0.35230598
-0.85618019 -0.28964809 0.26307425
-0.83939022 -0.28428671 0.17250884
-0.91702133 -0.30635694 0.94227254
-0.89174056 -0.29842111 0.76825374
-0.88460439 -0.2963686 0.6338371
-0.87450057 -0.29348522 0.51388049
-0.8734073 -0.29344949 0.40982375
-0.83861256 -0.2820777 0.30411482
-0.83061099 -0.27954239 0.21444833
-0.82828087 -0.27907199 0.12893331
-0.088019125 0.0082426127 8.7089415
-1.2882229 -0.39451995 8.5650978
-1.5288771 -0.47885841 7.7259288
-1.159682 -0.37187955 3.9404888
-1.0620749 -0.34463388 2.6900938
-1.020225 -0.33338836 2.0342431
-0.9764992 -0.32059032 1.5821315
-0.94249713 -0.31050548 1.2647089
-0.49645701 -0.10635015 8.6200228
-0.89569342 -0.22729078 8.575655
-1.3145168 -0.41522893 5.3450451
-1.123101 -0.36055574 3.2618873
-1.0370363 -0.33609116 2.3178697
-1.0108596 -0.32933953 1.8091755
-0.94476813 -0.30906969 1.3910279
-0.93848544 -0.30790561 1.1490422
-0.91773301 -0.30446494 1.0299838
-0.89307463 -0.29679444 0.84122264
-0.88679749 -0.29521358 0.69739258
-0.87549734 -0.29178375 0.56962395
-0.86710566 -0.28931552 0.45763838
-0.84660888 -0.28279757 0.35230598
-0.85718596 -0.28665769 0.26307425
-0.84037745 -0.28135493 0.17250884
-0.91453952 -0.30198354 0.93894702
-0.88893926 -0.29403737 0.76531059
-0.88563353 -0.29327896 0.6338371
-0.87551975 -0.29043087 0.51388049
-0.87442625 -0.29039893 0.40982375
-0.8395921 -0.27914867 0.30411482
-0.82688278 -0.27507821 0.21375765
-0.82924998 -0.27617905 0.12893331
-0.087989815 0.0085498067 8.7089415
-1.2895923 -0.39002082 8.5650978
-1.5178933 -0.4696089 7.6622915
-1.158127 -0.36692804 3.9309452
-1.0614109 -0.34032819 2.6854911
-1.0191034 -0.32908934 2.0298538
-0.97493553 -0.31631154 1.5779986
-0.94052744 -0.30622157 1.2608713
-0.49682522 -0.10461654 8.6200228
-0.89648139 -0.22416285 8.575655
-1.3123583 -0.40951529 5.3305273
-1.1227076 -0.35611165 3.2571945
-1.0361298 -0.3318055 2.3133683
-1.0070379 -0.324211 1.8006437
-0.94584125 -0.30576992 1.3910279
-0.94277954 -0.30567315 1.1527174
-0.91879016 -0.30125961 1.0299838
-0.89040715 -0.2924608 0.83808416
-0.88782257 -0.29211628 0.69739258
-0.87651056 -0.28872588 0.56962395
-0.8681103 -0.28628698 0.45763838
-0.84759086 -0.27984065 0.35230598
-0.85818142 -0.28366381 0.26307425
-0.84135443 -0.27841979 0.17250884
-0.91558808 -0.29878935 0.93894702
-0.88996017 -0.29093257 0.76531059
-0.88665187 -0.29018575 0.6338371
-0.87221545 -0.28595918 0.51178247
-0.87543464 -0.28734481 0.40982375
-0.84056133 -0.27621624 0.30411482
-0.827838 -0.27219018 0.21375765
-0.83020896 -0.27328274 0.12893331
-0.088002361 0.0088647055 8.7139416
-1.2909458 -0.38551691 8.5650978
-1.5010207 -0.45865786 7.5692816
-1.1579762 -0.36243752 3.926173
-1.0625924 -0.33662111 2.6854911
-1.0202459 -0.32552999 2.0298538
-0.97335392 -0.31204763 1.5738657
-0.93853933 -0.30195525 1.2570338
-0.49690446 -0.1028241 8.6150312
-0.8972584 -0.22103219 8.575655
-1.3077735 -0.40308172 5.3063297
-1.1239438 -0.35219046 3.2571945
-1.0352062 -0.32753032 2.3088672
-1.0056781 -0.31990343 1.7963778
-0.94403243 -0.30154985 1.3870379
-0.9406122 -0.3013463 1.1490422
-0.91983616 -0.29805061 1.0299838
-0.89142263 -0.28935093 0.83808416
-0.88883686 -0.28901541 0.69739258
-0.87751311 -0.28566453 0.56962395
-0.86469656 -0.28181854 0.45576534
-0.84856248 -0.27688029 0.35230598
-0.85916632 -0.28066647 0.26307425
-0.83758789 -0.27393323 0.17206176
-0.91307187 -0.29444581 0.93562156
-0.88712406 -0.28658196 0.76236743
-0.88765943 -0.28708899 0.6338371
-0.87320828 -0.28291285 0.51178247
-0.87643236 -0.28428724 0.40982375
-0.84152043 -0.27328047 0.30411482
-0.82878304 -0.26929882 0.21375765
-0.83590877 -0.27192861 0.12913485
-0.087970883 0.009171837 8.7139416
-1.2922837 -0.38100833 8.5650978
-1.4889646 -0.44930014 7.5007491
-1.1592343 -0.35839325 3.926173
-1.063761 -0.33290988 2.6854911
-1.0190917 -0.32124695 2.025465
-0.97175455 -0.30779865 1.5697327
-0.93958759 -0.2986773 1.2570338
-0.49726039 -0.10108895 8.6150312
-0.8980245 -0.21789882 8.575655
-1.3043622 -0.39705098 5.286972
-1.1251664 -0.34826505 3.2571945
-1.0342653 -0.32326555 2.3043661
-1.0043005 -0.31560943 1.7921119
-0.94507921 -0.2982527 1.3870379
-0.94165838 -0.2980611 1.1490422
-0.92087096 -0.29483795 1.0299838
-0.89242721 -0.28623751 0.83808416
-0.88585925 -0.28463212 0.69465113
-0.87850487 -0.28259972 0.56962395
-0.86567503 -0.27879846 0.45576534
-0.84952384 -0.27391657 0.35230598
-0.8601408 -0.2776657 0.26307425
-0.838539 -0.27100781 0.17206176
-0.91409415 -0.29125679 0.93562156
-0.88811898 -0.28348356 0.76236743
-0.88454992 -0.28267667 0.63130391
-0.87419057 -0.27986306 0.51178247
-0.87741929 -0.28122619 0.40982375
-0.84246922 -0.27034134 0.30411482
-0.83443308 -0.26791799 0.21444833
-0.83685291 -0.26900908 0.12913485
-0.08789546 0.0094707487 8.7089415
-1.2936057 -0.37649512 8.5650978
-1.4788134 -0.44061336 7.4420056
-1.1604781 -0.35434458 3.926173
-1.0649166 -0.32919466 2.6854911
-1.01792 -0.3169758 2.0210757
-0.97013742 -0.30356458 1.5655998
-0.94062448 -0.2953957 1.2570338
-0.49732691 -0.099296995 8.6100397
-0.89877963 -0.21476279 8.575655
-1.293702 -0.38887927 5.2385783
-1.1263752 -0.34433538 3.2571945
-1.0353873 -0.31965336 2.3043661
-1.0029052 -0.31132886 1.7878458
-0.94323784 -0.2940554 1.3830478
-0.93945724 -0.29376075 1.145367
-0.91849422 -0.29054636 1.0264792
-0.89342093 -0.2831206 0.83808416
-0.88684738 -0.28153816 0.69465113
-0.87948596 -0.27953142 0.56962395
-0.86664295 -0.27577499 0.45576534
-0.84590411 -0.26949343 0.35089597
-0.86110479 -0.27466154 0.26307425
-0.83947992 -0.26807913 0.17206176
-0.91510522 -0.28806424 0.93562156
-0.88524818 -0.27916625 0.75942427
-0.88553119 -0.2795873 0.63130391
-0.87083483 -0.27544132 0.50968438
-0.87839562 -0.2781617 0.40982375
-0.84340775 -0.26739895 0.30411482
-0.83536315 -0.26500365 0.21444833
-0.83778679 -0.26608628 0.12913485
-0.087861866 0.0097775031 8.7089415
-1.294912 -0.37197727 8.5650978
-1.4822961 -0.43602297 7.4517965
-1.161708 -0.35029158 3.926173
-1.0660591 -0.32547539 2.6854911
-1.0167311 -0.3127169 2.0166867
-0.97119111 -0.30017632 1.5655998
-0.94471121 -0.29305995 1.2608713
-0.4976705 -0.097560398 8.6100397
-0.89952379 -0.21162416 8.575655
-1.2974616 -0.38507584 5.2482567
-1.1259183 -0.33990303 3.2525017
-1.0364969 -0.31603724 2.3043661
-1.0014923 -0.30706191 1.7835798
-0.94425851 -0.29076108 1.3830478
-0.93723774 -0.28947937 1.1416919
-0.91950285 -0.28733844 1.0264792
-0.89440376 -0.28000027 0.83808416
-0.88782477 -0.27844074 0.69465113
-0.88045639 -0.27645975 0.56962395
-0.86760026 -0.27274817 0.45576534
-0.84683967 -0.26653904 0.35089597
-0.85737312 -0.27017775 0.26214162
-0.84041053 -0.26514715 0.17206176
-0.91610515 -0.28486815 0.93562156
-0.88621724 -0.27607447 0.75942427
-0.88650173 -0.2764945 0.63130391
-0.87179101 -0.27239984 0.50968438
-0.87936127 -0.27509382 0.40982375
-0.84433597 -0.26445326 0.30411482
-0.83628315 -0.26208609 0.21444833
-0.83871055 -0.26316023 0.12913485
-0.087827198 0.010084139 8.7089415
-1.2969502 -0.36766663 8.5700369
-1.475986 -0.42857626 7.4126348
-1.1614929 -0.34580863 3.9214008
-1.0671887 -0.32175216 2.6854911
-1.0178165 -0.30916592 2.0166867
-0.97223294 -0.29678443 1.5655998
-0.94572848 -0.2897605 1.2608713
-0.49772435 -0.095769003 8.6050472
-0.90077657 -0.20860259 8.5806274
-1.2975917 -0.3801913 5.2434173
-1.1254439 -0.33547804 3.2478089
-1.0375936 -0.31241724 2.3043661
-1.0000618 -0.30280864 1.7793139
-0.94526768 -0.28746322 1.3830478
-0.93175709 -0.28422821 1.1343416
-0.92050022 -0.28412706 1.0264792
-0.89537573 -0.27687651 0.83808416
-0.88879126 -0.27533999 0.69465113
-0.88141602 -0.27338472 0.56962395
-0.86411971 -0.26834327 0.45389232
-0.84776491 -0.2635814 0.35089597
-0.858311 -0.2671833 0.26214162
-0.83657658 -0.26073021 0.17161468
-0.91709393 -0.2816686 0.93562156
-0.88717556 -0.27297929 0.75942427
-0.88334173 -0.27212936 0.62877071
-0.87273651 -0.26935509 0.50968438
-0.8803162 -0.27202263 0.40982375
-0.8406105 -0.26006785 0.30294251
-0.83719289 -0.25916532 0.21444833
-0.83962399 -0.26023099 0.12913485
-0.087791465 0.010390651 8.7089415
-1.2982256 -0.36313716 8.5700369
-1.4725789 -0.42201993 7.3881583
-1.1626929 -0.34175217 3.9214008
-1.0683054 -0.31802502 2.6854911
-1.0188895 -0.30561122 2.0166867
-0.97326303 -0.29338887 1.5655998
-0.9498021 -0.28738555 1.2647089
-0.49805561 -0.094031036 8.6050472
-0.90149921 -0.20545703 8.5806274
-1.2989109 -0.37565956 5.2434173
-1.1232971 -0.33057359 3.2384233
-1.0386779 -0.30879346 2.3043661
-0.99861383 -0.29856908 1.775048
-0.9462654 -0.2841619 1.3830478
-0.92949742 -0.27999645 1.1306664
-0.91807508 -0.27987248 1.0229747
-0.89633673 -0.27374938 0.83808416
-0.88574845 -0.2710126 0.69190961
-0.88236499 -0.27030635 0.56962395
-0.86505109 -0.26532531 0.45389232
-0.84867978 -0.26062053 0.35089597
-0.85454309 -0.26274204 0.26120901
-0.83748156 -0.25780842 0.17161468
-0.91449851 -0.27738211 0.93229604
-0.88812298 -0.26988083 0.75942427
-0.88428622 -0.26904428 0.62877071
-0.87367147 -0.26630703 0.50968438
-0.87674373 -0.26756984 0.40818024
-0.84151316 -0.25713199 0.30294251
-0.83809245 -0.25624141 0.21444833
-0.84052724 -0.25729859 0.12913485
-0.087797418 0.010705743 8.7139416
-1.2987363 -0.35839686 8.5650978
-1.4691437 -0.41549259 7.3636823
-1.1581442 -0.33602872 3.9023132
-1.0712836 -0.31484464 2.6900938
-1.01995 -0.30205274 2.0166867
-0.97428119 -0.28998977 1.5655998
-0.95079952 -0.28406835 1.2647089
-0.49809676 -0.092240311 8.6000557
-0.90273118 -0.20242497 8.5855989
-1.3002143 -0.37112322 5.2434173
-1.1211298 -0.32568821 3.2290378
-1.0418384 -0.30577874 2.3088672
-0.99714869 -0.29434335 1.7707821
-0.94436252 -0.28000078 1.3790579
-0.92721963 -0.27578396 1.1269913
-0.91563147 -0.27563828 1.0194702
-0.89356023 -0.26949519 0.83494574
-0.88668907 -0.26791912 0.69190961
-0.88330311 -0.26722467 0.56962395
-0.86597198 -0.2623041 0.45389232
-0.84958434 -0.25765648 0.35089597
-0.85545504 -0.25975752 0.26120901
-0.8383764 -0.2548835 0.17161468
-0.91546118 -0.27418822 0.93229604
-0.88905966 -0.26677904 0.75942427
-0.88521999 -0.2659559 0.62877071
-0.8745957 -0.26325572 0.50968438
-0.87767237 -0.26450777 0.40818024
-0.83775222 -0.25278893 0.30177018
-0.83424109 -0.25188303 0.21375765
-0.83663803 -0.25291735 0.12893331
-0.08775951 0.011012148 8.7139416
-1.2999794 -0.35386121 8.5650978
-1.4627388 -0.40817401 7.3245206
-1.1478293 -0.32869843 3.8641372
-1.072376 -0.31110322 2.6900938
-1.0186993 -0.29781881 2.0122976
-0.97798747 -0.28738025 1.5697327
-0.95178527 -0.28074771 1.2647089
-0.49841568 -0.090501063 8.6000557
-0.90395296 -0.19938681 8.5905704
-1.3002918 -0.36624184 5.2385783
-1.118942 -0.32082203 3.2196524
-1.0428995 -0.30214021 2.3088672
-0.99566603 -0.29013151 1.7665161
-0.94533414 -0.27670261 1.3790579
-0.92817664 -0.27254567 1.1269913
-0.91658807 -0.27244046 1.0194702
-0.89449555 -0.26637447 0.83494574
-0.88361186 -0.26362705 0.6891681
-0.87998599 -0.26287192 0.56730521
-0.86244076 -0.25795138 0.45201927
-0.85047859 -0.25468934 0.35089597
-0.85165131 -0.25535911 0.26027638
-0.839261 -0.25195545 0.17161468
-0.91641271 -0.270991 0.93229604
-0.88998544 -0.26367405 0.75942427
-0.8820101 -0.26163849 0.62623757
-0.87550932 -0.26020122 0.50968438
-0.87859035 -0.26144254 0.40818024
-0.83862948 -0.2498631 0.30177018
-0.83511525 -0.24896945 0.21375765
-0.83751571 -0.2499954 0.12893331
-0.087720536 0.011318418 8.7139416
-1.3012067 -0.34932131 8.5650978
-1.4631729 -0.40279555 7.3196249
-1.1360409 -0.32103863 3.8211894
-1.0734555 -0.30735806 2.6900938
-1.0197327 -0.29426107 2.0122976
-0.97898471 -0.28396466 1.5697327
-0.94968194 -0.27652779 1.2608713
-0.49901298 -0.088810354 8.6050472
-0.90516454 -0.1963426 8.595542
-1.3015623 -0.36170071 5.2385783
-1.1183944 -0.31644464 3.2149594
-1.0460408 -0.29909617 2.3133683
-0.99416614 -0.28593358 1.7622502
-0.94339931 -0.27256498 1.3750678
-0.92586607 -0.26836053 1.123316
-0.9141115 -0.26823542 1.0159656
-0.8954199 -0.26325047 0.83494574
-0.88452667 -0.26054105 0.6891681
-0.88089824 -0.25979862 0.56730521
-0.86333597 -0.25493932 0.45201927
-0.85136241 -0.25171906 0.35089597
-0.85253745 -0.25238472 0.26027638
-0.8401354 -0.24902438 0.17161468
-0.91735309 -0.26779047 0.93229604
-0.88702089 -0.25943133 0.75648111
-0.88291806 -0.25855812 0.62623757
-0.87205726 -0.2558659 0.5075863
-0.87496686 -0.25704321 0.40653673
-0.83483344 -0.24556266 0.30059788
-0.83122855 -0.24465464 0.21306697
-0.83838332 -0.2470704 0.12893331
-0.087680496 0.011624552 8.7139416
-1.301667 -0.34457847 8.5601578
-1.4557259 -0.39528614 7.2755685
-1.1242135 -0.31346518 3.7782414
-1.0745218 -0.30360913 2.6900938
-1.0184503 -0.29004407 2.0079086
-0.97996998 -0.28054565 1.5697327
-0.94756079 -0.27232602 1.2570338
-0.49931994 -0.087067932 8.6050472
-0.90636575 -0.19329232 8.6005125
-1.3016047 -0.35682312 5.2337389
-1.1161678 -0.31161121 3.205574
-1.0470785 -0.29544297 2.3133683
-0.99515826 -0.28246155 1.7622502
-0.944345 -0.26927024 1.3750678
-0.92679721 -0.265127 1.123316
-0.91504222 -0.26504296 1.0159656
-0.89633334 -0.26012325 0.83494574
-0.88543075 -0.25745192 0.6891681
-0.8817997 -0.25672212 0.56730521
-0.86422056 -0.25192419 0.45201927
-0.85223591 -0.24874571 0.35089597
-0.85341322 -0.24940728 0.26027638
-0.83621991 -0.24469167 0.1711676
-0.91828221 -0.26458666 0.93229604
-0.88792109 -0.2563335 0.75648111
-0.88381523 -0.2554746 0.62623757
-0.87294513 -0.25282031 0.5075863
-0.87585878 -0.2539874 0.40653673
-0.83568555 -0.24264705 0.30059788
-0.8320775 -0.24175163 0.21306697
-0.83444351 -0.24274689 0.12873179
-0.087596752 0.011921241 8.7089415
-1.3028618 -0.34003273 8.5601578
-1.454146 -0.3894127 7.2608824
-1.1123469 -0.30597821 3.7352936
-1.075575 -0.29985651 2.6900938
-1.0194565 -0.28648722 2.0079086
-0.97823513 -0.27635843 1.5655998
-0.94542199 -0.26814243 1.2531964
-0.4996208 -0.085324451 8.6050472
-0.90807867 -0.19034481 8.6104555
-1.3016288 -0.35194963 5.228899
-1.115585 -0.30725524 3.2008812
-1.0460062 -0.2912026 2.3088672
-0.99362671 -0.278283 1.7579843
-0.94527912 -0.26597223 1.3750678
-0.92445433 -0.26096949 1.1196409
-0.9159618 -0.26184723 1.0159656
-0.89723593 -0.25699288 0.83494574
-0.88632405 -0.2543596 0.6891681
-0.87843287 -0.25241926 0.56498641
-0.86063951 -0.24762423 0.45014626
-0.8484894 -0.24444145 0.34948593
-0.85427862 -0.24642679 0.26027638
-0.83706897 -0.24177121 0.1711676
-0.91560876 -0.26035866 0.92897052
-0.88492304 -0.25212514 0.75353795
-0.88055617 -0.25120553 0.62370437
-0.86945844 -0.24852443 0.50548828
-0.87674004 -0.25092855 0.40653673
-0.83652747 -0.23972848 0.30059788
-0.83291632 -0.23884566 0.21306697
-0.83528584 -0.23983265 0.12873179
-0.087554604 0.012226939 8.7089415
-1.3040408 -0.33548281 8.5601578
-1.1004421 -0.29857799 3.6923459
-1.0766152 -0.2961002 2.6900938
-1.0181422 -0.28228727 2.0035193
-0.97648305 -0.27218673 1.5614668
-0.9432655 -0.26397708 1.2493588
-0.50020051 -0.083626583 8.6100397
-0.9092598 -0.18728079 8.615427
-1.3016348 -0.34708029 5.2240596
-1.1149852 -0.30290702 3.1961884
-1.044917 -0.28697333 2.3043661
-0.99459207 -0.27481291 1.7579843
-0.94329822 -0.26186517 1.3710777
-0.92535967 -0.25774091 1.1196409
-0.91687024 -0.25864834 1.0159656
-0.89438188 -0.25280088 0.83180726
-0.88720649 -0.25126421 0.6891681
-0.8793087 -0.24935141 0.56498641
-0.86149865 -0.24461854 0.45014626
-0.84933752 -0.24147819 0.34948593
-0.85513359 -0.24344331 0.26027638
-0.83790779 -0.23884782 0.1711676
-0.91651201 -0.25716099 0.92897052
-0.88579774 -0.24903464 0.75353795
-0.88142765 -0.24813029 0.62370437
-0.87032068 -0.24548793 0.50548828
-0.87306619 -0.24658328 0.40489322
-0.83268195 -0.23548436 0.29942557
-0.83374494 -0.23593678 0.21306697
-0.83611786 -0.23691551 0.12873179
-0.08751139 0.012532486 8.7089415
-1.3052039 -0.33092883 8.5601578
-1.5208815 -0.39591196 7.5790725
-1.085615 -0.29049349 3.639854
-1.0757565 -0.29182905 2.6854911
-1.0168111 -0.27809998 1.9991302
-0.97200048 -0.26728478 1.553201
-0.93800187 -0.25897729 1.2416838
-0.50048941 -0.081880048 8.6100397
-0.909908 -0.18410572 8.615427
-1.3004071 -0.34189588 5.2143812
-1.1143689 -0.29856685 3.1914957
-1.0417098 -0.28218624 2.2953637
-0.99554533 -0.27133948 1.7579843
-0.9442066 -0.25857085 1.3710777
-0.92625368 -0.25450924 1.1196409
-0.91776752 -0.25544626 1.0159656
-0.8952589 -0.24967737 0.83180726
-0.88807815 -0.24816574 0.6891681
-0.88017374 -0.24628055 0.56498641
-0.8623473 -0.24160986 0.45014626
-0.85017526 -0.23851199 0.34948593
-0.85597819 -0.24045683 0.26027638
-0.83873636 -0.23592153 0.1711676
-0.91380554 -0.25296429 0.92564505
-0.88666165 -0.24594112 0.75353795
-0.8822884 -0.24505201 0.62370437
-0.86679995 -0.24123177 0.50339019
-0.87392163 -0.24353421 0.40489322
-0.83349884 -0.23257633 0.29942557
-0.83933312 -0.23435676 0.21375765
-0.83693975 -0.23399548 0.12873179
-0.08750964 0.01284763 8.7139416
-1.3063512 -0.32637081 8.5601578
-1.5173227 -0.38933632 7.5545964
-1.0895091 -0.28746328 3.6493979
-1.0748813 -0.28756756 2.6808887
-1.0154634 -0.27392548 1.9947413
-0.97021163 -0.26315385 1.549068
-0.93890011 -0.25570148 1.2416838
-0.50077212 -0.080132514 8.6100397
-0.91106802 -0.1810317 8.6203995
-1.3003758 -0.33703938 5.2095413
-1.1154044 -0.29467517 3.1914957
-1.038482 -0.27742508 2.2863612
-0.99648643 -0.26786271 1.7579843
-0.94219434 -0.2544879 1.3670877
-0.92713648 -0.25127447 1.1196409
-0.91865361 -0.2522411 1.0159656
-0.89612496 -0.24655083 0.83180726
-0.88490796 -0.24395317 0.68642664
-0.87675792 -0.24202806 0.56266761
-0.86765373 -0.23983321 0.45201927
-0.85100257 -0.23554286 0.34948593
-0.8568123 -0.23746744 0.26027638
-0.83955479 -0.23299235 0.1711676
-0.91468304 -0.24977295 0.92564505
-0.88751477 -0.24284458 0.75353795
-0.88313848 -0.24197075 0.62370437
-0.86763668 -0.23820461 0.50339019
-0.87021309 -0.23923053 0.40324971
-0.83430564 -0.22966547 0.29942557
-0.84014612 -0.23142552 0.21375765
-0.83775145 -0.23107256 0.12873179
-0.087464266 0.013153017 8.7139416
-1.3082371 -0.32199427 8.5650978
-1.5147237 -0.38303977 7.5350151
-1.0832824 -0.28178087 3.6255379
-1.0739895 -0.28331569 2.676286
-1.0140988 -0.26976374 1.990352
-0.96568722 -0.25831181 1.5408021
-0.93669134 -0.25159135 1.2378463
-0.5010488 -0.078384005 8.6100397
-0.91117114 -0.17774895 8.615427
-1.2991085 -0.3318764 5.199863
-1.1164261 -0.29077989 3.1914957
-1.0352336 -0.27268991 2.2773588
-0.99489427 -0.26371473 1.7537184
-0.94307697 -0.25119749 1.3670877
-0.9280079 -0.24803664 1.1196409
-0.91952848 -0.24903287 1.0159656
-0.89322364 -0.24240206 0.82866883
-0.88575411 -0.24086276 0.68642664
-0.87759733 -0.23896612 0.56266761
-0.86848563 -0.23680307 0.45201927
-0.84719199 -0.23130749 0.3480759
-0.85763603 -0.23447517 0.26027638
-0.84036303 -0.23006034 0.1711676
-0.91194397 -0.24560781 0.92231953
-0.88835704 -0.23974511 0.75353795
-0.88397771 -0.23888656 0.62370437
-0.86846292 -0.23517454 0.50339019
-0.87104291 -0.23619147 0.40324971
-0.8351022 -0.22675177 0.29942557
-0.84572762 -0.22978982 0.21444833
-0.83855295 -0.22814685 0.12873179
-0.087460279 0.013468291 8.7189417
-1.309353 -0.3174257 8.5650978
-1.5239559 -0.37971792 7.5741773
-1.0871514 -0.27873877 3.6350818
-1.0730811 -0.27907357 2.6716835
-1.0150343 -0.26622224 1.990352
-0.963862 -0.25422195 1.5366691
-0.94066232 -0.24914053 1.2416838
-0.50103384 -0.076591872 8.6050472
-0.91178602 -0.17456728 8.615427
-1.29904 -0.32703298 5.1950235
-1.1191058 -0.28730989 3.1961884
-1.034072 -0.26852772 2.2728574
-0.99580872 -0.26024026 1.7537184
