# .PCD v0.7 - Point Cloud Data file format
VERSION 0.7
FIELDS x y z
SIZE 4 4 4
TYPE F F F
COUNT 1 1 1
WIDTH 1565
HEIGHT 1
VIEWPOINT 0 0 0 1 0 0 0
POINTS 1565
DATA ascii
0.6679545 35.107216 3.2452829
0.16225927 6.9912658 6.3096299
0.32518774 14.331866 10.521888
0.40945113 18.32675 10.857747
0.53383827 24.466997 11.400675
0.79073817 36.829712 12.910354
0.78621686 37.224232 9.0707054
0.78826946 37.632275 5.3420568
0.78241688 37.985783 1.626308
0.037700474 0.0802508 8.7389402
0.065589696 1.3542399 8.6194296
0.075637639 1.7970377 8.6707087
0.034473836 0.97840929 3.1769717
0.049730074 1.5612327 3.7394691
0.15061848 5.0491509 9.3245029
0.06945508 0.51285404 8.7897396
0.092427984 0.9489094 8.8490877
0.033743236 0.85371643 3.3270054
0.043496862 1.2443731 3.4402122
0.051577065 1.6008888 3.3756549
0.30945349 12.485754 10.153024
0.16078073 6.6278038 4.4312692
0.86108947 36.540264 14.855641
0.85900199 36.999702 10.968442
0.79027337 35.094715 3.2443891
0.18686171 6.9981217 6.3162804
0.37870491 14.463984 10.619012
0.47375497 18.338139 10.865347
0.62004477 24.496744 11.415361
0.91988218 36.85033 12.918571
0.9165076 37.235836 9.0742216
0.91938388 37.619392 5.3406758
0.91512764 37.987816 1.6265095
0.03798037 0.080118708 8.7389402
0.070316471 1.3540027 8.6194296
0.08195655 1.7977797 8.6756029
0.037888914 0.97828299 3.1769717
0.055179488 1.5610496 3.7394691
0.16824238 5.0485945 9.3245029
0.11383327 3.686177 4.4920502
0.071244851 0.51260853 8.7897396
0.09573973 0.94858098 8.8490877
0.036777444 0.85484922 3.331845
0.047840271 1.2442137 3.4402122
0.0571649 1.6006991 3.3756549
0.13652425 4.7416153 4.7412982
0.35358518 12.50405 10.168715
0.18391509 6.627202 4.4312692
0.98825735 36.523132 14.850023
0.98866212 37.015659 10.974083
0.98363423 37.315231 7.1784525
0.91367841 35.126591 3.2475185
0.21072498 6.9787669 6.2996535
0.43218911 14.56358 10.692591
0.53801692 18.34499 10.870414
0.70581198 24.503506 11.419558
1.0468963 36.790249 12.898849
1.0471623 37.256702 9.0800838
1.0493118 37.566456 5.3337688
1.0478621 37.989384 1.6267111
0.038259804 0.079985648 8.7389402
0.075042397 1.3537492 8.6194296
0.088231474 1.7974827 8.6756029
0.041303527 0.97814476 3.1769717
0.060704254 1.5627997 3.7440717
0.18586424 5.0479765 9.3245029
0.12736084 3.704977 4.5150747
0.073075421 0.51264232 8.7947311
0.099050313 0.948241 8.8490877
0.039761204 0.85471565 3.331845
0.052183095 1.2440392 3.4402122
0.062837496 1.6026649 3.380156
0.15411089 4.7731895 4.7728391
0.3972303 12.502741 10.168715
0.20704722 6.6265197 4.4312692
1.1187339 37.040756 10.982544
1.1138827 37.311573 7.1784525
1.0355531 35.098293 3.2452829
0.23458114 6.9630618 6.2863512
0.48396093 14.59026 10.713193
0.6024738 18.355925 10.878013
0.79178035 24.514498 11.425851
1.1733516 36.725018 12.877483
1.1765921 37.233391 9.0753946
1.1826144 37.631859 5.3434386
1.1804633 37.985497 1.6267111
0.038538776 0.079851605 8.7389402
0.079767399 1.3534789 8.6194296
0.094505325 1.7971638 8.6756029
0.04471764 0.97799462 3.1769717
0.06615907 1.5625783 3.7440717
0.20348382 5.0472965 9.3245029
0.13581547 3.4902225 5.2025948
0.14199194 3.7493513 4.5688
0.074864432 0.51238412 8.7947311
0.10235969 0.94788951 8.8490877
0.042807631 0.85582703 3.3366842
0.056525283 1.2438494 3.4402122
0.068431459 1.6024359 3.380156
0.14226049 3.4543972 5.7253032
0.13968794 3.4952626 4.706738
0.16189785 4.1407771 4.5706201
0.17064394 4.7690582 4.7693348
0.44100782 12.505168 10.171854
0.23017684 6.6257567 4.4312692
1.2472156 37.012653 10.975492
1.2441176 37.307457 7.1784525
1.1551064 35.004879 3.2372355
0.25791392 6.9360819 6.2630725
0.53592426 14.616755 10.733794
0.66685718 18.362326 10.88308
1.4049838 39.252338 18.24452
1.1852847 33.440853 11.735246
1.306383 37.224197 9.0742216
1.3132756 37.6077 5.3406758
1.3132228 37.98613 1.6269126
0.038817275 0.079716593 8.7389402
0.084491439 1.3531922 8.6194296
0.10077802 1.796823 8.6756029
0.048131205 0.97783262 3.1769717
0.071613088 1.5623379 3.7440717
0.22120583 5.0489483 9.3288918
0.14847504 3.5009732 5.2191262
0.15746456 3.8064778 4.6378751
0.076608874 0.51183432 8.7897396
0.10566782 0.9475264 8.8490877
0.045794763 0.85567236 3.3366842
0.060866784 1.2436445 3.4402122
0.074024588 1.6021873 3.380156
0.15396826 3.4460635 5.7125053
0.1526733 3.5128162 4.7306781
0.17880447 4.1977668 4.6330981
0.26989594 6.8709002 6.8370171
0.48345014 12.472437 10.146747
0.25346342 6.6290913 4.434011
1.3701661 36.84029 10.926142
1.3746989 37.312702 7.1803174
1.2705694 34.816498 3.2206938
0.28212377 6.9351392 6.2630725
0.58694303 14.614797 10.733794
0.73129267 18.368502 10.888145
1.5446641 39.31522 18.275991
1.2946583 33.247768 11.669505
1.4351872 37.190269 9.0671883
1.4376994 37.424744 5.3158112
1.4458109 37.981316 1.6269126
0.039095301 0.079580612 8.7389402
0.089214444 1.3528891 8.6194296
0.10704949 1.7964603 8.6756029
0.051544186 0.97765863 3.1769717
0.077162683 1.5640296 3.7486744
0.23860215 5.0433612 9.3201151
0.15927444 3.469512 5.1736641
0.17075069 3.8059049 4.6378751
0.078395039 0.51156378 8.7897396
0.10897466 0.94715178 8.8490877
0.04885326 0.85676223 3.3415239
0.065116927 1.2417012 3.4355197
0.079725057 1.6040934 3.3846574
0.16649866 3.4559247 5.729569
0.1657829 3.5303214 4.7546182
0.19782858 4.2919412 4.7360029
0.29418311 6.8770423 6.8440261
0.52172482 12.34623 10.046316
0.27695048 6.6365213 4.4394937
1.5049362 37.307674 7.1803174
1.3845323 34.622765 3.2037046
0.30633023 6.9341121 6.2630725
0.63813096 14.616697 10.736738
0.79596579 18.378757 10.895744
1.6813084 39.295986 18.269699
1.5600913 37.068478 9.039052
1.5802492 38.020966 1.6287265
0.03937285 0.079443656 8.7389402
0.093990438 1.3533446 8.6243687
0.11338394 1.7970918 8.6804981
0.054956537 0.97747278 3.1769717
0.082621694 1.5637506 3.7486744
0.25681323 5.0544567 9.3420601
0.1716622 3.474556 5.1819296
0.18573861 3.840502 4.6800876
0.080134593 0.51100194 8.7847471
0.11228017 0.9467656 8.8490877
0.051843617 0.85658652 3.3415239
0.069450878 1.2414663 3.4355197
0.0853239 1.6038054 3.3846574
0.17856108 3.4553227 5.729569
0.17840886 3.5357401 4.7625985
0.31835157 6.8795366 6.8475308
0.564996 12.348223 10.049455
0.3004925 6.6438689 4.4449768
1.7628468 39.896957 11.828563
1.6338645 37.272751 7.1747222
1.5053799 34.617718 3.2037046
0.3307108 6.9367304 6.266398
0.68933922 14.618418 10.739681
0.86051792 18.38448 10.900811
1.8190962 39.303478 18.275991
1.6973637 37.379166 5.3109765
1.7122828 38.000248 1.6281219
0.039649922 0.079305738 8.7389402
0.098713912 1.3530082 8.6243687
0.11965627 1.7966851 8.6804981
0.058368217 0.97727495 3.1769717
0.088079698 1.5634528 3.7486744
0.27484483 5.0607042 9.3552275
0.18423587 3.4823661 5.1943288
0.20013978 3.8590357 4.7031126
0.081917837 0.51071912 8.7847471
0.11558431 0.94636792 8.8490877
0.054914024 0.85765469 3.3463631
0.07368134 1.2394937 3.4308267
0.090921707 1.6034977 3.3846574
0.19119638 3.4650948 5.7466331
0.19172437 3.553149 4.7865381
0.34289563 6.8890686 6.8580441
0.32388562 6.646956 4.4477181
1.9032447 39.914516 11.835612
1.6262091 34.612251 3.2037046
0.35511333 6.9392629 6.2697239
0.74036276 14.615922 10.739681
0.92533624 18.394279 10.90841
1.9562799 39.29689 18.275991
1.9489427 39.707394 9.6791372
0.03992651 0.079166852 8.7389402
0.10343619 1.3526554 8.6243687
0.12592715 1.7962565 8.6804981
0.06177919 0.97706527 3.1769717
0.09353663 1.5631359 3.7486744
0.29319972 5.0716691 9.3771725
0.19702469 3.4929399 5.2108607
0.083700076 0.51043004 8.7847471
0.11888706 0.94595867 8.8490877
0.057992522 0.8587119 3.3512027
0.077898875 1.2375067 3.4261341
0.096518405 1.6031706 3.3846574
0.20308843 3.5344086 4.7625985
0.51101089 9.0282669 9.8812332
0.36675107 6.8842678 6.8545394
0.6216591 11.784263 9.5975161
0.34752208 6.6541362 4.4532013
1.6684388 32.376842 13.18677
2.0523925 40.375698 7.7669358
1.7457632 34.581497 3.2014694
0.37953758 6.9417095 6.2730494
0.791596 14.617286 10.742625
0.99000186 18.399546 10.913477
1.756996 33.193439 11.658
2.1076989 40.083809 9.7717505
1.8473511 35.249828 5.0153656
1.7881912 34.350254 1.4812058
0.04020261 0.079026997 8.7389402
0.10815721 1.352286 8.6243687
0.13219649 1.7958061 8.6804981
0.065189406 0.97684366 3.1769717
0.098992422 1.5627998 3.7486744
0.31163448 5.0825667 9.3991175
0.20904775 3.4894218 5.2067275
0.085481301 0.51013476 8.7847471
0.12218834 0.94553792 8.8490877
0.061079063 0.85975796 3.3560419
0.081988767 1.2337836 3.4167485
0.10225251 1.6049963 3.3891585
0.34412625 5.5330558 9.1380501
0.54272568 9.0298128 9.8849087
0.39098164 6.8865066 6.8580441
0.66366464 11.797565 9.6100702
0.3712126 6.6612325 4.458684
1.781445 32.370823 13.18677
2.1951828 40.402622 7.7734642
1.862438 34.500603 3.1947632
0.40376639 6.9403419 6.2730494
0.8428477 14.618468 10.745567
1.054962 18.408888 10.921076
1.8672647 33.0881 11.623487
2.2538648 40.187832 9.7987137
1.9745313 35.317329 5.0257258
1.9238819 34.628132 1.4926931
0.040478222 0.078886181 8.7389402
0.11287691 1.3519003 8.6243687
0.13838573 1.7943183 8.6756029
0.068598829 0.97661018 3.1769717
0.10457751 1.5643939 3.7532768
0.32844421 5.0671082 9.3727837
0.2219395 3.4999044 5.2232594
0.087261476 0.50983328 8.7847471
0.12548813 0.94510561 8.8490877
0.064267419 0.86204648 3.3657207
0.086053617 1.2300469 3.4073629
0.10785437 1.6046296 3.3891585
0.36360914 5.5344234 9.1423159
0.57424229 9.0278635 9.8849087
0.41523227 6.88866 6.8615489
0.70484179 11.795177 9.6100702
0.39470962 6.6640706 4.4614253
1.8909076 32.304241 13.16242
2.336201 40.394714 7.7734642
1.9828562 34.493893 3.1947632
0.42822012 6.9426174 6.2763748
0.89411736 14.619473 10.748511
1.1197381 18.413702 10.926143
2.0025289 33.411339 11.738532
2.3941329 40.179718 9.7987137
2.1001489 35.349766 5.031251
2.0420938 34.576317 1.4908792
0.040753338 0.078744404 8.7389402
0.11759523 1.351498 8.6243687
0.14464822 1.7938243 8.6756029
0.072007418 0.97636479 3.1769717
0.11003762 1.5640194 3.7532768
0.34531319 5.0539837 9.3508377
0.23509493 3.5131469 5.2439241
0.089091234 0.50980985 8.7897396
0.1287864 0.94466186 8.8490877
0.067374311 0.86307001 3.3705604
0.089966699 1.224576 3.3932846
0.11345491 1.6042434 3.3891585
0.38310578 5.5357227 9.1465826
0.48641786 7.1546955 9.5705776
0.60597903 9.0291862 9.8885832
0.43950266 6.890727 6.8650532
0.7465018 11.800414 9.6163473
0.41849279 6.6709986 4.4669085
1.3604714 21.806837 11.523634
1.9996402 32.232666 13.136197
2.4750855 40.35199 7.7669358
2.1093132 34.586174 3.2037046
0.45269468 6.9448066 6.2797003
0.94540411 14.620296 10.751454
1.1848371 18.422585 10.933743
2.536514 40.20507 9.8069201
2.1671426 34.638786 1.4937006
0.041027956 0.078601666 8.7389402
0.12231212 1.3510793 8.6243687
0.15090898 1.7933085 8.6756029
0.075415127 0.97610748 3.1769717
0.11549639 1.5636258 3.7532768
0.36312443 5.0551367 9.3552275
0.44986895 6.3867412 9.4760637
0.8306706 11.970333 14.442698
0.090870254 0.50949574 8.7897396
0.1320831 0.94420654 8.8490877
0.070591696 0.86533511 3.3802392
0.092913806 1.2070489 3.3463571
0.11905408 1.6038376 3.3891585
0.40223753 5.5317497 9.1423159
0.51138949 7.1529541 9.5705776
0.63749301 9.0270157 9.8885832
0.46379259 6.8927093 6.8685579
0.78768843 11.797737 9.6163473
0.44205281 6.6736698 4.4696498
1.4371656 21.810797 11.528272
2.1018322 32.068207 13.072515
2.2063491 33.843723 10.058971
2.61815 40.377419 7.7734642
0.47718969 6.946908 6.2830253
0.99698257 14.624972 10.75734
1.2497201 18.426939 10.938808
2.6768403 40.195972 9.8069201
2.2880416 34.631012 1.4937006
0.041302081 0.078457981 8.7389402
0.12710051 1.3514177 8.6293077
0.15716787 1.7927707 8.6756029
0.078821912 0.9758383 3.1769717
0.12095376 1.563213 3.7532768
0.38076791 5.0538383 9.3552275
0.47195253 6.3823256 9.4719305
0.8724497 11.96736 14.442698
0.092595562 0.50889152 8.7847471
0.1353782 0.94373977 8.8490877
0.073504917 0.86383098 3.3753996
0.09629444 1.1963967 3.3182003
0.12465179 1.6034123 3.3891585
0.42134622 5.5277119 9.1380501
0.53522772 7.1361008 9.5506268
0.66925001 9.0281172 9.8922586
0.4878498 6.8910484 6.8685579
0.82913828 11.798798 9.6194859
0.46592745 6.680428 4.4751329
1.5142109 21.818905 11.535229
2.2108841 32.019051 13.055657
2.3244724 33.835815 10.058971
2.7550583 40.309227 7.7622733
0.50170487 6.9489241 6.2863512
1.0494721 14.641561 10.772056
1.3146479 18.431063 10.943874
2.8174739 40.191231 9.8080931
2.3689954 33.878414 4.8288817
2.427984 34.896927 1.5047848
0.041575696 0.078313328 8.7389402
0.13181706 1.3509657 8.6293077
0.16342485 1.7922113 8.6756029
0.082227752 0.97555721 3.1769717
0.12640965 1.5627813 3.7532768
0.39859509 5.0548658 9.3596153
0.49444547 6.3834443 9.4760637
0.91543943 11.980221 14.461885
0.094371356 0.50856525 8.7847471
0.13867165 0.94326138 8.8490877
0.076631099 0.8648212 3.3802392
0.099167757 1.1805768 3.2759655
0.13042447 1.6051372 3.3936598
0.44063899 5.5262074 9.1380501
0.55518043 7.071105 9.4668369
0.70075989 9.0257254 9.8922586
0.51242965 6.8964167 6.875567
0.87060517 11.799713 9.6226244
0.48954916 6.6829314 4.4778743
1.5942292 21.866505 11.563054
2.3229737 32.015762 13.05753
2.4332395 33.698315 10.020901
2.8925784 40.255264 7.7538791
2.4280438 33.956181 3.1491613
0.52652192 6.954577 6.2930021
1.0996652 14.625718 10.763227
1.3796197 18.434961 10.948941
2.9584639 40.190845 9.8104372
2.4683797 33.613129 4.7929664
2.5552444 34.962978 1.5078079
0.041848809 0.078167722 8.7389402
0.13653201 1.3504972 8.6293077
0.16967984 1.7916299 8.6756029
0.085632585 0.97526425 3.1769717
0.13186401 1.5623306 3.7532768
0.19539011 2.3729506 4.4306803
0.51581627 6.370461 9.4595318
0.95623106 11.964172 14.446535
0.09614601 0.50823271 8.7847471
0.14196339 0.94277161 8.8490877
0.079186752 0.85954195 3.3608816
0.10253464 1.1716282 3.2525017
0.13602665 1.6046722 3.3936598
0.45992637 5.5246358 9.1380501
0.57985979 7.0691242 9.4668369
0.73253554 9.0266037 9.8959341
0.5364995 6.8945856 6.875567
0.91178846 11.796601 9.6226244
0.51319402 6.6853509 4.4806161
1.6681851 21.829887 11.546823
2.4403415 32.081417 13.087499
2.5714979 33.962269 10.101273
3.0330775 40.244923 7.7538791
2.5204811 33.599876 3.1178656
0.55108964 6.956419 6.2963276
1.1481746 14.589553 10.739681
1.4446348 18.438627 10.954008
3.0994859 40.189968 9.8127823
2.5970941 33.752434 4.8136868
2.6684968 34.839275 1.5031726
0.042097706 0.077984542 8.7339401
0.14124529 1.3500125 8.6293077
0.17603247 1.7920401 8.6804981
0.089036368 0.97495931 3.1769717
0.13731676 1.5618608 3.7532768
0.20367205 2.3722541 4.4306803
0.53733939 6.3602095 9.4471331
0.097919486 0.50789398 8.7847471
0.14525342 0.94227034 8.8490877
0.082066588 0.85800904 3.3560419
0.10599694 1.164389 3.2337308
0.14162716 1.6041876 3.3936598
0.47920814 5.5229969 9.1380501
0.59656954 6.9739861 9.3431463
0.76403987 9.0239916 9.8959341
0.56143016 6.9033341 6.8860803
0.95327431 11.797228 9.6257629
0.53686178 6.6876869 4.4833574
1.7426108 21.801853 11.535229
2.6295416 33.043182 13.480836
2.6926847 33.986561 10.111143
3.1731536 40.229195 7.7529464
2.6260557 33.441933 3.1044533
0.57567662 6.9581742 6.2996535
1.1990947 14.585456 10.739681
1.5096923 18.442066 10.959074
2.6377659 32.571335 11.462422
3.2409282 40.193443 9.8162994
2.7117188 33.703671 4.8081613
2.7769282 34.665413 1.4965222
0.042369667 0.077837117 8.7339401
0.14595684 1.3495113 8.6293077
0.18228678 1.7914147 8.6804981
0.092439063 0.97464263 3.1769717
0.14276783 1.5613719 3.7532768
0.21323143 2.3858416 4.4570146
0.55410939 6.2966247 9.3562078
0.099691771 0.50754911 8.7847471
0.14854166 0.94175756 8.8490877
0.085807525 0.8652221 3.3850784
0.10989808 1.1622939 3.2290378
0.14722598 1.6036835 3.3936598
0.49848408 5.5212903 9.1380501
0.60754275 6.8217926 9.1436453
0.79583263 9.0246468 9.8996096
0.5876345 6.9262071 6.9106121
0.99444854 11.793828 9.6257629
0.56055206 6.6899395 4.4860988
1.8223863 21.839781 11.558416
2.7448678 33.033802 13.480836
2.8105123 33.967388 10.108322
3.3167875 40.257038 7.7604074
2.7924502 34.038086 3.1589968
0.59996164 6.9561224 6.2996535
1.575158 18.449568 10.966674
3.3820248 40.19157 9.8186436
2.8078024 33.437393 4.7722459
2.8825121 34.471298 1.4890655
0.042641111 0.077688746 8.7339401
0.15066664 1.3489935 8.6293077
0.18853888 1.7907676 8.6804981
0.09584064 0.97431403 3.1769717
0.14821717 1.560864 3.7532768
0.22155826 2.3850827 4.4570146
0.56941611 6.2217922 9.2487516
1.0831978 11.972656 14.469561
0.10146283 0.50719804 8.7847471
0.15182811 0.94123334 8.8490877
0.24270785 2.359092 9.168191
0.11378587 1.1601858 3.2243452
0.15302972 1.6053268 3.3981609
0.51799756 5.5221128 9.1423159
0.6221838 6.7206168 9.0119743
0.82763922 9.0251894 9.9032841
0.61055225 6.909904 6.896594
1.0359511 11.794162 9.6289015
0.58426452 6.6921067 4.4888401
1.8982265 21.828873 11.556098
2.84656 32.866985 13.417152
2.9558599 34.268028 10.199975
3.4602337 40.279472 7.7669358
2.9112482 34.02813 3.1589968
0.62423944 6.9539852 6.2996535
1.3008903 14.576729 10.739681
1.6406946 18.456841 10.974274
2.8708873 32.617985 11.485432
3.5231478 40.189201 9.8209887
2.929251 33.481651 4.7798433
2.9971843 34.396328 1.4864457
0.042887952 0.077503055 8.728941
0.15537459 1.3484594 8.6293077
0.19478868 1.7900984 8.6804981
0.09939266 0.97545844 3.1817434
0.15366471 1.5603372 3.7532768
0.2298824 2.3842947 4.4570146
0.58607119 6.1665397 9.1702251
1.1240839 11.959229 14.458049
0.10323267 0.50684077 8.7847471
0.1551127 0.94069761 8.8490877
0.25067484 2.3557305 9.1585121
0.1176603 1.1580647 3.2196524
0.15863243 1.6047828 3.3981609
0.53752285 5.5228672 9.1465826
0.6456393 6.7184038 9.0119743
0.85945934 9.0256205 9.9069586
1.1114184 12.096168 12.016737
1.0774683 11.794351 9.6320391
0.60799903 6.694191 4.4915814
1.972416 21.800055 11.544503
2.9479535 32.709095 13.357216
3.5995018 40.252472 7.7641382
3.007036 33.759823 3.1357489
0.65059054 6.9740696 6.3196063
1.3558717 14.616371 10.772056
1.7059042 18.459583 10.97934
2.9722447 32.47139 11.437769
3.664737 40.191181 9.8245049
3.0456576 33.466293 4.7791529
3.1230953 34.450336 1.4890655
0.043158226 0.077352874 8.728941
0.15998879 1.3471373 8.6243687
0.2010361 1.7894076 8.6804981
0.10279705 0.97510552 3.1817434
0.15930881 1.5617349 3.7578795
0.23820375 2.3834777 4.4570146
0.59737849 6.0608406 9.0173063
1.1670668 11.967993 14.473398
0.10500124 0.50647736 8.7847471
0.15839539 0.94015044 8.8490877
0.25779641 2.3448458 9.1197968
0.12152128 1.1559306 3.2149594
0.16423321 1.6042193 3.3981609
0.55679798 5.520957 9.1465826
0.66699564 6.6951199 8.9840441
0.89129263 9.025939 9.910634
1.1536351 12.092215 12.016737
1.1189994 11.794393 9.6351776
0.63136244 6.692028 4.4915814
3.0465508 32.53244 13.289786
3.7399871 40.239662 7.7641382
3.1087918 33.575565 3.120101
1.1085037 11.450011 10.326834
1.4111456 14.655807 10.804431
1.771565 18.466391 10.986939
3.1047878 32.662956 11.50844
3.8059247 40.18782 9.826849
3.2039349 33.894238 4.8406234
3.2573831 34.588444 1.4951115
0.043427974 0.077201754 8.728941
0.1646902 1.3465707 8.6243687
0.20716368 1.7876835 8.6756029
0.10620017 0.9747408 3.1817434
0.16475931 1.5611693 3.7578795
0.24652217 2.3826318 4.4570146
0.62281871 6.1007104 9.0793009
1.2085135 11.960656 14.469561
0.10676854 0.50610775 8.7847471
0.16167618 0.93959183 8.8490877
0.26555428 2.3401847 9.105278
0.12555549 1.1554995 3.2149594
0.17006142 1.6058011 3.4026623
0.57633716 5.5215735 9.1508484
0.69036192 6.6927509 8.9840441
0.92313856 9.0261459 9.9143095
1.1965401 12.095212 12.023746
1.1605438 11.794289 9.6383162
0.65512544 6.6939449 4.4943228
3.1466408 32.383186 13.233596
3.8794837 40.216583 7.7622733
3.2054863 33.351353 3.1008766
1.1484649 11.446072 10.326834
1.4634997 14.662857 10.81326
1.8368673 18.468676 10.992006
3.2187839 32.65192 11.50844
3.9471335 40.183968 9.8291941
3.3488059 34.153904 4.8786106
3.3892725 34.691223 1.4997466
0.043697193 0.077049688 8.728941
0.16929235 1.3452168 8.6194296
0.21340261 1.7869495 8.6756029
0.109602 0.97436416 3.1817434
0.17020781 1.5605847 3.7578795
0.25458267 2.3793752 4.4526253
0.64204109 6.0789094 9.0503702
0.10853454 0.50573194 8.7847471
0.16495498 0.93902171 8.8490877
0.27372143 2.3392434 9.105278
0.12939553 1.1533394 3.2102668
0.17566568 1.6051978 3.4026623
0.59560752 5.5195284 9.1508484
0.71371979 6.6903005 8.9840441
0.95499676 9.0262394 9.917985
1.2394798 12.098056 12.030754
1.2024958 11.79791 9.6445932
0.67848772 6.691617 4.4943228
3.2378304 32.155212 13.145563
4.0039692 39.9034 11.877914
4.0208192 40.21257 7.7641382
3.3307724 33.429157 3.1089242
1.1895695 11.453135 10.33681
1.5150892 14.66168 10.816204
1.902207 18.470726 10.997072
3.3332205 32.645187 11.510084
4.0888538 40.184452 9.8327112
3.4755116 34.215912 4.8889709
3.5455656 35.027119 1.5138537
0.04396588 0.07689669 8.728941
0.17398702 1.3446176 8.6194296
0.21963893 1.7861936 8.6756029
0.1130025 0.97397566 3.1817434
0.17587301 1.5619223 3.7624817
0.26262352 2.3760917 4.4482365
0.6699748 6.1381741 9.1412945
0.11029921 0.50534999 8.7847471
0.16823177 0.9384402 8.8490877
0.28188527 2.3382738 9.105278
0.13342065 1.1528807 3.2102668
0.18151233 1.6067379 3.4071634
0.61487061 5.5174155 9.1508484
0.7367388 6.684773 8.9800539
0.98686695 9.0262213 9.9216604
1.2824541 12.100748 12.037763
1.2440791 11.797511 9.6477318
0.70184165 6.689208 4.4943228
2.2848933 21.849695 11.586242
3.3611059 32.249763 13.188643
4.1471982 39.927353 11.889194
4.1631861 40.217838 7.7678685
3.468905 33.625381 3.1277013
1.2279463 11.434063 10.323508
1.5675473 14.668361 10.825033
1.9675832 18.472546 11.002138
3.4476492 32.638046 11.511728
4.2306252 40.184433 9.8362284
3.60062 34.257748 4.8965683
0.044258747 0.076778695 8.7339401
0.17867954 1.344002 8.6194296
0.22587256 1.7854161 8.6756029
0.11640162 0.97357523 3.1817434
0.18132406 1.561299 3.7624817
0.27010137 2.3680217 4.4350691
0.69328785 6.1525764 9.1660919
1.3354747 11.963273 14.488749
0.11206254 0.50496191 8.7847471
0.17150652 0.93784726 8.8490877
0.29004562 2.3372755 9.105278
0.1372395 1.1506943 3.205574
0.18737189 1.6082569 3.4116647
0.63412625 5.5152359 9.1508484
0.76006854 6.6821609 8.9800539
1.0187485 9.0260897 9.9253349
1.3262388 12.110379 12.051782
1.286096 11.800835 9.6540089
0.72518706 6.6867175 4.4943228
2.3578165 21.810757 11.57001
3.488061 32.371502 13.24296
4.2885942 39.931705 11.894834
4.30407 40.207943 7.7688012
3.5862582 33.613068 3.1277013
1.2596177 11.355487 10.256998
1.6205142 14.678869 10.836806
2.0329957 18.474136 11.007204
3.5569441 32.583565 11.496936
4.372447 40.183918 9.8397446
0.044526484 0.076623738 8.7339401
0.18336989 1.3433702 8.6194296
0.23223495 1.7856265 8.6804981
0.11979932 0.97316301 3.1817434
0.18677291 1.5606564 3.7624817
0.27864555 2.3694432 4.4394584
0.71605968 6.1612997 9.1826248
1.3764927 11.95217 14.481073
0.11388896 0.50484914 8.7897396
0.17477918 0.93724287 8.8490877
0.29804319 2.3350022 9.1004381
0.14125533 1.1502082 3.205574
0.19324425 1.6097543 3.4161658
0.65337414 5.5129886 9.1508484
0.78303796 6.6764741 8.9760647
1.0502492 9.0224781 9.9253349
1.1401514 10.085779 10.054191
1.327716 11.800142 9.6571474
0.74852365 6.684145 4.4943228
2.4359016 21.820004 11.579286
3.6179583 32.511181 13.30477
4.426898 39.906963 11.892015
4.4497948 40.241501 7.7781277
3.7177539 33.729046 3.1393254
1.298399 11.343601 10.250347
1.6740309 14.693204 10.851521
2.098443 18.475492 11.012271
3.7383511 33.171589 11.707305
4.5148592 40.187733 9.8444347
0.044818651 0.076503627 8.7389402
0.18816602 1.3434914 8.6243687
0.23846653 1.7848049 8.6804981
0.12319557 0.97273892 3.1817434
0.19221948 1.5599951 3.7624817
0.28633845 2.3637009 4.4306803
0.73923552 6.1727328 9.203289
1.4219837 11.979122 14.519449
0.11565052 0.50444847 8.7897396
0.17814986 0.93715066 8.8540592
0.30619207 2.3339474 9.1004381
0.14505288 1.1479963 3.2008812
0.19966374 1.6155515 3.4296696
0.6726141 5.5106745 9.1508484
0.80633843 6.6737003 8.9760647
1.0821409 9.0221233 9.9290104
1.1753503 10.081738 10.054191
1.3697956 11.803169 9.6634245
0.77233094 6.6856456 4.4970646
2.5069842 21.767361 11.556098
3.7028651 32.249645 13.203627
4.5699911 39.924625 11.901884
4.5997043 40.308693 7.793982
3.8320899 33.686169 3.1366427
1.3428009 11.379789 10.286928
1.7290822 14.719386 10.875068
2.1644261 18.4809 11.01987
3.8933735 33.496059 11.825638
4.657351 40.19104 9.849124
0.045085423 0.07634671 8.7389402
0.19296519 1.3435953 8.6293077
0.24469522 1.7839617 8.6804981
0.12659031 0.97230291 3.1817434
0.19766371 1.5593145 3.7624817
0.29162318 2.3389213 4.3867893
0.76181108 6.1784935 9.2156878
1.4618454 11.958179 14.500262
0.11741067 0.50404173 8.7897396
0.18142003 0.93652308 8.8540592
0.31433719 2.3328645 9.1004381
0.14905925 1.1474829 3.2008812
0.2058513 1.6191639 3.4386718
0.69217098 5.5108809 9.1551142
0.82962912 6.670845 8.9760647
1.1140429 9.021656 9.9326849
1.2147883 10.112981 10.089235
1.4114501 11.80218 9.666563
0.79566348 6.6829085 4.4970646
2.592351 21.837658 11.597836
3.8551917 32.572601 13.340359
4.7115755 39.92749 11.907525
4.7564511 40.428989 7.8200951
3.9554553 33.722054 3.1411138
1.387471 11.415804 10.323508
1.7775384 14.689184 10.857408
2.2299562 18.481791 11.024937
4.0209432 33.57135 11.856865
4.7999206 40.19384 9.8538132
4.1196256 34.54834 4.9449158
4.8776665 41.027203 1.7603261
0.045351651 0.07618887 8.7389402
0.19776744 1.3436823 8.6342468
0.25092089 1.7830967 8.6804981
0.1299835 0.9718551 3.1817434
0.20335816 1.5605524 3.7670844
0.29460528 2.2975049 4.3121748
0.78443593 6.1841717 9.2280874
1.5047784 11.962543 14.511774
0.11916938 0.50362879 8.7897396
0.18479182 0.93640691 8.8590307
0.32247847 2.331753 9.1004381
0.15306382 1.1469556 3.2008812
0.21234877 1.6249112 3.4521756
0.71140325 5.508431 9.1551142
0.85290962 6.6679082 8.9760647
1.1455276 9.0177126 9.9326849
1.2457049 10.073287 10.054191
1.4535903 11.804908 9.6728392
0.81949526 6.6842408 4.4998059
2.6685629 21.828476 11.597836
3.970551 32.57275 13.345978
4.8532348 39.929848 11.913165
4.892818 40.373127 7.812634
4.1292996 34.172775 3.1831391
1.4333359 11.459054 10.36674
1.8318 14.706956 10.875068
2.2955186 18.48245 11.030003
4.9425669 40.19614 9.8585024
4.1931233 34.150364 4.8910427
5.0190277 40.995056 1.7597215
0.045617323 0.076030098 8.7389402
0.20257261 1.343752 8.6391859
0.25714356 1.78221 8.6804981
0.13337512 0.97139543 3.1817434
0.20880426 1.5598329 3.7670844
0.2919805 2.2157314 4.1629462
0.80710959 6.1897669 9.2404852
1.5465262 11.957217 14.511774
0.12092666 0.50320977 8.7897396
0.18805936 0.93575621 8.8590307
0.33061588 2.3306131 9.1004381
0.15683198 1.1447046 3.1961884
0.21715009 1.6176872 3.4386718
0.73097003 5.5084991 9.15938
0.87617981 6.6648908 8.9760647
1.1774373 9.0170202 9.9363604
1.2844601 10.097179 10.082227
1.4952774 11.803623 9.6759777
0.843346 6.6854887 4.5025477
4.1044226 32.719688 13.411533
4.995563 39.936459 11.920215
5.0361485 40.375301 7.8163648
4.2516332 34.182865 3.1853745
1.4738029 11.457685 10.370066
1.8764488 14.648352 10.836806
2.3611131 18.482878 11.035069
4.9578876 38.972462 18.248718
5.085288 40.197933 9.8631916
4.2998924 34.037266 4.8772297
5.1683407 41.026852 1.7617368
0.045882437 0.075870402 8.7389402
0.20726192 1.3430368 8.6391859
0.26336306 1.7813015 8.6804981
0.13676511 0.97092402 3.1817434
0.21424782 1.5590945 3.7670844
0.29617864 2.1885922 4.1146665
0.82983184 6.1952786 9.2528849
1.5878329 11.948567 14.507936
0.12268244 0.50278461 8.7897396
0.19132461 0.93509406 8.8590307
0.33874923 2.3294449 9.1004381
0.16082679 1.1441501 3.1961884
0.2222009 1.6126063 3.4296696
0.75019383 5.5059142 9.15938
0.89943922 6.6617918 8.9760647
1.2093561 9.0162144 9.9400358
1.3210851 10.103242 10.09274
1.5374759 11.806051 9.6822548
0.86721545 6.6866508 4.5052891
4.3075714 33.394833 13.692489
5.1379972 39.94257 11.927265
5.179554 40.376965 7.8200951
4.3797741 34.236969 3.1916337
1.515746 11.467276 10.383368
1.9238766 14.613661 10.816204
2.4272995 18.487345 11.042668
5.099781 38.99992 18.269699
4.3631144 33.457161 11.832211
5.2280807 40.199215 9.8678799
5.3172951 41.053154 1.7635506
0.046146996 0.075709783 8.7389402
0.21207017 1.3430727 8.6441259
0.26957935 1.7803713 8.6804981
0.14015344 0.97044069 3.1817434
0.21968877 1.5583373 3.7670844
0.3018389 2.1733115 4.0883317
0.85260242 6.2007079 9.2652826
1.6321316 11.962008 14.530961
0.1243664 0.50207323 8.7847471
0.19458753 0.93442047 8.8590307
0.34687844 2.3282483 9.1004381
0.16481963 1.1435817 3.1961884
0.62688065 4.4333577 9.3217592
0.76976967 5.5058455 9.1636467
0.92310137 6.6615958 8.9800539
1.2412837 9.0152969 9.9437103
1.3563441 10.098569 10.09274
1.5791935 11.80447 9.6853933
0.89110315 6.6877275 4.5080304
5.2799063 39.943413 11.932905
5.3223906 40.373249 7.8228927
4.5193815 34.374535 3.205493
1.5577739 11.476715 10.396669
1.9743344 14.60285 10.81326
2.4929698 18.487303 11.047735
5.2358856 38.98188 18.269699
4.5663996 34.08762 12.059015
5.3709455 40.199993 9.87257
5.420927 40.628067 5.8089566
5.4625421 41.049198 1.7641553
0.046410993 0.075548239 8.7389402
0.21688117 1.3430912 8.649065
0.27579236 1.7794194 8.6804981
0.14354005 0.96994549 3.1817434
0.22512706 1.5575609 3.7670844
0.30773401 2.1603897 4.0663867
0.87542105 6.2060537 9.2776823
1.6752101 11.96576 14.542473
0.12611821 0.50163609 8.7847471
0.1978481 0.93373555 8.8590307
0.35481372 2.3257806 9.0956001
0.16881049 1.1429994 3.1961884
0.64079022 4.4203701 9.2992525
0.788984 5.5031247 9.1636467
0.94634902 6.6583328 8.9800539
1.2732195 9.014266 9.9473858
1.6687341 12.103954 12.086826
1.6209189 11.802742 9.6885319
0.91557568 6.6928616 4.5135131
5.3845673 39.565273 16.221083
5.4218836 39.943752 11.938545
5.4678998 40.3885 7.829421
4.6433415 34.388165 3.2081757
1.5978256 11.471208 10.396669
2.0219626 14.571848 10.795602
2.5586693 18.48703 11.052801
5.3781242 39.00832 18.290678
5.5138788 40.20026 9.8772593
5.5593514 40.584366 5.8055034
5.6098547 41.059582 1.7653644
0.046674423 0.075385772 8.7389402
0.2216949 1.3430927 8.6540041
0.282002 1.778446 8.6804981
0.14714891 0.97091442 3.1865156
0.2305626 1.5567656 3.7670844
0.31319639 2.1450832 4.0400519
0.89828736 6.2113152 9.290081
1.7197013 11.978876 14.565498
0.12786847 0.50119281 8.7847471
0.20110622 0.93303925 8.8590307
0.36293006 2.324528 9.0956001
0.17254093 1.1406971 3.1914957
0.6565361 4.4202595 9.3037539
0.80818868 5.5003371 9.1636467
0.97001964 6.6579709 8.9840441
1.3051633 9.0131226 9.9510612
1.7119734 12.105118 12.093836
1.6626512 11.800866 9.6916704
0.94009513 6.697907 4.5189962
3.0540295 21.813675 11.616386
5.5220017 39.541645 16.21921
5.5639277 39.943588 11.944186
5.6135812 40.403225 7.8359494
4.7585649 34.337215 3.2050462
1.6389141 11.472953 10.40332
2.0790801 14.608719 10.827975
2.6250036 18.490791 11.060402
5.5161624 39.002792 18.296972
5.6568799 40.200024 9.8819485
5.700983 40.564713 5.8055034
5.7524514 41.034801 1.7651628
0.046963245 0.075257458 8.7439404
0.22638181 1.3423105 8.6540041
0.28820825 1.7774507 8.6804981
0.15053715 0.97039485 3.1865156
0.23599529 1.5559512 3.7670844
0.75200582 5.0265913 9.3815613
0.92120105 6.2164922 9.3024797
0.12961718 0.50074339 8.7847471
0.20424718 0.93181109 8.8540592
0.37104195 2.323247 9.0956001
0.17652166 1.1400878 3.1914957
0.67130685 4.4136362 9.2947512
0.82738352 5.4974823 9.1636467
0.99325442 6.6545444 8.9840441
1.3371147 9.0118656 9.9547367
1.7598469 12.137891 12.132386
1.7060598 11.810401 9.7042236
0.9646607 6.7028618 4.5244794
3.1320434 21.816036 11.623343
5.6534219 39.476238 16.20048
5.705358 39.938171 11.948416
5.7580457 40.4077 7.8406129
1.679493 11.470857 10.406646
2.1172249 14.513381 10.763227
2.6907737 18.490046 11.065467
5.6652994 39.073132 18.338934
5.6991148 39.403156 13.945765
5.7992516 40.194462 9.8854656
5.8397217 40.524963 5.8027411
5.8899684 40.974911 1.7635506
0.047225658 0.075093068 8.7439404
0.23106597 1.3415122 8.6540041
0.29441094 1.7764338 8.6804981
0.15392353 0.96986341 3.1865156
0.24172506 1.5570484 3.7716868
0.76918465 5.0215683 9.3771725
0.94416177 6.2215858 9.3148785
0.13136432 0.50028789 8.7847471
0.20749857 0.93109238 8.8540592
0.37894663 2.3206971 9.0907602
0.18050022 1.1394649 3.1914957
0.68704426 4.4134173 9.2992525
0.84656829 5.4945607 9.1636467
1.0169324 6.6540151 8.9880342
1.369073 9.0104942 9.9584122
1.4945896 10.06101 10.075217
1.7478453 11.808223 9.7073622
0.98927253 6.7077274 4.5299625
3.2081764 21.80497 11.623343
5.7938781 39.474609 16.207972
5.8475132 39.937 11.954056
5.8997698 40.392216 7.8415456
5.9136534 40.586277 3.7750719
1.7200772 11.468616 10.409971
2.1589112 14.445937 10.719079
2.7559357 18.484806 11.068001
5.8309999 39.250648 18.43125
5.8366232 39.383018 13.945765
5.9444976 40.207634 9.893671
5.9840374 40.523922 5.8055034
6.0387859 40.993637 1.7651628
0.047487494 0.074927762 8.7439404
0.23561253 1.3399322 8.649065
0.30061007 1.7753954 8.6804981
0.15730804 0.96932024 3.1865156
0.24715868 1.5561951 3.7716868
0.78670853 5.0188522 9.3771725
0.96673745 6.2238131 9.3231449
0.13310985 0.49982628 8.7847471
0.21074742 0.9303624 8.8540592
0.38704509 2.31936 9.0907602
0.18447661 1.1388278 3.1914957
0.70244575 4.4109921 9.2992525
0.86574268 5.4915724 9.1636467
1.0401529 6.6504245 8.9880342
1.4010381 9.0090094 9.9620867
1.5329181 10.076884 10.096245
1.8007207 11.879017 9.7701321
1.0139298 6.712502 4.5354447
3.2849305 21.798019 11.625662
5.9247432 39.408306 16.189241
5.989018 39.930573 11.958286
6.0421824 40.381092 7.8434105
6.0979323 40.851055 3.8010023
1.7606665 11.466233 10.413297
2.2331684 14.594137 10.833862
2.8217437 18.483597 11.073068
6.0024023 39.549152 14.011505
6.0833569 40.177029 9.8913269
6.1447096 40.630096 5.8234611
6.1870608 41.006889 1.7665735
0.047748748 0.074761547 8.7439404
0.24028833 1.3391016 8.649065
0.30680552 1.7743353 8.6804981
0.16093521 0.97023779 3.1912875
0.25290269 1.5572515 3.7762895
0.80422276 5.0160756 9.3771725
0.98934001 6.2259588 9.3314104
1.2785867 8.1006269 9.895256
0.13485377 0.49935862 8.7847471
0.21399371 0.9296211 8.8540592
0.3951388 2.3179951 9.0907602
0.18816857 1.1364744 3.1868029
0.71818858 4.4106622 9.3037539
0.88490659 5.4885168 9.1636467
1.0638371 6.6497293 8.9920244
1.4330095 9.0074129 9.9657612
1.8885018 12.129369 12.1429
1.0379936 6.7130542 4.5381866
3.3610001 21.786421 11.625662
6.065793 39.41029 16.198606
6.1327338 39.937874 11.966745
6.1883092 40.393745 7.8499389
6.2404923 40.829521 3.8010023
1.8018396 11.467394 10.419948
2.8875773 18.482151 11.078134
6.1665134 39.695942 14.070672
6.2243085 40.160355 9.8924999
6.2864971 40.608398 5.8234611
0.047982976 0.074559711 8.7389402
0.24510133 1.3390189 8.6540041
0.31299725 1.7732534 8.6804981
0.16432099 0.96967012 3.1912875
0.25833696 1.5563592 3.7762895
0.82172722 5.013238 9.3771725
1.0115179 6.2252445 9.3355427
1.3068554 8.0961142 9.895256
0.13659602 0.49888483 8.7847471
0.21723738 0.92886847 8.8540592
0.40322772 2.3166015 9.0907602
0.19213445 1.1358105 3.1868029
0.73358035 4.4081283 9.3037539
0.90448391 5.4879684 9.1679125
1.086556 6.6430011 8.9880342
1.4649869 9.005702 9.9694366
1.940366 12.182574 12.202477
1.9830751 12.492757 10.2817
1.0620737 6.7135205 4.5409279
3.4377189 21.778931 11.62798
6.2177491 39.480469 16.236067
6.2698722 39.902008 11.962516
6.3292723 40.371895 7.8499389
6.3891325 40.846851 3.804579
1.8424495 11.464721 10.423273
2.9534349 18.480473 11.0832
6.3644562 40.138382 9.8924999
6.4305329 40.60088 5.8255329
0.048242945 0.07439176 8.7389402
0.24977389 1.3381552 8.6540041
0.3193658 1.7731521 8.6853933
0.16770478 0.96909058 3.1912875
0.26409492 1.5573741 3.7808921
0.83922172 5.0103388 9.3771725
1.0332419 6.2216759 9.3355427
1.3335428 8.0820169 9.8837442
0.13833663 0.49840498 8.7847471
0.22047843 0.92810452 8.8540592
0.41131169 2.3151801 9.0907602
0.19580401 1.1334326 3.1821103
0.74932802 4.4076872 9.3082552
0.92363495 5.4847775 9.1679125
1.1112283 6.6480846 9.0000038
1.4969699 9.0038776 9.9731121
1.6389303 10.063801 10.09975
2.0304129 12.508811 10.300531
1.0861695 6.7139001 4.5436692
3.5108969 21.749306 11.618706
6.3665814 39.527176 16.264164
6.4091172 39.879879 11.962516
6.4701576 40.34956 7.8499389
1.8836684 11.46559 10.429925
2.5655034 15.666892 11.643231
3.019316 18.478559 11.088266
6.5029707 40.106323 9.8901548
6.5706339 40.568413 5.824152
0.048475638 0.074188389 8.7339401
0.25458887 1.3380384 8.6589432
0.3255533 1.7720265 8.6853933
0.17108651 0.96849924 3.1912875
0.26952958 1.5564427 3.7808921
0.85710996 5.0097399 9.3815613
1.0549532 6.2180314 9.3355427
1.3686734 8.1184006 9.9336309
0.14015463 0.49819672 8.7897396
0.22371677 0.92732924 8.8540592
0.41939071 2.31373 9.0907602
0.19975923 1.1327423 3.1821103
0.76508158 4.4071894 9.3127565
0.94277483 5.4815202 9.1679125
1.1344277 6.644165 9.0000038
1.5289578 9.0019398 9.9767876
1.6746351 10.061535 10.103254
2.0727904 12.493968 10.294254
1.1095989 6.7100677 4.5436692
3.5947278 21.784994 11.644212
6.5120502 39.550457 16.282894
6.5630617 39.947205 11.989306
6.5966601 40.239471 7.8331518
3.7366009 22.843107 2.1709523
1.9242976 11.462626 10.43325
2.6208427 15.66183 11.646175
3.0852199 18.47641 11.093332
6.6564379 40.164898 9.9100838
6.7113957 40.540344 5.8234611
0.048734311 0.074018724 8.7339401
0.25940606 1.3379043 8.6638832
0.33173683 1.7708794 8.6853933
0.17446616 0.96789616 3.1912875
0.27530113 1.557416 3.7854943
0.87459201 5.0067177 9.3815613
1.0766518 6.2143111 9.3355427
1.3986355 8.1230497 9.9451437
0.14189282 0.49770448 8.7897396
0.22695239 0.9265427 8.8540592
0.42723593 2.3110161 9.0859203
0.20371202 1.1320381 3.1821103
0.78084069 4.4066353 9.3172579
0.96190315 5.4781957 9.1679125
0.53138024 3.0483079 4.1720748
1.5609505 8.9998884 9.980463
1.7115396 10.066176 10.113768
2.1170404 12.490493 10.297392
1.1337112 6.7102766 4.546411
3.6729596 21.785421 11.651169
6.6516051 39.536625 16.286638
6.718348 40.018665 12.017508
6.7492561 40.288868 7.8471413
3.8245258 22.879042 2.1754229
1.9649289 11.459519 10.436575
2.6754968 15.652586 11.646175
3.1511455 18.47403 11.098399
6.8006558 40.165379 9.915946
6.8528666 40.51667 5.8234611
6.9192481 40.996117 1.7708056
0.048992388 0.073848166 8.7339401
0.26407465 1.3369907 8.6638832
0.33791634 1.7697105 8.6853933
0.17811392 0.96874934 3.1960595
0.28073588 1.5564456 3.7854943
0.89206338 5.003634 9.3815613
1.0993176 6.2160573 9.3438091
0.14362925 0.49720612 8.7897396
0.23018524 0.92574483 8.8540592
0.43530029 2.3095107 9.0859203
0.20766234 1.1313201 3.1821103
0.79815483 4.4145937 9.3397627
0.98101974 5.4748049 9.1679125
0.54043388 3.0375347 4.1601048
1.5929476 8.9977236 9.9841375
1.7460568 10.056627 10.110263
2.1619551 12.490699 10.303669
1.1578385 6.7103987 4.5491524
3.7512374 21.785563 11.658125
6.7927141 39.531441 16.29413
6.858809 39.999702 12.018917
3.8968215 22.821371 2.1713994
2.0062058 11.459946 10.443226
2.7315078 15.651114 11.652061
3.217092 18.471411 11.103465
6.9482713 40.184502 9.9264965
7.0043693 40.55106 5.8317494
7.0648561 40.986488 1.7714103
0.049249869 0.073676698 8.7339401
0.26889342 1.3368224 8.6688213
0.34428638 1.7695197 8.6902885
0.1814944 0.96812171 3.1960595
0.28616717 1.555456 3.7854943
0.90995252 5.0028462 9.385951
1.1225083 6.22049 9.3562078
0.14536397 0.49670175 8.7897396
0.23341529 0.9249357 8.8540592
0.44335935 2.3079772 9.0859203
0.21161012 1.1305883 3.1821103
0.32157958 1.7443024 3.731251
1.0001243 5.4713469 9.1679125
0.54941881 3.0267355 4.1481347
1.6249485 8.9954443 9.987813
1.7817725 10.053983 10.113768
2.2068973 12.490742 10.309946
1.1819806 6.7104344 4.5518942
3.8318622 21.798513 11.672038
6.9330659 39.521191 16.299749
7.0008736 39.989689 12.023148
2.0455396 11.449198 10.4399
3.2830586 18.468555 11.108532
7.0952582 40.198296 9.9358749
7.1544752 40.57513 5.8386559
7.2130761 40.991096 1.7726195
0.049506746 0.073504336 8.7339401
0.27355817 1.3358756 8.6688213
0.35046107 1.7683071 8.6902885
0.18487267 0.96748227 3.1960595
0.29159498 1.5544478 3.7854943
0.92741013 4.999639 9.385951
1.1457433 6.2248359 9.3686066
0.14709689 0.49619129 8.7897396
0.23664251 0.9241153 8.8540592
0.4511714 2.305182 9.0810814
0.21555531 1.1298428 3.1821103
0.32847098 1.7474481 3.7402532
1.0192169 5.4678226 9.1679125
0.54242539 2.9299867 4.0204539
1.656953 8.9930515 9.9914885
1.8174911 10.05121 10.117271
2.2518656 12.490623 10.316223
1.2061369 6.7103834 4.5546355
3.9087117 21.789364 11.674356
7.0750628 39.519562 16.309116
7.1429529 39.979176 12.027377
2.0861619 11.445661 10.443226
2.7828882 15.313513 11.416608
3.3490446 18.465466 11.113598
7.2407026 40.201984 9.9429083
7.3057117 40.603523 5.8462534
7.3720121 41.05418 1.776247
0.049763024 0.07333108 8.7339401
0.27837834 1.3356732 8.6737604
0.35663146 1.767073 8.6902885
0.18824868 0.96683103 3.1960595
0.29738632 1.5553393 3.790097
0.94485646 4.9963717 9.385951
1.1710987 6.2401595 9.3975382
0.14874409 0.49539858 8.7847471
0.23986681 0.92328364 8.8540592
0.45921525 2.3035932 9.0810814
0.21949789 1.1290835 3.1821103
0.33661765 1.7569809 3.7627592
1.0382969 5.4642315 9.1679125
0.51128775 2.7089641 3.7251918
1.6883343 8.9872131 9.9914885
1.8532121 10.048312 10.120776
2.2968602 12.490343 10.3225
1.2303072 6.7102447 4.5573764
3.9847469 21.775587 11.674356
7.2163014 39.512871 16.316608
7.2859035 39.972878 12.033017
2.1199608 11.405271 10.413297
3.4150491 18.462143 11.118665
7.3862596 40.205151 9.9499435
7.4572334 40.631348 5.8538508
7.5206738 41.057682 1.7774562
0.050018694 0.073156923 8.7339401
0.283039 1.3346934 8.6737604
0.36259243 1.76482 8.6853933
0.19162242 0.96616805 3.1960595
0.30281365 1.5542917 3.790097
0.9622913 4.9930429 9.385951
1.1918163 6.2305055 9.3892717
0.15047246 0.49487633 8.7847471
0.24308823 0.92244071 8.8540592
0.46725348 2.301976 9.0810814
0.22343779 1.1283104 3.1821103
0.34316587 1.7579319 3.7672606
1.0578601 5.4631338 9.1721773
0.5025239 2.6124752 3.5975113
1.7203327 8.9845934 9.995163
1.888935 10.045287 10.124281
2.3411629 12.486074 10.325638
1.2544912 6.7100191 4.5601182
4.0526085 21.718 11.651169
7.3592753 39.514786 16.327847
7.4297738 39.970783 12.040068
2.1535032 11.364784 10.383368
3.481071 18.458582 11.123732
4.5294757 24.086952 11.417459
7.5310316 40.203011 9.9558039
7.6090384 40.658615 5.8614488
7.6722021 41.075378 1.7792701
0.050273754 0.072981879 8.7339401
0.28769621 1.3336973 8.6737604
0.36875057 1.7635435 8.6853933
0.1952896 0.96695638 3.2008314
0.3086178 1.5551416 3.7946997
0.97971445 4.9896536 9.385951
1.2130191 6.2235451 9.3851385
0.15219897 0.49434808 8.7847471
0.24630667 0.92158657 8.8540592
0.47528601 2.3003311 9.0810814
0.22737497 1.1275235 3.1821103
0.34760132 1.7481829 3.7492557
1.0769235 5.4594078 9.1721773
0.51395845 2.6225331 3.6134713
1.7523336 8.9818611 9.9988384
1.9239881 10.038631 10.124281
2.3861947 12.485472 10.331915
1.2779061 6.7055993 4.5601182
4.1085262 21.599277 11.595517
7.5014868 39.511631 16.337212
7.5746112 39.972881 12.048528
2.1924527 11.353532 10.380041
3.5471091 18.454782 11.128797
4.6007123 24.004133 11.385988
7.6767902 40.205128 9.9628391
7.7527723 40.641537 5.8628297
7.823945 41.092518 1.7810837
0.050555844 0.072839707 8.7389402
0.29251668 1.3334438 8.6787004
0.37490425 1.7622457 8.6853933
0.19866373 0.96626878 3.2008314
0.31404436 1.5540549 3.7946997
0.99712557 4.9862032 9.385951
1.234736 6.2192731 9.3851385
0.15392365 0.49381378 8.7847471
0.24966213 0.9212355 8.8590307
0.48331282 2.2986579 9.0810814
0.23130937 1.1267231 3.1821103
0.35283715 1.7426914 3.7402532
1.0964876 5.4581728 9.1764431
0.52310967 2.620723 3.6134713
1.7836754 8.9756899 9.9988384
1.9597013 10.035356 10.127786
2.4312506 12.484708 10.338192
1.3021022 6.7052026 4.5628595
4.1484923 21.402153 11.498128
7.6455264 39.517063 16.350323
7.7186446 39.969749 12.055578
2.2241423 11.305511 10.343461
2.8042181 14.293468 10.689648
3.6139922 18.454981 11.136397
4.6844745 23.987928 11.385988
7.8245111 40.216248 9.9722166
7.8993154 40.638535 5.8662834
7.9673371 41.064957 1.7810837
0.050809789 0.072662793 8.7389402
0.29716948 1.3324145 8.6787004
0.38126889 1.7619214 8.6902885
0.20203541 0.96556938 3.2008314
0.31986097 1.5548627 3.7993021
1.0150025 4.9850388 9.3903399
1.2558801 6.2121673 9.3810053
0.15573423 0.49354854 8.7897396
0.25287631 0.92035836 8.8590307
0.49133366 2.296957 9.0810814
0.23524095 1.1259087 3.1821103
0.35759938 1.7350531 3.7267497
1.1155335 5.4543118 9.1764431
0.53945732 2.6543155 3.6613517
1.8149956 8.969409 9.9988384
1.9947195 10.028454 10.127786
2.4755728 12.479962 10.341331
1.3254999 6.7006164 4.5628595
4.2360468 21.45273 11.532909
7.7887983 39.517422 16.361561
7.8636727 39.970802 12.064038
2.2789965 11.37456 10.413297
2.8564703 14.295482 10.698477
3.6800768 18.45071 11.141463
4.7708359 23.984783 11.392282
7.9714594 40.222069 9.9804239
8.0449686 40.630138 5.8690462
8.1145058 41.056496 1.7818899
0.051063124 0.072484985 8.7389402
0.30199069 1.3321269 8.6836395
0.38763583 1.7615744 8.6951838
0.20571579 0.96631825 3.2056036
0.3260875 1.5575609 3.808507
1.0319113 4.9791207 9.385951
1.2769897 6.204989 9.376873
0.15745607 0.49300191 8.7897396
0.25608742 0.91947007 8.8590307
0.49961585 2.2964561 9.0859203
0.23916969 1.1250807 3.1821103
0.36275959 1.7295332 3.7177474
1.1350973 5.4529376 9.1807098
0.54994041 2.658318 3.6693318
1.8469776 8.9663401 10.002513
2.0304208 10.024924 10.13129
2.5206623 12.478876 10.347608
1.3497071 6.7000484 4.5656013
4.3143983 21.455185 11.542185
7.9312549 39.512722 16.370926
8.0069199 39.961926 12.069678
2.3306282 11.42507 10.466505
2.9111888 14.309191 10.716136
3.7461748 18.446198 11.146529
4.8572316 23.981327 11.398577
8.1233511 40.251171 9.9944906
8.1926184 40.630936 5.8731899
8.261714 41.047516 1.782696
0.051315833 0.072306305 8.7389402
0.30681348 1.3318217 8.6885786
0.39400497 1.761204 8.7000799
0.2090876 0.96559429 3.2056036
0.33233681 1.5602348 3.8177123
1.050768 4.9825182 9.3991175
1.2980645 6.1977396 9.3727398
0.15917602 0.49244928 8.7897396
0.25944081 0.91908342 8.8640022
0.50762898 2.294698 9.0859203
0.24309549 1.124239 3.1821103
0.36788565 1.7239984 3.7087448
1.1541247 5.4489422 9.1807098
0.57101208 2.7124054 3.7451422
1.8782648 8.9598379 10.002513
2.065402 10.017776 10.13129
2.5657744 12.477627 10.353885
1.3739265 6.6993918 4.5683427
4.3892641 21.439993 11.542185
8.0747004 39.512047 16.382164
8.1521168 39.961933 12.078138
2.3758085 11.442455 10.489783
2.9668572 14.326647 10.736738
3.8122866 18.441452 11.151595
8.2618475 40.213051 9.9921465
8.3403721 40.631199 5.8773341
8.4089575 41.038006 1.7835022
0.051539805 0.072093368 8.7339401
0.31163785 1.3314991 8.6935186
0.40037626 1.7608109 8.7049751
0.21277818 0.96631628 3.2103753
0.33860871 1.5628837 3.8269172
1.0691588 4.9835033 9.407896
1.3185177 6.1876659 9.3644743
0.16080336 0.49161655 8.7847471
0.26264745 0.91817218 8.8640022
0.51591176 2.2941384 9.0907602
0.24664748 1.1216983 3.1774173
0.37251559 1.7163216 3.6952412
1.1736875 5.4474301 9.1849756
0.58615673 2.7369137 3.7810524
1.9102362 8.956543 10.006188
2.1010904 10.013996 10.134795
2.6109083 12.476213 10.360162
1.3981577 6.6986489 4.571084
8.2182388 39.510857 16.393402
8.2925358 39.937927 12.079549
2.4126484 11.41948 10.476481
3.0168483 14.316203 10.736738
3.8784115 18.43647 11.156662
8.4185553 40.192345 14.381295
8.4081354 40.212513 9.9991798
8.4882269 40.63092 5.8814783
8.5572548 41.032856 1.7845098
0.051791143 0.071913026 8.7339401
0.3166436 1.331915 8.7033968
0.40674958 1.7603946 8.7098703
0.21614996 0.96556759 3.2103753
0.34532368 1.5674158 3.8407245
0.38036865 1.7436221 3.3377995
1.3395126 6.1802759 9.3603411
0.16251844 0.49105224 8.7847471
0.26585087 0.9172498 8.8640022
0.5241968 2.2935488 9.0956001
0.25056142 1.1208304 3.1774173
0.37756577 1.7107593 3.6862388
1.1926954 5.4432998 9.1849756
0.60917622 2.7966793 3.8648429
1.9422075 8.9531336 10.009864
2.1367776 10.010088 10.1383
2.6560638 12.474638 10.366439
1.4224005 6.6978178 4.5738258
8.3609066 39.504604 16.402767
8.4437933 39.965061 12.096469
2.4524951 11.41099 10.476481
3.0888319 14.408342 10.81326
3.9445474 18.431252 11.161728
8.4505396 39.654686 14.200509
8.5454187 40.168655 9.9956636
8.6361809 40.630108 5.8856225
8.7004347 41.002735 1.7845098
0.052041851 0.071731798 8.7339401
0.32147354 1.3315569 8.7083368
0.41312486 1.7599552 8.7147646
0.21951911 0.96480721 3.2103753
0.35250157 1.5738263 3.8591347
0.38904661 1.7539744 3.359745
1.3586547 6.1645703 9.3438091
0.16413897 0.49020848 8.7797556
0.26905105 0.91631621 8.8640022
0.53248411 2.2929294 9.1004381
0.25447232 1.119949 3.1774173
0.38210487 1.7030586 3.672735
1.2116888 5.4391036 9.1849756
0.60981125 2.7533484 3.8089824
1.9741781 8.9496088 10.013539
2.1724629 10.006054 10.141805
2.7012401 12.472899 10.372716
1.4466546 6.6968994 4.5765672
8.5046072 39.502373 16.414005
8.5903025 39.968174 12.106339
2.4955013 11.416949 10.489783
3.1416912 14.409322 10.82209
