# .PCD v0.7 - Point Cloud Data file format
VERSION 0.7
FIELDS x y z
SIZE 4 4 4
TYPE F F F
COUNT 1 1 1
WIDTH 1502
HEIGHT 1
VIEWPOINT 0 0 0 1 0 0 0
POINTS 1502
DATA ascii
-0.90905911 1.5357443 3.3377995
-0.86620319 1.4598819 2.5657735
-0.82765478 1.3932643 2.0168595
-1.5683554 2.8030629 29.913351
-0.9999426 1.7184103 7.6921663
-1.0906142 1.8601451 5.9179931
-0.96630836 1.6409333 4.0013237
-0.88936096 1.5060793 2.9311161
-0.84044367 1.4209912 2.2608531
-0.81959963 1.3835655 1.8215973
-0.81494546 1.3664508 1.6432794
-0.7877695 1.31933 1.3214065
-0.77306134 1.2941927 1.0729734
-0.76217949 1.2749784 0.86411154
-0.75231117 1.2579814 0.6805293
-0.74640465 1.2476201 0.51727986
-0.73430669 1.226436 0.36286458
-0.74176502 1.238898 0.22258168
-0.79744589 1.3413708 1.471027
-0.77842039 1.3083414 1.1920689
-0.76598483 1.286938 0.96568352
-0.75564027 1.268061 0.76984292
-0.7498672 1.2578835 0.5988273
-0.7419787 1.2441667 0.44010365
-0.73042887 1.2248044 0.29111382
-0.73448449 1.2311265 0.15150478
-0.74496931 1.294052 7.2021399
-1.0685022 1.8355787 6.8370833
-1.0200425 1.7425851 4.8164601
-0.90854359 1.5471693 3.3553557
-0.8653841 1.4701718 2.5781722
-0.82766813 1.4044293 2.0283723
-1.5588199 2.8089864 29.918322
-1.0083889 1.7469296 7.803473
-1.0927899 1.8788583 5.9649205
-0.96826065 1.6574546 4.0328321
-0.88937122 1.5181763 2.94818
-0.84005284 1.4317132 2.2728233
-0.81820023 1.3922639 1.8289475
-0.81380242 1.3754257 1.6502886
-0.78911042 1.3321184 1.3308219
-0.77280235 1.3040779 1.0784563
-0.76224363 1.2852514 0.86874914
-0.75264633 1.268574 0.68427533
-0.74694186 1.2584684 0.52009988
-0.73252988 1.2332151 0.36379722
-0.73997921 1.2457613 0.22302876
-0.79655224 1.3505784 1.4776781
-0.78001225 1.3214933 1.2008984
-0.76587152 1.2970281 0.97074991
-0.75351894 1.2745979 0.77194095
-0.74787563 1.2645581 0.60047078
-0.74010617 1.2509325 0.44127598
-0.7286706 1.2316086 0.29180449
-0.73272717 1.2379823 0.15170631
-0.73994285 1.2957602 7.1972442
-1.0665663 1.8470535 6.865715
-1.0218012 1.7596513 4.8532801
-0.90916467 1.5606788 3.3773012
-0.86592245 1.4829041 2.5947039
-0.82923114 1.4183782 2.0437222
-1.5490053 2.8144104 29.918322
-1.0135257 1.7700746 7.8905821
-1.0957102 1.899104 6.016541
-0.97010916 1.6740094 4.0643406
-0.88799733 1.5280364 2.9609778
-0.84111309 1.4450539 2.2887833
-0.81675011 1.400969 1.8362979
-0.81260681 1.3844093 1.6572976
-0.78839958 1.3415765 1.3370987
-0.77248377 1.3139769 1.0839393
-0.76224512 1.2955403 0.87338674
-0.75056517 1.2751887 0.68614835
-0.74497843 1.2652017 0.52150995
-0.73071456 1.2399967 0.36472982
-0.73815447 1.2526271 0.22347584
-0.79560399 1.3597962 1.484329
-0.77947927 1.3311841 1.2067847
-0.76569706 1.3071327 0.97581625
-0.75365698 1.2850503 0.77613705
-0.74823612 1.2753068 0.6037578
-0.74065596 1.2618922 0.44362062
-0.72938043 1.2426863 0.29318586
-0.73346066 1.2491488 0.15210937
-0.73491371 1.2974492 7.1923494
-1.0608543 1.8520608 6.8704872
-1.022478 1.7750578 4.8854976
-0.90970242 1.5742114 3.3992465
-0.8663826 1.4956579 2.6112356
-0.82909882 1.4295822 2.0552347
-1.5384057 2.8183968 29.903406
-1.0154096 1.787811 7.953495
-1.0976453 1.917895 6.0634685
-0.97185379 1.6905971 4.095849
-0.88786775 1.5401647 2.9780414
-0.8405835 1.4558097 2.3007534
-0.81524903 1.4096811 1.8436482
-0.81135821 1.3934013 1.6643068
-0.78763247 1.3510456 1.3433758
-0.7721054 1.3238895 1.0894222
-0.7621842 1.3058449 0.87802434
-0.7507844 1.2858078 0.68989444
-0.74539661 1.2760788 0.52433002
-0.73133987 1.2510214 0.36659506
-0.73629069 1.2594954 0.22392292
-0.79647517 1.3722529 1.4943056
-0.77888817 1.3408873 1.212671
-0.76546127 1.3172519 0.98088264
-0.75144911 1.2915961 0.77823514
-0.74615526 1.2819921 0.60540134
-0.73869228 1.2686703 0.44479293
-0.72752988 1.2495042 0.29387653
-0.73161042 1.2560185 0.15231091
-0.72988164 1.2991189 7.1874542
-1.0602814 1.8661357 6.9086628
-1.0230597 1.7904905 4.9177151
-0.91015673 1.5877666 3.4211919
-0.86676413 1.5084329 2.6277676
-0.83049667 1.4435811 2.0705848
-1.5275434 2.8218744 29.88352
-1.0239674 1.8176295 8.0696411
-1.1011662 1.9397238 6.119782
-0.97241616 1.7053261 4.1228566
-0.88766432 1.5523108 2.9951053
-0.84148675 1.4691943 2.3167133
-0.8136971 1.4183996 1.8509985
-0.81005675 1.4024012 1.6713158
-0.78680861 1.3605257 1.3496526
-0.77166724 1.3338155 1.0949051
-0.75984085 1.3123311 0.88034314
-0.74861509 1.2924323 0.69176745
-0.7433427 1.2828236 0.52574003
-0.73189723 1.2620655 0.3684603
-0.73438811 1.2663659 0.22437
-0.79540616 1.3814964 1.5009565
-0.77823871 1.3506024 1.2185574
-0.76516408 1.3273854 0.98594898
-0.75147319 1.302073 0.78243119
-0.74639785 1.2927679 0.60868835
-0.73912138 1.279659 0.44713756
-0.72811747 1.2606125 0.2952579
-0.73222053 1.267216 0.15271397
-0.72583795 1.3025483 7.1923494
-1.0596231 1.8802292 6.9468389
-1.023546 1.8059489 4.9499331
-0.91052735 1.6013441 3.4431372
-0.86706704 1.5212287 2.6442995
-0.8302182 1.4548229 2.0820973
-1.517684 2.8271892 29.88352
-1.0304903 1.844237 8.1712694
-1.1037014 1.960097 6.1714025
-0.97288746 1.7200795 4.1498637
-0.88867348 1.5667428 3.0164349
-0.84081835 1.4799827 2.3286836
-0.81377083 1.430071 1.8620242
-0.81047505 1.4145033 1.6818293
-0.78592813 1.3700165 1.3559296
-0.77116907 1.3437543 1.1003881
-0.75966775 1.3226581 0.88498074
-0.74871826 1.303077 0.69551355
-0.74364144 1.2937285 0.5285601
-0.72993678 1.2688707 0.36939296
-0.73492956 1.277555 0.22526415
-0.79613382 1.3939914 1.510933
-0.77753091 1.3603293 1.2244437
-0.76480544 1.3375328 0.99101532
-0.74917835 1.308627 0.78452927
-0.74422753 1.2994632 0.61033183
-0.7394827 1.2906662 0.4494822
-0.72617441 1.2674433 0.29594857
-0.730277 1.2740985 0.15291549
-0.72128677 1.305074 7.1923494
-1.0588793 1.8943404 6.9850144
-1.0248941 1.823135 4.9867535
-0.91199076 1.6170297 3.4694719
-0.86867577 1.5364944 2.664964
-0.82987136 1.4660804 2.0936098
-1.5063034 2.8296463 29.853691
-1.0368395 1.8709117 8.2728968
-1.109473 1.9865377 6.2417936
-0.97326744 1.7348568 4.1768708
-0.88831395 1.5789275 3.0334985
-0.841564 1.4934095 2.3446436
-0.81210661 1.4388076 1.8693745
-0.8090567 1.4235247 1.6888385
-0.78499097 1.3795176 1.3622065
-0.76854235 1.3500718 1.1031295
-0.75943166 1.3329997 0.88961834
-0.74875611 1.3137379 0.69925964
-0.74149692 1.3004836 0.52997011
-0.73037225 1.2799438 0.3712582
-0.7329337 1.284438 0.22571123
-0.79678398 1.4065082 1.5209095
-0.77676463 1.3700676 1.23033
-0.76438528 1.3476938 0.99608171
-0.74908793 1.3191273 0.78872538
-0.74435198 1.3102648 0.61361885
-0.73737454 1.2974656 0.45065451
-0.72419256 1.2742757 0.29663923
-0.73076355 1.2853261 0.15331855
-0.71721601 1.3084767 7.1972442
-1.0580497 1.9084696 7.0231905
-1.0251831 1.8386462 5.018971
-0.91335565 1.6327447 3.4958065
-0.87018853 1.5517899 2.6856289
-0.82945591 1.477353 2.1051223
-1.4991535 2.8400729 29.908379
-1.0436202 1.8987546 8.379364
-1.1058763 1.9964367 6.2605648
-0.97355604 1.7496575 4.2038784
-0.88788009 1.5911286 3.0505624
-0.84075606 1.5042289 2.3566139
-0.81204718 1.4505081 1.8803998
-0.80933648 1.4356604 1.6993521
-0.783997 1.3890285 1.3684834
-0.76793677 1.3600286 1.1086124
-0.75913262 1.3433558 0.89425594
-0.75101 1.3284507 0.70487875
-0.74167579 1.3114152 0.53279018
-0.73073924 1.2910355 0.37312344
-0.73089874 1.2913226 0.22615832
-0.79552734 1.4157913 1.5275606
-0.77593976 1.379817 1.2362163
-0.76390344 1.357868 1.001148
-0.74893332 1.3296429 0.79292148
-0.74440998 1.3210833 0.61690587
-0.73761475 1.3085001 0.45299914
-0.72460365 1.2854236 0.29802063
-0.72872657 1.2922208 0.15352009
-0.71313041 1.3118669 7.2021399
-1.0571344 1.9226158 7.0613661
-1.0263216 1.8558911 5.0557909
-0.91462177 1.6484886 3.5221407
-0.87023729 1.5646551 2.7021606
-0.82897192 1.4886404 2.1166348
-1.4924433 2.8514287 29.973007
-1.0496176 1.9255637 8.4809923
-1.1063782 2.0138974 6.3027997
-0.97270137 1.7625754 4.2263842
-0.88737184 1.6033459 3.067626
-0.84134358 1.5176964 2.3725739
-0.81191605 1.4622258 1.8914254
-0.80780089 1.4447021 1.7063613
-0.78484738 1.4019458 1.3778987
-0.76727098 1.3699975 1.1140954
-0.75877059 1.3537261 0.89889359
-0.75090295 1.3391513 0.70862478
-0.74178737 1.3223637 0.53561026
-0.73103768 1.3021452 0.37498868
-0.73126251 1.302551 0.22705248
-0.79603314 1.4283439 1.537537
-0.77505636 1.3895774 1.2421026
-0.76335979 1.3680551 1.0062144
-0.74871439 1.3401735 0.79711759
-0.74440151 1.3319176 0.62019289
-0.73541474 1.3153093 0.45417145
-0.72252893 1.2922676 0.2987113
-0.72908914 1.3034773 0.15392315
-0.70902979 1.3152446 7.2070351
-1.0568477 1.9380893 7.1043143
-1.0273521 1.8731661 5.0926113
-0.91578907 1.6642612 3.5484753
-0.87020677 1.5775394 2.7186925
-0.82996863 1.5027483 2.1319847
-1.4817445 2.8552015 29.958094
-1.0554404 1.9524374 8.5826197
-1.1051203 2.0283546 6.335649
-0.97176832 1.7755084 4.2488904
-0.88804388 1.6178652 3.0889559
-0.8418473 1.5311861 2.3885341
-0.81334811 1.4769295 1.906126
-0.80794156 1.4568697 1.716875
-0.78372782 1.4114829 1.3841758
-0.76654488 1.3799782 1.1195784
-0.75834531 1.36411 0.90353119
-0.75073022 1.3498673 0.71237087
-0.73949915 1.3291367 0.53702027
-0.72887766 1.3089808 0.37592128
-0.72913402 1.3094465 0.22749956
-0.79465491 1.4376497 1.5441881
-0.77411407 1.399348 1.2479889
-0.76275432 1.3782549 1.0112808
-0.74843097 1.3507184 0.80131364
-0.74203712 1.3386383 0.62183642
-0.73317617 1.3221191 0.45534378
-0.72281682 1.3034433 0.30009267
-0.72695827 1.310383 0.15412468
-0.70491439 1.3186096 7.2119303
-1.0522059 1.9457055 7.1186299
-1.0292081 1.8921871 5.1340342
-0.91800451 1.6821644 3.5791988
-0.8700968 1.5904425 2.7352242
-0.82933712 1.5140697 2.1434972
-1.4695746 2.8560901 29.913351
-1.0616822 1.9804831 8.6890879
-1.107056 2.0489011 6.3872695
-0.97075683 1.7884563 4.2713966
-0.88862526 1.6324085 3.1102853
-0.84226698 1.5446978 2.404494
-0.81306249 1.488686 1.9171517
-0.80628836 1.4659307 1.7238841
-0.7844286 1.4244386 1.393591
-0.76575845 1.3899705 1.1250613
-0.75785661 1.3745072 0.90816879
-0.75049186 1.3605983 0.71611691
-0.73949027 1.3401103 0.53984034
-0.7290535 1.3201172 0.37778652
-0.72937369 1.3207024 0.22839372
-0.79501593 1.4502372 1.5541645
-0.7750572 1.4126729 1.2568183
-0.76208687 1.3884671 1.0163471
-0.74808306 1.3612778 0.80550975
-0.74190974 1.3494965 0.62512344
-0.73324138 1.3331883 0.45768842
-0.72064894 1.3102976 0.30078334
-0.72719651 1.3216668 0.15452774
-0.70030725 1.3210621 7.2119303
-1.0454078 1.9493667 7.1186299
-1.0309435 1.9112439 5.175457
-0.92010605 1.700103 3.6099226
-0.8712492 1.6058375 2.7558892
-0.83016664 1.5282217 2.1588473
-1.0671507 2.0074856 8.7907152
-1.1137512 2.0786121 6.4670467
-0.97069848 1.8033357 4.2984037
-0.88911593 1.6469756 3.1316152
-0.84116936 1.55558 2.4164641
-0.81270456 1.5004579 1.928177
-0.80458182 1.4749978 1.7308931
-0.78318274 1.4340004 1.3998679
-0.76691639 1.4036434 1.1332856
-0.75730461 1.3849176 0.91280639
-0.74796277 1.3672769 0.71798992
-0.73941374 1.3510996 0.54266042
-0.72680074 1.3269625 0.37871915
-0.72715139 1.3276081 0.2288408
-0.79529881 1.4628446 1.5641412
-0.77398491 1.4224708 1.2627047
-0.76135731 1.3986912 1.0214134
-0.74767047 1.3718511 0.80970585
-0.73945504 1.3562239 0.62676698
-0.73091078 1.3400068 0.45886073
-0.72081333 1.3214999 0.3021647
-0.72497159 1.3285825 0.15472928
-0.69616526 1.3243999 7.2168255
-1.0378962 1.9516861 7.1138582
-1.0325582 1.9303354 5.2168798
-0.92209345 1.7180766 3.640646
-0.87097144 1.6187816 2.7724209
-0.83090734 1.5423979 2.1741974
-1.4505616 2.8681829 29.933237
-1.0736157 2.0367742 8.9020224
-1.1194426 2.1068704 6.5421309
-0.97054791 1.818236 4.3254108
-0.88951564 1.6615658 3.1529448
-0.84142989 1.5691292 2.4324241
-0.8122744 1.5122457 1.9392027
-0.8045184 1.4872075 1.7414067
-0.78373343 1.4469932 1.4092834
-0.76599604 1.4136647 1.1387686
-0.75668913 1.3953409 0.91744399
-0.74760675 1.3780292 0.72173601
-0.73698127 1.3578886 0.54407042
-0.72685373 1.3381245 0.38058439
-0.72488976 1.3345143 0.22928788
-0.79373145 1.472185 1.5707921
-0.77285355 1.4322783 1.268591
-0.76056576 1.4089273 1.0264798
-0.7471931 1.3824378 0.81390196
-0.7392084 1.3671045 0.630054
-0.73085392 1.3511004 0.46120536
-0.71855211 1.3283637 0.30285537
-0.72270727 1.3354989 0.1549308
-0.69059706 1.3250159 7.2070351
-1.0310771 1.9552971 7.1138582
-1.0349677 1.9511873 5.2629046
-0.92396641 1.7360846 3.6713693
-0.87061381 1.6317431 2.7889526
-0.83155912 1.5565975 2.1895473
-1.4369583 2.8660805 29.858664
-1.0763961 2.059448 8.984292
-1.1185158 2.1229794 6.5796728
-0.97234172 1.8370054 4.3614206
-0.88982409 1.6761787 3.1742744
-0.84160614 1.5826992 2.4483843
-0.81177169 1.5240483 1.950228
-0.80269372 1.4962921 1.7484158
-0.78420275 1.4600071 1.4186987
-0.76699424 1.4273802 1.146993
-0.75600994 1.4057766 0.92208159
-0.74498838 1.3847131 0.72360903
-0.73678392 1.3689011 0.54689056
-0.72450799 1.3449783 0.38151699
-0.72258878 1.3414209 0.22973496
-0.79738951 1.4914103 1.5874195
-0.77357018 1.4456592 1.2774205
-0.76174629 1.4229752 1.0340793
-0.74665093 1.393038 0.81809807
-0.7388947 1.3779999 0.63334101
-0.73072851 1.36221 0.46355
-0.71859258 1.3395915 0.30423674
-0.72040349 1.3424156 0.15513234
-0.68877155 1.3328463 7.2364063
-1.0242456 1.9588844 7.1138582
-1.0381533 1.9738084 5.3135328
-0.9246071 1.7520084 3.6977041
-0.87017626 1.6447217 2.8054843
-0.83212179 1.5708203 2.2048974
-1.428131 2.8734658 29.88352
-1.0784529 2.0810497 9.0617228
-1.1326704 2.1681693 6.706378
-0.97401607 1.8558091 4.3974304
-0.89004147 1.6908138 3.1956041
-0.84310305 1.5989544 2.4683344
-0.81119651 1.535866 1.9612535
-0.80249023 1.5085305 1.7589295
-0.78276104 1.4696064 1.4249755
-0.76593965 1.4374293 1.152476
-0.7552672 1.4162245 0.92671913
-0.74451458 1.3954856 0.72735512
-0.73651856 1.3799286 0.54971057
-0.72443765 1.3561647 0.38338223
-0.72259468 1.3527201 0.2306291
-0.80092311 1.510679 1.6040471
-0.77420253 1.4590621 1.2862499
-0.76081681 1.4332408 1.0391457
-0.74604386 1.4036512 0.82229424
-0.73851395 1.3889096 0.63662797
-0.73053443 1.373335 0.46589461
-0.71856344 1.3508357 0.30561811
-0.71806014 1.3493325 0.15533386
-0.68411481 1.3352424 7.2364063
-1.0174016 1.9624478 7.1138582
-1.04029 1.9947429 5.3595576
-0.92625815 1.7700797 3.7284274
-0.86965859 1.6577171 2.8220162
-0.83259529 1.585066 2.2202475
-1.4169143 2.8760424 29.858664
-1.0815207 2.1049268 9.1488323
-1.1250952 2.1721098 6.706378
-0.97557104 1.8746469 4.4334402
-0.89016736 1.7054707 3.2169337
-0.84310061 1.6125692 2.4842944
-0.81212139 1.5507014 1.9759542
-0.80221099 1.5207855 1.769443
-0.78307962 1.4826553 1.434391
-0.76677758 1.4511855 1.1607003
-0.75653142 1.4306003 0.93367553
-0.74397463 1.4062717 0.73110116
-0.73618507 1.3909708 0.55253065
-0.724298 1.367367 0.38524747
-0.72019947 1.3596349 0.23107618
-0.8025943 1.5266852 1.617349
-0.77286881 1.4689099 1.2921362
-0.75982493 1.4435171 1.0442121
-0.74537164 1.414277 0.82649034
-0.74026829 1.4040103 0.64155853
-0.73027152 1.384475 0.46823925
-0.7161541 1.3577157 0.30630878
-0.71800888 1.3606677 0.15573692
-0.68175477 1.3421617 7.2608824
-1.0105451 1.9659872 7.1138582
-1.0431906 2.0174518 5.4101858
-0.9277941 1.7881835 3.759151
-0.86776221 1.6682321 2.834415
-0.83297926 1.5993338 2.2355974
-1.4089711 2.885282 29.903406
-1.0815825 2.12325 9.2117462
-1.1269655 2.1944454 6.762691
-0.97700632 1.893518 4.4694495
-0.89140028 1.7224653 3.2425294
-0.84301335 1.6262032 2.5002546
-0.81139028 1.562553 1.9869798
-0.80185592 1.5330569 1.7799567
-0.78151083 1.492276 1.4406679
-0.76558828 1.461261 1.1661832
-0.75564724 1.4410787 0.93831313
-0.74552184 1.4211761 0.73672026
-0.73578346 1.4020275 0.55535072
-0.72408897 1.3785846 0.38711271
-0.71776474 1.3665494 0.23152326
-0.80588931 1.5460324 1.6339766
-0.77334529 1.4823499 1.3009658
-0.76076502 1.4576255 1.0518116
-0.74673629 1.4289374 0.83278447
-0.7397384 1.4149555 0.64484555
-0.7299397 1.39563 0.47058392
-0.7160005 1.3689836 0.30769014
-0.71557105 1.3675925 0.15593846
-0.68439072 1.359085 7.3392057
-1.004354 1.9708325 7.1186299
-1.045054 2.0384662 5.4562106
-0.9281196 1.80419 3.7854855
-0.86709291 1.6812553 2.8509469
-0.83327377 1.6136235 2.2509475
-1.4002839 2.8930619 29.933237
-1.082096 2.1427212 9.2794971
-1.1232131 2.2060552 6.7861543
-0.97733033 1.9104837 4.5009584
-0.89133483 1.7371687 3.263859
-0.84284109 1.6398561 2.5162146
-0.81213796 1.5774325 2.0016804
-0.80142486 1.5453442 1.7904702
-0.78167796 1.5053579 1.4500831
-0.76626539 1.4750564 1.1744076
-0.75469911 1.4515684 0.94295073
-0.7448349 1.4319955 0.7404663
-0.73531359 1.4130982 0.5581708
-0.72381037 1.3898175 0.38897794
-0.71529049 1.3734634 0.23197034
-0.80563039 1.5587871 1.6439531
-0.77188015 1.4922206 1.3068521
-0.75963461 1.4679292 1.056878
-0.7459197 1.4395947 0.83698058
-0.73914105 1.4259138 0.64813256
-0.7295388 1.4067994 0.47292855
-0.71577692 1.3802669 0.30907148
-0.71539426 1.3789512 0.15634152
-0.68691671 1.3760427 7.4175301
-0.99746841 1.9743263 7.1186299
-1.0476682 2.0612597 5.5068383
-0.92943245 1.8223537 3.8162091
-0.86762416 1.6967995 2.8716116
-0.83347863 1.6279348 2.2662973
-1.3901769 2.8979321 29.933237
-1.0807989 2.1588497 9.3327312
-1.1155057 2.2099626 6.7861543
-0.97754765 1.9274746 4.5324669
-0.89235991 1.7542169 3.2894547
-0.84258378 1.6535274 2.5321748
-0.81279159 1.5923362 2.016381
-0.79928714 1.5544754 1.7974794
-0.77998161 1.5149986 1.4563601
-0.76494098 1.485157 1.1798905
-0.75368696 1.4620688 0.94758832
-0.7440815 1.4428275 0.74421245
-0.7347753 1.4241825 0.56099087
-0.7234621 1.401065 0.39084318
-0.71506149 1.3848016 0.2328645
-0.80358958 1.5682356 1.650604
-0.77220005 1.5056958 1.3156817
-0.75844151 1.478243 1.0619444
-0.74503762 1.4502637 0.84117669
-0.73847622 1.4368852 0.65141958
-0.72684634 1.4136602 0.47410086
-0.71548319 1.391565 0.31045285
-0.71286166 1.3858827 0.15654305
-0.68030345 1.3747816 7.3979492
-0.99057066 1.9777961 7.1186299
-1.0492572 2.0823519 5.5528636
-0.93062967 1.8405484 3.8469329
-0.86805737 1.7123677 2.8922763
-0.83359361 1.642267 2.2816474
-1.3786798 2.8998783 29.903406
-1.0726976 2.1614833 9.3278923
-1.1085569 2.2153862 6.7908473
-0.97472477 1.938655 4.5504718
-0.89327681 1.7712934 3.3150501
-0.84224123 1.667217 2.548135
-0.81182027 1.6042384 2.0274065
-0.79871494 1.566788 1.8079931
-0.77999711 1.5281125 1.4657755
-0.76545697 1.4989903 1.188115
-0.75462651 1.4765242 0.95454472
-0.7432614 1.4536713 0.74795848
-0.73416859 1.4352802 0.56381088
-0.72080564 1.4079545 0.39177582
-0.7124927 1.3917221 0.23331158
-0.79980159 1.5743601 1.6539296
-0.77060324 1.5155883 1.321568
-0.75914001 1.4924083 1.0695438
-0.74409026 1.4609439 0.8453728
-0.73559982 1.4436617 0.65306306
-0.72632211 1.4248496 0.4764455
-0.71511924 1.4028779 0.31183422
-0.71255898 1.3972639 0.15694611
-0.67729348 1.3808049 7.4175301
-0.98366082 1.9812418 7.1186299
-1.0498384 2.1017318 5.5942864
-0.93278438 1.8609147 3.8820455
-0.86839235 1.7279592 2.912941
-0.83361864 1.6566195 2.2969975
-1.3678676 2.9032266 29.888493
-1.1015837 2.2207882 6.7955403
-0.97960371 1.9654264 4.6044865
-0.89408523 1.7883974 3.3406458
-0.84316248 1.6836183 2.568085
-0.81229585 1.6191834 2.0421071
-0.79806644 1.5791152 1.8185068
-0.77993041 1.541245 1.475191
-0.7639969 1.5091143 1.1935979
-0.75347215 1.4870526 0.95918238
-0.7423746 1.464527 0.75170451
-0.73349327 1.4463911 0.56663096
-0.7203331 1.4192227 0.39364108
-0.71213806 1.4030821 0.23420574
-0.79765993 1.5838119 1.6605806
-0.77076596 1.5290971 1.3303974
-0.75780785 1.5027474 1.0746102
-0.74307728 1.4716352 0.8495689
-0.73481429 1.4546504 0.65635008
-0.72572863 1.4360526 0.47879013
-0.71468508 1.4142052 0.31321558
-0.70993137 1.404201 0.15714765
-0.67157924 1.3813289 7.4077392
-0.97739804 1.9860028 7.1234021
-1.0520307 2.1246426 5.6449142
-0.9337424 1.8791733 3.9127688
-0.86988372 1.7460928 2.9377387
-0.83355361 1.6709924 2.3123474
-1.3561469 2.9046023 29.853691
-0.98542404 2.0209088 8.6939278
-1.093825 2.2246199 6.7955403
-0.98334336 1.9903034 4.6539998
-0.89478505 1.8055285 3.3662415
-0.84263957 1.6973473 2.5840452
-0.81267697 1.6341511 2.0568078
-0.79893899 1.5946454 1.832525
-0.77978146 1.5543954 1.4846063
-0.76435107 1.5229836 1.2018223
-0.75225347 1.4975907 0.96381998
-0.74142104 1.475394 0.75545061
-0.73274928 1.4575144 0.56945103
-0.71979046 1.4305046 0.39550632
-0.71171278 1.4144566 0.2350999
-0.79379427 1.5899272 1.663906
-0.76903719 1.5390098 1.3362837
-0.75834012 1.5169511 1.0822097
-0.74199867 1.482337 0.85376495
-0.73396093 1.4656513 0.65963709
-0.72506577 1.4472686 0.48113477
-0.71196234 1.4211187 0.31390625
-0.70950258 1.4156034 0.15755071
-0.66675341 1.3836648 7.4077392
-0.96915102 1.9867193 7.1138582
-1.0480508 2.1353171 5.6633244
-0.9345842 1.8974611 3.9434922
-0.87125909 1.7642578 2.9625366
-0.83339828 1.6853845 2.3276975
-1.346671 2.9107699 29.868607
-0.9701606 2.0073595 8.621335
-1.0868089 2.2299757 6.8002329
-0.98692107 2.0152302 4.7035131
-0.89652586 1.825027 3.3961029
-0.8433615 1.7137967 2.6039953
-0.81296337 1.6491413 2.0715086
-0.79812646 1.6070065 1.8430386
-0.77955019 1.5675634 1.4940217
-0.76461768 1.5368735 1.2100466
-0.7509703 1.5081382 0.96845758
-0.74040061 1.4862723 0.75919664
-0.73193651 1.4686502 0.57227111
-0.71917796 1.4418 0.39737156
-0.71121675 1.425845 0.23599406
-0.79155171 1.5993812 1.670557
-0.76904249 1.552551 1.3451133
-0.75686848 1.5273139 1.0872761
-0.74085438 1.4930491 0.85796106
-0.73303968 1.4766638 0.66292417
-0.72433335 1.4584974 0.48347941
-0.7114026 1.4324658 0.31528762
-0.70900273 1.4270196 0.15795377
-0.66411287 1.3905782 7.4322157
-0.96480876 1.9954658 7.1329465
-1.0534096 2.1653152 5.7323623
-0.93530977 1.9157776 3.974216
-0.87128097 1.7799257 2.983201
-0.83315259 1.699796 2.3430474
-1.3367243 2.9159374 29.873577
-0.95934725 2.0027981 8.5874596
-1.0790181 2.2337561 6.8002329
-0.9903366 2.0402057 4.7530265
-0.8969999 1.8422148 3.4216986
-0.84397864 1.7302715 2.6239452
-0.81166661 1.6611069 2.0825341
-0.79881233 1.622581 1.8570567
-0.77923626 1.5807486 1.5034369
-0.76294708 1.5470335 1.2155296
-0.74962264 1.518695 0.97309518
-0.74136579 1.5013179 0.76481575
-0.7310549 1.479798 0.57509118
-0.71849525 1.4531083 0.3992368
-0.71064979 1.437247 0.23688821
-0.78925276 1.6088387 1.6772081
-0.76896256 1.5661107 1.3539426
-0.75533366 1.5376852 1.0923425
-0.74164742 1.5078439 0.86425525
-0.73205042 1.4876876 0.66621119
-0.72353131 1.4697386 0.48582402
-0.7107724 1.4438263 0.31666899
-0.70843178 1.4384496 0.15835683
-0.65310985 1.3867811 7.3930535
-0.95364904 2.000823 7.1329465
-1.0531265 2.1958268 5.7967973
-0.93186575 1.9360778 4.0049396
-0.86590511 1.7950526 2.999733
-0.83031875 1.7189976 2.3622351
-1.3185958 2.9247646 29.87855
-0.94352978 2.0019641 8.558423
-1.0657026 2.2420502 6.8049254
-0.98651987 2.0662038 4.7980385
-0.89297009 1.8644344 3.4515603
-0.83930463 1.7492695 2.6438954
-0.80650413 1.678677 2.0972347
-0.79498059 1.6363646 1.8675704
-0.77577829 1.5954429 1.5128524
-0.76005298 1.5624194 1.223754
-0.74527299 1.5306942 0.97773278
-0.73702806 1.5137713 0.76856184
-0.72698003 1.4924831 0.5779112
-0.71441776 1.4660541 0.40110204
-0.70428932 1.4459159 0.23733529
-0.78265804 1.6203543 1.683859
-0.76465911 1.5816963 1.3627722
-0.75128579 1.554044 1.0999421
-0.73584819 1.5207726 0.86845136
-0.72860056 1.5051351 0.67114168
-0.71800339 1.4832549 0.48816866
-0.70549625 1.457423 0.31805035
-0.70297772 1.4522319 0.15875989
-0.65074056 1.3867699 7.3881583
-0.95376599 2.00738 7.1520343
-1.0617843 2.2198403 5.8566303
-0.9360559 1.9500077 4.0312743
-0.87075555 1.808334 3.0203977
-0.83607852 1.7340128 2.3814225
-1.3191062 2.9245346 29.87855
-0.94101149 1.9948136 8.5293875
-1.0664852 2.241678 6.8049254
-0.99735469 2.0851538 4.843051
-0.90329635 1.8826216 3.4856877
-0.84735966 1.7621145 2.6638458
-0.81414646 1.6900485 2.1119354
-0.79833424 1.6505916 1.8815886
-0.77864116 1.607033 1.5222677
-0.76334226 1.5747674 1.2319785
-0.74727082 1.539574 0.98237038
-0.74151736 1.5270531 0.77418089
-0.72987103 1.5017459 0.58073127
-0.7176916 1.4753873 0.40296727
-0.70788896 1.4552412 0.23822945
-0.78752977 1.6304408 1.6938356
-0.77021468 1.592479 1.3716016
-0.75558329 1.5615425 1.1050084
-0.74258107 1.5326403 0.87474555
-0.73377198 1.5131239 0.6744287
-0.72354072 1.491374 0.49051329
-0.71134663 1.4655935 0.31943169
-0.70693374 1.4558662 0.15896143
-0.64436632 1.3863754 7.3734727
-0.95339328 2.0257192 7.2045259
-1.0632865 2.2450888 5.9118605
-0.93575782 1.9687293 4.0619974
-0.86712116 1.8194358 3.0327964
-0.8360129 1.7518188 2.40061
-1.3063329 2.9302623 29.87855
-0.92982554 1.9945059 8.5100288
-1.0563018 2.2464943 6.8049254
-0.99681741 2.1095135 4.888063
-0.90223396 1.9033543 3.5155489
-0.84520078 1.7798444 2.6837957
-0.81170285 1.7062527 2.126636
-0.79719222 1.6630161 1.8921022
-0.77779865 1.6204033 1.5316831
-0.7629953 1.5888625 1.2402028
-0.74711061 1.5544097 0.98932678
-0.73966634 1.5382452 0.77792698
-0.72799593 1.5133096 0.58355141
-0.71602529 1.4871082 0.40483251
-0.70636231 1.4670449 0.23912361
-0.78523564 1.6439691 1.703812
-0.76821029 1.606898 1.3804312
-0.75406927 1.576622 1.112608
-0.73953915 1.5441809 0.87894166
-0.73071426 1.5250821 0.67771572
-0.72280771 1.5079163 0.49403024
-0.70845693 1.4779835 0.32081306
-0.70413113 1.4683131 0.15936449
-0.6386714 1.3867664 7.3636823
-0.94631642 2.0290349 7.2045259
-1.067063 2.2735472 5.9762959
-0.93602341 1.9871505 4.092721
-0.86557162 1.8326296 3.0493283
-0.83674431 1.7692142 2.4197977
-1.2960964 2.9348044 29.87855
-0.91811442 1.9874691 8.4664736
-1.0477248 2.2486036 6.8002329
-0.99867898 2.1326954 4.933075
-0.90445489 1.9253769 3.5496764
-0.84668064 1.7991426 2.7077358
-0.81152439 1.7213416 2.1413364
-0.79750341 1.6786736 1.9061204
-0.77715373 1.6336532 1.5410986
-0.76283509 1.6028433 1.2484273
-0.74739516 1.569006 0.99628317
-0.74027544 1.5533727 0.78354609
-0.72890234 1.528832 0.58778149
-0.71506101 1.4984652 0.40669775
-0.70552653 1.4784907 0.24001777
-0.78588212 1.6601993 1.7171141
-0.76778823 1.6205282 1.3892606
-0.75225389 1.5870353 1.1176742
-0.73998249 1.5590534 0.88523579
-0.72943729 1.536155 0.68100274
-0.72171098 1.5192109 0.49637488
-0.70754331 1.4893934 0.32219443
-0.70114589 1.4752742 0.15956602
-0.6334042 1.3880609 7.3587871
-0.94987202 2.0553615 7.2856498
-1.0706536 2.3020587 6.0407314
-0.93617171 2.0055974 4.1234446
-0.8639406 1.8458347 3.0658603
-0.83736432 1.7866358 2.4389851
-1.2854172 2.938334 29.868607
-0.90594059 1.979232 8.4180794
-1.041316 2.2553809 6.8096185
-0.99947441 2.1539412 4.9735861
-0.906533 1.9474378 3.5838039
-0.84676266 1.8157419 2.7276859
-0.81268531 1.7395216 2.1597126
-0.79771483 1.6943535 1.9201386
-0.7764256 1.6469179 1.5505139
-0.76080287 1.6130602 1.2539102
-0.74569565 1.5796171 1.0009208
-0.7388081 1.5643312 0.78729212
-0.72765988 1.5400417 0.59060156
-0.71402621 1.5098336 0.40856299
-0.70461935 1.4899483 0.24091193
-0.78483903 1.6730735 1.7270906
-0.76728028 1.6341747 1.39809
-0.7522077 1.6013569 1.1252737
-0.73839921 1.5698407 0.88943189
-0.73010242 1.55151 0.68593329
-0.71847385 1.5261186 0.49754718
-0.70866787 1.5052953 0.32426646
-0.70024943 1.4867522 0.15996908
-0.62771654 1.3884078 7.3489966
-0.96071184 2.0980241 7.424037
-1.0740578 2.3306227 6.1051664
-0.93620265 2.0240695 4.1541681
-0.86933136 1.8743678 3.1071897
-0.83652282 1.8011762 2.4543352
-1.2757881 2.9442704 29.88352
-0.89383578 1.9709345 8.3696861
-1.0363082 2.2652791 6.8283896
-1.0010428 2.1771963 5.0185981
-0.90846807 1.9695367 3.6179318
-0.84800285 1.8350987 2.7516263
-0.81230491 1.7546538 2.1744132
-0.79782647 1.7100552 1.9341568
-0.77561438 1.6601977 1.5599293
-0.76047891 1.6270703 1.2621346
-0.74580836 1.5942479 1.0078771
-0.73727328 1.5752983 0.79103822
-0.72634804 1.5512611 0.59342158
-0.71500522 1.5256608 0.41136083
-0.70364076 1.5014174 0.24180609
-0.78528941 1.6893463 1.7403926
-0.76668638 1.6478376 1.4069196
-0.75025153 1.6117891 1.1303401
-0.73866701 1.5847496 0.89572603
-0.72867352 1.5626085 0.68922031
-0.71930724 1.5418321 0.50106418
-0.70759624 1.5167352 0.3256478
-0.69928133 1.4982417 0.16037214
-0.62220752 1.3897698 7.3441014
-0.95548135 2.1069691 7.4431252
-1.0768638 2.3594263 6.1696019
-0.93575937 2.0427294 4.1848917
-0.87185204 1.8979989 3.1402533
-0.83527303 1.815878 2.4696853
-1.2619536 2.9432678 29.823862
-0.88060015 1.9617375 8.316452
-1.0354322 2.2865341 6.8800101
-1.0007912 2.1988564 5.0591087
-0.90956432 1.9919899 3.6520593
-0.84847081 1.8547826 2.7755663
-0.8126232 1.7731696 2.1927891
-0.79753691 1.7259172 1.948175
-0.77442765 1.6736268 1.5693445
-0.75977999 1.6412305 1.2703589
-0.74554706 1.6090287 1.0148336
-0.73539394 1.5864019 0.79478431
-0.72469389 1.5626165 0.59624165
-0.71327668 1.5373069 0.41322607
-0.70206243 1.5131429 0.24270025
-0.78533798 1.7057797 1.7536945
-0.76571625 1.6616495 1.415749
-0.7497533 1.6262727 1.1379397
-0.73637968 1.5958161 0.89992213
-0.72662663 1.5739696 0.69250727
-0.71745777 1.5534079 0.50340879
-0.70591998 1.5284325 0.32702917
-0.69771451 1.509986 0.1607752
-0.61327803 1.3892823 7.3245206
-0.96233886 2.152992 7.5862846
-1.0761045 2.3919437 6.2386398
-0.93356359 2.0674076 4.2243934
-0.87052006 1.9233482 3.1733167
-0.8304106 1.8321924 2.4850352
-1.2485027 2.958837 29.908379
-0.86522239 1.9575791 8.2777367
-1.0232503 2.2957904 6.8893957
-0.99662489 2.2246237 5.1041212
-0.90628034 2.0163829 3.6861866
-0.84454465 1.8764176 2.7995064
-0.80874383 1.7935532 2.2111647
-0.79470897 1.7429115 1.9621931
-0.77211785 1.6918228 1.5818983
-0.7563861 1.6565971 1.2785833
-0.74263573 1.6249974 1.02179
-0.73258066 1.6030071 0.80040342
-0.720218 1.57524 0.59906173
-0.70903534 1.5500779 0.41509131
-0.69774187 1.5260984 0.24359439
-0.78166783 1.7238767 1.7669965
-0.76085174 1.6772071 1.4245785
-0.74543422 1.6424696 1.1455393
-0.73252809 1.6125542 0.90621626
-0.72285724 1.591277 0.69743782
-0.7119773 1.5666119 0.50575346
-0.70066792 1.5417329 0.32841054
-0.69234729 1.5234367 0.16117826
-0.60214019 1.3763819 7.2461967
-0.96706069 2.1819341 7.6769524
-1.078931 2.4185071 6.2984724
-0.93587255 2.0900033 4.263895
-0.87287796 1.9438925 3.2022474
-0.83022833 1.8463415 2.5003853
-1.2407522 2.9620955 29.908379
-0.85908443 1.9575353 8.2680578
-1.0260208 2.3172193 6.9457088
-0.99826694 2.2429633 5.140131
-0.90985698 2.037643 3.720314
-0.84766746 1.8948327 2.8234465
-0.81160468 1.8108521 2.2295406
-0.79449278 1.758675 1.9762113
-0.77131605 1.7050129 1.5913138
-0.75606066 1.6705248 1.2868078
-0.7427265 1.6395564 1.0287464
-0.73136836 1.6137457 0.80414945
-0.72120851 1.5906017 0.60329181
-0.70849317 1.5611211 0.41695657
-0.69759363 1.5371106 0.24448855
-0.7829802 1.7396723 1.7802985
-0.76309872 1.6939346 1.4363512
-0.7464453 1.6562058 1.1531388
-0.73231965 1.6226128 0.91041237
-0.72313142 1.6015207 0.70072484
-0.71242297 1.5770826 0.50809807
-0.70124531 1.5523447 0.3297919
-0.69327015 1.5339885 0.16158132
-0.59449911 1.3719351 7.2119303
-0.97323817 2.2167332 7.7867074
-1.0815371 2.4472759 6.3629079
-0.93731099 2.1129611 4.3033972
-0.87409288 1.9649256 3.231178
-0.82899517 1.8609399 2.5157351
-0.8497411 1.9547583 8.2438612
-1.0241636 2.3350101 6.9879436
-0.99833483 2.2643621 5.1806421
-0.91012341 2.0575025 3.7501755
-0.84837288 1.9143093 2.8473866
-0.8107813 1.826068 2.2442412
-0.79417604 1.7744582 1.9902295
-0.77172703 1.7219026 1.6038677
-0.75535709 1.6846002 1.2950323
-0.74244016 1.6542634 1.0357027
-0.73142749 1.6289762 0.80976856
-0.71958327 1.6018612 0.60611188
-0.70706838 1.5725452 0.41882181
-0.69835043 1.5531621 0.24582979
-0.78298455 1.7560354 1.7936004
-0.76212287 1.7076613 1.4451805
-0.74593198 1.6706101 1.1607383
-0.73220867 1.6375889 0.91670656
-0.72332132 1.616967 0.7056554
-0.71287006 1.5928695 0.51161504
-0.70189089 1.5683432 0.33186394
-0.69199443 1.5455185 0.16198438
-0.97799391 2.2488639 7.8869195
-1.0839554 2.4760923 6.4273434
-0.93860042 2.1359539 4.3428984
-0.87517154 1.9859905 3.2601087
-0.82896405 1.8784845 2.5349226
-1.2178159 2.9652612 29.853691
-0.8409245 1.9530941 8.2245026
-1.0235696 2.3559813 7.0395637
-1.0000077 2.2897782 5.230155
-0.91130871 2.0797772 3.7843029
-0.84895247 1.9338137 2.8713269
-0.81122637 1.8444036 2.2626171
-0.79375887 1.7902603 2.0042477
-0.77202946 1.7388158 1.6164215
-0.75626177 1.7025123 1.3059981
-0.74026048 1.6649406 1.0403403
-0.72950512 1.639991 0.81351459
-0.71983838 1.6175113 0.61034197
-0.70557243 1.5839782 0.42068705
-0.69697726 1.5646886 0.24672395
-0.7828843 1.7724198 1.8069026
-0.76106054 1.7214018 1.4540101
-0.74707079 1.6889732 1.170871
-0.73200196 1.6525838 0.92300069
-0.7234121 1.6324335 0.71058589
-0.71124566 1.6042352 0.51395965
-0.70042634 1.5798379 0.33324531
-0.69064659 1.5570583 0.16238745
-0.98312753 2.2824254 7.9919028
-1.0861856 2.5049551 6.4917789
-0.93974078 2.1589813 4.3824
-0.87498784 2.0045075 3.2849064
-0.82753682 1.8931144 2.5502727
-1.2086622 2.9724569 29.88352
-0.83311594 1.9537051 8.2148237
-1.0214778 2.3738062 7.081799
-1.0032436 2.3192296 5.288671
-0.91131145 2.0996928 3.8141649
-0.84820467 1.9505819 2.8912768
-0.8101992 1.8596561 2.2773178
-0.7932409 1.8060811 2.0182657
-0.77222311 1.7557518 1.6289753
-0.75536638 1.7166238 1.3142223
-0.73980075 1.6796765 1.0472968
-0.72938401 1.6552546 0.8191337
-0.71805799 1.628793 0.61316204
-0.70400518 1.5954196 0.42255229
-0.69553208 1.5762241 0.24761811
-0.78267902 1.7888247 1.8202046
-0.76153284 1.738858 1.4657828
-0.74636048 1.703416 1.1784705
-0.73169953 1.6675972 0.92929488
-0.72150552 1.6435966 0.71387291
-0.71150494 1.6200591 0.51747662
-0.69888997 1.5913414 0.33462667
-0.68922669 1.5686074 0.16279051
-0.98452467 2.3078117 8.0682545
-1.0874566 2.532068 6.5516114
-0.94167984 2.184242 4.426291
-0.87468565 2.0230474 3.3097041
-0.82601744 1.9077572 2.5656228
-1.1992739 2.9791303 29.908379
-0.82580233 1.9554436 8.2099848
-1.0172445 2.386883 7.1099558
-1.0045714 2.3447289 5.3381844
-0.91221595 2.1220295 3.8482921
-0.84854203 1.970136 2.9152172
-0.81041855 1.8780367 2.2956934
-0.79262215 1.8219198 2.032284
-0.77230787 1.7727103 1.6415291
-0.75438178 1.7307495 1.3224468
-0.73924708 1.6944293 1.0542531
-0.72916514 1.6705369 0.82475281
-0.71812731 1.6444782 0.61739212
-0.70236671 1.6068696 0.42441753
-0.69401491 1.5877686 0.24851227
-0.78088403 1.8018235 1.830181
-0.76028401 1.7526301 1.4746124
-0.7455585 1.7178744 1.1860701
-0.73130107 1.6826283 0.93558902
-0.72141278 1.6590967 0.71880347
-0.70972341 1.6314472 0.51982123
-0.69925714 1.6073942 0.33669871
-0.68773448 1.5801655 0.16319357
-0.99272662 2.349736 8.2018709
-1.0885513 2.5592201 6.6114445
-0.94533467 2.2139475 4.47896
-0.87537223 2.0441966 3.3386347
-0.82566911 1.9253581 2.5848103
-1.1890647 2.9837937 29.913351
-0.81848657 1.9571544 8.2051458
-1.0089065 2.3904195 7.1099558
-1.0065837 2.3722696 5.3921986
-0.91195405 2.1419983 3.8781536
-0.84757084 1.9869442 2.9351673
-0.8105194 1.8964412 2.3140695
-0.79331356 1.8410515 2.0498068
-0.77074152 1.7861168 1.6509445
-0.75330758 1.7448891 1.3306712
-0.73859942 1.7091987 1.0612096
-0.72700876 1.6815826 0.82849884
-0.71619135 1.6557807 0.62021226
-0.70260841 1.6228353 0.4272154
-0.69242549 1.5993217 0.24940643
-0.7804805 1.8182626 1.843483
-0.75894821 1.7664146 1.4834417
-0.74466443 1.7323476 1.1936696
-0.73080653 1.6976769 0.94188321
-0.72122061 1.6746161 0.72373396
-0.70979446 1.6473063 0.5233382
-0.69756114 1.618921 0.33808005
-0.6881476 1.5963199 0.16379817
-0.69589818 1.686124 8.7930889
-0.99834359 2.3862367 8.3163977
-1.0955362 2.6008141 6.7080975
-0.94786066 2.2414987 4.5272398
-0.87592167 2.0653746 3.3675654
-0.82395494 1.9400294 2.6001604
-1.1751224 2.9790001 29.823862
-0.8116498 1.9599994 8.2051458
-1.0005562 2.3939264 7.1099558
-1.0050428 2.3918247 5.4282084
-0.91257679 2.1643939 3.912281
-0.84883773 2.0093212 2.9630976
-0.81182283 1.917991 2.3361204
-0.7924813 1.8569298 2.0638249
-0.77062052 1.8031131 1.6634983
-0.75214386 1.7590423 1.3388957
-0.73785752 1.7239839 1.0681659
-0.72660893 1.6968951 0.83411795
-0.71607423 1.671499 0.62444234
-0.70081121 1.6343073 0.42908064
-0.69272649 1.6154598 0.25074768
-0.7799716 1.8347206 1.8567851
-0.75910795 1.7839303 1.4952143
-0.74367851 1.7468356 1.2012691
-0.73021579 1.7127423 0.94817728
-0.71907604 1.6858103 0.72702098
-0.70976329 1.6631856 0.52685511
-0.69579315 1.6304554 0.33946142
-0.68649471 1.6079018 0.16420123
-0.69039327 1.6894853 8.7979832
-1.0065737 2.4297004 8.4547863
-1.0864511 2.6046226 6.7080975
-0.95113075 2.2713034 4.5799088
-0.87633383 2.0865812 3.3964961
-0.82214832 1.954712 2.6155102
-1.1705309 2.9979811 29.973007
-0.80480319 1.9628208 8.2051458
-0.99285358 2.398999 7.1146483
-1.008395 2.4234574 5.4912257
-0.91305429 2.1868198 3.9464085
-0.84879571 2.0289509 2.9870377
-0.81167525 1.9364464 2.3544962
-0.79293603 1.8761095 2.0813477
-0.77039015 1.82013 1.6760521
-0.75089043 1.7732083 1.3471199
-0.73875016 1.7428632 1.0774411
-0.72611099 1.7122252 0.83973712
-0.71585602 1.6872364 0.62867242
-0.70086265 1.6503078 0.43187848
-0.6909765 1.6270355 0.25164184
-0.77935725 1.851197 1.870087
-0.75758505 1.7977437 1.5040439
-0.74427503 1.7653097 1.2114018
-0.72952873 1.7278242 0.95447153
-0.71869957 1.7013601 0.73195153
-0.70773768 1.6746074 0.52919978
-0.6939531 1.6419971 0.34084278
-0.68476915 1.6194912 0.16460429
-0.69098157 1.7079318 8.8812027
-1.0133796 2.4704881 8.5836287
-1.0840642 2.6246507 6.7495203
-0.95236957 2.2967331 4.6237998
-0.87660849 2.1078157 3.4254265
-0.82764292 1.9871589 2.6538854
-1.1600587 3.0020487 29.973007
-0.79841954 1.966783 8.2099848
-0.98447347 2.4024501 7.1146483
-1.0181723 2.4712448 5.5902524
-0.91338623 2.2092752 3.980536
-0.85093313 2.0541725 3.0189579
-0.81140846 1.9549237 2.3728719
-0.79326636 1.8953146 2.0988705
-0.77005035 1.837167 1.6886059
-0.74954724 1.787387 1.3553444
-0.73780537 1.7576852 1.0843976
-0.72551471 1.7275722 0.84535617
-0.71367842 1.69857 0.6314925
-0.70081079 1.6663285 0.43467635
-0.69108474 1.6432091 0.25298306
-0.77863735 1.8676916 1.8833891
-0.75753146 1.8152982 1.5158166
-0.74309075 1.7798311 1.2190014
-0.72874522 1.7429222 0.96076572
-0.71822333 1.7169276 0.73688203
-0.70751756 1.6905191 0.53271675
-0.69204086 1.6535457 0.34222415
-0.68297106 1.6310883 0.16500735
-0.68728638 1.7160052 8.910574
-1.0199127 2.5113521 8.7124729
-1.0778537 2.6356521 6.7679305
-0.95435184 2.3244147 4.6720796
-0.87781698 2.1316795 3.4584901
-0.82925481 2.010778 2.680748
-1.1484306 3.0030923 29.943178
-0.79201788 1.9707241 8.2148237
-0.97608143 2.4058721 7.1146483
-1.0268056 2.5171137 5.6847777
-0.91456038 2.2341731 4.0189295
-0.85176134 2.0766456 3.0468879
-0.81231117 1.9765583 2.394923
-0.79347229 1.9145448 2.1163931
-0.76960081 1.8542237 1.7011597
-0.74971765 1.8054395 1.3663102
-0.73676604 1.7725213 1.0913539
-0.72482014 1.7429359 0.85097528
-0.71327311 1.7143381 0.63572258
-0.69876707 1.677834 0.43654159
-0.69108838 1.659403 0.25432429
-0.77923638 1.8876547 1.9000165
-0.75736445 1.8328742 1.5275892
-0.74181408 1.7943654 1.2266009
-0.72786504 1.7580352 0.96705979
-0.71764702 1.7325125 0.74181259
-0.70533395 1.7019591 0.53506136
-0.69005644 1.6651009 0.34360549
-0.68110031 1.6426923 0.16541041
-0.68204242 1.7202867 8.9203644
-1.0289567 2.5592165 8.8651762
-1.0686469 2.6393983 6.7679305
-0.95525068 2.3499191 4.7159705
-0.87780708 2.152971 3.487421
-0.83192354 2.0373998 2.711448
-1.1390725 3.0100741 29.973007
-0.78559852 1.9746448 8.2196636
-0.96767735 2.4092646 7.1146483
-1.0286099 2.5469239 5.7432938
-0.91557175 2.2591059 4.057323
-0.8535766 2.1019411 3.0788083
-0.81179506 1.9950829 2.4132988
-0.79355341 1.9337991 2.1339159
-0.7705211 1.8748997 1.7168521
-0.7481811 1.8196474 1.3745347
-0.73563206 1.7873716 1.0983104
-0.72402704 1.7583156 0.85659432
-0.71093905 1.7256881 0.63854265
-0.69852412 1.6938868 0.43933943
-0.68908882 1.671013 0.25521845
-0.77829278 1.9041882 1.9133185
-0.75555342 1.8467299 1.5364187
-0.74044502 1.8089126 1.2342005
-0.72688824 1.7731636 0.97335398
-0.71697068 1.7481141 0.74674314
-0.70492417 1.7179011 0.53857833
-0.6898796 1.6812437 0.34567752
-0.68105412 1.6589247 0.166015
-0.67900819 1.7302401 8.9595261
-1.0305036 2.5891442 8.9558439
-1.0594273 2.6431124 6.7679305
-0.95598298 2.3754578 4.7598615
-0.87871242 2.176898 3.5204844
-0.83441639 2.0640643 2.7421479
-1.126503 3.0085404 29.918322
-0.78008235 1.9808838 8.2341814
-0.9592616 2.4126277 7.1146483
-1.0286022 2.5727344 5.7928071
-0.91739112 2.2864931 4.0999818
-0.8541016 2.1244786 3.1067383
-0.81115931 2.0136273 2.4316745
-0.79350978 1.9530774 2.1514387
-0.76983941 1.8919992 1.7294059
-0.74813092 1.8377393 1.3855006
-0.73440337 1.8022356 1.1052668
-0.72313547 1.7737108 0.86221349
-0.71034628 1.7414845 0.64277273
-0.6981777 1.7099582 0.44213733
-0.68889904 1.6872396 0.2565597
-0.77864373 1.9241991 1.9299461
-0.75517225 1.8643414 1.5481913
-0.74060237 1.827467 1.2443333
-0.72581458 1.788306 0.97964811
-0.71619397 1.7637317 0.75167364
-0.70441175 1.7338609 0.54209524
-0.68773448 1.6928172 0.34705889
-0.67902166 1.6705483 0.16641806
-0.67296433 1.7325996 8.9595261
-1.031307 2.6177249 9.0417395
-1.050915 2.6486104 6.7725325
-0.95743465 2.4032547 4.8081408
-0.87946129 2.2008572 3.5535481
-0.83554232 2.0877953 2.7690105
-1.1146985 3.0089552 29.88352
-0.77316308 1.9835948 8.2341814
-0.9508341 2.4159613 7.1146483
-1.0284268 2.5985754 5.84232
-0.91903037 2.31392 4.1426415
-0.85447961 2.1470449 3.1346686
-0.810404 2.0321918 2.4500504
-0.79334122 1.9723788 2.1689615
-0.76904756 1.9091165 1.7419597
-0.74796349 1.855853 1.3964664
-0.73307967 1.8171124 1.1122231
-0.72214514 1.7891212 0.8678326
-0.70965165 1.7572978 0.64700282
-0.69588649 1.7214934 0.44400257
-0.6867379 1.698868 0.25745386
-0.77886432 1.9442353 1.9465735
-0.75467736 1.8819728 1.5599639
-0.739034 1.8420435 1.2519327
-0.72633612 1.8076739 0.98804033
-0.71531695 1.7793651 0.75660414
-0.70379633 1.7498378 0.54561222
-0.68736494 1.7089908 0.34913093
-0.67878133 1.6868125 0.16702266
-0.66362542 1.7263843 8.9154701
-1.0324653 2.6477325 9.1324072
-1.0416633 2.6522627 6.7725325
-0.95958245 2.4333186 4.8608098
-0.88108844 2.2274647 3.5907447
-0.83533216 2.1085787 2.7920356
-1.1041887 3.0128279 29.88352
-0.76623434 1.9862815 8.2341814
-0.94239497 2.4192657 7.1146483
-1.0304654 2.6305273 5.9053373
-0.92048925 2.3413863 4.1853008
-0.85471034 2.1696396 3.1625988
-0.80952889 2.0507753 2.4684262
-0.79304749 1.9917026 2.1864841
-0.7667039 1.9226357 1.7513751
-0.7461291 1.8701037 1.4046907
-0.73166114 1.832002 1.1191796
-0.72105587 1.804546 0.87345165
-0.70885533 1.7731272 0.65123296
-0.69534826 1.7375939 0.44680041
-0.68635422 1.7151254 0.25879508
-0.77895457 1.9642967 1.963201
-0.75555956 1.9033797 1.5746796
-0.73896408 1.8606378 1.2620655
-0.72505391 1.8228499 0.99433452
-0.71433949 1.7950137 0.76153469
-0.70307797 1.7658314 0.54912919
-0.68689072 1.7251823 0.35120299
-0.67843562 1.7030954 0.16762725
-0.65397608 1.719173 8.8665171
-1.0339642 2.679173 9.2278471
-1.0331066 2.6577034 6.7771349
-0.96066111 2.4611952 4.9090896
-0.88151467 2.2514896 3.6238084
-0.83615702 2.13237 2.818898
-1.0936651 3.0166638 29.88352
-0.75705528 1.9830725 8.2099848
-0.93332374 2.4209304 7.1099558
-1.0275718 2.6503463 5.9413471
-0.9227131 2.371321 4.2322259
-0.85479361 2.1922617 3.1905289
-0.80976754 2.0725348 2.4904773
-0.79262841 2.0110481 2.2040069
-0.76570421 1.939782 1.7639289
-0.74574023 1.8882532 1.4156566
-0.73177606 1.8510231 1.1284548
-0.71986777 1.8199849 0.87907082
-0.70795709 1.7889723 0.65546304
-0.69470608 1.7537115 0.44959828
-0.68586528 1.7314006 0.26013631
-0.77891403 1.9843822 1.9798286
-0.75482345 1.9210538 1.5864522
-0.73877323 1.8792539 1.2721982
-0.72533709 1.8422618 1.0027267
-0.71326149 1.8106771 0.76646519
-0.70225644 1.7818412 0.5526461
-0.68449599 1.7367837 0.35258433
-0.67615187 1.7147486 0.16803031
-0.64797109 1.7214453 8.8665171
-1.0336585 2.7064724 9.3089705
-1.0238231 2.6612935 6.7771349
-0.96241969 2.491343 4.9617591
-0.88280046 2.2781684 3.6610048
-0.83682591 2.1561928 2.8457606
-1.082229 3.0179541 29.858664
-0.74879605 1.9821752 8.195466
-0.92609751 2.427398 7.1193409
-1.0354695 2.698632 6.0403738
-0.92380184 2.3988657 4.2748857
-0.85581404 2.2177219 3.2224488
-0.80986398 2.0943208 2.5125282
-0.79337978 2.0337369 2.225034
-0.76601052 1.9605705 1.7796211
-0.74523377 1.9064227 1.4266225
-0.73015285 1.8659418 1.1354111
-0.71858048 1.8354371 0.88468987
-0.7069568 1.8048325 0.65969312
-0.69395971 1.7698455 0.45239612
-0.68345326 1.7430569 0.2610305
-0.77874267 2.0044906 1.996456
-0.75397295 1.9387455 1.5982249
-0.73846132 1.8978908 1.2823309
-0.72384566 1.8574688 1.0090209
-0.71208268 1.8263546 0.77139574
-0.70133162 1.7978665 0.55616307
-0.68382823 1.7530029 0.3546564
-0.67561144 1.7310604 0.16863491
-0.64337915 1.7275136 8.8860979
-1.0205114 2.7002897 9.2755671
-1.0152223 2.6666772 6.7817378
-0.96397942 2.5215328 5.0144277
-0.88391072 2.3048835 3.6982014
-0.83618933 2.1770535 2.8687856
-0.74407238 1.9906639 8.2196636
-0.92005628 2.4370737 7.1381121
-1.0353156 2.7266521 6.0943885
-0.92470938 2.4264464 4.3175449
-0.85559219 2.2404008 3.2503791
-0.80981815 2.1161325 2.5345793
-0.79269803 2.0531287 2.2425568
-0.7647773 1.977754 1.7921749
-0.74460936 1.9246117 1.4375885
-0.73003405 1.8850025 1.1446863
-0.71719414 1.8509027 0.89030898
-0.7075882 1.8251801 0.66533327
-0.69310915 1.7859956 0.455194
-0.68276972 1.7593598 0.26237172
-0.77710056 2.021137 2.009758
-0.75445992 1.9602268 1.6129408
-0.7364791 1.9125254 1.2899303
-0.72388995 1.8769221 1.0174131
-0.71080309 1.8420459 0.7763263
-0.70030344 1.8139069 0.55968004
-0.68305558 1.7692385 0.35672843
-0.6749652 1.7473892 0.16923951
-0.63804895 1.7316598 8.8958883
-0.98546433 2.635325 9.0417395
-1.0059077 2.6702046 6.7817378
-0.9670347 2.5562432 5.0758748
-0.88584328 2.3342643 3.7395308
-0.83655596 2.200932 2.895648
-1.0609572 3.0249326 29.853691
-0.91697776 2.4548199 7.180347
-1.0303849 2.7424767 6.1213951
-0.92635578 2.4565029 4.3644705
-0.85522234 2.2631049 3.2783093
-0.81083047 2.1411397 2.5603054
-0.7931633 2.0758717 2.2635841
-0.76482439 1.9985877 1.8078673
-0.7438671 1.9428192 1.4485543
-0.72979105 1.904085 1.1539615
-0.71736836 1.8707092 0.8978011
-0.70636785 1.8410752 0.66956335
-0.69215423 1.8021611 0.45799184
-0.68198067 1.7756791 0.26371297
-0.7766794 2.041286 2.0263855
-0.75336748 1.9779578 1.6247134
-0.73593867 1.9311975 1.3000631
-0.72218877 1.8921582 1.0237073
-0.70942253 1.8577502 0.78125679
-0.69917172 1.829962 0.56319702
-0.68217784 1.7854898 0.35880047
-0.67242932 1.759068 0.16964257
-0.63339472 1.7377033 8.9154701
-0.95968735 2.5939488 8.8890362
-1.0013566 2.6865141 6.8139553
-0.96901965 2.5887625 5.1329327
-0.88659233 2.3610523 3.7767274
-0.836766 2.2248394 2.9225106
-1.0524869 3.0346618 29.913351
-0.9143846 2.4741929 7.2272749
-1.0435596 2.8072729 6.2564316
-0.9250685 2.4792697 4.3985977
-0.85575944 2.2886558 3.3102293
-0.8104884 2.1630049 2.5823565
-0.7934792 2.0986423 2.2846115
-0.76335686 2.0158057 1.8204211
-0.74300665 1.9610448 1.4595201
-0.72785282 1.9190466 1.160918
-0.7157681 1.8862047 0.90342015
-0.7050451 1.8569838 0.67379349
-0.69109482 1.8183416 0.46078971
-0.68108594 1.7920142 0.2650542
-0.7761268 2.0614564 2.0430131
-0.75358582 1.999487 1.6394293
-0.73527682 1.9498888 1.3101958
-0.72039008 1.907405 1.0300014
-0.707941 1.8734672 0.78618735
-0.69793642 1.8460311 0.56671393
-0.68119484 1.8017564 0.36087251
-0.67158771 1.7754228 0.17024715
-0.62559891 1.7351141 8.8909931
-0.93780243 2.5622385 8.7697372
-0.99467641 2.6973252 6.8323655
-0.97245276 2.6258187 5.1987691
-0.88716513 2.3878736 3.8139238
-0.83681929 2.248775 2.9493732
-1.0425789 3.040334 29.933237
-0.91522217 2.5033021 7.3023591
-1.0502834 2.8558483 6.3554587
-0.92543966 2.5069501 4.441257
-0.85508329 2.3114119 3.3381598
-0.81118178 2.188072 2.6080825
-0.7936458 2.1214406 2.3056388
-0.76314396 2.0366821 1.8361133
-0.74202794 1.9792879 1.470486
-0.72737533 1.9381652 1.1701932
-0.71569812 1.9060524 0.91091239
-0.70530683 1.8773961 0.67943364
-0.68993074 1.8345364 0.46358755
-0.68008542 1.8083644 0.26639542
-0.77544284 2.0816476 2.0596406
-0.75225067 2.0172546 1.651202
-0.73449337 1.968599 1.3203285
-0.71849364 1.9226621 1.0362955
-0.70801198 1.8936195 0.79276139
-0.6965974 1.8621136 0.5702309
-0.68184161 1.8226758 0.36363521
-0.66888869 1.7871141 0.17065021
-0.61953843 1.7372872 8.8909931
-0.92631239 2.5584781 8.7458763
-0.99194962 2.7191346 6.8783908
-0.97481489 2.6606808 5.2602162
-0.88659048 2.412086 3.8469875
-0.83671552 2.2727375 2.9762356
-0.9094125 2.5145957 7.3258228
-1.0537038 2.8963213 6.4364805
