# .PCD v0.7 - Point Cloud Data file format
VERSION 0.7
FIELDS x y z
SIZE 4 4 4
TYPE F F F
COUNT 1 1 1
WIDTH 1494
HEIGHT 1
VIEWPOINT 0 0 0 1 0 0 0
POINTS 1494
DATA ascii
0.049154513 -0.043129154 5.9840455
0.80916333 -0.40046537 5.7398415
1.3037361 -0.63788337 7.0014353
1.0494802 -0.50717574 3.7734697
1.5224881 -0.73129559 4.0386333
1.9100155 -0.91421235 3.9478815
5.2167039 -2.4904017 8.5626822
0.21641351 -0.11984822 4.1175466
0.38812318 -0.1971063 4.0167866
0.86507839 -0.42191646 3.743196
1.2358339 -0.59781772 3.787477
1.5530329 -0.74765247 3.627723
4.6640177 -2.2385449 8.5322876
0.048973363 -0.043269083 5.9790454
0.7938593 -0.39634135 5.6410565
1.3069794 -0.64513534 7.030807
1.0436785 -0.50887299 3.7591536
1.5216843 -0.73745781 4.0432358
1.9089694 -0.92191565 3.9522705
5.2105145 -2.5098176 8.5668154
0.21599384 -0.12060292 4.1175466
0.38743278 -0.19845991 4.0167866
0.86134493 -0.42382327 3.7335172
1.2275366 -0.59909987 3.7687061
1.5406229 -0.74831283 3.6052167
4.6561751 -2.2548118 8.5322876
0.048822027 -0.043439768 5.9790454
0.78206331 -0.39386415 5.566968
1.3101878 -0.65241766 7.0601783
1.035199 -0.50921774 3.7352936
1.4980403 -0.7324658 3.9880056
1.8992807 -0.92542613 3.9391036
5.2017217 -2.5279903 8.5668154
0.21532056 -0.12121351 4.1125555
0.38673767 -0.19981109 4.0167866
0.8598603 -0.42682734 3.7335172
1.2176973 -0.59956896 3.7452421
1.5282276 -0.74889576 3.582711
4.6482763 -2.2710512 8.5322876
0.048640013 -0.043578319 5.9740458
0.74951577 -0.38074508 5.3447013
1.3088123 -0.65744424 7.0650735
1.0294042 -0.51083708 3.7209778
1.4586817 -0.71953839 3.8913527
1.8659486 -0.91725707 3.8776562
5.1953921 -2.5473711 8.5709476
0.21489613 -0.12196438 4.1125555
0.38603783 -0.20115983 4.0167866
0.85724127 -0.42926317 3.7286777
1.2078698 -0.59997666 3.7217784
1.5236527 -0.75326079 3.5782096
4.6403203 -2.2872629 8.5322876
0.048487596 -0.043747839 5.9740458
0.52970397 -0.27131742 3.7838957
1.3074178 -0.66246921 7.0699687
1.0222759 -0.51175374 3.7018898
1.4211813 -0.70721585 3.7993021
1.8348427 -0.90993088 3.8205981
5.1864686 -2.565491 8.5709476
0.21446909 -0.12271377 4.1125555
0.38580492 -0.20275459 4.0217581
0.85573763 -0.43225291 3.7286777
1.1995972 -0.60109645 3.7030075
1.5307542 -0.76343322 3.6007156
4.6346431 -2.3046076 8.5365534
0.048334595 -0.043916825 5.9740458
0.52668321 -0.27209386 3.769078
0.95243585 -0.4867183 5.1657252
1.0164862 -0.51329994 3.6875737
1.4099741 -0.70778936 3.7762895
1.818804 -0.90990037 3.7942636
5.1799998 -2.584836 8.5750809
0.21378994 -0.12331639 4.1075635
0.38556558 -0.20435016 4.0267296
0.85534346 -0.43580821 3.7335172
1.1882514 -0.60060847 3.6748505
1.5319693 -0.77072883 3.6097181
4.6265702 -2.3207717 8.5365534
0.048181001 -0.044085279 5.9740458
0.52710801 -0.27464941 3.7789567
0.96159053 -0.49564013 5.2244678
1.0146883 -0.51684505 3.6875737
1.3952947 -0.70652801 3.7440717
1.8327218 -0.92487651 3.8293765
5.1709461 -2.6029019 8.5750809
0.21335818 -0.1240619 4.1075635
0.38531977 -0.20594651 4.0317011
0.85381699 -0.43879125 3.7335172
1.1830729 -0.60318458 3.6654651
1.5350933 -0.77902752 3.6232216
4.6207685 -2.3380849 8.5408192
0.048026823 -0.044253193 5.9740458
0.52683377 -0.27684948 3.7838957
0.96346802 -0.50087309 5.2440486
1.0128779 -0.52038378 3.6875737
1.3893404 -0.70961666 3.7348666
1.8166763 -0.9247489 3.8030419
5.1618285 -2.6209359 8.5750809
0.21292382 -0.12480591 4.1075635
0.38459855 -0.20729028 4.0317011
0.85228014 -0.44176894 3.7335172
1.1717528 -0.60257465 3.6373084
1.5362401 -0.78636527 3.6322241
4.6125789 -2.3542001 8.5408192
0.047872055 -0.044420566 5.9740458
0.52929598 -0.28050768 3.8085921
0.96261543 -0.50470614 5.2489443
1.0110554 -0.52391624 3.6875737
1.3990117 -0.72072583 3.7670844
1.8113065 -0.92999059 3.7986526
5.1526484 -2.6389382 8.5750809
0.21248688 -0.12554839 4.1075635
0.38434076 -0.20888653 4.0366726
0.85073286 -0.44474128 3.7335172
1.1818967 -0.61301863 3.6748505
1.5373545 -0.79372054 3.6412265
4.6043329 -2.3702867 8.5408192
0.047716711 -0.044587404 5.9740458
0.52968377 -0.28308672 3.8184705
0.95994776 -0.50758713 5.2440486
1.0105432 -0.52813387 3.6923459
1.4207569 -0.73821735 3.8315196
1.8016694 -0.93300331 3.7854855
5.143405 -2.6569083 8.5750809
0.21204734 -0.12628935 4.1075635
0.38360927 -0.21022685 4.0366726
0.84695166 -0.44653535 3.7238383
1.1828077 -0.61874056 3.684236
1.5365053 -0.80008769 3.6457279
4.5960312 -2.3863444 8.5408192
0.047560778 -0.044753689 5.9740458
0.53142768 -0.2864098 3.8382275
0.95817012 -0.51093489 5.2440486
1.0100138 -0.53235424 3.6971178
1.4423969 -0.75586927 3.8959553
1.7941555 -0.93706882 3.7767072
5.1340995 -2.6748457 8.5750809
0.21160522 -0.12702875 4.1075635
0.38333941 -0.2118229 4.0416441
0.84871703 -0.45125991 3.7383566
1.1867456 -0.62608707 3.7030075
1.5356303 -0.80645841 3.650229
4.5853624 -2.4011631 8.5365534
0.047404271 -0.044919439 5.9740458
0.52974218 -0.28789175 3.8332882
0.95727742 -0.51475877 5.2489443
1.0107855 -0.53727818 3.7066617
1.4535674 -0.76820332 3.9327753
1.7887551 -0.94220978 3.7723184
5.1247315 -2.6927509 8.5750809
0.21116051 -0.12776662 4.1075635
0.38306308 -0.21341959 4.0466156
0.85267502 -0.45719063 3.7625537
1.1860763 -0.6310364 3.7077
1.5366534 -0.81385183 3.6592314
4.5769529 -2.4171543 8.5365534
0.047247179 -0.045084637 5.9740458
0.52805275 -0.28936541 3.8283491
0.95636982 -0.51858276 5.2538395
1.0181125 -0.54574084 3.7400656
1.4370848 -0.76592064 3.8959553
1.7918003 -0.95181888 3.7854855
5.1153007 -2.710623 8.5750809
0.21071324 -0.12850294 4.1075635
0.38324472 -0.21527846 4.0565586
0.85991859 -0.46494853 3.8012691
1.1869074 -0.63680476 3.7170856
1.5376437 -0.8212623 3.6682339
4.5684876 -2.4331162 8.5365534
0.047060557 -0.045216653 5.9690461
0.52703947 -0.2912069 3.8283491
0.95544702 -0.52240658 5.2587347
1.0293319 -0.55639112 3.7877855
1.4361231 -0.77185726 3.9005575
1.7948 -0.96146059 3.7986526
5.1058078 -2.7284625 8.5750809
0.2102634 -0.12923768 4.1075635
0.38295454 -0.21687806 4.0615301
0.88367069 -0.48179093 3.912576
1.186195 -0.64176524 3.7217784
1.5386006 -0.8286894 3.6772363
4.5599666 -2.4490483 8.5365534
0.046902437 -0.045380648 5.9690461
0.52534115 -0.29266635 3.8234098
0.9545092 -0.52623022 5.2636299
1.0391786 -0.56641167 3.8307333
1.4162447 -0.76755553 3.8545325
1.7956474 -0.96999657 3.807431
5.0962524 -2.7462683 8.5750809
0.20981099 -0.12997085 4.1075635
0.3826578 -0.21847825 4.0665016
0.90951806 -0.50001603 4.0335612
1.1778885 -0.64259559 3.7030075
1.5395244 -0.83613324 3.6862388
4.5536838 -2.4661927 8.5408192
0.046715006 -0.045511257 5.9640465
0.52499366 -0.29487917 3.8283491
0.95444626 -0.53054869 5.2734203
1.051584 -0.57794595 3.8832252
1.4701287 -0.80341536 4.0064158
1.79856 -0.97969586 3.8205981
5.0866351 -2.7640407 8.5750809
0.2096003 -0.13085632 4.1125555
0.38281634 -0.22034539 4.0764446
0.94953918 -0.52635199 4.2174592
1.1726142 -0.6450395 3.6936216
1.540415 -0.8435936 3.6952412
4.5450473 -2.4820731 8.5408192
0.046555854 -0.045674045 5.9640465
0.52396113 -0.29670995 3.8283491
0.95436466 -0.53487301 5.2832108
1.0704489 -0.59319192 3.9595766
1.4895585 -0.82080078 4.0662484
1.7993276 -0.98827416 3.8293765
5.0769558 -2.7817795 8.5750809
0.20938596 -0.13174188 4.1175466
0.38250563 -0.22194828 4.0814157
0.93562776 -0.52291572 4.1642261
1.1658285 -0.64661723 3.6795435
1.5393667 -0.85001796 3.6997426
4.5340705 -2.4966648 8.5365534
5.558063 -3.0555003 8.473321
0.046367634 -0.045803241 5.9590464
0.52427143 -0.29930824 3.8382275
0.95337826 -0.53870225 5.288106
1.0475235 -0.58527321 3.8832252
1.4849764 -0.82504642 4.061646
1.797962 -0.9957093 3.8337653
5.0696769 -2.8008451 8.5792131
0.209168 -0.13262755 4.1225386
0.38264829 -0.2238213 4.0913591
0.93379676 -0.52617854 4.1642261
1.160552 -0.64899802 3.6701579
1.5382919 -0.85644513 3.7042434
4.5435696 -2.5226045 8.5706806
5.5658116 -3.085109 8.5012512
0.046207469 -0.045964815 5.9590464
0.52456993 -0.30191231 3.8481061
0.95856899 -0.54606026 5.3272676
1.0454742 -0.5889262 3.8832252
1.4633391 -0.81972104 4.0110183
1.7965664 -1.0031469 3.8381546
5.0598693 -2.8185244 8.5792131
0.20894641 -0.13351332 4.1275301
0.38278249 -0.22569798 4.1013017
0.93195432 -0.52943486 4.1642261
1.1567764 -0.65219748 3.6654651
1.535293 -0.86180955 3.7042434
5.5418568 -3.0971682 8.4813013
0.046018466 -0.046092596 5.9540462
0.52485657 -0.30452204 3.8579845
0.96107143 -0.55193925 5.3517442
1.0550931 -0.59920776 3.926173
1.4349532 -0.81041145 3.9419801
1.7951407 -1.0105871 3.8425436
5.052454 -2.8375478 8.5833464
0.20847909 -0.13424185 4.1275301
0.38290831 -0.22757839 4.1112452
0.92791921 -0.53143501 4.1545467
1.1514925 -0.65452564 3.6560795
1.5322754 -0.86716348 3.7042434
2.1364875 -1.2057291 4.0829182
5.5441375 -3.1238902 8.5012512
0.045857295 -0.046252951 5.9540462
0.52446097 -0.30674487 3.8629239
0.96618754 -0.55937338 5.3909059
1.0309746 -0.59027582 3.8450491
1.370999 -0.78061169 3.7762895
1.7916023 -1.0168471 3.8425436
5.0425181 -2.8551669 8.5833464
0.20825078 -0.13512689 4.1325221
0.38302556 -0.22946233 4.1211877
0.92388165 -0.53341353 4.1448684
1.1462064 -0.65682483 3.6466939
1.5254577 -0.87034911 3.6952412
2.1503999 -1.223498 4.1170459
5.5253391 -3.1387584 8.4892807
0.045667522 -0.046379313 5.9490471
0.52338701 -0.30857372 3.8629239
0.97038418 -0.56633639 5.4251723
1.0224442 -0.59013927 3.8211894
1.3547114 -0.77761108 3.7394691
1.7901206 -1.0242844 3.8469329
5.034965 -2.8741462 8.5874796
0.20801878 -0.13601194 4.1375132
0.38313437 -0.23134992 4.1311312
0.91984147 -0.53537023 4.1351891
1.1424125 -0.65995848 3.6420014
1.5205233 -0.87458307 3.6907399
2.155165 -1.2361875 4.1341095
5.5143495 -3.1580267 8.4892807
0.045505349 -0.046538439 5.9490471
0.51963562 -0.3088097 3.8431668
1.0048969 -0.58469439 3.7639256
1.3486069 -0.78037792 3.7302639
1.7865343 -1.0305268 3.8469329
5.0249019 -2.8917041 8.5874796
0.20778319 -0.13689704 4.1425052
0.38323465 -0.23324102 4.1410737
0.91254699 -0.53539658 4.1109924
1.1386106 -0.6630736 3.6373084
1.5136948 -0.87770116 3.6817374
2.1485791 -1.2423973 4.1298437
5.5032921 -3.1772561 8.4892807
0.045342624 -0.046696998 5.9490471
0.51655543 -0.30942291 3.8283491
1.2860339 -0.76272696 7.2119303
0.99126238 -0.58140033 3.7209778
1.3475623 -0.78606528 3.7348666
1.7829261 -1.0367566 3.8469329
5.0147772 -2.9092267 8.5874796
0.20754394 -0.13778216 4.1474967
0.38378054 -0.23541483 4.1559887
0.90526336 -0.53537846 4.0867953
1.1348011 -0.66617036 3.6326158
1.5049838 -0.87968373 3.6682339
2.1554952 -1.2564572 4.1511736
5.4947724 -3.1979623 8.4932709
0.045151655 -0.046821266 5.944047
0.51414227 -0.31042027 3.8184705
1.2650124 -0.75623709 7.1091304
0.97637856 -0.57725847 3.6732578
1.3448101 -0.79076427 3.7348666
1.7813624 -1.044185 3.8513215
5.0045919 -2.9267139 8.5874796
0.20730104 -0.13866726 4.1524887
0.38476899 -0.23787598 4.1758747
0.89907086 -0.53595996 4.0674376
1.1309837 -0.66924846 3.627923
1.4962772 -0.881616 3.6547303
2.1510961 -1.2639736 4.1511736
5.4861746 -3.2186482 8.497261
0.044987943 -0.046978593 5.944047
0.51106489 -0.31100032 3.8036528
0.9743576 -0.58066314 3.6732578
1.3470833 -0.79844248 3.7486744
1.7777066 -1.0503968 3.8513215
4.9943452 -2.9441652 8.5874796
0.20729321 -0.13971464 4.1624718
0.38664922 -0.24091154 4.2057033
0.88749856 -0.53326684 4.0238829
1.1286407 -0.6731922 3.627923
1.4875758 -0.88349837 3.6412265
2.1264756 -1.2595122 4.1127801
5.4775 -3.2393129 8.5012512
0.044796232 -0.047101427 5.9390473
0.50931406 -0.31237584 3.7987137
1.0021222 -0.60856211 5.6601434
0.96208876 -0.5779103 3.6350818
1.3660898 -0.81616729 3.808507
1.7678564 -1.0529189 3.8381546
4.9840379 -2.961581 8.5874796
0.20704244 -0.14060052 4.1674633
0.38806176 -0.2436792 4.2305613
0.88563168 -0.53636146 4.0238829
1.1277629 -0.6780172 3.6326158
1.4788795 -0.88533086 3.627723
2.1086304 -1.2589052 4.0871844
5.4687476 -3.2599561 8.5052414
0.044631545 -0.047257509 5.9390473
0.50822055 -0.31415176 3.7987137
0.99999171 -0.61205643 5.6601434
0.96134245 -0.5820384 3.639854
1.3782945 -0.83000255 3.8499298
1.7539036 -1.0529195 3.8162091
4.9712553 -2.9775143 8.5833464
0.20702557 -0.14165032 4.1774464
0.39081019 -0.24731605 4.2703333
0.88268125 -0.53879458 4.019043
1.1298165 -0.68463308 3.6466939
1.4701885 -0.88711327 3.6142192
2.0885813 -1.2568445 4.057323
5.459918 -3.2805777 8.5092316
0.044466309 -0.047413014 5.9390473
0.50712085 -0.31592387 3.7987137
0.99524969 -0.61393911 5.6454577
0.95930493 -0.58539051 3.639854
1.3954291 -0.84697413 3.90516
1.7358745 -1.0503558 3.7854855
4.9608312 -2.994849 8.5833464
0.2067669 -0.14253692 4.1824384
0.39174119 -0.24982686 4.2902193
0.88507706 -0.54450768 4.0384007
1.1303651 -0.69037187 3.6560795
1.4633631 -0.88997722 3.6052167
2.0730319 -1.2573644 4.0359931
5.4484334 -3.2996163 8.5092316
0.044327635 -0.047602143 5.944047
0.506015 -0.31769216 3.7987137
0.98358977 -0.61149406 5.59161
0.95725572 -0.58873558 3.639854
1.3941307 -0.85285956 3.9097626
1.7199292 -1.048926 3.759151
4.9503469 -3.0121474 8.5833464
0.20674101 -0.14358906 4.1924219
0.39086676 -0.25119278 4.2902193
0.88530743 -0.54891908 4.04808
1.1338263 -0.69793236 3.6748505
1.4546798 -0.89166665 3.5917132
2.0552795 -1.2564309 4.0103974
5.4394541 -3.3201847 8.5132217
0.044161201 -0.047756582 5.944047
0.50490296 -0.31945655 3.7987137
0.97972387 -0.61384225 5.5818195
0.95392609 -0.59128684 3.6350818
1.3778419 -0.84951746 3.8729424
1.7019752 -1.0461438 3.7284274
4.9398026 -3.0294089 8.5833464
0.20623852 -0.14430985 4.1924219
0.39043471 -0.25284579 4.2951908
0.8855176 -0.55333853 4.0577583
1.1328495 -0.70279574 3.6795435
1.4497064 -0.89559466 3.5872121
2.0419996 -1.2581249 3.9933336
5.4252653 -3.3375731 8.5092316
0.044021085 -0.047944833 5.9490471
0.50378478 -0.32121703 3.7987137
0.97671431 -0.61671454 5.5769243
0.94932449 -0.59303099 3.6255379
1.3566155 -0.84297824 3.8223145
1.6860977 -1.0445104 3.7020931
4.9291983 -3.0466335 8.5833464
0.20596884 -0.14519615 4.1974134
0.3899959 -0.25449887 4.3001623
0.88464421 -0.55709618 4.0625978
1.1289263 -0.70583087 3.6748505
1.4428755 -0.89834827 3.5782096
2.0132244 -1.2501107 3.9464085
5.4135814 -3.3564901 8.5092316
0.043880194 -0.048132684 5.9540462
0.50266045 -0.32297358 3.7987137
0.97713238 -0.62176049 5.59161
0.94472247 -0.59475029 3.615994
1.3486977 -0.84459752 3.808507
1.6702522 -1.0427788 3.6757586
4.9185333 -3.0638211 8.5833464
0.20546074 -0.14591423 4.1974134
0.38776976 -0.25497881 4.2852473
0.88481659 -0.56152821 4.0722771
1.1016368 -0.69412595 3.5950737
1.437887 -0.90222222 3.5737085
2.0199022 -1.2640487 3.9677382
5.3992767 -3.3737698 8.5052414
0.043711912 -0.048285559 5.9540462
0.50152999 -0.32472625 3.7987137
0.97238505 -0.62351823 5.5769243
0.94011992 -0.59644467 3.6064501
1.3424373 -0.8472147 3.7993021
1.6544394 -1.0409495 3.6494238
4.9078088 -3.0809712 8.5833464
0.20495017 -0.14663054 4.1974134
0.3864333 -0.25603598 4.2802763
0.88390988 -0.56529075 4.077116
1.0860968 -0.68964064 3.5528388
1.432889 -0.90607232 3.5692072
2.0154777 -1.2710917 3.9677382
5.3976665 -3.3990188 8.5212011
0.0435431 -0.048437849 5.9540462
0.50039345 -0.32647493 3.7987137
1.2472554 -0.806005 7.1629782
0.93677473 -0.5989185 3.6016781
1.3130968 -0.83511871 3.7256618
1.6386603 -1.0390228 3.6230896
4.8970242 -3.098084 8.5833464
0.20467061 -0.14751478 4.202405
0.38199267 -0.25501227 4.2405043
0.88298768 -0.56905383 4.0819554
1.0676947 -0.68319488 3.5012183
1.4278817 -0.90989852 3.5647061
2.0088274 -1.2767203 3.9634721
5.3959455 -3.424298 8.5371618
0.043373756 -0.048589546 5.9540462
0.49989977 -0.32864678 3.8036528
1.2350496 -0.8042407 7.1091304
0.9334237 -0.60137612 3.5969059
1.2937261 -0.82915425 3.6796365
1.6249328 -1.0382881 3.6011441
4.8885527 -3.1166718 8.5874796
0.20415443 -0.1482283 4.202405
0.3793321 -0.25515243 4.2206182
0.88204998 -0.57281733 4.0867953
1.0551518 -0.68037045 3.468369
1.4246968 -0.91487718 3.5647061
2.0043585 -1.2837247 3.9634721
5.3966522 -3.4512298 8.5571108
0.043177631 -0.048705801 5.9490471
0.49874955 -0.33038974 3.8036528
1.229681 -0.8068707 7.0944448
0.93131876 -0.60463077 3.5969059
1.2727722 -0.82200474 3.6290085
1.6233122 -1.0452507 3.6055334
4.8776441 -3.1337171 8.5874796
0.20363577 -0.14894003 4.202405
0.3762342 -0.25497767 4.1957607
0.88109684 -0.57658124 4.0916348
1.0571113 -0.68687057 3.4824471
1.4214946 -0.91984475 3.5647061
1.9560405 -1.262427 3.8781536
5.3947039 -3.4765756 8.5730715
0.043007351 -0.048856225 5.9490471
0.49823928 -0.33256039 3.8085921
0.82940054 -0.54828691 4.8034787
0.92920256 -0.60787797 3.5969059
1.2567962 -0.81791657 3.5921884
1.6176447 -1.0496069 3.6011441
4.8690376 -3.1522532 8.5916128
0.20334637 -0.14982212 4.2073965
0.37358212 -0.25508538 4.1758747
0.87907887 -0.57965338 4.0916348
1.0532635 -0.68961096 3.4777546
1.4182751 -0.92480105 3.5647061
1.9144552 -1.2450737 3.8056326
5.3951707 -3.5035913 8.5930214
0.042836551 -0.049006052 5.9490471
0.49707538 -0.33429754 3.8085921
0.82832897 -0.55174339 4.8083739
0.92707503 -0.61111778 3.5969059
1.2392308 -0.81265539 3.5507658
1.6159756 -1.0565579 3.6055334
4.8580046 -3.1692302 8.5916128
0.20282215 -0.15053102 4.2073965
0.37181166 -0.25578278 4.1659317
0.87809682 -0.58341408 4.0964737
1.0479692 -0.69138247 3.468369
1.4186769 -0.93213713 3.5737085
1.8599274 -1.2188686 3.7075164
5.3955154 -3.5306523 8.6129723
0.042639341 -0.049120154 5.944047
0.49590546 -0.3360306 3.8085921
0.82724321 -0.55519903 4.8132687
0.92493618 -0.61435014 3.5969059
1.2233475 -0.80835903 3.5139456
1.6122776 -1.0621922 3.6055334
4.8492637 -3.1877143 8.595746
0.20229547 -0.15123808 4.2073965
0.37004092 -0.25647098 4.1559887
0.87501073 -0.58577633 4.0916348
1.0426755 -0.69312537 3.4589834
1.4117843 -0.93467987 3.5647061
1.8382508 -1.2138559 3.6733885
5.3932204 -3.5560997 8.628932
0.04246762 -0.049268696 5.944047
0.49472949 -0.33775958 3.8085921
0.81686682 -0.5523777 4.7643166
0.92278606 -0.61757511 3.5969059
1.2058834 -0.8028788 3.4725227
1.6125506 -1.0704629 3.6143112
4.8381066 -3.2046223 8.595746
0.20153639 -0.15176871 4.202405
0.36826986 -0.25714988 4.1460457
0.87817031 -0.59234232 4.1158314
1.030214 -0.69003731 3.4261341
1.3994585 -0.93356144 3.5421999
1.8188035 -1.2101517 3.643527
5.395833 -3.5849085 8.6528721
0.042295381 -0.049416639 5.944047
0.49354744 -0.33948448 3.8085921
0.81914043 -0.55809325 4.7887931
0.92062473 -0.62079245 3.5969059
1.1868503 -0.79619807 3.4264975
1.6127856 -1.0787486 3.6230896
4.8292317 -3.2230527 8.5998783
0.2010054 -0.15247127 4.202405
0.36649865 -0.25781959 4.1361027
0.87401831 -0.5939908 4.106153
1.0306596 -0.69556028 3.4355197
1.3835446 -0.92993921 3.5106914
1.8080697 -1.2121361 3.6307294
5.3882947 -3.6070747 8.6608524
0.042122625 -0.049563974 5.944047
0.49235943 -0.34120521 3.8085921
0.8205446 -0.56325489 4.8083739
0.91968673 -0.62484127 3.6016781
1.1759713 -0.79486531 3.4034851
1.6129822 -1.0870488 3.6318676
4.8179517 -3.2398903 8.5998783
0.20024326 -0.15299582 4.1974134
0.36516181 -0.2587887 4.1311312
0.86156946 -0.58993477 4.0577583
1.0267985 -0.69818318 3.4308267
1.3694754 -0.92743832 3.4836841
1.8059888 -1.2199 3.6349955
5.3831654 -3.6309164 8.672822
0.041923966 -0.049675222 5.9390473
0.49180228 -0.34336689 3.8135312
0.91873163 -0.62889105 3.6064501
1.1780336 -0.80226475 3.4172924
1.6131405 -1.0953636 3.640646
4.806613 -3.2566884 8.5998783
0.19970798 -0.15369387 4.1974134
0.36382273 -0.25975162 4.1261597
0.85329777 -0.58865499 4.0287223
1.0286257 -0.7046895 3.444905
1.3500464 -0.92116934 3.4431732
1.7995634 -1.2247292 3.6307294
5.3629818 -3.6446037 8.6608524
0.041750312 -0.049821261 5.9390473
0.49060071 -0.34508151 3.8135312
0.91898823 -0.63378948 3.615994
1.1720042 -0.80416113 3.4080875
1.6132601 -1.1036927 3.6494238
4.7952161 -3.2734466 8.5998783
0.19917028 -0.15439005 4.1974134
0.36204892 -0.26039672 4.1162167
0.83575732 -0.58086675 3.9561307
1.0275797 -0.70925617 3.4495978
1.3450288 -0.92464292 3.4386718
1.7974283 -1.2324784 3.6349955
5.3551998 -3.6667066 8.6688318
0.041601297 -0.050002355 5.944047
0.49002689 -0.34724146 3.8184705
0.96708643 -0.67890537 5.7042003
0.90941584 -0.63188201 3.5873621
1.1675831 -0.80713618 3.4034851
1.6113697 -1.1106765 3.6538131
4.7837601 -3.2901652 8.5998783
0.1984033 -0.15490577 4.1924219
0.36070636 -0.26134571 4.1112452
0.81622273 -0.57152104 3.8738606
1.0279311 -0.71480948 3.4589834
1.3364244 -0.92561352 3.4251683
1.7845323 -1.2328154 3.6179318
5.3274856 -3.6751111 8.6448927
0.041426498 -0.050147265 5.944047
0.48944402 -0.34940162 3.8234098
0.97302276 -0.68815786 5.7531524
0.90475911 -0.6333403 3.5778182
1.1615525 -0.80897367 3.39428
1.6094501 -1.1176606 3.6582022
4.7722464 -3.3068438 8.5998783
0.19786137 -0.15559737 4.1924219
0.35893136 -0.26197386 4.1013017
0.81216872 -0.57291722 3.8641818
1.026843 -0.7193836 3.4636762
1.3314 -0.92902702 3.4206672
1.7695153 -1.2315873 3.596602
5.3220472 -3.6988442 8.6568623
0.041226305 -0.050255731 5.9390473
0.48885196 -0.35156196 3.8283491
0.96978557 -0.69095916 5.7482576
0.89888364 -0.63391328 3.5635023
1.153924 -0.80965656 3.3804724
1.605539 -1.1232719 3.6582022
4.760674 -3.3234816 8.5998783
0.19731702 -0.1562871 4.1924219
0.35672724 -0.26227665 4.0863876
0.80709052 -0.57356375 3.8496633
1.0257353 -0.72395879 3.468369
1.3245873 -0.93116468 3.4116647
1.7523932 -1.228772 3.5710063
5.3140402 -3.7208557 8.6648417
0.041050628 -0.050399333 5.9390473
0.48762184 -0.35326621 3.8283491
0.61503243 -0.44134802 3.6628907
0.89423186 -0.63531774 3.5539584
1.1542813 -0.81593519 3.3896773
1.5996506 -1.1274894 3.6538131
4.7490439 -3.3400793 8.5998783
0.19699524 -0.15715584 4.1974134
0.35495347 -0.26288494 4.0764446
0.80406159 -0.57564563 3.8448241
1.0246083 -0.728535 3.4730618
1.3195523 -0.93452442 3.4071634
1.7395732 -1.2288623 3.5539424
2.1468568 -1.5143653 3.5536211
0.040899098 -0.050578326 5.944047
0.48701313 -0.35542452 3.8332882
0.61678815 -0.44587925 3.6824715
0.89079499 -0.63756639 3.5491862
1.1577911 -0.82449293 3.4080875
1.5957052 -1.1330664 3.6538131
4.7396522 -3.3582633 8.6040115
0.19644547 -0.15784252 4.1974134
0.3527528 -0.26316485 4.0615301
0.7938925 -0.57256526 3.8061085
1.022059 -0.7321071 3.4730618
1.3180543 -0.94038922 3.4116647
1.7331482 -1.2334146 3.5496764
2.1538386 -1.5305777 3.5735712
0.040722299 -0.050720781 5.944047
0.4863953 -0.35758293 3.8382275
0.61687386 -0.44922882 3.6922619
0.88735336 -0.63979876 3.5444143
1.1596681 -0.83194619 3.421895
1.5897925 -1.137236 3.6494238
4.7416425 -3.3845966 8.628809
0.19589329 -0.15852728 4.1974134
0.35055456 -0.26343262 4.0466156
0.78172123 -0.56794292 3.7577143
1.0194972 -0.73567027 3.4730618
1.3200666 -0.94879633 3.4251683
1.7415496 -1.2485752 3.5752723
2.1435823 -1.5345784 3.5655911
0.040545002 -0.050862618 5.944047
0.48576829 -0.35974127 3.8431668
0.61612272 -0.45198184 3.6971571
0.88511467 -0.6428923 3.5444143
1.1630905 -0.84056693 3.4403052
1.5838703 -1.1413784 3.6450353
2.1367223 -1.5364395 3.9379125
0.19533873 -0.15921012 4.1974134
0.34878346 -0.2640104 4.0366726
0.77060622 -0.56398517 3.7141595
1.0169231 -0.73922449 3.4730618
1.3343786 -0.9661665 3.4701805
1.7456373 -1.2607548 3.5923359
2.1431007 -1.5455769 3.5735712
0.040367212 -0.051003836 5.944047
0.48513222 -0.36189967 3.8481061
0.61126643 -0.45170829 3.6775763
0.88166058 -0.64509642 3.5396423
1.1822599 -0.86072153 3.5047405
1.5760001 -1.1440859 3.6362567
2.131346 -1.5438888 3.9379125
0.1945594 -0.15970695 4.1924219
0.34743616 -0.26490265 4.0317011
0.75548214 -0.55697256 3.651247
1.0143365 -0.74276978 3.4730618
1.3468263 -0.98236501 3.5106914
1.7538792 -1.2760473 3.6179318
2.1401303 -1.5548193 3.5775611
0.040213067 -0.051180784 5.9490471
0.48448694 -0.36405793 3.8530452
0.60723621 -0.4520146 3.6628907
0.87940335 -0.64817005 3.5396423
1.1997273 -0.87986457 3.5645733
1.5700638 -1.1481664 3.6318676
2.1395826 -1.561272 3.9627099
0.19377895 -0.16020028 4.1874299
0.34566444 -0.26546362 4.0217581
0.75454223 -0.5603559 3.6560862
1.0103489 -0.7452814 3.468369
1.3574229 -0.9973731 3.546701
1.7557248 -1.286787 3.6307294
2.1395531 -1.5658396 3.5855412
0.040034167 -0.05132084 5.9490471
0.48383248 -0.36621612 3.8579845
0.60402578 -0.45290938 3.6531003
0.87593716 -0.6503458 3.5348704
1.2029338 -0.88869095 3.5829835
1.5544772 -1.1451167 3.6055334
2.1454561 -1.5770645 3.9833748
0.19321857 -0.16087571 4.1874299
0.34473571 -0.26666862 4.0217581
0.75258166 -0.56298631 3.6560862
1.0118964 -0.75189173 3.4824471
1.3644315 -1.0098765 3.5737085
1.7533203 -1.294457 3.6349955
2.1340742 -1.5732986 3.5855412
0.039854776 -0.051460274 5.9490471
0.48255119 -0.36790279 3.8579845
0.6000042 -0.45317334 3.6384144
0.8736617 -0.65339947 3.5348704
1.1998245 -0.89288461 3.5829835
1.5273917 -1.1334084 3.5528643
2.1399381 -1.5845439 3.9833748
0.19243535 -0.16136281 4.1824384
0.34338263 -0.2675423 4.0167866
0.74860448 -0.56409663 3.6464074
1.0161728 -0.76059037 3.5059111
1.3608981 -1.0146331 3.5737085
1.736235 -1.2912306 3.6093998
2.147922 -1.5951108 3.6174614
0.039755907 -0.051536694 5.9490471
0.48177961 -0.36891261 3.8579845
0.59824276 -0.45381337 3.6335194
0.87109792 -0.65433109 3.5300984
1.2042108 -0.90007448 3.6013935
1.4979361 -1.1168281 3.4914172
2.1318221 -1.5860356 3.9751086
0.19201225 -0.16186605 4.1824384
0.3422617 -0.26811123 4.0118151
0.74612337 -0.56529534 3.6415682
1.0183142 -0.76636147 3.5199893
1.3545763 -1.015817 3.5647061
1.7242692 -1.289825 3.5923359
2.1265609 -1.5884796 3.5895314
0.039512608 -0.051723465 5.9490471
0.48003581 -0.37117887 3.8579845
0.59448129 -0.45538864 3.6237288
0.86681575 -0.65752655 3.5253265
1.2030742 -0.90809327 3.6105986
1.4869169 -1.1195525 3.47825
2.1243243 -1.596064 3.9751086
0.19124734 -0.16276909 4.1824384
0.34057674 -0.26939002 4.0068436
0.74245298 -0.56804109 3.6367285
1.0243083 -0.77846181 3.5528388
1.3463037 -1.0195603 3.5557036
1.7098482 -1.2916478 3.5752723
5.1789021 -3.9067585 8.6648417
0.039380629 -0.051769387 5.944047
0.47932231 -0.37209976 3.8579845
0.59279901 -0.45590812 3.6188335
0.86447924 -0.6581341 3.5205543
1.2092735 -0.91609085 3.6336112
1.4796187 -1.1172974 3.4650826
2.0996201 -1.5820935 3.9337795
0.19091469 -0.16271442 4.1774464
0.33955351 -0.26896492 3.9969006
0.74115777 -0.56766522 3.6318893
1.0170342 -0.77377284 3.5293748
1.3424778 -1.0174004 3.546701
1.7013 -1.2856562 3.5582085
5.1758151 -3.9058473 8.6608524
0.03919968 -0.051906534 5.944047
0.47802052 -0.37377065 3.8579845
0.58959442 -0.45672703 3.6090431
0.86087698 -0.66038942 3.5157826
1.2105663 -0.9240734 3.6474187
1.467695 -1.1171678 3.4475265
2.0711212 -1.5731224 3.8924499
0.19023144 -0.16351269 4.1774464
0.33759165 -0.26971859 3.9869576
0.74066263 -0.57243145 3.6415682
1.0122796 -0.77715218 3.5246823
1.3553174 -1.0364734 3.5917132
1.6871544 -1.2870358 3.5411448
5.1628323 -3.9329462 8.6688318
0.038994942 -0.052006166 5.9390473
0.47671291 -0.37543699 3.8579845
0.58719403 -0.45815575 3.6041479
0.85856652 -0.6633904 3.5157826
1.2181741 -0.93663001 3.6796365
1.4580846 -1.1179123 3.4343591
1.9896305 -1.5222039 3.7519295
0.18965952 -0.16417573 4.1774464
0.33581817 -0.27022618 3.9770145
0.74064338 -0.57655799 3.651247
1.0027355 -0.77540207 3.5012183
1.3810084 -1.0637835 3.6682339
1.6743795 -1.2865608 3.524081
5.1395092 -3.9436064 8.6528721
0.038813166 -0.052141964 5.9390473
0.47539946 -0.37709871 3.8579845
0.5839904 -0.45894384 3.5943573
0.85506773 -0.66546631 3.5110104
1.2241644 -0.94805449 3.7072515
1.4484872 -1.1186035 3.4211919
1.9107505 -1.4724543 3.6155422
0.18908527 -0.16483676 4.1774464
0.33404529 -0.27072468 3.9670715
0.74060434 -0.58069128 3.6609259
1.0095521 -0.78632128 3.5340676
1.4065248 -1.0912851 3.7447543
1.6636912 -1.2876086 3.5112834
5.1304808 -3.9652081 8.6608524
0.038630921 -0.052277133 5.9390473
0.47408026 -0.3787559 3.8579845
0.58078843 -0.45971519 3.5845668
0.85273963 -0.66844702 3.5110104
1.2069845 -0.94150645 3.6658287
1.4407928 -1.1207117 3.4124138
1.8455803 -1.4325265 3.5039527
0.18850875 -0.16549578 4.1774464
0.33268562 -0.27155155 3.9621
0.74054545 -0.58483136 3.6706047
1.0203774 -0.80049324 3.5809953
1.3975612 -1.0921667 3.731251
1.6591865 -1.2934082 3.5112834
5.1142302 -3.9812412 8.6568623
0.038448207 -0.052411661 5.9390473
0.47275528 -0.38040841 3.8579845
0.57838422 -0.46110475 3.5796719
0.85157257 -0.67234474 3.5157826
1.1791126 -0.92640054 3.5921884
1.4331017 -1.1227798 3.4036357
1.8139663 -1.4181609 3.4543574
0.18814543 -0.1663449 4.1824384
0.3317357 -0.27271119 3.9621
0.73653233 -0.5858475 3.6609259
1.0392392 -0.82117027 3.6560795
1.3663718 -1.0754937 3.6592314
1.6546615 -1.299192 3.5112834
5.1026735 -4.0009284 8.6608524
0.038265023 -0.052545551 5.9390473
0.47142452 -0.38205633 3.8579845
0.57597733 -0.46248317 3.5747764
0.84922045 -0.67531317 3.5157826
1.149829 -0.90989929 3.5139456
1.4235336 -1.1233243 3.3904684
1.809005 -1.4244843 3.4543574
0.18756363 -0.16700062 4.1824384
0.3303715 -0.27352718 3.9571285
0.73154038 -0.58605665 3.6464074
1.0485178 -0.83446544 3.6983144
1.3506687 -1.0707892 3.627723
1.6501163 -1.3049599 3.5112834
5.0886765 -4.0187159 8.6608524
0.03808137 -0.052678797 5.9390473
0.47008803 -0.3836996 3.8579845
0.57356805 -0.46385038 3.5698812
0.84685802 -0.67827344 3.5157826
1.1344244 -0.90416509 3.4771254
1.415854 -1.125306 3.3816903
1.7907931 -1.4202977 3.4295595
5.5762639 -4.4180355 8.5943422
0.18719372 -0.16784792 4.1874299
0.32941467 -0.27467871 3.9571285
0.72851211 -0.58781713 3.6415682
1.0496377 -0.84135866 3.7123928
1.3282106 -1.0605545 3.5782096
1.647591 -1.3123367 3.5155489
5.0746174 -4.0364542 8.6608524
0.037897255 -0.052811407 5.9390473
0.46814582 -0.38484442 3.8530452
0.57273465 -0.46649292 3.5747764
0.84332353 -0.68028802 3.5110104
1.1282147 -0.90567338 3.4679203
1.408178 -1.1272478 3.3729122
1.788023 -1.4282966 3.4336927
5.5608087 -4.4374738 8.5943422
0.18682018 -0.16869466 4.1924219
0.32845387 -0.2758269 3.9571285
0.72352976 -0.58797777 3.6270497
1.0466944 -0.84501743 3.7123928
1.3143226 -1.056998 3.5512023
1.643 -1.3180798 3.5155489
5.0604968 -4.0541434 8.6608524
0.037712678 -0.052943375 5.9390473
0.46620139 -0.38598049 3.8481061
0.5711028 -0.46848932 3.5747764
0.84094369 -0.6832276 3.5110104
1.1174507 -0.9034639 3.4449077
1.3967769 -1.1261431 3.3553557
1.7830265 -1.4345293 3.4336927
5.5652714 -4.4729214 8.625042
0.18623018 -0.16934575 4.1924219
0.32748908 -0.27697176 3.9571285
0.71272004 -0.58333302 3.5834951
1.0423995 -0.8475771 3.7077
1.3072418 -1.058839 3.5421999
1.6404176 -1.3254461 3.519815
5.0486593 -4.0736752 8.6648417
0.037549913 -0.053112216 5.944047
0.46485123 -0.38760546 3.8481061
0.57024872 -0.47112873 3.5796719
0.83624357 -0.68426806 3.5014665
1.1036863 -0.89872307 3.4126902
1.38726 -1.1264825 3.3421884
1.7780082 -1.4407445 3.4336927
5.549624 -4.4923205 8.625042
0.18563792 -0.16999479 4.1924219
0.32692569 -0.27845925 3.9621
0.70486081 -0.5810191 3.5544584
1.0407696 -0.8523041 3.7123928
1.2984774 -1.059267 3.5286961
1.6378038 -1.3328105 3.524081
5.0344086 -4.0912733 8.6648417
0.037364285 -0.053242963 5.944047
0.46290055 -0.38872573 3.8431668
0.56468821 -0.46985888 3.5551956
0.83269799 -0.68623334 3.4966943
1.0869478 -0.89141923 3.3712673
1.3740501 -1.1237366 3.3202431
1.7729682 -1.4469421 3.4336927
5.5363936 -4.5136905 8.6288795
0.18504339 -0.17064175 4.1924219
0.3259517 -0.27959874 3.9621
0.69219172 -0.57464212 3.5012248
1.0364571 -0.85483372 3.7077
1.2897261 -1.059647 3.5151925
1.6351587 -1.3401729 3.528347
5.0200973 -4.1088219 8.6648417
0.037178207 -0.053373069 5.944047
0.46094784 -0.38983718 3.8382275
0.56148422 -0.47051874 3.5454051
0.82800055 -0.6872288 3.4871504
1.0838295 -0.89520794 3.3712673
1.3627249 -1.1224351 3.3026869
1.7700804 -1.454909 3.4378257
5.5206041 -4.5329885 8.6288795
0.18423586 -0.17108934 4.1874299
0.32497373 -0.28073481 3.9621
0.68921739 -0.57624835 3.4963853
1.0268301 -0.85293263 3.684236
1.2809881 -1.0599787 3.501689
1.6324817 -1.3475326 3.5326128
5.005724 -4.1263199 8.6648417
0.036991674 -0.053502515 5.944047
0.45485407 -0.38741097 3.7987137
0.55517077 -0.4685342 3.5160336
0.82445157 -0.68915749 3.4823785
1.0821999 -0.90023524 3.3758698
1.3477392 -1.1180099 3.2763524
1.7714939 -1.4664623 3.4502244
5.5072174 -4.5542741 8.6327171
0.18342745 -0.17153336 4.1824384
0.32399181 -0.28186747 3.9621
0.68720174 -0.57865065 3.4963853
1.0119351 -0.84654522 3.6420014
1.2722635 -1.0602624 3.4881854
1.6297735 -1.3548902 3.5368788
4.9912901 -4.1437683 8.6648417
0.036804691 -0.053631317 5.944047
0.45055139 -0.38646552 3.7740171
0.55430758 -0.47112894 3.5209291
0.81975728 -0.69010812 3.4728346
1.0745586 -0.90024316 3.3620622
1.3383145 -1.1181005 3.263185
1.7663641 -1.4726369 3.4502244
5.4937496 -4.5755219 8.6365547
0.18261819 -0.17197382 4.1774464
0.32300591 -0.28299668 3.9621
0.68517768 -0.58104593 3.4963853
0.9944582 -0.8378402 3.5903809
1.2635525 -1.0604981 3.4746816
1.6270337 -1.3622453 3.5411448
4.9791069 -4.1630993 8.6688318
0.036617257 -0.053759463 5.944047
0.4456732 -0.38498655 3.7443817
0.55343294 -0.47372326 3.5258241
0.81620485 -0.69199991 3.4680624
1.0773818 -0.90902841 3.3804724
1.3362361 -1.1243074 3.2675743
1.7461278 -1.4661269 3.421294
5.4801993 -4.5967298 8.6403913
0.18180811 -0.17241077 4.1724553
0.32201612 -0.2841225 3.9621
0.68410093 -0.58425057 3.5012248
0.97047597 -0.82344073 3.5152967
1.2531931 -1.0592806 3.4566767
1.6242625 -1.3695977 3.5454109
4.9599347 -4.1765718 8.6608524
0.036429379 -0.053886954 5.944047
0.44198275 -0.3844988 3.7246246
0.55177599 -0.47565225 3.5258241
0.81378436 -0.69484478 3.4680624
1.0756909 -0.91404879 3.3850746
1.3341305 -1.1305133 3.2719634
1.7345531 -1.4667616 3.4088948
5.469018 -4.6199684 8.6480665
0.18099719 -0.17284413 4.1674633
0.32102239 -0.28524479 3.9621
0.68301016 -0.5874548 3.5060642
0.96497202 -0.82458103 3.5059111
1.2445152 -1.0594151 3.4431732
1.6194719 -1.375259 3.5454109
4.9545178 -4.2016559 8.6768122
0.036241055 -0.054013785 5.944047
0.43946955 -0.38501462 3.7147462
0.55011225 -0.47757539 3.5258241
0.80795908 -0.6947611 3.4537466
1.0739779 -0.91906852 3.3896773
1.3301761 -1.1351633 3.2719634
1.712284 -1.4582111 3.3758314
5.4601817 -4.6452613 8.6595793
0.18018547 -0.17327394 4.1624718
0.32002473 -0.28636363 3.9621
0.68190539 -0.59065861 3.5109036
0.96077996 -0.82681859 3.5012183
1.2341989 -1.0580848 3.4251683
1.6027694 -1.3707325 3.519815
4.9421129 -4.2208819 8.6808023
0.03605229 -0.054139961 5.944047
0.4387053 -0.38706067 3.7196853
0.54844183 -0.47949272 3.5258241
0.80665714 -0.69855446 3.4585185
1.0722431 -0.92408729 3.39428
1.328022 -1.1413609 3.2763524
1.7093192 -1.4660109 3.3799641
5.4512358 -4.6705494 8.671092
0.17937295 -0.17370015 4.1574798
0.31902319 -0.28747898 3.9621
0.68078649 -0.59386176 3.515743
0.95658398 -0.82903695 3.4965255
1.2222595 -1.0552728 3.4026623
1.5900708 -1.3695108 3.5027514
4.9273491 -4.2381077 8.6808023
0.035863087 -0.054265477 5.944047
0.43735152 -0.38858968 3.7196853
0.54600084 -0.48073116 3.5209291
0.82108659 -0.71608496 3.5300984
1.069011 -0.9278245 3.39428
1.3240298 -1.1459897 3.2763524
1.7127098 -1.4793267 3.3964961
5.4446058 -4.6979251 8.6864424
0.17876551 -0.17432523 4.1574798
0.31801775 -0.28859082 3.9621
0.67870939 -0.5962345 3.515743
0.95498425 -0.83350587 3.5012183
1.2136405 -1.0552474 3.3891585
1.5714899 -1.36309 3.4728897
0.035673447 -0.05439033 5.944047
0.43599245 -0.39011395 3.7196853
0.54355776 -0.48195839 3.5160336
0.84101027 -0.73865044 3.6255379
1.0657657 -0.93155044 3.39428
1.3200214 -1.1506042 3.2763524
1.7117819 -1.4889901 3.404762
5.4354324 -4.7232089 8.6979551
0.17795078 -0.1747451 4.1524887
0.31700847 -0.28969914 3.9621
0.67756528 -0.59943306 3.5205824
0.95206898 -0.83683425 3.5012183
1.2115873 -1.0609115 3.3936598
1.5667223 -1.3685673 3.4728897
2.636045 -2.2994866 4.706738
0.035483371 -0.054514524 5.944047
0.43520501 -0.39215392 3.7246246
0.54111278 -0.48317441 3.5111387
0.85407841 -0.75542903 3.6923459
1.061041 -0.93397397 3.3896773
1.315997 -1.155205 3.2763524
1.7108071 -1.4986647 3.4130278
5.4309721 -4.7527075 8.7171421
0.17733972 -0.17536521 4.1524887
0.31599528 -0.29080394 3.9621
0.67546874 -0.60179454 3.5205824
0.95043415 -0.84129649 3.5059111
1.2078766 -1.0651343 3.3936598
1.5678098 -1.3791957 3.4856877
2.6370573 -2.3166292 4.7226982
0.035292868 -0.054638054 5.944047
0.43383348 -0.39367068 3.7246246
0.53866595 -0.48437926 3.5062432
0.8781845 -0.78223753 3.8068733
1.0548508 -0.93507987 3.3804724
1.3119566 -1.1597917 3.2763524
1.7055653 -1.5046273 3.4130278
5.4215631 -4.7779937 8.7286549
0.17652275 -0.17577863 4.1474967
0.31536889 -0.29226795 3.9670715
0.67336398 -0.60414875 3.5205824
0.94749171 -0.84460896 3.5059111
1.2041513 -1.0693442 3.3936598
1.5649383 -1.3863897 3.4899538
2.6109004 -2.3098469 4.6907778
0.035081383 -0.054722421 5.9390473
0.43245667 -0.39518264 3.7246246
0.53621739 -0.4855729 3.5013483
0.86656034 -0.77732319 3.7686975
1.0486656 -0.93615401 3.3712673
1.3096888 -1.1659567 3.2807415
1.6918882 -1.5030956 3.3964961
5.4144406 -4.8053994 8.7440042
0.1759081 -0.17639375 4.1474967
0.31434676 -0.29336703 3.9670715
0.67218351 -0.60733837 3.5254219
0.94325364 -0.84675825 3.5012183
1.2004112 -1.0735409 3.3936598
1.5639813 -1.3953165 3.4984856
2.6050713 -2.3209512 4.694768
0.034890153 -0.054844543 5.9390473
0.43107459 -0.39668977 3.7246246
0.53376698 -0.48675537 3.4964528
0.84501332 -0.76333058 3.6875737
1.042486 -0.93719637 3.3620622
1.3073941 -1.1721202 3.2851305
1.6803399 -1.5033633 3.3840973
5.4024134 -4.8285427 8.7516794
0.1752913 -0.17700671 4.1474967
0.31370887 -0.29482794 3.9720428
0.67098892 -0.61052722 3.5302613
0.94029218 -0.85004574 3.5012183
1.1966565 -1.0777245 3.3936598
1.5591012 -1.4007672 3.4984856
2.4601433 -2.2072773 4.4513764
0.034678221 -0.054927364 5.9340472
0.42968723 -0.39819208 3.7246246
0.53206468 -0.48861563 3.4964528
0.8257829 -0.75120646 3.615994
1.0363117 -0.93820697 3.3528571
1.30685 -1.1798868 3.2939088
1.6688101 -1.5035685 3.3716984
5.392673 -4.8538041 8.7631922
0.17487395 -0.17782415 4.1524887
0.3126778 -0.29592118 3.9720428
0.66978031 -0.61371499 3.5351007
0.93604326 -0.85216093 3.4965255
1.1896625 -1.07897 3.3846574
1.556136 -1.4079509 3.5027514
2.3406353 -2.1148431 4.2518754
0.034466136 -0.055009373 5.9290476
0.42829466 -0.39968956 3.7246246
0.53035581 -0.4904699 3.4964528
0.80884862 -0.74097449 3.5539584
1.0301433 -0.93918598 3.3436522
1.3062673 -1.1876638 3.3026869
1.6572995 -1.5037116 3.3592994
5.3780718 -4.8747511 8.7670298
0.17425217 -0.17843349 4.1524887
0.31202847 -0.29737902 3.9770145
0.66855752 -0.61690181 3.5399401
0.93179107 -0.85425681 3.4918327
1.1842815 -1.0816479 3.380156
1.5512118 -1.4133741 3.5027514
2.2418623 -2.0398543 4.0882845
0.034273908 -0.055129346 5.9290476
0.4268969 -0.40118214 3.7246246
0.52864051 -0.49231818 3.4964528
0.8040632 -0.74176872 3.5444143
1.0268586 -0.94277608 3.3436522
1.3056463 -1.1954511 3.311465
1.6458083 -1.5037929 3.3469007
5.3610229 -4.8934941 8.7670298
0.17362824 -0.17904067 4.1524887
0.31137273 -0.29883584 3.9819858
0.66824132 -0.62094337 3.549619
0.9288035 -0.85750413 3.4918327
1.1772943 -1.0828274 3.3711536
1.5481905 -1.4205436 3.5070174
2.1991823 -2.0150957 4.0244436
0.034081262 -0.055248652 5.9290476
0.4254939 -0.40266985 3.7246246
0.52691883 -0.4941605 3.4964528
0.80256253 -0.74558705 3.5491862
1.0235615 -0.94635475 3.3436522
1.3049868 -1.2032485 3.3202431
1.6426198 -1.511434 3.3510334
5.3439088 -4.912178 8.7670298
0.17300223 -0.17964566 4.1524887
0.31032771 -0.29992092 3.9819858
0.66698736 -0.62413114 3.5544584
0.92580456 -0.86074108 3.4918327
1.1671191 -1.081013 3.3531489
1.5432224 -1.4259391 3.5070174
2.1677756 -2.0002818 3.9805536
0.033888202 -0.055367276 5.9290476
0.42408577 -0.40415263 3.7246246
0.5259307 -0.49669614 3.5013483
0.79559535 -0.74430424 3.5300984
1.0202519 -0.94992191 3.3436522
1.3042886 -1.2110559 3.3290212
1.6435262 -1.5228968 3.3634324
5.3267298 -4.9308019 8.7670298
0.17217539 -0.180039 4.1474967
0.30966052 -0.3013745 3.9869576
0.66480476 -0.62645555 3.5544584
0.92405397 -0.86514705 3.4965255
1.1569712 -1.0791405 3.335144
1.534417 -1.4277639 3.4984856
0.033694725 -0.055485234 5.9290476
0.42267239 -0.40563053 3.7246246
0.52493131 -0.4992308 3.5062432
0.79190612 -0.74605316 3.5253265
1.0169297 -0.95347738 3.3436522
1.3035519 -1.218873 3.3377995
1.642315 -1.5324643 3.3716984
5.3094854 -4.9493656 8.7670298
0.17154591 -0.18063891 4.1474967
0.30898696 -0.30282706 3.9919288
0.66352558 -0.62963778 3.5592978
0.92228395 -0.86955124 3.5012183
1.1468507 -1.0772107 3.3171391
1.5180056 -1.4224114 3.4728897
1.8787377 -1.758007 3.4818006
0.033520304 -0.055641562 5.9340472
0.42125389 -0.40710345 3.7246246
0.5239206 -0.50176466 3.5111387
0.78496593 -0.74470276 3.5062382
1.0135953 -0.95702136 3.3436522
1.2992893 -1.2234159 3.3377995
1.647209 -1.5478228 3.3923631
5.2921767 -4.9678688 8.7670298
0.17071709 -0.18102579 4.1425052
0.30830708 -0.30427861 3.9969006
0.66223228 -0.6328187 3.5641375
0.92049438 -0.8739537 3.5059111
1.1351762 -1.0737271 3.2946329
1.5016505 -1.4169619 3.4472942
1.8440812 -1.7376893 3.4299302
0.033325873 -0.055758227 5.9340472
0.41927373 -0.40802923 3.7196853
0.52509671 -0.50641865 3.5307195
0.78236163 -0.74743831 3.5062382
1.0102485 -0.96055365 3.3436522
1.2880596 -1.2213517 3.3202431
1.6520157 -1.5632342 3.4130278
5.2748032 -4.9863119 8.7670298
0.16988765 -0.18140906 4.1375132
0.30762076 -0.30572909 4.0018721
0.66092485 -0.63599819 3.5689766
0.91993243 -0.87954676 3.5152967
1.1314212 -1.0776831 3.2946329
1.4872425 -1.4132121 3.4259646
1.8314471 -1.7378932 3.4179602
0.34955686 -0.32927996 0.15919392
0.033131037 -0.055874217 5.9340472
0.41784686 -0.40949029 3.7196853
0.52478617 -0.50966769 3.5405099
0.7829746 -0.75326991 3.5205543
1.0054784 -0.96272308 3.3390496
1.2803242 -1.2225324 3.311465
1.6546977 -1.5767566 3.4295595
5.2573657 -5.004694 8.7670298
0.16905765 -0.1817888 4.1325221
0.30692813 -0.30717847 4.0068436
0.6596033 -0.63917631 3.5738163
0.9193427 -0.88514662 3.5246823
1.1307945 -1.08464 3.3036354
1.4691104 -1.4057727 3.3961029
1.8275479 -1.7463573 3.4219503
0.33762726 -0.3202737 0.15712188
0.032935798 -0.05598953 5.9340472
0.41586217 -0.41040027 3.7147462
0.52809799 -0.51648146 3.5747764
0.78248429 -0.75807595 3.5300984
1.0007055 -0.96487075 3.3344471
1.2725965 -1.2236739 3.3026869
1.661366 -1.5942135 3.4543574
5.2398639 -5.023015 8.7670298
0.16822706 -0.18216494 4.1275301
0.30622905 -0.30862674 4.0118151
0.65736818 -0.64147478 3.5738163
0.91872501 -0.89075303 3.5340676
1.1316986 -1.0931181 3.3171391
1.4604386 -1.4072731 3.3875711
1.8301257 -1.7610836 3.4379103
0.32808438 -0.31231427 0.13361296
0.33650723 -0.32145026 0.15712188
0.032721244 -0.056064837 5.9290476
0.41442707 -0.41184941 3.7147462
0.53281909 -0.52475393 3.6188335
0.78410667 -0.76497287 3.5491862
0.99592978 -0.96699697 3.3298445
1.2631558 -1.2231103 3.2895195
1.6618617 -1.6058694 3.4667561
5.2222981 -5.041275 8.7670298
0.16739592 -0.18253748 4.1225386
0.30402863 -0.30855358 3.9969006
0.65512496 -0.64376557 3.5738163
0.91931391 -0.8975715 3.5481458
1.1481614 -1.1167953 3.3756549
1.4536457 -1.4105459 3.3833053
1.8391145 -1.78214 3.4658406
0.32699221 -0.31345761 0.13361296
0.34965837 -0.33635554 0.1598846
0.032525342 -0.056178711 5.9290476
0.41243798 -0.41274363 3.7098067
0.52520221 -0.52087289 3.5796719
0.77823758 -0.76456648 3.5348704
0.99115157 -0.96910167 3.325242
1.2588786 -1.2275121 3.2895195
1.6582627 -1.6136233 3.4708893
5.2046695 -5.0594735 8.7670298
0.16675772 -0.1831207 4.1225386
0.30146003 -0.30808747 3.9770145
0.65108722 -0.64427984 3.5641375
0.91617525 -0.90077502 3.5481458
1.1613621 -1.1375537 3.4251683
1.4449826 -1.411966 3.3747735
1.8738573 -1.8285344 3.5416508
0.32231316 -0.31113836 0.13316588
0.35915259 -0.34791076 0.16195664
0.032329042 -0.056291904 5.9290476
0.41099471 -0.41418079 3.7098067
0.61196959 -0.6112299 4.1817846
0.77450299 -0.76622844 3.5300984
0.98776269 -0.97255552 3.325242
1.2545861 -1.2318989 3.2895195
1.6465902 -1.6134931 3.4584901
5.1869764 -5.0776105 8.7670298
0.16592473 -0.18348676 4.1175466
0.29852727 -0.30722451 3.952157
0.64527345 -0.64299893 3.5447795
0.90934682 -0.90032494 3.5340676
1.166683 -1.1507736 3.4521756
1.4363273 -1.4133427 3.3662415
1.8975519 -1.8646325 3.5975113
0.35222486 -0.34239334 0.18473415
0.32122514 -0.31226155 0.13316588
0.03211385 -0.056364894 5.9240479
0.40954643 -0.41561291 3.7098067
0.63638783 -0.64008534 4.3629084
0.76865166 -0.76576632 3.5157826
0.98297459 -0.97462183 3.3206394
1.2502784 -1.2362707 3.2895195
1.6349392 -1.613301 3.4460914
5.1692209 -5.0956855 8.7670298
0.16528322 -0.18406484 4.1175466
0.2952345 -0.30596092 3.922328
0.64036375 -0.64257598 3.5302613
0.8964231 -0.89374536 3.4965255
1.1580255 -1.1502365 3.4386718
1.4295326 -1.416512 3.3619757
1.9253007 -1.905157 3.6613517
0.34751725 -0.34018445 0.18380153
0.32725048 -0.32034829 0.13406004
0.031916901 -0.056476649 5.9240479
0.40863636 -0.41759557 3.7147462
0.67849153 -0.68723685 4.6664124
0.76808125 -0.77055943 3.5253265
0.97956651 -0.97804713 3.3206394
1.2476525 -1.2423176 3.2939088
1.6253057 -1.6150314 3.4378257
5.151402 -5.113698 8.7670298
0.16463971 -0.18464065 4.1175466
0.2915858 -0.30429283 3.8875272
0.63281292 -0.63944566 3.5012248
0.88720948 -0.89075506 3.4730618
1.1463081 -1.1465737 3.4161658
1.4208872 -1.417809 3.3534436
1.9229077 -1.9161199 3.6693318
0.34632769 -0.34139544 0.18380153
0.31903732 -0.31449649 0.13316588
0.031719565 -0.056587715 5.9240479
0.4071762 -0.41901943 3.7147462
0.67751372 -0.69105542 4.6762028
0.76853663 -0.77641881 3.5396423
0.97752416 -0.98284578 3.325242
1.2433084 -1.246665 3.2939088
1.6156801 -1.6167138 3.4295595
5.1357875 -5.1339145 8.7708673
0.16418469 -0.18543114 4.1225386
0.29309133 -0.30801454 3.922328
0.63057697 -0.64165068 3.5012248
0.87681442 -0.88648444 3.444905
1.1330967 -1.1412983 3.3891585
1.4140898 -1.4209116 3.3491776
1.9140804 -1.9206859 3.6653416
5.6068325 -5.6185188 8.6831293
0.3381615 -0.33568081 0.18193629
0.3144033 -0.31209975 0.1327188
0.031521846 -0.056698095 5.9240479
0.40571108 -0.4204382 3.7147462
0.69569075 -0.71457797 4.8181643
0.7857005 -0.79932559 3.6303101
0.97546017 -0.98764211 3.3298445
1.2389492 -1.2509974 3.2939088
1.6040802 -1.6163514 3.4171607
5.117835 -5.1518106 8.7708673
0.16353641 -0.18600312 4.1225386
0.29676864 -0.31407735 3.9869576
0.63096648 -0.64654714 3.515743
0.86766911 -0.88338339 3.4214413
1.1229929 -1.1390454 3.3711536
1.4054549 -1.4221288 3.3406458
1.9073642 -1.9273556 3.6653416
5.591959 -5.6428723 8.6904793
0.35088408 -0.35075068 0.18566677
0.031305794 -0.056768008 5.9190478
0.404241 -0.42185184 3.7147462
0.65569127 -0.67819589 4.5587173
0.80167109 -0.821293 3.7162056
0.97337455 -0.99243587 3.3344471
1.2379333 -1.2587297 3.3026869
1.592503 -1.6159278 3.404762
5.0998206 -5.1696434 8.7708673
0.16288616 -0.18657285 4.1225386
0.3004072 -0.32016957 4.0515871
0.63045502 -0.65055132 3.5254219
0.85494173 -0.87652296 3.3838992
1.1113957 -1.1351804 3.3486478
1.3986555 -1.4251647 3.33638
1.8752806 -1.9082115 3.6174614
5.5983849 -5.6889377 8.7309065
0.35311949 -0.35545835 0.18659939
0.031107444 -0.056876939 5.9190478
0.40276596 -0.42326033 3.7147462
0.6237098 -0.64962494 4.3531175
0.80295455 -0.82837421 3.7352936
0.9712674 -0.99722725 3.3390496
1.2469183 -1.2767512 3.3377995
1.5789798 -1.6134318 3.3882301
5.0839872 -5.1897035 8.7747049
0.1622339 -0.18714029 4.1225386
0.30146575 -0.32355836 4.0814157
0.62992311 -0.65455985 3.5351007
0.85307741 -0.8807416 3.388592
1.1028742 -1.13437 3.335144
1.3900319 -1.4263027 3.3278482
1.8370407 -1.8823972 3.5576108
5.5713835 -5.7011704 8.7198811
0.34497705 -0.3496947 0.18473415
0.32382005 -0.32939196 0.20212321
0.030891048 -0.056945287 5.9140482
0.40181947 -0.42522869 3.7196853
0.58139968 -0.6097827 4.07409
0.79177767 -0.8225674 3.6971178
0.9691385 -1.0020159 3.3436522
1.2574598 -1.2965699 3.3773012
1.5654939 -1.6108614 3.3716984
5.0658412 -5.2074184 8.7747049
0.16139221 -0.18748587 4.1175466
0.30105776 -0.32539195 4.0913591
0.63023925 -0.65948135 3.549619
0.84999782 -0.88371396 3.388592
1.0958838 -1.1350805 3.3261416
1.3814173 -1.4273977 3.3193161
1.8052953 -1.8628315 3.5097306
5.5514488 -5.7205839 8.7198811
0.34375429 -0.35089675 0.18473415
0.339645 -0.34791091 0.20798479
0.030674553 -0.057012815 5.9090486
0.40086409 -0.42719558 3.7246246
0.5344767 -0.56447655 3.7607951
0.79199553 -0.82856387 3.7114339
0.96698815 -1.0068017 3.3482547
1.2545877 -1.3026766 3.3816903
1.552045 -1.6082164 3.3551667
5.04986 -5.227375 8.7785425
0.16073678 -0.18804811 4.1175466
0.29992008 -0.32644087 4.0913591
