# .PCD v0.7 - Point Cloud Data file format
VERSION 0.7
FIELDS x y z
SIZE 4 4 4
TYPE F F F
COUNT 1 1 1
WIDTH 1539
HEIGHT 1
VIEWPOINT 0 0 0 1 0 0 0
POINTS 1539
DATA ascii
4.1856642 1.0809973 6.4218144
3.4182417 0.88471287 4.3040118
0.35511991 0.068701074 6.0942435
2.5647852 0.5935114 24.509327
3.3891158 0.84455651 13.484958
4.3810205 1.1070721 12.342389
3.37708 0.86465162 5.7722282
4.4184008 1.134517 6.1152163
6.5442576 1.6852019 7.4041719
12.430717 3.2403257 12.703628
6.9511032 1.8158479 5.8753071
4.953784 1.295014 3.4416001
5.0581532 1.3241761 2.8234975
5.9200997 1.5343926 5.5281372
4.7560458 1.2344612 3.6613805
4.8792205 1.2673348 3.0479567
11.0342 2.8721576 5.3582835
0.065502174 -0.0016848419 5.9990449
2.8526261 0.68252438 18.646122
2.9916143 0.73061138 14.828903
3.6974506 0.9220295 12.229425
4.7257867 1.1906557 11.540748
2.9789512 0.75498497 5.6991239
4.3230391 1.1003915 6.6243286
3.3560882 0.85613877 4.2234249
0.35535759 0.067461051 6.0942435
2.5673611 0.58467323 24.514297
3.3810565 0.8300246 13.441402
4.3848581 1.0917728 12.342389
3.2586963 0.82223397 5.5674634
4.3931227 1.1116952 6.0753164
7.9860778 2.0267732 9.0102196
12.376326 3.1800523 12.637041
6.9988618 1.8022496 5.9098296
5.07165 1.3069297 3.5183611
5.0412984 1.3009772 2.8119035
6.6417041 1.6966965 6.1865864
4.7368298 1.2118412 3.6437213
4.9086709 1.2567103 3.0631554
10.991405 2.8200886 5.333107
0.065495893 -0.001913477 5.9990449
2.9941466 0.72016424 14.828903
3.6847007 0.90520072 12.176933
4.7602525 1.1816827 11.614388
4.7219806 1.179161 8.9865446
4.3432307 1.0894022 6.6491265
3.6512582 0.91786903 4.5841498
0.35559088 0.066220209 6.0942435
2.5704267 0.57594085 24.52424
3.3827114 0.81792206 13.436563
4.3216028 1.0600183 12.154679
2.9603577 0.73598248 5.0598173
3.7566752 0.93670845 5.2015009
7.999681 2.0005291 9.0175695
5.0923438 1.2923824 4.3186326
5.1167092 1.2995111 3.5457759
5.0200505 1.2768205 2.7979908
6.6403441 1.6716794 6.179935
4.7449508 1.1962873 3.6466646
4.9130278 1.2395681 3.0631554
11.005582 2.7828169 5.3352051
0.065488815 -0.0021420887 5.9990449
2.8376415 0.65803117 18.517702
3.001596 0.71088129 14.85338
3.6747804 0.88917428 12.133986
4.8136897 1.1771238 11.734054
4.7376957 1.1655314 9.0084896
4.215878 1.0418322 6.4507451
3.6637738 0.90742975 4.5956626
0.35581988 0.06497857 6.0942435
2.5734627 0.56719422 24.534184
3.389214 0.8069824 13.451081
4.3051472 1.0400643 12.098367
11.082581 2.6996925 23.649122
2.8894465 0.70765471 4.9361053
3.7569964 0.92287087 5.1975112
7.953948 1.9596175 8.9587669
11.796154 2.9433477 12.02725
5.1005998 1.2755431 4.3217707
5.1212139 1.2816426 3.5457759
5.0158825 1.2571355 2.7933531
5.885107 1.4597305 5.4815798
4.7255602 1.1738704 3.6290057
4.9005909 1.218251 3.0530229
10.755399 2.6796484 5.2114201
0.06548094 -0.0023706744 5.9990449
2.8588598 0.6524421 18.641184
3.0139754 0.70271063 14.902332
3.6909304 0.87945479 12.176933
4.853857 1.1690043 11.821502
4.7557015 1.1523706 9.0348234
4.2167544 1.0264441 6.4466124
0.35576019 0.063686043 6.0892515
2.573864 0.55786914 24.519268
3.3993535 0.79686791 13.480118
4.2483134 1.0106542 11.929426
11.028432 2.645756 23.514086
4.0606852 0.97946012 6.9027009
3.7572658 0.9090423 5.193521
7.9574456 1.9310415 8.9550915
11.761335 2.8910873 11.98169
5.9289103 1.4607077 5.0059547
5.1337762 1.2657602 3.5512588
5.0202403 1.2396191 2.7933531
5.7269483 1.3992999 5.331933
4.7885218 1.1717789 3.6731532
6.3535447 1.5559078 3.9295027
10.804357 2.6518252 5.2303023
0.065515593 -0.0026044052 6.0040445
2.8482316 0.63956618 18.557217
3.0164101 0.69218564 14.902332
3.6997907 0.8679291 12.196021
4.9149361 1.1655769 11.959578
4.7760024 1.139654 9.065547
4.061595 0.97367263 6.2069011
3.364598 0.80844826 4.2195873
0.35598034 0.062443823 6.0892515
2.5731885 0.54832625 24.49441
3.4119129 0.78725749 13.518833
4.2551761 0.99660558 11.938812
11.02065 2.6032398 23.478075
4.1122909 0.97672975 6.9837537
3.7486913 0.89312822 5.1775608
7.8619208 1.8788263 8.8411617
4.9847097 1.2068975 5.1197896
6.0436664 1.4666216 5.0969696
5.1584802 1.2527663 3.5649662
5.6882358 1.3688182 5.292027
4.8004417 1.1569507 3.6790392
6.5894217 1.5893103 4.0688276
10.919421 2.6396887 5.2806559
0.065506101 -0.0028330814 6.0040445
3.0078826 0.67918605 14.848485
3.7726119 0.87112701 12.425076
4.920877 1.1488576 11.96418
4.8382392 1.1366686 9.1752739
4.0567522 0.95754975 6.1945024
3.3237314 0.78636795 4.1658621
0.35591152 0.061152749 6.0842605
2.5735219 0.53901327 24.479496
3.4121883 0.77478629 13.509154
4.2636738 0.98290902 11.95289
5.1619644 1.2070038 8.7413187
3.6901796 0.86558765 5.0937705
7.7694302 1.8280783 8.7309065
4.9923611 1.1903173 5.1232939
4.9243917 1.1768268 4.1648479
5.1628213 1.2347522 3.5649662
10.530024 2.5222297 5.7544608
4.8634429 1.1541865 3.723187
6.4481349 1.531436 3.9801662
10.928569 2.6015568 5.2806559
0.065495811 -0.003061723 6.0040445
3.0002949 0.66647518 14.799532
3.7698069 0.85662991 12.405988
4.9400897 1.1351734 12.001
4.9635153 1.1478307 9.4035063
4.0545883 0.94210964 6.1862364
3.3014824 0.76894498 4.1351619
0.35612282 0.059910011 6.0842605
2.5732994 0.52959728 24.45961
3.4210055 0.76424068 13.533351
4.3108344 0.97794509 12.074902
5.1432714 1.1837137 8.7029257
3.6638184 0.84592295 5.0538702
4.9964852 1.1728834 5.1232939
4.9587803 1.1667621 4.1899557
5.1386094 1.2100143 3.5457759
10.547386 2.4874914 5.7590985
5.6903811 1.3273774 5.2853756
4.9815869 1.1638702 3.8085387
6.0546699 1.4156811 3.7395144
10.831533 2.5385389 5.2303023
0.065441452 -0.0032846997 5.9990449
2.9986241 0.65512908 14.779952
3.7771444 0.84444249 12.420304
4.9402113 1.1170608 11.991795
5.0212035 1.1427205 9.5044556
4.0167036 0.91854155 6.1242418
0.35661474 0.05871265 6.0892515
2.5719972 0.51997828 24.429783
3.4211974 0.75175518 13.523673
4.3142219 0.96289152 12.074902
11.051554 2.4886475 23.487078
5.1219358 1.1599927 8.6602659
3.6902559 0.83846933 5.0857902
6.6019812 1.5048321 7.4188733
4.9901252 1.1530267 5.1127801
4.9324875 1.1424197 4.1648479
5.1468754 1.1930139 3.5485172
10.48265 2.433629 5.7196789
5.7677617 1.3242157 5.3518858
5.0604634 1.1636845 3.8644586
6.2612224 1.4409436 3.8611071
10.853596 2.5037749 5.2365966
0.065429591 -0.0035131134 5.9990449
3.0108478 0.64679581 14.828903
3.7786112 0.83093214 12.415532
4.9517088 1.1015061 12.010205
5.0578818 1.1325121 9.5659027
3.9814503 0.89586741 6.066381
0.35681748 0.057467476 6.0892515
2.5711823 0.51047856 24.404922
3.4213433 0.73927754 13.513994
11.058048 2.4495845 23.482578
5.08777 1.1335995 8.5962772
4.3077636 0.96296304 5.9197054
6.6038857 1.4810358 7.4151978
4.9836874 1.1332289 5.1022668
6.0028353 1.3682562 5.0467544
5.1591616 1.1769006 3.5540004
10.473806 2.3930759 5.7104034
5.8014846 1.3106563 5.3784895
5.4626713 1.2361113 4.1617179
6.3418922 1.4362172 3.9067042
10.826861 2.4578357 5.2198124
0.065373704 -0.0037355549 5.9940453
3.0250423 0.63880569 14.887647
3.7829478 0.81805271 12.420304
5.3658552 1.1739817 12.999748
5.0711598 1.1169102 9.5834589
3.9378452 0.87162626 5.9961209
3.8819864 0.86138499 4.8374252
0.35701591 0.056221601 6.0892515
2.5692856 0.50078708 24.370123
3.4214439 0.72680807 13.504314
4.838695 1.0445246 13.515581
11.062278 2.4100432 23.473576
5.1197186 1.1219738 8.6432018
4.4170456 0.97121429 6.0633464
6.4103818 1.414157 7.1946878
4.9736915 1.1127114 5.0882483
5.9619989 1.3370733 5.0090933
5.3264356 1.1955132 3.6636589
10.495062 2.3594158 5.71736
5.1828818 1.1537983 3.94981
6.1869769 1.3784486 3.8104434
10.808798 2.4140918 5.2072239
0.065360263 -0.0039637284 5.9940453
2.2350175 0.452988 14.497147
3.0292478 0.62865609 14.897437
3.7857802 0.80484277 12.420304
5.4157596 1.1651047 13.110209
5.039917 1.0915977 9.5176229
3.9188664 0.85308719 5.963057
3.903759 0.85192931 4.8604503
0.35749546 0.05501816 6.0942435
2.5657823 0.49081486 24.320408
3.421499 0.71434689 13.494636
4.7866044 1.0158074 13.36072
11.057851 2.3686781 23.446568
5.1236038 1.1040958 8.6432018
4.5234904 0.97807705 6.2029972
10.738864 2.3297248 11.990777
4.9705791 1.0938103 5.0812392
5.001194 1.1032822 4.211925
5.6368089 1.244523 3.8692687
10.447004 2.3103321 5.6872153
5.5624537 1.2159052 5.1523557
5.0763206 1.1114932 3.8674016
5.9854169 1.3116292 3.6863174
10.870354 2.3880334 5.2324004
0.065389216 -0.0041980846 5.9990449
2.2320125 0.44427401 14.46751
3.029428 0.61767149 14.887647
3.7900276 0.79192829 12.425076
5.0647788 1.0784874 9.5571241
3.8805447 0.83056885 5.901063
0.35768533 0.053769931 6.0942435
2.5706236 0.48244506 24.350237
3.4153526 0.70063156 13.46076
4.3052845 0.8979817 12.013896
5.1682491 1.0948517 8.7114563
4.5475092 0.96666658 6.2309275
10.730353 2.2886894 11.972402
4.9987659 1.0817327 5.1057711
5.0050149 1.0858182 4.211925
5.7514467 1.2487938 3.9432886
10.47232 2.277617 5.6964908
5.5374608 1.1902046 5.125752
5.0169463 1.0801551 3.8203113
6.1079535 1.3161534 3.7572467
0.065374166 -0.0044263103 5.9990449
2.2282116 0.43543771 14.432936
3.0315659 0.6070931 14.887647
3.792769 0.7786938 12.425076
12.700005 2.6394043 30.618212
3.8806665 0.81643891 5.8969302
0.35787085 0.05252105 6.0942435
2.5733402 0.47366178 24.36018
4.2864156 0.87844473 11.95289
11.042141 2.2848063 23.379049
5.1950192 1.0815885 8.7498503
4.6334438 0.96804053 6.342648
6.4646549 1.3552984 7.2387896
5.0025115 1.0642773 5.1057711
5.0240016 1.0715884 4.2244787
5.7884855 1.2356936 3.9652202
5.0301442 1.0628115 4.6601815
5.048367 1.0684947 3.8409133
6.2179413 1.3171576 3.8205762
0.065358311 -0.004654482 5.9990449
2.2381122 0.42926604 14.487267
3.0196793 0.59375799 14.819114
3.796927 0.76574481 12.429848
12.711055 2.595448 30.622814
5.1144109 1.0517857 9.6361284
3.8724699 0.80060911 5.8803983
3.9658213 0.82206231 4.9256883
0.35805199 0.051271528 6.0942435
2.5760274 0.46486539 24.370123
3.7123988 0.73458278 14.607704
4.321599 0.86994654 12.042052
3.2389829 0.66258812 5.477879
4.698781 0.96458489 6.4264383
6.5324345 1.3457203 7.3086176
6.8318639 1.4285434 6.9386487
4.9515209 1.0380723 4.1617098
5.837779 1.2249256 3.9953761
5.1069388 1.0604279 4.7266917
6.3069072 1.3130169 3.8712397
0.06538479 -0.0048892796 6.0040445
2.2373061 0.42102009 14.472449
3.0137353 0.58167058 14.779952
3.7995768 0.75248641 12.429848
12.737275 2.5545192 30.664236
5.0734468 1.0249168 9.5527353
3.8779986 0.78764689 5.884531
3.959244 0.80629522 4.9141755
0.35851482 0.050060514 6.0992351
2.5776343 0.45587057 24.370123
4.4617357 0.88195813 12.422167
3.2208207 0.64716822 5.4437513
4.734611 0.95472866 6.4703288
6.4540224 1.3060995 7.2167387
6.8228354 1.4018162 6.9246306
4.9131794 1.0121434 4.1271868
5.8420191 1.2045405 3.9953761
5.5752296 1.1373764 5.1490302
6.4634929 1.3220925 3.9624341
0.065367319 -0.0051174848 6.0040445
2.2402902 0.41348973 14.482328
3.0067432 0.56944257 14.735894
3.8036456 0.73950362 12.43462
12.751866 2.5111749 30.678043
5.0910892 1.0099969 9.5790691
3.8807242 0.77410531 5.884531
0.35868737 0.048808753 6.0992351
2.57921 0.44687015 24.370123
3.9396906 0.75100476 15.4788
4.464787 0.86637837 12.422167
8.1942892 1.6062686 17.329418
3.1974728 0.63087368 5.4010921
3.2038193 0.63443667 4.3995061
6.3720889 1.2663819 7.1211843
6.7472849 1.361765 6.8440261
4.870903 0.98572296 4.0895252
5.8461885 1.1841408 3.9953761
4.9677777 0.99540782 4.5936718
4.8849087 0.98056978 3.7114143
6.3032413 1.2664074 3.8636403
0.065349057 -0.0053456286 6.0040445
2.2325449 0.404008 14.423058
2.9977007 0.55689865 14.682047
3.8076701 0.72650158 12.439392
12.758636 2.4662764 30.673439
5.1345472 1.0000023 9.6536837
3.8723567 0.75839114 5.8679991
0.35885555 0.047556404 6.0992351
2.5828562 0.43822065 24.390009
3.7532477 0.70190424 14.738369
4.4626989 0.8498199 12.408089
8.208396 1.5793004 17.347422
3.1714907 0.61425424 5.354167
3.2089722 0.62382436 4.4034963
4.9822822 0.97211826 5.5812902
6.6715379 1.3222584 6.7634211
4.8094139 0.95581669 4.0361714
5.9118028 1.1759629 4.0364985
4.9675584 0.97734022 4.5903459
4.8288169 0.95178777 3.6672666
6.1384516 1.211023 3.7623129
0.065286957 -0.0055665728 5.9990449
2.2316463 0.39580572 14.408239
2.9966209 0.54588413 14.667361
3.8101828 0.71320593 12.439392
12.786362 2.4253664 30.719467
3.0655313 0.58597726 5.7869053
3.8943243 0.74858761 5.8969302
4.9053679 0.94557124 6.0577517
0.3593058 0.046339612 6.1042271
2.5843701 0.42920211 24.390009
3.7618566 0.68993211 14.762566
4.4690309 0.8348707 12.417475
8.2074423 1.5494266 17.33392
3.0045121 0.57104403 5.0726151
3.2111304 0.6126191 4.4034963
4.9956346 0.95663369 5.5923162
6.6131024 1.2867029 6.7003398
4.7897997 0.93455082 4.0173407
5.8543124 1.1432981 3.9953761
4.9599419 0.95787042 4.5803695
4.8400459 0.93646181 3.6731532
5.9691229 1.1559855 3.6584527
0.065267123 -0.0057944325 5.9990449
2.2291865 0.38734883 14.383544
2.9934964 0.53452605 14.642885
3.8141174 0.70017105 12.444164
3.0346026 0.56909364 5.7254586
3.8969135 0.73498929 5.8969302
4.9243855 0.93142074 6.0769391
0.35946536 0.045085117 6.1042271
2.5821698 0.41958052 24.355209
3.7296021 0.67057008 14.627061
4.3463078 0.79625726 12.07021
8.2470493 1.5271093 17.405939
2.952646 0.55051571 4.9830308
3.5123942 0.65738994 4.8064885
5.0855718 0.95546448 5.68787
6.6630921 1.2723061 6.7458987
4.7739182 0.9141655 4.0016484
4.9265699 0.93359953 4.5471144
5.9604168 1.1327279 3.6508532
0.06520351 -0.0060147881 5.9940453
2.2274611 0.37904415 14.363787
2.9863174 0.52249491 14.598828
3.8165381 0.68685305 12.444164
3.0059493 0.55286634 5.6684003
3.8994555 0.72138202 5.8969302
4.9307585 0.91481042 6.0807767
0.35962054 0.043830074 6.1042271
2.577301 0.40956166 24.295551
3.7257307 0.65645701 14.602864
4.3728399 0.78535098 12.135908
2.7218723 0.49425432 5.7838044
2.9135017 0.53270161 4.9147758
3.5235591 0.64675736 4.818459
5.1122141 0.94200701 5.7135968
6.7971878 1.2733351 6.875567
4.7426515 0.89102775 3.9734023
5.1512246 0.96871114 3.5211027
4.9261279 0.91571456 4.5437894
5.1405182 0.95741421 3.8909469
5.9939985 1.1174453 3.6685853
0.06518212 -0.0062423539 5.9940453
2.2264712 0.37088382 14.348969
2.9851122 0.5115518 14.584142
3.8203826 0.67378587 12.448936
2.9842911 0.53812081 5.6245093
4.8740053 0.88669384 6.007864
0.35977134 0.042574495 6.1042271
2.5734472 0.39974535 24.245834
2.0539565 0.36155692 5.7255898
2.7278676 0.485513 5.7928071
2.912776 0.5220682 4.9105096
3.5168979 0.63285303 4.8064885
5.0520844 0.91270542 5.6437683
7.3172016 1.344326 7.3907351
4.7380772 0.87305689 3.9671257
5.0846696 0.93783104 3.4744978
4.9292946 0.89851362 4.5437894
5.1438289 0.93946469 3.8909469
6.1081161 1.1166714 3.7344482
0.065159932 -0.0064698444 5.9940453
2.2262185 0.36285993 14.33909
2.988888 0.5014655 14.593932
3.8227112 0.66044611 12.448936
4.5385885 0.79548621 10.914804
2.9531329 0.5218665 5.5630627
4.8139615 0.85842216 5.9311142
0.35991779 0.041318402 6.1042271
2.5706108 0.39012077 24.206064
3.965709 0.67021799 15.522355
2.0586069 0.35497129 5.7349749
2.7295458 0.47598803 5.7928071
2.9145806 0.51189756 4.9105096
3.557663 0.62737513 4.8583589
4.9784603 0.88147128 5.5592399
7.4903183 1.3491187 7.5589533
4.6453385 0.83921397 3.8886642
5.0961413 0.92156452 3.4799805
4.9287252 0.88064504 4.5404639
6.2774615 1.1249995 3.8332419
0.065136947 -0.0066972557 5.9940453
2.2259369 0.35484233 14.329211
2.9896154 0.49086437 14.589037
3.8249934 0.64709836 12.448936
4.5471139 0.78063023 10.928612
2.9667358 0.51359731 5.5850077
4.7727246 0.83389026 5.877389
0.36034685 0.040092934 6.1092186
2.5698478 0.38083306 24.186178
3.9680245 0.656371 15.522355
2.063237 0.34835768 5.7443609
2.7075861 0.46242663 5.7432938
2.9831772 0.51321572 5.0214243
3.5004456 0.60469502 4.7785583
7.5687337 1.3359822 7.6325493
4.5715852 0.80942219 3.8258948
5.0622716 0.89720279 3.4553072
4.8582125 0.85055774 4.4739537
4.8636146 0.85324556 3.6790392
6.0945344 1.0702739 3.7217822
0.065113172 -0.0069245854 5.9940453
2.2256265 0.34683111 14.319333
2.9913106 0.48042566 14.589037
3.8272288 0.63374269 12.448936
4.5536642 0.76540065 10.937818
2.9637878 0.50243789 5.57623
3.1574044 0.53863901 4.7769008
4.8166776 0.82425308 5.9272766
0.3604846 0.038834844 6.1092186
2.5679958 0.37140301 24.156347
2.0746555 0.342841 5.7725172
2.6984477 0.45117795 5.7207875
3.0775354 0.5183925 5.1749978
3.4579692 0.58493477 4.718708
4.5332837 0.77005345 5.0630922
7.8755636 1.3618097 7.9339395
4.7929807 0.83137512 4.004787
5.0900912 0.88381869 3.4717562
4.8466454 0.83284062 3.6643238
6.0897355 1.0475317 3.7167156
0.065088607 -0.0071518305 5.9940453
2.2260554 0.33894324 14.314394
2.9929693 0.4699811 14.589037
3.8308911 0.62061799 12.453709
4.5428143 0.74728137 10.9056
2.960798 0.49130526 5.5674515
3.1620412 0.52807784 4.781034
5.0123582 0.83973843 6.1613641
0.36061797 0.037576281 6.1092186
2.5687487 0.36236238 24.151377
3.7266877 0.58976275 14.564149
2.0724328 0.33504641 5.7631316
2.6871161 0.43964735 5.6937799
3.1204991 0.51443326 5.2432523
3.4183707 0.5659706 4.662848
4.5459766 0.75589275 5.0741177
7.915432 1.3402642 7.9689851
4.8726006 0.82767528 4.0675559
5.0931454 0.86604548 3.4717562
5.3942747 0.90563828 4.9528255
4.8295937 0.81256467 3.6496079
6.0891047 1.0255524 3.7141826
0.065063246 -0.0073789884 5.9940453
2.2264564 0.33105665 14.309454
2.9945915 0.45953083 14.589037
3.833034 0.60724187 12.453709
2.9601314 0.48058346 5.5630627
3.1638653 0.51703703 4.781034
0.36074695 0.036317259 6.1092186
2.5689418 0.35324854 24.141434
3.7237546 0.57598221 14.544791
2.0769985 0.32834893 5.7725172
2.6800358 0.42888919 5.6757751
3.1351497 0.50561351 5.2645822
3.5036113 0.56752419 4.7745686
4.5452418 0.73947543 5.0704427
7.6491551 1.2677292 7.6991348
5.1288733 0.8527959 4.274694
5.1208858 0.85238111 3.4882052
5.4047723 0.88801396 4.9594769
4.9201431 0.8101483 3.7143576
6.1139145 1.0077966 3.7268486
0.065037094 -0.007606057 5.9940453
2.2268295 0.32317135 14.304515
2.9991987 0.44952756 14.603724
3.8351307 0.59385842 12.453709
2.9523292 0.4687458 5.5455065
3.185102 0.50909853 4.8099647
0.36087152 0.035057798 6.1092186
2.5696309 0.34420839 24.136463
3.761786 0.568425 14.685135
2.0781322 0.32109684 5.7725172
2.6772149 0.41885865 5.6667728
3.1265907 0.49304193 5.2475185
3.5859272 0.56801802 4.8822994
7.5056825 1.2170476 7.5519443
5.1971297 0.84551239 4.3280478
5.1197028 0.83382857 3.4854636
6.3407474 1.0349529 3.4495733
5.1092348 0.82115328 4.6901112
4.9229407 0.79296887 3.7143576
6.1216512 0.98713523 3.7293816
0.065010145 -0.0078330319 5.9940453
2.2271748 0.3152875 14.299577
3.0027642 0.43935031 14.613514
3.840132 0.58091408 12.463252
2.9563141 0.45880461 5.5498953
3.1924202 0.49884611 4.8182302
4.9860444 0.78174335 6.1191516
0.36099169 0.033797905 6.1092186
2.5702882 0.33516777 24.131491
3.7401202 0.55180573 14.593185
2.0809467 0.3140983 5.7772098
2.6808128 0.40983978 5.6712737
3.1463358 0.48490545 5.27738
3.5253549 0.54581672 4.7985086
7.7282648 1.2254676 7.7692261
5.1885176 0.82553118 4.3186326
5.1308413 0.81726784 3.4909463
6.3443217 1.0128132 3.4495733
5.0530539 0.79404038 4.6369033
4.9176936 0.77452213 3.7084711
6.1165428 0.96441793 3.7243154
0.064982407 -0.0080599124 5.9940453
2.2274921 0.30740517 14.294637
3.0073037 0.42929751 14.628199
3.833276 0.56619763 12.43462
2.9507937 0.44740546 5.5367279
3.1663241 0.48345265 4.7769008
4.9507236 0.7585094 6.073102
0.36110747 0.032537606 6.1092186
2.5714424 0.32619375 24.131491
3.7109201 0.53427041 14.472199
2.0837379 0.30708405 5.7819028
2.6886864 0.40144369 5.6847777
3.0371132 0.45722747 5.0939445
3.5302181 0.5339582 4.8024988
5.169446 0.78554726 5.7466731
7.6866813 1.1913828 7.7236676
5.1913676 0.80741489 4.3186326
5.2700067 0.82058197 3.5814147
6.3872099 0.99680865 3.4704425
4.9856749 0.76562959 4.5737185
4.868432 0.74935794 3.6702099
6.1837797 0.95290905 3.7623129
0.064996585 -0.0082956236 5.9990449
2.2277815 0.29952446 14.289698
3.0108008 0.41907802 14.63799
3.8426163 0.55387807 12.45848
2.959445 0.43815464 5.5498953
3.1819088 0.47447205 4.7975659
4.9279814 0.73742902 6.0424018
0.36121887 0.031276908 6.1092186
2.5725653 0.31721577 24.131491
3.6741745 0.51589727 14.322178
2.0882132 0.30029961 5.7912879
2.6943798 0.39268374 5.6937799
2.8993537 0.42614704 4.863584
3.5171556 0.51943123 4.7825484
5.2626996 0.78093255 5.8459024
7.5955892 1.1501287 7.6290445
5.0440774 0.76648444 4.1962328
5.5415411 0.84305841 3.7596102
6.3862715 0.97383934 3.4681237
4.9698553 0.7454527 4.5570912
4.8270507 0.72574908 3.6378353
6.3277397 0.95249206 3.8459079
0.06496723 -0.0085224537 5.9990449
2.2280431 0.2916455 14.284759
3.0152724 0.40897617 14.652676
3.8371353 0.53942275 12.43462
4.8959131 0.70038891 11.711041
4.8766088 0.71234739 5.9771643
0.36132583 0.030015828 6.1092186
2.5741863 0.30829722 24.136463
3.6672354 0.50187629 14.288302
2.0943756 0.29372734 5.8053665
2.5901256 0.36826468 5.4732208
2.8130488 0.40343776 4.7185426
3.4980698 0.5041424 4.7546182
4.6513996 0.67364198 5.1733475
7.4760809 1.1053528 7.5063853
4.9350667 0.73230517 4.1052175
5.6685314 0.84214312 3.8418543
6.3677249 0.94827878 3.4565299
5.3270874 0.78002924 4.8763394
4.8335543 0.70948213 3.6407785
6.454711 0.9485743 3.9193699
0.064937085 -0.0087491795 5.9990449
2.2282765 0.28376833 14.279819
3.0187006 0.39871493 14.662466
4.7337265 0.64858842 15.321671
4.9176774 0.68599343 11.757067
3.175873 0.44755653 5.9449124
3.5417633 0.50287426 5.3265829
4.7806969 0.68130296 5.8582015
0.36142841 0.028754383 6.1092186
2.5763056 0.29943264 24.146404
3.6502755 0.48658174 14.21571
2.0885491 0.28548038 5.7865958
2.5439556 0.35264689 5.3741937
2.8041084 0.39217129 4.701479
4.6503658 0.65692723 5.169672
7.2681112 1.0486935 7.2961125
4.7334309 0.68550831 3.9388795
5.7335086 0.83135116 3.8829761
5.3667397 0.76670969 4.9095941
4.8279986 0.69145942 3.634892
6.5603948 0.94072217 3.9801662
0.06490615 -0.0089757992 5.9990449
2.2284822 0.27589306 14.274879
3.0220935 0.38843474 14.672256
4.6175942 0.61626703 14.939911
4.923913 0.66934955 11.766272
3.1797886 0.43679377 5.9493017
3.526772 0.48819333 5.3017855
4.6878037 0.65137821 5.7430763
0.36181444 0.027513675 6.1142101
2.5789244 0.29061666 24.16132
3.6320074 0.47125018 14.138279
2.0844009 0.27750531 5.7725172
2.650882 0.35803857 5.5947533
2.8054602 0.38238072 4.701479
3.3432796 0.45803508 4.5431471
4.6660647 0.64254028 5.1843729
7.3105736 1.0287831 7.3346624
4.9169345 0.69456792 4.0863867
5.7943387 0.81953019 3.9213567
5.0328598 0.70109534 4.6069736
4.8263793 0.67404336 3.6319487
6.5764461 0.91960728 3.987766
0.064874418 -0.009202309 5.9990449
2.2286603 0.26801986 14.26994
3.0254519 0.37813571 14.682047
4.5442233 0.5903399 14.69654
4.8138876 0.63728929 11.499325
3.114826 0.41679925 5.8264074
3.4782569 0.46911043 5.2273927
4.626523 0.62641048 5.666326
0.36190829 0.026250543 6.1142101
2.5815129 0.28178599 24.176235
3.6411128 0.45951322 14.167316
2.0768001 0.26911941 5.7490535
2.5916812 0.34083748 5.4687195
2.8222897 0.37464425 4.7270746
5.1454077 0.6902504 5.7062459
7.4165826 1.0173119 7.4362941
4.9617448 0.68324077 4.1209097
5.8551555 0.80729455 3.9597371
4.9131818 0.66695017 4.497232
4.8246975 0.65664697 3.6290057
6.4642906 0.88092989 3.9193699
0.064799361 -0.0094190333 5.9940453
2.2295823 0.26023877 14.26994
3.028775 0.36781794 14.691837
4.5581036 0.57597077 14.734715
4.8122077 0.6199826 11.49012
3.0996377 0.40375891 5.7956839
3.3654797 0.4419466 5.0579414
4.867013 0.64167631 5.9541392
0.36199772 0.024987087 6.1142101
2.5803604 0.27254951 24.156347
3.6838663 0.45184851 14.327018
2.070878 0.26100564 5.7302818
2.508641 0.32101557 5.2931724
2.8132341 0.36345395 4.7100105
3.3523719 0.43545979 4.5511274
5.2116566 0.68062615 5.7760744
7.4236231 0.9918893 7.4397988
4.8869443 0.65556735 4.0581408
5.9242454 0.79575759 4.0036006
4.7192965 0.62386334 4.3209805
4.8269606 0.63980162 3.6290057
6.2707529 0.83227116 3.8028438
0.064766087 -0.0096451677 5.9940453
2.2366538 0.25315276 14.309454
3.028018 0.35700503 14.682047
4.5363812 0.55714583 14.658364
4.6883392 0.58739716 11.190955
3.0962758 0.39233464 5.7869053
3.3223403 0.42449078 4.9918141
4.980495 0.63895732 6.0884519
0.36208272 0.023723325 6.1142101
2.579705 0.26337856 24.141434
3.6879172 0.43928385 14.336696
2.0649252 0.25293648 5.7115111
2.4816625 0.30876374 5.2346563
2.8170733 0.35395676 4.7142768
3.3269663 0.42035624 4.5152168
5.2778997 0.67054754 5.8459024
7.3386288 0.95447159 7.3521852
5.8855257 0.76965159 3.976186
4.5992379 0.59166592 4.2112393
4.7289448 0.61002111 3.5554266
6.0769567 0.78497463 3.6863174
0.064732023 -0.0098711848 5.9940453
2.2406135 0.24568219 14.329211
3.028234 0.34631747 14.677152
4.5486741 0.54254472 14.691769
4.6923008 0.57126427 11.195559
3.0976264 0.38152424 5.7869053
3.4494677 0.42849901 5.1777973
5.0081396 0.62474209 6.1191516
0.36216334 0.022459276 6.1142101
2.5795476 0.25426769 24.131491
3.704412 0.428139 14.394769
2.0589409 0.2449121 5.69274
2.8053477 0.34254104 4.6929469
4.1149926 0.50532031 5.5645933
5.2532916 0.6487962 5.8165011
7.3808346 0.93377262 7.3907351
4.6944766 0.59641719 3.8980794
5.8384004 0.74277031 3.9432886
4.7939301 0.59970683 4.3841653
4.7510982 0.59602582 3.5701425
6.0882144 0.76483184 3.6913841
0.064697176 -0.010097082 5.9940453
2.2468662 0.23843275 14.363787
3.0243645 0.33518443 14.652676
4.5386777 0.52529109 14.653593
4.6380024 0.54823232 11.062085
3.1560128 0.37753499 5.8922439
3.5179927 0.42454574 5.276988
5.0071077 0.60687101 6.115314
0.36223951 0.021194953 6.1142101
2.5793581 0.24516115 24.121548
2.0546405 0.23713034 5.6786618
2.8168859 0.33397445 4.7100105
4.1257071 0.4920235 5.5765634
5.2285962 0.62722474 5.7870998
7.3840489 0.90800303 7.3907351
4.6965299 0.58002681 3.8980794
4.7663422 0.57936525 4.3575611
4.7812362 0.58286148 3.5907447
6.0865679 0.74305302 3.6888509
0.064703941 -0.010333123 5.9990449
2.2469118 0.23050907 14.358847
3.025516 0.32462537 14.652676
4.5375171 0.50911212 14.644049
4.6398873 0.53203928 11.062085
3.2881575 0.38170189 6.1336427
3.5306327 0.41357246 5.2935195
5.0314784 0.59201086 6.1421766
0.3623113 0.019930374 6.1142101
2.5791364 0.23605901 24.111605
3.7772906 0.409857 14.665776
2.0468807 0.22899804 5.6551981
2.8387623 0.32652324 4.7441382
4.0884867 0.47311679 5.524693
7.6775427 0.91689825 7.6781077
4.7062554 0.56455648 3.9043562
5.5901971 0.67157072 3.7760589
4.6941743 0.55397278 4.2910514
4.8996472 0.5799458 3.6760964
6.0976868 0.7228173 3.6939173
0.064667478 -0.010558918 5.9990449
2.2531154 0.22319998 14.393421
3.0377712 0.31521755 14.706523
4.524426 0.49165803 14.596329
4.6125908 0.51260376 10.993048
3.3656292 0.3787913 6.2740936
3.4845221 0.39584684 5.2232594
5.0366993 0.57480752 6.1460142
0.36237869 0.01866555 6.1142101
2.581538 0.22719464 24.12652
3.7786982 0.3966693 14.665776
2.056246 0.22278059 5.6786618
2.8424766 0.31690103 4.748404
4.1290417 0.46320888 5.5765634
7.7692604 0.90035594 7.7657218
4.7545915 0.55352592 3.9420176
5.5925069 0.65205324 3.7760589
4.6107597 0.52781743 4.2145643
4.9016418 0.56283927 3.6760964
6.5584083 0.75422353 3.9649673
0.064630225 -0.010784586 5.9990449
2.2569747 0.21562897 14.413179
3.0408792 0.30481482 14.716313
4.5350223 0.476798 14.624961
4.5385962 0.48835021 10.813549
3.3645499 0.36678123 6.2697043
3.452317 0.37998736 5.1736641
5.0163741 0.5547567 6.1191516
0.3624416 0.017400498 6.1142101
2.583909 0.21831638 24.141434
3.7312884 0.37853131 14.477039
2.0398483 0.21380375 5.6317344
2.6057291 0.27810815 5.482223
2.9161685 0.31481293 4.8678503
4.1486073 0.45074564 5.6005034
7.8574104 0.8827861 7.8498306
4.7564945 0.53692591 3.9420176
5.5656643 0.62923968 3.7568686
4.9317207 0.54712301 4.5005579
4.9196453 0.54751414 3.6878691
6.6552548 0.74183154 4.0206971
0.06459219 -0.011010122 5.9990449
3.0459788 0.29459009 14.735894
4.5292335 0.46021071 14.601101
4.5616484 0.47472858 10.864177
3.3443735 0.35277396 6.2302027
3.4592187 0.36853027 5.1819296
0.36250016 0.016135234 6.1142101
2.5841238 0.2092526 24.136463
3.4936476 0.34211826 13.55271
3.5428681 0.35874912 9.7379045
2.6088495 0.26923418 5.4867244
3.026195 0.31600544 5.0470195
4.1831198 0.4397262 5.6443939
7.9419866 0.86422604 7.9304352
4.6693473 0.51058888 3.8698332
5.7091508 0.62528551 3.8500786
4.9892869 0.53588539 4.5504403
4.9175076 0.52990502 3.6849258
6.7178063 0.72507179 4.0561619
0.064553358 -0.011235523 5.9990449
2.4085779 0.21313593 15.371394
3.0520575 0.28442788 14.76037
4.5560675 0.4468742 14.682224
4.726562 0.47521564 11.250789
3.3432019 0.34085491 6.2258134
3.4520864 0.35558829 5.1695309
0.36255425 0.014869775 6.1142101
2.5901532 0.20064186 24.186178
3.4835577 0.32885841 13.509154
3.5063143 0.34268853 9.6346636
2.5989423 0.25904676 5.4642181
3.1336687 0.31617171 5.2219229
4.2325945 0.42999387 5.7082343
8.3988371 0.85909742 9.2307291
8.4202061 0.8865329 8.4000444
4.5975575 0.486505 3.8102026
5.727931 0.60711586 3.8610444
4.9688449 0.51615179 4.5304875
4.9032464 0.51106048 3.6731532
6.6731343 0.6966942 4.0282969
0.064513743 -0.011460788 5.9990449
2.4155009 0.20525268 15.41091
3.0570884 0.27413595 14.779952
4.5769186 0.432794 14.74426
4.7359695 0.45946836 11.269198
3.3181534 0.32660294 6.1775336
3.5849166 0.35662612 5.3637795
4.4191236 0.44192362 5.3938632
0.36260396 0.013604132 6.1142101
2.5855217 0.19120705 24.136463
3.4684112 0.31521836 13.446242
3.5126431 0.3309325 9.6487417
2.5998306 0.24997319 5.4642181
3.1710939 0.30876884 5.2816458
4.2070794 0.41257033 5.6723237
8.3984118 0.82944167 9.2270546
5.5033011 0.56002265 5.5158029
4.5605068 0.46649313 3.7788181
5.7175364 0.58583939 3.8528202
4.8331566 0.48501119 4.4074435
4.9050007 0.49394184 3.6731532
6.6883926 0.67469424 4.0358963
0.064473353 -0.011685913 5.9990449
2.4100072 0.19631582 15.371394
3.0691857 0.26442361 14.833798
4.5784011 0.41681492 14.74426
2.1757469 0.20347883 5.2076745
3.2954302 0.31275621 6.1336427
3.614151 0.34679759 5.4051089
4.3983064 0.42434093 5.3670011
0.36264923 0.012338326 6.1142101
2.5872366 0.18225546 24.146404
3.4244108 0.29917344 13.272022
3.5240889 0.31960389 9.676899
2.5941844 0.24029444 5.4507146
3.2344711 0.30354476 5.3840284
4.2084937 0.39788234 5.6723237
8.4316282 0.80301309 9.2601299
4.5611429 0.44807485 4.5835934
4.5388665 0.44827595 3.7599871
5.744513 0.56834793 3.8692687
4.7865076 0.46345982 4.3642125
4.9026713 0.47642627 3.6702099
6.7164502 0.6538493 4.0510955
0.064432167 -0.011910897 5.9990449
2.4114525 0.18796241 15.376334
3.0812526 0.25463021 14.887647
4.5902376 0.40174147 14.777664
2.1667151 0.19500768 5.1846619
3.2654965 0.29841846 6.0765848
3.6377563 0.33625138 5.4381723
4.3806119 0.40720564 5.3439755
0.36269009 0.011072369 6.1142101
3.420424 0.28679833 13.252665
2.0656178 0.18011835 5.69274
2.5776606 0.22969246 5.4147048
3.2666807 0.29506725 5.4352193
4.1948528 0.38182405 5.6523738
8.4512606 0.77512455 9.2785063
4.5626793 0.43215075 4.5835934
4.5636525 0.43464366 3.7788181
5.7464623 0.54829234 3.8692687
4.7992487 0.44778943 4.3741889
4.8600364 0.45516422 3.6378353
6.6886473 0.62758172 4.0333629
0.064390197 -0.012135733 5.9990449
2.4074447 0.17919825 15.346699
3.0851676 0.24411379 14.902332
4.5752497 0.38434216 14.725173
2.1673827 0.18744324 5.1846619
3.2736752 0.28764662 6.0897522
4.0257177 0.35793704 6.0085196
4.4522414 0.39819267 5.428401
0.36272654 0.0098062772 6.1142101
1.6867191 0.10714085 15.719706
3.4727745 0.27898121 13.451081
2.0696735 0.17319451 5.7021255
2.5762775 0.22050779 5.4102035
3.2728872 0.28411356 5.4437513
4.1901569 0.36665374 5.6443939
5.391664 0.49167588 5.4001527
4.5496378 0.41728899 3.7662642
5.6484075 0.51904756 3.8034737
4.8045015 0.43136808 4.3775144
4.8414674 0.43638265 3.6231194
6.6993842 0.60500556 4.0384297
0.064347439 -0.012360423 5.9990449
3.0941236 0.23395665 14.941494
4.5706115 0.36789033 14.706084
2.1485541 0.17826214 5.1386366
3.1791985 0.26816794 5.9141889
4.1082535 0.35082468 6.1283751
4.4823461 0.38511807 5.4629388
0.36275855 0.008540065 6.1142101
1.6908077 0.10147505 15.754507
3.4887667 0.26801187 13.509154
2.0823064 0.16693351 5.7349749
2.4815669 0.20368169 5.2121501
3.2322745 0.26922461 5.3754964
4.1854057 0.35152084 5.6364136
8.3821478 0.70981228 9.1976519
5.4537416 0.47814691 5.4597301
4.5510664 0.40140527 3.7662642
5.5752115 0.49270245 3.7541273
4.8022575 0.41427374 4.3741889
4.8026915 0.41599238 3.5936878
6.7272234 0.58385295 4.0536289
0.064303905 -0.012584962 5.9990449
3.0928903 0.22300839 14.931704
4.56145 0.35113204 14.672681
2.1511106 0.17091583 5.143239
3.1872771 0.25764757 5.9273562
4.1627412 0.34084445 6.2069011
4.6306057 0.38157615 5.6394639
0.36278617 0.0072737494 6.1142101
1.6943448 0.095752068 15.784336
3.5147531 0.25766894 13.605944
2.086318 0.1599275 5.7443609
2.5712435 0.20200549 5.3966999
3.2123966 0.25628147 5.3413692
4.1896105 0.33715054 5.6404037
5.5015755 0.46299443 5.5052891
4.5408049 0.38453141 3.7568488
5.5810637 0.47359186 3.7568686
4.7925119 0.39658454 4.3642125
4.812171 0.39989477 3.5995741
0.064217605 -0.012797462 5.9940453
2.2525535 0.14398623 14.348969
3.0926337 0.21214123 14.926808
4.5492496 0.33422357 14.629732
2.1536422 0.16355385 5.1478415
3.1929326 0.24688949 5.9361343
4.1106024 0.32213533 6.1283751
4.4338002 0.34978363 5.4015384
0.36280933 0.0060073454 6.1142101
1.6877486 0.089472026 15.719706
3.5193927 0.24566099 13.620461
2.0868635 0.1526439 5.7443609
2.6761332 0.20084552 5.6127582
4.1727357 0.32113698 5.6164637
4.3174 0.33528754 4.7727542
5.4960489 0.4432143 5.4982805
4.5343599 0.36804894 3.750572
5.6785398 0.46190411 3.8199224
4.6896477 0.37159598 4.2710981
4.8014498 0.3821328 3.5907447
0.064172536 -0.013021545 5.9940453
2.2514911 0.13602896 14.33909
3.0923395 0.20127858 14.921913
4.5503883 0.3183417 14.629732
2.1561484 0.15617628 5.1524444
3.060019 0.22587319 5.6903458
4.0050673 0.29980421 5.971323
4.3742666 0.32972786 5.3286257
0.36282808 0.0047408678 6.1142101
1.685921 0.08347524 15.699821
3.5127037 0.232876 13.591425
2.0839405 0.14511891 5.7349749
3.3987892 0.24728124 5.6442499
4.1558003 0.30524534 5.5925236
4.3253059 0.32071629 4.7801046
4.5200949 0.35101351 3.738018
5.7092991 0.44435048 3.8391128
4.3632822 0.33041629 3.9784541
4.786633 0.36414394 3.5789721
0.064126693 -0.01324547 5.9940453
2.2465219 0.12786061 14.304515
3.0920069 0.19042057 14.917018
4.5425358 0.30186239 14.601101
2.1547315 0.14851473 5.1478415
3.837676 0.27380916 5.7233462
4.2986631 0.30894339 5.2365255
0.36284244 0.0034743326 6.1142101
1.6867346 0.077614136 15.704792
3.493423 0.21935365 13.513994
2.0809908 0.1376162 5.7255898
3.4594734 0.23955829 5.7423668
4.1357994 0.28926569 5.5645933
4.3399258 0.30657154 4.7948055
4.734334 0.34854555 4.744803
4.5212922 0.33523333 3.738018
5.744175 0.42689764 3.8610444
4.2415142 0.30630967 3.8687124
4.7878747 0.34743327 3.5789721
0.064080067 -0.013469232 5.9940453
2.2523859 0.1203074 14.33909
3.0946858 0.1797442 14.926808
4.5450511 0.28609782 14.605873
2.1474388 0.14048268 5.1294312
3.832993 0.26003063 5.7150803
4.0726728 0.27841836 4.9640627
0.36285236 0.0022077549 6.1142101
1.6912559 0.071905926 15.744564
3.1767106 0.18835314 12.289619
3.3561921 0.22063991 5.5717297
4.1367841 0.2748273 5.5645933
4.3646474 0.29300979 4.8205314
4.7461944 0.3327657 4.7553163
4.5224347 0.31944901 3.738018
5.6163292 0.39768913 3.7760589
4.2313828 0.2907345 3.858736
4.7850261 0.3304399 3.5760288
0.064032659 -0.013692832 5.9940453
2.2535682 0.11248301 14.344028
3.0973279 0.1690515 14.936599
2.1459661 0.13286524 5.1248288
2.4766145 0.15676866 4.6150217
3.7580557 0.2417728 5.6034908
4.0768185 0.26440781 4.9679003
0.36285785 0.00094110152 6.1142101
1.6936272 0.066084497 15.76445
3.1786041 0.17733316 12.294458
3.2476161 0.20212169 5.3925605
4.128696 0.25981793 5.5526228
4.3622599 0.27755731 4.8168564
4.6619263 0.31050909 4.6712074
4.5740089 0.30704954 3.7788181
5.3590193 0.36067489 3.6060879
4.2137427 0.27474791 3.8421085
4.814384 0.31558555 3.5966308
0.063984476 -0.013916264 5.9940453
2.2554994 0.10468775 14.353908
3.0978992 0.15823877 14.936599
2.1893244 0.12787768 5.2260842
2.4771466 0.14812271 4.6150217
3.7335968 0.22711594 5.5662942
4.202487 0.25782859 5.1175632
0.36285892 -0.0003255145 6.1142101
1.8648522 0.066203639 17.360302
3.1729276 0.16590886 12.270262
2.4249487 0.13949265 5.0861163
3.1519706 0.18512851 5.2347207
4.1446176 0.24629804 5.5725732
4.3496661 0.26151481 4.8021555
4.6167121 0.2913149 4.625648
4.6410885 0.2952823 3.8321719
5.0848312 0.32439724 3.4251513
4.2295823 0.26095712 3.8554106
4.8638668 0.30178165 3.6319487
0.063935511 -0.014139527 5.9940453
2.255851 0.096813954 14.353908
3.0974154 0.14737579 14.931704
4.0514083 0.21247263 13.016803
2.1878066 0.12012773 5.2214818
2.4800396 0.13960949 4.6194105
3.6922259 0.21166679 5.5043001
4.2545595 0.24611865 5.1789632
0.36285555 -0.0015921264 6.1142101
1.8730637 0.059947632 17.434875
3.1734874 0.15483227 12.270262
4.2592854 0.22185561 11.652554
2.4188993 0.13067509 5.0726123
3.0848918 0.17038703 5.1238065
4.1123576 0.22997886 5.5286832
8.8931866 0.52995789 8.8346081
4.6964855 0.28234982 3.8761103
5.1527138 0.31067193 3.4690146
4.2341952 0.24640842 3.858736
4.905242 0.28716373 3.6613805
0.063885763 -0.014362617 5.9940453
2.2546225 0.088877961 14.344028
3.0867217 0.13607045 14.877855
4.0506349 0.19825637 13.012031
2.5068204 0.13233966 4.6676908
3.794101 0.20422038 5.6530862
4.3034 0.23387435 5.2365255
0.36284781 -0.0028587191 6.1142101
1.8695316 0.053303558 17.400074
3.1790309 0.14398098 12.289619
4.3048487 0.2091627 11.774565
2.4389083 0.12321859 5.1131234
3.0151451 0.15598147 5.008626
4.0830445 0.21404566 5.4887829
5.2146597 0.27698904 5.7393227
8.8985434 0.49911135 8.8381128
4.7246451 0.26749426 3.8980794
5.500268 0.31235951 3.6965563
4.2685833 0.23346165 3.8886657
4.926394 0.27115002 3.6760964
0.063835233 -0.014585532 5.9940453
2.2564719 0.081062913 14.353908
3.0749693 0.12480034 14.819114
4.0274434 0.18303238 12.935678
2.5024827 0.12335276 4.6589122
3.8481896 0.19366165 5.7316117
4.1729455 0.21217969 5.0791883
0.36283562 -0.0041252766 6.1142101
1.6858585 0.042219967 15.684906
3.1795142 0.13288321 12.289619
4.2676268 0.19242576 11.671325
2.4654181 0.11593048 5.1671381
3.0625613 0.14771619 5.085413
4.0897856 0.20008625 5.4967628
5.2731566 0.26164031 5.8018007
7.9137425 0.41617411 7.8673539
4.9393258 0.26235375 4.0706944
5.534729 0.29493794 3.718488
4.2022524 0.2151247 3.8288066
4.9596038 0.25561622 3.6996417
0.063809685 -0.014696923 5.9940453
2.2612693 0.077283137 14.383544
3.0639696 0.11953422 14.765265
4.0217605 0.17644438 12.916591
2.5050447 0.119973 4.6633015
3.8315594 0.18813232 5.7068143
4.237227 0.21025753 5.1559381
0.36283189 -0.004441909 6.1142101
1.6816314 0.040646806 15.645134
3.1921654 0.13117887 12.338014
1.8679843 0.082990937 5.1389937
2.4654784 0.11463958 5.1671381
3.6293697 0.17629819 4.8862891
5.2563176 0.25896567 5.7834244
7.8254151 0.39783517 7.7797403
4.9241834 0.25379348 4.0581408
5.5101304 0.28494814 3.7020395
4.1688766 0.20976903 3.798877
4.94767 0.25153807 3.6908119
0.063799553 -0.014932843 5.9990449
2.2716217 0.069697835 14.447754
3.0521762 0.10787272 14.706523
3.9239411 0.15774895 12.60164
2.4815602 0.10930042 4.6194105
5.0382762 0.22709212 7.4798489
4.2188258 0.1923708 5.1329131
0.36280906 -0.006025014 6.1142101
1.6929849 0.033527751 15.749536
3.2027769 0.11705872 12.376729
1.864893 0.074376158 5.1296082
2.4594662 0.10274772 5.1536345
3.2144189 0.13817133 5.3328371
3.6091156 0.15763965 4.8583589
5.3218703 0.23613007 5.8532529
7.8588166 0.37203449 7.8112812
4.8162203 0.23053382 3.9702637
5.4693708 0.26274437 3.6746247
4.1995912 0.19294758 3.8254809
4.9770246 0.2303919 3.7114143
0.063720495 -0.015266691 5.9990449
2.2843935 0.057718635 14.526782
3.0496619 0.091266207 14.691837
3.9202857 0.13567647 12.587324
2.4869184 0.095623016 4.6281886
5.1238565 0.20138448 7.603838
4.1622148 0.16577379 5.063838
0.36276546 -0.0082411626 6.1142101
1.6862329 0.022797903 15.684906
3.2122438 0.097198524 12.410604
1.8653235 0.062657297 5.1296082
2.436147 0.086019076 5.1041212
3.2152441 0.11741079 5.3328371
3.622103 0.13477786 4.8743191
5.6248279 0.21220121 6.1803422
7.5364141 0.31723437 7.4923668
4.6851773 0.1988613 3.8635561
5.3495607 0.22798604 3.5951221
4.2268071 0.16833009 3.8487597
5.0995021 0.20485131 3.7997091
0.063666821 -0.015489024 5.9990449
2.2845724 0.050142996 14.526782
3.041805 0.080936588 14.652676
5.3693938 0.16888738 17.220921
5.0850611 0.18475093 7.5459762
4.1210489 0.1518894 5.0139503
0.36274266 -0.0091908509 6.1142101
1.692147 0.018741043 15.739593
3.209959 0.089279495 12.400927
1.8775449 0.058474492 5.1624579
2.4646206 0.08142478 5.1626368
3.377105 0.11564569 5.5973248
3.6223996 0.12655923 4.8743191
5.6659169 0.20186833 6.2244449
7.4234405 0.28652474 7.3802214
4.685811 0.18332361 3.8635561
5.2709017 0.20712592 3.5430343
4.2682767 0.15879028 3.88534
5.2333131 0.19650427 3.8968334
0.063612357 -0.01571117 5.9990449
2.2862873 0.042196523 14.53666
3.0532665 0.070576228 14.706523
5.3729353 0.15022703 17.230465
2.7795393 0.088407032 5.1636567
4.0670953 0.13568723 4.9487128
0.36270836 -0.010457003 6.1142101
1.6900698 0.012818605 15.719706
3.2001984 0.077830181 12.362211
1.8777375 0.051920284 5.1624579
2.440954 0.072114922 5.1131234
3.369668 0.1036164 5.5845275
3.6228189 0.11391392 4.8743191
4.2536197 0.13669746 4.6919007
5.5283165 0.19406621 5.5158029
4.7214313 0.16821298 3.8918023
5.0542974 0.18094777 3.4004781
4.3509016 0.14665671 3.9585011
5.2945619 0.18029848 3.9409807
0.063557133 -0.015933122 5.9990449
2.2879746 0.034238689 14.546539
3.0585842 0.060017422 14.730999
3.9110122 0.095730208 12.55392
2.8229237 0.079922833 5.2426596
3.2128923 0.094301254 4.7934327
4.0290976 0.12034182 4.9026628
0.36266965 -0.011723028 6.1142101
1.6938357 0.0069334097 15.754507
3.1941669 0.066528402 12.338014
1.8779074 0.045365442 5.1624579
3.3700092 0.091853432 5.5845275
4.2879591 0.12281896 4.7286525
5.5646052 0.17589402 5.5508485
5.2513232 0.16964836 3.5293269
4.5230622 0.13665353 4.111474
5.3234391 0.16267996 3.9615827
0.06352362 -0.016066201 5.9990449
2.2895951 0.029466491 14.556417
3.0607395 0.053646956 14.74079
5.3856287 0.12048346 17.268639
2.208004 0.05484198 5.2629046
2.6195805 0.068681367 4.8695884
3.153995 0.086513668 4.7066407
4.0485458 0.11314327 4.9256883
0.36264649 -0.012419282 6.1142101
3.1854916 0.060230073 12.304138
1.8866172 0.041951269 5.1859212
2.2389116 0.054031298 4.6945105
3.2919488 0.083978012 5.4565492
3.9788082 0.10425103 5.3451419
4.2644448 0.11469711 4.7029262
4.3422689 0.1281639 4.3487887
5.0452127 0.15153782 4.1522942
5.4481049 0.16458279 3.6581759
4.5979614 0.13008074 4.1779842
5.3116212 0.15211236 3.9527533
0.063472837 -0.016265685 5.9990449
2.2904532 0.022280844 14.561357
3.0568204 0.04397282 14.721209
5.3874736 0.1035921 17.273413
2.5814736 0.059568629 4.7993627
3.1345592 0.076126866 4.6777105
4.0520854 0.10050327 4.9295254
0.36260566 -0.013558506 6.1142101
1.8724227 -0.0018583201 17.41996
3.1793809 0.050123561 12.279941
1.893641 0.036155403 5.2046924
2.2325408 0.04686052 4.6810069
3.2687299 0.073111311 5.4181557
3.9941785 0.092097826 5.3650923
5.1798687 0.12302452 5.6952209
4.3034348 0.11348791 4.3102393
5.0456638 0.1356871 4.1522942
5.5363727 0.14984147 3.7157469
4.7252555 0.11882544 4.2910514
5.215096 0.13295302 3.8821175
0.063415669 -0.016487148 5.9990449
2.2920711 0.014295027 14.571236
3.041683 0.033136986 14.64778
5.3773546 0.084621549 17.240009
2.2044127 0.040125929 5.2536998
3.1432571 0.064811468 4.6901093
4.0171766 0.084906429 4.8873129
0.36255354 -0.014887431 6.1142101
1.8819982 -0.0087679699 17.509447
3.1757724 0.038424797 12.265423
1.8747808 0.028923079 5.1530719
3.2064049 0.059401847 5.3157735
4.1150107 0.079074532 5.524693
5.1803026 0.10313439 5.6952209
4.3822422 0.10025913 4.3873391
4.9527173 0.11588906 4.0769715
5.5535836 0.13090909 3.7267127
4.7256594 0.10150572 4.2910514
5.0660295 0.1105753 3.7732208
0.063357733 -0.016708411 5.9990449
2.2913299 0.0062920842 14.566296
3.0346527 0.022467084 14.613514
5.3791099 0.065868795 17.24478
2.2045393 0.032430846 5.2536998
2.3878572 0.038430374 4.4438477
3.9847345 0.068229854 5.9258604
4.0206532 0.070939854 4.8911505
0.36249936 -0.016152889 6.1142101
1.8872865 -0.015381973 17.559164
3.1696029 0.0272853 12.241225
1.8662425 0.022276295 5.1296082
3.203985 0.048169896 5.3115072
4.1243 0.064851969 5.5366631
5.1907997 0.085217975 5.7062459
4.3540406 0.084408954 4.359303
4.8091049 0.095734879 3.9608486
5.5540066 0.11152266 3.7267127
4.6065235 0.082861677 4.1846352
5.0663848 0.092890888 3.7732208
0.063299023 -0.016929468 5.9990449
2.2882302 -0.0017037959 14.546539
3.0204577 0.011819295 14.54498
5.3703513 0.047013644 17.216148
2.2104995 0.024800835 5.2675071
2.385582 0.030064866 4.4394584
4.0299683 0.054933053 5.9919877
4.0176716 0.056859404 4.8873129
0.36244076 -0.017418148 6.1142101
1.881891 -0.021906475 17.509447
1.8559552 0.015675014 5.1014519
3.1493685 0.036354728 5.2219229
4.1305275 0.050528705 5.5446434
3.919863 0.050678954 4.3280592
4.8055177 0.078883521 3.95771
5.546 0.091996223 3.7212296
4.5881181 0.066510975 4.1680079
5.0828447 0.07544519 3.7849934
0.063239545 -0.01715032 5.9990449
2.2851021 -0.0096776374 14.526782
3.0184445 0.0012751464 14.535191
3.9151146 0.020646768 12.563463
2.2242477 0.017189622 5.2997246
2.4048314 0.021911336 4.4745708
3.881 0.039355744 5.7729416
4.0755367 0.043449011 4.956388
0.36237776 -0.018683197 6.1142101
1.8818032 -0.028475367 17.509447
1.8473705 0.0091542583 5.0779877
2.2699873 0.015546995 4.7575274
3.1207891 0.025130834 5.1749978
4.1125998 0.035952397 5.5207028
3.926796 0.037059676 4.3354101
3.8588531 0.047867548 3.8721707
4.6267328 0.059796236 3.8133409
6.4201317 0.084075883 4.2941961
4.662993 0.051316142 4.2345176
5.0467014 0.0572896 3.7585049
0.063179292 -0.017370963 5.9990449
2.2827234 -0.017635766 14.511964
3.0082486 -0.0092296321 14.486238
3.9136701 0.0069777369 12.558691
2.2242942 0.0094254455 5.2997246
2.4192631 0.013597033 4.5009055
3.1663673 0.02106774 4.7231727
4.1141253 0.029497704 5.0024381
0.36231032 -0.019948017 6.1142101
3.5744579 -0.006685087 13.79952
1.8473911 0.0027056767 5.0779877
2.3571053 0.0079119392 4.9375763
4.0825682 0.021438746 5.480803
3.9404621 0.023432847 4.3501105
3.8589964 0.034397345 3.8721707
4.6074524 0.043462142 3.7976489
6.4956484 0.062387425 4.3435426
4.7527518 0.035711471 4.3143296
5.0266614 0.03951424 3.743789
0.063077301 -0.017576391 5.9940453
2.2795403 -0.025568593 14.492208
3.0041251 -0.01970331 14.466657
3.9211342 -0.0066971374 12.582552
2.2301748 0.0016652447 5.3135328
2.4145057 0.0051421137 4.4921269
3.1692357 0.010023768 4.7273054
4.1494608 0.015265778 5.0446506
0.36252666 -0.021230269 6.1192017
3.565614 -0.019114627 13.765644
1.854292 -0.0037576524 5.0967588
2.479027 -0.00033754823 5.1896443
3.6503177 0.0038976725 6.0409822
3.9861939 0.0070194886 5.3531218
3.974421 0.0097607654 4.3868618
3.8697915 0.020984611 3.8826842
4.6932054 0.02788702 3.8666947
6.504189 0.039764088 4.3490252
4.7976522 0.019300921 4.3542356
4.9984746 0.021844221 3.723187
0.063015565 -0.017796466 5.9940453
2.2809911 -0.033548571 14.502086
3.0040381 -0.030189546 14.466657
3.9225798 -0.020392224 12.587324
2.4073243 -0.0032764205 4.47896
3.160809 -0.001036486 4.7149067
4.1462836 0.00078080426 5.040813
0.36245033 -0.022495594 6.1192017
3.3009892 -0.08485698 30.753534
3.5655255 -0.031560827 13.765644
1.8663471 -0.010297782 5.1296082
2.4006412 -0.0087037254 5.0276008
3.6920371 -0.008946809 6.1092372
3.9439197 -0.0040812162 4.353786
3.8769739 0.0074900845 3.8896935
4.802259 0.011770821 3.9545717
5.4087572 0.014191736 3.6307611
4.6819439 0.0024932516 4.2511454
4.9944782 0.0043926281 3.7202437
0.062953055 -0.018016323 5.9940453
2.2816367 -0.041524746 14.507025
3.0120592 -0.040786296 14.505818
3.9329331 -0.034175642 12.620728
2.4049032 -0.011667825 4.4745708
3.1579723 -0.012058957 4.7107739
4.1558766 -0.013724898 5.0523257
0.3623696 -0.023760648 6.1192017
3.2942789 -0.096191525 30.693876
3.5540819 -0.043866463 13.72209
1.8939093 -0.017063072 5.2046924
2.37012 -0.016865389 4.9645834
3.6580796 -0.021633178 6.0537796
3.5884018 -0.018727297 4.8264389
3.9438813 -0.017848041 4.353786
3.8413138 -0.0059876489 3.8546481
4.9268241 -0.0051233661 4.0550022
5.4296808 -0.0047074389 3.6444685
4.4653659 -0.013207912 4.0582662
4.9257493 -0.012862189 3.6702099
0.062930599 -0.018251391 5.9990449
2.2822547 -0.049505845 14.511964
3.0190251 -0.051422004 14.540086
3.9327898 -0.047903933 12.620728
2.2535126 -0.0219182 5.368763
2.395268 -0.019982178 4.4570146
3.1494689 -0.023020383 4.6983747
4.1461878 -0.02816608 5.040813
0.3625724 -0.025046101 6.1241937
3.2981849 -0.10783003 30.733646
3.5601912 -0.056372069 13.746286
1.8921127 -0.023652261 5.1999998
