# .PCD v0.7 - Point Cloud Data file format
VERSION 0.7
FIELDS x y z
SIZE 4 4 4
TYPE F F F
COUNT 1 1 1
WIDTH 1526
HEIGHT 1
VIEWPOINT 0 0 0 1 0 0 0
POINTS 1526
DATA ascii
3.7048435 -2.4003525 7.2909007
4.0932732 -2.6479836 6.530179
0.044147305 -0.050575662 6.1840377
1.9198948 -1.2873323 14.694716
2.3689268 -1.5724541 13.693211
2.4705403 -1.614085 7.0118642
4.3269777 -2.8184683 9.5307903
3.7356851 -2.427757 6.6160631
2.7362871 -1.8786713 30.912622
3.2338023 -2.1256764 10.57791
2.7899785 -1.8262925 6.9586215
3.6462147 -2.3804774 7.1927843
4.0562387 -2.6441548 6.486289
0.043970495 -0.050729457 6.1840377
1.9211835 -1.2979416 14.73917
2.3490362 -1.5710894 13.609992
3.038341 -2.0108583 11.694963
2.4502051 -1.6130302 6.9704413
4.3051 -2.8256698 9.5044556
3.7342503 -2.4454069 6.6284618
2.7301509 -1.8885145 30.917595
3.2378719 -2.1445754 10.615452
2.7708659 -1.8276294 6.9271126
3.6139162 -2.3774233 7.1458588
4.0243173 -2.6434083 6.4503784
0.043793146 -0.050882634 6.1840377
1.9224215 -1.3085756 14.783624
2.3266513 -1.567898 13.512088
3.0201266 -2.013998 11.652015
2.4575834 -1.6302129 7.0072613
4.2792292 -2.8301105 9.4693422
3.7280402 -2.4599771 6.6325951
2.7235422 -1.898033 30.917595
3.2475903 -2.1673601 10.671765
2.7717216 -1.8421104 6.9451175
3.6490715 -2.4188435 7.2311778
4.0100403 -2.6541138 6.4423985
0.043615267 -0.051035188 6.1840377
1.9216864 -1.3179154 14.813259
2.3161099 -1.5725778 13.482716
3.0155561 -2.0261929 11.661559
2.466496 -1.6485529 7.0486841
4.3570161 -2.9034696 9.6624622
3.7241175 -2.4760916 6.6408606
2.7173364 -1.9078348 30.922565
2.7400291 -1.8556225 12.778401
3.240005 -2.1786833 10.671765
3.7056684 -2.4750233 7.3591557
4.000751 -2.6680954 6.4423985
0.043436855 -0.051187124 6.1840377
1.9170743 -1.3246154 14.813259
2.3089259 -1.5795032 13.472926
3.0134089 -2.0400541 11.680646
2.4655879 -1.6604264 7.0624914
4.3408895 -2.9146554 9.6492958
3.7154515 -2.4890759 6.6408606
2.7106605 -1.9173084 30.922565
2.7293823 -1.8623416 12.759044
3.2195227 -2.1812677 10.62953
3.6732061 -2.4719262 7.3122306
4.0189252 -2.700531 6.486289
0.043257914 -0.051338434 6.1840377
1.9124389 -1.3312991 14.813259
2.3025601 -1.5869753 13.468031
3.0149016 -2.0564489 11.714051
2.4597769 -1.6690228 7.0624914
4.3862314 -2.9673667 9.7721891
3.7137375 -2.5067534 6.6532598
2.7039511 -1.9267586 30.922565
2.724936 -1.8732818 12.768723
3.1990619 -2.1837361 10.587295
4.026886 -2.7375815 10.131977
3.6580791 -2.4803419 7.2994328
4.0319295 -2.7297471 6.5221987
0.043078445 -0.051489122 6.1840377
1.9058717 -1.336628 14.798441
2.29617 -1.5944222 13.463136
3.0052443 -2.0652695 11.704507
4.3916783 -2.9934516 9.8073015
3.7119451 -2.5244489 6.6656585
2.6976421 -1.9364964 30.927538
2.7204473 -1.8842138 12.778401
3.1914196 -2.1948895 10.587295
4.0029373 -2.7417793 10.095967
3.6537058 -2.4960384 7.3079648
4.0472693 -2.7607851 6.562099
0.042873248 -0.051603567 6.179038
1.892311 -1.3369943 14.729291
2.2905905 -1.6024276 13.463136
2.9943352 -2.0731976 11.69019
2.5928657 -1.7858969 7.4767184
4.2864385 -2.9436822 9.5966263
3.7472162 -2.5676131 6.7441845
2.690866 -1.9459012 30.927538
2.7086997 -1.8901016 12.754205
3.1965046 -2.2148626 10.62953
3.9593003 -2.7322426 10.010444
3.6707504 -2.5265212 7.3591557
4.0649238 -2.7936702 6.6059895
0.042692855 -0.051752906 6.179038
1.8794042 -1.3377331 14.665081
2.2858155 -1.6110002 13.468031
2.9785106 -2.0776591 11.656787
2.5882211 -1.7960505 7.4813213
4.2564416 -2.9449992 9.5527353
3.7706513 -2.60306 6.8020458
2.6844881 -1.9555961 30.932508
3.1944134 -2.2299581 10.648301
3.9658248 -2.7572308 10.050955
3.7883537 -2.6270046 7.6108456
4.0724888 -2.8198497 6.6339197
0.042511944 -0.051901616 6.179038
1.8696719 -1.3406624 14.625567
2.2818384 -1.6201484 13.477821
2.9663551 -2.08461 11.637698
2.5210936 -1.7625352 7.3064256
3.7800233 -2.6290605 6.8351092
2.6776452 -1.9649546 30.932508
3.2162516 -2.2619431 10.746849
3.8937707 -2.7273443 9.8934135
3.8390231 -2.682035 7.7302923
4.0873342 -2.8512886 6.67382
0.042330515 -0.052049696 6.179038
1.8630915 -1.3458154 14.610749
2.2761691 -1.6281036 13.477821
2.9578421 -2.0940893 11.632927
2.4494402 -1.7251981 7.117722
4.2220588 -2.9650078 9.5220118
3.7293413 -2.6131716 6.760716
2.6707699 -1.9742895 30.932508
3.4096859 -2.4158249 11.417914
3.834424 -2.7057745 9.7673788
3.9170787 -2.7569654 7.9051952
4.0822873 -2.869004 6.6818004
0.042148571 -0.05219714 6.179038
1.8583822 -1.3523107 14.610749
2.2762544 -1.6402063 13.512088
2.9335008 -2.0922658 11.566119
2.4800484 -1.7597415 7.2235799
4.2116833 -2.9797275 9.5220118
3.7133005 -2.6213052 6.7483177
2.663862 -1.9836003 30.932508
3.4869094 -2.4888704 11.704174
3.6226897 -2.5753465 9.254241
3.9095585 -2.77213 7.9094615
4.0796251 -2.8884597 6.6937699
0.04196611 -0.052343946 6.179038
1.8530239 -1.35833 14.60581
2.2738106 -1.6505345 13.531669
2.9261796 -2.102493 11.566119
2.4738905 -1.7683879 7.2235799
4.1915054 -2.9874604 9.5000668
3.6720226 -2.611418 6.6904564
2.6569219 -1.9928868 30.932508
3.5440495 -2.5483789 11.924733
3.5853603 -2.5676954 9.1822205
3.942302 -2.8160796 7.9947805
4.0547991 -2.892184 6.6698298
0.041783139 -0.052490119 6.179038
1.8438962 -1.3615584 14.571236
2.2729669 -1.6620681 13.56104
2.9284961 -2.1196966 11.604295
2.4534347 -1.7667373 7.1821575
4.1440883 -2.9755321 9.4166746
3.6720345 -2.6307757 6.7069883
2.6503744 -2.0024705 30.937479
3.1452265 -2.2782822 10.615452
3.5234132 -2.5419834 9.047184
4.0324435 -2.8975286 6.6498799
0.041599661 -0.052635647 6.179038
1.8416257 -1.3698417 14.590992
2.2720699 -1.6736158 13.590411
2.9439948 -2.1466165 11.694963
2.4599032 -1.7844685 7.2189775
4.1317363 -2.9885759 9.4122849
3.6514204 -2.6353428 6.6863232
2.6437926 -2.0120327 30.942451
3.5442939 -2.5862832 11.98574
3.7804236 -2.747529 9.7268677
3.9964499 -2.8971095 8.1440878
4.0125413 -2.9045191 6.6339197
0.041415676 -0.052780535 6.179038
1.8386981 -1.3776599 14.60581
2.2653964 -1.6809298 13.585516
2.9641531 -2.1772051 11.804718
2.4694326 -1.8045716 7.2650027
4.1348286 -3.0128534 9.4430084
3.6353712 -2.6431084 6.6739244
2.6371763 -2.0215733 30.947422
2.5689938 -1.9014288 12.342854
3.1403677 -2.3083613 10.652994
3.9973955 -2.9266047 10.307524
4.0073748 -2.9264231 8.1867466
3.9853354 -2.90608 6.6059895
0.041255258 -0.052961171 6.1840377
1.8357384 -1.3854742 14.620628
2.2619617 -1.6906562 13.600202
2.9565351 -2.1875384 11.804718
2.4583983 -1.8097059 7.251195
4.1609693 -3.0541949 9.5264015
3.6170418 -2.6491308 6.657393
2.6309474 -2.0314181 30.957365
2.5573027 -1.9066279 12.318656
3.1364512 -2.3223896 10.667072
3.9135721 -2.8862703 10.118473
3.9761274 -2.9249392 8.1440878
3.9727385 -2.91819 6.6019993
0.041070137 -0.053104855 6.1840377
1.8333651 -1.393755 14.640385
2.2527926 -1.6960917 13.580621
2.9476843 -2.1969533 11.799946
2.4457893 -1.8136213 7.2327847
4.1464314 -3.0658529 9.5176229
3.5896571 -2.648375 6.6243286
2.6246817 -2.041244 30.967308
2.553647 -1.9178075 12.333174
2.3813751 -1.7761585 8.1329784
4.1062841 -3.0428364 8.4299049
3.9673722 -2.9356241 6.6099796
0.040884517 -0.053247895 6.1840377
1.8260213 -1.3982563 14.620628
2.2444248 -1.702099 13.565935
2.9399974 -2.2072294 11.799946
2.4347484 -1.8186401 7.2189775
4.1664362 -3.1031983 9.5878477
3.5803907 -2.6608889 6.6243286
2.61796 -2.0507221 30.972279
2.5489416 -1.9282265 12.342854
3.3381431 -2.5080137 11.408529
2.8597772 -2.1400464 7.4492536
4.2356653 -3.1616771 8.715723
3.959517 -2.951256 6.6139698
0.040698398 -0.053390283 6.1840377
1.8192838 -1.4031979 14.60581
2.2263331 -1.7006508 13.492506
2.9144166 -2.2039723 11.728367
2.419019 -1.82008 7.1913624
4.1709046 -3.1292214 9.622961
3.573333 -2.6750572 6.6284618
2.6112044 -2.0601785 30.977251
2.5461946 -1.9401597 12.362211
3.3390009 -2.5269411 11.44138
2.8592429 -2.1552575 7.467258
4.3038149 -3.2360032 8.8778286
3.9516006 -2.9668686 6.61796
0.040511787 -0.053532023 6.1840377
1.812534 -1.4081094 14.590992
2.2123139 -1.7022021 13.443554
2.9102678 -2.2168458 11.742682
2.4328916 -1.8438541 7.251195
4.1847954 -3.1625338 9.6800194
3.5549867 -2.680737 6.6119299
2.6044142 -2.0696123 30.982222
2.542398 -1.951332 12.376729
2.3653896 -1.8030907 8.1423645
2.8499684 -2.1639082 7.4627571
4.3798118 -3.3171413 9.0569983
3.9436233 -2.9824615 6.6219492
0.040324677 -0.053673107 6.1840377
1.8057722 -1.4129912 14.576175
2.195092 -1.7011813 13.375021
2.9108016 -2.2333519 11.776087
2.4373105 -1.8606337 7.2834129
4.2042212 -3.2003329 9.7502441
3.5657754 -2.7084491 6.6491265
2.5971742 -2.0786908 30.982222
2.5345762 -1.9594257 12.371889
2.3618188 -1.8134384 8.1517496
2.845856 -2.1764884 7.4717593
4.3765001 -3.3387368 9.0740614
3.9355857 -2.9980352 6.6259394
0.040113769 -0.053776659 6.179038
1.7996085 -1.4183238 14.566296
2.1883378 -1.7082065 13.370126
2.866375 -2.2152011 11.628155
2.4308007 -1.8691304 7.2834129
4.1949248 -3.2164462 9.7546339
3.6077023 -2.7602084 6.7441845
2.5894873 -2.0874093 30.977251
2.5386302 -1.9767566 12.425123
2.3472838 -1.8153369 8.1235924
2.8296187 -2.1797667 7.4492536
4.3937707 -3.3762407 9.1337843
3.9250968 -3.0117548 6.6259394
0.039902627 -0.053879388 6.1740384
1.792821 -1.4231473 14.551477
2.1839623 -1.7170936 13.379916
2.8480241 -2.2169406 11.585207
2.4443402 -1.8931562 7.343246
4.1609259 -3.2135024 9.7019644
3.6359375 -2.8019865 6.814445
2.5821853 -2.0964358 30.977251
2.5366597 -1.9894848 12.44932
2.3314037 -1.8160959 8.0907431
2.8271523 -2.1936338 7.4627571
4.3881459 -3.3963466 9.1465826
3.8859499 -3.0033252 6.5780597
0.03971431 -0.054018345 6.1740384
1.7866288 -1.4284263 14.5416
2.1779554 -1.7247065 13.379916
2.8414431 -2.2277896 11.589979
2.4330959 -1.8980719 7.3294377
4.1194372 -3.2044783 9.6317387
3.6750381 -2.8526225 6.9053693
2.5748515 -2.1054363 30.977251
2.53759 -2.0045609 12.488035
3.2835302 -2.5763075 11.403837
2.802326 -2.190084 7.4177456
4.3906617 -3.4228678 9.1764431
3.9348855 -3.0631466 6.6778102
0.039502587 -0.054119516 6.1690383
1.7804216 -1.4336792 14.531721
2.1719217 -1.7322985 13.379916
2.8395064 -2.2423203 11.613839
2.3895884 -1.8775835 7.2189775
3.6428893 -2.8481007 6.8640399
2.5674865 -2.1144116 30.977251
2.5335281 -2.0157547 12.502554
3.2975328 -2.6059434 11.483613
2.7690058 -2.1796541 7.3502264
4.362277 -3.4252877 9.1423159
0.039313436 -0.05425708 6.1690383
1.7778199 -1.4418434 14.551477
2.1666553 -1.7405072 13.384811
2.8456805 -2.2633691 11.671103
2.3385942 -1.8507525 7.0855041
3.9597223 -3.1248484 9.3113365
3.6329255 -2.8607993 6.8640399
2.5600903 -2.1233609 30.977251
2.5323615 -2.0293024 12.53159
3.1466508 -2.5045919 10.990873
2.7289701 -2.163609 7.2647038
4.3605218 -3.4485834 9.1636467
4.2184553 -3.3314562 7.192523
0.039101142 -0.054356687 6.1640387
1.7703693 -1.4460739 14.531721
2.1629415 -1.7499812 13.399498
2.8435872 -2.2779551 11.694963
2.3458688 -1.8698643 7.1269269
3.9506652 -3.1401415 9.3157253
3.6207128 -2.8717144 6.8599067
2.5526626 -2.1322842 30.977251
2.5242844 -2.0373402 12.526751
3.1742415 -2.5447054 11.117579
2.7196999 -2.1717634 7.2602029
4.3627372 -3.475158 9.1935081
4.2162337 -3.3536646 7.2084832
0.038911164 -0.054492846 6.1640387
2.8488812 -2.3438845 23.452021
2.1591873 -1.7594503 13.414183
2.8507202 -2.3000529 11.756998
2.3423743 -1.8804879 7.1361318
3.9452887 -3.1584029 9.3288918
3.6084676 -2.8825791 6.8557739
2.544796 -2.1408384 30.972279
2.5171573 -2.046139 12.526751
3.264693 -2.6359954 11.464843
2.7324584 -2.1976161 7.3142166
4.3648195 -3.50179 9.2233686
0.038720712 -0.054628342 6.1640387
2.8418789 -2.3548064 23.461899
2.1593289 -1.7721447 13.453344
2.842674 -2.3099897 11.756998
2.3373151 -1.8898813 7.1407347
3.9640703 -3.1962085 9.3991175
3.5961916 -2.893394 6.8516417
2.5369012 -2.149364 30.967308
2.5061095 -2.051728 12.507394
3.2554719 -2.6473751 11.464843
2.7247705 -2.2071407 7.3142166
4.3971972 -3.5530663 9.3172197
0.038529787 -0.054763168 6.1640387
2.8312559 -2.3627205 23.442142
2.1578381 -1.7835639 13.482716
2.8472998 -2.3302987 11.80949
2.357971 -1.9202353 7.2235799
3.9305799 -3.1919088 9.3464489
3.5970011 -2.9147875 6.8723059
2.5285718 -2.1575139 30.957365
2.5008719 -2.062063 12.517073
3.2382009 -2.6521621 11.436687
2.7271705 -2.224896 7.3412247
4.4151101 -3.5930874 9.3812094
0.038338393 -0.054897327 6.1640387
2.8200169 -2.3700891 23.417446
2.1562946 -1.7949942 13.512088
2.820719 -2.3250313 11.733138
2.3920376 -1.961907 7.3478479
3.9027293 -3.191963 9.3069468
3.5868044 -2.9273255 6.8723059
2.5214298 -2.1666749 30.962337
3.2315855 -2.6656451 11.446072
2.7160234 -2.2316377 7.332222
4.4509501 -3.6481559 9.4835911
0.038146533 -0.055030819 6.1640387
2.817064 -2.3844366 23.461899
2.1570377 -1.8083981 13.556145
2.8011012 -2.3253284 11.685418
2.433373 -2.0100613 7.4951291
3.910049 -3.220794 9.3508377
2.5154634 -2.1768584 30.982222
3.2196066 -2.6747041 11.436687
2.7031858 -2.2369409 7.318718
4.4281316 -3.6553686 9.4622612
0.037954208 -0.055163637 6.1640387
2.8122716 -2.3972805 23.491535
2.1499341 -1.8152597 13.55125
2.7952576 -2.337007 11.694963
2.4984295 -2.0785191 7.7160501
3.9227445 -3.2543023 9.407896
2.5102603 -2.1877272 31.012053
3.2327497 -2.704752 11.516463
2.6970329 -2.247757 7.3232193
4.4093294 -3.6658018 9.4494638
0.037783165 -0.055333618 6.1690383
2.8139079 -2.4156873 23.575502
2.1428089 -1.8220936 13.546354
2.7916503 -2.3505962 11.714051
2.4986463 -2.0935013 7.7390623
3.924226 -3.2787249 9.4386196
2.5026083 -2.1964765 31.012053
3.2312062 -2.7226915 11.54462
2.6891706 -2.2571576 7.3232193
4.4005051 -3.6845193 9.4579954
0.037589781 -0.055465169 6.1690383
2.8089848 -2.428544 23.605137
2.1310222 -1.8249259 13.512088
2.7868433 -2.3632228 11.728367
2.4853511 -2.0971708 7.7206526
3.9439101 -3.3186176 9.5132332
2.4937279 -2.2041397 30.997139
3.2229986 -2.7350709 11.549313
2.6979003 -2.2805851 7.3682318
4.3916049 -3.7032201 9.466527
0.037417423 -0.055634025 6.1740384
2.8163116 -2.4521117 23.738499
2.1215551 -1.8296933 13.492506
2.7921979 -2.3845696 11.78563
2.4899247 -2.1159546 7.757473
3.9524007 -3.3493972 9.5615139
2.4856207 -2.2124765 30.992167
3.2370446 -2.7664862 11.633782
2.7064989 -2.3041008 7.4132442
4.3786516 -3.7185271 9.466527
0.037222993 -0.055764299 6.1740384
2.8252604 -2.4772971 23.886675
2.1113119 -1.8337489 13.468031
2.7951741 -2.4040358 11.83335
2.4869764 -2.1284447 7.7712808
3.9734757 -3.3911591 9.6405172
2.4774857 -2.2207835 30.987194
3.2404466 -2.789026 11.68071
2.7000923 -2.3149512 7.4177456
4.3696084 -3.737179 9.4750595
0.037028115 -0.055893891 6.1740384
2.8230021 -2.4928017 23.941008
2.1033652 -1.8397667 13.45824
2.7811239 -2.4088912 11.80949
2.4928498 -2.1485925 7.8127036
3.9725118 -3.4143753 9.666852
2.4693229 -2.2290609 30.982222
3.2450349 -2.8127539 11.73233
2.687052 -2.3200939 7.4042416
4.3644409 -3.7592173 9.4921227
0.036832783 -0.056022801 6.1740384
2.8137028 -2.5021243 23.936069
2.0892904 -1.8403667 13.409287
2.8233166 -2.4627414 12.02423
2.5059893 -2.1752102 7.8771386
3.9696233 -3.4360585 9.688797
2.4615269 -2.2376668 30.982222
3.2507968 -2.8376825 11.788644
2.6641526 -2.3166029 7.3637304
0.036637004 -0.056151029 6.1740384
2.8055303 -2.512449 23.941008
2.0767605 -1.8422426 13.370126
2.8102171 -2.4686408 12.005141
2.4983811 -2.1839447 7.8771386
3.9648263 -3.4561892 9.7063532
2.453701 -2.2462454 30.982222
3.2460558 -2.85357 11.807414
2.6429482 -2.3144145 7.3277206
0.036440775 -0.056278575 6.1740384
2.7978973 -2.523268 23.950886
2.0657616 -1.8454103 13.340755
2.7725155 -2.4527187 11.88107
2.4892759 -2.1913614 7.8725362
3.9527378 -3.4700081 9.7063532
2.4458454 -2.2547967 30.982222
3.2580402 -2.8843303 11.887192
2.6234243 -2.3135467 7.2962127
0.036244106 -0.056405436 6.1740384
2.7896476 -2.5335412 23.955824
2.0487103 -1.8430753 13.272222
2.763937 -2.4623818 11.88107
2.478688 -2.1974452 7.8633308
3.9334238 -3.4774392 9.688797
2.4375691 -2.262958 30.977251
3.2479522 -2.8956854 11.887192
2.6039388 -2.3125708 7.2647038
0.036046993 -0.056531608 6.1740384
2.7825069 -2.544837 23.970644
2.0452824 -1.85295 13.291802
2.7486589 -2.4660335 11.852438
2.4622583 -2.198277 7.8357158
3.8980074 -3.4704442 9.6317387
2.4296551 -2.2714531 30.977251
3.2249842 -2.8954761 11.840263
2.5844924 -2.3114872 7.2331953
0.035869852 -0.056695655 6.179038
2.7724638 -2.5534813 23.960766
2.0372975 -1.8587053 13.282012
2.7333887 -2.4696085 11.823807
2.4632866 -2.2146959 7.8633308
3.8591223 -3.4600475 9.5659027
2.4213233 -2.2795546 30.972279
3.2122974 -2.9044011 11.830879
2.5715556 -2.3161237 7.2196918
0.035671726 -0.056820516 6.179038
2.7652423 -2.5647285 23.975582
2.030797 -1.8658055 13.282012
2.715919 -2.4710979 11.78563
2.4642303 -2.231149 7.8909464
3.8096914 -3.439791 9.473732
2.4137383 -2.2883596 30.977251
3.2161753 -2.9283767 11.882499
2.5424936 -2.3060725 7.1611757
0.035473168 -0.056944687 6.179038
2.747756 -2.5664096 23.901495
2.0257666 -1.8742661 13.291802
2.6951706 -2.4694703 11.733138
2.4650886 -2.2476354 7.9185615
3.7657652 -3.4240661 9.3947287
2.4057357 -2.2967713 30.977251
3.1983023 -2.9325876 11.854342
2.5376427 -2.3178697 7.1701779
0.035274178 -0.057068165 6.179038
2.7393467 -2.5765178 23.906433
2.0117626 -1.8743844 13.242849
2.676661 -2.4697523 11.69019
2.4586668 -2.2575476 7.9231639
3.766155 -3.4485123 9.4254522
2.3992407 -2.306633 30.997139
3.1563509 -2.9144657 11.737023
2.5295365 -2.3267136 7.1701779
0.035074759 -0.057190947 6.179038
2.7286441 -2.5844612 23.891615
2.0014954 -1.8779117 13.218374
2.6778653 -2.4882257 11.733138
2.4694185 -2.2833593 7.9829965
3.8086755 -3.5119681 9.5615139
2.388494 -2.312398 30.962337
3.1537404 -2.9325166 11.76518
2.5309815 -2.3444057 7.1971855
0.034855179 -0.057274118 6.1740384
1.9875274 -1.8778933 13.169421
2.6658933 -2.494498 11.718822
2.455714 -2.2866397 7.9645867
3.8034129 -3.5317602 9.5790691
2.3781178 -2.3184881 30.932508
3.117033 -2.9187367 11.666632
2.540293 -2.3695605 7.2466989
0.034655042 -0.05739544 6.1740384
1.9861236 -1.889733 13.203688
2.6582561 -2.5048122 11.723595
3.7998083 -3.5531945 9.6010151
2.5462863 -2.3918278 7.28721
0.034454484 -0.057516057 6.1740384
1.9809852 -1.8980633 13.213479
2.6484137 -2.5130486 11.718822
2.4283273 -2.2929971 7.9277668
3.808305 -3.5861394 9.6536837
3.3355875 -3.1673942 12.56295
2.5632248 -2.4246378 7.3592291
0.034253504 -0.057635974 6.1740384
1.9780111 -1.9085019 13.237954
2.6385462 -2.5212469 11.714051
2.411814 -2.2933817 7.9001508
2.79303 -2.6485171 7.1211858
3.3656681 -3.2183762 12.717812
2.5563219 -2.4350719 7.3637304
0.034032919 -0.057716001 6.1690383
1.9720672 -1.9161044 13.242849
2.628654 -2.5294068 11.709279
2.3967388 -2.2950306 7.8771386
2.7803035 -2.6549423 7.1124077
3.335768 -3.2121499 12.64742
2.5462356 -2.4424734 7.3592291
0.34840533 -0.33049813 0.15919392
0.033831246 -0.05783445 6.1690383
1.9646391 -1.9222643 13.237954
2.6165926 -2.5354505 11.694963
2.3690252 -2.2843969 7.8127036
3.6963129 -3.5544393 9.4649544
3.3332071 -3.2321837 12.680269
2.543957 -2.4573965 7.3772345
0.33650723 -0.32145026 0.15712188
0.033610243 -0.057912868 6.1640387
1.9550163 -1.926252 13.218374
2.609863 -2.546654 11.704507
2.3470211 -2.2790418 7.7666783
3.6580753 -3.5423281 9.3991175
3.3577085 -3.2787633 12.816359
2.5431654 -2.4738512 7.3997402
0.32339728 -0.31001139 0.13316588
0.34965837 -0.33635554 0.1598846
0.033407886 -0.058029838 6.1640387
1.9410532 -1.9258924 13.169421
2.5998929 -2.5547023 11.699735
2.3474324 -2.2954164 7.7942929
3.6714082 -3.5801575 9.4649544
3.3806946 -3.324343 12.947757
2.5345147 -2.4827137 7.3997402
0.33306184 -0.32151461 0.13450712
0.34492534 -0.33412844 0.15919392
0.033205118 -0.0581461 6.1640387
1.9256759 -1.9240193 13.11068
2.5973258 -2.5700617 11.728367
2.3254852 -2.2898884 7.7482677
3.6879385 -3.6214783 9.5395689
3.3690696 -3.3361237 12.947757
2.5351315 -2.5007184 7.4267473
0.36983609 -0.35951352 0.18939726
0.33193752 -0.32267526 0.13450712
0.33666739 -0.32841444 0.15781257
0.033001952 -0.058261652 6.1640387
1.9096177 -1.9213403 13.047041
2.6993599 -2.6897466 12.229425
2.3244143 -2.3048701 7.7712808
3.6940072 -3.652854 9.5878477
2.7158871 -2.7081356 10.484055
2.5124869 -2.4957445 7.3862362
0.35453781 -0.34705707 0.18566677
0.32369182 -0.31686461 0.13361296
0.03279838 -0.058376495 6.1640387
1.8964627 -1.9214718 13.002984
2.736315 -2.7456756 12.439392
2.3177371 -2.3143504 7.7758832
3.6761427 -3.6606565 9.5746813
2.6978939 -2.7090399 10.451205
2.4929867 -2.4937222 7.3547277
0.34982595 -0.34484398 0.18473415
0.32613027 -0.32148865 0.13406004
0.3195287 -0.3159757 0.11180319
0.032594405 -0.058490627 6.1640387
1.8897439 -1.92808 13.002984
2.7550633 -2.7838581 12.568235
2.3110216 -2.3238118 7.7804852
2.7247546 -2.7322538 7.138742
2.7029819 -2.733165 10.507518
2.4704635 -2.4885044 7.3142166
0.34513387 -0.34260225 0.18380153
0.33560884 -0.33315042 0.13540126
0.31842381 -0.31708914 0.11180319
0.032408126 -0.058643758 6.1690383
1.8794518 -1.9310161 12.978508
2.7495141 -2.7977169 12.587324
2.2836778 -2.3124034 7.7160501
2.6934249 -2.7425835 10.507518
2.4571774 -2.4924622 7.3007135
0.35088408 -0.35075068 0.18566677
0.30320412 -0.30404836 0.11099707
0.032203224 -0.058756523 6.1690383
1.8670391 -1.9317073 12.939346
2.7397316 -2.8072972 12.587324
2.2632811 -2.3078067 7.6746273
2.8265212 -2.8741601 7.4547563
2.6922688 -2.7606173 10.540368
2.448462 -2.5010242 7.3007135
0.35658148 -0.35894334 0.18753201
0.03199793 -0.058868576 6.1690383
1.8539398 -1.9316008 12.895289
2.7309544 -2.8179154 12.592095
2.2374928 -2.2974977 7.6147947
2.8231642 -2.8908625 7.472312
2.6694105 -2.7563617 10.488748
2.4473038 -2.5173602 7.3232193
0.34842682 -0.35319173 0.18566677
0.34426481 -0.35018945 0.20915711
0.031792246 -0.05897991 6.1690383
1.8535079 -1.9446944 12.939346
2.7231712 -2.8295822 12.60164
2.2063715 -2.2814195 7.536552
2.8330636 -2.9213319 7.524981
2.6597729 -2.7656627 10.488748
2.4460614 -2.5337186 7.3457251
0.34031674 -0.34738767 0.18380153
0.34304032 -0.35138902 0.20915711
0.031568639 -0.059050571 6.1640387
1.8474082 -1.9518921 12.944242
2.7153404 -2.8412292 12.611183
2.1983945 -2.2891071 7.536552
2.829494 -2.9381034 7.5425372
2.6572535 -2.7824183 10.516904
2.4477477 -2.5532422 7.3772345
0.34181166 -0.35258433 0.20915711
0.031362321 -0.059160404 6.1640387
1.8426753 -1.9605548 12.958926
2.7064335 -2.8517728 12.615955
2.1930871 -2.2995949 7.5457573
2.8175659 -2.9462316 7.5381479
3.0987511 -3.2675028 12.300156
2.4388206 -2.5617709 7.3772345
0.34057882 -0.35377532 0.20915711
0.031155623 -0.059269521 6.1640387
1.8372097 -1.9684639 12.968718
2.7036285 -2.8688073 12.64936
2.1850467 -2.307236 7.5457573
2.8105626 -2.959522 7.5469265
3.1796048 -3.3762913 12.666191
2.4253767 -2.5655224 7.3637304
0.35613552 -0.37252945 0.21501869
0.030948546 -0.059377912 6.1640387
1.8303274 -1.974865 12.968718
2.693598 -2.8782272 12.64936
2.2010698 -2.340467 7.628602
2.7985716 -2.967572 7.5425372
3.1147602 -3.3306506 12.455017
2.4164066 -2.5739727 7.3637304
0.35483298 -0.3737703 0.21501869
0.030741088 -0.059485584 6.1640387
1.8234227 -1.9812421 12.968718
2.7008085 -2.9062009 12.730483
2.1942201 -2.3495638 7.6332045
2.7881958 -2.9773231 7.5425372
3.1160319 -3.3554125 12.506637
2.3985007 -2.5728378 7.3367233
0.38686737 -0.41037515 0.22674188
0.030533258 -0.059592523 6.1640387
1.8164958 -1.9875948 12.968718
2.7108936 -2.9375513 12.825923
2.228514 -2.4030497 7.7804852
2.7761555 -2.9852839 7.5381479
3.0493181 -3.3066435 12.286077
2.3924627 -2.5843894 7.3457251
0.3721455 -0.39752918 0.2220526
0.030325055 -0.059698746 6.1640387
1.8102309 -1.9946777 12.973613
2.7107077 -2.9580014 12.873642
2.2333457 -2.4251854 7.8265104
2.7640929 -2.9931965 7.5337586
3.0540729 -3.3350856 12.351775
2.4055259 -2.6167655 7.4132442
0.37406495 -0.40238586 0.22322492
0.030116482 -0.059804235 6.1640387
1.8032571 -2.0009844 12.973613
2.7124212 -2.9806938 12.930906
2.2209122 -2.4286416 7.8127036
2.7520094 -3.0010619 7.5293703
1.1177694 -1.2797678 15.804221
3.0424125 -3.3457258 12.351775
2.4110532 -2.6412246 7.4582558
0.029907543 -0.059908994 6.1640387
1.7969406 -2.0080254 12.978508
2.7019999 -2.990144 12.930906
2.2308073 -2.4566281 7.8771386
2.7382917 -3.0071077 7.5205922
1.1132953 -1.2836617 15.804221
3.0330281 -3.358887 12.361161
2.4076669 -2.6560764 7.4762607
0.02969824 -0.060013026 6.1640387
1.7885674 -2.0127633 12.968718
2.6895521 -2.9973352 12.921362
2.7229595 -3.0113187 7.5074244
1.1074167 -1.2859241 15.784336
3.0224371 -3.3707387 12.365854
2.4056628 -2.6725547 7.4987664
0.029488575 -0.060116328 6.1640387
1.7842252 -2.0220487 12.988298
2.6790733 -3.0067053 12.921362
2.715632 -3.0243697 7.5162029
1.1060385 -1.2934289 15.82908
2.5470543 -2.8605716 10.469975
2.4050236 -2.6906745 7.5257745
0.33851191 -0.37343842 0.23809335
0.029278548 -0.060218897 6.1640387
1.7764853 -2.0274985 12.983403
2.6586707 -3.0048592 12.873642
2.6875257 -3.0141661 7.4679227
1.1018617 -1.2976881 15.834051
2.5347679 -2.8668594 10.460591
2.3970618 -2.7006817 7.5302758
0.346834 -0.38531417 0.24232344
0.02908401 -0.060361385 6.1690383
1.7714018 -2.0359919 12.998089
2.6422544 -3.0073929 12.845011
2.7432282 -3.1070428 9.8240061
2.6626995 -3.0073903 7.428421
1.0986992 -1.303157 15.853937
2.5270219 -2.8782835 10.469975
2.4178464 -2.7433293 7.6248007
0.35507721 -0.39725247 0.24655353
0.028873133 -0.060462542 6.1690383
2.6258531 -3.0098488 12.816379
2.7349417 -3.1195376 9.8332119
2.6490233 -3.0130694 7.4196434
1.0965381 -1.3098459 15.888738
2.5237634 -2.894892 10.498133
2.3838835 -2.7239029 7.5482802
0.34413558 -0.38772613 0.24232344
0.028661905 -0.060562957 6.1690383
2.6123984 -3.0156114 12.802063
2.7291667 -3.1349595 9.8516207
2.6337643 -3.016885 7.406476
1.0895747 -1.3107955 15.853937
2.5091252 -2.8984647 10.479362
2.3643656 -2.7207053 7.5167718
0.34595183 -0.39252391 0.24373347
0.028450325 -0.060662638 6.1690383
2.60867 -3.0326335 12.835466
2.7424817 -3.1725495 9.9390697
2.6232173 -3.0260603 7.406476
1.0849925 -1.3145908 15.853937
2.4967425 -2.904588 10.469975
2.33921 -2.7108116 7.467258
0.35405695 -0.40455893 0.24796358
0.028238399 -0.060761578 6.1690383
2.598068 -3.0417211 12.835466
2.774653 -3.2325072 10.095555
1.0797216 -1.3175453 15.843993
2.4888291 -2.915911 10.479362
2.3184021 -2.7057354 7.4312487
0.028010998 -0.060818855 6.1640387
2.5990205 -3.0644329 12.892731
2.7633526 -3.2421727 10.095555
1.0751159 -1.3213062 15.843993
2.4853296 -2.9324799 10.507518
2.2906053 -2.6922569 7.3727331
0.027798532 -0.06091626 6.1640387
2.5959995 -3.0826209 12.930906
2.7608526 -3.262238 10.127772
1.0701623 -1.3246365 15.839023
2.4839668 -2.9517007 10.54506
2.3458157 -2.7767336 7.5797887
0.027585726 -0.06101292 6.1640387
1.7282718 -2.0872908 13.051936
2.5967131 -3.1054056 12.98817
2.7406509 -3.2613854 10.095555
1.0655318 -1.3283639 15.839023
2.4736485 -2.9603531 10.54506
2.3361089 -2.784905 7.5797887
0.027372582 -0.061108842 6.1640387
1.7222683 -2.0948839 13.061727
2.5858576 -3.1144507 12.98817
2.7104757 -3.248431 10.026518
1.0608885 -1.3320751 15.839023
2.4544849 -2.9583447 10.507518
2.3082621 -2.771297 7.5212731
0.027159106 -0.06120402 6.1640387
1.7168767 -2.1032495 13.076412
2.5740209 -3.1223066 12.983398
2.6567435 -3.2067211 9.8700314
1.0562322 -1.3357702 15.839023
2.4408522 -2.9628987 10.493441
2.2971871 -2.7776597 7.5167718
0.026959712 -0.061339635 6.1690383
1.7095246 -2.1092298 13.076412
2.5640516 -3.1324275 12.98817
2.6033366 -3.1646764 9.7135458
1.0518922 -1.3398683 15.843993
2.4239395 -2.9633865 10.465283
2.2860956 -2.7839789 7.5122705
0.026745431 -0.061433367 6.1690383
1.7027899 -2.1159775 13.081307
2.5848591 -3.1646662 9.6859312
1.047864 -1.3443731 15.853937
2.4168441 -2.9758482 10.479362
2.2791152 -2.7953165 7.5212731
0.0265167 -0.061485067 6.1640387
1.6928513 -2.1187263 13.061727
2.5701048 -3.169117 9.672123
1.0438172 -1.348866 15.86388
2.4075251 -2.9856095 10.484055
2.2693439 -2.8032551 7.5212731
0.026301915 -0.061577253 6.1640387
2.559027 -3.1780691 9.672123
1.0400763 -1.3537697 15.878795
2.3938529 -2.9899538 10.469975
2.2622724 -2.8145533 7.5302758
0.026100649 -0.061710071 6.1690383
2.5479178 -3.1869824 9.672123
1.0334054 -1.3548485 15.848966
2.3801804 -2.9942393 10.455898
2.2497182 -2.8190296 7.5212731
0.025885081 -0.061800804 6.1690383
2.5477087 -3.2096291 9.7135458
1.0270612 -1.3563222 15.824108
2.3857498 -3.0228486 10.526289
2.2398643 -2.8268654 7.5212731
0.025669198 -0.061890781 6.1690383
2.5534189 -3.239985 9.7779808
1.0216802 -1.3590468 15.814165
2.3805053 -3.0379498 10.549753
2.231329 -2.8363779 7.5257745
0.025453003 -0.061980005 6.1690383
2.558948 -3.2704198 9.8424168
2.3878992 -3.0693963 10.62953
0.025236499 -0.062068477 6.1690383
2.5487149 -3.2808747 9.8470182
1.0115329 -1.3652894 15.804221
2.3539643 -3.0476661 10.526289
0.025006572 -0.062114574 6.1640387
2.5491776 -3.3052218 9.8930435
2.3443618 -3.0572338 10.530982
2.7260442 -3.5409632 9.3037539
0.024789598 -0.062201485 6.1640387
2.5495019 -3.3296118 9.9390697
2.3357663 -3.0681448 10.540368
2.7110236 -3.5469978 9.2947512
0.024572324 -0.062287636 6.1640387
2.5272233 -3.3244932 9.8976469
2.3229613 -3.0735259 10.530982
2.6907306 -3.5460341 9.2677441
0.024342073 -0.062331285 6.159039
2.5073657 -3.3223784 9.8654289
2.3173966 -3.0885174 10.554446
2.6809559 -3.5588825 9.2767467
0.024124347 -0.062415872 6.159039
2.4922388 -3.3264196 9.8516207
2.3179407 -3.1118116 10.606067
2.6724279 -3.5734494 9.2902508
0.023918713 -0.062541537 6.1640387
2.4747829 -3.327261 9.8286085
2.3019345 -3.1129463 10.582603
2.674212 -3.6019831 9.3397627
0.023700258 -0.062624648 6.1640387
2.4608326 -3.332736 9.8194036
2.2890122 -3.1181803 10.573217
2.6667886 -3.6183057 9.3577681
0.023481512 -0.062706999 6.1640387
2.4468739 -3.3381538 9.8101978
2.2628696 -3.105231 10.502826
2.6541421 -3.6275923 9.3577681
0.02326248 -0.062788583 6.1640387
2.4329083 -3.3435159 9.8009939
2.238868 -3.0949342 10.441819
0.023043165 -0.0628694 6.1640387
2.4189343 -3.3488202 9.7917891
2.231071 -3.1069357 10.455898
0.022823568 -0.062949449 6.1640387
2.403815 -3.3524802 9.7779808
2.2302282 -3.1287572 10.502826
0.022603696 -0.063028738 6.1640387
2.3898325 -3.3576677 9.7687759
2.2143095 -3.1294792 10.479362
2.8125191 -3.9588974 10.10497
0.022383546 -0.063107252 6.1640387
2.3859882 -3.3771586 9.8009939
2.2122982 -3.1498995 10.521597
2.7861371 -3.9508998 10.059958
0.022163125 -0.063185006 6.1640387
2.3775499 -3.3902647 9.8148012
2.2062237 -3.164681 10.54506
2.7785707 -3.9695184 10.082463
0.021953499 -0.063304193 6.1690383
2.3701661 -3.4049573 9.8332119
2.2020369 -3.1822965 10.57791
2.7597291 -3.9720421 10.064459
0.021732394 -0.063380435 6.1690383
4.843751 -7.0474424 27.385246
2.3749232 -3.4373205 9.9022493
2.2026381 -3.2070336 10.634223
2.7544982 -3.9941959 10.095967
0.021511022 -0.063455909 6.1690383
4.8241692 -7.0717063 27.413877
2.3728545 -3.4600906 9.9436722
2.1865704 -3.2075734 10.61076
0.021289388 -0.063530609 6.1690383
4.7910852 -7.0761418 27.366158
2.3827472 -3.5006537 10.035723
2.1743937 -3.2137568 10.606067
0.021067495 -0.063604541 6.1690383
4.7713513 -7.1002569 27.394789
2.3694189 -3.5073307 10.03112
2.1612382 -3.2184622 10.596681
0.020845344 -0.063677691 6.1690383
4.739912 -7.1069336 27.356613
2.3571618 -3.5155802 10.03112
2.1509476 -3.2274225 10.601374
0.020622941 -0.063750066 6.1690383
4.7126031 -7.1197009 27.342297
2.3210654 -3.4880037 9.9298639
2.1358609 -3.2291541 10.582603
2.6530566 -3.9945116 9.9789352
0.020390255 -0.063779198 6.1640387
4.6836247 -7.1298699 27.318438
2.3196423 -3.5123875 9.9758892
2.1321514 -3.2481313 10.620145
2.6462853 -4.0146537 10.005943
0.020167502 -0.063849986 6.1640387
4.6554475 -7.1411738 27.299349
2.3041546 -3.5155609 9.9620819
2.1236258 -3.2598917 10.634223
2.6322551 -4.0238667 10.005943
0.019944498 -0.063919991 6.1640387
4.6264377 -7.151114 27.27549
2.1159813 -3.2730818 10.652994
2.6193786 -4.0348563 10.010444
0.019721257 -0.063989222 6.1640387
4.5974154 -7.1609392 27.251631
2.1110654 -3.2906153 10.685843
2.6088152 -4.0494647 10.023948
0.019497771 -0.064057678 6.1640387
4.5683813 -7.1706486 27.227772
2.0967863 -3.293597 10.671765
2.5934916 -4.0567126 10.019446
0.01927405 -0.064125344 6.1640387
4.5385375 -7.1789818 27.199139
2.0861981 -3.3023551 10.676457
0.019050093 -0.064192235 6.1640387
4.5063114 -7.1833997 27.156191
2.0755746 -3.3110793 10.68115
0.018825904 -0.064258337 6.1640387
4.475687 -7.1902146 27.122787
2.0640042 -3.3183043 10.68115
0.018601486 -0.064323664 6.1640387
4.4419336 -7.1918244 27.070295
2.0578463 -3.3343 10.709307
0.018376842 -0.064388201 6.1640387
4.4121227 -7.1996484 27.041662
2.0434916 -3.3370481 10.69523
0.018160515 -0.064494744 6.1690383
4.3869643 -7.2150059 27.041662
0.017935276 -0.064557746 6.1690383
3.2530568 -5.4522929 30.547478
4.3648367 -7.2353883 27.060751
0.017718062 -0.064662807 6.1740384
3.2371163 -5.4688725 30.576851
4.3403206 -7.2518616 27.065523
0.24004743 -0.39463365 0.20212321
0.017492238 -0.064724259 6.1740384
3.2159448 -5.4766269 30.557268
4.3149805 -7.2669678 27.065523
0.24620265 -0.40795386 0.20564015
0.017266201 -0.064784929 6.1740384
3.1973207 -5.488699 30.562164
4.2895875 -7.2819858 27.065523
0.25054556 -0.41679806 0.18380153
0.25476453 -0.42549196 0.21032943
0.017039955 -0.064844802 6.1740384
4.2648954 -7.2982035 27.070295
0.24908914 -0.4176701 0.18380153
0.25327775 -0.42637867 0.21032943
0.016805856 -0.064860925 6.1690383
4.2349019 -7.3052974 27.041662
0.24762967 -0.41853702 0.18380153
0.24438483 -0.41469729 0.20681247
0.016579347 -0.064919196 6.1690383
3.1240683 -5.4944401 30.410412
4.2011919 -7.3058023 26.989172
0.24119422 -0.41092598 0.18193629
0.016352637 -0.06497667 6.1690383
3.094867 -5.4875731 30.312508
4.1697474 -7.3100491 26.950994
5.9826341 -10.403996 15.966586
0.23975834 -0.4117654 0.18193629
0.016125726 -0.065033361 6.1690383
4.1353846 -7.3089695 26.893732
5.940309 -10.414345 15.950625
0.24077642 -0.41685352 0.18286891
0.015898619 -0.065089248 6.1690383
4.1083856 -7.3207569 26.884188
5.9054041 -10.43764 15.954617
0.23931986 -0.41769144 0.18286891
0.015671318 -0.065144353 6.1690383
4.0828061 -7.3350534 26.884188
5.8704081 -10.460817 15.958606
0.015437082 -0.065155551 6.1640387
4.0413065 -7.3205099 26.779203
5.8309264 -10.47598 15.950625
0.015209553 -0.065209039 6.1640387
3.9590986 -7.2311358 26.402216
5.7928672 -10.493632 15.946636
0.014981839 -0.065261729 6.1640387
3.9203002 -7.2199874 26.311548
5.7533073 -10.508502 15.938656
0.01474765 -0.065270454 6.159039
3.8964891 -7.2362561 26.321093
5.7151537 -10.525873 15.934667
0.014519724 -0.065321535 6.159039
3.8480046 -7.2063603 26.163616
5.6798048 -10.548412 15.938656
0.014291621 -0.065371819 6.159039
3.8214295 -7.2171106 26.154074
4.570364 -8.638936 26.631863
5.6457882 -10.57349 15.946636
0.014063344 -0.065421313 6.159039
3.8003769 -7.2383356 26.182705
4.5786586 -8.7281885 26.857117
0.013834896 -0.065470003 6.159039
3.7812903 -7.2634735 26.225653
4.5465708 -8.7410564 26.847731
0.013606277 -0.065517895 6.159039
3.7661824 -7.296525 26.297234
0.24385634 -0.54807228 10.212362
4.5168223 -8.7584076 26.852425
0.013377495 -0.06556499 6.159039
3.7352498 -7.298996 26.259056
0.24228969 -0.54971325 10.227337
4.4610839 -8.7249537 26.702253
0.013148549 -0.065611288 6.159039
3.7083981 -7.3093281 26.249514
0.23921865 -0.54790795 10.17742
4.4306006 -8.7404718 26.702253
0.012924526 -0.065700121 6.1640387
3.6842027 -7.3248954 26.259056
0.23593493 -0.54555762 10.11752
3.5843022 -7.1917429 30.974636
0.012700042 -0.065788187 6.1690383
3.6506193 -7.3216805 26.201794
0.23482165 -0.54823679 10.152462
0.012470321 -0.065832123 6.1690383
3.6680291 -7.4213614 26.511972
0.23313113 -0.54958516 10.162445
0.012240448 -0.065875247 6.1690383
3.6716526 -7.4944415 26.726711
0.231434 -0.55092818 10.172428
3.031297 -6.2450771 26.764339
4.2497168 -8.6821337 26.340912
0.012005948 -0.065874167 6.1640387
3.6304731 -7.4763284 26.616955
0.22961991 -0.55199945 10.17742
3.0138383 -6.2646813 26.803053
4.2246571 -8.7077837 26.373762
0.011771606 -0.065872259 6.159039
3.5849342 -7.4486051 26.473797
0.22780119 -0.55306476 10.182411
2.9822149 -6.2547402 26.715942
4.19274 -8.7193661 26.364376
0.011652369 -0.065849274 6.1540389
3.5545185 -7.4151912 26.335409
0.22742772 -0.55353051 10.187404
2.9735265 -6.2477412 26.677229
4.184411 -8.7176237 26.350296
0.011422441 -0.065889552 6.1540389
3.5567689 -7.4901958 26.55492
0.22501032 -0.55451757 10.187404
2.9440749 -6.2588954 26.667549
4.1285367 -8.7022228 26.247057
0.011192374 -0.065929025 6.1540389
3.5350506 -7.5120206 26.588326
0.2231805 -0.55556774 10.192395
2.9105268 -6.2440696 26.561081
4.0856533 -8.6900311 26.167278
0.010965967 -0.066011161 6.159039
3.501868 -7.5094328 26.535833
0.22134607 -0.55661178 10.197387
2.8671045 -6.2074046 26.362665
4.0596671 -8.7136259 26.195436
0.010735477 -0.066049032 6.159039
3.4662423 -7.501286 26.464252
3.6893017 -7.9043264 16.052961
0.21940178 -0.55738109 10.197387
2.8281584 -6.1796565 26.202963
0.010508349 -0.066129595 6.1640387
3.4021318 -7.4305482 26.173161
3.6677196 -7.9301982 16.079296
0.21755919 -0.55841273 10.202378
2.8034558 -6.1826224 26.173929
0.01027745 -0.066165872 6.1640387
3.3854237 -7.46277 26.244741
3.6410136 -7.9451308 16.083685
0.21581545 -0.55970782 10.212362
2.7710409 -6.168292 26.0723
0.010046425 -0.066201344 6.1640387
3.3868885 -7.5358109 26.45948
3.6132579 -7.9577918 16.083685
4.3998904 -9.6634541 15.667221
0.21396285 -0.5607276 10.217353
2.724962 -6.1228042 25.840006
0.0098152775 -0.066236012 6.1640387
3.3878841 -7.6089511 26.674219
4.3672895 -9.6813192 15.671353
0.2122073 -0.5620116 10.227337
2.6761925 -6.0701699 25.57868
3.9217036 -8.8162613 26.293983
0.0095840115 -0.066269875 6.1640387
3.3739531 -7.6494126 26.774431
4.3288755 -9.6862268 15.654821
0.2104454 -0.56329012 10.23732
2.6454298 -6.0575881 25.486729
3.9062138 -8.8646383 26.397224
0.0093498956 -0.066259377 6.159039
3.3532071 -7.6748214 26.822151
4.2950377 -9.7012796 15.654821
0.20877679 -0.56483418 10.252295
2.6232708 -6.0644779 25.477051
3.8738658 -8.8750563 26.38784
0.0091211312 -0.066335164 6.1640387
3.3483312 -7.7371669 26.998714
4.2475858 -9.6852875 15.605227
0.20709993 -0.56637329 10.26727
2.6020858 -6.0735979 25.477051
3.8476558 -8.8996124 26.420689
0.0088870944 -0.066323034 6.159039
2.420676 -5.8002653 39.954082
3.3301237 -7.7693877 27.070295
3.4614499 -7.9910703 16.026627
4.2070246 -9.6845694 15.580428
0.20541489 -0.56790769 10.282246
2.5823421 -6.0861154 25.49157
3.7982271 -8.8701572 26.293983
0.0086555295 -0.066353649 6.159039
2.4004145 -5.8086796 39.954082
3.3152311 -7.8098192 27.170506
3.4363673 -8.0097065 16.039793
4.1587358 -9.6655922 15.526701
0.20420563 -0.57079709 10.322179
2.5630295 -6.0997286 25.510927
3.7335553 -8.8039255 26.059345
0.0084238593 -0.066383459 6.159039
2.3801239 -5.8170233 39.954082
3.2919986 -7.830977 27.203909
4.130487 -9.6929932 15.547365
0.20249948 -0.57232344 10.337153
2.540756 -6.1063161 25.501249
0.0081940582 -0.06645605 6.1640387
2.3656383 -5.8396997 40.052868
2.1863682 -5.3250384 27.698456
3.2703798 -7.8562012 27.251631
4.0911565 -9.6943903 15.526701
0.1997413 -0.5708456 10.297219
2.5175104 -6.1104994 25.48189
3.6905551 -8.8743906 26.190744
0.0079620332 -0.066484243 6.1640387
2.3437936 -5.844316 40.028172
2.1693008 -5.336411 27.718037
3.2457807 -7.8744693 27.27549
4.0345058 -9.6540871 15.439909
0.19774745 -0.57153934 10.297219
2.4952159 -6.1169219 25.472212
3.6996348 -8.9845562 26.477001
0.0077299112 -0.066511631 6.1640387
2.3190789 -5.8416286 39.954082
2.1529405 -5.349618 27.747408
3.2081218 -7.8608742 27.189594
3.2401636 -7.8532209 15.636
3.965275 -9.582304 15.303521
0.19547226 -0.57140619 10.282246
2.4686713 -6.1127734 25.418978
3.6669474 -8.9942188 26.467615
0.0074976953 -0.066538207 6.1640387
2.2986736 -5.8496881 39.954082
2.1335001 -5.3552084 27.737617
3.1773076 -7.8637209 27.160961
3.2254107 -7.8955235 15.697446
3.9019294 -9.5231771 15.187799
0.1938446 -0.57317954 10.302212
2.4510517 -6.1306911 25.457693
3.6368213 -9.0101652 26.477001
3.8835008 -9.5350533 16.910582
0.0072640255 -0.066520371 6.159039
2.1162879 -5.3664122 27.757198
3.1298828 -7.8248701 26.989172
3.2193816 -7.960021 15.802785
3.8464494 -9.4819784 15.101007
0.1912962 -0.57220906 10.272262
2.4522998 -6.1964793 25.694824
3.6053476 -9.0228052 26.477001
3.852144 -9.5533876 16.919113
0.0070317811 -0.066545315 6.159039
2.0982833 -5.3756642 27.766989
2.6376712 -6.6615982 22.952072
3.1764429 -7.9334121 15.728169
3.8007438 -9.4640121 15.051412
0.18929765 -0.57287329 10.272262
3.576369 -9.0417538 26.495773
3.8207068 -9.5716209 16.927647
0.0067983936 -0.066525839 6.1540389
2.2353551 -5.8683558 39.919506
2.0802398 -5.3848553 27.776779
2.6438131 -6.7458138 23.209759
3.1504958 -7.948905 15.736948
3.7562499 -9.4484568 15.005948
0.18676181 -0.57188308 10.242311
2.6152542 -6.7455282 27.891924
3.5447855 -9.054183 26.495773
3.7901475 -9.5921764 16.940443
0.00656704 -0.06659279 6.159039
2.2181451 -5.8848481 39.978779
2.062521 -5.394937 27.791466
2.6466999 -6.823194 23.443588
3.1183562 -7.9487057 15.715003
3.7345805 -9.4903154 15.051412
2.5948436 -6.7628307 27.9258
3.5125356 -9.0648918 26.491081
0.0063345479 -0.066615306 6.159039
2.1978612 -5.8932824 39.983715
2.0440369 -5.4030561 27.796362
2.6185868 -6.8212423 23.405411
3.090591 -7.9595423 15.715003
3.6973453 -9.4928045 15.034879
2.5703287 -6.7694974 27.916121
3.4759288 -9.064208 26.453537
0.0061025801 -0.06668064 6.1640387
2.1805036 -5.909667 40.042988
2.0273056 -5.4158797 27.825731
2.6053617 -6.8582501 23.500851
3.0559156 -7.9523969 15.67989
3.6672232 -9.5135307 15.047279
0.18024525 -0.57215452 10.212362
2.545357 -6.7748981 27.901602
3.4307983 -9.0407906 26.350296
0.0058697839 -0.066701531 6.1640387
2.1617265 -5.9223509 40.077564
2.0069742 -5.4191041 27.806152
2.607666 -6.9371662 23.73945
3.0332458 -7.9764481 15.706224
3.6279745 -9.510498 15.022481
2.5177515 -6.7731385 27.858047
3.3961864 -9.0446329 26.326834
0.0056372136 -0.066765249 6.1690383
2.1434152 -5.9364386 40.122017
1.9869949 -5.4232082 27.791466
2.5896785 -6.9630146 23.796713
3.0062275 -7.9892273 15.710613
3.5907795 -9.5125732 15.005948
0.17843978 -0.58057725 10.342145
2.4893212 -6.7689085 27.804813
3.3597863 -9.0434923 26.289291
2.7485354 -7.3549328 16.298641
0.005404125 -0.066784523 6.1690383
2.1245091 -5.949007 40.156593
1.9673584 -5.4281964 27.781673
2.9799926 -8.0041618 15.719391
3.568383 -9.5540466 15.051412
2.4652486 -6.7763753 27.799974
3.3323655 -9.0665035 26.322142
2.7190707 -7.3542724 16.276134
3.6265428 -9.7721415 17.119614
0.0051709702 -0.066802979 6.1690383
2.1060586 -5.9629798 40.201046
1.9459935 -5.4283214 27.747408
2.8580475 -7.8519917 26.760115
2.9512072 -8.0122681 15.715003
3.5545185 -9.6192369 15.13407
2.4428563 -6.788487 27.814493
3.3036451 -9.0861893 26.345604
2.6874006 -7.3473625 16.240124
3.5780282 -9.7455692 17.051359
0.0049377535 -0.066820621 6.1690383
2.0854871 -5.9710288 40.205986
1.9277139 -5.4370008 27.757198
2.814441 -7.8169775 26.607412
2.9281406 -8.0360222 15.741337
3.5218856 -9.6342287 15.138203
2.4183023 -6.7946048 27.804813
3.2742443 -9.1041613 26.364376
2.6595154 -7.3505578 16.226622
0.0047044749 -0.066837445 6.1690383
2.0653925 -5.9804754 40.220802
1.9107445 -5.4494619 27.78657
2.7921448 -7.840816 26.655132
2.9016957 -8.0507002 15.750114
3.4911051 -9.6544027 15.150602
2.3991604 -6.8160477 27.858047
3.2476499 -9.130168 26.40661
2.6360412 -7.3659449 16.240124
3.3723555 -9.3874149 16.385872
11.191789 -30.599506 9.6669827
11.848412 -32.553196 12.146123
10.811048 -29.686954 7.7108169
0.0044716052 -0.066809833 6.1640387
2.0467637 -5.994267 40.265259
1.895713 -5.4676428 27.845312
2.8775971 -8.0720606 15.772059
3.4554884 -9.661231 15.142337
2.1196024 -6.089551 24.862444
3.2123241 -9.1316814 26.378454
2.6168501 -7.3935719 16.280636
3.3369474 -9.391757 16.373075
11.049003 -30.539143 9.6359615
11.689919 -32.469952 12.100103
10.699118 -29.701645 7.7049551
0.004238368 -0.066825032 6.1640387
2.0250819 -5.999166 40.250435
1.8835489 -5.4944539 27.948112
3.0618236 -8.791914 29.809414
2.8900146 -8.1972513 15.995904
3.420805 -9.6705809 15.138203
2.100378 -6.1028552 24.886641
3.1804292 -9.1428385 26.378454
2.5989363 -7.4252634 16.330149
3.3084667 -9.4156513 16.394403
10.929403 -30.541393 9.6246815
11.570171 -32.492767 12.093531
10.595375 -29.738811 7.7049551
0.0040050796 -0.066839419 6.1640387
2.0063417 -6.0128322 40.294891
1.872201 -5.5241394 28.065598
3.0330591 -8.8081932 29.828501
2.8653255 -8.2185974 16.017849
3.3879566 -9.6851196 15.142337
2.0774429 -6.1053896 24.867283
3.178803 -9.2420053 26.631863
2.5730014 -7.4342899 16.330149
3.9182 -11.251349 15.850875
10.814726 -30.556749 9.6176319
7.8883476 -22.412598 11.07128
11.346882 -32.221169 11.978484
10.497965 -29.793953 7.7096443
0.003772663 -0.066809371 6.159039
1.9819342 -6.0094681 40.225742
1.8545239 -5.5354681 28.090075
2.9902682 -8.7834005 29.709202
2.8342781 -8.221756 16.004683
3.3633273 -9.7234802 15.183665
2.0585227 -6.1197529 24.89632
3.1520782 -9.2693815 26.678791
2.5428064 -7.4308677 16.303141
3.8700724 -11.239316 15.814965
10.707996 -30.594315 9.6176319
7.8294582 -22.495718 11.098555
11.23434 -32.260582 11.978484
10.350718 -29.706484 7.6779914
0.0035383587 -0.06686575 6.1640387
1.9585377 -6.0089622 40.17635
1.8383907 -5.5515738 28.139025
2.7947452 -8.1998634 15.943235
3.3302763 -9.7378244 15.187799
2.0387344 -6.1316719 24.915676
3.0872619 -9.1838207 26.401917
2.5175502 -7.4417615 16.307644
3.8279035 -11.2442 15.802996
10.538382 -30.450176 9.5612307
11.0986 -32.232628 11.953831
10.27071 -29.811369 7.6955762
9.8682375 -28.626968 1.3151443
0.003304932 -0.0668777 6.1640387
1.9425521 -6.0312939 40.280075
1.8215344 -5.5656991 28.178188
2.7867522 -8.2708483 16.061741
3.30708 -9.7813787 15.237394
2.0177109 -6.1399455 24.920517
3.0421262 -9.1552382 26.289291
2.4860351 -7.4339871 16.271633
3.7895913 -11.260348 15.806985
10.296909 -30.091908 9.4385567
10.899278 -32.016369 11.860151
9.6038599 -28.178898 1.2945881
0.0030714651 -0.066888824 6.1640387
1.8030353 -5.5749302 28.192873
2.5862226 -7.865571 26.516745
3.36607 -10.153926 25.260874
2.7858651 -8.3646002 16.224136
3.2818358 -9.8195524 15.278723
1.9989837 -6.1553197 24.954393
3.0096114 -9.1641607 26.284597
2.4648526 -7.4570875 16.303141
3.2553601 -9.8085938 16.974571
10.025787 -29.636904 9.286273
7.7034202 -22.903404 11.258007
10.805528 -32.107925 11.879873
9.4607754 -28.079685 1.2889453
0.0028364304 -0.066942744 6.1690383
1.7857333 -5.5879788 28.22714
2.5550609 -7.863193 26.478567
3.3233066 -10.143335 25.205641
2.7603941 -8.3856478 16.24608
3.2660751 -9.8870611 15.365517
1.982862 -6.1790161 25.022144
2.9637547 -9.1319351 26.162586
3.220289 -9.8174191 16.970304
10.196889 -30.51062 13.085627
9.8827209 -29.553436 9.2496128
7.6892886 -23.128265 11.354517
10.648667 -32.011024 11.830568
9.2995558 -27.922939 1.280884
0.0026027388 -0.066952243 6.1690383
1.4631613 -4.7111611 31.359774
1.7652972 -5.5912652 28.212454
2.5107138 -7.8194776 26.302006
3.281862 -10.136288 25.159616
2.7540736 -8.4658356 16.382143
3.2437694 -9.935853 15.423377
1.9646997 -6.1966834 25.065701
2.9265904 -9.1257915 26.115658
2.9584136 -9.1264935 15.763046
3.4582355 -10.643153 14.89327
10.02489 -30.347939 13.001339
9.7584238 -29.523987 9.2298727
7.6963496 -23.422289 11.484596
8.8146391 -26.778357 1.2309043
0.0023708513 -0.066917323 6.1640387
1.4398727 -4.693954 31.211596
1.7530445 -5.6207228 28.329941
2.4834034 -7.8281946 26.302006
3.2458644 -10.14582 25.155014
2.7303691 -8.493638 16.417255
3.2246187 -9.9953213 15.49777
1.9475654 -6.2178979 25.123772
2.8947175 -9.135952 26.115658
2.9265382 -9.1367645 15.763046
3.3731637 -10.505972 14.685789
9.6404095 -29.512268 9.2157717
7.6383739 -23.522396 11.520264
8.7520199 -26.90398 1.234935
0.0021372519 -0.06692519 6.1640387
1.423479 -4.6989512 31.211596
1.7316154 -5.6209693 28.30057
2.4480281 -7.8111758 26.216108
3.2086625 -10.1515 25.141207
2.7115786 -8.5373564 16.483091
3.2144928 -10.084268 15.617624
1.930307 -6.2390685 25.181847
2.8561082 -9.1245918 26.054653
3.0304539 -9.6169071 20.912384
2.8962004 -9.1518974 15.771578
3.3073146 -10.425772 14.558108
9.7373419 -30.18335 12.902068
9.5594387 -29.614216 9.2369223
7.5589919 -23.557558 11.52446
10.086235 -31.41489 11.572537
8.5433884 -26.577648 1.2198201
0.0019057653 -0.06688866 6.159039
1.4090717 -4.7105918 31.25605
1.714651 -5.635747 28.344625
2.7879961 -9.0060635 30.186399
3.1662204 -10.140261 25.085978
2.6702893 -8.5102072 16.412867
3.1750462 -10.082006 15.59696
1.913659 -6.262598 25.249598
2.8502362 -9.2185888 26.293983
2.9981604 -9.6315842 20.921387
2.8805785 -9.2142248 15.861162
3.2781103 -10.460255 14.590028
