# .PCD v0.7 - Point Cloud Data file format
VERSION 0.7
FIELDS x y z
SIZE 4 4 4
TYPE F F F
COUNT 1 1 1
WIDTH 1609
HEIGHT 1
VIEWPOINT 0 0 0 1 0 0 0
POINTS 1609
DATA ascii
5.4637175 4.3836684 16.562101
4.2546396 3.4306967 8.0997915
7.5910087 6.1274338 11.756446
1.4404702 1.0169928 30.328747
2.5769601 1.9722015 30.221582
6.0803547 4.8177295 29.905125
3.6969683 2.9493008 12.914907
3.934864 3.1514156 10.487574
7.9204001 6.3591633 16.684488
6.455297 5.1902723 11.042896
7.3628569 5.928421 10.325929
8.1169024 6.5753455 10.345068
6.8256721 5.5352631 7.1683512
4.7069931 3.8184943 4.0584302
23.143921 18.795172 12.134126
7.6242681 6.1586576 8.8104057
6.5718064 5.3122993 6.2366457
5.2808022 4.270246 4.076427
3.7368331 2.9041834 30.085443
4.9042325 3.8484566 29.994318
3.6273768 2.875211 14.844472
5.4392557 4.332922 16.442436
7.2362094 5.7808371 17.040504
4.2621961 3.4123075 8.091526
7.7324047 6.1971145 11.940645
1.4440114 1.0119585 30.328747
2.5842531 1.9635166 30.226553
6.0991101 4.7980304 29.914803
3.7884071 3.0006635 13.196474
3.9441361 3.136306 10.483072
7.9323535 6.3233495 16.663158
6.5181184 5.2034259 11.118707
7.3861532 5.9047999 10.329603
5.2830706 4.2492766 6.742394
6.7540016 5.4381719 7.0741973
4.7105236 3.7941713 4.0502057
23.292393 18.781199 12.177206
7.6165915 6.108645 8.7771502
6.8078189 5.4638968 6.439724
9.1815186 7.3716207 7.0047817
3.746948 2.8911219 30.085443
4.9184394 3.8319399 29.999214
3.6373911 2.8625317 14.844472
5.4436212 4.3054256 16.410219
7.2131863 5.7213116 16.939554
4.2895017 3.4096656 8.1204567
7.7916112 6.2000217 11.998208
1.4475349 1.0069118 30.328747
2.5910914 1.954484 30.226553
6.1168118 4.7774844 29.919641
3.8300579 3.0119553 13.304407
3.960186 3.1265662 10.496575
6.58111 5.2162037 11.194517
7.4014096 5.8747668 10.322253
5.2755771 4.2130065 6.7143579
4.7465982 3.7959871 4.069396
7.8244715 6.2618914 5.3324389
7.6758394 6.1122575 8.8203821
6.9912276 5.5710855 6.5927687
9.1229239 7.2723498 6.9414525
3.7570171 2.8780248 30.085443
4.9325905 3.8153708 30.004108
3.6814723 2.8764682 14.98286
5.5231514 4.3370724 16.603525
7.2538114 5.7123976 16.987835
4.2792869 3.3772388 8.0791273
7.8031449 6.1648378 11.982859
1.4508033 1.0016888 30.323753
2.597898 1.9454274 30.226553
6.1344447 4.7568741 29.924482
3.7793384 2.9507794 13.093232
3.9813559 3.1207814 10.523582
6.6300621 5.2174239 11.246387
7.4378471 5.8614855 10.344304
5.2483344 4.1613302 6.6617894
4.8384128 3.8417983 4.135191
7.8254714 6.2180052 5.3185258
7.7264185 6.1085835 8.8536377
6.9377241 5.4889655 6.5250759
9.1752939 7.2618623 6.9617176
3.7670403 2.864893 30.085443
4.9466863 3.7987494 30.009003
3.676158 2.8517067 14.920824
4.3410864 3.3844514 13.027363
7.2416315 5.6619635 16.913221
7.8195729 6.133606 11.975183
1.454291 0.99661851 30.323753
2.6051006 1.9366652 30.231525
6.1520081 4.7361984 29.929321
3.7118723 2.8773086 12.825745
3.9956608 3.1095386 10.532585
4.4732118 3.4949353 7.5915251
5.2628284 4.1429849 6.6617894
9.6078405 7.5715404 9.9458857
4.8517933 3.8248861 4.135191
6.9854498 5.4871864 6.5515637
9.2209253 7.2457719 6.9769173
3.7757773 2.8507898 30.075565
4.9607258 3.7820768 30.013899
3.6896377 2.8415892 14.93514
4.3327899 3.3537323 12.96753
7.212162 5.5984683 16.799105
7.7654634 6.0409818 14.522394
3.5772784 2.7859106 5.5051508
1.4579998 0.99169821 30.328747
2.6118453 1.92756 30.231525
6.1685028 4.714695 29.929321
3.7273641 2.8685441 12.844516
4.485384 3.4792998 7.5915251
5.2575889 4.1092162 6.6372581
9.5882301 7.5019794 9.8988085
7.1467991 5.5977974 4.8385344
9.3945475 7.3214126 10.689313
6.9918118 5.4528265 6.5397916
12.461434 9.7219763 9.3733044
3.7888148 2.8399227 30.100264
4.9747095 3.765352 30.018793
3.6959767 2.8259728 14.920824
4.3475685 3.3409684 12.976735
7.7954111 6.0207195 14.538926
3.5895174 2.7753675 5.5089884
1.4614525 0.98660278 30.328747
2.6185577 1.9184312 30.231525
6.1859236 4.6938939 29.934162
3.8045461 2.9068506 13.074462
6.8031154 5.231638 14.107863
4.4975019 3.4636216 7.5915251
5.1605849 3.9799902 7.1432357
7.7400398 6.0060143 9.7072401
6.9400973 5.3911028 7.1683512
7.44383 5.7844787 6.2653103
7.1697922 5.5755353 4.8408532
8.2092962 6.3517871 9.3258591
5.0708485 3.9263136 4.753293
12.556639 9.7259321 9.4189014
3.8011982 2.8285348 30.120018
4.988637 3.7485759 30.023689
3.7046297 2.8121517 14.916052
4.3607574 3.3269575 12.981339
6.3475695 4.8567028 14.714292
7.811914 5.990047 14.530661
1.4648875 0.98149538 30.328747
2.6252384 1.909279 30.231525
6.2032747 4.6730289 29.938999
3.8352933 2.9091954 13.144853
5.979888 4.553926 15.605453
6.8835249 5.2553368 14.235841
4.5095649 3.447901 7.5915251
5.1717539 3.9598913 7.1395607
7.6818538 5.9180202 9.6091127
7.0297637 5.4215159 7.2405353
7.447423 5.7456889 6.2516026
7.2137556 5.5694237 4.8570848
8.1929245 6.2935238 9.2826271
5.020431 3.8593209 4.6944299
12.648605 9.726717 9.4619656
3.8141739 2.8175576 30.144716
5.0025077 3.7317483 30.028584
3.7132313 2.7983046 14.91128
4.3629999 3.3046379 12.953722
6.3129907 4.7954025 14.595788
7.8327756 5.9627423 14.530661
1.4685452 0.97653562 30.333736
2.631887 1.9001034 30.231525
6.2205558 4.6520996 29.94384
3.8743746 2.9175894 13.243401
5.995748 4.5330243 15.605453
6.9724951 5.2848392 14.380883
4.5191727 3.4303172 7.5875354
5.2098351 3.9602785 7.172637
7.6656394 5.8630037 9.5635538
7.1568112 5.4797635 7.3503814
7.5139079 5.7552538 6.2899837
7.2296371 5.5415144 4.8547659
8.1228065 6.1946974 9.1795368
5.0049539 3.8197031 4.6679416
12.699613 9.6955843 9.4746313
3.827745 2.8069828 30.174351
5.0155034 3.7142634 30.028584
3.7229767 2.785326 14.91128
4.3713856 3.28704 12.944518
6.4405999 4.8569732 14.850354
7.8041511 5.8980374 14.439735
3.6158271 2.7356925 5.5051508
1.4719448 0.97140348 30.333736
2.6385036 1.890905 30.231525
6.2377658 4.6311069 29.948679
3.8859172 2.9050806 13.248094
5.980195 4.4885454 15.524431
7.0763426 5.32476 14.555786
4.5311193 3.4145212 7.5875354
5.2804551 3.9849534 7.249815
7.6775379 5.8297405 9.5530405
6.5654521 4.9907246 6.7321057
7.5639067 5.7517691 6.3146563
7.3546929 5.5967216 4.9243302
7.9062347 5.9860015 8.913496
5.0569167 3.831501 4.7032595
9.2944431 7.044682 6.9389191
3.835007 2.7917755 30.154593
5.0292587 3.6973367 30.03348
3.731478 2.7714233 14.906507
4.3781362 3.2682545 12.93071
6.5495424 4.9033575 15.061029
7.8404474 5.8825812 14.468665
7.7412839 5.8145056 11.668183
1.4753268 0.9662596 30.333736
2.645088 1.8816833 30.231525
6.2549052 4.6100507 29.953518
3.8738623 2.8750441 13.173009
5.967896 4.4468322 15.452412
7.1721954 5.3577771 14.713627
4.5574875 3.4095142 7.6114759
5.294333 3.9664967 7.249815
7.7889695 5.8716006 9.6651859
6.5424433 4.9372959 6.6913061
7.767487 5.8638959 6.4654374
7.3494425 5.5523233 4.9080987
7.7569561 5.8304939 8.7239428
5.0508795 3.7992475 4.6856003
9.2569761 6.9655423 6.8933225
3.844099 2.7779167 30.149654
5.0429564 3.6803591 30.038374
3.7471371 2.7628105 14.930368
4.387948 3.2517891 12.926107
6.5646963 4.8790369 15.056642
7.8902726 5.8770299 14.522394
7.7024322 5.7433791 11.57992
1.478933 0.96126115 30.33873
2.6516402 1.8724388 30.231525
6.2729878 4.589673 29.963196
3.8824849 2.8604805 13.168317
5.9396276 4.3936086 15.339882
7.2578893 5.382421 14.850137
5.2625461 3.938379 6.5391302
6.2605915 4.6903872 6.3900137
4.4887376 3.3641574 3.7623518
7.2801833 5.4601879 4.8501287
7.5498323 5.6336765 8.4712048
5.0964971 3.8057778 4.7150321
8.0793819 6.0353942 6.0117755
3.8531413 2.7640285 30.144716
5.0565968 3.6633306 30.04327
5.6587486 4.1417608 22.46533
4.4024191 3.2387679 12.935312
6.5354333 4.8219662 14.951303
7.9039516 5.8444328 14.509995
4.6155119 3.4166172 6.95189
1.4825219 0.95624912 30.343721
2.6590333 1.8637832 30.24147
6.2899885 4.5684872 29.968037
5.9338722 4.3573875 15.285868
7.4152503 5.4591017 15.131688
6.7470164 4.9744077 11.174567
5.0546188 3.7320979 6.8896494
5.2419095 3.894464 6.497076
6.1863532 4.6011419 6.2989988
4.5205817 3.3634441 3.7788005
7.2068176 5.3659587 4.7898397
7.230423 5.3561449 8.0954237
5.1065035 3.785557 4.7120886
8.1142511 6.017427 6.0219088
3.8621325 2.7501111 30.139776
5.0701799 3.6462517 30.048164
5.6574731 4.1105771 22.403296
4.4121203 3.2222288 12.93071
6.5850725 4.8231816 15.025918
4.6196613 3.3947911 6.9403777
1.486094 0.95122379 30.348711
2.6663978 1.8550988 30.251413
6.3079357 4.5479736 29.977716
3.7599223 2.7298949 12.689655
5.9613605 4.345624 15.317376
7.4532127 5.4470339 15.170082
6.7594762 4.9472671 11.166588
5.0512094 3.7024062 6.8675985
5.2526016 3.8740256 6.4935718
6.0739932 4.4847288 6.1703215
4.5322948 3.3476439 3.7788005
7.2290664 5.3434029 4.7921586
7.2490754 5.3308735 8.0954237
5.1327085 3.777292 4.7238612
8.1352062 5.9890661 6.0219088
7.6366935 5.6282263 4.4729052
3.8717091 2.7366128 30.139776
5.0837059 3.6291227 30.053059
5.6802616 4.0969157 22.436699
4.4233413 3.2068079 12.93071
6.6134911 4.8086166 15.052251
4.6288939 3.376756 6.9365401
1.4896492 0.94618517 30.353704
2.6737344 1.8463858 30.261356
6.3247948 4.5266581 29.982555
3.7918284 2.7328973 12.764739
5.9623837 4.3145785 15.281365
7.4848456 5.4301729 15.195676
6.7742672 4.9218707 11.162598
5.0778089 3.6947243 6.8859739
9.4182615 6.895709 11.550632
6.1021686 4.4727039 6.1828756
4.5506968 3.3367479 3.7842834
7.2762465 5.3391013 4.810709
7.3973145 5.4002018 8.2384195
5.155654 3.7665057 4.7326908
8.107337 5.9250221 5.9864445
7.634316 5.5854554 4.4603171
3.8825102 2.723974 30.149654
5.0971737 3.6119442 30.057955
5.6945281 4.0770631 22.436699
6.6244097 4.7812967 15.039084
4.6302681 3.3530576 6.9211898
1.4929429 0.94097954 30.353704
2.6801634 1.8370415 30.261356
6.342607 4.5060091 29.992233
3.8027482 2.7206485 12.769432
5.9809442 4.2962804 15.290368
7.4804759 5.387248 15.148752
5.1016679 3.6849172 6.9006748
9.3297672 6.7810202 11.413954
7.3798313 5.3696828 7.4413967
4.5623164 3.320843 3.7842834
7.2948394 5.3136697 4.810709
4.6013684 3.3345602 5.1423793
8.1279697 5.8966866 5.9864445
7.6537666 5.558773 4.4603171
3.8945453 2.7121809 30.169413
5.1105833 3.5947154 30.062849
5.7111583 4.0588899 22.446243
4.6315346 3.3293912 6.9058404
1.4962184 0.93576247 30.353704
2.6865594 1.8276747 30.261356
6.359324 4.4845657 29.997072
3.8262916 2.7173493 12.816359
6.0012226 4.2791686 15.303873
7.4695325 5.3398695 15.089027
7.1735244 5.1358166 11.757111
5.1007237 3.6572096 6.8822989
9.2781868 6.6941605 11.322837
7.4174614 5.3575635 7.4602275
4.5603232 3.2951014 3.7733176
7.4138532 5.3608513 4.8756351
4.6099491 3.3162978 5.1390538
5.2933564 3.8107138 4.8327584
8.134511 5.858202 5.9763112
7.7467537 5.5851068 4.5022783
3.9052672 2.6994536 30.179291
5.1239352 3.5774372 30.067747
5.7265115 4.0397897 22.451014
3.5785713 2.5376554 10.394719
4.6405187 3.3113422 6.9020028
1.4994757 0.93053401 30.353704
2.692481 1.8179874 30.256384
6.3769989 4.4637818 30.006752
3.8357534 2.7039764 12.816359
6.0196762 4.2607088 15.312874
7.4881263 5.3137631 15.089027
2.9864147 2.1224105 4.9261894
5.1106968 3.6374164 6.8786235
9.0753469 6.4997649 11.049481
6.0094876 4.3087654 6.0447836
4.6091733 3.3059704 3.8034737
7.4325213 5.3349395 4.8756351
6.1711764 4.406786 6.8350592
5.2836051 3.7757621 4.8121562
5.7386789 4.1024699 4.2309513
7.8879967 5.6451955 4.5715141
3.9185109 2.6884422 30.208925
5.1380658 3.5606892 30.077538
5.7442465 4.0223446 22.46533
3.5858099 2.5240238 10.390117
4.6625113 3.3025343 6.9173522
1.5027148 0.92529416 30.353704
2.6988106 1.8085779 30.256384
6.3935738 4.4422121 30.011593
3.8352711 2.6836457 12.78351
6.0398564 4.2434249 15.326378
7.4917035 5.2770796 15.059166
3.0061162 2.1206577 4.9461393
5.1482821 3.6371598 6.9117002
11.11806 7.9041743 13.485141
6.0022941 4.2719631 6.0228143
4.6206851 3.2898614 3.8034737
6.174336 4.3765807 6.8217568
5.2736759 3.740926 4.7915545
5.7459331 4.0774236 4.2258849
7.9113541 5.6202555 4.5736122
3.9272292 2.6743104 30.203987
5.1513023 3.5433095 30.082432
5.761929 4.0048246 22.479647
3.5897942 2.5081353 10.376309
6.4276967 4.5041709 14.450948
4.6844993 3.293613 6.9327025
1.506182 0.92019349 30.358694
2.7051072 1.7991464 30.256384
6.4111109 4.4212942 30.021271
3.8247726 2.6564608 12.717812
6.0582032 4.2248068 15.335381
7.5058031 5.2479072 15.050634
3.0110321 2.1084235 4.9421496
5.205358 3.6503103 6.9705024
11.189291 7.8961606 13.53771
6.0139899 4.2487397 6.0196757
4.5775056 3.2350996 3.7596102
7.2887511 5.1550255 4.7596951
4.3613195 3.0709181 3.9674692
5.6966939 4.0126581 4.1802874
7.886415 5.5612192 4.5484352
3.9352527 2.6597152 30.194109
5.1644807 3.5258806 30.087328
5.7783308 3.9863827 22.489191
3.6001327 2.4967022 10.380912
6.4473119 4.4844418 14.459726
4.326612 3.016124 7.8187513
4.7091098 3.2864122 6.95189
1.5093849 0.91493034 30.358694
2.7118158 1.7899865 30.261356
6.4265051 4.3988886 30.021271
3.8183928 2.6323197 12.666191
6.0764937 4.2061119 15.344383
2.9886816 2.0772636 4.894269
5.2598052 3.6611688 7.02563
9.250989 6.4800768 11.17915
5.9140582 4.1472697 5.906692
4.5066147 3.1614687 3.693815
7.3139529 5.1346426 4.7643328
6.0547438 4.2286139 6.6588073
4.3753262 3.0579913 3.9704125
5.6965346 3.9828684 4.170155
7.9466796 5.5622849 4.5715141
3.9438677 2.6455297 30.189169
5.1775999 3.5084028 30.092222
5.8032956 3.9737782 22.532139
3.6072166 2.4830127 10.376309
6.4688387 4.4659905 14.472893
4.3278575 2.9945982 7.8022194
1.5128169 0.9098047 30.363688
2.7180476 1.7805095 30.261356
6.4428606 4.3771358 30.02611
3.7962255 2.5975373 12.56295
6.0965214 4.1885734 15.357886
9.041419 6.2280378 18.028257
2.9909534 2.0633962 4.8862891
5.3227592 3.6774731 7.091783
9.2735519 6.4477453 11.17915
5.950861 4.1421657 5.9286609
4.4936018 3.1289923 3.6746247
7.5026498 5.2281127 4.8733163
6.1154962 4.2393608 6.7086897
4.4457531 3.0841703 4.0233893
5.706861 3.9605012 4.1676216
7.9660468 5.534512 4.5715141
3.9517846 2.6308858 30.179291
5.1906595 3.4908764 30.097116
5.8035507 3.9442675 22.479647
3.6126356 2.4682019 10.367105
6.4784622 4.439322 14.459726
4.338284 2.9794731 7.8022194
1.5159835 0.90451843 30.363688
2.7246931 1.7713014 30.266327
6.4591422 4.3553219 30.030949
3.809552 2.5871785 12.577028
6.1165004 4.1709461 15.371389
9.1018562 6.2229347 18.105043
5.4054618 3.7068026 7.1836619
9.2431688 6.3788748 11.116068
6.0293307 4.165617 5.9914298
4.4907379 3.1037784 3.6636589
7.5208535 5.2018914 4.8733163
6.0964208 4.1947069 6.6721091
4.509758 3.1053102 4.0704799
5.7490516 3.9601195 4.1878872
7.9815812 5.5040946 4.569416
3.9609442 2.6170754 30.179291
5.2028136 3.4727364 30.097116
5.8148084 3.9223158 22.470102
3.6179953 2.4533834 10.357899
6.487978 4.4126406 14.446559
4.3254056 2.9484615 7.7608895
1.5191315 0.89922118 30.363688
2.7308593 1.7617797 30.266327
6.4743061 4.3327484 30.030949
3.8257151 2.5786874 12.600492
6.1364312 4.1532302 15.384892
5.4744201 3.7260618 7.2571659
9.2477264 6.3344789 11.09504
6.0406251 4.142344 5.9882913
4.5049925 3.0904491 3.6664004
7.4805331 5.1354928 4.8362155
6.1356931 4.1902461 6.6987128
4.513896 3.0849879 4.0645933
5.780633 3.9521925 4.2005529
7.9970002 5.4736371 4.567318
3.9700551 2.6032336 30.179291
5.2157521 3.4551163 30.102013
5.8160601 3.8936901 22.42238
3.6443658 2.4527378 10.408527
6.4934154 4.383266 14.424613
4.319356 2.922307 7.7319593
1.5222613 0.89391297 30.363688
2.7374415 1.7525238 30.271297
6.490438 4.3108182 30.035789
3.821784 2.5566821 12.558257
6.1563129 4.1354265 15.398397
5.4817748 3.7031345 7.249815
9.2845268 6.3121853 11.112563
4.5814233 3.1194184 3.718488
7.3629661 5.0170569 4.7504201
4.5313268 3.0737505 4.0704799
5.8300638 3.9561954 4.2258849
3.9791181 2.5893595 30.179291
5.228632 3.4374478 30.106907
5.817183 3.8651042 22.374662
3.6529052 2.4400017 10.408527
6.5146456 4.364572 14.437781
4.3178496 2.8993688 7.7112947
8.5643358 5.7572346 12.431846
1.5253723 0.88859379 30.363688
2.7435422 1.7429576 30.271297
6.506495 4.2888274 30.040627
3.8853166 2.5795958 12.736582
6.1761446 4.1175346 15.411901
5.5002995 3.6877525 7.2571659
9.2059937 6.2119164 10.993408
6.3983822 4.3223104 6.308414
4.6511807 3.1432083 3.7650931
7.314384 4.9466562 4.7086816
9.3247423 6.2731075 10.090723
4.5520878 3.0646868 4.0793095
5.8366876 3.9310043 4.220818
3.9881322 2.575454 30.179291
5.2405992 3.4191759 30.106907
5.8381171 3.8497055 22.403296
3.6597717 2.4261565 10.403924
6.5278463 4.3404794 14.433391
4.3115516 2.8733549 7.6823635
8.5097246 5.6774964 12.324396
1.5284648 0.88326389 30.363688
2.7500608 1.7336544 30.27627
6.5235305 4.2674661 30.050306
3.996609 2.6334283 13.069769
6.197742 4.1007562 15.429906
5.411531 3.6009204 7.1248593
9.2068787 6.165853 10.968877
6.4554596 4.3281274 6.3492141
4.6655974 3.1292827 3.7678347
7.3316064 4.9210935 4.7086816
9.3621082 6.250886 10.10735
4.5526752 3.0420415 4.0704799
5.8037829 3.8794641 4.1878872
3.997752 2.5619361 30.184229
5.2533574 3.4014151 30.111803
3.3834107 2.2142177 12.973854
6.5529528 4.3242617 14.455336
4.164299 2.7542806 7.4054565
1.5315386 0.87792313 30.363688
2.7565472 1.724327 30.28124
6.5394416 4.2453532 30.055147
4.0563278 2.6525159 13.234015
6.2174773 4.0826812 15.443409
4.3416271 2.8628502 6.9611015
5.3731465 3.5483813 7.0587063
5.1415401 3.417381 6.1466217
6.3830347 4.2473488 6.2644758
4.6730113 3.1106603 3.7650931
9.3091717 6.1686697 10.027538
4.4419956 2.9457116 3.9645259
5.8208823 3.8615646 4.1904202
7.6643324 5.0902681 4.3407283
4.0066705 2.5479658 30.184229
5.2651982 3.3830569 30.111803
3.3773484 2.1934512 12.921362
6.574019 4.3052979 14.468504
4.0233264 2.6409023 7.1409473
3.7998974 2.4970837 5.5205011
1.5345938 0.87257171 30.363688
2.7630026 1.7149755 30.286213
6.5552769 4.2231808 30.059986
4.0655622 2.6383405 13.234015
6.2408104 4.0668955 15.465915
4.3465514 2.844378 6.9531221
5.0452442 3.3066075 6.6176872
5.1445065 3.3935218 6.1361079
6.485518 4.2829547 6.3492141
4.5338206 2.9952216 3.6472101
5.968986 3.9463212 3.8321753
9.2588968 6.0889511 9.9510527
4.4725099 2.943521 3.9821851
5.8127222 3.8269989 4.175221
7.685843 5.0659814 4.3428264
4.0161972 2.5343792 30.189169
5.2778339 3.3652046 30.116697
3.3912582 2.1856916 12.945223
6.6271615 4.3071213 14.551896
3.9947941 2.6022675 7.0748205
3.8059061 2.482054 5.5166636
1.5376302 0.86720967 30.363688
2.7689722 1.7053204 30.286213
6.5710382 4.2009501 30.064827
4.1269784 2.657768 13.402955
6.2641087 4.0509973 15.488422
7.3627062 4.7741828 14.423543
4.3513994 2.8259063 6.9451418
5.0368624 3.2760375 6.5919609
5.1563206 3.3755434 6.1361079
6.314867 4.1386766 6.1703215
4.5092793 2.9564509 3.6197953
5.9605021 3.910881 3.8182626
9.2144318 6.0137405 9.881216
4.4827576 2.9278913 3.9821851
5.826045 3.8066857 4.175221
7.6047297 4.9745264 4.2882767
4.0256782 2.520757 30.194109
5.2904091 3.3473055 30.121593
3.393837 2.170624 12.926134
6.6703334 4.302135 14.613343
4.0062165 2.5898347 7.0789533
3.7661111 2.437407 5.4475884
1.5406481 0.86183703 30.363688
2.7753627 1.6959223 30.291183
6.5867233 4.1786604 30.069664
4.1347766 2.6424167 13.398262
6.2892036 4.0361609 15.515429
7.3617797 4.7371626 14.389415
4.3511052 2.8041701 6.9291816
5.0425701 3.2547586 6.5846105
5.1561098 3.3497524 6.1220894
4.5370965 2.9520948 3.6335027
5.9741173 3.8900509 3.8182626
9.2102957 5.965301 9.8546124
4.4759912 2.901233 3.9674692
5.8067455 3.7652185 4.1524229
7.5877867 4.9257097 4.2693944
4.0344529 2.5066893 30.194109
5.3037853 3.329901 30.131382
3.4303808 2.17716 13.03589
6.7095175 4.2943182 14.666014
4.0365496 2.5895097 7.1161499
3.8177474 2.4519591 5.5089884
1.5436471 0.85645396 30.363688
2.7817216 1.6865004 30.296156
6.6033974 4.1569824 30.079344
4.1308589 2.6196501 13.356028
7.3584881 4.6988039 14.351022
3.0865285 1.9739912 4.9261894
5.0567555 3.2389655 6.5882859
5.1587796 3.325937 6.1115761
6.5071201 4.2000294 6.3272443
4.5789886 2.9566531 3.6581759
5.9690571 3.8571529 3.8066688
9.2624722 5.9533029 9.8878679
4.4690938 2.8746581 3.9527533
5.8271036 3.7495914 4.1574888
4.0431781 2.4925909 30.194109
5.3162413 3.3119054 30.13628
3.4392226 2.1659677 13.040662
6.7244663 4.2708712 14.666014
4.081172 2.5980711 7.178144
3.8857484 2.476516 5.5934138
1.5466273 0.85106033 30.363688
2.7880485 1.6770548 30.301126
6.6189327 4.1345725 30.084183
4.1297536 2.5987816 13.323177
7.3197694 4.6381917 14.244373
3.1315627 1.9874238 4.9860396
5.0594468 3.2158384 6.57726
5.1733618 3.3098309 6.1150808
6.5184641 4.1751904 6.3241067
4.680819 2.9993045 3.729454
5.9862137 3.8386848 3.8089876
9.305232 5.9349895 9.9111462
4.4552512 2.8438175 3.9321513
5.8982882 3.7663481 4.1980195
4.050528 2.4776516 30.184229
5.3286357 3.2938633 30.141174
3.4341035 2.1460395 12.992942
6.7514901 4.2550335 14.692347
4.0806994 2.5777977 7.1616125
3.8943691 2.4629374 5.5934138
1.5495886 0.84565645 30.363688
2.7938855 1.6673124 30.301126
6.6343937 4.1121054 30.089024
4.1212349 2.5733829 13.266865
7.3292918 4.608448 14.231576
3.1078835 1.9572121 4.9381595
5.0677738 3.1963494 6.573585
5.4325466 3.452965 5.2727237
4.7265453 3.0053835 3.7568686
5.341167 3.380511 5.7110395
4.4651508 2.8282485 3.9321513
5.9296064 3.757273 4.2106857
7.6811085 4.872725 4.2924733
4.063138 2.4659162 30.213865
5.3418365 3.2763073 30.150965
3.4847071 2.1607831 13.15519
6.7703633 4.2339807 14.701125
4.089673 2.5635376 7.1616125
1.552531 0.84024221 30.363688
2.8001473 1.6578214 30.306099
6.6497784 4.0895805 30.093861
4.1213908 2.5535281 13.238708
7.3497596 4.5855975 14.240108
3.1658044 1.9782875 5.0179601
5.0702796 3.1732452 6.5625596
11.083302 6.9822865 12.95245
5.4412742 3.4319043 5.2695851
4.78298 3.0178733 3.7925079
7.2601457 4.5843835 4.5811481
5.381392 3.3797183 5.7409692
4.4749961 2.812645 3.9321513
4.0697241 2.450516 30.199047
5.3541107 3.2581706 30.155861
3.4998569 2.1532991 13.183822
6.7871366 4.211585 14.705515
4.0938172 2.5462737 7.1533465
6.8826494 4.2858067 9.7839689
1.5557089 0.83495414 30.368679
2.8063769 1.6483068 30.311069
6.6650858 4.066998 30.098701
4.1052871 2.5237632 13.158932
7.3612862 4.557168 14.231576
3.1982996 1.983103 5.0578599
5.0726857 3.1501615 6.5515342
11.177159 6.9870338 13.033054
5.4268255 3.3963709 5.2444773
4.8572798 3.0410998 3.8418543
7.3286576 4.5919414 4.6136112
5.3963256 3.3628881 5.7442946
4.467638 2.7863121 3.9174354
5.6045856 3.4967303 3.9675004
7.6802964 4.7973404 4.2735906
4.0915942 2.4442635 30.297832
5.3663225 3.2399874 30.160755
3.520093 2.1488461 13.231541
6.8038354 4.1891232 14.709904
4.0907063 2.5245788 7.1326814
3.6445441 2.2518623 5.2058258
1.558614 0.82951856 30.368679
2.8125739 1.6387689 30.31604
6.6824675 4.045661 30.11322
4.1288042 2.5184035 13.205858
7.4015937 4.5464597 14.278502
3.2077692 1.9735059 5.0618501
5.0749917 3.1270998 6.5405083
11.328767 7.0269275 13.180246
5.4518747 3.3856201 5.257031
4.9140391 3.0528107 3.8774931
7.3183074 4.5499592 4.5973797
5.4270854 3.3558123 5.7642474
5.7834454 3.5789447 5.0358362
5.6167579 3.477145 3.9675004
7.6391301 4.7346382 4.2421198
3.6174793 2.1439757 26.731689
5.3784733 3.2217591 30.165651
3.5250192 2.1349995 13.221998
6.8184171 4.1653476 14.709904
4.1066937 2.5146928 7.1450806
6.8987389 4.2292767 9.764781
1.5617555 0.82420754 30.373671
2.8182771 1.6289413 30.31604
6.7019367 4.0255461 30.137417
4.1375704 2.5039759 13.205858
7.4396892 4.5341678 14.32116
3.2197824 1.9654365 5.0698299
5.074307 3.1022928 6.5258079
11.383597 7.0060306 13.215291
5.4967971 3.3869872 5.2884154
4.9531422 3.0531919 3.899425
7.3303757 4.5220599 4.5950608
5.8854613 3.6137238 5.1123586
5.5737629 3.4236741 3.9295027
7.655611 4.7079439 4.2421198
3.6122148 2.1238537 26.637842
5.3905616 3.2034853 30.170546
3.5260522 2.1188376 13.198137
6.8349624 4.1427627 14.714292
6.8805985 4.1851816 9.7187309
1.5648788 0.81888473 30.378662
2.8244085 1.6193589 30.321012
6.7170277 4.0027709 30.142256
4.0708313 2.444216 12.966528
11.149027 6.7415457 21.381281
7.7757888 4.7092586 12.112223
5.0735106 3.0775282 6.511107
12.047151 7.356555 13.951246
5.5417953 3.3880818 5.3198004
4.9352317 3.0184298 3.8774931
6.1332998 3.7541034 3.8507257
11.580289 7.0492835 12.155859
5.8669724 3.5742314 5.0858698
5.5415072 3.3772764 3.8991046
7.7184892 4.7095594 4.2672963
3.6142366 2.1081004 26.59833
5.401711 3.184649 30.170546
3.532145 2.1057522 13.193365
6.8493819 4.1188788 14.714292
8.0356836 4.8436885 13.852857
6.91712 4.1743875 9.7494307
1.5677278 0.81341732 30.378662
2.830044 1.6094899 30.321012
6.748271 3.9895341 30.219687
4.0259647 2.3981998 12.797588
11.159073 6.6945376 21.355686
7.7663503 4.6665673 12.072323
5.0696988 3.0510595 6.4927316
12.243564 7.4179425 14.1475
5.5635719 3.3747728 5.329216
4.9421635 2.9990156 3.8747518
6.1652989 3.7441685 3.8623199
11.636785 7.0281205 12.189114
5.8275247 3.5223675 5.0417228
5.5126848 3.3333766 3.8712397
7.7077036 4.6661353 4.2526102
3.6242635 2.0970278 26.618084
5.4136739 3.1662881 30.17544
3.5343344 2.0903704 13.174278
10.863327 6.4605608 29.835779
6.8637176 4.094945 14.714292
8.0404654 4.8083873 13.832191
7.0636497 4.229249 9.9336309
1.5705576 0.80793995 30.378662
2.8356447 1.5996015 30.321012
5.4697142 3.2079856 24.451092
3.9912269 2.3586719 12.661498
7.803299 4.651773 12.104242
5.065764 3.0246542 6.4743552
12.238817 7.3567867 14.112455
5.5753183 3.3553321 5.329216
4.931108 2.9688053 3.8583028
6.170742 3.7180524 3.8576822
11.658045 6.985539 12.185789
5.7981873 3.4770594 5.0064049
5.4762306 3.285284 3.8383083
7.7239451 4.6392021 4.2526102
3.6403222 2.0893915 26.682295
5.4264545 3.1483934 30.18523
3.5428972 2.0787761 13.179049
10.887495 6.4235945 29.840384
6.8779702 4.070961 14.714292
8.093504 4.8018298 13.894186
3.8872149 2.3090434 5.4898009
1.5733682 0.80245274 30.378662
2.8416765 1.5899537 30.325985
5.4830513 3.1901371 24.460772
3.9875264 2.3377438 12.623956
10.783333 6.367177 20.55369
7.8298635 4.6306415 12.120203
5.0675406 3.00177 6.4633303
9.3791246 5.5933552 10.811172
5.5168157 3.293947 5.263308
4.9988775 2.9858816 3.9021664
6.1684742 3.6873982 3.8484073
11.672728 6.9390779 12.175812
5.4654393 3.2529202 3.8231091
7.7712827 4.6307979 4.2693944
3.6489439 2.0774405 26.692175
5.4382939 3.12994 30.190126
6.8942046 4.0481405 14.718681
8.1005154 4.7678394 13.877654
3.8179309 2.249897 5.3823509
1.5761597 0.79695576 30.378662
2.8481414 1.5805417 30.335928
3.9852202 2.3177381 12.591106
10.78524 6.3176336 20.515297
7.8563752 4.6093812 12.136163
5.0546045 2.9703219 6.433929
9.334136 5.5224471 10.737576
5.467999 3.2389631 5.2068157
5.1207857 3.0344958 3.9871519
7.560586 4.4838228 4.6878123
7.7603326 4.5767088 8.1054001
5.780549 3.4118416 4.971087
5.369112 3.1702604 3.7496471
7.943675 4.6960273 4.3533163
3.6487308 2.0604885 26.637842
5.4509549 3.1119475 30.199917
3.470711 2.0039859 12.859327
6.9062228 4.0228448 14.714292
1.578932 0.79144907 30.378662
2.8541083 1.5708474 30.3409
6.7869525 3.8855574 30.147095
3.9858124 2.2995014 12.567643
10.762127 6.2537408 20.429977
3.3123231 1.9278899 5.149631
5.0766578 2.9594893 6.4486294
9.356432 5.4916368 10.741081
5.4624934 3.2099969 5.1911235
5.1313472 3.0166025 3.9871519
7.4883771 4.4057393 4.6344805
7.7601471 4.5401649 8.0887718
5.7749829 3.3814311 4.9563713
5.4247813 3.1776452 3.780045
7.9717641 4.6751585 4.3596106
3.6531894 2.0462208 26.618084
5.4626703 3.0934029 30.204811
3.4673226 1.9859239 12.821151
8.2014484 4.7237897 22.35668
6.9285183 4.0035067 14.731849
3.4753532 2.0130494 5.971323
1.5816851 0.78593278 30.378662
2.8600421 1.5611304 30.345871
6.8070331 3.8655667 30.176132
3.984828 2.2804315 12.539486
6.544919 3.7620866 15.672972
3.3216417 1.9178226 5.1536207
5.060544 2.9264762 6.4155526
10.059729 5.8573079 11.519091
5.5140171 3.2144327 5.2287846
5.6439228 3.2914753 4.3682156
7.7856355 4.518672 8.0987492
5.7867513 3.3612523 4.9563713
5.4917488 3.1911771 3.818043
7.9566512 4.6290445 4.3428264
4.1731443 2.3183105 30.347225
5.4752111 3.0753131 30.214603
3.4638505 1.9679101 12.782975
8.2212801 4.6970711 22.365885
6.9507627 3.9840612 14.749405
3.4555192 1.9854847 5.9258604
3.6856952 2.1202905 5.1674504
1.5846779 0.78053433 30.383656
2.8664117 1.5516449 30.355814
6.8204846 3.8417823 30.176132
4.2463927 2.4104719 13.332563
6.5693579 3.745687 15.699978
6.9656787 3.9829135 13.194954
3.2734051 1.8747685 5.0698299
5.0854325 2.9172282 6.433929
10.073936 5.8185892 11.512081
5.5622683 3.2165992 5.263308
5.6336613 3.259191 4.3517671
6.150352 3.560961 3.8066688
5.5362878 3.1874137 5.7708988
5.7774348 3.3289242 4.9387121
5.7381449 3.3076141 3.9776332
7.9884844 4.6103172 4.3512182
4.1757669 2.3007302 30.307711
5.4876914 3.0571733 30.224394
3.4889052 1.9660658 12.849783
8.2376251 4.6683445 22.365885
3.0067077 1.7095343 6.405766
4.1396484 2.3593769 7.0706873
3.6847222 2.1026468 5.1559381
1.5873928 0.77499801 30.383656
2.8722799 1.5418818 30.360785
6.8305616 3.8161118 30.161613
4.3600416 2.4548976 13.661057
6.591867 3.7280905 15.722484
6.9681959 3.952141 13.173624
3.2904096 1.8692843 5.0857902
8.9290514 5.0807137 11.215318
9.9425621 5.6965184 11.340359
5.590344 3.2068474 5.2790003
5.6377506 3.2353435 4.3462839
6.1627445 3.5394707 3.8066688
5.5376534 3.162514 5.760922
5.8357277 3.3367782 4.0358963
6.2832885 3.597039 3.4343696
4.1858177 2.2872574 30.322529
5.4992204 3.0384915 30.229288
3.4957466 1.9538753 12.849783
8.2760115 4.6520066 22.425718
3.0147426 1.7002048 6.4101548
4.2286987 2.3906119 7.2070746
3.694829 2.0913506 5.1597757
1.5903484 0.7695778 30.388645
2.8776445 1.5318463 30.360785
6.8471394 3.7940731 30.176132
4.3731041 2.4421875 13.675136
6.5953474 3.6997333 15.699978
6.9592185 3.9150064 13.130965
3.30479 1.8622249 5.0977607
8.8788271 5.0111895 11.130789
10.256937 5.829174 11.673291
5.6387162 3.2084882 5.3135233
6.1057796 3.478467 3.7649302
5.5519075 3.145005 5.7642474
5.0586071 2.8678918 4.3177052
6.0910702 3.4546206 4.2005529
6.2918596 3.5728431 3.4322715
4.1855783 2.2681904 30.263258
5.5115795 3.0202556 30.239079
3.5025458 1.9416609 12.849783
3.0269299 1.6931787 6.4233222
4.2689271 2.3937285 7.2608032
3.7021067 2.0784407 5.1597757
1.5932853 0.76414645 30.393637
2.8829744 1.5217922 30.360785
6.861443 3.7707543 30.180971
4.3197088 2.3926277 13.482732
6.6196361 3.6830392 15.726986
6.9523449 3.8792536 13.092571
3.2612939 1.8227469 5.0219498
8.8311844 4.9437342 11.049935
5.6079082 3.1612375 6.4059582
5.6498818 3.1887858 5.3135233
5.4453735 3.0746107 4.1845374
6.2065873 3.507257 3.8182626
5.5628514 3.1256061 5.7642474
5.2024679 2.9255006 4.4295454
6.1594481 3.4650412 4.2385502
6.3201103 3.559768 3.4406638
4.1921015 2.2528305 30.253378
5.5229831 3.0014844 30.243975
3.0642362 1.7000299 6.4891582
1.595943 0.75858021 30.393637
2.8882687 1.5117193 30.360785
6.8756671 3.7473819 30.185812
4.3582845 2.394151 13.576588
6.6267338 3.6567545 15.713483
6.9635615 3.8536987 13.088305
3.2676368 1.8113517 5.0219498
9.8502035 5.4691076 12.292141
5.4975104 3.0737681 6.26928
5.7662659 3.2279844 5.4108157
5.4232383 3.0371957 4.1598644
6.3463111 3.5570433 3.894783
7.7458968 4.3166728 7.9790306
5.3997421 3.0116723 4.5855327
6.1752706 3.4456201 4.2410836
6.3364606 3.5398984 3.4427619
4.2019968 2.23928 30.268198
5.5334263 2.9821873 30.243975
3.0890369 1.6997143 6.5286598
3.9972396 2.2048516 6.7772484
3.3349376 1.841809 4.6378751
1.5988424 0.75312757 30.398628
2.8940012 1.5018739 30.365757
6.8909173 3.7245536 30.195488
6.6432772 3.6356905 15.722484
9.8573542 5.4281492 12.27744
5.4863749 3.0424531 6.2447486
5.7740955 3.2059474 5.4076772
5.2144837 2.8964231 3.9953761
7.7099361 4.2860374 4.7040439
7.7380428 4.2769656 7.9557524
5.5516992 3.0710659 4.7032595
6.3884764 3.5397546 3.4637423
4.210475 2.2249615 30.273136
5.5447006 2.9633336 30.248869
8.2720108 4.4728274 30.110048
2.0260549 1.1020135 5.493031
3.0991559 1.6912155 6.5374379
4.0049114 2.1908853 6.7772484
3.3076117 1.81168 4.591825
1.601985 0.74778593 30.408613
2.8997002 1.4920064 30.370728
6.9038763 3.7004774 30.195488
3.3166575 1.7919579 10.30573
2.4026299 1.3040874 5.7162862
9.9149227 5.4148316 12.325217
5.5500841 3.0524998 6.3043256
5.1110263 2.8156574 3.9103909
7.8101945 4.3061523 4.7550578
7.7038136 4.2230072 7.90587
5.6297159 3.0886071 4.7591791
5.571856 3.0581234 3.8205762
6.4564786 3.5480335 3.4931147
4.2175274 2.2098904 30.268198
5.5550108 2.9439609 30.248869
8.2954664 4.4481578 30.13868
2.0247309 1.0921524 5.4792233
3.1029341 1.6792473 6.5330491
4.0174823 2.1795762 6.7855144
3.3308151 1.8093027 4.61485
1.6048476 0.74231046 30.413603
2.9053655 1.4821177 30.3757
6.9178619 3.6769457 30.200329
3.3274555 1.7828144 10.319807
2.4167521 1.3008513 5.7387924
3.9236276 2.1180444 7.3634214
3.893414 2.105232 5.9356656
11.418311 6.1842208 14.155449
5.5575747 3.0314002 6.3008213
5.5401301 3.0256383 5.1722927
5.0694504 2.7697318 3.8720102
6.3754387 3.4861407 3.8901453
7.6824231 4.1764736 7.8692894
5.6795187 3.0901864 4.7915545
5.4689093 2.9768281 3.7445807
6.4488988 3.5146153 3.4826248
4.2252159 2.1951549 30.268198
5.5652533 2.9245524 30.248869
8.3122606 4.4198747 30.143452
2.0130262 1.0767853 5.4378004
3.1108873 1.6695383 6.5374379
3.9730241 2.1375413 6.6987219
3.3314664 1.7946249 4.6071749
1.6079539 0.7369442 30.423588
2.9109972 1.4722075 30.380671
6.9317665 3.6533616 30.205168
3.3412786 1.7752367 10.343272
3.9195008 2.0981815 7.342092
11.505535 6.1796165 14.236303
5.6120367 3.0357366 6.3498855
5.5232773 2.991452 5.1471853
5.1158528 2.7719395 3.899425
6.3564157 3.4469717 3.8715949
7.6870956 4.1443157 7.859313
5.683156 3.0665035 4.7856679
5.3958116 2.9126711 3.6888509
6.4491501 3.4856093 3.4763305
4.2293987 2.1786137 30.2435
5.5754275 2.9051085 30.248869
8.3395224 4.3970981 30.186399
2.006417 1.0642598 5.4101858
3.1251531 1.6631695 6.5549941
3.9457023 2.1051157 6.6408606
3.3433652 1.7860054 4.61485
1.6102537 0.73120773 30.418596
2.916595 1.4622762 30.385643
6.945591 3.629725 30.210009
3.3489816 1.764367 10.347964
2.3872931 1.2635813 5.6487679
3.6632462 1.9478531 5.568583
5.6351695 3.0228713 6.363903
5.5405431 2.975837 5.1534619
5.1365476 2.7600024 3.9076493
6.3957195 3.4394491 3.8878264
7.6949296 4.1139369 7.8526621
5.6938252 3.0466468 4.7856679
5.4249492 2.9039907 3.7015166
6.4692783 3.4673643 3.4805267
4.2397456 2.1652505 30.263258
5.5864391 2.886096 30.253763
3.9550514 2.0678167 14.314782
2.0153072 1.0599778 5.4239931
3.1309395 1.6522506 6.5549941
3.9754133 2.103173 6.6780572
3.3325844 1.765322 4.591825
1.6127962 0.72558242 30.418596
2.9221587 1.4523236 30.390614
6.9582186 3.6054585 30.210009
3.3459423 1.7478721 10.319807
2.3569922 1.2370317 5.5677462
3.6833506 1.9420809 5.5885334
9.6747942 5.109632 11.939325
5.6299453 2.9948087 6.3463807
5.5989938 2.9820952 5.1974006
5.1461501 2.7420557 3.9076493
6.4506831 3.440032 3.9133334
7.6927485 4.0783072 7.8360338
5.5645118 2.9537549 3.7876449
6.4693189 3.4383709 3.4742322
4.2486644 2.1511397 30.273136
5.5964794 2.8665781 30.253763
3.9887502 2.0677376 14.410222
2.025924 1.0565498 5.4424033
3.102735 1.6235461 6.4847689
3.9777465 2.0866687 6.6697917
3.3472395 1.7581497 4.6033378
1.6147916 0.71971351 30.408613
2.9276886 1.44235 30.395584
6.97188 3.581722 30.214848
3.3458941 1.7330077 10.301037
2.3632271 1.2298015 5.5722475
3.6981184 1.9333998 5.6005034
9.6895666 5.0742564 11.935649
12.188791 6.429194 13.621819
5.6300197 2.9734392 5.2162313
5.1482959 2.7201686 3.9021664
6.4626513 3.4174938 3.9133334
7.7234631 4.0601163 7.8526621
5.6243792 2.9604154 3.8205762
6.4772673 3.4136524 3.4721346
4.2582307 2.1373415 30.287954
5.6073594 2.8474863 30.258659
3.9813397 2.0462961 14.35773
2.0417478 1.0557523 5.4746208
3.7004025 1.9247421 6.1986351
3.395998 1.7686625 4.6609001
1.6170299 0.713956 30.40362
2.9327056 1.4321216 30.395584
6.9865799 3.5585046 30.224525
3.3457823 1.7181646 10.282266
2.4003942 1.2385128 5.6487679
3.6403482 1.8838387 6.7747231
3.7503231 1.9440529 5.6683335
9.7042122 5.0388408 11.931974
12.249081 6.4064412 13.663873
5.6024351 2.9339058 5.1817079
6.4431553 3.3784573 3.894783
5.8900542 3.0701363 5.9970326
5.630857 2.9387701 3.818043
6.4690309 3.3805115 3.4616442
4.2670565 2.1231565 30.297832
5.6190839 2.8288114 30.26845
3.4138939 1.7396308 12.296233
2.0419436 1.0468364 5.465416
2.9734294 1.5295434 6.1950898
3.9021795 2.0124161 6.5210052
3.4562628 1.7847385 4.7338128
1.6192477 0.70819169 30.398628
2.9376867 1.421876 30.395584
7.0000811 3.534662 30.229366
3.3456082 1.7033436 10.263494
2.4802892 1.2687892 5.8243151
3.6352997 1.8651675 6.7533932
3.7463663 1.9254407 5.6523738
9.733799 5.0111432 11.946675
10.422492 5.4048681 11.617219
5.5746441 2.8946018 5.1471853
4.8035164 2.4952626 3.6335027
6.4470491 3.3518589 3.8901453
5.8775163 3.0375578 5.9737544
4.9351997 2.5527415 4.129343
5.6372523 2.9171157 3.8155098
4.275836 2.1089365 30.307711
5.6298351 2.8096344 30.273344
3.4252748 1.7303956 12.31532
2.0438435 1.0388173 5.4608135
3.9943683 2.0423384 6.6615252
3.6079791 1.847155 4.9295254
1.6217098 0.70253509 30.398628
2.9431129 1.4118433 30.400557
7.0135007 3.5107679 30.234205
3.3530743 1.6924324 10.268188
2.4866445 1.2611083 5.8288164
3.7638037 1.9178236 5.6683335
10.422265 5.3586702 11.59619
5.5847144 2.8751249 5.1471853
4.8679576 2.5071983 3.6746247
6.4468975 3.3232455 3.8831892
5.891407 3.0187261 5.9770799
4.9368868 2.5318098 4.1234565
5.6512361 2.8993878 3.818043
8.8985243 4.5712786 4.7120838
4.2838693 2.0943391 30.312651
5.6405215 2.790417 30.278242
3.4299595 1.7177602 12.310548
4.0240631 2.0398333 6.6987219
3.6887176 1.8722668 5.0293007
1.6241523 0.69687003 30.398628
2.9485042 1.40179 30.405529
7.0268383 3.4868236 30.239044
3.363591 1.6830341 10.282266
2.4851966 1.2494872 5.8153129
3.3128982 1.6706475 6.1390986
3.7731647 1.9060324 5.6723237
9.6566229 4.8864326 11.810695
10.510806 5.3578882 11.673291
5.5669818 2.8414574 5.1220775
5.0442605 2.5757618 3.7979906
6.4466248 3.2946734 3.8762326
5.9019079 2.9981427 5.9770799
4.8844423 2.4834192 4.0734229
5.6613221 2.8796437 3.818043
8.8739843 4.5195918 4.691103
4.2918534 2.0797119 30.317589
5.6511412 2.7711592 30.283136
3.4519794 1.7137415 12.367812
4.1065912 2.0636799 6.82271
3.7582216 1.8910743 5.1137257
1.626575 0.69119644 30.398628
2.9538622 1.3917166 30.410501
7.0400953 3.4628291 30.243885
1.7399908 0.86312294 5.3360901
4.229454 2.1079135 9.834897
3.3233752 1.6614053 6.1476307
5.3948908 2.7063279 6.6213622
12.776576 6.4567661 14.1475
5.7748265 2.9221783 5.3009696
5.0532207 2.5581384 3.7979906
6.4501829 3.268146 3.8715949
5.8856592 2.9640872 5.9504752
4.9183478 2.4790895 4.0940251
5.6520939 2.8501596 3.805377
8.938323 4.5131354 4.7162795
4.299787 2.0650542 30.322529
5.66078 2.7514162 30.283136
3.4592798 1.7023405 12.372584
4.1087322 2.0468233 6.814445
4.2122431 2.1011288 5.7123761
1.6292439 0.68562621 30.40362
2.9587021 1.3813972 30.410501
7.0555291 3.4398859 30.258402
1.7522849 0.86161208 5.3642464
4.2192206 2.0844593 9.7943859
3.3875756 1.6787442 6.2542787
12.550333 6.2875323 13.874146
5.8998027 2.9595957 5.4045386
5.0322223 2.5254796 3.7760589
6.4338422 3.2316928 3.8553634
5.8525419 2.9218438 5.9072442
4.8908134 2.4438391 4.0645933
5.5617557 2.7802975 3.7395144
8.9174957 4.463624 4.6973968
4.3069692 2.0500324 30.322529
5.6703496 2.7316396 30.283136
3.4638591 1.6896006 12.367812
2.9244711 1.4403814 6.041472
4.0830503 2.0162714 6.760716
4.3632121 2.157445 5.9042516
1.6318938 0.68004584 30.408613
2.9635062 1.371061 30.410501
7.0697575 3.4163301 30.268082
1.7568331 0.85624617 5.3689394
4.2323365 2.0725908 9.8078899
2.8386269 1.3944005 5.2432523
3.2359622 1.59236 4.850379
5.4957538 2.7090688 6.7205911
12.332651 6.1247177 13.611305
6.070415 3.0187056 5.5489073
4.9698763 2.4725113 3.7239711
6.4768071 3.2250106 3.8739138
5.8158555 2.8782117 5.8606873
4.9934878 2.4733977 4.1411157
5.4903131 2.7206717 3.6863174
8.9533501 4.4425559 4.7078872
4.3112431 2.042845 30.327469
5.6755514 2.7231696 30.288033
3.4571104 1.6795918 12.334409
7.8757467 3.8515944 20.713579
2.9114292 1.4289107 6.0107484
4.4233437 2.1804557 5.9810014
1.6327533 0.6787321 30.413603
2.9647014 1.3684744 30.410501
7.0778012 3.4141243 30.292278
1.7481195 0.85049027 5.3407826
4.2529774 2.0799384 9.8529024
3.2419257 1.5938891 4.8583589
5.4966993 2.7071502 6.7205911
11.553706 5.71276 12.745682
6.0542226 2.998801 5.530077
4.9213009 2.4387095 3.6855905
6.5646353 3.2573123 3.9226089
5.7848864 2.8566039 5.8274322
5.0386925 2.4914093 4.1764336
5.1174121 2.5314379 3.4405994
4.3190508 2.0281136 30.332407
5.6864138 2.7027864 30.292927
3.4524827 1.6617309 12.296233
7.8992696 3.8255832 20.736591
2.936281 1.4271431 6.0502505
3.757107 1.8309153 6.2110338
4.4983144 2.1950102 6.0692644
1.6356992 0.67160141 30.413603
2.9706442 1.3555254 30.410501
7.0920868 3.3814301 30.287439
1.7519609 0.84254879 5.3407826
2.594681 1.2538652 6.0223689
2.8271141 1.370418 5.209125
3.2469654 1.5767108 4.8543687
5.5251064 2.6876712 6.7389674
11.547959 5.6598396 12.717646
5.8380499 2.8651278 5.3260775
4.9189463 2.415127 3.6773663
6.6923895 3.2887392 3.9898536
5.8040061 2.8346126 5.8340836
5.089891 2.4880445 4.2088084
5.1598268 2.5233402 3.4608648
4.3282175 2.0140085 30.347225
5.6958141 2.6829207 30.292927
3.4582622 1.6496693 12.296233
7.9284267 3.8055947 20.778013
2.962822 1.4272785 6.0941415
3.7457376 1.8092223 6.1821036
4.6011705 2.2253473 6.1959019
1.6383011 0.66599625 30.418596
2.9753578 1.3451477 30.410501
7.1004367 3.3550425 30.272919
1.7517756 0.83494347 5.3313971
2.6363466 1.2626659 6.1078916
2.8600907 1.3740935 5.2603164
5.5100245 2.6565902 6.7095661
10.643805 5.1707029 11.708336
5.4909978 2.6710651 5.0059547
4.9198265 2.3942823 3.6718831
6.7038283 3.2653584 3.9898536
5.1349211 2.4878864 4.2382402
5.1375709 2.4902718 3.4405994
4.3366327 1.9995385 30.357105
5.7060671 2.6634529 30.297821
3.4639995 1.6375877 12.296233
7.913435 3.7644684 20.704374
2.9764314 1.421055 6.1116977
3.7571068 1.7985663 6.1903696
4.6118007 2.2106578 6.1997395
1.6408837 0.66038108 30.423588
2.9800351 1.3347535 30.410501
7.1303191 3.3387651 30.350351
1.7499983 0.82661277 5.3173189
2.6977715 1.2805248 6.2384272
2.8742886 1.3685859 5.27738
3.7474434 1.7875078 5.5725732
5.5039692 2.6300321 6.6911898
10.726053 5.1644597 11.778427
5.3600445 2.5842662 4.8804164
4.9394531 2.3825443 3.6801078
6.6912508 3.2303827 3.9759409
6.1468272 2.9490709 6.1533313
5.2128038 2.5031908 4.2941599
5.1384606 2.4685895 3.4355328
4.345706 1.985357 30.371922
5.7162538 2.6439462 30.302717
3.4791567 1.6299186 12.329637
7.9371305 3.7418211 20.731989
3.7659042 1.7866466 6.1945024
4.5123682 2.1436586 6.0577517
1.6431788 0.65464932 30.423588
2.9851635 1.3245591 30.415472
3.571907 1.6574625 15.198113
1.755999 0.821962 5.3267045
2.6805558 1.260908 6.1889138
2.8436685 1.3418508 5.2133913
3.7482119 1.7718405 5.5645933
5.4824772 2.5962942 6.654439
5.504169 2.6265855 6.0730257
5.762373 2.7534916 5.2319231
4.9515123 2.3670914 3.6828492
6.5905995 3.1534708 3.9110146
6.1806879 2.9388196 6.1766095
5.2361088 2.4919269 4.3059325
5.119801 2.4376659 3.4178007
4.3540254 1.9708164 30.3818
5.7263732 2.6244006 30.307611
3.4943027 1.6221635 12.36304
7.9412923 3.7099576 20.708975
3.7873979 1.780674 6.2192998
4.4734244 2.1060507 5.9963517
1.645454 0.64890957 30.423588
2.9897685 1.3141309 30.415472
3.5662503 1.6397337 15.149719
1.7604228 0.81655347 5.3313971
2.6652095 1.2423468 6.1439013
2.801085 1.309823 5.1280723
3.7543738 1.758746 5.5645933
5.4546776 2.5598578 6.6103368
5.3424363 2.526551 5.8872848
5.8317523 2.7616801 5.2852769
4.9673023 2.3533733 3.6883321
6.6616054 3.1589162 3.9457965
6.0794482 2.8647065 6.0668678
5.2447753 2.4736345 4.3059325
5.1087861 2.4105821 3.4051347
4.361587 1.9559238 30.38674
5.7364268 2.6048172 30.312508
3.5121493 1.6155699 12.405988
4.4604154 2.0809369 5.9694891
1.6474402 0.64305711 30.418596
2.9943376 1.3036867 30.415472
3.3042836 1.5053477 14.017294
1.7569904 0.80752128 5.3126264
2.6319795 1.2156931 6.0583787
2.819838 1.3066158 5.1536679
3.7632232 1.7468988 5.568583
5.4543581 2.5365133 6.5993109
5.351223 2.5078869 5.8872848
5.6968889 2.6735101 5.1566005
4.9868417 2.341351 3.6965563
6.6725917 3.1356435 3.9457965
6.1604567 2.8766425 6.136704
5.1545095 2.4091034 4.2264676
5.0859294 2.3781271 3.3848693
4.3690987 1.9410026 30.39168
5.7464128 2.5851951 30.317402
3.5232005 1.6057765 12.425076
2.9633493 1.3643358 6.0458612
3.1277928 1.4439926 5.1323342
4.453105 2.0586298 5.9503016
1.6496748 0.63730258 30.418596
2.9988701 1.2932265 30.415472
3.3060808 1.4922534 14.002776
1.7755039 0.80853403 5.3595533
2.6164117 1.1974397 6.0133662
2.950001 1.354437 5.3797622
3.7309721 1.7161239 5.512723
5.4631791 2.5174587 6.5993109
5.3308344 2.4756737 5.8557444
5.5226607 2.5682621 4.9934006
4.9949837 2.3239295 3.6965563
6.6674337 3.1048529 3.9365215
6.1670723 2.8535531 6.1333785
5.1188745 2.3707125 4.1911497
5.1254902 2.3748574 3.4051347
4.3765583 1.9260525 30.396618
5.7563324 2.5655351 30.322298
3.5532722 1.6045253 12.510971
2.2970855 1.0440575 6.0039115
2.9659145 1.3529893 6.041472
3.1379325 1.4354068 5.1406007
4.3495288 1.9923509 5.8044767
1.6518894 0.63154024 30.418596
3.003366 1.2827507 30.415472
3.3158598 1.4827561 14.022133
1.7798884 0.80304104 5.3642464
2.6146278 1.1856024 5.9998627
2.9547107 1.3441312 5.3797622
3.7012947 1.6868455 5.4608526
5.4688497 2.4969654 6.5956364
5.2163343 2.4004006 5.7225714
4.8952808 2.25576 4.4284782
4.995471 2.3029785 3.6910737
6.156631 2.8226721 6.1134253
5.0573187 2.3207994 4.1352291
5.2316904 2.401917 3.4684641
4.3832545 1.9107639 30.396618
5.7661839 2.5458374 30.327192
3.5588512 1.5921123 12.510971
2.2953715 1.0336263 5.9901032
2.9291527 1.3238878 5.9580798
3.1583023 1.4314142 5.1653981
4.2076015 1.9096011 5.6087637
1.6543539 0.62587219 30.423588
3.0073345 1.2720517 30.410501
3.3256125 1.4732088 14.041492
1.8047377 0.8066805 5.4299455
2.6386082 1.1853888 6.0448747
2.9213414 1.316664 5.3115072
3.7016675 1.6714352 5.4528723
5.4867988 2.4820521 6.6066613
5.1468039 2.3466704 5.6384621
5.0224967 2.2942138 3.7047811
6.2072401 2.8196948 6.1533313
5.0359526 2.289748 4.1116838
6.1464658 2.7959573 4.0536289
4.3898978 1.8954517 30.396618
5.7759686 2.5261023 30.332088
3.5630226 1.5790752 12.5062
2.9250126 1.3097403 5.9405231
3.1632795 1.4203809 5.1653981
4.0096087 1.8028934 5.3401384
1.6565284 0.62009358 30.423588
3.0117564 1.2615464 30.410501
1.8075426 0.80037594 5.4299455
2.6665967 1.1867923 6.0988894
2.8878164 1.2894461 5.2432523
3.7102301 1.6597344 5.4568624
5.4954295 2.4628844 6.6066613
5.0769634 2.2934554 5.5543532
5.0740418 2.2953238 4.5728474
5.1561871 2.3335614 3.7952492
6.3123808 2.8409162 6.2464452
5.0697122 2.2837763 4.1322861
4.3964872 1.8801166 30.396618
5.7856851 2.5063295 30.336983
3.5439105 1.5558285 12.420304
2.1720831 0.95993316 5.6541195
2.9032953 1.2878692 5.8878546
3.1682184 1.4093304 5.1653981
4.0158772 1.7888862 5.3401384
1.6589538 0.6144076 30.428579
3.0161419 1.2510257 30.410501
3.6228642 1.5747085 15.246508
1.7929411 0.78643763 5.3783245
2.6707232 1.1774769 6.0988894
2.9471581 1.3036219 5.3413692
3.718756 1.6479939 5.4608526
5.519486 2.4505651 6.6250377
5.0621519 2.2655218 5.5298209
5.0820231 2.2775981 4.5728474
5.5229545 2.4763579 4.052947
6.2540545 2.7884552 6.179935
5.0665798 2.2611239 4.1234565
6.5830803 2.9392724 4.3221459
4.4030237 1.8647585 30.396618
5.7943983 2.4861186 30.336983
3.5246794 1.5327346 12.334409
2.1628928 0.94686151 5.6219015
3.1602428 1.3925892 5.144733
4.0396919 1.782621 5.3631635
1.6616304 0.60881132 30.43856
3.0204902 1.2404897 30.410501
3.6237206 1.5600647 15.22715
4.3265486 1.8795794 12.882058
2.6528718 1.1585641 6.049376
3.0544093 1.3383312 5.5248041
3.7244859 1.6350029 5.4608526
5.5280066 2.4312837 6.6250377
5.027647 2.2290478 5.484262
5.1077299 2.2677419 4.5885396
5.8219919 2.5860672 4.2612987
5.0818357 2.2466934 4.129343
6.5933003 2.9162753 4.3221459
4.4095058 1.8493778 30.396618
5.803978 2.466275 30.341877
3.534121 1.5221932 12.348725
2.4466598 1.0649465 4.9573698
3.1831381 1.3894293 5.1736641
4.0458899 1.7685091 5.3631635
1.6637455 0.60300744 30.43856
3.0252957 1.2301394 30.415472
3.606019 1.537547 15.130362
4.3204021 1.8590093 12.844516
2.6509056 1.1467041 6.0358725
2.9657571 1.2871685 5.3584328
3.7412238 1.6267983 5.4768128
5.542675 2.4146802 6.6323876
4.9700923 2.1828041 5.4141712
5.0336666 2.2138579 4.5163555
5.9917307 2.6364591 4.37644
4.9632397 2.1715271 4.9062686
5.0526218 2.2127264 4.0999112
6.674511 2.9243815 4.3677425
4.4159346 1.8339744 30.396618
5.8134904 2.4463954 30.346773
3.5243096 1.5034053 12.296233
2.0635374 0.88625681 5.3503528
2.4767542 1.0677767 5.0100389
3.2034667 1.3850098 5.1984615
4.03439 1.7467347 5.3401384
1.666384 0.59739077 30.448545
3.0295713 1.2195716 30.415472
3.6125221 1.5254391 15.135201
4.3157516 1.8391813 12.811666
2.6488893 1.134872 6.0223689
2.931895 1.2603294 5.2901778
11.00459 4.7484903 13.071276
4.9384384 2.1483705 5.3721166
4.9521537 2.1574099 4.4378939
