# .PCD v0.7 - Point Cloud Data file format
VERSION 0.7
FIELDS x y z
SIZE 4 4 4
TYPE F F F
COUNT 1 1 1
WIDTH 1600
HEIGHT 1
VIEWPOINT 0 0 0 1 0 0 0
POINTS 1600
DATA ascii
4.3172231 4.4119997 29.700603
5.9021778 6.0907869 27.160961
3.7775085 3.9173503 12.880082
4.0242438 4.184854 10.707064
0.27987671 0.25773209 6.4187016
2.2956276 2.2739041 30.092325
5.3600779 5.4910135 29.580883
3.9049389 4.0269527 15.308218
5.1733046 5.3684611 12.264979
6.6001258 6.8586359 12.678806
5.1850944 5.3957167 8.1906567
5.4789124 5.7354264 7.8743625
4.4385896 4.6512685 5.2664466
4.5790591 4.8001366 4.434011
5.1329389 5.3845038 3.9805787
18.562859 19.479334 10.959734
19.042103 19.989214 8.2047787
19.857758 20.860004 5.5594239
20.577751 21.616333 2.7722735
5.3309188 5.5649214 6.9448004
4.0854163 4.2677312 4.3853979
5.4047441 5.6478848 4.6793242
5.0248785 5.2564287 3.4490559
18.651878 19.518103 9.485281
19.675083 20.596012 6.9605336
20.298162 21.248253 4.1906934
21.088318 22.083103 1.3254224
0.059957501 0.034593828 6.4240289
3.315058 3.3328774 29.882935
4.3333116 4.3976278 29.705498
5.9942951 6.1427937 27.485456
3.7925205 3.9055417 12.884685
4.0338287 4.1656194 10.693896
8.0777349 8.3677444 14.001385
0.28077465 0.25675359 6.4187016
2.303551 2.265877 30.092325
5.3800936 5.4731665 29.585722
3.900887 3.9947782 15.237827
4.1712708 4.2985168 9.8675251
6.6240268 6.8355551 12.678806
5.2038975 5.3775845 8.1906567
5.4173107 5.6314535 7.7587123
4.8188391 5.0163145 4.6451039
5.2621412 5.4815969 4.0640554
18.707779 19.494696 11.004686
19.154932 19.967625 8.2231092
19.88966 20.748009 5.5482326
5.3554955 5.5516529 6.9514508
4.1002889 4.2534442 4.3853979
5.4423738 5.6476088 4.6945229
5.0400481 5.2355866 3.4469578
18.808304 19.544746 9.5296555
19.69294 20.471161 6.9417763
20.499237 21.309319 4.2162485
21.227608 22.074175 1.3290499
0.060117278 0.034403104 6.429029
3.3272216 3.3218343 29.887875
4.3493533 4.3831978 29.710396
6.1014929 6.2091346 27.876759
3.8061304 3.8922796 12.884685
4.0383124 4.1412258 10.667562
8.2141342 8.4498129 14.185585
0.28166917 0.25577193 6.4187016
2.3118274 2.2581944 30.097296
5.4000502 5.4552464 29.590561
3.8530991 3.9183862 14.998496
4.1771355 4.2746038 9.8461952
6.6604733 6.8253303 12.702746
5.2273688 5.3642421 8.1980076
5.1838374 5.3512416 7.4012489
4.1786232 4.3180857 4.9274931
4.9526114 5.1196766 4.7547626
5.2750864 5.4568257 4.0594182
18.833702 19.489283 11.038402
19.284508 19.962742 8.2484894
20.101845 20.823357 5.5864701
20.859592 21.608299 2.7892625
5.3644361 5.522213 6.9381495
4.1151109 4.2391057 4.3853979
5.405014 5.569798 4.6463923
4.9761591 5.1332359 3.3924084
18.951996 19.556969 9.5674562
19.723694 20.360401 6.9277081
20.621735 21.287428 4.2259183
21.36709 22.064541 1.3326775
0.060236998 0.034193046 6.429029
3.3387969 3.3102002 29.887875
4.3653464 4.3687091 29.71529
6.1231294 6.187799 27.876759
3.8224351 3.8817539 12.89389
4.044353 4.1185598 10.645616
8.3220568 8.501255 14.319899
0.28256029 0.25478718 6.4187016
2.3196959 2.2501111 30.097296
5.4199467 5.4372535 29.595402
3.803612 3.8411508 14.754472
5.561408 5.6377754 16.438177
4.1755681 4.2432666 9.8078012
6.6842575 6.8020391 12.702746
5.120306 5.2488723 7.2855992
4.1991034 4.3090482 4.9337702
7.1733623 7.3637085 6.8245692
6.5517187 6.7302608 5.0031695
18.96628 19.489868 11.075861
19.384178 19.926252 8.2611799
20.181257 20.760105 5.5883355
21.004318 21.60677 2.7982042
5.3680139 5.4874396 6.9181967
4.3672271 4.4675064 4.6326237
4.8248601 4.9373593 4.1422896
4.9940472 5.1158347 3.3924084
19.069616 19.541389 9.5921087
19.787857 20.284472 6.925364
20.747784 21.268486 4.2362781
21.506763 22.054203 1.336305
0.060355987 0.033982571 6.429029
3.3508849 3.2990704 29.892813
4.3812919 4.3541627 29.720186
6.1004381 6.1219792 27.676336
3.8400891 3.8725495 12.907698
4.0536528 4.099309 10.632449
8.3606815 8.4812841 14.335249
0.28344792 0.25379929 6.4187016
2.3279202 2.2423699 30.102266
5.439784 5.4191885 29.600241
3.8035932 3.8144088 14.702851
5.5795197 5.6167841 16.433676
4.194026 4.2323704 9.8163338
6.7291555 6.8000846 12.742646
5.0740561 5.1347075 7.9039946
5.1211019 5.2131581 7.2610669
4.3068109 4.3888197 5.0404773
7.2019515 7.341609 6.8273106
6.5906763 6.723166 5.0147634
19.089357 19.479834 11.107703
19.490541 19.896162 8.2766905
20.332634 20.770269 5.6097856
5.3163881 5.3968511 6.8284078
4.4309998 4.5012031 4.6826572
19.193981 19.531963 9.6200485
19.981165 20.340101 6.967567
20.880896 21.255987 4.2480197
21.650124 22.046722 1.3401341
0.060474243 0.033771683 6.429029
3.362936 3.2878966 29.897753
4.3971891 4.3395572 29.72508
6.1259999 6.1048617 27.695425
3.8604856 3.8660333 12.93071
4.0611768 4.0783453 10.614893
5.8521042 5.8952417 10.021894
0.28433213 0.25280833 6.4187016
2.3357334 2.2342303 30.102266
5.4595609 5.401051 29.60508
3.8034341 3.7877142 14.651231
5.5744586 5.572649 16.361658
4.2050896 4.2140121 9.8078012
6.7656136 6.7893605 12.766587
5.0823836 5.1073523 7.8892937
5.1166959 5.1724324 7.2295256
4.3193688 4.3709912 5.0373392
7.2216568 7.3104758 6.8218279
5.9512377 6.028635 4.5208592
19.209339 19.465878 11.137671
19.60367 19.8724 8.2950211
20.47743 20.772631 5.6293707
5.2957506 5.3384991 6.7785254
4.4210744 4.4598732 4.6561689
4.8349371 4.8790593 4.1220245
19.272007 19.474915 9.624979
20.171688 20.391174 7.0085983
21.017653 21.24634 4.2604523
21.793694 22.038511 1.3439633
0.060591757 0.033560384 6.429029
3.3749502 3.2766793 29.902693
4.4123101 4.324182 29.72508
6.1239305 6.0603414 27.590441
4.0703006 4.0590711 10.601725
5.7502804 5.7523694 9.8146687
0.28521287 0.25181428 6.4187016
2.3439047 2.2264304 30.107239
5.4792776 5.3828416 29.609919
3.8166323 3.7744148 14.651231
5.5954208 5.5546894 16.366158
4.2179251 4.1974688 9.8035364
4.7103577 4.6940322 8.8803034
5.088182 5.0776067 7.8709183
4.3346 4.3558869 5.0373392
7.2294378 7.267436 6.8053789
5.9784913 6.0141082 4.5254965
19.332724 19.454607 11.169513
19.683058 19.814058 8.2992506
20.61903 20.770748 5.6480231
4.9633942 4.9686537 6.3362341
4.4251928 4.432971 4.6443963
4.8915234 4.9018202 4.1549554
19.363201 19.430937 9.6364832
20.314779 20.392954 7.033217
21.133627 21.214947 4.2687402
21.937468 22.029562 1.3477923
0.060708538 0.033348672 6.429029
3.3869267 3.2654178 29.907631
4.4281068 4.309464 29.729975
6.1344013 6.0284667 27.542721
4.0776381 4.0380974 10.584169
4.3049073 4.2720699 8.9801102
4.9107718 4.8783903 8.3640919
0.28609011 0.25081715 6.4187016
2.3516619 2.2182353 30.107239
5.4989338 5.3645606 29.614759
3.7805338 3.7127049 14.46352
5.5915222 5.5122004 16.298641
4.2306962 4.1808867 9.7992706
4.7309976 4.6818004 8.8882828
5.0649381 5.0192475 7.8084402
4.7915096 4.7765465 6.7283764
4.3525333 4.3434787 5.0404773
7.4086452 7.395771 6.9479356
6.0464582 6.0401635 4.5602789
19.446424 19.432884 11.195736
20.767813 20.77508 5.668541
4.8085876 4.7801957 6.1200762
4.3890586 4.3661857 4.5914192
4.9086041 4.8847156 4.1549554
19.656357 19.58106 12.91337
20.478785 20.414568 7.0648699
21.298737 21.231945 4.2866979
22.084986 22.023409 1.3518229
0.060824573 0.033136558 6.429029
3.3983045 3.2535751 29.907631
4.4438553 4.2946882 29.734871
6.160749 6.0122294 27.566582
4.086586 4.0188017 10.571002
4.3117757 4.2491155 8.9635782
4.9095159 4.8432117 8.3333912
0.28696391 0.249817 6.4187016
2.359391 2.2100129 30.107239
5.5185285 5.3462071 29.619598
3.7971773 3.7031002 14.477599
5.6153965 5.4972167 16.312143
4.2489872 4.1697469 9.8078012
4.7387147 4.6568098 8.872324
5.0461826 4.9658689 7.7533131
4.8334975 4.7848806 6.7634211
4.8033586 4.7616682 4.5189962
6.66818 6.6148925 5.0031695
19.586533 19.436724 11.236942
20.892479 20.754387 5.6825299
4.4984126 4.4407439 5.7110395
4.4761615 4.421854 4.6649981
4.9470892 4.8887625 4.172688
19.947218 19.732561 13.058136
20.052208 19.84334 9.9076624
20.632824 20.425028 7.0930052
21.443108 21.227146 4.3005114
22.236275 22.020004 1.356055
0.06090004 0.032906231 6.4240289
3.4102039 3.2422287 29.912571
4.4595537 4.2798548 29.739765
6.187057 5.9958811 27.590441
4.0971622 4.0011659 10.562224
4.3044586 4.2123895 8.9181156
4.9286814 4.8282871 8.3372288
0.28805304 0.24900198 6.4236927
2.367481 2.2021265 30.112209
5.5380626 5.3277831 29.624439
3.8088405 3.6886222 14.472906
5.6220636 5.4654431 16.276134
4.2597814 4.1512494 9.7992706
4.7420015 4.6276131 8.8483829
5.5266604 5.4329967 7.6956306
4.1164188 4.0508976 4.7391858
6.041142 5.9511728 4.5254965
19.717001 19.430063 11.272531
21.01026 20.726181 5.694654
21.863459 21.567841 2.8500652
4.3832369 4.2969394 5.54809
4.5435071 4.4571528 4.7179751
4.9641237 4.8714643 4.172688
20.155195 19.799576 13.148352
20.28302 19.932096 9.9865513
20.794117 20.441477 7.1234856
21.594765 21.228542 4.3157067
22.37356 22.001802 1.3594811
0.060957376 0.032799888 6.4240289
3.4164217 3.2368059 29.917509
4.4677429 4.2742524 29.749556
6.1696286 5.9602275 27.471142
4.1010289 3.9937701 10.557835
4.295506 4.193367 8.889185
4.9368691 4.8245025 8.3410673
0.28827024 0.24875052 6.4236927
2.3697927 2.2004225 30.117182
5.5435939 5.3256569 29.634115
3.7928073 3.6679683 14.402514
5.628047 5.4655313 16.285135
4.2731667 4.1599331 9.8248653
4.758718 4.6406841 8.8763132
4.8541951 4.7403893 7.4335732
5.6787972 5.5630975 7.8918853
4.1116624 4.033524 4.7266316
4.6005797 4.5147123 4.3106451
5.218339 5.1262908 3.9156523
19.81024 19.467501 11.309991
21.425194 21.069208 8.9224854
21.088085 20.752176 5.708643
22.404476 22.047596 2.9148917
5.3396711 5.2254014 6.7352939
4.5437298 4.4511509 4.7150321
4.8843937 4.7865334 4.1042924
20.272688 19.887203 13.215489
20.357479 19.984324 10.017777
20.891518 20.515728 7.1527934
21.679893 21.297352 4.3309016
22.48101 22.092039 1.365124
0.061031576 0.032569304 6.4190288
3.4276993 3.2248609 29.917509
4.484117 4.2585497 29.754452
6.175272 5.9220772 27.399561
4.0956669 3.9580224 10.505166
4.2961326 4.160429 8.8561211
0.28935286 0.24749033 6.4236927
2.3797636 2.1904221 30.122152
5.568614 5.3013129 29.638956
3.8318398 3.6722107 14.486984
5.6506033 5.4359317 16.276134
4.309618 4.156044 9.8632593
4.7813396 4.617373 8.8763132
4.8797402 4.7189674 7.4372487
4.1598811 4.051013 4.7642937
4.6111059 4.4919848 4.305162
5.1808877 5.0505567 3.8739138
19.954546 19.459261 11.349325
21.365379 20.842346 8.8632641
21.216915 20.711966 5.7207675
22.678101 22.138372 2.9381397
5.4562192 5.2930455 6.8516865
4.5087776 4.3769932 4.659112
4.8596749 4.7192712 4.0662942
20.427811 19.858274 13.257451
20.431116 19.868418 10.007917
21.075066 20.501783 7.1821012
21.840506 21.246397 4.3419523
22.660315 22.051598 1.3691546
0.061144892 0.032356068 6.4190288
3.4395032 3.2134068 29.922449
4.4996953 4.2435699 29.759346
3.4859009 3.3197818 15.436197
4.0921779 3.9271185 10.461275
4.2964306 4.1317534 8.8271904
0.29043552 0.24666511 6.4286847
2.3881822 2.182821 30.132095
5.588912 5.2835693 29.648636
3.8121321 3.6278827 14.364972
5.6648211 5.4116626 16.26263
4.3335176 4.1499939 9.8845882
4.1711984 4.033762 4.7611551
4.5816774 4.4322519 4.26404
5.1666579 5.0016303 3.8507257
20.082293 19.447536 11.383039
21.34199 20.689066 5.7347569
22.626518 21.934292 2.922045
5.4235706 5.2247496 6.7885017
4.4309082 4.2714596 4.5649309
4.8947368 4.7202339 4.0814934
20.503536 19.793152 13.261647
20.571678 19.865866 10.042431
21.237394 20.515896 7.2125816
21.992891 21.245724 4.3571472
22.73715 21.972364 1.3691546
0.061313465 0.03203547 6.4190288
3.4579802 3.1958051 29.932327
4.5233335 4.2198567 29.76424
3.5109079 3.3064013 15.464829
4.2052116 3.9796021 13.699331
4.1070981 3.8976083 10.443719
4.3058796 4.0933681 8.7982597
7.4988084 7.1361089 12.470222
0.2919369 0.24488634 6.4286847
2.4026413 2.1684868 30.142038
5.6229181 5.2492065 29.653473
3.8348515 3.6038589 14.364972
5.1019731 4.8348951 7.698185
4.8956461 4.6800814 6.7353849
4.2042127 4.0218968 4.7737088
4.6478848 4.4478717 4.3024206
5.2672305 5.0440712 3.9040585
20.217381 19.360723 11.398024
20.992477 20.109995 8.6348391
21.584929 20.684759 5.7673984
22.702335 21.747963 2.9153388
5.4635 5.1992435 6.7984781
4.3427606 4.1356025 4.4501472
4.9836116 4.7458696 4.1296239
20.680208 19.7073 13.293118
20.699537 19.732605 10.042431
21.45743 20.455086 7.2407174
22.21217 21.174566 4.3723421
22.907881 21.83777 1.3703638
0.061397124 0.031874843 6.4190288
3.4657788 3.187346 29.932327
4.5351238 4.2101769 29.774031
3.5282021 3.3076148 15.507778
4.2121158 3.9694464 13.694729
4.1065483 3.8807728 10.421773
4.3014712 4.0734844 8.7734623
7.5019488 7.1141877 12.454871
0.2925005 0.24466312 6.4336762
2.4068737 2.1669765 30.161926
5.6302514 5.245029 29.663153
3.8449173 3.6057432 14.388436
6.4530339 6.0917759 14.585648
4.6506696 4.3964682 8.5491314
5.1168137 4.8438764 7.7165613
4.9259725 4.6844521 6.7599173
4.2224846 4.0196633 4.783124
4.6821856 4.4603877 4.3243523
5.3107243 5.0626721 3.9272461
20.335051 19.391926 11.441103
21.267036 20.294857 8.7307205
22.047428 21.046921 5.8783803
22.650206 21.622339 2.9041617
5.3777781 5.1051631 6.6854115
4.3448801 4.1275096 4.4472046
4.9885793 4.7406483 4.1296239
20.717129 19.708014 13.305706
20.569654 19.574556 9.9717598
21.573797 20.537292 7.2747145
22.241182 21.18001 4.3757958
22.937206 21.850449 1.371573
0.061535623 0.031606644 6.4190288
3.4807808 3.1721091 29.937267
4.5549316 4.1902432 29.778927
3.5552056 3.3027453 15.560269
4.1650815 3.8882289 13.483013
4.1247902 3.8613782 10.421773
4.3062525 4.0396924 8.7445316
7.5074811 7.0476074 12.404984
0.29377753 0.24312826 6.4336762
2.4181869 2.1543443 30.161926
5.6594715 5.2153416 29.667992
4.227469 3.9217098 15.735259
5.7605953 5.3775873 12.960327
4.684721 4.3778391 8.5650911
4.9619355 4.6775913 6.7809443
4.251307 4.0118866 4.7956781
4.7388659 4.4735389 4.3572497
5.3345222 5.03759 3.9272461
20.453167 19.321352 11.456087
21.146307 19.983112 8.6418886
22.38562 21.161644 5.9399333
22.636177 21.398499 2.8894083
5.4125991 5.0846047 6.6953878
4.3546519 4.0936298 4.435432
4.9953103 4.6958728 4.1144247
20.843405 19.607552 13.316197
20.713047 19.49173 9.9881945
21.773102 20.496439 7.3028498
22.373621 21.061741 4.3778677
23.17906 21.827579 1.378022
0.061645575 0.031391654 6.4190288
3.4918571 3.1610708 29.942207
4.5703058 4.1764894 29.788719
3.5705264 3.2949872 15.579358
4.1765199 3.8730674 13.478411
4.1375723 3.8476787 10.421773
4.3072724 4.0138793 8.7197342
7.5108342 7.0064969 12.374284
0.29427415 0.2420727 6.4286847
2.4225729 2.1453934 30.137068
5.6758475 5.1993756 29.672832
5.7707901 5.3551497 12.94753
4.7300377 4.3955078 8.6249418
5.37397 5.000865 8.0362997
4.9417834 4.6261215 6.7318802
4.2794857 4.0103302 4.8113704
4.7605538 4.4626894 4.3627329
5.2187366 4.8956132 3.8321753
20.554312 19.288315 11.476691
21.243935 19.942429 8.6545792
22.333841 20.980225 5.9091568
22.786774 21.405703 2.8996911
5.4503813 5.0879579 6.721992
4.3615832 4.0744109 4.4295454
4.9399285 4.6162786 4.0586948
20.990879 19.63608 13.374942
20.819117 19.48221 10.012847
21.901224 20.501993 7.3262963
22.439579 21.005949 4.3792491
23.309212 21.82765 1.3818511
0.061754774 0.03117628 6.4190288
3.5028701 3.1488626 29.942207
4.5856104 4.1611948 29.793613
3.5820065 3.2825036 15.579358
4.1971993 3.8650818 13.501423
4.1457 3.8283384 10.408607
4.3067999 3.9854407 8.6908035
7.5470023 6.9911265 12.393472
0.29511735 0.24104401 6.4286847
2.4288456 2.1358678 30.122152
5.6948924 5.1803775 29.677671
4.2934322 3.9316216 15.885427
5.8067098 5.3508787 12.985923
5.4212718 5.009686 8.0804024
4.9500656 4.6015592 6.7213669
4.3048563 4.0059738 4.8239241
4.7761025 4.4460449 4.3627329
5.2908964 4.9286966 3.8715949
20.67239 19.263859 11.504786
21.302891 19.858341 8.6503487
22.356649 20.855227 5.8961
22.912334 21.373589 2.9059501
5.509182 5.1069765 6.7718744
4.3846688 4.0674076 4.4383745
4.8232965 4.4758525 3.9523015
21.055969 19.559599 13.372844
20.886995 19.40942 10.012847
21.994017 20.445274 7.3333306
22.538157 20.951092 4.3840837
23.462091 21.817596 1.3860831
0.061849438 0.03108507 6.4240289
3.5083606 3.1427441 29.942207
4.5936513 4.1553526 29.803404
3.5926688 3.2819064 15.603218
4.2284937 3.8830023 13.584269
4.1598501 3.8306577 10.430552
4.2992597 3.968724 8.6660061
4.8107057 4.4454918 7.918941
0.2953276 0.2407864 6.4286847
2.4299073 2.1330442 30.112209
5.6994376 5.1772456 29.68251
4.2808938 3.914649 15.829115
6.2489238 5.7523241 13.962821
8.8117695 8.1256599 15.946636
4.9397755 4.5759482 6.696835
4.3254118 4.0124421 4.8396163
4.7738853 4.4300046 4.3545084
5.3724213 4.9906473 3.9249277
20.726435 19.260223 11.519771
21.436037 19.933565 8.6940594
22.281425 20.734198 5.8699865
23.033218 21.433784 2.9175742
8.0239019 7.4250712 9.8180323
4.3964028 4.0725861 4.4472046
4.8801732 4.522295 3.9953654
21.159458 19.628233 13.429491
20.893696 19.395269 10.011204
22.061708 20.486677 7.3520875
22.618031 21.010632 4.3978972
23.57218 21.904631 1.391726
0.062011354 0.030760802 6.4240289
3.5258944 3.1242313 29.947145
4.6175466 4.130311 29.808298
3.603756 3.2541575 15.569814
4.2529087 3.8591549 13.588871
4.1895938 3.8123529 10.448108
4.3074732 3.9264669 8.6329422
4.824337 4.4022155 7.8959165
0.29677591 0.2385385 6.4236927
2.4438994 2.1145556 30.097296
5.7381721 5.1361661 29.687349
4.3081927 3.8820088 15.824423
6.3663425 5.7707248 14.124928
8.8976269 8.0764542 15.986536
5.412869 4.9184957 8.0068989
4.9689245 4.5548401 6.7038441
4.3506217 3.9908531 4.8427548
4.8231997 4.4258895 4.37644
5.3880239 4.9476371 3.9156523
20.9189 19.209007 11.56285
21.673986 19.90934 8.740591
22.291897 20.484108 5.83921
23.240833 21.348606 2.9260688
8.1417379 7.4292755 9.8978443
4.8622584 4.4398918 3.9548347
21.403332 19.557665 13.490335
21.083847 19.272478 10.030926
22.182463 20.276701 7.3391919
22.8335 20.871801 4.4068761
23.843256 21.794798 1.3967643
0.062158838 0.030560423 6.429029
3.5368183 3.113035 29.952084
4.6319785 4.1156521 29.813194
6.8526368 6.1487179 29.480146
4.2954807 3.8732486 13.685524
4.2051029 3.8023841 10.456885
4.3170185 3.9117796 8.628809
4.8373771 4.3878818 7.8959165
0.29739937 0.23776072 6.4236927
2.450675 2.1099689 30.117182
5.7516437 5.1229658 29.69219
4.3086715 3.8634062 15.791574
5.2436147 4.7198443 14.651196
6.3600574 5.7387943 14.082269
8.9539375 8.0905886 16.054367
5.4231586 4.9071484 8.0068989
5.0111666 4.5614734 6.7388892
4.358078 3.9711607 4.8364778
4.8903842 4.4577575 4.4230452
5.4142203 4.9386988 3.9226089
21.078455 19.233814 11.617168
21.778942 19.879959 8.7575111
22.435995 20.494074 5.8606601
23.377575 21.354153 2.9354575
8.2302761 7.4706721 9.9809818
4.7052741 4.2740164 4.7120886
4.9943295 4.5381598 4.0510955
21.501371 19.557917 13.523905
21.176418 19.269085 10.053935
22.127831 20.141855 7.3075395
22.961391 20.900602 4.4227619
23.999567 21.853254 1.4030117
0.062265132 0.030343262 6.429029
3.5476635 3.1006703 29.952084
4.6470799 4.100132 29.818089
6.8673716 6.1188025 29.451515
4.2871428 3.8386829 13.616487
4.303453 3.8722179 8.5750809
4.8693347 4.3859849 7.9227786
0.29822749 0.23672116 6.4236927
2.4588356 2.1020939 30.127125
5.7704325 5.1036901 29.697029
4.3208418 3.8471947 15.78688
5.2649269 4.705864 14.6647
4.7208033 4.2358189 8.473321
7.8129344 7.0620694 10.429177
4.3690271 3.9533126 4.8333392
4.9059148 4.44066 4.4230452
5.4609752 4.9465346 3.9434781
21.313797 19.312649 11.708946
22.033024 19.971342 8.8308334
22.551056 20.455236 5.8718514
23.52943 21.342682 2.9448459
5.5605354 5.0120597 6.7485962
4.7591829 4.2927599 4.75035
5.0869527 4.5900068 4.1118917
21.552668 19.467531 13.513413
21.324137 19.267862 10.091736
22.172762 20.041677 7.2993331
23.107685 20.886738 4.4365754
24.123878 21.812906 1.4056317
0.062411267 0.030141713 6.4340281
3.5584652 3.0882676 29.952084
4.6621304 4.0845571 29.822985
6.9166374 6.1195207 29.570814
4.2873755 3.8120115 13.575064
4.2959585 3.8384233 8.5337515
4.8702817 4.3561406 7.899754
0.29927921 0.2358568 6.4286847
2.4669712 2.0941882 30.137068
5.7891574 5.0843463 29.70187
5.2764378 4.6831222 14.651196
7.2572894 6.4570279 15.959279
4.7535591 4.2353501 8.5052414
5.2169685 4.6547532 7.6577587
7.8216128 7.0204606 10.408149
4.3770099 3.9328349 4.8270626
5.0022416 4.4961834 4.4943228
5.471621 4.9215169 3.9388404
21.556843 19.396275 11.804472
22.017031 19.817289 8.7969923
22.688019 20.435572 5.888639
23.681494 21.33041 2.9542346
5.5668683 4.9826584 6.7352939
4.7711277 4.2734246 4.7474065
5.1607342 4.6240015 4.1574888
21.539406 19.31945 13.46306
21.458046 19.253229 10.122963
22.282375 19.999872 7.3122287
23.254158 20.872107 4.4503894
24.270504 21.791985 1.4094608
0.062516101 0.029923674 6.4340281
3.5692236 3.0758274 29.952084
4.6771274 4.0689263 29.827879
6.9267421 6.0854878 29.523094
4.3182306 3.8125389 13.630294
5.369019 4.7535634 13.208838
4.2524967 3.7729797 8.4221621
4.8399234 4.2986732 7.8268414
0.30010068 0.23481068 6.4286847
2.4746737 2.0859075 30.142038
5.8078165 5.0649333 29.706707
4.3333297 3.8044126 15.735259
5.2878523 4.660357 14.637691
7.2387404 6.3953938 15.869695
4.7638001 4.2147379 8.497261
5.2357225 4.638763 7.6614337
7.8327608 6.9812512 10.390627
4.3761897 3.9045756 4.8113704
5.2300377 4.6680298 4.6807427
5.4953752 4.9082894 3.9434781
21.600214 19.299286 11.79136
21.982349 19.64761 8.7561016
22.84709 20.434847 5.9110217
23.833757 21.317335 2.9636233
10.936997 9.720623 13.113603
4.7860155 4.2567439 4.7474065
5.1832848 4.61169 4.1625552
21.6101 19.247166 13.465158
21.599163 19.244177 10.157476
22.446396 20.006056 7.3427086
23.408205 20.863295 4.4655838
24.394899 21.750353 1.4120806
0.06262017 0.029705269 6.4340281
3.5793481 3.062845 29.947145
4.6920733 4.0532413 29.832775
3.5958941 3.1370938 15.302582
4.3329821 3.7987299 13.634896
5.4017677 4.7490249 13.24834
4.2065196 3.706027 8.3064384
4.8164368 4.2478309 7.7654414
0.30114695 0.23393822 6.4336762
2.4823487 2.0775988 30.147009
5.8264117 5.0454521 29.711546
4.619751 4.0273948 16.720741
5.3024502 4.6404376 14.633191
7.2708225 6.378686 15.891024
4.7603731 4.1821733 8.4653406
5.2417011 4.6115007 7.6467328
7.814353 6.9160509 10.334554
4.4276662 3.9228313 4.85217
5.3808599 4.7690024 4.7986259
5.5257311 4.9008341 3.9527531
21.657047 19.21454 11.785741
22.054386 19.57394 8.7575111
22.995409 20.423475 5.9306068
23.975042 21.293535 2.9716709
10.942868 9.6576805 13.080348
4.7220755 4.1704445 4.6708846
5.160584 4.559319 4.1321573
21.775743 19.258808 13.526001
21.687426 19.187437 10.167336
22.56341 19.96946 7.3579493
23.562469 20.853661 4.4807792
24.534264 21.721365 1.4155067
0.062682725 0.029470947 6.429029
3.589426 3.0498288 29.942207
4.7069654 4.0375009 29.837669
4.3167443 3.7579269 13.542846
5.405683 4.7191157 13.217617
4.2046046 3.6783512 8.2775087
4.7709527 4.1782007 7.6695037
0.30196169 0.23288558 6.4336762
2.4895859 2.0689209 30.147009
5.8458939 5.0267224 29.721226
4.6664 4.0394797 16.83806
5.3153291 4.6190443 14.624188
7.2950106 6.3549805 15.89529
7.8304105 6.8816695 10.32404
4.4647112 3.9279196 4.8772779
5.4068909 4.7584786 4.8068504
5.5328312 4.8727326 3.9457965
21.657894 19.080599 11.750154
22.151369 19.522211 8.7687922
23.147612 20.414562 5.9511247
24.131395 21.282187 2.9815066
5.7254467 5.0176034 6.8616629
4.6423969 4.0713186 4.5796466
5.1926703 4.5554914 4.1448231
21.88376 19.218618 13.551179
21.786196 19.139668 10.182129
22.720602 19.967585 7.3860846
23.705793 20.833397 4.4939017
0.062785216 0.029251963 6.429029
3.60005 3.037281 29.942207
4.7225809 4.022366 29.84746
3.5939424 3.0914721 15.202371
4.3254018 3.7390029 13.529037
5.4438386 4.7190418 13.270286
4.1982994 3.647043 8.2403116
4.7806706 4.1573148 7.6618285
0.30277279 0.23183015 6.4336762
2.4972038 2.0605574 30.151981
5.8643613 5.0071025 29.726067
3.6911068 3.1727788 13.290329
5.3264756 4.5961952 14.610685
7.693368 6.6642876 13.552622
5.0125546 4.3482056 7.2718658
5.406539 4.7181492 7.1313987
4.4871888 3.9199932 4.886693
4.8063478 4.2002783 4.2695227
5.543138 4.847558 3.9411592
21.661562 18.94994 11.716439
22.320457 19.533226 8.8082724
23.296337 20.4016 5.9707093
24.344154 21.319214 2.9980483
5.6978598 4.9583702 6.8084545
4.6657252 4.0630522 4.5884762
5.1987886 4.5288434 4.1372237
22.080692 19.255463 13.630904
21.916925 19.119379 10.211712
22.863411 19.95207 7.4095306
23.890306 20.848202 4.5146227
0.062846065 0.02901735 6.4240289
3.6112256 3.0251949 29.947145
4.7373705 4.0065141 29.852356
3.5956314 3.0711529 15.164195
4.1896954 3.6139858 8.1989822
4.8339691 4.1741185 7.7232285
0.30334991 0.23059775 6.4286847
2.5047936 2.0521657 30.156954
5.882762 4.9874139 29.730904
3.6745946 3.1363492 13.191781
5.3424873 4.5775747 14.610685
6.7397366 5.7890062 14.602712
7.7097306 6.6314974 13.540652
5.0456829 4.3461695 7.2975926
5.3771577 4.6595454 7.0718217
4.4832039 3.889003 4.8678627
4.836771 4.1971779 4.2832303
5.5566802 4.825274 3.9388404
21.762575 18.904612 11.735169
22.468166 19.524418 8.8392935
23.44525 20.387846 5.9902945
5.7151332 4.9384508 6.8084545
5.0528913 4.3692842 4.9475417
5.2145658 4.5106688 4.1372237
22.219824 19.24066 13.674963
22.058489 19.107687 10.246226
23.010056 19.938986 7.4341493
24.00036 20.797113 4.5215292
0.062946975 0.0287978 6.4240289
3.6217632 3.0125709 29.947145
4.7521067 3.990608 29.857252
3.599499 3.0527899 15.135563
6.3287034 5.4091578 15.324375
4.2001486 3.5975089 8.19485
4.8631096 4.1697369 7.746253
0.304153 0.22953746 6.4286847
2.5123553 2.0437462 30.161926
5.9010973 4.9676585 29.735744
3.6368096 3.0822227 13.018148
5.3600912 4.5603085 14.615186
6.7837157 5.7857547 14.653904
7.7809491 6.6456413 13.624442
5.0865865 4.3505659 7.3343439
5.3285108 4.5849228 6.9877124
4.4938021 3.8707895 4.8647242
4.8228831 4.1557035 4.2585568
21.912682 18.901203 11.780122
22.605186 19.505411 8.8660841
23.594355 20.373302 6.0098796
8.4299936 7.2330942 9.9743309
5.0926456 4.372685 4.971087
5.1648765 4.4362636 4.0865598
22.379766 19.242872 13.731611
22.189491 19.085997 10.275808
23.156891 19.925121 7.4587684
24.181667 20.806875 4.5415587
0.063047111 0.028577898 6.4240289
3.6328559 3.0004048 29.952084
4.766789 3.9746475 29.862146
3.6101332 3.0402069 15.135563
5.2859502 4.4734464 16.373398
6.3347635 5.3761859 15.293652
4.1976748 3.5700641 8.1659184
4.8971596 4.1693592 7.7769542
0.30495238 0.22847436 6.4286847
2.5198886 2.0352988 30.166897
5.9193664 4.9478359 29.740583
3.6726339 3.09062 13.107311
5.3859549 4.5499997 14.642194
6.8436742 5.7957482 14.739222
7.7765222 6.5950527 13.576563
5.0707335 4.3064494 7.2902422
5.2983894 4.5269136 6.9281354
4.4984126 3.8474905 4.8553085
4.8532457 4.1524353 4.2722645
22.066551 18.899992 11.826948
22.749636 19.491932 8.8956947
23.739908 20.354765 6.028532
8.4239264 7.1769876 9.9377499
5.1355605 4.3784833 4.9975753
5.1344118 4.379045 4.0510955
22.52964 19.235363 13.781964
22.324203 19.066696 10.307035
23.303907 19.910471 7.483387
0.063146487 0.028357649 6.4240289
3.6439085 2.9881983 29.957024
4.7814188 3.9586337 29.867043
3.6253042 3.0314169 15.154651
5.322473 4.4725633 16.437834
4.2122607 3.557205 8.1700516
4.909236 4.1501703 7.7731166
0.30598012 0.22758016 6.4336762
2.5269778 2.0264904 30.166897
5.9375682 4.9279456 29.745424
3.6926696 3.0855265 13.140161
7.7461438 6.5137205 16.624765
7.7626176 6.5368133 13.512722
5.0727763 4.2777958 7.2718658
5.3277559 4.5199261 6.9456577
4.5118155 3.8317645 4.8553085
4.9059515 4.1679564 4.305162
22.217144 18.894932 11.871901
22.89061 19.474569 8.9238949
23.919285 20.364122 6.0555778
8.5059395 7.1957693 10.00426
5.0767732 4.2978506 4.9269395
5.1134796 4.3304505 4.0232306
22.676271 19.224106 13.83022
22.462652 19.049738 10.339906
23.451103 19.895037 7.5080056
0.063245088 0.028137054 6.4240289
3.6555219 2.9764416 29.966904
4.7959943 3.9425657 29.871937
3.6358638 3.0187435 15.154651
5.3425536 4.4577117 16.451641
4.2268085 3.5442879 8.1741848
4.8770475 4.0938544 7.7002034
0.30677268 0.22651072 6.4336762
2.5344532 2.0179892 30.171869
5.9557042 4.9079895 29.750263
3.6954489 3.0660069 13.112003
3.8619299 3.2166214 10.456064
7.6507182 6.3880219 16.373075
7.6929207 6.4323626 13.353121
5.0460892 4.2252398 7.2130632
5.4116883 4.5587411 7.0332713
4.5102859 3.8034461 4.8396163
4.942843 4.1696792 4.3243523
22.367971 18.889051 11.916854
23.03174 19.456463 8.952096
24.023987 20.309048 6.063972
5.6491556 4.7453022 6.6521564
5.200038 4.3711333 5.0299501
5.1417623 4.3236723 4.0333629
22.83004 19.217901 13.882671
22.601252 19.032047 10.372776
23.591038 19.872555 7.5302796
0.063342914 0.027916117 6.4240289
3.6664934 2.9641516 29.971842
4.8105164 3.9264445 29.876833
3.6440754 3.0041347 15.145107
8.8702774 7.3695898 21.201351
4.2391548 3.5295122 8.1741848
4.8913083 4.0768056 7.7002034
0.30756149 0.22543849 6.4336762
2.541482 2.00913 30.171869
5.9737725 4.8879657 29.755102
3.7061286 3.0530887 13.112003
3.8630691 3.1947973 10.429057
7.6107292 6.3096771 16.240829
7.8242922 6.495934 13.540652
5.0269179 4.1794238 7.1652865
7.9551754 6.6539803 10.271472
4.496676 3.7651896 4.8113704
4.9445457 4.1416602 4.3133864
22.522579 18.885323 11.963679
23.180372 19.443769 8.9831161
5.6484818 4.7112055 6.6322031
5.2245731 4.3607249 5.0387793
5.1700597 4.3167496 4.0434957
22.977076 19.205036 13.930925
22.73638 19.01059 10.404002
23.738558 19.855576 7.5548983
0.063439973 0.027694838 6.4240289
3.67803 2.9523077 29.98172
4.8249836 3.9102697 29.881727
3.6349027 2.9753234 15.063983
8.8940992 7.3370581 21.196962
4.2536178 3.5164862 8.178318
4.8981009 4.0535765 7.6886907
0.30858043 0.22453278 6.4386683
2.5484796 2.0002463 30.171869
5.9917741 4.8678761 29.759941
3.714092 3.0379481 13.102618
3.8674679 3.1757677 10.411053
6.750761 5.557085 14.372351
7.8864455 6.5011654 13.608482
5.0101032 4.1359529 7.1211843
7.9454317 6.5988293 10.229418
4.4409518 3.6922374 4.7391858
4.9428983 4.1110063 4.2996788
22.67387 18.877779 12.008632
23.314449 19.417995 9.0084972
10.907246 9.032937 12.69459
5.2957821 4.3888865 5.0917563
5.205008 4.3151841 4.0586948
23.134779 19.200075 13.985476
22.878899 18.994452 10.438517
0.063536264 0.027473222 6.4240289
3.6895285 2.9404194 29.991598
4.839397 3.894042 29.886621
3.6070387 2.9315505 14.906507
8.9103928 7.2983789 21.175016
4.2593412 3.4962606 8.1659184
4.8924093 4.020175 7.6579909
0.30936232 0.22345428 6.4386683
2.5554464 1.9913384 30.171869
6.0097084 4.8477211 29.76478
3.7233343 3.0238769 13.097925
3.8802171 3.1636238 10.415554
6.7458854 5.5136814 14.32116
8.0280123 6.5709333 13.811975
5.0218878 4.1162901 7.1175089
7.9491568 6.555172 10.204885
4.4778271 3.696537 4.7642937
22.832529 18.875319 12.057331
23.478207 19.415981 9.0451584
10.947361 9.0019226 12.704566
5.4015837 4.4448552 5.1771083
5.2233677 4.2997289 4.0612283
23.014294 18.971544 10.469743
0.063590489 0.027237145 6.4190288
3.7003794 2.928005 29.996536
4.853756 3.8777614 29.891518
3.6056328 2.9095678 14.858788
6.3679242 5.178874 15.109309
4.2693386 3.479594 8.1617861
6.0090995 4.9027228 9.3618431
0.31014043 0.22237304 6.4386683
2.5623817 1.982406 30.171869
6.0285554 4.8282847 29.77446
3.73118 3.0086954 13.088539
3.882776 3.1432114 10.393047
6.7367396 5.4670925 14.261437
8.1187134 6.597981 13.927684
5.0598907 4.1179943 7.1505857
9.2799063 7.5982819 11.866041
4.5208058 3.7055578 4.7956781
5.6472688 4.6305122 4.8726454
22.980692 18.86315 12.10041
23.605154 19.382616 9.0677185
10.97004 8.9565706 12.69459
5.4045458 4.4157438 5.1653357
5.2049665 4.254189 4.0358963
23.164423 18.959885 10.507544
0.063685179 0.027015006 6.4190288
3.7111886 2.91555 30.001478
4.8680601 3.8614273 29.896412
6.3766465 5.1490917 15.087364
4.2617707 3.4487386 8.1245899
6.0187044 4.8756642 9.3503304
0.31091475 0.2212891 6.4386683
2.5692861 1.9734495 30.171869
6.0463567 4.8079944 29.779301
3.7416596 2.9956529 13.088539
3.8903308 3.1269112 10.384045
6.7435975 5.4337258 14.235841
6.3735313 5.1428719 10.919206
5.0926929 4.1152225 7.1763124
9.2316589 7.5051026 11.771419
4.5397511 3.6946685 4.8019547
5.6277275 4.5817318 4.8424892
23.139832 18.858969 12.14911
10.940329 8.8688469 12.624755
5.4293437 4.4044905 5.1741652
5.1595345 4.1870999 3.9902992
23.303757 18.938473 10.540414
0.063779093 0.026792539 6.4190288
3.7219558 2.9030559 30.006416
4.882309 3.8450413 29.901308
3.5370741 2.8137035 14.496117
8.9956741 7.2121615 21.196962
4.2584271 3.4215031 8.0956583
6.0381846 4.8566341 9.3541679
0.31168532 0.22020245 6.4386683
2.576159 1.9644691 30.171869
6.0640888 4.7876377 29.784138
3.7507432 2.9815001 13.083847
3.897819 3.1105969 10.375043
7.0150523 5.6121774 14.764817
6.3890934 5.1187096 10.915215
8.0312414 6.4827704 10.222408
4.5556474 3.6812453 4.8050933
4.5933309 3.7130144 3.956996
23.292011 18.848068 12.194062
10.901412 8.7744169 12.544942
5.4572763 4.3956532 5.1859374
5.2211127 4.2069297 4.0257635
23.446898 18.919285 10.574927
0.063872226 0.026569746 6.4190288
3.7320666 2.8900461 30.006416
4.896503 3.8286021 29.906202
3.5386739 2.7948637 14.462713
9.0207939 7.180717 21.196962
4.2571454 3.3960888 8.0708609
6.0726328 4.8495283 9.3810301
0.31221524 0.21894798 6.4336762
2.5830007 1.9554646 30.171869
6.0827427 4.7679915 29.793818
3.7611275 2.9683897 13.083847
3.9052408 3.0942681 10.36604
6.9896717 5.5519695 14.670966
6.3927727 5.0851212 10.891275
8.0287762 6.4346247 10.190867
4.6079373 3.6969857 4.8458934
10.774467 8.6104393 12.365365
5.4915271 4.3917241 5.2035961
5.2559628 4.2048364 4.0409627
0.063964583 0.026346628 6.4190288
3.742748 2.8774745 30.011356
4.9106421 3.8121114 29.911098
3.5460594 2.7806528 14.45317
4.2491207 3.3654835 8.0336647
6.0995703 4.836267 9.3963804
0.31297761 0.21785681 6.4336762
2.5902369 1.9467566 30.17684
6.1003408 4.7475019 29.798656
3.7701077 2.9541786 13.079155
3.9125957 3.0779257 10.357038
6.9045691 5.4451742 14.453404
6.4175782 5.068378 10.903246
7.3345389 5.8008523 10.215672
8.1097898 6.4531903 10.264462
4.6543036 3.7075553 4.8804164
4.7630272 3.7955141 4.07762
10.877581 8.6307955 12.448503
5.5479755 4.4052033 5.2418575
5.2503552 4.1703768 4.0257635
0.064097688 0.026136594 6.4240289
3.7527695 2.8643925 30.011356
4.9247251 3.7955682 29.915993
3.5816569 2.7884302 14.558153
6.4648752 5.0728641 15.126866
4.2586303 3.3488913 8.0295315
6.1239705 4.8208938 9.4078922
0.31373617 0.21676297 6.4336762
2.5970166 1.9377031 30.17684
6.1178703 4.7269478 29.803497
3.785845 2.9452381 13.097925
3.9216003 3.0629094 10.352536
6.7346139 5.2731199 14.060938
6.456573 5.0626793 10.939157
7.3600755 5.7794018 10.223023
8.090291 6.3916807 10.211895
4.6214232 3.6550686 4.8333392
4.8024802 3.7996202 4.0995522
9.4130764 7.4527221 6.3712616
5.7132974 4.5008211 6.559042
5.5728416 4.3933182 5.2506876
5.2411861 4.1333389 4.0080314
0.064230099 0.025925951 6.429029
3.7633648 2.8517449 30.016294
4.9387531 3.7789736 29.920889
3.6090844 2.7896032 14.629732
6.4598718 5.0326042 15.074198
4.2636404 3.3288107 8.0171328
6.1559138 4.8113303 9.4309177
0.31425238 0.21550387 6.4286847
2.604193 1.9289433 30.181812
6.1353302 4.7063284 29.808334
3.7742503 2.9151282 13.022841
3.9288273 3.0465338 10.343534
6.7015033 5.2095633 13.954289
6.493227 5.0549188 10.971076
7.3882265 5.7599287 10.234049
5.2391849 4.1095819 6.6232395
6.8536096 5.3816938 7.1087208
4.8157144 3.7828331 4.0995522
9.4912729 7.4608831 6.4060431
5.7877951 4.5268564 6.6255522
5.5372148 4.3339767 5.2035961
5.2352171 4.0990729 3.9928322
0.064320207 0.025701588 6.429029
3.774538 2.839525 30.026173
4.9519143 3.7617111 29.920889
3.6187999 2.7769883 14.629732
5.4695148 4.218317 16.331976
6.4641376 4.9997668 15.043472
4.2641134 3.3052876 7.9964676
6.1979942 4.8094625 9.4692936
0.31500271 0.2144056 6.4286847
2.61134 1.920157 30.186783
6.1527214 4.6856456 29.813175
3.8049445 2.9176865 13.093232
3.9359879 3.0301454 10.334532
6.7279062 5.1925135 13.971354
6.5394421 5.0543346 11.018956
7.4136486 5.7382541 10.241399
5.2534976 4.091269 6.6232395
6.9398866 5.4103866 7.1777663
4.7827277 3.7299998 4.0611715
9.5172586 7.4277067 6.4060431
5.8065104 4.5089159 6.6288776
5.545927 4.3096623 5.1977105
5.2290735 4.0648994 3.9776332
0.064451188 0.025489878 6.4340281
3.7856719 2.8272619 30.036053
4.9658275 3.7450159 29.925785
3.627284 2.7634349 14.624961
5.50282 4.2134514 16.387205
4.2733946 3.2886662 7.9923348
6.2325182 4.8014913 9.4961557
0.3157492 0.21330473 6.4286847
2.6184571 1.9113442 30.191753
6.1700425 4.6648974 29.818014
3.7450783 2.851079 12.853901
3.9448113 3.0150657 10.33003
6.7584114 5.1785145 13.99695
6.5618262 5.0351453 11.026937
5.2677469 4.072906 6.6232395
6.9679646 5.3932767 7.1871819
4.7229819 3.6569633 4.0008593
9.543128 7.3944402 6.4060431
7.7738576 5.9932165 8.8237076
5.5353341 4.270525 5.1741652
5.2295799 4.036087 3.9675004
0.064539768 0.025264747 6.4340281
3.7986388 2.8163435 30.060747
4.9796848 3.7282691 29.930679
3.7107229 2.806582 14.920824
5.5625982 4.2285028 16.520679
4.3005013 3.2856884 8.021266
0.31649187 0.21220127 6.4286847
2.6255445 1.9025052 30.196726
6.187294 4.6440864 29.822855
4.0551353 3.0648091 13.876925
3.9535775 2.9999616 10.325529
6.7889009 5.1643653 14.022544
6.5913467 5.0213394 11.046886
7.8901739 6.019475 10.836776
5.2819319 4.0544934 6.6232395
6.8787265 5.285913 7.0773358
4.7125125 3.6226161 3.9816689
7.2655983 5.5892372 4.8849106
7.7917647 5.9637742 8.8203821
5.5405807 4.2438035 5.1653357
5.2710114 4.0387826 3.987766
0.06458582 0.025026632 6.429029
3.8109498 2.804909 30.080505
4.9934859 3.7114716 29.935575
3.7252717 2.7971971 14.939911
4.3231544 3.2791595 8.0419302
0.31723064 0.21109521 6.4286847
2.6321697 1.8933287 30.196726
6.205483 4.6239619 29.832533
4.0658088 3.0506353 13.876925
3.9640253 2.9861429 10.325529
6.7590189 5.1044865 13.924428
6.6064315 4.9964833 11.042896
7.9057326 5.9878025 10.829426
5.2988887 4.0381927 6.6267443
9.5770445 7.3063722 9.7952394
4.7849612 3.6518068 4.0310154
7.2639413 5.5477085 4.8709979
7.9314499 6.0268993 8.9534025
5.5746651 4.2391171 5.1829944
5.2850771 4.0203586 3.987766
0.064672783 0.024801033 6.429029
3.8232272 2.7934227 30.100264
5.00805 3.6952276 29.945366
3.7290289 2.779716 14.916052
0.3179656 0.2099866 6.4286847
2.6391964 1.8844389 30.201696
6.2225962 4.6030202 29.837372
4.0238423 2.9972532 13.6986
3.9744248 2.9722874 10.325529
6.7788825 5.082427 13.928695
7.9157476 5.9520206 10.814725
5.2902007 4.0024586 6.5987077
9.5745649 7.2517471 9.7669935
4.7943463 3.6325567 4.0282736
7.2938514 5.5303483 4.877954
7.9852281 6.023912 8.9899826
5.5926542 4.2220674 5.1859374
5.2990789 4.0018859 3.987766
0.064717129 0.024562746 6.4240289
3.8367288 2.7827969 30.129898
5.0217395 3.6783254 29.95026
3.7747068 2.7933192 15.059211
0.31869665 0.20887539 6.4286847
2.6457582 1.8752148 30.201696
6.2406521 4.5827594 29.847052
4.0245671 2.976007 13.665751
3.9917674 2.9635863 10.343534
4.4861207 3.3439293 7.4837952
5.2898827 3.9732587 6.5811853
6.8714819 5.1668067 7.0145664
4.8504386 3.6484752 4.0639129
7.3060336 5.499526 4.8733163
8.0600014 6.0362892 9.0498419
5.6008892 4.1976714 5.1800508
5.2992191 3.9730208 3.9776332
0.064760588 0.024324453 6.4190288
3.8464193 2.7693875 30.129898
5.0353723 3.6613724 29.955156
3.8506005 2.8287299 15.321671
5.5865183 4.1248951 16.419422
7.8440251 5.8213243 14.41907
7.7973509 5.7930074 11.706558
0.31966624 0.20791844 6.4336762
2.652288 1.865968 30.201696
6.257627 4.5616879 29.851891
3.9834592 2.9241583 13.492118
4.0090976 2.9548008 10.361539
7.2232237 5.3371983 14.760552
4.5001884 3.3300416 7.4877844
5.219696 3.8680758 7.1211843
5.2865658 3.9419785 6.5601573
7.0735054 5.28016 7.1997356
4.8597941 3.62902 4.0611715
7.3251858 5.47399 4.8733163
8.0600481 5.9925227 9.0265627
5.6187506 4.1805077 5.1829944
0.0648451 0.024098247 6.4190288
3.8547983 2.7550404 30.120018
5.0497732 3.6449652 29.964947
7.5040517 5.4722309 29.737833
5.6071854 4.1099892 16.437834
7.8484383 5.7822247 14.39014
7.8794332 5.8114138 11.798658
0.32039005 0.20680133 6.4336762
2.6592224 1.8570036 30.206669
6.2745304 4.5405536 29.856731
3.7579408 2.7384856 12.699039
4.5093565 3.3125291 7.4837952
5.1785498 3.809654 7.0476813
5.2830949 3.9107704 6.5391302
7.2357469 5.3620386 7.3441048
4.895946 3.6294649 4.0803618
7.3762689 5.4721403 4.8941855
8.1079531 5.9843068 9.0564928
5.7015867 4.2112999 5.244801
9.0192413 6.664185 6.6754689
7.5721269 5.6010613 4.4414349
0.064928822 0.02387175 6.4190288
3.8637583 2.7411184 30.11508
5.0632935 3.6279089 29.969841
5.6731024 4.106823 22.436699
5.6530933 4.11338 16.529884
7.8822021 5.76476 14.414937
8.0031185 5.8596139 11.952158
0.3213535 0.20583679 6.4386683
2.6656883 1.8477098 30.206669
6.2913623 4.5193577 29.861568
5.8667741 4.2610154 15.056305
7.3572907 5.3572588 14.956785
4.5257611 3.3003187 7.4917746
5.098731 3.7235754 6.9227257
5.2823453 3.8817463 6.5216079
6.5364327 4.8085623 6.6253982
6.2927394 4.6309757 5.2071042
7.26335 5.3491659 4.8083901
8.1167459 5.9471416 9.043191
7.9996552 5.867774 5.9155149
7.5733418 5.5611653 4.4309444
0.065011755 0.02364496 6.4190288
3.8733027 2.7276149 30.11508
5.0759263 3.6102126 29.969841
5.6874037 4.0869956 22.436699
5.6547475 4.0844707 16.493065
6.3290014 4.5849071 14.389501
7.8385162 5.6909199 14.299214
8.2361298 5.986167 12.266833
0.32207006 0.20471379 6.4386683
2.6725607 1.8386955 30.211639
6.3081236 4.4980989 29.866409
3.7208982 2.6719234 12.51133
5.8763142 4.236691 15.042801
7.4224472 5.3651557 15.050634
4.5372534 3.2845008 7.4917746
5.0019064 3.6261623 6.7757192
5.2814569 3.8527751 6.5040846
6.5563207 4.788012 6.6285367
6.2548437 4.5695162 5.1632409
7.156816 5.232275 4.727232
7.8898535 5.7386808 8.7705002
6.2569914 4.5543609 5.7186494
8.0688772 5.8753386 5.9509792
7.5927081 5.5346951 4.4309444
0.065093897 0.023417883 6.4190288
3.8828006 2.7140779 30.11508
5.0893292 3.5930595 29.974735
5.6797609 4.0515151 22.350803
5.676909 4.0703993 16.516077
6.346911 4.5641842 14.393889
7.8469195 5.6552982 14.27855
8.3141603 5.9986391 12.351258
0.32278267 0.20358832 6.4386683
2.6794033 1.829656 30.216612
6.3248115 4.476778 29.871248
3.7302024 2.6589186 12.51133
5.9070001 4.2275558 15.083312
7.4432487 5.340735 15.054901
4.5511379 3.2704012 7.4957647
5.047554 3.6324427 6.8198209
5.2775431 3.8217661 6.4830575
6.5792971 4.7696662 6.6348138
6.3689208 4.6188445 5.242743
7.1642809 5.1994557 4.7202754
7.7796688 5.6171207 8.6275034
6.272851 4.5324922 5.7186494
8.0648804 5.8294597 5.9332471
7.453876 5.3937507 4.3407283
0.065175243 0.023190519 6.4190288
3.8922508 2.7005079 30.11508
5.1026745 3.5758569 29.979631
5.6816854 4.0230384 22.303082
5.6926742 4.0516906 16.520679
6.341362 4.5266957 14.345609
7.8711891 5.6311469 14.286817
8.3532887 5.9826441 12.37812
0.32349136 0.20246036 6.4386683
2.6862149 1.820591 30.221582
6.3404002 4.4546728 29.871248
3.7521396 2.6548522 12.553564
5.9394679 4.2195182 15.128324
7.432106 5.2935381 14.995178
4.5698862 3.2597446 7.5077353
5.096065 3.6404192 6.8675985
5.2821641 3.7970757 6.4725437
6.5074458 4.683012 6.5469365
6.4562697 4.6478882 5.3003139
7.0529952 5.0811992 4.6367993
7.6839061 5.5072765 8.5011339
6.1671076 4.4234028 5.6097527
8.9222746 6.4019008 6.5386767
7.4763446 5.370347 4.3428264
0.065255798 0.022962874 6.4190288
3.9022934 2.6873455 30.120018
5.1159611 3.558605 29.984526
5.6981368 4.0048976 22.312626
5.7083783 4.0329227 16.525282
6.3668957 4.5114565 14.367556
7.8885036 5.6020079 14.282682
8.3741217 5.9534497 12.37812
0.3241961 0.20132993 6.4386683
2.6925535 1.8112032 30.221582
6.3569422 4.4332328 29.876087
3.7613838 2.6417384 12.553564
5.9612775 4.2037778 15.146329
7.4633155 5.2765961 15.020773
5.1474576 3.6500618 6.9190507
5.2808714 3.7682574 6.4550214
6.4319043 4.5946565 6.4559216
6.4112172 4.5815625 5.2509675
7.1175308 5.0900464 4.6669436
7.6391945 5.434967 8.4312992
6.1956811 4.4112263 5.6215253
9.1025724 6.4832554 6.6526699
7.5209126 5.3626614 4.3575125
0.065335557 0.022734949 6.4190288
3.9116502 2.6737075 30.120018
5.12919 3.5413039 29.989422
5.7182035 3.9892538 22.336487
6.3747687 4.4836926 14.349999
7.9080095 5.5744371 14.282682
4.6132731 3.2555823 6.8367653
0.3248969 0.20019704 6.4386683
2.6993029 1.8020893 30.226553
6.3734121 4.4117312 29.880928
3.7592571 2.620698 12.516023
5.988399 4.1916819 15.177837
5.2294745 3.6808538 7.0109296
5.3201847 3.7683527 6.4865623
6.32725 4.4866228 6.3366599
5.0731969 3.5987132 4.1626058
7.1280308 5.0600419 4.6623058
7.5605226 5.339344 8.3248825
6.1252198 4.3289194 5.5450034
7.7101293 5.451035 5.6343322
0.065414518 0.022506746 6.4190288
3.9203165 2.659601 30.11508
5.1431999 3.524529 29.999214
5.7284117 3.9667194 22.32217
6.3903809 4.4614134 14.349999
7.9412546 5.5564795 14.307481
4.6141081 3.2321033 6.8214149
0.32559374 0.19906172 6.4386683
2.7055767 1.7926561 30.226553
6.3908453 4.3908806 29.890606
3.7598674 2.6016684 12.487865
6.0119328 4.1769633 15.200343
5.1700349 3.6120956 6.9153752
9.2163258 6.479804 11.151114
8.8955822 6.2612476 8.8537025
5.0857277 3.5809827 4.1626058
7.1565132 5.0427847 4.6692624
7.6005158 5.3279228 8.3481617
6.1369843 4.3051906 5.5420604
7.7467542 5.4364705 5.6469984
7.8255501 5.4978747 4.5085721
0.065527141 0.022312064 6.4240289
3.9286525 2.6472719 30.11508
5.1550884 3.5089266 30.004108
5.7359257 3.9453199 22.303082
5.7424817 3.9704869 16.506872
6.4043655 4.4413152 14.349999
9.5704021 6.6541634 17.192278
4.6105237 3.2092433 6.8022275
0.32618293 0.19809479 6.4386683
2.711329 1.7849138 30.231525
6.4048829 4.3726077 29.895445
3.7476618 2.5768135 12.422167
6.035049 4.1665282 15.227351
8.3838692 5.8140063 13.584541
5.082644 3.5299594 6.7867446
8.9024487 6.2243495 8.8411484
5.100379 3.567384 4.1653471
7.1424146 5.0012021 4.650712
9.2492695 6.4428363 10.120653
7.9351454 5.5356703 5.7711239
7.8678765 5.4928174 4.5232587
0.06557373 0.022174774 6.4240289
3.9341884 2.6390378 30.11508
5.163269 3.4986932 30.009003
5.7594991 3.9452667 22.365118
6.4121075 4.430131 14.349999
9.5970411 6.6453891 17.217077
4.6108503 3.1975384 6.7945523
0.32624632 0.19743335 6.4336762
2.7141294 1.7806524 30.231525
6.4120212 4.364368 29.900286
3.7583733 2.5764568 12.445631
6.05162 4.1655035 15.254359
8.968358 6.1915698 17.896013
8.374629 5.7902985 13.556611
5.050724 3.498652 6.7389674
9.2032785 6.3988857 11.09504
6.176928 4.3011208 6.1514912
7.2319412 5.0432253 4.701725
9.2348413 6.4112654 10.094049
7.9686065 5.5404248 5.788856
7.886714 5.4896054 4.5295529
0.065650739 0.021945743 6.4240289
3.9427292 2.6248581 30.110142
5.1762958 3.4812169 30.013899
5.7739205 3.9241307 22.365118
6.4310455 4.4068308 14.354387
4.6447783 3.1935313 6.8252525
0.32707044 0.19606504 6.4336762
2.7220113 1.7695584 30.236496
6.4330873 4.3377538 29.909964
3.7667241 2.5580945 12.436245
6.076932 4.1439643 15.272363
8.9963627 6.1508093 17.896013
8.4331398 5.7743678 13.608482
5.0727472 3.4786468 6.7463179
9.160985 6.3221583 11.017941
9.5871515 6.623662 9.4782553
4.44946 3.0752497 3.6307611
7.1711006 4.9599819 4.650712
6.0072174 4.1333303 6.5756698
7.9927053 5.5056019 5.788856
7.7985044 5.3778453 4.4666114
0.065726943 0.021716446 6.4240289
3.9518678 2.6110795 30.110142
5.188416 3.4631271 30.013899
5.7900581 3.9056215 22.374662
3.5856557 2.4314551 10.265849
6.44837 4.3857026 14.358777
4.6611929 3.1809118 6.8329277
0.32775283 0.19492216 6.4336762
2.7281716 1.7600461 30.236496
6.4492345 4.3159714 29.914803
3.7727685 2.5430014 12.42686
6.0967689 4.1263871 15.285868
9.0328846 6.1296191 17.925875
8.418354 5.7211838 13.552622
5.1156869 3.4819007 6.7867446
9.1712284 6.2820802 11.003922
9.648735 6.6165705 9.5159168
4.4601674 3.0596993 3.6307611
7.1481981 4.9073415 4.625205
4.8221817 3.2932215 5.2820501
7.8837643 5.3900819 5.6976614
0.065802343 0.021486884 6.4240289
3.960958 2.5972691 30.110142
5.2013216 3.4455574 30.018793
5.8197818 3.8961816 22.436699
3.595742 2.4200146 10.270451
6.4676104 4.3658471 14.367556
4.6881909 3.1754065 6.8559523
0.32843125 0.19377691 6.4336762
2.7347479 1.7507998 30.24147
6.4663553 4.2948236 29.924482
3.7859254 2.5326951 12.440938
6.1165562 4.1087217 15.299371
8.3733225 5.6479535 13.44888
5.130619 3.4659202 6.7904196
9.1872025 6.2460184 10.996913
9.6492481 6.5675201 9.493947
4.4811897 3.0511718 3.6389856
7.1799283 4.8923378 4.6344805
4.536942 3.0752568 4.9628019
5.9763865 4.0539699 5.3419251
7.7883854 5.2850718 5.6166
0.065919355 0.021267314 6.429029
3.97 2.583427 30.110142
5.2133169 3.4273801 30.018793
5.8395629 3.8799732 22.460558
3.6025431 2.4063635 10.265849
6.4867897 4.3459101 14.376334
4.7152071 3.1697514 6.8789778
0.32910568 0.19262928 6.4336762
2.7412925 1.7415287 30.246441
6.4834061 4.2736092 29.934162
3.7703023 2.5032382 12.361161
6.1326733 4.0885539 15.303873
7.9923525 5.3504891 12.810477
5.1595812 3.459317 6.8124704
11.233953 7.5803075 13.397528
9.688241 6.544692 9.5096397
4.4918132 3.0355108 3.6389856
7.2226472 4.8846159 4.650712
4.5445509 3.0573173 4.9594769
5.9938545 4.0353413 5.3448687
5.7222714 3.853946 4.1397567
7.9258895 5.3440938 4.506474
