# .PCD v0.7 - Point Cloud Data file format
VERSION 0.7
FIELDS x y z
SIZE 4 4 4
TYPE F F F
COUNT 1 1 1
WIDTH 1480
HEIGHT 1
VIEWPOINT 0 0 0 1 0 0 0
POINTS 1480
DATA ascii
-0.98209476 -7.5005865 8.278861
-1.1118717 -8.6919193 8.6909218
-1.3731856 -10.779381 8.8442869
-1.7400461 -13.678128 9.1246595
-1.5054153 -11.866804 6.3480735
-2.9820373 -23.539322 9.6748333
-1.2490458 -9.6570292 8.7538719
-1.5634757 -12.121168 8.9826145
-1.2779069 -9.9208908 5.9636455
-2.1019275 -16.408237 5.8465519
-2.0452237 -15.987694 3.978158
-1.9219859 -15.045139 0.7055133
-0.03463405 -0.076456755 8.1139641
-0.18958171 -1.2781326 8.2144108
-0.15935503 -1.1101425 5.4153819
-0.35640299 -2.5695248 8.3402576
-0.45507324 -3.3402534 8.0014067
-1.0635473 -7.8875356 14.652845
-0.95529342 -7.1695657 8.7363291
-0.055740297 -0.2838214 4.8413377
-0.07904081 -0.49729395 4.6531391
-0.30193713 -2.1201277 8.2825766
-0.39899868 -2.8689895 7.9311891
-0.52403176 -3.8212664 8.0389128
-1.2066759 -8.8786392 14.726424
-1.5167241 -11.218397 15.064841
-1.007367 -7.4903932 8.2715111
-1.1412758 -8.6809149 8.6839132
-1.4148471 -10.805396 8.8693943
-1.7866967 -13.663678 9.1191759
-1.5479748 -11.870264 6.3527112
-3.0659826 -23.542561 9.6804523
-2.0253437 -15.615666 1.5065928
-1.2847152 -9.6674156 8.7671747
-1.6100255 -12.147691 9.0061598
-1.3136607 -9.9249163 5.9687114
-2.1240573 -16.13394 5.752872
-2.0877128 -15.879253 3.9535389
-2.161813 -16.442841 2.4052854
-1.8658793 -14.211116 0.6718576
-0.034900725 -0.076335393 8.1139641
-0.19404207 -1.277463 8.2144108
-0.16337758 -1.1105869 5.4202771
-0.36537012 -2.5682652 8.3402576
-0.46645957 -3.3367097 7.9968042
-1.0910734 -7.8837748 14.652845
-0.98031402 -7.1661873 8.7363291
-0.056788277 -0.28390798 4.8463287
-0.080776207 -0.49701503 4.6531391
-0.30933592 -2.1190608 8.2825766
-0.40901092 -2.8675795 7.9311891
-0.53736722 -3.8194141 8.0389128
-1.2373006 -8.8717909 14.722158
-1.5554602 -11.21005 15.06085
-1.0335071 -7.4868312 8.2715111
-1.1715709 -8.676878 8.6839132
-1.4546318 -10.815823 8.8819485
-1.8338244 -13.653215 9.1164351
-2.3834281 -17.792074 9.4830904
-3.1395366 -23.467384 9.6542292
-1.5926585 -11.92065 3.6249919
-1.9423661 -14.576805 1.4131532
-1.3219864 -9.6887684 8.790453
-1.6502388 -12.125977 8.9943876
-1.3488777 -9.9245415 5.9712448
-2.153156 -15.925205 5.6822009
-2.1424789 -15.867053 3.9523668
-2.0687742 -15.321184 2.2485011
-1.8026397 -13.367776 0.63779891
-0.035166971 -0.076213099 8.1139641
-0.19850005 -1.2767779 8.2144108
-0.16725326 -1.1100098 5.4202771
-0.37433282 -2.5669742 8.3402576
-0.47810403 -3.3350611 7.9968042
-1.1182498 -7.8775482 14.648457
-1.0048772 -7.1595483 8.7324924
-0.057778958 -0.28370801 4.8463287
-0.082510628 -0.49673003 4.6531391
-0.31673095 -2.1179681 8.2825766
-0.41901815 -2.8661342 7.9311891
-0.55069619 -3.8175149 8.0389128
-1.2682614 -8.8674173 14.722158
-1.5945811 -11.204552 15.06085
-1.0601101 -7.4865346 8.2751865
-1.2023411 -8.6762676 8.687417
-1.4945061 -10.826101 8.8945017
-1.8803297 -13.638446 9.1109524
-2.4437091 -17.770483 9.4761343
-3.1627722 -23.029154 9.4800377
-1.633608 -11.910266 3.6235819
-2.181216 -15.944022 3.1467357
-1.8730869 -13.691682 1.3335731
-1.3594224 -9.7099791 8.8137312
-1.6925564 -12.120143 8.9943876
-1.3841083 -9.9240427 5.9737782
-1.961135 -14.151341 2.08481
-1.7561396 -12.688371 0.61039066
-0.035411961 -0.076051533 8.108964
-0.20295563 -1.2760772 8.2144108
-0.17128231 -1.1104255 5.4251723
-0.38329095 -2.5656519 8.3402576
-0.48974267 -3.3333721 7.9968042
-1.1453956 -7.8712258 14.644067
-1.0298626 -7.1559968 8.7324924
-0.058768928 -0.28350461 4.8463287
-0.084244035 -0.49643901 4.6531391
-0.3241221 -2.1168497 8.2825766
-0.42902029 -2.8646541 7.9311891
-0.56433684 -3.817723 8.0434141
-1.2988285 -8.8603563 14.717892
-1.6332477 -11.195936 15.056861
-1.0862366 -7.4827886 8.2751865
-1.2356309 -8.693202 8.7084446
-1.5333786 -10.828526 8.9007788
-1.926754 -13.623518 9.1054688
-2.4995368 -17.717981 9.4529467
-3.0426323 -21.594891 8.8993969
-1.6751726 -11.904491 3.6235819
-2.0900548 -14.890429 2.9462225
-1.8170359 -12.945317 1.2665112
-1.3933083 -9.7051744 8.8137312
-1.7337072 -12.106158 8.9885006
-1.4187411 -9.9191513 5.9737782
-1.3587276 -9.5470304 3.445385
-2.218313 -15.606283 3.8925784
-1.9080768 -13.423699 1.9832799
-1.7049196 -12.009461 0.58298248
-0.035677217 -0.075927459 8.108964
-0.20728384 -1.2745939 8.2094707
-0.17515737 -1.1098208 5.4251723
-0.39201871 -2.5628233 8.3354864
-0.50137532 -3.3316422 7.9968042
-1.1728644 -7.8671799 14.644067
-1.0548354 -7.1523581 8.7324924
-0.059818748 -0.28358001 4.8513207
-0.085976414 -0.49614191 4.6531391
-0.33131462 -2.1144636 8.2777367
-0.43901718 -2.8631392 7.9311891
-0.57765973 -3.8157299 8.0434141
-1.329749 -8.8557682 14.717892
-1.6718735 -11.187187 15.052871
-1.1123496 -7.4789515 8.2751865
-1.268025 -8.7029524 8.7224627
-1.5700496 -10.815405 8.8945017
-1.9736973 -13.612572 9.1027279
-2.5581982 -17.687225 9.4413519
-2.8641353 -19.826824 8.1820259
-1.7132916 -11.874832 3.6165318
-2.0020635 -13.910613 2.7596984
-1.765021 -12.263597 1.2052615
-1.4260902 -9.6928644 8.8070803
-1.7753681 -12.096034 8.9855576
-1.4533569 -9.9141388 5.9737782
-1.3913629 -9.5375557 3.4437416
-2.0898614 -14.343078 3.5866036
-1.8471079 -12.67701 1.8789873
-1.6705662 -11.479387 0.56162018
-0.035942033 -0.07580246 8.108964
-0.21173175 -1.2738627 8.2094707
-0.17903031 -1.1092026 5.4251723
-0.40096223 -2.561439 8.3354864
-0.51300186 -3.3298719 7.9968042
-1.2003189 -7.8630376 14.644067
-1.0797954 -7.1486325 8.7324924
-0.060808264 -0.28336945 4.8513207
-0.08770775 -0.49583876 4.6531391
-0.33869347 -2.1132941 8.2777367
-0.44900867 -2.8615892 7.9311891
-0.59097564 -3.8136902 8.0434141
-1.360257 -8.8484945 14.713627
-1.710458 -11.178305 15.048881
-1.1384493 -7.4750228 8.2751865
-1.3020818 -8.7231627 8.746994
-1.6077927 -10.809857 8.8945017
-2.019973 -13.597328 9.0972452
-2.6166754 -17.656279 9.4297581
-1.7575382 -11.88776 3.6221719
-1.9230269 -13.038516 2.5936921
-1.7220758 -11.676014 1.1525061
-1.4593594 -9.6841345 8.8037548
-1.8169794 -12.085766 8.9826145
-1.4879547 -9.9090052 5.9737782
-1.4197608 -9.4999485 3.4322369
-2.0150518 -13.499215 3.3826206
-1.7970346 -12.038667 1.7898896
-1.6244303 -10.895351 0.53804111
-0.036206417 -0.075676538 8.108964
-0.21604683 -1.2723498 8.2045317
-0.18273512 -1.1075664 5.4202771
-0.41013691 -2.5614974 8.3402576
-0.52462214 -3.3280609 7.9968042
-1.2273891 -7.8564339 14.639678
-1.1047422 -7.1448202 8.7324924
-0.061859574 -0.28343731 4.8563123
-0.089342885 -0.49500507 4.6481676
-0.34606817 -2.1120992 8.2777367
-0.45899481 -2.8600044 7.9311891
-0.60394335 -3.8094537 8.0389128
-1.3911357 -8.8436928 14.713627
-1.7490009 -11.169288 15.04489
-1.1640129 -7.4676538 8.2715111
-1.3319846 -8.7150393 8.7434902
-1.6449305 -10.800332 8.8913631
-2.0667956 -13.58606 9.0945024
-2.6749678 -17.625139 9.4181643
-1.2744303 -8.4070511 3.5237932
-1.7904059 -11.824637 3.6052516
-1.8694777 -12.376009 2.4677882
-1.6787702 -11.113506 1.1019862
-1.4925853 -9.675292 8.8004293
-1.8585405 -12.075355 8.9796715
-1.5225346 -9.9037504 5.9737782
-1.4500563 -9.476265 3.425663
-1.9520029 -12.771375 3.2067728
-1.7522554 -11.464477 1.7097707
-1.5870558 -10.395743 0.51788801
-0.036449 -0.075511657 8.1039648
-0.22048683 -1.271588 8.2045317
-0.18626122 -1.1049137 5.4104867
-0.41907567 -2.5600502 8.3402576
-0.53623611 -3.3262093 7.9968042
-1.2544277 -7.8497372 14.63529
-1.1301763 -7.1440859 8.7363291
-0.062848575 -0.28321967 4.8563123
-0.091070235 -0.49469018 4.6481676
-0.35343868 -2.1108782 8.2777367
-0.46869582 -2.8566821 7.9264975
-0.61723715 -3.8073225 8.0389128
-1.4215831 -8.8362074 14.70936
-1.7875019 -11.16014 15.040901
-1.1895391 -7.4601974 8.2678356
-1.3618466 -8.7068129 8.7399855
-1.6820209 -10.790678 8.8882246
-2.1129203 -13.570498 9.0890198
-1.301636 -8.3888073 3.5181739
-1.830936 -11.813576 3.6038415
-1.826341 -11.811134 2.3605371
-1.6338427 -10.566216 1.0528075
-1.5263494 -9.670023 8.8004293
-1.9000512 -12.064801 8.9767284
-1.5570959 -9.8983755 5.9737782
-1.3104299 -8.3588209 3.9987454
-1.4816645 -9.4618139 3.4223759
-1.9019265 -12.159403 3.0590608
-1.7111435 -10.939678 1.6365587
-1.5492988 -9.9162788 0.49854103
-0.036712363 -0.075383961 8.1039648
-0.22492416 -1.2708106 8.2045317
-0.19028988 -1.1052601 5.4153819
-0.42800939 -2.5585718 8.3402576
-0.54784346 -3.324317 7.9968042
-1.2818208 -7.8453107 14.63529
-1.1551069 -7.1400967 8.7363291
-0.06390132 -0.28327999 4.8613043
-0.092796467 -0.4943693 4.6481676
-0.36080486 -2.1096318 8.2777367
-0.47866464 -2.8550286 7.9264975
-0.63016742 -3.8029971 8.0344114
-1.4524186 -8.831192 14.70936
-1.8259602 -11.150859 15.036911
-1.2150272 -7.4526534 8.2641611
-1.3916674 -8.6984854 8.7364807
-1.7190646 -10.780898 8.885087
-2.1596198 -13.558912 9.0862789
-1.3301839 -8.3796349 3.5163012
-1.8556343 -11.702879 3.5728209
-1.7838902 -11.275829 2.2588813
-1.5991232 -10.10792 1.0116762
-1.5594997 -9.6609507 8.7971039
-1.941511 -12.054105 8.9737854
-1.5909532 -9.8886232 5.9712448
-1.3431928 -8.3766031 4.0092359
-1.5124428 -9.4425955 3.4174454
-1.8644966 -11.653533 2.93714
-1.6656076 -10.410421 1.5626558
-1.5192527 -9.506278 0.48201549
-0.036975279 -0.075255357 8.1039648
-0.22935875 -1.2700176 8.2045317
-0.29667011 -1.687217 8.2595091
-0.43693784 -2.5570621 8.3402576
-0.55911964 -3.3204579 7.9922018
-1.3088038 -7.8384256 14.630899
-1.1805465 -7.1391835 8.7401667
-0.064955242 -0.28333634 4.8662953
-0.094521567 -0.49404234 4.6481676
-0.36795032 -2.107121 8.2728968
-0.48862764 -2.8533404 7.9264975
-0.64307517 -3.7986279 8.0299101
-1.4828042 -8.8234959 14.705094
-1.8648729 -11.144418 15.036911
-1.2404772 -7.4450226 8.2604856
-1.4214464 -8.6900549 8.7329769
-1.7560601 -10.770989 8.8819485
-2.2055917 -13.543036 9.0807953
-2.7684398 -17.036488 9.1213579
-1.3594261 -8.3749409 3.5163012
-1.8941703 -11.682125 3.5685906
-1.736941 -10.73612 2.1562932
-1.5683829 -9.6942425 0.97456861
-1.5932132 -9.655448 8.7971039
-1.9822625 -12.039277 8.9678993
-1.6268606 -9.8915176 5.9763112
-1.3716903 -8.3673849 4.0071378
-1.5431049 -9.4232788 3.4125147
-1.8141433 -11.090517 2.801151
-1.6371834 -10.008687 1.5067106
-1.4847525 -9.0867491 0.46508688
-0.037237745 -0.075125828 8.1039648
-0.23379053 -1.2692094 8.2045317
-0.301478 -1.6801579 8.2301369
-0.44560444 -2.5540512 8.3354864
-0.57070678 -3.318486 7.9922018
-1.336157 -7.8338099 14.630899
-1.2054597 -7.1350193 8.7401667
-0.065943874 -0.28310788 4.8662953
-0.096347973 -0.49423254 4.6531391
-0.3753033 -2.105824 8.2728968
-0.49828741 -2.8499174 7.9218044
-0.65633088 -3.79636 8.0299101
-1.5131537 -8.8156967 14.700828
-1.9037627 -11.137839 15.036911
-1.2658888 -7.4373055 8.2568102
-1.4511839 -8.6815233 8.7294722
-1.7923676 -10.757115 8.8756714
-2.2521658 -13.531131 9.0780544
-2.5745907 -15.50161 8.3120966
-1.3886517 -8.3701448 3.5163012
-1.8470941 -11.1454 3.4106669
-1.6894526 -10.21627 2.0574353
-1.5307126 -9.2563438 0.93522567
-1.6262864 -9.6461449 8.7937784
-2.0236049 -12.028299 8.9649553
-1.659235 -9.873024 5.9687114
-1.4008895 -8.362546 4.0071378
-1.573651 -9.403863 3.4075844
-1.7670959 -10.571147 2.6757131
-1.5994442 -9.5682087 1.4452401
-1.4259491 -8.539464 0.44291848
-0.037499752 -0.074995384 8.1039648
-0.23821948 -1.2683855 8.2045317
-0.30715758 -1.6780939 8.2252417
-0.45451704 -2.5524802 8.3354864
-0.58228695 -3.3164735 7.9922018
-1.3630831 -7.8267388 14.626512
-1.2309033 -7.1339264 8.7440042
-0.066999145 -0.28315666 4.8712873
-0.098072574 -0.49389321 4.6531391
-0.38265172 -2.104501 8.2728968
-0.50823241 -2.8481607 7.9218044
-0.6692003 -3.7919018 8.0254087
-1.5439169 -8.81036 14.700828
-1.9426295 -11.131126 15.036911
-1.2906809 -7.4261608 8.2494593
-1.4814792 -8.676404 8.7294722
-1.8292531 -10.746957 8.8725328
-2.2979827 -13.514942 9.0725718
-2.3848834 -14.055659 7.5492115
-1.4178606 -8.3652458 3.5163012
-1.8187184 -10.741587 3.2922244
-1.6555427 -9.798605 1.9781626
-1.4883457 -8.8090105 0.8949886
-1.6593143 -9.6367292 8.790453
-2.0642099 -12.013194 8.9590693
-1.6958762 -9.8799191 5.9763112
-1.4316026 -8.3665524 4.0113339
-1.60408 -9.3843479 3.4026537
-1.7287177 -10.124118 2.5678599
-1.5653187 -9.1671724 1.3892951
-1.3868651 -8.1306 0.42639294
-0.037761308 -0.07486403 8.1039648
-0.24264552 -1.2675463 8.2045317
-0.31320029 -1.6780124 8.2301369
-0.46342409 -2.550878 8.3354864
-0.59386009 -3.3144209 7.9922018
-1.3899759 -7.8195744 14.622122
-1.2557977 -7.1295867 8.7440042
-0.068055563 -0.28320155 4.8762789
-0.09979599 -0.49354786 4.6531391
-0.38976616 -2.1019163 8.2680578
-0.51817125 -2.8463695 7.9218044
-0.68243241 -3.7895429 8.0254087
-1.5742022 -8.80235 14.696563
-1.980944 -11.121311 15.032921
-1.3160032 -7.418273 8.2457848
-1.5111439 -8.6676664 8.7259674
-1.8660891 -10.73667 8.8693943
-2.3444293 -13.502718 9.0698299
-2.2652819 -13.073907 7.0321193
-1.4478426 -8.3648129 3.5181739
-1.7205256 -9.9505043 3.0581591
-1.6153975 -9.3619423 1.8951595
-1.4420286 -8.3571835 0.85430437
-1.6929426 -9.6308794 8.790453
-2.1054327 -12.001934 8.9561262
-1.7191914 -9.8102474 5.9383135
-1.4607986 -8.3615036 4.0113339
-1.6368277 -9.3786917 3.4026537
-1.6772228 -9.6200275 2.4459388
-1.5122535 -8.6738062 1.3202271
-1.3835202 -7.9436011 0.41893628
-0.038022403 -0.074731767 8.1039648
-0.2470686 -1.2666916 8.2045317
-0.3188653 -1.6759087 8.2252417
-0.47205347 -2.5477772 8.3307142
-0.60542595 -3.3123276 7.9922018
-1.4172628 -7.8146749 14.622122
-1.281244 -7.1283145 8.7478418
-0.069043703 -0.28296226 4.8762789
-0.10162609 -0.49371848 4.6581101
-0.39710084 -2.100543 8.2680578
-0.52810383 -2.8445432 7.9218044
-0.69565618 -3.7871375 8.0254087
-1.6044505 -8.7942352 14.692296
-2.0192139 -11.111364 15.028932
-1.3412858 -7.4102974 8.2421103
-1.5413904 -8.6623392 8.7259674
-1.9035558 -10.730092 8.8693943
-2.3915484 -13.494452 9.0698299
-2.1319139 -12.05391 6.4941573
-1.4778392 -8.364274 3.5200469
-1.7452428 -9.8877487 3.0412385
-1.5705204 -8.9160099 1.8102911
-1.3735704 -7.797895 0.80378443
-1.7258911 -9.6212358 8.7871275
-2.1466024 -11.990533 8.9531832
-1.7496303 -9.7829685 5.9256477
-1.4907736 -8.3608217 4.013432
-1.6720399 -9.3868685 3.4075844
-1.6401135 -9.2169228 2.3486364
-1.4384122 -8.0834169 1.2373455
-1.3648969 -7.6780267 0.40825516
-0.038283035 -0.074598588 8.1039648
-0.25148869 -1.2658215 8.2045317
-0.32471338 -1.6747854 8.2252417
-0.48094398 -2.5461137 8.3307142
-0.61662638 -3.3082736 7.9875989
-1.4440969 -7.8073249 14.617733
-1.3066968 -7.1269512 8.7516794
-0.07003101 -0.28271952 4.8762789
-0.10334887 -0.49336073 4.6581101
-0.40443069 -2.0991442 8.2680578
-0.53802985 -2.8426826 7.9218044
-0.70887154 -3.7846863 8.0254087
-1.6346613 -8.7860184 14.68803
-2.0574384 -11.101284 15.02494
-1.3665289 -7.4022369 8.2384348
-1.5716183 -8.6569052 8.7259674
-1.9403058 -10.719551 8.8662558
-2.43715 -13.477791 9.0643463
-2.0394456 -11.300941 6.0976429
-1.508672 -8.3681889 3.5237932
-1.7117223 -9.5039091 2.928436
-1.5286341 -8.5043526 1.731951
-1.4007818 -7.7930527 0.80378443
-1.759465 -9.6151533 8.7871275
-2.1877177 -11.978992 8.9502401
-1.7628778 -9.662302 5.8572521
-1.5207615 -8.3600321 4.0155301
-1.6769329 -9.2276545 3.3533485
-1.5976067 -8.7998505 2.247817
-1.4383129 -7.9224286 1.2152437
-1.3417619 -7.3979335 0.39696944
-0.038543198 -0.0744645 8.1039648
-0.25590569 -1.2649359 8.2045317
-0.33036008 -1.6726429 8.2203474
-0.48982865 -2.5444195 8.3307142
-0.62817073 -3.3061011 7.9875989
-1.4713408 -7.802237 14.617733
-1.3321557 -7.1254973 8.755517
-0.071017452 -0.28247336 4.8762789
-0.10518195 -0.49351823 4.6630821
-0.41175559 -2.0977197 8.2680578
-0.54794943 -2.8407872 7.9218044
-0.72207826 -3.7821889 8.0254087
-1.6648341 -8.7776957 14.683765
-2.0956171 -11.091074 15.020951
-1.3923593 -7.3974214 8.2384348
-1.6011777 -8.6478605 8.7224627
-1.9770055 -10.708885 8.8631172
-1.730315 -9.3817997 6.3393297
-1.8583459 -10.095686 5.4599729
-1.5387117 -8.3674307 3.5256662
-1.6625419 -9.049655 2.7944827
-1.4794644 -8.068943 1.6489478
-1.3821718 -7.538301 0.78098339
-1.7923324 -9.6052818 8.783802
-2.2287791 -11.967308 8.9472971
-1.7847668 -9.5925179 5.8192544
-1.5482785 -8.3457479 4.0113339
-1.7082729 -9.2171021 3.3517051
-1.5486692 -8.3640757 2.1423085
-1.4199774 -7.6690259 1.180019
-1.3357723 -7.2212639 0.38991585
-0.038802896 -0.074329503 8.1039648
-0.26016265 -1.2632738 8.1995926
-0.33619669 -1.6714797 8.2203474
-0.49841997 -2.5412295 8.325942
-0.63933581 -3.30197 7.9829965
-1.4981145 -7.7947006 14.613343
-1.3588203 -7.13025 8.7670298
-0.072003037 -0.28222373 4.8762789
-0.10690401 -0.49314806 4.6630821
-0.41907549 -2.0962696 8.2680578
-0.55786228 -2.8388572 7.9218044
-0.73527616 -3.7796452 8.0254087
-1.6954639 -8.7718315 14.683765
-2.1331799 -11.077774 15.012971
-1.4188113 -7.3958454 8.2421103
-1.6306931 -8.6387138 8.7189579
-2.0143745 -10.701919 8.8631172
-1.7661443 -9.3921404 6.3502955
-1.7636485 -9.3968868 5.0912838
-1.5679101 -8.362009 3.5256662
-1.6208112 -8.6524477 2.6774502
-1.4164413 -7.5760431 1.5547532
-1.3535638 -7.2397213 0.75415868
-1.8258502 -9.5989666 8.783802
-2.2697852 -11.955484 8.9443541
-1.7845001 -9.4083471 5.7128611
-1.5824617 -8.3670492 4.0239224
-1.6588984 -8.7795563 3.1988587
-1.4840871 -7.861887 2.0203876
-1.373252 -7.2747331 1.1247647
-1.3183812 -6.9907255 0.38064545
-0.039062116 -0.074193604 8.1039648
-0.26457074 -1.262358 8.1995926
-0.34182477 -1.6692983 8.2154522
-0.5072875 -2.539474 8.325942
-0.65047985 -3.2978015 7.978394
-1.525314 -7.7894239 14.613343
-1.3843123 -7.1286092 8.7708673
-0.072987743 -0.28197068 4.8762789
-0.10862477 -0.49277192 4.6630821
-0.42639026 -2.094794 8.2680578
-0.5674296 -2.8352005 7.9171114
-0.74888837 -3.779191 8.0299101
-1.725569 -8.7632999 14.679499
-2.1712554 -11.067304 15.008982
-1.4446189 -7.3908482 8.2421103
-1.6601641 -8.629468 8.7154541
-2.0509858 -10.691001 8.8599796
-1.7713693 -9.2421846 6.2543445
-1.7881156 -9.3471632 5.0680957
-1.5979596 -8.3610382 3.5275393
-1.5556359 -8.1472731 2.5279868
-1.4428779 -7.5710526 1.5547532
-1.3452641 -7.0588431 0.73806381
-1.8586352 -9.5888691 8.7804766
-2.3115036 -11.947488 8.9443541
-1.7927872 -9.2750874 5.6368651
-1.6116585 -8.361475 4.0239224
-1.5859536 -8.2358236 3.0082116
-1.4766262 -7.675281 1.9758395
-1.3846036 -7.1969519 1.1144044
-1.3078846 -6.8045545 0.37318879
-0.03932086 -0.074056797 8.1039648
-0.26897559 -1.2614268 8.1995926
-0.34764966 -1.668095 8.2154522
-0.51614881 -2.537688 8.325942
-0.66198736 -3.2955108 7.978394
-1.5520265 -7.7817044 14.608954
-1.4085653 -7.1205897 8.7670298
-0.073971562 -0.28171417 4.8762789
-0.11022719 -0.49186966 4.6581101
-0.43369991 -2.0932927 8.2680578
-0.57697815 -2.8315113 7.9124188
-0.7620756 -3.7765539 8.0299101
-1.7561482 -8.7572231 14.679499
-2.2092836 -11.056702 15.004991
-1.4710711 -7.3890853 8.2457848
-1.6895906 -8.620121 8.7119493
-2.0875449 -10.679955 8.8568411
-1.8036197 -9.2359447 6.2543445
-1.7944591 -9.2060776 4.996213
-1.6173877 -8.3053551 3.5069358
-1.5254322 -7.8404312 2.4377444
-1.4262199 -7.3441505 1.5118526
-1.3357186 -6.8781137 0.72196901
-1.8920952 -9.5823231 8.7804766
-1.7826756 -9.0530634 5.5076733
-1.6443338 -8.3736124 4.0323148
-1.5937824 -8.1236591 2.9704111
-1.4473122 -7.3838887 1.9055005
-1.3706634 -6.9928312 1.0860865
-1.2932241 -6.6038346 0.36512756
-0.039579131 -0.073919088 8.1039648
-0.27337715 -1.2604802 8.1995926
-0.35347027 -1.6668713 8.2154522
-0.52500379 -2.5358708 8.325942
-0.67348683 -3.29318 7.978394
-1.5791802 -7.7762389 14.608954
-1.4308802 -7.1030607 8.7516794
-0.07495448 -0.28145427 4.8762789
-0.11194346 -0.4914819 4.6581101
-0.44100422 -2.0917661 8.2680578
-0.58650792 -2.8277903 7.9077258
-0.77525359 -3.7738709 8.0299101
-1.7867059 -8.7510395 14.679499
-2.2478652 -11.048923 15.004991
-1.4968548 -7.3839054 8.2457848
-1.718972 -8.610673 8.7084446
-2.1240523 -10.668787 8.8537025
-1.8138227 -9.1188631 6.1803246
-1.7567053 -8.8478136 4.8083901
-1.6220138 -8.1768808 3.4563639
-1.5052299 -7.5950766 2.3658326
-1.4070425 -7.1126404 1.4680195
-1.297868 -6.5607495 0.69335592
-1.9247961 -9.5719995 8.7771502
-2.1570094 -10.746136 8.0643492
-1.7973133 -8.9622536 5.4570098
-1.6361698 -8.1809053 3.9441965
-1.5619859 -7.8170557 2.8635828
-1.4445304 -7.2357945 1.8703309
-1.3553154 -6.7888985 1.0577687
-1.2781562 -6.4082022 0.35726783
-0.039836913 -0.073780484 8.1039648
-0.27777538 -1.2595183 8.1995926
-0.35950142 -1.6666226 8.2203474
-0.53354466 -2.532562 8.3211699
-0.68497807 -3.2908089 7.978394
-1.6063148 -7.7706795 14.608954
-0.076012708 -0.28146935 4.8812709
-0.11365837 -0.49108815 4.6581101
-0.44830313 -2.090214 8.2680578
-0.59601879 -2.8240373 7.9030328
-0.78842211 -3.7711418 8.0299101
-1.8167113 -8.742197 14.675233
-2.2858086 -11.038058 15.001001
-1.52125 -7.371995 8.2384348
-1.7483077 -8.6011248 8.7049398
-2.160507 -10.657493 8.850564
-1.8157603 -8.964941 6.0816321
-1.7120835 -8.4682207 4.6089735
-1.6184196 -8.012125 3.3908079
-1.4795377 -7.331152 2.288281
-1.3911173 -6.9054337 1.4288495
-1.3069928 -6.487833 0.68709677
-1.958197 -9.5652227 8.7771502
-2.1289535 -10.417768 7.8259525
-1.7492471 -8.5673475 5.2239575
-1.6583769 -8.1440125 3.9295096
-1.532776 -7.5339136 2.7649722
-1.4242727 -7.0068364 1.815232
-1.3375746 -6.5803075 1.0287601
-1.2517955 -6.1637979 0.34739283
-0.040094212 -0.07364098 8.1039648
-0.28217021 -1.258541 8.1995926
-0.36531681 -1.6653576 8.2203474
-0.54206878 -2.5292246 8.3163977
-0.6968658 -3.2903092 7.9829965
-1.6329366 -7.7626805 14.604565
-0.076994754 -0.28120232 4.8812709
-0.1153719 -0.49068844 4.6581101
-0.4555966 -2.0886364 8.2680578
-0.60551053 -2.8202524 7.8983402
-0.80158108 -3.7683666 8.0299101
-1.8466767 -8.7332506 14.670966
-2.323082 -11.024116 14.993021
-1.5455804 -7.3600044 8.2310839
-1.7775981 -8.5914774 8.7014351
-2.1961222 -10.642262 8.8442869
-1.8276221 -8.864356 6.0185781
-1.6916243 -8.2192163 4.4791207
-1.5894176 -7.7294312 3.2765529
-1.4462297 -7.0393095 2.2022691
-1.3658682 -6.6599317 1.3822184
-1.2736031 -6.2100391 0.66206038
-1.9900507 -9.5510187 8.7705002
-1.937301 -9.3141003 7.0106974
-1.7370403 -8.3586006 5.102365
-1.6223159 -7.8270903 3.7826462
-1.5111851 -7.2973142 2.682797
-1.4112985 -6.8209496 1.7706839
-1.3294315 -6.4252682 1.007349
-1.24195 -6.0077238 0.34114537
-0.040351022 -0.073500574 8.1039648
-0.28656164 -1.2575483 8.1995926
-0.37112778 -1.6640723 8.2203474
-0.55025816 -2.5244 8.3068542
-0.70875841 -3.2897666 7.9875989
-1.6600235 -7.7569332 14.604565
-0.077975869 -0.28093183 4.8812709
-0.11708401 -0.49028268 4.6581101
-0.46288455 -2.0870333 8.2680578
-0.61498314 -2.8164356 7.8936472
-0.81426978 -3.763418 8.0254087
-1.8766016 -8.7242012 14.666701
-2.3596539 -11.007099 14.98105
-1.5698454 -7.3479333 8.2237339
-1.8075773 -8.5852203 8.7014351
-2.2332571 -10.634531 8.8442869
-1.8053167 -8.6041985 5.8486075
-1.6630909 -7.9401107 4.3330359
-1.5717571 -7.5105681 3.1885204
-1.439375 -6.8839617 2.1571481
-1.3600001 -6.5156727 1.3551724
-1.2820444 -6.1421819 0.65624833
-2.0226035 -9.5403614 8.7671747
-1.8961517 -8.9592924 6.751699
-1.7082363 -8.0783463 4.9377079
-1.6018591 -7.5948973 3.6756456
-1.4899092 -7.0702019 2.6039083
-1.3910357 -6.6067028 1.719102
-1.2875736 -6.1153026 0.96383619
-1.2351445 -5.8713512 0.33570403
-0.040607341 -0.073359273 8.1039648
-0.291125 -1.2572973 8.2045317
-0.37693423 -1.6627667 8.2203474
-0.55874348 -2.5210066 8.3020821
-0.72023755 -3.2872725 7.9875989
-1.68709 -7.7510915 14.604565
-0.079035155 -0.28093553 4.8862619
-0.11892078 -0.49038899 4.6630821
-0.4701668 -2.0854049 8.2680578
-0.6244365 -2.8125873 7.8889542
-0.8269338 -3.7584264 8.0209074
-1.9070433 -8.717598 14.666701
-2.3967781 -10.992908 14.973071
-1.5947649 -7.3390961 8.2200584
-1.8375342 -8.5788584 8.7014351
-1.701908 -7.9659939 6.6505055
-1.7471733 -8.1848259 5.5717192
-1.6298606 -7.6483107 4.1799951
-1.5525882 -7.2919245 3.1004877
-1.4314538 -6.7287493 2.1120269
-1.3174254 -6.2033606 1.2954848
-2.0527446 -9.5186434 8.7538719
-1.8304309 -8.5021515 6.4161787
-1.6765913 -7.7941837 4.7705178
-1.5731367 -7.3318834 3.5539584
-1.4769652 -6.8895025 2.541455
-1.3835474 -6.4592223 1.6839324
-1.303726 -6.0865593 0.96038282
-1.2357666 -5.7741828 0.33187497
-0.040863167 -0.073217079 8.1039648
-0.29551199 -1.2562735 8.2045317
-0.38250735 -1.6604486 8.2154522
-0.56688374 -2.5161288 8.2925386
-0.73170787 -3.2847385 7.9875989
-1.7131011 -7.7404795 14.595788
-0.080015324 -0.28065795 4.8862619
-0.12063184 -0.48997086 4.6630821
-0.4774434 -2.083751 8.2680578
-0.63387054 -2.8087072 7.8842626
-0.83957297 -3.7533929 8.016407
-1.9368955 -8.7083416 14.662435
-2.4286139 -10.955056 14.93317
-1.6203735 -7.3334842 8.2200584
-1.8651915 -8.5619383 8.6909218
-1.7263981 -7.9447908 6.6379523
-1.7109669 -7.8803825 5.3715925
-1.6058751 -7.4087944 4.0547805
-1.5191565 -7.0146079 2.9881058
-1.4194235 -6.5596128 2.0626757
-1.3349222 -6.1795187 1.2917544
-1.2334092 -5.7095933 0.61735249
-1.7308193 -7.8921118 7.2773504
-1.7606784 -8.0416365 6.0777154
-1.650354 -7.5440335 4.6235938
-1.5522746 -7.1135073 3.4532521
-1.4587545 -6.690526 2.4724276
-1.3543544 -6.2168922 1.6253166
-1.2870166 -5.9077821 0.93551826
-1.2102238 -5.5599241 0.32320911
-0.041118495 -0.073073998 8.1039648
-0.29989541 -1.2552342 8.2045317
-0.38830104 -1.6591033 8.2154522
-0.57466346 -2.5097692 8.2782221
-0.74273777 -3.2802587 7.9829965
-1.7411613 -7.7391243 14.604565
-0.080994509 -0.28037694 4.8862619
-0.12234142 -0.48954681 4.6630821
-0.48442903 -2.0808475 8.2632179
-0.64328504 -2.8047955 7.8795695
-0.85266966 -3.7504396 8.016407
-1.9672813 -8.7015276 14.662435
-2.4728014 -10.972968 14.96908
-1.6459622 -7.3277836 8.2200584
-1.7440424 -7.8931079 6.6002903
-1.6789676 -7.6048779 5.1906557
-1.5840518 -7.1868453 3.9388404
-1.4718432 -6.6832876 2.8532474
-1.39489 -6.3391089 1.9978143
-1.3006227 -5.9205351 1.2423254
-1.2533319 -5.7052526 0.61735249
-1.7607951 -7.896955 7.2873268
-1.721988 -7.735589 5.8540349
-1.6270715 -7.3152051 4.4893355
-1.5407217 -6.9441066 3.3756239
-1.4391732 -6.4917636 2.4034002
-1.3245381 -5.9795928 1.567873
-1.2808564 -5.782382 0.91825128
-1.2145095 -5.4873753 0.32038769
-0.041349482 -0.072893471 8.0989656
-0.30427518 -1.2541798 8.2045317
-0.39409006 -1.6577376 8.2154522
-0.58274406 -2.5048404 8.2686777
-0.75418347 -3.2776461 7.9829965
-1.7660301 -7.7236619 14.587009
-0.082054757 -0.28036928 4.8912539
-0.12404951 -0.48911676 4.6630821
-0.49168956 -2.0791438 8.2632179
-0.65267998 -2.8008523 7.8748765
-0.86526579 -3.7453191 8.0119057
-1.9970596 -8.6920662 14.658169
-2.5117619 -10.967207 14.973071
-1.6722856 -7.3252988 8.2237339
-1.7596408 -7.8338041 6.5563521
-1.658802 -7.3908944 5.0508409
-1.5645735 -6.9824319 3.8321753
-1.4941504 -6.6735849 2.8513744
-1.3562678 -6.0626826 1.9160324
-1.3105739 -5.8680177 1.2329992
-1.2439308 -5.5696168 0.60528135
-1.7751451 -7.8324976 7.2341185
-1.694564 -7.489048 5.6745019
-1.6088663 -7.1160655 4.3728089
-1.5150242 -6.7173204 3.2707214
-1.421337 -6.3070416 2.3393035
-1.344335 -5.9701905 1.5667007
-1.2683973 -5.6329432 0.89753091
-1.2051442 -5.3563762 0.31514788
-0.041603673 -0.072748691 8.0989656
-0.30865124 -1.2531101 8.2045317
-0.39987424 -1.6563519 8.2154522
-0.59045386 -2.4984329 8.2543631
-0.76517522 -3.2730911 7.978394
-1.7924377 -7.7151165 14.58262
-0.083032936 -0.28008115 4.8912539
-0.12575608 -0.48868078 4.6630821
-0.49894413 -2.077415 8.2632179
-0.66205519 -2.7968776 7.8701839
-0.87833416 -3.742276 8.0119057
-2.0273883 -8.6850424 14.658169
-2.5500293 -10.958372 14.973071
-1.6986115 -7.3227191 8.2274094
-1.7956361 -7.8466606 7.9900122
-1.7375957 -7.6113176 6.3774605
-1.630654 -7.1486101 4.8918357
-1.5495901 -6.8041596 3.7394233
-1.4721756 -6.4694338 2.768961
-1.3774222 -6.0579119 1.9160324
-1.2082419 -5.3224206 0.58292741
-1.7966087 -7.8007841 7.2108402
-1.6744987 -7.2821875 5.5244007
-1.5796385 -6.8751316 4.2309513
-1.5060149 -6.5704298 3.2035837
-1.3937956 -6.085701 2.2620585
-1.2582252 -5.4981446 0.87888253
-1.1971065 -5.2352509 0.31031114
-0.041857362 -0.072603025 8.0989656
-0.31283489 -1.2512712 8.1995926
-0.40541103 -1.6539572 8.210557
-0.5984745 -2.4934537 8.2448187
-0.77614433 -3.2684994 7.9737911
-1.8012027 -7.6318922 14.437781
-0.084010094 -0.2797896 4.8912539
-0.12732606 -0.48772314 4.6581101
-0.50589478 -2.0744395 8.258379
-0.67100722 -2.7911937 7.8607979
-0.89139181 -3.739187 8.0119057
-2.0570908 -8.675375 14.653904
-2.5896518 -10.955268 14.98105
-1.7241622 -7.3167453 8.2274094
-1.8149383 -7.8056092 7.9549675
-1.7148986 -7.3928742 6.2017064
-1.609333 -6.9432759 4.757504
-1.5273892 -6.6001844 3.6327586
-1.4529719 -6.283586 2.6940396
-1.3564429 -5.8707833 1.8610411
-1.2642778 -5.4805884 1.1593223
-1.2033057 -5.2162671 0.57353872
-1.7778894 -7.5981441 7.0312629
-1.6474932 -7.0519462 5.3566408
-1.5703082 -6.7268462 4.1448231
-1.4846752 -6.3750625 3.1133673
-1.3754295 -5.9106255 2.2012486
-1.3001161 -5.591383 1.47526
-1.2426417 -5.3441944 0.85747147
-1.1904997 -5.123982 0.30587748
-0.042086322 -0.07242018 8.0939655
-0.31720072 -1.2501715 8.1995926
-0.41118193 -1.652532 8.210557
-0.60611397 -2.4869988 8.2305021
-0.78709072 -3.263871 7.9691887
-1.7904266 -7.4695134 14.143712
-0.084986225 -0.27949464 4.8912539
-0.12902774 -0.48727572 4.6581101
-0.51313281 -2.0726609 8.258379
-0.68033689 -2.7871583 7.8561053
-0.90495086 -3.7381687 8.016407
-2.0867503 -8.6656046 14.649637
-2.6292841 -10.952023 14.98903
-1.7425898 -7.2810092 8.1943321
-1.8192191 -7.702045 7.8568397
-1.6898057 -7.1708965 6.0228143
-1.5904323 -6.7544603 4.6341376
-1.5169631 -6.4525094 3.5562382
-1.4293085 -6.084414 2.6134992
-1.3484256 -5.7445893 1.8243802
-1.2766757 -5.4474459 1.1537265
-1.2169613 -5.1926408 0.5717504
-1.7439637 -7.3376122 6.7984781
-1.627301 -6.857379 5.2153692
-1.5520053 -6.5451555 4.0384297
-1.4755737 -6.2373433 3.050426
-1.3873625 -5.8690243 2.1881006
-1.3051001 -5.5253148 1.4600198
-1.2214454 -5.1711435 0.83329767
-1.1854262 -5.0225482 0.30184686
-0.042338863 -0.072272822 8.0939655
-0.32156271 -1.2490568 8.1995926
-0.41694784 -1.6510866 8.210557
-0.61479151 -2.4848678 8.2305021
-0.79847896 -3.2611036 7.9691887
-1.7700433 -7.2724009 13.783808
-0.085961327 -0.27919629 4.8912539
-0.13072787 -0.4868224 4.6581101
-0.52005821 -2.069638 8.2535391
-0.68923157 -2.7814164 7.8467202
-0.91799396 -3.734987 8.016407
-2.1163666 -8.655736 14.645371
-1.7743998 -7.3012362 8.2237339
-1.7978419 -7.4945121 7.6535764
-1.6649965 -6.9567575 5.8501997
-1.5712062 -6.5699306 4.5135131
-1.4993521 -6.2791371 3.4658051
-1.3924378 -5.8358841 2.5123553
-1.3339816 -5.5951929 1.7806692
-1.2062483 -5.0672464 0.5605734
-1.7240106 -7.1427436 6.6255522
-1.6057709 -6.6630406 5.0740976
-1.533463 -6.3678675 3.9345691
-1.4347813 -5.9717917 2.926641
-1.3461081 -5.6070104 2.0960641
-1.2948985 -5.3978357 1.4295396
-1.2256262 -5.1090631 0.82500952
-1.1773301 -4.9114966 0.29741317
-0.042590879 -0.0721246 8.0939655
-0.32592079 -1.2479267 8.1995926
-0.42245579 -1.6486348 8.2056618
-0.6234616 -2.4827065 8.2305021
-0.80938625 -3.2564011 7.9645867
-1.7994398 -7.2824531 13.814531
-0.086935379 -0.27889454 4.8912539
-0.13256688 -0.48687732 4.6630821
-0.52727938 -2.0678101 8.2535391
-0.69809437 -2.7756467 7.8373346
-0.93102586 -3.73176 8.016407
-2.1459396 -8.6457644 14.641105
-1.7909417 -7.2587919 8.1833076
-1.7682865 -7.2595053 7.422276
-1.6350369 -6.7277527 5.6650305
-1.5457782 -6.3653035 4.3791819
-1.4805497 -6.105968 3.3753719
-1.4149836 -5.8399987 2.5161014
-1.3286706 -5.4879308 1.7496485
-1.2384945 -5.1232686 1.0921736
-1.1993556 -4.9613533 0.55118477
-1.6938318 -6.9118423 6.4193716
-1.5877082 -6.4885697 4.9475417
-1.5208695 -6.2201033 3.8484411
-1.4287264 -5.8565168 2.8741896
-1.351133 -5.5426364 2.0746984
-1.2700192 -5.2138267 1.3849915
-1.2188408 -5.0037146 0.81050521
-1.1696551 -4.805419 0.293181
-0.042842384 -0.071975484 8.0939655
-0.33047399 -1.2475325 8.2045317
-0.42820802 -1.64715 8.2056618
-0.63212407 -2.4805152 8.2305021
-0.82074827 -3.2535558 7.9645867
-1.8225186 -7.2668352 13.796975
-0.087908372 -0.27858937 4.8912539
-0.13426559 -0.48641157 4.6630821
-0.53417927 -2.0647402 8.2487001
-0.70692521 -2.7698486 7.8279486
-0.9440465 -3.7284875 8.016407
-2.1748316 -8.6331615 14.632573
-1.7923844 -7.1571269 8.0767269
-1.7473859 -7.0663414 7.2330303
-1.6156204 -6.5481706 5.5206614
-1.5519724 -6.2949104 4.3353181
-1.472205 -5.9803243 3.3104455
-1.3921721 -5.6594572 2.4430532
-1.2905653 -5.2503395 1.6791469
-1.2458323 -5.0759783 1.0837799
-1.1905518 -4.8507352 0.54134905
-1.675583 -6.73559 6.2630725
-1.5674731 -6.3103852 4.8180423
-1.5051867 -6.0641384 3.7572467
-1.4066098 -5.6796818 2.7923656
-1.3307682 -5.37745 2.0171757
-1.2567064 -5.0819621 1.353339
-1.2125239 -4.9032845 0.79669166
-1.1600555 -4.6946054 0.28874734
-0.043093365 -0.071825504 8.0939655
-0.33482668 -1.2463713 8.2045317
-0.43395501 -1.6456453 8.2056618
-0.64077878 -2.4782937 8.2305021
-0.83210027 -3.2506709 7.9645867
-1.0645386 -4.1827955 7.977056
-0.088880301 -0.27828082 4.8912539
-0.13596267 -0.48593995 4.6630821
-0.54074496 -2.0604315 8.2390213
-0.71615684 -2.7656934 7.823256
-0.95705563 -3.7251694 8.016407
-2.2036619 -8.6204643 14.624041
-1.7756029 -6.9865417 7.8929691
-1.7199503 -6.8526621 7.022758
-1.6053725 -6.4103422 5.4108157
-1.5323163 -6.1231446 4.222918
-1.4608537 -5.8462186 3.2408814
-1.3827182 -5.5376196 2.3943543
-1.2949487 -5.1899509 1.6622264
-1.2362298 -4.9619684 1.0623298
-1.1846021 -4.7547369 0.53285456
-1.6442429 -6.5124903 6.0635424
-1.5608356 -6.1912136 4.7326908
-1.4852746 -5.8958197 3.6584527
-1.4120436 -5.6175165 2.7650907
-1.3357263 -5.3178129 1.9974536
-1.2637885 -5.0351152 1.3427881
-1.2043154 -4.7981577 0.78218734
-1.1436201 -4.5596895 0.283306
-0.043368664 -0.071710505 8.0989656
-0.33917531 -1.245195 8.2045317
-0.43969679 -1.6441205 8.2056618
-0.64904696 -2.4745979 8.2257299
-0.8434422 -3.2477465 7.9645867
-1.0767374 -4.1697788 7.9594998
-1.798275 -7.0091257 8.7401667
-0.089851134 -0.27796888 4.8912539
-0.13780393 -0.48597509 4.6680536
-0.54728711 -2.056102 8.2293425
-0.72536802 -2.7615077 7.818563
-0.97005302 -3.7218058 8.016407
-2.2324302 -8.6076717 14.615511
-1.748341 -6.7800522 7.6687837
-1.696326 -6.659997 6.8335123
-1.5893883 -6.2538033 5.2852769
-1.5104512 -5.9475422 4.1077762
-1.4485847 -5.7122674 3.1713173
-1.3690147 -5.4024372 2.3400364
-1.2883282 -5.0877428 1.6326158
-1.2318673 -4.8719001 1.0455426
-1.1767764 -4.6540122 0.52391297
-1.6317528 -6.369267 5.9371738
-1.5453713 -6.0408392 4.6237941
-1.4791538 -5.7861862 3.5951233
-1.3991122 -5.4850202 2.7042472
-1.2971287 -5.0889015 1.9169216
-1.2513629 -4.9129171 1.3134801
-1.1953881 -4.6931486 0.76768309
-1.1484388 -4.5120959 0.28149223
-0.04361872 -0.071558684 8.0989656
-0.34351975 -1.2440034 8.2045317
-0.44543314 -1.6425756 8.2056618
-0.65768099 -2.4723172 8.2257299
-0.85477382 -3.2447827 7.9645867
-1.0937139 -4.1752615 7.977056
-1.7985083 -6.9097495 8.625042
-0.090820879 -0.27765355 4.8912539
-0.13949946 -0.48549113 4.6680536
-0.55380553 -2.0517519 8.2196636
-0.73455876 -2.7572916 7.81387
-0.98248219 -3.7162924 8.0119057
-2.2617993 -8.5973034 14.611243
-1.7239498 -6.59024 7.4629745
-1.6740555 -6.4779415 6.6547804
-1.5694155 -6.0861492 5.1503234
-1.5019873 -5.8288579 4.0310154
-1.4331907 -5.5698943 3.097116
-1.3543847 -5.2674193 2.2857184
-1.2762351 -4.967061 1.5973649
-1.2146838 -4.7343426 1.0194292
-1.1707375 -4.5630488 0.5158655
-1.6107689 -6.1973023 5.7842002
-1.5329384 -5.9062996 4.5266695
-1.4657925 -5.6516333 3.5165946
-1.3886847 -5.3658648 2.6496978
-1.3066078 -5.05234 1.905417
-1.2453973 -4.8191051 1.2912061
-1.1869818 -4.5930562 0.75386947
-1.1454439 -4.4355006 0.27846923
-0.043868236 -0.071405992 8.0989656
-0.34786007 -1.2427968 8.2045317
-0.4511641 -1.6410108 8.2056618
-0.66630697 -2.4700065 8.2257299
-0.86609495 -3.2417791 7.9645867
-1.1076665 -4.1691036 7.9726667
-1.7874335 -6.7701707 8.4600296
-0.091881178 -0.2776086 4.8962455
-0.1411933 -0.48500124 4.6680536
-0.56030041 -2.0473819 8.2099848
-0.74372894 -2.7530448 7.8091784
-0.99544841 -3.7128401 8.0119057
-2.2904508 -8.5843163 14.602712
-1.6843444 -6.3482547 7.1983633
-1.6532481 -6.3064742 6.4865623
-1.5601134 -5.9639006 5.0530314
-1.4895409 -5.6981692 3.9460297
-1.4201775 -5.4405584 3.0298707
-1.3364888 -5.1235991 2.2276545
-1.2681556 -4.8650947 1.5677543
-1.2101663 -4.6492586 1.0035746
-1.1628237 -4.4673667 0.50737101
-1.5933645 -6.0436153 5.6478548
-1.5195855 -5.7719226 4.4295454
-1.4493167 -5.5089073 3.4329996
-1.3774431 -5.2468514 2.5951486
-1.2978735 -4.9472613 1.8692598
-1.2350942 -4.7112899 1.2654152
-1.1816589 -4.5074515 0.7421279
-1.1406627 -4.3541493 0.27524474
-0.044117223 -0.071252428 8.0989656
-0.35219613 -1.2415749 8.2045317
-0.45688954 -1.639426 8.2056618
-0.67531878 -2.4691052 8.2305021
-0.87689477 -3.2368505 7.9599843
-1.1222126 -4.1652117 7.9726667
-1.7629708 -6.5843124 8.2374544
-0.092849642 -0.27728617 4.8962455
-0.1428854 -0.48450539 4.6680536
-0.56677139 -2.0429912 8.2003059
-0.75333434 -2.750432 7.8091784
-1.0084026 -3.7093427 8.0119057
-2.3197207 -8.5737514 14.598447
-1.6721398 -6.2146606 7.0550313
-1.6312646 -6.1352329 6.3183441
-1.5389968 -5.8004093 4.9212165
-1.4772725 -5.571682 3.863786
-1.3915397 -5.2557135 2.9324811
-1.3069338 -4.9396348 2.1527331
-1.2422131 -4.698319 1.5184031
-1.2000543 -4.5452662 0.98398966
-1.1542566 -4.3717961 0.49887654
-1.5797296 -5.9081635 5.5281372
-1.5063564 -5.6416173 4.3353643
-1.4396423 -5.3955231 3.3671372
-1.3548777 -5.088511 2.5217166
-1.2957071 -4.8696866 1.8429636
-1.2253029 -4.6083045 1.2407964
-1.1757531 -4.4219413 0.73038638
-1.1366105 -4.2777157 0.2722218
-0.044365671 -0.071097992 8.0989656
-0.35652786 -1.240338 8.2045317
-0.46260941 -1.6378211 8.2056618
-0.68393344 -2.466733 8.2305021
-0.88818812 -3.2337699 7.9599843
-1.1367451 -4.1612692 7.9726667
-1.7355531 -6.3925228 8.0072041
-0.093816988 -0.27696037 4.8962455
-0.14457577 -0.48400369 4.6680536
-0.57355899 -2.0397902 8.195466
-0.76246881 -2.7461228 7.8044853
-1.020766 -3.7037015 8.0074043
-2.3496344 -8.5656023 14.598447
-1.6625929 -6.0943151 6.9264011
-1.6173904 -5.9986567 6.1851711
-1.5288944 -5.6822429 4.8270626
-1.4652253 -5.4493895 3.7842834
-1.3926457 -5.1866508 2.8976991
-1.3253697 -4.9395199 2.1546061
-1.2548786 -4.6800542 1.514173
-1.1943135 -4.4603829 0.96813506
-1.1463246 -4.2811508 0.49082911
-1.5681001 -5.7836919 5.418396
-1.4954054 -5.52318 4.2500129
-1.4246908 -5.2656293 3.2911417
-1.3548856 -5.0180264 2.4902461
-1.2880948 -4.7739515 1.8100934
-1.2097465 -4.4866738 1.2114885
-1.1718433 -4.3460903 0.72002614
-1.132039 -4.2013636 0.26919883
-0.044613581 -0.070942692 8.0989656
-0.36063784 -1.2383399 8.1995926
-0.46832365 -1.6361964 8.2056618
-0.69253975 -2.4643307 8.2305021
-0.89947069 -3.2306497 7.9599843
-1.1512637 -4.1572757 7.9726667
-1.7076694 -6.2040977 7.7807908
-0.094783194 -0.27663121 4.8962455
-0.14641917 -0.4840062 4.6730251
-0.58033109 -2.0365667 8.1906271
-0.77158237 -2.7417836 7.7997923
-1.0331023 -3.698019 8.002903
-2.3802183 -8.5598602 14.602712
-1.7520907 -6.3180661 8.7566128
-1.6486115 -5.9610419 6.7830691
-1.6044642 -5.8691339 6.0590081
-1.5138884 -5.5491991 4.720355
-1.4534426 -5.3312836 3.7075222
-1.3897957 -5.1048217 2.8559606
-1.3133947 -4.8275042 2.1096535
-1.244778 -4.5784354 1.4845623
-1.1725496 -4.3187084 0.94108909
-1.1442984 -4.2146454 0.48501709
-1.5516626 -5.6449747 5.295352
-1.4825766 -5.4009919 4.1617179
-1.4179736 -5.1691656 3.2354119
-1.3424346 -4.9038301 2.4377947
-1.2711077 -4.6464462 1.7657188
-1.2036105 -4.4027176 1.1915591
-1.1661127 -4.2655449 0.70897526
-1.1269482 -4.1250963 0.26617587
-0.044886541 -0.070821874 8.1039648
-0.36495829 -1.2370735 8.1995926
-0.47403222 -1.6345516 8.2056618
-0.70113766 -2.4618981 8.2305021
-0.91074222 -3.2274907 7.9599843
-1.1657684 -4.1532316 7.9726667
-1.678492 -6.0159473 7.554378
-0.09584371 -0.27657115 4.9012375
-0.14810777 -0.48349214 4.6730251
-0.58708769 -2.0333209 8.1857872
-0.78067499 -2.7374139 7.7950997
-1.0454115 -3.6922958 7.9984016
-2.4107907 -8.5540094 14.606978
-1.7464108 -6.2132835 8.6209517
-1.6309751 -5.8181491 6.6287122
-1.5820816 -5.7088451 5.9013033
-1.5010852 -5.4275851 4.6230626
-1.4386257 -5.2052684 3.6252785
-1.3840344 -5.0145364 2.8095849
-1.2784661 -4.6351905 2.0309861
-1.2416317 -4.5046935 1.4634118
-1.1797955 -4.2861724 0.93549335
-1.1405005 -4.1434054 0.47875795
-1.5342764 -5.506444 5.1723084
-1.4689132 -5.2789621 4.0734229
-1.4082909 -5.064507 3.1746156
-1.3364849 -4.8160224 2.3979316
-1.2570324 -4.5327706 1.7262745
-1.2020959 -4.3375964 1.176319
-1.1611569 -4.1898656 0.69861507
-1.1226727 -4.0537314 0.26335442
-0.045133483 -0.070664763 8.1039648
-0.36927423 -1.235792 8.1995926
-0.47973496 -1.6328869 8.2056618
-0.70972699 -2.4594357 8.2305021
-0.92200273 -3.2242918 7.9599843
-1.1802586 -4.149137 7.9726667
-1.661105 -5.8743429 7.3855286
-0.096808538 -0.27623489 4.9012375
-0.14995292 -0.48348123 4.6779966
-0.59382868 -2.0300529 8.1809483
-0.78974634 -2.7330143 7.7904067
-1.0576931 -3.6865315 7.9939003
-2.4420679 -8.5505581 14.615511
-1.7309408 -6.0767407 8.4414005
-1.6142148 -5.6819768 6.4817057
-1.5653512 -5.5728202 5.7681308
-1.492705 -5.3248687 4.5414629
-1.429715 -5.1035805 3.5594831
-1.375273 -4.9158225 2.7585711
-1.2896453 -4.6128411 2.023494
-1.2354044 -4.4217901 1.4394413
-1.172307 -4.2015924 0.91963881
-1.1362196 -4.0722451 0.47249889
-1.5230455 -5.3932576 5.0725436
-1.4555135 -5.1609855 3.9880712
-1.3943869 -4.9475331 3.1062195
-1.3029035 -4.6321998 2.3119113
-1.2345126 -4.3919759 1.6769693
-1.1975126 -4.2631817 1.1587343
-1.1556872 -4.1142735 0.68825483
-1.117913 -3.9824479 0.260533
-0.04537987 -0.070506789 8.1039648
-0.37336048 -1.2337518 8.1946535
-0.48543185 -1.6312023 8.2056618
-0.71830773 -2.4569433 8.2305021
-0.9327082 -3.219177 7.9553814
-1.1947347 -4.1449919 7.9726667
-1.6401018 -5.7236905 7.2051654
-0.097869545 -0.27616706 4.9062285
-0.15163967 -0.48295486 4.6779966
-0.60091126 -2.0279677 8.1809483
-0.79928154 -2.7302408 7.7904067
-1.0705551 -3.682817 7.9939003
-2.4704499 -8.5369711 14.606978
-1.7070184 -5.9143276 8.2259388
-1.5955863 -5.5427361 6.3310242
-1.5535493 -5.457562 5.6559849
-1.481499 -5.2147899 4.4535861
-1.4212545 -5.0060425 3.4964294
-1.3767152 -4.8555884 2.7284267
-1.2842542 -4.5324855 1.9916524
-1.2273067 -4.3343701 1.4140607
-1.1602323 -4.1029363 0.90098643
-1.1314558 -4.0011649 0.46623975
-1.5089891 -5.2730389 4.9661279
-1.4324226 -5.0120769 3.8791742
-1.3867871 -4.8555894 3.0530229
-1.3091118 -4.5927062 2.2951269
-1.249836 -4.38764 1.6769693
-1.1910938 -4.1841769 1.1399772
-1.1497042 -4.0387721 0.67789465
-1.1140364 -3.9160528 0.25791311
-0.045651663 -0.070383012 8.108964
-0.37766483 -1.2324411 8.1946535
-0.4908289 -1.6285231 8.2007656
-0.72730362 -2.4558523 8.2352743
-0.94338924 -3.2140272 7.950779
-1.2091961 -4.1407962 7.9726667
-1.6332605 -5.6255875 7.0900402
-0.098832957 -0.27582374 4.9062285
-0.15332457 -0.48242256 4.6779966
-0.60798657 -2.0258577 8.1809483
-0.80880696 -2.7274342 7.7904067
-1.0834041 -3.6790576 7.9939003
-2.5002344 -8.5282955 14.606978
-1.6836754 -5.7579417 8.0184574
-1.5779045 -5.4102049 6.1876926
-1.5370089 -5.3287497 5.5298209
-1.4684662 -5.1011147 4.3625708
-1.4098185 -4.9005899 3.4278929
-1.3581817 -4.727284 2.6611814
-1.2795974 -4.4566803 1.9616836
-1.217291 -4.2424507 1.3872701
-1.1637219 -4.0610838 0.89352548
-1.1275818 -3.9349563 0.46042773
-1.4972317 -5.1637435 4.869688
-1.4240505 -4.9177485 3.8114817
-1.368976 -4.7306337 2.9795606
-1.3037262 -4.5139832 2.2594602
-1.2271677 -4.2516789 1.6293075
-1.1868325 -4.1146107 1.1235647
-1.1432085 -3.9633629 0.66753447
-1.1097101 -3.8497341 0.25529319
-0.045897067 -0.070223235 8.108964
-0.38196453 -1.2311152 8.1946535
-0.49651054 -1.6267998 8.2007656
-0.73630071 -2.4547284 8.2400465
-0.9546026 -3.2107146 7.950779
-1.2236428 -4.1365499 7.9726667
-1.7787663 -6.0361872 9.3148785
-1.6203278 -5.5091519 6.95189
-0.099894419 -0.27574816 4.9112206
-0.15500762 -0.48188442 4.6779966
-0.61505443 -2.0237231 8.1809483
-0.81881911 -2.7262473 7.7950997
-1.0962397 -3.6752534 7.9939003
-1.6498481 -5.5700121 7.7670865
-1.5631592 -5.2908711 6.059062
-1.5275911 -5.2275062 5.431694
-1.4546585 -4.9875956 4.2715554
-1.4000041 -4.8033075 3.3648388
-1.3474364 -4.628942 2.6101677
-1.2731326 -4.3765135 1.9298422
-1.2106661 -4.164474 1.3647096
-1.1587156 -3.990953 0.88046873
-1.1232597 -3.868824 0.45461568
-1.4868346 -5.0617609 4.7798996
-1.4230025 -4.8506913 3.7643909
-1.3709271 -4.6761856 2.9491625
-1.2965328 -4.4309993 2.2216952
-1.222121 -4.1793833 1.6046548
-1.1711932 -4.007802 1.0977737
-1.1389786 -3.8975558 0.65855563
-1.1035342 -3.7786987 0.25247177
-0.046141915 -0.070062593 8.108964
-0.38625962 -1.2297745 8.1946535
-0.50188535 -1.624084 8.1958704
-0.74573272 -2.4549997 8.2495909
-0.96524084 -3.2054923 7.9461761
-1.2380747 -4.1322536 7.9726667
-1.7370455 -5.8196173 8.9925079
-1.6075177 -5.3959494 6.8175778
-0.10085635 -0.27539778 4.9112206
-0.15668875 -0.48134041 4.6779966
-0.62211478 -2.0215638 8.1809483
-0.82833052 -2.7233725 7.7950997
-1.1090621 -3.6714046 7.9939003
-1.6389749 -5.4632034 7.6274357
-1.5476009 -5.1717081 5.9304314
-1.5093873 -5.0990376 5.3055301
-1.4367676 -4.8630381 4.1711249
-1.3812398 -4.6780839 3.2825952
-1.3297569 -4.50949 2.5475602
-1.2648132 -4.2919993 1.8961276
-1.1926703 -4.0497823 1.3308687
-1.153234 -3.9209073 0.86741209
-1.1184897 -3.8027711 0.44880369
-1.4768091 -4.9634933 4.6934366
-1.415747 -4.764329 3.7025845
-1.3626975 -4.5887232 2.898499
-1.2887762 -4.3481216 2.1839304
-1.2367023 -4.1750922 1.6046548
-1.1741384 -3.9664035 1.0883951
-1.131492 -3.8223302 0.64819539
-1.0997106 -3.717335 0.25005341
-0.046359874 -0.069866315 8.1039648
-0.39031437 -1.2276783 8.1897135
-0.50755137 -1.6223223 8.1958704
-0.75517547 -2.455235 8.2591343
-0.97585434 -3.2002344 7.9415736
-1.2524914 -4.1279068 7.9726667
-1.7027923 -5.6330452 8.715601
-1.5930116 -5.2798357 6.6794276
-0.10171591 -0.27477366 4.9062285
-0.15820079 -0.48028436 4.6730251
-0.62916756 -2.0193799 8.1809483
-0.83833981 -2.7221136 7.7997923
-1.1218709 -3.6675107 7.9939003
-1.6265006 -5.3536563 7.4837952
-1.5322133 -5.0559635 5.8054757
-1.4933783 -4.981009 5.1898804
-1.4314162 -4.7834148 4.108356
-1.3724011 -4.5891051 3.2250245
-1.3201345 -4.4199305 2.5011845
-1.2559198 -4.2075973 1.8624129
-1.1972007 -4.0134168 1.3209985
-1.1486802 -3.8556566 0.85528803
-1.1161163 -3.7463443 0.4438858
-1.466116 -4.8653588 4.6069736
-1.4090712 -4.6819477 3.6437213
-1.3588407 -4.517889 2.8579681
-1.2804569 -4.2653522 2.1461654
-1.2227722 -4.0757661 1.5701411
-1.1698294 -3.9017549 1.073155
-1.1234945 -3.7472057 0.6378352
-1.0868684 -3.6273305 0.24642584
-0.046603475 -0.069704056 8.1039648
-0.39483556 -1.2270479 8.1946535
-0.51290375 -1.61957 8.1909752
-0.76462907 -2.4554343 8.2686777
-0.9870193 -3.1968086 7.9415736
-1.2661895 -4.1212206 7.9682784
-1.6771423 -5.4790735 8.4882889
-1.5786514 -5.1669555 6.5451145
-0.10267442 -0.27441692 4.9062285
-0.15987633 -0.47972921 4.6730251
-0.63621271 -2.0171714 8.1809483
-0.84732288 -2.7175233 7.7950997
-1.1346661 -3.6635723 7.9939003
-1.6177118 -5.2586651 7.3601041
-1.5080802 -4.914463 5.6511188
-1.4142377 -4.6666389 4.0142021
-1.3714428 -4.5282598 3.1866438
-1.3111858 -4.334734 2.4571271
-1.2451113 -4.1188741 1.8268254
-1.1806821 -3.9081876 1.2899778
-1.1422664 -3.7857838 0.84223133
-1.1104858 -3.6804459 0.43807378
-1.4536661 -4.7637892 4.5171852
-1.4006593 -4.5958056 3.5819151
-1.3444577 -4.4141479 2.7971718
-1.2715758 -4.1826954 2.1084003
-1.2164007 -4.0036998 1.5454886
-1.1664957 -3.8418357 1.0590873
-1.1121091 -3.6627073 0.62609363
-1.0908196 -3.5948305 0.24521665
-0.046846502 -0.069540955 8.1039648
-0.40032008 -1.2293559 8.2193489
-0.51793212 -1.6158308 8.1811857
-0.77319545 -2.4527502 8.2686777
-0.99817228 -3.1933439 7.9415736
-1.2805675 -4.1167755 7.9682784
-1.6729319 -5.3979254 8.3725662
-1.5635231 -5.0542412 6.4108019
-0.10363168 -0.27405685 4.9062285
-0.16154991 -0.47916821 4.6730251
-0.64325005 -2.0149384 8.1809483
-0.85680366 -2.7145488 7.7950997
-1.1474475 -3.6595893 7.9939003
-1.6055918 -5.15517 7.224443
-1.495049 -4.8120441 5.540864
-0.86785859 -2.8229294 2.9820161
-1.4179579 -4.6207428 3.9796793
-1.3651726 -4.4514871 3.1372974
-1.3003616 -4.2454195 2.4107511
-1.2336991 -4.0302777 1.7912377
-1.1746705 -3.8398213 1.2702373
-1.1382496 -3.7253993 0.83103991
-1.1073192 -3.6241584 0.43315592
-1.441628 -4.6659341 4.4307222
-1.3916637 -4.5097809 3.5201087
-1.3306379 -4.3146825 2.7389088
