# .PCD v0.7 - Point Cloud Data file format
VERSION 0.7
FIELDS x y z
SIZE 4 4 4
TYPE F F F
COUNT 1 1 1
WIDTH 1482
HEIGHT 1
VIEWPOINT 0 0 0 1 0 0 0
POINTS 1482
DATA ascii
-0.2079221 -0.63451946 6.1843624
-1.1236999 -3.6965401 8.0524168
-1.4435102 -4.7693586 8.2208748
-1.7800173 -5.895916 8.229929
-1.9359325 -6.4285045 7.3563952
-1.8502307 -6.2105975 6.4480124
-0.88501441 -2.9764364 2.5862045
-1.4751607 -4.9642558 3.4799805
-1.3817377 -4.6557975 2.6287181
-1.2999851 -4.383121 1.9354613
-1.1479335 -3.8729222 1.2772875
-1.1879621 -4.0130925 0.88606447
-1.132193 -3.8246889 0.45103908
-0.8728202 -2.9149492 2.7912505
-0.93880218 -3.1392581 2.4694004
-1.4225501 -4.7598095 3.0048926
-1.3313919 -4.4632926 2.2405777
-1.13876 -3.8199489 1.4764612
-1.1879984 -3.9876399 1.0942568
-1.163612 -3.9057763 0.66062766
-1.1247298 -3.7776568 0.2526733
-0.035161957 -0.054877419 5.9590464
-0.70183939 -2.229399 11.260283
-1.0427654 -3.3983693 8.4340439
-1.3681055 -4.4807558 8.6529741
-1.8534863 -6.0931249 9.4264688
-1.9365375 -6.3780928 8.0570917
-0.1259746 -0.33782595 6.0742769
-0.21013573 -0.63378978 6.1843624
-1.4502141 -4.7318745 8.1654177
-1.7953012 -5.8723779 8.2059898
-1.9039696 -6.2433577 7.1542606
-1.8276014 -6.0572891 6.2973166
-0.89427626 -2.9696021 2.583066
-1.4659687 -4.8709884 3.4196684
-1.3737528 -4.5703425 2.584661
-1.2819338 -4.2675581 1.8886355
-1.1642042 -3.8780806 1.2801076
-1.1822125 -3.9430468 0.87300777
-1.1369553 -3.7920923 0.4483566
-0.88299 -2.9118848 2.7912505
-0.9204635 -3.0392501 2.3958213
-1.4016912 -4.6310368 2.9288971
-1.3207128 -4.371726 2.1986165
-1.1575465 -3.834033 1.4830352
-1.1976984 -3.9695084 1.0907398
-1.1586425 -3.8400583 0.65164882
-1.1206017 -3.7163091 0.25025493
-0.035353299 -0.054754347 5.9590464
-0.70930791 -2.2259653 11.255387
-0.71177685 -2.2717729 7.6578641
-1.0505639 -3.3816493 8.4018259
-1.3780786 -4.4576478 8.6178617
-1.8134441 -5.8876071 9.1206303
-1.9550215 -6.3590393 8.0417414
-0.12715307 -0.33738416 6.0742769
-0.21234679 -0.63305241 6.1843624
-1.4620849 -4.7118382 8.1398211
-1.8131155 -5.8574395 8.1940193
-1.8747393 -6.0714717 6.9668274
-1.7987145 -5.8871641 6.1290984
-0.90350127 -2.962739 2.5799274
-1.4537055 -4.7698464 3.353873
-1.3638986 -4.480763 2.538285
-1.2860287 -4.2275753 1.8736513
-1.1763387 -3.8694034 1.2786975
-1.1759886 -3.8730912 0.85995114
-1.132823 -3.7309186 0.44299164
-0.89314902 -2.9087849 2.7912505
-0.92514122 -3.0166972 2.3811057
-1.401426 -4.572535 2.8959658
-1.3120664 -4.2889695 2.1608515
-1.1805872 -3.8615801 1.4945397
-1.1945038 -3.9095221 1.0766721
-1.1517816 -3.7696874 0.64197928
-1.1160593 -3.6550372 0.24783656
-0.035544209 -0.054630607 5.9590464
-0.71676105 -2.2225065 11.250492
-0.71609169 -2.2578919 7.6196885
-1.3900532 -4.4413819 8.5959158
-1.7770172 -5.6985641 8.8395901
-1.9533912 -6.2756658 7.9458036
-0.12832998 -0.33693826 6.0742769
-0.21438366 -0.63180268 6.1793909
-1.4808683 -4.7141709 8.1526194
-1.8245399 -5.8223209 8.1541185
-1.8453445 -5.9031048 6.7830691
-1.7676089 -5.7139091 5.957376
-0.91383761 -2.9595671 2.5799274
-1.4407547 -4.6688509 3.2880781
-1.3534359 -4.3913088 2.4919093
-1.2775781 -4.1477418 1.8418096
-1.1983064 -3.8927824 1.2871578
-1.1692909 -3.8032279 0.84689444
-1.1312046 -3.6793411 0.43852085
-0.90329713 -2.9056494 2.7912505
-0.93926167 -3.0250299 2.389935
-1.3918264 -4.4852734 2.8453023
-1.3015161 -4.2019925 2.1209886
-1.1940594 -3.8574357 1.4945397
-1.1894686 -3.8449631 1.0614319
-1.1459072 -3.7041428 0.63300043
-1.1125784 -3.5986156 0.24561971
-0.035734691 -0.054506205 5.9590464
-0.7241987 -2.2190232 11.245597
-0.7239688 -2.2553785 7.6196885
-1.030881 -3.2383368 8.0658417
-1.7350576 -5.4964318 8.5378847
-1.9463868 -6.1770978 7.8306789
-0.12950534 -0.33648825 6.0742769
-0.21658775 -0.63105047 6.1793909
-1.8320969 -5.7757058 8.098259
-1.8291173 -5.7802691 6.6507635
-1.7406453 -5.557961 5.8031754
-0.92300159 -2.9526443 2.5767891
-1.4258698 -4.5640135 3.2195413
-1.3436852 -4.3062119 2.4478519
-1.2741066 -4.0857229 1.8174602
-1.1976142 -3.8427777 1.2730573
-1.1635799 -3.7381496 0.83477044
-1.1247998 -3.6135557 0.43270883
-0.91343427 -2.9024787 2.7912505
-0.94496685 -3.0063088 2.3781624
-1.3829268 -4.4022474 2.7971718
-1.2930905 -4.1238031 2.0853217
-1.2159899 -3.8802807 1.5044008
-1.1825447 -3.7758491 1.0450194
-1.1381094 -3.6339605 0.62333095
-1.1102099 -3.5470319 0.24360441
-0.035924736 -0.054381132 5.9590464
-0.73162073 -2.2155149 11.240702
-0.72722447 -2.2386413 7.571969
-1.0397819 -3.2272801 8.0474319
-1.7165474 -5.3723989 8.3560343
-1.9396918 -6.0817094 7.7193909
-0.1306791 -0.33603415 6.0742769
-0.2187892 -0.63029063 6.1793909
-1.3527291 -4.1859417 9.1597147
-1.7454517 -5.4236774 9.38974
-1.8384296 -5.7262402 8.0384083
-1.8027483 -5.628562 6.4853811
-1.7126154 -5.4022732 5.6489758
-0.93330258 -2.9494047 2.5767891
-1.4127929 -4.4673128 3.1564877
-1.3293542 -4.2085657 2.3968382
-1.267427 -4.0149374 1.7893648
-1.2066908 -3.8248496 1.2688273
-1.1559529 -3.668473 0.82171369
-1.1209433 -3.5573604 0.42779097
-0.9235602 -2.8992724 2.7912505
-0.95545506 -3.0029919 2.3781624
-1.3682395 -4.3029065 2.7389088
-1.2772698 -4.0240965 2.0391645
-1.2295272 -3.8760126 1.5044008
-1.1751531 -3.7068312 1.028607
-1.1298358 -3.5638781 0.61366141
-1.1059861 -3.490746 0.24138756
-0.036141336 -0.054289687 5.9640465
-0.7390272 -2.211982 11.235807
-0.74249387 -2.2587776 7.6483207
-1.697193 -5.2485638 8.1741848
-1.9382628 -6.0047455 7.6311283
-0.13185129 -0.33557594 6.0742769
-0.22098799 -0.62952304 6.1793909
-0.94871539 -2.8825462 8.3066111
-1.3781594 -4.2143002 9.2317343
-1.7692192 -5.4324312 9.4153366
-1.8267477 -5.6223521 7.9027476
-1.7816156 -5.4964614 6.3420496
-1.6889683 -5.2638288 5.5122986
-0.94240487 -2.9424217 2.5736506
-1.3952341 -4.3588119 3.0852096
-1.3224524 -4.1363893 2.3597374
-1.2588577 -3.9398334 1.7593961
-1.1923084 -3.733789 1.2420366
-1.1523318 -3.612936 0.81145489
-1.1136817 -3.4917474 0.42197895
-0.93367487 -2.8960311 2.7912505
-0.96345365 -2.9919436 2.3722761
-1.3608 -4.2283444 2.6958447
-1.276039 -3.9720819 2.0160861
-1.2185092 -3.7952628 1.4764612
-1.1702645 -3.6471682 1.0145392
-1.1210872 -3.4938986 0.60399187
-1.1029085 -3.439291 0.23937225
-0.036330618 -0.054163203 5.9640465
-0.5886386 -1.715292 11.528652
-0.74641776 -2.2084243 11.230912
-0.75649923 -2.2745852 7.7103562
-1.6778705 -5.1276054 7.9964676
-1.9054675 -5.8334155 7.4239035
-0.13302186 -0.33511364 6.0742769
-0.22318411 -0.62874782 6.1793909
-0.95713562 -2.8743052 8.2925329
-1.3894423 -4.1991305 9.2092285
-1.8036808 -5.4732847 9.4963884
-1.8247159 -5.5501037 7.810977
-1.7564131 -5.3549151 6.1876926
-1.6654774 -5.1290088 5.3791256
-0.95267016 -2.9391143 2.5736506
-1.3756467 -4.2465115 3.0111899
-1.3150635 -4.0643134 2.3226366
-1.2526327 -3.873661 1.7331737
-1.1905826 -3.6839588 1.2279364
-1.1468283 -3.5527947 0.80026346
-1.1090355 -3.4357076 0.41706106
-0.9426201 -2.8892045 2.787925
-0.97263926 -2.9847193 2.369333
-1.3368373 -4.1047015 2.6223824
-1.2716545 -3.911494 1.9888114
-1.2113204 -3.7281115 1.453452
-1.1649739 -3.587585 1.0004715
-1.1225702 -3.4569943 0.59915715
-1.0979433 -3.3831489 0.23715542
-0.03651946 -0.054036051 5.9640465
-0.59334809 -1.7095568 11.503957
-0.75379258 -2.2048419 11.226017
-0.76252991 -2.2662716 7.6912684
-1.2861102 -3.87097 7.5425372
-1.6780689 -5.0682898 7.9138093
-1.8785414 -5.6836929 7.2435403
-0.13419081 -0.33464727 6.0742769
-0.22537747 -0.62796491 6.1793909
-0.96661198 -2.8693113 8.2878399
-1.3591691 -4.0600734 8.9166498
-1.8062763 -5.4174733 9.4110708
-1.8250556 -5.4865155 7.7311764
-1.7409233 -5.2457886 6.0700879
-1.6688985 -5.0791197 5.3335667
-0.96171063 -2.9320726 2.5705123
-1.3565955 -4.1383758 2.9399118
-1.305809 -3.9881301 2.283217
-1.2416359 -3.7943628 1.7013322
-1.1840501 -3.620508 1.2096059
-1.1424446 -3.4974058 0.79000467
-1.1055584 -3.3844771 0.4125903
-0.95269954 -2.8858967 2.787925
-0.98178607 -2.9774673 2.3663898
-1.3376644 -4.0590677 2.5970509
-1.2668625 -3.8509853 1.9615366
-1.2036781 -3.6610579 1.4304429
-1.1592817 -3.5280838 0.98640358
-1.1191719 -3.406009 0.59225035
-1.0941585 -3.3318303 0.23514012
-0.036707863 -0.053908248 5.9640465
-0.5982821 -1.7045429 11.484199
-0.76148432 -2.2021973 11.226017
-0.7646634 -2.246639 7.6340041
-1.2957991 -3.8551066 7.5205922
-1.691281 -5.0490594 7.8931441
-1.8434784 -5.5129533 7.0363154
-0.13535814 -0.33417681 6.0742769
-0.2275681 -0.62717438 6.1793909
-0.9794054 -2.8740869 8.3113041
-1.2706807 -3.7522051 8.2549706
-1.7793288 -5.275218 9.1764431
-1.844196 -5.4801116 7.7311764
-1.7225354 -5.1304097 5.9451323
-1.6382387 -4.9277458 5.1828709
-0.97071356 -2.9250035 2.5673738
-1.3315408 -4.0145507 2.8576679
-1.2974322 -3.9162672 2.2461164
-1.2344726 -3.7283921 1.6751097
-1.1770893 -3.5571482 1.1912755
-1.1361467 -3.4374278 0.77881318
-1.1048629 -3.3427706 0.40901366
-0.96158463 -2.8790121 2.7845998
-0.99345267 -2.9778564 2.369333
-1.3300081 -3.9889421 2.5565197
-1.2602307 -3.7862525 1.9321641
-1.1970731 -3.5985839 1.4090773
-1.1547221 -3.4732795 0.97350812
-1.1154312 -3.3550897 0.58534348
-1.0900291 -3.28058 0.23312481
-0.036868345 -0.053745881 5.9590464
-0.60448843 -1.7031763 11.489139
-0.76883054 -2.1985645 11.221122
-0.77201509 -2.2425451 7.6292324
-1.3038509 -3.8346877 7.4898686
-1.7125077 -5.0537858 7.9096761
-1.8226537 -5.3880715 6.8866525
-0.13652381 -0.3337023 6.0742769
-0.22975598 -0.62637621 6.1793909
-0.98605746 -2.8608618 8.2831469
-1.2703661 -3.7086174 8.1694479
-1.7514108 -5.1332178 8.9418173
-1.8594297 -5.4622312 7.7152166
-1.7011827 -5.0088029 5.8128257
-1.6235965 -4.827352 5.084744
-0.97967905 -2.9179075 2.5642354
-1.3202714 -3.9345589 2.8055799
-1.2913854 -3.8529122 2.2136531
-1.2136115 -3.6229563 1.63203
-1.1742698 -3.5075288 1.1771752
-1.1310021 -3.3821955 0.76855439
-1.1007311 -3.2916646 0.40454286
-0.97162831 -2.875638 2.7845998
-0.99867094 -2.9590516 2.3575604
-1.3232566 -3.9230051 2.5185223
-1.2502656 -3.7130103 1.898595
-1.1870346 -3.5272508 1.3844247
-1.1513436 -3.4231572 0.9617849
-1.1113489 -3.3042388 0.57843673
-1.0839635 -3.224664 0.23090796
-0.037055727 -0.053616859 5.9590464
-0.6106925 -1.7017871 11.494078
-0.77650034 -2.1958673 11.221122
-0.77836555 -2.2356074 7.6149163
-1.3195652 -3.8369067 7.5030355
-1.727401 -5.0397916 7.8972769
-1.8030554 -5.2694702 6.7446651
-0.1376878 -0.3332237 6.0742769
-0.23194103 -0.62557036 6.1793909
-0.99546975 -2.855773 8.2784548
-1.2647737 -3.6506791 8.0524168
-1.7199715 -4.9840832 8.6943932
-1.8667129 -5.4215183 7.667336
-1.6867131 -4.9098535 5.7062459
-0.93858677 -2.7588029 2.9434662
-0.98860663 -2.9107842 2.5610969
-1.3003954 -3.8309381 2.7370431
-1.2849126 -3.7896483 2.18119
-1.2158353 -3.5879626 1.6189187
-1.1695794 -3.4534292 1.1616648
-1.1270601 -3.3316946 0.75922817
-1.0962563 -3.2406282 0.40007207
-0.97924507 -2.8651628 2.7779486
-1.3160616 -3.8571649 2.4805245
-1.2412686 -3.6441817 1.8671243
-1.1856436 -3.4828532 1.3696331
-1.1460639 -3.3685002 0.94888943
-1.1069255 -3.2534578 0.57152992
-1.0791295 -3.1735611 0.22889265
-0.037242662 -0.053487182 5.9590464
-0.61662918 -1.699645 11.494078
-0.78416061 -2.1931436 11.221122
-0.78566879 -2.2314689 7.6101446
-1.3290162 -3.8209672 7.4810901
-1.7412958 -5.0230956 7.8807454
-1.7847483 -5.1571302 6.610352
-0.13885015 -0.33274108 6.0742769
-0.23412327 -0.62475693 6.1793909
-1.0037109 -2.8473983 8.2643766
-1.2717502 -3.6298063 8.016407
-1.6875128 -4.8352323 8.446969
-1.8717526 -5.3751302 7.6114759
-1.6693486 -4.8046632 5.5923162
-0.95053208 -2.762254 2.950475
-0.99749649 -2.9036348 2.5579584
-1.3096864 -3.8145111 2.7288189
-1.2780138 -3.7264767 2.1487267
-1.2118173 -3.5354571 1.5983154
-1.1660806 -3.403944 1.1475645
-1.1211891 -3.2766159 0.74896938
-1.0930511 -3.1943762 0.39604837
-0.98802048 -2.8581982 2.7746229
-1.1274858 -3.2653 2.5988996
-1.3084229 -3.7914226 2.4425268
-1.225893 -3.5582979 1.8272614
-1.1824199 -3.4340448 1.3531979
-1.1419986 -3.3185184 0.93716627
-1.1021613 -3.2027488 0.56462312
-1.0755768 -3.1272557 0.22707887
-0.037429139 -0.053356856 5.9590464
-0.62282592 -1.6982117 11.499017
-0.79215759 -2.1913507 11.226017
-0.79295254 -2.2273066 7.6053724
-1.3391668 -3.8072674 7.4635334
-1.744854 -4.9771538 7.8187513
-1.7646205 -5.0419579 6.4722018
-0.14001077 -0.33225435 6.0742769
-0.23649177 -0.62443423 6.1843624
-1.0113262 -2.8373752 8.2456045
-1.287321 -3.6335523 8.0344114
-1.6601124 -4.7038856 8.2294064
-1.8544722 -5.2662458 7.4678349
-1.6512707 -4.6996546 5.4783859
-0.95313489 -2.7387109 2.9294479
-1.005071 -2.8927817 2.5516815
-1.3175068 -3.794116 2.7178531
-1.2706902 -3.6634009 2.1162636
-1.2013737 -3.4655027 1.5702199
-1.1606802 -3.3499932 1.1320541
-1.1165541 -3.2262609 0.73964316
-1.0895364 -3.1481864 0.39202464
-0.99552697 -2.8476827 2.7679722
-1.1601987 -3.3224006 2.6459901
-1.3017622 -3.7298522 2.4070623
-1.2278531 -3.5239961 1.8125749
-1.180423 -3.3897607 1.3384063
-1.1375984 -3.2686062 0.92544305
-1.0970566 -3.152113 0.55771631
-1.0717142 -3.0810149 0.2252651
-0.037615165 -0.053225879 5.9590464
-0.62875003 -1.6960273 11.499017
-0.80015159 -2.1895285 11.230912
-0.80021673 -2.2231205 7.6006007
-1.3548565 -3.8093398 7.4767013
-1.7518739 -4.9418573 7.7732887
-1.7447808 -4.9300132 6.3378897
-0.14116971 -0.33176363 6.0742769
-0.23867001 -0.62360495 6.1843624
-1.0247351 -2.8435686 8.2737617
-1.2999966 -3.6290367 8.0344114
-1.6405821 -4.5973539 8.0545034
-1.8667789 -5.2427087 7.4438949
-1.6336153 -4.5980263 5.3681312
-0.96742493 -2.7488229 2.9434662
-1.0138723 -2.8855834 2.548543
-1.3307427 -3.7894943 2.7178531
-1.2614754 -3.5962412 2.0814815
-1.2027268 -3.4306643 1.5571086
-1.1565039 -3.3006494 1.1179538
-1.1132042 -3.1806157 0.73124957
-1.0840677 -3.0973604 0.38755387
-1.0017277 -2.8336296 2.7579958
-1.1852481 -3.3564436 2.6754217
-1.2932531 -3.6643095 2.3690646
-1.2250639 -3.4768834 1.7915945
-1.1749947 -3.3366253 1.3203278
-1.132864 -3.2187662 0.91371989
-1.0916123 -3.1015525 0.5508095
-1.0692 -3.0395525 0.22365285
-0.037828781 -0.053127673 5.9640465
-0.63466638 -1.6938223 11.499017
-0.8084954 -2.188632 11.240702
-0.80695099 -2.2175083 7.5910568
-1.3681453 -3.8045871 7.4767013
-1.744426 -4.8668385 7.665832
-1.7231009 -4.8152509 6.1997395
-0.14232692 -0.33126882 6.0742769
-0.24065275 -0.622271 6.1793909
-1.0358362 -2.8432169 8.2831469
-1.3126565 -3.6244767 8.0344114
-1.6309505 -4.5204554 7.9307909
-1.8432188 -5.1199203 7.280304
-1.6118326 -4.4870081 5.2468505
-0.97462273 -2.7387094 2.9364569
-1.3257724 -3.7336011 2.682214
-1.2518077 -3.5291922 2.0466995
-1.1992044 -3.3827503 1.5383784
-1.1519974 -3.2513757 1.1038535
-1.1095495 -3.1350334 0.72285599
-1.0799192 -3.0513058 0.38353014
-1.0090991 -2.8230839 2.7513447
-1.1983163 -3.3560927 2.6783648
-1.2857515 -3.6029329 2.3336003
-1.221961 -3.4298327 1.7706139
-1.1692098 -3.2835691 1.3022492
-1.1294253 -3.1735785 0.90316904
-1.0874888 -3.0557344 0.54459339
-1.0664095 -2.9981449 0.22204059
-0.038013998 -0.052995302 5.9640465
-0.6402998 -1.6908699 11.494078
-0.81648654 -2.1867507 11.245597
-0.81365579 -2.2118762 7.5815125
-1.1019236 -3.0179892 7.628602
-1.3830541 -3.8042898 7.4854794
-1.7403113 -4.802515 7.5749073
-1.7006416 -4.7007008 6.0615892
-0.14336677 -0.33050543 6.0692849
-0.24282342 -0.62142718 6.1793909
-1.0469475 -2.8428226 8.2925329
-1.3282943 -3.6280496 8.0524168
-1.6136527 -4.4240804 7.7729516
-1.8198556 -5.0001931 7.1207023
-1.59161 -4.3825727 5.1329207
-0.9841767 -2.7352908 2.9364569
-1.1471612 -3.1934631 2.8184502
-1.3077117 -3.6423707 2.621902
-1.2401921 -3.4580851 2.0095987
-1.1953624 -3.3349035 1.519648
-1.1455435 -3.1976588 1.0883431
-1.1072453 -3.0941412 0.71539503
-1.0771403 -3.0100074 0.3799535
-1.0138712 -2.8054984 2.7380426
-1.2113963 -3.3556912 2.681308
-1.2778373 -3.5416539 2.2981355
-1.2154686 -3.3743072 1.7454373
-1.1614696 -3.2261519 1.2825271
-1.1240395 -3.1238813 0.89144588
-1.083059 -3.0099833 0.53837729
-1.063343 -2.9567947 0.22042835
-0.038198758 -0.052862287 5.9640465
-0.64619815 -1.6886245 11.494078
-0.82555306 -2.1876976 11.265179
-0.81981081 -2.2048256 7.5671968
-1.1077161 -3.0012949 7.5963845
-1.3979776 -3.8039348 7.494257
-1.7396406 -4.7488499 7.5005145
-1.6796064 -4.5923886 5.9311142
-0.14451958 -0.33000299 6.0692849
-0.24499112 -0.62057579 6.1793909
-1.0574665 -2.8407681 8.297225
-1.3424615 -3.6274738 8.0614185
-1.6119428 -4.3719277 7.6918988
-1.7977607 -4.8863497 6.9690819
-1.5870354 -4.3228884 5.0704427
-0.99249947 -2.7284873 2.9329524
-1.1769034 -3.2406588 2.8623886
-1.2876037 -3.5473819 2.5588479
-1.2416855 -3.424583 1.9933671
-1.1912012 -3.2871249 1.5009177
-1.141996 -3.1530476 1.0756528
-1.1029981 -3.0486841 0.70700145
-1.0740865 -2.9687657 0.37637687
-1.023658 -2.8019421 2.7380426
-1.2244884 -3.3552394 2.6842513
-1.2709885 -3.4845243 2.2652042
-1.2101566 -3.3231339 1.7223587
-1.1565731 -3.1777039 1.2660919
-1.1199824 -3.0788288 0.88089502
-1.080016 -2.9689548 0.53285182
-1.0600011 -2.9155033 0.2188161
-0.038383048 -0.052728627 5.9640465
-0.65180826 -1.6856339 11.489139
-0.83354741 -2.1857538 11.270074
-0.82645166 -2.1991558 7.5576525
-1.1209176 -3.0047319 7.6147947
-1.4170855 -3.8147473 7.524981
-1.7513205 -4.7295532 7.4798489
-1.666728 -4.5083327 5.8313389
-0.14567062 -0.32949653 6.0692849
-0.24695805 -0.61922175 6.1744189
-1.0679839 -2.8386748 8.301918
-1.6271939 -4.3662744 7.6918988
-1.7727928 -4.7670741 6.8094811
-1.5738075 -4.2410417 4.9822388
-1.0007869 -2.7216592 2.9294479
-1.1211354 -3.0538385 2.7054658
-1.2913359 -3.5193124 2.5423992
-1.2368622 -3.3744767 1.9678603
-1.1867212 -3.2394168 1.4821874
-1.1365017 -3.103996 1.0615524
-1.1001346 -3.0079083 0.69954044
-1.0707582 -2.9275827 0.37280026
-1.0373131 -2.8088596 2.7480192
-1.2347939 -3.3471522 2.681308
-1.2652479 -3.4315312 2.2348061
-1.2045023 -3.2720392 1.69928
-1.1415694 -3.1027398 1.2397958
-1.1156245 -3.0338426 0.87034416
-1.0749907 -2.9233363 0.52663571
-1.0581075 -2.8789606 0.21740538
-0.038566869 -0.052594323 5.9640465
-0.6576882 -1.6833484 11.489139
-0.84153825 -2.1837811 11.274969
-0.83200282 -2.1906757 7.5385647
-1.126574 -2.9880047 7.5825772
-1.4346023 -3.8209882 7.5469265
-1.762887 -4.7102342 7.4591846
-1.6544055 -4.4274259 5.7354012
-0.14681989 -0.32898602 6.0692849
-0.24911803 -0.61835593 6.1744189
-1.0778863 -2.8349295 8.301918
-1.6424251 -4.360568 7.6918988
-1.7523155 -4.6621361 6.6698298
-1.5588374 -4.1561666 4.8903594
-1.0090386 -2.7148061 2.9259434
-1.088454 -2.9331341 2.6050353
-1.2876177 -3.4716585 2.512243
-1.2317045 -3.3244464 1.9423535
-1.180313 -3.1874332 1.461584
-1.1323442 -3.0595205 1.0488622
-1.0952966 -2.9625828 0.69114685
-1.0688825 -2.8911304 0.36967069
-1.0431942 -2.7947273 2.7380426
-1.2478824 -3.3466089 2.6842513
-1.2606587 -3.3826606 2.2069414
-1.195341 -3.2125182 1.6720055
-1.1458089 -3.081032 1.2332218
-1.1126599 -2.9934814 0.86096561
-1.0748365 -2.8917155 0.52249163
-1.054232 -2.8377838 0.21579313
-0.038721591 -0.052426454 5.9590464
-0.66356021 -1.6810423 11.489139
-0.57754815 -1.4834731 7.6769767
-0.83803988 -2.1835778 7.5242486
-1.1349103 -2.9785771 7.5687695
-1.4538791 -3.8316317 7.5776496
-1.7743402 -4.6908922 7.4385204
-1.6404063 -4.3436623 5.6356263
-0.14796737 -0.32847151 6.0692849
-0.25107372 -0.61698902 6.1694474
-1.0877755 -2.8311496 8.301918
-1.6567086 -4.3523707 7.6876326
-1.7257777 -4.5433164 6.5102291
-1.5468992 -4.0809593 4.8095059
-1.0185088 -2.7112675 2.9259434
-1.175234 -3.1334023 2.7807887
-1.2835826 -3.4240742 2.4820871
-1.2262126 -3.2744932 1.9168466
-1.1735566 -3.135534 1.4409807
-1.1278903 -3.0151124 1.0361719
-1.0918752 -2.9219298 0.6836859
-1.0667653 -2.8547273 0.36654112
-1.2538549 -3.3271036 2.6724787
-1.2557437 -3.333864 2.1790762
-1.188974 -3.1615975 1.6489269
-1.1416036 -3.0372314 1.2184302
-1.107718 -2.9486279 0.85041475
-1.0744748 -2.8601317 0.51834756
-1.0518384 -2.801347 0.21438242
-0.038904358 -0.052290969 5.9590464
-0.66942412 -1.6787158 11.489139
-0.58309573 -1.4823953 7.6818724
-0.84349763 -2.1750722 7.5051608
-1.1424923 -2.9673047 7.5503588
-1.4723901 -3.8399503 7.6039839
-1.7907037 -4.68467 7.4385204
-1.6258428 -4.2600513 5.535851
-0.14911306 -0.32795301 6.0692849
-0.25322589 -0.61610883 6.1694474
-1.0970268 -2.8257265 8.297225
-1.6718911 -4.3465614 7.6876326
-1.7135501 -4.4641232 6.4064884
-1.527179 -3.986891 4.7066016
-1.0267009 -2.7043617 2.9224389
-1.1861644 -3.129281 2.7807887
-1.2792311 -3.3765602 2.4519308
-1.2172513 -3.2163341 1.8867023
-1.1664523 -3.0837219 1.4203773
-1.1248368 -2.9752605 1.0248916
-1.0899191 -2.8859327 0.67715758
-1.0644073 -2.8183749 0.36341158
-1.3978776 -3.6665545 3.5760684
-1.2021607 -3.1565044 2.5429795
-1.2520375 -3.2891729 2.1537445
-1.1742045 -3.0895488 1.6153581
-1.1387836 -2.9979129 1.2052821
-1.1042019 -2.9083903 0.8410362
-1.072148 -2.823956 0.51351279
-1.0492033 -2.7649615 0.2129717
-0.039057791 -0.052122124 5.9540462
-0.67527986 -1.676369 11.489139
-0.58901906 -1.4822434 7.6916623
-0.84945101 -2.1679454 7.4908452
-1.1507181 -2.9578366 7.536552
-1.490977 -3.848187 7.6303191
-1.7969056 -4.6521406 7.3971906
-1.6118696 -4.1795869 5.4399133
-0.15025692 -0.32743052 6.0692849
-0.25537497 -0.61522114 6.1694474
-1.1068836 -2.8218801 8.297225
-1.6794946 -4.3212519 7.6535053
-1.6953427 -4.3710256 6.2827973
-1.5227302 -3.9341125 4.651474
-1.0361346 -2.7007613 2.9224389
-1.1455638 -2.9906354 2.6646659
-1.2730685 -3.3252141 2.4190333
-1.2078992 -3.158278 1.856558
-1.1590009 -3.0319977 1.3997738
-1.1215189 -2.9354668 1.0136114
-1.0859736 -2.845396 0.66969663
-1.0618086 -2.7820737 0.36028203
-1.4026139 -3.640748 3.5561156
-1.1899426 -3.0919325 2.4958889
-1.2464868 -3.2405248 2.1258793
-1.1735915 -3.0557737 1.6006716
-1.1357032 -2.9586515 1.192134
-1.1021596 -2.8727517 0.83283001
-1.0713558 -2.7924559 0.50936872
-1.046327 -2.7286291 0.21156099
-0.039239489 -0.051985469 5.9540462
-0.68083441 -1.6732818 11.484199
-0.59608668 -1.4849025 7.7161388
-0.85481536 -2.1594155 7.4717569
-1.1574621 -2.9447107 7.5135388
-1.5113853 -3.8608003 7.6654315
-1.7875558 -4.5803037 7.2938666
-1.5926993 -4.0873265 5.3286257
-0.15139894 -0.32690403 6.0692849
-0.25752094 -0.614326 6.1694474
-1.1167271 -2.8179991 8.297225
-1.6764555 -4.2692394 7.5724521
-1.6710093 -4.2640829 6.1391568
-1.5105231 -3.8624701 4.5742955
-1.0442666 -2.6938031 2.9189341
-1.1124405 -2.8740923 2.5673738
-1.2680724 -3.2778528 2.3888772
-1.1965601 -3.0961947 1.8240948
-1.1512027 -2.9803638 1.3791705
-1.1179371 -2.8957329 1.0023311
-1.0835261 -2.8095052 0.66316831
-1.0589696 -2.7458255 0.35715246
-1.3895788 -3.5697205 3.4929309
-1.203658 -3.0952942 2.501775
-1.2390504 -3.1879382 2.0954812
-1.172757 -3.0220408 1.5859853
-1.1323627 -2.9194481 1.178986
-1.0981252 -2.8326311 0.82345146
-1.0685669 -2.7563784 0.50453395
-1.0432103 -2.6923511 0.21015027
-0.039420713 -0.051848181 5.9540462
-0.68667108 -1.6708951 11.484199
-0.60088354 -1.4818692 7.7112432
-0.86068487 -2.1522605 7.4574409
-1.167734 -2.9406524 7.5135388
-1.5301381 -3.8688638 7.6917658
-1.7735977 -4.4981179 7.1740108
-1.5799503 -4.0131464 5.2403631
-0.1526621 -0.32663473 6.0742769
-0.25966376 -0.61342329 6.1694474
-1.126557 -2.8140838 8.297225
-1.6788448 -4.2318473 7.5169954
-1.6603708 -4.1937861 6.0473862
-1.4990804 -3.7941146 4.500792
-1.0523628 -2.686821 2.9154298
-1.1408962 -2.9173162 2.6081738
-1.262761 -3.2305672 2.358721
-1.1960815 -3.0631144 1.8078631
-1.1498005 -2.9460969 1.3660593
-1.1140916 -2.85606 0.99105084
-1.0808414 -2.7736666 0.65663993
-1.0558908 -2.7096317 0.35402292
-1.3856317 -3.5231521 3.4530251
-1.2410614 -3.1587908 2.5547521
-1.232838 -3.1394565 2.0676165
-1.1717017 -2.9883516 1.571299
-1.1287625 -2.8803051 1.1658379
-1.0955971 -2.7971001 0.81524527
-1.0655392 -2.7203548 0.49969921
-1.0416743 -2.6607804 0.20894109
-0.03960146 -0.051710259 5.9540462
-0.69220138 -1.6677703 11.479259
-0.6068247 -1.4816471 7.721034
-0.86707401 -2.1464751 7.447897
-1.178719 -2.9383714 7.5181413
-1.5542974 -3.8901873 7.7444353
-1.7840813 -4.4788284 7.1533465
-1.5607804 -3.9242148 5.1329131
-0.15380132 -0.32609987 6.0742769
-0.26180342 -0.61251318 6.1694474
-1.1363732 -2.8101342 8.297225
-1.6809937 -4.1944904 7.4615388
-1.6436669 -4.1096272 5.9356656
-1.4871793 -3.7258871 4.427289
-1.0617353 -2.6831312 2.9154298
-1.153933 -2.9205556 2.6144507
-1.2586713 -3.1872482 2.3313065
-1.1953865 -3.0300756 1.7916315
-1.1481732 -2.9118757 1.3529481
-1.1099831 -2.8164501 0.97977054
-1.0779198 -2.7378817 0.65011162
-1.0543966 -2.6781268 0.35134044
-1.3772403 -3.4662457 3.4031427
-1.2714663 -3.2032785 2.5930133
-1.2263025 -3.0910573 2.0397513
-1.1687541 -2.9504874 1.5545145
-1.124903 -2.8412228 1.1526899
-1.0928346 -2.7616212 0.80703902
-1.0640956 -2.6889911 0.4955551
-1.0399307 -2.6292534 0.2077319
-0.039811037 -0.051604029 5.9590464
-0.69771826 -1.6646273 11.47432
-0.61238217 -1.4804606 7.7259288
-0.87343335 -2.140671 7.4383531
-1.19117 -2.939671 7.531949
-1.553525 -3.8492038 7.6742101
-1.7587349 -4.3707609 6.9921618
-1.557739 -3.8771048 5.0791883
-0.1549387 -0.32556102 6.0742769
-0.26393992 -0.61159557 6.1694474
-1.1468279 -2.8077481 8.301918
-1.7523528 -4.3136182 9.6908579
-1.6829021 -4.1571703 7.4060812
-1.6376841 -4.0535755 5.8638453
-1.4710169 -3.6483567 4.3427601
-1.0697708 -2.6760972 2.9119253
-1.1352617 -2.8442106 2.5516815
-1.252745 -3.1401141 2.3011503
-1.1928358 -2.9929645 1.7730811
-1.1446058 -2.8733962 1.3379638
-1.1073864 -2.7813611 0.96990037
-1.0747619 -2.7021513 0.64358324
-1.0508549 -2.6420383 0.3482109
-1.3684689 -3.4094412 3.3532603
-1.2811357 -3.1950688 2.59007
-1.2194443 -3.0427423 2.0118864
-1.1655563 -2.9126801 1.5377301
-1.1225381 -2.8065877 1.1411853
-1.0898377 -2.7261963 0.79883277
-1.0606078 -2.6530726 0.49072033
-1.0379798 -2.5977714 0.20652272
-0.039990924 -0.051464751 5.9590464
-0.70352471 -1.6621817 11.47432
-0.61793882 -1.4792535 7.7308245
-0.87976277 -2.1348493 7.4288092
-1.2169653 -2.973464 7.628602
-1.5488684 -3.799402 7.5864282
-1.7506691 -4.3072429 6.9012365
-1.5435395 -3.8033342 4.9909253
-0.15607417 -0.3250182 6.0742769
-0.26585993 -0.61018199 6.1644764
-1.1566219 -2.8037276 8.301918
-1.7492187 -4.2631674 9.5918322
-1.6835836 -4.1174746 7.3463583
-1.6301917 -3.9948263 5.7880344
-1.4645621 -3.5961039 4.2876329
-1.080441 -2.6756535 2.9154298
-1.1539162 -2.8618901 2.5705123
-1.2480685 -3.0969388 2.2737355
-1.1867317 -2.9476895 1.7498931
-1.1425142 -2.8392777 1.3248526
-1.1045581 -2.7463245 0.96003014
-1.0713676 -2.6664762 0.63705492
-1.048931 -2.6106284 0.34552842
-1.3480943 -3.3250594 3.2767737
-1.2740716 -3.1456215 2.5547521
-1.2138816 -2.9985094 1.9865546
-1.1621093 -2.8749318 1.5209457
-1.1199455 -2.7720039 1.1296808
-1.0884269 -2.6953332 0.79179889
-1.0568824 -2.6172116 0.48588559
-1.0358222 -2.5663359 0.20531353
-0.040170327 -0.051324841 5.9590464
-0.70932251 -1.6597158 11.47432
-0.6238904 -1.4789637 7.7406149
-0.88606209 -2.129009 7.4192653
-1.2325619 -2.9818366 7.6608205
-1.5447955 -3.7518947 7.5030355
-1.73577 -4.2282166 6.7855144
-1.5324917 -3.7386086 4.9141755
-0.15720774 -0.32447141 6.0742769
-0.26798823 -0.60925025 6.1644764
-1.1670654 -2.8012662 8.3066111
-1.7207507 -4.1524591 9.3577681
-1.6790309 -4.0657721 7.265305
-1.611975 -3.9111068 5.6763139
-1.455181 -3.5376701 4.2251549
-1.0870802 -2.6652613 2.9084206
-1.2431058 -3.0538349 2.246321
-1.1819953 -2.9065981 1.7290239
-1.1401987 -2.8052096 1.3117414
-1.1014991 -2.7113419 0.95015985
-1.0677377 -2.6308589 0.6305266
-1.044928 -2.57465 0.34239885
-1.3243181 -3.2339518 3.1936362
-1.2758611 -3.1187086 2.5370934
-1.2080251 -2.9543529 1.9612229
-1.1566975 -2.8330419 1.5020633
-1.1189094 -2.7418449 1.1198196
-1.0849785 -2.6600132 0.78359264
-1.0547899 -2.5859947 0.48174149
-1.0334576 -2.5349469 0.20410435
-0.040349238 -0.051184308 5.9590464
-0.71511167 -1.6572298 11.47432
-0.62944829 -1.4777137 7.7455101
-0.89290988 -2.1245272 7.4144931
-1.2512424 -2.9973471 7.7114472
-1.5486865 -3.7243652 7.4591446
-1.7084848 -4.1207533 6.6243286
-1.521011 -3.6740072 4.8374252
-0.15833941 -0.3239207 6.0742769
-0.27011329 -0.60831112 6.1644764
-1.175498 -2.7939942 8.297225
-1.7016172 -4.0661006 9.1777201
-1.6912049 -4.0550718 7.256773
-1.5966678 -3.8359091 5.5765634
-1.4480113 -3.4856081 4.1700277
-1.1004524 -2.6713426 2.9189341
-1.2849225 -3.1237383 2.8058963
-1.2378576 -3.0108039 2.2189062
-1.1736202 -2.8573806 1.7035172
-1.1376593 -2.7711921 1.2986301
-1.0982094 -2.6764147 0.94028968
-1.0657356 -2.5998447 0.62493086
-1.0444643 -2.5479476 0.34016347
-1.2742355 -3.0809462 3.0506394
-1.2666736 -3.0656724 2.4988322
-1.2018753 -2.9102743 1.935891
-1.1510075 -2.791225 1.4831808
-1.115877 -2.7073615 1.1083151
-1.0812969 -2.6247504 0.77538645
-1.0524926 -2.5548244 0.47759742
-1.0308869 -2.5036063 0.20289516
-0.04052766 -0.051043149 5.9590464
-0.72120255 -1.6554357 11.479259
-0.63540751 -1.477378 7.7553005
-0.89915389 -2.118649 7.4049492
-1.268528 -3.0091631 7.7528701
-1.559823 -3.7145209 7.450367
-1.6869922 -4.0291071 6.4879417
-1.5053891 -3.6006606 4.7491627
-0.15934072 -0.32310745 6.0692849
-0.2720167 -0.60687822 6.1595049
-1.176471 -2.7692266 8.2362194
-1.677665 -3.9699011 8.9751654
-1.703325 -4.0443373 7.2482419
-1.5878619 -3.777534 5.5007524
-1.4418077 -3.4367659 4.1185751
-1.1166201 -2.6839485 2.9364569
-1.3002985 -3.130018 2.8153119
-1.2307209 -2.9639854 2.18875
-1.1700083 -2.8205326 1.6849667
-1.133121 -2.732945 1.2836459
-1.096526 -2.6459756 0.93182951
-1.0635298 -2.5688765 0.61933511
-1.0419223 -2.516679 0.33748099
-1.172734 -2.8077464 2.7912505
-1.2618011 -3.0239294 2.4694004
-1.1970921 -2.8702536 1.9130924
-1.1450399 -2.7494829 1.4642982
-1.1126179 -2.6729331 1.0968106
-1.0792496 -2.594034 0.76835257
-1.0499907 -2.5237024 0.47345334
-1.02811 -2.4723146 0.20168598
-0.040705584 -0.050901372 5.9590464
-0.72728974 -1.6536195 11.484199
-0.64096636 -1.4760851 7.7601957
-0.90595585 -2.1141255 7.400177
-1.2889724 -3.0280852 7.8127036
-1.5681044 -3.6980283 7.428421
-1.6780322 -3.968765 6.4011497
-1.498001 -3.5481381 4.6877623
-0.16046761 -0.32254928 6.0692849
-0.27413347 -0.60592502 6.1595049
-1.1698011 -2.7270415 8.1235924
-1.6556256 -3.8799262 8.7861137
-1.7133491 -4.0287666 7.2311778
-1.5562983 -3.6665673 5.3491321
-1.4339586 -3.3848884 4.063448
-1.2826056 -3.0572646 2.755681
-1.2248895 -2.9211102 2.1613355
-1.1644421 -2.7796597 1.6640975
-1.1301202 -2.6990395 1.2705346
-1.0946435 -2.6155808 0.92336923
-1.0592263 -2.5334241 0.6128068
-1.0391749 -2.4854596 0.33479854
-1.2057453 -2.8586798 2.8444586
-1.2550836 -2.9785337 2.4370258
-1.1920444 -2.8303022 1.8902937
-1.1405545 -2.7120006 1.4475138
-1.1109618 -2.6429141 1.0869495
-1.0751184 -2.5588825 0.76014632
-1.0472844 -2.4926291 0.46930927
-1.0251274 -2.4410737 0.2004768
-0.040883016 -0.050758973 5.9590464
-0.7330575 -1.6510707 11.484199
-0.64693278 -1.4757035 7.7699862
-0.91155159 -2.1068406 7.3858614
-1.3064779 -3.0397208 7.8541255
-1.5828888 -3.6969359 7.4371991
-1.6631469 -3.8955953 6.2936931
-1.4890079 -3.492764 4.6225252
-0.16159254 -0.32198715 6.0692849
-0.27624688 -0.60496444 6.1595049
-0.8922717 -2.0418012 8.6164961
-1.1566786 -2.670686 7.9687314
-1.6321176 -3.7881556 8.5925617
-1.7274017 -4.0227613 7.2311778
-1.5595912 -3.6389556 5.3172121
-1.4270984 -3.3362253 4.0119953
-1.3066536 -3.0798962 3.3675163
-1.2932696 -3.0527687 2.755681
-1.2187741 -2.8783121 2.1339209
-1.1620566 -2.7470195 1.6478659
-1.1268969 -2.665189 1.2574234
-1.0925623 -2.5852318 0.91490906
-1.056599 -2.5025587 0.60721111
-1.0381593 -2.4588778 0.33256313
-1.2917978 -3.0330825 3.0173848
-1.2496471 -2.9369414 2.407594
-1.1884197 -2.7943883 1.8700284
-1.1358217 -2.6745834 1.4307294
-1.1072649 -2.6085923 1.0754449
-1.0726537 -2.5282669 0.75311244
-1.0463083 -2.4661646 0.4658559
-1.0238897 -2.4144828 0.19946913
-0.041059952 -0.050615955 5.9590464
-0.73881632 -1.6485018 11.484199
-0.65249223 -1.4743674 7.7748814
-0.91949785 -2.1050138 7.3906336
-1.3303026 -3.0656087 7.9323683
-1.5967343 -3.6935861 7.4415884
-1.6466573 -3.8199942 6.1821036
-1.4796467 -3.4374962 4.5572877
-0.16258441 -0.32116395 6.0642939
-0.27835691 -0.60399646 6.1595049
-0.8993935 -2.0386741 8.6164961
-1.1424856 -2.612875 7.8091784
-1.6097263 -3.7005894 8.4080124
-1.7341712 -3.9999573 7.2013164
-1.5459564 -3.5726502 5.2294312
-1.4185722 -3.2845395 3.9568682
-1.3272266 -3.098263 3.3920479
-1.2809553 -2.9945564 2.7086043
-1.2107311 -2.8317482 2.1037648
-1.1577175 -2.710357 1.6293155
-1.1234508 -2.6313941 1.2443122
-1.0921657 -2.5593419 0.90785891
-1.0537695 -2.4717431 0.60161537
-1.0350178 -2.427753 0.32988065
-1.3068025 -3.0388446 3.0273612
-1.2423402 -2.89171 2.3752193
-1.184559 -2.7585349 1.8497629
-1.1308417 -2.6372328 1.413945
-1.1052023 -2.5786695 1.0655838
-1.0719022 -2.5021677 0.7472508
-1.0432101 -2.4351852 0.46171176
-1.0205126 -2.3833385 0.19825995
-0.041236382 -0.050472323 5.9590464
-0.74456614 -1.6459128 11.484199
-0.65846568 -1.47394 7.7846723
-0.92684013 -2.1017911 7.3906336
-1.3456998 -3.0716834 7.9599843
-1.6048274 -3.6770151 7.4196434
-1.6341529 -3.7548776 6.0870457
-1.4711955 -3.3852761 4.4958873
-0.16357246 -0.32033771 6.0593019
-0.28046355 -0.60302114 6.1595049
-0.90957314 -2.0424116 8.6455336
-1.1299942 -2.5599318 7.6637015
-1.5841179 -3.6072476 8.2099581
-1.7345277 -3.9628203 7.1458588
-1.5379097 -3.5202909 5.1616006
-1.4083472 -3.2298462 3.8980651
-1.3380336 -3.0936112 3.3920479
-1.2775105 -2.9579074 2.6803582
-1.20735 -2.7967932 2.0818329
-1.153137 -2.6737583 1.6107651
-1.1197828 -2.597656 1.2312009
-1.0897036 -2.5290809 0.89939874
-1.0526798 -2.4454896 0.59695226
-1.0336409 -2.4012542 0.32764524
-1.3055058 -3.0068657 3.000757
-1.2363414 -2.8502741 2.3457878
-1.1804625 -2.7227428 1.8294976
-1.1274182 -2.6041148 1.3992586
-1.101069 -2.5444593 1.0540793
-1.0690522 -2.4716434 0.74021691
-1.0418746 -2.4088035 0.45825839
-1.018913 -2.3568327 0.19725229
-0.041412313 -0.050328072 5.9590464
-0.74998409 -1.6425968 11.479259
-0.66444397 -1.4734888 7.7944622
-0.93902826 -2.1094525 7.4288092
-1.3603649 -3.0759003 7.9829965
-1.612824 -3.6604323 7.3976974
-1.6189501 -3.6847429 5.9837222
-1.4623982 -3.3331575 4.4344873
-0.16468966 -0.31976476 6.0593019
-0.28256679 -0.6020385 6.1595049
-0.91515058 -2.035785 8.6310148
-1.1375182 -2.5528193 7.6543159
-1.5464078 -3.4882591 7.9533892
-1.7198888 -3.8923333 7.0306792
-1.5258689 -3.4597609 5.0818005
-1.3991241 -3.1783683 3.8429377
-1.3359795 -3.0595076 3.360507
-1.2722698 -2.9177513 2.6489735
-1.2037398 -2.7618961 2.0599012
-1.148315 -2.6372249 1.5922148
-1.1158931 -2.563976 1.2180897
-1.0870435 -2.4988685 0.89093852
-1.0494618 -2.4147692 0.59135652
-1.0320917 -2.3747952 0.32540986
-1.3114969 -2.9920313 2.9907806
-1.2284474 -2.8052135 2.3134131
-1.1761308 -2.6870131 1.8092321
-1.125595 -2.5752115 1.3866704
-1.098601 -2.514637 1.0442182
-1.0679475 -2.4456246 0.73435533
-1.0383861 -2.3779228 0.45411432
-1.0151427 -2.325789 0.1960431
-0.04158774 -0.050183207 5.9590464
-0.7553879 -1.6392633 11.47432
-0.67000532 -1.4720873 7.7993574
-0.94944531 -2.1129694 7.4526691
-1.6216981 -3.6460273 7.3801417
-1.603278 -3.6147611 5.8803983
-1.4532552 -3.2811425 4.3730874
-0.16567105 -0.31893212 6.0543103
-0.28466657 -0.60104847 6.1595049
-0.92380953 -2.0360119 8.6455336
-1.1535017 -2.5645707 7.7012439
-1.5345649 -3.4291904 7.8318572
-1.7122161 -3.8386695 6.9453602
-1.5171012 -3.4076171 5.0139699
-1.3895593 -3.1269951 3.7878106
-1.336581 -3.0319831 3.3359754
-1.2683328 -2.8812311 2.6207275
-1.2015849 -2.7308865 2.0407109
-1.1432521 -2.6007581 1.5736643
-1.1117821 -2.5303552 1.2049785
-1.0841858 -2.4687057 0.8824783
-1.0460424 -2.3841012 0.58576083
-1.0283697 -2.3438158 0.32272738
-1.3068236 -2.9532907 2.9575255
-1.2235227 -2.7676365 2.2869246
-1.1715642 -2.6513474 1.7889667
-1.123584 -2.5463536 1.374082
-1.0959383 -2.484863 1.0343572
-1.0666742 -2.4196439 0.72849375
-1.0366923 -2.3516269 0.45066091
-1.0131826 -2.2993727 0.19503546
-0.041762657 -0.050037734 5.9590464
-0.76077765 -1.6359121 11.46938
-0.67599005 -1.4715898 7.8091478
-0.96976465 -2.1381893 7.5528808
-1.6265672 -3.6228652 7.3450289
-1.5767879 -3.5218189 5.7398782
-1.4424587 -3.2263064 4.3078494
-0.16664863 -0.31809655 6.0493183
-0.28676289 -0.60005111 6.1595049
-0.9319579 -2.0350606 8.6552124
-1.166014 -2.5683854 7.7247081
-1.5321864 -3.3920698 7.7598372
-1.7031194 -3.7827294 6.8557754
-1.5055177 -3.35008 4.9381595
-1.3810403 -3.0788205 3.7363579
-1.3312069 -2.9914589 3.297425
-1.2625757 -2.841217 2.5893431
-1.1975309 -2.696104 2.0187793
-1.1397458 -2.5684085 1.5574328
-1.1093298 -2.5010326 1.1937402
-1.0811311 -2.4385939 0.87401813
-1.0444112 -2.3579781 0.58109772
-1.0264609 -2.3174455 0.320492
-1.3003737 -2.9112113 2.9209452
-1.2167035 -2.7264378 2.257493
-1.1667632 -2.6157465 1.7687012
-1.1213855 -2.5175412 1.3614937
-1.0930814 -2.4551392 1.0244961
-1.0632565 -2.3892612 0.72145987
-1.0348276 -2.3253725 0.44720748
-1.0090201 -2.2684336 0.19382627
-0.041937068 -0.049891651 5.9590464
-0.76648343 -1.6332464 11.46938
-0.68197948 -1.4710686 7.8189383
-0.98343623 -2.1483634 7.6006007
-1.6223971 -3.5800815 7.2704148
-1.5763237 -3.488086 5.6944151
-1.4339346 -3.1774294 4.2502871
-0.16775797 -0.3175129 6.0493183
-0.2888557 -0.59904647 6.1595049
-0.93958324 -2.0329356 8.6600504
-1.1965395 -2.6113632 7.8654909
-1.5160214 -3.3252971 7.6202993
-1.6979694 -3.7363982 6.7832546
-1.4923068 -3.2899218 4.8583589
-1.3736008 -3.0338328 3.6885808
-1.3255664 -2.9510098 3.2588751
-1.2581481 -2.8048301 2.5610969
-1.1932489 -2.6613839 1.9968475
-1.1378386 -2.540158 1.54352
-1.1066865 -2.4717579 1.1825022
-1.0778794 -2.4085338 0.86555791
-1.0426106 -2.3318963 0.57643461
-1.0223479 -2.286571 0.31780952
-1.2921112 -2.865809 2.8810391
-1.211272 -2.6890059 2.2310045
-1.1634978 -2.5841427 1.7509691
-1.1208606 -2.4929144 1.3510034
-1.0880946 -2.4211583 1.0129915
-1.0616316 -2.3633659 0.71559823
-1.0327924 -2.2991598 0.44375411
-1.0067004 -2.2421093 0.19281861
-0.042110965 -0.04974496 5.9590464
-0.77184719 -1.6298587 11.464441
-0.68754196 -1.4696014 7.8238339
-0.99343395 -2.1503377 7.6196885
-1.6917343 -3.6851277 9.6122904
-1.6189443 -3.5395491 7.2001896
-1.5698042 -3.4415987 5.6282883
-1.4197721 -3.1169839 4.1773744
-0.16886528 -0.31692538 6.0493183
-0.29071149 -0.5975554 6.1545329
-0.94507957 -2.0262263 8.6455336
-1.221584 -2.6416287 7.9687314
-1.4994091 -3.2586789 7.480762
-1.6816438 -3.6664433 6.6680746
-1.4749315 -3.2216783 4.7665887
-1.3672732 -2.9920185 3.644479
-1.3211327 -2.9138846 3.2238295
-1.2518767 -2.7649636 2.5297122
-1.1887391 -2.6267264 1.9749157
-1.1339232 -2.507916 1.5272883
-1.1038525 -2.4425328 1.1712639
-1.0764062 -2.3828981 0.85850781
-1.0406407 -2.3058558 0.5717715
-1.0200806 -2.2602928 0.31557411
-1.2850943 -2.8238988 2.8444586
-1.2055942 -2.6516457 2.2045162
-1.1582426 -2.5486696 1.7307036
-1.118302 -2.46419 1.3384151
-1.0848349 -2.3915429 1.0031306
-1.0578319 -2.3330848 0.70856434
-1.0305872 -2.2729902 0.4403007
-1.0042094 -2.2158294 0.19181097
-0.042284351 -0.049597662 5.9590464
-0.7778669 -1.6278557 11.46938
-0.69353729 -1.4690338 7.8336239
-1.0312146 -2.2117939 7.8487439
-1.7062302 -3.682745 9.6214952
-1.6152284 -3.4990845 7.1299634
-1.560626 -3.3900874 5.5538955
-1.4132386 -3.0741503 4.1274872
-0.16997053 -0.31633401 6.0493183
-0.2927956 -0.59653693 6.1545329
-0.94893432 -2.0160913 8.6164961
-1.2585318 -2.6967704 8.1470566
-1.5016056 -3.233681 7.43575
-1.6758066 -3.6203163 6.5955539
-1.4773207 -3.1973624 4.738658
-1.3606707 -2.9502854 3.6003771
-1.313488 -2.8703415 3.1817751
-1.2453423 -2.7251751 2.4983277
-1.1840023 -2.5921338 1.952984
-1.1316359 -2.4797628 1.5133755
-1.1008281 -2.4133577 1.1600257
-1.072777 -2.3529372 0.85004753
-1.0405382 -2.2843277 0.56804103
-1.0176425 -2.2340586 0.31333873
-1.2778007 -2.782073 2.807878
-1.1996704 -2.6143579 2.1780276
-1.1545514 -2.5171828 1.7129713
-1.1155567 -2.4355137 1.3258268
-1.0813818 -2.3619802 0.99326944
-1.0558563 -2.3072791 0.70270276
-1.0282118 -2.2468643 0.43684733
-1.0036255 -2.1941378 0.19100484
-0.042457223 -0.04944976 5.9590464
-0.7842195 -1.6265301 11.479259
-0.69953698 -1.4684423 7.8434148
-1.0433778 -2.2176349 7.8821478
-1.6859748 -3.6059768 9.4373941
-1.6112502 -3.4586899 7.0597386
-1.5522933 -3.3412344 5.4836354
-1.4037256 -3.0255852 4.0699244
-0.1710737 -0.31573874 6.0493183
-0.2948761 -0.59551126 6.1545329
-0.95596594 -2.0127666 8.6164961
-1.2752906 -2.7079728 8.193985
-1.4962556 -3.1929376 7.3547277
-1.6586299 -3.5506461 6.4803734
-1.4693707 -3.1512222 4.6788077
-1.3537936 -2.9086356 3.5562751
-1.3070511 -2.8301253 3.1432252
-1.2385457 -2.6854665 2.4669433
-1.1790385 -2.5576065 1.9310523
-1.1291659 -2.4516561 1.4994627
-1.0976135 -2.3842335 1.1487875
-1.0709573 -2.3273892 0.84299743
-1.038246 -2.2583659 0.56337792
-1.0171138 -2.2123938 0.31155041
-1.2718014 -2.7437205 2.7746229
-1.1968986 -2.58448 2.1574254
-1.1488438 -2.4818416 1.6927059
-1.112625 -2.4068873 1.3132385
-1.0777358 -2.3324711 0.98340839
-1.0537137 -2.2815158 0.69684118
-1.0256667 -2.2207825 0.4333939
-1.0008086 -2.1679418 0.18999718
-0.042629577 -0.049301255 5.9590464
-0.78989244 -1.6237828 11.479259
-0.70554101 -1.4678268 7.8532047
-1.0562346 -2.2247667 7.9203234
-1.664371 -3.5276289 9.2486906
-1.6171994 -3.4400399 7.0334039
-1.5412496 -3.2873857 5.4051089
-1.402046 -2.9945416 4.035387
-0.17231391 -0.31539264 6.0543103
-0.29695302 -0.59447831 6.1545329
-0.94125342 -1.9640784 8.4229193
-1.2884392 -2.7112975 8.2174482
-1.4990159 -3.1699836 7.3142166
-1.6320906 -3.4622684 6.3310657
-1.4624 -3.1079032 4.6229472
-1.3466426 -2.8670702 3.5121732
-1.3003495 -2.7899895 3.1046753
-1.2314872 -2.6458392 2.4355586
-1.1738484 -2.5231454 1.9091206
-1.1265137 -2.4235976 1.4855499
-1.0961626 -2.3593664 1.1394223
-1.0689725 -2.3018827 0.83594722
-1.0357857 -2.2324479 0.55871487
-1.0143505 -2.1862428 0.30931503
-1.263968 -2.7020621 2.7380426
-1.1922214 -2.550992 2.1338801
-1.1447282 -2.4504766 1.6749736
-1.1095071 -2.3783109 1.3006502
-1.0758927 -2.3072963 0.97519082
-1.0534575 -2.2602015 0.6921519
-1.0229521 -2.1947463 0.42994049
-0.9999308 -2.1463206 0.18919106
-0.04280141 -0.049152151 5.9590464
-0.7982952 -1.6265954 11.518774
-0.71154922 -1.4671873 7.8629956
-1.0672189 -2.227797 7.9441829
-1.6573583 -3.4812274 9.1428328
-1.6271446 -3.4300463 7.0246263
-1.5298492 -3.2336559 5.3265829
-1.3960589 -2.9548528 3.9893367
-0.1734138 -0.31478921 6.0543103
-0.29902634 -0.59343815 6.1545329
-0.85506779 -1.7684127 7.6002169
-1.2993878 -2.7098956 8.2268343
-1.5053846 -3.1549084 7.2917113
-1.6004738 -3.3646998 6.1646943
-1.4551446 -3.064672 4.5670872
-1.339218 -2.8255901 3.4680707
-1.2964195 -2.7563894 3.0731344
-1.2241672 -2.6062939 2.4041741
-1.1666551 -2.4849672 1.8844473
-1.1236794 -2.3955874 1.4716371
-1.0945514 -2.3345382 1.1300571
-1.0668226 -2.2764187 0.82889712
-1.0331571 -2.2065752 0.5540517
-1.0135289 -2.1646485 0.30752671
-1.2574534 -2.6638689 2.7047877
-1.1890494 -2.5212243 2.1132779
-1.1422458 -2.4230702 1.6597745
-1.1062036 -2.349786 1.2880619
-1.0738871 -2.2821627 0.9669733
-1.0509968 -2.2345183 0.68629032
-1.0221763 -2.1732378 0.42717776
-0.99891442 -2.1247323 0.18838494
-0.042972721 -0.049002446 5.9590464
-0.79914004 -1.6140512 11.449624
-0.7175616 -1.4665236 7.8727856
-1.0847341 -2.2442172 8.0157633
-1.6314303 -3.3961766 8.9357185
-1.6380737 -3.4221854 7.020237
-1.5180926 -3.1800456 5.2480569
-1.3911917 -2.9181364 3.9471245
-0.17451155 -0.31418198 6.0543103
-0.30109599 -0.59239072 6.1545329
-0.85462087 -1.7518612 7.5421438
-1.3095908 -2.7068968 8.2315273
-1.5163881 -3.1496344 7.2917113
-1.590767 -3.3144197 6.0836415
-1.4437 -3.0133772 4.4992566
-1.3329834 -2.7872562 3.4276443
-1.2907419 -2.719629 3.0380888
-1.2182537 -2.5703502 2.3759279
-1.1627902 -2.4544282 1.8652571
-1.1206634 -2.3676269 1.4577243
-1.0927806 -2.3097506 1.120692
-1.0645082 -2.250998 0.8218469
-1.0303607 -2.1807482 0.54938865
-1.0125691 -2.1430867 0.30573839
-1.2522933 -2.6291254 2.6748581
-1.1874212 -2.4951596 2.095619
-1.1377345 -2.3918188 1.6420423
-1.1027142 -2.3213134 1.2754735
-1.0717193 -2.257072 0.95875573
-1.0504538 -2.2132714 0.68160105
-1.0212626 -2.1517615 0.42441505
-0.99561816 -2.0986636 0.18737729
-0.043112114 -0.04882184 5.9540462
-0.80997872 -1.6216778 11.523713
-0.72312719 -1.4649229 7.8776813
-1.0925611 -2.240417 8.0157633
-1.6117463 -3.3254144 8.7654257
-1.6489677 -3.41429 7.0158477
-1.507202 -3.1290934 5.1736641
-1.3833061 -2.8757131 3.8972368
-0.17560719 -0.31357092 6.0543103
-0.30316201 -0.59133613 6.1545329
-0.85906535 -1.7454844 7.527626
-1.3273588 -2.719367 8.2831469
-1.5264217 -3.1423638 7.28721
-1.5852757 -3.2736373 6.0196524
-1.4332263 -2.9649134 4.4354167
-1.3250241 -2.7459474 3.3835423
-1.2863641 -2.6861594 3.0065477
-1.2137836 -2.537991 2.3508203
-1.1479059 -2.4013116 1.8296181
-1.1193755 -2.3437145 1.4461304
-1.0908501 -2.2850039 1.1113268
-1.0620295 -2.2256215 0.81479669
-1.0295105 -2.1594017 0.54565811
-1.0093279 -2.1170628 0.30350298
-1.2452888 -2.5910854 2.641603
-1.1856257 -2.4691374 2.07796
-1.1348846 -2.3645151 1.6268432
-1.09904 -2.2928944 1.2628852
-1.0693896 -2.232024 0.95053828
-1.047676 -2.1876721 0.67573947
-1.0180728 -2.1258521 0.42096168
-0.99430954 -2.0771506 0.18657117
-0.043282274 -0.048671052 5.9540462
-0.81703347 -1.621616 11.54347
-0.72914433 -1.4642127 7.8874717
-1.1003751 -2.2365897 8.0157633
-1.5898719 -3.2513213 8.585927
-1.6598266 -3.4063601 7.0114584
-1.4959744 -3.0782561 5.0992708
-1.3765413 -2.8362641 3.8511868
-0.1767007 -0.31295601 6.0543103
-0.3052243 -0.59027427 6.1545329
-0.86403483 -1.7402234 7.5179467
-1.3437051 -2.7286501 8.3253813
-1.5373814 -3.1370163 7.28721
-1.5806644 -3.2352781 5.9599295
-1.4224322 -2.9165595 4.3715758
-1.3197609 -2.7108243 3.3467906
-1.2817684 -2.6527536 2.9750071
-1.2091025 -2.5056944 2.3257127
-1.1544644 -2.3935237 1.8268765
-1.1160109 -2.3158493 1.4322176
-1.0867484 -2.2561226 1.1000886
-1.0614676 -2.204612 0.8091566
-1.0263946 -2.1336615 0.54099506
-1.0080764 -2.095576 0.30171469
-1.2396635 -2.5564864 2.6116736
-1.1819007 -2.4395211 2.057358
-1.131858 -2.3372602 1.6116441
-1.0951809 -2.2645292 1.2502968
-1.0689533 -2.2112718 0.94396424
-1.046847 -2.1664958 0.67105019
-1.0168692 -2.1044502 0.41819894
-0.99286276 -2.0556724 0.18576504
-0.043451905 -0.048519671 5.9540462
-0.44377929 -0.8734948 6.2288284
-0.73516536 -1.4634782 7.8972621
-1.1088392 -2.2340717 8.0205345
-1.5623143 -3.1669109 8.3788137
-1.6695937 -3.3962469 7.0026808
-1.4831717 -3.0250094 5.0207448
-1.3709275 -2.7997768 3.808974
-0.17779203 -0.31233731 6.0543103
-0.30728287 -0.58920527 6.1545329
-0.87123013 -1.7394445 7.527626
-1.3601322 -2.7378521 8.3676167
-1.5473573 -3.1296794 7.2827086
-1.5815701 -3.2086875 5.921536
-1.4126487 -2.8710213 4.3117256
-1.3127743 -2.672729 3.3063638
-1.2722671 -2.6097958 2.9329524
-1.2059147 -2.4769614 2.3037434
-1.1518339 -2.3669202 1.8104278
-1.1144028 -2.2920201 1.4206235
-1.0844849 -2.2314672 1.0907234
-1.0586761 -2.1793191 0.80210644
-1.0252566 -2.1123886 0.53726459
-1.0066872 -2.0741236 0.29992637
-1.2321709 -2.5186048 2.5784185
-1.1779835 -2.4099607 2.036756
-1.1305475 -2.3139291 1.5989783
-1.0911374 -2.2362196 1.2377086
-1.0683854 -2.1905501 0.93739021
-1.0458833 -2.1453524 0.66636097
-1.0155286 -2.0830827 0.41543624
-0.99127829 -2.0342298 0.18495892
-0.043621004 -0.048367701 5.9540462
-0.44647107 -0.87124902 6.2238894
-0.74119008 -1.4627194 7.9070525
-1.1166308 -2.2301877 8.0205345
-1.5576904 -3.129956 8.2959681
-1.6761178 -3.3796704 6.9807353
-1.4787496 -2.9895461 4.9711494
-1.3636564 -2.7604899 3.762924
-0.17888121 -0.3117148 6.0543103
-0.30958617 -0.58860064 6.1595049
-0.87843049 -1.7386365 7.5373049
-1.3750933 -2.7438869 8.400466
-1.5573009 -3.1223111 7.2782078
-1.5741807 -3.1657834 5.853281
-1.4025649 -2.8255877 4.2518754
-1.3070432 -2.6377537 3.2696121
-1.2640556 -2.5701375 2.8944025
-1.2008253 -2.444788 2.2786357
-1.1508749 -2.3441181 1.7967205
-1.1106911 -2.2642536 1.4067107
-1.0820628 -2.206856 1.0813583
-1.0557212 -2.1540725 0.79505628
-1.0239828 -2.0911503 0.53353411
-1.0051607 -2.052707 0.29813805
-1.2260818 -2.4841549 2.5484891
-1.1738745 -2.3804579 2.0161538
-1.127182 -2.2867694 1.5837791
-1.0869095 -2.2079659 1.2251203
-1.0656009 -2.1656222 0.92917264
-1.0447844 -2.1242416 0.66167164
-1.0118659 -2.0573068 0.41198283
-0.98955643 -2.0128236 0.1841528
-0.043789573 -0.048215143 5.9540462
-0.45343626 -0.87727678 6.2782211
-0.74675488 -1.4610298 7.9119477
-1.1250818 -2.2276084 8.0253067
