# .PCD v0.7 - Point Cloud Data file format
VERSION 0.7
FIELDS x y z
SIZE 4 4 4
TYPE F F F
COUNT 1 1 1
WIDTH 1499
HEIGHT 1
VIEWPOINT 0 0 0 1 0 0 0
POINTS 1499
DATA ascii
-0.74692631 1.1237793 0.21408717
-0.8330068 1.2618079 1.4277955
-0.80799568 1.2230051 1.1508646
-0.79010588 1.1954808 0.92768586
-0.77196181 1.166712 0.73417598
-0.7639814 1.1542219 0.57088763
-0.76219481 1.1510953 0.42369121
-0.74903899 1.1312312 0.28144431
-0.73924398 1.1160244 0.14767569
-0.035927109 0.13375969 14.373726
-1.1057478 1.7451972 13.133911
-1.4225912 2.2223234 12.70927
-1.1035138 1.7055026 6.5412197
-1.0051308 1.5452043 4.4022326
-0.95162714 1.4585243 3.2587962
-0.91057742 1.3924464 2.5161779
-0.87359601 1.3343827 1.9861596
-0.41157213 0.72570705 14.265589
-0.4887594 0.78993475 8.6203995
-1.1798524 1.8381858 8.4471169
-1.0414314 1.6108083 5.270391
-0.97532815 1.5022727 3.7672606
-0.93429077 1.4352516 2.871393
-0.88023448 1.3501637 2.2089827
-0.85322297 1.3067565 1.7701451
-0.84439641 1.2848974 1.5907112
-0.81675798 1.2414398 1.2806066
-0.79199743 1.2033546 1.02911
-0.78295565 1.1887262 0.83164835
-0.76820809 1.1659012 0.65243381
-0.7631548 1.1578012 0.49753937
-0.75194162 1.1399322 0.35074055
-0.7484833 1.134694 0.21498135
-0.83268946 1.2709546 1.4344465
-0.80815405 1.2325786 1.1567509
-0.79065651 1.2054409 0.93275219
-0.77037567 1.1731933 0.73627406
-0.7625404 1.1608285 0.5725311
-0.76351064 1.1618729 0.42603585
-0.74780512 1.1379774 0.28213498
-0.73808819 1.1227727 0.14787722
-0.03545998 0.13388428 14.373726
-1.1000626 1.7497041 13.13885
-1.4142793 2.2264163 12.704375
-1.1040053 1.7193935 6.5793962
-1.0060877 1.558552 4.4298482
-0.95043492 1.4678684 3.2719634
-0.91030675 1.4026982 2.5285769
-0.87417138 1.3454875 1.9976722
-0.40917766 0.72739106 14.27058
-0.48599899 0.79163599 8.6203995
-1.1774796 1.8486544 8.4761534
-1.0423247 1.6246011 5.3032403
-0.97715199 1.5166487 3.7942681
-0.93493539 1.4472671 2.8884568
-0.88042629 1.360818 2.220953
-0.85049963 1.312572 1.77382
-0.84575033 1.2967986 1.6012248
-0.81667536 1.2508016 1.2868835
-0.79236513 1.2131135 1.0345929
-0.78364879 1.1988679 0.83628595
-0.76920789 1.1763358 0.65617985
-0.7617346 1.1644723 0.49894941
-0.75064844 1.1466599 0.35167316
-0.74724549 1.1414663 0.21542843
-0.83435357 1.2832445 1.4444231
-0.80825537 1.2421681 1.1626372
-0.79114711 1.2154192 0.93781859
-0.77123141 1.1834801 0.74047017
-0.76364124 1.1713948 0.57581812
-0.76476055 1.1726738 0.42838046
-0.74653339 1.1447288 0.28282565
-0.73962396 1.1337107 0.14828028
-0.034992423 0.13400725 14.373726
-1.0943595 1.7541927 13.14379
-1.4054135 2.2296169 12.694585
-1.104413 1.7333081 6.6175718
-1.0069634 1.5719252 4.4574628
-0.95048362 1.4792371 3.2895195
-0.90997559 1.4129649 2.5409758
-0.8764165 1.3593065 2.0130222
-0.40677649 0.72906721 14.275572
-0.48295563 0.79287225 8.615427
-1.1750485 1.8591288 8.5051889
-1.0422076 1.6369641 5.3313971
-0.9800598 1.5328894 3.8257763
-0.93410009 1.4571089 2.9012547
-0.88381028 1.3765615 2.2409031
-0.84774625 1.3183843 1.7774954
-0.84703135 1.3087248 1.6117386
-0.81653714 1.2601779 1.2931604
-0.79267442 1.2228897 1.0400758
-0.78428054 1.209029 0.84092361
-0.7701441 1.1867914 0.65992594
-0.76288921 1.1751715 0.50176948
-0.75199354 1.1575117 0.35353839
-0.74596947 1.1482438 0.21587551
-0.83391762 1.292424 1.451074
-0.80610704 1.2483774 1.1655804
-0.79157764 1.2254155 0.94288492
-0.77202469 1.1937871 0.74466628
-0.76211256 1.1780181 0.57746166
-0.76330334 1.1794168 0.42955279
-0.74253297 1.1473277 0.28282565
-0.73837733 1.1404794 0.14848182
-0.034524437 0.13412859 14.373726
-1.0894562 1.7599843 13.158607
-1.3970821 2.2336457 12.68969
-1.1055346 1.7485082 6.6605196
-1.0077581 1.5853235 4.4850783
-0.95046449 1.4906236 3.3070757
-0.90958369 1.4232464 2.5533745
-0.87857574 1.3731573 2.0283723
-0.40422907 0.7304827 14.275572
-0.47990954 0.79409689 8.6104555
-1.1738937 1.8717383 8.5439043
-1.0429384 1.650805 5.3642464
-0.98053378 1.5454923 3.8482826
-0.93460715 1.4691628 2.9183185
-0.88709486 1.3923448 2.2608531
-0.83949202 1.3156196 1.7701451
-0.84823948 1.3206757 1.6222522
-0.81634355 1.2695683 1.2994373
-0.79292506 1.2326828 1.0455588
-0.78245324 1.2154839 0.84324241
-0.7710166 1.1972678 0.66367197
-0.76138026 1.18186 0.50317949
-0.75061017 1.1642582 0.35447103
-0.74465519 1.1550262 0.21632259
-0.83342767 1.301616 1.457725
-0.80610585 1.2579902 1.1714667
-0.78962165 1.2318004 0.94541812
-0.77030414 1.2002944 0.7467643
-0.76309818 1.1886188 0.58074868
-0.76443499 1.1902535 0.43189743
-0.74119955 1.1540793 0.28351635
-0.7397927 1.1514564 0.14888488
-0.034065172 0.13429093 14.378726
-1.0792404 1.7571549 13.109215
-1.3887398 2.2376437 12.684794
-1.1065633 1.763737 6.7034674
-1.0095137 1.6003985 4.5172958
-0.94909692 1.5000042 3.3202431
-0.90913117 1.4335423 2.5657735
-0.88064885 1.3870397 2.0437222
-0.40167674 0.73188931 14.275572
-0.47713467 0.79576725 8.6104555
-1.1673529 1.8758247 8.5439043
-1.0426687 1.6632085 5.3924031
-0.98209137 1.5599595 3.8752897
-0.9336493 1.4790325 2.9311161
-0.88866979 1.4056209 2.2768133
-0.84396225 1.3328635 1.7885209
-0.84745753 1.3296432 1.6292613
-0.81818783 1.2822541 1.3088527
-0.79311681 1.2424923 1.0510417
-0.78297496 1.2256742 0.84788001
-0.77182537 1.2077646 0.66741806
-0.75983399 1.1885521 0.5045895
-0.75183624 1.1751471 0.35633627
-0.74061888 1.1576185 0.21632259
-0.83288372 1.3108201 1.4643761
-0.80604732 1.2676183 1.177353
-0.78763074 1.2381865 0.94795126
-0.77098531 1.2106323 0.75096041
-0.76148176 1.195258 0.58239222
-0.76550019 1.2011126 0.43424204
-0.74248946 1.1650118 0.28489769
-0.73845476 1.1582443 0.14908642
-0.033596199 0.13440903 14.378726
-1.0706747 1.7569301 13.079579
-1.3809206 2.2424774 12.684794
-1.108288 1.7802616 6.7511873
-1.0101398 1.6138492 4.5449109
-0.94894874 1.5114217 3.3377995
-0.91011637 1.4462339 2.5823052
-0.88092715 1.3982409 2.0552347
-0.39911953 0.73328692 14.275572
-0.47435403 0.79742789 8.6104555
-1.1588172 1.8766795 8.5293875
-1.0414138 1.6741648 5.4158673
-0.98240644 1.5726099 3.8977957
-0.93401831 1.4911237 2.94818
-0.89016283 1.4189247 2.2927732
-0.8465187 1.3472838 1.8032216
-0.84852952 1.3416356 1.6397748
-0.81787127 1.2916794 1.3151296
-0.79324979 1.2523181 1.0565246
-0.7810635 1.2321413 0.85019881
-0.77008742 1.2143666 0.66929108
-0.75825024 1.195248 0.50599957
-0.7503624 1.1819113 0.35726887
-0.73924267 1.1644009 0.21676967
-0.8322857 1.3200364 1.471027
-0.80593127 1.277261 1.1832393
-0.78560483 1.2445736 0.95048445
-0.77160376 1.2209895 0.75515652
-0.75982815 1.2019002 0.58403569
-0.76390088 1.2078855 0.43541437
-0.7410652 1.1717818 0.28558838
-0.73974931 1.1692588 0.14948948
-0.03313566 0.13456821 14.383726
-1.0617219 1.7560019 13.045005
-1.3725537 2.2464151 12.679899
-1.1099108 1.7968196 6.7989073
-1.0117147 1.628983 4.5771284
-0.94873238 1.5228562 3.3553557
-0.90953356 1.4565628 2.5947039
-0.88113803 1.4094611 2.0667472
-0.39655745 0.73467565 14.275572
-0.47156763 0.79907888 8.6104555
-1.1509461 1.8785692 8.5197077
-1.04372 1.6910065 5.4581017
-0.98264521 1.5852814 3.9203019
-0.93431413 1.5032355 2.9652438
-0.88998139 1.429698 2.3047435
-0.8489846 1.3617381 1.8179222
-0.84763241 1.3506308 1.6467839
-0.81542814 1.2978222 1.3182681
-0.79332376 1.2621599 1.0620075
-0.77911633 1.2386099 0.8525176
-0.77078187 1.2248949 0.67303717
-0.75662899 1.2019472 0.50740957
-0.74885052 1.1886797 0.3582015
-0.74048251 1.1754014 0.21766382
-0.83361363 1.3324298 1.4810036
-0.80361289 1.2834923 1.1861825
-0.78583205 1.2546149 0.95555079
-0.76974809 1.2275205 0.75725454
-0.7581374 1.2085453 0.58567923
-0.76484722 1.2187787 0.43775901
-0.74223489 1.1827505 0.28696972
-0.73831969 1.1760652 0.149691
-0.032657035 0.13464031 14.378726
-1.0527886 1.7550329 13.010429
-1.3647038 2.2511926 12.679899
-1.1114314 1.8134102 6.8466272
-1.0131962 1.6441475 4.6093459
-0.94844764 1.5343076 3.3729122
-0.91037184 1.4692973 2.6112356
-0.88128126 1.4206997 2.0782597
-0.39385462 0.73580068 14.27058
-0.46877542 0.80072004 8.6104555
-1.1424233 1.8793532 8.5051889
-1.0459212 1.7078847 5.5003366
-0.9828074 1.5979736 3.9428082
-0.93453676 1.5153672 2.9823074
-0.89131898 1.4430506 2.3207035
-0.8513599 1.3762258 1.8326229
-0.84668285 1.3596359 1.653793
-0.8150112 1.3072667 1.3245449
-0.79333866 1.2720175 1.0674905
-0.77947891 1.2488377 0.85715514
-0.76895672 1.2315103 0.67491019
-0.75497013 1.2086496 0.50881964
-0.74990433 1.199617 0.36006674
-0.7390148 1.1822017 0.21811089
-0.83289582 1.341676 1.4876546
-0.80339372 1.2931566 1.1920689
-0.78372324 1.2610118 0.95808399
-0.77025384 1.2379071 0.76145065
-0.75890493 1.2192024 0.58896625
-0.76315749 1.2255672 0.43893132
-0.74071944 1.1895379 0.28766042
-0.73420995 1.1786352 0.149691
-0.032186855 0.13475347 14.378726
-1.0446696 1.7553581 12.985733
-1.3563126 2.25507 12.675003
-1.112074 1.828758 6.889575
-1.0135652 1.6576751 4.6369615
-0.94809449 1.5457755 3.3904684
-0.91113222 1.4820553 2.6277676
-0.8813566 1.4319564 2.0897722
-0.39128378 0.73717099 14.27058
-0.46624503 0.80281264 8.615427
-1.1345577 1.8811764 8.4955101
-1.0480173 1.7247988 5.5425715
-0.98289275 1.6106861 3.9653139
-0.93468601 1.5275186 2.9993713
-0.89099956 1.4538606 2.3326735
-0.85364425 1.3907467 1.8473235
-0.84568059 1.3686509 1.6608021
-0.8145383 1.3167241 1.3308219
-0.79549462 1.285446 1.0757148
-0.77744722 1.2553171 0.85947394
-0.76709491 1.2381278 0.6767832
-0.75327373 1.215355 0.51022971
-0.74830163 1.2064018 0.36099935
-0.74013358 1.1932383 0.21900505
-0.83408177 1.3541125 1.497631
-0.8031168 1.3028347 1.1979553
-0.78384197 1.2710783 0.96315032
-0.7706964 1.2483118 0.76564676
-0.75712597 1.2258618 0.59060973
-0.76142967 1.2323587 0.44010365
-0.74176848 1.2005419 0.28904179
-0.73271793 1.1854405 0.14989254
-0.031707887 0.13482219 14.373726
-1.0377461 1.7576559 12.975855
-1.3484327 2.2597907 12.675003
-1.112623 1.8441321 6.9325228
-1.0148652 1.6728958 4.669179
-0.94767278 1.5572594 3.4080248
-0.91181451 1.4948366 2.6442995
-0.88136417 1.4432309 2.1012847
-0.38870817 0.73853236 14.27058
-0.46343988 0.80443525 8.615427
-1.1266938 1.8829682 8.4858322
-1.0500078 1.7417481 5.5848064
-0.98290145 1.6234186 3.9878199
-0.93340838 1.5374602 3.0121689
-0.89061558 1.4646863 2.3446436
-0.85407424 1.4024044 1.8583488
-0.84462577 1.3776753 1.6678112
-0.81197309 1.3228766 1.3339603
-0.79756647 1.298905 1.0839393
-0.77769905 1.2655717 0.86411154
-0.76762384 1.2486966 0.6805293
-0.75405252 1.2261496 0.51304972
-0.74666059 1.21319 0.36193198
-0.73857409 1.2000556 0.21945213
-0.83129692 1.3602017 1.5009565
-0.80278206 1.3125267 1.2038416
-0.78390002 1.281161 0.96821666
-0.77107579 1.2587347 0.76984292
-0.75530958 1.2325233 0.59225327
-0.7596637 1.239153 0.44127598
-0.74016142 1.2073456 0.28973246
-0.73118728 1.1922498 0.15009406
-0.031237077 0.13493206 14.373726
-1.0308192 1.7599267 12.965977
-1.3410549 2.2653601 12.679899
-1.1138445 1.8608128 6.9802423
-1.0160711 1.6881455 4.7013969
-0.94718248 1.5687593 3.425581
-0.91387552 1.5100478 2.664964
-0.88130355 1.4545226 2.1127973
-0.38599458 0.73962861 14.265589
-0.46089333 0.80651093 8.6203995
-1.1194725 1.8858085 8.4809923
-1.0510072 1.7572511 5.6223488
-0.98395395 1.638037 4.0148273
-0.93341821 1.5496455 3.0292325
-0.89172328 1.4781067 2.3606038
-0.85443324 1.4140823 1.8693745
-0.84537148 1.389756 1.6783249
-0.81139946 1.3323517 1.3402373
-0.79955381 1.312394 1.0921637
-0.7778886 1.2758431 0.86874914
-0.76808834 1.2592841 0.68427533
-0.75226647 1.2328691 0.51445979
-0.74498135 1.2199813 0.36286458
-0.73957133 1.2111268 0.22034629
-0.83041567 1.3694807 1.5076076
-0.80238926 1.3222319 1.2097279
-0.78389716 1.2912594 0.97328311
-0.77139169 1.2691755 0.77403903
-0.7559092 1.2432222 0.59554029
-0.75785959 1.24595 0.44244829
-0.73851597 1.2141528 0.29042313
-0.73221511 1.2033306 0.15049712
-0.030765887 0.13504027 14.373726
-1.0238892 1.7621703 12.956098
-1.3331392 2.2700274 12.679899
-1.1142011 1.8762411 7.0231905
-1.0161813 1.7017465 4.729012
-0.94662315 1.5802745 3.4431372
-0.91439283 1.522879 2.6814959
-0.88282615 1.4685787 2.1281471
-0.38341048 0.74097151 14.265589
-0.45807526 0.80811489 8.6203995
-1.1122453 1.8886217 8.4761534
-1.0519109 1.7727822 5.6598907
-0.98380202 1.6508121 4.0373335
-0.93201649 1.5596106 3.0420306
-0.89274788 1.4915525 2.3765638
-0.85297793 1.4228716 1.8767248
-0.84604299 1.4018583 1.6888385
-0.81278223 1.3451704 1.3496526
-0.79929382 1.3223341 1.0976466
-0.77572316 1.2823411 0.87106794
-0.76848829 1.2698901 0.68802142
-0.75292695 1.2436949 0.51727986
-0.74580908 1.2309771 0.36472982
-0.73791969 1.2179602 0.22079337
-0.82947963 1.37877 1.5142586
-0.80402339 1.3354133 1.2185574
-0.78383315 1.3013734 0.97834945
-0.76930022 1.2757468 0.77613705
-0.7564432 1.2539401 0.5988273
-0.75601721 1.2527494 0.44362062
-0.7368319 1.2209631 0.29111382
-0.73317438 1.2144331 0.15090019
-0.030294321 0.13514684 14.373726
-1.0173439 1.7650603 12.951159
-1.3252072 2.2746673 12.679899
-1.1152211 1.8929807 7.0709105
-1.016209 1.7153686 4.7566271
-0.94599509 1.5918049 3.4606936
-0.91483158 1.535732 2.6980276
-0.88261962 1.47991 2.1396599
-0.38082168 0.74230534 14.265589
-0.45551264 0.81017369 8.625371
-1.105646 1.8924925 8.4761534
-1.0527189 1.7883406 5.697433
-0.98468053 1.6654799 4.0643406
-0.93188661 1.5718282 3.0590942
-0.89368951 1.5050235 2.392524
-0.85320461 1.434582 1.8877504
-0.84480834 1.4109226 1.6958475
-0.81408525 1.3580145 1.3590679
-0.79682356 1.3287021 1.1003881
-0.77580118 1.2926376 0.87570554
-0.76643711 1.2765396 0.68989444
-0.75105095 1.2504278 0.51868987
-0.74403834 1.2377831 0.36566246
-0.7362293 1.2247969 0.22124045
-0.82848877 1.3880693 1.5209095
-0.8035025 1.345152 1.2244437
-0.78370816 1.3115026 0.98341578
-0.76950246 1.286214 0.78033316
-0.75691158 1.2646767 0.60211432
-0.7541365 1.2595512 0.44479293
-0.73510927 1.2277765 0.29180449
-0.73149782 1.2212709 0.15110172
-0.02981459 0.13520883 14.368726
-1.0111765 1.7686008 12.951159
-1.3172591 2.279279 12.679899
-1.1161376 1.9097499 7.1186299
-1.0151639 1.7273272 4.7796392
-0.94529808 1.60335 3.47825
-0.91376024 1.5461841 2.7104266
-0.88234454 1.4912577 2.1511722
-0.37822822 0.74363017 14.265589
-0.45268184 0.81175882 8.625371
-1.0984031 1.8952529 8.4713135
-1.0534309 1.8039263 5.7349749
-0.98436725 1.6782962 4.0868468
-0.93036062 1.581816 3.071892
-0.89301866 1.515923 2.404494
-0.85335976 1.446311 1.8987757
-0.84534198 1.4230614 1.7063613
-0.81530851 1.3708842 1.3684834
-0.79431868 1.3350689 1.1031295
-0.77581686 1.3029501 0.88034314
-0.76672125 1.2871728 0.69364047
-0.75159276 1.2612836 0.52150995
-0.74474519 1.2488106 0.36752769
-0.73450023 1.2316364 0.22168753
-0.82744312 1.3973783 1.5275606
-0.80292326 1.3549031 1.23033
-0.78352195 1.3216466 0.98848218
-0.76964092 1.296698 0.78452927
-0.75731415 1.2754319 0.60540134
-0.75221753 1.2663547 0.44596523
-0.73587704 1.2388502 0.29318586
-0.73233461 1.2324067 0.15150478
-0.029342443 0.13531207 14.368726
-1.0046135 1.7714438 12.946218
-1.3092949 2.2838633 12.679899
-1.116202 1.925257 7.1615777
-1.0140479 1.7392993 4.8026524
-0.9445318 1.6149095 3.4958065
-0.9126268 1.5566471 2.7228253
-0.88037872 1.4998572 2.1588473
-0.37575981 0.74520373 14.27058
-0.44881439 0.81146765 8.605484
-1.0905279 1.896896 8.4616346
-1.0540471 1.8195387 5.7725172
-0.98507124 1.693012 4.1138539
-0.93009043 1.5940646 3.0889559
-0.89228237 1.5268358 2.4164641
-0.85344344 1.4580586 1.9098014
-0.84580112 1.435221 1.716875
-0.81842965 1.3871312 1.3810372
-0.79177892 1.3414345 1.105871
-0.77576995 1.3132786 0.88498074
-0.76694053 1.2978237 0.69738662
-0.75206792 1.2721585 0.52433002
-0.74538404 1.2598584 0.36939296
-0.735268 1.2427649 0.22258168
-0.82823366 1.4099164 1.537537
-0.80228573 1.3646667 1.2362163
-0.78327435 1.3318052 0.99354851
-0.76971549 1.3071984 0.78872538
-0.75525409 1.2821364 0.60704482
-0.75026023 1.2731603 0.44713756
-0.73406225 1.2456777 0.29387653
-0.73056543 1.2392592 0.15170631
-0.028869936 0.13541368 14.368726
-0.99842381 1.7749397 12.946218
-1.301818 2.289305 12.684794
-1.1169159 1.9420818 7.2092981
-1.0128604 1.7512846 4.825665
-0.94369626 1.6264832 3.5133626
-0.91284621 1.5695535 2.739357
-0.87997615 1.5112309 2.1703598
-0.37315628 0.74651092 14.27058
-0.44572294 0.81256187 8.6005125
-1.0826547 1.8985072 8.4519567
-1.054567 1.8351772 5.8100591
-0.98568439 1.7077531 4.1408615
-0.93105221 1.6085876 3.1102853
-0.89148092 1.5377619 2.4284341
-0.85345542 1.4698241 1.9208267
-0.84438568 1.4443221 1.7238841
-0.81948107 1.4000574 1.3904526
-0.78920442 1.3477986 1.1086124
-0.77566022 1.3236223 0.88961834
-0.76709467 1.3084917 0.70113266
-0.7524761 1.2830518 0.52715003
-0.74595481 1.2709253 0.3712582
-0.73344636 1.2496188 0.22302876
-0.82894665 1.422477 1.5475135
-0.80158979 1.3744421 1.2421026
-0.78296536 1.3419781 0.99861485
-0.76743692 1.3137962 0.7908234
-0.75553894 1.2929192 0.61033183
-0.75071758 1.284164 0.4494822
-0.73470795 1.2567829 0.2952579
-0.7287572 1.2461144 0.15190785
-0.028397078 0.13551362 14.368726
-0.99108666 1.7763783 12.931401
-1.293819 2.2938352 12.684794
-1.1182653 1.9602314 7.2617898
-1.0125737 1.7649773 4.8532801
-0.94159687 1.6359948 3.5265298
-0.91158038 1.5800431 2.751756
-0.87950498 1.5226201 2.1818724
-0.37067607 0.74806774 14.275572
-0.73506808 1.3518013 14.307799
-1.0747836 1.9000866 8.442277
-1.0549904 1.8508412 5.8476014
-0.98512506 1.7206298 4.1633673
-0.93062544 1.6208749 3.1273491
-0.89211601 1.5513132 2.4443944
-0.85339558 1.4816076 1.9318523
-0.84291708 1.4534309 1.7308931
-0.82240659 1.4163737 1.4030064
-0.79079556 1.3613925 1.1168369
-0.77326149 1.3301514 0.89193714
-0.76485312 1.3151689 0.70300567
-0.75040519 1.2898171 0.5285601
-0.74892896 1.2862568 0.37405604
-0.73158562 1.256475 0.22347584
-0.82958198 1.4350597 1.5574901
-0.80083537 1.3842292 1.2479889
-0.78259474 1.352165 1.0036812
-0.76739717 1.3243209 0.79501951
-0.75575763 1.3037193 0.61361885
-0.75110728 1.2951862 0.45182684
-0.73528504 1.2679075 0.29663923
-0.72941709 1.2572935 0.15231091
-0.027923875 0.13561192 14.368726
-0.98826486 1.7859461 12.975855
-1.285804 2.2983375 12.684794
-1.1187664 1.9771149 7.3095098
-1.0122037 1.7786893 4.8808951
-0.94062978 1.6475914 3.5440862
-0.91304773 1.5954274 2.7724209
-0.88055831 1.5368053 2.1972225
-0.36818954 0.74961638 14.280564
-0.73160934 1.3567053 14.332657
-1.0638399 1.8961529 8.4084015
-1.0553173 1.8665308 5.8851438
-0.98448759 1.7335231 4.1858735
-0.93270552 1.6377115 3.1529448
-0.89117438 1.5622702 2.4563644
-0.85326374 1.4934081 1.9428777
-0.84139502 1.4625468 1.7379023
-0.82328528 1.4293543 1.4124217
-0.79230124 1.3750137 1.1250613
-0.77303952 1.3405176 0.8965748
-0.76489073 1.3258619 0.70675176
-0.75069392 1.3007381 0.53138018
-0.74934828 1.2973707 0.37592128
-0.73217672 1.2676457 0.22437
-0.83013946 1.4476639 1.5674665
-0.80203402 1.3975334 1.2568183
-0.78216261 1.3623655 1.0087476
-0.76729316 1.3348613 0.79921561
-0.75591016 1.3145368 0.61690587
-0.74900532 1.3020134 0.45299914
-0.73579335 1.2790514 0.29802063
-0.72751576 1.2641618 0.15251243
-0.027450331 0.13570857 14.368726
-0.98239845 1.7900662 12.980795
-1.2777735 2.3028119 12.684794
-1.1198937 1.9953272 7.3620014
-1.0117502 1.79242 4.9085107
-0.94195336 1.6633692 3.5704205
-0.91441858 1.610841 2.7930856
-0.87993944 1.5482296 2.2087348
-0.3656967 0.75115675 14.285556
-0.72913027 1.3634821 14.3774
-1.0535479 1.8932642 8.379364
-1.0563912 1.8837497 5.9273782
-0.98377216 1.7464329 4.2083793
-0.93339646 1.6523114 3.1742744
-0.8916508 1.5758618 2.4723246
-0.85306001 1.505226 1.9539032
-0.84158707 1.4747673 1.7484158
-0.82215255 1.4389787 1.4186987
-0.79372144 1.3886619 1.1332856
-0.77495402 1.3547435 0.90353119
-0.76486301 1.3365712 0.7104978
-0.74853224 1.3075138 0.53279018
-0.74725705 1.3042407 0.37685391
-0.730223 1.2745148 0.22481708
-0.82877296 1.4570438 1.5741175
-0.80115014 1.4073502 1.2627047
-0.78166878 1.3725795 1.013814
-0.76712483 1.3454167 0.80341172
-0.75365657 1.3212692 0.61854941
-0.74927384 1.3130633 0.45534378
-0.73377848 1.2859132 0.2987113
-0.72557539 1.2710325 0.15271397
-0.026976453 0.13580355 14.368726
-0.97874343 1.7982622 13.015369
-1.2697275 2.3072579 12.684794
-1.1209074 2.0135715 7.4144931
-1.0121675 1.8078737 4.9407282
-0.94435096 1.6812645 3.6011441
-0.91707343 1.6287358 2.8178833
-0.88082558 1.5624604 2.2240849
-0.36319759 0.75268883 14.290546
-0.72137117 1.3603667 14.317742
-1.0432889 1.890327 8.3503275
-1.0573579 1.9009991 5.9696131
-0.98297852 1.7593586 4.2308855
-0.9352715 1.669211 3.1998701
-0.89056838 1.5868478 2.4842944
-0.85278398 1.5170603 1.9649286
-0.83994722 1.4839032 1.7554249
-0.8228817 1.4519989 1.4281141
-0.79505587 1.4023367 1.14151
-0.7745924 1.3651459 0.90816879
-0.76476979 1.3472964 0.71424389
-0.74870104 1.3184617 0.53561026
-0.74755412 1.3153827 0.37871915
-0.73069084 1.2857152 0.22571123
-0.82735121 1.4664317 1.5807685
-0.8021946 1.4206973 1.2715342
-0.78111303 1.3828065 1.0188802
-0.76689214 1.3559873 0.80760783
-0.7536906 1.332112 0.62183642
-0.74947423 1.3241309 0.45768842
-0.73416382 1.297086 0.30009267
-0.72359586 1.2779049 0.15291549
-0.026508989 0.13594002 14.373726
-0.9757809 1.8078218 13.059822
-1.2621536 2.3125699 12.68969
-1.1218073 2.031847 7.4669852
-1.0134374 1.8250601 4.9775481
-0.94546956 1.6971045 3.6274788
-0.91824251 1.6442116 2.8385479
-0.88162297 1.5767161 2.2394347
-0.36056799 0.75395203 14.290546
-0.71711409 1.3638202 14.327685
-1.0342704 1.8895468 8.3309708
-1.0582169 1.9182777 6.0118484
-0.98210663 1.7723001 4.2533917
-0.93703985 1.6861438 3.2254655
-0.89088565 1.6004784 2.5002546
-0.85408664 1.5318723 1.9796295
-0.83999985 1.4961554 1.7659385
-0.82352984 1.4650414 1.4375293
-0.7942549 1.4123929 1.146993
-0.77416766 1.3755623 0.91280639
-0.76461095 1.3580371 0.71798992
-0.74644828 1.3252466 0.53702027
-0.74537021 1.3222634 0.37965176
-0.73353475 1.3012726 0.22705248
-0.82587385 1.4758276 1.5874195
-0.80315548 1.4340686 1.2803636
-0.78049535 1.3930461 1.0239466
-0.76437461 1.3626144 0.80970585
-0.75365794 1.3429708 0.62512344
-0.74960655 1.3352157 0.46003303
-0.73448014 1.3082771 0.30147403
-0.72402364 1.2891347 0.15331855
-0.026034307 0.13603172 14.373726
-0.97239715 1.8166977 13.099337
-1.2540735 2.3169615 12.68969
-1.1225932 2.0501528 7.5194769
-1.0127147 1.8388546 5.0051637
-0.94764715 1.7150687 3.6582022
-0.91658777 1.6547918 2.8509469
-0.88233155 1.5909963 2.2547848
-0.357934 0.75520611 14.290546
-0.71136397 1.3644242 14.307799
-1.02527 1.8887264 8.3116121
-1.0597962 1.9370995 6.0587759
-0.98115623 1.7852569 4.275898
-0.93744254 1.7008251 3.2467954
-0.89111853 1.6141304 2.5162146
-0.85365552 1.5437447 1.9906548
-0.83997697 1.5084256 1.7764521
-0.82220155 1.4747065 1.4438063
-0.79543024 1.4261123 1.1552174
-0.77367949 1.3859923 0.91744399
-0.76438636 1.3687929 0.72173601
-0.74649692 1.3362199 0.53984034
-0.74554455 1.3334323 0.38151699
-0.73141831 1.308172 0.22749956
-0.824341 1.4852308 1.5940706
-0.80403286 1.447464 1.2891932
-0.77981567 1.4032984 1.0290129
-0.76402658 1.3732061 0.81390196
-0.75355858 1.3538456 0.62841046
-0.74967039 1.3463174 0.46237767
-0.73472714 1.319486 0.30285537
-0.72195047 1.2960187 0.15352009
-0.025565751 0.13616492 14.378726
-1.0057455 1.8948953 13.637715
-1.2459782 2.3213251 12.68969
-1.1225525 2.0671771 7.5671968
-1.0128446 1.8543808 5.0373812
-0.9485597 1.730968 3.6845365
-0.91622514 1.667847 2.8674786
-0.88295114 1.6053007 2.2701349
-0.35529566 0.75645089 14.290546
-0.70635223 1.3664255 14.302828
-1.0168837 1.8889732 8.2970943
-1.060434 1.9544387 6.1010108
-0.98116904 1.8001398 4.3029051
-0.93650323 1.713241 3.263859
-0.89126682 1.6278034 2.5321748
-0.8547821 1.5586052 2.0053556
-0.83987862 1.520714 1.7869658
-0.82269925 1.4877865 1.4532217
-0.79449528 1.4361979 1.1607003
-0.77312791 1.3964355 0.92208159
-0.76409596 1.3795636 0.72548205
-0.74415302 1.3430134 0.54125035
-0.74326777 1.3403226 0.38244963
-0.73167765 1.3194274 0.22839372
-0.82455301 1.4979123 1.6040471
-0.80287606 1.4573425 1.2950795
-0.77907389 1.4135627 1.0340793
-0.76361394 1.3838122 0.81809807
-0.75339246 1.3647358 0.63169748
-0.74966592 1.3574358 0.46472231
-0.73251075 1.3263774 0.30354607
-0.72225422 1.3072768 0.15392315
-0.02509029 0.13625333 14.378726
-1.0146816 1.9279625 13.850103
-1.2378677 2.32566 12.68969
-1.1224066 2.0842257 7.6149163
-1.011948 1.8682125 5.0649962
-0.94937295 1.7468947 3.7108712
-0.91443622 1.6784484 2.8798773
-0.8834815 1.6196284 2.285485
-0.35253149 0.75742459 14.285556
-0.70230716 1.370306 14.317742
-1.0085083 1.8891846 8.2825766
-1.0617812 1.9733255 6.1479383
-0.9800548 1.8131293 4.3254108
-0.9367314 1.7279638 3.2851889
-0.88989276 1.6388489 2.5441449
-0.85419559 1.5705141 2.016381
-0.83970463 1.5330199 1.7974794
-0.821244 1.4974748 1.4594986
-0.79349965 1.4462943 1.1661832
-0.77251285 1.4068917 0.92671913
-0.76373965 1.390349 0.72922814
-0.74408102 1.3540112 0.54407042
-0.74331903 1.3515173 0.38431486
-0.73186731 1.3307005 0.22928788
-0.82468629 1.510613 1.6140234
-0.80359805 1.4707775 1.3039091
-0.77826995 1.4238389 1.0391457
-0.76313657 1.3944321 0.82229424
-0.75315946 1.3756415 0.63498449
-0.74725795 1.3643075 0.46589461
-0.73263407 1.3376129 0.30492741
-0.72248793 1.3185527 0.15432622
-0.024614526 0.13634008 14.378726
-1.0169301 1.9487152 13.973584
-1.2297421 2.329967 12.68969
-1.1221553 2.1012986 7.6626363
-1.0109668 1.8820599 5.0926113
-0.95008647 1.7628483 3.7372057
-0.91258448 1.6890577 2.8922763
-0.88392246 1.6339793 2.3008351
-0.34976485 0.75838834 14.280564
-0.69824368 1.3741752 14.332657
-0.99837971 1.8860276 8.2535391
-1.0621971 1.9907227 6.1901736
-0.97886175 1.826133 4.3479171
-0.9356333 1.7404118 3.3022525
-0.88988084 1.6525576 2.5601048
-0.85514551 1.5854216 2.0310817
-0.83945489 1.545343 1.8079931
-0.82159084 1.5105903 1.468914
-0.7924431 1.4564013 1.1716661
-0.77183414 1.4173605 0.93135673
-0.76331729 1.4011486 0.73297417
-0.74394131 1.3650246 0.54689056
-0.74330127 1.3627286 0.3861801
-0.72960246 1.3376189 0.22973496
-0.82474107 1.523333 1.6240001
-0.80231035 1.4806814 1.3097954
-0.77945793 1.4379164 1.0467453
-0.76259422 1.4050652 0.82649034
-0.75285947 1.386562 0.63827151
-0.74713111 1.3754499 0.46823925
-0.73268783 1.3488652 0.30630878
-0.72265166 1.3298458 0.15472928
-0.02413846 0.13642517 14.378726
-1.0176181 1.966746 14.07731
-1.2216015 2.3342454 12.68969
-1.1224968 2.119714 7.7151279
-1.0099014 1.8959235 5.1202264
-0.94957113 1.7767152 3.759151
-0.91199863 1.7021549 2.9088082
-0.88427395 1.648353 2.316185
-0.34711549 0.75960457 14.280564
-0.69416171 1.3780324 14.347571
-0.99295837 1.8917271 8.2632179
-1.0633113 2.0096719 6.2371011
-0.97861135 1.8410724 4.3749247
-0.93445963 1.7528728 3.3193161
-0.88978404 1.666286 2.5760651
-0.85440278 1.5973651 2.0421071
-0.83912939 1.5576831 1.8185068
-0.82000822 1.5203007 1.475191
-0.79132563 1.4665184 1.1771491
-0.77109164 1.4278417 0.93599433
-0.76282877 1.4119619 0.73672026
-0.74601454 1.3802735 0.55112064
-0.74321425 1.3739562 0.38804534
-0.7272982 1.3445379 0.23018204
-0.82471704 1.5360715 1.6339766
-0.80096316 1.490594 1.3156817
-0.77851605 1.4482224 1.0518116
-0.76198691 1.4157114 0.83068645
-0.75249225 1.3974969 0.64155853
-0.74463052 1.3823289 0.46941158
-0.73267198 1.3601341 0.30769014
-0.7227453 1.3411562 0.15513234
-0.0236621 0.1365086 14.378726
-1.0135831 1.9758173 14.116823
-1.213446 2.3384953 12.68969
-1.1192541 2.1315489 7.7437596
-1.0096637 1.9115298 5.1524444
-0.95009208 1.7927165 3.7854855
-0.91001207 1.7127831 2.921207
-0.88303047 1.659919 2.3276975
-0.34446186 0.76081163 14.280564
-0.68982327 1.3814011 14.357514
-0.98692912 1.8962966 8.2680578
-1.0635043 2.0271249 6.279336
-0.97826856 1.8560323 4.4019318
-0.93442905 1.7676526 3.3406458
-0.88960218 1.6800338 2.592025
-0.85517555 1.6123178 2.0568078
-0.84040815 1.5731851 1.832525
-0.82020354 1.5334505 1.4846063
-0.79014719 1.4766456 1.1826321
-0.77028537 1.4383347 0.94063193
-0.76227403 1.4227889 0.7404663
-0.7457242 1.3913252 0.55394071
-0.74305779 1.3851998 0.38991058
-0.72730857 1.3558453 0.23107618
-0.82285941 1.5455327 1.6406276
-0.79955667 1.5005153 1.321568
-0.7775116 1.4585392 1.056878
-0.76345158 1.4303745 0.83698058
-0.75205791 1.4084462 0.64484555
-0.74209094 1.3892071 0.47058392
-0.73258621 1.3714193 0.30907148
-0.72276878 1.3524834 0.1555354
-0.023185452 0.13659036 14.378726
-1.0073843 1.9807285 14.126702
-1.2052758 2.3427167 12.68969
-1.1152531 2.1420634 7.7676201
-1.0084232 1.9254268 5.1800594
-0.9493987 1.8066225 3.807431
-0.90927404 1.725908 2.9377387
-0.88171709 1.6714963 2.33921
-0.34180403 0.76200938 14.280564
-0.68570608 1.385234 14.372429
-0.98088026 1.9008473 8.2728968
-1.0643849 2.0461347 6.3262634
-0.97884148 1.8729415 4.4334402
-0.93430668 1.7824537 3.3619757
-0.8893351 1.6938006 2.6079853
-0.85427624 1.6242946 2.0678334
-0.83991945 1.5855634 1.8430386
-0.81849331 1.5431814 1.4908831
-0.78890765 1.4867821 1.188115
-0.7694152 1.4488395 0.94526953
-0.76165301 1.4336293 0.74421245
-0.74536568 1.4023917 0.55676073
-0.74283189 1.3964587 0.39177582
-0.72491008 1.3627725 0.23152326
-0.82094568 1.5549994 1.6472787
-0.79809052 1.5104448 1.3274543
-0.77644467 1.4688668 1.0619444
-0.7626999 1.4410533 0.84117669
-0.75155622 1.4194094 0.64813256
-0.73951232 1.3960843 0.47175622
-0.73474848 1.3870962 0.31114352
-0.72272193 1.363827 0.15593846
-0.02270852 0.13667046 14.378726
-0.99976468 1.9828452 14.116823
-1.1975534 2.3478169 12.694585
-1.1084538 2.1472697 7.7723923
-1.0097985 1.9445399 5.2214818
-0.94861978 1.8205457 3.8293765
-0.90845537 1.7390485 2.9542706
-0.88181895 1.6859249 2.3545601
-0.33914202 0.7631979 14.280564
-0.68133593 1.3885764 14.382372
-0.97423905 1.9042597 8.2728968
-1.0659363 2.0667086 6.3778839
-0.97930825 1.8898772 4.4649487
-0.93409228 1.7972751 3.3833053
-0.89037406 1.7102587 2.6279354
-0.85330373 1.6362849 2.0788589
-0.83935463 1.5979574 1.8535522
-0.81853682 1.5563639 1.5002986
-0.78955382 1.5006284 1.1963394
-0.77054495 1.4632752 0.95222592
-0.76096547 1.4444824 0.74795848
-0.74493903 1.4134727 0.5595808
-0.74253643 1.4077331 0.39364108
-0.72247207 1.3696994 0.23197034
-0.81724423 1.5611634 1.650604
-0.79844046 1.5239626 1.3362837
-0.77531493 1.4792044 1.0670106
-0.76188308 1.4517443 0.8453728
-0.75098711 1.4303861 0.65141958
-0.73915499 1.4072635 0.47410086
-0.73450756 1.3984207 0.31252488
-0.72028071 1.370764 0.15613998
-0.022231314 0.1367489 14.378726
-0.99353182 1.9877131 14.126702
-1.1893506 2.3519828 12.694585
-1.1002716 2.149797 7.7676201
-1.0110527 1.9636858 5.2629046
-0.94775504 1.8344849 3.8513215
-0.90885019 1.7547029 2.9749353
-0.8803553 1.697529 2.3660727
-0.3365919 0.7646414 14.285556
-0.67788279 1.3938228 14.412201
-0.96758604 1.9076489 8.2728968
-1.0665717 2.0857818 6.4248118
-0.9796685 1.9068388 4.4964571
-0.93378562 1.8121165 3.404635
-0.89130884 1.7267443 2.6478853
-0.85381484 1.6512994 2.0935595
-0.83871335 1.6103665 1.8640658
-0.81849802 1.5695654 1.5097139
-0.7881788 1.5107898 1.2018223
-0.76953304 1.4738097 0.95686358
-0.76021129 1.455348 0.75170451
-0.74222219 1.4203159 0.56099087
-0.74217111 1.4190221 0.39550632
-0.7223025 1.3810387 0.2328645
-0.81866986 1.5772626 1.663906
-0.79684246 1.5339142 1.34217
-0.77412254 1.4895519 1.072077
-0.76100081 1.4624472 0.8495689
-0.75035042 1.4413761 0.6547066
-0.73872846 1.418457 0.4764455
-0.7319091 1.4053682 0.31321558
-0.72010833 1.3821312 0.15654305
-0.021748602 0.13678235 14.373726
-0.98693222 1.9918654 14.131641
-1.1820459 2.3579404 12.704375
-1.0920854 2.1522934 7.7628479
-1.0130736 1.984604 5.3089299
-0.94789636 1.850572 3.8776562
-0.90786123 1.7678778 2.991467
-0.87882119 1.7091432 2.3775849
-0.33403581 0.76607639 14.290546
-0.67208797 1.3942597 14.392315
-0.96092123 1.9110147 8.2728968
-1.0670866 2.1048844 6.4717398
-0.98091018 1.9257655 4.5324669
-0.9333868 1.8269778 3.4259646
-0.89213932 1.7432573 2.6678357
-0.85268486 1.6633202 2.1045849
-0.83799565 1.6227906 1.8745794
-0.8183772 1.5827856 1.5191293
-0.78866351 1.5246738 1.2100466
-0.76845688 1.4843546 0.96150118
-0.75939065 1.466226 0.75545061
-0.74167359 1.4314165 0.56381088
-0.73947459 1.425965 0.39643893
-0.72206241 1.3923934 0.23375866
-0.82170141 1.5967107 1.6805335
-0.79703546 1.5474666 1.3509996
-0.77484173 1.5037413 1.0796765
-0.76005304 1.4731613 0.85376495
-0.74964613 1.4523789 0.65799361
-0.73823279 1.4296647 0.47879013
-0.731543 1.4167147 0.31459692
-0.71757233 1.3890752 0.15674458
-0.021265926 0.13681409 14.368726
-0.98031574 1.9959958 14.13658
-1.174261 2.3629639 12.70927
-1.0838951 2.1547587 7.7580757
-1.0140785 2.0038168 5.3503528
-0.94793683 1.8666824 3.9039905
-0.90806794 1.7835749 3.0121319
-0.87867236 1.7236229 2.392935
-0.33135965 0.76723772 14.290546
-0.66652805 1.395154 14.3774
-0.95424467 1.9143574 8.2728968
-1.0682558 2.1255574 6.5233598
-0.98105037 1.9427806 4.5639753
-0.93407381 1.8441848 3.4515603
-0.89286536 1.7597969 2.6877859
-0.85455334 1.6813978 2.1229608
-0.83720136 1.6352291 1.885093
-0.81639826 1.5925601 1.5254062
-0.79096901 1.5423005 1.2210126
-0.76933914 1.4988509 0.96845758
-0.7585032 1.4771159 0.75919664
-0.74105644 1.4425308 0.56663096
-0.73898488 1.4372747 0.39830416
-0.72175193 1.4037631 0.23465282
-0.82460701 1.6161988 1.697161
-0.79898173 1.564639 1.3627722
-0.77547115 1.5179534 1.0872761
-0.76110649 1.4879273 0.86005914
-0.74887413 1.4633943 0.66128063
-0.7376678 1.4408863 0.48113477
-0.7311067 1.4280758 0.31597832
-0.71727395 1.4004647 0.15714765
-0.020783296 0.13684414 14.363726
-0.97368246 2.0001042 14.14152
-1.1669053 2.3688755 12.719061
-1.0763669 2.158529 7.7580757
-1.0149616 2.0230608 5.3917751
-0.94787633 1.8828154 3.930325
-0.90817612 1.7992948 3.0327964
-0.87843317 1.7381223 2.4082851
-0.32890591 0.76892084 14.30053
-0.6607421 1.3955446 14.357514
-0.9475565 1.9176766 8.2728968
-1.0685242 2.1447198 6.5702872
-0.98205817 1.9617671 4.5999851
-0.93465191 1.8614185 3.4771557
-0.89348662 1.7763627 2.7077358
-0.85630578 1.6995085 2.1413364
-0.83794451 1.650862 1.8991114
-0.81436116 1.60234 1.5316831
-0.79126567 1.5562339 1.229237
-0.76812059 1.5094235 0.97309518
-0.75754887 1.4880173 0.76294273
-0.74037075 1.4536579 0.56945103
-0.73842514 1.4485985 0.4001694
-0.7213707 1.4151475 0.23554698
-0.8273865 1.6357266 1.7137885
-0.79899192 1.5782368 1.3716016
-0.77601081 1.5321882 1.0948756
-0.7600134 1.4986707 0.86425525
-0.74803442 1.474422 0.66456765
-0.73703337 1.4521209 0.48347941
-0.72835857 1.435035 0.31666899
-0.714643 1.4074144 0.15734917
-0.020300712 0.13687249 14.358727
-0.96703243 2.0041907 14.146459
-1.160416 2.3765945 12.738642
-1.0688257 2.1622732 7.7580757
-1.0157226 2.042335 5.433198
-0.94878393 1.9011134 3.9610486
-0.90818548 1.8150369 3.0534613
-0.87810332 1.752641 2.423635
-0.32633215 0.77033019 14.305522
-0.65564042 1.39736 14.352544
-0.94030386 1.9198434 8.2680578
-1.0702 2.1670043 6.6266007
-0.98197758 1.9788337 4.6314936
-0.93628317 1.8810135 3.5070174
-0.89400303 1.792954 2.7276859
-0.85794222 1.717652 2.1597126
-0.83698559 1.663334 1.9096249
-0.81051421 1.6086489 1.5348215
-0.79147482 1.5701884 1.2374614
-0.76883274 1.5239606 0.98005158
-0.75652766 1.4989299 0.76668876
-0.73961627 1.4647976 0.57227111
-0.73779523 1.4599357 0.40203464
-0.72316498 1.4309908 0.23688821
-0.82836604 1.6519555 1.7270906
-0.798917 1.5918542 1.3804312
-0.77646053 1.5464453 1.1024752
-0.75885451 1.5094242 0.86845136
-0.74924845 1.4896801 0.66949821
-0.7363295 1.4633687 0.48582402
-0.72779655 1.4464159 0.31805035
-0.7142185 1.4188254 0.15775223
-0.019822815 0.13694251 14.358727
-0.96003056 2.0075541 14.146459
-1.1534433 2.3833799 12.753327
-1.0612714 2.1659911 7.7580757
-1.0163612 2.0616393 5.4746208
-0.94851345 1.917294 3.9873831
-0.90809602 1.8308011 3.074126
-0.87910843 1.7700491 2.4428227
-0.32386395 0.77199733 14.315505
-0.65120792 1.4006069 14.362486
-0.93359661 1.9231139 8.2680578
-1.0709743 2.1877763 6.6782212
-0.98275048 1.9978769 4.6675034
-0.93663496 1.8983035 3.5326128
-0.8930794 1.8068691 2.7436461
-0.85795802 1.7327889 2.1744132
-0.83594984 1.6758194 1.9201386
-0.80489403 1.6114683 1.5348215
-0.79346508 1.5879034 1.2484273
-0.76747119 1.5345589 0.98468918
-0.75543946 1.5098534 0.77043486
-0.73879308 1.4759499 0.57509118
-0.73709518 1.4712861 0.40389988
-0.72262669 1.4424115 0.23778237
-0.82924229 1.668211 1.7403926
-0.79875672 1.60549 1.3892606
-0.77681994 1.5607238 1.1100746
-0.75965416 1.5242503 0.87474555
-0.74825799 1.5007384 0.67278522
-0.73555607 1.4746293 0.48816866
-0.72937435 1.4622418 0.32012239
-0.713723 1.4302503 0.15815529
-0.019344676 0.13701087 14.358727
-0.95334971 2.011595 14.151398
-1.1490793 2.3956547 12.797384
-1.0543563 2.171025 7.7628479
-1.0168775 2.0809724 5.5160437
-0.94919586 1.9356461 4.0181065
-0.90914893 1.8491118 3.0989237
-0.87858701 1.7846098 2.4581726
-0.32138807 0.77365661 14.325489
-0.646092 1.4023873 14.357514
-0.92687804 1.9263612 8.2680578
-1.0723699 2.2101328 6.7345343
-0.98435634 2.0189064 4.7080145
-0.93802309 1.9179615 3.5624745
-0.8920694 1.8207995 2.7596061
-0.8593722 1.7509902 2.1927891
-0.83641773 1.6915145 1.9341568
-0.80099112 1.6177564 1.5379601
-0.79162925 1.5981574 1.2539102
-0.76801264 1.5491352 0.99164557
-0.75634408 1.5249407 0.77605397
-0.73790091 1.4871141 0.5779112
-0.73632473 1.4826491 0.40576512
-0.72201747 1.4538456 0.23867653
-0.82836479 1.6811433 1.7503691
-0.79851085 1.6191438 1.39809
-0.77899647 1.5788895 1.1202074
-0.75834924 1.5350307 0.87894166
-0.74719936 1.5118078 0.67607224
-0.73471284 1.485902 0.49051329
-0.72865552 1.473657 0.32150373
-0.71315634 1.441689 0.15855835
-0.018870628 0.13712098 14.363726
-0.94632214 2.0149107 14.151398
-1.1433324 2.4051692 12.826756
-1.0467715 2.1746922 7.7628479
-1.0181226 2.1020925 5.5620689
-0.94871485 1.9518721 4.0444412
-0.91008502 1.8674519 3.1237214
-0.87797457 1.799188 2.4735227
-0.31890452 0.77530801 14.335471
-0.64229894 1.407059 14.382372
-0.92014813 1.9295849 8.2680578
-1.0728744 2.2309701 6.7861543
-0.98488003 2.0380108 4.7440243
-0.93587273 1.9306117 3.5795383
-0.8922891 1.8374552 2.7795563
-0.86066961 1.7692224 2.2111647
-0.83678609 1.707233 1.948175
-0.80562812 1.6415076 1.5567907
-0.79157436 1.6121712 1.2621346
-0.76846159 1.5637337 0.99860191
-0.75510705 1.5358921 0.7798
-0.73693973 1.4982898 0.58073127
-0.73331439 1.4896175 0.40669775
-0.71913761 1.4608251 0.23912361
-0.82740706 1.6940897 1.7603455
-0.79817933 1.6328155 1.4069196
-0.77916181 1.5932168 1.127807
-0.75897419 1.5498967 0.88523579
-0.74815005 1.5271288 0.68100274
-0.73166078 1.4928221 0.4916856
-0.72786582 1.4850849 0.3228851
-0.71031904 1.4486554 0.15875989
-0.018396044 0.13722944 14.368726
-0.93928301 2.0182016 14.151398
-1.1392682 2.4183569 12.875708
-1.0391741 2.178333 7.7628479
-1.0192325 2.1232464 5.6080937
-0.94813186 1.9681181 4.0707755
-0.91090399 1.8858211 3.148519
-0.877271 1.8137838 2.4888728
-0.31630483 0.77668393 14.340464
-0.63606638 1.4063779 14.352544
-0.91287005 1.9316486 8.2632179
-1.0739889 2.2533956 6.8424683
-0.98528236 2.0571434 4.7800336
-0.93364531 1.94327 3.596602
-0.89240342 1.8541347 2.7995064
-0.86037785 1.7844309 2.2258654
-0.83549654 1.7197669 1.9586885
-0.80670375 1.6583107 1.5693445
-0.7896015 1.6224442 1.2676175
-0.76687807 1.5743716 1.0032395
-0.75380278 1.5468534 0.78354609
-0.73590958 1.5094771 0.58355141
-0.73241854 1.5009975 0.40856299
-0.71840173 1.4722775 0.24001777
-0.82474214 1.703689 1.7669965
-0.79776198 1.6465043 1.415749
-0.77923644 1.6075642 1.1354066
-0.75752282 1.5607024 0.88943189
-0.74694008 1.5382266 0.68428975
-0.73069316 1.5041111 0.49403024
-0.72916895 1.5009794 0.32495713
-0.70962566 1.4601128 0.15916295
-0.017920936 0.13733627 14.373726
-0.93255782 2.0221736 14.156338
-1.131681 2.4241643 12.885498
-1.031564 2.1819472 7.7628479
-1.0202069 2.1444335 5.6541195
-0.94744712 1.9843837 4.0971103
-0.91039085 1.9016804 3.169184
-0.87509066 1.825506 2.5003853
-0.31380701 0.77831906 14.350447
-0.63071758 1.4076165 14.3426
-0.90558881 1.9336849 8.258379
-1.072749 2.2711742 6.8847027
-0.98462951 2.074337 4.811542
-0.93134081 1.955936 3.6136658
-0.8937093 1.8735567 2.8234465
-0.85852867 1.7965999 2.236891
-0.83722383 1.7387388 1.9762113
-0.80936223 1.6786469 1.5850369
-0.78938317 1.6364892 1.275842
-0.76715547 1.5890067 1.010196
-0.75243115 1.5578244 0.78729212
-0.73481017 1.5206753 0.58637142
-0.72931337 1.5079672 0.40949559
-0.71759462 1.4837426 0.24091193
-0.82363534 1.7166568 1.7769731
-0.79900837 1.6638536 1.4275216
-0.77922034 1.6219314 1.1430061
-0.75600529 1.5715171 0.893628
-0.74566174 1.5493346 0.68757677
-0.72965556 1.5154114 0.49637488
-0.72822171 1.5124391 0.3263385
-0.7066927 1.467082 0.15936449
-0.017445305 0.13744146 14.378726
-0.92549336 2.0254166 14.156338
-1.1236396 2.429024 12.890394
-1.0239413 2.1855347 7.7628479
-1.0202129 2.1638858 5.6955423
-0.94666016 2.000668 4.1234446
-0.91098404 1.9201012 3.1939816
-0.87421453 1.8401301 2.5157351
-0.31130168 0.77994621 14.360431
-0.62515181 1.4083477 14.327685
-0.8983044 1.935694 8.2535391
-1.0721294 2.2905347 6.9316306
-0.98479515 2.0935206 4.8475518
-0.92895937 1.9686098 3.6307294
-0.89360255 1.8902861 2.8433967
-0.85660499 1.8087777 2.2479162
-0.83729291 1.7545249 1.9902295
-0.80853206 1.6919976 1.5944521
-0.78907621 1.6505522 1.2840662
-0.76734006 1.6036627 1.0171524
-0.75299376 1.572986 0.79291129
-0.73364151 1.531884 0.5891915
-0.72829169 1.5193632 0.41136083
-0.71671611 1.4952199 0.24180609
-0.82244796 1.7296373 1.7869495
-0.79840642 1.6775819 1.4363512
-0.77726018 1.6324258 1.1480724
-0.7563746 1.5864367 0.89992213
-0.74634778 1.5647146 0.69250727
-0.72854805 1.5267227 0.49871951
-0.72720325 1.5239105 0.32771987
-0.70587206 1.4785566 0.15976755
-0.016965438 0.13750151 14.378726
-0.91873813 2.0293427 14.161277
-1.1155781 2.433857 12.895289
-1.016306 2.1890955 7.7628479
-1.0192684 2.1815941 5.7323623
-0.94678777 2.0191398 4.1541681
-0.91026235 1.9360025 3.2146463
-0.87324685 1.8547703 2.5310853
-0.30868301 0.78129679 14.365422
-0.61980313 1.4095454 14.317742
-0.89049202 1.9365339 8.2438612
-1.0692096 2.3052216 6.9644794
-0.9839192 2.1107576 4.8790607
-0.92760533 1.9836529 3.6520593
-0.89338994 1.9070374 2.8633468
-0.85604697 1.8240329 2.2626171
-0.83726192 1.7703327 2.0042477
-0.80928439 1.7088809 1.607006
-0.78868073 1.664633 1.2922907
-0.76553363 1.6143367 1.02179
-0.75147247 1.5839819 0.79665732
-0.73446041 1.5474366 0.59342158
-0.72509152 1.5263332 0.41229346
-0.71576619 1.506709 0.24270025
-0.82118005 1.7426305 1.796926
-0.79944259 1.6949821 1.4481238
-0.77707589 1.646825 1.155672
-0.75470996 1.5972743 0.90411824
-0.74491751 1.5758487 0.69579428
-0.72737038 1.5380447 0.50106418
-0.72823066 1.5398698 0.3297919
-0.7049799 1.4900436 0.16017061
-0.016485363 0.13755989 14.378726
-0.91196668 2.0332463 14.166216
-1.1070755 2.4377363 12.895289
-1.0086585 2.1926296 7.7628479
-1.0190333 2.2010951 5.7737851
-0.94578862 2.0354643 4.1805024
-0.90944082 1.9519221 3.235311
-0.87218755 1.869426 2.5464354
-0.30616352 0.78290743 14.375404
-0.61445367 1.4107227 14.307799
-0.88268477 1.9373428 8.2341814
-1.0698029 2.3277564 7.020793
-0.98476017 2.1319661 4.9195709
-0.92835039 2.0034432 3.6819205
-0.8943398 1.9265432 2.8872871
-0.85539281 1.839306 2.2773178
-0.83713061 1.7861613 2.0182657
-0.8082751 1.7222663 1.6164215
-0.7881965 1.678731 1.3005152
-0.76554585 1.6290264 1.0287464
-0.74988359 1.5949861 0.80040342
-0.73313785 1.5586727 0.59624165
-0.72603613 1.542188 0.41509131
-0.71474469 1.5182095 0.24359439
-0.81983137 1.7556356 1.8069026
-0.80036682 1.7124095 1.4598964
-0.77680039 1.6612422 1.1632714
-0.75490344 1.6122299 0.91041237
-0.74542165 1.5912681 0.70072484
-0.72818506 1.5537779 0.50458109
-0.727054 1.5513705 0.33117324
-0.70401603 1.5015422 0.16057368
-0.01600509 0.1376166 14.378726
-0.90486377 2.0364172 14.166216
-1.0989772 2.4425144 12.900185
-1.0009987 2.1961372 7.7628479
-1.0137874 2.2099659 5.7875924
-0.94568866 2.0539823 4.2112265
-0.90851903 1.9678593 3.2559757
-0.87238151 1.8870063 2.5656228
-0.30374047 0.78477943 14.39038
-0.60931456 1.4123695 14.302828
-0.87488264 1.9381206 8.2245026
-1.0738273 2.3581758 7.1005697
-0.9845593 2.151227 4.9555812
-0.92896849 2.023263 3.711782
-0.8939051 1.9433409 2.9072371
-0.85464239 1.8545969 2.2920184
-0.83840108 1.8052452 2.0357885
-0.80882347 1.7391945 1.6289753
-0.78762329 1.6928456 1.3087394
-0.7654649 1.6437361 1.0357027
-0.75018477 1.6102008 0.80602247
-0.73377228 1.5742662 0.60047174
-0.72480202 1.5536163 0.41695657
-0.7136516 1.5297211 0.24448855
-0.81996965 1.7720411 1.8202046
-0.79948038 1.7261962 1.468726
-0.77643365 1.6756778 1.170871
-0.75500154 1.627206 0.91670656
-0.7458272 1.6067102 0.7056554
-0.72685146 1.5651274 0.50692576
-0.72580576 1.5628817 0.33255461
-0.70508564 1.517583 0.16117826
-0.015524621 0.13767163 14.378726
-0.89774978 2.0395634 14.166216
-1.0908591 2.4472659 12.90508
-0.9933266 2.1996181 7.7628479
-1.0189998 2.2419488 5.8612328
-0.94646478 2.074703 4.2463388
-0.90749711 1.9838139 3.2766404
-0.8711285 1.9016963 2.5809729
-0.30120513 0.78637439 14.400364
-0.60417145 1.4139977 14.297856
-0.86708593 1.9388677 8.2148237
-1.074814 2.382359 7.1615758
-0.98873049 2.1804249 5.0140967
-0.9283796 2.0407372 3.7373779
-0.89336407 1.9601593 2.9271872
-0.85379553 1.8699044 2.3067191
-0.8380577 1.8211194 2.0498068
-0.80926335 1.7561475 1.6415291
-0.7869612 1.7069768 1.3169639
-0.7652905 1.6584648 1.042659
-0.74844569 1.6212276 0.80976856
-0.73229533 1.5855279 0.60329181
-0.72555816 1.5695136 0.41975445
-0.7124868 1.5412437 0.24538271
-0.82000345 1.7884688 1.8335066
-0.80019319 1.7436709 1.4804987
-0.77597553 1.6901307 1.1784705
-0.75500429 1.6422025 0.92300069
-0.74613386 1.622174 0.71058589
-0.72544748 1.5764861 0.50927037
-0.72448611 1.574403 0.33393598
-0.70605159 1.5336493 0.16178286
-0.015040851 0.13768145 14.373726
-0.890625 2.0426848 14.166216
-1.0827211 2.4519904 12.909975
-0.98564255 2.2030721 7.7628479
-1.0207928 2.2668693 5.9164629
-0.94612134 2.093271 4.2770624
-0.90637469 1.9997848 3.2973053
-0.8737573 1.9251566 2.6078353
-0.29876429 0.78823119 14.415338
-0.59923202 1.4160979 14.297856
-0.85980374 1.9407336 8.2099848
-1.0763487 2.4081535 7.2272749
-0.9828974 2.1878345 5.0230994
-0.92875147 2.0606093 3.7672393
-0.89395636 1.9797435 2.9511273
-0.85424936 1.8883172 2.3250947
-0.83761352 1.8370135 2.0638249
-0.80959469 1.7731247 1.6540829
-0.78794724 1.7249269 1.3279297
-0.76502246 1.6732122 1.0496155
-0.7485671 1.6364778 0.81538767
-0.73274481 1.6011605 0.60752195
-0.72621214 1.5854348 0.42255229
-0.71125025 1.5527766 0.24627687
-0.82147652 1.8083177 1.850134
-0.79912072 1.7574921 1.489328
-0.77542597 1.704601 1.1860701
-0.75303012 1.6530882 0.92719686
-0.74438339 1.6333627 0.71387291
-0.7259894 1.5922767 0.51278734
-0.72309476 1.5859342 0.33531734
-0.70484054 1.5451953 0.16218592
-0.014560161 0.13773313 14.373726
-0.88348919 2.0457811 14.166216
-1.0741554 2.4557548 12.909975
-0.97794634 2.2064991 7.7628479
-1.0208325 2.2882605 5.9624887
-0.94565964 2.1118622 4.307786
-0.90630442 2.0183392 3.322103
-0.88017595 1.957428 2.6462102
-0.29641527 0.79035097 14.435305
-0.59407938 1.4176892 14.292885
-0.85201395 1.9414207 8.2003059
-1.0770178 2.4324093 7.288281
-0.98145008 2.2051742 5.0546079
-0.92686939 2.0757461 3.788569
-0.89319247 1.9966052 2.9710774
-0.85458505 1.9067562 2.3434706
-0.83853674 1.8561763 2.0813477
-0.80981725 1.7901253 1.6666367
-0.7870934 1.7390951 1.3361541
-0.76466089 1.6879779 1.056572
-0.74859113 1.6517483 0.82100672
-0.73111314 1.6124463 0.61034197
-0.72473365 1.5969064 0.42441753
-0.70994186 1.5643194 0.24717103
-0.8212887 1.8247933 1.863436
-0.79962152 1.7750121 1.5011007
-0.77478462 1.7190876 1.1936696
-0.75285602 1.668117 0.93349099
-0.74450707 1.6488625 0.71880347
-0.72442889 1.6036605 0.51513195
-0.72163171 1.5974745 0.33669871
-0.70561504 1.561304 0.16279051
-0.014079295 0.13778311 14.373726
-0.87634271 2.0488527 14.166216
-1.0655767 2.4594893 12.909975
-0.97023821 2.2098992 7.7628479
-1.0231041 2.3150406 6.0223212
-0.94507962 2.1304755 4.3385096
-0.9049719 2.0343461 3.3427677
-0.8837716 1.983912 2.6769104
-0.29395497 0.79219323 14.45028
-0.58912712 1.4197544 14.292885
-0.84473091 1.9432303 8.195466
-1.0782237 2.4582791 7.3539791
-0.97901553 2.2205386 5.081615
-0.92594779 2.0932796 3.8141649
-0.89354229 2.0162399 2.9950178
-0.85480231 1.9252201 2.3618467
-0.83787942 1.8721124 2.095366
-0.80993092 1.8071488 1.6791905
