# .PCD v0.7 - Point Cloud Data file format
VERSION 0.7
FIELDS x y z
SIZE 4 4 4
TYPE F F F
COUNT 1 1 1
WIDTH 1558
HEIGHT 1
VIEWPOINT 0 0 0 1 0 0 0
POINTS 1558
DATA ascii
-0.36068323 6.6382613 0.68977928
-0.14813432 2.8934121 2.661556
-0.5239619 10.16688 7.4963188
-0.10697141 2.0682175 1.3025963
-0.10282265 1.9681485 0.99853063
-0.12336761 2.3536947 0.90945053
-0.39384273 7.4897437 1.8996389
-0.36717016 6.9825444 1.0674382
-0.34400335 6.5203633 0.35706633
-0.15262674 4.7162194 29.996536
-0.33642182 7.3500786 13.551187
-0.20904319 4.4644399 6.6367278
-0.10395616 2.1950378 2.7076104
-0.18443598 4.123466 6.8216481
-0.22367215 4.9242721 6.6019993
-0.10769159 2.3345048 2.6117578
-0.12682268 2.582886 2.621048
-0.14212701 2.8642702 2.3947587
-0.49246308 9.8915625 6.5778375
-0.1001274 1.9967735 1.1330924
-0.10743959 2.1352797 0.95211905
-0.39523211 7.8287683 2.3940334
-0.3768236 7.4128346 1.5006613
-0.34812757 6.8483686 0.70855659
-0.13767786 2.8864524 2.6549051
-0.511935 10.657166 7.8524408
-0.099543758 2.0642724 1.3000631
-0.0959519 1.9684955 0.99853063
-0.11515093 2.3541112 0.90945053
-0.37460661 7.6318617 1.9336361
-0.34813523 7.092598 1.0826331
-0.32959789 6.6911807 0.36391836
-0.13605125 4.7128401 29.971842
-0.090675764 2.3565333 7.5862846
-0.31025755 7.3392439 13.529241
-0.19345811 4.4651423 6.6367278
-0.09755674 2.2242064 2.7421479
-0.17004128 4.1240845 6.8216481
-0.20648189 4.9250226 6.6019993
-0.099253327 2.3280923 2.6044073
-0.12154112 2.6652517 2.7016525
-0.13194869 2.8608606 2.3916202
-0.47958478 10.36104 6.8848815
-0.09315674 1.997111 1.1330924
-0.099985421 2.1356418 0.95211905
-0.38050985 8.0984392 2.4729953
-0.35907462 7.5858412 1.5333029
-0.32940027 6.9589791 0.71839237
-0.12727177 2.8794549 2.6482542
-0.49199551 11.046537 8.134984
-0.092337497 2.0646074 1.3000631
-0.089079991 1.9688184 0.99853063
-0.10693285 2.3544989 0.90945053
-0.36168727 7.9341688 2.0063198
-0.33870962 7.430161 1.1295995
-0.31446075 6.8719559 0.37117347
-0.11946191 4.707849 29.937267
-0.082553558 2.3598189 7.5958285
-0.2844514 7.3354964 13.520463
-0.17798261 4.4686017 6.6408606
-0.090308994 2.2373443 2.757498
-0.15554619 4.1220465 6.8173819
-0.1891734 4.9227023 6.5980096
-0.089138582 2.277611 2.5492799
-0.11973498 2.8438146 2.8768797
-0.12196162 2.8613038 2.3916202
-0.46039599 10.759524 7.1453209
-0.086184964 1.9974239 1.1330924
-0.092530027 2.1359777 0.95211905
-0.35557324 8.1763983 2.4955556
-0.33668032 7.6802921 1.5510226
-0.31841052 7.2635732 0.74566418
-0.11706803 2.8761508 2.6449285
-0.47812781 11.64994 8.5735149
-0.085130118 2.0649171 1.3000631
-0.082206979 1.9691174 0.99853063
-0.098713465 2.3548577 0.90945053
-0.34482235 8.1927691 2.0684526
-0.32110086 7.6292057 1.1572266
-0.29490119 6.9778328 0.37540564
-0.10306162 4.7097907 29.947145
-0.074315757 2.3600926 7.5958285
-0.25901282 7.3412309 13.529241
-0.1623832 4.4691958 6.6408606
-0.083914787 2.2760828 2.8035481
-0.14106743 4.1199579 6.8131166
-0.17198882 4.9233327 6.5980096
-0.081067011 2.2745204 2.5456047
-0.11145775 2.8869784 2.9189341
-0.11182094 2.8578229 2.3884819
-0.44417655 11.304232 7.5017114
-0.07903666 1.993286 1.1307735
-0.085073508 2.1362877 0.95211905
-0.34523958 8.632947 2.629509
-0.32491663 8.0544472 1.6219018
-0.29526195 7.319375 0.75058204
-0.10675013 2.8690796 2.6382775
-0.45884019 12.221058 8.9885006
-0.077759214 2.060894 1.2975299
-0.075332984 1.9693923 0.99853063
-0.090492874 2.3551879 0.90945053
-0.32503164 8.4222012 2.1235516
-0.30401617 7.8776989 1.1917605
-0.28215379 7.2783508 0.38749748
-0.086421423 4.6992459 29.877996
-0.065993689 2.3573537 7.5862846
-0.14678182 4.4697356 6.6408606
-0.078212678 2.3436341 2.8841357
-0.12660514 4.1178188 6.8088503
-0.1548968 4.9269147 6.6019993
-0.072256118 2.2476819 2.5162034
-0.10275556 2.9265547 2.9574842
-0.10156748 2.8504162 2.3822048
-0.42715126 11.932528 7.912931
-0.07207831 1.9935498 1.1307735
-0.077615954 2.1365716 0.95211905
-0.32262555 8.8402357 2.6901405
-0.30005488 8.1438932 1.6386889
-0.2830956 7.6836534 0.7832188
-0.096483022 2.8619716 2.6316266
-0.44574881 13.091113 9.6212807
-0.070564881 2.0611529 1.2975299
-0.068300456 1.9651074 0.99643254
-0.082271181 2.3554895 0.90945053
-0.30279094 8.627305 2.1727889
-0.27807921 7.9232531 1.1979767
-0.26185271 7.4240828 0.39334187
-0.070144266 4.708065 29.932327
-0.13117863 4.4702206 6.6408606
-0.06811846 2.2798169 2.8073854
-0.11215949 4.1156282 6.8045845
-0.13769771 4.9274259 6.6019993
-0.065574117 2.2885859 2.5603054
-0.092539348 2.9268954 2.9574842
-0.091617048 2.8507531 2.3822048
-0.40709469 12.602626 8.3515654
-0.065119088 1.9937893 1.1307735
-0.070309542 2.1414628 0.95399201
-0.30252376 9.1673317 2.7860227
-0.28439602 8.5278339 1.7114334
-0.26208222 7.8587966 0.79886657
-0.08626686 2.8548267 2.6249754
-0.063369684 2.0613866 1.2975299
-0.061440531 1.9653338 0.99643254
-0.074196823 2.360482 0.91109401
-0.27850807 8.8129206 2.2173369
-0.2641845 8.3597393 1.2587565
-0.24291773 7.6446629 0.40220925
-0.053788953 4.7152734 29.976782
-0.11557385 4.4706511 6.6408606
-0.059484296 2.2544076 2.7766855
-0.097730681 4.1133876 6.8003182
-0.12049694 4.9278765 6.6019993
-0.057925835 2.3023572 2.575006
-0.082021415 2.9165058 2.9469705
-0.44114164 15.4064 12.510004
-0.38645852 13.414831 8.8834095
-0.058159065 1.9940045 1.1307735
-0.062834017 2.1416953 0.95399201
-0.28353763 9.6094694 2.9157457
-0.26415467 8.847929 1.7720536
-0.2438619 8.1682844 0.82658547
-0.076101743 2.8476458 2.6183245
-0.056056362 2.0572863 1.2949967
-0.054579861 1.9655362 0.99643254
-0.065956749 2.3607266 0.91109401
-0.26112697 9.2899933 2.3322241
-0.24279349 8.6378174 1.2974347
-0.22484694 7.9500942 0.41450262
-0.037268221 4.7076631 29.927387
-0.10003052 4.4738407 6.6449938
-0.04985591 2.1776958 2.6845856
-0.083318889 4.1110964 6.7960525
-0.10335781 4.9312792 6.6059895
-0.05040231 2.3262708 2.6007321
-0.071752653 2.9132094 2.9434662
-0.38921905 15.481777 12.569635
-0.051084701 1.9897671 1.1284548
-0.055477459 2.1465361 0.95586509
-0.2556057 9.8261948 2.979197
-0.24245864 9.1974459 1.8382696
-0.21823487 8.2786074 0.83642125
-0.06598781 2.8404284 2.6116736
-0.048874751 2.0574694 1.2949967
-0.047608435 1.9611777 0.99433452
-0.05771587 2.3609426 0.91109401
-0.24017923 9.7573261 2.4447665
-0.21666159 8.8019819 1.3202271
-0.19969448 8.0557137 0.41873479
-0.020808062 4.7015481 29.887875
-0.084519371 4.4797897 6.6532598
-0.042129848 2.1714475 2.6769104
-0.068924278 4.1087542 6.7917867
-0.086196393 4.9346228 6.6099796
-0.042466406 2.3366015 2.6117578
-0.061357293 2.9027457 2.9329524
-0.33744943 15.588108 12.654373
-0.044138804 1.9899333 1.1284548
-0.047984313 2.1467166 0.95586509
-0.23566778 10.464874 3.1667314
-0.21709029 9.4928942 1.8942269
-0.1994686 8.7224197 0.87621123
-0.055998828 2.8369086 2.6083481
-0.041692544 2.0576274 1.2949967
-0.040762361 1.9613321 0.99433452
-0.049573183 2.3658507 0.91273755
-0.21125044 10.001082 2.5033824
-0.19691576 9.3225346 1.3927485
-0.17784949 8.3510551 0.43062511
-0.0043903659 4.6945996 29.843422
-0.068967916 4.4856849 6.6615252
-0.034448013 2.1651714 2.6692355
-0.054581631 4.1089697 6.7917867
-0.069054969 4.9409199 6.61796
-0.034409285 2.3435149 2.619108
-0.051098723 2.8958108 2.9259434
-0.28324667 15.600865 12.663789
-0.28588167 15.596304 10.311714
-0.037192371 1.9900751 1.1284548
-0.040490583 2.1468711 0.95586509
-0.20680253 10.868515 3.2851741
-0.19413476 10.019107 1.9940171
-0.17181814 8.8674545 0.88917649
-0.045974627 2.8296201 2.6016972
-0.03450983 2.0577602 1.2949967
-0.033915784 1.9614624 0.99433452
-0.041314524 2.3660092 0.91273755
-0.18627755 10.565504 2.6393712
-0.17074503 9.6846094 1.443168
-0.15545684 8.7312546 0.44594145
0.011980598 4.6883702 29.803905
-0.053443119 4.4971538 6.6780572
-0.026929663 2.1684835 2.6730728
-0.040212825 4.1065273 6.7875204
-0.051839061 4.9441433 6.6219492
-0.02603934 2.3266709 2.6007321
-0.040889315 2.8888397 2.9189341
-0.23078495 15.737975 12.773634
-0.23112851 15.576301 10.298006
-0.030245487 1.9901929 1.1284548
-0.033067562 2.1516347 0.95773816
-0.17974187 11.569457 3.491039
-0.16469951 10.368449 2.0602334
-0.14521395 9.1418648 0.91376591
-0.036049556 2.8260298 2.5983715
-0.23508768 17.955652 13.158959
-0.027326697 2.0578682 1.2949967
-0.027068796 1.9615687 0.99433452
-0.033055358 2.3661392 0.91273755
-0.15702315 11.105565 2.7694986
-0.14029871 9.922822 1.4763209
-0.12812407 8.9515438 0.4548088
0.028417183 4.6999545 29.877996
-0.037839096 4.5085683 6.6945891
-0.019303016 2.162154 2.6653979
-0.025878124 4.1066427 6.7875204
-0.034622543 4.9503207 6.6299295
-0.018021723 2.3403082 2.6154327
-0.030729199 2.8818331 2.9119253
-0.17723903 15.863231 12.874064
-0.17685054 15.585374 10.30349
-0.023298234 1.9902864 1.1284548
-0.025556752 2.151737 0.95773816
-0.1433419 11.900986 3.5883312
-0.13392337 10.806117 2.1432364
-0.12138601 9.7946424 0.97233325
-0.026115576 2.8186712 2.5917206
-0.17240931 17.956364 13.158959
-0.020143231 2.0579512 1.2949967
-0.020268213 1.9661894 0.99643254
-0.024795787 2.36624 0.91273755
-0.12529428 11.767054 2.9289336
-0.11293633 10.606598 1.5716347
-0.10179609 9.4065399 0.47314811
0.044785623 4.6959419 29.8533
-0.022156036 4.5199294 6.7111211
-0.011755574 2.1622081 2.6653979
-0.011535827 4.1041002 6.7832546
-0.017363526 4.9564381 6.6379099
-0.025118457 5.9847431 6.5662341
-0.020618496 2.87479 2.904916
-0.12240297 15.933812 12.930557
-0.12254489 15.598442 10.311714
-0.016350694 1.9903556 1.1284548
-0.018045632 2.1518133 0.95773816
-0.11020897 12.884776 3.877388
-0.10262969 11.528591 2.2803316
-0.089677922 10.073874 0.99736965
-0.016254911 2.8150115 2.5883951
-0.10977824 17.964939 13.164845
-0.012959518 2.0580089 1.2949967
-0.013404808 1.9662482 0.99643254
-0.016568884 2.3710341 0.91438103
-0.088253565 12.331237 3.0649226
-0.078569442 10.978323 1.6234356
-0.071963549 9.816494 0.48967364
0.061248437 4.7011952 29.887875
-0.0063941213 4.5312347 6.7276525
-0.0042079873 2.162236 2.6653979
0.0027902261 4.1041155 6.7832546
-6.2223073e-05 4.9594817 6.6419001
-0.0042087152 5.9576731 6.5368333
-0.01055734 2.8677123 2.897907
-0.06678284 15.934143 12.930557
-0.0093820831 1.9859706 1.1261359
-0.010534293 2.1518631 0.95773816
-0.068849832 13.599836 4.0874829
-0.065336965 12.074132 2.3838525
-0.057584688 10.641834 1.0483367
-0.0064116451 2.8075836 2.5817442
-0.047099985 17.977341 13.173675
-0.005763609 2.0537307 1.2924637
-0.0065412396 1.9662831 0.99643254
-0.0082428791 2.3569114 0.90945053
-0.047756609 13.026533 3.2325637
-0.042262197 11.528206 1.7001011
-0.038560413 10.041501 0.49874255
0.07768406 4.7025065 29.897753
0.0094464524 4.5424857 6.7441845
0.0033446853 2.1654429 2.6692355
0.017116245 4.1040807 6.7832546
0.017281154 4.968492 6.6538701
0.016634805 5.9746027 6.5552092
-0.0005458456 2.8605993 2.890898
-0.01113472 15.895356 12.899173
-0.020710407 23.694162 15.619192
-0.0024496943 1.9859912 1.1261359
-0.0030228253 2.1518867 0.95773816
-0.024661269 12.840596 2.5293412
-0.021661259 11.279406 1.1055628
0.0033795664 2.8001213 2.5750933
0.015635289 17.957184 13.158959
0.0014052842 2.0537384 1.2924637
0.00032240897 1.9662939 0.99643254
-1.5670985e-05 2.3333147 0.90123296
-0.0021723355 12.394897 1.8209702
-0.0037617427 10.765985 0.52796453
0.094145194 4.7045379 29.912571
0.02536549 4.5536804 6.760716
0.010903471 2.1654179 2.6692355
0.03142203 4.101388 6.7789888
0.034729499 4.9834666 6.67382
0.037319552 5.9473872 6.5258079
0.0094158603 2.8534513 2.883889
0.044285279 15.871944 12.880342
0.062490378 23.882256 15.742558
0.0044726739 1.9815581 1.1238172
0.0044886791 2.1518841 0.95773816
0.029300638 15.26936 4.5781741
0.021264259 13.543056 2.6627059
0.01863434 11.867048 1.1583182
0.013118604 2.7926252 2.5684421
0.0087186135 2.0882072 1.312729
0.0072193216 1.9753578 1.0006286
0.0081291171 2.3333006 0.90123296
0.043162994 13.018785 1.9079959
0.036094304 11.490339 0.55718648
0.11062143 4.7065105 29.927387
0.041388348 4.5676341 6.7813811
0.018462125 2.1653666 2.6692355
0.045738354 4.1012535 6.7789888
0.052282598 4.9983802 6.6937699
0.058344651 5.9743409 6.5552092
0.019327657 2.8462684 2.8768797
0.099712886 15.875586 12.883481
0.1489197 24.383654 16.071535
0.011415088 1.98596 1.1261359
0.012000129 2.1518555 0.95773816
0.082574524 15.264367 4.5767641
0.075773209 14.972345 2.9340982
0.0626541 12.379842 1.2043673
0.022835976 2.7888286 2.5651166
0.016504319 2.1528239 1.3507267
0.014374373 2.0116279 1.0174131
0.078886665 11.894805 0.57351053
0.12707058 4.7068725 29.932327
0.057508916 4.581531 6.8020458
0.025981953 2.1620841 2.6653979
0.060015883 4.0984607 6.7747231
0.06998232 5.0162458 6.7177105
0.079603344 6.0046096 6.5882859
0.029189426 2.8390517 2.8698704
0.15543275 15.906279 12.908587
0.23351182 24.328629 16.035894
0.018347312 1.985908 1.1261359
0.019511433 2.1518004 0.95773816
0.1358566 15.263986 4.5767641
0.14769626 17.27084 3.3705647
0.032483347 2.7812648 2.5584655
0.024067126 2.1570637 1.3532599
0.021686085 2.038795 1.0300014
0.26988328 25.772747 9.0596123
0.20264614 19.679773 4.8374662
0.13042009 12.883603 0.61341363
0.14347611 4.7056236 29.927387
0.073727004 4.5953703 6.82271
0.033528876 2.1619802 2.6653979
0.074321814 4.0982261 6.7747231
0.087649614 5.0250087 6.7296801
0.10084686 6.0212436 6.6066613
0.039001048 2.8318005 2.8628614
0.21126483 15.928989 12.927419
0.31788585 24.285856 16.00848
0.025674378 2.0168381 1.1423676
0.027080752 2.1563547 0.95961118
0.18913701 15.263419 4.5767641
0.22513682 18.694668 3.6410244
0.042134877 2.777401 2.55514
0.48701435 32.828159 23.989788
0.029251788 2.0704734 1.0446877
0.36551544 26.177715 9.2009544
0.23711623 17.196766 2.4909298
0.15990093 4.7050939 29.927387
0.089822389 4.5978985 6.8268433
0.04107539 2.16185 2.6653979
0.088570409 4.0953345 6.7704568
0.10518963 5.024672 6.7296801
0.12227608 6.0411911 6.6287122
0.048762403 2.8245158 2.8558524
0.26686612 15.928155 12.927419
0.40487581 24.418385 16.096209
0.03321759 2.0477407 1.1585991
0.034607671 2.1562469 0.95961118
0.24233896 15.25787 4.5753541
0.051690113 2.7697709 2.5484891
0.60160303 32.826256 23.989788
0.29873392 16.457724 9.7583466
0.036798913 2.0885098 1.05308
0.45689049 26.176281 9.2009544
0.29637265 17.151272 2.4847138
0.17629465 4.7037311 29.922449
0.097631812 4.0563006 7.5030355
0.10600115 4.6031837 6.8351092
0.048621405 2.1616936 2.6653979
0.10286525 4.0950007 6.7704568
0.12236028 5.009213 6.7097301
0.1440872 6.0712304 6.6617889
0.058473378 2.8171973 2.8488433
0.32246411 15.927127 12.927419
0.4898577 24.404284 16.087984
0.040889494 2.0741861 1.1725119
0.042224783 2.1607482 0.96148425
0.34084088 17.914488 1.7015193
0.061275352 2.7658408 2.5451636
0.35655341 16.47382 9.7684803
0.044184785 2.0929062 1.055178
0.54746878 26.136755 9.1878052
0.51087326 24.594465 6.0238514
0.35562289 17.120426 2.4805696
0.33847699 16.432888 0.75670213
0.19268079 4.7023101 29.917509
0.11192243 4.0607233 7.5118136
0.12177005 4.5915337 6.8185778
0.056166828 2.1615105 2.6653979
0.1170842 4.0920095 6.766191
0.13942426 4.9936948 6.6897798
0.1660172 6.0978017 6.6911898
0.068133861 2.8098454 2.8418341
0.57366234 24.343897 16.049603
0.048952062 2.1094596 1.1910623
0.050728083 2.2022996 0.97834146
0.60723257 26.554731 7.8973918
0.51290041 22.777245 4.4169645
0.070738003 2.7581451 2.5385127
0.44853371 17.721121 12.991199
0.051713478 2.1018136 1.0593741
0.63869971 26.134686 9.1878052
0.59683877 24.597391 6.0250244
0.4130998 17.025019 2.4674468
0.39788181 16.516514 0.7601282
0.20905918 4.7008333 29.912571
0.12237296 3.5085125 11.270256
0.13712105 4.5685787 6.7855144
0.063617043 2.1580975 2.6615605
0.13136727 4.0915756 6.766191
0.15638143 4.9781189 6.6698298
0.18750973 6.1039619 6.6985407
0.077743731 2.8024609 2.834825
0.66010529 24.396086 16.085241
0.057261363 2.1447017 1.2096127
0.060505748 2.2808921 1.0101831
0.70068061 26.581221 7.9058514
0.080256477 2.754149 2.535187
0.51038927 17.719448 12.991199
0.058922347 2.0970836 1.057276
0.73031849 26.146458 9.1927366
0.47596079 17.147226 2.4847138
0.22542958 4.6992984 29.907631
0.13461921 3.5080638 11.270256
0.15203044 4.5371351 6.7400517
0.07104411 2.1546588 2.6577229
0.14564873 4.0910921 6.766191
0.17323156 4.9624858 6.6498799
0.0816193 2.3864446 2.6668851
0.087302878 2.7950435 2.827816
0.51337975 16.708754 13.561387
0.74436563 24.364378 16.066051
0.065817282 2.1799109 1.2281631
0.069302067 2.30847 1.0214212
0.7934621 26.578613 7.9058514
0.67132229 22.753466 4.4132338
0.089747928 2.7501204 2.5318615
1.0649595 32.972214 24.104574
0.065955475 2.0877924 1.05308
0.82173055 26.14847 9.1943798
0.76247191 24.398294 5.9781313
0.5412268 17.318699 2.5088875
0.24179184 4.6977072 29.902693
0.14792645 3.5329266 11.35138
0.16661789 4.5028315 6.6904564
0.078214154 2.1447883 2.6462102
0.15992841 4.090559 6.766191
0.19009012 4.9498067 6.6339197
0.089821272 2.3827569 2.6632099
0.09681119 2.7875936 2.820807
0.57516223 16.808001 13.642986
0.82827044 24.328199 16.044121
0.075067274 2.228368 1.25367
0.081553392 2.4333136 1.0719931
0.88591415 26.566092 7.9030313
0.7504186 22.741165 4.4113684
0.58436322 17.708891 1.683636
0.099077351 2.7423275 2.5252106
1.1800476 32.968296 24.104574
0.86703932 24.342386 14.399131
0.071810186 2.0467281 1.0341976
0.91333032 26.154881 9.1976671
0.80543691 23.181061 5.6850519
0.59909761 17.242468 2.4985271
0.7363525 21.299681 0.95339626
0.25818843 4.6968346 29.902693
0.15964834 3.5189679 11.308433
0.1816512 4.485352 6.6656585
0.085700385 2.1445022 2.6462102
0.17420615 4.0899758 6.766191
0.20736702 4.9491129 6.6339197
0.098277703 2.3858163 2.6668851
0.10626856 2.7801113 2.8137977
0.63529664 16.844786 13.674372
0.91412783 24.350231 16.060568
0.082845271 2.2280924 1.25367
0.090904213 2.4561779 1.0813583
0.97846508 26.558044 7.9016213
0.83140785 22.782587 4.4197621
0.64599365 17.701767 1.683189
0.10850137 2.738234 2.5218852
1.2976601 33.028595 24.151663
0.95183629 24.334904 14.396598
0.077204019 2.0011137 1.013217
1.0055287 26.175127 9.205884
0.88412017 23.119823 5.6709843
0.81069773 21.296982 0.95339626
0.27435485 4.6920261 29.877996
0.17134751 3.5064619 11.270256
0.36885238 8.1877174 15.087364
0.19718318 4.4818792 6.6615252
0.093881831 2.1602011 2.6653979
0.18836164 4.0867376 6.7619252
0.22464137 4.948359 6.6339197
0.10569663 2.3651383 2.6448343
0.1158236 2.7761602 2.8102934
0.69377154 16.834688 13.668095
0.99929184 24.351068 16.063311
0.090982445 2.2366419 1.2583076
0.099477321 2.4558456 1.0813583
1.0719374 26.573641 7.9072618
0.91092879 22.779549 4.4197621
0.70539248 17.63969 1.6778239
0.11805892 2.7378387 2.5218852
1.4143258 33.056171 24.175209
1.03494 24.288366 14.371266
0.08418873 2.0008321 1.013217
1.0976818 26.190329 9.2124586
0.88358092 21.259081 0.95198554
0.2911163 4.6972437 29.917509
0.091270261 1.5964545 7.7112432
0.1839769 3.5132957 11.294116
0.3981275 8.2007313 15.113698
0.21269313 4.478353 6.657393
0.10172263 2.1662638 2.6730728
0.20262589 4.0860553 6.7619252
0.24191301 4.9475446 6.6339197
0.28731701 5.9609251 6.5478587
0.1251912 2.7686138 2.8032842
1.1668204 26.098286 21.147038
1.0844729 24.35161 16.066051
0.098984763 2.240736 1.2606263
1.1646903 26.569738 7.9072618
0.99150586 22.800768 4.4244256
0.76674592 17.632147 1.6773769
0.12744112 2.7336802 2.5185597
1.5295179 33.046997 24.172266
1.1175318 24.237238 14.343402
0.091379091 2.0050595 1.0153151
1.1905959 26.219358 9.2239628
0.96228141 21.355686 0.95601618
0.30710441 4.6899962 29.877996
0.096533343 1.5910445 7.6867671
0.42612848 8.1873341 15.091753
0.22846754 4.4803934 6.6615252
0.10960688 2.1722977 2.680748
0.21674934 4.0827188 6.7576594
0.25918168 4.9466701 6.6339197
0.3079477 5.9565001 6.5441837
0.13468111 2.7645979 2.7997797
1.2699084 26.342873 21.347898
1.1696699 24.351852 16.068794
0.10764974 2.258076 1.2699015
1.2576556 26.570299 7.9086714
0.82805514 17.624388 1.6769297
0.13679571 2.7294896 2.515234
1.6440603 33.025311 24.160492
0.098377496 2.0047283 1.0153151
1.282342 26.219759 9.225606
1.0356092 21.327246 0.95500857
0.32395542 4.6958728 29.922449
0.10202119 1.5896819 7.6818724
0.45523641 8.1953611 15.109309
0.24410564 4.479569 6.6615252
0.11736173 2.1751025 2.6845856
0.23099937 4.0819373 6.7576594
0.27661541 4.9487433 6.6379099
0.32948542 5.9689288 6.5588846
0.14414452 2.7605498 2.7962751
1.3646684 26.392696 21.391836
1.2546666 24.347622 16.068794
0.11553124 2.2576866 1.2699015
1.3606241 26.766968 7.9678931
0.890324 17.636312 1.6782711
0.14612262 2.7252672 2.5119085
1.7487918 32.82159 24.016279
0.11231694 2.1154211 1.3304614
0.10489807 1.9953083 1.0111189
1.3738582 26.215124 9.225606
1.1110879 21.343458 0.95581472
0.34090737 4.7024622 29.971842
0.10791408 1.5943953 7.7063479
0.48355839 8.188942 15.100532
0.25974077 4.4786892 6.6615252
0.12495354 2.1746795 2.6845856
0.24524657 4.0811062 6.7576594
0.29388806 4.9477477 6.6379099
0.35051757 5.971127 6.5625596
0.15358131 2.756469 2.7927706
1.4548566 26.352795 21.36359
1.339648 24.343094 16.068794
0.1219601 2.2307305 1.2559887
1.3930876 25.557795 10.429666
1.4574331 26.824322 7.9862232
1.2288922 22.764608 4.4197621
0.15520874 2.7172852 2.5052576
1.8493719 32.569122 23.836746
0.11970045 2.1150162 1.3304614
0.11669096 2.0810266 1.0509819
1.4648304 26.200737 9.2223196
1.1858608 21.344439 0.95601618
0.35820401 4.7128654 30.045931
0.11326158 1.5909622 7.6916623
0.51199067 8.1848135 15.096143
0.27554548 4.4805641 6.6656585
0.13254382 2.1742301 2.6845856
0.25949079 4.0802255 6.7576594
0.31134632 4.9496989 6.6419001
0.37177953 5.9766335 6.5699096
0.16299136 2.7523563 2.7892661
1.5399925 26.230988 21.269438
1.4243687 24.334093 16.066051
0.1284595 2.2081795 1.2443948
1.4841719 25.585173 10.442777
1.5507817 26.814285 7.9848137
1.3069385 22.735661 4.4150991
0.16446687 2.7129998 2.5019321
0.12656517 2.1059794 1.3253949
0.13367271 2.2437038 1.1265118
1.5576795 26.219036 9.2305374
1.6224767 27.390362 6.7084851
1.7080376 28.834732 4.120935
1.2606541 21.345158 0.95621777
0.37465277 4.7115865 30.045931
0.11881437 1.5905571 7.6916623
0.54039997 8.1805868 15.091753
0.29136649 4.4823833 6.6697917
0.13992621 2.1705556 2.680748
0.27355722 4.0766921 6.7533932
0.3286221 4.9485822 6.6419001
0.39397356 5.9955974 6.5919609
0.17215125 2.7446518 2.7822568
1.8379476 29.54307 23.949677
1.5093019 24.328974 16.066051
0.13480295 2.1856105 1.2328007
1.573187 25.575209 10.440904
1.6452526 26.823071 7.9890432
1.3862927 22.730959 4.4150991
0.17369704 2.7086833 2.4986067
1.6603572 26.028717 19.074711
0.13391563 2.1055248 1.3253949
0.14464733 2.2930484 1.1495904
1.648895 26.208725 9.2288933
1.7226423 27.457298 6.7260699
1.8105395 28.858248 4.1250787
1.3364027 21.360569 0.9570238
0.39096832 4.7087011 30.036053
0.1242862 1.5891175 7.6867671
0.56861973 8.173871 15.082974
0.30701113 4.481339 6.6697917
0.14750201 2.170054 2.680748
0.2876021 4.0731111 6.7491274
0.34589386 4.9474049 6.6419001
0.19224779 2.7778437 3.0968795
0.18149513 2.7404759 2.7787523
1.9390191 29.505405 23.924572
1.5942166 24.323557 16.066051
0.14099044 2.1630247 1.2212067
1.6624515 25.569561 10.440904
1.7398038 26.831526 7.9932737
0.18289903 2.704335 2.495281
1.7512044 26.022762 19.074711
0.14270797 2.1265502 1.3380609
0.15536486 2.333286 1.1684729
1.7406834 26.207521 9.2305374
1.8194396 27.465668 6.7295866
1.9112626 28.851751 4.1250787
1.4099689 21.34082 0.95641923
0.4076035 4.7096295 30.050869
0.12991558 1.5896889 7.6916623
0.59714836 8.1718369 15.082974
0.32265207 4.4802399 6.6697917
0.15484743 2.1663289 2.6769104
0.30162534 4.0694814 6.7448611
0.36316141 4.9461675 6.6419001
0.20120531 2.7670116 3.0858538
0.1908119 2.7362678 2.7752478
2.0565157 29.708141 24.094048
1.6788241 24.313673 16.063311
0.14853995 2.1625192 1.2212067
1.7523297 25.572851 10.44465
1.8337799 26.830074 7.9946837
1.9125271 28.126459 5.4437795
0.19233781 2.70368 2.495281
1.8423157 26.020525 19.077656
0.16350859 2.3327293 1.1684729
1.8433539 26.36145 9.286417
1.9159782 27.468847 6.7319317
2.0116179 28.839966 4.1243882
1.4844537 21.33577 0.95641923
0.42424995 4.7105002 30.065689
0.13572368 1.5922692 7.7063479
0.62475532 8.1577635 15.061029
0.33828905 4.4790864 6.6697917
0.16216859 2.1625788 2.6730728
0.3154248 4.0632033 6.7363296
0.38065574 4.9478745 6.6458898
0.21163595 2.7764337 3.0968795
0.19984095 2.7284715 2.7682388
2.1686745 29.81724 24.1882
1.7636843 24.307665 16.063311
0.15576862 2.1575694 1.2188879
1.8419181 25.571205 10.446523
1.9277669 26.828295 7.9960933
2.0124469 28.144112 5.4484425
2.1101506 29.510454 2.7490253
0.20177424 2.7029922 2.495281
1.9328334 26.009903 19.074711
1.795433 24.218079 14.356067
0.17165034 2.3321445 1.1684729
2.0122056 27.466839 6.7331038
2.1119139 28.827829 4.1236978
1.5603768 21.350388 0.95722538
0.44134209 4.7159529 30.110142
0.14173171 1.5968567 7.7308245
0.6543749 8.169857 15.087364
0.35392192 4.4778781 6.6697917
0.17046919 2.1715858 2.6845856
0.33023906 4.0698762 6.7491274
0.39768305 4.9435115 6.6419001
0.20909093 2.7242017 2.7647343
2.3872581 31.311457 25.402784
1.8482062 24.297192 16.060568
0.16296452 2.1525953 1.2165691
1.9315161 25.569241 10.448396
2.0217638 26.826185 7.9975038
2.1088386 28.112423 5.4437795
2.216501 29.547604 2.7530491
0.21120821 2.7022715 2.495281
2.0239267 26.00703 19.077656
1.8852983 24.280428 14.396598
0.17979001 2.331531 1.1684729
3.1620049 41.094185 14.433887
2.1084428 27.464495 6.7342763
2.2125292 28.820282 4.1236978
0.45802662 4.7167039 30.124958
0.6810928 8.1460428 15.047863
0.37001359 4.4822245 6.6780572
0.17857255 2.1773667 2.6922605
0.34510371 4.0764947 6.7619252
0.41569319 4.9511018 6.6538701
0.49573791 5.9540234 6.5552092
0.21802811 2.7163455 2.7577252
1.9330077 24.290592 16.060568
0.17012763 2.1475976 1.2142503
2.0211229 25.566963 10.450269
2.1153922 26.818966 7.9975038
2.2092638 28.134272 5.4493747
2.319628 29.539686 2.7530491
0.22094361 2.7052391 2.4986067
2.1150236 26.003834 19.080599
1.9682977 24.252216 14.383932
0.18792747 2.3308895 1.1684729
3.2993717 41.00758 14.40759
2.2046878 27.461811 6.7354484
2.3131173 28.812382 4.1236978
2.4258697 30.283024 1.3191749
0.47355402 4.7057991 30.065689
0.71181065 8.1698618 15.096143
0.38493317 4.4724941 6.6656585
0.43323579 4.9526219 6.6578593
0.51622522 5.9488797 6.5515342
0.22780639 2.7191219 2.7612295
2.0174398 24.27953 16.057827
0.17798838 2.1514051 1.2165691
2.1107376 25.564373 10.452142
2.2089953 26.811419 7.9975038
2.3098671 28.155764 5.4549708
2.4227264 29.53141 2.7530491
0.23038532 2.7044513 2.4986067
2.2061226 26.00032 19.08354
2.0511234 24.223722 14.371266
0.19644322 2.3347416 1.170571
2.3005338 27.453949 6.7354484
2.413677 28.804132 4.1236978
2.5307295 30.264414 1.3187718
0.48997745 4.7041178 30.065689
0.54064637 5.9875584 6.5956364
0.23791689 2.7254155 2.7682388
2.1025398 24.276505 16.060568
0.18473573 2.1419439 1.2119315
2.2003584 25.561468 10.454015
2.3029816 26.808323 7.9989138
2.4114847 28.186684 5.4624314
2.5257957 29.522774 2.7530491
0.24081409 2.7147882 2.5085831
2.2972231 25.996487 19.086485
2.1349099 24.207825 14.3662
0.20419544 2.3295205 1.1684729
2.9916894 34.195385 12.036007
2.3967748 27.450594 6.7366209
2.5142076 28.795532 4.1236978
2.6380916 30.275305 1.3195779
0.50547916 4.6938806 30.011356
0.76658362 8.1408482 15.052251
0.56091017 5.9788837 6.5882859
0.2490419 2.7423265 2.7857616
2.1861415 24.256523 16.052343
0.1914192 2.132462 1.2072939
2.2899852 25.558252 10.455888
2.3965461 26.800121 7.9989138
2.5102959 28.182987 5.4633641
2.6292758 29.518736 2.7534962
0.24926019 2.7027771 2.4986067
2.3894334 26.004412 19.098257
2.2190044 24.195932 14.363667
0.21232572 2.3287935 1.1684729
2.4930201 27.446899 6.737793
2.6151552 28.791512 4.1243882
2.7437561 30.265913 1.3195779
0.52082956 4.6828203 29.952084
0.79616028 8.1500416 15.074198
0.48683912 4.965807 6.6818004
0.5867039 6.0275025 6.6434131
2.2676804 24.215441 16.030413
2.379616 25.554718 10.457761
2.4905252 26.796368 8.0003242
2.6086576 28.174053 5.4633641
2.7322996 29.50938 2.7534962
0.25833717 2.6981738 2.495281
2.4813428 26.007982 19.107086
2.3030417 24.183748 14.361134
0.22002552 2.3235195 1.1663748
2.4775388 26.209814 9.2519026
2.5892694 27.442871 6.7389655
2.7161057 28.787138 4.1250787
2.8550079 30.315836 1.3219963
0.5371725 4.680974 29.952084
0.82315713 8.1329155 15.047863
0.45407259 4.5338845 6.7648492
0.54926819 5.5132694 6.7101274
0.50995564 5.0210357 6.7576103
0.6094414 6.0422826 6.6617889
0.64891511 6.6305456 6.6267443
3.9958267 41.048065 33.336803
2.3465326 24.149111 15.992032
2.4696958 25.555485 10.461507
2.5845075 26.792286 8.0017338
2.7065175 28.159885 5.4624314
2.8352897 29.499662 2.7534962
0.26812288 2.7009714 2.4986067
2.5729082 26.007206 19.112972
2.3882918 24.184141 14.3662
2.566709 26.177511 9.2436848
2.6855204 27.438501 6.7401376
2.8170574 28.782412 4.1257696
2.9700425 30.40016 1.3258255
0.55350888 4.6790705 29.952084
0.85328782 8.1466656 15.078587
0.46989605 4.5322719 6.7648492
0.56883866 5.5145068 6.7139649
0.5252744 4.9982476 6.7296801
0.62982523 6.0333753 6.654439
0.67061704 6.614048 6.6127262
4.1383057 41.026119 33.330524
2.4253685 24.086689 15.956393
2.5584242 25.542095 10.459634
2.6784916 26.787876 8.0031443
2.8038232 28.14049 5.460566
2.9387393 29.494541 2.7539432
3.8391459 37.3423 33.515549
2.6719143 26.078487 19.171837
2.4626074 24.077024 14.307937
2.6575928 26.163694 9.2420416
2.7822633 27.438631 6.7424822
2.918509 28.782255 4.127151
3.0655746 30.285225 1.3215933
0.56899232 4.6701684 29.907631
0.88068855 8.1341133 15.061029
0.48541376 4.5278058 6.760716
0.58910453 5.522049 6.7254772
0.65124559 6.0345106 6.6581135
0.69407237 6.6152134 6.61623
4.2875504 41.069492 33.377602
2.5042303 24.028168 15.923495
2.5250218 24.309889 12.880133
2.647089 25.528397 10.457761
2.7724762 26.783133 8.0045538
2.9010267 28.12076 5.4587011
3.0421877 29.489058 2.7543905
3.9659183 37.295258 33.485615
2.7531307 25.976553 19.104143
2.5443687 24.046844 14.29527
2.6255314 24.938616 11.679715
2.7484112 26.149561 9.2403975
2.8790393 27.438423 6.7448273
3.0194764 28.776815 4.1278415
3.1624231 30.189873 1.3181673
0.58471054 4.663528 29.877996
0.90934271 8.1333694 15.065419
0.5027647 4.5400686 6.7813811
0.60837644 5.5199585 6.7254772
0.67268145 6.0355697 6.6617889
0.71677506 6.6092052 6.6127262
4.4308839 41.054279 33.377602
2.5768898 23.915346 15.854959
2.6079717 24.283308 12.870857
2.7356894 25.514393 10.455888
2.8659499 26.773293 8.0045538
2.9986477 28.105577 5.4577684
3.1461618 29.488163 2.7552845
4.0993409 37.310879 33.512222
2.8437889 25.966784 19.104143
2.6207955 23.969254 14.25474
2.709131 24.897717 11.66503
2.8396735 26.139809 9.2403975
2.9747996 27.428205 6.7448273
3.1209757 28.775948 4.1292229
4.1525064 38.349205 1.6496856
0.93745351 8.1277676 15.061029
0.51797032 4.5326943 6.7731152
0.62764102 5.5178013 6.7254772
0.69413275 6.0365529 6.6654639
0.74063492 6.6137505 6.6197348
4.5737319 41.034695 33.374466
2.6793158 24.076591 15.967359
2.6795332 24.15518 12.808249
2.8181002 25.444786 10.431539
2.9609704 26.777428 8.0087833
3.0951216 28.080292 5.4549708
3.2496209 29.481951 2.7557316
4.2295551 37.296341 33.512222
2.9312341 25.928583 19.08354
2.6962283 23.887138 14.211676
2.7904501 24.838495 11.641951
2.9298482 26.12035 9.2371111
3.069442 27.407991 6.7424822
3.222506 28.774721 4.1306043
3.3786609 30.216707 1.3201826
0.96581894 8.124445 15.061029
0.53411853 4.5336533 6.7772484
0.64689791 5.5155768 6.7254772
0.71559912 6.0374599 6.6691394
0.7637167 6.611125 6.6197348
4.7093821 40.952744 33.32111
2.7886221 24.287262 16.112658
2.7582929 24.097269 12.782743
2.9069021 25.434795 10.431539
3.0533354 26.757399 8.0059643
3.194787 28.083958 5.4577684
3.3553269 29.495167 2.757967
4.3562484 37.251682 33.485615
2.7716184 23.809072 14.171145
2.8640749 24.715895 11.589499
3.0123236 26.03491 9.2108145
3.1667683 27.411596 6.7459993
3.3234971 28.768217 4.1312947
3.4927039 30.279175 1.3232056
0.63477129 4.666388 29.937267
0.99417263 8.1210241 15.061029
0.54994065 4.5317612 6.7772484
0.66614693 5.5132852 6.7254772
0.73708022 6.0382905 6.6728144
0.78721082 6.6119599 6.6232395
4.8293967 40.742786 33.164185
2.8896022 24.41441 16.203125
2.8335662 24.012707 12.743323
2.9853611 25.337015 10.395951
3.1349468 26.646528 7.9763532
3.2916541 28.062876 5.4559031
3.4576836 29.478331 2.75752
4.4750891 37.143574 33.402477
2.8819211 24.026098 14.305404
2.9454887 24.66519 11.570617
3.0959156 25.963282 9.1894493
3.2474921 27.274887 6.715519
3.4233112 28.751522 4.1306043
3.593658 30.22711 1.3215933
0.65137851 4.6664524 29.952084
0.33567381 2.4908969 12.107157
1.022215 8.1151285 15.056642
0.56575608 4.5298142 6.7772484
0.68578345 5.5141072 6.7293148
0.75815332 6.0356808 6.6728144
0.81072009 6.6127119 6.6267443
4.9527202 40.57114 33.038651
2.9758189 24.412477 16.208609
2.9189723 24.015862 12.750279
3.0682001 25.280418 10.37722
3.2215931 26.58304 7.9608426
3.3766274 27.943928 5.4353857
3.5623531 29.480911 2.7588611
4.5886326 36.998039 33.286087
2.9847903 24.16991 14.396598
3.0210445 24.56917 11.530754
3.1750157 25.858576 9.156579
3.3385386 27.229612 6.7073131
3.5188308 28.700075 4.1250787
3.6991482 30.214382 1.3215933
0.34338939 2.4826498 12.07289
1.0502281 8.1091356 15.052251
0.58192319 4.5306029 6.7813811
0.70543379 5.5148592 6.7331524
0.78008574 6.039722 6.6801648
0.83335143 6.6063037 6.6232395
5.0870328 40.495678 32.991573
3.0604959 24.397793 16.205866
3.0297272 24.220907 12.863901
3.1455088 25.182152 10.341633
3.308428 26.524031 7.9467425
3.4699054 27.897848 5.4288568
3.6658537 29.473238 2.7593081
4.7049947 36.881794 33.196301
3.7056363 29.128971 21.46456
3.0707705 24.172173 14.404197
3.1062186 24.553972 11.528656
3.2617085 25.819227 9.146718
3.4250503 27.15028 6.6909008
3.6084545 28.604095 4.113337
3.803345 30.191374 1.3211902
0.68394035 4.6617908 29.952084
0.35334143 2.490509 12.116948
1.077896 8.1006718 15.043472
0.59810275 4.5313339 6.7855144
0.72468001 5.512363 6.7331524
0.79848737 6.0167975 6.6581135
0.85686541 6.6068907 6.6267443
3.1461761 24.391108 16.208609
3.1385577 24.399111 12.96361
3.2457957 25.267578 10.380966
3.3887868 26.417158 7.9185419
3.5597858 27.827095 5.417666
3.7484908 29.302191 2.7450016
4.8380761 36.898464 33.226227
3.8062439 29.10784 21.458672
3.1456392 24.08864 14.361134
3.2147367 24.718504 11.61048
3.3560717 25.840464 9.1582222
3.5129249 27.085135 6.6780052
3.6999993 28.527481 4.1043582
3.8952329 30.073866 1.3169581
0.70078653 4.6632175 29.976782
0.36056647 2.4791849 12.067995
1.1055176 8.0921144 15.034696
0.61429429 4.5320067 6.7896466
0.74520403 5.5193295 6.7446651
0.68692142 5.0151072 6.7775607
0.82360482 6.0442057 6.6911898
0.88039362 6.6073947 6.6302485
5.1407156 38.734432 31.588682
3.231847 24.384121 16.211349
3.2260296 24.405571 12.972884
3.3351898 25.265285 10.384712
3.4897568 26.47175 7.938282
3.6479347 27.746317 5.4046092
3.8442607 29.239555 2.740531
3.9185884 29.1745 21.517536
3.228559 24.068968 14.356067
3.3003998 24.702633 11.608381
3.4462514 25.82859 9.1582222
3.6023121 27.034163 6.6686263
3.7890909 28.435854 4.0933075
4.0001869 30.060085 1.3169581
0.71611428 4.6545992 29.937267
0.3687678 2.4748898 12.05331
1.1330926 8.0834627 15.025918
0.6297226 4.5270481 6.7855144
0.76138562 5.4944701 6.7178025
0.70400381 5.0096951 6.7735705
4.3876472 32.072605 31.891016
5.2743163 38.704681 31.579268
3.317508 24.376833 16.21409
3.31001 24.385384 12.968247
3.424607 25.262678 10.388458
3.5821388 26.459408 7.938282
3.7414782 27.709074 5.3999462
3.9329743 29.127254 2.7315893
4.8716288 35.243805 31.769659
4.0264168 29.241947 17.431345
3.3822908 24.659487 11.593696
3.5472841 25.895939 9.186162
3.7025862 27.064766 6.6791773
3.8755741 28.329233 4.0801845
4.0908895 29.941992 1.3127259
0.73272014 4.6543736 29.952084
1.1606209 8.0747175 15.017139
0.64750838 4.5387511 6.8061786
0.7832666 5.510819 6.7408276
0.71761864 4.9803648 6.7376604
4.497592 32.042965 31.876999
5.4120831 38.705311 31.594957
3.4025784 24.365107 16.21409
3.3969438 24.386843 12.975204
3.5146861 25.264347 10.394077
3.6916423 26.570282 7.9749432
3.8388524 27.70071 5.4008784
4.0230021 29.02949 2.723989
4.9925261 35.211792 31.756357
3.3941002 24.028769 14.345934
3.4866884 24.777864 11.654539
3.6402845 25.902103 9.1927366
3.803118 27.094997 6.6897278
3.9992187 28.492079 4.1050491
4.1780419 29.803841 1.3076876
0.74970376 4.6563902 29.98172
1.1881018 8.065877 15.008361
0.65968287 4.5114036 6.7689824
0.56282407 3.7135782 10.268188
4.6139879 32.058842 31.908541
5.5305829 38.570595 31.500805
3.4882007 24.35722 16.216831
3.482049 24.374836 12.975204
3.6041634 25.261103 10.397823
3.7843671 26.557232 7.9749432
3.9486573 27.779545 5.4185987
4.2140145 29.646362 2.781215
5.1186299 35.216324 31.77631
3.837024 26.463745 19.554445
3.480427 24.03384 14.356067
3.6256547 25.129396 11.824482
3.7293313 25.879892 9.1894493
3.9032135 27.120047 6.6991067
4.1085262 28.546566 4.1147184
4.3438945 30.219299 1.3252208
0.76708925 4.660645 30.026173
1.2155349 8.0569439 14.999582
0.67792809 4.5257711 6.7937799
0.44838989 2.8289626 11.065246
0.57657719 3.7167065 10.282266
4.7289882 32.063709 31.929567
5.4569306 37.133907 30.345854
3.5744166 24.353168 16.222315
3.5683954 24.3713 12.979841
3.6936605 25.257542 10.401569
3.8701127 26.496393 7.9608426
4.0519762 27.809341 5.4269919
4.3426051 29.803951 2.7968628
5.2398772 35.18716 31.766333
3.9471948 26.570135 19.642742
4.3994789 29.650179 17.699863
3.7286177 25.219851 11.872737
3.8168864 25.848028 9.1828756
4.0021114 27.135107 6.7061405
4.2132053 28.566343 4.1195536
4.4493532 30.203951 1.3252208
0.78335327 4.657939 30.026173
1.243286 8.0502853 14.995194
0.69414842 4.5261583 6.7979126
0.45705494 2.8199353 11.036208
0.58792412 3.7044456 10.254109
4.4956112 29.174929 32.079227
4.8414154 32.050533 31.933073
5.575511 37.0415 30.286222
3.6600251 24.344681 16.225058
3.6541021 24.363073 12.98216
3.7831769 25.253664 10.405316
3.9909739 26.672493 8.0172443
4.1577268 27.853327 5.4381833
4.4238219 29.635923 2.7830033
5.3328404 34.973026 31.590082
4.0441732 26.584167 19.663343
4.5197878 29.745451 17.765726
3.8064368 25.13937 11.841266
3.9099145 25.853226 9.1894493
4.0975327 27.125778 6.7073131
4.3114157 28.541668 4.1181722
4.5711551 30.296917 1.3296546
0.79868662 4.6498156 29.991598
0.52534294 3.2444839 10.554459
1.2710053 8.0435305 14.990805
0.46751213 2.8220429 11.050727
0.60112798 3.7040739 10.258801
4.5968952 29.155708 32.07555
4.9554424 32.047535 31.94709
5.7029982 37.010273 30.276808
3.7456174 24.335888 16.227798
3.7404678 24.358929 12.986797
3.8727117 25.24947 10.409062
4.1080265 26.814878 8.0637751
4.2549281 27.838642 5.4381833
4.536273 29.679373 2.7883682
5.260869 33.710964 30.469387
4.1338353 26.549919 19.648626
4.5924554 29.529289 17.646667
3.892776 25.116959 11.83707
4.0015798 25.848751 9.1927366
4.1936793 27.120918 6.7096577
4.4095044 28.516659 4.1167908
4.680696 30.305464 1.3306621
0.81383854 4.6408768 29.952084
0.53666508 3.2426302 10.554459
1.2986927 8.0366812 14.986416
0.47819939 2.8253512 11.070085
0.61546618 3.710465 10.282266
4.6986399 29.139484 32.07555
5.0683937 32.037086 31.9541
5.8400331 37.040119 30.317606
3.8318439 24.330925 16.23328
3.8275363 24.35885 12.993753
3.9622626 25.244957 10.412808
4.2290936 26.975723 8.1159468
4.3505583 27.813915 5.4363184
5.3802757 33.703457 30.479364
4.2023273 26.383644 19.536787
4.6629915 29.308731 17.525074
3.9790051 25.094254 11.832873
5.1621742 32.592808 11.574181
4.2898426 27.115715 6.7120018
4.5090194 28.501093 4.1167908
4.7841139 30.274137 1.3300576
0.54997218 3.2525117 10.592634
1.3263477 8.0297356 14.982026
4.1371226 25.209154 37.592514
2.8926978 17.473761 23.527683
4.800878 29.126253 32.079227
5.1813326 32.026241 31.961109
5.9655747 36.996456 30.298777
3.9174159 24.321529 16.236023
3.9139471 24.35409 12.998391
4.0518293 25.240128 10.416554
4.3475347 27.112366 8.161068
4.4460688 27.788858 5.434453
4.7488689 29.681404 2.7914979
5.4960856 33.673416 30.469387
4.2807531 26.285036 19.474981
3.8896546 23.90987 14.320602
4.0665765 25.08021 11.832873
5.2781777 32.588573 11.579111
4.386797 27.114973 6.715519
4.6076884 28.480293 4.1160998
4.8897614 30.257254 1.3300576
0.84412402 4.6236172 29.877996
1.0865893 6.1137023 29.876833
1.3539702 8.0226955 14.977637
4.2260251 25.200109 37.60078
2.9315641 17.332829 23.352121
4.9087119 29.146091 32.119656
5.2936749 32.011475 31.964613
6.0915146 36.956203 30.283083
4.0036488 24.315958 16.241505
4.000371 24.349022 13.003029
4.1421614 25.239553 10.422174
4.4444761 27.111225 8.1652975
4.5390782 27.748932 5.42979
5.619123 33.687172 30.499319
4.3625245 26.210125 19.430834
4.1533561 25.061386 11.830775
5.3672214 32.420872 11.526519
4.4830055 27.109085 6.717864
4.7078834 28.46892 4.1167908
4.9969778 30.249859 1.3304607
0.85855114 4.6114764 29.818726
1.3815594 8.0155602 14.973248
1.3700179 7.6076269 29.798656
5.0075474 29.112072 32.101276
5.4065719 31.999836 31.971622
4.08989 24.310081 16.246988
4.0868077 24.343649 13.007667
4.2317724 25.234085 10.42592
4.5398779 27.100279 8.166708
4.6407719 27.761988 5.4353857
5.7347975 33.656311 30.489342
4.4587307 26.222631 19.451435
4.065865 23.93738 14.353534
4.2332344 25.001986 11.809795
5.4748459 32.369347 11.515015
4.5800357 27.107647 6.7213807
4.8088794 28.462078 4.1181722
5.1033702 30.237156 1.3306621
1.1273922 6.0959554 29.827879
1.4091154 8.0083303 14.968859
1.3983822 7.612689 29.837372
5.107378 29.0844 32.090252
5.5182395 31.98077 31.971622
6.6317744 38.554573 31.626345
4.1761398 24.3039 16.252472
4.1732554 24.337967 13.012304
4.3221779 25.232868 10.431539
4.6409202 27.122093 8.1779881
4.7417846 27.769829 5.4400487
5.850965 33.628731 30.482689
4.5453978 26.179029 19.430834
4.1493974 23.923042 14.353534
4.287231 24.794756 11.719579
5.5894103 32.359344 11.518302
4.6762838 27.101076 6.7237253
4.9098854 28.45488 4.1195536
5.2097349 30.224079 1.3308637
0.89249516 4.6145239 29.877996
1.1503625 6.1009879 29.871937
1.4357914 7.9962912 14.955692
1.4267983 7.6176448 29.876087
5.6310768 31.968336 31.97863
6.7717009 38.561859 31.651449
4.2623959 24.297413 16.257954
4.2597132 24.331978 13.016942
4.4118276 25.226759 10.435285
4.7157521 26.992317 8.1441469
4.8420658 27.772465 5.4437795
6.2170525 35.008751 31.749704
4.6381626 26.170965 19.436722
5.2594638 29.706793 17.813856
4.3737545 24.779638 11.719579
5.7228312 32.455898 11.55939
4.7725425 27.09416 6.7260699
5.0109 28.447321 4.120935
5.3152046 30.205711 1.3308637
0.91205329 4.6289139 29.991598
1.1714597 6.0959353 29.867043
1.4628317 7.9865184 14.946914
1.4562092 7.6274343 29.934162
5.7438951 31.955507 31.985641
6.9131317 38.576302 31.682837
4.3486571 24.290617 16.263437
4.34618 24.325682 13.02158
4.5014882 25.220335 10.439031
4.8099442 26.975691 8.1441469
4.9432831 27.779575 5.4484425
6.3585229 35.093384 31.846144
4.7294879 26.154615 19.436722
4.331636 23.978333 14.404197
4.4795322 24.87142 11.769932
4.6386166 25.780449 9.205884
4.8679495 27.082121 6.727242
5.1119213 28.439404 4.1223164
5.4135466 30.147636 1.3292514
1.1931226 6.0938077 29.876833
1.4893818 7.9743004 14.933745
1.4849855 7.6334095 29.977716
5.8573346 31.945784 31.996155
4.4349236 24.283518 16.268921
4.4326549 24.319078 13.026217
4.5919871 25.218149 10.44465
4.8319592 26.562288 8.0257044
5.0437312 27.781483 5.4521728
5.3062677 29.227549 2.7597554
6.4836965 35.085659 31.859447
4.8302865 26.189621 19.474981
4.4293704 24.039377 14.449795
4.6040463 25.06097 11.866443
4.7217593 25.726944 9.1927366
4.9650841 27.079308 6.7307591
5.2129483 28.431129 4.1236978
5.5151477 30.1089 1.3284453
1.2147851 6.0916028 29.886621
1.5158644 7.9619946 14.920579
1.5155319 7.6479068 30.055147
5.9714322 31.939165 32.010174
4.5219588 24.28022 16.277145
4.5191355 24.312166 13.030854
4.6816802 25.211082 10.448396
4.9474001 26.667891 8.0623655
5.1460423 27.79269 5.4577684
5.4309258 29.33127 2.7709322
6.6061292 35.062813 31.859447
4.894784 26.029596 19.369028
4.5092764 24.002586 14.437129
4.6914973 25.044744 11.866443
6.1344857 32.779438 11.6958
5.0613647 27.071363 6.7331038
5.3148899 28.427361 4.1257696
5.6165447 30.069818 1.3276392
1.2360413 6.0873251 29.886621
1.5422791 7.9496017 14.907413
1.5434622 7.6487308 30.079344
6.0855556 31.932142 32.024193
4.6082444 24.272503 16.282627
4.6056228 24.304947 13.035492
4.7713795 25.203697 10.452142
5.0404582 26.650461 8.0623655
5.2430253 27.774557 5.4577684
5.5166502 29.224049 2.7628849
6.7355223 35.07621 31.892702
4.9726796 25.944866 19.318995
4.6035738 24.041742 14.47006
4.7788911 25.028217 11.866443
4.9198322 25.790762 9.2272501
5.1594701 27.07263 6.737793
5.4159422 28.418365 4.127151
5.7186704 30.035309 1.3270346
1.2587254 6.0899539 29.920889
1.5686258 7.9371209 14.894244
1.5696458 7.6408334 30.069664
6.1990213 31.921206 32.034706
4.6945319 24.264481 16.288111
4.6921153 24.297422 13.04013
4.8619623 25.200544 10.457761
5.0944138 26.430157 8.0017338
5.338089 27.746439 5.4559031
5.618628 29.204613 2.7628849
6.863656 35.081799 31.919306
5.041522 25.816273 19.236586
4.6833391 24.00437 14.457394
4.8688269 25.024746 11.872737
5.0314536 25.884682 9.2666941
5.2576466 27.073542 6.7424822
5.5188837 28.418732 4.1299138
5.8206239 30.00045 1.3264301
1.2818623 6.0944905 29.964947
1.5949043 7.9245534 14.881077
1.5968221 7.6377692 30.079344
6.3124862 31.909868 32.045219
4.7808194 24.256149 16.293594
4.7786107 24.289591 13.044767
4.9525814 25.197067 10.46338
5.2245407 26.605207 8.0595446
5.4330196 27.717995 5.4540377
5.7205362 29.184824 2.7628849
6.9933686 35.094242 31.95256
5.1339726 25.81041 19.245415
4.767942 23.992104 14.459928
4.9287982 24.869587 11.807696
5.1190252 25.853064 9.2617636
5.3558922 27.074099 6.7471719
5.6209331 28.413868 4.1319857
5.9224029 29.965246 1.3258255
1.3041936 6.0949574 29.989422
1.6206335 7.9095535 14.863521
1.6237348 7.6333776 30.084183
4.261764 20.762014 28.140152
6.4252419 31.894629 32.052227
4.8671055 24.247513 16.299076
4.8651085 24.281448 13.049405
5.042325 25.188715 10.467126
5.3258448 26.629143 8.0722351
5.5297403 27.698862 5.4540377
5.8301754 29.203747 2.7664616
7.1187987 35.084259 31.965862
5.2248387 25.796293 19.24836
4.8422556 23.928837 14.432062
5.0155792 24.852232 11.807696
5.1980381 25.77949 9.2420416
5.454205 27.074297 6.7518606
5.7239938 28.413492 4.1347485
6.0240078 29.929697 1.3252208
1.3274101 6.0993218 30.03348
1.6467662 7.8968143 14.850354
1.6509022 7.6301208 30.093861
4.3329787 20.741112 28.13217
3.6539679 17.552013 19.51384
6.5379686 31.878994 32.059235
4.9542274 24.242668 16.307301
4.9524932 24.277338 13.056361
5.1329975 25.184591 10.472745
5.4302521 26.666796 8.0891552
5.620523 27.650507 5.4484425
5.9529119 29.2857 2.7758501
7.242733 35.066509 31.972515
5.3221989 25.813526 19.274847
4.9257531 23.911791 14.432062
5.1022987 24.834572 11.807696
5.2879939 25.761187 9.2420416
5.5506315 27.064613 6.7542052
5.8271198 28.412743 4.1375108
6.124434 29.888912 1.3244147
1.3506728 6.1035981 30.077538
1.6723326 7.8816462 14.832797
1.6777962 7.6255388 30.098701
3.7032704 17.482767 19.451361
6.6513939 31.866455 32.069748
5.0405231 24.233414 16.312784
5.0390077 24.268578 13.060999
5.2227602 25.175598 10.476491
5.5028582 26.549038 8.0595446
5.7289505 27.688446 5.4596338
6.0540924 29.259867 2.775403
7.3666296 35.048321 31.979164
5.412272 25.79479 19.274847
5.0233426 23.961954 14.472593
5.1917439 24.829941 11.813992
5.3769193 25.737949 9.2403975
5.6490436 27.06411 6.7588949
5.9323339 28.421316 4.141655
6.2256684 29.852678 1.3238101
1.0556079 4.5919237 29.952084
1.3739817 6.1077867 30.121593
1.6983188 7.8687382 14.819631
1.7046785 7.6208625 30.10354
4.5521741 21.054943 28.599001
3.7642741 17.469734 19.451361
6.7640691 31.850018 32.076759
5.1276803 24.227943 16.321009
5.1264372 24.263842 13.067955
5.3134799 25.17082 10.48211
5.6331177 26.708033 8.1131268
5.8053246 27.572142 5.4409814
6.1561913 29.238556 2.775403
7.4904876 35.029694 31.985817
5.5056553 25.791553 19.286619
5.1249394 24.028595 14.523257
5.2878284 24.856056 11.834971
5.4755645 25.760593 9.2551899
5.7455001 27.053736 6.7612395
6.031507 28.400434 4.141655
6.3339839 29.850313 1.3246163
1.0725142 4.5919943 29.976782
1.3962014 6.1069236 30.141174
1.7242351 7.8557439 14.806464
1.7315485 7.6160913 30.108381
4.6437602 21.12133 28.710726
3.817975 17.423372 19.41461
6.8782177 31.840157 32.090775
5.21486 24.22216 16.329231
5.2138953 24.258793 13.074912
5.40131 25.152119 10.48211
5.7957511 27.011837 8.2104187
5.9138803 27.609348 5.4521728
6.2623882 29.236366 2.7771914
7.6135111 35.006981 31.989141
5.5982237 25.784027 19.295448
5.1923332 23.934729 14.477659
5.4119954 25.010445 11.916796
5.5724382 25.773634 9.2666941
