# .PCD v0.7 - Point Cloud Data file format
VERSION 0.7
FIELDS x y z
SIZE 4 4 4
TYPE F F F
COUNT 1 1 1
WIDTH 1613
HEIGHT 1
VIEWPOINT 0 0 0 1 0 0 0
POINTS 1613
DATA ascii
4.6440401 4.3188329 30.513212
4.3631787 4.0974994 19.182205
3.808655 3.5942678 12.396817
4.3873873 4.1519656 11.137194
4.5109835 4.2778649 9.203289
5.4920816 5.2136927 9.1431055
1.3480573 1.1240678 30.188978
2.4223711 2.1832228 30.370728
3.7959795 3.5388134 20.018179
5.4606671 5.124496 20.41864
4.2636662 4.0166025 12.175529
4.0419302 3.8170249 9.1636467
4.9432759 4.6747093 9.0837946
5.3892035 5.1035161 8.124505
5.1878443 4.9421091 7.1208849
5.9738588 5.6968384 6.7383828
7.4656081 7.1218805 6.8492427
12.234678 11.679497 8.9404917
11.738507 11.209751 6.6461391
5.8199496 5.5287781 7.230793
6.9477973 6.6047945 7.0636744
7.510983 7.1426606 6.1764326
3.5067904 3.2081542 30.213865
4.6613312 4.3046684 30.527897
4.3818221 4.0863166 19.201294
3.8283057 3.5876303 12.419829
4.4105802 4.1448259 11.159139
4.5135965 4.2505174 9.1784916
5.5475645 5.2296677 9.204505
1.3517504 1.1191715 30.183987
2.4271965 2.1722658 30.335928
3.8046196 3.5221257 19.998821
5.479785 5.1065807 20.423334
4.3189945 4.0403614 12.29256
4.0609365 3.8082447 9.1764431
4.9969053 4.692492 9.1516247
5.4020457 5.0800285 8.1171541
5.2050638 4.9239697 7.1208849
5.9626198 5.6465106 6.7038593
7.438818 7.0468907 6.8026376
12.420042 11.773862 9.044837
5.8609409 5.5289264 7.2573972
7.076623 6.6803885 7.1696277
7.5045271 7.0868015 6.1511006
12.40172 11.723656 7.9766531
3.5254445 3.2026851 30.278074
4.6778293 4.2897468 30.537687
4.3960595 4.0709963 19.201294
3.8393753 3.5729144 12.415227
4.4355273 4.1392088 11.185472
4.5160742 4.2232041 9.1536942
5.6406641 5.2803659 9.3273058
1.3554257 1.1142631 30.178997
2.4311779 2.1605937 30.291183
3.8141148 3.5062716 19.984304
5.5039096 5.0932813 20.446796
4.4080353 4.0948963 12.504117
4.0799308 3.7993779 9.1892414
5.0154586 4.6770759 9.1556149
5.4668236 5.1051035 8.1869822
5.2326169 4.9155378 7.1349034
6.0361686 5.6763258 6.7634902
7.448143 7.0065575 6.7889304
5.9047289 5.5314074 7.2873268
7.0320735 6.5920653 7.1019349
7.5795312 7.1077428 6.1916318
12.445876 11.683399 7.9787507
3.5389104 3.192441 30.297832
4.6905169 4.2713361 30.523003
4.4036498 4.0495639 19.172661
3.857563 3.5647943 12.433638
4.4604893 4.1334682 11.211807
4.5369744 4.2131591 9.1660919
5.7693987 5.3632112 9.5076675
1.3588594 1.1091601 30.169014
2.4379053 2.1513886 30.28124
3.8235459 3.4903946 19.969786
5.6055188 5.1511011 20.756519
4.420702 4.0780087 12.499616
4.0969977 3.7886546 9.1977739
5.0184884 4.6472564 9.1316748
5.5094686 5.1090407 8.2237339
5.2210574 4.8704839 7.0963535
6.121376 5.716321 6.8356748
7.463388 6.9719524 6.7807059
5.9486065 5.5336504 7.317256
7.0195389 6.53443 7.066617
7.6200695 7.0959306 6.2042971
12.393629 11.553235 7.9200058
3.5575569 3.1868081 30.362043
4.7061534 4.2556195 30.527897
4.4111447 4.0281281 19.14403
3.8728621 3.5539489 12.442842
4.5119004 4.1519289 11.303978
4.5371723 4.1839428 9.1371613
5.9105549 5.4560919 9.7072182
1.3624984 1.1042284 30.164021
2.4449995 2.1425147 30.27627
3.8301184 3.4719617 19.940748
5.6387625 5.1454611 20.812832
4.4589891 4.084609 12.567134
4.1140394 3.777858 9.2063046
5.0368977 4.6317501 9.1356649
5.5871215 5.1448932 8.3119373
5.2013998 4.8182998 7.0472898
6.1498551 5.7028584 6.8450904
7.4723511 6.9316387 6.7669988
5.9953122 5.538187 7.3505111
6.8048549 6.29039 6.8311644
7.6384625 7.0634351 6.1992311
12.433883 11.509902 7.9200058
3.5663369 3.1723049 30.342285
4.7149181 4.2337241 30.488735
4.4915271 4.0728669 19.430349
3.889576 3.5443559 12.45665
4.5475826 4.1555409 11.356647
4.543448 4.1604781 9.1206303
5.929564 5.4354267 9.7072182
1.3658946 1.0991038 30.154037
2.451659 2.1332672 30.266327
3.8431487 3.4594119 19.945589
5.5901914 5.0654931 20.568808
4.4780507 4.0734138 12.580638
4.1310563 3.7669892 9.2148371
5.0530348 4.6141396 9.1356649
5.6175561 5.1367979 8.3303137
5.2155623 4.7976999 7.0437851
6.204083 5.712996 6.8827515
7.5457091 6.9508414 6.8108621
6.0421228 5.5424657 7.3837667
6.8059273 6.2474651 6.8105621
7.6789479 7.0513072 6.2118969
12.410499 11.408072 7.8801432
3.5785534 3.1608655 30.352165
4.4990611 4.0511708 19.401716
3.900476 3.5294464 12.452047
4.5727019 4.1492982 11.382981
4.547533 4.1351275 9.0999651
5.8418369 5.3176045 9.5345306
1.3710767 1.0954098 30.183987
2.4586873 2.1243479 30.261356
3.8552008 3.4459758 19.945589
5.6104054 5.0482569 20.578194
4.148047 3.7560472 9.2233686
5.0646462 4.5924253 9.1276846
5.2559762 4.8011117 7.0753264
6.1780276 5.6492796 6.8325362
7.5853519 6.9385705 6.8245692
6.0890355 5.546484 7.4170218
6.797821 6.1964402 6.7811303
7.7035151 7.0244598 6.2118969
12.316164 11.242292 7.7962203
3.5936542 3.1519408 30.38674
3.5131524 3.1106579 22.582943
4.5120621 4.0344467 19.396946
3.9243984 3.5262558 12.488868
4.5675859 4.1156764 11.334702
4.549408 4.107913 9.0751677
5.8532295 5.2907324 9.5230179
1.3751183 1.0907964 30.188978
2.465683 2.1154053 30.256384
3.8690865 3.4341662 19.955269
5.5726581 4.9792023 20.376406
4.1630721 3.7432888 9.2276354
5.0963206 4.5888319 9.1556149
5.2753444 4.7851319 7.0788307
6.1631312 5.5962811 6.7948751
7.6745248 6.9710913 6.8821402
6.1388187 5.5527463 7.4536018
6.8134155 6.1672492 6.7752442
7.7088156 6.980166 6.1966982
12.274625 11.126079 7.7458668
3.6017048 3.136826 30.362043
3.526283 3.1003921 22.597628
4.5261173 4.018672 19.396946
3.9556341 3.5294437 12.5487
4.5819244 4.0997071 11.334702
4.5616241 4.0901289 9.0710344
5.8144145 5.2188849 9.4309177
1.3802789 1.0870607 30.218929
2.473052 2.1067855 30.256384
3.8876514 3.4264574 19.989145
5.6158218 4.9826255 20.470261
4.1897311 3.7408931 9.2574968
5.1123075 4.5710149 9.1556149
6.327723 5.6656585 9.2858562
5.3291125 4.8001027 7.1278944
6.1999722 5.5903726 6.8137054
7.661552 6.9106517 6.8492427
6.1692758 5.5412641 7.4669042
6.816865 6.1272163 6.757585
7.7235165 6.9445677 6.1890984
12.323508 11.092274 7.7521615
3.6132202 3.1247427 30.366982
3.5301807 3.0820379 22.553572
4.5445962 4.0067968 19.416033
3.9942513 3.5389347 12.631546
4.5657701 4.0566459 11.260087
4.5716705 4.0704389 9.062768
5.8493462 5.2134857 9.4577808
1.3829274 1.0813475 30.193972
2.4807982 2.0984845 30.261356
3.9024262 3.4153495 20.003662
5.6603723 4.986948 20.568808
6.269536 5.5449948 17.369928
4.2183757 3.7400868 9.2916241
5.0628867 4.4951248 9.0399046
6.3525276 5.6480403 9.2932062
5.3936825 4.824266 7.1909761
6.2252488 5.5738897 6.8199825
7.6887431 6.8866558 6.851984
6.2470965 5.5718865 7.5367393
6.8713832 6.1329904 6.7899604
7.7380633 6.9089527 6.1814985
12.477205 11.152021 7.8234954
3.6235163 3.1116052 30.362043
3.540148 3.0690296 22.548677
4.5484467 3.9820597 19.373083
4.0051136 3.5236802 12.626944
4.5619431 4.0248394 11.216197
4.5900674 4.0581832 9.0710344
5.8699088 5.1951599 9.4616184
1.3864655 1.0763366 30.188978
2.4885163 2.0901549 30.266327
3.9295044 3.4148982 20.081093
5.6816421 4.9705682 20.582888
6.4360671 5.6523609 17.775038
4.2470655 3.739126 9.3257513
5.0107384 4.4176435 8.9202032
6.3213763 5.5809579 9.2197037
5.4584846 4.8480368 7.2540584
6.2446671 5.5521255 6.8199825
7.6533699 6.8069758 6.7998958
6.302845 5.5822287 7.5799708
6.9108982 6.1250525 6.8076191
12.692568 11.265058 7.9325943
3.6343555 3.098938 30.362043
3.5508394 3.0566535 22.548677
4.5555596 3.9602828 19.344454
4.0218029 3.5135341 12.640752
4.5921783 4.0230947 11.255698
4.6147795 4.0514193 9.0916996
5.9674587 5.244463 9.5882559
1.3899854 1.0713143 30.183987
2.4957972 2.0814555 30.266327
3.9347391 3.3954124 20.047216
5.7080779 4.9586272 20.615738
4.2718725 3.7345767 9.351347
5.0397315 4.4120345 8.9441442
6.2235532 5.4560547 9.0506458
5.5716619 4.9138727 7.3802214
6.2669268 5.5328693 6.8231206
7.5579882 6.6750374 6.6957207
6.3867784 5.6169057 7.6564574
6.9716825 6.1356068 6.84588
9.9960012 8.8003054 7.9116597
12.796505 11.277699 7.9724569
3.6457438 3.0867345 30.366982
3.5622616 3.0449014 22.553572
4.5682254 3.9433811 19.33968
4.5989652 4.0007524 11.238142
4.6691952 4.0704188 9.1702251
6.0026336 5.2383528 9.615118
1.3939459 1.0666311 30.188978
2.503458 2.0730708 30.271297
3.94084 3.37675 20.018179
5.7253513 4.9386721 20.615738
4.2848825 3.7196424 9.351347
5.1028585 4.4359303 9.0279341
6.1607356 5.3630676 8.9330406
5.7578034 5.0424142 7.6010079
6.2744946 5.5006962 6.8105669
7.6095362 6.6734271 6.7203937
6.4119711 5.5994897 7.6631083
6.9778395 6.0979352 6.8311644
10.06236 8.7965689 7.9395251
12.835794 11.232963 7.9724569
3.6588755 3.0759897 30.38674
3.5728683 3.0324483 22.553572
4.5638289 3.9118683 19.263329
5.2689152 4.5385289 16.442436
4.6310272 4.0003304 11.282033
4.7386937 4.1019802 9.2776823
6.0111933 5.208972 9.5997677
1.3976606 1.0617589 30.188978
2.5090322 2.0629656 30.251413
3.9430296 3.3548284 19.969786
5.7609053 4.9343724 20.681435
6.4850001 5.576138 17.74803
4.3314228 3.7336097 9.4238672
5.2027097 4.490941 9.1755657
6.1281233 5.2971907 8.8595381
5.8937764 5.1252503 7.7552075
6.328887 5.5094285 6.8482289
7.6958513 6.7017441 6.7752228
6.431478 5.5770741 7.6631083
7.0143476 6.0867863 6.84588
10.164622 8.8235598 7.9952545
3.6612394 3.0562291 30.317589
3.5834317 3.0199583 22.553572
4.585413 3.9026859 19.296732
4.6413269 3.9810224 11.273254
4.8148708 4.1386085 9.3975382
6.0147614 5.1754136 9.5767431
1.4027419 1.0579159 30.218929
2.5153921 2.0535207 30.24147
3.9431937 3.3313105 19.911715
5.738657 4.8806939 20.540653
6.4944916 5.5449862 17.721024
4.395946 3.7625599 9.5347824
5.2160664 4.4707918 9.1715755
6.1465769 5.2757673 8.8595381
5.9764132 5.1605844 7.8393173
6.3539696 5.492394 6.8545051
7.7318506 6.68578 6.7861891
6.3490467 5.4668837 7.5433903
7.0263653 6.0543494 6.8370509
10.208422 8.799283 8.0053873
3.6659024 3.0384719 30.268198
3.6009798 3.0133119 22.597628
4.6058493 3.8924372 19.325365
4.7500086 4.0455461 11.501487
4.8613944 4.1491785 9.4595318
5.9937997 5.1210737 9.5153427
1.4052702 1.0521485 30.193972
2.5213025 2.043721 30.226553
3.9519088 3.3151023 19.897194
5.7451115 4.8517251 20.503111
6.5237713 5.5307288 17.74803
4.4805951 3.8079939 9.6883564
6.1520534 5.2432837 8.8411617
5.997098 5.1420121 7.8428216
6.3081241 5.4144092 6.7854595
6.3510642 5.43013 7.5234375
7.0505276 6.032414 6.839994
10.2489 8.7720051 8.0129871
3.6740866 3.0236824 30.24844
3.6161759 3.0046279 22.627001
4.6194081 3.8763361 19.325365
5.380374 4.5372615 16.640345
4.786046 4.0474992 11.554155
4.9059033 4.1576543 9.5173931
6.0116391 5.1001201 9.5153427
1.4080071 1.0465484 30.174004
2.5263443 2.033237 30.201696
3.9644227 3.3020921 19.902035
5.7924252 4.8571429 20.611044
6.5330443 5.4995117 17.721024
4.6214237 3.8999772 9.9613752
5.1021557 4.3117375 8.9202032
6.3204145 5.3487978 9.0543213
6.0068641 5.1141124 7.8323083
6.2262645 5.3065147 6.6787519
6.3899045 5.4248433 7.5467157
7.0961852 6.0287018 6.8635392
10.322159 8.7724676 8.0459185
3.6846187 3.0108392 30.24844
3.6329255 2.9971707 22.666162
4.6386452 3.864965 19.349224
5.4066644 4.5272326 16.672564
4.724946 3.9676237 11.374203
4.8816299 4.1078911 9.4429998
1.410722 1.0409421 30.154037
2.5363414 2.0267348 30.236496
3.9739873 3.2866311 19.892355
5.7536449 4.7905197 20.413948
6.6056519 5.521349 17.865063
4.6430049 3.8905215 9.9784393
5.0848594 4.2667851 8.8643436
6.4480577 5.4183035 9.2086782
6.008338 5.079299 7.8112812
6.3012028 5.3325229 6.7383828
8.6950312 7.3609295 7.5537992
6.4088016 5.4025049 7.5467157
7.2160511 6.0872946 6.9577203
10.342834 8.7280426 8.0383186
3.6957095 2.9984484 30.253378
3.6488793 2.9889872 22.70043
4.6567087 3.8525558 19.368313
5.4104161 4.4983397 16.635742
4.6964583 3.9158313 11.273254
4.8937798 4.0890217 9.4388666
1.4138811 1.0356704 30.144053
2.5438187 2.0182004 30.24147
3.9873788 3.2743351 19.902035
5.7370811 4.742919 20.296629
6.636611 5.5079889 17.89657
4.6886353 3.9009793 10.046695
5.1182423 4.2644401 8.8962631
6.5398183 5.4565754 9.3115826
6.0232997 5.0560021 7.8077765
6.3644772 5.3480549 6.7854595
8.7366772 7.3439865 7.5675068
6.4705687 5.416049 7.5965981
7.2775378 6.0958104 6.9959812
12.01212 10.065124 9.294776
3.709784 2.9884539 30.283014
3.6656101 2.9813714 22.73959
4.6805096 3.8448048 19.411261
5.3944464 4.4533086 16.539089
4.6990294 3.89025 11.246921
4.8993607 4.0647273 9.4223356
1.4177213 1.0308985 30.149046
2.5521042 2.0102978 30.256384
4.0007324 3.2619848 19.911715
5.7295923 4.7031555 20.212158
6.6608367 5.4889431 17.910074
4.670053 3.8580127 9.9784393
5.130775 4.2446275 8.8922729
6.3786907 5.2844815 9.0579958
6.0600886 5.0509291 7.8323083
6.3980498 5.338274 6.8011513
8.7429972 7.2973685 7.5510578
6.5152779 5.4149084 7.6265278
7.3826785 6.1401539 7.0754466
12.063751 10.036918 9.3074417
3.7268684 2.9808247 30.337347
3.6736183 2.9666393 22.724905
4.693902 3.8284431 19.411261
4.7199807 3.8799067 11.264476
4.9070034 4.0422335 9.409936
1.4217794 1.026281 30.159029
2.5595257 2.0017052 30.261356
4.0150256 3.2503726 19.926231
5.9305744 4.8335762 20.85976
6.2503204 5.114131 16.762264
4.6592932 3.8218396 9.927248
5.1362472 4.2190418 8.8763132
6.2661881 5.1545005 8.874238
6.3469324 5.2525668 8.1757536
6.4256368 5.3233576 6.8105669
8.787734 7.282814 7.5675068
6.5686975 5.4206495 7.6664333
7.3635502 6.0808878 7.0371857
12.161858 10.046909 9.3555717
3.7335997 2.9648981 30.307711
3.6887176 2.957619 22.754276
4.6991167 3.8054593 19.377857
5.9405951 4.8348217 18.103947
4.7390618 3.8679502 11.277643
4.9145494 4.0197353 9.3975382
7.9894834 6.5417204 12.439521
1.4255879 1.0214798 30.164021
2.5669184 1.9930854 30.266327
4.0292864 3.2386999 19.940748
6.0024114 4.8573523 21.052164
6.3323412 5.144443 16.933311
4.6867609 3.8170807 9.9571095
5.1322622 4.1858516 8.8443937
6.2290039 5.0875616 8.79706
6.3734951 5.2371721 8.1862679
6.4862638 5.3355131 6.8545051
6.5760264 5.3882227 7.653132
7.2690835 5.9603214 6.9282885
12.20352 10.009864 9.3606377
3.7427053 2.9508853 30.297832
3.6934426 2.9402859 22.720009
4.7088814 3.7862267 19.363541
5.960475 4.8165112 18.113152
4.7432313 3.8438454 11.255698
4.9219971 3.9972334 9.3851385
7.960042 6.4713326 12.358933
1.4296156 1.0168318 30.174004
2.5747044 1.984764 30.27627
4.0415492 3.2253995 19.945589
6.0475802 4.8590674 21.150713
6.4197316 5.1783447 17.117861
4.7122245 3.8105373 9.9827061
5.1538668 4.1735997 8.8563633
6.3204527 5.1255765 8.8999643
6.4470019 5.2599816 8.2563581
6.5530825 5.3522339 6.9047208
9.9619732 8.1393156 8.518795
6.5716243 5.3463845 7.6265278
7.2804399 5.9272547 6.9194589
12.151481 9.8964262 9.294776
3.7517593 2.9368446 30.287954
3.6996894 2.9242189 22.695534
4.7185693 3.7669728 19.349224
5.9726796 4.7920084 18.099344
4.7678156 3.8362732 11.282033
4.9337296 3.9782619 9.3810053
7.9775944 6.4394808 12.351258
1.433864 1.0123343 30.188978
2.5820403 1.9760883 30.28124
4.0488429 3.2081497 19.926231
6.39189 5.1191611 16.996328
4.7560024 3.818557 10.046695
5.1707525 4.1574717 8.8603535
6.3541489 5.1162386 8.9220152
6.4625521 5.2351999 8.2528534
6.574748 5.331778 6.9078588
9.9968185 8.1097603 8.5242786
6.5815325 5.3163738 7.6165509
7.3042297 5.9043469 6.9224019
12.202712 9.8675032 9.3074417
3.7619879 2.9237306 30.287954
3.7074716 2.9094012 22.680849
4.7293501 3.7486248 19.33968
4.7699509 3.8106382 11.255698
4.9278154 3.945188 9.3438091
7.9324937 6.3574739 12.247646
1.437862 1.0076543 30.198961
2.5897713 1.9677082 30.291183
4.0590281 3.1932199 19.921391
5.7377515 4.5445876 19.95875
6.3960881 5.0859785 16.960318
4.7835784 3.8133121 10.076556
5.2252669 4.1713557 8.9281836
6.4461136 5.1533012 9.0249195
6.4919033 5.2215509 8.2668715
10.787078 8.6885843 9.165782
6.5476217 5.2513194 7.5566921
7.3121862 5.8686943 6.9106297
12.233721 9.8221483 9.3049088
3.7752471 2.9129546 30.312651
3.7095723 2.8901844 22.631895
4.7388878 3.7293243 19.325365
4.7869759 3.7969408 11.264476
4.9591799 3.9419703 9.376873
1.442319 1.0032879 30.218929
2.5974753 1.9592983 30.301126
4.0681691 3.1774848 19.911715
5.7603621 4.5298643 19.982212
4.8091302 3.8063021 10.102151
5.2516031 4.1624494 8.9481335
6.4375095 5.1096921 8.9881678
6.5128765 5.2010832 8.2703762
6.9340744 5.5433769 7.2405353
11.013276 8.8075714 9.3302689
6.5133367 5.1865668 7.4968333
7.4401054 5.9287791 7.0106974
12.224111 9.7444525 9.2719774
3.7884767 2.9021211 30.337347
3.714 2.8728571 22.597628
4.7483478 3.7100027 19.31105
5.9871926 4.7014503 17.993486
4.9707003 3.9228926 9.3727398
1.4441488 0.99709988 30.183987
2.6051524 1.9508584 30.311069
4.0772491 3.1617243 19.902035
5.735333 4.4778709 19.841431
6.3029385 4.9404812 16.622726
4.8121343 3.781435 10.080822
5.251893 4.1329117 8.9241934
6.4499803 5.082993 8.9808178
6.536581 5.1827488 8.2773857
6.9533825 5.5191388 7.2405353
11.181491 8.8782806 9.4454117
6.496254 5.1360116 7.4569273
7.650948 6.0532475 7.1872869
12.244529 9.6910219 9.2618446
3.7985837 2.8888793 30.337347
3.717545 2.8549144 22.558468
4.7553716 3.6888306 19.287188
5.9819965 4.6637058 17.929052
6.730319 5.2621946 15.723782
4.9865785 3.907253 9.376873
1.4492881 0.99319422 30.218929
2.609807 1.9401629 30.286213
4.0872645 3.1467059 19.897194
5.7154675 4.430337 19.719419
6.3132734 4.9131017 16.604723
4.8129668 3.7549894 10.055226
5.2591639 4.1089888 8.9122238
6.4943838 5.0813375 9.0175695
6.5658417 5.1687236 8.2914038
6.9726052 5.494833 7.2405353
11.284656 8.8961468 9.505723
6.5376387 5.1317468 7.483531
7.7801037 6.1113954 7.287354
12.315568 9.6775208 9.2897091
3.809885 2.8765383 30.347225
3.7582581 2.8653781 22.744486
4.7658539 3.6703875 19.277645
5.9719753 4.622468 17.850807
6.7429705 5.2342634 15.710613
5.0112929 3.8984621 9.3975382
2.6157057 1.9304082 30.27627
4.0972247 3.1316559 19.892355
5.7144861 4.3977299 19.663107
6.3252168 4.8870416 16.591219
4.8095498 3.7253892 10.021098
5.2258563 4.053669 8.8324232
6.5388551 5.0794344 9.0543213
6.5754132 5.1391845 8.2808895
7.0101361 5.4848509 7.2593665
11.667965 9.1324635 9.7990599
6.6203032 5.1593881 7.5566921
7.8013887 6.0842009 7.287354
12.383261 9.6609879 9.3150406
3.8161724 2.8604262 30.317589
3.8104556 2.8841944 22.999037
4.7798223 3.6546357 19.282417
6.0004673 4.6111169 17.887629
6.7517152 5.2033849 15.688668
5.07164 3.9170675 9.4843292
2.6211381 1.920321 30.261356
4.1051273 3.1150556 19.877836
5.6982627 4.3536592 19.55517
4.8245916 3.7101684 10.025364
5.2089386 4.0115018 8.7805529
6.6666121 5.1414633 9.2050028
6.649663 5.1599264 8.3509808
7.0261655 5.4579606 7.256228
11.693171 9.0865488 9.7935772
6.6412253 5.1385326 7.5600176
7.7842274 6.0272369 7.2520361
12.416909 9.6177025 9.3150406
3.824887 2.8461599 30.307711
3.8880651 2.9216421 23.405342
4.8056293 3.6478565 19.334909
6.039825 4.6079178 17.956665
6.7546215 5.1681428 15.653556
5.0942149 3.9061894 9.5008612
2.6269629 1.9105328 30.251413
4.1179838 3.1022198 19.887514
5.6708031 4.3014135 19.409697
6.4475093 4.9100289 16.820782
4.8395863 3.6948869 10.029631
5.1846089 3.9640117 8.716712
6.7141271 5.1408324 9.24543
6.6535087 5.1258016 8.3334579
7.0544214 5.4405322 7.2656436
11.5957 8.946064 9.6866598
6.614707 5.0812011 7.5101352
7.8372655 6.0246625 7.2814679
12.423067 9.5532799 9.294776
3.8335483 2.8318677 30.297832
3.9194598 2.9238808 23.532618
4.8278704 3.6382456 19.373083
6.0558729 4.5868068 17.956665
6.7497334 5.1271491 15.600886
5.1682734 3.9344044 9.6124506
7.7285438 5.8897777 11.710395
2.6327515 1.9007275 30.24147
4.1227479 3.0833097 19.85848
5.7216249 4.3085823 19.531708
6.4646096 4.8874931 16.820782
4.8545327 3.6795468 10.033896
5.2008147 3.9477117 8.7207022
6.767117 5.1440349 9.2932062
6.5608854 5.0180497 8.1967802
7.0919123 5.4300728 7.2844739
11.653414 8.9258738 9.7085915
6.5700555 5.0105324 7.4403
7.8453946 5.9874597 7.2696953
12.404943 9.4706182 9.2567778
3.84341 2.8184688 30.297832
3.9288242 2.9095755 23.527721
4.8489075 3.6276302 19.406488
6.0484247 4.5480289 17.887629
6.7427316 5.0848112 15.543829
5.240346 3.9604528 9.7199078
7.731164 5.8492274 11.683533
2.6389368 1.8912153 30.236496
4.1425691 3.0756433 19.902035
5.7435408 4.2937498 19.55517
4.8673477 3.6625788 10.033896
5.2314086 3.9422271 8.7486324
8.1515999 6.1516609 11.149165
6.490314 4.9282613 8.0881395
7.479568 5.6855826 7.6579504
11.717784 8.9104509 9.7360058
12.550833 9.5508223 8.3422413
6.6053667 5.001091 7.4602528
11.07507 8.3912563 10.201083
12.434491 9.4246559 9.2542448
3.853225 2.8050358 30.297832
3.948801 2.9030807 23.586464
4.854351 3.6053426 19.377857
6.0188618 4.4929972 17.754156
6.7527699 5.0555024 15.526273
5.2991576 3.975913 9.8025665
7.6643977 5.7567568 11.553058
2.645088 1.8816833 30.231525
4.1674452 3.0716045 19.969786
5.7529511 4.2695618 19.536402
6.332736 4.7186766 16.393166
4.8780131 3.6440053 10.029631
5.2765045 3.9474077 8.8005028
8.1648836 6.1170707 11.13814
6.4533691 4.8647876 8.021553
7.5335445 5.6852298 7.6924734
11.778851 8.892168 9.7606792
12.527542 9.4642296 8.3051405
6.7123232 5.0453057 7.5600176
11.07845 8.3331079 10.177538
12.422534 9.3474989 9.2213135
3.8629928 2.7915685 30.297832
3.9506857 2.8832772 23.537514
4.8560929 3.5804038 19.334909
6.0156732 4.4580021 17.698925
6.7703757 5.0318995 15.526273
5.322031 3.9641149 9.8190985
7.6793075 5.7261362 11.545383
2.6516402 1.8724388 30.231525
4.2055326 3.0770779 20.100451
5.7664299 4.2484303 19.531708
6.3316669 4.6835971 16.348154
4.8886085 3.6254025 10.025364
5.3676624 3.9864554 8.9281836
8.1617041 6.0703244 11.105062
6.4703112 4.8422318 8.021553
7.4972725 5.6168904 7.6359811
11.813166 8.853507 9.7634211
12.546327 9.409811 8.2958651
6.7867508 5.064271 7.6232023
7.9886308 5.9654369 7.3432741
12.531067 9.360836 9.2770433
3.8720825 2.7776141 30.292894
3.9508312 2.8623011 23.478771
4.8661523 3.5616677 19.325365
6.0374928 4.4416075 17.717337
6.8013897 5.0181894 15.556995
7.7121291 5.7088308 11.56457
2.65816 1.8631715 30.231525
5.7840104 4.2303128 19.541094
6.3356948 4.6524477 16.316647
4.8991332 3.6067696 10.021098
5.4421782 4.0123978 9.0279341
8.1692076 6.0317297 11.086687
6.4843116 4.8174901 8.0180483
7.1545434 5.3212328 7.2719202
11.880901 8.839673 9.7935772
6.9033952 5.1138921 7.7329435
11.250006 8.3398132 10.280549
12.560203 9.3144693 9.2745094
3.8823872 2.7645319 30.297832
3.9483986 2.8395758 23.405342
4.8809705 3.5464146 19.334909
6.0072055 4.3870916 17.583862
6.8845596 5.0425339 15.706224
5.1431437 3.7753351 9.4429998
7.7165132 5.6704874 11.541546
2.6646473 1.8538814 30.231525
4.3849511 3.1615829 20.850561
5.8015347 4.2121248 19.550478
6.3554144 4.6328678 16.325647
4.9095883 3.5881076 10.016833
5.5218039 4.0414271 9.1356649
8.108182 5.9430518 10.976432
6.5183091 4.8075266 8.0390768
7.2576189 5.3586493 7.3566585
11.915048 8.8006315 9.796319
6.9272203 5.0941882 7.7395949
11.334392 8.3412199 10.330582
3.8939176 2.7523084 30.312651
3.9466841 2.8174939 23.336809
4.8872666 3.5249896 19.31105
6.0035014 4.3523355 17.528631
6.9176154 5.0297379 15.741337
5.1653876 3.7639883 9.4595318
7.7233119 5.6340723 11.522358
2.6711025 1.8445687 30.231525
4.3959603 3.1462572 20.850561
5.8190026 4.1938667 19.559864
6.3592014 4.6017213 16.294138
4.9199719 3.5694168 10.012568
5.5236883 4.0132718 9.1157141
8.0987244 5.8927727 10.936006
6.6012321 4.8331995 8.1196804
7.5556803 5.5380731 7.6359811
11.965927 8.7738209 9.812768
6.9630547 5.0831857 7.7595477
8.1485767 5.9529862 7.4315691
3.9054096 2.7400382 30.327469
3.8983393 2.7624934 22.994143
4.918961 3.5218115 19.387402
5.6872392 4.0928535 16.566706
6.9642601 5.0265851 15.807173
5.1784954 3.7459347 9.4595318
7.727355 5.595799 11.499332
2.6770852 1.8349323 30.226553
4.4233117 3.1425407 20.927992
5.8392205 4.1775451 19.578636
6.3151112 4.536315 16.141096
4.9324017 3.5522211 10.012568
5.5401077 3.9957287 9.1197042
8.1329861 5.8743916 10.954381
6.7796106 4.9275427 8.3159351
7.5214615 5.4727345 7.5826273
11.976197 8.7172346 9.796319
12.841192 9.353694 8.4025297
6.9928493 5.0676131 7.77285
8.1005917 5.8746734 7.3697624
3.9162254 2.727277 30.337347
3.9146214 2.7535551 23.033306
4.9458256 3.5149958 19.444664
5.7746177 4.1252141 16.778421
7.0265417 5.0343266 15.908122
5.177825 3.7179878 9.4347343
7.7494435 5.570662 11.50317
2.6834741 1.8255763 30.226553
4.4465809 3.1357737 20.986065
5.8551741 4.1581359 19.583328
6.3220453 4.5079246 16.118591
4.9426498 3.5334656 10.008301
6.9040155 4.9428673 11.318208
8.1809931 5.8657207 10.991133
6.8517208 4.9434934 8.3825216
10.588561 7.6480002 10.614377
12.06078 8.7145596 9.8401823
12.859406 9.2984314 8.3932552
7.0953627 5.1042233 7.8659635
8.1046476 5.8345542 7.3550472
3.927 2.714474 30.347225
3.9008322 2.7235534 22.896238
4.98246 3.514919 19.540104
5.9467545 4.2169065 17.23407
7.0343142 5.0028286 15.886177
7.7427506 5.5249605 11.464795
2.6898301 1.816198 30.226553
4.4482322 3.1137462 20.942511
5.8513165 4.1247468 19.522322
6.3377419 4.4858289 16.118591
4.9549532 3.5161908 10.008301
6.9359646 4.9292107 11.342148
8.2014189 5.8371277 10.991133
6.9269218 4.9610763 8.4526129
10.751212 7.7085176 10.749331
12.176071 8.7333326 9.9087191
7.195179 5.1380095 7.9557524
8.115098 5.7991772 7.3462172
3.9358106 2.7003098 30.342285
3.917011 2.71456 22.9354
4.994699 3.4975059 19.540104
5.9566455 4.1927495 17.220263
7.0517344 4.9782438 15.886177
7.7227554 5.4701104 11.407232
2.6957104 1.806501 30.221582
4.4384279 3.0838559 20.84572
5.8458838 4.0904465 19.456623
6.4299569 4.5174904 16.312143
4.97999 3.5078845 10.033896
6.9777508 4.9223385 11.382049
8.2217436 5.8084641 10.991133
6.9441972 4.9368668 8.4526129
7.1851349 5.1138082 7.1934586
12.203076 8.6883526 9.9059772
7.2526698 5.1409316 7.9989834
8.1352911 5.7708149 7.3462172
3.9503508 2.6900532 30.3818
3.9365299 2.7077947 22.994143
5.0068769 3.4800498 19.540104
5.7742586 4.0343075 16.654152
7.0494552 4.9398541 15.842287
8.078927 5.6738358 14.571989
7.6998496 5.4136238 11.345833
2.7024438 1.7973756 30.226553
4.4439917 3.0647762 20.821524
5.8643794 4.072969 19.470703
6.4903278 4.5261488 16.424673
6.9874868 4.8927674 11.370079
8.2336416 5.77389 10.980107
6.9817839 4.92699 8.4771452
12.219671 8.6360493 9.8950119
7.2888927 5.1284752 8.0189371
8.1520805 5.7400556 7.3432741
3.9622917 2.6779878 30.401556
3.9459577 2.6940372 22.994143
5.017765 3.4617035 19.535332
5.7899108 4.0152397 16.658754
7.0253649 4.8864985 15.750114
8.1679382 5.6938777 14.695977
7.689786 5.3665352 11.30362
2.7087014 1.7879313 30.226553
4.4557004 3.0499554 20.826365
5.887085 4.0583501 19.498857
6.5812669 4.5555029 16.613726
7.0094705 4.8717856 11.378058
8.2481813 5.7412405 10.972756
7.0018606 4.904635 8.480649
13.189603 9.2492352 13.071788
12.229203 8.5789337 9.878562
7.3312392 5.1201038 8.0455408
8.188633 5.7231421 7.3579903
3.976778 2.6676028 30.441071
3.9367929 2.6676815 22.886446
5.0322819 3.4458537 19.544876
5.7910171 3.9861436 16.621935
7.0817981 4.8891592 15.837896
8.1877632 5.6653318 14.695977
7.7400913 5.3615627 11.34967
2.714926 1.7784652 30.226553
4.4455247 3.0202568 20.729576
5.8997917 4.0368009 19.494165
6.4858818 4.4560733 16.33465
7.0165124 4.8404441 11.362099
8.2263336 5.6835089 10.917629
6.9398804 4.8251967 8.3860264
13.292089 9.252058 13.140834
12.272799 8.5457516 9.8895283
7.3183818 5.0732102 8.0122862
8.1952763 5.6853075 7.3462172
3.986712 2.6541355 30.446009
3.9350972 2.6465371 22.822811
5.0627985 3.4408524 19.616457
5.7968311 3.9603949 16.598923
7.1086998 4.8711782 15.859841
8.2399645 5.6590195 14.753839
7.7481942 5.3272481 11.33432
2.7215645 1.7692682 30.231525
4.4560404 3.0047204 20.729576
5.9124188 4.015213 19.489473
6.4528351 4.4002919 16.213116
7.0532565 4.8295417 11.394019
8.2069807 5.6279168 10.866178
6.9508104 4.7968912 8.3790169
13.15458 9.0883446 12.974496
12.302555 8.5028591 9.8895283
11.427114 7.8625021 12.435202
11.231257 7.7335119 10.012721
3.9966009 2.6406314 30.450951
3.9366894 2.6276977 22.778753
5.1106658 3.4473655 19.754845
5.8106198 3.940136 16.598923
7.1236801 4.8449879 15.855453
8.2759457 5.6413178 14.78277
7.7614474 5.2965555 11.326645
2.7281716 1.7600461 30.236496
4.480082 2.9982357 20.792488
5.9263983 3.99455 19.489473
6.4915929 4.3936028 16.271633
7.08004 4.811666 11.409979
8.2405882 5.6087728 10.884553
7.0028195 4.7967834 8.421072
12.9551 8.8838787 12.748528
12.328712 8.4574976 9.8867865
11.516155 7.8646798 12.50171
11.204791 7.6577687 9.9656305
4.0083933 2.6283689 30.470707
3.9492326 2.616189 22.798332
5.1263895 3.4319959 19.769159
5.8745823 3.9536424 16.7416
7.134594 4.816072 15.842287
8.2932549 5.610817 14.778637
7.7666192 5.2604437 11.307458
2.7347479 1.7507998 30.24147
4.4957561 2.9860559 20.816685
5.9374375 3.9719198 19.480087
6.5177331 4.3781996 16.298641
7.1367621 4.8138828 11.473819
9.8894768 6.6806474 13.016149
7.0814543 4.8144159 8.4946671
11.496222 7.8246088 11.295422
11.241488 7.6254172 9.9744596
4.011682 2.6105473 30.426254
3.9532361 2.5990319 22.768963
5.8850985 3.9309423 16.732395
7.1314635 4.7778077 15.798395
8.3758688 5.6241894 14.890226
7.7875943 5.2350888 11.311296
2.7412925 1.7415287 30.246441
4.5093002 2.9724197 20.831203
5.9828949 3.9721687 19.583328
6.5492778 4.3662896 16.339151
7.4239516 4.9699774 11.904741
9.9943972 6.7008348 13.122728
7.1543846 4.8275671 8.5612535
11.462185 7.7430353 11.235791
13.993405 9.4138689 15.102251
11.462507 7.7170553 10.145163
4.0181589 2.594842 30.406496
3.9597259 2.5835476 22.754276
5.2312264 3.4495347 20.079338
5.9411216 3.938441 16.85206
7.1620584 4.7621679 15.829119
8.4235487 5.6136436 14.939821
7.8298182 5.2238836 11.345833
2.7482569 1.7325176 30.256384
4.5185966 2.9559734 20.826365
6.0269852 3.9711983 19.681875
6.5499544 4.3337917 16.303141
7.5742736 5.0324111 12.116213
10.048772 6.6865654 13.163155
7.1800814 4.8085175 8.5717669
11.479444 7.6964741 11.226375
13.995129 9.3442335 15.068997
11.660776 7.7915244 10.295264
4.023921 2.5787041 30.3818
3.9635921 2.5663898 22.724905
5.2482314 3.4345226 20.098425
5.9532013 3.9166048 16.847458
7.1786375 4.7371383 15.829119
8.4642172 5.5981774 14.977018
7.9228349 5.246068 11.453282
2.7569995 1.7246097 30.286213
4.5236163 2.9367607 20.802168
6.0408101 3.9501362 19.681875
6.5195498 4.2810302 16.190611
8.1874495 5.3905215 16.104321
7.6597166 5.0507278 12.223944
9.9928408 6.5991383 13.06025
11.532164 7.6736069 11.251483
11.861389 7.859868 12.754449
11.980972 7.9451194 10.551319
4.0302749 2.5629747 30.362043
3.9690993 2.5503371 22.705324
5.2389064 3.4023614 20.017303
5.966836 3.8958001 16.847458
7.1971335 4.7133636 15.833508
8.5778084 5.6303635 15.142337
8.1955709 5.3856006 11.817845
2.7589262 1.7124461 30.24147
4.5306692 2.9189098 20.787649
6.0415339 3.9205713 19.639641
6.5034485 4.2380419 16.11409
8.1953001 5.3547769 16.082991
7.6823425 5.0272593 12.231924
9.9562702 6.5251927 12.983072
12.839885 8.4696178 15.19536
11.584865 7.650465 11.276591
12.072811 7.9394579 12.950654
12.035645 7.9210272 10.574864
4.0339398 2.5455739 30.322529
3.9719679 2.5326352 22.671057
5.2118545 3.3589861 19.869371
5.9508862 3.8558266 16.764612
7.2215748 4.6934328 15.851064
8.5974092 5.6003871 15.142337
8.3485594 5.4445028 12.009721
2.7598939 1.6997309 30.186783
4.5344763 2.8990152 20.758614
6.0551825 3.8994586 19.639641
6.4725018 4.1857615 16.00156
8.1657991 5.2949209 15.989141
7.7023711 5.0020533 12.235913
9.9875116 6.4959435 12.994097
12.794776 8.3759136 15.107746
11.604988 7.6057129 11.270314
12.134847 7.9197149 12.987234
4.0460939 2.5335391 30.347225
3.9773421 2.5165772 22.651476
5.1983972 3.3246884 19.773932
5.9429469 3.8212953 16.704781
7.1976604 4.6422348 15.763283
8.5720043 5.541316 15.063809
8.4024944 5.4379668 12.059608
2.7699041 1.6925876 30.231525
4.5435071 2.8824956 20.753773
6.5218835 4.1854815 16.087084
8.1206293 5.2254581 15.865428
7.7197843 4.9751363 12.235913
9.8791018 6.3764729 12.82504
12.761132 8.2904005 15.03415
11.686934 7.601234 11.323668
12.131078 7.8570104 12.953979
12.836852 8.3204737 11.22236
4.0562334 2.52022 30.357105
3.9869649 2.5032198 22.656372
5.2112312 3.3073225 19.778704
5.9924827 3.8236456 16.806034
7.2581997 4.6454849 15.859841
8.5936642 5.5128803 15.067944
8.4672737 5.4380488 12.124846
2.7753396 1.6826323 30.226553
4.5652423 2.8739843 20.807007
6.217792 3.943037 20.076069
6.5566521 4.1755538 16.136597
8.072876 5.1549721 15.73745
7.7421808 4.951406 12.243894
9.8927364 6.3364639 12.814014
12.628139 8.1414576 14.844905
11.775532 7.6004977 11.383298
12.821626 8.2471886 11.184099
4.0656672 2.5064533 30.362043
3.9956787 2.4892876 22.656372
5.2101126 3.281157 19.730982
6.0272512 3.8162911 16.865868
7.3309793 4.6560736 15.982738
8.6176023 5.4858713 15.076209
8.3456497 5.318882 11.925296
2.7821097 1.6734836 30.236496
4.5795107 2.8606946 20.826365
6.2315178 3.921309 20.076069
6.6153555 4.1805515 16.244627
8.0445585 5.0974474 15.647866
7.7365203 4.9098196 12.207983
11.847878 7.5887384 11.427238
12.264333 7.8223238 13.037116
12.076924 7.7087159 10.516002
4.075717 2.493057 30.371922
4.0052094 2.4758601 22.661266
5.2341933 3.2708609 19.778704
6.0454984 3.7983463 16.879675
7.3674493 4.6432242 16.026627
8.282896 5.2383218 11.81017
2.7893078 1.6645813 30.251413
4.5841269 2.8413808 20.802168
6.3022542 3.9351773 20.259087
6.6169963 4.1493382 16.213116
8.1329546 5.1137581 15.784375
7.7332129 4.8699384 12.176064
9.3345623 5.8874521 12.04223
11.630905 7.3841019 13.618314
11.910428 7.5703015 11.46176
12.3452 7.8134127 13.09365
12.107173 7.6686759 10.518944
4.0850587 2.479218 30.37686
4.0120912 2.4607997 22.651476
5.2430415 3.2509968 19.769159
6.037168 3.7637849 16.819843
7.4181323 4.6390662 16.10124
9.0753345 5.6886139 15.803608
8.3798637 5.2587852 11.921458
2.793725 1.6540202 30.236496
4.5993705 2.8286541 20.826365
6.3262219 3.9195166 20.291937
6.7201619 4.1814189 16.429176
8.1905832 5.1101871 15.861162
7.7476096 4.8413181 12.172073
11.659627 7.3453579 13.621819
11.89069 7.4996104 11.417821
12.366074 7.7662997 13.086999
12.192047 7.6629329 10.568978
4.0963507 2.4665463 30.396618
4.0206566 2.44678 22.651476
5.2543578 3.2326756 19.769159
6.0203624 3.7241883 16.736998
7.4810867 4.6421876 16.20219
9.1429281 5.6866245 15.886267
8.487958 5.2854123 12.048096
2.7990222 1.6439884 30.231525
4.6242385 2.821748 20.894115
6.335454 3.8946986 20.277857
6.7328644 4.1567917 16.424673
8.2682447 5.1186299 15.976343
7.7439742 4.8015413 12.140153
9.4359169 5.8596992 12.119408
11.621692 7.2649164 13.548223
11.916797 7.4580588 11.417821
12.231497 7.622376 12.917397
12.21529 7.6181879 10.566034
4.1069369 2.4534278 30.411434
4.0422487 2.440624 22.724905
5.2707067 3.2174256 19.788248
6.059967 3.7195022 16.810638
7.4870481 4.609767 16.180244
8.5145359 5.2608056 12.059608
2.8038223 1.6336713 30.221582
4.6512642 2.8160045 20.971546
6.3519573 3.8743575 20.287243
8.3482847 5.1279573 16.095789
7.7760868 4.7839546 12.164094
9.4505424 5.8231702 12.112059
11.619704 7.2073865 13.516682
11.873319 7.3732944 11.351913
12.137354 7.5050149 12.79103
12.210875 7.5563593 10.539546
4.1174812 2.4402654 30.426254
4.0629721 2.4338236 22.793438
5.2793517 3.1974611 19.778704
6.0745816 3.699342 16.815241
7.5051379 4.5848532 16.184635
8.4180784 5.1606941 11.898434
2.8090463 1.6236076 30.216612
4.667531 2.8036349 21.000584
6.3713484 3.8557348 20.306015
6.6091752 4.016974 16.055574
8.3549995 5.0919991 16.074459
9.4852734 5.7989874 12.130434
11.92218 7.3460965 11.373882
12.192399 7.486196 10.501286
4.1286535 2.4274528 30.446009
4.0854483 2.427949 22.871761
5.3032756 3.1867013 19.826424
6.0991626 3.6851873 16.847458
8.4278259 5.1262808 11.886921
2.814234 1.6135272 30.211639
4.678369 2.7879682 21.005423
6.3847685 3.8334711 20.306015
6.6007862 3.9803901 16.00156
9.5692263 5.8045225 12.211287
10.984916 6.7079091 12.728159
12.213419 7.4668555 11.624959
11.76846 7.1638284 12.352064
12.249523 7.4625173 10.527774
4.1391158 2.414201 30.460829
4.1035471 2.4193611 22.92561
5.3284712 3.1765778 19.878916
6.1086388 3.6618664 16.838255
7.3296623 4.4076886 15.741337
8.555438 5.163074 12.040421
2.8198493 1.6036937 30.211639
4.6945643 2.7754586 21.03446
6.3981109 3.811161 20.306015
6.6090355 3.9539716 15.988055
8.8175068 5.2898059 16.889252
10.021191 6.0214128 15.555614
9.6910944 5.8322682 12.339918
11.102818 6.72681 12.836801
12.299313 7.4605131 11.681452
11.790197 7.1207747 12.348738
12.30317 7.436439 10.551319
4.1502075 2.4012942 30.480585
4.1137252 2.4060504 22.9354
5.3536601 3.166317 19.931408
6.1448917 3.6545012 16.902689
7.3470607 4.3833036 15.745727
9.3228951 5.5752983 16.026787
2.8249657 1.5935792 30.206669
4.6988025 2.7558751 21.010262
6.4351459 3.8028507 20.3811
6.6302848 3.9353218 16.006062
8.8426409 5.2629967 16.90205
9.8452911 5.8783493 12.508975
11.208759 6.7376208 12.931423
12.228566 7.3593326 11.590437
11.754129 7.0431128 12.285554
12.349854 7.405921 10.568978
4.1592383 2.3871794 30.485525
4.1150527 2.3875885 22.896238
5.3724046 3.152142 19.960037
6.1592932 3.634022 16.907291
7.3252168 4.3356729 15.666723
9.400383 5.5771813 16.125978
9.2664318 5.5042591 12.980609
2.8328371 1.5850096 30.231525
4.7051344 2.73756 20.995743
6.4915543 3.8056741 20.517189
6.643981 3.9121535 16.006062
8.9260855 5.2705526 17.025763
10.06039 5.9497714 15.551623
9.8745003 5.8491302 12.52
11.158697 6.6546144 12.847314
12.083741 7.2148376 11.430375
11.691986 6.9505258 12.195765
12.382576 7.3668995 10.574864
4.174974 2.3768747 30.539856
4.1268921 2.3752413 22.915819
5.3885355 3.1363728 19.979126
6.1651964 3.608552 16.88888
7.3403068 4.3100767 15.666723
9.3276386 5.4900932 15.968926
9.310442 5.4865255 13.015146
2.8392851 1.5756286 30.24147
4.7103066 2.7186065 20.976385
6.5555186 3.8124869 20.676744
6.627521 3.8713698 15.934042
8.9421797 5.2380447 17.021498
10.104488 5.9283414 15.587534
9.9094725 5.8232145 12.538378
11.442749 6.7699747 13.1452
12.072013 7.1507926 11.395852
11.684015 6.8907037 12.162511
12.425621 7.3339038 10.589581
4.1825686 2.3619046 30.534916
4.1316209 2.3588021 22.896238
5.4136705 3.1257544 20.031618
6.1693077 3.5821049 16.865868
7.4029055 4.3121538 15.767672
9.2568312 5.4050007 15.816008
9.3710432 5.4782572 13.07271
2.8480368 1.5675068 30.27627
4.716495 2.7002745 20.961868
6.5657969 3.7878561 20.667358
6.6033225 3.8263836 15.844017
8.9513884 5.2015576 17.004433
10.138142 5.9006124 15.607484
9.9355974 5.7920036 12.545728
11.472462 6.7336011 13.152209
12.278114 7.2150979 11.565329
11.624206 6.8008537 12.076047
12.451145 7.2904859 10.589581
4.1853642 2.3442531 30.495403
4.1345139 2.3413556 22.866867
5.431025 3.1105473 20.055477
6.1885457 3.5644484 16.884279
7.4324284 4.2946739 15.798395
9.066227 5.2513599 15.460574
2.8520875 1.5567898 30.261356
4.7324505 2.6875184 20.990906
6.6134281 3.7846272 20.775291
6.5732293 3.7783589 15.740489
8.9559336 5.1624651 16.978836
10.184772 5.8802543 15.647385
9.9557543 5.7572861 12.545728
11.631502 6.7724695 13.30641
12.464633 7.2662873 11.715975
12.462537 7.2388582 10.577807
4.1908045 2.32812 30.475645
4.136447 2.3234189 22.832602
5.4314666 3.0856721 20.017303
6.2026463 3.5437937 16.88888
7.4099727 4.2472663 15.719391
9.0381432 5.1930442 15.382047
10.928809 6.2869492 15.171825
2.8565667 1.5463172 30.251413
4.7472787 2.674067 21.015102
6.6491098 3.7742965 20.845682
6.5731406 3.7478435 15.708981
8.9806919 5.1350555 16.991636
10.129407 5.801239 15.531673
9.9816704 5.725872 12.553077
11.701393 6.7585812 13.358977
12.681981 7.3337984 11.894867
11.247508 6.4754925 11.640406
13.857105 7.9843297 11.728583
4.1955032 2.3116026 30.450951
4.1391945 2.3059926 22.803228
8.3604488 4.71104 30.725632
6.233675 3.5327163 16.939508
7.4122624 4.214273 15.693058
9.0342121 5.1489234 15.344851
10.947903 6.2471738 15.167987
2.8610075 1.5358325 30.24147
4.7620711 2.6605446 21.039299
6.6712661 3.7561436 20.873838
6.6070266 3.7366641 15.758494
9.4477377 5.358428 17.83629
10.186275 5.7866826 15.587534
9.9721308 5.6742291 12.516326
11.635177 6.6662807 13.257345
12.707503 7.2894855 11.894867
11.25059 6.4250822 11.620454
13.979643 7.9900651 11.808048
4.200819 2.2954535 30.431192
4.1400886 2.287591 22.764067
8.3755398 4.6811008 30.720863
6.2664051 3.5224223 16.994738
7.4164953 4.1824908 15.671111
9.0251846 5.1021237 15.299389
11.033799 6.2452326 15.256249
2.8658803 1.5255858 30.236496
4.7768259 2.6469517 21.063496
6.6783104 3.7294681 20.855068
6.623827 3.7157087 15.767497
9.4777498 5.3318105 17.85762
10.403302 5.8620319 15.886786
9.9771166 5.6310544 12.497951
11.583964 6.5833368 13.173237
12.702424 7.2277594 11.86662
11.240461 6.3673682 11.587198
4.2060733 2.2792952 30.411434
4.14537 2.2716577 22.749382
8.4022741 4.6576257 30.759039
6.2752504 3.4986246 16.985535
7.3934255 4.1355319 15.592108
9.0429392 5.0705891 15.299389
11.058328 6.2082491 15.260088
2.8716598 1.5158217 30.24147
4.7926464 2.6338935 21.092533
6.6958175 3.7086425 20.869146
6.6272459 3.6872728 15.744991
9.4735289 5.2859869 17.81496
10.439483 5.8345027 15.910727
9.9700871 5.5812893 12.464874
12.632665 7.1298084 11.778744
11.278895 6.3372378 11.603827
4.2119503 2.2634959 30.396618
4.151485 2.2562013 22.73959
8.4171724 4.6275482 30.754267
6.2857146 3.4757531 16.98093
7.3805919 4.0945954 15.53505
9.0532055 5.0348892 15.286989
11.107935 6.1852036 15.298462
2.8774056 1.5060354 30.246441
4.8073297 2.6201556 21.11673
6.7087221 3.6852472 20.869146
6.6476998 3.6683235 15.762995
9.4599752 5.2352061 17.755238
10.436067 5.7848783 15.874816
10.007292 5.5563269 12.486924
11.103585 6.2081823 12.580969
12.708421 7.1141877 11.825821
11.330301 6.3141866 11.633756
4.2184544 2.248049 30.38674
4.1548538 2.2392812 22.715115
8.4319639 4.597424 30.749495
6.2978086 3.4537907 16.98093
7.357069 4.0480261 15.456047
9.0633335 4.9991798 15.27459
11.025642 6.0890589 15.156475
2.8831184 1.4962277 30.251413
4.8241868 2.6075425 21.150604
6.7245755 3.6634579 20.878532
6.6948385 3.6639078 15.844017
9.3981714 5.1582346 17.60593
10.432431 5.7353501 15.838905
10.08899 5.5557027 12.564103
11.112714 6.162468 12.56695
12.716162 7.0603366 11.810128
11.375148 6.2872415 11.657034
4.2255888 2.2329473 30.3818
4.165339 2.2262042 22.729799
8.4492731 4.5686731 30.754267
6.2960968 3.4243193 16.944113
7.3711548 4.0223203 15.456047
9.0930719 4.9742646 15.295256
10.931572 5.9874072 14.999137
2.8892717 1.4866424 30.261356
4.8343678 2.5912809 21.155445
6.7418776 3.6424232 20.892611
6.7420268 3.6592078 15.925039
10.412704 5.6772623 15.779055
10.120223 5.5269504 12.578803
11.096658 6.1030159 12.524895
12.617985 6.9483151 11.697144
11.400299 6.2492905 11.660359
4.2333574 2.2181835 30.3818
4.1730847 2.2116508 22.729799
8.4585915 4.535625 30.730406
6.3028526 3.3995383 16.930304
7.3767242 3.9920061 15.438491
9.1252213 4.9505448 15.320053
10.924239 5.9339128 14.960761
2.8944435 1.4765478 30.261356
4.8433833 2.5743902 21.155445
6.7560716 3.6196821 20.897303
6.7585926 3.6377149 15.934042
10.382096 5.6136503 15.703245
10.121569 5.481904 12.556753
11.070931 6.0386295 12.472327
12.280059 6.7064738 11.364468
11.438445 6.2183747 11.676987
4.2396955 2.2026765 30.371922
4.1888914 2.201333 22.773857
5.9715271 3.1752844 21.668409
6.2957315 3.3673813 16.879675
7.392724 3.9673645 15.442879
9.1672277 4.931994 15.361382
10.944885 5.8957443 14.960761
2.9000556 1.4666758 30.266327
4.8501163 2.5562959 21.145767
6.7686658 3.596077 20.897303
6.7923751 3.6253762 15.983555
8.8492498 4.737061 16.488255
10.396317 5.5745282 15.695265
10.122722 5.4369149 12.534701
11.035482 5.9694066 12.409245
12.156223 6.5838604 11.229514
11.515954 6.2085309 11.733521
4.2466679 2.1875079 30.366982
4.2001615 2.1885796 22.793438
5.9733319 3.1495473 21.635006
6.3143511 3.349046 16.898085
7.4044137 3.9404099 15.438491
9.2340431 4.9264555 15.444041
10.990844 5.8710952 14.995298
2.9056342 1.4567827 30.271297
4.8578954 2.5387678 21.140926
6.8025517 3.5836883 20.963001
6.7953682 3.5965526 15.961049
8.8864641 4.7171474 16.526649
10.410391 5.5353746 15.687284
10.150616 5.4063287 12.545728
10.993399 5.8971334 12.339154
12.189418 6.5469117 11.238929
11.56719 6.1841383 11.763451
4.2535858 2.1723177 30.362043
4.2195363 2.17998 22.857077
5.9975176 3.1355927 21.682724
6.3502102 3.3397155 16.962521
7.4202414 3.9156573 15.442879
9.2661076 4.9020886 15.46884
11.033931 5.844697 15.025999
2.9107015 1.4466312 30.271297
4.865612 2.5212169 21.136087
6.825727 3.5655136 20.99585
6.7963152 3.5667408 15.934042
8.9190302 4.694602 16.556511
10.426985 5.4975967 15.683295
10.21739 5.3961949 12.60453
11.007619 5.8553734 12.332145
11.657982 6.18045 11.833285
4.2618356 2.1578076 30.366982
4.2370892 2.1703436 22.910925
6.0084257 3.1146383 21.682724
6.3895454 3.3319814 17.036161
7.4529629 3.899725 15.482381
9.2806711 4.8684063 15.464706
11.04859 5.8031654 15.018324
2.9157336 1.4364622 30.271297
4.874383 2.5042174 21.136087
6.8365989 3.5408723 20.991158
6.7604451 3.5178738 15.821511
8.9538593 4.6730938 16.590637
10.430089 5.4527898 15.659354
10.290221 5.3888054 12.670682
11.081615 5.8451991 12.391723
12.81649 6.7688508 11.769329
11.848038 6.228323 12.002886
4.2693419 2.1429176 30.366982
4.2637043 2.1652212 23.013723
6.0258999 3.0970576 21.706583
6.4011378 3.3096576 17.036161
7.4899149 3.8858178 15.530661
9.375001 4.8762345 15.592828
2.9207299 1.4262756 30.271297
4.8830943 2.4871874 21.136087
7.2065997 3.7006526 22.084574
6.7417297 3.4782844 15.749492
9.0141268 4.6645837 16.67169
10.451735 5.4177361 15.663345
10.293926 5.3450418 12.652307
11.105111 5.8081341 12.395226
12.877969 6.7439337 11.803851
12.028635 6.2697663 12.162511
4.277492 2.1283481 30.371922
4.2876072 2.1585655 23.101837
6.0393338 3.0773597 21.716127
6.3987432 3.2801638 16.999342
7.5460296 3.8815594 15.618443
9.5820427 4.941503 15.906932
10.334121 5.3361869 14.001385
2.9256909 1.4160717 30.271297
4.8917465 2.4701271 21.136087
7.3148208 3.724014 22.375525
6.7615829 3.4586957 15.767497
9.0303545 4.6330905 16.67169
10.427702 5.3591819 15.599504
10.294436 5.2997665 12.630257
11.182303 5.7988858 12.458309
12.100201 6.2534533 12.212392
4.2855921 2.1137476 30.37686
4.3096929 2.1508601 23.180162
6.0527039 3.057606 21.725672
6.4206047 3.263119 17.026957
7.5595322 3.855195 15.618443
9.6693888 4.9438949 16.022655
10.32986 5.2883968 13.970686
2.9301353 1.40562 30.266327
4.9014635 2.4535992 21.140926
7.332397 3.7007904 22.389603
6.8085628 3.4527948 15.848519
8.9953308 4.5755272 16.577839
10.373855 5.2858138 15.491774
10.321932 5.2684236 12.641282
11.265909 5.7924309 12.5284
12.115311 6.2077727 12.205741
4.292944 2.0987751 30.37686
4.3235631 2.1389635 23.214428
6.0673451 3.038465 21.73999
6.4232316 3.2362916 17.003942
7.5708065 3.8277035 15.614055
9.741807 4.9381022 16.113579
10.362547 5.2595596 13.989873
2.9350238 1.3953832 30.266327
4.9122496 2.4375923 21.150604
6.9022627 3.4700751 16.037569
8.8831682 4.4795151 16.343214
10.292727 5.1993017 15.344142
10.406808 5.266036 12.722136
11.282883 5.7514501 12.524895
12.090301 6.1417699 12.159184
4.3009439 2.0841162 30.3818
4.3428879 2.1296859 23.278067
6.0886097 3.0225768 21.778164
6.4432287 3.2182157 17.026957
7.5477223 3.7830098 15.539439
9.7941866 4.9217563 16.17144
2.939877 1.3851297 30.266327
4.9229846 2.42154 21.160284
7.2390146 3.5904708 22.028259
6.9494047 3.4634387 16.118591
8.8241014 4.4111629 16.206703
10.21382 5.1147704 15.200502
10.522095 5.2783198 12.839741
11.325172 5.7232909 12.549428
12.084989 6.0860944 12.132581
4.3088923 2.0694265 30.38674
4.3530426 2.1158485 23.292751
6.1018023 3.0026233 21.787708
6.4579239 3.197438 17.036161
7.5244198 3.7385244 15.464826
9.8087883 4.8862834 16.167307
10.66289 5.3187099 14.342924
2.9451771 1.3750846 30.271297
4.9359269 2.4065442 21.179642
7.2406626 3.5598505 21.995409
6.977067 3.4468734 16.154602
8.8114023 4.3664384 16.155512
10.158738 5.042912 15.092772
10.62545 5.2838249 12.942645
11.370587 5.6965022 12.577463
12.079434 6.0305309 12.105976
4.3160901 2.054373 30.38674
4.369575 2.1050594 23.341703
6.1390791 2.9943929 21.883148
7.5395708 3.713294 15.469213
9.8232613 4.8507686 16.163174
10.724489 5.3027663 14.400486
2.950443 1.3650194 30.27627
4.9442973 2.3892999 21.179642
7.3135443 3.5640359 22.178427
6.9440885 3.4004779 16.051075
8.8429766 4.3437028 16.185373
10.10328 4.9715004 14.985041
10.759381 5.3036613 13.082302
11.38721 5.6551909 12.573959
12.103758 5.9899855 12.109303
4.3239374 2.0396261 30.39168
4.3860855 2.0941808 23.390657
6.2032504 2.9989321 22.074026
7.548183 3.6848526 15.460436
9.8350792 4.8139758 16.154909
10.699762 5.2441401 14.342924
2.9556742 1.3549341 30.28124
4.946939 2.369312 21.155445
7.3181715 3.5347326 22.154964
6.9422069 3.3695641 16.019566
8.9565706 4.3607583 16.364542
10.115155 4.9335608 14.97706
10.790012 5.2720246 13.097003
11.330091 5.5776052 12.48985
12.174875 5.9723639 12.159184
4.3310308 2.0245204 30.39168
4.3887668 2.0766804 23.366179
6.2567577 2.9978995 22.22673
8.47787 4.0875368 22.23241
7.5631561 3.6595256 15.464826
9.8518238 4.7796154 16.154909
