# .PCD v0.7 - Point Cloud Data file format
VERSION 0.7
FIELDS x y z
SIZE 4 4 4
TYPE F F F
COUNT 1 1 1
WIDTH 1410
HEIGHT 1
VIEWPOINT 0 0 0 1 0 0 0
POINTS 1410
DATA ascii
-0.99193281 -0.75549644 2.641957
-1.0543615 -0.80504835 2.2400348
-1.0122616 -0.77401018 1.7621001
-0.98607987 -0.755068 1.4246795
-0.97783321 -0.75336337 1.2928247
-0.95170677 -0.73401743 1.0514992
-0.93201184 -0.71908134 0.85639757
-0.92681134 -0.71557564 0.69947678
-0.91789919 -0.70894426 0.55690914
-0.91131473 -0.70410639 0.42844775
-0.88992172 -0.68806762 0.30504215
-0.89415157 -0.69133478 0.1944157
-0.96214032 -0.73912895 1.1617556
-0.94419348 -0.72585732 0.95072967
-0.93089652 -0.7158879 0.77569515
-0.91792858 -0.70667106 0.62297922
-0.90957904 -0.7004897 0.48871216
-0.90112919 -0.69422656 0.36507532
-0.89040339 -0.68596035 0.24898234
-0.89411342 -0.68906069 0.1392114
-0.12842841 -0.044659149 14.083737
-0.84354728 -0.62341809 6.6684222
-1.0759497 -0.80284846 6.4776464
-1.2109555 -0.91270399 4.8948855
-0.87913805 -0.66598773 2.657876
-1.0701613 -0.81299227 2.5302088
-1.0416553 -0.79303831 1.9954264
-1.0059255 -0.76665854 1.5908966
-0.4683674 -0.31227055 9.5734301
-0.71233809 -0.51466197 8.1530771
-1.3223157 -0.98908025 6.3952003
-0.76161951 -0.57366246 2.647135
-0.99456394 -0.75202936 2.641957
-1.0530083 -0.79821241 2.231503
-1.010157 -0.76682848 1.7541201
-0.98601055 -0.74956977 1.4210044
-0.97479153 -0.74561238 1.2858157
-0.95117277 -0.72832471 1.0483608
-0.93119669 -0.71328104 0.85365611
-0.92578769 -0.70964128 0.69715798
-0.91668934 -0.70291501 0.55503613
-0.90996063 -0.69800133 0.42703772
-0.88842142 -0.68196595 0.30410954
-0.892609 -0.68517709 0.19396862
-0.96174556 -0.73350167 1.15843
-0.94350827 -0.72010487 0.94778651
-0.93338978 -0.71263403 0.77569515
-0.91678387 -0.70070666 0.6208812
-0.9082672 -0.69444221 0.48706865
-0.8996861 -0.68812382 0.36390302
-0.8927924 -0.68284804 0.24898234
-0.8925454 -0.68289965 0.13900986
-0.12858354 -0.044210579 14.083737
-0.84822476 -0.6223076 6.6881795
-1.0787456 -0.79908782 6.4776464
-1.2201104 -0.91294229 4.9187455
-0.88301891 -0.66408902 2.6624784
-1.0691683 -0.80636775 2.5214307
-1.039927 -0.78600407 1.9871606
-1.0060394 -0.76120865 1.5870591
-0.46969566 -0.31079262 9.5784216
-0.71543026 -0.51310372 8.1679926
-1.2995198 -0.96497768 6.2693753
-0.76361728 -0.5710004 2.647135
-0.99892414 -0.74985987 2.6464584
-1.0516204 -0.79139566 2.222971
-1.0104212 -0.76148427 1.7501302
-0.98320895 -0.74203908 1.4136541
-0.97454804 -0.74004853 1.2823112
-0.95061058 -0.72264457 1.0452224
-0.93368077 -0.7100262 0.85365611
-0.92473394 -0.70372277 0.69483918
-0.91544867 -0.69690287 0.55316305
-0.90857512 -0.69191444 0.42562771
-0.88688958 -0.67588323 0.30317691
-0.89499527 -0.68205708 0.19396862
-0.96132326 -0.72788626 1.1551045
-0.94279444 -0.71436602 0.94484335
-0.93243611 -0.70676768 0.77316189
-0.91560864 -0.69475883 0.61878312
-0.91068578 -0.69126755 0.48706865
-0.89821148 -0.68203974 0.36273071
-0.89122659 -0.67673278 0.24829166
-0.89492375 -0.67977995 0.13900986
-0.12873706 -0.043761469 14.083737
-0.84725076 -0.61705667 6.6634827
-1.083169 -0.79652351 6.4874363
-0.7115857 -0.52865273 2.8811085
-0.89159399 -0.66567719 2.6808887
-1.0681421 -0.7997601 2.5126526
-1.0381626 -0.7789917 1.9788946
-1.0035646 -0.75384241 1.5793842
-0.47077766 -0.3091512 9.5784216
-0.7189545 -0.51183897 8.1878777
-1.2856787 -0.94775832 6.1871057
-0.76560581 -0.56833142 2.647135
-1.0032811 -0.74766904 2.6509595
-1.0501975 -0.78459835 2.2144392
-1.0082475 -0.75434262 1.7421501
-0.98307991 -0.73656982 1.4099789
-0.97142977 -0.7323488 1.2753021
-0.95002043 -0.7169773 1.0420839
-0.93281627 -0.7042433 0.85091466
-0.92365021 -0.69782031 0.69252038
-0.91417718 -0.69090796 0.55129004
-0.91098481 -0.6887387 0.42562771
-0.88532603 -0.66981947 0.30224431
-0.89737064 -0.67892885 0.19396862
-0.96087348 -0.72228283 1.1517791
-0.94205201 -0.70864099 0.94190019
-0.93145293 -0.70091659 0.77062875
-0.91440314 -0.68882787 0.61668509
-0.90932196 -0.68524259 0.48542514
-0.89670539 -0.67597437 0.36155838
-0.89358342 -0.67361772 0.24829166
-0.89330232 -0.67364389 0.13880834
-0.12888904 -0.043311827 14.083737
-0.85065919 -0.61500555 6.6733618
-1.0851203 -0.7921375 6.4825411
-0.7074194 -0.52173668 2.8572488
-0.90019077 -0.66721368 2.6992986
-1.069005 -0.79459804 2.5082636
-1.0363618 -0.77200115 1.9706287
-1.0036204 -0.74841881 1.5755466
-0.47185391 -0.30750602 9.5784216
-0.72247875 -0.51055598 8.2077646
-1.1692737 -0.85568553 5.6160531
-0.76758498 -0.56565547 2.647135
-1.0216365 -0.75581372 2.6914704
-1.0487401 -0.77782071 2.2059073
-1.0084553 -0.74902189 1.73816
-0.98292488 -0.73111063 1.4063038
-0.97112507 -0.72681671 1.2717975
-0.94940227 -0.71132296 1.0389454
-0.93192285 -0.69847524 0.8481732
-0.92253655 -0.69193399 0.69020158
-0.912875 -0.68493038 0.54941696
-0.90954685 -0.68267506 0.42421767
-0.88373095 -0.66377491 0.30131167
-0.89575315 -0.67280155 0.19352154
-0.96039635 -0.71669137 1.1484535
-0.94128126 -0.70292985 0.93895704
-0.93044031 -0.69508106 0.76809555
-0.91316736 -0.68291372 0.61458701
-0.90792722 -0.67923564 0.48378164
-0.89516807 -0.66992795 0.36038607
-0.89196455 -0.66752738 0.24760097
-0.89564836 -0.67052156 0.13880834
-0.12899753 -0.042849489 14.078737
-0.85532635 -0.61384392 6.6931186
-1.0862297 -0.78715026 6.4727511
-0.71164536 -0.52102733 2.8667927
-0.91982496 -0.67680192 2.7499266
-1.0679177 -0.78801793 2.4994855
-1.034525 -0.76503277 1.9623629
-1.0036505 -0.7430039 1.5717092
-0.47316718 -0.30601341 9.5834131
-0.72600263 -0.50925452 8.2276497
-1.1753045 -0.85381472 5.6305714
-0.76955479 -0.56297266 2.647135
-1.0400606 -0.76383919 2.7319813
-1.0493487 -0.77260906 2.2016416
-1.0062131 -0.74192101 1.7301799
-0.98001629 -0.72364771 1.3989534
-0.9707936 -0.7212956 1.268293
-0.94875622 -0.70568168 1.035807
-0.93100059 -0.69272196 0.84543175
-0.92139316 -0.686064 0.68788278
-0.91154248 -0.67897052 0.54754394
-0.91192424 -0.67949599 0.42421767
-0.88604259 -0.66068614 0.30131167
-0.8980962 -0.6696707 0.19352154
-0.95989203 -0.71111208 1.145128
-0.94048214 -0.69723284 0.93601388
-0.92939836 -0.68926126 0.76556236
-0.91554564 -0.67972201 0.61458701
-0.90650153 -0.67324674 0.48213813
-0.89359945 -0.66390043 0.35921374
-0.89428931 -0.6644097 0.24760097
-0.89397359 -0.66441095 0.1386068
-0.12910438 -0.042386923 14.073737
-0.71466732 -0.51941741 2.8715644
-0.93795913 -0.6851089 2.7959518
-1.0667976 -0.7814551 2.4907072
-1.0326523 -0.75808662 1.9540969
-1.0036552 -0.73759794 1.5678717
-0.47423247 -0.30435988 9.5834131
-0.72996396 -0.50823915 8.2525082
-1.1782777 -0.84970689 5.6305714
-0.77151525 -0.56028301 2.647135
-1.0638307 -0.77559215 2.785996
-1.0499334 -0.76740253 2.1973755
-1.0063651 -0.73662442 1.7261899
-0.97980201 -0.71821833 1.3952782
-0.9675653 -0.71366888 1.2612839
-0.94808245 -0.70005369 1.0326686
-0.93004948 -0.68698364 0.84269029
-0.92022002 -0.68021047 0.68556398
-0.91390693 -0.67578447 0.54754394
-0.91043395 -0.67345583 0.42280763
-0.88439518 -0.6546666 0.30037907
-0.89642572 -0.66356874 0.19307446
-0.95936042 -0.70554507 1.1418025
-0.93965477 -0.69154984 0.93307072
-0.92832714 -0.68345714 0.76302922
-0.91425925 -0.67382944 0.61248899
-0.90504533 -0.6672762 0.48049462
-0.89199966 -0.65789205 0.35804144
-0.8926177 -0.65834463 0.2469103
-0.89628738 -0.66128641 0.1386068
-0.12920956 -0.041924134 14.068737
-0.71647608 -0.51691955 2.8715644
-0.95141715 -0.68985736 2.8281696
-1.0656447 -0.77490968 2.4819291
-1.0330178 -0.75282013 1.9499639
-1.0010449 -0.73031217 1.5601966
-0.475292 -0.30270264 9.5834131
-0.73348826 -0.50689936 8.2723932
-1.1883918 -0.85070956 5.6644473
-0.77346629 -0.55758655 2.647135
-1.0735861 -0.77697867 2.8040009
-1.0483838 -0.76066995 2.1888437
-1.0064925 -0.73133594 1.7221999
-0.97956175 -0.71279913 1.3916031
-0.96717304 -0.70818037 1.2577794
-0.94738096 -0.69443893 1.02953
-0.92906982 -0.68126047 0.83994877
-0.92258883 -0.6769942 0.68556398
-0.91252315 -0.66984695 0.54567093
-0.9089126 -0.66743451 0.4213976
-0.88667506 -0.65157545 0.30037907
-0.89472359 -0.65748668 0.19262739
-0.95880175 -0.69999051 1.138477
-0.94206297 -0.68826562 0.93307072
-0.92722678 -0.67766899 0.76049602
-0.91294289 -0.66795415 0.6103909
-0.90355843 -0.66132402 0.47885111
-0.89429069 -0.65477437 0.35804144
-0.89091474 -0.65229946 0.24621962
-0.89455974 -0.65520167 0.13840528
-0.12931308 -0.041461125 14.063737
-1.3544513 -0.95998603 8.0049572
-0.71827614 -0.5144155 2.8715644
-0.96174806 -0.69223779 2.851182
-1.0644591 -0.76838177 2.473151
-1.0333593 -0.74756044 1.9458311
-1.0009918 -0.72493345 1.5563592
-0.47634572 -0.30104172 9.5834131
-0.73701209 -0.50554115 8.2922802
-0.77540791 -0.55488318 2.647135
-1.0674514 -0.76687634 2.7814946
-1.0489163 -0.75548166 2.1845777
-1.0041513 -0.72429293 1.7142198
-0.97654754 -0.70540547 1.3842528
-0.96675438 -0.7027033 1.2542748
-0.94665188 -0.68883771 1.0263916
-0.93144214 -0.67801327 0.83994877
-0.9213658 -0.67116153 0.68324518
-0.91485578 -0.66665763 0.54567093
-0.90736037 -0.66143203 0.41998756
-0.88497549 -0.64558148 0.29944643
-0.89298993 -0.65142465 0.19218032
-0.96123928 -0.69663942 1.138477
-0.94118756 -0.68260002 0.93012756
-0.92609739 -0.67189682 0.75796282
-0.91159678 -0.66209632 0.60829288
-0.90586138 -0.65816599 0.47885111
-0.89263898 -0.64879107 0.35686913
-0.89318627 -0.64918566 0.24621962
-0.89684141 -0.65207511 0.13840528
-0.12945703 -0.041009489 14.063737
-1.037891 -0.72305429 8.0415363
-1.3627909 -0.95876676 8.0343285
-0.71885067 -0.51104039 2.8667927
-0.96415854 -0.68887651 2.851182
-1.063241 -0.76187181 2.4643729
-1.0336767 -0.74230742 1.9416981
-0.99831104 -0.71769321 1.5486841
-0.47714877 -0.29922417 9.5784216
-0.74053538 -0.50416452 8.3121653
-1.3483896 -0.95104897 6.3903608
-0.77593309 -0.55117399 2.642442
-1.0559417 -0.75303477 2.7454851
-1.0494254 -0.75029898 2.1803117
-1.0042233 -0.71902925 1.7102298
-0.97624868 -0.70001698 1.3805776
-0.96630925 -0.69723779 1.2507702
-0.94905066 -0.68552905 1.0263916
-0.9304139 -0.67230886 0.83720732
-0.92011327 -0.66534561 0.68092638
-0.91342103 -0.66074306 0.54379785
-0.90577739 -0.6554485 0.41857755
-0.8872236 -0.64248836 0.29944643
-0.89122486 -0.6453827 0.19173324
-0.96063417 -0.69109941 1.1351515
-0.94028413 -0.67694902 0.9271844
-0.92843705 -0.66866004 0.75796282
-0.9139024 -0.65891021 0.60829288
-0.90432322 -0.65223759 0.4772076
-0.89095646 -0.64282727 0.3556968
-0.89143097 -0.64316642 0.24552894
-0.89506114 -0.64601672 0.13820374
-0.1296415 -0.04056878 14.068737
-1.0391301 -0.71854341 8.0316572
-1.3677992 -0.95516962 8.0441189
-0.71941036 -0.50766754 2.8620205
-0.96655726 -0.68550676 2.851182
-1.0639422 -0.75676763 2.4599836
-1.0316784 -0.73542804 1.9334321
-0.99559212 -0.71048069 1.5410092
-0.47819036 -0.29755679 9.5784216
-0.74405807 -0.50276941 8.3320522
-1.3517013 -0.94633645 6.3903608
-0.77785236 -0.54846209 2.642442
-1.053233 -0.74557126 2.7319813
-1.0477841 -0.74361253 2.1717799
-1.004271 -0.71377397 1.7062398
-0.97592413 -0.69463915 1.3769025
-0.96583796 -0.69178402 1.2472657
-0.94827455 -0.6799441 1.0232532
-0.92935729 -0.66661996 0.83446586
-0.91883141 -0.65954673 0.67860758
-0.91195619 -0.65484661 0.54192483
-0.90416366 -0.64948416 0.41716751
-0.88547224 -0.63652027 0.29851383
-0.8894285 -0.63936102 0.19128615
-0.96000212 -0.68557221 1.131826
-0.93935287 -0.67131263 0.92424124
-0.92725855 -0.66290814 0.75542969
-0.9125061 -0.65307474 0.60619479
-0.90659451 -0.649077 0.4772076
-0.89319491 -0.63971329 0.3556968
-0.88964462 -0.63716739 0.24483825
-0.89731067 -0.64288849 0.13820374
-0.12978232 -0.040116001 14.068737
-1.0448357 -0.71710944 8.0563536
-1.371125 -0.95038927 8.0441189
-0.71995533 -0.50429714 2.8572488
-0.96574908 -0.67987967 2.8419769
-1.0626642 -0.75028676 2.4512055
-1.0319421 -0.73019713 1.9292994
-0.99545044 -0.70514846 1.5371716
-0.47922611 -0.29588577 9.5784216
-0.74757993 -0.50135589 8.3519373
-1.3591254 -0.94448113 6.4097185
-0.77976209 -0.54574358 2.642442
-1.048704 -0.73688447 2.7139764
-1.0482413 -0.73844868 2.1675138
-1.004294 -0.70852709 1.7022496
-0.97557414 -0.68927228 1.3732272
-0.9653402 -0.68634206 1.2437612
-0.94747102 -0.67437291 1.0201148
-0.92827225 -0.66094667 0.83172441
-0.92112809 -0.65633535 0.67860758
-0.91423643 -0.65165931 0.54192483
-0.90251952 -0.64353913 0.41575748
-0.8876887 -0.63342553 0.29851383
-0.88760114 -0.63335985 0.19083907
-0.95934325 -0.68005776 1.1285006
-0.9416905 -0.66802955 0.92424124
-0.92605138 -0.65717262 0.75289649
-0.9147802 -0.64988548 0.60619479
-0.90885466 -0.64590836 0.4772076
-0.8914609 -0.63377523 0.35452449
-0.8878271 -0.63118869 0.24414757
-0.89547795 -0.63685685 0.1380022
-0.12992156 -0.03966273 14.068737
-1.0492593 -0.7147699 8.0711718
-1.3735952 -0.94502038 8.0392237
-0.7192598 -0.50007713 2.8477046
-0.96491337 -0.6742667 2.8327718
-1.0613539 -0.74382401 2.4424274
-1.0321819 -0.7249732 1.9251662
-0.99266165 -0.69798243 1.5294967
-0.48025602 -0.29421115 9.5784216
-0.75065708 -0.49962875 8.3668518
-1.3603445 -0.93830407 6.4000401
-0.78166234 -0.54301834 2.642442
-1.0423417 -0.72699332 2.6914704
-1.0465378 -0.73179638 2.158982
-1.0018245 -0.7015605 1.6942697
-0.97519851 -0.68391621 1.3695521
-0.96481633 -0.68091202 1.2402567
-0.94664019 -0.66881555 1.0169762
-0.9305737 -0.65770233 0.83172441
-0.91979682 -0.65055811 0.67628878
-0.9127211 -0.64578652 0.54005182
-0.90084481 -0.63761348 0.41434744
-0.88588578 -0.62748379 0.2975812
-0.88980657 -0.63025773 0.19083907
-0.95865762 -0.67455637 1.125175
-0.94071162 -0.66241133 0.92129809
-0.92833966 -0.65393615 0.75289649
-0.91333395 -0.64407277 0.60409671
-0.9072451 -0.64000994 0.47556409
-0.88969654 -0.62785709 0.35335216
-0.88597894 -0.62523049 0.24345689
-0.89361411 -0.6308459 0.13780068
-0.13005921 -0.039208978 14.068737
-1.0511042 -0.71066779 8.0662327
-1.3768855 -0.94021988 8.0392237
-0.71854365 -0.49586815 2.8381608
-0.96405029 -0.66866779 2.8235669
-1.0619776 -0.73874706 2.4380381
-1.0300891 -0.71814728 1.9169004
-0.99246365 -0.69267881 1.5256591
-0.48128009 -0.29253298 9.5784216
-0.75417626 -0.49817979 8.3867388
-1.3708723 -0.93851954 6.4339156
-0.78355306 -0.54028654 2.642442
-1.0466629 -0.72458935 2.6959715
-1.0469431 -0.72665179 2.1547163
-1.001793 -0.69633955 1.6902797
-0.97479737 -0.67857116 1.3658769
-0.9642663 -0.67549396 1.236752
-0.94578218 -0.66327238 1.0138377
-0.92944068 -0.65204865 0.82898289
-0.91843653 -0.64479822 0.67396998
-0.91117597 -0.63993222 0.5381788
-0.89913982 -0.63170743 0.4129374
-0.88405216 -0.6215623 0.29664856
-0.88792729 -0.62428367 0.19039199
-0.95794529 -0.6690681 1.1218495
-0.93970513 -0.65680808 0.91835493
-0.92708373 -0.64822155 0.75036329
-0.91185844 -0.63827819 0.60199869
-0.9094736 -0.63683921 0.47556409
-0.8879016 -0.62195903 0.35217986
-0.88815594 -0.62213403 0.24345689
-0.89171934 -0.62485582 0.13759914
-0.13015303 -0.038743906 14.063737
-1.0542237 -0.70742726 8.0711718
-1.3793161 -0.93483675 8.0343285
-0.71780688 -0.49167025 2.8286169
-0.96315992 -0.66308314 2.8143618
-1.060608 -0.73231423 2.42926
-1.0302757 -0.71294612 1.9127675
-0.98960567 -0.68555993 1.517984
-0.48229828 -0.29085121 9.5784216
-0.75724846 -0.49642026 8.4016523
-1.3699811 -0.9309032 6.4145579
-0.78543425 -0.53754818 2.642442
-1.0545688 -0.72462958 2.7094753
-1.0451777 -0.720034 2.1461844
-0.99925697 -0.68941629 1.6822997
-0.97437084 -0.67323732 1.3622017
-0.96369028 -0.67008811 1.2332475
-0.94489706 -0.65774328 1.0106993
-0.92827952 -0.64641088 0.82624143
-0.92068172 -0.64158833 0.67396998
-0.90960103 -0.63409662 0.53630573
-0.89740461 -0.62582105 0.4115274
-0.88218808 -0.61566138 0.29571593
-0.89010102 -0.62118042 0.19039199
-0.95720625 -0.66359293 1.1185241
-0.9419921 -0.65352392 0.91835493
-0.92579931 -0.64252371 0.74783015
-0.9103536 -0.63250172 0.5999006
-0.91169107 -0.63366067 0.47556409
-0.89006728 -0.61885589 0.35217986
-0.88625634 -0.61620307 0.2427662
-0.88979363 -0.61888665 0.13739762
-0.13028747 -0.03828935 14.063737
-1.0566866 -0.7037431 8.0711718
-1.382571 -0.93001634 8.0343285
-0.71581495 -0.48664457 2.8143008
-0.96062917 -0.65641087 2.800554
-1.0592065 -0.72589999 2.4204819
-1.0281187 -0.70615941 1.9045017
-0.98935157 -0.68028551 1.5141466
-0.48331061 -0.28916588 9.5784216
-0.76076448 -0.49493596 8.4215393
-1.3575892 -0.91557485 6.3419671
-0.78730589 -0.53480321 2.642442
-1.0660847 -0.72707629 2.7319813
-1.0433789 -0.71343744 2.1376524
-0.99668479 -0.68251914 1.6743195
-0.97391897 -0.66791469 1.3585266
-0.96308827 -0.66469455 1.229743
-0.94398493 -0.65222853 1.0075608
-0.92709053 -0.64078927 0.82349998
-0.91927242 -0.63585073 0.67165118
-0.90799665 -0.62827986 0.53443271
-0.89958364 -0.62268472 0.4115274
-0.88433176 -0.61257821 0.29571593
-0.88817012 -0.6152339 0.18994491
-0.95336485 -0.65601474 1.111873
-0.94093841 -0.64793944 0.91541177
-0.9244864 -0.63684273 0.74529696
-0.90881962 -0.62674367 0.59780258
-0.9138974 -0.63047439 0.47556409
-0.88822156 -0.61298442 0.35100752
-0.88840187 -0.61310571 0.2427662
-0.88783723 -0.61293858 0.13719608
-0.13042033 -0.037834328 14.063737
-1.0584885 -0.69962192 8.0662327
-1.3858088 -0.92518461 8.0343285
-0.71503425 -0.48247352 2.8047569
-0.9596808 -0.65086085 2.7913492
-1.0597537 -0.72085142 2.4160929
-1.0282521 -0.70098126 1.9003686
-0.98907262 -0.67502111 1.5103091
-0.48431706 -0.28747708 9.5784216
-0.76472735 -0.49372193 8.4463959
-1.3492858 -0.90314072 6.288733
-0.78773689 -0.53108722 2.6377494
-1.0668133 -0.72213036 2.7274802
-1.0415467 -0.70686209 2.1291206
-0.99407673 -0.67564851 1.6663395
-0.97344196 -0.66260356 1.3548514
-0.9624604 -0.65931332 1.2262385
-0.94304579 -0.64672816 1.0044224
-0.92242545 -0.63281846 0.81801701
-0.91783422 -0.63013083 0.66933239
-0.90636283 -0.62248212 0.53255969
-0.89779788 -0.61682433 0.41011736
-0.8824169 -0.60670453 0.29478332
-0.88620871 -0.60930848 0.18949783
-0.95256561 -0.65057725 1.1085476
-0.93985736 -0.64237034 0.91246861
-0.92314523 -0.63117892 0.74276382
-0.90725666 -0.62100405 0.5957045
-0.91609263 -0.62728047 0.47556409
-0.88634574 -0.60713339 0.34983522
-0.88645107 -0.60720241 0.24207552
-0.88585007 -0.60701174 0.13699456
-0.13055161 -0.037378848 14.063737
-1.0609242 -0.69592285 8.0662327
-1.38903 -0.92034161 8.0343285
-0.71299285 -0.47748351 2.790441
-0.95708448 -0.6442346 2.7775416
-1.0582933 -0.71446788 2.4073148
-1.0260314 -0.69423401 1.8921027
-0.98876905 -0.66976708 1.5064715
-0.48531756 -0.28578475 9.5784216
-0.768242 -0.49219891 8.4662828
-1.3419594 -0.89147115 6.2403388
-0.78958589 -0.52833426 2.6377494
-1.0548707 -0.70869118 2.6914704
-1.0396814 -0.70030838 2.1205888
-0.99393106 -0.67048943 1.6623495
-0.97293967 -0.65730387 1.3511763
-0.96180677 -0.65394467 1.2227339
-0.94207984 -0.64124233 1.0012839
-0.92117244 -0.62724143 0.81527555
-0.91636753 -0.62442881 0.66701359
-0.9046995 -0.61670339 0.53068668
-0.89994556 -0.61368674 0.41011736
-0.88452929 -0.60362065 0.29478332
-0.88421673 -0.60340422 0.18905075
-0.95174009 -0.64515322 1.105222
-0.9387489 -0.63681668 0.90952545
-0.9217757 -0.62553209 0.74023062
-0.90566468 -0.61528295 0.59360647
-0.91827667 -0.62407887 0.47556409
-0.88845968 -0.60403579 0.34983522
-0.88446993 -0.60132027 0.24138485
-0.88383251 -0.60110623 0.13679302
-0.13068129 -0.036922909 14.063737
-1.0633469 -0.69221532 8.0662327
-1.3922341 -0.91548735 8.0343285
-0.71216857 -0.47333965 2.7808967
-0.95445359 -0.63763452 2.7637341
-1.0568013 -0.7081033 2.3985367
-1.0237759 -0.68751097 1.8838367
-0.98844081 -0.6645233 1.502634
-0.48656175 -0.28423411 9.5834131
-0.77220529 -0.49094316 8.4911394
-1.3356175 -0.88055563 6.196784
-0.79142535 -0.52557492 2.6377494
-1.0482814 -0.69896692 2.6689644
-1.0377831 -0.69377631 2.112057
-0.99125743 -0.66366333 1.6543695
-0.97241229 -0.65201575 1.347501
-0.96112746 -0.64858866 1.2192293
-0.94108713 -0.63577116 0.99814546
-0.91989177 -0.6216808 0.81253409
-0.91487223 -0.61874467 0.66469479
-0.9068467 -0.6135416 0.53068668
-0.89810956 -0.60785288 0.40870732
-0.88256377 -0.59777468 0.29385069
-0.88631761 -0.60031408 0.18905075
-0.95088828 -0.63974303 1.1018965
-0.93426013 -0.62902129 0.90363914
-0.92037809 -0.61990255 0.73769742
-0.90404379 -0.60958058 0.59150839
-0.9165346 -0.61822909 0.47392058
-0.89056271 -0.60093075 0.34983522
-0.88245857 -0.59545928 0.24069417
-0.8817845 -0.59522223 0.13659149
-0.13080937 -0.03646652 14.063737
-1.0651039 -0.68807787 8.0612926
-1.3954213 -0.910622 8.0343285
-0.7113241 -0.46920744 2.7713528
-0.95504522 -0.63321954 2.7591317
-1.0552778 -0.70175803 2.3897583
-1.0238278 -0.68237251 1.8797038
-0.98542184 -0.65751129 1.494959
-0.48755097 -0.28253397 9.5834131
-0.77616918 -0.48966575 8.5159979
-1.328164 -0.86900723 6.1483898
-0.79325509 -0.52280909 2.6377494
-1.0361906 -0.68569374 2.6329546
-1.035852 -0.68726605 2.1035249
-0.99105823 -0.65853167 1.6503794
-0.97185999 -0.64673942 1.3438259
-0.96042234 -0.64324528 1.2157247
-0.9433006 -0.63248223 0.99814546
-0.91858357 -0.61613685 0.80979264
-0.91334832 -0.61307859 0.66237599
-0.90513402 -0.60778809 0.5288136
-0.90022588 -0.60471416 0.40870732
-0.88464499 -0.59469026 0.29385069
-0.88427472 -0.59443825 0.18860367
-0.95001042 -0.63434666 1.0985711
-0.93308944 -0.62351072 0.90069598
-0.92253637 -0.61668605 0.73769742
-0.90239424 -0.60389709 0.58941036
-0.91868699 -0.61502594 0.47392058
-0.8926549 -0.59781849 0.34983522
-0.88041711 -0.58961982 0.24000348
-0.88385689 -0.59214061 0.13659149
-0.13089339 -0.035999734 14.058739
-1.0674993 -0.68435568 8.0612926
-1.3985914 -0.90574551 8.0343285
-0.71170861 -0.46590424 2.7665811
-0.9572497 -0.62988198 2.7591317
-1.0537231 -0.69543195 2.3809803
-1.0215094 -0.67568988 1.8714379
-0.98503852 -0.65229791 1.4911215
-0.48878473 -0.28097379 9.5884047
-0.78013343 -0.4883666 8.5408554
-1.3132663 -0.85273093 6.0661197
-0.79507524 -0.52003694 2.6377494
-1.0385779 -0.68207264 2.6329546
-1.0338881 -0.68077785 2.0949931
-0.99083531 -0.65340948 1.6463894
-0.96845359 -0.6396066 1.3364756
-0.9596917 -0.63791478 1.2122202
-0.94226217 -0.62702948 0.99500704
-0.92072874 -0.61292672 0.80979264
-0.91179615 -0.60743082 0.66005719
-0.90339231 -0.602054 0.52694058
-0.89833981 -0.59890717 0.40729728
-0.88262922 -0.58887243 0.29291809
-0.88220173 -0.58858418 0.18815659
-0.95221895 -0.63102663 1.0985711
-0.93189156 -0.61801589 0.89775282
-0.92109114 -0.61107904 0.73516428
-0.90449673 -0.60074341 0.58941036
-0.92082828 -0.61181539 0.47392058
-0.89068806 -0.59200829 0.34866288
-0.87422156 -0.58106071 0.23862213
-0.88175815 -0.58628565 0.13638996
-0.13101827 -0.035542611 14.058739
-1.0698817 -0.68062532 8.0612926
-1.4017445 -0.90085804 8.0343285
-0.71082681 -0.46179113 2.7570369
-0.95944262 -0.62653667 2.7591317
-1.0541406 -0.69043738 2.3765912
-1.0215093 -0.67057592 1.867305
-0.98463076 -0.64709526 1.4872841
-0.49001357 -0.27940843 9.5933962
-0.78409809 -0.48704568 8.565712
-1.3183482 -0.84950292 6.0757985
-0.79688561 -0.51725841 2.6377494
-1.0409524 -0.67844307 2.6329546
-1.0340748 -0.6757381 2.0907271
-0.99058872 -0.64829689 1.6423994
-0.96784496 -0.63436395 1.3328004
-0.96191263 -0.634561 1.2122202
-0.94119716 -0.62159163 0.99186856
-0.91937381 -0.60740411 0.80705118
-0.91021562 -0.60180122 0.65773833
-0.90548843 -0.59889692 0.52694058
-0.89642423 -0.59312075 0.40588725
-0.8805837 -0.58307594 0.29198545
-0.88009864 -0.58275175 0.18770951
-0.95129615 -0.62564737 1.0952456
-0.93066674 -0.61253715 0.89480966
-0.91961813 -0.60548961 0.73263109
-0.90279883 -0.59508479 0.58731234
-0.919016 -0.60599798 0.47227708
-0.89274913 -0.58889562 0.34866288
-0.87211078 -0.57527888 0.23793145
-0.88379931 -0.58320421 0.13638996
-0.13109899 -0.035075396 14.053739
-1.072251 -0.67688656 8.0612926
-1.4048805 -0.8959595 8.0343285
-0.71117967 -0.45849842 2.752265
-0.96162379 -0.62318379 2.7591317
-1.0525278 -0.6841433 2.3678129
-1.019128 -0.66393423 1.8590392
-0.98419881 -0.64190352 1.4834466
-0.49148896 -0.27797964 9.6033792
-0.78760916 -0.48542362 8.5855989
-0.79868639 -0.51447362 2.6377494
-1.0433143 -0.67480534 2.6329546
-1.0342391 -0.6707055 2.0864613
-0.99284565 -0.64483517 1.6423994
-0.96721143 -0.62913322 1.3291253
-0.96113807 -0.62924606 1.2087157
-0.94010574 -0.61616892 0.98873013
-0.92148846 -0.6041913 0.80705118
-0.91231072 -0.5986203 0.65773833
-0.90369779 -0.59318864 0.52506757
-0.89447933 -0.58735514 0.40447721
-0.87850839 -0.57730091 0.29105285
-0.88212746 -0.57967603 0.18770951
-0.95034748 -0.62028223 1.09192
-0.92941505 -0.60707444 0.89186651
-0.92172605 -0.60227585 0.73263109
-0.90487051 -0.59192979 0.58731234
-0.91717446 -0.60020065 0.47063357
-0.89073265 -0.58311349 0.34749055
-0.86997038 -0.5695188 0.23724076
-0.88582975 -0.58011556 0.13638996
-0.13122062 -0.034617562 14.053739
-1.0746073 -0.67313963 8.0612926
-1.4079995 -0.8910501 8.0343285
-0.71026075 -0.45440471 2.7427208
-0.96214992 -0.61876673 2.754529
-1.0508841 -0.67786896 2.3590348
-1.019076 -0.65884501 1.8549061
-0.98374259 -0.63672262 1.479609
-0.4927083 -0.2764031 9.6083708
-0.79157317 -0.48406079 8.6104555
-1.146991 -0.72783196 5.2676144
-0.80047739 -0.51168257 2.6377494
-1.0456635 -0.67115939 2.6329546
-1.0343807 -0.66567999 2.0821953
-0.99255764 -0.6397332 1.6384094
-0.96655327 -0.62391478 1.3254501
-0.96033812 -0.6239444 1.2052112
-0.93898797 -0.61076134 0.98559165
-0.92008692 -0.59869051 0.80430973
-0.91068256 -0.5930149 0.65541953
-0.90187842 -0.58750021 0.52319455
-0.89250505 -0.5816102 0.4030672
-0.87640357 -0.57154757 0.29012021
-0.87997419 -0.57387304 0.18726245
-0.94937295 -0.61493134 1.0885946
-0.92813659 -0.60162795 0.88892335
-0.92020589 -0.59670949 0.73009789
-0.90312445 -0.58629644 0.58521426
-0.91926396 -0.59699547 0.47063357
-0.88868672 -0.57735276 0.34631824
-0.86780035 -0.56378073 0.23655009
-0.88366026 -0.57429749 0.13618843
-0.13134065 -0.034159306 14.053739
-1.0769503 -0.66938442 8.0612926
-1.4111012 -0.88612986 8.0343285
-0.71058226 -0.45112285 2.7379491
-0.96265697 -0.6143536 2.7499266
-1.0492095 -0.67161447 2.3502567
-1.0166324 -0.65224493 1.8466402
-0.9832623 -0.63155276 1.4757715
-0.4941752 -0.27496138 9.6183548
-0.79553741 -0.48267627 8.635314
-1.1910111 -0.74993914 5.4563522
-0.80225861 -0.50888526 2.6377494
-1.0479999 -0.66750532 2.6329546
-1.0345 -0.66066176 2.0779295
-0.99224615 -0.63464123 1.6344193
-0.9658705 -0.61870855 1.321775
-0.95951301 -0.6186561 1.2017065
-0.94111425 -0.60747999 0.98559165
-0.92217112 -0.5954752 0.80430973
-0.91274697 -0.58983243 0.65541953
-0.90392363 -0.58434844 0.52319455
-0.89452982 -0.57849121 0.4030672
-0.87426937 -0.56581593 0.28918761
-0.87779123 -0.56809211 0.18681537
-0.94837272 -0.60959488 1.0852691
-0.93023103 -0.5983845 0.88892335
-0.9186579 -0.59116107 0.72756475
-0.90135026 -0.58068252 0.58311623
-0.91737294 -0.59122491 0.46899009
-0.88661146 -0.57161343 0.34514591
-0.86976302 -0.56074816 0.23655009
-0.88565958 -0.57120943 0.13618843
-0.1314591 -0.033700634 14.053739
-1.0792804 -0.66562104 8.0612926
-1.4141858 -0.88119876 8.0343285
-0.7096265 -0.44704887 2.728405
-0.96149445 -0.60889935 2.7407215
-1.0475042 -0.66537994 2.3414786
-1.0165292 -0.64718115 1.8425074
-0.98275775 -0.62639403 1.4719341
-0.49538499 -0.27337375 9.6233463
-0.79950148 -0.48126984 8.6601706
-1.2138772 -0.75842935 5.5483012
-0.80403006 -0.50608176 2.6377494
-1.0503235 -0.66384298 2.6329546
-1.0345968 -0.65565068 2.0736635
-0.98936719 -0.62794471 1.6264393
-0.96516317 -0.61351472 1.3180997
-0.95866251 -0.61338103 1.198202
-0.93995136 -0.60209185 0.98245323
-0.9207235 -0.58999664 0.80156827
-0.91107136 -0.58425158 0.65310073
-0.90205586 -0.57868648 0.52132148
-0.89250636 -0.57277429 0.40165716
-0.87623912 -0.56276071 0.28918761
-0.87976891 -0.56502461 0.18681537
-0.94734687 -0.60427296 1.0819435
-0.9289071 -0.59295905 0.88598019
-0.91708255 -0.58563071 0.72503155
-0.89954782 -0.57508814 0.58101815
-0.9154529 -0.58547497 0.46734658
-0.88450688 -0.56589556 0.34397361
-0.87171507 -0.55770868 0.23655009
-0.88344014 -0.56542128 0.13598689
-0.13157593 -0.033241551 14.053739
-1.0815972 -0.66184962 8.0612926
-1.4172531 -0.87625694 8.0343285
-0.70738494 -0.44219604 2.7140892
-0.96030545 -0.60346067 2.7315164
-1.0457679 -0.6591655 2.3327003
-1.0140239 -0.64062315 1.8342415
-0.98222935 -0.62124664 1.4680965
-0.49658975 -0.27178106 9.6283379
-0.80346549 -0.47984165 8.6850281
-1.2549798 -0.77802604 5.7225208
-0.80579168 -0.50327212 2.6377494
-1.0526344 -0.66017264 2.6329546
-1.0346712 -0.65064704 2.0693977
-0.9890033 -0.62288159 1.6224493
-0.96443135 -0.60833335 1.3144246
-0.96079779 -0.61003095 1.198202
-0.93876243 -0.59671921 0.97931474
-0.92277735 -0.58677918 0.80156827
-0.90936798 -0.57868958 0.65078193
-0.90407038 -0.57553422 0.52132148
-0.89045405 -0.56707865 0.4002471
-0.87405562 -0.55705857 0.28825498
-0.8817358 -0.56195021 0.18681537
-0.94629544 -0.59896564 1.078618
-0.93097126 -0.58971298 0.88598019
-0.91547996 -0.58011866 0.72249836
-0.8977173 -0.56951338 0.57892013
-0.91350389 -0.57974559 0.46570307
-0.88647687 -0.56280464 0.34397361
-0.87365651 -0.55466241 0.23655009
-0.88119125 -0.55965567 0.13578537
-0.13169117 -0.032782063 14.053739
-1.0839009 -0.65807015 8.0612926
-1.4194353 -0.87077224 8.0294333
-0.70638692 -0.43815091 2.704545
-0.95743251 -0.59700435 2.7177088
-1.0460318 -0.6542412 2.3283112
-1.0138695 -0.63558507 1.8301084
-0.981677 -0.61611044 1.464259
-0.49778932 -0.27018318 9.6333294
-0.80697042 -0.47812018 8.704915
-1.2726778 -0.78285879 5.7902722
-0.80607659 -0.49954742 2.6330566
-1.0549324 -0.65649426 2.6329546
-1.0347234 -0.64565092 2.0651317
-0.98861617 -0.61782879 1.6184592
-0.96367526 -0.60316473 1.3107494
-0.9599039 -0.60477257 1.1946975
-0.93754745 -0.59136224 0.97617632
-0.92128366 -0.58132327 0.79882681
-0.90763682 -0.5731467 0.64846313
-0.90607381 -0.57237488 0.52132148
-0.88837284 -0.56140423 0.39883706
-0.8759948 -0.55400419 0.28825498
-0.88369203 -0.558869 0.18681537
-0.94521856 -0.59367305 1.0752926
-0.92960173 -0.58430868 0.88303697
-0.91384995 -0.5746249 0.71996522
-0.89585894 -0.56395847 0.57682204
-0.9115262 -0.57403696 0.46405956
-0.88432342 -0.55711597 0.3428013
-0.87558734 -0.5516094 0.23655009
-0.87891287 -0.55391264 0.13558383
-0.13180479 -0.032322172 14.053739
-1.0861914 -0.65428257 8.0612926
-1.4224662 -0.86581218 8.0294333
-0.70409793 -0.43333605 2.6902292
-0.95120323 -0.58851987 2.6946962
-1.0442392 -0.64806038 2.3195331
-1.0136925 -0.63055593 1.8259755
-0.9811008 -0.61098582 1.4604216
-0.49898386 -0.26858035 9.6383209
-0.81047314 -0.47637999 8.7248001
-1.2829139 -0.78299457 5.8241487
-0.80781543 -0.49673066 2.6330566
-1.05907 -0.65395153 2.6374559
-1.0347533 -0.64066237 2.0608656
-0.98820585 -0.61278623 1.6144693
-0.96289474 -0.59800863 1.3070743
-0.95898515 -0.59952784 1.191193
-0.93630654 -0.58602113 0.97303784
-0.91976309 -0.57588488 0.7960853
-0.90963197 -0.56997496 0.64846313
-0.90806627 -0.56920862 0.52132148
-0.88626301 -0.55575144 0.39742702
-0.87376249 -0.54833192 0.28732237
-0.88563746 -0.55578089 0.18681537
-0.94411618 -0.58839524 1.071967
-0.92820603 -0.57892126 0.88009381
-0.91219288 -0.56914973 0.71743202
-0.89782202 -0.56082791 0.57682204
-0.91352445 -0.57085168 0.46405956
-0.88626277 -0.55402577 0.3428013
-0.87750751 -0.54854971 0.23655009
-0.88084102 -0.55084133 0.13558383
-0.13187404 -0.031853274 14.048738
-1.0878016 -0.65008861 8.0563536
-1.4254798 -0.86084157 8.0294333
-0.70178396 -0.42854246 2.6759133
-0.94825649 -0.58213013 2.6808887
-1.0424161 -0.64190006 2.3107548
-1.0134926 -0.62553579 1.8218426
-0.9805007 -0.60587257 1.4565841
-0.50017321 -0.26697239 9.6433125
-0.81397361 -0.47462124 8.7446871
-1.2856393 -0.77851158 5.8241487
-0.80954438 -0.49390787 2.6330566
-1.0632025 -0.65138775 2.641957
-1.0347611 -0.63568145 2.0565996
-0.98777235 -0.60775417 1.6104792
-0.96209002 -0.59286547 1.3033991
-0.95804143 -0.59429693 1.1876884
-0.93503982 -0.58069581 0.96989942
-0.91821581 -0.57046431 0.79334384
-0.90785402 -0.56445736 0.64614433
-0.90611106 -0.56358695 0.51944846
-0.88819754 -0.55265445 0.39742702
-0.87567121 -0.54527855 0.28732237
-0.88757211 -0.5526861 0.18681537
-0.94616431 -0.58509606 1.071967
-0.9267841 -0.57355076 0.87715065
-0.91417402 -0.56596208 0.71743202
-0.89591658 -0.55529958 0.57472402
-0.91551155 -0.56765938 0.46405956
-0.88406074 -0.54836667 0.34162897
-0.87520868 -0.54287302 0.23585941
-0.8785134 -0.54512912 0.13538231
-0.13194163 -0.031384286 14.043738
-1.0900642 -0.6462875 8.0563536
-1.428476 -0.85586047 8.0294333
-0.69816834 -0.42299715 2.6568253
-0.93693393 -0.57068753 2.6440685
-1.0426066 -0.63700891 2.306366
-1.0132701 -0.62052476 1.8177097
-0.98260969 -0.60244632 1.4565841
-0.50135756 -0.26535946 9.648304
-0.81747162 -0.47284383 8.7645731
-1.2872713 -0.77337193 5.8193092
-0.8112635 -0.491079 2.6330566
-1.0654699 -0.64767253 2.641957
-1.0325197 -0.62935102 2.0480678
-0.98474389 -0.60116261 1.6024991
-0.96126133 -0.58773524 1.299724
-0.95707291 -0.58907986 1.1841838
-0.93706113 -0.57742834 0.96989942
-0.92020154 -0.56725562 0.79334384
-0.9060486 -0.55895913 0.64382553
-0.90807277 -0.56042063 0.51944846
-0.88603944 -0.54703069 0.39601701
-0.87339026 -0.53963655 0.28638974
-0.88949591 -0.54958445 0.18681537
-0.94501841 -0.5798372 1.0686415
-0.9287805 -0.5703122 0.87715065
-0.91247082 -0.56051129 0.71489882
-0.89784944 -0.55216885 0.57472402
-0.91346544 -0.56198591 0.46241605
-0.88596946 -0.54527736 0.34162897
-0.87709832 -0.53981465 0.23585941
-0.88041091 -0.54205918 0.13538231
-0.13200754 -0.030915216 14.038738
-1.0923135 -0.64247853 8.0563536
-1.4314548 -0.85086894 8.0294333
-0.69708163 -0.41901991 2.6472814
-0.93892032 -0.56741357 2.6440685
-1.0407275 -0.63088286 2.2975879
-1.0130249 -0.61552292 1.8135767
-0.98196816 -0.59734708 1.4527465
-0.50279248 -0.26387519 9.658288
-0.82096702 -0.47104773 8.7844582
-1.2813247 -0.76372635 5.7805939
-0.81297278 -0.48824415 2.6330566
-1.0677241 -0.64394939 2.641957
-1.0324783 -0.62439358 2.0438018
-0.98425889 -0.59616059 1.5985092
-0.96040839 -0.582618 1.2960488
-0.95607966 -0.58387685 1.1806793
-0.93575019 -0.57212365 0.96676093
-0.9186089 -0.56185842 0.79060239
-0.90799427 -0.55579305 0.64382553
-0.90606999 -0.55482662 0.51757544
-0.88794345 -0.54393446 0.39601701
-0.8752687 -0.53658462 0.28638974
-0.88716328 -0.54387349 0.18636829
-0.9438473 -0.57459348 1.065316
-0.92731369 -0.56496376 0.8742075
-0.91074073 -0.55507934 0.71236569
-0.89589715 -0.54666746 0.57262594
-0.91542161 -0.5587939 0.46241605
-0.88371909 -0.53964823 0.34045666
-0.87475091 -0.5341689 0.23516873
-0.87803423 -0.53637826 0.13518077
-0.13202892 -0.030437896 14.028739
-1.0945495 -0.6386618 8.0563536
-1.4344162 -0.84586704 8.0294333
-0.69854003 -0.4165841 2.6472814
-0.94089526 -0.56413269 2.6440685
-1.0408708 -0.62601191 2.2931986
-1.0127573 -0.61053032 1.8094438
-0.98130316 -0.59225965 1.448909
-0.50345415 -0.26198569 9.6532965
-0.82399648 -0.46896958 8.7993736
-1.2785726 -0.75605071 5.7563968
-0.81467211 -0.48540339 2.6330566
-1.0680974 -0.63910085 2.6374559
-1.0301788 -0.61810243 2.03527
-0.983751 -0.5911693 1.5945191
-0.96243626 -0.57926208 1.2960488
-0.95506191 -0.57868809 1.1771748
-0.93441361 -0.56683517 0.96362251
-0.91698974 -0.55647922 0.78786093
-0.90614253 -0.55032074 0.64150673
-0.90800112 -0.55166048 0.51757544
-0.88573742 -0.53834015 0.39460698
-0.87293947 -0.53097332 0.28545713
-0.88480157 -0.53818542 0.18592121
-0.94265121 -0.56936508 1.0619905
-0.92928016 -0.56172335 0.8742075
-0.9126727 -0.55189687 0.71236569
-0.89779991 -0.5435369 0.57262594
-0.91736656 -0.55559504 0.46241605
-0.88559741 -0.53656024 0.34045666
-0.87661016 -0.53111219 0.23516873
-0.87562883 -0.53072059 0.13497925
-0.13209148 -0.029968826 14.023739
-1.0967722 -0.63483721 8.0563536
-1.4373602 -0.84085488 8.0294333
-0.69870502 -0.41338333 2.6425092
-0.9428587 -0.5608449 2.6440685
-1.0389361 -0.61992067 2.2844205
-1.0124671 -0.60554719 1.8053107
-0.98061448 -0.58718413 1.4450716
-0.50308168 -0.25956714 9.6283379
-0.82702136 -0.46687591 8.8142872
-1.2757826 -0.74840367 5.7321992
-0.81636155 -0.48255667 2.6330566
-1.0684496 -0.6342575 2.6329546
-1.0278478 -0.61183494 2.0267382
-0.98063207 -0.58464599 1.5865391
-0.96154159 -0.57416099 1.2923737
-0.95401955 -0.57351351 1.1736702
-0.93305159 -0.56156301 0.96048403
-0.91534436 -0.5511182 0.78511947
-0.90426368 -0.54486823 0.63918799
-0.90595078 -0.54609436 0.51570243
-0.88761121 -0.53524512 0.39460698
-0.87478763 -0.52792293 0.28545713
-0.88667482 -0.53509361 0.18592121
-0.94143015 -0.56415206 1.058665
-0.92776877 -0.55639744 0.87126434
-0.91089696 -0.54649001 0.70983243
-0.89580113 -0.53806293 0.57052791
-0.91525263 -0.54995733 0.46077254
-0.88329911 -0.53096157 0.33928433
-0.87421441 -0.52549779 0.23447806
-0.87747598 -0.52766079 0.13497925
-0.13215236 -0.029499689 14.018739
-1.0989815 -0.63100487 8.0563536
-1.4402865 -0.83583242 8.0294333
-0.70014381 -0.4109419 2.6425092
-0.94481069 -0.55755031 2.6440685
-1.0390327 -0.61507058 2.2800314
-1.0121547 -0.60057354 1.8011779
-0.97990251 -0.58212072 1.441234
-0.50347018 -0.25754741 9.6183548
-0.83004177 -0.46476689 8.8292027
-1.2751278 -0.74204952 5.7176814
-0.81804097 -0.47970411 2.6330566
-1.0687811 -0.62941939 2.6284533
-1.0254858 -0.60559136 2.0182061
-0.98007321 -0.57968551 1.5825491
-0.9606232 -0.56907338 1.2886984
-0.95295274 -0.56835324 1.1701657
-0.93166417 -0.55630726 0.9573456
-0.91726255 -0.54791969 0.78511947
-0.90235794 -0.53943557 0.63686919
-0.90387279 -0.54054934 0.51382935
-0.88947409 -0.53214353 0.39460698
-0.87662506 -0.52486616 0.28545713
-0.88426459 -0.52943712 0.18547413
-0.94339365 -0.56086242 1.058665
-0.9262315 -0.55108881 0.86832118
-0.90909469 -0.54110235 0.70729923
-0.89767385 -0.53493267 0.57052791
-0.90905452 -0.54192334 0.45748553
-0.8809725 -0.5253855 0.33811203
-0.87604344 -0.522443 0.23447806
-0.87502217 -0.522035 0.13477771
-0.13221158 -0.029030493 14.01374
-1.1011775 -0.6271649 8.0563536
-1.4431952 -0.83079976 8.0294333
-0.70157397 -0.4084954 2.6425092
-0.94675112 -0.55424887 2.6440685
-1.039108 -0.61022717 2.2756422
-1.0118197 -0.59560937 1.7970449
-0.97640562 -0.57544214 1.4335591
-0.67316264 -0.34101671 12.887891
-0.8330574 -0.46264246 8.8441172
-1.2733556 -0.73508084 5.6983237
-0.81971049 -0.47684568 2.6330566
-1.0690919 -0.62458682 2.6239522
-1.0230927 -0.59937167 2.0096743
-0.97949183 -0.57473606 1.578559
-0.95968086 -0.56399912 1.2850233
-0.9518615 -0.56320745 1.1666611
-0.93025154 -0.55106807 0.95420712
-0.91557235 -0.54258287 0.78237802
-0.90042526 -0.53402287 0.63455039
-0.90176713 -0.53502548 0.51195633
-0.88720113 -0.52658707 0.39319694
-0.87845188 -0.52180296 0.28545713
-0.88182569 -0.52380395 0.18502705
-0.94212949 -0.55566913 1.0553395
-0.92814958 -0.54785228 0.86832118
-0.90726596 -0.53573394 0.70476609
-0.89562875 -0.52948636 0.56842989
-0.90687603 -0.53634304 0.45584202
-0.87861776 -0.51983207 0.33693972
-0.87359977 -0.51686031 0.23378737
-0.8725397 -0.51643282 0.13457619
-0.13226914 -0.028561242 14.00874
-1.1033599 -0.62331724 8.0563536
-1.4452022 -0.82525218 8.024538
-0.7029956 -0.40604398 2.6425092
-0.94868004 -0.55094075 2.6440685
-1.0370928 -0.60418546 2.2668641
-1.0114626 -0.59065497 1.792912
-0.97564119 -0.5704127 1.4297215
-0.6738326 -0.33840641 12.877907
-0.83653539 -0.46075958 8.8640022
-1.2737319 -0.72938246 5.6886444
-0.81987518 -0.47311914 2.6283638
-1.0693821 -0.61975974 2.6194508
-1.0206687 -0.59317613 2.0011425
-0.97888768 -0.56979769 1.574569
-0.95871484 -0.55893838 1.2813481
-0.95074606 -0.5580762 1.1631566
-0.92881364 -0.54584557 0.95106864
-0.91385591 -0.53726447 0.77963656
-0.90228385 -0.53087652 0.63455039
-0.89963388 -0.5295229 0.51008332
-0.88903379 -0.52348691 0.39319694
-0.87603587 -0.51623952 0.2845245
-0.87935829 -0.51819438 0.18457997
-0.9408406 -0.55049163 1.052014
-0.92656833 -0.54256684 0.86537802
-0.90913051 -0.53256375 0.70476609
-0.89747155 -0.52635682 0.56842989
-0.90874273 -0.53317416 0.45584202
-0.88042694 -0.51676196 0.33693972
-0.8711279 -0.5113011 0.23309669
-0.87433708 -0.51338392 0.13457619
-0.13236804 -0.028099364 14.00874
-1.105529 -0.61946195 8.0563536
-1.448074 -0.82020247 8.024538
-0.70440871 -0.40358758 2.6425092
-0.9489044 -0.54665077 2.6394658
-1.0371218 -0.59936339 2.2624753
-1.0086479 -0.5842998 1.7846459
-0.97485363 -0.56539565 1.425884
-0.67164791 -0.33438414 12.813016
-0.83954245 -0.45860276 8.8789177
-1.2729911 -0.72306979 5.6741261
-0.82152176 -0.47025439 2.6283638
-1.0677642 -0.61385345 2.6104486
-1.0204736 -0.58830732 1.9968767
-0.97826111 -0.56487066 1.5705789
-0.95772541 -0.55389136 1.277673
-0.95268822 -0.55475408 1.1631566
-0.92735058 -0.54063976 0.94793022
-0.91572577 -0.53407133 0.77963656
-0.90030557 -0.52549076 0.63223159
-0.9014768 -0.52637941 0.51008332
-0.8867135 -0.51796085 0.3917869
-0.87783253 -0.51317847 0.2845245
-0.87686253 -0.51260841 0.18413289
-0.94275647 -0.5472042 1.052014
-0.92496139 -0.53729904 0.86243486
-0.90725672 -0.5272212 0.7022329
-0.89538044 -0.52093852 0.5663318
-0.90651709 -0.52762347 0.45419851
-0.87802488 -0.51123983 0.33576739
-0.87290728 -0.50825721 0.23309669
-0.87612385 -0.51032877 0.13457619
-0.13242228 -0.027629871 14.00374
-1.1076846 -0.61559916 8.0563536
-1.4509282 -0.81514275 8.024538
-0.70581317 -0.40112627 2.6425092
-0.9508068 -0.54333514 2.6394658
-1.0371298 -0.59454852 2.258086
-1.0058016 -0.57797158 1.7763801
-0.97404295 -0.56039107 1.4220465
-0.67462438 -0.33292952 12.847958
-0.84207577 -0.45617679 8.8888607
-1.2722218 -0.7167713 5.6596084
-0.8231582 -0.46738386 2.6283638
-1.0661181 -0.60796601 2.6014462
-1.0179929 -0.58215255 1.9883448
-0.98022693 -0.56145245 1.5705789
-0.95671231 -0.54885799 1.2739978
-0.95153075 -0.54964155 1.1596521
-0.92586267 -0.53545088 0.94479173
-0.91396511 -0.52877772 0.77689505
-0.90213442 -0.52234495 0.63223159
-0.89929718 -0.52090591 0.5082103
-0.88851613 -0.51486254 0.3917869
-0.87961847 -0.51011109 0.2845245
-0.87864649 -0.50954449 0.18413289
-0.94142503 -0.54204708 1.0486885
-0.92683125 -0.53406703 0.86243486
-0.90909153 -0.52405107 0.7022329
-0.89719343 -0.51780993 0.5663318
-0.90835333 -0.5244559 0.45419851
-0.87559509 -0.50574082 0.33459508
-0.87038797 -0.50273031 0.23240602
-0.87357414 -0.50476795 0.13437465
-0.13247488 -0.027160345 13.99874
-1.1098267 -0.61172891 8.0563536
-1.4537648 -0.81007308 8.024538
-0.70590866 -0.39792731 2.6377373
-0.95269763 -0.5400129 2.6394658
-1.0371168 -0.58974099 2.2536969
-1.0029231 -0.57167041 1.7681142
-0.97042531 -0.55381054 1.4143715
-0.67111146 -0.32829544 12.758107
-0.84460235 -0.45373869 8.8988028
-1.2714239 -0.71048695 5.6450896
-0.8247847 -0.46450767 2.6283638
-1.0644441 -0.60209757 2.5924437
-1.01775 -0.57730883 1.9840788
-0.97956079 -0.556539 1.5665889
-0.95862234 -0.54551512 1.2739978
-0.95034921 -0.5445438 1.1561475
-0.9243499 -0.53027904 0.94165331
-0.91217864 -0.52350295 0.77415359
-0.9001109 -0.51698655 0.62991279
-0.90110999 -0.51776356 0.5082103
-0.88614893 -0.50936735 0.39037687
-0.88139379 -0.50703758 0.2845245
-0.87610316 -0.50399113 0.18368581
-0.94006914 -0.53690594 1.0453631
-0.92518061 -0.52882284 0.85949171
-0.90717304 -0.51873487 0.6996997
-0.89505666 -0.51242012 0.56423378
-0.91017848 -0.52128196 0.45419851
-0.87735516 -0.50268131 0.33459508
-0.87213755 -0.49968898 0.23240602
-0.87533081 -0.50171554 0.13437465
-0.13256888 -0.026697755 13.99874
-1.1112734 -0.60747862 8.0514145
-1.4565836 -0.80499357 8.024538
-0.70729339 -0.39546081 2.6377373
-0.95457685 -0.5366841 2.6394658
-1.0349969 -0.58376431 2.2449188
-1.0000132 -0.56539637 1.7598482
-0.96956307 -0.54884088 1.4105339
-0.67121357 -0.32544839 12.738141
-0.84759283 -0.45153901 8.9137182
-1.2716974 -0.70482612 5.6354108
-0.82640105 -0.46162578 2.6283638
-1.0608433 -0.59518325 2.5789402
-1.0174861 -0.57247406 1.979813
-0.9788723 -0.55163705 1.5625988
-0.95756823 -0.54049927 1.2703226
-0.94914365 -0.53946108 1.152643
-0.92281222 -0.52512431 0.93851483
-0.91036648 -0.51824707 0.77141213
-0.90191001 -0.51384139 0.62991279
-0.90291184 -0.51461494 0.5082103
-0.88792157 -0.506271 0.39037687
-0.87889177 -0.50152332 0.2835919
-0.87785709 -0.50092989 0.18368581
-0.93868876 -0.53178096 1.0420375
-0.92350459 -0.52359664 0.85654855
-0.90522856 -0.51343834 0.69716656
-0.89289325 -0.50705159 0.5621357
-0.91199255 -0.51810169 0.45419851
-0.87487864 -0.49721411 0.33342275
-0.87387645 -0.49664161 0.23240602
-0.87273359 -0.49618775 0.13417313
-0.13261817 -0.026228022 13.99374
-1.1133871 -0.60359585 8.0514145
-1.4593847 -0.79990423 8.024538
-0.70866942 -0.39298949 2.6377373
-0.95644438 -0.53334874 2.6394658
-1.034938 -0.57897878 2.2405298
-0.99707168 -0.55914968 1.7515824
-0.96867812 -0.5438841 1.4066964
-0.67546999 -0.32459977 12.79804
-0.85010666 -0.44907513 8.9236612
-1.2719467 -0.69917202 5.6257319
-0.8280074 -0.4587383 2.6283638
-1.0591098 -0.58935982 2.5699377
-1.0172006 -0.56764811 1.975547
-0.97816157 -0.54674673 1.5586089
-0.95649087 -0.53549743 1.2666475
-0.94791436 -0.53439349 1.1491385
-0.92124993 -0.51998675 0.93537635
-0.90852886 -0.51301032 0.76867068
-0.89984155 -0.50851071 0.62759399
-0.90066695 -0.50917864 0.50633723
-0.88550788 -0.50080705 0.38896683
-0.88063711 -0.49845234 0.2835919
-0.87960029 -0.49786255 0.18368581
-0.93728417 -0.52667212 1.038712
-0.92180347 -0.51838863 0.85360539
-0.90701526 -0.51027542 0.69716656
-0.89070332 -0.50170445 0.56003767
-0.90968144 -0.51259691 0.452555
-0.87660891 -0.4941572 0.33342275
-0.8712908 -0.49115643 0.23171534
-0.87446028 -0.49313831 0.13417313
-0.13262267 -0.025751604 13.983741
-1.1154873 -0.5997057 8.0514145
-1.462168 -0.79480517 8.024538
-0.71003693 -0.39051339 2.6377373
-0.95830029 -0.53000689 2.6394658
-1.032764 -0.57303888 2.2317514
-0.99655819 -0.55429816 1.7474495
-0.97057074 -0.54049945 1.4066964
-0.67529494 -0.32162106 12.773083
-0.85261363 -0.44659925 8.9336033
-1.2732759 -0.69412637 5.620893
-0.83111614 -0.45667607 2.6330566
-1.0516306 -0.58040053 2.5474315
-1.0146121 -0.56156838 1.967015
-0.97742862 -0.54186815 1.5546188
-0.95539033 -0.53050971 1.2629722
-0.94666123 -0.52934098 1.1456339
-0.91966295 -0.51486647 0.93223786
-0.90666568 -0.50779265 0.76592922
-0.90161103 -0.50536656 0.62759399
-0.90243882 -0.50603163 0.50633723
-0.88306677 -0.49536613 0.38755682
-0.87808824 -0.49297059 0.28265926
-0.88133281 -0.49478915 0.18368581
-0.93911695 -0.52339715 1.038712
-0.92007738 -0.51319903 0.85066223
-0.9050265 -0.50500584 0.69463336
-0.8884871 -0.49637881 0.55793959
-0.91146517 -0.50941837 0.452555
-0.87408596 -0.48872221 0.33225045
-0.87299997 -0.48811206 0.23171534
-0.87181622 -0.48764408 0.13397159
-0.13262548 -0.025275473 13.973742
-1.1175739 -0.59580827 8.0514145
-1.4640373 -0.78921342 8.0196428
-0.7113958 -0.3880325 2.6377373
-0.96014452 -0.52665854 2.6394658
-1.0326596 -0.56827587 2.2273624
-0.99602288 -0.54945707 1.7433165
-0.96964568 -0.53555864 1.402859
-0.68007082 -0.3209821 12.842966
-0.85511369 -0.44411129 8.9435463
-1.2679504 -0.68549401 5.5870166
-0.8327052 -0.45377213 2.6330566
-1.0574695 -0.57881629 2.5564339
-1.01428 -0.55676848 1.9627492
-0.97667366 -0.53700137 1.5506288
-0.95426673 -0.5255363 1.2592971
-0.94538438 -0.52430385 1.1421293
-0.92145455 -0.51165313 0.93223786
-0.90843278 -0.50462466 0.76592922
-0.89949787 -0.50006396 0.62527519
-0.90014827 -0.50062531 0.50446421
-0.8805986 -0.48994839 0.38614678
-0.87551194 -0.48751274 0.28172666
-0.87870365 -0.48928702 0.18323873
-0.93767041 -0.51830965 1.0353866
-0.91832626 -0.50802767 0.84771907
-0.90678382 -0.50184363 0.69463336
-0.89021444 -0.49327439 0.55793959
-0.90910763 -0.50394428 0.45091146
-0.87578654 -0.48566809 0.33225045
-0.87036765 -0.48266017 0.23102465
-0.86914438 -0.48217428 0.13377006
-0.13258339 -0.024793271 13.958742
-1.1196468 -0.59190363 8.0514145
-1.4667832 -0.78409821 8.0196428
-0.7127459 -0.38554692 2.6377373
-0.96197706 -0.52330381 2.6394658
-1.0304322 -0.56237334 2.2185843
-0.99546611 -0.54462647 1.7391837
-0.96869808 -0.53063101 1.3990214
-0.68354207 -0.31970391 12.887891
-0.85808086 -0.44185519 8.9584618
-1.2614726 -0.67631358 5.5483012
-0.83428407 -0.45086268 2.6330566
-1.0594835 -0.57512152 2.5564339
-1.0139265 -0.55197769 1.9584832
-0.97325104 -0.53070402 1.5426488
-0.95311999 -0.52057713 1.2556219
-0.94720876 -0.52100062 1.1421293
-0.91982543 -0.50655603 0.92909944
-0.90652627 -0.49943298 0.76318777
-0.8973586 -0.49478221 0.6229564
-0.8978309 -0.49524111 0.50259119
