# .PCD v0.7 - Point Cloud Data file format
VERSION 0.7
FIELDS x y z
SIZE 4 4 4
TYPE F F F
COUNT 1 1 1
WIDTH 1451
HEIGHT 1
VIEWPOINT 0 0 0 1 0 0 0
POINTS 1451
DATA ascii
-0.80675364 0.57202464 0.66676843
-0.80089891 0.56725264 0.54115516
-0.79438031 0.5624336 0.42790234
-0.78171027 0.55326426 0.32169959
-0.78406245 0.55493218 0.2261899
-0.78283989 0.55386817 0.13235934
-0.91389573 0.67464936 7.2216191
-1.1815313 0.86384296 7.0601783
-1.086955 0.78664315 4.3365636
-0.97114462 0.69924825 2.8787971
-0.91274422 0.65528566 2.1264138
-0.8744055 0.6263923 1.6523917
-0.85130697 0.60918158 1.3299464
-1.1940328 0.87080318 5.7273598
-1.0140193 0.73441136 3.4589834
-0.94590598 0.68234253 2.4754121
-0.8947354 0.64378828 1.8731647
-0.85621816 0.61517906 1.4708283
-0.83833772 0.60145956 1.1968194
-0.83667183 0.596515 1.0895611
-0.82363307 0.58658034 0.89771485
-0.8124944 0.57843953 0.73851454
-0.80610859 0.57347852 0.604406
-0.80160153 0.57006752 0.48573387
-0.79395956 0.56443042 0.37627655
-0.77689326 0.55189568 0.27240044
-0.77931672 0.55362046 0.17876793
-0.82897723 0.5927825 0.98882955
-0.81442469 0.58195525 0.81240118
-0.80825973 0.57734299 0.66930163
-0.80260831 0.57268095 0.54325318
-0.79241228 0.56520313 0.42790234
-0.78373194 0.55881149 0.32287189
-0.78615266 0.56054068 0.22688057
-0.78497005 0.55949712 0.13256088
-0.9115352 0.6778354 7.2216191
-1.1801484 0.86916989 7.0699687
-1.0878208 0.79307103 4.3508797
-0.97344196 0.70607567 2.8926048
-0.9123919 0.65987152 2.1308026
-0.87449539 0.63108754 1.6565247
-0.84917533 0.61214948 1.3299464
-1.1950374 0.8779431 5.7467175
-1.0128434 0.73896372 3.4636762
-0.94704032 0.68819994 2.4844146
-0.89459431 0.64843833 1.8774304
-0.85650635 0.61993098 1.4748185
-0.83623314 0.60438216 1.1968194
-0.83748096 0.60151243 1.0930656
-0.82158047 0.58945179 0.89771485
-0.81386811 0.58370918 0.741256
-0.80770236 0.57886946 0.6067248
-0.80337518 0.57556218 0.48760688
-0.79588449 0.56999153 0.37768659
-0.77895671 0.55746305 0.27333307
-0.78142923 0.55923569 0.17921501
-0.82993239 0.59785503 0.99215508
-0.8156687 0.58715618 0.81534433
-0.80623949 0.5801608 0.66930163
-0.8006044 0.57547915 0.54325318
-0.79426932 0.57072127 0.42954585
-0.78177655 0.56154382 0.32287189
-0.78419119 0.56328148 0.22688057
-0.78301227 0.56223375 0.13256088
-0.90916353 0.68101311 7.2216191
-1.1779248 0.87389088 7.0748639
-1.0898578 0.80039817 4.3699675
-0.97412604 0.71177483 2.9018097
-0.91201854 0.6644628 2.1351919
-0.87456322 0.63579112 1.6606575
-0.8496269 0.61699349 1.3337839
-1.1960067 0.8851006 5.7660751
-1.0130386 0.7445389 3.4730618
-0.94814527 0.69407356 2.493417
-0.89443159 0.65309525 1.8816965
-0.85677189 0.62469232 1.4788084
-0.83685899 0.6092931 1.2004945
-0.83537614 0.60443205 1.0930656
-0.82267243 0.59459615 0.90085334
-0.81182557 0.58654654 0.741256
-0.80567682 0.58168536 0.6067248
-0.8013612 0.57836294 0.48760688
-0.79389006 0.57276624 0.37768659
-0.77700603 0.5601787 0.27333307
-0.77947235 0.56195998 0.17921501
-0.83086228 0.60294145 0.99548054
-0.81361413 0.58999979 0.81534433
-0.80769962 0.58550179 0.67183477
-0.80226666 0.58093214 0.54535127
-0.79227221 0.57349032 0.42954585
-0.78374934 0.56711864 0.32404423
-0.78623205 0.56891835 0.22757125
-0.78104496 0.56496358 0.13256088
-0.90678078 0.68418247 7.2216191
-1.1748672 0.87799728 7.0748639
-1.090657 0.80686128 4.3842835
-0.97320879 0.71632898 2.9064121
-0.91162425 0.6690594 2.1395807
-0.87687904 0.64216566 1.6689235
-0.85005474 0.62184805 1.3376215
-1.1969405 0.89227557 5.7854328
-1.0132072 0.75012439 3.4824471
-0.94922066 0.69996321 2.5024195
-0.89424711 0.65775883 1.8859622
-0.85701454 0.62946308 1.4827985
-0.8374607 0.61421573 1.2041698
-0.83614314 0.60944515 1.0965703
-0.82059187 0.5974642 0.90085334
-0.81315392 0.59183753 0.74399745
-0.80722386 0.58709973 0.6090436
-0.79933745 0.58115667 0.48760688
-0.79576629 0.5783543 0.37909663
-0.77902055 0.5657742 0.27426568
-0.78153545 0.56760389 0.17966209
-0.82875258 0.60583806 0.99548054
-0.81481355 0.59522063 0.81828749
-0.80565089 0.58831763 0.67183477
-0.80023396 0.58372903 0.54535127
-0.79408109 0.57903463 0.43118936
-0.78176498 0.56985104 0.32404423
-0.78424138 0.57165933 0.22757125
-0.77906805 0.5676865 0.13256088
-0.904387 0.6873436 7.2216191
-1.1726086 0.88270551 7.0797591
-1.0914243 0.81333971 4.3985991
-0.97384089 0.72204924 2.9156172
-0.91120905 0.67366147 2.14397
-0.87689644 0.64689326 1.6730564
-0.84787893 0.62481153 1.3376215
-1.1988438 0.9002226 5.8096299
-1.0133491 0.7557202 3.4918327
-0.94851899 0.70457059 2.5069206
-0.89404112 0.66242909 1.8902283
-0.85481209 0.63245076 1.4827985
-0.83803815 0.6191498 1.2078449
-0.83688515 0.6144709 1.1000748
-0.82163984 0.6026271 0.90399176
-0.81108308 0.59467238 0.74399745
-0.80516958 0.5899139 0.6090436
-0.79730397 0.58394337 0.48760688
-0.79761314 0.58396232 0.38050666
-0.77704084 0.56849009 0.27426568
-0.78356844 0.57326901 0.18010917
-0.82963932 0.61094141 0.99880606
-0.81598634 0.60045701 0.82123065
-0.80706477 0.59368074 0.67436796
-0.80184877 0.58920634 0.54744929
-0.79205501 0.58180302 0.43118936
-0.7836889 0.57545334 0.32521653
-0.78224111 0.57439339 0.22757125
-0.77708173 0.57040244 0.13256088
-0.90198225 0.69049633 7.2216191
-1.1695203 0.8867932 7.0797591
-1.0921597 0.81983334 4.4129157
-0.97444487 0.72778255 2.9248226
-0.91077262 0.67826867 2.1483591
-0.87689167 0.65162879 1.6771894
-0.84826636 0.62967795 1.3414589
-1.2007062 0.90819389 5.8338275
-1.0134642 0.76132607 3.5012183
-0.94953972 0.71048605 2.5159233
-0.89381325 0.66710591 1.8944942
-0.85501516 0.63723159 1.4867885
-0.8385914 0.62409556 1.2115201
-0.83760232 0.61950922 1.1035793
-0.81953132 0.60549146 0.90399176
-0.81236577 0.59998417 0.74673891
-0.80310547 0.59272093 0.6090436
-0.79899126 0.58947527 0.48947993
-0.7955699 0.58674294 0.38050666
-0.77900606 0.57411331 0.27519831
-0.78156263 0.57600069 0.18010917
-0.82750165 0.61383367 0.99880606
-0.81388539 0.60330164 0.82123065
-0.80498761 0.59649432 0.67436796
-0.79978716 0.59200174 0.54744929
-0.79001933 0.58456421 0.43118936
-0.78167546 0.57818538 0.32521653
-0.78421265 0.58006531 0.22826193
-0.77508593 0.57311153 0.13256088
-0.89956647 0.69364059 7.2216191
-1.1672268 0.89148849 7.0846543
-1.0916724 0.82544154 4.4224591
-0.97345954 0.73235416 2.929425
-0.91031528 0.68288106 2.1527481
-0.87686437 0.65637225 1.6813223
-0.84863007 0.63455462 1.3452964
-1.2015277 0.91542703 5.8531852
-1.0149285 0.76798338 3.5152967
-0.94879216 0.71510661 2.5204244
-0.89356381 0.67178929 1.8987602
-0.85278559 0.6402123 1.4867885
-0.83912027 0.62905258 1.2151952
-0.83829445 0.62456 1.1070838
-0.82053518 0.61067247 0.90713024
-0.81026649 0.60281622 0.74673891
-0.80458659 0.59816366 0.6113624
-0.79692876 0.59226066 0.48947993
-0.79736757 0.59237725 0.38191667
-0.77699733 0.57682902 0.27519831
-0.78354579 0.58169377 0.18055625
-0.82834482 0.61895347 1.0021316
-0.81501317 0.6085574 0.82417381
-0.80290049 0.59930062 0.67436796
-0.79771578 0.59478992 0.54744929
-0.79176009 0.59014046 0.43283287
-0.77965242 0.58091044 0.32521653
-0.78218305 0.5827992 0.22826193
-0.77708733 0.57879788 0.1327624
-0.8977533 0.69725329 7.2265587
-1.1641078 0.8955574 7.0846543
-1.0923465 0.83196074 4.4367752
-0.97245425 0.73692787 2.9340274
-0.90983659 0.68749845 2.1571372
-0.87681466 0.66112339 1.6854552
-0.84640986 0.6375131 1.3452964
-1.2033104 0.92344254 5.8773823
-1.0149863 0.77361387 3.5246823
-0.94802403 0.71973068 2.5249257
-0.89329231 0.67647892 1.903026
-0.85294896 0.64500278 1.4907786
-0.83691937 0.6319778 1.2151952
-0.83896136 0.62962312 1.1105883
-0.8215127 0.61586779 0.91026872
-0.81150335 0.60814863 0.74948037
-0.80249369 0.6009686 0.6113624
-0.79856765 0.59781724 0.49135295
-0.79529494 0.59515697 0.38191667
-0.77891302 0.5824796 0.27613091
-0.78151053 0.58442533 0.18055625
-0.82617921 0.62184113 1.0021316
-0.81611419 0.61382836 0.82711697
-0.80424911 0.60469031 0.67690116
-0.79563475 0.59757078 0.54744929
-0.78969532 0.59290063 0.43283287
-0.7776199 0.58362836 0.32521653
-0.78014392 0.58552599 0.22826193
-0.77506226 0.58150691 0.1327624
-0.89531398 0.70038277 7.2265587
-1.1609746 0.89961547 7.0846543
-1.0929887 0.8384949 4.4510913
-0.97298163 0.74268889 2.9432325
-0.90933692 0.69212091 2.1615264
-0.87674236 0.66588211 1.6895882
-0.84673285 0.64240116 1.349134
-1.2050517 0.93148142 5.9015794
-1.015017 0.77925408 3.5340676
-0.94723505 0.72435802 2.5294268
-0.89299905 0.68117487 1.907292
-0.85308921 0.64980215 1.4947685
-0.8374064 0.63694787 1.2188703
-0.83675849 0.6325478 1.1105883
-0.81935799 0.61873162 0.91026872
-0.80937552 0.61097753 0.74948037
-0.80392748 0.60643393 0.6136812
-0.79647601 0.60060108 0.49135295
-0.7970432 0.60081702 0.38332671
-0.77687502 0.585195 0.27613091
-0.78344339 0.59014606 0.18100333
-0.8269788 0.62697715 1.005457
-0.81396657 0.61667335 0.82711697
-0.80213344 0.60749394 0.67690116
-0.79716337 0.60308278 0.54954737
-0.7876209 0.59565359 0.43283287
-0.77557796 0.58633924 0.32521653
-0.78204554 0.59123206 0.2289526
-0.7770133 0.58722097 0.13296394
-0.89347392 0.70398474 7.2314978
-1.1586298 0.90428907 7.0895495
-1.0935984 0.84504348 4.4654074
-0.97193193 0.74727166 2.947835
-0.90881616 0.6967482 2.1659153
-0.87664759 0.6706484 1.6937212
-0.84703183 0.64729923 1.3529714
-1.2057598 0.93877143 5.9209371
-1.0163858 0.78595966 3.5481458
-0.94814986 0.73031712 2.538429
-0.8926838 0.68587691 1.9115579
-0.8532064 0.6546104 1.4987586
-0.83786899 0.64192897 1.2225455
-0.83738261 0.6376254 1.1140929
-0.8202911 0.62394452 0.91340715
-0.81056631 0.61633015 0.75222182
-0.80180568 0.60923648 0.6136812
-0.79806638 0.6061818 0.49322599
-0.79494107 0.60359555 0.38332671
-0.77874088 0.59087247 0.27706355
-0.78137869 0.59287721 0.18100333
-0.82775253 0.63212627 1.0087825
-0.81502211 0.62196308 0.83006012
-0.80343533 0.61290491 0.6794343
-0.79505336 0.60586166 0.54954737
-0.78929317 0.60126078 0.43447638
-0.77739358 0.59198773 0.32638884
-0.77997702 0.59395832 0.2289526
-0.778934 0.59295583 0.13316546
-0.89587921 0.71096456 7.2710118
-1.1554663 0.90832794 7.0895495
-1.0953532 0.85252339 4.4844952
-0.97240663 0.75305247 2.9570401
-0.90827394 0.70138031 2.1703045
-0.87653017 0.67542213 1.697854
-0.84730709 0.65220726 1.3568089
-1.2074206 0.9468534 5.9451342
-1.0163587 0.79162383 3.5575314
-0.94731468 0.73495692 2.5429304
-0.89234662 0.69058514 1.9158239
-0.85330033 0.65942734 1.5027486
-0.83830696 0.6469211 1.2262206
-0.83515179 0.64054453 1.1140929
-0.81810808 0.62680399 0.91340715
-0.81172955 0.62169838 0.75496328
-0.8031919 0.61472398 0.616
-0.79594553 0.60896391 0.49322599
-0.79663968 0.60928112 0.38473675
-0.77667361 0.59358722 0.27706355
-0.78326106 0.59862512 0.18145041
-0.82850033 0.63728839 1.0121081
-0.81284606 0.6248042 0.83006012
-0.8047092 0.61833239 0.6819675
-0.79653388 0.61139685 0.55164546
-0.7871896 0.60401225 0.43447638
-0.7791791 0.59765607 0.32756117
-0.77789897 0.59667736 0.2289526
-0.77685952 0.59567118 0.13316546
-0.89521241 0.71554327 7.2858295
-1.1522886 0.91235572 7.0895495
-1.0958948 0.85910487 4.4988108
-0.97285271 0.75884557 2.9662452
-0.90771049 0.70601702 2.1746933
-0.87639004 0.6802032 1.701987
-0.8450253 0.6551609 1.3568089
-1.2090396 0.95495826 5.9693313
-1.0176622 0.79836261 3.5716097
-0.9464587 0.73959976 2.5474315
-0.8919875 0.69529933 1.9200897
-0.85337102 0.66425288 1.5067385
-0.83872026 0.65192401 1.2298958
-0.83573282 0.6456362 1.1175975
-0.81899649 0.632034 0.91654563
-0.8128652 0.62708223 0.75770479
-0.80454952 0.62022859 0.6183188
-0.79748696 0.61456835 0.49509901
-0.79450804 0.61205816 0.38473675
-0.77848929 0.59929121 0.27799615
-0.78116673 0.60135555 0.18145041
-0.82627076 0.64017648 1.0121081
-0.81385618 0.63011235 0.83300328
-0.80254591 0.62113756 0.6819675
-0.79439485 0.61417353 0.55164546
-0.7888127 0.60964411 0.43611988
-0.77708811 0.60037225 0.32756117
-0.77581137 0.59938908 0.2289526
-0.77872938 0.6014331 0.133367
-0.89815533 0.72305042 7.3302827
-1.1490968 0.91637242 7.0895495
-1.0975751 0.86662567 4.517899
-0.97480643 0.76585817 2.9800527
-0.90712571 0.71065837 2.1790826
-0.87622726 0.68499154 1.70612
-0.84525925 0.66007948 1.3606465
-1.2106167 0.96308619 5.9935284
-1.0189309 0.80512011 3.5856881
-0.94729227 0.74559206 2.5564339
-0.89160621 0.70001942 1.9243557
-0.85578966 0.67094624 1.5147187
-0.83910882 0.65693772 1.2335709
-0.83628857 0.65073973 1.121102
-0.81678534 0.63488907 0.91654563
-0.81067133 0.62991583 0.75770479
-0.80237955 0.62303323 0.6183188
-0.79533684 0.61734843 0.49509901
-0.79615659 0.61776853 0.38614678
-0.77639264 0.602005 0.27799615
-0.78299832 0.60713023 0.18189749
-0.82697457 0.64535403 1.0154335
-0.81483901 0.63543516 0.83594644
-0.80377251 0.62658554 0.68450069
-0.79582697 0.61973131 0.55374348
-0.79040605 0.61529464 0.43776339
-0.77882373 0.60606629 0.3287335
-0.77371442 0.60209352 0.2289526
-0.77662534 0.60414767 0.133367
-0.90045333 0.73009723 7.3697968
-1.1450974 0.91974026 7.0846543
-1.0980479 0.87323934 4.5322151
-0.97519094 0.77168113 2.9892578
-0.90839958 0.71678787 2.1878607
-0.87604165 0.68978697 1.7102529
-0.84546924 0.66500771 1.364484
-1.2111709 0.97045046 6.012886
-1.0188147 0.81082141 3.5950737
-0.94638962 0.75024664 2.5609353
-0.89120281 0.70474517 1.9286216
-0.85580713 0.67579699 1.5187087
-0.83947259 0.66196209 1.2372462
-0.83401191 0.65365499 1.121102
-0.81762886 0.64013577 0.91968405
-0.81176031 0.63531899 0.76044625
-0.80368918 0.62855929 0.6206376
-0.79682922 0.62297636 0.49697205
-0.79399538 0.62054396 0.38614678
-0.77428651 0.60471147 0.27799615
-0.78087425 0.60985976 0.18189749
-0.82471681 0.64823675 1.0154335
-0.81261599 0.63827562 0.83594644
-0.80158043 0.62938744 0.68450069
-0.79365885 0.62250549 0.55374348
-0.78825349 0.61804992 0.43776339
-0.7805289 0.61177975 0.32990581
-0.77550548 0.60784554 0.22964329
-0.77844423 0.60993624 0.13356853
-0.90189672 0.73939329 7.4142504
-1.1401044 0.92592233 7.0846543
-1.0966427 0.88216561 4.5465307
-0.97391599 0.77955741 2.9984629
-0.90625387 0.72334427 2.1922498
-0.87645578 0.69832844 1.7185189
-0.84413278 0.67186236 1.3683214
-1.209929 0.98200238 6.0370831
-1.01773 0.82045621 3.6091518
-0.94322217 0.75770605 2.5654364
-0.8886683 0.7121166 1.9328877
-0.85377777 0.68319219 1.5226986
-0.83771175 0.66963196 1.2409213
-0.83337325 0.66022754 1.1246065
-0.81720501 0.64696634 0.92282254
-0.80831099 0.63970172 0.76044625
-0.80027664 0.63289845 0.6206376
-0.79333746 0.62741691 0.49697205
-0.79428023 0.62794381 0.38755682
-0.77464473 0.61220676 0.27892879
-0.78114808 0.61757129 0.18234457
-0.82366288 0.65558791 1.018759
-0.81186515 0.64574385 0.8388896
-0.80098379 0.63709497 0.68703383
-0.79317522 0.63044173 0.55584157
-0.78794301 0.62606502 0.4394069
-0.77645433 0.61694288 0.32990581
-0.77145708 0.61297548 0.22964329
-0.77427459 0.61522073 0.13356853
-0.90423286 0.74633813 7.4537644
-1.1370276 0.92969793 7.0846543
-1.0973461 0.88842458 4.5608468
-0.97450471 0.78506476 3.0076678
-0.90771103 0.72918797 2.2010279
-0.87657547 0.70268613 1.7226517
-0.84463739 0.67636758 1.3721589
-1.2123955 0.98892897 6.0612803
-1.0184036 0.82511353 3.6185374
-0.94488835 0.76257873 2.5744388
-0.89111316 0.7174024 1.9414195
-0.85222548 0.68512756 1.5226986
-0.83630741 0.67138499 1.2409213
-0.83385104 0.66535699 1.1281111
-0.81505513 0.64967269 0.92282254
-0.80945545 0.64498448 0.76318777
-0.80163878 0.63830817 0.6229564
-0.79498959 0.63279337 0.49884507
-0.79605734 0.63342291 0.38896683
-0.77282488 0.61450249 0.27892879
-0.7794205 0.61975026 0.18234457
-0.82485884 0.66007495 1.0220846
-0.8133285 0.65039158 0.84183276
-0.80279171 0.64174199 0.68956703
-0.79528928 0.63507193 0.55793959
-0.78652048 0.62785119 0.4394069
-0.77895963 0.6215995 0.33107814
-0.77404225 0.6176787 0.23033397
-0.77309203 0.61670613 0.13356853
-0.90699869 0.75396156 7.4982176
-1.1329895 0.9330138 7.0797591
-1.0977085 0.89507991 4.5751624
-0.97479242 0.79092377 3.0168729
-0.907022 0.73385859 2.2054172
-0.87630671 0.70750952 1.7267847
-0.84726089 0.68333644 1.3798339
-1.2128208 0.99634695 6.0806379
-1.0195282 0.8319369 3.6326158
-0.94390988 0.76724565 2.5789402
-0.89062911 0.72215122 1.9456853
-0.85217053 0.68999451 1.5266887
-0.83659494 0.67643178 1.2445965
-0.83430314 0.67049772 1.1316158
-0.81581748 0.65495068 0.92596096
-0.80719912 0.64780611 0.76318777
-0.79940575 0.64110249 0.6229564
-0.79277587 0.63556457 0.49884507
-0.79758459 0.63919777 0.39037687
-0.77450937 0.62026715 0.27986142
-0.77725238 0.62246722 0.18234457
-0.82254976 0.66295022 1.0220846
-0.81105322 0.65322667 0.84183276
-0.80054671 0.64454037 0.68956703
-0.79306757 0.63784409 0.55793959
-0.78800416 0.63355172 0.44105041
-0.77678514 0.62431479 0.33107814
-0.77574128 0.62347913 0.23102465
-0.77482921 0.6225301 0.13377006
-0.90972215 0.76161331 7.5426712
-1.1297258 0.93696296 7.0797591
-1.0980378 0.90174866 4.589479
-0.97505099 0.7967943 3.026078
-0.90816784 0.74004632 2.2141953
-0.87819815 0.71411508 1.7350507
-0.84735829 0.68831086 1.3836714
-1.2141774 1.0045815 6.104835
-1.0206171 0.83877802 3.6466939
-0.94459468 0.77329403 2.5879426
-0.89012289 0.72690547 1.9499513
-0.85209185 0.69486946 1.5306787
-0.83685738 0.68148881 1.2482716
-0.83472949 0.67564976 1.1351203
-0.81655288 0.66024178 0.92909944
-0.80818474 0.65324843 0.76592922
-0.79716301 0.64388907 0.6229564
-0.79415935 0.64124042 0.50071812
-0.79534853 0.64197791 0.39037687
-0.77616304 0.62605095 0.28079402
-0.77895099 0.62830305 0.18279165
-0.82312942 0.66817069 1.0254101
-0.81190711 0.65860021 0.84477592
-0.80164021 0.65004611 0.69210023
-0.79436278 0.64346528 0.56003767
-0.78578794 0.63629854 0.44105041
-0.77837908 0.6300807 0.33225045
-0.77356023 0.62618315 0.23102465
-0.77265143 0.62523091 0.13377006
-0.91240329 0.76929319 7.5871243
-1.1272297 0.94155359 7.0846543
-1.0983338 0.90843046 4.6037946
-0.9752804 0.80267626 3.0352831
-0.90743017 0.74473137 2.2185843
-0.87787706 0.71895939 1.7391837
-0.84743106 0.69329411 1.387509
-0.60155451 0.51831466 7.3626084
-1.2154911 1.0128373 6.1290321
-1.0216708 0.84563684 3.6607723
-0.94524872 0.77935666 2.596945
-0.88959426 0.73166496 1.9542174
-0.85198957 0.69975215 1.5346687
-0.83709455 0.68655574 1.2519468
-0.83236593 0.67855942 1.1351203
-0.81424332 0.66308808 0.92909944
-0.80589956 0.65606552 0.76592922
-0.79834682 0.64946336 0.62527519
-0.79191619 0.64400864 0.50071812
-0.79682499 0.64777637 0.3917869
-0.77778566 0.63185382 0.28172666
-0.77675307 0.63101828 0.18279165
-0.82368267 0.67340332 1.0287355
-0.80960327 0.6614303 0.84477592
-0.7993663 0.65284038 0.69210023
-0.79211181 0.64623421 0.56003767
-0.783562 0.63903755 0.44105041
-0.7761749 0.6327939 0.33225045
-0.77520788 0.63200879 0.23171534
-0.77433699 0.63108039 0.13397159
-0.91444969 0.77649802 7.6266384
-1.1239362 0.94548267 7.0846543
-1.0997434 0.91608077 4.6228828
-0.97698474 0.80981642 3.0490906
-0.90851688 0.75094634 2.2273624
-0.87753272 0.72381002 1.7433165
-0.84747952 0.69828641 1.3913465
-0.5977295 0.51866341 7.3377509
-1.2177248 1.0219228 6.1580687
-1.0226891 0.85251319 3.6748505
-0.94419718 0.78404218 2.6014462
-0.88904315 0.73642957 1.9584832
-0.85418528 0.70656335 1.5426488
-0.83730662 0.69163275 1.2556219
-0.83274841 0.68372393 1.1386248
-0.81493312 0.66839468 0.93223786
-0.8068381 0.66152591 0.76867068
-0.79607499 0.65224612 0.62527519
-0.79324985 0.64970666 0.50259119
-0.79455894 0.65055388 0.3917869
-0.77557534 0.63456494 0.28172666
-0.77839994 0.63687938 0.18323873
-0.82420933 0.67864788 1.032061
-0.81041062 0.66682065 0.84771907
-0.80041176 0.65836525 0.69463336
-0.79335779 0.65187663 0.5621357
-0.78497553 0.64476615 0.44269392
-0.77771783 0.63858396 0.33342275
-0.77299702 0.63471091 0.23171534
-0.7721293 0.63377953 0.13397159
-0.91527593 0.7827161 7.6562738
-1.120629 0.94940025 7.0846543
-1.0999694 0.92279238 4.6371984
-0.97865087 0.81697816 3.0628982
-0.90957129 0.75717801 2.2361407
-0.87932974 0.73046529 1.7515824
-0.8475033 0.7032873 1.3951839
-1.2189499 1.0302248 6.1822658
-1.0236716 0.85940695 3.6889291
-0.94312447 0.78873003 2.6059475
-0.88846976 0.74119937 1.9627492
-0.85402876 0.71146953 1.5466388
-0.83749342 0.69671953 1.2592971
-0.83310497 0.68889928 1.1421293
-0.81559592 0.67371428 0.93537635
-0.8077482 0.66700083 0.77141213
-0.79721004 0.65784043 0.62759399
-0.79455328 0.65542173 0.50446421
-0.79598427 0.65637541 0.39319694
-0.77714652 0.64039224 0.28265926
-0.7761721 0.63959265 0.18323873
-0.82470942 0.68390423 1.0353866
-0.80807811 0.66964543 0.84771907
-0.80142832 0.66390532 0.69716656
-0.79107744 0.65464199 0.5621357
-0.78272015 0.6475023 0.44269392
-0.77548403 0.64129478 0.33342275
-0.77459294 0.64056122 0.23240602
-0.77376282 0.63965404 0.13417313
-0.91842449 0.79097819 7.7056665
-1.1180825 0.95396709 7.0895495
-1.101302 0.93048036 4.6562862
-0.98027897 0.82416135 3.0767057
-0.90875793 0.76188719 2.2405298
-0.87893277 0.73533607 1.7557154
-0.84750253 0.70829695 1.3990214
-1.2210888 1.0393623 6.2113023
-1.0259362 0.86743224 3.7077
-0.94369543 0.79482239 2.6149497
-0.88787371 0.74597389 1.967015
-0.85384834 0.71638316 1.5506288
-0.83765483 0.70181596 1.2629722
-0.83343548 0.69408554 1.1456339
-0.81623143 0.67904657 0.93851483
-0.80541492 0.66981632 0.77141213
-0.79490882 0.66061926 0.62759399
-0.79226065 0.65819126 0.50446421
-0.79737854 0.6622147 0.39460698
-0.7749064 0.6431011 0.28265926
-0.77776694 0.64547843 0.18368581
-0.82518274 0.68917239 1.038712
-0.80883878 0.67505217 0.85066223
-0.80241603 0.66946054 0.6996997
-0.79227388 0.66030514 0.56423378
-0.78408319 0.65325332 0.44433743
-0.77697563 0.6471085 0.33459508
-0.77615744 0.64643037 0.23309669
-0.77152526 0.64235109 0.13417313
-0.91389728 0.79265153 7.6908488
-1.1147459 0.95786411 7.0895495
-1.1014577 0.93722129 4.6706028
-0.98037785 0.83010328 3.0859108
-0.90975249 0.76814508 2.2493079
-0.8785125 0.74021298 1.7598482
-0.84747702 0.71331513 1.402859
-0.58628428 0.5195877 7.2631788
-1.2231787 1.0485275 6.2403388
-1.0281571 0.87548381 3.7264709
-0.94257522 0.7995199 2.6194508
-0.88924599 0.75243807 1.975547
-0.85594553 0.72324914 1.5586089
-0.83779085 0.70692211 1.2666475
-0.83373994 0.69928241 1.1491385
-0.81683958 0.68439144 0.94165331
-0.80627751 0.6753087 0.77415359
-0.79599494 0.6662333 0.62991279
-0.79351366 0.66392761 0.50633723
-0.79506212 0.66499406 0.39460698
-0.7726568 0.64580208 0.28265926
-0.775509 0.64818943 0.18368581
-0.82277209 0.69204861 1.038712
-0.8095715 0.6804722 0.85360539
-0.80007428 0.67225736 0.6996997
-0.7934404 0.66598457 0.5663318
-0.78541547 0.65902156 0.44598094
-0.77471209 0.64981669 0.33459508
-0.77389622 0.64913571 0.23309669
-0.77310669 0.64825034 0.13437465
-0.91873074 0.80248356 7.7550588
-1.1113954 0.96174949 7.0895495
-1.1015795 0.94397473 4.6849184
-0.98193365 0.83732361 3.0997183
-0.90889007 0.77286768 2.2536969
-0.87806892 0.74509591 1.7639813
-0.84742689 0.71834171 1.4066964
-0.58605707 0.52305174 7.2830648
-1.2252195 1.0577197 6.2693753
-1.0303344 0.88356125 3.7452421
-0.94143379 0.80421942 2.6239522
-0.88859898 0.75722927 1.979813
-0.85571045 0.72818547 1.5625988
-0.83790141 0.71203768 1.2703226
-0.83129388 0.70218843 1.1491385
-0.81742024 0.68974882 0.94479173
-0.80711144 0.6808151 0.77689505
-0.79705143 0.67186284 0.63223159
-0.79119128 0.66669345 0.50633723
-0.7964049 0.67085588 0.39601701
-0.77039784 0.64849526 0.28265926
-0.7732417 0.6508925 0.18368581
-0.82320023 0.69732988 1.0420375
-0.81027633 0.68590558 0.85654855
-0.80101341 0.6778307 0.7022329
-0.79111087 0.66875017 0.5663318
-0.78311026 0.6617592 0.44598094
-0.77243906 0.65251696 0.33459508
-0.77540851 0.65502882 0.23378737
-0.77083915 0.65094501 0.13437465
-0.90950793 0.80003899 7.7007275
-1.1080315 0.96562314 7.0895495
-1.1027976 0.95171565 4.7040062
-0.98196888 0.843292 3.1089232
-0.90982467 0.7791515 2.2624753
-0.8776018 0.74998468 1.7681142
-0.84735185 0.72337657 1.4105339
-0.58502018 0.52580732 7.2930074
-1.2272109 1.066939 6.2984118
-1.0324676 0.89166462 3.7640131
-0.94027096 0.8089205 2.6284533
-0.88792932 0.762025 1.9840788
-0.85545123 0.73312902 1.5665889
-0.83798641 0.71716267 1.2739978
-0.83155388 0.70739669 1.152643
-0.81797349 0.69511855 0.94793022
-0.8079167 0.68633556 0.77963656
-0.7947014 0.67464101 0.63223159
-0.79239392 0.6724509 0.5082103
-0.79405832 0.67363179 0.39601701
-0.76812947 0.65118051 0.28265926
-0.77096492 0.65358764 0.18368581
-0.82076108 0.70019913 1.0420375
-0.81095302 0.69135225 0.85949171
-0.7986424 0.68062264 0.7022329
-0.79222745 0.67444968 0.56842989
-0.78439164 0.66754919 0.44762444
-0.77385873 0.65835893 0.33576739
-0.7731173 0.65773147 0.23378737
-0.7685622 0.65363181 0.13437465
-0.90089476 0.79805529 7.6513343
-1.103889 0.96881324 7.0846543
-1.1028485 0.95849723 4.7183223
-0.98197448 0.84927076 3.1181283
-0.90891296 0.78388703 2.2668641
-0.87497854 0.75304347 1.7681142
-0.84725207 0.72841978 1.4143715
-0.58160114 0.52641451 7.2731214
-1.2291528 1.0761849 6.3274488
-1.0332549 0.89866096 3.7780917
-0.93908674 0.81362343 2.6329546
-0.88723713 0.76682544 1.9883448
-0.85516798 0.73807955 1.5705789
-0.8380459 0.72229677 1.277673
-0.83178771 0.71261543 1.1561475
-0.8155421 0.69796962 0.94793022
-0.805516 0.68915153 0.77963656
-0.79570854 0.68028957 0.63455039
-0.7900418 0.67521274 0.5082103
-0.79170203 0.67639947 0.39601701
-0.76958764 0.65704739 0.2835919
-0.77246612 0.65950835 0.18413289
-0.82114393 0.70549309 1.0453631
-0.8085348 0.69417882 0.85949171
-0.79953283 0.68621397 0.70476609
-0.7933138 0.68016517 0.57052791
-0.78564209 0.67335629 0.44926795
-0.77155596 0.66105622 0.33576739
-0.7745772 0.66364819 0.23447806
-0.76627594 0.65631056 0.13437465
-0.90100205 0.80378205 7.6760311
-1.1005005 0.97266066 7.0846543
-1.1039884 0.96627384 4.7374101
-0.9819501 0.85525984 3.1273334
-0.9097873 0.79019612 2.2756422
-0.87447095 0.75793636 1.7722472
-0.84712726 0.73347098 1.418209
-0.58291018 0.53131592 7.3128934
-1.231045 1.0854573 6.3564849
-1.0340056 0.90567362 3.7921698
-0.93952143 0.81975919 2.641957
-0.88652205 0.77163017 1.9926107
-0.85486048 0.74303699 1.574569
-0.83807957 0.72744006 1.2813481
-0.83199525 0.71784443 1.1596521
-0.8160491 0.7033534 0.95106864
-0.80627322 0.69468862 0.78237802
-0.793329 0.68306297 0.63455039
-0.79119366 0.6809907 0.51008332
-0.78933614 0.67915881 0.39601701
-0.7672894 0.65972978 0.2835919
-0.7701593 0.66220081 0.18413289
-0.81867629 0.70835519 1.0453631
-0.80916423 0.69964063 0.86243486
-0.80039388 0.69181967 0.70729923
-0.79093474 0.68293017 0.57052791
-0.78328687 0.67609459 0.44926795
-0.77292377 0.66692084 0.33693972
-0.77225596 0.66634798 0.23447806
-0.76398033 0.65898138 0.13437465
-0.90570313 0.81367457 7.7402415
-1.0978589 0.97717327 7.0895495
-1.1039679 0.97308314 4.7517266
-0.98189598 0.86125904 3.1365385
-0.90882605 0.79494399 2.2800314
-0.87393981 0.76283485 1.7763801
-0.84697753 0.73853016 1.4220465
-0.57908946 0.53154403 7.2880359
-1.2328875 1.0947561 6.3855219
-1.0347202 0.91270244 3.8062482
-0.93828946 0.82447082 2.6464584
-0.88578433 0.77643925 1.9968767
-0.85452884 0.74800134 1.578559
-0.83553517 0.73036104 1.2813481
-0.83217627 0.72308344 1.1631566
-0.81652832 0.70874923 0.95420712
-0.80384344 0.6974988 0.78237802
-0.79428667 0.68873018 0.63686919
-0.79231477 0.68678486 0.51195633
-0.7869606 0.68191004 0.39601701
-0.76869529 0.66561967 0.2845245
-0.76784313 0.6648851 0.18413289
-0.8190136 0.71366155 1.0486885
-0.80976528 0.70511538 0.86537802
-0.79797411 0.69460934 0.70729923
-0.79197067 0.68866497 0.57262594
-0.78448594 0.68192261 0.45091146
-0.77059102 0.66961479 0.33693972
-0.76992518 0.66903955 0.23447806
-0.76544702 0.66492045 0.13457619
-0.91149843 0.82465255 7.8143306
-1.0944413 0.98099953 7.0895495
-1.1050295 0.98089492 4.7708144
-0.98181176 0.86726826 3.1457434
-0.90963978 0.80127794 2.2888095
-0.87338519 0.76773882 1.780513
-0.84680283 0.74359721 1.425884
-0.57723051 0.53356218 7.2880359
-1.2346798 1.1040808 6.4145579
-1.035398 0.91974723 3.8203266
-0.93703592 0.82918376 2.6509595
-0.88697886 0.78297865 2.0054085
-0.85417295 0.75297236 1.5825491
-0.83552527 0.73551333 1.2850233
-0.83233088 0.72833246 1.1666611
-0.81697971 0.71415693 0.9573456
-0.80455232 0.70305198 0.78511947
-0.79521418 0.69441235 0.63918799
-0.78991258 0.68954641 0.51195633
-0.78457558 0.68465286 0.39601701
-0.77006942 0.67152745 0.28545713
-0.76927078 0.67083442 0.18457997
-0.81932378 0.71897888 1.052014
-0.81033796 0.7106027 0.86832118
-0.79878616 0.70023233 0.70983243
-0.78956193 0.69142526 0.57262594
-0.78565383 0.68776733 0.452555
-0.77190673 0.67550159 0.33811203
-0.76758516 0.67172301 0.23447806
-0.76312137 0.66758829 0.13457619
-0.90918839 0.82835263 7.8192692
-1.091766 0.98549622 7.0944448
-1.1060499 0.98872596 4.7899022
-0.98169768 0.87328732 3.1549485
-0.90862864 0.80603772 2.2931986
-0.87491381 0.77451354 1.788779
-0.84660292 0.74867195 1.4297215
-0.57458454 0.53484708 7.2780929
-1.2364222 1.1134315 6.4435949
-1.0360394 0.92680788 3.8344047
-0.9373861 0.83534646 2.6599619
-0.88618946 0.78780288 2.0096743
-0.85379267 0.75794995 1.5865391
-0.83295274 0.73842543 1.2850233
-0.8297835 0.73123336 1.1666611
-0.81448185 0.7170043 0.9573456
-0.80209333 0.70585608 0.78511947
-0.79611188 0.7001093 0.64150673
-0.7909826 0.69536042 0.51382935
-0.78218091 0.68738735 0.39601701
-0.7677207 0.67421132 0.28545713
-0.7669245 0.6735155 0.18457997
-0.81960678 0.72430712 1.0553395
-0.81088215 0.71610266 0.87126434
-0.79956871 0.70586944 0.71236569
-0.79054755 0.69717908 0.57472402
-0.78324831 0.69050556 0.452555
-0.76954412 0.6781919 0.33811203
-0.76895094 0.67767251 0.23516873
-0.76453507 0.67355061 0.13477771
-0.90629137 0.83152121 7.8192692
-1.089826 0.99067122 7.1042352
-1.1081383 0.99757487 4.8137617
-0.98009843 0.87801254 3.1595511
-0.90938157 0.81239605 2.3019767
-0.87430537 0.77943563 1.792912
-0.84637803 0.7537545 1.4335591
-0.57115924 0.53539044 7.2582068
-1.2381142 1.1228075 6.472631
-1.036644 0.93388414 3.8484831
-0.93608463 0.84006763 2.6644633
-0.88732004 0.79437083 2.0182061
-0.85338807 0.76293409 1.5905291
-0.83289897 0.74358636 1.2886984
-0.82989323 0.73649269 1.1701657
-0.81488657 0.72242522 0.96048403
-0.80275381 0.71142507 0.78786093
-0.79697937 0.70582104 0.64382553
-0.79202157 0.70119029 0.51570243
-0.78336895 0.69329274 0.39742702
-0.76904219 0.68014139 0.28638974
-0.76829916 0.67948765 0.18502705
-0.81986266 0.72964609 1.058665
-0.80837756 0.71892887 0.87126434
-0.80032152 0.71152049 0.71489882
-0.78810912 0.69993442 0.57472402
-0.78436452 0.6963706 0.45419851
-0.77080745 0.68410051 0.33928433
-0.7665807 0.68035257 0.23516873
-0.76591635 0.67953086 0.13497925
-0.89539534 0.82729572 7.7501202
-1.0871123 0.99515706 7.1091304
-1.1101785 1.0064503 4.8376217
-0.97992849 0.88404596 3.1687562
-0.90832061 0.8171674 2.306366
-0.87576699 0.78624278 1.8011779
-0.84612781 0.75884438 1.4373965
-0.57122409 0.53921145 7.2830648
-1.2397557 1.1322089 6.501668
-1.0384897 0.94213545 3.8672543
-0.93637651 0.84624964 2.6734657
-0.88841558 0.80095619 2.0267382
-0.85295898 0.76792461 1.5945191
-0.83281922 0.74875587 1.2923737
-0.82997626 0.74176162 1.1736702
-0.81526333 0.72785765 0.96362251
-0.80338526 0.71700722 0.79060239
-0.79781669 0.71154732 0.64614433
-0.79302937 0.7070359 0.51757544
-0.78094411 0.69602299 0.39742702
-0.76666337 0.68282175 0.28638974
-0.76964146 0.68547761 0.18547413
-0.82009107 0.73499554 1.0619905
-0.80887395 0.72444296 0.8742075
-0.79783297 0.71430981 0.71489882
-0.7890439 0.70570683 0.57682204
-0.78544915 0.70225179 0.45584202
-0.76841474 0.68678689 0.33928433
-0.76789337 0.6863243 0.23585941
-0.76353973 0.68220031 0.13497925
-0.8856774 0.82406324 7.6908488
-1.085129 1.0003262 7.1189208
-1.1121699 1.0153521 4.8614817
-0.97972846 0.89008874 3.1779611
-0.9090122 0.82354927 2.3151441
-0.87510437 0.79118228 1.8053107
-0.84585238 0.76394176 1.441234
-0.56972456 0.54156959 7.2880359
-1.2413466 1.1416354 6.530704
-1.0402905 0.95041102 3.8860252
-0.93663657 0.85244381 2.6824682
-0.88754523 0.8058058 2.0310042
-0.85473776 0.77494538 1.6024991
-0.83271354 0.75393385 1.2960488
-0.83003265 0.74704009 1.1771748
-0.81561202 0.73330146 0.96676093
-0.80398732 0.72260237 0.79334384
-0.79532802 0.71432787 0.64614433
-0.79055655 0.70979977 0.51757544
-0.7820797 0.701949 0.39883706
-0.76793206 0.68877363 0.28732237
-0.77095121 0.69148505 0.18592121
-0.82029217 0.74035549 1.065316
-0.80934173 0.72996938 0.87715065
-0.79853624 0.71997714 0.71743202
-0.78994799 0.71149427 0.57892013
-0.78299308 0.70498925 0.45584202
-0.76962537 0.69271666 0.34045666
-0.76917362 0.69231349 0.23655009
-0.7648676 0.68820304 0.13518077
-0.88109493 0.82555556 7.6760311
-1.0838689 1.0061864 7.1336069
-1.113014 1.0232695 4.8805699
-0.97949815 0.89614093 3.1871662
-0.90967023 0.82994592 2.3239222
-0.87441796 0.79612672 1.8094438
-0.84555161 0.76904643 1.4450716
-0.56860036 0.54429263 7.2979789
-1.2428868 1.1510868 6.559741
-1.042046 0.95871049 3.9047961
-0.93686479 0.85865003 2.6914704
-0.88857639 0.81241882 2.039536
-0.85425264 0.77995616 1.6064892
-0.83258188 0.75912029 1.299724
-0.82741994 0.74993294 1.1771748
-0.81593257 0.73875654 0.96989942
-0.80456012 0.72821045 0.7960853
-0.79611498 0.72007126 0.64846313
-0.79151261 0.71566421 0.51944846
-0.7796247 0.70467472 0.39883706
-0.76916844 0.69474268 0.28825498
-0.77222842 0.69751006 0.18636829
-0.82046574 0.74572575 1.0686415
-0.8097806 0.73550767 0.88009381
-0.79920959 0.725658 0.71996522
-0.78745961 0.71424735 0.57892013
-0.78402567 0.71089011 0.45748553
-0.76720268 0.69539899 0.34045666
-0.77042145 0.69832003 0.23724076
-0.76246071 0.69086868 0.13518077
-0.89233315 0.84196049 7.7995124
-1.0818375 1.0113547 7.1433969
-1.1149116 1.0322195 4.9044299
-0.98067415 0.90352631 3.200974
-0.91029465 0.83635724 2.3327003
-0.87578183 0.80297792 1.8177097
-0.84522557 0.77415836 1.448909
-0.5686149 0.54812491 7.3228369
-1.2443761 1.1605628 6.5887775
-1.0437562 0.96703392 3.9235673
-0.93706101 0.86486828 2.7004728
-0.88765353 0.8172822 2.0438018
-0.8537429 0.78497285 1.6104792
-0.83242399 0.76431483 1.3033991
-0.82743102 0.75522077 1.1806793
-0.81622505 0.74422276 0.97303784
-0.80201328 0.73101449 0.7960853
-0.79359663 0.72284585 0.64846313
-0.78900963 0.71842271 0.51944846
-0.78070766 0.71062094 0.4002471
-0.76673865 0.69742334 0.28825498
-0.76978892 0.70020139 0.18636829
-0.82061177 0.75110626 1.071967
-0.8101908 0.74105799 0.88303697
-0.79667169 0.72844332 0.71996522
-0.78831261 0.72005266 0.58101815
-0.78502655 0.71680671 0.45912904
-0.76836056 0.70134968 0.34162897
-0.76797915 0.70100498 0.23724076
-0.76373494 0.69689345 0.13538231
-0.88094145 0.83704001 7.7254238
-1.0812656 1.017917 7.1629782
-1.1156684 1.0401771 4.9235177
-0.98037845 0.90960175 3.2101789
-0.91088545 0.84278297 2.3414786
-0.87504095 0.80793905 1.8218426
-0.84487396 0.77927721 1.4527465
-0.56478667 0.54824889 7.2979789
-1.2458141 1.170063 6.6178141
-1.0441592 0.97420335 3.9376454
-0.93722528 0.87109834 2.7094753
-0.88862002 0.82392246 2.0523336
-0.85320848 0.78999549 1.6144693
-0.8322401 0.76951754 1.3070743
-0.82741535 0.76051795 1.1841838
-0.81648916 0.74969995 0.97617632
-0.80253714 0.73663723 0.79882681
-0.79433304 0.7286061 0.65078193
-0.78991395 0.72430569 0.52132148
-0.77822238 0.71334177 0.4002471
-0.76792181 0.70341361 0.28918761
-0.76734006 0.7028842 0.18636829
-0.817985 0.75396615 1.071967
-0.81057209 0.74662018 0.88598019
-0.79729527 0.73413992 0.72249836
-0.78579438 0.72280008 0.58101815
-0.78251964 0.71954256 0.45912904
-0.7659077 0.70402747 0.34162897
-0.76917332 0.7070328 0.23793145
-0.76129764 0.69955516 0.13538231
-0.86959511 0.83205044 7.6513343
-1.0821389 1.0258889 7.1923494
-1.1163833 1.0481526 4.9426055
-0.98005217 0.91568619 3.219384
-0.91144228 0.84922296 2.3502567
-0.8742761 0.81290495 1.8259755
-0.84684539 0.78658456 1.4604216
-0.56286943 0.55021703 7.2979789
-1.2472011 1.1795875 6.6468506
-1.0457823 0.98256916 3.9564166
-0.93735737 0.87733996 2.7184777
-0.88955092 0.83057934 2.0608656
-0.85264951 0.79502404 1.6184592
-0.83202988 0.7747283 1.3107494
-0.82737267 0.76582414 1.1876884
-0.81672502 0.75518805 0.97931474
-0.79996085 0.73943412 0.79882681
-0.79178488 0.73137444 0.65078193
-0.78738087 0.72705853 0.52132148
-0.77925253 0.71930772 0.40165716
-0.76546174 0.70608985 0.28918761
-0.76854229 0.70893502 0.18681537
-0.81808472 0.75935709 1.0752926
-0.81092423 0.75219393 0.88892335
-0.79788864 0.73984969 0.72503155
-0.78659606 0.72862279 0.58311623
-0.78346789 0.72547805 0.46077254
-0.76701254 0.70999861 0.3428013
-0.76670063 0.7097134 0.23793145
-0.76251799 0.70560151 0.13558383
-1.0822331 1.0331761 7.2168255
-1.117056 1.0561455 4.9616933
-0.97969538 0.92177933 3.2285891
-0.91196525 0.85567707 2.3590348
-0.87348723 0.81787527 1.8301084
-0.84643525 0.7917254 1.464259
-0.56056577 0.5518043 7.2930074
-1.2485365 1.1891357 6.6758871
-1.0448531 0.98858601 3.9658022
-0.93745726 0.88359308 2.7274802
-0.88854611 0.83546597 2.0651317
-0.85206568 0.80005819 1.6224493
-0.83179343 0.77994686 1.3144246
-0.82730305 0.77113926 1.191193
-0.81408393 0.75803435 0.97931474
-0.80043548 0.74507105 0.80156827
-0.79247051 0.73715091 0.65310073
-0.78823304 0.73295957 0.52319455
-0.77673692 0.72202349 0.40165716
-0.76659143 0.71210074 0.29012021
-0.76606303 0.71161342 0.18681537
-0.81815666 0.76475787 1.078618
-0.80829364 0.75501996 0.88892335
-0.79845196 0.74557245 0.72756475
-0.7840479 0.73136407 0.58311623
-0.78438437 0.73142904 0.46241605
-0.76808488 0.71598595 0.34397361
-0.76421863 0.71238536 0.23793145
-0.76370519 0.71166474 0.13578537
-1.0830235 1.041182 7.2461967
-1.1176865 1.0641559 4.9807816
-0.97930795 0.92788106 3.2377942
-0.91245419 0.86214507 2.3678129
-0.87267435 0.82284999 1.8342415
-0.84599954 0.79687303 1.4680965
-0.55863619 0.55375767 7.2930074
-1.2498206 1.1987077 6.7049236
-1.0451436 0.99579853 3.9798803
-0.93910372 0.89135641 2.7409837
-0.88941181 0.84214908 2.0736635
-0.85145712 0.805098 1.6264393
-0.83153069 0.78517324 1.3180997
-0.82720631 0.77646321 1.1946975
-0.81427217 0.76353395 0.98245323
-0.79782981 0.74786049 0.80156827
-0.79312533 0.74294108 0.65541953
-0.78905362 0.73887533 0.52506757
-0.77421182 0.72473037 0.40165716
-0.76410103 0.71477228 0.29012021
-0.76721114 0.71768516 0.18726245
-0.81820083 0.77016836 1.0819435
-0.80859733 0.76060641 0.89186651
-0.7958445 0.74835503 0.72756475
-0.78479797 0.73720384 0.58521426
-0.78182644 0.73416263 0.46241605
-0.76912475 0.72198945 0.34514591
-0.76533771 0.71843797 0.23862213
-0.76121634 0.71432626 0.13578537
-1.0837713 1.0492063 7.2755685
-1.1193519 1.0732167 5.0046415
-0.97888982 0.93399143 3.246999
-0.91290921 0.86862695 2.3765912
-0.87387782 0.82976669 1.8425074
-0.84786355 0.80423313 1.4757715
-0.55707687 0.55608112 7.2979789
-1.2519569 1.2091763 6.7387996
-1.0453966 1.0030253 3.9939587
-0.93913388 0.89763767 2.7499864
-0.89024144 0.84884822 2.0821953
-0.85300583 0.81222111 1.6344193
-0.83124155 0.79040724 1.321775
-0.82708251 0.78179586 1.198202
-0.81160194 0.76637161 0.98245323
-0.79825503 0.75351119 0.80430973
-0.79052716 0.74570507 0.65541953
-0.78984249 0.74480575 0.52694058
-0.77516794 0.73071897 0.4030672
-0.76517695 0.72080344 0.29105285
-0.76470125 0.72035885 0.18726245
-0.81821716 0.77558851 1.0852691
-0.80593735 0.76342428 0.89186651
-0.79635757 0.75409263 0.73009789
-0.78221989 0.7399388 0.58521426
-0.78268993 0.74013174 0.46405956
-0.77013206 0.72800887 0.34631824
-0.76282525 0.7211051 0.23862213
-0.76234937 0.72041041 0.13598689
-1.0815601 1.0544046 7.2853584
-1.1198939 1.0812651 5.0237293
-0.97844088 0.94011009 3.2562041
-0.91332996 0.87512249 2.3853693
-0.87300974 0.83475685 1.8466402
-0.84736872 0.80940187 1.479609
-0.55550814 0.55840039 7.3029509
-1.2540354 1.2196743 6.7726755
-1.0468527 1.011465 4.0127296
-0.94069976 0.90543967 2.7634897
-0.88915414 0.85375702 2.0864613
-0.85234022 0.81727928 1.6384094
-0.83092588 0.79564869 1.3254501
-0.82693154 0.78713703 1.2017065
-0.81174242 0.77188218 0.98559165
-0.79865056 0.75917405 0.80705118
-0.79113108 0.75151098 0.65773833
-0.78723782 0.7475583 0.52694058
-0.77261257 0.73342037 0.4030672
-0.76622003 0.72685075 0.29198545
-0.76579499 0.7264511 0.18770951
-0.8182056 0.78101802 1.0885946
-0.80619228 0.76902288 0.89480966
-0.79684001 0.75984275 0.73263109
-0.78291833 0.74579513 0.58731234
-0.78352129 0.7461158 0.46570307
-0.7711066 0.73404396 0.34749055
-0.76389027 0.72717786 0.23931281
-0.75983006 0.7230671 0.13598689
-1.0880439 1.0681614 7.3538918
-1.1203934 1.0893303 5.0428171
-0.97796124 0.94623691 3.2654092
-0.91199309 0.87996835 2.3897583
-0.87414455 0.84170306 1.8549061
-0.84915805 0.81679904 1.4872841
-0.55318117 0.55995667 7.2979789
-1.2506683 1.224924 6.7775149
-1.047026 1.0187236 4.0268083
-0.94222265 0.91326356 2.7769935
-0.88991821 0.86048162 2.0949931
-0.85381734 0.82443589 1.6463894
-0.83058387 0.80089766 1.3291253
-0.8267532 0.79248661 1.2052112
-0.8118543 0.77740306 0.98873013
-0.79901618 0.76484877 0.80979264
-0.79170406 0.75733018 0.66005719
-0.787974 0.75350577 0.5288136
-0.77351534 0.73942769 0.40447721
-0.76367819 0.72952098 0.29198545
-0.76325458 0.72911984 0.18770951
-0.81816614 0.786457 1.09192
-0.80641794 0.77463251 0.89775282
-0.79729211 0.76560551 0.73516428
-0.78031027 0.74852353 0.58731234
-0.78432035 0.75211465 0.46734658
-0.77204841 0.74009484 0.34866288
-0.76134729 0.72983992 0.23931281
-0.76090854 0.72917169 0.13618843
-1.0901006 1.0776805 7.3930535
-1.1219165 1.0984566 5.0666771
-0.97884977 0.95373529 3.2792168
-0.91235095 0.88648462 2.3985367
-0.87322128 0.8467083 1.8590392
-0.84860396 0.82198834 1.4911215
-0.55122316 0.56188416 7.2979789
-1.2481745 1.2310476 6.7871943
-1.0483937 1.0272036 4.0455794
-0.94370222 0.92110902 2.7904971
-0.88877755 0.86540228 2.0992589
-0.85525477 0.83161271 1.6543695
-0.83021528 0.80615389 1.3328004
-0.82654762 0.79784459 1.2087157
-0.81193751 0.78293407 0.99186856
-0.79935187 0.77053517 0.81253409
-0.79224598 0.76316243 0.66237599
-0.78867829 0.75946736 0.53068668
-0.77438539 0.74545014 0.40588725
-0.76466709 0.73558772 0.29291809
-0.76429373 0.73523211 0.18815659
-0.8180986 0.79190511 1.0952456
-0.80661416 0.78025311 0.90069598
-0.79771364 0.7713806 0.73769742
-0.78095692 0.75439608 0.58941036
-0.78169024 0.75484788 0.46734658
-0.77295744 0.74616122 0.34983522
-0.76235771 0.73593235 0.24000348
-0.76195365 0.73529249 0.13638996
-1.093547 1.0886637 7.4420056
-1.1244525 1.1086547 5.0953088
-0.97830349 0.95988303 3.2884219
-0.91096264 0.891339 2.4029255
-0.87227362 0.85171729 1.8631719
-0.84802383 0.82718366 1.494959
-0.54925841 0.56380492 7.2979789
-1.2447615 1.2362829 6.7920337
-1.0509433 1.0369174 4.0690432
-0.94513857 0.92897582 2.8040009
-0.88947546 0.87215143 2.1077909
-0.85665244 0.83880961 1.6623495
-0.83224386 0.81378752 1.3401507
-0.82631469 0.80321074 1.2122202
-0.81199193 0.78847516 0.99500704
-0.79965764 0.77623332 0.81527555
-0.79275674 0.76900768 0.66469479
-0.78602248 0.76221579 0.53068668
-0.77177858 0.74814868 0.40588725
-0.76562297 0.74167031 0.29385069
-0.76172262 0.73789549 0.18815659
-0.81800294 0.79736227 1.0985711
-0.80678087 0.78588438 0.90363914
-0.79810452 0.77716798 0.74023062
-0.78157204 0.76028222 0.59150839
-0.78243589 0.76086396 0.46899009
-0.77383333 0.75224286 0.35100752
-0.76333499 0.74204081 0.24069417
-0.76296514 0.74142945 0.13659149
-1.095492 1.0982422 7.4811673
-1.1258715 1.1178321 5.1191688
-0.97911566 0.96741182 3.3022294
-0.91125757 0.89787561 2.4117036
-0.87330812 0.85870302 1.8714379
-0.84970427 0.83463115 1.502634
-0.54802793 0.56648535 7.3079219
-1.2413272 1.2415094 6.7968726
-1.0522135 1.0454452 4.0878143
-0.9465313 0.9368639 2.8175044
-0.89013714 0.87891608 2.1163228
-0.85801029 0.84602624 1.6703296
-0.83181369 0.81906635 1.3438259
-0.82605439 0.80858499 1.2157247
-0.80923474 0.79130471 0.99500704
-0.79993325 0.7819429 0.81801701
-0.79323637 0.77486575 0.66701359
-0.78667384 0.76819384 0.53255969
-0.77259499 0.75418913 0.40729728
-0.76654565 0.74776846 0.29478332
-0.762707 0.74402738 0.18860367
-0.81521463 0.8002128 1.0985711
-0.80403274 0.78869581 0.90363914
-0.79538685 0.77994907 0.74023062
-0.78215545 0.76618177 0.59360647
-0.7797752 0.76359057 0.46899009
-0.77120286 0.7549395 0.35100752
-0.76427889 0.74816501 0.24138485
-0.76037246 0.74408823 0.13659149
-1.0980998 1.1085709 7.5252247
-1.1272403 1.1270329 5.1430287
-0.97988731 0.97495782 3.3160369
-0.9115178 0.90442497 2.4204819
-0.87230492 0.86372632 1.8755709
-0.84906441 0.83984631 1.5064715
-0.54715449 0.56954879 7.3228369
-1.238757 1.247619 6.8065519
-1.0534371 1.0539944 4.1065855
-0.94633877 0.94323599 2.8265069
-0.89076221 0.88569582 2.1248546
-0.85932821 0.85326266 1.6783097
-0.83376396 0.82673913 1.3511763
-0.82576668 0.81396717 1.2192293
-0.80924094 0.79685575 0.99814546
-0.80017877 0.78766382 0.82075852
-0.79052675 0.77762991 0.66701359
-0.7872929 0.77418554 0.53443271
-0.77337861 0.76024425 0.40870732
-0.76743501 0.75388211 0.29571593
-0.76010519 0.74668521 0.18860367
-0.81507176 0.80567843 1.1018965
-0.80415034 0.79433823 0.9065823
-0.79572678 0.78574979 0.74276382
-0.78270721 0.77209461 0.5957045
-0.78046739 0.76962358 0.47063357
-0.77202445 0.76103914 0.35217986
-0.76518929 0.75430477 0.24207552
-0.76132894 0.75024456 0.13679302
-0.88882369 0.91198289 8.0958672
-1.0999349 1.1182051 7.5643864
-1.130662 1.1383749 5.1764326
-0.98061812 0.982521 3.3298445
-0.91174352 0.91098702 2.42926
-0.87326986 0.87074006 1.8838367
-0.84839839 0.84506696 1.5103091
-0.54516304 0.57145524 7.3228369
-1.2352768 1.2528306 6.8113914
-1.0533981 1.0613397 4.1206636
-0.94764972 0.95116043 2.8400104
-0.89135087 0.89249063 2.1333864
-0.85847521 0.85838777 1.6822997
-0.83327186 0.83204007 1.3548514
-0.82545125 0.8193571 1.2227339
-0.80921823 0.80241632 1.0012839
-0.79742438 0.79045218 0.82075852
-0.79095453 0.7835021 0.66933239
-0.78787977 0.78019112 0.53630573
-0.77072012 0.76293927 0.40870732
-0.76479882 0.75655633 0.29571593
-0.76103455 0.75283617 0.18905075
-0.81490058 0.81115288 1.105222
-0.80423832 0.79999107 0.90952545
-0.79603577 0.7915622 0.74529696
-0.7800073 0.77482212 0.5957045
-0.78112686 0.77567059 0.47227708
-0.76936322 0.76372939 0.35217986
-0.76606607 0.76045996 0.2427662
-0.76225162 0.75641656 0.13699456
-0.88887644 0.91843081 8.1255035
-1.1017162 1.1278657 7.603548
-1.1329701 1.148692 5.2050648
-0.97993279 0.98871344 3.3390496
-0.91193432 0.91756171 2.4380381
-0.87419635 0.87777102 1.8921027
-0.84996915 0.85256332 1.517984
-0.54279852 0.57296753 7.3178649
-1.2317754 1.258033 6.8162303
-1.0545319 1.069927 4.1394343
-0.94891661 0.95910549 2.853514
-0.89190298 0.8993004 2.1419184
-0.85972011 0.86565542 1.6902797
-0.83275288 0.83734745 1.3585266
-0.82510835 0.82475471 1.2262385
-0.80916649 0.8079865 1.0044224
-0.79761964 0.79618502 0.82349998
-0.7913509 0.78938687 0.67165118
-0.78843427 0.78621006 0.5381788
-0.77144963 0.76901156 0.41011736
-0.7656334 0.76268822 0.29664856
-0.76193011 0.75900269 0.18949783
-0.81470114 0.81663585 1.1085476
-0.80429655 0.80565411 0.91246861
-0.79326785 0.79433608 0.74529696
-0.78050655 0.78074986 0.59780258
-0.78175348 0.78173155 0.47392058
-0.77013022 0.76984668 0.35335216
-0.76690912 0.76663041 0.24345689
-0.76314056 0.76260412 0.13719608
-1.104152 1.1382831 7.6476054
-1.1352198 1.1590387 5.2336965
-0.98058641 0.99630541 3.3528571
-0.91209048 0.92414886 2.4468162
-0.8731057 0.8828181 1.8962357
-0.84924293 0.85780299 1.5218216
-0.54043019 0.57447028 7.3128934
-1.2282526 1.2632264 6.8210697
-1.0556186 1.078535 4.1582055
-0.94861412 0.965518 2.8625166
-0.89241821 0.90612471 2.1504502
-0.85880882 0.87079662 1.6942697
-0.83220702 0.8426615 1.3622017
-0.82473773 0.83015996 1.229743
-0.80908573 0.81356603 1.0075608
-0.79778457 0.80192876 0.82624143
-0.78859067 0.79214436 0.67165118
-0.78568506 0.78895748 0.5381788
-0.77214617 0.77509832 0.4115274
-0.76296651 0.76535612 0.29664856
-0.75927609 0.76165771 0.18949783
-0.81447321 0.82212728 1.111873
-0.80432498 0.81132722 0.91541177
-0.79352576 0.8001613 0.74783015
-0.77777642 0.78346956 0.59780258
-0.78234744 0.78780633 0.47556409
-0.77086371 0.77597857 0.35452449
-0.7642284 0.76930279 0.24345689
-0.76047385 0.76526338 0.13719608
-1.1065284 1.1487312 7.6916623
-1.1342893 1.1662048 5.2480125
-0.9798336 1.0025167 3.3620622
-0.91388786 0.9324587 2.4599836
-0.87396216 0.88987601 1.9045017
