# .PCD v0.7 - Point Cloud Data file format
VERSION 0.7
FIELDS x y z
SIZE 4 4 4
TYPE F F F
COUNT 1 1 1
WIDTH 1561
HEIGHT 1
VIEWPOINT 0 0 0 1 0 0 0
POINTS 1561
DATA ascii
3.3495159 1.1390347 5.2687216
4.9806767 1.696591 6.3762641
1.7080902 0.46159884 30.433571
3.1257632 0.97521394 30.495016
3.4630485 1.1448106 14.080207
3.2316556 1.080176 9.3202486
3.0778885 1.0394926 5.3840284
3.9726889 1.3447467 5.6284337
5.3079352 1.8008205 6.1546164
5.5671568 1.9071993 5.8627529
6.0811605 2.0868299 5.2664466
6.8478274 2.3512473 4.8315234
4.7918167 1.634112 4.5903459
6.5627103 2.2405577 5.1329603
0.11285192 0.0018158581 11.433838
4.570931 1.463475 30.51022
2.9990964 0.97585601 15.186255
3.8843462 1.2847797 13.126558
2.9752741 0.99675769 5.8176293
3.3481369 1.1255426 5.2604561
5.0473213 1.6996524 6.4530149
1.709691 0.4556337 30.433571
3.1296577 0.96445405 30.499989
3.4526854 1.1280317 14.022133
3.2616239 1.0775492 9.3953323
3.0814984 1.0287424 5.3840284
3.9916463 1.3356519 5.6483841
5.3270454 1.7865931 6.1693168
6.0220604 2.0430808 5.2099543
6.8757915 2.3340502 4.8452311
4.8151827 1.6233393 4.6069736
6.5858107 2.2228065 5.1447334
0.1125087 0.0014335546 11.39384
4.5767522 1.4477446 30.515162
3.036412 0.97628719 15.357588
3.8774562 1.2675028 13.088382
5.5544538 1.830624 13.837407
2.9787352 0.98636591 5.8176293
3.3413634 1.1102993 5.2439241
4.9893579 1.660766 6.3724265
1.7115502 0.44973615 30.43856
3.1335154 0.95367885 30.504959
3.4589944 1.116745 14.031812
3.2620845 1.0650864 9.3859472
9.5088491 3.1246133 20.759344
3.0949774 1.0212485 5.4010921
4.0248928 1.3311716 5.6882839
5.3396854 1.770121 6.1766672
5.3571396 1.7935631 5.631453
6.025465 2.0208097 5.2068157
6.9116459 2.3193467 4.8644209
6.5935297 2.1998041 5.1447334
0.11212058 0.0010552753 11.348842
4.581778 1.4317601 30.515162
3.0378604 0.96506578 15.347798
3.8775959 1.2525839 13.074066
5.4753604 1.7833936 13.625691
3.0163035 0.98713517 5.8834653
3.3612599 1.1038969 5.2687216
4.4775238 1.4730611 5.7200513
1.7128303 0.44368678 30.433571
3.1368251 0.9427349 30.504959
3.466464 1.1058099 14.04633
3.2674248 1.0542229 9.3906403
3.1481142 1.0266092 5.4864106
4.0151944 1.3124332 5.6683335
5.3619404 1.7567487 6.1950436
5.3396678 1.7670097 5.6069212
6.0103145 1.9924164 5.1879849
6.9196997 2.2952065 4.8644209
5.3051577 1.7473698 5.0559163
6.6165228 2.1818383 5.1565056
0.11225437 0.00065861881 11.36384
4.5867476 1.4157579 30.515162
6.0723205 1.9055105 30.620905
3.8748345 1.2367718 13.050206
4.7544031 1.5302482 11.826104
3.0584702 0.98912776 5.9580798
3.3677695 1.0930258 5.2728548
4.4856868 1.4584138 5.7238889
1.7143687 0.43770519 30.433571
3.1406078 0.93193126 30.509932
3.2612197 1.0396665 9.362484
9.4599543 3.0355389 20.606302
3.2038076 1.032411 5.5759954
4.0283532 1.3011881 5.6803041
5.3841662 1.7432425 6.213419
5.3695302 1.75612 5.631453
6.0209317 1.9726361 5.1911235
6.943563 2.2762485 4.8753872
5.3715816 1.7484868 5.1124496
6.6202564 2.1574769 5.153563
0.1122124 0.00026868522 11.35884
4.587945 1.3986058 30.490463
6.0701818 1.8815897 30.576851
3.87201 1.2209944 13.026345
4.7559924 1.5124589 11.816899
3.052779 0.97552991 5.9405231
3.3849623 1.08556 5.2935195
4.3381686 1.3937287 5.5320139
1.7156061 0.43164799 30.428579
3.1438417 0.92096281 30.509932
3.8197482 1.1891742 15.440084
3.2977486 1.0386432 9.4563379
3.2123623 1.0228038 5.5845275
3.9984236 1.2761251 5.6324239
5.9972615 1.9186368 6.9043493
5.3213329 1.7198189 5.5753803
6.0055628 1.9444138 5.1722927
6.9395323 2.2481308 4.8671627
5.3954244 1.735442 5.129077
6.6354408 2.1368325 5.1594491
0.11221265 -0.00012301092 11.35884
4.5980077 1.3841499 30.525038
3.0429318 0.93171084 15.323321
3.8719728 1.2061393 13.012031
4.7593789 1.4952626 11.812297
3.0538819 0.96414679 5.9361343
3.3806832 1.0711877 5.2811208
4.3430071 1.3785772 5.5320139
1.7171024 0.4256568 30.428579
3.1470375 0.90998316 30.509932
3.8022497 1.1691844 15.352975
3.3211277 1.0332769 9.5126524
3.2333281 1.0170619 5.6143889
3.9654944 1.2503809 5.5805535
6.0330148 1.9068859 6.9374261
5.2423725 1.6741121 5.4877667
6.027142 1.9281824 5.1848464
6.9274254 2.2175198 4.8534551
5.4014497 1.7165979 5.129077
6.6004906 2.1001763 5.1270747
0.11221154 -0.00051470526 11.35884
4.604301 1.3685341 30.534916
3.0646839 0.9266814 15.416331
3.8647456 1.1891048 12.973854
4.8317409 1.4994847 11.977987
3.0457966 0.94991577 5.9141889
3.3817163 1.05854 5.276988
4.3508511 1.3643678 5.535851
1.7182971 0.41959202 30.423588
3.1507072 0.89913851 30.514902
3.3511071 1.0297872 9.5877361
3.221915 1.0011263 5.5887933
3.9870961 1.2419074 5.6044936
8.3534346 2.6082566 9.5651684
8.6219845 2.7202055 8.9642763
6.9112034 2.18576 4.8370061
5.3931594 1.6932594 5.1157751
6.5692215 2.0650027 5.0976429
0.11220906 -0.00090639363 11.35884
4.6105413 1.3528913 30.544796
3.0757053 0.9183079 15.455493
3.8717296 1.176475 12.983398
4.8649645 1.4911971 12.047026
3.0147607 0.92870283 5.8483529
3.3800137 1.0450666 5.2687216
4.4413157 1.3757261 5.6433015
1.7197514 0.4135915 30.423588
3.1538265 0.88813508 30.514902
3.3645892 1.0210898 9.6158924
8.210619 2.5087717 17.81555
3.2553091 0.99905515 5.6399846
3.9885271 1.2270962 5.6005034
8.5439053 2.6350317 9.770978
8.1854076 2.5510876 8.5051813
6.3859906 1.993945 5.4767232
5.3562427 1.6611516 5.0758691
6.5146265 2.0228813 5.0505524
0.11216164 -0.0012955508 11.353841
4.6182213 1.3376538 30.564552
3.0730321 0.90583915 15.426122
3.8758125 1.162953 12.983398
4.7672968 1.4430776 11.793887
2.9881971 0.90911233 5.7912946
3.3782585 1.0316182 5.2604561
4.4460907 1.3602147 5.6433015
1.7211845 0.40758592 30.423588
3.156394 0.8769781 30.509932
4.0890856 1.2106518 16.456364
3.3995414 1.01875 9.7050552
8.202652 2.4750652 17.779541
3.2762482 0.99298078 5.6698461
3.9927864 1.2131662 5.6005034
8.6406136 2.6318619 9.8702068
6.4152279 1.978524 5.4955535
5.3227382 1.6304162 5.0392885
6.5216484 2.0001287 5.0505524
0.11224354 -0.0016924032 11.36384
4.6198735 1.3206708 30.544796
3.0761752 0.89510673 15.426122
3.8870044 1.1515366 13.007258
3.7577662 1.1232091 9.2993183
2.9730024 0.89316374 5.7561822
3.3764501 1.0181948 5.2521901
1.7228781 0.4016408 30.428579
3.1589217 0.86581409 30.504959
4.0679502 1.1889665 16.354736
3.3948026 1.0044295 9.681592
8.2112417 2.4464176 17.779541
3.2871897 0.98378164 5.6826434
3.9969966 1.1992214 5.6005034
6.0622978 1.8234425 6.9411011
5.8179893 1.7687988 6.0555034
6.4109254 1.9527166 5.4861388
5.339118 1.6150694 5.0492654
6.5169845 1.9738365 5.0417228
0.11236759 -0.0020926662 11.37884
4.6281943 1.305591 30.56949
3.0792809 0.88436347 15.426122
3.8981638 1.1400561 13.031117
3.7448001 1.1051092 9.2578955
2.9738059 0.88209969 5.7517929
3.3772867 1.0055996 5.2480569
4.2466168 1.2668382 5.3823509
1.7242696 0.39562437 30.428579
3.1603808 0.85436493 30.490046
4.0974379 1.1820751 16.456364
3.3982882 0.99257326 9.681592
3.240581 0.95752174 5.5973248
3.9375963 1.1664342 5.512723
5.9321308 1.7617346 6.7867446
5.8787789 1.7648859 6.1115761
6.3841567 1.9202363 5.4578924
5.398387 1.6124512 5.0991473
6.512217 1.9476018 5.0328932
0.11249018 -0.0024938157 11.39384
4.6357179 1.2902609 30.589249
3.0725527 0.87083358 15.37717
3.9021196 1.1264421 13.031117
3.7486348 1.0920305 9.2578955
2.976867 0.87171376 5.7517929
3.3807764 0.99380457 5.2480569
4.2048931 1.2384244 5.3247886
1.7259216 0.38966656 30.433571
3.1643741 0.84360254 30.499989
5.434999 1.5473599 21.794249
3.3851507 0.97592515 9.6346636
3.2914743 0.96007872 5.6783781
3.9011543 1.1408422 5.4568624
5.2485609 1.5388166 6.0076098
5.8883228 1.7453678 6.1150808
6.286345 1.8669134 5.3700156
6.5693712 1.9397379 5.0711546
0.11256783 -0.0028927191 11.403839
3.0657678 0.85736144 15.328217
4.6065989 1.3123772 15.359846
3.7355254 1.0740805 9.2164726
2.9683876 0.85799241 5.7298479
3.3869274 0.98278147 5.2521901
4.2122679 1.2246337 5.3286257
1.7275531 0.38370201 30.43856
3.1698773 0.83322883 30.524845
3.4134338 0.97118562 9.7050552
3.2672367 0.94064701 5.6314526
3.7748346 1.0896147 5.2773113
5.8430376 1.70978 6.0625119
6.2106514 1.8208675 5.3009696
5.6998954 1.6592534 5.3685131
6.6149077 1.9281056 5.1005859
0.11268759 -0.0032954733 11.418839
2.2438762 0.60784942 14.778684
3.0608895 0.84448886 15.289055
2.9690614 0.84696859 5.7254586
3.4065692 0.97560126 5.276988
4.216517 1.2099228 5.3286257
1.728882 0.37766939 30.43856
3.1737988 0.82242608 30.534788
5.4505138 1.5107217 21.813606
3.423449 0.96113014 9.7238264
3.2127993 0.91284347 5.5333362
3.6945739 1.0524917 5.1616006
5.252656 1.5002754 6.0002594
5.8592496 1.6923425 6.0730257
6.138453 1.776455 5.2350616
5.7164183 1.6424397 5.3784895
6.6604419 1.9161785 5.1300173
0.11271889 -0.0036922372 11.423839
2.2437322 0.59941173 14.763866
3.0520287 0.83059156 15.230312
2.9673886 0.8353017 5.71668
3.4559894 0.9767136 5.3472481
4.2176313 1.1943238 5.3247886
1.7304721 0.37169263 30.443554
3.179749 0.81213355 30.564615
3.5348828 0.97911233 10.028856
9.4898281 2.6479225 20.435255
3.251123 0.91147882 5.5930591
3.68082 1.0346965 5.1376605
5.2545981 1.4810115 5.9965839
5.8514032 1.6679691 6.0590081
6.1146746 1.7464653 5.2099543
6.6515369 1.8885018 5.1182451
0.11292274 -0.0041035912 11.448837
2.2473137 0.5919717 14.773745
3.0499921 0.81861341 15.205836
4.487628 1.2278287 14.920824
3.6712422 1.0140991 9.0323725
2.9702864 0.82493842 5.71668
3.5135901 0.97975987 5.4299068
4.2279482 1.1813191 5.3324633
1.731759 0.36564988 30.443554
3.1815307 0.80076915 30.554674
4.1101627 1.1084218 16.427328
3.5399437 0.96722215 10.033549
9.4738274 2.6078479 20.381241
3.269367 0.90429604 5.6186547
3.6873131 1.0226469 5.1416507
5.2597361 1.4626606 5.9965839
5.8640547 1.6494647 6.0660167
6.1994076 1.7472841 5.2758622
5.4328976 1.5200027 5.1057987
6.7009025 1.8772663 5.15062
0.11290772 -0.00449774 11.448837
4.6507616 1.2074031 30.544796
3.0538154 0.80822247 15.210732
4.4918866 1.2121564 14.920824
3.6540253 0.99562889 8.9817438
2.9708381 0.81393248 5.7122912
3.5793934 0.9846549 5.5249643
4.2567658 1.1733674 5.3631635
1.7327421 0.35954419 30.43856
3.1837893 0.7895304 30.549702
4.1297989 1.0982668 16.49024
3.5566285 0.95845115 10.071092
3.2850838 0.89631039 5.6399846
3.7024863 1.0129502 5.1576109
5.2778869 1.4478792 6.0112853
5.8525953 1.6242172 6.0484939
6.2129688 1.7277191 5.2821383
5.3985791 1.4901016 5.0692182
11.818888 3.2665994 9.0120459
0.11258713 -0.0048646308 11.413838
4.6609697 1.1927022 30.584311
3.0556328 0.7973007 15.205836
4.5162859 1.2018429 14.987632
3.6499314 0.98084021 8.963335
2.9713492 0.80293262 5.7079024
3.6153986 0.98099685 5.5745597
4.2608361 1.1585014 5.3631635
1.7339866 0.3534936 30.43856
3.1854899 0.7781592 30.539759
4.142118 1.0860757 16.524117
3.5599525 0.94603044 10.071092
3.3033035 0.88890368 5.6655798
3.7089088 1.0008048 5.1616006
5.289453 1.4312178 6.0186348
5.8272719 1.5953032 6.016953
6.2452378 1.7132292 5.3041081
5.39294 1.4683055 5.0592418
11.892613 3.2423348 9.0591364
0.11243912 -0.0052454886 11.398839
4.6575704 1.1745256 30.534916
3.0583973 0.78662974 15.205836
4.4944639 1.1792526 14.901735
3.6250055 0.96058792 8.8942957
2.9648769 0.79008931 5.6903458
3.651422 0.9770993 5.6241555
4.32058 1.1585633 5.4322386
1.7352098 0.34743869 30.43856
3.1881869 0.76703501 30.539759
4.1702232 1.0779004 16.620903
3.5632329 0.93359804 10.071092
3.3114276 0.87870532 5.6741118
3.7152917 0.98862702 5.1655908
5.304244 1.4153675 6.0296607
5.7880468 1.5628675 5.9713941
6.2662086 1.6954851 5.3166618
5.4124565 1.4533446 5.0725436
11.997539 3.2259912 9.1297722
0.11220296 -0.0056169946 11.37384
4.670691 1.1605083 30.594189
3.0601375 0.77569896 15.200941
4.5289016 1.1714054 15.001947
3.6245563 0.94694084 8.8850918
2.9722493 0.78095222 5.6991239
3.6792984 0.97080839 5.6613517
4.6034861 1.2172122 5.7776136
1.7366954 0.34143513 30.443554
3.1903262 0.75577879 30.534788
3.1690476 0.8073746 12.628379
3.5664701 0.92115438 10.071092
3.3144748 0.86714095 5.6741118
3.7216341 0.97641677 5.1695805
5.3124309 1.3977063 6.0333357
5.793467 1.5426538 5.9713941
6.313457 1.6846398 5.3511848
5.435544 1.4392211 5.0891709
12.090775 3.2058473 9.1915789
0.11218268 -0.0060086218 11.37384
4.6694307 1.1429048 30.559614
3.0618386 0.76476574 15.196045
4.5344095 1.1559583 15.00672
3.6335154 0.93574452 8.8988991
2.9819126 0.77237374 5.7122912
3.7071755 0.96433485 5.6985483
4.7007546 1.2253902 5.8927388
1.7378767 0.33537084 30.443554
3.193464 0.74475873 30.539759
3.2011063 0.80365169 12.744525
3.567991 0.90827376 10.066399
3.919451 1.0057136 8.4305182
3.3376849 0.86077595 5.7082396
3.7279375 0.96417439 5.1735706
5.3205595 1.380005 6.0370111
5.78157 1.5178938 5.9538713
6.3155346 1.6616012 5.3480463
5.4477596 1.4221247 5.0958223
12.008038 3.1390884 9.1209431
0.11224782 -0.0064091622 11.38384
2.2622397 0.54550582 14.793502
3.0635009 0.75383002 15.191151
4.5268345 1.1372139 14.968544
3.6348658 0.922575 8.8942957
2.9915524 0.76373738 5.7254586
3.8059244 0.97584885 5.8432016
4.7733002 1.2265223 5.9771643
1.7390367 0.32930246 30.443554
3.1960442 0.73360699 30.539759
3.1977911 0.79096419 12.720328
3.5711398 0.89581364 10.066399
3.9250476 0.99255955 8.4350195
3.3735287 0.85747141 5.7636967
3.7342002 0.95189989 5.1775608
5.7764759 1.4950225 5.9433579
6.3288321 1.6415 5.3543234
11.678391 3.009403 8.8648882
0.11231154 -0.0068102293 11.39384
2.2641299 0.53760582 14.793502
3.065124 0.74289215 15.186255
4.5235319 1.1196126 14.944683
3.6399593 0.91035527 8.8988991
3.0034907 0.75562733 5.7430148
3.910254 0.98806369 5.9961209
4.771338 1.2082793 5.9694891
1.7401756 0.32323009 30.443554
3.1985855 0.7224462 30.539759
3.2017536 0.78009444 12.725167
3.574245 0.88334256 10.066399
3.9284885 0.97885251 8.4350195
3.4093902 0.85392702 5.8191538
3.740423 0.93959337 5.181551
6.1256242 1.5432489 6.9264011
5.8853269 1.5012935 6.0484939
6.3307524 1.6184343 5.3511848
11.590883 2.9437456 8.7913094
0.11237382 -0.0072118188 11.403839
2.2644796 0.52934575 14.783624
3.0667081 0.73195201 15.18136
4.5245118 1.1031086 14.93514
3.6374242 0.8962419 8.8850918
3.0154088 0.7474432 5.760571
3.9519086 0.98392588 6.0539823
4.7724166 1.1908408 5.9656515
1.7412933 0.31715378 30.443554
3.2016082 0.71139228 30.544731
3.2007904 0.76803386 12.710649
3.5756299 0.87045264 10.061706
3.9339957 0.96565253 8.4395199
3.4300745 0.84639406 5.8490152
3.7495296 0.92797887 5.1895308
6.1638775 1.5300242 6.9631529
6.0150433 1.5120392 6.1746578
6.3023934 1.5877682 5.3229389
6.5019794 1.6247854 6.050241
11.577561 2.8973801 8.7736502
0.11243467 -0.0076139271 11.413838
2.2640419 0.52091563 14.768806
3.0722179 0.72194123 15.196045
4.5239806 1.0862629 14.920824
3.6386321 0.88307875 8.8804893
3.0273061 0.73918504 5.7781277
3.9279885 0.96342218 6.0126524
4.7765441 1.1741748 5.9656515
1.7423898 0.3110736 30.443554
3.2045929 0.70032597 30.549702
3.2071216 0.75772315 12.725167
3.5803249 0.85836828 10.066399
3.9415746 0.95293748 8.4485226
3.420337 0.8313362 5.8276854
3.7586012 0.91631228 5.1975112
6.2350426 1.5246031 7.0366559
6.0583625 1.5004638 6.2132077
6.2927866 1.5620083 5.3103848
6.5112362 1.6029718 6.0535665
11.603302 2.8608196 8.7854223
0.11249407 -0.0080165472 11.423839
2.2696354 0.5138669 14.793502
3.0687673 0.70983648 15.166675
4.5204811 1.0687476 14.896963
3.637892 0.86946398 8.8712835
3.0275393 0.72805333 5.7737384
3.9422691 0.95234805 6.0291843
1.7437495 0.30503923 30.448545
3.2070179 0.68913561 30.549702
3.2085228 0.74623895 12.720328
3.5799403 0.84507257 10.057013
3.4333634 0.82182014 5.844749
3.7705669 0.90529698 5.2094812
6.2732859 1.5107666 7.0734076
5.9665537 1.4556408 6.1150808
6.2792964 1.5354105 5.2946925
6.534935 1.5846329 6.0701938
11.617146 2.8212531 8.7883663
0.1124654 -0.008409176 11.423839
2.2721739 0.50611007 14.798441
3.066262 0.69799048 15.142199
4.5241842 1.0529617 14.896963
3.0137482 0.7136184 5.7430148
3.9400942 0.93727881 6.0209188
6.6116858 1.5764042 8.2144289
1.7448037 0.29895052 30.448545
3.2099257 0.67804694 30.554674
3.2086575 0.73447371 12.710649
3.5879111 0.8337428 10.071092
2.7590857 0.6467278 5.9233422
3.4514425 0.8134197 5.8703451
3.7795689 0.89351612 5.2174611
6.3378978 1.5029395 7.1395607
5.8675714 1.4098108 6.009944
6.2808332 1.512571 5.291554
6.5513215 1.5644137 6.0801702
11.68589 2.7947869 8.8325129
0.11234877 -0.0087909019 11.413838
2.2754447 0.49850801 14.808319
3.0647051 0.68639308 15.122617
4.5016422 1.0311646 14.811069
2.9998934 0.69928855 5.7122912
6.5859432 1.5459908 8.176054
1.7458365 0.29285821 30.448545
3.2122729 0.66683805 30.554674
3.2087493 0.72271675 12.700971
3.587435 0.82044417 10.061706
2.7634475 0.63758218 5.9278436
3.4390171 0.79783088 5.844749
3.794404 0.88304937 5.2334213
6.3133931 1.4738706 7.1064839
5.8412223 1.3819313 5.9784031
6.2671385 1.4861472 5.2758622
11.73492 2.7632427 8.8619452
0.1123174 -0.0091830185 11.413838
2.2771711 0.4905622 14.808319
3.0631053 0.67481518 15.103037
4.5488997 1.0252897 14.954227
3.6429877 0.83045274 8.8620787
3.0046504 0.68934822 5.71668
4.9736052 1.1492203 6.1882272
1.747133 0.28680894 30.453537
3.2140584 0.6555146 30.549702
3.2161615 0.7125991 12.720328
3.5919607 0.80829549 10.066399
2.7720251 0.62937784 5.9413471
3.4392383 0.78524119 5.8404832
3.7974634 0.86979908 5.2334213
5.8390646 1.3599155 5.9713941
6.2684975 1.4633768 5.2727237
7.864357 1.820011 7.2706995
11.78387 2.7313902 8.8913765
0.11219814 -0.0095636174 11.403839
2.2826703 0.4834148 14.833016
3.0624568 0.66347224 15.08835
4.5728531 1.0139278 15.021035
3.5391114 0.79379088 8.6043377
3.0070384 0.67885578 5.71668
4.9838371 1.1332735 6.1959019
1.7481235 0.28070855 30.453537
3.2163272 0.64429146 30.549702
3.2272263 0.70324111 12.754205
4.3512788 0.96319151 12.17345
2.7742052 0.61969781 5.9413471
3.4343247 0.77151644 5.8276854
3.8357506 0.86448759 5.2813015
7.6528196 1.7303035 8.5839005
5.8646326 1.3443058 5.9924212
8.6027555 1.9766541 7.1997356
7.7869291 1.7734785 7.1942129
11.781509 2.6875434 8.8825474
0.11220731 -0.0099610565 11.408838
2.2759759 0.47370335 14.778684
3.0617661 0.65214211 15.073665
4.5836568 0.99954945 15.044895
3.0164039 0.66991276 5.7298479
5.553987 1.2394971 8.4304276
4.9721227 1.1123708 6.1767144
1.7493778 0.27464938 30.458529
3.2180333 0.63295764 30.544731
3.237036 0.69355136 12.78324
4.3563008 0.9483639 12.178144
3.4369972 0.75952375 5.8276854
3.8416865 0.85174513 5.2852912
7.6885958 1.7102041 8.6169758
5.9527817 1.3426574 6.0765305
8.5868244 1.9414628 7.1809049
7.7930727 1.7462863 7.1942129
11.767157 2.6410909 8.8648882
0.11221508 -0.010358679 11.413838
2.2806606 0.46637809 14.798441
3.062031 0.64103347 15.063875
3.9624338 0.84962267 13.002486
3.1359882 0.68042761 7.6193976
3.0210638 0.65989047 5.7342367
5.4510851 1.1965734 8.2692423
4.9665842 1.0929418 6.1652017
1.750326 0.26854122 30.458529
3.2202234 0.62172073 30.544731
3.2492774 0.68431956 12.821956
4.3359604 0.92809576 12.112444
3.4370787 0.74696791 5.8234196
3.8122516 0.83126897 5.2414012
6.1081514 1.336311 6.8565726
6.0235825 1.3365474 6.143117
8.6087465 1.9148576 7.1934586
7.9668484 1.756042 7.3471856
11.728939 2.5895429 8.8295698
0.11222143 -0.010756474 11.418839
4.7261448 0.94896632 30.643581
3.0622551 0.62993091 15.054084
3.9639146 0.83547819 12.997714
3.1345227 0.66866177 7.6101923
3.0256903 0.64984381 5.7386255
5.3974648 1.1650703 8.1824503
4.9672365 1.0749207 6.1613641
1.7512527 0.2624298 30.458529
3.2223737 0.61047626 30.544731
3.2553389 0.67373735 12.836474
4.3847685 0.92254663 12.239149
3.4422157 0.73551065 5.8276854
3.7886131 0.81227195 5.2054911
6.1061497 1.3135554 6.8492222
6.0804749 1.3269179 6.1956849
8.6039715 1.8823004 7.1840434
6.5206137 1.4134239 6.0236368
11.757657 2.5528734 8.844286
0.1121832 -0.011148133 11.418839
4.7256169 0.93171185 30.618885
3.0614412 0.61863297 15.039398
3.9638834 0.82103097 12.98817
3.1368377 0.65771616 7.6101923
3.0302839 0.63977295 5.7430148
5.39324 1.1444701 8.1700516
4.9960389 1.0629108 6.1920643
1.752158 0.2563152 30.458529
3.2244852 0.59922433 30.544731
3.2662933 0.6641227 12.870351
4.3440237 0.89815199 12.117137
2.9402823 0.613819 6.2744365
3.444762 0.7234906 5.8276854
3.7825801 0.79717827 5.193521
6.0850697 1.305685 6.1956849
8.5610209 1.8416141 7.1432433
6.5510702 1.3961016 6.0469151
0.11218675 -0.011546114 11.423839
4.7318921 0.91580117 30.638641
3.0605857 0.60734844 15.024714
3.9711137 0.80808234 13.002486
3.1888649 0.65701103 7.7298579
3.0348437 0.62967783 5.7474041
5.0248179 1.0507129 6.222764
1.7530421 0.25019747 30.458529
3.2265573 0.58796519 30.544731
3.2648935 0.65197885 12.855832
4.3234563 0.87817478 12.051438
2.9082861 0.59655392 6.2024174
3.4472666 0.71146172 5.8276854
3.8207474 0.79130232 5.2414012
5.9989977 1.2467518 6.7205911
6.1070371 1.288116 6.2132077
8.5178919 1.8012509 7.1024437
6.6655374 1.3961891 6.1466799
0.1121889 -0.011944258 11.428839
4.722846 0.8969593 30.559614
3.0586891 0.59588271 15.005132
3.9753737 0.79450804 13.007258
3.1777353 0.64316344 7.6976404
3.0370231 0.61908042 5.7474041
5.0284548 1.0331666 6.222764
1.7539048 0.24407668 30.458529
3.2291148 0.57679242 30.549702
3.2622156 0.63961124 12.836474
4.3214183 0.86206508 12.03736
2.8804736 0.58037966 6.1394
3.4471729 0.698906 5.8234196
3.8559666 0.78456879 5.2852912
5.9999924 1.2251258 6.7169166
6.1045132 1.2653432 6.2061987
8.5126944 1.7691311 7.0930281
7.9028192 1.6265717 7.267374
0.11218963 -0.012342555 11.433838
4.738934 0.88288653 30.643581
3.0577505 0.58462888 14.990446
3.9810526 0.7812013 13.016803
3.1722958 0.63054389 7.6792297
3.029772 0.60659504 5.7298479
5.3083744 1.0684967 8.0253983
5.0383148 1.016876 6.2304397
1.7547461 0.23795293 30.458529
3.2311084 0.56551725 30.549702
3.2545536 0.6263203 12.797759
3.3963604 0.66523713 9.465724
2.8547199 0.56482935 6.0808845
3.4495916 0.68686885 5.8234196
3.911869 0.78173208 5.3571119
6.0474434 1.2128402 6.7646937
6.115881 1.2454498 6.2132077
8.5569544 1.7471921 7.1244125
7.9340663 1.6041552 7.2906523
0.11218894 -0.012741003 11.438837
2.2677612 0.41446498 14.655203
3.0607734 0.57413942 14.995341
3.9866867 0.76786464 13.026345
3.1744776 0.61946666 7.6792297
3.0248208 0.5946297 5.71668
5.3424387 1.0559624 8.0708609
5.026113 0.99616712 6.2112517
1.755566 0.23182626 30.458529
3.2330627 0.55423516 30.549702
3.4156082 0.65663487 9.5126524
2.7818785 0.54033583 5.9233422
3.4417295 0.67282206 5.8063555
3.9086604 0.76691204 5.3491321
5.9086103 1.1635582 6.6066613
6.1236887 1.2247933 6.216712
8.5782661 1.7203734 7.1369662
6.6175342 1.313951 6.0901465
0.11214378 -0.013132538 11.438837
2.2714887 0.40695727 14.670021
3.0737741 0.56547755 15.049189
3.9952102 0.75505251 13.045434
3.1344073 0.6002987 7.5779748
3.0174716 0.58225268 5.6991239
4.5366769 0.88026601 6.8599067
5.0232673 0.97739244 6.203577
1.7563646 0.22569679 30.458529
3.2355037 0.54303443 30.554674
3.5221064 0.65232891 13.828556
3.422967 0.64566761 9.5267305
2.7880244 0.53143704 5.9323444
3.4594254 0.66375238 5.8319516
5.8627076 1.1332755 6.5515342
6.1349258 1.2047846 6.2237215
7.1177344 1.4016428 5.9317994
6.6990414 1.3058451 6.1599822
0.11201119 -0.013509495 11.428839
2.2705994 0.39862305 14.655203
3.0827439 0.55600923 15.083455
4.0051594 0.74246198 13.069294
3.155684 0.59296101 7.6239991
3.0171323 0.5712707 5.6947346
4.5203714 0.86074042 6.8309765
5.0140553 0.95744747 6.1882272
1.7571417 0.21956456 30.458529
3.2368534 0.53165078 30.549702
3.5713587 0.64856279 14.012455
3.396353 0.62837923 9.4469538
3.4745362 0.65408486 5.853281
5.1841292 0.97961497 7.0608521
5.8566351 1.1109085 6.5405083
6.1531005 1.1860622 6.2377391
7.1264048 1.3775274 5.9349375
6.6852226 1.2789453 6.1433549
0.11187734 -0.013885687 11.418839
2.2712111 0.39056316 14.650263
3.0916848 0.54648519 15.117722
4.01507 0.72981143 13.093154
3.1577346 0.58194208 7.6239991
3.0143986 0.55986089 5.685957
4.5233483 0.84495616 6.8309765
5.0142164 0.93934917 6.1843896
1.7581842 0.21346429 30.463522
3.2386894 0.52034879 30.549702
3.5971136 0.64027649 14.104403
3.4070156 0.61805969 9.470417
3.9115381 0.71729314 8.286479
3.4896216 0.64431989 5.8746104
5.1756663 0.95931649 7.0448923
5.8371468 1.0861174 6.5147824
6.1326742 1.1599374 6.2132077
7.0852804 1.3439391 5.8972764
6.678637 1.2535355 6.1333785
0.1117852 -0.014268617 11.413838
2.2717946 0.38250387 14.645324
3.1005967 0.53690553 15.151989
4.0264106 0.71736234 13.121786
3.0257597 0.55105156 5.7035131
4.4626069 0.81750005 6.7359185
5.0458374 0.92705297 6.2189269
1.7589186 0.20732579 30.463522
3.2404861 0.50904047 30.549702
3.4057541 0.60555917 9.461031
3.7918897 0.68168259 8.0299101
3.502115 0.63399309 5.8916745
5.1789832 0.94124424 7.0448923
5.8642478 1.0699947 6.5405083
6.1787634 1.1463295 6.2552624
6.60953 1.2166961 6.0668678
0.11169176 -0.014651074 11.408838
2.2723494 0.37444526 14.640385
3.1024518 0.52607912 15.151989
4.0215378 0.70202005 13.097926
3.0370955 0.54216957 5.7210693
4.3684926 0.78451025 6.5912652
5.0174975 0.90375257 6.180552
1.7596316 0.20118475 30.463522
3.2422431 0.49772596 30.549702
4.2507505 0.7260111 16.640263
3.4044466 0.59307492 9.4516459
3.7363596 0.65824574 7.9083772
3.5068743 0.62222004 5.8959403
5.8646097 1.0489213 6.5368333
6.2388659 1.1349669 6.3113351
6.7690167 1.2350587 5.6305075
6.5475974 1.181681 6.007009
0.11163994 -0.015040861 11.408838
2.2728753 0.36638743 14.635446
3.1072826 0.5157463 15.166675
4.0239639 0.68797797 13.097926
3.1328568 0.54350108 7.5503588
3.0484064 0.53321522 5.7386255
4.3684335 0.76876897 6.5871325
5.958086 1.0517019 7.3202906
1.7606099 0.19507289 30.468512
3.2439609 0.4864054 30.549702
4.2743349 0.71469194 16.722532
3.3911867 0.57857621 9.4094114
3.6635516 0.63224381 7.7508349
3.5115945 0.6104216 5.9002066
5.8648973 1.0278585 6.5331583
6.3340726 1.1294587 6.4024534
6.784781 1.2134787 5.6399231
6.5185924 1.152966 5.9770799
0.11158676 -0.015430465 11.408838
2.2733729 0.35833052 14.630506
3.1110742 0.50522298 15.176465
4.0086737 0.6709711 13.040662
3.1539958 0.53583354 7.5963845
3.0573308 0.5237841 5.7517929
4.3683171 0.75303763 6.5829997
6.062789 1.0483735 7.4430909
1.7612802 0.18892603 30.468512
3.2456388 0.47507891 30.549702
3.7992182 0.62164527 14.859354
3.3982918 0.56758785 9.4234896
3.6099267 0.61002231 7.6338034
3.5137038 0.59816015 5.9002066
4.6450133 0.79404992 6.3147178
5.7882576 0.99361485 6.4449539
6.3414898 1.1079556 6.4059582
6.8158131 1.1944911 5.6618919
6.5262556 1.1308422 5.9804049
0.11161796 -0.015836099 11.418839
2.2746098 0.35039279 14.630506
3.1158354 0.49483916 15.191151
3.9947875 0.6543206 12.98817
3.2098086 0.53379285 7.7252555
3.066227 0.51429719 5.7649603
4.3847933 0.74012637 6.6036644
6.0032063 1.0165023 7.3663402
1.7616419 0.18274724 30.463522
3.2478051 0.46382192 30.554674
3.8510122 0.61632305 15.052931
3.4121737 0.55767006 9.4563379
3.614182 0.59777278 7.6383047
3.518343 0.58631998 5.9044724
4.6537008 0.77882564 6.3226976
5.7315121 0.96329045 6.3788013
6.3101668 1.079798 6.3709126
6.8314495 1.1726677 5.6713076
6.5191207 1.1061807 5.9704289
0.11160484 -0.01623388 11.423839
2.2765875 0.34256628 14.635446
3.1195562 0.48427206 15.200941
3.9970472 0.64037222 12.98817
3.2097239 0.52227151 7.7206526
3.0680034 0.50359094 5.7649603
4.3956785 0.72619194 6.6160631
5.1877317 0.85981172 6.3724265
1.762269 0.17659685 30.463522
3.2494044 0.45248213 30.554674
3.8767352 0.6065675 15.144879
3.4123955 0.54548359 9.4516459
3.6850145 0.59627897 7.7823434
3.5203683 0.57403511 5.9044724
4.7099171 0.77134168 6.3945184
5.6946974 0.93667543 6.3346992
6.2611389 1.0489265 6.3183441
6.8316627 1.1481693 5.668169
6.5229421 1.083418 5.9704289
0.11159032 -0.016631765 11.428839
2.2746942 0.33416608 14.615688
3.1232409 0.47368509 15.210732
3.9992583 0.62641597 12.98817
3.107578 0.49895233 5.8351855
4.3981867 0.71084374 6.6160631
5.1717181 0.83861995 6.349402
1.7628747 0.17044431 30.463522
3.2514923 0.44120842 30.559645
3.8440382 0.5877139 15.009377
3.4603136 0.54076117 9.5783501
3.6333182 0.5749079 7.6698132
3.5223505 0.56174332 5.9044724
4.7096047 0.75441962 6.3905282
5.7079735 0.91840714 6.3457251
6.1662226 1.0109105 6.2202168
6.835629 1.1243153 5.668169
6.5340552 1.0618399 5.9770799
0.11161715 -0.017038299 11.438837
2.2727702 0.32578325 14.595931
3.1258829 0.46292916 15.215627
4.0014205 0.61245215 12.98817
3.0607865 0.47613278 7.3570533
3.1353269 0.49218673 5.8834653
4.395082 0.69460839 6.6077971
5.174614 0.82056218 6.349402
1.7634588 0.16428968 30.463522
3.2530127 0.42985594 30.559645
3.4962986 0.5338878 9.6722059
3.5901241 0.55523574 7.5752873
3.5242901 0.54944456 5.9044724
4.7360258 0.74170488 6.4224486
5.7178426 0.89953065 6.353075
6.1697135 0.98938018 6.2202168
6.8356695 1.0998294 5.6650305
6.5782838 1.0454714 6.01366
0.11159974 -0.017436519 11.443837
2.271585 0.31752545 14.581114
3.1395726 0.45376188 15.27437
4.0020576 0.59826028 12.983398
3.046978 0.46309781 7.3202333
3.1559641 0.48414412 5.9185777
4.3724513 0.67539668 6.570601
5.1742792 0.80200344 6.3455644
1.7640216 0.15813306 30.463522
3.2544932 0.41849822 30.559645
3.6813736 0.53657794 14.360893
3.5049677 0.52269804 9.6909771
3.5963457 0.54335082 7.58429
3.528765 0.53753191 5.9087386
4.7236929 0.72288966 6.4024982
5.7142458 0.87853587 6.3457251
6.2753029 0.98385614 6.3218489
6.8548465 1.0783812 5.6775842
6.6741309 1.0368313 6.0967975
0.1115382 -0.017825969 11.443837
2.2695999 0.30917507 14.561357
3.1502116 0.44407848 15.318426
4.0041218 0.58428687 12.983398
3.0311832 0.44987833 7.2788105
3.1481607 0.4717055 5.9010215
4.3608689 0.65803063 6.5499358
5.1675401 0.78249747 6.3340521
1.764563 0.15197451 30.463522
3.2559342 0.40713534 30.559645
3.6745131 0.52248603 14.327018
3.5435178 0.52712929 5.9300675
4.7261872 0.70639652 6.4024982
5.717278 0.85858411 6.3457251
6.3104248 0.96680558 6.3533893
6.6777096 1.0135279 6.0967975
0.11145792 -0.018050589 11.438837
2.2702425 0.30442095 14.561357
3.1581948 0.43845937 15.352694
4.0022812 0.57617313 12.973854
3.0320415 0.44405806 7.2788105
3.1655633 0.46866509 5.9317451
4.3453112 0.64792871 6.5251379
5.1941218 0.77817827 6.3647523
1.7647734 0.14951058 30.463522
3.2559705 0.40252346 30.554674
3.6838613 0.51922399 14.360893
3.6594028 0.52810776 10.108633
3.5595484 0.52570421 5.9556637
4.7328858 0.70233142 6.4104786
5.711319 0.85259354 6.3383746
6.3582773 0.96051162 6.3989487
7.6725602 1.1645128 6.3397985
6.6791182 1.004203 6.0967975
0.11135799 -0.018391576 11.433838
2.2704172 0.29718655 14.556417
3.1635923 0.42908254 15.372273
4.0071263 0.56331342 12.983398
3.0354311 0.43427762 7.2834129
3.1553283 0.45590025 5.9098001
4.3335128 0.63148695 6.5044732
5.2031493 0.76097023 6.3724265
1.7653095 0.14304136 30.463522
3.2574239 0.39058703 30.554674
3.6995265 0.50695169 14.414127
3.6614037 0.51405281 10.108633
3.81969 0.54914063 6.382257
4.6908131 0.67769092 6.3506279
5.7281151 0.83160812 6.353075
6.340096 0.93740231 6.3779216
7.5993762 1.1276373 6.277029
6.7381682 0.9878397 6.1466799
0.11129311 -0.018780176 11.433838
2.2637327 0.28827894 14.507025
3.1640613 0.41790369 15.367378
4.0135045 0.54993021 12.997714
3.0369287 0.42367932 7.2834129
4.3246541 0.61401737 6.4879417
5.2249432 0.74460775 6.395452
1.7658219 0.13657022 30.463522
3.2588336 0.37864536 30.554674
3.6876543 0.49156252 14.360893
3.6872003 0.50390011 10.174332
3.7795343 0.52387798 7.9533892
3.8940914 0.54458266 6.5017028
4.6903973 0.65925533 6.3466382
5.734623 0.81008178 6.35675
6.3327403 0.91373777 6.3674078
7.4645901 1.0810212 6.1640453
0.11118427 -0.01915917 11.428839
2.2724366 0.28132892 14.556417
3.1604514 0.40620789 15.342903
4.0213184 0.53670681 13.016803
3.0325813 0.41228655 7.2696052
4.3239837 0.59853208 6.483809
5.2433834 0.72857022 6.4146395
1.7662878 0.1304055 30.463522
3.2601357 0.36726758 30.554674
3.7180178 0.48240575 14.472199
3.6889367 0.49102628 10.174332
3.7791827 0.51039046 7.9488878
4.0716906 0.55493236 6.7917867
4.916573 0.67354971 6.6458898
5.7542086 0.79237157 6.3751264
6.2264161 0.87622154 6.2587671
7.4567556 1.0533251 6.1546297
7.2332096 1.0075939 6.5856466
0.11107412 -0.019537631 11.423839
2.277262 0.27385828 14.581114
3.1557879 0.39441612 15.313532
4.0453711 0.52555031 13.088382
3.0533698 0.40426195 7.3156304
4.4631686 0.59718579 8.3194046
4.3065252 0.58080238 6.4548779
5.2617764 0.71241307 6.4338274
1.7667323 0.12423922 30.463522
3.2613978 0.35588536 30.554674
3.7047141 0.46753666 14.414127
3.6906283 0.47814649 10.174332
3.7766247 0.49662799 7.9398861
4.0736027 0.54071617 6.7917867
4.9188943 0.65638351 6.6458898
5.7838197 0.77588654 6.4045277
6.225904 0.85399735 6.2552624
7.5375056 1.0379087 6.2173991
7.2329831 0.98183692 6.5823212
0.11100525 -0.019925235 11.423839
2.2797477 0.26608747 14.590992
3.1510808 0.38266191 15.28416
4.0234861 0.50843281 13.012031
3.0780141 0.39659631 7.3708606
4.4676008 0.5819121 8.3237934
4.3224764 0.56759793 6.475543
5.2896533 0.69739312 6.4645276
1.7674432 0.1180905 30.468512
3.26262 0.34449881 30.554674
3.6738851 0.45062476 14.288302
3.695699 0.46569228 10.183718
4.142715 0.53517985 6.9027009
4.7986407 0.62329745 6.4822989
5.870533 0.76666719 6.4964066
6.2394509 0.83367646 6.2657757
7.5796595 1.0167662 6.2487831
7.095706 0.93798983 6.4559517
0.11093502 -0.020312594 11.423839
2.2876112 0.25891361 14.635446
3.1473413 0.37106454 15.259684
4.0474601 0.49711382 13.08361
3.1394734 0.3933773 7.5135388
4.4648528 0.56571168 8.3150148
4.4081717 0.56320393 6.5995312
5.2952337 0.6793322 6.4683642
1.7678446 0.11192024 30.468512
3.2632723 0.33305395 30.549702
3.651721 0.4349741 14.196353
3.6955893 0.45257932 10.179025
5.2943668 0.65860647 11.095237
5.4694552 0.68714976 9.0868597
4.7619238 0.60163373 6.4304285
5.9707041 0.7585606 6.6029863
6.2423234 0.81189162 6.2657757
7.5947413 0.99181414 6.2581987
7.0211692 0.90321183 6.3861165
0.11090592 -0.020709677 11.428839
2.2931356 0.25143433 14.665081
3.1445708 0.35961351 15.240103
4.0239735 0.47997791 13.002486
3.2048256 0.39020607 7.665422
4.4620461 0.54953754 8.3062372
4.4212809 0.54920042 6.6160631
5.3166571 0.66322476 6.4913898
1.7682245 0.10574863 30.468512
3.264415 0.321661 30.549702
3.2311687 0.37346649 12.560628
3.6834376 0.43804675 10.141482
5.2815046 0.63829356 11.063728
5.49512 0.67089796 9.1252527
4.7251148 0.58023399 6.3785582
5.9733152 0.73771441 6.6029863
6.2840376 0.7950204 6.3043256
7.5440998 0.95842999 6.2142606
7.0428028 0.88101494 6.4027438
0.1108182 -0.021174055 11.428839
2.3003926 0.24207601 14.704596
3.1410494 0.34533334 15.215627
4.6711178 0.53648448 15.0783
4.4596453 0.52949846 8.2974596
4.3398137 0.51986414 6.4920745
5.3195004 0.64002019 6.4913898
1.7686862 0.097723626 30.468512
3.265841 0.30684429 30.549702
3.2190878 0.35727569 12.507394
3.6237373 0.41364071 9.9725428
3.5718119 0.41463256 7.4987664
5.5163527 0.64712226 9.1551142
4.7457514 0.56007975 6.4024982
5.9834585 0.71035701 6.6103368
7.5325947 0.92492366 6.2017064
7.0949192 0.85485291 6.4459753
0.11090188 -0.021660011 11.448837
2.3074896 0.23386736 14.744109
3.1443775 0.33348468 15.225417
4.670176 0.5182156 15.068755
3.5503511 0.40773609 6.6164417
4.2746902 0.49542254 6.3928838
5.2677951 0.61328948 6.4261522
1.7690325 0.091240406 30.468512
3.2669437 0.29487231 30.549702
3.2203758 0.34547472 12.507394
3.638881 0.40250629 10.010085
3.5797276 0.40289235 7.5122705
4.0752158 0.4636673 6.7789888
4.7626457 0.54522395 6.4224486
5.9825344 0.68907863 6.6066613
6.6657581 0.78781235 6.6758075
7.5091906 0.89146662 6.1797371
7.1425076 0.83403939 6.4858813
0.11065617 -0.022005133 11.428839
2.3113852 0.22611353 14.763866
3.1333673 0.32126138 15.166675
4.6675038 0.5014323 15.054439
3.5422316 0.394281 6.5988851
4.3183398 0.48521048 6.4548779
5.2316833 0.59058356 6.3801017
1.7693402 0.085064776 30.468512
3.2684844 0.28351274 30.554674
3.2340648 0.33552787 12.555788
3.5029943 0.37510765 9.6346636
4.0405169 0.44543901 6.7192659
5.9781642 0.66743916 6.5993109
6.7109838 0.76941389 6.7178621
7.5083899 0.86480385 6.1765985
7.1045642 0.80448133 6.4493003
0.11048231 -0.022427883 11.418839
2.3123119 0.21642965 14.763866
3.1296189 0.30763587 15.142199
4.6829267 0.48325533 15.097386
3.555759 0.38071451 6.6208305
4.3231325 0.46742013 6.4590111
5.1576352 0.56035614 6.288002
1.7699829 0.077356227 30.473503
3.2696903 0.26924866 30.554674
3.6169975 0.35929051 14.031812
3.5166144 0.36105278 9.6675129
5.5855837 0.59108704 9.2574968
5.1772752 0.55152607 6.9690819
6.0248404 0.64604682 6.6470885
6.788456 0.75069928 6.7914577
7.4885902 0.8320775 6.1577682
7.0967369 0.77350122 6.4393244
0.11023423 -0.02277026 11.398839
2.3130169 0.20876056 14.763866
3.1225126 0.29648662 15.103037
4.6845036 0.46772355 15.097386
3.1747994 0.3248328 7.5779748
3.5570018 0.3689211 6.6208305
4.3274574 0.45337468 6.4631438
5.1722159 0.54459208 6.3033524
1.7705057 0.071806826 30.478495
3.2710514 0.25901732 30.559645
3.6318717 0.34924844 14.085046
3.4765184 0.34590417 9.5548868
5.5614691 0.57087386 9.2148371
5.2269387 0.5402143 7.0329223
5.9762616 0.62185359 6.5919609
6.8300414 0.73117399 6.8300076
7.4566193 0.80218548 6.1295218
7.0918365 0.74917889 6.432673
0.11015408 -0.023154911 11.398839
2.3129575 0.2006183 14.758926
3.1164305 0.28493673 15.06877
4.1036611 0.39528543 13.226769
3.107867 0.30702868 7.4168863
3.5415862 0.35483167 6.590107
4.3290133 0.43826628 6.4631438
5.1964068 0.52880561 6.3302145
1.771034 0.065636702 30.483486
3.2724669 0.24763778 30.564615
3.6268103 0.33598924 14.060848
3.4519379 0.33129478 9.4844952
3.53319 0.34590581 7.4042416
5.597167 0.55480105 9.2702942
5.2108026 0.52016997 7.0089822
5.9008126 0.59319019 6.507432
6.8609304 0.71026587 6.8580441
7.4787307 0.77816612 6.1452141
7.0424061 0.71910954 6.3861165
0.1102836 -0.023594677 11.423839
2.3136437 0.19254336 14.758926
3.1174061 0.27405661 15.06877
4.0975842 0.38026917 13.202909
2.9766695 0.28358379 7.1039143
3.5380356 0.3420063 6.5813289
4.3249154 0.42260531 6.4548779
5.1950312 0.51035023 6.3263769
1.7712524 0.05945424 30.483486
3.2733116 0.23621322 30.564615
3.6242054 0.32299271 14.04633
3.3877759 0.31320876 9.3061695
3.5387108 0.33397958 7.4132442
5.6172428 0.53699696 9.3001556
5.2125869 0.50197774 7.0089822
5.7813721 0.56080657 6.3751264
6.8953042 0.68950582 6.889585
7.0708833 0.69708663 6.4093947
0.11032706 -0.024013177 11.438837
2.3135271 0.18440442 14.753987
3.1163146 0.26300207 15.05898
4.1078072 0.36675972 13.231541
3.0729702 0.28193432 7.3294377
3.5248997 0.32832181 6.5549941
4.3235631 0.40724212 6.4507451
5.2223086 0.49463066 6.3570771
1.7714491 0.053271051 30.483486
3.274116 0.22478579 30.564615
3.4086466 0.29180333 13.209109
3.4077563 0.30306214 9.3577909
3.5376871 0.32142818 7.4087429
4.0348854 0.37153953 6.6979361
5.7292871 0.53557426 6.3163238
6.9260674 0.66817194 6.9176211
7.0769911 0.67275369 6.4127202
0.11046597 -0.024397178 11.463837
2.3132892 0.17747991 14.749049
3.1150515 0.25358954 15.049189
4.1341596 0.35675082 13.312665
3.0737932 0.27281538 7.3294377
3.5210326 0.31804639 6.5462165
4.307869 0.39363074 6.4259477
5.261971 0.48356476 6.4031272
1.7713025 0.048316322 30.478495
3.2747312 0.21564187 30.564615
3.446979 0.28599459 13.354293
3.4308889 0.29606757 9.4187965
3.5493588 0.31312171 7.4312487
4.0514307 0.36236873 6.7235317
4.8434205 0.43658707 6.5142193
5.7339554 0.52188063 6.3199992
6.8960624 0.64463192 6.8860803
7.1344967 0.65937781 6.4626026
0.11036822 -0.024636304 11.458837
2.3129113 0.17217319 14.744109
3.114604 0.24644083 15.044293
4.1572094 0.34996897 13.384245
3.0510013 0.26435414 7.2742076
3.5002196 0.3087751 6.5067143
4.3086839 0.38460749 6.4259477
5.1672001 0.46394503 6.288002
1.7713919 0.044915576 30.478495
3.2745705 0.20989205 30.559645
3.426223 0.27765146 13.272022
3.4417686 0.2903502 9.4469538
3.5390558 0.30598912 7.4087429
3.9429383 0.34573123 6.5443625
4.9311438 0.43668568 6.6299295
5.6706996 0.50614625 6.2501707
6.837132 0.62347835 6.8265033
7.1915278 0.65072614 6.512485
0.1102395 -0.025009817 11.453837
2.3127232 0.16404369 14.73917
3.1154451 0.23556732 15.044293
4.1182914 0.33149743 13.255402
3.0363741 0.25187841 7.2373877
3.5156984 0.29654294 6.5330491
4.3241477 0.36925748 6.4466124
5.1082673 0.43888861 6.2150893
1.7712692 0.037798416 30.473503
3.2754211 0.19617376 30.559645
3.4135697 0.26223895 13.218789
3.3982303 0.27234811 9.3249416
3.5360177 0.29018819 7.3997402
3.9210181 0.32657591 6.505969
4.9270692 0.41380018 6.6219492
5.6391573 0.47754791 6.213419
6.7895298 0.59524834 6.7774396
7.2016306 0.62123853 6.5191364
0.11010949 -0.025382731 11.448837
2.3117311 0.15586543 14.729291
3.1111708 0.22432518 15.019817
4.123888 0.31746346 13.269717
3.1073458 0.24684505 7.4030786
3.5143249 0.28407615 6.5286598
4.3338246 0.35484996 6.4590111
5.1097679 0.42105472 6.2150893
1.7713904 0.031615302 30.473503
3.2760859 0.18473922 30.559645
3.405689 0.24967891 13.184913
3.4112046 0.26140696 9.3577909
3.5348389 0.27767301 7.3952389
3.9351332 0.31392378 6.5272989
4.7392602 0.38137439 6.3705783
5.5664506 0.45182726 6.1325655
6.7915664 0.57154489 6.7774396
7.2111979 0.59671211 6.5257874
0.10993627 -0.025743157 11.438837
2.3114855 0.14774558 14.724352
3.1231084 0.21422948 15.073665
4.1130614 0.30219185 13.231541
3.1081884 0.23599689 7.4030786
3.515295 0.27180716 6.5286598
4.3434534 0.34037933 6.4714098
5.1144023 0.40346783 6.2189269
1.77149 0.025431804 30.473503
3.2767107 0.17330241 30.559645
3.3990164 0.23726454 13.155876
3.4413548 0.25163636 9.4375677
3.5422993 0.26582095 7.4087429
3.9362049 0.30018565 6.5272989
4.7796192 0.36783421 6.4224486
5.5679941 0.43239394 6.1325655
6.8219571 0.55012745 6.8054762
7.2392912 0.57360095 6.5490656
0.1098038 -0.026114715 11.433838
2.3112116 0.13962932 14.719413
3.1411104 0.20444956 15.156883
4.1021786 0.28699976 13.193365
3.2746208 0.23713443 7.7942929
3.5138338 0.25935858 6.524271
4.3474207 0.32542577 6.475543
5.1061902 0.38489008 6.2074142
1.7715678 0.019247996 30.473503
3.2772958 0.16186351 30.559645
3.3910444 0.22481672 13.122001
3.5540624 0.25423077 7.4312487
3.9372287 0.28644392 6.5272989
4.8049154 0.35291347 6.4543686
5.5255175 0.40969697 6.0847878
6.8273916 0.52658522 6.8089805
7.2822037 0.55142862 6.5856466
0.10954437 -0.026449122 11.413838
2.3109093 0.1315168 14.714473
3.1357071 0.19310871 15.127512
4.0942192 0.27208516 13.164734
3.2734795 0.22556819 7.7896905
3.5099397 0.24675564 6.5154929
4.362565 0.31124958 6.4962077
5.1362767 0.36913136 6.2419524
1.7716243 0.013063952 30.473503
3.278373 0.15044698 30.564615
3.3867903 0.21266356 13.102643
3.5015728 0.23147331 9.5971222
3.9616208 0.27431968 6.5656924
4.81213 0.33655944 6.4623489
5.5370593 0.39112332 6.0958138
6.8505282 0.5043208 6.8300076
7.2840843 0.52600557 6.5856466
0.10945138 -0.026831342 11.413838
2.3098028 0.12336674 14.704596
3.1211147 0.18127735 15.054084
4.0981236 0.25797945 13.174278
3.3073885 0.21630664 7.8679333
3.506 0.23418303 6.5067143
4.363625 0.29601946 6.4962077
5.172709 0.35360432 6.2841644
1.7716591 0.0068797502 30.473503
3.2788782 0.1390024 30.564615
3.3674357 0.19965091 13.025212
2.6859872 0.1681733 7.3727503
3.9837191 0.25701326 8.3179884
3.9781685 0.26151553 6.5912876
4.8433418 0.32175693 6.5022488
5.5755992 0.37429047 6.136241
6.8024421 0.47691348 6.7809443
7.230001 0.49673763 6.5357637
0.10935706 -0.027213234 11.413838
2.3071148 0.11514872 14.684838
3.1125784 0.16988277 15.010027
4.1004891 0.24376132 13.179049
3.4996257 0.22148973 6.4935474
4.2551107 0.27374175 6.3350224
5.2122946 0.3380349 6.3302145
1.7716724 0.00069521699 30.473503
3.2798762 0.12757678 30.569588
3.3543069 0.18712574 12.971978
2.684835 0.15869468 7.3680577
4.0154991 0.24989474 6.651011
4.8173699 0.30314571 6.4663386
5.5870209 0.35547137 6.1472659
6.8787904 0.45814198 6.8545394
7.1012864 0.46299568 6.4193716
0.10959554 -0.027695743 11.453837
2.3051744 0.10698693 14.670021
3.1009498 0.15839438 14.951284
4.1042953 0.22961308 13.188593
3.4121859 0.1992442 8.1118679
3.4908147 0.20870093 6.4759912
4.1661572 0.25342098 6.2027683
5.2486339 0.32199708 6.3724265
1.7716639 -0.0054890779 30.473503
3.2803016 0.11612711 30.569588
3.3373659 0.17449796 12.904226
2.6733115 0.14865179 7.3352084
3.9202156 0.22544757 8.182951
4.0449858 0.23755789 6.6979361
4.8123827 0.28597072 6.4583588
5.6051483 0.33698401 6.1656423
6.9657683 0.43951693 6.9386487
7.0618649 0.43567592 6.382791
0.10987372 -0.028193016 11.498836
2.3024287 0.098806851 14.650263
3.090296 0.14703757 14.897437
4.105072 0.21528502 13.188593
3.4050577 0.18690419 8.0934572
3.496304 0.19678348 6.4847689
4.1276851 0.23662275 6.144907
5.2721252 0.30496946 6.3992896
1.7719227 -0.011675372 30.478495
3.2812197 0.10469294 30.57456
3.3379548 0.16284733 12.904226
2.6651978 0.13887075 7.3117447
3.9231524 0.21187943 8.1874523
4.0900598 0.22588088 6.7704568
4.7983088 0.26832956 6.4384084
5.6333685 0.31894919 6.1950436
7.0277786 0.41880524 6.9982257
7.1043453 0.41340846 6.4193716
0.10977463 -0.028576374 11.498836
2.2996538 0.090647258 14.630506
3.0907905 0.13624953 14.897437
4.1072898 0.20102727 13.193365
3.3354504 0.17140985 7.9277668
3.4993613 0.18470408 6.4891582
4.1453457 0.22312021 6.1697049
5.2731581 0.28656444 6.3992896
1.7718712 -0.017860465 30.478495
3.2820981 0.093253784 30.579533
3.3410144 0.1513083 12.913905
2.6673896 0.12965031 7.3164372
3.8977778 0.19686666 8.1334381
4.0986366 0.21200654 6.7832546
4.796207 0.25142103 6.4344182
5.6412177 0.29964268 6.2023931
7.1004114 0.39826509 7.0683169
7.1504831 0.39105359 6.4592772
0.10934114 -0.02885494 11.458837
2.2968502 0.082508236 14.610749
3.0831082 0.12513007 14.858275
4.1049838 0.18655349 13.183822
3.3496883 0.16041966 7.9599843
3.5143375 0.1731949 6.5154929
4.1460996 0.20864889 6.1697049
5.2741261 0.26815593 6.3992896
1.771798 -0.024045341 30.478495
3.2824037 0.081796549 30.579533
3.3364987 0.13943538 12.894547
2.6385193 0.11901803 7.23666
3.8962674 0.18315753 8.1289368
4.0993519 0.19769834 6.7832546
4.7789979 0.23379444 6.4104786
5.6997919 0.28280488 6.2648711
7.123126 0.37460122 7.089344
7.1853647 0.36780906 6.4892068
0.10878228 -0.029091232 11.403839
2.2932413 0.074364804 14.586053
3.0845439 0.11440492 14.863171
4.1130667 0.17253584 13.207682
3.473187 0.15418063 8.2499428
3.5244904 0.16136444 6.5330491
4.1524243 0.19443819 6.1779704
5.2782316 0.24989574 6.4031272
1.7717032 -0.030229922 30.478495
3.2837353 0.070361033 30.589476
3.3344533 0.12769192 12.884869
2.6234012 0.1091622 7.1944256
3.8512099 0.16756977 8.0344114
4.1000171 0.18338771 6.7832546
4.7918253 0.21765795 6.4264383
5.771862 0.26618636 6.3420496
7.1671343 0.35183257 7.1313987
7.2089815 0.34379223 6.5091596
0.10892933 -0.02955085 11.433838
2.2950404 0.066404194 14.595931
3.0930655 0.10391007 14.902332
4.1196108 0.15840669 13.226769
3.4737041 0.142056 8.2499428
3.5369964 0.14956631 6.5549941
4.1587005 0.18018587 6.1862364
5.269465 0.23104863 6.3916144
1.7718757 -0.036420237 30.483486
3.2850263 0.058917198 30.599417
3.33111 0.11592078 12.870351
2.5927265 0.098822571 7.1099558
3.9213779 0.15690903 8.1784496
4.0876031 0.1685379 6.7619252
4.7895451 0.20080385 6.4224486
5.6542082 0.24098565 6.213419
7.1683187 0.32681245 7.1313987
7.1653767 0.3166483 6.469254
0.108867 -0.029944394 11.438837
2.2968116 0.058431927 14.60581
3.0974803 0.093234874 14.921913
4.1186471 0.14397353 13.221998
3.8197348 0.14284223 9.0645895
3.549463 0.13768286 6.5769396
4.4657903 0.17787084 6.6367278
5.2926579 0.21355768 6.4184771
1.7717377 -0.042605013 30.483486
3.286278 0.047465216 30.60936
3.3327506 0.1043316 12.87519
2.5930557 0.089771673 7.1099558
3.9327796 0.1436169 8.2009563
4.1194406 0.15544805 6.8131166
4.8022609 0.18454666 6.4384084
5.5974259 0.21899469 6.1509409
7.1801047 0.30223823 7.141912
7.1664381 0.29163453 6.469254
0.10884471 -0.030351497 11.448837
2.2985551 0.050448101 14.615688
3.103894 0.082584135 14.951284
4.1415038 0.1302992 13.293577
3.8241155 0.12964028 9.0737953
3.5642829 0.1257986 6.6032743
4.452323 0.16177055 6.6160631
5.3606358 0.1975598 6.4990649
1.7715783 -0.04878927 30.483486
3.2874899 0.03600521 30.619303
3.3205295 0.092348717 12.826796
2.6054268 0.081094883 7.1428046
3.9506629 0.13046244 8.2369661
4.1225643 0.14115676 6.8173819
4.7998648 0.16767737 6.4344182
5.5778284 0.19873062 6.12889
7.1918063 0.27758574 7.1524258
7.1562185 0.2662009 6.4592772
0.1087795 -0.030745033 11.453837
2.300271 0.04245282 14.625567
3.1031456 0.07172557 14.946389
4.1270123 0.11542507 13.245857
3.5838509 0.11396468 6.6383872
4.4303603 0.14548951 6.5829997
5.4125481 0.18055578 6.5604649
1.7716857 -0.054982059 30.48848
3.2865293 0.024521697 30.60936
3.3195751 0.080726855 12.821956
2.6125941 0.072190084 7.1615758
3.9532702 0.11673546 8.2414675
4.125639 0.12684558 6.8216481
4.7492199 0.14931266 6.3665881
5.5988183 0.17991228 6.1509409
