# .PCD v0.7 - Point Cloud Data file format
VERSION 0.7
FIELDS x y z
SIZE 4 4 4
TYPE F F F
COUNT 1 1 1
WIDTH 1444
HEIGHT 1
VIEWPOINT 0 0 0 1 0 0 0
POINTS 1444
DATA ascii
-0.89169252 0.18575497 0.89239001
-0.87712109 0.18240725 0.735879
-0.86699349 0.18014809 0.60597211
-0.84991139 0.17614183 0.48870388
-0.85138106 0.17629673 0.39174515
-0.85691231 0.17729148 0.30177018
-0.84851438 0.17555651 0.21306697
-0.84614849 0.17491825 0.12853025
-0.046395894 0.023209535 4.4291048
-0.65833336 0.1498733 4.2926393
-0.85713524 0.19105172 4.2454224
-1.2118028 0.26406565 4.0120687
-1.0457258 0.22521932 2.5796332
-0.97930789 0.20950107 1.9025706
-0.93920273 0.19990797 1.4829408
-0.92052585 0.19543801 1.2033087
-0.2528632 0.070080832 4.3771129
-0.4695479 0.11211366 4.4592505
-1.0562476 0.2341761 4.2029414
-1.0984713 0.23977815 3.1117187
-1.020817 0.22079755 2.2233443
-0.96035588 0.20650749 1.6769315
-0.92187917 0.19757059 1.3231975
-0.90623993 0.19356932 1.0828893
-0.90081692 0.18962035 0.98442477
-0.88673455 0.18618096 0.81297654
-0.86562467 0.18159534 0.66449493
-0.87289363 0.18281032 0.55339235
-0.86295611 0.18057686 0.44452715
-0.84552729 0.17678067 0.34384581
-0.8415032 0.17563796 0.25468066
-0.84802979 0.17700288 0.17072052
-0.89103872 0.18886644 0.89239001
-0.87647903 0.18546784 0.735879
-0.86635941 0.18317337 0.60597211
-0.84929138 0.17910749 0.48870388
-0.85076046 0.17926753 0.39174515
-0.85628825 0.18028158 0.30177018
-0.85274231 0.17953761 0.21375765
-0.84064382 0.17684232 0.12832873
-0.046277799 0.023347892 4.4241052
-0.65780622 0.1521704 4.2926393
-0.85547024 0.1938173 4.2405276
-1.2108736 0.26829404 4.0120687
-1.0449333 0.22886822 2.5796332
-0.9809109 0.21342762 1.9069598
-0.93849921 0.20318519 1.4829408
-0.91983807 0.19865006 1.2033087
-0.25289467 0.071042202 4.3821049
-0.46967164 0.11387808 4.464222
-1.0554237 0.23786165 4.2029414
-1.0976276 0.24361107 3.1117187
-1.0179141 0.22389171 2.218843
-0.95962918 0.20985851 1.6769315
-0.92118388 0.20078735 1.3231975
-0.90555871 0.19673151 1.0828893
-0.90363669 0.19351058 0.98792928
-0.88607925 0.18927512 0.81297654
-0.86498553 0.18461582 0.66449493
-0.8722502 0.18585618 0.55339235
-0.86232048 0.18358804 0.44452715
-0.84490502 0.17973103 0.34384581
-0.84088498 0.17857428 0.25468066
-0.84740674 0.17996196 0.17072052
-0.890374 0.19197559 0.89239001
-0.87582624 0.1885262 0.735879
-0.86571473 0.18619642 0.60597211
-0.84866101 0.18207099 0.48870388
-0.85012954 0.18223614 0.39174515
-0.8556537 0.18326949 0.30177018
-0.85211039 0.18251315 0.21375765
-0.84002143 0.17977563 0.12832873
-0.046196017 0.023509288 4.4241052
-0.65651464 0.15428756 4.2877002
-0.85478854 0.19680227 4.2405276
-1.2099298 0.27251914 4.0120687
-1.0441281 0.23251432 2.5796332
-0.98015994 0.21685034 1.9069598
-0.93778419 0.20645992 1.4829408
-0.91913909 0.20185968 1.2033087
-0.25264513 0.071924537 4.3821049
-0.46927124 0.11551685 4.464222
-1.054587 0.24154432 4.2029414
-1.0984539 0.24782099 3.1164114
-1.0171264 0.22744353 2.218843
-0.9588908 0.21320695 1.6769315
-0.92047739 0.20400167 1.3231975
-0.90486646 0.19989131 1.0828893
-0.90295571 0.19666366 0.98792928
-0.88541317 0.19236696 0.81297654
-0.86842203 0.18852127 0.66723639
-0.8715961 0.18889977 0.55339235
-0.86167443 0.18659699 0.44452715
-0.84427249 0.18267921 0.34384581
-0.84025651 0.18150844 0.25468066
-0.84677345 0.18291889 0.17072052
-0.88969845 0.19508241 0.89239001
-0.87516284 0.19158226 0.735879
-0.86505949 0.18921718 0.60597211
-0.84802032 0.18503225 0.48870388
-0.84948826 0.18520252 0.39174515
-0.85500878 0.18625516 0.30177018
-0.85630673 0.18654054 0.21444833
-0.83938879 0.18270676 0.12832873
-0.046077039 0.023646692 4.4191051
-0.65597212 0.15657829 4.2877002
-0.85310495 0.19955267 4.2356324
-1.2089711 0.27674094 4.0120687
-1.0452154 0.23658907 2.5842357
-0.97939706 0.22027041 1.9069598
-0.93705785 0.20973215 1.4829408
-0.91842884 0.20506684 1.2033087
-0.25211546 0.072724916 4.3771129
-0.4693822 0.11728388 4.4691935
-1.0549618 0.24550918 4.2077808
-1.0975821 0.25165379 3.1164114
-1.0163263 0.23099257 2.218843
-0.95814073 0.21655281 1.6769315
-0.92269921 0.20787594 1.3271875
-0.90416318 0.20304866 1.0828893
-0.90226376 0.19981438 0.98792928
-0.88473624 0.19545646 0.81297654
-0.86775863 0.19155148 0.66723639
-0.87093139 0.19194105 0.55339235
-0.86101776 0.18960366 0.44452715
-0.84362972 0.18562515 0.34384581
-0.84441572 0.18549436 0.2556133
-0.84612978 0.18587355 0.17072052
-0.8890121 0.19818684 0.89239001
-0.87448871 0.19463597 0.735879
-0.86439371 0.19223565 0.60597211
-0.85180002 0.18897437 0.49080193
-0.84883654 0.18816668 0.39174515
-0.85435343 0.18923855 0.30177018
-0.85565037 0.18952848 0.21444833
-0.83874595 0.18563566 0.12832873
-0.045994215 0.023807388 4.4191051
-0.65542156 0.15886711 4.2877002
-0.85141259 0.20229372 4.2307367
-1.2094516 0.28129768 4.0168409
-1.0443832 0.24023612 2.5842357
-0.9786222 0.2236878 1.9069598
-0.93632001 0.2130018 1.4829408
-0.91770744 0.2082715 1.2033087
-0.25186005 0.073604517 4.3771129
-0.46896994 0.11892162 4.4691935
-1.0553215 0.24947955 4.2126203
-1.0983776 0.25587526 3.1211042
-1.0155137 0.23453881 2.218843
-0.95483714 0.219312 1.6726656
-0.92196798 0.2110955 1.3271875
-0.90344888 0.20620355 1.0828893
-0.90156078 0.20296265 0.98792928
-0.88404864 0.19854358 0.81297654
-0.86708474 0.19457935 0.66723639
-0.87025613 0.19498 0.55339235
-0.86035073 0.19260801 0.44452715
-0.84297663 0.18856885 0.34384581
-0.84376305 0.1884408 0.2556133
-0.84547579 0.18882596 0.17072052
-0.8883149 0.20128886 0.89239001
-0.8777464 0.19857939 0.73882216
-0.86371744 0.19525178 0.60597211
-0.85113519 0.19194655 0.49080193
-0.84817457 0.19112852 0.39174515
-0.8489458 0.1911519 0.30059788
-0.85498363 0.19251411 0.21444833
-0.83809286 0.18856229 0.12832873
-0.045874368 0.023943828 4.4141049
-0.65410858 0.16096798 4.2827606
-0.84971148 0.2050254 4.2258415
-1.2084624 0.28551772 4.0168409
-1.0454406 0.24432501 2.5888383
-0.98016822 0.22764447 1.9113487
-0.93831247 0.21690284 1.4870737
-0.91697484 0.21147364 1.2033087
-0.25160161 0.074483231 4.3771129
-0.46855199 0.1205579 4.4691935
-1.0544442 0.25316179 4.2126203
-1.0974778 0.25970775 3.1211042
-1.0146888 0.23808219 2.218843
-0.9540658 0.22264367 1.6726656
-0.92122549 0.21431248 1.3271875
-0.90272361 0.20935592 1.0828893
-0.90084678 0.20610844 0.98792928
-0.87955552 0.20076197 0.80983812
-0.86640024 0.19760485 0.66723639
-0.8695702 0.19801657 0.55339235
-0.85967314 0.19561002 0.44452715
-0.84699088 0.19257382 0.34525582
-0.84310013 0.19138493 0.2556133
-0.8448115 0.19177608 0.17072052
-0.8876068 0.20438844 0.89239001
-0.8770479 0.20164208 0.73882216
-0.86303061 0.19826552 0.60597211
-0.85045993 0.1949164 0.49080193
-0.8521052 0.19514227 0.39338866
-0.84827334 0.19411409 0.30059788
-0.8543064 0.19549738 0.21444833
-0.84229976 0.19260028 0.12853025
-0.045769457 0.024143765 4.4141049
-0.65337139 0.16393456 4.2827606
-0.84778363 0.20863555 4.2209463
-1.2071543 0.29099861 4.0168409
-1.0443211 0.24906653 2.5888383
-0.97912514 0.23208998 1.9113487
-0.93731856 0.22115852 1.4870737
-0.91596812 0.21579242 1.2033087
-0.2509585 0.075627528 4.3721213
-0.46847266 0.12298204 4.4741645
-1.0531944 0.25831175 4.2126203
-1.0978729 0.26547369 3.125797
-1.0156301 0.24354585 2.2233443
-0.95550317 0.22790873 1.6769315
-0.92306036 0.21967025 1.3311775
-0.9016524 0.21392232 1.0828893
-0.89993894 0.21003716 0.98792928
-0.87867117 0.20459783 0.80983812
-0.86552972 0.20138334 0.66723639
-0.86866271 0.2019605 0.55339235
-0.85877669 0.19950907 0.44452715
-0.84610826 0.19641535 0.34525582
-0.84218889 0.19535582 0.2556133
-0.84389842 0.19575502 0.17072052
-0.89026833 0.20942405 0.89571548
-0.8760879 0.20577282 0.73882216
-0.86624801 0.20346655 0.60850531
-0.84946251 0.19921845 0.49080193
-0.85110664 0.19945264 0.39338866
-0.84727997 0.19840509 0.30059788
-0.85330594 0.19981889 0.21444833
-0.84131414 0.19686106 0.12853025
-0.045663677 0.024343243 4.4141049
-0.65264988 0.16678387 4.2827606
-0.84587777 0.21208486 4.2160516
-1.205873 0.29626301 4.0168409
-1.0432243 0.25362086 2.5888383
-0.98043108 0.23692277 1.9157379
-0.93908054 0.22590457 1.4912066
-0.91813439 0.2205358 1.2071462
-0.25062612 0.076721825 4.3721213
-0.4679316 0.12502496 4.4741645
-1.0520574 0.2629047 4.2126203
-1.096704 0.27026153 3.125797
-1.0166725 0.24849211 2.2278454
-0.95449966 0.23207572 1.6769315
-0.92209303 0.22369576 1.3311775
-0.90071046 0.21785446 1.0828893
-0.89554459 0.213136 0.98442477
-0.87777007 0.20842978 0.80983812
-0.8646428 0.20515801 0.66723639
-0.86777323 0.20574883 0.55339235
-0.85789794 0.20325428 0.44452715
-0.84524322 0.20010531 0.34525582
-0.8413285 0.19902869 0.2556133
-0.84788245 0.20058183 0.1711676
-0.88934606 0.21330656 0.89571548
-0.87125087 0.20865197 0.735879
-0.86535197 0.20724434 0.60850531
-0.85299921 0.20397866 0.49289995
-0.85022825 0.20316437 0.39338866
-0.84640616 0.20210014 0.30059788
-0.85724258 0.20469038 0.21513902
-0.84044713 0.2005301 0.12853025
-0.045578424 0.02450249 4.4141049
-0.65209323 0.1689472 4.2827606
-0.84516978 0.21488872 4.2160516
-1.2048839 0.30026022 4.0168409
-1.0442743 0.2575469 2.5934405
-0.97964007 0.24017268 1.9157379
-0.93832624 0.22901744 1.4912066
-0.91743702 0.22341911 1.2071462
-0.25039738 0.07746511 4.3721213
-0.46755859 0.12641278 4.4741645
-1.0488355 0.26540792 4.2029414
-1.0958973 0.2735143 3.125797
-1.0159307 0.25150755 2.2278454
-0.95633924 0.23553063 1.6811975
-0.9214648 0.22626984 1.3311775
-0.90339142 0.22117522 1.0865644
-0.89479512 0.21626075 0.98442477
-0.87703717 0.21149251 0.80983812
-0.8639214 0.20817491 0.66723639
-0.86708617 0.20862533 0.55339235
-0.8617267 0.20718186 0.4464002
-0.84457499 0.20290713 0.34525582
-0.84069908 0.20167081 0.2556133
-0.84724814 0.20324454 0.1711676
-0.88867158 0.21609947 0.89571548
-0.8705911 0.21138807 0.735879
-0.86473328 0.20981096 0.60850531
-0.85242623 0.20635988 0.49289995
-0.8496576 0.20553787 0.39338866
-0.84583855 0.20446298 0.30059788
-0.86148107 0.20824705 0.21582969
-0.83988392 0.20287628 0.12853025
-0.045492616 0.02466144 4.4141049
-0.65074819 0.17102459 4.2778215
-0.84342867 0.217583 4.2111559
-1.2038286 0.30446419 4.0168409
-1.0433689 0.26119053 2.5934405
-0.97879571 0.2435908 1.9157379
-0.93752116 0.23229142 1.4912066
-0.91976309 0.22738965 1.2109838
-0.25012547 0.07833869 4.3721213
-0.46711448 0.12804411 4.4741645
-1.0466853 0.2687546 4.1981015
-1.0966086 0.27776194 3.1304898
-1.0150466 0.25505224 2.2278454
-0.95551127 0.23886745 1.6811975
-0.92359304 0.23021396 1.3351675
-0.90261388 0.22432731 1.0865644
-0.89403474 0.21938284 0.98442477
-0.8800742 0.21547845 0.81297654
-0.86318946 0.21118928 0.66723639
-0.86635262 0.21165076 0.55339235
-0.86099827 0.21018858 0.4464002
-0.84386158 0.20585401 0.34525582
-0.83998996 0.20460416 0.2556133
-0.84653354 0.20620073 0.1711676
-0.8879118 0.21920021 0.89571548
-0.86984789 0.2144257 0.735879
-0.86818123 0.21385935 0.61103851
-0.85610807 0.21041751 0.49499801
-0.84893495 0.20850247 0.39338866
-0.84511966 0.20741425 0.30059788
-0.86555815 0.21243329 0.21652037
-0.83917063 0.20580678 0.12853025
-0.045449503 0.024740802 4.4141049
-0.65044868 0.1721601 4.2778215
-0.84308583 0.21890759 4.2111559
-1.2047952 0.30672321 4.0216126
-1.0430032 0.26264709 2.5934405
-0.9807778 0.24553902 1.9201269
-0.93723661 0.23343663 1.4912066
-0.91948456 0.2285132 1.2109838
-0.25005701 0.078556933 4.3721213
-0.46751639 0.1285935 4.4791365
-1.0440631 0.26885796 4.1884232
-1.0964146 0.27852747 3.1304898
-1.0149128 0.2555837 2.2278454
-0.95538604 0.23936772 1.6811975
-0.9235127 0.23053633 1.3351675
-0.9025355 0.22464237 1.0865644
-0.89711255 0.221799 0.98792928
-0.87973458 0.21686061 0.81297654
-0.86691672 0.21354517 0.66997784
-0.86605626 0.21286021 0.55339235
-0.86070395 0.21139055 0.4464002
-0.84360945 0.20688483 0.34525582
-0.83973938 0.20563026 0.2556133
-0.84628099 0.20723483 0.1711676
-0.88772023 0.21997496 0.89571548
-0.86969799 0.21503291 0.735879
-0.86803174 0.21446541 0.61103851
-0.85596097 0.21101512 0.49499801
-0.84882563 0.20894694 0.39338866
-0.84973091 0.2090178 0.30177018
-0.86548394 0.21273541 0.21652037
-0.83909875 0.20609969 0.12853025
-0.045385763 0.024947787 4.4191051
-0.64972186 0.17488319 4.2778215
-0.84212267 0.22258414 4.2111559
-1.2034454 0.31197721 4.0216126
-1.0436929 0.26786324 2.5980432
-0.97965348 0.24998713 1.9201269
-0.9388535 0.23854381 1.4953396
-0.92150438 0.23363149 1.2148212
-0.24964225 0.079865143 4.3721213
-0.46683666 0.13103963 4.4791365
-1.0413777 0.27418271 4.1835837
-1.0965617 0.28488964 3.1351826
-1.0113616 0.26070443 2.2233443
-0.95403427 0.24469984 1.6811975
-0.92216957 0.23585154 1.3351675
-0.9012267 0.22983684 1.0865644
-0.8962149 0.22539844 0.98792928
-0.88259375 0.22149129 0.81611502
-0.8660146 0.21717462 0.66997784
-0.86511928 0.21663705 0.55339235
-0.8597734 0.21514407 0.4464002
-0.84266198 0.21071087 0.34525582
-0.83876103 0.20958513 0.2556133
-0.84046358 0.21001323 0.17072052
-0.88659543 0.22446528 0.89571548
-0.87247884 0.22057453 0.73882216
-0.86689693 0.21900745 0.61103851
-0.85920739 0.21675348 0.49709606
-0.84760815 0.21383235 0.39338866
-0.84851295 0.2139084 0.30177018
-0.86420637 0.21786754 0.21652037
-0.83786094 0.21107535 0.12853025
-0.045267697 0.025161386 4.4191051
-0.64814126 0.17773716 4.2728825
-0.84008133 0.226285 4.2062607
-1.2034051 0.31802639 4.0263848
-1.0424191 0.27277854 2.5980432
-0.97842014 0.25477162 1.9201269
-0.93767655 0.24312906 1.4953396
-0.92035168 0.23813201 1.2148212
-0.24923483 0.081127666 4.3721213
-0.46667981 0.13354795 4.484108
-1.0375488 0.27879724 4.1739044
-1.0951056 0.29043615 3.1351826
-1.0099827 0.26599631 2.2233443
-0.95273995 0.24969175 1.6811975
-0.92092198 0.24067676 1.3351675
-0.90329146 0.23540761 1.0902396
-0.89514279 0.22961923 0.98792928
-0.88154018 0.22564794 0.81611502
-0.86494297 0.22140417 0.66997784
-0.86834204 0.22195937 0.55571121
-0.85871172 0.21934313 0.4464002
-0.84162217 0.21482636 0.34525582
-0.84244913 0.21504277 0.2565459
-0.83938986 0.21426448 0.17072052
-0.88544792 0.22894984 0.89571548
-0.87131196 0.22513977 0.73882216
-0.86991221 0.22462136 0.61357164
-0.85806066 0.22124928 0.49709606
-0.846515 0.21811971 0.39338866
-0.85208809 0.21956113 0.30294251
-0.86305374 0.22238949 0.21652037
-0.83674425 0.21545947 0.12853025
-0.045179591 0.025319245 4.4191051
-0.64754832 0.17988549 4.2728825
-0.83932632 0.22906956 4.2062607
-1.2037858 0.32240164 4.0311565
-1.0415088 0.27623382 2.5980432
-0.97761488 0.25784412 1.9201269
-0.93690813 0.24607363 1.4953396
-0.919599 0.24102218 1.2148212
-0.24873339 0.081732169 4.3671293
-0.46681702 0.13499917 4.4890795
-1.0355533 0.28136379 4.1690655
-1.095957 0.29394037 3.1398752
-1.0092828 0.26863953 2.2233443
-0.95208299 0.2521852 1.6811975
-0.92028874 0.24308689 1.3351675
-0.90267205 0.23777162 1.0902396
-0.89778709 0.2336408 0.9914338
-0.88074714 0.22872372 0.81611502
-0.86420399 0.22427119 0.66997784
-0.86760122 0.22483769 0.55571121
-0.85797966 0.2221895 0.4464002
-0.84090513 0.2176161 0.34525582
-0.84180737 0.2175414 0.2565459
-0.83875042 0.21675405 0.17072052
-0.88837677 0.23252159 0.899041
-0.87067986 0.22757207 0.73882216
-0.86928153 0.22704975 0.61357164
-0.85308677 0.22235014 0.49499801
-0.85051078 0.22152546 0.39503217
-0.85154909 0.22164252 0.30294251
-0.86250776 0.22449766 0.21652037
-0.83621526 0.21750338 0.12853025
-0.045090936 0.025476797 4.4191051
-0.64616865 0.18193386 4.2679429
-0.8385216 0.23199795 4.2062607
-1.2026531 0.32660165 4.0311565
-1.0405382 0.27986771 2.5980432
-0.97902256 0.26187414 1.9245161
-0.9360435 0.24934258 1.4953396
-0.91565448 0.2434071 1.2109838
-0.24844657 0.082599916 4.3671293
-0.46634296 0.13662785 4.4890795
-1.0345649 0.28497681 4.1690655
-1.0949243 0.29776418 3.1398752
-1.0104407 0.27272841 2.2278454
-0.95119691 0.25550705 1.6811975
-0.91943467 0.24629782 1.3351675
-0.90183657 0.24092107 1.0902396
-0.8969661 0.23677327 0.9914338
-0.87994337 0.23179671 0.81611502
-0.8634159 0.22728646 0.66997784
-0.87109536 0.22899115 0.55803001
-0.85271502 0.2240051 0.44452715
-0.8401404 0.22055009 0.34525582
-0.84579456 0.22172423 0.25747854
-0.84280586 0.22094338 0.1711676
-0.88755971 0.2356212 0.899041
-0.8698802 0.23060991 0.73882216
-0.86848366 0.23008272 0.61357164
-0.85230541 0.22532661 0.49499801
-0.8451668 0.22328667 0.39338866
-0.85077024 0.22461365 0.30294251
-0.86171889 0.22750703 0.21652037
-0.83545095 0.22042099 0.12853025
-0.044984035 0.025577357 4.4141049
-0.64565808 0.18373759 4.2679429
-0.83787048 0.23433866 4.2062607
-1.2031758 0.33035421 4.0359287
-1.0398021 0.28259087 2.5980432
-0.97833365 0.26443633 1.9245161
-0.93538743 0.25179228 1.4953396
-0.91501409 0.24580345 1.2109838
-0.24797064 0.083113946 4.3621383
-0.46651873 0.1379185 4.4940505
-1.0326545 0.28716692 4.1642261
-1.0958575 0.30089578 3.1445682
-1.0119196 0.27559254 2.2323468
-0.95313179 0.25834703 1.6854634
-0.92178226 0.24916981 1.3391576
-0.90460342 0.24369137 1.0939147
-0.89630139 0.23927712 0.9914338
-0.87929267 0.23425306 0.81611502
-0.86281794 0.22954609 0.66997784
-0.87049282 0.23127088 0.55803001
-0.85212564 0.22623673 0.44452715
-0.83956009 0.22274879 0.34525582
-0.84521121 0.22393776 0.25747854
-0.84222454 0.22314909 0.1711676
-0.88698131 0.2377892 0.899041
-0.86935472 0.232583 0.73882216
-0.86795938 0.23205265 0.61357164
-0.85175228 0.2274085 0.49499801
-0.84918123 0.22656855 0.39503217
-0.84556168 0.22529195 0.30177018
-0.86120045 0.22946161 0.21652037
-0.83494872 0.222316 0.12853025
-0.044876501 0.025765561 4.4141049
-0.64410383 0.18633677 4.2630038
-0.83683997 0.2379923 4.2062607
-1.2031604 0.33600256 4.0407004
-1.0403918 0.28782749 2.6026456
-0.9794327 0.26950872 1.928905
-0.93423522 0.25603431 1.4953396
-0.91388923 0.24995311 1.2109838
-0.24756151 0.084324755 4.3621383
-0.46583915 0.14019668 4.4940505
-1.0300294 0.29186708 4.1593862
-1.0959822 0.30690405 3.1492608
-1.0125602 0.28147039 2.2368479
-0.95176607 0.26333407 1.6854634
-0.92046493 0.2539928 1.3391576
-0.90327173 0.24858214 1.0939147
-0.89529121 0.24302945 0.9914338
-0.87830371 0.23793414 0.81611502
-0.86180812 0.23330866 0.66997784
-0.86947548 0.23506692 0.55803001
-0.85113043 0.22995266 0.44452715
-0.83854067 0.2265563 0.34525582
-0.84888893 0.22919871 0.25841114
-0.84116364 0.22711547 0.1711676
-0.88941032 0.24310556 0.90236646
-0.86816639 0.2369802 0.73882216
-0.86261493 0.23530822 0.61103851
-0.84621143 0.23052366 0.49289995
-0.84802359 0.23086374 0.39503217
-0.84437048 0.22971618 0.30177018
-0.8599872 0.23396768 0.21652037
-0.83855438 0.2281418 0.12873179
-0.044786293 0.025922053 4.4141049
-0.64348239 0.18847167 4.2630038
-0.83702457 0.24104807 4.2111559
-1.2020395 0.33999053 4.0407004
-1.0413127 0.29180333 2.6072483
-0.97853357 0.27275518 1.928905
-0.93338108 0.25913095 1.4953396
-0.91305536 0.25298229 1.2109838
-0.24702275 0.085007094 4.3571463
-0.4653964 0.14165947 4.4940505
-1.0278993 0.29475489 4.1545467
-1.0967271 0.31062499 3.1539536
-1.0117205 0.28447348 2.2368479
-0.95349205 0.26685998 1.6897295
-0.9197073 0.25672275 1.3391576
-0.90253019 0.25126112 1.0939147
-0.89787579 0.24709953 0.99493837
-0.87746781 0.24099857 0.81611502
-0.8609885 0.2363155 0.66997784
-0.86437738 0.23692937 0.55571121
-0.85479373 0.23414712 0.4464002
-0.84241158 0.23060235 0.34666586
-0.85290313 0.23315983 0.25934377
-0.84524977 0.23107021 0.17161468
-0.88864213 0.24589851 0.90236646
-0.86741757 0.23970646 0.73882216
-0.86187148 0.23801701 0.61103851
-0.84552372 0.2330334 0.49289995
-0.84733486 0.23337883 0.39503217
-0.84368521 0.23222047 0.30177018
-0.85928923 0.23651828 0.21652037
-0.83791399 0.23048259 0.12873179
-0.044713728 0.026047019 4.4141049
-0.64295352 0.19026788 4.2630038
-0.83634818 0.24338455 4.2111559
-1.2025806 0.34354645 4.0454726
-1.0424249 0.29506075 2.6118507
-0.98012143 0.2759653 1.9332942
-0.9327451 0.26141083 1.4953396
-0.91243446 0.25521255 1.2109838
-0.24682924 0.085567348 4.3571463
-0.46558329 0.14287189 4.4990225
-1.0272278 0.29708639 4.1545467
-1.0977334 0.3133952 3.1586463
-1.0132169 0.28718561 2.241349
-0.95293111 0.26885638 1.6897295
-0.9192127 0.258488 1.3391576
-0.90204614 0.25299338 1.0939147
-0.89718223 0.24960591 0.99493837
-0.87683386 0.24329495 0.81611502
-0.86036688 0.23856875 0.66997784
-0.86375421 0.23919149 0.55571121
-0.85421908 0.23623508 0.4464002
-0.84184557 0.23266007 0.34666586
-0.8522898 0.23539191 0.25934377
-0.84468263 0.23313485 0.17161468
-0.88808197 0.24791415 0.90236646
-0.87080729 0.24260756 0.74176532
-0.8613711 0.2398216 0.61103851
-0.84936547 0.23616716 0.49499801
-0.84684426 0.23515299 0.39503217
-0.84319699 0.23398697 0.30177018
-0.8540203 0.23699325 0.21582969
-0.83746994 0.23209085 0.12873179
-0.044649951 0.026156196 4.4141049
-0.64248669 0.19183832 4.2630038
-0.83672786 0.24571456 4.2160516
-1.2017376 0.34648389 4.0454726
-1.0435793 0.29814383 2.6164534
-0.98174787 0.27901429 1.9376832
-0.93481123 0.26445538 1.4994725
-0.91489273 0.25831237 1.2148212
-0.24661942 0.086170211 4.3571463
-0.46523279 0.1440091 4.4990225
-1.0252923 0.29924309 4.1497078
-1.0986226 0.31655452 3.1633391
-1.0125122 0.28966051 2.241349
-0.95227128 0.27118403 1.6897295
-0.91857839 0.26073328 1.3391576
-0.90142524 0.25519675 1.0939147
-0.89656967 0.25179741 0.99493837
-0.87623674 0.24543671 0.81611502
-0.85978132 0.24067032 0.66997784
-0.86316717 0.24130133 0.55571121
-0.8536393 0.2383216 0.4464002
-0.84127462 0.23471642 0.34666586
-0.85644382 0.23879312 0.26027638
-0.84411043 0.2351981 0.17161468
-0.88747352 0.25008342 0.90236646
-0.8702119 0.24473464 0.74176532
-0.8607825 0.24192561 0.61103851
-0.84878582 0.23824185 0.49499801
-0.8462671 0.23722151 0.39503217
-0.83794224 0.23473537 0.30059788
-0.85343868 0.2390793 0.21582969
-0.83690035 0.23413646 0.12873179
-0.044547502 0.026415521 4.4191051
-0.64143938 0.1953117 4.2630038
-0.83636135 0.25053045 4.2209463
-1.2011539 0.35382158 4.0502448
-1.0437201 0.30469713 2.6210558
-0.98012459 0.28466409 1.9376832
-0.93317831 0.27016085 1.4994725
-0.91329777 0.26389629 1.2148212
-0.24604249 0.087803945 4.3571463
-0.4642418 0.14717247 4.4990225
-1.0220275 0.3058545 4.1448684
-1.0980406 0.32470611 3.1680319
-1.0104135 0.29689842 2.241349
-0.95030636 0.27799129 1.6897295
-0.91664243 0.26745972 1.3391576
-0.89948463 0.26195461 1.0939147
-0.89523894 0.25648835 0.99493837
-0.87485236 0.25032669 0.81611502
-0.86244404 0.24661821 0.67271936
-0.86180598 0.24611835 0.55571121
-0.8566677 0.24465615 0.44827321
-0.83986694 0.23970446 0.34666586
-0.85973555 0.24521852 0.26120901
-0.84261596 0.24049713 0.17161468
-0.88579541 0.2559638 0.90236646
-0.86852592 0.25065225 0.74176532
-0.85907257 0.24792905 0.61103851
-0.84710193 0.24416162 0.49499801
-0.84908563 0.2445783 0.39667568
-0.8361991 0.24087144 0.30059788
-0.84690464 0.24395806 0.21513902
-0.8350777 0.24055643 0.12873179
-0.044455022 0.026570862 4.4191051
-0.6400457 0.19720858 4.2580643
-0.83650041 0.25359824 4.2258415
-1.2000364 0.35759336 4.0502448
-1.0446315 0.30852813 2.6256583
-0.98152328 0.28841725 1.9420724
-0.93237263 0.27292845 1.4994725
-0.91558731 0.26750401 1.2186587
-0.24581179 0.088447779 4.3571463
-0.46388078 0.14830638 4.4990225
-1.0212772 0.30835089 4.1448684
-1.0988975 0.32788172 3.1727247
-1.0097373 0.29919019 2.241349
-0.95217454 0.28088489 1.6939954
-0.91892385 0.27038962 1.3431475
-0.89893407 0.2638379 1.0939147
-0.89433825 0.25961176 0.99493837
-0.87401742 0.25322643 0.81611502
-0.8616215 0.24947684 0.67271936
-0.8609851 0.24897487 0.55571121
-0.85589492 0.24734625 0.44827321
-0.83910972 0.2423418 0.34666586
-0.8590042 0.2477683 0.26120901
-0.84194112 0.2428492 0.17161468
-0.88512224 0.25828192 0.90236646
-0.87174726 0.25405627 0.74470848
-0.85846418 0.25002742 0.61103851
-0.84654576 0.24608301 0.49499801
-0.8485285 0.24650419 0.39667568
-0.83569276 0.24262226 0.30059788
-0.84639186 0.24573128 0.21513902
-0.83461428 0.24215922 0.12873179
-0.044408578 0.026648412 4.4191051
-0.63895851 0.19809499 4.2531252
-0.83707494 0.25520909 4.2307367
-1.2009031 0.35990664 4.0550165
-1.0441997 0.30998644 2.6256583
-0.98111963 0.28978744 1.9420724
-0.93473822 0.27486143 1.5036055
-0.91525978 0.2686224 1.2186587
-0.24573451 0.088662259 4.3571463
-0.4637512 0.14871113 4.4990225
-1.0198586 0.3086994 4.1400285
-1.1003215 0.32914358 3.1774173
-1.0116673 0.3003386 2.2458501
-0.95202738 0.2813834 1.6939954
-0.91882944 0.27071035 1.3431475
-0.89884192 0.26415166 1.0939147
-0.89388376 0.26117226 0.99493837
-0.87361854 0.25459903 0.81611502
-0.86122853 0.25082996 0.67271936
-0.86489034 0.2514134 0.55803001
-0.85554868 0.24854107 0.44827321
-0.83881307 0.24336678 0.34666586
-0.85870081 0.24881759 0.26120901
-0.84164381 0.24387765 0.17161468
-0.88489652 0.25905424 0.90236646
-0.87156969 0.25466478 0.74470848
-0.85828948 0.25062668 0.61103851
-0.84637374 0.24667396 0.49499801
-0.84386533 0.24562863 0.39503217
-0.84023279 0.2444175 0.30177018
-0.84630603 0.24602669 0.21513902
-0.8345297 0.24245055 0.12873179
-0.04431529 0.026803263 4.4191051
-0.63826317 0.20032415 4.2531252
-0.83613396 0.25827542 4.2307367
-1.1995759 0.36430579 4.0550165
-1.0448723 0.3145569 2.6302607
-0.97999966 0.29355252 1.9420724
-0.93362731 0.27861145 1.5036055
-0.91417408 0.27229431 1.2186587
-0.24534531 0.08973363 4.3571463
-0.46259117 0.15056778 4.4940505
-1.0172459 0.31295437 4.1351891
-1.0988166 0.33413327 3.1774173
-1.0102407 0.30510262 2.2458501
-0.95069081 0.28586659 1.6939954
-0.91749555 0.27519736 1.3431475
-0.90078813 0.26951301 1.09759
-0.89638621 0.26530319 0.99844289
-0.87267953 0.2577993 0.81611502
-0.8603034 0.25398484 0.67271936
-0.86391866 0.25473249 0.55803001
-0.85458809 0.25182429 0.44827321
-0.83782935 0.24673203 0.34666586
-0.8576951 0.25226262 0.26120901
-0.84065807 0.24725427 0.17161468
-0.88375777 0.26291287 0.90236646
-0.87040508 0.25861722 0.74470848
-0.86127573 0.2557461 0.61357164
-0.84959704 0.25180191 0.49709606
-0.84722614 0.25094366 0.39667568
-0.83907169 0.24837427 0.30177018
-0.84509361 0.25015959 0.21513902
-0.83333486 0.24652591 0.12873179
-0.044221457 0.026957789 4.4191051
-0.6368196 0.20231532 4.2481861
-0.83619905 0.26149663 4.2356324
-1.1982969 0.36849087 4.0550165
-1.0437679 0.31820229 2.6302607
-0.98126078 0.29766697 1.9464613
-0.93534273 0.28268301 1.5077385
-0.9101494 0.27455786 1.2148212
-0.24503058 0.090589501 4.3571463
-0.46155664 0.15201442 4.4890795
-1.0161473 0.31650332 4.1351891
-1.0976436 0.33796683 3.1774173
-1.0112512 0.30926397 2.2503514
-0.94968718 0.28918338 1.6939954
-0.91652936 0.27839836 1.3431475
-0.89984185 0.27265567 1.09759
-0.89545465 0.26843053 0.99844289
-0.87550324 0.26195982 0.81925344
-0.8594116 0.25698629 0.67271936
-0.86726868 0.25901434 0.56034881
-0.8537038 0.2548058 0.44827321
-0.836963 0.2496551 0.34666586
-0.85680926 0.25525501 0.26120901
-0.83978981 0.25018719 0.17161468
-0.88283461 0.26599616 0.90236646
-0.86949706 0.26165393 0.74470848
-0.86037779 0.25875098 0.61357164
-0.84871298 0.25476602 0.49709606
-0.84634501 0.25389951 0.39667568
-0.84285533 0.25269759 0.30294251
-0.84421521 0.25310799 0.21513902
-0.83246928 0.24943329 0.12873179
-0.044127088 0.027111985 4.4191051
-0.6353699 0.20429881 4.2432466
-0.83528113 0.26441392 4.2356324
-1.1970034 0.37267146 4.0550165
-1.0445175 0.32242018 2.6348634
-0.98021573 0.30109039 1.9464613
-0.93435031 0.28594622 1.5077385
-0.90918553 0.27773318 1.2148212
-0.24471287 0.091444261 4.3571463
-0.46001202 0.15328668 4.4791365
-1.0138377 0.31967026 4.1303501
-1.0964572 0.34179625 3.1774173
-1.0101656 0.31279203 2.2503514
-0.95116413 0.29326525 1.6982613
-0.918432 0.28248197 1.3471376
-0.90212554 0.27678964 1.1012651
-0.89792466 0.27259076 1.0019474
-0.87458354 0.26501429 0.81925344
-0.85850936 0.25998464 0.67271936
-0.86635929 0.26204011 0.56034881
-0.85724682 0.25912574 0.45014626
-0.84067857 0.25396246 0.3480759
-0.85591304 0.25824428 0.26120901
-0.83891135 0.25311708 0.17161468
-0.88190079 0.2690762 0.90236646
-0.86857837 0.26468745 0.74470848
-0.85946929 0.26175267 0.61357164
-0.84781849 0.25772703 0.49709606
-0.84545362 0.25685227 0.39667568
-0.84196818 0.25563815 0.30294251
-0.84332663 0.2560533 0.21513902
-0.83637422 0.25378829 0.12893331
-0.043984525 0.027342662 4.4191051
-0.63425523 0.20773348 4.2432466
-0.83480728 0.26924211 4.2405276
-1.1949033 0.3793509 4.0550165
-1.0427005 0.32824883 2.6348634
-0.98080426 0.30727643 1.9508505
-0.9353739 0.29216212 1.5118713
-0.90757084 0.28296509 1.2148212
-0.2438803 0.092833668 4.3521547
-0.45853534 0.15600185 4.4741645
-1.0106127 0.32564828 4.1255107
-1.094288 0.34867868 3.1774173
-1.0101999 0.31996632 2.2548525
-0.94925052 0.29940143 1.6982613
-0.91658866 0.288407 1.3471376
-0.90026999 0.28276661 1.1012651
-0.89648503 0.27728853 1.0019474
-0.87685567 0.27089137 0.82239193
-0.85709012 0.26462579 0.67271936
-0.86492884 0.26672369 0.56034881
-0.85578614 0.26390943 0.45014626
-0.83924705 0.2586537 0.3480759
-0.84971696 0.26172364 0.26027638
-0.8373946 0.25809079 0.17161468
-0.88380522 0.27556998 0.90569204
-0.86694533 0.26998833 0.74470848
-0.86192352 0.26842958 0.61610484
-0.85047013 0.2645447 0.49919412
-0.84377736 0.26230657 0.39667568
-0.84025419 0.26121664 0.30294251
-0.84160984 0.26164079 0.21513902
-0.83462739 0.25947538 0.12893331
-0.043888815 0.027496029 4.4191051
-0.63356292 0.20983562 4.2432466
-0.83487773 0.27232492 4.2454224
-1.1937057 0.38310295 4.0550165
-1.0416642 0.33152294 2.6348634
-0.97983408 0.3103562 1.9508505
-0.9345029 0.29493612 1.5118713
-0.90672725 0.28565663 1.2148212
-0.24363643 0.093471825 4.3521547
-0.45764869 0.15694843 4.4691935
-1.0086187 0.32772809 4.1206708
-1.0934328 0.3513515 3.1774173
-1.0094713 0.32225758 2.2548525
-0.95105416 0.30234477 1.7025272
-0.91880417 0.29139704 1.3511276
-0.89967585 0.28465152 1.1012651
-0.89891493 0.28148201 1.005452
-0.87595254 0.27379769 0.82239193
-0.85620791 0.26746655 0.67271936
-0.8640396 0.26959044 0.56034881
-0.85495287 0.26659667 0.45014626
-0.84301013 0.26271629 0.34948593
-0.84893668 0.26424363 0.26027638
-0.83667064 0.26042825 0.17161468
-0.88664228 0.27900374 0.90901756
-0.86623549 0.27225703 0.74470848
-0.861265 0.27053484 0.61610484
-0.8498677 0.26647368 0.49919412
-0.84317994 0.26422036 0.39667568
-0.83970529 0.2629759 0.30294251
-0.84106004 0.26340288 0.21513902
-0.83412772 0.26107728 0.12893331
-0.043758191 0.027622193 4.4141049
-0.63282657 0.21204589 4.2432466
-0.83488888 0.27555692 4.2503181
-1.1923611 0.38726741 4.0550165
-1.0423601 0.33575615 2.6394658
-0.9810254 0.31450593 1.9552395
-0.93346769 0.29819635 1.5118713
-0.90877831 0.28979394 1.2186587
-0.24330866 0.094321705 4.3521547
-0.45659462 0.15836984 4.464222
-1.0062745 0.330854 4.1158314
-1.0921996 0.35516617 3.1774173
-1.0083402 0.32577932 2.2548525
-0.95247549 0.30646169 1.7067931
-0.91778141 0.29460248 1.3511276
-0.90190536 0.28882435 1.1049403
-0.89792693 0.28461808 1.005452
-0.87499148 0.27685365 0.82239193
-0.85526901 0.27045366 0.67271936
-0.86731732 0.2739391 0.56266761
-0.85401708 0.26957938 0.45014626
-0.84208792 0.26565734 0.34948593
-0.84800911 0.26720536 0.26027638
-0.83575648 0.26334718 0.17161468
-0.88566291 0.28209698 0.90901756
-0.86913157 0.27650467 0.74765164
-0.86031544 0.27353957 0.61610484
-0.84893233 0.26943865 0.49919412
-0.84225255 0.267162 0.39667568
-0.84341556 0.26737431 0.30411482
-0.8401354 0.26633713 0.21513902
-0.83797395 0.26549631 0.12913485
-0.043661501 0.02777477 4.4141049
-0.63208252 0.21425356 4.2432466
-0.83392185 0.27846953 4.2503181
-1.189584 0.39096093 4.0502448
-1.0411817 0.33939263 2.6394658
-0.97992164 0.31792843 1.9552395
-0.93509853 0.30231878 1.5160043
-0.90776116 0.2929644 1.2186587
-0.24297793 0.095170446 4.3521547
-0.4550333 0.1596089 4.4542785
-1.0051134 0.3343645 4.1158314
-1.0909532 0.35897648 3.1774173
-1.009266 0.32997382 2.2593539
-0.95387983 0.31059226 1.7110591
-0.91674745 0.29780433 1.3511276
-0.90089166 0.29197085 1.1049403
-0.89692795 0.28775072 1.005452
-0.8740198 0.27990624 0.82239193
-0.85830206 0.2747122 0.67546082
-0.86635584 0.27696496 0.56266761
-0.85307086 0.27255881 0.45014626
-0.84572518 0.2700544 0.35089597
-0.84707123 0.27016386 0.26027638
-0.83483213 0.26626292 0.17161468
-0.88822651 0.28633255 0.91234308
-0.86816108 0.27953681 0.74765164
-0.85935533 0.27654096 0.61610484
-0.8479867 0.27240032 0.49919412
-0.84581095 0.27154392 0.39831915
-0.84247714 0.27031675 0.30411482
-0.84391594 0.27078113 0.21582969
-0.83704209 0.26841977 0.12913485
-0.043530095 0.0278999 4.4091058
-0.63059586 0.21620631 4.2383075
-0.83390939 0.2817049 4.2552133
-1.1882119 0.39511099 4.0502448
-1.041846 0.34363714 2.6440685
-0.9788059 0.32134706 1.9552395
-0.93403763 0.30558103 1.5160043
-0.90977985 0.29712656 1.2224963
-0.24264425 0.096018016 4.3521547
-0.45397118 0.16101767 4.4493074
-1.0027491 0.33746991 4.1109924
-1.0913308 0.36332771 3.1821103
-1.0101748 0.33417869 2.263855
-0.9527899 0.31392002 1.7110591
-0.91856486 0.30194372 1.3551177
-0.899867 0.29511374 1.1049403
-0.89591807 0.29087982 1.005452
-0.8730374 0.28295544 0.82239193
-0.85733795 0.27770656 0.67546082
-0.86538374 0.27998739 0.56266761
-0.8521142 0.27553493 0.45014626
-0.84477735 0.27300492 0.35089597
-0.85079771 0.27462801 0.26120901
-0.83389759 0.26917538 0.17161468
-0.88722163 0.2894313 0.91234308
-0.86718005 0.28256553 0.74765164
-0.85838479 0.27953902 0.61610484
-0.84271455 0.27395546 0.49709606
-0.84485793 0.27449468 0.39831915
-0.84615141 0.27475709 0.30528715
-0.8429656 0.27372527 0.21582969
-0.83610004 0.27133995 0.12913485
-0.043432441 0.02805168 4.4091058
-0.62983739 0.21840619 4.2383075
-0.83388448 0.28494358 4.2601085
-1.1868255 0.3992562 4.0502448
-1.0424932 0.34789035 2.6486709
-0.97767824 0.32476178 1.9552395
-0.93296522 0.30883959 1.5160043
-0.90873712 0.30030048 1.2224963
-0.24257526 0.096972607 4.3571463
-0.4524031 0.16224055 4.4393644
-1.000375 0.34056279 4.106153
-1.0916911 0.36768591 3.1868029
-1.0090021 0.33770281 2.263855
-0.95416236 0.31806892 1.715325
-0.91750526 0.30514827 1.3551177
-0.89561373 0.29718521 1.1012651
-0.89489722 0.29400539 1.005452
-0.87204432 0.28600118 0.82239193
-0.8563633 0.28069752 0.67546082
-0.86440116 0.28300646 0.56266761
-0.85114729 0.27850768 0.45014626
-0.84381926 0.27595207 0.35089597
-0.84983391 0.27759618 0.26120901
-0.83768672 0.27363092 0.17206176
-0.88620591 0.29252651 0.91234308
-0.87002718 0.28685665 0.75059479
-0.85740381 0.28253362 0.61610484
-0.84175313 0.27689543 0.49709606
-0.84389466 0.27744213 0.39831915
-0.85442257 0.28074372 0.30763176
-0.84200495 0.27666613 0.21582969
-0.8351478 0.27425686 0.12913485
-0.043300256 0.028175768 4.4041057
-0.6283381 0.22034596 4.2333684
-0.83384693 0.28818545 4.2650032
-1.1854247 0.40339658 4.0502448
-1.0431234 0.35215226 2.6532736
-0.9765386 0.3281725 1.9552395
-0.93454981 0.31298819 1.5201373
-0.91072315 0.30448726 1.2263339
-0.24250257 0.097927891 4.3621383
-0.45083213 0.16345447 4.4294214
-0.99918008 0.34405267 4.106153
-1.0936679 0.37260777 3.1961884
-1.0098791 0.34192115 2.2683563
-0.95304626 0.32139763 1.715325
-0.91643453 0.3083491 1.3551177
-0.89457095 0.30030969 1.1012651
-0.89386547 0.29712737 1.005452
-0.8710407 0.28904343 0.82239193
-0.85537833 0.28368509 0.67546082
-0.86340797 0.28602207 0.56266761
-0.8501699 0.28147703 0.45014626
-0.84285086 0.27889585 0.35089597
-0.84885973 0.28056097 0.26120901
-0.83672649 0.27655333 0.17206176
-0.8851794 0.29561815 0.91234308
-0.86902052 0.28989187 0.75059479
-0.85641235 0.28552479 0.61610484
-0.84078145 0.27983198 0.49709606
-0.84292102 0.28038618 0.39831915
-0.86266214 0.28679138 0.3099764
-0.84103405 0.2796036 0.21582969
-0.83418536 0.27717039 0.12913485
-0.043201644 0.02832674 4.4041057
-0.62683284 0.22227791 4.2284288
-0.83379704 0.29143056 4.2698989
-1.1840093 0.40753201 4.0502448
-1.0418878 0.35579127 2.6532736
-0.97538716 0.33157927 1.9552395
-0.93345153 0.31624848 1.5201373
-0.90965474 0.30766442 1.2263339
-0.24215925 0.098773785 4.3621383
-0.44925815 0.16465938 4.4194784
-0.99678612 0.34712481 4.1013131
-1.0939921 0.37698555 3.2008812
-1.0107388 0.34614971 2.2728574
-0.9519186 0.32472241 1.715325
-0.91820508 0.31251726 1.3591076
-0.8935172 0.3034305 1.1012651
-0.89282286 0.30024573 1.005452
-0.87371635 0.2933211 0.82553035
-0.85438287 0.28666919 0.67546082
-0.86240435 0.28903419 0.56266761
-0.85357797 0.28591549 0.45201927
-0.84187222 0.28183627 0.35089597
-0.84787518 0.28352234 0.26120901
-0.8404789 0.2810517 0.17250884
-0.8841421 0.2987062 0.91234308
-0.86800331 0.29292354 0.75059479
-0.85541046 0.28851247 0.61610484
-0.84410071 0.28421351 0.49919412
-0.84641272 0.28483301 0.39996269
-0.87086993 0.2929 0.31232107
-0.8400529 0.28253761 0.21582969
-0.83321279 0.28008053 0.12913485
-0.043103419 0.02839715 4.399106
-0.62559527 0.22343791 4.2234898
-0.83409399 0.29366001 4.2747941
-1.1831532 0.41001093 4.0502448
-1.0429878 0.35860807 2.657876
-0.97701478 0.3342267 1.9596287
-0.93284267 0.31803998 1.5201373
-0.90906245 0.30941027 1.2263339
-0.24171978 0.099085756 4.3571463
-0.4474988 0.16481087 4.4045639
-0.9962396 0.34869009 4.1013131
-1.095029 0.37926844 3.205574
-1.0102545 0.34756064 2.2728574
-0.9514643 0.32605124 1.715325
-0.91782254 0.31363881 1.3591076
-0.8931458 0.30452189 1.1012651
-0.89213932 0.30227071 1.005452
-0.87310004 0.29515034 0.82553035
-0.85378057 0.28845796 0.67546082
-0.86599433 0.29225636 0.56498641
-0.85302752 0.28755373 0.45201927
-0.84132957 0.283452 0.35089597
-0.85198504 0.28671643 0.26214162
-0.83993781 0.28266481 0.17250884
-0.88367182 0.30009466 0.91234308
-0.86754215 0.29428664 0.75059479
-0.85500675 0.28970659 0.61610484
-0.8436532 0.28553906 0.49919412
-0.84596425 0.2861622 0.39996269
-0.87506491 0.29567161 0.31349337
-0.8396576 0.28371027 0.21582969
-0.83286995 0.28109828 0.12913485
-0.042974114 0.028592454 4.399106
-0.62453538 0.22638346 4.2234898
-0.83365959 0.29793024 4.2796893
-1.1811354 0.41578797 4.0502448
-1.0412229 0.36370078 2.657876
-0.97531062 0.33916748 1.9596287
-0.93116468 0.32291996 1.5201373
-0.90742987 0.31416583 1.2263339
-0.24089654 0.10032221 4.3521547
-0.44554418 0.16701041 4.3946209
-0.99296898 0.35417324 4.0964737
-1.0927591 0.38575977 3.205574
-1.0101668 0.35444635 2.2773588
-0.94945478 0.33185726 1.715325
-0.91583383 0.31939942 1.3591076
-0.89436233 0.31139812 1.1049403
-0.89413083 0.30747586 1.0089566
-0.87169951 0.29926145 0.82553035
-0.85241175 0.29247808 0.67546082
-0.86455572 0.29648489 0.56498641
-0.85156113 0.29186758 0.45201927
-0.8398841 0.28770673 0.35089597
-0.85047209 0.29117346 0.26214162
-0.84315771 0.28867191 0.17295592
-0.88545716 0.30640036 0.91566855
-0.86583281 0.29927844 0.75059479
-0.85734701 0.2961829 0.61863804
-0.8462342 0.29202098 0.50129217
-0.84420043 0.29132453 0.39996269
-0.88237995 0.30433369 0.31583801
-0.8378585 0.28898036 0.21582969
-0.83103734 0.28647083 0.12913485
-0.04291914 0.028674906 4.399106
-0.62340939 0.22720675 4.2185502
-0.83313835 0.29938477 4.2796893
-1.1790737 0.41714472 4.0454726
-1.0424936 0.36598316 2.6624784
-0.97709697 0.34131894 1.9640176
-0.93076944 0.32405734 1.5201373
-0.90710038 0.31511593 1.2263339
-0.24056044 0.10037816 4.3471627
-0.44346118 0.16649242 4.3747349
-0.9928453 0.35451981 4.0964737
-1.094319 0.38652542 3.2102668
-1.0101048 0.35462266 2.2773588
-0.95191664 0.33271796 1.7195909
-0.91867894 0.32039186 1.3630977
-0.89447099 0.31108591 1.1049403
-0.89353883 0.30919188 1.0089566
-0.87117589 0.30078238 0.82553035
-0.85190004 0.2939654 0.67546082
-0.86832911 0.29913467 0.56730521
-0.85115278 0.29305628 0.45201927
-0.83953196 0.28873262 0.35089597
-0.85011572 0.29221228 0.26214162
-0.84285498 0.28955469 0.17295592
-0.88529664 0.30686396 0.91566855
-0.86567593 0.29973173 0.75059479
-0.8572436 0.29648215 0.61863804
-0.84613216 0.29231632 0.50129217
-0.84420043 0.29132453 0.39996269
-0.88697487 0.30591854 0.31701031
-0.83790886 0.28883415 0.21582969
-0.83108735 0.28632578 0.12913485
-0.042818785 0.028824547 4.399106
-0.62261254 0.22938147 4.2185502
-0.83304513 0.30263904 4.284584
-1.1775367 0.42146343 4.0454726
-1.0411452 0.36980164 2.6624784
-0.97577918 0.34506819 1.9640176
-0.92951828 0.32762888 1.5201373
-0.90885156 0.31981885 1.2301713
-0.23987235 0.10127163 4.3421717
-0.44123635 0.16785584 4.3598204
-0.9901073 0.35842052 4.0916348
-1.0925537 0.39148727 3.2102668
-1.0105358 0.35993329 2.2818599
-0.95033824 0.33720005 1.7195909
-0.9171589 0.32471746 1.3630977
-0.89613652 0.3165828 1.1086154
-0.89582014 0.31348714 1.0124611
-0.8737421 0.30525732 0.82866883
-0.85476452 0.29846439 0.67820227
-0.87135684 0.3039256 0.56962395
-0.85002124 0.29632232 0.45201927
-0.83836621 0.2921004 0.35089597
-0.84898746 0.29547432 0.26214162
-0.84168583 0.29293579 0.17295592
-0.88394922 0.31072387 0.91566855
-0.86435992 0.30350608 0.75059479
-0.85995692 0.30179673 0.62117118
-0.84484869 0.29600546 0.50129217
-0.84286976 0.29515237 0.39996269
-0.8855775 0.30994037 0.31701031
-0.84121245 0.29441538 0.21652037
-0.82972884 0.29023901 0.12913485
-0.042751376 0.02900183 4.4041057
-0.62180799 0.23155338 4.2185502
-0.83293939 0.30589631 4.2894797
-1.1746547 0.42506316 4.0407004
-1.0416865 0.37409413 2.6670809
-0.97682387 0.34927878 1.9684068
-0.93101966 0.33181641 1.5242703
-0.90772969 0.32298937 1.2301713
-0.23925225 0.10199409 4.3371797
-0.43865824 0.16862813 4.3399343
-0.98766965 0.36144227 4.0867953
-1.0928029 0.39588654 3.2149594
-1.0092733 0.36345854 2.2818599
-0.94915539 0.34051532 1.7195909
-0.91885674 0.32893273 1.3670877
-0.89502597 0.31970894 1.1086154
-0.89472049 0.31661221 1.0124611
-0.87267125 0.30830538 0.82866883
-0.85371751 0.30144626 0.67820227
-0.87029064 0.30696538 0.56962395
-0.84898168 0.29928765 0.45201927
-0.83734143 0.29502505 0.35089597
-0.84795088 0.29843605 0.26214162
-0.84065819 0.29587206 0.17295592
-0.88637727 0.31505817 0.91899407
-0.8632952 0.30652142 0.75059479
-0.86296082 0.30623853 0.62370437
-0.83953232 0.29743698 0.49919412
-0.84183431 0.29809272 0.39996269
-0.88907236 0.3146514 0.31818265
-0.84017968 0.29734993 0.21652037
-0.82871068 0.29313353 0.12913485
-0.04264988 0.029150883 4.4041057
-0.62099594 0.23372249 4.2185502
-0.83282101 0.30915657 4.2943749
-1.1717622 0.42864791 4.0359287
-1.0422108 0.37839496 2.6716835
-0.97559869 0.35268638 1.9684068
-0.92985576 0.33506423 1.5242703
-0.9096126 0.32724118 1.2340088
-0.23889479 0.10282861 4.3371797
-0.43608007 0.16938445 4.3200483
-0.98640203 0.36488768 4.0867953
-1.0930347 0.40029237 3.2196524
-1.010044 0.36772427 2.2863612
-0.94796097 0.34382641 1.7195909
-0.91770297 0.33213815 1.3670877
-0.89390451 0.32283124 1.1086154
-0.89696759 0.32093507 1.0159656
-0.87158978 0.31134969 0.82866883
-0.85266 0.30442443 0.67820227
-0.86921376 0.31000137 0.56962395
-0.8479318 0.30224931 0.45201927
-0.84082532 0.29955608 0.35230598
-0.84690398 0.30139413 0.26214162
-0.83962029 0.29880467 0.17295592
-0.88527215 0.31815028 0.91899407
-0.8660242 0.31089887 0.75353795
-0.86188656 0.30924895 0.62370437
-0.838489 0.30036572 0.49919412
-0.84078866 0.30102944 0.39996269
-0.8879686 0.31775296 0.31818265
-0.8391366 0.30028093 0.21652037
-0.82768238 0.2960245 0.12913485
-0.042547863 0.029299581 4.4041057
-0.61945027 0.23561223 4.2136111
-0.8336432 0.31277758 4.3041654
-1.1702588 0.43273553 4.0359287
-1.0408835 0.38203064 2.6716835
-0.97661096 0.35691193 1.9727957
-0.93132454 0.3392714 1.5284033
-0.91147691 0.33151007 1.2378463
-0.23853438 0.10366188 4.3371797
-0.43300599 0.16992967 4.2951908
-0.98394501 0.36788824 4.0819554
-1.0932491 0.4047046 3.2243452
-1.0087543 0.37124774 2.2863612
-0.94920361 0.34803128 1.7238568
-0.916538 0.33533949 1.3670877
-0.89595664 0.32711241 1.1122906
-0.89584184 0.32406408 1.0159656
-0.87049758 0.31439021 0.82866883
-0.8555252 0.30881876 0.68094373
-0.86812639 0.31303361 0.56962395
-0.84687161 0.30520731 0.45201927
-0.83977455 0.30248928 0.35230598
-0.84122461 0.30268538 0.26120901
-0.83388627 0.30004761 0.17250884
-0.88415623 0.32123852 0.91899407
-0.86493367 0.31391996 0.75353795
-0.86485422 0.31372577 0.62623757
-0.83743542 0.30329072 0.49919412
-0.83973271 0.30396253 0.39996269
-0.88685399 0.32085058 0.31818265
-0.84274 0.30489299 0.21721105
-0.83134222 0.30061069 0.12933637
-0.042445332 0.029447924 4.4041057
-0.61862409 0.23777308 4.2136111
-0.8334983 0.31604689 4.3090606
-1.1673429 0.43629509 4.0311565
-1.0413753 0.38634136 2.676286
-0.9753592 0.36031878 1.9727957
-0.93013453 0.34252024 1.5284033
-0.91332245 0.33579591 1.2416838
-0.23817109 0.10449389 4.3371797
-0.4304288 0.17065242 4.2753048
-0.98265487 0.37132061 4.0819554
-1.0934459 0.40912321 3.2290378
-1.0074522 0.37476668 2.2863612
-0.94798297 0.35134253 1.7238568
-0.91536188 0.33853677 1.3670877
-0.89480937 0.3302379 1.1122906
-0.89470518 0.32718921 1.0159656
-0.87305105 0.31876197 0.83180726
-0.854442 0.31180322 0.68094373
-0.86286652 0.31454477 0.56730521
-0.84580112 0.30816159 0.45201927
-0.84322107 0.30706027 0.35371602
-0.84016293 0.30561996 0.26120901
-0.83283383 0.30295658 0.17250884
-0.88302952 0.32432285 0.91899407
-0.86762726 0.31832963 0.75648111
-0.86375386 0.31674275 0.62623757
-0.84063345 0.30777255 0.50129217
-0.83423209 0.30526906 0.39831915
-0.88116378 0.32227474 0.31701031
-0.84167057 0.30783287 0.21721105
-0.83028781 0.30351079 0.12933637
-0.042273052 0.029619116 4.399106
-0.61745471 0.24079339 4.2136111
-0.83289409 0.32048222 4.3139558
-1.1638012 0.44146499 4.0263848
-1.0394748 0.39142585 2.676286
-0.97358674 0.36508098 1.9727957
-0.92844957 0.34706163 1.5284033
-0.91167057 0.34025523 1.2416838
-0.23763914 0.10569804 4.3371797
-0.42857084 0.17242995 4.2653613
-0.9795894 0.37583905 4.077116
-1.0929743 0.41526541 3.2337308
-1.0075788 0.38063055 2.2908626
-0.94863331 0.35705504 1.7281228
-0.91363662 0.34316546 1.3670877
-0.89312643 0.33476266 1.1122906
-0.89315343 0.33140177 1.0159656
-0.87153924 0.32287258 0.83180726
-0.85296315 0.31582621 0.68094373
-0.86137474 0.31860742 0.56730521
-0.84433949 0.31214386 0.45201927
-0.84176475 0.31103045 0.35371602
-0.83865935 0.3097221 0.26120901
-0.83134335 0.30702293 0.17250884
-0.88143396 0.32863423 0.91899407
-0.86606127 0.32256582 0.75648111
-0.85815573 0.31945601 0.62370437
-0.8390649 0.31202343 0.50129217
-0.83262223 0.3096329 0.39831915
-0.87946421 0.32688406 0.31701031
-0.84004724 0.31223556 0.21721105
-0.82868725 0.307854 0.12933637
-0.042153813 0.029788572 4.399106
-0.61576045 0.24298452 4.208672
-0.83349824 0.32456246 4.3237462
-1.1620197 0.44613323 4.0263848
-1.0397207 0.3962914 2.6808887
-0.97435242 0.36983633 1.977185
-0.92968076 0.3517819 1.5325361
-0.91329563 0.34504512 1.2455213
-0.23721293 0.10665113 4.3371797
-0.4288623 0.17455178 4.2753048
-0.97807276 0.37976834 4.077116
-1.0929092 0.4202691 3.2384233
-1.0060428 0.38467216 2.2908626
-0.94719231 0.3608602 1.7281228
-0.91225171 0.34683028 1.3670877
-0.89177537 0.33834523 1.1122906
-0.89181584 0.33498439 1.0159656
-0.87388057 0.32773548 0.83494574
-0.8516885 0.31924766 0.68094373
-0.86008883 0.32206264 0.56730521
-0.84307969 0.31553078 0.45201927
-0.84500235 0.31608775 0.35512605
-0.83740926 0.31308618 0.26120901
-0.83010417 0.31035766 0.17250884
-0.8801077 0.33216992 0.91899407
-0.86475939 0.32603982 0.75648111
-0.85686642 0.3228983 0.62370437
-0.84205312 0.31698817 0.50339019
-0.83137262 0.31297275 0.39831915
-0.87359577 0.32870007 0.31583801
-0.83878708 0.31560522 0.21721105
-0.82744479 0.31117806 0.12933637
-0.042049572 0.029935535 4.399106
-0.61422962 0.24473721 4.2037325
-0.8333649 0.32769755 4.3286414
-1.1605339 0.44998416 4.0263848
-1.0384008 0.39973706 2.6808887
-0.97312063 0.37306538 1.977185
-0.92850906 0.35486293 1.5325361
-0.91214639 0.34807181 1.2455213
-0.23687671 0.10739584 4.3371797
-0.42781889 0.17569527 4.2703333
-0.97687489 0.38283914 4.077116
-1.0931921 0.42432511 3.2431161
-1.0068601 0.38861483 2.2953637
-0.94848812 0.36477044 1.7323887
-0.91397077 0.35077435 1.3710777
-0.89070809 0.34114513 1.1122906
-0.89064109 0.3380954 1.0159656
-0.87273115 0.33078387 0.83494574
-0.85447913 0.32370013 0.68368518
-0.85895938 0.32506293 0.56730521
-0.84197313 0.31847173 0.45201927
-0.84838098 0.32073185 0.35653609
-0.83636647 0.31586143 0.26120901
-0.83372927 0.31486818 0.17295592
-0.8824901 0.33641678 0.92231953
-0.86367351 0.32890567 0.75648111
-0.85176212 0.32420439 0.62117118
-0.84105313 0.31963199 0.50339019
