# .PCD v0.7 - Point Cloud Data file format
VERSION 0.7
FIELDS x y z
SIZE 4 4 4
TYPE F F F
COUNT 1 1 1
WIDTH 1482
HEIGHT 1
VIEWPOINT 0 0 0 1 0 0 0
POINTS 1482
DATA ascii
-1.7738802 -3.5120113 12.6255
-1.3608532 -2.7107086 7.2051702
-1.4725069 -2.9432836 6.0985303
-1.3296018 -2.6645889 4.4462652
-1.2489028 -2.5061338 3.4290612
-0.22790439 -0.39341804 7.7015576
-1.7744449 -3.4814332 15.081967
-1.4539587 -2.8761337 8.8181229
-1.4419664 -2.8659968 6.6975508
-1.393441 -2.7779584 5.1536679
-1.2774982 -2.5512431 3.8528728
-1.2131647 -2.4269736 3.019701
-1.1969334 -2.4123681 2.7261841
-1.1471359 -2.3150282 2.1656513
-1.0978042 -2.2164361 1.706252
-1.0694681 -2.1611073 1.3487407
-1.0548161 -2.1324248 1.0495168
-1.0334672 -2.0901728 0.77531582
-1.0138702 -2.05233 0.52607316
-0.99467427 -2.0134671 0.29456142
-1.1681758 -2.3461661 2.4154692
-1.1245648 -2.2605412 1.9219728
-1.0833329 -2.1786034 1.5153832
-1.0602924 -2.1350558 1.1894534
-1.0458585 -2.1069031 0.90780699
-1.0219469 -2.0596244 0.6452592
-0.9992311 -2.0138381 0.4057667
-0.98325753 -1.9825028 0.18294361
-1.7108884 -3.3181093 17.97164
-1.7813848 -3.4964876 12.592095
-1.3632456 -2.6919992 7.1683497
-1.4687436 -2.9103303 6.041472
-1.3237115 -2.6297693 4.3966699
-1.244686 -2.4759855 3.3945236
-0.2292763 -0.39262012 7.7015576
-1.7865865 -3.4752178 15.081967
-1.4357663 -2.8156979 8.6491833
-1.4440796 -2.8454161 6.661541
-1.3854666 -2.7381718 5.0896788
-1.2728099 -2.5198724 3.8129725
-1.2094173 -2.3985074 2.9902995
-1.1941731 -2.3858521 2.7016525
-1.1447675 -2.2901204 2.1468205
-1.0924512 -2.1864073 1.6870618
-1.0671121 -2.1375442 1.3371466
-1.0539733 -2.1121373 1.0420246
-1.0321922 -2.069382 0.76967573
-1.0100727 -2.0267959 0.52141005
-0.9928115 -1.9921541 0.2927731
-1.1629509 -2.3153815 2.388865
-1.1197577 -2.2313137 1.9013705
-1.0812665 -2.1555429 1.5027175
-1.0636729 -2.1232262 1.1852573
-1.0405203 -2.0779054 0.89794594
-1.0204277 -2.0386586 0.64056993
-0.99738836 -1.9926245 0.40300399
-0.98346549 -1.9656546 0.18233901
-1.7238698 -3.3148267 17.986324
-1.775839 -3.4557297 12.468024
-1.3655241 -2.6733057 7.1315298
-1.4615086 -2.8710363 5.9712467
-1.3163205 -2.5925143 4.3429413
-1.2402743 -2.4458976 3.3599863
-0.23064539 -0.39181742 7.7015576
-1.7981278 -3.4678445 15.077127
-1.4163806 -2.7538898 8.4755497
-1.4470589 -2.8267937 6.6300325
-1.3772314 -2.6984744 5.0256896
-1.2679182 -2.4885659 3.7730725
-1.2070235 -2.3731189 2.9645736
-1.1912422 -2.3593848 2.6771207
-1.1404868 -2.2617824 2.1248515
-1.0887842 -2.1601772 1.6706131
-1.0646045 -2.1140242 1.3255527
-1.0530019 -2.091882 1.0345325
-1.0264724 -2.040055 0.76121551
-1.0039029 -1.9969245 0.5158143
-0.98857516 -1.9664296 0.29053769
-1.1592133 -2.2879937 2.3655865
-1.116586 -2.2057538 1.8837116
-1.0809989 -2.1363699 1.4925847
-1.0669837 -2.1113989 1.1810611
-1.0371215 -2.0531859 0.88972837
-1.0165837 -2.0133896 0.6347084
-0.99540985 -1.9714487 0.40024126
-0.98131704 -1.9443696 0.18153289
-1.7368491 -3.3114941 18.001011
-1.7720912 -3.4190292 12.358268
-1.3676887 -2.6546295 7.0947094
-1.4463595 -2.8169153 5.8702984
-1.3099687 -2.5578482 4.2933459
-1.2371274 -2.4187243 3.3292859
-0.23201168 -0.39100993 7.7015576
-1.8131347 -3.4671159 15.101325
-1.4013497 -2.7014432 8.3300743
-1.4509248 -2.8101194 6.6030254
-1.3699301 -2.6611876 4.9659667
-1.2628237 -2.4573245 3.7331722
-1.2029197 -2.3447607 2.9351723
-1.186523 -2.3297896 2.6490843
-1.137787 -2.2369716 2.1060207
-1.0849476 -2.1339993 1.6541643
-1.0639524 -2.0944974 1.3162776
-1.0519019 -2.0716596 1.0270404
-1.0227318 -2.0150714 0.75416535
-1.0019807 -1.9758837 0.51208383
-0.98642391 -1.9452008 0.2887494
-1.1569979 -2.2639852 2.3456335
-1.1114115 -2.1766438 1.8631094
-1.0766912 -2.1095459 1.4773858
-1.0557971 -2.0712702 1.1621786
-1.0335631 -2.0285158 0.88151085
-1.0125759 -1.9881727 0.62884676
-0.9955433 -1.9547242 0.39816925
-0.98129845 -1.9275756 0.18092829
-1.7488741 -3.3063114 18.005907
-1.7307645 -3.3109639 11.990826
-1.3697395 -2.6359706 7.0578895
-1.4330534 -2.7671888 5.7781277
-1.3033909 -2.5232582 4.2437506
-1.2338061 -2.3916032 3.2985859
-0.23322642 -0.38995022 7.6965656
-1.8269854 -3.4641013 15.115843
-1.38677 -2.6506646 8.189292
-1.4536862 -2.791522 6.5715165
-1.3611835 -2.6216702 4.9019775
-1.2575266 -2.4261491 3.6932716
-1.2001908 -2.3194709 2.909446
-1.1816115 -2.3002563 2.621048
-1.1331513 -2.2087445 2.0840514
-1.0828495 -2.1115956 1.6404569
-1.0611569 -2.0710588 1.3046836
-1.0485604 -2.0473437 1.0176752
-1.0210153 -1.994409 0.7485252
-0.99768668 -1.9505073 0.50742072
-0.98413664 -1.9240111 0.28696108
-1.1529182 -2.2367008 2.322355
-1.1078982 -2.1511905 1.8454504
-1.0741826 -2.086611 1.4647198
-1.0505692 -2.0433545 1.1495904
-1.0298451 -2.003896 0.87329328
-1.0084046 -1.9630084 0.62298518
-0.99557197 -1.9380226 0.39609718
-0.97889262 -1.9063613 0.18012217
-1.7613631 -3.3019834 18.015697
-1.724907 -3.2718918 11.871527
-1.371677 -2.6173301 7.0210686
-1.4205271 -2.719713 5.6903458
-1.2965878 -2.4887459 4.1941552
-1.2303108 -2.3645356 3.2678859
-0.23458618 -0.38913372 7.6965656
-1.8414274 -3.4621418 15.135201
-1.3702426 -2.5969689 8.0391235
-1.4563358 -2.7729397 6.5400085
-1.3533881 -2.5845575 4.8422546
-1.2520276 -2.3950412 3.6533718
-1.1957314 -2.2912235 2.8800447
-1.1765085 -2.2707858 2.5930114
-1.1301215 -2.1840341 2.0652206
-1.0806085 -2.0892327 1.6267495
-1.0582108 -2.0476654 1.2930896
-1.0471897 -2.0271959 1.0101831
-1.0191673 -1.9737834 0.74288505
-0.99548018 -1.9295508 0.50369024
-0.98171359 -1.9028614 0.28517276
-1.1503848 -2.212786 2.302402
-1.104221 -2.1257887 1.8277916
-1.0715272 -2.0637197 1.4520538
-1.0430702 -2.011472 1.134904
-1.0259681 -1.9793268 0.86507577
-1.0040702 -1.937898 0.6171236
-0.99549627 -1.9213448 0.39402512
-0.97864836 -1.8896241 0.17951758
-1.7709488 -3.2922282 17.996117
-1.7180971 -3.2315834 11.747455
-1.3735011 -2.5987084 6.9842486
-1.4188495 -2.6935482 5.6464548
-1.2895601 -2.4543121 4.1445599
-1.2251521 -2.3346829 3.2333484
-0.23609355 -0.38855889 7.7015576
-1.8552839 -3.4590158 15.149719
-1.3525467 -2.5418983 7.8842626
-1.4588734 -2.7543733 6.5085001
-1.3453501 -2.5475314 4.7825317
-1.247732 -2.366667 3.6174614
-1.1926689 -2.2660358 2.8543186
-1.1712146 -2.2413797 2.564975
-1.1251321 -2.1559217 2.0432515
-1.0801586 -2.0706189 1.6157837
-1.057162 -2.0282462 1.2838144
-1.0414072 -1.9988601 0.99894488
-1.0171877 -1.9531952 0.73724496
-0.99313962 -1.9086337 0.49995977
-0.98145354 -1.8861698 0.28383151
-1.1476986 -2.1889164 2.282449
-1.1022557 -2.1040192 1.8130757
-1.0687252 -2.0408726 1.439388
-1.0416716 -1.9917319 1.1265118
-1.02412 -1.9589942 0.85850173
-1.0040751 -1.9214576 0.61360663
-0.99302298 -1.9003024 0.39126241
-0.97829926 -1.8729117 0.17891298
-1.7867999 -3.294081 18.040173
-1.673642 -3.1216397 11.370467
-1.375212 -2.5801063 6.9474282
-1.4113885 -2.6568534 5.5806189
-1.2836252 -2.4224441 4.0990973
-1.2212996 -2.3077285 3.2026484
-0.23759975 -0.38797829 7.7065496
-1.8685428 -3.4547298 15.159398
-1.3475394 -2.5113118 7.8044853
-1.4623249 -2.7377431 6.4814925
-1.3346184 -2.5059891 4.7142768
-1.2418393 -2.3356919 3.5775611
-1.1878556 -2.2379034 2.8249173
-1.1673925 -2.2151933 2.5404434
-1.1217734 -2.1313152 2.024421
-1.0776453 -2.0483334 1.6020764
-1.0559906 -2.0088592 1.2745391
-1.0375962 -1.9746933 0.98957968
-1.0173075 -1.9368918 0.73301482
-0.99294794 -1.8921062 0.4971619
-0.98108923 -1.8695035 0.28249028
-1.1431144 -2.1617918 2.2591705
-1.1001523 -2.0822897 1.79836
-1.06779 -2.0218823 1.4292552
-1.0401483 -1.9720266 1.1181196
-1.0221425 -1.938699 0.8519277
-1.0017114 -1.900741 0.60891736
-0.99272382 -1.8836818 0.38919038
-0.97784555 -1.8562251 0.1783084
-1.8007307 -3.2922902 18.06465
-1.6376706 -3.0291166 11.055517
-1.3768098 -2.5615237 6.9106083
-1.4048197 -2.622355 5.5191717
-1.2788104 -2.3931303 4.0577679
-1.2157648 -2.2780023 3.1681111
-0.23925692 -0.38763714 7.7165327
-1.8805908 -3.4481862 15.159398
-1.3333008 -2.4640973 7.6730876
-1.4646456 -2.7192061 6.4499841
-1.3211453 -2.4599583 4.6374898
-1.2343217 -2.3021312 3.5336709
-1.1844605 -2.212821 2.799191
-1.161728 -2.1859117 2.5124068
-1.1182566 -2.1067584 2.00559
-1.0749896 -2.0260909 1.588369
-1.052622 -1.985592 1.2629452
-1.0358 -1.9546741 0.98208755
-1.0173262 -1.9206119 0.72878474
-0.99035519 -1.8712618 0.49343142
-0.98062044 -1.8528628 0.28114903
-1.1401119 -2.138021 2.2392175
-1.0998112 -2.0641677 1.7865874
-1.0647088 -1.9991184 1.4165894
-1.0384997 -1.9523559 1.1097274
-1.0200357 -1.9184414 0.8453536
-1.0037777 -1.8886485 0.60657275
-0.98999661 -1.8627137 0.38642767
-0.9749434 -1.8351525 0.17750227
-1.8146707 -3.2904422 18.089125
-1.6017888 -2.9381948 10.745338
-1.3782947 -2.5429618 6.8737884
-1.3968893 -2.5858283 5.4533358
-1.2738065 -2.3638797 4.0164385
-1.2115566 -2.2511654 3.1374109
-0.24122067 -0.38777885 7.7364993
-1.8932214 -3.4427021 15.164238
-1.3261887 -2.4306464 7.5839252
-1.4658158 -2.6987731 6.4139743
-1.3247559 -2.4461586 4.6204262
-1.2294517 -2.2739532 3.4977605
-1.180905 -2.1877904 2.7734649
-1.1575584 -2.1598406 2.487875
-1.1145822 -2.0822527 1.9867593
-1.0741645 -2.0075786 1.5774032
-1.0511924 -1.9662793 1.25367
-1.0316919 -1.9306033 0.97272241
-1.0149834 -1.9001242 0.72314465
-0.98994219 -1.8547926 0.49063358
-0.98004764 -1.8362485 0.27980781
-1.1369576 -2.1142979 2.2192645
-1.0974439 -2.0425134 1.7718714
-1.0635217 -1.980199 1.4064566
-1.0367268 -1.9327211 1.1013352
-1.0178003 -1.8982224 0.83877957
-1.0011797 -1.8679969 0.60188347
-0.98713547 -1.8417881 0.38366497
-0.97426546 -1.818527 0.17689767
-1.8286198 -3.288537 18.1136
-1.5775176 -2.8697984 10.516283
-1.3806041 -2.5261352 6.8415704
-1.3898667 -2.5514922 5.3918886
-1.2699578 -2.3371658 3.9792416
-1.2071759 -2.224386 3.1067109
-0.24241892 -0.3866902 7.7315073
-1.9052272 -3.4360726 15.164238
-1.3147 -2.3897161 7.4712982
-1.4668614 -2.6783657 6.377965
-1.3195362 -2.4163413 4.5735011
-1.2157453 -2.2299638 3.4379103
-1.1771892 -2.1628113 2.7477388
-1.1549169 -2.1369629 2.4668479
-1.1125994 -2.0612235 1.9710671
-1.0712378 -1.9854171 1.5636958
-1.0496409 -1.9470009 1.2443948
-1.0296276 -1.9106661 0.96523029
-1.0125099 -1.8796763 0.7175045
-0.98942643 -1.8383493 0.48783568
-0.97937083 -1.8196608 0.27846655
-1.1336517 -2.0906227 2.1993115
-1.094939 -2.0209007 1.7571558
-1.0601628 -1.957522 1.3937908
-1.0348297 -1.913123 1.092943
-1.0154362 -1.8780426 0.83220553
-1.0007609 -1.8516628 0.5983665
-0.98414022 -1.8209052 0.38090223
-0.97348332 -1.8019285 0.17629308
-1.8430759 -3.2874629 18.142973
-1.559302 -2.8133578 10.330175
-1.3837556 -2.5110343 6.8139553
-1.3837748 -2.5193357 5.3348303
-1.2659383 -2.310508 3.9420452
-1.2026231 -2.1976645 3.0760109
-0.24299359 -0.38462302 7.7065496
-1.9172096 -3.4294012 15.164238
-1.3021049 -2.3473868 7.3539791
-1.4656776 -2.6541727 6.3329525
-1.3153825 -2.388875 4.5308414
-1.2206187 -2.2204256 3.4299302
-1.1749449 -2.1408572 2.7256877
-1.1521297 -2.11413 2.4458206
-1.1104834 -2.0402339 1.9553747
-1.0681696 -1.9633008 1.5499885
-1.0479679 -1.9277577 1.2351196
-1.0274367 -1.8907669 0.95773816
-1.0121959 -1.8634845 0.71327436
-0.98880798 -1.8219323 0.48503786
-0.97859019 -1.8031002 0.27712533
-1.1301944 -2.0669968 2.1793587
-1.0922968 -1.9993308 1.7424399
-1.0587244 -1.9386758 1.3836579
-1.0328085 -1.8935615 1.0845507
-1.0152043 -1.8620487 0.8272751
-0.99791425 -1.8310863 0.59367722
-0.98101133 -1.8000659 0.37813953
-0.97259736 -1.785358 0.17568849
-1.7443888 -3.0526383 22.350565
-1.8570453 -3.2854412 18.167448
-1.5407119 -2.7570801 10.144068
-1.3868188 -2.4959426 6.7863402
-1.3751547 -2.4830637 5.2689943
-1.2617484 -2.2839072 3.9048488
-1.1978987 -2.1710026 3.045311
-0.24417913 -0.38352931 7.7015576
-1.9285516 -3.421593 15.159398
-1.3035517 -2.3307788 7.3164372
-1.4611658 -2.6243145 6.2744365
-1.3097874 -2.3591874 4.4839163
-1.2166752 -2.1950676 3.39801
-1.1709201 -2.1159792 2.6999617
-1.1491972 -2.0913427 2.4247932
-1.1082346 -2.0192842 1.9396824
-1.0649602 -1.9412305 1.5362811
-1.0461733 -1.9085499 1.2258444
-1.0251197 -1.8709064 0.95024598
-1.009477 -1.8431108 0.70763427
-0.98808694 -1.805542 0.48223996
-0.97770602 -1.7865677 0.27578411
-1.1283889 -2.0466905 2.1627309
-1.0895174 -1.9778041 1.727724
-1.0530089 -1.9123116 1.368459
-1.0306634 -1.8740377 1.0761585
-1.0125983 -1.8419417 0.82070106
-0.99727732 -1.8148124 0.59016031
-0.98013389 -1.7836105 0.37606746
-0.97160763 -1.7688155 0.17508389
-1.7527065 -3.0424914 22.320932
-1.8715274 -3.2842467 18.196819
-1.5232137 -2.703568 9.9675045
-1.3897933 -2.48086 6.7587252
-1.3709692 -2.4552469 5.2207141
-1.2587576 -2.2598221 3.8717849
-1.1930028 -2.1444004 3.0146108
-0.24442139 -0.38097614 7.666616
-1.9404835 -3.4148402 15.159398
-1.3023554 -2.3096797 7.2648168
-1.4703175 -2.6191983 6.2744365
-1.3027271 -2.3272922 4.432725
-1.2155098 -2.1750255 3.3740702
-1.168388 -2.0941162 2.6779106
-1.1478482 -2.0717216 2.4072704
-1.1058533 -1.9983754 1.9239902
-1.0636338 -1.9228655 1.5253153
-1.0442574 -1.8893782 1.2165691
-1.0226767 -1.8510855 0.94275385
-1.0066282 -1.8227786 0.70199412
-0.9848904 -1.7848783 0.47850949
-0.97671837 -1.7700633 0.27444285
-1.1246413 -2.0231586 2.1427782
-1.0866011 -1.9563214 1.7130083
-1.0513076 -1.8935488 1.3583262
-1.0283947 -1.8545524 1.0677663
-1.0098642 -1.8218753 0.81412703
-0.99418318 -1.7943138 0.58547103
-0.98155379 -1.7715153 0.37468609
-0.97051442 -1.7523021 0.17447931
-1.7773656 -3.0605426 22.498745
-1.886531 -3.2838738 18.231087
-1.5090479 -2.6567018 9.8148003
-1.3926797 -2.4657874 6.7311101
-1.3572066 -2.410794 5.1373219
-1.2542363 -2.2333326 3.8345888
-1.1895044 -2.1206548 2.9877484
-0.24669342 -0.3815732 7.6965656
-1.9505169 -3.4047737 15.144879
-1.3078512 -2.3006194 7.2507386
-1.4580051 -2.5761595 6.1844125
-1.2954605 -2.2954757 4.3815341
-1.2127399 -2.1523926 3.3461397
-1.1657177 -2.0722966 2.6558597
-1.1446373 -2.049022 2.3862433
-1.1014431 -1.9741091 1.9051595
-1.0621923 -1.9045336 1.5143495
-1.0422207 -1.8702437 1.2072939
-1.0201077 -1.8313047 0.93526173
-1.00365 -1.8024893 0.69635403
-0.98394996 -1.7685516 0.47571161
-0.97562772 -1.7535881 0.27310163
-1.1207435 -1.9996783 2.1228251
-1.0835483 -1.9348834 1.6982924
-1.0452768 -1.8672984 1.3431271
-1.0260026 -1.8351058 1.0593741
-1.0093063 -1.8059729 0.80919647
-0.99095815 -1.773859 0.58078176
-0.98048609 -1.7551085 0.37261406
-0.96931773 -1.7358179 0.17387471
-1.7974604 -3.0704122 22.617287
-1.9010445 -3.2825553 18.260458
-1.4923482 -2.606082 9.6477823
-1.3964446 -2.4524229 6.7080975
-1.3419684 -2.3643849 5.0495405
-1.2495456 -2.2069025 3.7973921
-1.1874324 -2.0997498 2.9647233
-0.24818197 -0.38095126 7.7015576
-1.9573606 -3.3892369 15.106164
-1.3115829 -2.288554 7.2272749
-1.4475682 -2.5370204 6.1033907
-1.2854081 -2.2592051 4.3218107
-1.2098273 -2.1298063 3.3182096
-1.1629094 -2.0505216 2.6338086
-1.1412818 -2.0263703 2.365216
-1.0987853 -1.9532905 1.8894671
-1.0606359 -1.8862355 1.5033835
-1.0400631 -1.8511463 1.1980187
-1.0196836 -1.8156065 0.92964268
-1.0005424 -1.7822431 0.69071388
-0.98290777 -1.7522537 0.47291377
-0.97443384 -1.7371418 0.27176037
-1.1185323 -1.9795007 2.1061976
-1.0803592 -1.9134908 1.6835767
-1.0475508 -1.8561299 1.3380609
-1.0257161 -1.8196522 1.05308
-1.0086497 -1.7900966 0.80426592
-0.98998791 -1.7576839 0.57726479
-0.9841764 -1.7473607 0.37192339
-0.968018 -1.7193637 0.17327012
-1.8042177 -3.0574276 22.567894
-1.9160848 -3.2820544 18.294725
-1.47606 -2.5569043 9.4855347
-1.3991604 -2.4373672 6.6804819
-1.3204755 -2.3077185 4.9398136
-1.2432905 -2.1780887 3.7560625
-1.1852292 -2.0788853 2.9416981
-0.24966918 -0.38032362 7.7065496
-1.9609573 -3.3682625 15.043252
-1.3161101 -2.2779851 7.2085037
-1.4379615 -2.4998732 6.0268698
-1.2855 -2.2411306 4.2962151
-1.2052743 -2.1046519 3.2862895
-1.1616461 -2.0317345 2.6154327
-1.1377825 -2.0037675 2.3441887
-1.0940756 -1.9291289 1.8706365
-1.0589648 -1.8679715 1.4924177
-1.0377851 -1.832087 1.1887435
-1.0168781 -1.7958996 0.92215055
-0.9996686 -1.7662153 0.68648374
-0.98176378 -1.7359844 0.4701159
-0.97313714 -1.7207254 0.27041915
-1.1143459 -1.9561187 2.0862446
-1.077034 -1.8921441 1.6688609
-1.045496 -1.8374751 1.3279281
-1.0230918 -1.8002774 1.0446877
-1.0055623 -1.7701412 0.79769188
-0.98891693 -1.7415373 0.57374781
-0.98537928 -1.7353021 0.37054202
-0.9666152 -1.7029397 0.17266552
-1.8128929 -3.0477724 22.543198
-1.9311452 -3.2814884 18.328991
-1.4579453 -2.5052922 9.3137426
-1.4017884 -2.4223232 6.6528673
-1.3129648 -2.2761261 4.8827553
-1.2382535 -2.1517847 3.7188659
-1.1844922 -2.0608411 2.9225106
-0.25115505 -0.3796902 7.7115407
-1.9644315 -3.3473048 14.98034
-1.3188424 -2.2644303 7.180347
-1.4248371 -2.4571745 5.9368458
-1.2828705 -2.2185681 4.2620873
-1.2020671 -2.082165 3.2583592
-1.1585729 -2.0100443 2.5933819
-1.1341391 -1.9812135 2.3231614
-1.0911428 -1.9084033 1.8549441
-1.0592542 -1.8533726 1.4841932
-1.0353868 -1.8130667 1.1794683
-1.0162457 -1.7802607 0.91653144
-0.99869549 -1.7502159 0.68225372
-0.97808528 -1.7154773 0.46638545
-0.97173786 -1.7043394 0.2690779
-1.1100099 -1.9327903 2.0662916
-1.0735731 -1.8708442 1.654145
-1.0476136 -1.8263359 1.3228618
-1.0226011 -1.7848814 1.0383936
-1.0023479 -1.7502294 0.79111785
-0.98774546 -1.7254199 0.5702309
-0.98650998 -1.7232566 0.36916068
-0.96510971 -1.6865467 0.17206094
-1.9462245 -3.2808573 18.363258
-1.4432653 -2.4602761 9.1658115
-1.4053127 -2.408978 6.6298547
-1.314882 -2.2611773 4.8608098
-1.233048 -2.1255426 3.6816692
-1.1820369 -2.0400541 2.8994856
-0.25247887 -0.37881121 7.7115407
-1.9421817 -3.2830911 14.72385
-1.3223698 -2.2523723 7.1568832
-1.4202217 -2.4296334 5.8828311
-1.281413 -2.1983047 4.2322259
-1.1987178 -2.059726 3.2304289
-1.1553626 -1.9884008 2.5713308
-1.1303524 -1.9587101 2.302134
-1.0880787 -1.887722 1.8392519
-1.0573668 -1.8351717 1.4732274
-1.0350786 -1.7979243 1.1725119
-1.0155169 -1.7646486 0.91091239
-0.99762273 -1.7342446 0.67802358
-0.97917151 -1.7035351 0.46452022
-0.97023606 -1.6879845 0.26773667
-1.1073956 -1.9127475 2.049664
-1.0699768 -1.8495919 1.6394293
-1.0475084 -1.8114727 1.3152622
-1.0197455 -1.7655805 1.0300014
-1.0013682 -1.7344515 0.78618735
-0.98647356 -1.709332 0.56671393
-0.98261815 -1.7026464 0.36639795
-0.96599805 -1.6745126 0.17165788
-1.961323 -3.2801607 18.397524
-1.4244899 -2.4089689 8.9940195
-1.4077708 -2.3939536 6.6022391
-1.3142884 -2.242111 4.8300862
-1.2276747 -2.0993636 3.6444731
-1.1794509 -2.0193095 2.8764608
-0.25379962 -0.37792757 7.7115407
-1.9053441 -3.1953235 14.360893
-1.3249503 -2.2388325 7.1287265
-1.4143264 -2.4002795 5.8243151
-1.2771866 -2.1735814 4.1938329
-1.1967514 -2.0399356 3.2064888
-1.1520154 -1.9668041 2.5492799
-1.1282159 -1.9393396 2.2846115
-1.0848837 -1.8670855 1.8235595
-1.0553658 -1.8170068 1.4622616
-1.0324538 -1.7789751 1.1632369
-1.0146912 -1.749063 0.90529323
-0.99404424 -1.7141526 0.67238343
-0.9777236 -1.687356 0.46172231
-0.9686321 -1.6716608 0.26639542
-1.1065373 -1.8959715 2.0363619
-1.0682815 -1.8318791 1.6276567
-1.0473121 -1.7966325 1.3076627
-1.0167677 -1.7463218 1.0216092
-1.0002903 -1.7187016 0.78125679
-0.98510152 -1.6932741 0.56319702
-0.98108476 -1.6863648 0.36432588
-0.96430278 -1.6581743 0.17105328
-1.976966 -3.2802706 18.436686
-1.4168392 -2.3770564 8.8938084
-1.4111376 -2.3806224 6.579227
-1.3123593 -2.2210145 4.7949739
-1.2235628 -2.0756724 3.6114094
-1.1767346 -1.9986081 2.8534358
-0.2551173 -0.37703937 7.7115407
-1.878927 -3.1261685 14.080207
-1.3274523 -2.225302 7.1005697
-1.4082435 -2.3709965 5.7657995
-1.2728037 -2.1489148 4.1554394
-1.1931278 -2.0175903 3.1785588
-1.1485317 -1.9452554 2.5272288
-1.125958 -1.9200083 2.2670887
-1.0835252 -1.8498529 1.8110057
-1.0532507 -1.7988782 1.4512957
-1.0319464 -1.7638898 1.1562804
-1.0137694 -1.7335048 0.89967412
-0.99275869 -1.6982481 0.66815329
-0.97617471 -1.6712078 0.45892447
-0.96692604 -1.655369 0.2650542
-1.103682 -1.8760068 2.0197346
-1.0644273 -1.8107163 1.6129408
-1.0448412 -1.7780995 1.2975299
-1.0136681 -1.7271055 1.013217
-0.99911493 -1.7029809 0.7763263
-0.98362929 -1.6772468 0.55968004
-0.97443938 -1.6615716 0.36087251
-0.96250504 -1.6418684 0.17044869
-1.8686861 -3.044014 22.706194
-1.9926338 -3.2803116 18.475847
-1.4036016 -2.3362701 8.7601929
-1.4144282 -2.3672969 6.5562143
-1.3115246 -2.2020164 4.7642498
-1.2193005 -2.0520353 3.5783455
-1.1738882 -1.9779502 2.8304105
-0.25659502 -0.37638471 7.7165327
-1.8435833 -3.0432618 13.736607
-1.3298763 -2.2117815 7.0724134
-1.4019737 -2.3417854 5.7072835
-1.2655902 -2.119827 4.1085138
-1.1909057 -1.9978836 3.1546185
-1.1449116 -1.923755 2.505178
-1.1235791 -1.9007168 2.2495661
-1.0820597 -1.8326528 1.7984519
-1.0510219 -1.7807868 1.4403298
-1.0313463 -1.7488297 1.1493239
-1.0127515 -1.7179748 0.89405507
-0.99137455 -1.6823741 0.66392326
-0.97452515 -1.6550912 0.4561266
-0.96764487 -1.6434011 0.26416004
-1.100701 -1.8560854 2.0031071
-1.062499 -1.7930806 1.6011682
-1.0422537 -1.7596058 1.2873973
-1.0150685 -1.7157444 1.0090209
-0.99784195 -1.687289 0.77139574
-0.98205745 -1.6612505 0.55616307
-0.97267336 -1.6453714 0.35880047
-0.96314716 -1.6298964 0.17004563
-1.8780737 -3.0354905 22.691376
-2.0088575 -3.2811513 18.519905
-1.3808178 -2.2802842 8.569314
-1.4176432 -2.3539772 6.5332012
-1.3081081 -2.1789448 4.7247486
-1.2148882 -2.0284536 3.5452821
-1.1692667 -1.9545867 2.8035481
-0.25790727 -0.37548673 7.7165327
-1.8070294 -2.9595685 13.388168
-1.3322219 -2.198271 7.0442567
-1.3955175 -2.3126473 5.6487679
-1.2568445 -2.0885813 4.057323
-1.1885606 -1.9782171 3.1306784
-1.1428996 -1.9052111 2.4868021
-1.1210793 -1.8814651 2.2320433
-1.0804874 -1.8154855 1.7858981
-1.0486799 -1.762733 1.429364
-1.0306538 -1.7337959 1.1423676
-1.0092692 -1.6984878 0.88656294
-0.98989159 -1.6665303 0.65969312
-0.97277498 -1.6390066 0.45332876
-0.96575028 -1.6271659 0.26281881
-1.0995101 -1.8394127 1.9898051
-1.0625334 -1.7789503 1.5923386
-1.0395498 -1.7411516 1.2772646
-1.0164022 -1.7043946 1.0048248
-0.9964717 -1.6716272 0.76646519
-0.98038602 -1.6452858 0.5526461
-0.97080606 -1.6292039 0.35672843
-0.96116078 -1.6136478 0.16944103
-1.8886582 -3.0289164 22.691376
-2.0229723 -3.2784514 18.54438
-1.37477 -2.2525165 8.4834175
-1.4207826 -2.3406641 6.5101886
-1.3057865 -2.1579733 4.6896358
-1.211781 -2.0073371 3.5163515
-1.1644963 -1.9312794 2.7766855
-0.25954598 -0.37505826 7.7265162
-1.7830905 -2.8975778 13.136518
-1.3353891 -2.1862442 7.020793
-1.3877436 -2.2817233 5.5857511
-1.2478964 -2.0574231 4.0061316
-1.187654 -1.9611692 3.1107283
-1.1390182 -1.8838037 2.464751
-1.1184589 -1.8622543 2.2145205
-1.0788085 -1.7983518 1.7733443
-1.0462247 -1.7447174 1.4183981
-1.0275921 -1.7149881 1.1330924
-1.0080454 -1.6830229 0.88094378
-0.98831022 -1.6507175 0.65546304
-0.9709245 -1.6229546 0.45053089
-0.96631092 -1.6152378 0.26192465
-1.0962895 -1.8195732 1.9731777
-1.0603975 -1.7613792 1.5805659
-1.0345073 -1.7190447 1.2645986
-1.0176691 -1.6930565 1.0006286
-0.99500442 -1.6559956 0.76153469
-0.97861505 -1.6293532 0.54912919
-0.96883774 -1.6130697 0.3546564
-0.95907277 -1.5974332 0.16883643
-1.9103831 -3.0400672 22.824736
-2.0344038 -3.2713699 18.54438
-1.3654169 -2.2197335 8.3784332
-1.4238462 -2.3273582 6.4871759
-1.3008401 -2.1329553 4.6457453
-1.208541 -1.9862673 3.487421
-1.1612426 -1.9107686 2.7536604
-0.26101926 -0.37438646 7.7315073
-1.7507907 -2.822973 12.826796
-1.3384889 -2.1742222 6.9973292
-1.3809087 -2.2527378 5.527235
-1.2360255 -2.0219026 3.9464085
-1.1850729 -1.9415799 3.0867882
-1.1367655 -1.8653418 2.4463751
-1.1157182 -1.8430852 2.1969979
-1.0750096 -1.7779212 1.7576519
-1.0436567 -1.7267406 1.4074323
-1.0267018 -1.7000149 1.1261359
-1.0067264 -1.6675879 0.87532473
-0.98663062 -1.6349361 0.65123296
-0.97151059 -1.6111424 0.44866565
-0.96680015 -1.6033257 0.2610305
-1.0929437 -1.7997782 1.9565501
-1.0581517 -1.7438447 1.5687933
-1.0337944 -1.7043657 1.256999
-1.0188693 -1.6817304 0.99643254
-0.99344015 -1.6403947 0.75660414
-0.97674501 -1.613453 0.54561222
-0.96676898 -1.5969692 0.35258433
-0.95688343 -1.5812528 0.16823184
-1.9139153 -3.0222213 22.740768
-2.0474329 -3.2668366 18.559067
-1.3542789 -2.1845067 8.2639055
-1.4268343 -2.3140593 6.4641638
-1.2969896 -2.1100385 4.6062431
-1.2036978 -1.9628463 3.4543574
-1.1578597 -1.8903041 2.7306354
-0.26282385 -0.37418067 7.7464828
-1.7239887 -2.7582226 12.560628
-1.3415208 -2.1622052 6.9738655
-1.3738886 -2.2238283 5.4687195
-1.2376032 -2.0086942 3.9293447
-1.1823697 -1.9220325 3.0628481
-1.1326236 -1.84403 2.4243243
-1.1128573 -1.8239578 2.1794751
-1.0731066 -1.7608632 1.7450981
-1.0409759 -1.7088032 1.3964664
-1.0234164 -1.6812853 1.1168607
-1.0029018 -1.6482221 0.8678326
-0.98485297 -1.6191866 0.64700282
-0.96947485 -1.5951481 0.44586781
-0.96721798 -1.5914298 0.26013631
-1.0914226 -1.7832139 1.943248
-1.0557969 -1.7263477 1.5570207
-1.0307434 -1.6860352 1.2468663
-1.0176376 -1.6665436 0.99013841
-0.99423957 -1.6288557 0.75331712
-0.97477591 -1.5975862 0.54209524
-0.96717882 -1.5851302 0.35120299
-0.95459282 -1.5651075 0.16762725
-1.924453 -3.015522 22.740768
-2.0593677 -3.2605307 18.563963
-1.3437026 -2.1506505 8.154151
-1.4297471 -2.3007681 6.4411511
-1.292995 -2.0871751 4.5667415
-1.2001854 -1.9418766 3.4254265
-1.1543484 -1.869887 2.7076104
-0.2646302 -0.37396681 7.7614574
-1.6994365 -2.6979482 12.313817
-1.3444852 -2.1501935 6.9504013
-1.3655331 -2.1931477 5.4057026
-1.2349763 -1.988853 3.8994834
-1.1779567 -1.899967 3.0349178
-1.1301312 -1.8256525 2.4059484
-1.1098766 -1.804873 2.1619523
-1.0710979 -1.7438402 1.7325443
-1.0403707 -1.694469 1.388242
-1.0223293 -1.6663753 1.1099044
-1.0013781 -1.6328555 0.86221349
-0.9854846 -1.6075596 0.6441828
-0.9699052 -1.5833765 0.44400257
-0.96496338 -1.5753042 0.25879508
-1.0878389 -1.7635044 1.9266205
-1.0554537 -1.7123293 1.5481913
-1.027577 -1.6677468 1.2367337
-1.0139335 -1.6475205 0.9817462
-0.99249631 -1.6133094 0.74838662
-0.97270805 -1.5817527 0.53857833
-0.96492374 -1.5690895 0.34913093
-0.95481759 -1.5532537 0.16722418
-1.9463168 -3.0264304 22.874128
-2.07183 -3.2550406 18.573753
-1.332907 -2.1168954 8.0443954
-1.4325846 -2.2874849 6.4181385
-1.2875882 -2.0623338 4.522851
-1.1965414 -1.9209558 3.3964961
-1.1507086 -1.8495173 2.6845856
-0.26677448 -0.37421435 7.7864161
-1.6886326 -2.6601644 12.168633
-1.3473822 -2.1381876 6.9269376
-1.3581374 -2.1643965 5.3471866
-1.2336096 -1.9712652 3.8738875
-1.1750009 -1.8805112 3.0109777
-1.1275245 -1.8073152 2.3875725
-1.1086552 -1.7888628 2.147934
-1.0710323 -1.7301624 1.723129
-1.0396783 -1.6801602 1.3800176
-1.0211506 -1.6514933 1.102948
-0.99975938 -1.6175196 0.85659432
-0.98352575 -1.591867 0.63995266
-0.96768469 -1.5674418 0.4412047
-0.96522409 -1.5634513 0.25790092
-1.0861024 -1.7470129 1.9133185
-1.0528924 -1.694901 1.5364187
-1.0265698 -1.6531633 1.2291342
-1.0101092 -1.6285437 0.97335398
-0.99314511 -1.6018084 0.7450996
-0.97054166 -1.5659534 0.53506136
-0.96517748 -1.5572935 0.34774956
-0.95497137 -1.5414174 0.16682112
-1.9632084 -3.0293982 22.948217
-2.0831797 -3.2477887 18.573753
-1.3218919 -2.0832422 7.9346399
-1.4332612 -2.2709055 6.385921
-1.2832997 -2.0395832 4.4833493
-1.1927661 -1.9000844 3.3675654
-1.1486436 -1.8319117 2.6653979
-0.26672778 -0.3714079 7.7464828
-1.667425 -2.6066067 11.95086
-1.3492866 -2.1247313 6.8987813
-1.3447399 -2.1265247 5.2661648
-1.2321354 -1.9537117 3.8482921
-1.1703181 -1.8585495 2.9830475
-1.1229992 -1.7861484 2.3655217
-1.1054463 -1.7698586 2.1304114
-1.0688239 -1.7132041 1.7105752
-1.0388986 -1.6658767 1.3717932
-1.0198807 -1.63664 1.0959915
-1.0004972 -1.6061502 0.85284829
-0.98146939 -1.5762078 0.63572258
-0.96795994 -1.5557126 0.43933943
-0.96541393 -1.5516158 0.25700676
-1.0842642 -1.7305551 1.9000165
-1.0502226 -1.6775116 1.5246459
-1.0254734 -1.6386073 1.2215346
-1.0085704 -1.6134624 0.96705979
-0.99122316 -1.586318 0.74016905
-0.9708519 -1.5543109 0.53271675
-0.9627372 -1.5413148 0.34567752
-0.95505422 -1.5295991 0.16641806
-1.9758953 -3.0257797 22.972914
-2.0945041 -3.2404971 18.573753
-1.3106586 -2.0496919 7.8248835
-1.4411793 -2.2658887 6.385921
-1.2788678 -2.0168877 4.4438477
-1.1888598 -1.8792629 3.3386347
-1.14647 -1.8143431 2.6462102
-0.26802263 -0.37047458 7.7464828
-1.6574429 -2.5711901 11.815356
-1.3511136 -2.1112874 6.8706245
-1.3451346 -2.1108027 5.2391572
-1.2291545 -1.9339913 3.8184304
-1.1671109 -1.839188 2.9591074
-1.1201545 -1.7678992 2.3471458
-1.1040181 -1.7539167 2.1163931
-1.0665102 -1.6962823 1.6980213
-1.0380319 -1.6516196 1.3635689
-1.0185195 -1.621816 1.0890352
-0.99870306 -1.5908692 0.84722924
-0.97931582 -1.5605825 0.6314925
-0.96816522 -1.544001 0.43747419
-0.96553296 -1.5397983 0.25611261
-1.0823244 -1.7141314 1.8867146
-1.0496012 -1.6635802 1.5158166
-1.0219883 -1.6204331 1.2114018
-1.0069389 -1.598412 0.96076572
-0.99172187 -1.5748566 0.73688203
-0.96850336 -1.5385721 0.52919978
-0.96283531 -1.5295631 0.34429619
-0.95506626 -1.5177991 0.166015
-1.9941341 -3.0305469 23.061821
-2.1058025 -3.2331662 18.573753
-1.2983987 -2.0149913 7.7103562
-1.4395913 -2.2460415 6.3444982
-1.2742935 -1.9942483 4.4043455
-1.1863357 -1.8608646 3.3138371
-1.1441877 -1.7968124 2.6270227
-0.26863199 -0.36860502 7.7265162
-1.6383321 -2.5221725 11.61694
-1.3528632 -2.0978572 6.8424683
-1.3395543 -2.0859456 5.1896443
-1.2260514 -1.9143161 3.788569
-1.1654065 -1.8224101 2.9391572
-1.1171963 -1.7496918 2.3287699
-1.1024922 -1.7380066 2.102375
-1.0640917 -1.6793978 1.6854674
-1.0370785 -1.6373886 1.3553444
-1.0170674 -1.6070215 1.0820787
-0.99929291 -1.579538 0.84348315
-0.97706527 -1.5449915 0.62726241
-0.96830064 -1.5323068 0.43560895
-0.96558136 -1.5279988 0.25521845
-1.0822875 -1.7008926 1.876738
-1.0467266 -1.6462626 1.5040439
-1.0207013 -1.6059415 1.2038023
-1.0052147 -1.5833925 0.95447153
-0.98962218 -1.559424 0.73195153
-0.96866059 -1.5269731 0.52685511
-0.96021044 -1.5136479 0.34222415
-0.95500755 -1.5060178 0.16561194
-2.0051301 -3.024215 23.066759
-2.1170757 -3.2257957 18.573753
-1.2883517 -1.9841568 7.6101446
-1.4325823 -2.2180278 6.2800627
-1.2695769 -1.9716655 4.3648438
-1.1836975 -1.8425071 3.2890394
-1.1417972 -1.7793196 2.6078353
-0.2704311 -0.3683621 7.7414908
-1.6161456 -2.4691129 11.399165
-1.3545356 -2.0844402 6.8143115
-1.3373653 -2.0666363 5.1536345
-1.222826 -1.8946861 3.7587075
-1.161967 -1.803134 2.9152172
-1.11229 -1.7286758 2.3067191
-1.0989479 -1.719124 2.0848522
-1.0615683 -1.6625509 1.6729136
-1.0337887 -1.61966 1.3443786
-1.0155245 -1.5922571 1.0751224
-0.99732375 -1.5643129 0.83786404
-0.9747178 -1.5294354 0.62303233
-0.96836621 -1.5206306 0.43374372
-0.96555918 -1.5162179 0.25432429
-1.0801562 -1.684532 1.863436
-1.0459248 -1.6323889 1.4952143
-1.0216507 -1.5951089 1.1987361
-1.0033979 -1.5684048 0.94817728
-0.98742712 -1.5440255 0.72702098
-0.96874863 -1.5153921 0.5245105
-0.96282089 -1.5061146 0.34153345
-0.95487833 -1.4942554 0.16520888
-2.0195591 -3.0230119 23.111212
-2.1277609 -3.2175367 18.568857
-1.272384 -1.9446744 7.4765286
-1.4264611 -2.1917279 6.2202296
-1.2647182 -1.9491402 4.3253422
-1.1809459 -1.824191 3.2642415
-1.1392987 -1.7618661 2.5886478
-0.27205959 -0.36787933 7.7514739
-1.5956856 -2.4193878 11.19591
-1.356131 -2.0710373 6.7861543
-1.3338686 -2.0455441 5.1131234
-1.2209003 -1.8772882 3.7331119
-1.1600484 -1.7864314 2.895267
-1.1090953 -1.7105601 2.2883432
-1.0972167 -1.7032853 2.0708342
-1.0589403 -1.6457424 1.6603597
-1.0326499 -1.6054913 1.3361541
-1.0114959 -1.5737967 1.0658472
-0.99776638 -1.5530216 0.83411795
-0.97486609 -1.5179511 0.62021226
-0.96570915 -1.5048386 0.43094587
-0.96546662 -1.5044559 0.25343013
-1.077924 -1.6682074 1.850134
-1.0450388 -1.618541 1.486385
-1.0201992 -1.5806673 1.1911365
-1.0014889 -1.5534493 0.94188321
-0.98769474 -1.5326308 0.72373396
-0.96876794 -1.503829 0.52216589
-0.96270871 -1.4944185 0.34015211
-0.9519738 -1.478312 0.16460429
-2.0344386 -3.0223897 23.160606
-2.13785 -3.2083952 18.559067
-1.269304 -1.9252669 7.4192653
-1.4180311 -2.162231 6.1511922
-1.2597179 -1.9266734 4.2858405
-1.1796185 -1.8082736 3.243577
-1.1366922 -1.7444513 2.5694602
-0.27351505 -0.36715853 7.7564659
-1.5721153 -2.3656487 10.973296
-1.3576492 -2.0576489 6.757998
-1.3302411 -2.024502 5.0726123
-1.2174388 -1.8577461 3.7032504
-1.1580274 -1.7697642 2.8753169
-1.1076423 -1.6953261 2.2736425
-1.0953884 -1.6874801 2.0568159
-1.0562081 -1.6289726 1.6478059
-1.031425 -1.5913504 1.3279297
-1.0097591 -1.5591021 1.0588907
-0.99562287 -1.5378546 0.82849884
-0.97233975 -1.5024571 0.61598212
-0.96562111 -1.4932088 0.42908064
-0.96530378 -1.4927132 0.25253597
-1.0755911 -1.6519189 1.836832
-1.0440689 -1.6047193 1.4775554
-1.0186595 -1.5662552 1.1835369
-0.99948788 -1.5385263 0.93558902
-0.98532289 -1.5172927 0.71880347
-0.96607155 -1.4882073 0.51864892
-0.9625265 -1.4827417 0.33877075
-0.9516893 -1.4665983 0.16420123
-2.0441041 -3.0139835 23.150726
-2.1473336 -3.1983774 18.54438
-1.2586697 -1.8947151 7.3190532
-1.4094126 -2.1328197 6.0821538
-1.2558938 -1.9062648 4.2507277
-1.1766485 -1.7900362 3.2187793
-1.1357373 -1.7297559 2.5541103
-0.2749688 -0.3664321 7.7614574
-1.5558833 -2.3235927 10.803916
-1.3590906 -2.0442753 6.7298412
-1.3276852 -2.0053256 5.036603
-1.2138559 -1.8382508 3.6733885
-1.1559043 -1.7531331 2.8553669
-1.104232 -1.6772914 2.2552667
-1.0915109 -1.6687237 2.0392931
-1.0555009 -1.6155006 1.6383907
-1.0301138 -1.5772378 1.3197054
-1.0079321 -1.5444388 1.0519344
-0.99338573 -1.5227216 0.82287979
-0.9723376 -1.4910176 0.61316204
-0.96546382 -1.4815979 0.4272154
-0.96235192 -1.4768177 0.25119475
-1.0731577 -1.6356672 1.8235301
-1.0407994 -1.587544 1.4657828
-1.0193945 -1.5554788 1.1784705
-0.99739492 -1.5236363 0.92929488
-0.98285621 -1.5019901 0.71387291
-0.96593893 -1.4766908 0.51630425
-0.96498555 -1.4752287 0.33808005
-0.95133454 -1.4549046 0.16379817
-2.0519817 -3.0029807 23.12109
-2.1573439 -3.1891756 18.53459
-1.2544806 -1.8741844 7.2570176
-1.4006064 -2.1034954 6.0131164
-1.2519429 -1.8859071 4.2156153
-1.1735659 -1.7718419 3.1939816
-1.1329252 -1.7124152 2.5349226
-0.2764208 -0.36569995 7.7664495
-1.5435959 -2.287931 10.663573
-1.3604553 -2.0309167 6.701685
-1.3225952 -1.9825699 4.991591
-1.2115964 -1.8209748 3.6477933
-1.1536793 -1.7365385 2.8354166
-1.1025836 -1.6621264 2.240566
-1.0894787 -1.6529931 2.025275
-1.0525721 -1.5988026 1.6258368
-1.0264182 -1.559661 1.3087394
-1.0060149 -1.5298074 1.0449779
-0.99105531 -1.5076234 0.81726068
-0.97226745 -1.4795965 0.61034197
-0.96254098 -1.4659003 0.42441753
-0.96203429 -1.465124 0.25030059
-1.070624 -1.6194527 1.810228
-1.0396507 -1.5737839 1.4569534
-1.0176915 -1.5411195 1.170871
-0.99770921 -1.5125685 0.92509878
-0.98029482 -1.4867232 0.70894241
-0.96573776 -1.4651934 0.51395965
-0.96195334 -1.4594471 0.33600801
-0.95090991 -1.4432312 0.16339511
-2.0637734 -2.9977198 23.135908
-2.1655955 -3.1774187 18.510115
-1.2610151 -1.8697941 7.2570176
-1.3905243 -2.0726364 5.939476
-1.2478653 -1.8656 4.1805024
-1.1703707 -1.753691 3.169184
-1.1300061 -1.6951154 2.5157351
-0.27769563 -0.36473283 7.7664495
-1.5296648 -2.2503045 10.513551
-1.3617433 -2.0175736 6.6735282
-1.3185773 -1.9616809 4.9510798
-1.2077792 -1.8015711 3.6179318
-1.1513526 -1.7199811 2.8154664
-1.1027271 -1.6498123 2.2295406
-1.0873501 -1.637297 2.0112567
-1.0516914 -1.5853879 1.6164215
-1.0249234 -1.5456142 1.3005152
-1.0040079 -1.5152085 1.0380214
-0.99119169 -1.4964249 0.81351459
-0.97212958 -1.4681942 0.60752195
-0.96223092 -1.454338 0.42255229
-0.9588989 -1.4492973 0.24895935
-1.0679903 -1.6032761 1.796926
-1.0384187 -1.5600511 1.4481238
-1.0159006 -1.5267911 1.1632714
-0.99544626 -1.4977372 0.91880459
-0.98025203 -1.4754258 0.7056554
-0.96277899 -1.4496664 0.51044267
-0.96156251 -1.4478301 0.33462667
-0.95041531 -1.4315789 0.16299205
-2.1784029 -3.1723583 18.524799
-1.2608221 -1.8555042 7.2188416
-1.3846208 -2.0483479 5.8842454
-1.2436614 -1.8453449 4.14539
-1.1654929 -1.7332492 3.1402533
-1.1287673 -1.6805179 2.5003853
-0.27896708 -0.36376128 7.7664495
-1.5162009 -2.2138407 10.368368
-1.3639253 -2.0056732 6.6500645
-1.3144295 -1.9408445 4.9105687
-1.203841 -1.7822162 3.5880699
-1.1472394 -1.700963 2.7915263
-1.100904 -1.6347053 2.2148399
-1.0851252 -1.6216362 1.9972385
-1.0507299 -1.5719993 1.607006
-1.0233431 -1.5315969 1.2922907
-1.0043714 -1.5043262 1.033384
-0.98868847 -1.4813879 0.80789554
-0.97192395 -1.456811 0.60470188
-0.95912725 -1.4387085 0.41975445
-0.95842725 -1.437654 0.24806519
-1.0652567 -1.5871376 1.7836241
-1.0371034 -1.5463458 1.4392942
-1.0140222 -1.5124941 1.155672
-0.99309206 -1.4829403 0.91251045
-0.9775154 -1.460223 0.70072484
-0.96513021 -1.4422573 0.50927037
-0.96110237 -1.4362336 0.33324531
-0.9470734 -1.415795 0.16238745
-2.088212 -2.9883339 23.175423
-2.1842492 -3.1571991 18.480742
-1.2647614 -1.847397 7.2045259
-1.3829638 -2.0305846 5.8474255
-1.2406768 -1.8271233 4.1146665
-1.1620651 -1.7151924 3.1154556
-1.1256438 -1.6632954 2.4811976
-0.28023517 -0.36278531 7.7664495
-1.5032151 -2.1785333 10.228024
-1.3650653 -1.9923587 6.6219077
-1.3101525 -1.920061 4.8700581
-1.1997828 -1.762911 3.5582085
-1.1447015 -1.684487 2.7715764
-1.0989891 -1.6196315 2.2001393
-1.0828043 -1.6060109 1.9832205
-1.049688 -1.5586369 1.5975907
-1.0216775 -1.5176096 1.2840662
-1.0021986 -1.4897848 1.0264276
-0.98609251 -1.4663869 0.80227643
-0.97165084 -1.4454471 0.6018818
-0.95866531 -1.4271964 0.41788921
-0.9578861 -1.4260318 0.24717103
-1.0645152 -1.5741309 1.7736475
-1.0357053 -1.5326695 1.4304649
-1.0120564 -1.4982288 1.1480724
-0.99064672 -1.4681783 0.90621626
-0.97732532 -1.4489722 0.69743782
-0.96472406 -1.4308194 0.50692576
-0.9578045 -1.4205523 0.33117324
-0.9464252 -1.4041948 0.16198438
-2.0986304 -2.9810264 23.175423
-2.1964211 -3.1512256 18.490534
-1.2669642 -1.8368274 7.180666
-1.3800945 -2.0112474 5.8060026
-1.2375804 -1.8089452 4.0839429
-1.1505927 -1.6855605 3.069993
-1.1242199 -1.6487634 2.4658477
-0.2814998 -0.36180487 7.7664495
-1.4900013 -2.1433439 10.087682
-1.3671097 -1.9804811 6.598444
-1.3057468 -1.8993313 4.8295469
-1.1956047 -1.7436562 3.528347
-1.1420625 -1.6680497 2.7516263
-1.0988959 -1.6073897 2.1891139
-1.0803877 -1.5904217 1.9692023
-1.0485655 -1.545301 1.5881753
-1.0199269 -1.5036528 1.275842
-0.99993652 -1.4752769 1.0194712
-0.98600429 -1.4552599 0.79853034
-0.97131014 -1.434103 0.59906173
-0.95813471 -1.4157051 0.41602394
-0.95727557 -1.4144311 0.24627687
-1.0636963 -1.5611488 1.763671
-1.0342244 -1.5190215 1.4216353
-1.0100036 -1.4839959 1.1404729
-0.99066222 -1.4572049 0.90202022
-0.97706884 -1.4377407 0.69415081
-0.96698129 -1.4234226 0.50575346
-0.95719182 -1.4090078 0.3297919
-0.94851434 -1.3967497 0.16178286
-2.1256568 -2.9971313 23.358175
-1.2699605 -1.8274907 7.1615777
-1.3771071 -1.9919548 5.7645798
-1.234372 -1.7908108 4.0532193
-1.1564693 -1.6815338 3.069993
-1.1227083 -1.6342617 2.4504976
-0.28276104 -0.36082006 7.7664495
-1.4765608 -2.1082737 9.9473381
-1.3700731 -1.9700301 6.5796728
-1.3024518 -1.8804454 4.7935371
-1.192789 -1.7265975 3.5027514
-1.1393228 -1.6516513 2.7316759
-1.0968075 -1.5923764 2.1744132
-1.0778756 -1.5748692 1.9551841
-1.0473629 -1.5319921 1.57876
-1.0180913 -1.4897267 1.2676175
-1.0000836 -1.4644612 1.0148336
-0.98585045 -1.4441518 0.79478431
-0.97090226 -1.4227791 0.59624165
-0.95753556 -1.404235 0.4141587
-0.95659572 -1.4028522 0.24538271
-1.0627995 -1.5481917 1.7536945
-1.0326611 -1.5054029 1.4128059
-1.0103016 -1.4733509 1.1354066
-0.99061328 -1.4462491 0.89782411
-0.97674578 -1.4265287 0.69086379
-0.9691987 -1.4160274 0.50458109
-0.95930731 -1.4015714 0.3291012
-0.94774193 -1.3851839 0.1613798
-1.2737634 -1.8193784 7.1472621
-1.3740021 -1.9727081 5.7231569
-1.2310525 -1.7727214 4.0224957
-1.1559207 -1.6682348 3.0534613
-1.1211091 -1.6197908 2.4351475
-0.28401881 -0.35983086 7.7664495
-1.4628936 -2.0733237 9.8069944
-1.37199 -1.9581695 6.5562091
-1.2977954 -1.8598207 4.7530265
-1.1898692 -1.7095802 3.4771557
-1.1364827 -1.6352925 2.711726
-1.0946279 -1.5773973 2.1597126
-1.075268 -1.5593536 1.9411659
-1.0460802 -1.5187104 1.5693445
-1.0185424 -1.4792759 1.2621346
-0.9976564 -1.450013 1.0078771
-0.98300403 -1.4292426 0.78916514
-0.97042727 -1.4114755 0.59342158
-0.95686829 -1.3927864 0.41229346
-0.95584691 -1.3912952 0.24448855
-1.0597013 -1.5321891 1.7403926
-1.031015 -1.4918137 1.4039763
-1.0080873 -1.4591753 1.127807
-0.98792213 -1.4315764 0.89152992
-0.97635639 -1.4153365 0.68757677
-0.9686169 -1.4046328 0.50223649
-0.95857126 -1.3900609 0.32771987
-0.94690037 -1.3736405 0.16097674
-2.1556079 -2.9948304 23.456961
-1.2766647 -1.8100419 7.1281743
-1.3696575 -1.9519085 5.6771321
-1.2276218 -1.7546769 3.9917724
-1.1569045 -1.6572675 3.0410624
-1.1194229 -1.6053511 2.4197977
-0.28509298 -0.35861164 7.7614574
-1.4482725 -2.0374706 9.6618128
-1.374836 -1.9477292 6.5374379
-1.2905067 -1.8356899 4.7035131
-1.1883423 -1.6947396 3.455826
-1.1335423 -1.618974 2.6917758
-1.0942994 -1.5652316 2.1486869
-1.0725656 -1.5438756 1.9271477
-1.0447177 -1.5054564 1.5599293
-1.0165497 -1.4654046 1.2539102
-0.99766445 -1.4392406 1.0032395
-0.98270607 -1.4181817 0.78541911
-0.96988529 -1.4001927 0.59060156
-0.95613265 -1.3813597 0.41042823
-0.95786327 -1.3838555 0.24404147
-1.0586394 -1.5192907 1.7304161
-1.0292872 -1.4782546 1.395147
-1.0057865 -1.4450332 1.1202074
-0.98773152 -1.4206666 0.88733381
-0.97590089 -1.4041646 0.68428975
-0.96519405 -1.3892677 0.49871951
-0.96059215 -1.3826394 0.32702917
-0.94598991 -1.36212 0.16057368
-2.1569254 -2.9747076 23.358175
-1.2795165 -1.8007077 7.109086
-1.3651842 -1.931163 5.6311069
-1.2254602 -1.7386359 3.9654377
-1.154588 -1.6417106 3.0203977
-1.1176496 -1.5909431 2.4044476
-0.28634304 -0.35761431 7.7614574
-1.434883 -2.0037892 9.5263081
-1.3766258 -1.9358869 6.5139742
-1.2855822 -1.8151859 4.663002
-1.1852218 -1.6778007 3.4302304
-1.132239 -1.6051582 2.6758156
-1.0919474 -1.5503157 2.1339862
-1.071813 -1.5313573 1.916634
-1.0432752 -1.4922307 1.5505139
-1.0144725 -1.4515653 1.2456857
-0.99760956 -1.4284858 0.99860191
-0.98234302 -1.4071403 0.78167301
-0.96927631 -1.3889309 0.58778149
-0.95532906 -1.3699552 0.40856299
-0.95699102 -1.3723339 0.24314731
-1.0553548 -1.5033624 1.7171141
-1.0274771 -1.4647256 1.3863175
-1.0033994 -1.4309253 1.112608
-0.98747694 -1.4097755 0.88313776
-0.97537941 -1.3930131 0.68100274
-0.96446306 -1.3779259 0.49637488
-0.95973319 -1.371164 0.3256478
-0.94787467 -1.3547162 0.16037214
-1.2814494 -1.7901616 7.0852261
-1.3617164 -1.9120643 5.589684
-1.2218148 -1.7206787 3.9347143
-1.1538041 -1.628486 3.003866
-1.1157894 -1.5765672 2.3890977
-0.28758958 -0.35661259 7.7614574
-1.4256887 -1.9763427 9.4198408
-1.3793546 -1.9254587 6.495203
-1.279266 -1.7929668 4.61799
-1.1804856 -1.6587797 3.4003689
-1.1308531 -1.5913715 2.6598556
-1.0895048 -1.5354356 2.1192856
-1.0709864 -1.5188632 1.9061204
-1.039512 -1.4758513 1.5379601
-1.0123113 -1.4377586 1.2374614
-0.99494255 -1.414126 0.99164557
-0.98191482 -1.3961189 0.77792698
-0.96860063 -1.3776907 0.58496141
-0.95445752 -1.3585732 0.40669775
-0.95604992 -1.3608353 0.24225317
-1.0519722 -1.4874756 1.703812
-1.027918 -1.4545283 1.3804312
-1.0034134 -1.4203724 1.1075416
-0.98454148 -1.3951954 0.87684357
-0.974792 -1.3818825 0.67771572
-0.96086371 -1.3626341 0.49285793
-0.96165979 -1.3637584 0.32495713
-0.946841 -1.3432324 0.15996908
-1.2833247 -1.7796241 7.0613661
-1.3569932 -1.8914261 5.5436587
-1.2180591 -1.7027682 3.9039905
-1.1513069 -1.6129968 2.983201
-1.1138424 -1.5622238 2.3737476
-0.28865013 -0.35538286 7.7564659
-1.4133646 -1.9449178 9.2940159
-1.3820276 -1.9150349 6.4764318
-1.2766222 -1.7761167 4.5864816
-1.17867 -1.6440512 3.3790393
-1.1276306 -1.575164 2.6399055
-1.085 -1.5178336 2.1009099
-1.0700855 -1.5063934 1.8956068
-1.0378999 -1.4626907 1.5285445
-1.0100662 -1.4239845 1.229237
-0.99474937 -1.4034164 0.98700798
-0.98142183 -1.3851175 0.77418089
-0.96785837 -1.3664721 0.58214134
-0.95635617 -1.3512237 0.40576512
-0.95504028 -1.3493601 0.24135901
-1.0506582 -1.4746721 1.6938356
-1.0259559 -1.4410532 1.3716016
-1.0008667 -1.4063247 1.0999421
-0.98414618 -1.3843521 0.87264746
-0.9741388 -1.3707732 0.6744287
-0.95716941 -1.3473841 0.48934099
-0.95781058 -1.3482822 0.3228851
-0.94573861 -1.3317724 0.15956602
-1.2851419 -1.7690957 7.0375061
-1.3521426 -1.8708442 5.4976335
-1.2141933 -1.6849052 3.8732669
-1.1503587 -1.5998296 2.9666693
-1.111809 -1.5479132 2.3583977
-0.28988892 -0.35437313 7.7564659
-1.4060367 -1.9207026 9.2020664
-1.3836299 -1.9032203 6.4529681
-1.2725998 -1.7575442 4.5504718
-1.1737124 -1.6251274 3.3491776
-1.1260716 -1.5614423 2.6239452
-1.0823668 -1.5030329 2.0862093
-1.0691108 -1.4939486 1.885093
-1.0362085 -1.4495597 1.5191293
-1.0101683 -1.4136459 1.223754
-0.99191934 -1.3891205 0.98005158
-0.98086393 -1.3741368 0.77043486
-0.9670496 -1.3552754 0.57932127
-0.95536327 -1.339878 0.40389988
-0.95396221 -1.3379086 0.24046485
-1.0470904 -1.4588624 1.6805335
-1.0262682 -1.4308941 1.3657153
-1.0007457 -1.3958157 1.0948756
-0.98104459 -1.369839 0.86635327
-0.9734199 -1.3596853 0.67114168
-0.95620924 -1.3361294 0.48699635
-0.95674711 -1.3368765 0.32150373
-0.9445681 -1.3203368 0.15916295
-1.2869015 -1.7585762 7.0136466
-1.346015 -1.8487403 5.4470057
-1.210218 -1.6670901 3.8425436
-1.1476817 -1.5844097 2.9460046
-1.1078105 -1.5310392 2.33921
-0.29112414 -0.35335907 7.7564659
-1.3963187 -1.8935277 9.0956001
-1.3861861 -1.8928101 6.4341969
-1.2697464 -1.7407802 4.5189633
-1.1717058 -1.6104761 3.3278482
-1.1226594 -1.5453134 2.6039953
-1.0796438 -1.4882694 2.0715086
-1.070148 -1.484422 1.8780839
-1.0344381 -1.4364582 1.5097139
-1.0077676 -1.3999305 1.2155296
-0.98900163 -1.3748615 0.97309518
-0.98024154 -1.3631769 0.76668876
-0.96617454 -1.3441012 0.57650119
-0.95430285 -1.3285556 0.40203464
-0.95281595 -1.3264812 0.23957069
-1.0456131 -1.4461216 1.670557
-1.0241551 -1.4174744 1.3568859
-0.99803966 -1.3818302 1.0872761
-0.98050928 -1.3590449 0.86215717
-0.97263569 -1.3486191 0.66785467
-0.95802486 -1.3288407 0.48582402
-0.95561576 -1.3254948 0.32012239
-0.9433291 -1.3089254 0.15875989
-2.2225249 -2.9552393 23.506351
-1.2886031 -1.7480659 6.9897866
-1.3409052 -1.8282775 5.4009805
-1.2075469 -1.6512566 3.8162091
-1.1465702 -1.5713015 2.9294727
-1.1055958 -1.5168023 2.3238599
-0.292171 -0.35211894 7.7514739
-1.3871779 -1.8674536 8.9939709
-1.3876624 -1.881017 6.4107337
-1.2667916 -1.7240579 4.4874549
-1.1696112 -1.5958588 3.3065183
-1.1209282 -1.5316588 2.5880351
-1.0768309 -1.473543 2.0568078
-1.0669402 -1.4691353 1.8640658
-1.0325892 -1.4233872 1.5002986
-1.0077386 -1.3896343 1.2100466
-0.98599666 -1.36064 0.96613878
-0.97955453 -1.3522384 0.76294273
-0.96523345 -1.3329499 0.57368112
-0.95605487 -1.3212367 0.40110204
-0.95160162 -1.3150781 0.23867653
-1.0440596 -1.4334089 1.6605806
-1.0243393 -1.4073547 1.3509996
-0.99778455 -1.3713665 1.0822097
-0.97724229 -1.3446002 0.85586303
-0.97178602 -1.3375752 0.66456765
-0.95980114 -1.3215556 0.48465171
-0.95150656 -1.3101305 0.31805035
-0.94202209 -1.2975389 0.15835683
-1.8779219 -2.503345 15.06877
-1.2902473 -1.7375654 6.9659266
-1.335669 -1.8078729 5.3549552
-1.2047802 -1.635462 3.7898748
-1.1437145 -1.555953 2.9088082
-1.1013981 -1.5000162 2.3046725
-0.29321274 -0.35087582 7.7464828
-1.3778725 -1.8414663 8.8923435
-1.3901025 -1.8706214 6.3919625
-1.2624401 -1.7056274 4.4514451
-1.1689782 -1.583374 3.2894547
-1.1191154 -1.5180354 2.5720751
-1.0759383 -1.4615849 2.0457823
-1.0657448 -1.4567676 1.8535522
-1.0329583 -1.413489 1.4940217
-1.0076499 -1.3793553 1.2045637
-0.98551631 -1.3500342 0.96150118
-0.97880322 -1.3413212 0.75919664
-0.96422625 -1.3218216 0.57086104
-0.95487386 -1.3099523 0.3992368
-0.95325285 -1.3077241 0.23822945
-1.04243 -1.4207247 1.650604
-1.0220754 -1.3939916 1.34217
-0.99746859 -1.3609215 1.0771434
-0.97656769 -1.3338569 0.85166693
-0.97087121 -1.3265536 0.66128063
-0.96153837 -1.3142744 0.48347941
-0.95315003 -1.3028046 0.31735966
-0.94064718 -1.2861776 0.15795377
-1.8682317 -2.4724052 14.921913
-1.2918339 -1.7270747 6.9420667
-1.3303069 -1.7875274 5.3089299
-1.201918 -1.6197072 3.76354
-1.1424403 -1.5429052 2.8922763
-1.0990031 -1.4858549 2.2893224
-0.29406297 -0.34940922 7.7364993
-1.3684025 -1.8155671 8.7907152
-1.3914526 -1.8588506 6.3684988
-1.2592772 -1.6889941 4.4199367
-1.1667161 -1.5688205 3.2681251
-1.1172212 -1.5044433 2.5561152
-1.0729561 -1.446928 2.0310817
-1.0623603 -1.4415553 1.839534
