# .PCD v0.7 - Point Cloud Data file format
VERSION 0.7
FIELDS x y z
SIZE 4 4 4
TYPE F F F
COUNT 1 1 1
WIDTH 1468
HEIGHT 1
VIEWPOINT 0 0 0 1 0 0 0
POINTS 1468
DATA ascii
-1.241183 -1.8513939 3.716048
-1.1882303 -1.7750683 2.9032471
-1.1366384 -1.7005451 2.2956934
-1.1149722 -1.6788875 2.0603204
-1.0753602 -1.6210665 1.6509445
-1.0480328 -1.5804623 1.3279297
-1.0235834 -1.54475 1.056572
-0.99887192 -1.5080197 0.8191337
-0.97742629 -1.4761937 0.61034197
-0.96223092 -1.454338 0.42255229
-0.95615095 -1.4451439 0.24851227
-1.0949008 -1.6436725 1.8401576
-1.060816 -1.5936981 1.4775554
-1.0326171 -1.5519134 1.1810037
-1.0029831 -1.5090766 0.92509878
-0.98547846 -1.4832923 0.70894241
-0.96546811 -1.4537153 0.51161504
-0.95334327 -1.4354545 0.33255461
-0.93659902 -1.4107679 0.16198438
-0.063332036 -0.052048817 7.8889728
-1.2389387 -1.7864372 13.820468
-1.5892947 -2.314559 13.521878
-1.5091735 -2.2209423 8.6313486
-1.3550782 -2.004648 5.7599773
-1.266417 -1.8791069 4.2200041
-1.2173135 -1.8103083 3.2766404
-1.1770228 -1.752357 2.6039979
-0.28390023 -0.37016481 7.9062157
-0.89026111 -1.2543871 14.302828
-1.9871475 -2.9013834 13.576906
-1.4240944 -2.0941427 6.9410157
-1.3095464 -1.9336348 4.8925643
-1.2388785 -1.8340833 3.6904523
-1.1843092 -1.7559212 2.879307
-1.1349922 -1.6853193 2.2809927
-1.1109091 -1.6601661 2.0427978
-1.0680342 -1.5978872 1.6321138
-1.0465739 -1.5663642 1.3197054
-1.0215899 -1.5301151 1.0496155
-0.99898273 -1.4968119 0.81538767
-0.97458631 -1.4608015 0.60611188
-0.96185207 -1.4427959 0.42068705
-0.9529025 -1.4293668 0.24717103
-1.094389 -1.6305399 1.830181
-1.0573667 -1.5765579 1.4657828
-1.0332268 -1.5411383 1.1759374
-1.0006683 -1.4942533 0.91880459
-0.98276925 -1.4680711 0.70401186
-0.96513021 -1.4422573 0.50927037
-0.95284003 -1.4238869 0.33117324
-0.93596238 -1.3991849 0.16158132
-0.063513331 -0.051827431 7.8889728
-1.245167 -1.7821016 13.820468
-1.5973644 -2.3089974 13.521878
-1.5084836 -2.2033443 8.5836287
-1.352169 -1.9853735 5.7185545
-1.2635502 -1.8608056 4.189281
-1.2157329 -1.7943997 3.2559757
-1.1723534 -1.7323109 2.5809729
-0.28519064 -0.36917156 7.9062157
-0.89432418 -1.2508384 14.297856
-1.9965491 -2.8933949 13.572066
-1.4196904 -2.0720768 6.8847027
-1.3064713 -1.9146667 4.8565545
-1.2364687 -1.8168117 3.6648569
-1.1819628 -1.7393154 2.8593569
-1.1313503 -1.6673211 2.2626171
-1.1087226 -1.6444507 2.0287795
-1.0605594 -1.5747788 1.6132829
-1.0450295 -1.5522957 1.311481
-1.0219796 -1.5191889 1.0449779
-0.99902749 -1.4856217 0.81164157
-0.97432703 -1.4494282 0.60329181
-0.96140438 -1.4312742 0.41882181
-0.95233244 -1.4177641 0.24627687
-1.0937989 -1.6174313 1.8202046
-1.056074 -1.5628107 1.4569534
-1.0313609 -1.5268059 1.1683378
-0.99826247 -1.4794648 0.91251045
-0.97996598 -1.4528871 0.6990813
-0.96472406 -1.4308194 0.50692576
-0.95226765 -1.4123404 0.3297919
-0.9352563 -1.3876238 0.16117826
-0.063693859 -0.051605411 7.8889728
-1.2513801 -1.7777442 13.820468
-1.6048324 -2.302572 13.516983
-1.5017557 -2.1771772 8.5025053
-1.3491423 -1.9661441 5.6771321
-1.2592188 -1.8405709 4.1541681
-1.2124696 -1.7762005 3.231178
-1.1675584 -1.7123193 2.5579479
-0.28647754 -0.36817381 7.9062157
-0.89806163 -1.2468441 14.287913
-2.0066366 -2.8864081 13.572066
-1.4161301 -2.0514872 6.8330822
-1.3032801 -1.8957436 4.8205447
-1.2339532 -1.799579 3.639261
-1.1795151 -1.7227478 2.8394065
-1.1295098 -1.6521672 2.2479162
-1.1064399 -1.6287708 2.0147614
-1.0682355 -1.574288 1.6164215
-1.0433998 -1.538257 1.3032565
-1.0223055 -1.5082786 1.0403403
-0.99900633 -1.4744495 0.80789554
-0.97131014 -1.434103 0.59906173
-0.96088797 -1.4197732 0.41695657
-0.94890183 -1.4020585 0.24493563
-1.0931306 -1.6043466 1.810228
-1.0546982 -1.5490913 1.4481238
-1.0318332 -1.5160691 1.1632714
-0.99831724 -1.4684646 0.90831435
-0.97706884 -1.4377407 0.69415081
-0.96424991 -1.4194019 0.50458109
-0.9516263 -1.4008152 0.32841054
-0.93448085 -1.3760846 0.1607752
-0.063837945 -0.051357619 7.8839731
-1.2571284 -1.7727314 13.815529
-1.6128601 -2.2969563 13.516983
-1.4991236 -2.1572132 8.4452419
-1.3448865 -1.945353 5.6311069
-1.2561207 -1.8223609 4.1234446
-1.2090942 -1.7580463 3.2063804
-1.1608235 -1.6897403 2.5310853
-0.28776097 -0.36717156 7.9062157
-0.90272158 -1.244133 14.292885
-2.0167 -2.8793859 13.572066
-1.4114581 -2.0295312 6.7767692
-1.2999728 -1.8768663 4.7845349
-1.2313327 -1.7823864 3.6136658
-1.1786771 -1.7086986 2.8234465
-1.1256545 -1.6342551 2.2295406
-1.1040615 -1.613127 2.0007432
-1.0693307 -1.5641234 1.6101445
-1.0440444 -1.5277011 1.2977736
-1.0200692 -1.4937263 1.033384
-0.9963057 -1.4594671 0.80227643
-0.97090226 -1.4227791 0.59624165
-0.95753556 -1.404235 0.4141587
-0.94817883 -1.3905088 0.24404147
-1.0902714 -1.5882083 1.796926
-1.0555261 -1.5387341 1.4422375
-1.032243 -1.5053476 1.1582052
-0.99574286 -1.4537379 0.90202022
-0.97674578 -1.4265287 0.69086379
-0.96370798 -1.4080054 0.50223649
-0.95091617 -1.3893119 0.32702917
-0.93363643 -1.3645679 0.16037214
-0.064016834 -0.051134471 7.8839731
-1.2628568 -1.7677002 13.810589
-1.6202799 -2.2904811 13.512088
-1.495514 -2.1360712 8.3832054
-1.3416191 -1.9262191 5.589684
-1.2529112 -1.8041953 4.092721
-1.2056068 -1.7399369 3.1815827
-1.1575935 -1.6725004 2.5118976
-0.28904086 -0.36616486 7.9062157
-0.90705895 -1.2409743 14.292885
-2.0267386 -2.8723288 13.572066
-1.4066504 -2.007633 6.7204561
-1.2965497 -1.8580356 4.7485251
-1.2286073 -1.7652341 3.5880699
-1.1760359 -1.6922022 2.8034966
-1.1236207 -1.619175 2.2148399
-1.1015873 -1.5975199 1.986725
-1.072576 -1.5571756 1.607006
-1.0422564 -1.5137156 1.2895492
-1.0152333 -1.4755589 1.0241088
-0.99613982 -1.448341 0.79853034
-0.97042727 -1.4114755 0.59342158
-0.95686829 -1.3927864 0.41229346
-0.94738704 -1.3789815 0.24314731
-1.0894367 -1.5751804 1.7869495
-1.0539963 -1.5250648 1.4334079
-1.0301404 -1.4910954 1.1506057
-0.99565566 -1.4427825 0.89782411
-0.97635639 -1.4153365 0.68757677
-0.96033865 -1.3926284 0.49871951
-0.94732606 -1.3737539 0.32495713
-0.93555844 -1.3571873 0.16017061
-0.064159103 -0.050885804 7.8789735
-1.2699276 -1.7645426 13.820468
-1.6282654 -2.2848113 13.512088
-1.4917758 -2.1149812 8.3211699
-1.3371123 -1.9055326 5.5436587
-1.2509633 -1.7880368 4.0663867
-1.202008 -1.7218739 3.156785
-1.1542577 -1.6553042 2.4927104
-0.29031727 -0.36515367 7.9062157
-0.91201764 -1.2386589 14.302828
-2.0367525 -2.8652365 13.572066
-1.4027023 -1.987203 6.6688352
-1.293011 -1.8392518 4.7125158
-1.2272745 -1.7502581 3.5667403
-1.1750222 -1.6782135 2.7875364
-1.1214956 -1.6041294 2.2001393
-1.1010526 -1.5848784 1.9762113
-1.0735667 -1.5470266 1.6007291
-1.0380002 -1.4963255 1.2785833
-1.0128068 -1.4610844 1.0171524
-0.99326801 -1.4334236 0.79291129
-0.96988529 -1.4001927 0.59060156
-0.95333689 -1.3773205 0.40949559
-0.94369191 -1.3633817 0.24180609
-1.0885246 -1.5621779 1.7769731
-1.0523844 -1.5114251 1.4245785
-1.0279509 -1.476876 1.1430061
-0.99550402 -1.4318455 0.893628
-0.97590089 -1.4041646 0.68428975
-0.95964742 -1.3812841 0.49637488
-0.94646472 -1.362305 0.32357576
-0.93459064 -1.3457065 0.15976755
-0.064336337 -0.050661538 7.8789735
-1.2797285 -1.7651309 13.859982
-1.6362309 -2.2791138 13.512088
-1.4887729 -2.09516 8.2639055
-1.3324773 -1.8849009 5.4976335
-1.2489178 -1.7719139 4.0400519
-1.1982977 -1.7038573 3.1319873
-1.1508158 -1.6381515 2.4735227
-0.29159015 -0.36413807 7.9062157
-0.91633582 -1.2354679 14.302828
-2.0474737 -2.8591316 13.576906
-1.3986288 -1.9668254 6.6172152
-1.2893569 -1.8205152 4.6765056
-1.2258526 -1.7353132 3.5454109
-1.1739255 -1.6642526 2.7715764
-1.1192791 -1.5891184 2.1854386
-1.098398 -1.5693388 1.9621931
-1.0722694 -1.5337001 1.5913138
-1.036031 -1.4824111 1.2703589
-1.0077552 -1.4430128 1.0078771
-0.99295801 -1.4223452 0.78916514
-0.96927631 -1.3889309 0.58778149
-0.95251924 -1.3659259 0.40763035
-0.94274825 -1.3519098 0.24091193
-1.0853896 -1.5461451 1.763671
-1.0506899 -1.4978154 1.415749
-1.0256748 -1.4626905 1.1354066
-0.99268466 -1.4172101 0.88733381
-0.97267085 -1.3891449 0.67935926
-0.95888859 -1.3699619 0.49403024
-0.94269514 -1.346822 0.32150373
-0.93355411 -1.334249 0.15936449
-0.064512782 -0.050436653 7.8789735
-1.2881742 -1.7637902 13.884679
-1.6447734 -2.2742133 13.516983
-1.4821742 -2.0705309 8.1875544
-1.3277148 -1.8643254 5.4516082
-1.2481617 -1.75778 4.0181065
-1.1961036 -1.6881835 3.1113224
-1.1491202 -1.6236594 2.4581726
-0.29285944 -0.36311799 7.9062157
-0.92096192 -1.2326885 14.307799
-2.0581768 -2.8529866 13.581745
-1.3944303 -1.9465005 6.5655947
-1.2855881 -1.801827 4.6404958
-1.2243412 -1.7203993 3.524081
-1.1710001 -1.6478639 2.7516263
-1.1169717 -1.5741426 2.170738
-1.0956486 -1.5538372 1.948175
-1.0708921 -1.5204014 1.5818983
-1.0363846 -1.4719478 1.264876
-1.0051388 -1.4286176 1.0009208
-0.98991579 -1.4074947 0.78354609
-0.96860063 -1.3776907 0.58496141
-0.95163363 -1.3545538 0.40576512
-0.93887311 -1.3363862 0.23957069
-1.0843121 -1.5332017 1.7536945
-1.0489135 -1.4842362 1.4069196
-1.0233122 -1.4485389 1.127807
-0.99239188 -1.40632 0.88313776
-0.97206992 -1.3780239 0.67607224
-0.95806259 -1.3586617 0.4916856
-0.94168305 -1.3354291 0.32012239
-0.93244904 -1.3228154 0.15896143
-0.064688452 -0.050211154 7.8789735
-1.2970861 -1.7630377 13.914314
-1.6527017 -2.2684581 13.516983
-1.4693099 -2.037499 8.0777988
-1.3239641 -1.8453935 5.4101858
-1.2459291 -1.7417254 3.9917724
-1.1938145 -1.6725464 3.0906579
-1.1454766 -1.6065896 2.4389851
-0.29412517 -0.36209354 7.9062157
-0.92525917 -1.2294663 14.307799
-2.0681231 -2.8457849 13.581745
-1.3901072 -1.9262291 6.5139742
-1.2817048 -1.7831873 4.6044865
-1.2212209 -1.703398 3.4984856
-1.1679746 -1.6315159 2.7316759
-1.1145734 -1.5592022 2.1560371
-1.0928046 -1.5383739 1.9341568
-1.0671828 -1.5039568 1.5693445
-1.0342586 -1.4580896 1.2566516
-1.0024345 -1.4142584 0.99396437
-0.98946244 -1.3964653 0.7798
-0.96785837 -1.3664721 0.58214134
-0.95068043 -1.3432046 0.40389988
-0.93777829 -1.3249711 0.23867653
-1.0831574 -1.520285 1.7437181
-1.0470549 -1.4706876 1.39809
-1.0208635 -1.4344215 1.1202074
-0.99203533 -1.3954492 0.87894166
-0.97140336 -1.366924 0.67278522
-0.95435452 -1.3434216 0.48816866
-0.94060296 -1.3240597 0.31874102
-0.93127549 -1.3114058 0.15855835
-0.064863324 -0.04998504 7.8789735
-1.305546 -1.7616203 13.93901
-1.6606102 -2.2626753 13.516983
-1.4536008 -2.0009594 7.9537272
-1.3200976 -1.8265108 5.368763
-1.2435995 -1.7257078 3.9654377
-1.1914312 -1.6569458 3.069993
-1.1435978 -1.5921683 2.423635
-0.29520404 -0.36084157 7.9012237
-0.92954516 -1.2262291 14.307799
-2.0780442 -2.8385484 13.581745
-1.3856596 -1.9060117 6.4623537
-1.277707 -1.7645969 4.5684767
-1.2195243 -1.6885538 3.4771557
-1.1648494 -1.6152091 2.711726
-1.1120845 -1.5442982 2.1413364
-1.0919412 -1.5258496 1.9236431
-1.0633715 -1.4875566 1.5567907
-1.0320486 -1.4442644 1.2484273
-1.0022165 -1.4035405 0.98932678
-0.98625076 -1.3816833 0.77418089
-0.9670496 -1.3552754 0.57932127
-0.94965953 -1.3318787 0.40203464
-0.93661517 -1.31358 0.23778237
-1.0797489 -1.5043616 1.7304161
-1.0451149 -1.4571704 1.3892606
-1.0183287 -1.4203393 1.112608
-0.98897249 -1.3809084 0.87264746
-0.97067106 -1.3558457 0.66949821
-0.95338047 -1.3321767 0.48582402
-0.94233704 -1.3167413 0.31805035
-0.93003386 -1.3000206 0.15815529
-0.065001145 -0.049734052 7.8739734
-1.3144766 -1.7607877 13.968646
-1.6684982 -2.2568648 13.516983
-1.4526422 -1.9850322 7.9107795
-1.3161154 -1.8076775 5.3273401
-1.2397664 -1.7077898 3.9347143
-1.1889533 -1.6413821 3.0493283
-1.1397536 -1.5751832 2.4044476
-0.29627776 -0.35958654 7.8962326
-0.93381983 -1.2229768 14.307799
-2.08794 -2.8312774 13.581745
-1.3810879 -1.8858494 6.4107337
-1.2748783 -1.7478151 4.5369682
-1.2177386 -1.6737421 3.455826
-1.1616247 -1.5989443 2.6917758
-1.1095053 -1.5294305 2.126636
-1.0889184 -1.5104574 1.9096249
-1.0594591 -1.4712018 1.5442369
-1.0297546 -1.4304724 1.2402028
-0.99934912 -1.3892456 0.98237038
-0.98565465 -1.3707047 0.77043486
-0.96617454 -1.3441012 0.57650119
-0.94570541 -1.3165866 0.3992368
-0.93538404 -1.3022132 0.23688821
-1.0784299 -1.4915063 1.7204396
-1.0430932 -1.4436845 1.3804312
-1.0182323 -1.4097869 1.1075416
-0.98847568 -1.3700866 0.86845136
-0.96987343 -1.3447891 0.66621119
-0.95233971 -1.3209552 0.48347941
-0.94113559 -1.3054101 0.31666899
-0.92872405 -1.28866 0.15775223
-0.065174349 -0.049506854 7.8739734
-1.3238844 -1.7605354 14.003221
-1.676366 -2.2510271 13.516983
-1.4498188 -1.9667336 7.8582883
-1.3120179 -1.7888947 5.2859173
-1.2372371 -1.6918527 3.9083796
-1.1863816 -1.6258564 3.0286636
-1.1358048 -1.5582443 2.3852601
-0.29734632 -0.35832837 7.8912406
-0.93808317 -1.2197098 14.307799
-2.0970604 -2.8229628 13.576906
-1.3763924 -1.8657418 6.3591127
-1.2706587 -1.7293205 4.5009584
-1.2158648 -1.6589637 3.4344964
-1.1583008 -1.5827219 2.6718256
-1.1088363 -1.517337 2.1156106
-1.0878972 -1.4979906 1.8991114
-1.0554456 -1.4548925 1.5316831
-1.0273772 -1.4167143 1.2319785
-0.99899358 -1.3785748 0.97773278
-0.98499382 -1.3597469 0.76668876
-0.96523345 -1.3329499 0.57368112
-0.94453603 -1.3053182 0.39737156
-0.93408513 -1.2908711 0.23599406
-1.0748364 -1.4756609 1.7071376
-1.0386114 -1.4269626 1.3686585
-1.0155385 -1.3957667 1.0999421
-0.98791558 -1.3592854 0.86425525
-0.96901041 -1.3337548 0.66292417
-0.95123225 -1.3097572 0.48113477
-0.94277644 -1.2981101 0.31597832
-0.92734641 -1.2773248 0.15734917
-0.065346763 -0.049279049 7.8739734
-1.3333066 -1.7602386 14.037795
-1.6836022 -2.2443471 13.512088
-1.4477752 -1.949677 7.8105679
-1.3089664 -1.7717336 5.2490973
-1.234612 -1.6759545 3.8820455
-1.1837161 -1.6103686 3.0079987
-1.1336488 -1.5439363 2.36991
-0.2984097 -0.35706711 7.8862491
-0.94233501 -1.2164278 14.307799
-2.1061485 -2.8146191 13.572066
-1.3715737 -1.8456907 6.3074927
-1.2676209 -1.7126263 4.4694495
-1.2123536 -1.6421208 3.408901
-1.1566659 -1.5689677 2.6558657
-1.1060865 -1.5025368 2.1009099
-1.0846964 -1.4826711 1.885093
-1.0536277 -1.4417716 1.5222677
-1.0249163 -1.4029902 1.223754
-0.99857575 -1.3679236 0.97309518
-0.98426878 -1.3488109 0.76294273
-0.96422625 -1.3218216 0.57086104
-0.94329953 -1.2940741 0.39550632
-0.93271846 -1.2795541 0.2350999
-1.0733542 -1.462869 1.697161
-1.0364158 -1.4135495 1.3598289
-1.0127591 -1.3817828 1.0923425
-0.98729217 -1.3485047 0.86005914
-0.97087121 -1.3265536 0.66128063
-0.95005828 -1.2985831 0.47879013
-0.94145387 -1.2868179 0.31459692
-0.92885029 -1.2700474 0.15714765
-0.065518379 -0.049050648 7.8739734
-1.3432137 -1.760515 14.07731
-1.6914262 -2.2384565 13.512088
-1.4447362 -1.9314636 7.7580757
-1.3046448 -1.7530489 5.2076745
-1.2318909 -1.6600953 3.8557107
-1.1826315 -1.5971808 2.991467
-1.1314069 -1.529662 2.3545601
-0.29965428 -0.35602328 7.8862491
-0.94657534 -1.2131311 14.307799
-2.1167171 -2.8082538 13.576906
-1.367666 -1.8270775 6.2605648
-1.2644824 -1.6959748 4.4379416
-1.2102962 -1.6274155 3.3875711
-1.1531527 -1.5528251 2.6359155
-1.103247 -1.4877743 2.0862093
-1.083518 -1.4702635 1.8745794
-1.0494237 -1.4255471 1.5097139
-1.0248506 -1.3926686 1.2182711
-0.99809593 -1.3572921 0.96845758
-0.98347938 -1.3378963 0.75919664
-0.96315312 -1.3107165 0.56804103
-0.9419961 -1.2828547 0.39364108
-0.9342317 -1.2722765 0.23465282
-1.0717961 -1.4501058 1.6871846
-1.0341395 -1.4001693 1.3509996
-1.0124551 -1.3713032 1.0872761
-0.98391163 -1.3340925 0.85376495
-0.96989137 -1.3155549 0.65799361
-0.9517017 -1.2913461 0.47761783
-0.94006401 -1.2755511 0.31321558
-0.92735142 -1.2587529 0.15674458
-0.065762401 -0.048869167 7.8839731
-1.3531393 -1.7607437 14.116823
-1.6986127 -2.2317286 13.507193
-1.4397911 -1.9109111 7.6960402
-1.3013808 -1.7359791 5.1708541
-1.2290744 -1.6442755 3.8293765
-1.1797868 -1.5817649 2.9708023
-1.1290791 -1.5154225 2.33921
-0.30070806 -0.35475531 7.8812571
-0.95080429 -1.2098196 14.307799
-2.126507 -2.8008478 13.576906
-1.3636451 -1.8085141 6.2136374
-1.2625506 -1.6811068 4.4109344
-1.2081507 -1.6127446 3.3662415
-1.149541 -1.5367264 2.6159654
-1.1023469 -1.4757661 2.0751836
-1.0822662 -1.4578819 1.8640658
-1.0497564 -1.4156224 1.5034369
-1.0222353 -1.3790053 1.2100466
-0.99755406 -1.3466808 0.96381998
-0.98262578 -1.3270038 0.75545061
-0.95916027 -1.2957795 0.56381088
-0.94354707 -1.2756093 0.39270842
-0.93274415 -1.2610003 0.23375866
-1.0701618 -1.4373711 1.6772081
-1.0317823 -1.3868222 1.34217
-1.0095179 -1.3573838 1.0796765
-0.98314929 -1.3233638 0.8495689
-0.96884668 -1.3045791 0.6547066
-0.95040888 -1.2802107 0.47527319
-0.93860716 -1.2643095 0.31183422
-0.92876232 -1.2514964 0.15654305
-0.065969266 -0.048662942 7.8889728
-1.3645099 -1.7627678 14.171156
-1.7063926 -2.2257857 13.507193
-1.4347202 -1.8904166 7.6340041
-1.2980137 -1.7189537 5.1340342
-1.2261623 -1.6284959 3.8030419
-1.1785396 -1.5686382 2.9542706
-1.1266658 -1.5012181 2.3238599
-0.30194452 -0.3537035 7.8812571
-0.95502156 -1.2064933 14.307799
-2.1377981 -2.7954049 13.586585
-1.3595115 -1.790001 6.1667094
-1.2605301 -1.666273 4.3839269
-1.205918 -1.5981088 3.3449118
-1.1458311 -1.520672 2.5960152
-1.0993382 -1.4610735 2.060483
-1.0809413 -1.4455274 1.8535522
-1.0477033 -1.4025946 1.4940217
-1.0220388 -1.3687278 1.2045637
-0.99430108 -1.3325394 0.95686358
-0.98170817 -1.3161339 0.75170451
-0.95794255 -1.2847322 0.56099087
-0.94505906 -1.2683688 0.39177582
-0.9341647 -1.2537434 0.23331158
-1.0662116 -1.4216788 1.663906
-1.0293448 -1.3735089 1.3333406
-1.0090805 -1.3469517 1.0746102
-0.98232406 -1.3126564 0.8453728
-0.96773732 -1.293627 0.65141958
-0.95196098 -1.272993 0.47410086
-0.93708324 -1.253094 0.31045285
-0.92714262 -1.2402439 0.15613998
-0.066212252 -0.048479374 7.8989725
-1.3725661 -1.7604449 14.190912
-1.7135292 -2.2190099 13.502297
-1.4295242 -1.8699815 7.571969
-1.2957263 -1.7035279 5.1018167
-1.2231551 -1.6127565 3.7767072
-1.1755167 -1.5532955 2.9336057
-1.1261002 -1.4896057 2.3123474
-0.30317736 -0.35264736 7.8812571
-0.9592272 -1.2031522 14.307799
-2.1483099 -2.7889214 13.591425
-1.3552655 -1.7715392 6.119782
-1.258422 -1.651474 4.3569193
-1.2035977 -1.5835083 3.3235822
-1.143845 -1.5070623 2.5800552
-1.0962403 -1.44642 2.0457823
-1.0795434 -1.4331999 1.8430386
-1.0479122 -1.3927084 1.4877448
-1.0217834 -1.3584685 1.1990808
-0.99362332 -1.3219783 0.95222592
-0.9807269 -1.3052865 0.74795848
-0.9566595 -1.2737092 0.5581708
-0.94358319 -1.2572048 0.38991058
-0.93255657 -1.2425091 0.23241742
-1.0644156 -1.4090109 1.6539296
-1.0292622 -1.3634557 1.3274543
-1.0085827 -1.3365393 1.0695438
-0.97870409 -1.2983471 0.83907861
-0.96656322 -1.2826985 0.64813256
-0.95347416 -1.2657799 0.47292855
-0.93847215 -1.24586 0.30976218
-0.92846096 -1.233009 0.15593846
-0.066417918 -0.048271328 7.9039726
-1.3811027 -1.7586981 14.215609
-1.7212646 -2.2130148 13.502297
-1.4242029 -1.8496054 7.509933
-1.2933472 -1.6881392 5.0695987
-1.2215074 -1.5989616 3.7547622
-1.1741076 -1.5402312 2.917074
-1.1235255 -1.4754657 2.2969975
-0.30440646 -0.35158691 7.8812571
-0.96342111 -1.1997966 14.307799
-2.1588027 -2.7823985 13.596264
-1.3519605 -1.754496 6.0775471
-1.2575514 -1.6384372 4.3344135
-1.1996049 -1.5668728 3.2979865
-1.1399477 -1.4910914 2.5601048
-1.095111 -1.4345007 2.0347569
-1.0780727 -1.4208999 1.832525
-1.0480651 -1.382838 1.4814678
-1.0214688 -1.348228 1.1935979
-0.99288386 -1.3114386 0.94758832
-0.97968173 -1.294462 0.74421245
-0.95531112 -1.262711 0.55535072
-0.94500351 -1.2499849 0.38897794
-0.93088156 -1.2313013 0.23152326
-1.0602833 -1.3934016 1.6406276
-1.0266755 -1.3502021 1.3186247
-1.0080246 -1.3261467 1.0644776
-0.97774112 -1.2876936 0.8348825
-0.9653247 -1.271794 0.64484555
-0.95201069 -1.2546995 0.47058392
-0.93682867 -1.2346865 0.30838081
-0.92672104 -1.2217996 0.1555354
-0.06658601 -0.04803919 7.9039726
-1.3877153 -1.7544756 14.220548
-1.7289789 -2.2069931 13.502297
-1.4196719 -1.8304693 7.4526691
-1.2908766 -1.6727881 5.0373812
-1.2183176 -1.5832998 3.7284274
-1.1726214 -1.5271958 2.9005423
-1.1208658 -1.4613619 2.2816474
-0.30563191 -0.35052219 7.8812571
-0.96760333 -1.1964263 14.307799
-2.1638577 -2.7689037 13.567228
-1.3474951 -1.7361343 6.0306191
-1.2566051 -1.6254264 4.3119073
-1.1971035 -1.5523498 3.2766569
-1.1377916 -1.4775537 2.5441449
-1.0918452 -1.4199195 2.0200562
-1.0765293 -1.4086275 1.8220112
-1.048162 -1.3729837 1.475191
-1.0185584 -1.3346822 1.1853735
-0.98939681 -1.2973975 0.94063193
-0.97857302 -1.2836607 0.7404663
-0.95389771 -1.2517377 0.55253065
-0.94638491 -1.2427706 0.38804534
-0.9321568 -1.2240825 0.23107618
-1.0583265 -1.3808019 1.630651
-1.0264667 -1.3401924 1.3127384
-1.0074062 -1.3157746 1.0594112
-0.97671556 -1.2770629 0.83068645
-0.96115386 -1.2571626 0.63991499
-0.95048141 -1.2436448 0.46823925
-0.93812573 -1.2274742 0.30769014
-0.92491418 -1.2106174 0.15513234
-0.066753291 -0.047806468 7.9039726
-1.3947997 -1.7508364 14.230426
-1.7366722 -2.2009444 13.502297
-1.4150246 -1.8113872 7.3954048
-1.2883147 -1.6574748 5.0051637
-1.2150335 -1.56768 3.7020931
-1.1727802 -1.5164155 2.8881433
-1.1200813 -1.4498314 2.2701349
-0.30685359 -0.34945321 7.8812571
-0.97143692 -1.1926283 14.302828
-1.3439809 -1.7191848 5.9883842
-1.2555834 -1.6124424 4.2894015
-1.1945153 -1.5378636 3.2553272
-1.1355548 -1.4640493 2.5281849
-1.0905671 -1.4080591 2.0090308
-1.0749135 -1.3963836 1.8114977
-1.0482026 -1.3631456 1.468914
-1.0181143 -1.3244884 1.1798905
-0.98852253 -1.2869101 0.93599433
-0.97740096 -1.2728832 0.73672026
-0.9524194 -1.24079 0.54971057
-0.94473779 -1.2316641 0.3861801
-0.93036216 -1.2129184 0.23018204
-1.0540129 -1.3652774 1.617349
-1.0237316 -1.3270004 1.3039091
-1.0040952 -1.3020093 1.0518116
-0.97562778 -1.2664551 0.82649034
-0.95977396 -1.2463173 0.63662797
-0.94888669 -1.2326164 0.46589461
-0.93938386 -1.2202681 0.30699944
-0.92304069 -1.1994629 0.15472928
-0.066882677 -0.047550183 7.8989725
-1.4018755 -1.747169 14.240305
-1.7443444 -2.1948688 13.502297
-1.4111849 -1.7935332 7.3429132
-1.2868662 -1.6437383 4.9775481
-1.213129 -1.5539901 3.6801476
-1.1728781 -1.5056528 2.8757446
-1.1172613 -1.4357944 2.2547848
-0.30807152 -0.34837994 7.8812571
-0.9755941 -1.1892301 14.302828
-1.3403651 -1.7022811 5.9461493
-1.2544866 -1.5994852 4.2668953
-1.1918406 -1.5234144 3.2339973
-1.1313827 -1.4482042 2.5082345
-1.0871342 -1.3935521 1.9943302
-1.0754106 -1.3869864 1.8044887
-1.0481876 -1.3533239 1.4626372
-1.0150516 -1.3110077 1.1716661
-0.98758709 -1.2764446 0.93135673
-0.97616571 -1.2621297 0.73297417
-0.95381057 -1.2336628 0.54830056
-0.94302481 -1.2205844 0.38431486
-0.93154567 -1.2057227 0.22973496
-1.0518959 -1.3527474 1.6073725
-1.023397 -1.3170353 1.2980225
-1.0007005 -1.2882835 1.0442121
-0.97447807 -1.2558706 0.82229424
-0.95832998 -1.2354969 0.63334101
-0.94722664 -1.2216144 0.46355
-0.9406032 -1.2130681 0.30630878
-0.92110068 -1.1883364 0.15432622
-0.067011081 -0.047293574 7.8939724
-1.4079657 -1.7422649 14.240305
-1.7519952 -2.1887667 13.502297
-1.4072379 -1.7757285 7.2904215
-1.2841276 -1.628498 4.9453306
-1.2111441 -1.5403329 3.6582022
-1.1711782 -1.4926941 2.8592129
-1.1143571 -1.421795 2.2394347
-0.30928573 -0.34730247 7.8812571
-0.97973937 -1.1858174 14.302828
-1.5393554 -1.9279115 9.5359869
-1.3366477 -1.6854239 5.9039149
-1.2533146 -1.5865557 4.2443895
-1.1906942 -1.5110512 3.2169337
-1.1289774 -1.4347742 2.4922745
-1.085708 -1.3817517 1.9833045
-1.0736601 -1.3747922 1.7939749
-1.0457226 -1.3404503 1.4532217
-1.0093358 -1.2942675 1.1607003
-0.98659068 -1.2660013 0.92671913
-0.97486722 -1.2514001 0.72922814
-0.95221615 -1.2227563 0.54548049
-0.94124603 -1.2095319 0.38244963
-0.92963189 -1.1946033 0.2288408
-1.0497044 -1.3402492 1.5973961
-1.0230056 -1.3070891 1.2921362
-0.99987859 -1.2779922 1.0391457
-0.97326618 -1.2453094 0.81809807
-0.9568224 -1.224702 0.630054
-0.94550145 -1.210639 0.46120536
-0.9387356 -1.2019719 0.30492741
-0.92216867 -1.1811761 0.15412468
-0.067175761 -0.047059372 7.8939724
-1.4164915 -1.7403522 14.265
-1.7596248 -2.1826377 13.502297
-1.404115 -1.7591395 7.2427015
-1.2825137 -1.6148269 4.9177151
-1.2090784 -1.5267085 3.6362567
-1.171147 -1.4819735 2.8468139
-1.1113689 -1.4078336 2.2240849
-0.31049615 -0.34622073 7.8812571
-0.98353153 -1.1819805 14.297856
-1.5476513 -1.9244853 9.5456657
-1.3328291 -1.6686134 5.86168
-1.2520676 -1.5736539 4.2218833
-1.1878544 -1.4966719 3.1956041
-1.126492 -1.4213787 2.4763145
-1.0821089 -1.3673202 1.9686038
-1.0740427 -1.3654301 1.7869658
-1.0431805 -1.3276103 1.4438063
-1.0060985 -1.2808716 1.152476
-0.9827984 -1.2520962 0.91976279
-0.97350585 -1.2406952 0.72548205
-0.95055741 -1.211876 0.54266042
-0.93940163 -1.1985067 0.38058439
-0.93072402 -1.1874316 0.22839372
-1.0474386 -1.3277826 1.5874195
-1.0225571 -1.2971617 1.2862499
-0.99632895 -1.2643368 1.0315461
-0.97479993 -1.2383382 0.81600004
-0.95817137 -1.2176436 0.62841046
-0.94371128 -1.1996907 0.45886073
-0.93986386 -1.1947956 0.30423674
-0.92010987 -1.1700956 0.15372162
-0.067339621 -0.046824597 7.8939724
-1.4181237 -1.7299895 14.220548
-1.7672329 -2.1764822 13.502297
-1.4008938 -1.7425945 7.1949821
-1.28082 -1.6011871 4.8901005
-1.2069325 -1.5131173 3.6143112
-1.1710552 -1.4712713 2.834415
-1.1102918 -1.3964193 2.2125723
-0.31189677 -0.34534863 7.8862491
-0.98765147 -1.1785401 14.297856
-1.5377443 -1.8985604 9.4440384
-1.3289093 -1.65185 5.8194447
-1.2493846 -1.5590814 4.1948757
-1.1865575 -1.4843681 3.1785405
-1.125807 -1.4103732 2.4643445
-1.0805355 -1.3555818 1.9575783
-1.0743731 -1.3560823 1.7799567
-1.0405617 -1.3148048 1.434391
-1.0053747 -1.2707936 1.146993
-0.98166829 -1.2417079 0.91512519
-0.97208172 -1.2300153 0.72173601
-0.95180804 -1.2047864 0.54125035
-0.93749183 -1.1875092 0.37871915
-0.92869169 -1.1763581 0.22749956
-1.0474216 -1.3182716 1.5807685
-1.0220519 -1.2872534 1.2803636
-0.99269611 -1.2507218 1.0239466
-0.97347713 -1.2278155 0.81180394
-0.95654958 -1.2068901 0.62512344
-0.94185627 -1.1887697 0.45651609
-0.93787825 -1.1837448 0.30285537
-0.92108673 -1.1629602 0.15352009
-0.067502655 -0.046589255 7.8939724
-1.7748196 -2.1703 13.502297
-1.3975739 -1.7260932 7.1472621
-1.2778209 -1.5860574 4.8578825
-1.2047068 -1.4995601 3.592366
-1.169143 -1.4583925 2.8178833
-1.1071451 -1.3825279 2.1972225
-0.31310034 -0.3442578 7.8862491
-0.99175936 -1.1750854 14.297856
-1.5364159 -1.8834418 9.3956432
-1.3259757 -1.6364757 5.7819028
-1.2466153 -1.5445472 4.1678686
-1.1851891 -1.4720916 3.1614769
-1.1231709 -1.3970414 2.4483843
-1.0788934 -1.343871 1.946553
-1.0724269 -1.3439612 1.769443
-1.0354401 -1.29899 1.4218372
-1.0019869 -1.2574658 1.1387686
-0.97771841 -1.2278776 0.90816879
-0.97059506 -1.2193604 0.71798992
-0.9500339 -1.1939493 0.53843033
-0.93857396 -1.1803845 0.37778652
-0.92969286 -1.1692113 0.22705248
-1.0473508 -1.3087772 1.5741175
-1.0214901 -1.2773645 1.2744772
-0.9916724 -1.2405149 1.0188802
-0.97209287 -1.217317 0.80760783
-0.95486444 -1.1961628 0.62183642
-0.94296837 -1.1816756 0.45534378
-0.93582696 -1.1727223 0.30147403
-0.91890961 -1.1519269 0.15311703
-0.067627385 -0.046331003 7.8889728
-1.3844572 -1.6650872 13.766136
-1.7823844 -2.1640916 13.502297
-1.3950998 -1.7107934 7.1043143
-1.2759632 -1.5724854 4.8302674
-1.202401 -1.4860368 3.5704205
-1.1653873 -1.4433558 2.7972186
-1.1039149 -1.3686757 2.1818724
-0.31449556 -0.34337527 7.8912406
-0.99585503 -1.1716164 14.297856
-1.5413849 -1.8761247 9.3859644
-1.3218596 -1.6198049 5.7396679
-1.2451329 -1.5317404 4.1453629
-1.1837497 -1.4598428 3.1444128
-1.1223515 -1.3860871 2.4364142
-1.0771829 -1.3321884 1.9355273
-1.0726433 -1.3346502 1.7624339
-1.0326576 -1.2862624 1.4124217
-1.0011357 -1.2474385 1.1332856
-0.97922707 -1.2210016 0.90584999
-0.96904582 -1.2087309 0.71424389
-0.94819593 -1.1831393 0.53561026
-0.93654722 -1.1694328 0.37592128
-0.92754245 -1.1581848 0.22615832
-1.0472267 -1.2992994 1.5674665
-1.0183363 -1.2643474 1.2656479
-0.99329299 -1.233688 1.0163471
-0.97064728 -1.2068433 0.80341172
-0.95607495 -1.1891422 0.62019289
-0.94099742 -1.1707997 0.45299914
-0.93371022 -1.1617289 0.30009267
-0.91979581 -1.1448176 0.15291549
-0.067788705 -0.04609466 7.8889728
-1.3189143 -1.5750661 13.059822
-1.7892774 -2.157073 13.497402
-1.3915883 -1.6943785 7.0565944
-1.2740263 -1.5589457 4.8026524
-1.2000155 -1.472548 3.5484753
-1.1633165 -1.4305462 2.7806866
-1.1026226 -1.3573505 2.1703598
-0.31569225 -0.34227535 7.8912406
-0.99993873 -1.1681331 14.297856
-1.526287 -1.844587 9.2553005
-1.3187394 -1.604516 5.7021255
-1.2421973 -1.5172784 4.1183553
-1.1822393 -1.4476222 3.1273491
-1.1214696 -1.3751554 2.424444
-1.0775448 -1.3231628 1.928177
-1.0705642 -1.3225821 1.7519203
-1.029799 -1.2735702 1.4030064
-0.99759805 -1.2341808 1.1250613
-0.97791606 -1.2106841 0.90121239
-0.97034675 -1.2017342 0.71237087
-0.94930696 -1.1760895 0.53420019
-0.93753952 -1.162333 0.37498868
-0.92845297 -1.1510638 0.22571123
-1.047049 -1.2898382 1.5608156
-1.0176506 -1.2545071 1.2597615
-0.99216294 -1.2235168 1.0112808
-0.96914047 -1.1963946 0.79921561
-0.9542765 -1.178458 0.61690587
-0.9420203 -1.1637299 0.45182684
-0.93152815 -1.1507645 0.2987113
-0.91750103 -1.1338326 0.15251243
-0.067949191 -0.04585775 7.8889728
-1.3208975 -1.5662954 13.025248
-1.7967962 -2.1508143 13.497402
-1.388931 -1.6791594 7.0136466
-1.2720106 -1.545439 4.7750373
-1.1975508 -1.4590942 3.5265298
-1.1593874 -1.4155918 2.7600219
-1.0992351 -1.3435706 2.1550097
-0.31688511 -0.34117129 7.8912406
-1.0040102 -1.1646355 14.297856
-1.5214498 -1.8257301 9.1875477
-1.3155285 -1.5892688 5.6645837
-1.2405609 -1.5045353 4.095849
-1.180658 -1.4354299 3.1102853
-1.1186125 -1.3619187 2.408484
-1.077857 -1.314151 1.9208267
-1.0684137 -1.310545 1.7414067
-1.0268645 -1.2609135 1.393591
-0.99662018 -1.2242056 1.1195784
-0.97654504 -1.2003906 0.8965748
-0.96868563 -1.1911463 0.70862478
-0.94735444 -1.1653243 0.53138018
-0.93539637 -1.1514279 0.37312344
-0.92618519 -1.1400853 0.22481708
-1.0468183 -1.2803943 1.5541645
-1.0143512 -1.2415569 1.250932
-0.99097407 -1.2133687 1.0062144
-0.96757251 -1.1859711 0.79501951
-0.95241517 -1.167801 0.61361885
-0.9399339 -1.1529 0.4494822
-0.93241018 -1.1436677 0.29802063
-0.91829705 -1.1267503 0.15231091
-0.068108849 -0.045620285 7.8889728
-1.3193136 -1.5533848 12.956098
-1.8042929 -2.1445291 13.497402
-1.385229 -1.6628325 6.9659266
-1.2699162 -1.5319654 4.7474217
-1.1965327 -1.4475213 3.5089736
-1.1553681 -1.4006823 2.739357
-1.0978032 -1.3323045 2.1434972
-0.31807408 -0.3400631 7.8912406
-1.0080694 -1.1611238 14.297856
-1.5116508 -1.8011529 9.0907602
-1.3122275 -1.5740638 5.6270413
-1.2388511 -1.4918225 4.0733433
-1.1790061 -1.4232665 3.0932217
-1.1175977 -1.3510405 2.3965139
-1.0759603 -1.3025397 1.9098014
-1.0684556 -1.3012952 1.7343976
-1.0238543 -1.2482932 1.3841758
-0.99558485 -1.2142524 1.1140954
-0.97792161 -1.1935478 0.89425594
-0.96696252 -1.1805849 0.70487875
-0.94837737 -1.1582986 0.52997011
-0.93629926 -1.1443539 0.3721908
-0.92700565 -1.1329912 0.22437
-1.0441611 -1.2680856 1.5441881
-1.0135423 -1.2317662 1.2450458
-0.98972636 -1.2032437 1.001148
-0.9688251 -1.1790799 0.79292148
-0.95049119 -1.1571714 0.61033183
-0.94086796 -1.1458554 0.44830987
-0.933254 -1.1365787 0.29732993
-0.91905481 -1.1196765 0.15210937
-0.068267681 -0.045382261 7.8889728
-1.3227074 -1.5464084 12.936341
-1.8111097 -2.1374412 13.492506
-1.3814299 -1.6465522 6.9182067
-1.2677432 -1.5185254 4.7198071
-1.1954486 -1.4359736 3.4914172
-1.1512591 -1.3858185 2.7186925
-1.0963063 -1.3210649 2.1319847
-0.31925917 -0.33895075 7.8912406
-1.0117654 -1.1571966 14.292885
-1.5041336 -1.7795465 9.0084896
-1.3088362 -1.5589011 5.5894995
-1.2356708 -1.47747 4.0463357
-1.1772838 -1.4111322 3.0761578
-1.1145916 -1.337871 2.380554
-1.0739957 -1.2909576 1.8987757
-1.0661733 -1.289313 1.7238841
-1.0207684 -1.2357091 1.3747603
-0.99449217 -1.2043214 1.1086124
-0.97644293 -1.1832936 0.88961834
-0.96517754 -1.17005 0.70113266
-0.94631094 -1.1475792 0.52715003
-0.93716413 -1.1372876 0.3712582
-0.92462087 -1.122062 0.22347584
-1.0438141 -1.258685 1.537537
-1.0100982 -1.2188843 1.2362163
-0.98567009 -1.1898228 0.99354851
-0.96714777 -1.1686978 0.78872538
-0.95151466 -1.150208 0.60868835
-0.93866676 -1.1350727 0.44596523
-0.93090403 -1.1256819 0.29594857
-0.91977441 -1.1126111 0.15190785
-0.068425678 -0.045143686 7.8889728
-1.3235326 -1.5364842 12.891888
-1.8185598 -2.1311061 13.492506
-1.3765708 -1.6291789 6.865715
-1.2642347 -1.5036238 4.6875892
-1.1942985 -1.4244511 3.473861
-1.1470605 -1.3710005 2.6980276
-1.0947442 -1.3098521 2.1204722
-0.32044041 -0.33783427 7.8912406
-1.0157986 -1.1536578 14.292885
-1.4948543 -1.7561007 8.9165411
-1.3053554 -1.5437816 5.5519571
-1.2338079 -1.4648229 4.0238295
-1.1754912 -1.3990273 3.0590942
-1.1134442 -1.3270472 2.3685837
-1.0741408 -1.2820038 1.8914254
-1.0638204 -1.2773626 1.7133703
-1.0176073 -1.2231619 1.3653449
-0.99334252 -1.1944128 1.1031295
-0.97490472 -1.1730645 0.88498074
-0.96629333 -1.1631079 0.69925964
-0.94724613 -1.1405785 0.52574003
-0.93799126 -1.1302295 0.37032557
-0.92217124 -1.1111633 0.22258168
-1.0434142 -1.2493023 1.5308859
-1.0091666 -1.2091446 1.23033
-0.984294 -1.179755 0.98848218
-0.96540999 -1.1583421 0.78452927
-0.94947845 -1.1396236 0.60540134
-0.9364019 -1.1243196 0.44362062
-0.93165845 -1.1186203 0.2952579
-0.92045599 -1.1055542 0.15170631
-0.06858284 -0.044904564 7.8889728
-1.3309249 -1.5342023 12.911644
-1.8259876 -2.1247451 13.492506
-1.3725749 -1.6129963 6.8179955
-1.2619003 -1.4902564 4.6599741
-1.1915374 -1.4111245 3.4519155
-1.1427726 -1.3562288 2.6773629
-1.0951816 -1.3011186 2.1127973
-0.32161769 -0.33671364 7.8912406
-1.0198194 -1.150105 14.292885
-1.4854299 -1.7327416 8.8245916
-1.3029039 -1.5300192 5.5191078
-1.2304637 -1.4505471 3.9968226
-1.1736284 -1.3869522 3.0420306
-1.1102899 -1.3139466 2.3526237
-1.07205 -1.2704736 1.8803998
-1.0613972 -1.2654445 1.7028567
-1.0143714 -1.2106522 1.3559296
-0.9921357 -1.1845272 1.0976466
-0.97330695 -1.1628604 0.88034314
-0.96439761 -1.152617 0.69551355
-0.94814408 -1.1335856 0.52433002
-0.93878049 -1.1231793 0.36939296
-0.92285061 -1.1041166 0.22213461
-1.0405582 -1.2370807 1.5209095
-1.0081795 -1.1994265 1.2244437
-0.98008639 -1.1664109 0.98088264
-0.96652955 -1.1514889 0.78243119
-0.95041537 -1.1326851 0.6037578
-0.93407339 -1.1135961 0.44127598
-0.93237507 -1.1115674 0.2945672
-0.92109948 -1.0985062 0.15150478
-0.068739168 -0.04466489 7.8889728
-1.3378059 -1.5313025 12.926462
-1.8333931 -2.1183584 13.492506
-1.3694543 -1.5979949 6.7750473
-1.2582201 -1.4754373 4.6277561
-1.1902493 -1.3996589 3.4343591
-1.1402164 -1.3436494 2.6608312
-1.0934986 -1.2899531 2.1012847
-0.3229917 -0.33579662 7.8962326
-1.0238278 -1.1465381 14.292885
-1.4775038 -1.7113725 8.742321
-1.2992489 -1.5149829 5.4815655
-1.227035 -1.4363123 3.969815
-1.1716959 -1.3749074 3.0249667
-1.1090108 -1.3031787 2.3406537
-1.069892 -1.2589741 1.8693745
-1.0612051 -1.2562832 1.6958475
-1.0110605 -1.19818 1.3465142
-0.99356836 -1.1778606 1.0949051
-0.97164994 -1.1526819 0.87570554
-0.96244043 -1.1421534 0.69176745
-0.94591403 -1.1229314 0.52150995
-0.94269544 -1.1198955 0.36939296
-0.92349201 -1.0970787 0.22168753
-1.0400432 -1.2277431 1.5142586
-1.0045253 -1.1866452 1.2156142
-0.9785825 -1.1564014 0.97581625
-0.96468306 -1.1411761 0.77823514
-0.9482674 -1.1221471 0.60047078
-0.93168151 -1.1029025 0.43893132
-0.92985809 -1.1007401 0.29318586
-0.92492837 -1.0952843 0.15150478
-0.068894662 -0.044424672 7.8889728
-1.3441697 -1.5277898 12.936341
-1.8407764 -2.1119456 13.492506
-1.3652703 -1.5819051 6.7273273
-1.2557251 -1.4621443 4.6001415
-1.1888961 -1.3882197 3.4168029
-1.1375864 -1.3311045 2.6442995
-1.091751 -1.2788153 2.0897722
-0.32396054 -0.33446014 7.8912406
-1.0274671 -1.1425612 14.287913
-1.4719213 -1.6929256 8.6745691
-1.295505 -1.4999911 5.4440236
-1.2235221 -1.4221195 3.9428082
-1.1696936 -1.362893 3.0079031
-1.1057093 -1.290148 2.3246934
-1.0676668 -1.2475049 1.8583488
-1.0586513 -1.2444226 1.685334
-1.0101955 -1.1887116 1.3402373
-0.99225914 -1.1680118 1.0894222
-0.97280067 -1.1459062 0.87338674
-0.9634217 -1.1352522 0.68989444
-0.94672477 -1.1159647 0.52009988
-0.9434222 -1.112851 0.3684603
-0.92409557 -1.0900497 0.22124045
-1.0394757 -1.2184243 1.5076076
-1.0034165 -1.1769797 1.2097279
-0.97702074 -1.1464168 0.97074991
-0.96277642 -1.1308904 0.77403903
-0.94911814 -1.1152339 0.5988273
-0.93237603 -1.0959415 0.43775901
-0.92727697 -1.0899441 0.29180449
-0.92550933 -1.0882432 0.15130325
-0.069049314 -0.044183914 7.8889728
-1.3505253 -1.5242515 12.946218
-1.8481374 -2.1055074 13.492506
-1.3629493 -1.5681174 6.6891518
-1.2518744 -1.4474089 4.5679235
-1.1843487 -1.3731799 3.3904684
-1.1348827 -1.3185942 2.6277676
-1.0899391 -1.2677054 2.0782597
-0.32512605 -0.33332726 7.8912406
-1.0314492 -1.1389676 14.287913
-1.4678843 -1.6764297 8.6164961
-1.2928048 -1.4863459 5.4111743
-1.2199249 -1.4079686 3.9158006
-1.1676219 -1.3509094 2.9908392
-1.1042993 -1.2794375 2.3127234
-1.0653747 -1.2360669 1.8473235
-1.0560277 -1.2325951 1.6748203
-1.0092766 -1.1792639 1.3339603
-0.99089348 -1.1581867 1.0839393
-0.97103745 -1.1357697 0.86874914
-0.96135449 -1.1248341 0.68614835
-0.94438225 -1.1053587 0.51727986
-0.94411141 -1.1058152 0.36752769
-0.92466134 -1.08303 0.22079337
-1.0388558 -1.2091244 1.5009565
-1.0022527 -1.1673367 1.2038416
-0.97820872 -1.1397281 0.96821666
-0.96080977 -1.1206318 0.76984292
-0.94685918 -1.1047434 0.59554029
-0.92987084 -1.0852982 0.43541437
-0.92785394 -1.0829402 0.29111382
-0.92280263 -1.0774173 0.15090019
-0.069203116 -0.043942619 7.8889728
-1.3563551 -1.5201077 12.951159
-1.8554755 -2.0990434 13.492506
-1.3595657 -1.553242 6.6462035
-1.2492198 -1.4341917 4.5403085
-1.1812818 -1.3599972 3.3685231
-1.1321057 -1.3061193 2.6112356
-1.088063 -1.2566239 2.0667472
-0.32608488 -0.33198482 7.8862491
-1.0354186 -1.1353604 14.287913
-1.4620875 -1.6580976 8.5487442
-1.2900252 -1.4727379 5.3783245
-1.2162441 -1.3938605 3.8887932
-1.1654806 -1.338957 2.9737756
-1.1028279 -1.2687526 2.3007534
-1.0630158 -1.22466 1.8362979
-1.0533344 -1.2208012 1.6643068
-1.0108457 -1.1727854 1.3308219
-0.98947138 -1.1483854 1.0784563
-0.96921515 -1.1256595 0.86411154
-0.95922643 -1.1144443 0.68240231
-0.94197738 -1.0947829 0.51445979
-0.94476306 -1.0987881 0.36659506
-0.92518944 -1.0760198 0.22034629
-1.0381838 -1.1998439 1.4943056
-0.99838996 -1.1546586 1.1950121
-0.97654319 -1.129784 0.96315032
-0.95878321 -1.1104008 0.76564676
-0.94762409 -1.0978568 0.59389675
-0.93047816 -1.0783656 0.43424204
-0.92515814 -1.0721962 0.28973246
-0.92329472 -1.0704064 0.15069866
-0.069356084 -0.043700788 7.8889728
-1.3621725 -1.5159419 12.956098
-1.8627913 -2.0925539 13.492506
-1.357082 -1.5395292 6.6080279
-1.246488 -1.4210107 4.5126929
-1.1781372 -1.3468525 3.3465776
-1.1311063 -1.2958 2.5988369
-1.086123 -1.245571 2.0552347
-0.32724172 -0.33084455 7.8862491
-1.0393755 -1.1317391 14.287913
-1.4570154 -1.6407664 8.4858322
-1.2871667 -1.4591675 5.3454752
-1.2139169 -1.3814305 3.8662875
-1.1632705 -1.3270361 2.9567118
-1.1012957 -1.2580937 2.2887833
-1.0605904 -1.213285 1.8252726
-1.0505717 -1.2090414 1.653793
-1.0098302 -1.1633711 1.3245449
-0.98799294 -1.1386082 1.0729734
-0.97023648 -1.1189227 0.86179274
-0.95703763 -1.1040831 0.67865622
-0.94265175 -1.087863 0.51304972
-0.94216156 -1.0880566 0.36472982
-0.92567986 -1.069019 0.21989921
-1.0350066 -1.1877679 1.484329
-0.99710548 -1.1450701 1.1891258
-0.9776504 -1.1231169 0.96061713
-0.95967525 -1.1036224 0.76354873
-0.9452545 -1.0874146 0.59060973
-0.93104845 -1.0714421 0.43306974
-0.92239881 -1.0614845 0.28835109
-0.92047286 -1.0596337 0.1502956
-0.069546595 -0.043479171 7.8939724
-1.367977 -1.5117537 12.961037
-1.8700844 -2.0860386 13.492506
-1.3545195 -1.5258529 6.5698519
-1.2436796 -1.4078664 4.4850783
-1.1780818 -1.3373406 3.3334103
-1.1300486 -1.2855035 2.5864379
-1.0841192 -1.2345473 2.0437222
-0.32839459 -0.32970023 7.8862491
-1.0433197 -1.1281041 14.287913
-1.4501642 -1.6216171 8.4132414
-1.2842292 -1.4456353 5.3126264
-1.2115178 -1.3690339 3.8437812
-1.159265 -1.3131919 2.9353821
-1.0997024 -1.247461 2.2768133
-1.0580986 -1.2019417 1.814247
-1.0500885 -1.1999993 1.6467839
-1.0113232 -1.1569086 1.3214065
-0.98645836 -1.1288555 1.0674905
-0.96830869 -1.1088558 0.85715514
-0.95783705 -1.0972434 0.6767832
-0.94013506 -1.077337 0.51022971
-0.9427253 -1.081059 0.36379722
-0.92285967 -1.0582746 0.21900505
-1.0342207 -1.1785351 1.4776781
-0.99576622 -1.1355045 1.1832393
-0.97588146 -1.1132144 0.95555079
-0.9575417 -1.0934373 0.75935262
-0.94593412 -1.0805553 0.58896625
-0.9315818 -1.0645279 0.43189743
-0.92283726 -1.0545317 0.28766042
-0.91758728 -1.048894 0.14989254
-0.069697946 -0.043236144 7.8939724
-1.3732458 -1.5069695 12.961037
-1.8773546 -2.0794981 13.492506
-1.351878 -1.5122132 6.5316763
-1.2420933 -1.3962187 4.4620657
-1.1779743 -1.3278456 3.3202431
-1.1270676 -1.2731233 2.5699062
-1.0820515 -1.2235525 2.0322096
-0.32954347 -0.32855192 7.8862491
-1.0472511 -1.1244553 14.287913
-1.4482447 -1.6081394 8.3696861
-1.2812129 -1.4321414 5.2797771
-1.209047 -1.3566709 3.821275
-1.1569104 -1.3013409 2.9183185
-1.0980484 -1.2368548 2.2648432
-1.0555406 -1.1906308 1.8032216
-1.0471971 -1.1883 1.6362704
-1.0102115 -1.1475285 1.3151296
-0.98486781 -1.1191272 1.0620075
-0.96632266 -1.0988164 0.8525176
-0.95553946 -1.0869297 0.67303717
-0.94072324 -1.0704455 0.50881964
-0.94001025 -1.0703797 0.36193198
-0.923262 -1.0513051 0.21855797
-1.0309105 -1.1665248 1.4677017
-0.99704814 -1.1289922 1.1802962
-0.97690827 -1.1065695 0.95301759
-0.95835072 -1.0866842 0.75725454
-0.9434545 -1.0701625 0.58567923
-0.9288646 -1.0539764 0.42955279
-0.91996425 -1.0438735 0.28627905
-0.91463786 -1.0381873 0.14948948
-0.069848441 -0.042992588 7.8939724
-1.3790232 -1.5027392 12.965977
-1.8852868 -2.0736856 13.497402
-1.3491578 -1.4986107 6.4935002
-1.2391373 -1.3831441 4.4344501
-1.177815 -1.3183676 3.3070757
-1.1258866 -1.2628802 2.5575075
-1.0820524 -1.214981 2.0245347
-0.3308939 -0.32760227 7.8912406
-1.0511699 -1.120793 14.287913
-1.4462489 -1.5946951 8.3261309
-1.2781181 -1.4186862 5.2469273
-1.2065046 -1.3443418 3.798769
-1.154487 -1.2895226 2.9012547
-1.0963339 -1.2262753 2.2528732
-1.0551745 -1.1818813 1.7958713
-1.0466042 -1.1793029 1.6292613
-1.0116287 -1.1410828 1.3119911
-0.98322141 -1.109424 1.0565246
-0.96427834 -1.0888041 0.84788001
-0.95318162 -1.0766456 0.66929108
-0.93809551 -1.0599707 0.50599957
-0.94048655 -1.0634124 0.36099935
-0.92362696 -1.0443455 0.21811089
-1.027529 -1.1545519 1.457725
-0.99561054 -1.1194644 1.1744099
-0.97503644 -1.0967096 0.94795126
-0.95611036 -1.0765456 0.75305843
-0.94404918 -1.0633316 0.58403569
-0.92931151 -1.0470924 0.42838046
-0.92031527 -1.0369523 0.28558838
-0.91162497 -1.0275141 0.14908642
-0.069998085 -0.042748511 7.8939724
-1.3847878 -1.4984869 12.970916
-1.8932016 -2.067843 13.502297
-1.3463593 -1.4850457 6.4553246
-1.237414 -1.3715581 4.411438
-1.177604 -1.3089073 3.2939088
-1.1246479 -1.2526608 2.5451086
-1.0798665 -1.2040384 2.0130222
-0.33224174 -0.32664722 7.8962326
-1.0547096 -1.1167294 14.282942
-1.4433292 -1.5803565 8.2777367
-1.2761048 -1.4065483 5.218771
-1.203891 -1.3320472 3.7762628
-1.1519955 -1.2777371 2.884191
-1.094559 -1.2157232 2.2409031
-1.0547602 -1.173149 1.7885209
-1.0435846 -1.1676655 1.6187476
-1.010421 -1.1317377 1.3057142
-0.98151934 -1.099746 1.0510417
-0.96512449 -1.0821255 0.84556121
-0.95384884 -1.0698515 0.66741806
-0.93859804 -1.0531087 0.5045895
-0.93765861 -1.0527865 0.35913411
-0.92064238 -1.0336773 0.21721675
-1.0240766 -1.1426167 1.4477484
-0.99411869 -1.1099606 1.1685236
-0.97598314 -1.0900878 0.94541812
-0.95381111 -1.0664361 0.74886233
-0.94146019 -1.0529891 0.58074868
-0.92972177 -1.040218 0.42720816
-0.91732919 -1.0263489 0.28420702
-0.91187739 -1.0206001 0.14888488
-0.070108205 -0.042483702 7.8889728
-1.3910688 -1.4947814 12.980795
-1.8997178 -2.0604732 13.497402
-1.3424759 -1.4704162 6.4123764
-1.235625 -1.3600007 4.3884254
-1.1741251 -1.2959146 3.2719634
-1.1214643 -1.2403784 2.5285769
-1.0776174 -1.1931257 2.0015097
-0.33337995 -0.3254855 7.8962326
-1.0586013 -1.1130409 14.282942
-1.4411781 -1.5669827 8.2341814
-1.2751864 -1.3957156 5.1953068
-1.2012066 -1.3197874 3.753757
-1.1494358 -1.2659849 2.8671272
-1.0927237 -1.2051983 2.2289329
-1.0542977 -1.1644338 1.7811704
-1.0428824 -1.1587143 1.6117386
-1.011763 -1.1253095 1.3025758
-0.9797619 -1.0900935 1.0455588
-0.96297568 -1.0721589 0.84092361
-0.95138305 -1.0596164 0.66367197
-0.93906409 -1.0462559 0.50317949
-0.93804789 -1.0458503 0.3582015
-0.9209199 -1.0267502 0.21676967
-1.0230553 -1.1334918 1.4410975
-0.99257255 -1.1004808 1.1626372
-0.97400892 -1.0802712 0.94035172
-0.95145297 -1.0563556 0.74466628
-0.94197035 -1.0461873 0.5791052
-0.93009537 -1.0333537 0.42603585
-0.91759324 -1.01946 0.28351635
-0.90875113 -1.0099831 0.14848182
-0.070256077 -0.04223872 7.8889728
-1.3962781 -1.4899164 12.980795
-1.9110558 -2.0583062 13.526772
-1.340528 -1.4580297 6.378973
-1.2337704 -1.3484727 4.3654122
-1.1705699 -1.2829627 3.2500179
-1.1201035 -1.2302141 2.5161779
-1.0753053 -1.1822438 1.9899971
-0.33472174 -0.32452029 7.9012237
-1.0628489 -1.1097239 14.287913
-1.4355346 -1.5499549 8.1712694
-1.2730395 -1.3836367 5.16715
-1.1984512 -1.3075626 3.731251
-1.148568 -1.2561908 2.8543293
-1.0887965 -1.192476 2.2129729
-1.0537875 -1.1557363 1.77382
-1.0397356 -1.1471399 1.6012248
-1.0104598 -1.1160003 1.2962989
-0.98075485 -1.0835667 1.0428174
-0.96374089 -1.0655057 0.83860481
-0.95196682 -1.0528505 0.66179895
-0.93949383 -1.039413 0.50176948
-0.93510753 -1.0352788 0.35633627
-0.92116022 -1.0198337 0.21632259
-1.0194715 -1.1216251 1.4311211
-0.99097258 -1.0910255 1.1567509
-0.97487593 -1.0736734 0.93781859
-0.95208532 -1.0496663 0.74256819
-0.93927246 -1.0358962 0.57581812
-0.93369675 -1.0301007 0.42603585
-0.91782045 -1.0125816 0.28282565
-0.90891647 -1.0031025 0.14828028
-0.070403084 -0.041993223 7.8889728
-1.3982701 -1.4816434 12.951159
-1.910579 -2.0434422 13.472926
-1.3374956 -1.4445797 6.3407969
-1.2318505 -1.3369745 4.3423996
-1.1669385 -1.2700511 3.2280724
-1.1186852 -1.2200745 2.5037792
-1.0729305 -1.1713924 1.9784846
-0.33564413 -0.32315016 7.8962326
-1.0670861 -1.1063906 14.292885
-1.4315046 -1.5348239 8.1180353
-1.271997 -1.3728558 5.1436868
-1.1971017 -1.2969729 3.7132461
-1.1458794 -1.2444998 2.8372657
-1.0868337 -1.182014 2.2010028
-1.0532293 -1.1470568 1.7664698
-1.0365208 -1.1356018 1.5907112
-1.0117266 -1.1095902 1.2931604
-0.97889751 -1.0739561 1.0373343
-0.96148813 -1.0555853 0.83396715
-0.94939369 -1.0426655 0.65805292
-0.93665802 -1.0290321 0.49894941
-0.93210489 -1.0247407 0.35447103
-0.91801262 -1.0092442 0.21542843
-1.0183384 -1.1125513 1.4244701
-0.98931855 -1.0815947 1.1508646
-0.97279984 -1.0639012 0.93275219
-0.94962168 -1.0396346 0.73837209
-0.93969852 -1.0291241 0.57417464
-0.93400991 -1.0232453 0.42486352
-0.91801089 -1.0057142 0.28213498
-0.90904492 -0.99623328 0.14807875
-0.070510365 -0.041727412 7.8839731
-1.4018275 -1.475064 12.936341
-1.9232848 -2.042691 13.512088
-1.3343856 -1.4311686 6.3026209
-1.2298653 -1.3255059 4.319387
-1.1632316 -1.2571808 3.2061269
-1.11721 -1.2099599 2.4913802
-1.0704931 -1.1605722 1.9669722
-0.33677009 -0.32197657 7.8962326
-1.0709418 -1.102659 14.292885
-1.4230837 -1.5151595 8.0406046
-1.2697173 -1.3608372 5.11553
-1.195693 -1.2864085 3.6952412
-1.1448964 -1.2347553 2.8244677
-1.0848111 -1.1715803 2.1890328
-1.0503219 -1.1359062 1.7554444
-1.0356514 -1.1267257 1.5837022
-1.0103284 -1.1003178 1.2868835
-0.97981268 -1.0674521 1.0345929
-0.96217251 -1.0489582 0.83164835
-0.94989425 -1.0359282 0.65617985
-0.93700296 -1.0222201 0.49753937
-0.93235815 -1.0178585 0.35353839
-0.91816616 -1.0023614 0.21498135
-1.019685 -1.1062446 1.4211446
-0.99034941 -1.0751618 1.1479214
-0.97358751 -1.0573279 0.93021905
-0.95017236 -1.0329733 0.73627406
-0.93689251 -1.0188857 0.57088763
-0.937576 -1.0199788 0.42486352
-0.91816467 -0.99885792 0.28144431
-0.91251683 -0.99305403 0.14807875
-0.070655592 -0.041481029 7.8839731
-1.4042813 -1.4673554 12.911644
-1.9283013 -2.0337484 13.497402
-1.3311986 -1.4177969 6.2644448
-1.2264814 -1.3126404 4.2917724
-1.1610818 -1.246104 3.1885707
-1.1137617 -1.1978098 2.4748485
-1.0701748 -1.1521316 1.9592969
-0.33789194 -0.32079905 7.8962326
-1.0759027 -1.100057 14.307799
-1.4223173 -1.5037909 8.0067291
-1.2673692 -1.3488514 5.0873733
