# .PCD v0.7 - Point Cloud Data file format
VERSION 0.7
FIELDS x y z
SIZE 4 4 4
TYPE F F F
COUNT 1 1 1
WIDTH 1490
HEIGHT 1
VIEWPOINT 0 0 0 1 0 0 0
POINTS 1490
DATA ascii
-0.053200506 0.12825312 14.413724
-1.3484783 1.6151674 13.375935
-1.1280328 1.3252077 5.610683
-1.0344127 1.2092645 3.808507
-0.96702355 1.1273185 2.7891645
-0.91395026 1.0632131 2.1318138
-0.88350248 1.0267169 1.6983467
-0.48696828 0.64479399 13.811348
-0.5903815 0.72268456 8.6601706
-1.223936 1.4485703 7.3388882
-1.072841 1.2612811 4.5570908
-1.0019286 1.1733756 3.2541223
-0.9389627 1.0969408 2.4320021
-0.8999036 1.0498405 1.905741
-0.8641358 1.006706 1.5165586
-0.85338753 0.98823923 1.3629158
-0.83181542 0.96225315 1.1079915
-0.80554134 0.93153644 0.89203662
-0.79518217 0.91891968 0.72266477
-0.79548657 0.91895515 0.57938552
-0.78214127 0.90322727 0.44113809
-0.76884055 0.88724899 0.31436834
-0.76625967 0.88427448 0.19799234
-0.84040987 0.9759692 1.2282655
-0.82492411 0.95732015 1.0037066
-0.80613852 0.93519616 0.81115961
-0.78645903 0.91141146 0.6439597
-0.79645509 0.92267835 0.51336479
-0.77521318 0.89776039 0.37679848
-0.76048589 0.88070863 0.25450778
-0.76075733 0.88072008 0.14062211
-0.052752495 0.12843804 14.413724
-1.3423363 1.6192664 13.370996
-1.1282175 1.3348378 5.6345429
-1.0352437 1.2188244 3.8269172
-0.96774119 1.1361572 2.8023319
-0.91388708 1.0706778 2.1400795
-0.88615948 1.0371056 1.7098594
-0.48557904 0.64764583 13.836306
-0.58785528 0.72474092 8.6601706
-1.2245265 1.4595749 7.3727646
-1.0728853 1.2702922 4.5758619
-1.0020498 1.1818473 3.2676258
-0.94019467 1.1061736 2.4447997
-0.90013933 1.0575647 1.9137211
-0.86501455 1.0148766 1.523909
-0.85225409 0.99391943 1.3664203
-0.8309865 0.96810442 1.11113
-0.80500871 0.93751514 0.89477807
-0.79196972 0.92168975 0.72266477
-0.79831767 0.92875773 0.58313155
-0.78211123 0.90958935 0.4425481
-0.76894265 0.89365077 0.31530097
-0.76316833 0.88694382 0.19799234
-0.83942443 0.98173475 1.231591
-0.82420516 0.96326518 1.0066497
-0.80567223 0.94127941 0.81369281
-0.78622574 0.91759765 0.64605778
-0.7963025 0.92903823 0.51500833
-0.77523851 0.9041509 0.37797081
-0.76063037 0.88711727 0.25519845
-0.75767851 0.88337028 0.14062211
-0.052318756 0.12866241 14.418724
-1.3366759 1.623942 13.370996
-1.1293081 1.3456287 5.6631751
-1.0372803 1.2298982 3.8499298
-0.96840882 1.1450144 2.8154991
-0.91378284 1.0781548 2.1483455
-0.8866809 1.0450807 1.7175343
-0.48365954 0.64980048 13.846289
-0.58498776 0.72637326 8.6551991
-1.2258596 1.4715674 7.4114799
-1.0739886 1.2806411 4.5993257
-1.003526 1.1919998 3.2856307
-0.9396916 1.113435 2.4533315
-0.89838707 1.0630018 1.917711
-0.86584669 1.0230657 1.5312593
-0.85340303 1.0023191 1.3734293
-0.83012688 0.97396153 1.1142684
-0.80715698 0.94668341 0.90026098
-0.7916227 0.92781866 0.72498357
-0.80108994 0.93859124 0.58687764
-0.78204614 0.9159621 0.44395813
-0.76900947 0.90006417 0.31623358
-0.76330256 0.89338857 0.19843942
-0.84082526 0.99035168 1.238242
-0.8234548 0.96921676 1.0095929
-0.80517316 0.94737077 0.81622595
-0.78595883 0.92379314 0.64815581
-0.79611522 0.93540823 0.51665181
-0.77522862 0.9105525 0.37914312
-0.76073927 0.89353764 0.25588912
-0.75782961 0.88981313 0.14082365
-0.051869322 0.12884425 14.418724
-1.3314908 1.6291999 13.375935
-1.1303371 1.3564435 5.6918068
-1.0379977 1.2395031 3.8683398
-0.96902645 1.1538904 2.8286664
-0.91363746 1.0856444 2.1566114
-0.88922244 1.0555236 1.7290468
-0.48173091 0.65194958 13.856273
-0.58244866 0.72841078 8.6551991
-1.2271239 1.4835864 7.4501953
-1.0739284 1.289687 4.6180964
-1.0035474 1.2005064 3.2991343
-0.94082439 1.1227056 2.4661293
-0.89854485 1.0707479 1.925691
-0.86663222 1.0312728 1.5386096
-0.85220146 1.0080154 1.3769339
-0.82923645 0.97982454 1.1174068
-0.80654931 0.95268655 0.9030025
-0.7912426 0.93395621 0.72730237
-0.80080605 0.94491851 0.58875066
-0.78504825 0.92600465 0.44677821
-0.76904082 0.9064889 0.31716621
-0.76340103 0.89984506 0.1988865
-0.83976966 0.99613541 1.2415675
-0.82267272 0.97517473 1.012536
-0.80464149 0.95347011 0.81875914
-0.78565824 0.9299981 0.65025389
-0.79284513 0.93818146 0.51665181
-0.77204549 0.91325301 0.37914312
-0.75761569 0.89618766 0.25588912
-0.757945 0.89626777 0.14102517
-0.051419258 0.12902452 14.418724
-1.3262851 1.634441 13.380874
-1.1313043 1.3672818 5.720439
-1.0399096 1.2506303 3.8913527
-0.96959382 1.1627842 2.8418336
-0.9134509 1.0931457 2.1648772
-0.88964534 1.0635383 1.7367218
-0.48013407 0.65455914 13.876239
-0.57957125 0.73002189 8.6502275
-1.2275214 1.4946611 7.4840708
-1.0749176 1.3000779 4.6415606
-1.0035214 1.2090276 3.3126378
-0.94023573 1.1299925 2.4746614
-0.89673066 1.076193 1.9296812
-0.86737084 1.0394977 1.5459599
-0.85326332 1.0164471 1.383943
-0.8283152 0.98569304 1.1205453
-0.80859995 0.96189767 0.90848547
-0.79368073 0.94349229 0.73193997
-0.80048764 0.95125526 0.59062368
-0.78490025 0.93240923 0.44818825
-0.76903665 0.91292477 0.31809881
-0.76346374 0.90631306 0.19933358
-0.84108049 1.0047871 1.2482185
-0.82185924 0.98113906 1.0154792
-0.80407709 0.95957726 0.82129234
-0.7853238 0.93621212 0.65235192
-0.79260087 0.94456077 0.51829535
-0.77197802 0.9196654 0.38031548
-0.75766659 0.90261972 0.25657982
-0.75802445 0.90273404 0.14122671
-0.050983049 0.12924437 14.423724
-1.3210592 1.6396657 13.385814
-1.1312621 1.3769898 5.7442989
-1.0405127 1.2602791 3.9097626
-0.97011083 1.1716962 2.8550007
-0.91501981 1.1028249 2.1772761
-0.89002323 1.0715687 1.7443968
-0.47733736 0.65553033 13.861264
-0.57701945 0.73204046 8.6502275
-1.2286507 1.5067306 7.5227861
-1.0747523 1.3091577 4.6603312
-1.0034482 1.2175634 3.3261416
-0.93960768 1.137289 2.4831932
-0.89681 1.0839601 1.9376612
-0.87022543 1.0503511 1.5569855
-0.85199326 1.0221589 1.3874475
-0.82985669 0.99455577 1.1268222
-0.80791676 0.96792465 0.91122693
-0.79322225 0.94965696 0.73425877
-0.79716229 0.95404369 0.59062368
-0.78779376 0.94250476 0.45100829
-0.76899683 0.91937166 0.31903145
-0.7634905 0.91279244 0.19978066
-0.83995456 1.0105885 1.2515441
-0.82101399 0.98710966 1.0184224
-0.80072266 0.96237814 0.82129234
-0.78495562 0.94243509 0.65445
-0.79232156 0.95094967 0.51993883
-0.77187502 0.92608827 0.38148779
-0.75768173 0.90906298 0.25727049
-0.75806803 0.90921175 0.14142823
-0.050531592 0.12942156 14.423724
-1.3158129 1.644874 13.390753
-1.132109 1.3878708 5.7729306
-1.041061 1.2699473 3.9281728
-0.97057742 1.1806258 2.8681679
-0.91474295 1.1103562 2.1855421
-0.89035571 1.0796149 1.7520717
-0.47470856 0.65672421 13.851281
-0.57446063 0.73405021 8.6502275
-1.2305015 1.5198029 7.5663414
-1.075627 1.3195897 4.6837955
-1.0033278 1.2261132 3.3396454
-0.93893999 1.1445948 2.491725
-0.8949334 1.0894123 1.9416513
-0.87086105 1.0586188 1.5643358
-0.8529675 1.0306215 1.3944566
-0.82886308 1.0004438 1.1299607
-0.80720133 0.97395837 0.91396838
-0.79273033 0.95582974 0.73657757
-0.79382718 0.95682055 0.59062368
-0.78756249 0.94894022 0.45241833
-0.76892149 0.92582929 0.31996405
-0.76348138 0.91928303 0.20022772
-0.83879834 1.0163941 1.2548696
-0.82013714 0.99308622 1.0213655
-0.80010384 0.96849072 0.82382548
-0.78455347 0.94866681 0.65654802
-0.79200727 0.95734799 0.52158237
-0.77173656 0.93252152 0.38266009
-0.75766116 0.91551733 0.25796115
-0.75807554 0.91570067 0.14162977
-0.050079517 0.12959716 14.423724
-1.3110294 1.6506739 13.400631
-1.1319546 1.3976144 5.7967906
-1.0415545 1.2796346 3.9465828
-0.96947902 1.1877176 2.876946
-0.91620624 1.1200771 2.1979408
-0.89267355 1.0901562 1.7635844
-0.47190925 0.657673 13.836306
-0.57189482 0.73605096 8.6502275
-1.232276 1.5329067 7.6098962
-1.0764419 1.3300437 4.7072592
-1.0031596 1.2346768 3.3531489
-0.93987978 1.1539322 2.5045228
-0.89302963 1.0948647 1.9456413
-0.8693049 1.0642778 1.5680109
-0.8516289 1.036348 1.3979613
-0.82783848 1.006337 1.1330991
-0.80911046 0.98322773 0.9194513
-0.79220492 0.96201068 0.73889637
-0.7904824 0.95958567 0.59062368
-0.78729594 0.95538568 0.45382836
-0.76881027 0.93229759 0.32089669
-0.76026779 0.92194247 0.20022772
-0.83761173 1.0222039 1.258195
-0.81922847 0.9990685 1.0243087
-0.79945225 0.97461075 0.82635868
-0.7841174 0.95490742 0.65864611
-0.78866071 0.96010679 0.52158237
-0.76847678 0.93520969 0.38266009
-0.75760472 0.92198259 0.25865185
-0.76121938 0.92606014 0.14203283
-0.049626831 0.12977117 14.423724
-1.3062217 1.6564608 13.410509
-1.1326811 1.408537 5.8254223
-1.0419929 1.2893407 3.964993
-0.96985078 1.1966765 2.8901134
-0.91583884 1.1276373 2.2062068
-0.89290655 1.0982397 1.7712594
-0.46927634 0.65884554 13.826323
-0.56932205 0.73804283 8.6502275
-1.2331898 1.5450586 7.6486115
-1.077197 1.3405194 4.7307234
-1.002944 1.2432543 3.3666525
-0.94076556 1.1632898 2.5173206
-0.89109874 1.1003171 1.9496313
-0.86985523 1.072572 1.5753613
-0.85251504 1.0448409 1.4049703
-0.82678282 1.0122352 1.1362376
-0.80831897 0.98928416 0.92219275
-0.79164606 0.96819967 0.74121517
-0.79006296 0.96592748 0.59249669
-0.78699398 0.96184075 0.4552384
-0.76866335 0.93877637 0.32182932
-0.7601999 0.92844385 0.2006748
-0.83875108 1.0309142 1.2648461
-0.82083988 1.0081912 1.030195
-0.80148971 0.98408049 0.83142501
-0.78364724 0.96115619 0.66074419
-0.78828907 0.96651334 0.52322584
-0.76828033 0.94165272 0.38383242
-0.75751227 0.92845851 0.25934252
-0.76114106 0.93258214 0.14223436
-0.049173545 0.12994361 14.423724
-1.3013895 1.6622339 13.420388
-1.1342764 1.4206485 5.8588266
-1.0423762 1.2990655 3.983403
-0.97017181 1.2056526 2.9032805
-0.91719615 1.1373992 2.2186055
-0.89309394 1.1063379 1.7789344
-0.46614179 0.65929991 13.801364
-0.56674236 0.74002558 8.6502275
-1.2348144 1.5582209 7.6921663
-1.0778916 1.3510164 4.7541866
-1.0040413 1.2535444 3.3846574
-0.94323033 1.1747012 2.5343843
-0.89102876 1.1081175 1.9576114
-0.87035829 1.080883 1.5827116
-0.85110754 1.0505816 1.4084748
-0.82814765 1.0211613 1.1425145
-0.80749512 0.99534696 0.92493427
-0.79105353 0.97439629 0.74353397
-0.78668648 0.96867949 0.59249669
-0.78665644 0.96830523 0.45664841
-0.76538169 0.94145375 0.32182932
-0.76009583 0.93495584 0.20112188
-0.8374936 1.0367402 1.2681715
-0.81985664 1.0141938 1.0331382
-0.80076021 0.99022418 0.83395821
-0.78314298 0.96741331 0.66284221
-0.78788227 0.97292888 0.52486938
-0.76804823 0.94810569 0.38500473
-0.75738388 0.93494505 0.26003322
-0.76102656 0.93911475 0.14243589
-0.048719659 0.13011447 14.423724
-1.2970096 1.6686071 13.435206
-1.1348736 1.4316179 5.8874583
-1.0427042 1.3088086 4.0018129
-0.97044188 1.2146455 2.9164479
-0.91673768 1.1449875 2.2268715
-0.89323556 1.1144509 1.7866094
-0.46433416 0.6616326 13.816339
-0.56383324 0.74157488 8.645256
-1.236362 1.5714132 7.7357211
-1.0785263 1.3615346 4.7776508
-1.0037242 1.2621533 3.3981609
-0.9440012 1.1841047 2.5471821
-0.88903517 1.1135761 1.9616013
-0.86869693 1.0865626 1.5863868
-0.85190535 1.0591038 1.415484
-0.82701916 1.0270776 1.1456529
-0.80663878 1.001416 0.92767572
-0.79042739 0.9806006 0.74585277
-0.7862103 0.97502846 0.59436977
-0.78628337 0.97477907 0.45805845
-0.76517612 0.94794208 0.32276195
-0.75995547 0.94147849 0.20156896
-0.83854169 1.0454828 1.2748226
-0.81884146 1.0202017 1.0360813
-0.80269653 0.99973625 0.83902454
-0.78260452 0.97367865 0.6649403
-0.7874403 0.97935337 0.52651286
-0.76778042 0.95456839 0.38617706
-0.76032293 0.94530058 0.26141456
-0.76400745 0.94955039 0.14283895
-0.048265174 0.13028374 14.423724
-1.2926009 1.6749697 13.450024
-1.1363311 1.4437821 5.9208622
-1.0429769 1.3185695 4.0202231
-0.9706611 1.2236549 2.9296153
-0.91623735 1.1525862 2.2351375
-0.89333147 1.1225784 1.7942843
-0.4626807 0.66419774 13.836306
-0.56124121 0.7435385 8.645256
-1.2378325 1.584635 7.7792764
-1.0801674 1.3734301 4.8058076
-1.0047081 1.2724838 3.4161658
-0.94471771 1.1935277 2.5599799
-0.89075768 1.1237569 1.9735714
-0.86911404 1.0948991 1.5937371
-0.85042852 1.0648578 1.4189885
-0.82585943 1.0329983 1.1487914
-0.80836141 1.0107569 0.93315864
-0.79253536 0.99027079 0.75049037
-0.78859669 0.98500508 0.59811586
-0.78587461 0.98126197 0.45946848
-0.76493454 0.95444047 0.32369456
-0.7597788 0.94801152 0.20201604
-0.83953887 1.0542452 1.2814735
-0.82031327 1.029376 1.0419677
-0.80188906 1.005903 0.8415578
-0.78203183 0.97995198 0.66703832
-0.78696293 0.98578656 0.5281564
-0.76747674 0.96104085 0.38734937
-0.76010871 0.95181847 0.26210526
-0.7638064 0.95611471 0.14304048
-0.047810107 0.13045143 14.423724
-1.2886363 1.6819391 13.469781
-1.1377175 1.4559737 5.9542661
-1.0431941 1.3283485 4.0386333
-0.97082895 1.2326803 2.9427824
-0.91743839 1.1624045 2.2475364
-0.89139456 1.1282049 1.7981219
-0.46085107 0.66652173 13.851281
-0.55864239 0.74549305 8.645256
-1.2399958 1.5988796 7.8276701
-1.0806763 1.3839934 4.8292713
-1.004289 1.2811232 3.4296696
-0.94537997 1.2029701 2.5727777
-0.8905564 1.1315954 1.9815515
-0.86948359 1.1032516 1.6010875
-0.85113764 1.0734088 1.4259976
-0.82708818 1.0419723 1.1550683
-0.80742842 1.016847 0.93590009
-0.79182965 0.99649954 0.75280917
-0.78803831 0.99138093 0.59998888
-0.78543013 0.98775405 0.46087852
-0.76159823 0.95710474 0.32369456
-0.75956577 0.95455462 0.20246312
-0.84048504 1.0630273 1.2881246
-0.81922305 1.0354031 1.0449109
-0.80372339 1.0154564 0.84662414
-0.78142494 0.98623312 0.6691364
-0.78351712 0.98852748 0.5281564
-0.76713723 0.96752262 0.3885217
-0.75985837 0.95834637 0.26279593
-0.76356888 0.96268934 0.14324202
-0.047354456 0.13061751 14.423724
-1.2841681 1.6882825 13.484598
-1.1399474 1.4693719 5.9924421
-1.0433556 1.3381448 4.0570431
-0.97094566 1.241722 2.9559495
-0.9185819 1.1722449 2.2599351
-0.88942909 1.1338315 1.8019594
-0.45901084 0.66884106 13.866256
-0.55603671 0.74743855 8.645256
-1.241308 1.6121624 7.8712249
-1.0800675 1.3932129 4.8480425
-1.0038218 1.2897753 3.4431732
-0.94598764 1.2124316 2.5855753
-0.89216644 1.1418205 1.9935215
-0.86980534 1.1116199 1.6084378
-0.85179734 1.0819777 1.4330066
-0.82585514 1.0479101 1.1582067
-0.80646265 1.022943 0.93864155
-0.79109013 1.0027353 0.75512797
-0.78744489 0.99776489 0.60186189
-0.78197747 0.9904896 0.46087852
-0.76129794 0.9636119 0.32462719
-0.75931633 0.96110785 0.2029102
-0.83907467 1.0688916 1.29145
-0.81810057 1.041435 1.0478541
-0.80283737 1.0216453 0.84915733
-0.78358954 0.99608898 0.67333251
-0.78298187 0.9949674 0.52979988
-0.76676172 0.97401375 0.38969401
-0.76263463 0.96877515 0.26417729
-0.76020378 0.96534878 0.14324202
-0.046898227 0.13078201 14.423724
-1.2796717 1.6946151 13.499416
-1.1411866 1.4816207 6.0258455
-1.0434614 1.3479584 4.0754533
-0.97247964 1.2526714 2.973506
-0.91794014 1.1798865 2.2682009
-0.88940459 1.141987 1.8096343
-0.45732227 0.67139441 13.886223
-0.5534243 0.74937493 8.645256
-1.2433058 1.6264724 7.9196196
-1.0804598 1.4038124 4.8715057
-1.0033064 1.2984394 3.4566767
-0.94494385 1.2198501 2.5941074
-0.89556265 1.1544515 2.0094817
-0.86799955 1.1173267 1.612113
-0.85240752 1.0905641 1.4400158
-0.82698923 1.0569174 1.1644837
-0.80546427 1.0290447 0.941383
-0.79304814 1.0124654 0.75976557
-0.78681648 1.0041567 0.60373497
-0.77851522 0.99321318 0.46087852
-0.76096129 0.97012854 0.32555979
-0.75903034 0.96767098 0.20335729
-0.83992869 1.0777041 1.2981011
-0.81943184 1.0506589 1.0537404
-0.80191785 1.0278403 0.85169047
-0.78290135 1.002395 0.67543054
-0.7824114 1.0014156 0.53144342
-0.76635033 0.98051405 0.39086631
-0.76229781 0.97533309 0.26486799
-0.75990671 0.97193235 0.14344354
-0.046454474 0.13098657 14.428724
-1.2770104 1.7034241 13.533991
-1.1414478 1.4927102 6.0544777
-1.0435114 1.357789 4.0938635
-0.97248691 1.2617493 2.9866731
-0.91897625 1.189765 2.2805998
-0.88737351 1.1476203 1.8134719
-0.4544917 0.67226857 13.871247
-0.55080509 0.75130218 8.645256
-1.2452186 1.6408159 7.9680138
-1.0807914 1.4144317 4.8949699
-1.0027428 1.3071156 3.4701805
-0.94385964 1.2272758 2.6026392
-0.89704299 1.1647328 2.0214517
-0.86823481 1.125719 1.6194633
-0.8551544 1.1019855 1.4505293
-0.82568264 1.0628716 1.1676221
-0.80443305 1.0351517 0.94412446
-0.79222852 1.0187244 0.76208436
-0.78330654 1.006897 0.60373497
-0.77798969 0.99971056 0.46228856
-0.76058847 0.97665441 0.32649243
-0.75870776 0.97424364 0.20380437
-0.83844656 1.0835824 1.3014265
-0.81823397 1.0567089 1.0566835
-0.80096495 1.0340413 0.85422367
-0.78495973 1.012295 0.67962664
-0.7846995 1.0116031 0.53473043
-0.76292306 0.98318309 0.39086631
-0.76192451 0.98190039 0.26555866
-0.75650942 0.97457904 0.14344354
-0.046009853 0.13118961 14.433724
-1.2747672 1.7128584 13.573504
-1.1425477 1.5050083 6.0878816
-1.0435053 1.3676362 4.1122737
-0.97244269 1.2708427 2.9998405
-0.91995436 1.1996648 2.2929986
-0.8872655 1.1557961 1.821147
-0.4521423 0.67385095 13.871247
-0.54817921 0.75322026 8.645256
-1.24629 1.6541883 8.0115681
-1.0810617 1.4250703 4.9184337
-1.0021306 1.3158036 3.4836841
-0.94431782 1.2367821 2.615437
-0.89846241 1.1750382 2.0334218
-0.86636096 1.1314344 1.6231384
-0.85783178 1.1134392 1.461043
-0.82672155 1.0719117 1.1738991
-0.8059231 1.0445747 0.94960743
-0.79408187 1.0284963 0.76672196
-0.78262079 1.0132942 0.60560799
-0.77449524 1.0024202 0.46228856
-0.76017928 0.98318958 0.32742503
-0.75834846 0.98082578 0.20425145
-0.83920807 1.0924246 1.3080776
-0.81946713 1.0659678 1.0625699
-0.79997844 1.0402482 0.85675687
-0.78695846 1.0222216 0.68382275
-0.7840448 1.0180775 0.53637397
-0.76245278 0.98969078 0.39203864
-0.76151454 0.98847705 0.26624933
-0.7531029 0.97721386 0.14344354
-0.045551639 0.13134943 14.433724
-1.2715501 1.7210476 13.60314
-1.1435757 1.5173324 6.1212859
-1.0434432 1.3774999 4.1306834
-0.9723466 1.2799507 3.0130074
-0.92087466 1.209586 2.3053975
-0.88711119 1.1639848 1.828822
-0.44978735 0.67542511 13.871247
-0.54554665 0.75512916 8.645256
-1.2480361 1.668595 8.0599623
-1.0812711 1.4357281 4.9418974
-1.0027828 1.3262397 3.501689
-0.94157022 1.2421492 2.6197031
-0.89982069 1.1853677 2.0453918
-0.86445779 1.1371508 1.6268137
-0.8604396 1.1249249 1.4715567
-0.82534105 1.0778813 1.1770375
-0.80481458 1.0507011 0.95234889
-0.79318172 1.0347778 0.76904076
-0.78189975 1.0196987 0.607481
-0.77683067 1.01273 0.4651086
-0.76272488 0.99363041 0.32929027
-0.75795245 0.98741734 0.20469853
-0.83765388 1.0983163 1.311403
-0.81819344 1.072035 1.065513
-0.7989583 1.0464606 0.85929
-0.78889734 1.0321741 0.68801886
-0.78622258 1.0283109 0.53966099
-0.76194644 0.996207 0.39321095
-0.76106793 0.99506265 0.26694003
-0.75272304 0.98380446 0.14364508
-0.045105468 0.1315494 14.438723
-1.2696698 1.7311151 13.647593
-1.1436372 1.5284864 6.1499176
-1.0433249 1.3873799 4.1490936
-0.97219884 1.2890737 3.0261748
-0.92173684 1.2195282 2.3177965
-0.88691044 1.1721865 1.8364969
-0.44742694 0.67699105 13.871247
-0.54259706 0.75659567 8.6402855
-1.2489474 1.6820245 8.1035175
-1.0814191 1.4464046 4.9653616
-1.0020677 1.3349553 3.5151925
-0.9419328 1.2516801 2.6325009
-0.90111786 1.195721 2.0573621
-0.86456746 1.1455734 1.634164
-0.86082089 1.133602 1.4785657
-0.82628447 1.0869533 1.1833144
-0.80367297 1.0568324 0.95509034
-0.79492998 1.0445906 0.77367836
-0.78114361 1.0261105 0.60935402
-0.77619714 1.0192521 0.46651864
-0.76222926 1.0001938 0.3302229
-0.7545011 0.99005705 0.20469853
-0.83832252 1.1071872 1.318054
-0.81932831 1.0813279 1.0713993
-0.79790449 1.0526787 0.8618232
-0.79077631 1.0421528 0.69221497
-0.7854833 1.0348103 0.54130447
-0.76140374 1.0027318 0.39438328
-0.76058453 1.0016571 0.2676307
-0.75230622 0.99040437 0.1438466
-0.04465846 0.13174786 14.443723
-1.2691064 1.7430751 13.706865
-1.1445247 1.5408577 6.183321
-1.0443189 1.3988411 4.1721063
-0.97199929 1.2982113 3.0393422
-0.92085189 1.2272401 2.3260624
-0.8866632 1.180401 1.844172
-0.44506106 0.67854875 13.871247
-0.53995275 0.75848508 8.6402855
-1.2505257 1.6964924 8.1519117
-1.0815055 1.4570992 4.9888248
-1.0026045 1.3454276 3.5331974
-0.94067955 1.2591394 2.6410327
-0.90054858 1.2036848 2.0653419
-0.86462873 1.1540108 1.6415143
-0.86115211 1.1422955 1.4855748
-0.82482994 1.0929378 1.1864529
-0.80249846 1.0629686 0.9578318
-0.79394907 1.0508935 0.77599716
-0.78314734 1.0362281 0.61310011
-0.77552748 1.0257818 0.46792868
-0.76169705 1.0067657 0.33115551
-0.75404519 0.99665612 0.2051456
-0.83669603 1.1130913 1.3213795
-0.81797844 1.0874115 1.0743425
-0.79681695 1.0589019 0.8643564
-0.78986436 1.0485319 0.69431299
-0.7847082 1.0413171 0.54294801
-0.7608248 1.0092648 0.39555559
-0.75708348 1.004306 0.2676307
-0.75185251 0.99701321 0.14404814
-0.044198301 0.13190295 14.443723
-1.2680199 1.7544224 13.761197
-1.1462256 1.5544553 6.2214975
-1.0440825 1.4087566 4.1905165
-0.97317624 1.3092853 3.0568984
-0.92160523 1.2372173 2.3384612
-0.88636941 1.1886278 1.8518469
-0.44284695 0.68034029 13.876239
-0.53730184 0.76036525 8.6402855
-1.251276 1.7099773 8.195466
-1.0825541 1.4692017 5.0169816
-1.0030802 1.3559198 3.5512023
-0.94093913 1.2686998 2.6538305
-0.90173107 1.2140782 2.077312
-0.86666471 1.1651826 1.6525397
-0.85929626 1.1481497 1.4890795
-0.82567734 1.1020405 1.1927298
-0.80129075 1.0691094 0.96057326
-0.79559177 1.0607463 0.78063476
-0.78230768 1.0426637 0.61497313
-0.7748217 1.0323192 0.46933872
-0.76112825 1.0133462 0.33208814
-0.75355238 1.0032641 0.20559268
-0.83727139 1.1219902 1.3280305
-0.81659615 1.0934988 1.0772856
-0.79827559 1.0685842 0.86942273
-0.7889176 1.0549172 0.69641101
-0.78389734 1.0478312 0.54459149
-0.76312178 1.0196974 0.39790022
-0.75654024 1.0109073 0.26832137
-0.75136179 1.003631 0.14424966
-0.043725438 0.13201453 14.438723
-1.2668695 1.765783 13.815529
-1.1478454 1.5680834 6.2596731
-1.0437893 1.4186873 4.2089267
-0.97286576 1.3184559 3.0700655
-0.9223001 1.2472148 2.3508601
-0.88602889 1.1968671 1.859522
-0.4407821 0.68236738 13.886223
-0.53495026 0.7626726 8.645256
-1.2519473 1.723488 8.2390213
-1.0825126 1.479936 5.0404458
-1.0022064 1.3646771 3.5647061
-0.94114333 1.2782774 2.6666281
-0.90106386 1.2220691 2.0852921
-0.86661953 1.1736553 1.6598901
-0.85741001 1.1540049 1.492584
-0.82647115 1.1111623 1.1990067
-0.80254602 1.0786095 0.96605617
-0.79452974 1.06707 0.78295356
-0.78143257 1.049106 0.61684614
-0.77407974 1.0388643 0.47074872
-0.76052278 1.0199349 0.33302075
-0.75302261 1.0098807 0.20603976
-0.8377949 1.1309065 1.3346816
-0.81758839 1.1028368 1.083172
-0.79710847 1.0748266 0.87195593
-0.78793579 1.0613086 0.6985091
-0.78023493 1.0505611 0.54459149
-0.76535511 1.0301584 0.40024486
-0.75596011 1.017517 0.26901206
-0.75083399 1.0102574 0.1444512
-0.043264356 0.13216634 14.438723
-1.2665567 1.7784232 13.879739
-1.1493838 1.5817415 6.2978492
-1.0434396 1.4286332 4.2273369
-0.97250307 1.3276404 3.0832329
-0.9212712 1.2549635 2.3591259
-0.88564169 1.2051183 1.867197
-0.43855304 0.68414509 13.891214
-0.53228474 0.76453531 8.645256
-1.2525394 1.7370242 8.2825766
-1.083423 1.4920843 5.0686021
-1.0025662 1.3752037 3.582711
-0.94283098 1.2899774 2.683692
-0.90035188 1.2300701 2.093272
-0.86852998 1.1848762 1.6709156
-0.85761017 1.1627309 1.499593
-0.82489938 1.1171716 1.2021452
-0.80126035 1.0847677 0.96879768
-0.79343319 1.0733993 0.78527236
-0.78052199 1.0555549 0.61871922
-0.77330142 1.0454166 0.47215876
-0.75988048 1.0265317 0.33395338
-0.75245577 1.0165057 0.20648684
-0.83826625 1.1398401 1.3413326
-0.81612951 1.1089394 1.0861151
-0.79590744 1.0810741 0.87448907
-0.78961146 1.0713595 0.7027052
-0.77936518 1.057079 0.54623502
-0.76463962 1.0367355 0.40141717
-0.75534314 1.024135 0.26970273
-0.74730295 1.0128721 0.1444512
-0.042802744 0.13231656 14.438723
-1.2634802 1.7872751 13.914314
-1.1508409 1.5954294 6.3360248
-1.043033 1.4385936 4.2457466
-0.9734965 1.3387753 3.1007893
-0.92185658 1.2649946 2.3715248
-0.88520753 1.2133813 1.874872
-0.43693548 0.68689066 13.916172
-0.53112704 0.76858199 8.6701145
-1.2523206 1.7495631 8.3212919
-1.0842619 1.5042571 5.0967588
-1.0028645 1.3857495 3.6007156
-0.94444835 1.3017046 2.7007556
-0.8995949 1.238081 2.1012521
-0.86837786 1.1933833 1.6782659
-0.85565305 1.1685951 1.5030977
-0.82559669 1.126323 1.2084221
-0.80241406 1.0943023 0.97428066
-0.79230213 1.0797338 0.78759116
-0.77957588 1.06201 0.62059224
-0.77248681 1.0519762 0.47356883
-0.75920141 1.0331362 0.33488598
-0.75185186 1.023139 0.20693392
-0.83648378 1.1457748 1.344658
-0.81702244 1.1183091 1.0920014
-0.79467249 1.0873262 0.87702227
-0.7885468 1.0777721 0.70480323
-0.77567053 1.0597931 0.54623502
-0.76675886 1.0472419 0.4037618
-0.75468904 1.030761 0.2703934
-0.74671483 1.019505 0.14465272
-0.042352337 0.13250719 14.443723
-1.2603573 1.7961272 13.948889
-1.1522163 1.6091466 6.3742008
-1.0414287 1.4469831 4.2595544
-0.97442394 1.3499333 3.1183455
-0.92238307 1.2750449 2.3839235
-0.88472646 1.221656 1.882547
-0.43391994 0.68743438 13.896206
-0.52723569 0.76867241 8.6502275
-1.2549415 1.7662203 8.379364
-1.0850288 1.5164535 5.1249151
-1.0043713 1.398082 3.6232216
-0.94447106 1.3113425 2.7135537
-0.90055573 1.2485455 2.1132224
-0.86619186 1.1991554 1.681941
-0.855762 1.1773442 1.5101067
-0.82395023 1.1323454 1.2115605
-0.80105001 1.1004772 0.97702211
-0.7911365 1.0860735 0.78990996
-0.77859414 1.0684717 0.62246525
-0.76881003 1.0546663 0.47356883
-0.7584855 1.0397487 0.33581862
-0.75121075 1.0297805 0.207381
-0.83686113 1.1547346 1.3513091
-0.81548685 1.1244264 1.0949446
-0.79593492 1.097072 0.8820886
-0.78744686 1.0841904 0.70690131
-0.77474207 1.0663146 0.5478785
-0.76595628 1.0538439 0.40493411
-0.75399786 1.0373949 0.2710841
-0.74608958 1.0261462 0.14485426
-0.041889545 0.13265422 14.443723
-1.2571881 1.8049793 13.983463
-1.1535099 1.6228927 6.4123764
-1.0409137 1.4569684 4.2779646
-0.97528529 1.361114 3.1359019
-0.92285067 1.2851142 2.3963223
-0.88419837 1.229942 1.890222
-0.43136477 0.68870002 13.891214
-0.52454931 0.77050811 8.6502275
-1.2603585 1.787026 8.4567947
-1.0857236 1.5286738 5.1530719
-1.0045403 1.4086695 3.6412265
-0.94595474 1.323118 2.7306173
-0.89970011 1.2565815 2.1212022
-0.8659516 1.2076821 1.6892914
-0.85373366 1.1832163 1.5136112
-0.82455069 1.1415253 1.2178375
-0.80210161 1.1100453 0.98250502
-0.78993624 1.0924182 0.79222876
-0.78029388 1.0786954 0.62621135
-0.76793605 1.0612297 0.47497886
-0.75773257 1.0463685 0.33675122
-0.75053239 1.0364299 0.20782807
-0.8371861 1.1637107 1.3579601
-0.81627989 1.1338269 1.1008309
-0.7946198 1.1033417 0.8846218
-0.78631175 1.090614 0.70899934
-0.77377754 1.0728424 0.54952204
-0.76511699 1.0604529 0.40610644
-0.75326949 1.0440365 0.27177477
-0.74542689 1.0327952 0.14505579
-0.041426241 0.13279963 14.443723
-1.2539721 1.8138309 14.018038
-1.1547214 1.6366675 6.4505525
-1.0403417 1.4669676 4.2963748
-0.97608042 1.3723171 3.1534581
-0.92325914 1.2952023 2.4087212
-0.88362318 1.2382392 1.897897
-0.42895815 0.69020152 13.891214
-0.52126008 0.77145088 8.6402855
-1.2634832 1.8048018 8.5197077
-1.0863465 1.5409173 5.1812286
-1.0059053 1.421052 3.6637325
-0.94585842 1.3327928 2.7434151
-0.89879942 1.2646269 2.1291823
-0.8656624 1.2162216 1.6966418
-0.8537513 1.1919878 1.5206202
-0.82509696 1.1507231 1.2241144
-0.800659 1.1162361 0.98524648
-0.78870118 1.0987675 0.79454756
-0.77922773 1.0851783 0.62808436
-0.76702559 1.0678 0.4763889
-0.75694257 1.0529958 0.33768386
-0.74981672 1.0430871 0.20827515
-0.83962822 1.1757417 1.3679365
-0.81466722 1.139958 1.103774
-0.79327059 1.1096157 0.887155
-0.78514135 1.0970428 0.71109742
-0.77552563 1.0832161 0.55280906
-0.76424086 1.0670689 0.40727875
-0.75250399 1.0506855 0.27246544
-0.74472684 1.0394521 0.14525732
-0.040951144 0.13290128 14.438723
-1.25071 1.8226824 14.052613
-1.1558508 1.6504703 6.488728
-1.0397127 1.4769804 4.314785
-0.97680914 1.3835422 3.1710143
-0.9252336 1.307606 2.4252532
-0.88485342 1.2491628 1.9094095
-0.42594135 0.69071102 13.871247
-0.8378039 1.2497804 13.989623
-1.2672161 1.8236531 8.5874596
-1.0868969 1.5531833 5.2093854
-1.0071961 1.4334611 3.6862388
-0.94570583 1.3424828 2.7562129
-0.89959037 1.2751434 2.1411526
-0.86728001 1.2275426 1.7076672
-0.85371798 1.200774 1.5276293
-0.82558912 1.1599385 1.2303913
-0.80160815 1.1258367 0.99072945
-0.78743148 1.1051216 0.79686636
-0.78081661 1.0954419 0.63183039
-0.76886356 1.0782826 0.47920895
-0.75896883 1.0636288 0.33954909
-0.75195622 1.0538056 0.20916931
-0.83983743 1.1847577 1.3745875
-0.81536019 1.1493882 1.1096603
-0.79438192 1.1194091 0.89222133
-0.78130722 1.0997767 0.71109742
-0.77447528 1.0897657 0.55445254
-0.76332778 1.0736917 0.40845108
-0.75170118 1.0573419 0.27315614
-0.74398941 1.0461166 0.14545885
-0.040475845 0.13300124 14.433724
-1.2474011 1.8315328 14.087188
-1.1568978 1.6643007 6.5269041
-1.0390264 1.4870069 4.3331947
-0.97747129 1.3947889 3.1885707
-0.92551541 1.3177363 2.4376521
-0.88417464 1.2574881 1.9170846
-0.42412919 0.69317943 13.891214
-0.83373135 1.2531412 13.994595
-1.2701193 1.8415176 8.6503725
-1.0883592 1.5668895 5.2422342
-1.0071669 1.4441105 3.7042434
-0.94699156 1.3543254 2.7732766
-0.89859045 1.2832124 2.1491325
-0.86688274 1.2361138 1.7150176
-0.85363382 1.2095742 1.5346385
-0.8260268 1.1691713 1.2366682
-0.80250001 1.1354575 0.99621236
-0.7886849 1.1150969 0.80150396
-0.77966559 1.1019453 0.63370347
-0.76786625 1.0848755 0.48061898
-0.75809073 1.0702802 0.3404817
-0.75115162 1.0604879 0.20961639
-0.84214228 1.196843 1.384564
-0.81367022 1.1555325 1.1126035
-0.79295194 1.1256994 0.89475453
-0.78007901 1.1062064 0.7131955
-0.7733885 1.0963211 0.55609608
-0.7623778 1.0803211 0.40962341
-0.74800575 1.0599594 0.27315614
-0.74321455 1.0527886 0.14566039
-0.040000349 0.13309948 14.428724
-1.2444806 1.8410261 14.126702
-1.1587099 1.6793873 6.5698519
-1.0393959 1.4986516 4.3562078
-0.97806674 1.4060572 3.2061269
-0.92734683 1.3301928 2.4541838
-0.88528275 1.2684522 1.928597
-0.42200601 0.6951496 13.901197
-0.8270033 1.2524844 13.954823
-1.273623 1.8604618 8.7181244
-1.0887597 1.5792038 5.270391
-1.0083148 1.4565673 3.7267497
-0.94671923 1.3640506 2.7860744
-0.89926487 1.2937642 2.1611025
-0.86837298 1.2474798 1.7260431
-0.85349852 1.2183886 1.5416477
-0.82417542 1.1752343 1.2398067
-0.80333424 1.1450981 1.0016953
-0.78733295 1.1214688 0.80382276
-0.77847868 1.1084538 0.63557649
-0.77234769 1.0993248 0.4848491
-0.76000071 1.0809569 0.34234694
-0.75317365 1.0712512 0.21051055
-0.84437299 1.2089586 1.3945405
-0.81426275 1.1649917 1.1184899
-0.79395795 1.1355264 0.89982086
-0.77881539 1.1126409 0.71529353
-0.77497399 1.1067505 0.55938309
-0.76139081 1.0869567 0.41079572
-0.74714243 1.06662 0.27384681
-0.74240208 1.059468 0.14586191
-0.039524652 0.13319603 14.423724
-1.2415092 1.8505213 14.166216
-1.1595873 1.6932747 6.6080279
-1.0396966 1.5103171 4.37922
-0.97859538 1.4173462 3.2236834
-0.92750144 1.340364 2.4665825
-0.88449991 1.2768042 1.936272
-0.41987416 0.69711339 13.911181
-0.8229183 1.2558095 13.959794
-1.2777162 1.8804921 8.7907152
-1.0900618 1.5929643 5.3032403
-1.009388 1.4690497 3.7492557
-0.94786978 1.3759381 2.8031383
-0.8981654 1.301856 2.1690826
-0.86979413 1.2588708 1.7370685
-0.85534769 1.2301445 1.5521612
-0.82451534 1.1844933 1.2460835
-0.80411106 1.1547582 1.0071782
-0.78594607 1.1278447 0.80614156
-0.77725571 1.1149676 0.6374495
-0.77399337 1.1098837 0.48766914
-0.7590341 1.0876316 0.34327957
-0.75227976 1.0779575 0.21095763
-0.84440213 1.2180359 1.4011915
-0.81479907 1.1744691 1.1243762
-0.79490495 1.1453739 0.9048872
-0.78010589 1.1228073 0.71948963
-0.77380103 1.1133265 0.56102657
-0.76036662 1.0935986 0.41196805
-0.74624151 1.0732874 0.2745375
-0.74155194 1.0661545 0.14606345
-0.039080866 0.1334178 14.433724
-1.2354726 1.8554904 14.171156
-1.1603818 1.7071888 6.6462035
-1.0410308 1.5236161 4.4068351
-0.97905713 1.4286565 3.2412398
-0.92759633 1.3505524 2.4789815
-0.88548547 1.2878076 1.9477845
-0.41758603 0.6988228 13.916172
-0.81911069 1.2595685 13.969737
-1.2753603 1.8911939 8.8197517
-1.0903114 1.6053252 5.3313971
-1.0103861 1.4815571 3.7717619
-0.94894886 1.3878502 2.8202019
-0.89872283 1.3124421 2.1810527
-0.8692292 1.2674913 1.7444189
-0.85712534 1.2419283 1.5626749
-0.82480049 1.1937689 1.2523605
-0.80483007 1.1644378 1.0126611
-0.78704411 1.1378677 0.81077915
-0.77599686 1.1214862 0.63932252
-0.7755748 1.1204673 0.49048921
-0.76082724 1.0983506 0.34514484
-0.75418377 1.0887644 0.21185179
-0.84437817 1.227128 1.4078425
-0.81298673 1.1806352 1.1273193
-0.79579282 1.155242 0.90995359
-0.77875841 1.1292597 0.72158772
-0.77259147 1.1199077 0.56267005
-0.75930548 1.1002467 0.41314036
-0.74530321 1.0799614 0.27522817
-0.74350256 1.0769591 0.14646651
-0.03862546 0.13359573 14.438723
-1.230273 1.8617367 14.185973
-1.4859061 2.2259395 12.890394
-1.1619278 1.7223666 6.6891518
-1.0411881 1.5353254 4.4298482
-0.97945178 1.4399867 3.2587962
-0.9276312 1.3607577 2.4913802
-0.88459814 1.2961857 1.9554596
-0.41543797 0.70077318 13.926156
-0.81528676 1.2633159 13.979681
-1.276441 1.9071254 8.8729858
-1.0914526 1.6191384 5.3642464
-1.0113093 1.4940892 3.7942681
-0.9499563 1.3997865 2.8372657
-0.89921719 1.3230479 2.1930227
-0.87052202 1.2789255 1.7554444
-0.85681564 1.2507972 1.569684
-0.82503104 1.2030609 1.2586373
-0.80312592 1.170688 1.0154026
-0.78557456 1.1442602 0.81309795
-0.77470189 1.1280096 0.6411956
-0.7770918 1.1310755 0.49330926
-0.7597717 1.1050476 0.34607744
-0.75320005 1.0954939 0.21229887
-0.84219521 1.2331513 1.411168
-0.81342196 1.1901401 1.1332057
-0.79662132 1.1651299 0.91501999
-0.77993864 1.1394616 0.72578382
-0.77134544 1.1264941 0.56431359
-0.76095384 1.1109107 0.41548499
-0.74432737 1.0866419 0.27591884
-0.74256271 1.0836691 0.14666803
-0.038169291 0.13377212 14.443723
-1.2237668 1.8660198 14.185973
-1.4798138 2.2336595 12.90508
-1.1625518 1.7363353 6.7273273
-1.0423671 1.5486752 4.4574628
-0.97977912 1.4513372 3.2763524
-0.92760623 1.3709798 2.5037792
-0.88546062 1.3072271 1.9669722
-0.41313529 0.7024681 13.931148
-0.81144667 1.2670521 13.989623
-1.2767302 1.9220401 8.92138
-1.0915509 1.6315444 5.3924031
-1.012157 1.5066456 3.8167739
-0.95089191 1.4117466 2.8543293
-0.89964831 1.3336729 2.2049928
-0.87174553 1.2903842 1.7664698
-0.85845935 1.262628 1.5801976
-0.8295868 1.2188044 1.2711912
-0.80374122 1.180397 1.0208856
-0.78656435 1.1543169 0.81773555
-0.77598196 1.1383682 0.64494163
-0.77584136 1.1377444 0.4947193
-0.75867862 1.1117505 0.34701008
-0.75217855 1.1022298 0.21274593
-0.8399806 1.2391744 1.4144936
-0.81380075 1.1996623 1.139092
-0.79496992 1.1714706 0.91755313
-0.78360766 1.1534398 0.73207796
-0.77006286 1.1330854 0.56595707
-0.75980419 1.1175797 0.4166573
-0.7460981 1.097424 0.27730021
-0.74439466 1.0945166 0.14707109
-0.037702106 0.13390455 14.443723
-1.2172457 1.8702801 14.185973
-1.4658555 2.2294521 12.851232
-1.1630921 1.7503293 6.7655034
-1.0445507 1.5636766 4.4896808
-0.98003912 1.4627073 3.2939088
-0.92595232 1.3788818 2.5120449
-0.88625664 1.3182902 1.9784846
-0.41111627 0.70465457 13.946123
-0.80759048 1.2707766 13.999566
-1.2776226 1.9380298 8.9746141
-1.091576 1.6439708 5.4205594
-1.0129294 1.5192262 3.8392799
-0.95175552 1.4237303 2.871393
-0.90001625 1.344317 2.2169628
-0.87101173 1.2990509 1.77382
-0.85803622 1.2715292 1.5872066
-0.83186364 1.2313688 1.2806066
-0.80195719 1.1866599 1.023627
-0.78749347 1.1643944 0.82237315
-0.7746014 1.1449099 0.6468147
-0.77455395 1.1444185 0.49612933
-0.7603026 1.1225262 0.34887531
-0.75111914 1.108972 0.21319301
-0.83773398 1.2451969 1.417819
-0.81638014 1.2125545 1.1479214
-0.79569209 1.1813895 0.92261952
-0.7846511 1.1636941 0.73627406
-0.76874346 1.1396813 0.56760061
-0.76133591 1.1282834 0.41900194
-0.74503273 1.1041267 0.27799088
-0.74336469 1.1012492 0.14727263
-0.037234463 0.13403533 14.443723
-1.2107099 1.8745178 14.185973
-1.4586205 2.2354081 12.856128
-1.1635489 1.764348 6.803679
-1.0455626 1.5770835 4.5172958
-0.98023158 1.4740969 3.311465
-0.92581499 1.3891306 2.5244439
-0.8852073 1.3267084 1.9861596
-0.40894264 0.70658535 13.956105
-0.8040024 1.2749408 14.014481
-1.2791066 1.9551002 9.0326862
-1.092477 1.6578581 5.4534092
-1.0148274 1.533646 3.8662875
-0.95254683 1.4357369 2.8884568
-0.90198827 1.3574897 2.2329228
-0.87210608 1.3105508 1.7848457
-0.85756135 1.2804428 1.5942158
-0.83406293 1.2439638 1.290022
-0.80013925 1.1929246 1.0263685
-0.78589302 1.1708142 0.82469195
-0.77576882 1.1553042 0.6505608
-0.77322936 1.1510973 0.49753937
-0.75912017 1.12925 0.34980792
-0.74724358 1.1115872 0.21319301
-0.83545566 1.2512188 1.4211446
-0.81663382 1.2221185 1.1538078
-0.79395896 1.1877435 0.92515266
-0.78563243 1.1739697 0.74047017
-0.77001441 1.1502059 0.57088763
-0.76280212 1.1390114 0.42134658
-0.74668515 1.1149498 0.27937225
-0.74229676 1.1079879 0.14747415
-0.036756411 0.13412201 14.438723
-1.2041593 1.8787326 14.185973
-1.4502553 2.2396312 12.851232
-1.1639218 1.778391 6.841855
-1.0475674 1.5921484 4.5495133
-0.9803564 1.4855055 3.3290212
-0.9271698 1.4017423 2.5409758
-0.88587952 1.3378078 1.9976722
-0.40690401 0.7087602 13.971081
-0.79898185 1.2768357 14.004538
-1.2825404 1.9753678 9.105278
-1.0932941 1.6717716 5.4862585
-1.0154421 1.5462774 3.8887932
-0.95183188 1.4455881 2.9012547
-0.90222049 1.3681767 2.2448931
-0.87126249 1.3192449 1.792196
-0.85703468 1.2893686 1.6012248
-0.83187181 1.2501081 1.2931604
-0.80060428 1.202672 1.0318514
-0.78671306 1.1809236 0.82932955
-0.77430212 1.1618629 0.65243381
-0.77186745 1.1577808 0.49894941
-0.75789994 1.1359793 0.35074055
-0.74612266 1.1183313 0.21364009
-0.83520776 1.2603523 1.4277955
-0.8190645 1.2350675 1.1626372
-0.7945742 1.1976922 0.93021905
-0.78404063 1.1804856 0.74256819
-0.76860797 1.1568199 0.5725311
-0.76420271 1.1497632 0.42369121
-0.74552995 1.1216737 0.28006294
-0.74119073 1.1147325 0.14767569
-0.036288012 0.13424949 14.438723
-1.1975938 1.8829244 14.185973
-1.4424286 2.2446799 12.851232
-1.1650238 1.79371 6.8848028
-1.0484116 1.6056106 4.5771284
-0.97910136 1.4949292 3.3421884
-0.92690355 1.4120277 2.5533745
-0.88648492 1.3489279 2.0091846
-0.40485513 0.71092933 13.986056
-0.79367679 1.2782581 13.989623
-1.2783602 1.9840596 9.1246357
-1.0930882 1.6842633 5.5144153
-1.0159811 1.5589319 3.9112992
-0.95248622 1.457635 2.9183185
-0.90238905 1.3788821 2.2568631
-0.87222707 1.3307846 1.8032216
-0.85645604 1.2983063 1.6082339
-0.83179301 1.2595004 1.2994373
-0.79870611 1.2089481 1.0345929
-0.78502917 1.1873578 0.83164835
-0.77535659 1.172292 0.65617985
-0.77046829 1.1644686 0.50035942
-0.75664198 1.1427138 0.35167316
-0.74771321 1.1292336 0.21453427
-0.83285493 1.2663797 1.4311211
-0.81919247 1.2446718 1.1685236
-0.79275918 1.204059 0.93275219
-0.78241295 1.1870047 0.74466628
-0.76716477 1.1634381 0.57417464
-0.76553732 1.1605386 0.42603585
-0.74706346 1.1325368 0.28144431
-0.74004668 1.1214827 0.14787722
-0.035819173 0.13437535 14.438723
-1.1905993 1.8864362 14.181033
-1.4345846 2.2497013 12.851232
-1.166033 1.8090583 6.9277511
-1.0502367 1.6207377 4.6093459
-0.9790976 1.5063705 3.359745
-0.92811275 1.4246862 2.5699062
-0.88702351 1.3600686 2.0206971
-0.40293777 0.7133444 14.006022
-0.78865111 1.2801129 13.979681
-1.2666876 1.9810963 9.0907602
-1.0937425 1.6982248 5.5472646
-1.017626 1.573437 3.9383068
-0.95306796 1.469704 2.9353821
-0.90249366 1.3896048 2.2688332
-0.87127328 1.339505 1.8105719
-0.85777873 1.3102393 1.6187476
-0.82952493 1.2656517 1.3025758
-0.79906654 1.2187226 1.0400758
-0.78573996 1.1974984 0.83628595
-0.77380365 1.178867 0.65805292
-0.76903188 1.1711609 0.50176948
-0.75534624 1.1494533 0.35260579
-0.74650174 1.1359986 0.21498135
-0.83251065 1.2755327 1.437772
-0.81926334 1.254292 1.1744099
-0.79326719 1.2140365 0.93781859
-0.78074914 1.1935266 0.7467643
-0.76568455 1.1700603 0.57581812
-0.76680607 1.1713371 0.42838046
-0.7458179 1.1392808 0.28213498
-0.73886454 1.1282387 0.14807875
-0.035349898 0.13449956 14.438723
-1.1840072 1.8905807 14.181033
-1.4267229 2.2546952 12.851232
-1.1669493 1.8244354 6.9706988
-1.0509125 1.6342534 4.6369615
-0.97902572 1.5178298 3.3773012
-0.92924476 1.4373703 2.5864379
-0.88749492 1.3712289 2.0322096
-0.40114927 0.71600676 14.030981
-0.78362215 1.2819482 13.969737
-1.0952418 1.7136652 5.5848064
-1.0180063 1.5861403 3.9608128
-0.9535768 1.4817947 2.9524457
-0.90253454 1.4003453 2.2808034
-0.87026912 1.3482348 1.8179222
-0.85708565 1.3192067 1.6257567
-0.8293463 1.2750653 1.3088527
-0.79936844 1.2285142 1.0455588
-0.78638953 1.2076582 0.84092361
-0.77474457 1.1893299 0.66179895
-0.76755804 1.1778572 0.50317949
-0.75401264 1.1561975 0.35353839
-0.74797243 1.1469401 0.21587551
-0.83211261 1.2846988 1.4444231
-0.81927711 1.2639278 1.1802962
-0.79371518 1.224032 0.94288492
-0.77657825 1.1962447 0.7467643
-0.76673943 1.1806467 0.5791052
-0.76536065 1.1780827 0.42955279
-0.74723214 1.1501826 0.28351635
-0.7376442 1.1349999 0.14828028
-0.034870829 0.13457952 14.433724
-1.1774006 1.8947021 14.181033
-1.4199268 2.2613866 12.861023
-1.1677722 1.8398407 7.0136466
-1.0515065 1.6477935 4.6645765
-0.97888577 1.5293069 3.3948576
-0.9302994 1.4500794 2.6029699
-0.88789934 1.3824096 2.0437222
-0.39906722 0.71816009 14.045956
-0.77886617 1.28422 13.964766
-1.0966465 1.7291368 5.6223488
-1.0194794 1.6007013 3.9878199
-0.95401305 1.4939067 2.9695096
-0.90251118 1.4111027 2.2927732
-0.86921465 1.356974 1.8252726
-0.85827267 1.3311825 1.6362704
-0.82911199 1.284493 1.3151296
-0.79961157 1.2383225 1.0510417
-0.78457338 1.2141166 0.84324241
-0.77562183 1.1998135 0.66554505
-0.76604682 1.1845574 0.5045895
-0.75531 1.1670704 0.35540363
-0.74667001 1.1537248 0.21632259
-0.83166063 1.2938775 1.451074
-0.8170467 1.2701793 1.1832393
-0.79177034 1.2304204 0.94541812
-0.77485573 1.2027636 0.74886233
-0.76517153 1.1872852 0.58074868
-0.76651114 1.1889175 0.43189743
-0.74857926 1.1611081 0.28489769
-0.73909348 1.1459649 0.14868335
-0.03439163 0.13465779 14.428724
-1.1711875 1.8994619 14.185973
-1.4141777 2.2697861 12.880603
-1.1685016 1.8552737 7.0565944
-1.053064 1.6630083 4.6967945
-0.97996157 1.5428231 3.4168029
-0.9297654 1.4604394 2.6153688
-0.88823622 1.3936092 2.0552347
-0.39739218 0.72106689 14.075906
-0.77410394 1.286474 13.959794
-1.0979565 1.7446389 5.6598907
-1.0197004 1.6134517 4.0103259
-0.95437622 1.5060399 2.9865732
-0.90242386 1.421877 2.3047435
-0.86629111 1.3628609 1.8289475
-0.85746461 1.3401785 1.6432794
-0.83092123 1.2972121 1.3245449
-0.79979604 1.2481476 1.0565246
-0.78511298 1.2243057 0.84788001
-0.77643526 1.2103177 0.66929108
-0.76449811 1.1912614 0.50599957
-0.7538861 1.173833 0.35633627
-0.74802041 1.1647046 0.21721675
-0.83115464 1.3030685 1.457725
-0.81478268 1.2764307 1.1861825
-0.79211062 1.2404431 0.95048445
-0.7730971 1.2092848 0.75096041
-0.76611084 1.1979053 0.58403569
-0.76759541 1.1997747 0.43424204
-0.74719048 1.1678854 0.28558838
-0.73778194 1.1527457 0.14888488
-0.033912312 0.13473432 14.423724
-1.1649554 1.9042014 14.190912
-1.4083874 2.2781732 12.900185
-1.1699286 1.8720001 7.1043143
-1.0534885 1.6765996 4.7244091
-0.97967792 1.5543391 3.4343591
-0.93067324 1.4731925 2.6319005
-0.88850582 1.4048283 2.0667472
-0.39514905 0.7229566 14.085889
-0.76960862 1.2891682 13.959794
-1.1000855 1.7616348 5.7021255
-1.0198448 1.626223 4.0328321
-0.95466614 1.5181935 3.0036371
-0.90387785 1.4352176 2.3207035
-0.86514568 1.3716115 1.8362979
-0.8585155 1.3521956 1.653793
-0.83056384 1.3066746 1.3308219
-0.79992145 1.2579889 1.0620075
-0.78559101 1.2345135 0.8525176
-0.77469528 1.2169315 0.6711641
-0.76291192 1.1979691 0.50740957
-0.75242412 1.1805999 0.35726887
-0.74662673 1.1715082 0.21766382
-0.83458829 1.3185818 1.471027
-0.8124851 1.2826819 1.1891258
-0.79239041 1.2504833 0.95555079
-0.77373362 1.2196409 0.75515652
-0.7644549 1.2045592 0.58567923
-0.76600784 1.2065504 0.43541437
-0.74841756 1.178848 0.28696972
-0.73911047 1.1637486 0.14928794
-0.033432882 0.13480917 14.418724
-1.1587044 1.9089204 14.195851
-1.403088 2.2874153 12.92466
-1.171253 1.8887589 7.1520343
-1.0548646 1.6918721 4.7566271
-0.97932571 1.5658718 3.4519155
-0.93000883 1.4835854 2.6442995
-0.88870788 1.4160659 2.0782597
-0.24437752 0.45004278 8.6948977
-0.76510382 1.2918469 13.959794
-1.1021092 1.7786667 5.7443609
-1.0210623 1.6408631 4.0598392
-0.9548828 1.5303674 3.0207007
-0.90365273 1.44603 2.3326735
-0.86574817 1.3832444 1.8473235
-0.85759193 1.3612189 1.6608021
-0.83015054 1.3161502 1.3370987
-0.79998797 1.2678462 1.0674905
-0.78600717 1.2447393 0.85715514
-0.77539432 1.2274671 0.67491019
-0.76128823 1.2046801 0.50881964
-0.7535497 1.1915226 0.35913411
-0.74519467 1.1783162 0.21811089
-0.83593786 1.3309729 1.4810036
-0.8123045 1.2923545 1.1950121
-0.79260963 1.2605402 0.96061713
-0.77430719 1.2300161 0.75935262
-0.76527828 1.2152121 0.58896625
-0.7669732 1.217442 0.43775901
-0.74693763 1.1856432 0.28766042
-0.7377075 1.1705481 0.14948948
-0.032953341 0.1348823 14.413724
-1.1524348 1.9136192 14.20079
-1.3950949 2.292299 12.92466
-1.1724743 1.9055496 7.1997538
-1.0551188 1.7055126 4.7842422
-0.9789049 1.5774211 3.4694719
-0.93076938 1.4963807 2.6608312
-0.88884217 1.427322 2.0897722
-0.24239595 0.45012969 8.6799221
-0.76031995 1.2940501 13.954823
-1.1040272 1.795734 5.7865958
-1.0210464 1.6536791 4.0823455
-0.95502609 1.5425612 3.0377645
-0.90336335 1.4568584 2.3446436
-0.8644914 1.392018 1.8546739
-0.85850632 1.3732764 1.6713158
-0.8296811 1.3256389 1.3433758
-0.7999953 1.277719 1.0729734
-0.78636146 1.2549831 0.86179274
-0.77602917 1.2380223 0.67865622
-0.76217538 1.2154584 0.51163971
-0.75199687 1.1983063 0.36006674
-0.74372411 1.1851283 0.21855797
-0.83721089 1.343389 1.49098
-0.8099274 1.2986118 1.1979553
-0.79048657 1.2669568 0.96315032
-0.77481759 1.24041 0.76354873
-0.76603645 1.2258853 0.59225327
-0.7678718 1.2283551 0.44010365
-0.74541932 1.1924424 0.28835109
-0.73891479 1.1815878 0.14989254
-0.032516781 0.1351676 14.433724
-1.145748 1.9176303 14.20079
-1.3844537 2.2927966 12.900185
-1.1735926 1.9223717 7.2474737
-1.0552908 1.7191758 4.8118572
-0.97841549 1.5889862 3.4870281
-0.9299739 1.5068046 2.6732299
-0.88722402 1.4358695 2.0974472
-0.2412297 0.45173788 8.6948977
-0.7560665 1.2971568 13.959794
-1.1049408 1.811363 5.8241377
-1.0209534 1.666515 4.1048517
-0.95646083 1.5569969 3.0590942
-0.90300912 1.4677023 2.3566139
-0.86496222 1.4036857 1.8656992
-0.85746706 1.3823259 1.6783249
-0.8291555 1.3351401 1.3496526
-0.79994339 1.2876076 1.0784563
-0.78431481 1.2614824 0.86411154
-0.77659988 1.2485968 0.68240231
-0.76046222 1.2221847 0.51304972
-0.75300258 1.2092639 0.36193198
-0.74221504 1.1919446 0.21900505
-0.83840746 1.3558304 1.5009565
-0.80964339 1.3083054 1.2038416
-0.79059738 1.2770389 0.96821666
-0.77526498 1.2508224 0.76774484
-0.76672947 1.2365783 0.59554029
-0.76614147 1.2351584 0.44127598
-0.74386269 1.1992455 0.28904179
-0.73741984 1.1884049 0.15009406
-0.032061692 0.13536589 14.443723
-1.1390473 1.921618 14.20079
-1.3753954 2.2958682 12.890394
-1.1761543 1.9417783 7.3047376
-1.054364 1.731192 4.8348703
-0.97785699 1.600567 3.5045846
-0.9305864 1.5196412 2.6897616
-0.88890731 1.4498882 2.1127973
-0.239113 0.45155561 8.6749315
-0.75073391 1.2984033 13.94488
-1.1066521 1.8284963 5.8663726
-1.0207832 1.6793702 4.127358
-0.95644909 1.5692343 3.0761578
-0.90416008 1.4811333 2.3725739
-0.86536223 1.4153738 1.8767248
-0.85637498 1.3913848 1.685334
-0.82857358 1.3446537 1.3559296
-0.79983222 1.2975111 1.0839393
-0.7845583 1.2717527 0.86874914
-0.77710611 1.2591903 0.68614835
-0.7587114 1.2289134 0.51445979
-0.75135887 1.216064 0.36286458
-0.74066746 1.1987647 0.21945213
-0.83952725 1.3682964 1.510933
-0.8093015 1.3180126 1.2097279
-0.79064733 1.2871373 0.97328311
-0.77564895 1.2612531 0.77194095
-0.76488262 1.2432692 0.59718376
-0.76437294 1.2419648 0.44244829
-0.74226749 1.2060519 0.28973246
-0.73850572 1.1994803 0.15049712
-0.031622257 0.13564831 14.463722
-1.1323326 1.9255823 14.20079
-1.3658124 2.2980292 12.875708
-1.1778257 1.9599464 7.3572292
-1.0543764 1.7448947 4.8624849
-0.97722948 1.6121633 3.5221407
-0.92965949 1.5300952 2.7021606
-0.88883787 1.4611977 2.1243098
-0.23766899 0.45264336 8.6799221
-0.7451368 1.2991661 13.924994
-1.1073688 1.8441843 5.9039149
-1.0216596 1.6941084 4.1543651
-0.95636356 1.5814903 3.0932217
-0.90366721 1.4920126 2.3845439
-0.86744922 1.4299803 1.8914254
-0.85523015 1.400453 1.6923431
-0.82793534 1.3541795 1.3622065
-0.79966152 1.3074293 1.0894222
-0.78242677 1.2782618 0.87106794
-0.77754772 1.2698025 0.68989444
-0.75942856 1.2397355 0.51727986
-0.75224417 1.2270552 0.36472982
-0.7390812 1.2055885 0.21989921
-0.83862883 1.3775972 1.517584
-0.80890161 1.3277334 1.2156142
-0.79063636 1.2972513 0.97834945
