# .PCD v0.7 - Point Cloud Data file format
VERSION 0.7
FIELDS x y z
SIZE 4 4 4
TYPE F F F
COUNT 1 1 1
WIDTH 1456
HEIGHT 1
VIEWPOINT 0 0 0 1 0 0 0
POINTS 1456
DATA ascii
-1.1236497 0.89928603 6.9426928
-1.0738342 0.85092336 4.4272313
-0.97807032 0.7711876 2.9938602
-0.90588403 0.71224046 2.1790826
-0.86838883 0.68130839 1.6937212
-0.85167384 0.66748565 1.3721589
-1.1853609 0.94637281 5.8773823
-1.013468 0.80368012 3.5716097
-0.94428134 0.74589467 2.5519328
-0.88833469 0.69996017 1.9200897
-0.85698527 0.67430228 1.5187087
-0.83796096 0.65840125 1.2335709
-0.83796215 0.65439349 1.1246065
-0.82181364 0.64110202 0.92282254
-0.80297613 0.62618679 0.75222182
-0.79430282 0.61898667 0.6136812
-0.79791534 0.62158465 0.49697205
-0.7799381 0.60736752 0.38050666
-0.77146405 0.60034227 0.27706355
-0.77407718 0.60237908 0.18100333
-0.82584691 0.64679641 1.0154335
-0.81372875 0.63685638 0.83594644
-0.79928261 0.62533116 0.6819675
-0.79116821 0.61832452 0.55164546
-0.79305208 0.61958045 0.4394069
-0.77393395 0.60443282 0.32756117
-0.77656519 0.60649109 0.22964329
-0.77163172 0.60242778 0.13316546
-1.430636 1.1643428 11.726222
-1.1220891 0.90448105 6.9524832
-1.0743572 0.85746038 4.4415474
-0.97843188 0.77702713 3.0030653
-0.90714717 0.71837223 2.1878607
-0.86821318 0.68608034 1.697854
-0.85437018 0.67442662 1.3798339
-1.1869476 0.95444363 5.9015794
-1.0133531 0.80936706 3.5809953
-0.94337535 0.75054181 2.5564339
-0.88997144 0.70629954 1.9286216
-0.85698777 0.67916125 1.5226986
-0.8383159 0.66342622 1.2372462
-0.8384757 0.65951943 1.1281111
-0.81957078 0.64396673 0.92282254
-0.80078548 0.62898594 0.75222182
-0.79562187 0.62449068 0.616
-0.79574066 0.6243661 0.49697205
-0.78158772 0.61304688 0.38191667
-0.76936376 0.60303158 0.27706355
-0.77196974 0.60507745 0.18100333
-0.82651556 0.65198773 1.018759
-0.81467503 0.64219534 0.8388896
-0.79709494 0.62811732 0.6819675
-0.79257119 0.62388974 0.55374348
-0.79459542 0.62526518 0.44105041
-0.77181935 0.60713071 0.32756117
-0.77444339 0.60919815 0.22964329
-0.77345139 0.60820574 0.133367
-1.449996 1.1885433 11.918853
-1.1197155 0.90903431 6.9573784
-1.0748473 0.86401129 4.455863
-0.97876471 0.7828787 3.0122702
-0.9083786 0.7245214 2.1966388
-0.87021631 0.69261181 1.70612
-0.85451967 0.67939979 1.3836714
-1.1875156 0.96174586 5.9209371
-1.0132107 0.81506288 3.5903809
-0.94244838 0.75519162 2.5609353
-0.88953769 0.71103036 1.9328877
-0.85696679 0.68402851 1.5266887
-0.83864594 0.66846156 1.2409213
-0.83896375 0.66465688 1.1316158
-0.82036996 0.64923924 0.92596096
-0.80186415 0.6343717 0.75496328
-0.79343712 0.62726414 0.616
-0.79719359 0.63001448 0.49884507
-0.77944303 0.61577141 0.38191667
-0.76725411 0.60571343 0.27706355
-0.76985294 0.60776836 0.18100333
-0.82715797 0.65719163 1.0220846
-0.81559378 0.6475485 0.84183276
-0.79827398 0.63357586 0.68450069
-0.79038852 0.62665254 0.55374348
-0.79610872 0.63096821 0.44269392
-0.7696954 0.60982108 0.32756117
-0.77231222 0.61189771 0.22964329
-0.77132362 0.61090189 0.133367
-1.4380499 1.1871657 11.854643
-1.1181118 0.91422653 6.9671688
-1.0753052 0.8705762 4.4701791
-0.98058981 0.78996783 3.026078
-0.90771103 0.72918797 2.2010279
-0.86998886 0.69740546 1.7102529
-0.85464466 0.68438202 1.387509
-1.1890209 0.96985829 5.9451342
-1.0130408 0.82076764 3.5997665
-0.94150054 0.75984412 2.5654364
-0.89111316 0.7174024 1.9414195
-0.85692215 0.68890381 1.5306787
-0.84159458 0.67562991 1.2482716
-0.83942604 0.66980582 1.1351203
-0.82114238 0.6545251 0.92909944
-0.80291516 0.63977277 0.75770479
-0.79470813 0.63278937 0.6183188
-0.79861671 0.63568056 0.50071812
-0.77728879 0.61848843 0.38191667
-0.76898003 0.61144525 0.27799615
-0.77162468 0.61355144 0.18145041
-0.82777399 0.66240793 1.0254101
-0.8133285 0.65039158 0.84183276
-0.79605752 0.6363585 0.68450069
-0.79174274 0.63223976 0.55584157
-0.79759192 0.63668942 0.44433743
-0.76756203 0.61250412 0.32756117
-0.77017158 0.61458987 0.22964329
-0.77309203 0.61670613 0.13356853
-1.4273257 1.186713 11.800311
-1.1164856 0.91941869 6.9769592
-1.074573 0.87621117 4.479723
-0.98086035 0.79584801 3.0352831
-0.90888369 0.73536509 2.209806
-0.87192792 0.70397377 1.7185189
-0.85225052 0.68736112 1.387509
-1.1895128 0.97719485 5.9644918
-1.0155172 0.82866341 3.6185374
-0.94222069 0.76587236 2.5744388
-0.89062911 0.72215122 1.9456853
-0.85685402 0.69378716 1.5346687
-0.84186715 0.68069506 1.2519468
-0.83986259 0.67496604 1.1386248
-0.82188773 0.65982425 0.93223786
-0.80393803 0.64518881 0.76044625
-0.79595011 0.63833106 0.6206376
-0.80000997 0.64136428 0.50259119
-0.77512515 0.62119788 0.38191667
-0.76684099 0.61412579 0.27799615
-0.76947826 0.61624116 0.18145041
-0.82836384 0.66763657 1.0287355
-0.81420112 0.65576214 0.84477592
-0.79718912 0.64183688 0.68703383
-0.78953093 0.63499957 0.55584157
-0.79904473 0.64242852 0.44598094
-0.76920795 0.61822474 0.3287335
-0.77188146 0.62037683 0.23033397
-0.77093458 0.61940098 0.13356853
-1.4440225 1.2091506 11.973186
-1.1148367 0.92461067 6.9867501
-1.073815 0.88185179 4.4892673
-0.98110175 0.80173969 3.044488
-0.91188085 0.74307239 2.2229733
-0.87164849 0.70878857 1.7226517
-0.85233378 0.69235295 1.3913465
-1.1899681 0.98454672 5.9838495
-1.0166179 0.83549064 3.6326158
-0.94291025 0.7719149 2.5834413
-0.89214283 0.72855526 1.9542174
-0.85442698 0.69677389 1.5346687
-0.84211469 0.68577045 1.2556219
-0.83750141 0.67789358 1.1386248
-0.82260621 0.66513664 0.93537635
-0.80818474 0.65324843 0.76592922
-0.79716301 0.64388907 0.6229564
-0.80137318 0.6470654 0.50446421
-0.77668476 0.62691283 0.38332671
-0.7646926 0.61679882 0.27799615
-0.77119863 0.62204993 0.18189749
-0.8289271 0.67287725 1.032061
-0.81504613 0.6611467 0.84771907
-0.79494381 0.64461571 0.68703383
-0.79083627 0.64060855 0.55793959
-0.80046713 0.64818555 0.44762444
-0.7670452 0.620906 0.3287335
-0.7697112 0.62306744 0.23033397
-0.77265143 0.62523091 0.13377006
-1.4522651 1.2247047 12.07691
-1.113165 0.92980212 6.9965401
-1.0753309 0.88940066 4.5083551
-0.98282224 0.80888444 3.0582957
-0.91298383 0.74928999 2.2317514
-0.871346 0.71360999 1.7267847
-0.84991181 0.69532382 1.3913465
-1.1903864 0.9919135 6.0032072
-1.017683 0.84233552 3.6466939
-0.94356912 0.77797157 2.5924437
-0.8916083 0.73332173 1.9584832
-0.85431802 0.70166475 1.5386587
-0.83971578 0.6887058 1.2556219
-0.83789402 0.68306643 1.1421293
-0.8232975 0.67046195 0.93851483
-0.80914229 0.65870553 0.76867068
-0.79491055 0.64666778 0.6229564
-0.79910964 0.64985877 0.50446421
-0.77449173 0.62962013 0.38332671
-0.76634759 0.62256169 0.27892879
-0.77288783 0.62787825 0.18234457
-0.82946378 0.67813003 1.0353866
-0.81273335 0.6639877 0.84771907
-0.79602748 0.65011346 0.68956703
-0.78859526 0.6433652 0.55793959
-0.80185914 0.65396035 0.44926795
-0.7686404 0.62665117 0.32990581
-0.7713697 0.62887961 0.23102465
-0.7704643 0.6279242 0.13377006
-1.462193 1.2418405 12.195453
-1.1114708 0.93499339 7.006331
-1.0779538 0.89792639 4.5322151
-0.9830007 0.8148039 3.0675008
-0.91405469 0.75552434 2.2405298
-0.8710205 0.71843797 1.7309177
-0.84995311 0.70032471 1.3951839
-1.1917305 1.0001032 6.0274043
-1.0173874 0.84809285 3.6560795
-0.94419718 0.78404218 2.6014462
-0.89105165 0.7380935 1.9627492
-0.85418528 0.70656335 1.5426488
-0.83992034 0.69379193 1.2592971
-0.83826071 0.68825018 1.1456339
-0.82095212 0.67333168 0.93851483
-0.81007153 0.66417718 0.77141213
-0.79607499 0.65224612 0.62527519
-0.80042267 0.65558171 0.50633723
-0.77600086 0.63535881 0.38473675
-0.76416975 0.62523288 0.27892879
-0.77454567 0.63372576 0.18279165
-0.82709163 0.68102133 1.0353866
-0.81353182 0.66938895 0.85066223
-0.79708254 0.65562671 0.69210023
-0.78985119 0.64899522 0.56003767
-0.80322045 0.65975267 0.45091146
-0.77020478 0.63241488 0.33107814
-0.76916981 0.63156831 0.23102465
-0.76826769 0.63060981 0.13377006
-1.4672955 1.2550191 12.274481
-1.1097538 0.940184 7.0161209
-1.0805303 0.90648103 4.5560746
-0.98464942 0.82198662 3.0813081
-0.91509295 0.7617752 2.2493079
-0.87283641 0.7250706 1.7391837
-0.8475033 0.7032873 1.3951839
-1.1930318 1.0083145 6.0516014
-1.0183854 0.85496813 3.6701579
-0.94479424 0.79012668 2.6104486
-0.89047223 0.74287009 1.967015
-0.85402876 0.71146953 1.5466388
-0.84009945 0.69888777 1.2629722
-0.83860147 0.69344479 1.1491385
-0.82159758 0.67867219 0.94165331
-0.8077482 0.66700083 0.77141213
-0.79721004 0.65784043 0.62759399
-0.80170554 0.66132176 0.5082103
-0.77747929 0.64111567 0.38614678
-0.76198262 0.62789655 0.27892879
-0.77232885 0.63642561 0.18279165
-0.82758343 0.68628776 1.038712
-0.81430238 0.67480379 0.85360539
-0.79810882 0.66115522 0.69463336
-0.79107744 0.65464199 0.5621357
-0.80455112 0.66556245 0.452555
-0.76799256 0.63509947 0.33107814
-0.77077675 0.63740528 0.23171534
-0.7699123 0.63647091 0.13397159
-1.4770328 1.2723058 12.393023
-1.1080142 0.94537401 7.0259118
-1.0876206 0.91891867 4.5990224
-0.98476475 0.82793337 3.0905132
-0.91426355 0.76650369 2.2536969
-0.87245828 0.72991866 1.7433165
-0.84750253 0.70829695 1.3990214
-1.1942903 1.016547 6.0757985
-1.0180302 0.86074638 3.6795435
-0.9453603 0.79622483 2.6194508
-0.89186704 0.74932945 1.975547
-0.85384834 0.71638316 1.5506288
-0.84025335 0.70399332 1.2666475
-0.8361758 0.69636786 1.1491385
-0.81922352 0.68153596 0.94165331
-0.80862987 0.67249012 0.77415359
-0.79831564 0.66345066 0.62991279
-0.79939222 0.6641162 0.5082103
-0.77892697 0.64689046 0.38755682
-0.76356632 0.6336897 0.27986142
-0.77393478 0.64229804 0.18323873
-0.82518274 0.68917239 1.038712
-0.81504506 0.68023217 0.85654855
-0.79579604 0.66393715 0.69463336
-0.78878754 0.65739936 0.5621357
-0.80585104 0.67138958 0.45419851
-0.76950592 0.64088714 0.33225045
-0.76854712 0.64009196 0.23171534
-0.76768595 0.63915455 0.13397159
-1.4708221 1.2759261 12.378204
-1.106252 0.95056337 7.0357018
-1.0844064 0.92270952 4.5990224
-0.98485047 0.83389091 3.0997183
-0.91341209 0.77123553 2.258086
-0.8720569 0.73477298 1.7474495
-0.84747702 0.71331513 1.402859
-1.1955059 1.0248007 6.0999956
-1.0176469 0.86653256 3.6889291
-0.94589531 0.80233657 2.6284533
-0.89123684 0.75412285 1.979813
-0.85364401 0.72130424 1.5546188
-0.8403818 0.70910853 1.2703226
-0.83647215 0.70157421 1.152643
-0.81982297 0.68689126 0.94479173
-0.80627751 0.6753087 0.77415359
-0.79939187 0.66907656 0.63223159
-0.80062467 0.66987753 0.51008332
-0.77666414 0.64960551 0.38755682
-0.76511866 0.63950151 0.28079402
-0.77168798 0.64499569 0.18323873
-0.82562935 0.69445211 1.0420375
-0.81266564 0.68307304 0.85654855
-0.79677391 0.66948408 0.69716656
-0.7899642 0.66306663 0.56423378
-0.8035025 0.67419839 0.45419851
-0.77098811 0.64669299 0.33342275
-0.77010214 0.64595324 0.23240602
-0.76927841 0.64504033 0.13417313
-1.4739653 1.2876993 12.442415
-1.1044668 0.95575196 7.0454926
-1.0834457 0.92843211 4.6085668
-0.98342013 0.8385914 3.104321
-0.91253889 0.77597088 2.2624753
-0.87377787 0.74145424 1.7557154
-0.84742689 0.71834171 1.4066964
-1.1966782 1.0330749 6.1241927
-1.0185457 0.87344998 3.7030075
-0.94474399 0.80704761 2.6329546
-0.89058387 0.75892091 1.9840788
-0.85341573 0.72623253 1.5586089
-0.83790141 0.71203768 1.2703226
-0.83401811 0.70448971 1.152643
-0.82039493 0.69225907 0.94793022
-0.80711144 0.6808151 0.77689505
-0.8004384 0.67471796 0.63455039
-0.79828143 0.67266816 0.51008332
-0.77806073 0.6554032 0.38896683
-0.76288176 0.64216834 0.28079402
-0.76943183 0.64768547 0.18323873
-0.82604915 0.69974333 1.0453631
-0.81336135 0.68851721 0.85949171
-0.79443216 0.67226124 0.69716656
-0.78764486 0.66582012 0.56423378
-0.79753739 0.67395103 0.452555
-0.76872605 0.64938033 0.33342275
-0.76784271 0.64863747 0.23240602
-0.77083915 0.65094501 0.13437465
-1.4636286 1.2877033 12.393023
-1.1026589 0.96093959 7.0552826
-1.0824581 0.93415904 4.6181107
-0.98345095 0.84456497 3.1135259
-0.91164374 0.78070951 2.2668641
-0.8733235 0.74632812 1.7598482
-0.84735185 0.72337657 1.4105339
-1.1968588 1.0405451 6.1435504
-1.0194082 0.88038415 3.7170856
-0.94357139 0.81176031 2.6374559
-0.88990843 0.76372373 1.9883448
-0.85316336 0.73116809 1.5625988
-0.83798641 0.71716267 1.2739978
-0.83427012 0.70970762 1.1561475
-0.81797349 0.69511855 0.94793022
-0.80473006 0.68362832 0.77689505
-0.80145532 0.68037486 0.63686919
-0.79946321 0.67845029 0.51195633
-0.77942616 0.6612184 0.39037687
-0.76438248 0.64800394 0.28172666
-0.76716632 0.65036732 0.18323873
-0.82644194 0.70504594 1.0486885
-0.81402886 0.69397467 0.86243486
-0.79536158 0.67782646 0.6996997
-0.78531593 0.66856545 0.56423378
-0.79518002 0.67673081 0.452555
-0.77015662 0.6552093 0.33459508
-0.76934558 0.65452266 0.23309669
-0.7685622 0.65363181 0.13437465
-1.4765694 1.3082653 12.5412
-1.1008282 0.9661262 7.0650735
-1.0825704 0.94086975 4.6324267
-0.98197448 0.84927076 3.1181283
-0.91072655 0.78545135 2.2712533
-0.87284583 0.75120777 1.7639813
-0.84968239 0.73050946 1.418209
-1.1970018 1.0480289 6.1629081
-1.0215369 0.88846761 3.7358565
-0.94402242 0.8179003 2.6464584
-0.89118326 0.77023643 1.9968767
-0.85288697 0.73611063 1.5665889
-0.8380459 0.72229677 1.277673
-0.83449584 0.71493578 1.1596521
-0.81849927 0.70050067 0.95106864
-0.805516 0.68915153 0.77963656
-0.79907548 0.68316829 0.63686919
-0.79709005 0.6812368 0.51195633
-0.77711332 0.66393512 0.39037687
-0.7658518 0.65385777 0.28265926
-0.76867884 0.65627486 0.18368581
-0.82680786 0.71035969 1.052014
-0.81466818 0.69944507 0.86537802
-0.79299068 0.68059874 0.6996997
-0.7829774 0.67130268 0.56423378
-0.78922749 0.67642933 0.45091146
-0.77155596 0.66105622 0.33576739
-0.76705617 0.65720421 0.23309669
-0.77007037 0.65956044 0.13457619
-1.4951812 1.334107 12.73877
-1.0989748 0.97131181 7.0748639
-1.0826489 0.94759256 4.6467428
-0.9819501 0.85525984 3.1273334
-0.9115954 0.79176676 2.2800314
-0.87234461 0.75609314 1.7681142
-0.84955037 0.73556918 1.4220465
-1.1971072 1.0555266 6.1822658
-1.0223234 0.89543945 3.7499349
-0.94280189 0.82262188 2.6509595
-0.8904562 0.77505493 2.0011425
-0.85258639 0.74106014 1.5705789
-0.83807957 0.72744006 1.2813481
-0.83469528 0.72017419 1.1631566
-0.81899732 0.70589465 0.95420712
-0.80310547 0.69195908 0.77963656
-0.79668587 0.68595344 0.63686919
-0.79822087 0.68703932 0.51382935
-0.77842736 0.66977245 0.3917869
-0.7672894 0.65972978 0.2835919
-0.76638329 0.65895408 0.18368581
-0.82714665 0.71568465 1.0553395
-0.81527907 0.70492822 0.86832118
-0.79387134 0.6861816 0.7022329
-0.78406447 0.67699784 0.5663318
-0.78686148 0.67918015 0.45091146
-0.77292377 0.66692084 0.33693972
-0.76475745 0.65987772 0.23309669
-0.77154636 0.66550767 0.13477771
-1.4847363 1.3341241 12.689378
-1.0970985 0.97649622 7.0846543
-1.0838133 0.95531452 4.6658306
-0.98042732 0.85997063 3.1319361
-0.91243118 0.79809785 2.2888095
-0.87181991 0.76098424 1.7722472
-0.84939325 0.74063683 1.425884
-1.1952949 1.0613681 6.1919446
-1.0230737 0.90242749 3.7640131
-0.94319504 0.82878202 2.6599619
-0.88970649 0.77987772 2.0054085
-0.85226154 0.7460165 1.574569
-0.83808756 0.73259234 1.2850233
-0.83486813 0.72542262 1.1666611
-0.81652832 0.70874923 0.95420712
-0.80384344 0.6974988 0.78237802
-0.79763335 0.69163227 0.63918799
-0.79581779 0.68982142 0.51382935
-0.77608466 0.67248559 0.3917869
-0.76869529 0.66561967 0.2845245
-0.76784313 0.6648851 0.18413289
-0.82464343 0.71856755 1.0553395
-0.81281346 0.70776975 0.86832118
-0.79472274 0.69177902 0.70476609
-0.7816965 0.67973065 0.5663318
-0.78448594 0.68192261 0.45091146
-0.77059102 0.66961479 0.33693972
-0.76244932 0.66254324 0.23309669
-0.76921868 0.66819674 0.13477771
-1.504265 1.3611985 12.896827
-1.0951993 0.9816792 7.0944448
-1.0838208 0.96206498 4.6801462
-0.98034769 0.86597478 3.1411412
-0.91323388 0.80444431 2.2975879
-0.87127179 0.76588076 1.7763801
-0.85161954 0.74782729 1.4335591
-1.1934565 1.0672101 6.2016234
-1.0237875 0.9094317 3.7780917
-0.94355661 0.8349548 2.6689644
-0.88893396 0.78470474 2.0096743
-0.85417295 0.75297236 1.5825491
-0.84061432 0.73999363 1.2923737
-0.83501464 0.73068106 1.1701657
-0.81697971 0.71415693 0.9573456
-0.80140376 0.70030051 0.78237802
-0.79521418 0.69441235 0.63918799
-0.793405 0.69259518 0.51382935
-0.77734691 0.67834473 0.39319694
-0.77006942 0.67152745 0.28545713
-0.76927078 0.67083442 0.18457997
-0.82493657 0.72390461 1.058665
-0.8133769 0.7132678 0.87126434
-0.79554462 0.69739056 0.70729923
-0.78273338 0.68544513 0.56842989
-0.78210074 0.68465686 0.45091146
-0.77190673 0.67550159 0.33811203
-0.76013201 0.66520065 0.23309669
-0.77064168 0.67416722 0.13497925
-1.5155828 1.3810972 13.035126
-1.0940332 0.9875434 7.1091304
-1.0849072 0.96982217 4.6992345
-0.98023814 0.87198877 3.150346
-0.91400331 0.81080621 2.306366
-0.8707 0.77078283 1.780513
-0.85140485 0.75291884 1.4373965
-1.191592 1.0730519 6.2113023
-1.024465 0.91645187 3.7921698
-0.94388664 0.84114027 2.6779668
-0.89008754 0.79126865 2.0182061
-0.85379267 0.75794995 1.5865391
-0.84056288 0.7451725 1.2960488
-0.83513451 0.73594928 1.1736702
-0.81448185 0.7170043 0.9573456
-0.80209333 0.70585608 0.78511947
-0.79278541 0.69718385 0.63918799
-0.79446435 0.69842136 0.51570243
-0.77497429 0.681054 0.39319694
-0.7677207 0.67421132 0.28545713
-0.7669245 0.6735155 0.18457997
-0.82520229 0.7292524 1.0619905
-0.81088215 0.71610266 0.87126434
-0.79633707 0.70301634 0.70983243
-0.78373986 0.69117522 0.57052791
-0.77970606 0.6873827 0.45091146
-0.76954412 0.6781919 0.33811203
-0.76152056 0.6711241 0.23378737
-0.76828372 0.67685318 0.13497925
-1.5222009 1.3968879 13.133911
-1.092086 0.99272621 7.1189208
-1.0859524 0.97759861 4.7183223
-0.98009843 0.87801254 3.1595511
-0.91652542 0.81877887 2.3195331
-0.87220484 0.7775628 1.788779
-0.85116506 0.75801808 1.441234
-1.1906322 1.0797384 6.225821
-1.0251058 0.92348778 3.8062482
-0.9441849 0.84733814 2.6869693
-0.88926309 0.79611057 2.0224721
-0.85563439 0.76494253 1.5945191
-0.84048557 0.75036001 1.299724
-0.83522773 0.74122727 1.1771748
-0.81488657 0.72242522 0.96048403
-0.79962456 0.70865166 0.78511947
-0.79034698 0.69994694 0.63918799
-0.79202157 0.70119029 0.51570243
-0.77618438 0.68693417 0.39460698
-0.76904219 0.68014139 0.28638974
-0.76829916 0.67948765 0.18502705
-0.82544076 0.7346108 1.065316
-0.80837756 0.71892887 0.87126434
-0.79387826 0.70579177 0.70983243
-0.78471571 0.69692057 0.57262594
-0.78083324 0.6932354 0.452555
-0.7671721 0.68087399 0.33811203
-0.75917327 0.67377824 0.23378737
-0.7696535 0.68284649 0.13518077
-1.5173156 1.4021928 13.133911
-1.090116 0.99790752 7.1287117
-1.0869565 0.98539394 4.7374101
-0.98137903 0.88535476 3.1733589
-0.91544211 0.82357508 2.3239222
-0.87157935 0.78248274 1.792912
-0.8485139 0.76098454 1.441234
-1.188712 1.0855833 6.2354994
-1.0244319 0.9293797 3.8156335
-0.94445139 0.85354841 2.6959715
-0.88841558 0.80095619 2.0267382
-0.85519826 0.76994085 1.5985092
-0.8403821 0.75555593 1.3033991
-0.83529413 0.74651468 1.1806793
-0.81235987 0.72526532 0.96048403
-0.80026561 0.71422285 0.78786093
-0.79120481 0.70565015 0.64150673
-0.79302937 0.7070359 0.51757544
-0.77378184 0.68963939 0.39460698
-0.76666337 0.68282175 0.28638974
-0.76592267 0.68216544 0.18502705
-0.82565182 0.73997968 1.0686415
-0.80887395 0.72444296 0.8742075
-0.79462135 0.71143425 0.71236569
-0.78227824 0.69965547 0.57262594
-0.78192896 0.69910431 0.45419851
-0.76841474 0.68678689 0.33928433
-0.76050889 0.67972416 0.23447806
-0.76726526 0.68552893 0.13518077
-1.5465353 1.4392458 13.430267
-1.0888717 1.0037775 7.1433969
-1.0879194 0.99320829 4.7564979
-0.98117441 0.8914026 3.1825638
-0.91611129 0.8299818 2.3327003
-0.87301719 0.78929502 1.8011779
-0.84823096 0.76609021 1.4450716
-1.1876907 1.092279 6.2500176
-1.0250033 0.9364422 3.8297122
-0.94629586 0.86123616 2.7094753
-0.889476 0.80755895 2.03527
-0.85696995 0.77696943 1.6064892
-0.84025264 0.76076031 1.3070743
-0.83533388 0.75181168 1.1841838
-0.81271768 0.730699 0.96362251
-0.79776758 0.71701193 0.78786093
-0.78873682 0.70840764 0.64150673
-0.79400593 0.71289688 0.51944846
-0.77493984 0.69554049 0.39601701
-0.76793206 0.68877363 0.28732237
-0.76724398 0.68815994 0.18547413
-0.82583553 0.745359 1.071967
-0.80634028 0.72726208 0.8742075
-0.7953347 0.71709037 0.71489882
-0.78320348 0.70541936 0.57472402
-0.77948385 0.70182955 0.45419851
-0.76601273 0.68946499 0.33928433
-0.75813156 0.68237472 0.23447806
-0.76858151 0.69154465 0.13538231
-1.5375339 1.4409156 13.395692
-1.0868534 1.0089579 7.1531878
-1.0899397 1.0020517 4.7803578
-0.98093951 0.89745986 3.1917689
-0.91497773 0.83478892 2.3370893
-0.87441796 0.79612672 1.8094438
-0.84792274 0.77120322 1.448909
-1.1875592 1.0998349 6.2693753
-1.024268 0.9423514 3.8390975
-0.94649333 0.86747605 2.7184777
-0.88857639 0.81241882 2.039536
-0.8564778 0.78198797 1.6104792
-0.84009707 0.76597297 1.3107494
-0.83534682 0.75711805 1.1876884
-0.81304729 0.73614401 0.96676093
-0.79836005 0.72259843 0.79060239
-0.78954446 0.71412808 0.64382553
-0.79151261 0.71566421 0.51944846
-0.77606601 0.7014581 0.39742702
-0.76552308 0.69145 0.28732237
-0.76483721 0.69083393 0.18547413
-0.82599169 0.75074863 1.0752926
-0.80678874 0.73278999 0.87715065
-0.79282671 0.71986222 0.71489882
-0.78073639 0.7081489 0.57472402
-0.78402567 0.71089011 0.45748553
-0.76720268 0.69539899 0.34045666
-0.75941414 0.68834269 0.23516873
-0.7698651 0.69757789 0.13558383
-1.085556 1.014832 7.1678734
-1.0908161 1.009907 4.7994461
-0.98067415 0.90352631 3.200974
-0.9138217 0.8395983 2.3414786
-0.87370777 0.80107605 1.8135767
-0.84758902 0.77632332 1.4527465
-1.1873894 1.1074033 6.288733
-1.0247697 0.94943988 3.8531759
-0.94665867 0.87372786 2.7274802
-0.88957208 0.81904888 2.0480678
-0.85596097 0.78701246 1.6144693
-0.8374182 0.76890081 1.3107494
-0.83269894 0.76002932 1.1876884
-0.81047279 0.73897755 0.96676093
-0.79892302 0.72819763 0.79334384
-0.79032177 0.71986282 0.64614433
-0.78900963 0.71842271 0.51944846
-0.77716017 0.7073918 0.39883706
-0.76673865 0.69742334 0.28825498
-0.766105 0.69685042 0.18592121
-0.82336605 0.75362736 1.0752926
-0.8072083 0.73832983 0.88009381
-0.79349047 0.72553438 0.71743202
-0.78161067 0.71393085 0.57682204
-0.78502655 0.71680671 0.45912904
-0.76477063 0.69807273 0.34045666
-0.75700676 0.69098932 0.23516873
-0.77111572 0.70362836 0.13578537
-1.565168 1.4874823 13.726622
-1.084972 1.0214072 7.1874542
-1.0927429 1.0187987 4.8233061
-0.98181045 0.91093057 3.2147813
-0.91264331 0.84440964 2.3458676
-0.87504095 0.80793905 1.8218426
-0.8472299 0.78145045 1.4565841
-1.186265 1.1141231 6.3032517
-1.0252342 0.95654321 3.8672543
-0.94679195 0.87999129 2.7364826
-0.88862002 0.82392246 2.0523336
-0.8554194 0.79204285 1.6184592
-0.83721817 0.77412087 1.3144246
-0.8326664 0.76534486 1.191193
-0.81075525 0.74443477 0.96989942
-0.79945666 0.73380953 0.7960853
-0.79106861 0.72561163 0.64846313
-0.78649712 0.72117251 0.51944846
-0.77822238 0.71334177 0.4002471
-0.76429951 0.70009553 0.28825498
-0.76366788 0.69952041 0.18592121
-0.82347572 0.75902748 1.078618
-0.80759907 0.74388158 0.88303697
-0.79412413 0.73121983 0.71996522
-0.78245407 0.71972746 0.57892013
-0.78599554 0.72273886 0.46077254
-0.7659077 0.70402747 0.34162897
-0.75823599 0.69697893 0.23585941
-0.77233356 0.70969617 0.13598689
-1.5633337 1.4961606 13.756258
-1.0836165 1.0272902 7.2021399
-1.0946206 1.027716 4.8471661
-0.98147953 0.91702002 3.2239864
-0.91144228 0.84922296 2.3502567
-0.8742761 0.81290495 1.8259755
-0.84684539 0.78658456 1.4604216
-1.1851081 1.1208485 6.3177695
-1.024404 0.96247953 3.8766394
-0.94689292 0.88626629 2.7454851
-0.88764477 0.82879931 2.0565996
-0.85485327 0.79707909 1.6224493
-0.83699191 0.77934897 1.3180997
-0.83260685 0.77066934 1.1946975
-0.81100953 0.7499029 0.97303784
-0.79996085 0.73943412 0.79882681
-0.78853089 0.72836858 0.64846313
-0.78397495 0.72391343 0.51944846
-0.77925253 0.71930772 0.40165716
-0.76546174 0.70608985 0.28918761
-0.76488185 0.70555842 0.18636829
-0.82355767 0.7644375 1.0819435
-0.80796099 0.74944514 0.88598019
-0.79472774 0.73691857 0.72249836
-0.77993703 0.72245431 0.57892013
-0.78693277 0.72868657 0.46241605
-0.76344556 0.70669669 0.34162897
-0.75579846 0.69962138 0.23585941
-0.76985162 0.71238774 0.13598689
-1.5648143 1.5080795 13.815529
-1.0829694 1.0338793 7.2217207
-1.0953647 1.0356331 4.8662539
-0.98111814 0.92311817 3.2331915
-0.91021883 0.85403824 2.3546457
-0.8714332 0.81595182 1.8259755
-0.84643525 0.7917254 1.464259
-1.1839187 1.1275795 6.3322878
-1.0247985 0.96960795 3.890718
-0.94696158 0.89255267 2.7544875
-0.88854611 0.83546597 2.0651317
-0.85426229 0.80212092 1.6264393
-0.8367393 0.78458488 1.321775
-0.83252031 0.77600271 1.198202
-0.81123543 0.75538182 0.97617632
-0.80043548 0.74507105 0.80156827
-0.78922707 0.73413378 0.65078193
-0.78483814 0.72980261 0.52132148
-0.78025043 0.72528958 0.4030672
-0.76299238 0.70875752 0.28918761
-0.76606303 0.71161342 0.18681537
-0.82088423 0.76730764 1.0819435
-0.80533999 0.7522608 0.88598019
-0.79530126 0.7426303 0.72503155
-0.78072912 0.72826821 0.58101815
-0.78783792 0.73464954 0.46405956
-0.76097405 0.70935732 0.34162897
-0.75697398 0.70563203 0.23655009
-0.77101517 0.71847665 0.13618843
-1.5662309 1.5200272 13.8748
-1.0822897 1.0404763 7.2413015
-1.0971479 1.0445974 4.8901138
-0.98214412 0.9305687 3.246999
-0.91071355 0.86050016 2.3634241
-0.87062705 0.82091933 1.8301084
-0.84599954 0.79687303 1.4680965
-1.1817898 1.1334456 6.3419671
-1.0251554 0.97675073 3.9047961
-0.94699794 0.89885032 2.7634897
-0.88751811 0.84035575 2.0693977
-0.8536464 0.80716825 1.6304293
-0.83646029 0.78982842 1.3254501
-0.83240652 0.78134483 1.2017065
-0.8114329 0.76087147 0.97931474
-0.80088043 0.7507202 0.80430973
-0.78665966 0.73688424 0.65078193
-0.78228587 0.73253775 0.52132148
-0.78121603 0.73128706 0.40447721
-0.76410103 0.71477228 0.29012021
-0.76721114 0.71768516 0.18726245
-0.82091951 0.77272767 1.0852691
-0.80565321 0.75783688 0.88892335
-0.7958445 0.74835503 0.72756475
-0.78149015 0.73409647 0.58311623
-0.78871101 0.74062765 0.46570307
-0.7620371 0.71533602 0.3428013
-0.75811672 0.71165937 0.23724076
-0.77214557 0.72458231 0.13638996
-1.0808455 1.0463729 7.2559876
-1.0988817 1.0535865 4.9139733
-0.98312986 0.93803769 3.2608066
-0.90943927 0.86532485 2.3678129
-0.87183726 0.82782888 1.8383743
-0.84786355 0.80423313 1.4757715
-1.1805382 1.1401839 6.3564849
-1.0267202 0.98510265 3.9235673
-0.94700181 0.90515906 2.7724922
-0.88835412 0.8470484 2.0779295
-0.85518789 0.81429911 1.6384094
-0.83615488 0.79507959 1.3291253
-0.83226562 0.78669554 1.2052112
-0.81160194 0.76637161 0.98245323
-0.8012957 0.75638163 0.80705118
-0.78730494 0.74266541 0.65310073
-0.78309691 0.73844457 0.52319455
-0.78214908 0.73729998 0.40588725
-0.76160139 0.71743512 0.29012021
-0.76832616 0.72377354 0.18770951
-0.8209269 0.77815723 1.0885946
-0.80593735 0.76342428 0.89186651
-0.79635757 0.75409263 0.73009789
-0.78221989 0.7399388 0.58521426
-0.78612089 0.74337626 0.46570307
-0.76306766 0.72133076 0.34397361
-0.75922662 0.71770322 0.23793145
-0.77324277 0.73070455 0.13659149
-1.084476 1.0572481 7.3049397
-1.1005661 1.0626005 4.9378333
-0.98407543 0.94552475 3.2746143
-0.90987158 0.87180835 2.3765912
-0.87097603 0.83281201 1.8425074
-0.84736872 0.80940187 1.479609
-1.1783531 1.1460508 6.3661642
-1.0269979 0.99227798 3.9376454
-0.94697309 0.91147876 2.7814946
-0.88915414 0.85375702 2.0864613
-0.85451508 0.81936485 1.6423994
-0.835823 0.80033827 1.3328004
-0.83209747 0.79205477 1.2087157
-0.81174242 0.77188218 0.98559165
-0.80168116 0.76205498 0.80979264
-0.7879194 0.74845999 0.65541953
-0.78387618 0.74436593 0.52506757
-0.7795707 0.74002576 0.40588725
-0.76265621 0.72347003 0.29105285
-0.76940793 0.72987849 0.18815659
-0.8209064 0.78359628 1.09192
-0.80619228 0.76902288 0.89480966
-0.79684001 0.75984275 0.73263109
-0.78291833 0.74579513 0.58731234
-0.78694099 0.7493723 0.46734658
-0.76054513 0.7239899 0.34397361
-0.7603035 0.72376347 0.23862213
-0.7743066 0.73684323 0.13679302
-1.0858644 1.0660211 7.3392057
-1.1022011 1.0716391 4.9616933
-0.98498082 0.95302987 3.2884219
-0.91026962 0.87830526 2.3853693
-0.87211764 0.83975112 1.8507732
-0.84684819 0.81457692 1.4834466
-1.177039 1.1527958 6.3806825
-1.0272382 0.99946749 3.9517241
-0.94691175 0.91780925 2.7904971
-0.88804328 0.85866851 2.0907271
-0.85598487 0.82652903 1.6503794
-0.83546448 0.80560422 1.3364756
-0.83190203 0.79742247 1.2122202
-0.8118543 0.77740306 0.98873013
-0.80203664 0.76774025 0.81253409
-0.78530198 0.7512058 0.65541953
-0.78127301 0.74709767 0.52506757
-0.78045034 0.74605727 0.40729728
-0.76012617 0.7261278 0.29105285
-0.76685554 0.73255974 0.18815659
-0.82085788 0.78904462 1.0952456
-0.80641794 0.77463251 0.89775282
-0.79729211 0.76560551 0.73516428
-0.78358543 0.75166541 0.58941036
-0.78432035 0.75211465 0.46734658
-0.76152211 0.73000395 0.34514591
-0.76492202 0.73326677 0.24000348
-0.77172977 0.73954159 0.13679302
-1.0879287 1.0755326 7.3783684
-1.1027195 1.0796576 4.9807816
-0.98444647 0.95918924 3.297627
-0.91063333 0.88481551 2.3941474
-0.87120116 0.84474927 1.8549061
-0.84630173 0.81975818 1.4872841
-1.1747975 1.1586628 6.3903608
-1.0262082 1.0054626 3.9611094
-0.94526005 0.92262971 2.7949984
-0.88877755 0.86540228 2.0992589
-0.85525477 0.83161271 1.6543695
-0.83507943 0.8108775 1.3401507
-0.83167922 0.80279833 1.2157247
-0.81193751 0.78293407 0.99186856
-0.80236232 0.77343726 0.81527555
-0.78586531 0.75701571 0.65773833
-0.78199971 0.75303596 0.52694058
-0.77784139 0.74877703 0.40729728
-0.76112705 0.73218226 0.29198545
-0.76429373 0.73523211 0.18815659
-0.82078129 0.79450208 1.0985711
-0.80661416 0.78025311 0.90069598
-0.79461485 0.76838392 0.73516428
-0.78422111 0.75754935 0.59150839
-0.78508705 0.75812811 0.46899009
-0.76246631 0.73603362 0.34631824
-0.76592058 0.73937178 0.24069417
-0.77273858 0.74570018 0.13699456
-1.0892181 1.084353 7.4126348
-1.1042584 1.0887406 5.0046415
-0.98388112 0.96535653 3.3068321
-0.90925097 0.88966393 2.3985367
-0.87227362 0.85171729 1.8631719
-0.84572953 0.82494551 1.4911215
-1.1734213 1.1654143 6.4048796
-1.0263771 1.012675 3.9751875
-0.94513857 0.92897582 2.8040009
-0.88761348 0.87032545 2.1035249
-0.85665244 0.83880961 1.6623495
-0.83466768 0.81615782 1.3438259
-0.83142906 0.80818248 1.2192293
-0.81199193 0.78847516 0.99500704
-0.79965764 0.77623332 0.81527555
-0.78639764 0.76283884 0.66005719
-0.78269446 0.75898844 0.5288136
-0.7752229 0.75148767 0.40729728
-0.75856662 0.73483461 0.29198545
-0.76172262 0.73789549 0.18815659
-0.82067651 0.7999686 1.1018965
-0.80678087 0.78588438 0.90363914
-0.79501617 0.77416044 0.73769742
-0.78482521 0.76344687 0.59360647
-0.78582132 0.76415616 0.47063357
-0.7598924 0.73869061 0.34631824
-0.76688582 0.74549258 0.24138485
-0.77013087 0.74839294 0.13699456
-1.0904592 1.0931953 7.4469013
-1.104688 1.0967958 5.0237293
-0.98328459 0.97153151 3.3160369
-0.90955174 0.89619458 2.4073148
-0.87130177 0.85672998 1.867305
-0.84513122 0.8301388 1.494959
-1.1711233 1.171281 6.4145579
-1.0265082 1.0199009 3.9892662
-0.94498426 0.93533242 2.8130033
-0.8882814 0.87708354 2.112057
-0.85586476 0.84391046 1.6663395
-0.83422917 0.82144505 1.347501
-0.83115125 0.81357449 1.2227339
-0.81201756 0.79402608 0.99814546
-0.79993325 0.7819429 0.81801701
-0.78689885 0.76867467 0.66237599
-0.78004032 0.76171595 0.5288136
-0.77602768 0.75754011 0.40870732
-0.75951314 0.74090815 0.29291809
-0.762707 0.74402738 0.18860367
-0.82054353 0.80544406 1.105222
-0.8069182 0.79152638 0.9065823
-0.79230899 0.77693081 0.73769742
-0.78539759 0.76935774 0.5957045
-0.78314906 0.76689458 0.47063357
-0.7607826 0.74473876 0.34749055
-0.76427889 0.74816501 0.24138485
-0.76751381 0.7510767 0.13699456
-1.0916518 1.1020595 7.4811673
-1.1050748 1.1048673 5.0428171
-0.98404175 0.979092 3.3298445
-0.90811783 0.90105098 2.4117036
-0.87230492 0.86372632 1.8755709
-0.8445071 0.835338 1.4987966
-1.1696843 1.1780381 6.4290767
-1.0253813 1.0259192 3.9986515
-0.94325531 0.94016218 2.8175044
-0.88706368 0.88201785 2.1163228
-0.8529138 0.84689289 1.6663395
-0.83376396 0.82673913 1.3511763
-0.83084607 0.81897432 1.2262385
-0.81201428 0.79958677 1.0012839
-0.80017877 0.78766382 0.82075852
-0.78736883 0.77452338 0.66469479
-0.78068209 0.76768464 0.53068668
-0.77337861 0.76024425 0.40870732
-0.75692225 0.74355477 0.29291809
-0.76010519 0.74668521 0.18860367
-0.82038242 0.81092829 1.1085476
-0.80415034 0.79433823 0.9065823
-0.79265946 0.78272074 0.74023062
-0.78270721 0.77209461 0.5957045
-0.78046739 0.76962358 0.47063357
-0.76163983 0.75080216 0.34866288
-0.76166266 0.75082827 0.24138485
-0.76488739 0.75375122 0.13699456
-1.0927957 1.1109453 7.5154343
-1.1064703 1.1140139 5.0666771
-0.98337811 0.98528677 3.3390496
-0.9083553 0.90760124 2.4204819
-0.87127715 0.8687529 1.8797038
-0.84385675 0.84054279 1.502634
-1.1673299 1.1839042 6.4387555
-1.0254406 1.0331668 4.0127296
-0.94457698 0.94807589 2.8310082
-0.88766515 0.88879979 2.1248546
-0.85208303 0.85199565 1.6703296
-0.83327186 0.83204007 1.3548514
-0.83051318 0.82438201 1.229743
-0.81198204 0.80515707 1.0044224
-0.80039394 0.79339594 0.82349998
-0.78780752 0.78038466 0.66701359
-0.78129166 0.7736671 0.53255969
-0.77412927 0.76631403 0.41011736
-0.75781435 0.74964708 0.29385069
-0.76103455 0.75283617 0.18905075
-0.82019287 0.81642121 1.111873
-0.80423832 0.79999107 0.90952545
-0.78992242 0.78548288 0.74023062
-0.78322709 0.77802056 0.59780258
-0.78112686 0.77567059 0.47227708
-0.76246405 0.75688064 0.34983522
-0.75903714 0.75348234 0.24138485
-0.76225162 0.75641656 0.13699456
-1.0931795 1.1191241 7.5448055
-1.1067674 1.1221209 5.0857654
-0.982683 0.99148875 3.3482547
-0.91024619 0.91586292 2.4336493
-0.87221068 0.87577701 1.8879696
-0.84544337 0.8480233 1.5103091
-1.1649488 1.1897682 6.4484344
-1.026673 1.0416566 4.0315008
-0.94432372 0.95446259 2.8400104
-0.88639373 0.89374483 2.1291206
-0.85122705 0.85710287 1.6743195
-0.83275288 0.83734745 1.3585266
-0.83267486 0.8323186 1.236752
-0.8119207 0.81073684 1.0075608
-0.80057889 0.79913914 0.82624143
-0.78821474 0.78625834 0.66933239
-0.78186893 0.77966303 0.53443271
-0.77484697 0.77239829 0.4115274
-0.75519294 0.75228775 0.29385069
-0.76193011 0.75900269 0.18949783
-0.81997496 0.8219226 1.1151985
-0.80429655 0.80565411 0.91246861
-0.79022187 0.79128581 0.74276382
-0.78371525 0.78395963 0.5999006
-0.77841443 0.77839249 0.47227708
-0.75981742 0.75953752 0.34983522
-0.75640237 0.7561273 0.24138485
-0.75960666 0.75907272 0.13699456
-1.0942283 1.1280499 7.5790725
-1.1080657 1.1313099 5.1096253
-0.98195672 0.99769783 3.3574595
-0.91040826 0.92244422 2.4424274
-0.87112701 0.88081717 1.8921027
-0.84473306 0.85324723 1.5141466
-1.1625409 1.1956298 6.4581132
-1.0278584 1.0501673 4.0502715
-0.9455629 0.96241194 2.853514
-0.8869285 0.90055001 2.1376524
-0.85246164 0.86436015 1.6822997
-0.83220702 0.8426615 1.3622017
-0.83227777 0.8377502 1.2402567
-0.81183034 0.81632596 1.0106993
-0.79778457 0.80192876 0.82624143
-0.78859067 0.79214436 0.67165118
-0.78241384 0.78567249 0.53630573
-0.77553171 0.77849686 0.4129374
-0.75603044 0.75839823 0.29478332
-0.76279193 0.76518458 0.18994491
-0.81972861 0.82743245 1.1185241
-0.80432498 0.81132722 0.91541177
-0.79049033 0.79710031 0.74529696
-0.78097385 0.78669053 0.5999006
-0.77901995 0.7844556 0.47392058
-0.7605871 0.76563352 0.35100752
-0.7572484 0.76227629 0.24207552
-0.76047385 0.76526338 0.13719608
-1.0952278 1.1369964 7.6133389
-1.1082727 1.1394513 5.1287131
-0.98256451 1.0053113 3.3712673
-0.91221166 0.93074822 2.4555948
-0.87199038 0.88786817 1.9003686
-0.8462435 0.86076218 1.5218216
-1.1592333 1.200585 6.4629526
-1.0289972 1.0586994 4.0690432
-0.94523811 0.96882331 2.8625166
-0.88742644 0.90736967 2.1461844
-0.85154754 0.86948335 1.6862897
-0.83400798 0.85040241 1.3695521
-0.83185291 0.84318918 1.2437612
-0.81171083 0.82192439 1.0138377
-0.79791909 0.80768347 0.82898289
-0.78893495 0.7980426 0.67396998
-0.78292626 0.79169518 0.5381788
-0.77280945 0.78119928 0.4129374
-0.75683439 0.76452368 0.29571593
-0.76361972 0.77138174 0.19039199
-0.81945384 0.83295059 1.1218495
-0.80432361 0.8170104 0.91835493
-0.79072779 0.8029263 0.74783015
-0.7814092 0.79264396 0.60199869
-0.77959269 0.79053253 0.47556409
-0.76132339 0.77174419 0.35217986
-0.75458294 0.76491499 0.24207552
-0.76130718 0.7714693 0.13739762
-1.0975859 1.1474355 7.6573958
-1.1084361 1.147608 5.1478009
-0.98177046 1.011539 3.3804724
-0.91229773 0.93735957 2.4643729
-0.87085062 0.89292133 1.9045017
-0.84547275 0.86600453 1.5256591
-1.1567751 1.2064389 6.472631
-1.0300887 1.0672518 4.0878143
-0.9463945 0.97680771 2.8760202
-0.88970447 0.91607487 2.158982
-0.8527087 0.87677091 1.6942697
-0.83339965 0.85573721 1.3732272
-0.83140022 0.84863532 1.2472657
-0.81156212 0.82753181 1.0169762
-0.7980231 0.81344885 0.83172441
-0.7861445 0.80079156 0.67396998
-0.7834062 0.79773098 0.54005182
-0.77343953 0.78731412 0.41434744
-0.75760478 0.77066392 0.29664856
-0.76441365 0.77759391 0.19083907
-0.81915045 0.83847684 1.125175
-0.80711788 0.82559383 0.92424124
-0.79093421 0.80876356 0.75036329
-0.77863765 0.7953667 0.60199869
-0.78343636 0.79999667 0.47885111
-0.76202631 0.77786916 0.35335216
-0.75537372 0.77108181 0.2427662
-0.76560307 0.78125852 0.13780068
-1.1005853 1.1586431 7.7063479
-1.1095892 1.156857 5.1716604
-0.98230052 1.0191802 3.39428
-0.91401309 0.94570506 2.47754
-0.8716436 0.89999866 1.9127675
-0.8469066 0.87355328 1.5333341
-1.1542901 1.2122903 6.4823103
-1.0311328 1.0758247 4.1065855
-0.94599754 0.98324299 2.8850226
-0.890122 0.92292953 2.1675138
-0.85382938 0.88407719 1.7022496
-0.8351208 0.8635152 1.3805776
-0.8309195 0.85408837 1.2507702
-0.81138414 0.83314824 1.0201148
-0.79809648 0.8192246 0.83446586
-0.78643662 0.80670285 0.67628878
-0.78061682 0.8004607 0.54005182
-0.77403635 0.79344296 0.41575748
-0.76177293 0.780334 0.29851383
-0.76169467 0.78025746 0.19083907
-0.82141811 0.84669095 1.131826
-0.80704647 0.83130634 0.9271844
-0.78810626 0.8115195 0.75036329
-0.77902007 0.80133408 0.60409671
-0.7839312 0.80611187 0.48049462
-0.75930637 0.78052437 0.35335216
-0.75613058 0.7772634 0.24345689
-0.76635545 0.7875067 0.1380022
-1.1035198 1.1698858 7.7553005
-1.1096618 1.165047 5.1907487
-0.9827891 1.0268372 3.4080875
-0.91402292 0.95234585 2.4863181
-0.87044722 0.90506411 1.9169004
-0.84607506 0.87881333 1.5371716
-1.1517783 1.2181389 6.4919887
-1.0309401 1.0831678 4.1206636
-0.94406331 0.98811322 2.889524
-0.89050269 0.92979831 2.1760459
-0.85282385 0.88922715 1.7062398
-0.83444977 0.86887026 1.3842528
-0.8304109 0.85954857 1.2542748
-0.81117672 0.83877343 1.0232532
-0.795232 0.82200551 0.83446586
-0.78361589 0.80944318 0.67628878
-0.78104299 0.80651104 0.54192483
-0.77126199 0.79614007 0.41575748
-0.76246351 0.78651536 0.29944643
-0.76243263 0.78648722 0.19128615
-0.82104802 0.85224211 1.1351515
-0.80694503 0.83702838 0.93012756
-0.78826106 0.81736869 0.75289649
-0.77621818 0.80404848 0.60409671
-0.78439283 0.81224018 0.48213813
-0.75995421 0.78666586 0.35452449
-0.7568534 0.78345972 0.24414757
-0.76707369 0.79376948 0.13820374
-1.1070851 1.181906 7.8091478
-1.1107165 1.1743362 5.2146087
-0.98323619 1.0345101 3.421895
-0.91234529 0.95726436 2.4907072
-0.86922622 0.91013217 1.9210334
-0.84521717 0.88407826 1.5410092
-1.1501002 1.2249013 6.5065074
-1.0307086 1.0905225 4.1347418
-0.94360483 0.99456131 2.8985264
-0.88904887 0.93479103 2.1803117
-0.85387063 0.89656293 1.7142198
-0.83609092 0.87668455 1.3916031
-0.82987428 0.86501557 1.2577794
-0.81093991 0.84440726 1.0263916
-0.79525459 0.82779181 0.83720732
-0.78385562 0.81536704 0.67860758
-0.78143638 0.81257403 0.54379785
-0.77180386 0.80228448 0.41716751
-0.75971341 0.78917205 0.29944643
-0.75968266 0.7891438 0.19128615
-0.82064915 0.8578009 1.138477
-0.80401838 0.83984005 0.93012756
-0.78838462 0.8232286 0.75542969
-0.77654761 0.81002951 0.60619479
-0.78155279 0.81497329 0.48213813
-0.75720364 0.78931379 0.35452449
-0.75754225 0.78967053 0.24483825
-0.76775736 0.80004692 0.13840528
-1.1098865 1.1932195 7.8581004
-1.1117197 1.1836469 5.2384686
-0.98230076 1.0407778 3.4311001
-0.91229063 0.96392238 2.4994855
-0.86991656 0.91724455 1.9292994
-0.8443327 0.88934779 1.5448467
-1.1483887 1.2316668 6.5210257
-1.0316191 1.0991472 4.153513
-0.94311291 1.0010182 2.9075289
-0.88936168 0.94168103 2.1888437
-0.85280615 0.90172726 1.7182097
-0.83535671 0.8820594 1.3952782
-0.82930952 0.87048924 1.2612839
-0.81067359 0.85004961 1.02953
-0.79524648 0.8335883 0.83994877
-0.78406346 0.82130247 0.68092638
-0.77859521 0.81529677 0.54379785
-0.77231228 0.80844241 0.41857755
-0.76034844 0.79536998 0.30037907
-0.76036465 0.79539061 0.19173324
-0.82022142 0.86336732 1.1418025
-0.80386674 0.84557104 0.93307072
-0.78847688 0.82909942 0.75796282
-0.77684462 0.81602246 0.60829288
-0.77870321 0.81769645 0.48213813
-0.75779635 0.79547149 0.3556968
-0.75819683 0.79589558 0.24552894
-0.76840657 0.80633873 0.1386068
-1.1126225 1.2045672 7.9070525
-1.1126713 1.1929787 5.2623286
-0.98266935 1.0484769 3.4449077
-0.91056037 0.9688462 2.5038743
-0.86863863 0.92232412 1.9334321
-0.84562045 0.89695424 1.5525217
-1.1474979 1.2393576 6.5403833
-1.0313054 1.1065289 4.1675911
-0.94258732 1.0074837 2.9165311
-0.88785321 0.94668216 2.1931098
-0.85377878 0.90909177 1.7261899
-0.83459502 0.88743955 1.3989534
-0.8287167 0.87596953 1.2647884
-0.81037778 0.85570049 1.0326686
-0.7952075 0.83939475 0.84269029
-0.78119183 0.82403439 0.68092638
-0.7789346 0.82137352 0.54567093
-0.77278709 0.81461358 0.41998756
-0.75756747 0.79801923 0.30037907
-0.75758356 0.79803997 0.19173324
-0.81976479 0.86894107 1.145128
-0.80091029 0.84837192 0.93307072
-0.78853774 0.83498091 0.76049602
-0.77710921 0.82202721 0.6103909
-0.77584422 0.82040966 0.48213813
-0.75835538 0.80164289 0.35686913
-0.75881714 0.80213481 0.24621962
-0.76902115 0.81264478 0.13880834
-1.1152924 1.2159482 7.9560046
-1.1135713 1.2023317 5.2861886
-0.98166531 1.0547612 3.4541125
-0.91044092 0.97552085 2.5126526
-0.86925793 0.92946142 1.9416981
-0.84467477 0.90224046 1.5563592
-1.1457168 1.2461318 6.5549016
-1.0321249 1.1151886 4.1863623
-0.94202799 1.0139577 2.9255335
-0.88809794 0.9535929 2.2016416
-0.85265535 0.91427028 1.7301799
-0.83380604 0.89282525 1.4026285
-0.82809567 0.8814562 1.268293
-0.81005234 0.86135948 1.035807
-0.7951377 0.84521115 0.84543175
-0.78134704 0.82998174 0.68324518
-0.77924091 0.82746249 0.54754394
-0.77322817 0.82079786 0.4213976
-0.75477731 0.80065876 0.30037907
-0.75820935 0.80430317 0.19218032
-0.81927925 0.87452221 1.1484535
-0.80070847 0.85411137 0.93601388
-0.78856701 0.84087276 0.76302922
-0.77734131 0.82804376 0.61248899
-0.77620834 0.82655519 0.48378164
-0.75888044 0.80782777 0.35804144
-0.75940305 0.80838788 0.2469103
-0.76960105 0.8189649 0.13900986
-1.118582 1.2281153 8.0098524
-1.1144193 1.2117053 5.3100481
-0.98062932 1.0610511 3.4633176
-0.91028595 0.9822064 2.5214307
-0.86792302 0.93455207 1.9458311
-0.8437025 0.90753108 1.5601966
-1.1439022 1.2529086 6.5694199
-1.0328964 1.1238673 4.2051334
-0.94143492 1.0204401 2.934536
-0.88830519 0.96051675 2.2101734
-0.85150623 0.91945201 1.7341701
-0.83298963 0.89821619 1.4063038
-0.8274464 0.88694924 1.2717975
-0.80969727 0.86702675 1.0389454
-0.79503691 0.85103709 0.8481732
-0.78147006 0.83594006 0.68556398
-0.77951413 0.83356351 0.54941696
-0.77363545 0.82699519 0.42280763
-0.75197786 0.80328852 0.30037907
-0.75880045 0.81058055 0.19262739
-0.81876481 0.88011062 1.1517791
-0.79772216 0.85690111 0.93601388
-0.7885648 0.84677505 0.76556236
-0.77444613 0.83075219 0.61248899
-0.77331835 0.82925963 0.48378164
-0.75937152 0.81402618 0.35921374
-0.7565766 0.81103379 0.2469103
-0.77014613 0.82529891 0.1392114
-1.1218002 1.2403201 8.0636997
-1.1162223 1.2222018 5.3386803
-0.97956139 1.0673466 3.4725227
-0.91009533 0.98890257 2.5302088
-0.86847091 0.94171357 1.9540969
-0.84270352 0.91282576 1.5640341
-1.1420543 1.2596879 6.5839381
-1.0336198 1.1325648 4.2239046
-0.94080806 1.0269307 2.9435384
-0.88671082 0.9655326 2.2144392
-0.85237068 0.92685485 1.7421501
-0.83214557 0.90361226 1.4099789
-0.82919234 0.89506459 1.2788066
-0.80931246 0.87270182 1.0420839
-0.79490513 0.85687262 0.85091466
-0.78156114 0.84190941 0.68788278
-0.77975434 0.83967662 0.55129004
-0.77400881 0.83320528 0.42421767
-0.74916929 0.80590856 0.30037907
-0.75935698 0.81687176 0.19307446
-0.81822115 0.88570595 1.1551045
-0.79746979 0.86264855 0.93895704
-0.78853089 0.85268748 0.76809555
-0.77462465 0.83678102 0.61458701
-0.7736274 0.8354187 0.48542514
-0.75982857 0.82023776 0.36038607
-0.75710624 0.8173027 0.24760097
-0.76726061 0.82798225 0.1392114
-1.1256269 1.25332 8.1224422
-1.1169627 1.2316197 5.3625402
-0.97977716 1.0750916 3.4863303
-0.90986896 0.9956094 2.5389869
-0.86897916 0.94889009 1.9623629
-0.84167796 0.91812462 1.5678717
-1.140173 1.2664694 6.5984564
-1.034295 1.1412811 4.2426753
-0.94161206 1.0350395 2.957042
-0.88684964 0.97247624 2.222971
-0.85116196 0.93204963 1.74614
-0.83127403 0.90901339 1.4136541
-0.82847732 0.90057826 1.2823112
-0.80889779 0.87838489 1.0452224
-0.79474223 0.86271769 0.85365611
-0.78161997 0.84788954 0.69020158
-0.77996135 0.84580153 0.55316305
-0.7743482 0.83942789 0.42562771
-0.7496835 0.81212825 0.30131167
-0.75987875 0.82317674 0.19352154
-0.81764841 0.89130819 1.15843
-0.79718709 0.86840469 0.94190019
-0.78846532 0.85860997 0.77062875
-0.77169901 0.83947992 0.61458701
-0.77390277 0.84159005 0.48706865
-0.7602514 0.82646227 0.36155838
-0.75424874 0.81994057 0.24760097
-0.76774865 0.83433175 0.13941292
-1.130054 1.2671213 8.18608
-1.1186495 1.2421668 5.3911719
-0.97995079 1.0828509 3.5001378
-0.91121626 1.0041004 2.5521543
-0.86944789 0.95608151 1.9706287
-0.84278309 0.92579764 1.5755466
-1.138258 1.2732531 6.6129746
-1.0360761 1.1512985 4.266139
-0.94091177 1.0415511 2.9660444
-0.88695067 0.9794324 2.231503
-0.85195148 0.93947953 1.7541201
-0.83037502 0.91441941 1.4173292
-0.82773381 0.90609777 1.2858157
-0.80845332 0.88407558 1.0483608
-0.79454815 0.86857194 0.85639757
-0.78164655 0.85388029 0.69252038
-0.78013492 0.85193801 0.55503613
-0.77465361 0.84566313 0.42703772
-0.75016338 0.81836134 0.30224431
-0.76036584 0.82949519 0.19396862
-0.81704652 0.89691728 1.1617556
-0.79959685 0.87715656 0.94778651
-0.78836799 0.86454242 0.77316189
-0.7718237 0.84552056 0.61668509
-0.77414465 0.84777355 0.48871216
-0.76064003 0.83269978 0.36273071
-0.75472182 0.82622463 0.24829166
-0.7648316 0.83700657 0.13941292
-1.1343985 1.280969 8.2497187
-1.1202763 1.2527409 5.4198041
-0.98008215 1.0906247 3.5139456
-0.91251522 1.0126128 2.5653214
-0.86987698 0.96328783 1.9788946
-0.84169561 0.93111169 1.5793842
-1.1354754 1.279099 6.6226535
-1.0366501 1.1600555 4.2849102
-0.9401775 1.0480703 2.9750469
-0.88701391 0.98640126 2.2400348
-0.8526994 0.94692618 1.7621001
-0.82944816 0.91983008 1.4210044
-0.82935792 0.91426456 1.2928247
-0.80797905 0.88977379 1.0514992
-0.79432285 0.87443519 0.85913903
-0.78164083 0.85988152 0.69483918
-0.78027523 0.85808593 0.55690914
-0.77492481 0.85191065 0.42844775
-0.7506088 0.82460755 0.30317691
-0.75746566 0.83214432 0.19396862
-0.81641543 0.90253288 1.165081
-0.79924262 0.8829391 0.95072967
-0.78823882 0.87048453 0.77569515
-0.77191567 0.85157222 0.61878312
-0.77435261 0.8539688 0.49035567
-0.76099437 0.8389501 0.36390302
-0.75516027 0.83252203 0.24898234
-0.76190525 0.83967125 0.13941292
-1.1386598 1.2948622 8.3133564
-1.122834 1.2644573 5.4532075
-0.97887057 1.0969547 3.5231504
-0.91376591 1.0211465 2.5784888
-0.87026638 0.97050875 1.9871606
-0.84272218 0.9388147 1.5870591
-1.1334969 1.2858838 6.6371717
-1.0371755 1.1688306 4.3036814
-0.94085699 1.0562227 2.9885504
-0.8870393 0.99338239 2.2485666
-0.85340559 0.95438951 1.7700801
-0.83075517 0.92777127 1.4283547
-0.82854825 0.91980386 1.2963293
-0.80747461 0.8954795 1.0546377
-0.79406637 0.88030767 0.86188054
-0.78160262 0.86589313 0.69715798
-0.78038204 0.86424518 0.55878216
-0.77194637 0.8546105 0.42844775
-0.75431365 0.83451098 0.30504215
-0.75789571 0.83847773 0.1944157
-0.81575501 0.9081549 1.1684066
-0.79885763 0.88872969 0.95367283
-0.78807777 0.87643635 0.77822834
-0.77197474 0.85763484 0.6208812
-0.77136695 0.85666656 0.49035567
-0.76131427 0.84521294 0.36507532
-0.7555638 0.8388325 0.24967301
-0.76231384 0.84603721 0.13961446
-1.142838 1.3088007 8.3769941
-1.1253234 1.276207 5.4866118
-0.97633106 1.1018274 3.5277531
