# .PCD v0.7 - Point Cloud Data file format
VERSION 0.7
FIELDS x y z
SIZE 4 4 4
TYPE F F F
COUNT 1 1 1
WIDTH 1446
HEIGHT 1
VIEWPOINT 0 0 0 1 0 0 0
POINTS 1446
DATA ascii
-1.0261743 0.31791458 2.9756284
-0.95453405 0.29373577 2.1288188
-0.91676497 0.28090513 1.6385381
-0.88146299 0.26942569 1.2952673
-0.8669374 0.26433656 1.0608382
-0.86425686 0.26072153 0.96690202
-0.84895599 0.25563067 0.79728431
-0.83894169 0.25246051 0.65901202
-0.83711922 0.2516014 0.54411715
-0.82661819 0.24829304 0.43703499
-0.82733709 0.24835692 0.34384581
-0.82342529 0.24687468 0.25468066
-0.81550092 0.24450144 0.16937928
-0.85378438 0.25886825 0.87576252
-0.84582818 0.25614122 0.72704947
-0.8351692 0.25275919 0.59837258
-0.83523327 0.25230932 0.49080193
-0.85042125 0.25674111 0.39831915
-0.82845277 0.24995609 0.29942557
-0.82006735 0.24742864 0.21168561
-0.81768304 0.2465589 0.12812719
-1.2019639 0.3890743 8.0316572
-1.3208466 0.42079577 6.6881409
-1.0781257 0.33771047 3.658942
-1.0029082 0.31149003 2.5336077
-0.931638 0.28794494 1.8542906
-0.90157777 0.27763605 1.4581431
-0.87806231 0.26990023 1.1764462
-0.41132537 0.15525542 7.4419913
-0.75482321 0.25327983 7.3824944
-1.1738187 0.37239656 4.7788324
-1.0250583 0.3214947 2.9756284
-0.95350289 0.29706594 2.1288188
-0.91577882 0.28410354 1.6385381
-0.88051713 0.2725009 1.2952673
-0.86600935 0.2673611 1.0608382
-0.86334151 0.26373675 0.96690202
-0.84805846 0.25859255 0.79728431
-0.84205508 0.25660646 0.66175348
-0.84047371 0.25581193 0.54643595
-0.82574648 0.25117695 0.43703499
-0.82646507 0.25124335 0.34384581
-0.82255858 0.24974746 0.25468066
-0.8194077 0.24879344 0.16982636
-0.85644484 0.26294294 0.87908798
-0.84492886 0.25909215 0.72704947
-0.8342818 0.2556729 0.59837258
-0.83434743 0.25522327 0.49080193
-0.84951991 0.25970808 0.39831915
-0.83222377 0.25426668 0.30059788
-0.81919867 0.25028968 0.21168561
-0.82159555 0.25087065 0.12832873
-1.219057 0.39931852 8.155139
-1.3213079 0.42602912 6.6979313
-1.0783632 0.34192312 3.6637139
-1.0018148 0.31498894 2.5336077
-0.93291295 0.29191062 1.8586799
-0.90060318 0.28078148 1.4581431
-0.87711483 0.27296361 1.1764462
-0.41078091 0.15669028 7.4419913
-0.75696254 0.25694275 7.4123235
-1.1737084 0.37687612 4.7836723
-1.0255747 0.32559323 2.9803214
-0.95453614 0.30104744 2.1333199
-0.91478157 0.28729844 1.6385381
-0.88243592 0.27647391 1.2992573
-0.86507088 0.27038243 1.0608382
-0.86241561 0.26674879 0.96690202
-0.84715062 0.26155123 0.79728431
-0.84115428 0.25954422 0.66175348
-0.83957559 0.25874418 0.54643595
-0.82929516 0.2554225 0.43890804
-0.82558304 0.25412673 0.34384581
-0.82168174 0.25261721 0.25468066
-0.8185342 0.25165218 0.16982636
-0.8555218 0.26593089 0.87908798
-0.84401935 0.26203993 0.72704947
-0.83338428 0.25858355 0.59837258
-0.83345151 0.25813413 0.49080193
-0.84860814 0.26267189 0.39831915
-0.83133113 0.25717017 0.30059788
-0.82305086 0.25461125 0.21237628
-0.82071489 0.25373703 0.12832873
-1.233143 0.40870836 8.2588634
-1.3217485 0.43127072 6.7077217
-1.0785844 0.34614158 3.6684859
-1.0025707 0.31907672 2.5382104
-0.93188828 0.2951653 1.8586799
-0.90230107 0.28477058 1.462276
-0.87615663 0.27602363 1.1764462
-0.41023144 0.15812321 7.4419913
-0.75908542 0.26062372 7.4421525
-1.1747766 0.38174811 4.7933512
-1.0244319 0.32917118 2.9803214
-0.95347947 0.30437756 2.1333199
-0.91377318 0.29048988 1.6385381
-0.88146549 0.27955249 1.2992573
-0.86412179 0.27340043 1.0608382
-0.86488247 0.27082339 0.97040659
-0.84994751 0.26566812 0.80042273
-0.84024316 0.26247883 0.66175348
-0.83866727 0.26167327 0.54643595
-0.82839853 0.25831574 0.43890804
-0.82011122 0.25557968 0.34243578
-0.82548523 0.25694382 0.2556133
-0.81765079 0.25450787 0.16982636
-0.85458833 0.26891562 0.87908798
-0.84309947 0.26498449 0.72704947
-0.83247656 0.261491 0.59837258
-0.83254534 0.26104185 0.49080193
-0.84768605 0.26563248 0.39831915
-0.83042836 0.26007047 0.30059788
-0.82215708 0.25748268 0.21237628
-0.81982416 0.25660029 0.12832873
-1.2331821 0.41350472 8.2687416
-1.3212018 0.43620121 6.7126169
-1.0787892 0.3503657 3.6732578
-1.0014509 0.32257438 2.5382104
-0.93313283 0.29914773 1.8630688
-0.9013015 0.28791845 1.462276
-0.87824148 0.2800543 1.1802837
-0.409677 0.15955423 7.4419913
-0.7611919 0.26432258 7.4719815
-1.1746308 0.38623932 4.7981901
-1.0249175 0.33327892 2.985014
-0.95241117 0.30770397 2.1333199
-0.91275358 0.29367778 1.6385381
-0.88335329 0.28354883 1.3032473
-0.86639082 0.27744922 1.0645134
-0.86393183 0.27384076 0.97040659
-0.849015 0.26863337 0.80042273
-0.83932185 0.26541021 0.66175348
-0.83774877 0.26459917 0.54643595
-0.82749182 0.26120582 0.43890804
-0.81921405 0.25844085 0.34243578
-0.82458329 0.25982374 0.2556133
-0.81675744 0.25736046 0.16982636
-0.85364437 0.27189702 0.87908798
-0.8421694 0.26792586 0.72704947
-0.83566684 0.26570165 0.60090578
-0.83162904 0.26394641 0.49080193
-0.84675366 0.26858982 0.39831915
-0.82488209 0.26149872 0.29942557
-0.8212533 0.26035097 0.21237628
-0.82368606 0.2609694 0.12853025
-1.2354101 0.41905561 8.2934389
-1.3206369 0.44113317 6.7175121
-1.0803957 0.35506168 3.682802
-1.0021762 0.32667378 2.5428128
-0.93208295 0.30240315 1.8630688
-0.90296853 0.29192868 1.466409
-0.8772586 0.28311822 1.1802837
-0.40938595 0.16108963 7.4469829
-0.7632817 0.26803935 7.5018106
-1.1756607 0.39113113 4.8078694
-1.0253872 0.33739409 2.989707
-0.95340043 0.31170332 2.1378212
-0.9117229 0.2968621 1.6385381
-0.88235813 0.28663057 1.3032473
-0.86541706 0.2804718 1.0645134
-0.86297071 0.27685478 0.97040659
-0.84807211 0.27159533 0.80042273
-0.8423726 0.26961315 0.66449493
-0.83682007 0.26752186 0.54643595
-0.82657492 0.26409271 0.43890804
-0.81830692 0.26129887 0.34243578
-0.82367134 0.2627005 0.2556133
-0.81585413 0.26020989 0.16982636
-0.85624373 0.27602088 0.88241351
-0.84122902 0.27086392 0.72704947
-0.8347342 0.26861703 0.60090578
-0.83070266 0.2668477 0.49080193
-0.84581095 0.27154392 0.39831915
-0.8239643 0.26437652 0.29942557
-0.8203395 0.26321611 0.21237628
-0.82277006 0.26384303 0.12853025
-1.2361443 0.42412236 8.3082561
-1.3200536 0.44606647 6.7224078
-1.0805662 0.35930198 3.6875737
-1.0010297 0.33017007 2.5428128
-0.93329716 0.30640215 1.867458
-0.90194404 0.29507884 1.466409
-0.8793118 0.28717396 1.1841213
-0.40882117 0.16251767 7.4469829
-0.76133692 0.27034479 7.491868
-1.1766709 0.39603484 4.8175483
-1.0242033 0.34097132 2.989707
-0.95230663 0.31502941 2.1378212
-0.91315806 0.30085909 1.642804
-0.88135225 0.28970885 1.3032473
-0.86443275 0.28349096 1.0645134
-0.86199903 0.27986541 0.97040659
-0.84711891 0.27455401 0.80042273
-0.84142637 0.27255195 0.66449493
-0.83588111 0.27044126 0.54643595
-0.82564807 0.26697639 0.43890804
-0.81738985 0.26415369 0.34243578
-0.82274932 0.26557404 0.2556133
-0.81494081 0.26305616 0.16982636
-0.85527503 0.27900806 0.88241351
-0.84412152 0.27505112 0.72999263
-0.83379155 0.27152917 0.60090578
-0.82976609 0.26974577 0.49080193
-0.84485793 0.27449468 0.39831915
-0.82303643 0.26725104 0.29942557
-0.81941575 0.26607803 0.21237628
-0.8218441 0.26671341 0.12853025
-1.2331883 0.42792496 8.298377
-1.3194518 0.45100108 6.7273026
-1.0807202 0.3635478 3.6923459
-1.0017244 0.33428094 2.5474155
-0.93222195 0.30965811 1.867458
-0.90090847 0.29822543 1.466409
-0.878304 0.2902416 1.1841213
-0.40825137 0.16394372 7.4469829
-0.76089025 0.27318108 7.496839
-1.176471 0.40054503 4.8223877
-1.024642 0.34509534 2.9943995
-0.95326543 0.31904277 2.1423223
-0.91210228 0.30404478 1.642804
-0.8831948 0.29373473 1.3072374
-0.86343789 0.28650668 1.0645134
-0.86101687 0.28287265 0.97040659
-0.84985381 0.27872247 0.80356121
-0.84046984 0.27548739 0.66449493
-0.83493203 0.27335739 0.54643595
-0.82471114 0.26985681 0.43890804
-0.82102215 0.26849642 0.34384581
-0.82181728 0.26844436 0.2556133
-0.81401765 0.26589924 0.16982636
-0.85429591 0.28199181 0.88241351
-0.84315622 0.27799594 0.72999263
-0.83283865 0.27443799 0.60090578
-0.83313066 0.27405885 0.49289995
-0.84389466 0.27744213 0.39831915
-0.82209855 0.27012238 0.29942557
-0.81848192 0.26893669 0.21237628
-0.81616151 0.26802182 0.12832873
-1.2412175 0.43557385 8.3625879
-1.3178695 0.45560408 6.7273026
-1.0808575 0.36779901 3.6971178
-1.0005513 0.33777556 2.5474155
-0.93113536 0.31291026 1.867458
-0.89986199 0.30136836 1.466409
-0.87728548 0.29330567 1.1841213
-0.4079439 0.16547692 7.4519749
-0.75993204 0.27583542 7.496839
-1.176254 0.40505865 4.8272271
-1.0234312 0.34866992 2.9943995
-0.95214593 0.32236832 2.1423223
-0.91350669 0.30806035 1.6470701
-0.88216412 0.29681584 1.3072374
-0.86243254 0.28951889 1.0645134
-0.86002421 0.28587645 0.97040659
-0.84887564 0.28168729 0.80356121
-0.84347194 0.27973589 0.66723639
-0.83397275 0.27627018 0.54643595
-0.82816511 0.27419114 0.44078106
-0.82007992 0.2713607 0.34384581
-0.82087523 0.2713114 0.2556133
-0.81781286 0.27030194 0.17027344
-0.85330635 0.28497213 0.88241351
-0.84218073 0.28093743 0.72999263
-0.83187556 0.27734348 0.60090578
-0.83216894 0.27696532 0.49289995
-0.84292102 0.28038618 0.39831915
-0.8211506 0.27299041 0.29942557
-0.8175382 0.27179211 0.21237628
-0.81522101 0.27086914 0.12832873
-1.2433506 0.44120389 8.3872843
-1.3172324 0.46053773 6.7321978
-1.0809785 0.37205568 3.7018898
-1.001215 0.34189758 2.5520179
-0.93003738 0.31615862 1.867458
-0.89880455 0.30450764 1.466409
-0.87625629 0.29636618 1.1841213
-0.4073638 0.1668999 7.4519749
-0.75946486 0.27867028 7.5018106
-1.17602 0.40957573 4.8320665
-1.0238394 0.35280266 2.9990923
-0.95307428 0.32639548 2.1468236
-0.91242576 0.3112472 1.6470701
-0.88112265 0.29989338 1.3072374
-0.86462671 0.29361787 1.0681885
-0.86240125 0.29001364 0.97391111
-0.84788728 0.28464875 0.80356121
-0.84249032 0.28267846 0.66723639
-0.83300334 0.2791796 0.54643595
-0.82720292 0.2770803 0.44078106
-0.81912774 0.27422166 0.34384581
-0.81992316 0.27417514 0.2556133
-0.81686437 0.27315497 0.17027344
-0.85230643 0.287949 0.88241351
-0.84119493 0.28387547 0.72999263
-0.8309024 0.28024557 0.60090578
-0.83119708 0.27986845 0.49289995
-0.84193718 0.2833268 0.39831915
-0.82019269 0.27585506 0.29942557
-0.81658447 0.27464417 0.21237628
-0.8142705 0.27371311 0.12832873
-1.2469219 0.44737923 8.4218588
-1.3156167 0.46513295 6.7321978
-1.0810829 0.37631762 3.7066617
-1.0000154 0.34539038 2.5520179
-0.92892808 0.31940314 1.867458
-0.89773613 0.30764318 1.466409
-0.87521648 0.29942307 1.1841213
-0.40704522 0.16843183 7.4569664
-0.75748813 0.28094837 7.491868
-1.1769542 0.41451371 4.8417454
-1.0242311 0.35694242 3.0037851
-0.95192915 0.32972035 2.1468236
-0.91379911 0.31528109 1.651336
-0.88007045 0.30296722 1.3072374
-0.8635965 0.29663417 1.0681885
-0.86138368 0.29302222 0.97391111
-0.84688848 0.28760669 0.80356121
-0.84149843 0.28561756 0.66723639
-0.83202368 0.28208563 0.54643595
-0.8262307 0.27996609 0.44078106
-0.81816554 0.27707925 0.34384581
-0.81896108 0.27703553 0.2556133
-0.81590587 0.2760047 0.17027344
-0.85482919 0.29212993 0.88573903
-0.84019887 0.28681007 0.72999263
-0.8299191 0.28314427 0.60090578
-0.8302151 0.28276819 0.49289995
-0.8409431 0.286264 0.39831915
-0.81922477 0.27871639 0.29942557
-0.82030892 0.27908796 0.21306697
-0.81331009 0.27655378 0.12832873
-1.2490047 0.4530547 8.4465551
-1.3139851 0.46972248 6.7321978
-1.0811707 0.38058487 3.7114339
-1.000648 0.34952345 2.5566204
-0.93006951 0.32343057 1.8718469
-0.89665681 0.31077501 1.466409
-0.87416595 0.30247632 1.1841213
-0.4064548 0.16985168 7.4569664
-0.76049519 0.28508982 7.5316401
-1.176684 0.41904137 4.8465848
-1.0246065 0.36108929 3.0084779
-0.95282692 0.33376107 2.1513247
-0.91269296 0.3184689 1.651336
-0.88185322 0.30702835 1.3112274
-0.86575818 0.30075955 1.0718638
-0.86035562 0.29602724 0.97391111
-0.84587938 0.29056111 0.80356121
-0.8404963 0.28855321 0.66723639
-0.83522415 0.28642529 0.54875475
-0.82524842 0.28284845 0.44078106
-0.81719333 0.27993351 0.34384581
-0.82263678 0.28148291 0.2565459
-0.81493747 0.27885106 0.17027344
-0.85380423 0.29511207 0.88573903
-0.83919263 0.28974116 0.72999263
-0.83300066 0.28744578 0.60343897
-0.82922298 0.28566444 0.49289995
-0.8399387 0.28919768 0.39831915
-0.8182469 0.28157434 0.29942557
-0.81932974 0.2819497 0.21306697
-0.81233978 0.27939111 0.12832873
-1.2503333 0.45848235 8.4663115
-1.3123374 0.47430626 6.7321978
-1.0812417 0.38485721 3.7162056
-1.0012639 0.35366508 2.5612228
-0.92893487 0.32667515 1.8718469
-0.89822203 0.314834 1.470542
-0.87613004 0.30658475 1.1879587
-0.40612513 0.17138226 7.4619579
-0.75600666 0.28641886 7.496839
-1.1763968 0.42357224 4.8514242
-1.0249652 0.36524305 3.0131705
-0.9516561 0.33708501 2.1513247
-0.91403514 0.32252085 1.6556019
-0.88077611 0.31010473 1.3112274
-0.864703 0.30377981 1.0718638
-0.85931706 0.29902861 0.97391111
-0.84485996 0.29351202 0.80356121
-0.83948398 0.29148534 0.66723639
-0.83421928 0.28933904 0.54875475
-0.82425606 0.28572741 0.44078106
-0.81621122 0.28278434 0.34384581
-0.82164919 0.28435272 0.2565459
-0.81395912 0.28169402 0.17027344
-0.8527689 0.29809061 0.88573903
-0.83817613 0.29266873 0.72999263
-0.83199221 0.29035175 0.60343897
-0.82822078 0.28855723 0.49289995
-0.84338361 0.29368082 0.39996269
-0.81725907 0.28442881 0.29942557
-0.81834054 0.28480795 0.21306697
-0.81607825 0.28386635 0.12853025
-1.2516392 0.46392488 8.4860697
-1.3116301 0.47923383 6.7370934
-1.0812962 0.38913476 3.7209778
-1.0000232 0.35715795 2.5612228
-0.93004549 0.33071843 1.8762361
-0.89711756 0.31796747 1.470542
-0.8750546 0.30964112 1.1879587
-0.40552443 0.17279886 7.4619579
-1.1772733 0.42853627 4.8611031
-1.0253074 0.36940375 3.0178635
-0.95252299 0.34113905 2.1558261
-0.91290379 0.32570949 1.6556019
-0.88252693 0.31418812 1.3152174
-0.86363739 0.30679631 1.0718638
-0.86163199 0.30321038 0.97741568
-0.84383029 0.29645935 0.80356121
-0.8384614 0.29441389 0.66723639
-0.83320415 0.2922492 0.54875475
-0.82762855 0.29013664 0.44265413
-0.81521916 0.28563172 0.34384581
-0.82065159 0.28721908 0.2565459
-0.81297088 0.28453356 0.17027344
-0.85524344 0.30231002 0.88906449
-0.8409608 0.29693866 0.73293579
-0.83097357 0.29325417 0.60343897
-0.82720846 0.29144648 0.49289995
-0.84235334 0.29662302 0.39996269
-0.81626123 0.28727987 0.29942557
-0.81734139 0.28766277 0.21306697
-0.81508237 0.28671324 0.12853025
-1.2521951 0.46910936 8.5008879
-1.3099493 0.48380935 6.7370934
-1.081334 0.39341733 3.7257495
-1.000608 0.36131024 2.5658255
-0.93113899 0.33477333 1.8806251
-0.89865124 0.32204661 1.4746748
-0.87396842 0.31269377 1.1879587
-0.4051837 0.17432804 7.4669495
-1.1769497 0.43307731 4.8659425
-1.0256331 0.37357125 3.0225561
-0.95337325 0.34520322 2.1603272
-0.91421449 0.32977927 1.6598678
-0.88142478 0.31726679 1.3152174
-0.86256123 0.30980912 1.0718638
-0.86056834 0.30621615 0.97741568
-0.84279031 0.29940304 0.80356121
-0.83742857 0.29733887 0.66723639
-0.83217901 0.29515588 0.54875475
-0.82661074 0.29302382 0.44265413
-0.81421715 0.28847563 0.34384581
-0.82427484 0.29172087 0.25747854
-0.8119728 0.28736961 0.17027344
-0.85418296 0.30529353 0.88906449
-0.83991909 0.29987234 0.73293579
-0.82994491 0.29615304 0.60343897
-0.82618606 0.29433221 0.49289995
-0.84131277 0.29956156 0.39996269
-0.81525344 0.2901274 0.29942557
-0.81633228 0.29051405 0.21306697
-0.81407654 0.28955668 0.12853025
-1.2534562 0.47457859 8.5206442
-1.3082525 0.488379 6.7370934
-1.081355 0.3977049 3.7305217
-0.99934071 0.36480081 2.5658255
-0.93221569 0.33883992 1.8850143
-0.89752162 0.32518151 1.4746748
-0.87588561 0.31683305 1.1917962
-0.40483722 0.17585696 7.4719415
-1.1777871 0.43805972 4.8756213
-1.0259421 0.37774554 3.0272489
-0.95216244 0.34852904 2.1603272
-0.91305774 0.33296847 1.6598678
-0.88314354 0.32137221 1.3192074
-0.8646611 0.31397542 1.0755389
-0.86284977 0.31042567 0.9809202
-0.84540319 0.30365902 0.80669963
-0.83638555 0.30026025 0.66723639
-0.83531338 0.29955438 0.55107355
-0.82558286 0.29590744 0.44265413
-0.81772119 0.29293388 0.34525582
-0.82325155 0.29459637 0.25747854
-0.8109647 0.2902022 0.17027344
-0.85311204 0.30827332 0.88906449
-0.83886725 0.30280238 0.73293579
-0.82890606 0.29904827 0.60343897
-0.82515365 0.29721436 0.49289995
-0.84470499 0.30409604 0.4016062
-0.81423575 0.2929714 0.29942557
-0.81531322 0.29336181 0.21306697
-0.81776208 0.29408723 0.12873179
-1.2546946 0.48006237 8.5404015
-1.3074924 0.49330229 6.7419887
-1.0799601 0.40147716 3.7305217
-0.99806118 0.36828694 2.5658255
-0.93102723 0.34209189 1.8850143
-0.89902335 0.32928044 1.4788078
-0.87477434 0.31988853 1.1917962
-0.40422094 0.17726904 7.4719415
-1.1786038 0.44305322 4.8853002
-1.0262346 0.38192654 3.0319417
-0.95298171 0.35260624 2.1648283
-0.91188991 0.3361536 1.6598678
-0.88201636 0.324453 1.3192074
-0.86355978 0.31699172 1.0755389
-0.86176091 0.3134357 0.9809202
-0.84433806 0.30660817 0.80669963
-0.83533233 0.30317795 0.66723639
-0.83426261 0.30246833 0.55107355
-0.82454497 0.29878747 0.44265413
-0.81669372 0.29578647 0.34525582
-0.82221818 0.29746825 0.25747854
-0.80994678 0.29303122 0.17027344
-0.85203081 0.31124938 0.88906449
-0.84160227 0.30711454 0.735879
-0.82785714 0.30193987 0.60343897
-0.82411116 0.30009285 0.49289995
-0.84363836 0.30704275 0.4016062
-0.81320816 0.29581183 0.29942557
-0.81428427 0.296206 0.21306697
-0.81673056 0.29693997 0.12873179
-1.2566345 0.48584086 8.5650978
-1.3057625 0.49786329 6.7419887
-1.0799494 0.40576965 3.7352936
-0.99860001 0.37245154 2.5704281
-0.9320724 0.34617373 1.8894032
-0.90050739 0.33339384 1.4829408
-0.87665868 0.32405159 1.1956338
-0.4038634 0.17879643 7.476933
-1.178225 0.44761115 4.8901396
-1.0248952 0.38550642 3.0319417
-0.95378405 0.35669336 2.1693296
-0.91071093 0.33933464 1.6598678
-0.88087839 0.32752985 1.3192074
-0.86244804 0.32000419 1.0755389
-0.86400867 0.31767273 0.98442477
-0.84326261 0.30955359 0.80669963
-0.83819449 0.30753237 0.66997784
-0.83320177 0.30537862 0.55107355
-0.82349694 0.30166385 0.44265413
-0.81565624 0.29863548 0.34525582
-0.8211748 0.30033654 0.25747854
-0.80891895 0.29585668 0.17027344
-0.85093915 0.31422162 0.88906449
-0.84052509 0.3100504 0.735879
-0.83084273 0.30631912 0.60597211
-0.82305861 0.3029677 0.49289995
-0.84256148 0.30998573 0.4016062
-0.81217057 0.29864863 0.29942557
-0.81789315 0.30075574 0.21375765
-0.81568903 0.29978907 0.12873179
-1.2578257 0.49135593 8.5848551
-1.3049667 0.50278443 6.7468839
-1.079922 0.41006699 3.7400656
-0.99729383 0.37593502 2.5704281
-0.93085837 0.34942517 1.8894032
-0.90197355 0.33752158 1.4870737
-0.8755222 0.32710975 1.1956338
-0.40323681 0.18020509 7.476933
-1.1790022 0.4526225 4.8998184
-1.0251563 0.38969502 3.0366344
-0.9545694 0.36079034 2.1738307
-0.91196156 0.34343088 1.6641337
-0.8825503 0.33166286 1.3231975
-0.8613258 0.32301274 1.0755389
-0.86289454 0.32068673 0.98442477
-0.84582609 0.31384945 0.80983812
-0.83711588 0.31045634 0.66997784
-0.83213073 0.30828518 0.55107355
-0.82243896 0.30453655 0.44265413
-0.81460887 0.30148083 0.34525582
-0.82472885 0.30490455 0.25841114
-0.8078813 0.29867852 0.17027344
-0.84983712 0.31719002 0.88906449
-0.83943772 0.31298247 0.735879
-0.82976842 0.30921742 0.60597211
-0.82199603 0.30583888 0.49289995
-0.84147424 0.31292495 0.4016062
-0.81112319 0.30148181 0.29942557
-0.81683832 0.30360886 0.21375765
-0.8146376 0.30263454 0.12873179
-1.2597163 0.49717057 8.6095505
-1.3041525 0.50770605 6.7517786
-1.0812711 0.414904 3.7496097
-0.99780107 0.38010955 2.5750306
-0.93187225 0.35352206 1.8937924
-0.90342188 0.34166357 1.4912066
-0.87737358 0.33129632 1.1994712
-0.40286821 0.18173085 7.4819245
-1.1797587 0.45764476 4.9094973
-1.0237896 0.39327109 3.0366344
-0.95533782 0.36489716 2.1783321
-0.91075718 0.34661213 1.6641337
-0.88138723 0.33474153 1.3231975
-0.86019301 0.32601735 1.0755389
-0.86176986 0.32369685 0.98442477
-0.84472543 0.31680003 0.80983812
-0.83602709 0.31337652 0.66997784
-0.83104956 0.31118795 0.55107355
-0.8213709 0.30740556 0.44265413
-0.81355149 0.30432251 0.34525582
-0.81905806 0.30606204 0.25747854
-0.80683374 0.30149674 0.17027344
-0.84872478 0.32015458 0.88906449
-0.84212244 0.3173362 0.73882216
-0.82868403 0.31211197 0.60597211
-0.82517153 0.31030393 0.49499801
-0.84037679 0.31586033 0.4016062
-0.81461596 0.30602071 0.30059788
-0.81577355 0.30645832 0.21375765
-0.81357622 0.30547634 0.12873179
-1.2608598 0.50271642 8.6293077
-1.3033198 0.5126282 6.7566743
-1.0812079 0.41921562 3.7543814
-0.99829137 0.38429227 2.5796332
-0.93063259 0.35677275 1.8937924
-0.90222377 0.34481502 1.4912066
-0.87621182 0.3343569 1.1994712
-0.4022314 0.18313602 7.4819245
-1.1816647 0.46313664 4.9240155
-1.0224108 0.39684239 3.0366344
-0.95405823 0.36822969 2.1783321
-0.91197592 0.35072547 1.6683997
-0.88021338 0.33781612 1.3231975
-0.86221558 0.33023071 1.0792141
-0.86063474 0.32670301 0.98442477
-0.8436144 0.31974673 0.80983812
-0.83492815 0.31629291 0.66997784
-0.8299582 0.31408697 0.55107355
-0.82462889 0.31191096 0.44452715
-0.81248426 0.30716047 0.34525582
-0.81798476 0.30891922 0.25747854
-0.80577648 0.30431128 0.17027344
-0.85109085 0.3244454 0.89239001
-0.84100962 0.32027385 0.73882216
-0.83161831 0.31653637 0.60850531
-0.82408333 0.31318238 0.49499801
-0.84368354 0.32046875 0.40324971
-0.81354284 0.30886239 0.30059788
-0.81469887 0.30930403 0.21375765
-0.81250495 0.30831435 0.12873179
-1.2627008 0.50856686 8.6540041
-1.3024687 0.51755065 6.7615695
-1.0825176 0.42407653 3.7639256
-0.99876451 0.38848302 2.5842357
-0.93161476 0.36088443 1.8981816
-0.90363967 0.34897625 1.4953396
-0.87503934 0.33741343 1.1994712
-0.40158969 0.18453895 7.4819245
-1.1823782 0.4681845 4.9336944
-1.0226257 0.40103906 3.0413272
-0.95479512 0.37234885 2.1828332
-0.9107461 0.35390675 1.6683997
-0.8790288 0.34088656 1.3231975
-0.86105758 0.33323839 1.0792141
-0.85948908 0.32970521 0.98442477
-0.84249318 0.32268953 0.80983812
-0.83772397 0.3207005 0.67271936
-0.82885683 0.31698215 0.55107355
-0.82353508 0.31478757 0.44452715
-0.81140715 0.3099947 0.34525582
-0.81690139 0.31177261 0.25747854
-0.80470932 0.30712211 0.17027344
-0.84995317 0.32741427 0.89239001
-0.83988649 0.32320756 0.73882216
-0.83050835 0.31943733 0.60850531
-0.82298505 0.31605709 0.49499801
-0.84255975 0.32341179 0.40324971
-0.81245977 0.31170031 0.30059788
-0.81361425 0.31214598 0.21375765
-0.81142384 0.31114864 0.12873179
-1.2637964 0.51414317 8.6737604
-1.301599 0.52247339 6.7664647
-1.0824184 0.4284021 3.7686975
-0.99922055 0.39268172 2.5888383
-0.93034935 0.36413416 1.8981816
-0.90241599 0.35212839 1.4953396
-0.87385625 0.34046584 1.1994712
-0.40094307 0.18593964 7.4819245
-1.1830705 0.47324285 4.9433732
-1.0228238 0.40524206 3.04602
-0.95551497 0.37647769 2.1873345
-0.91193271 0.35803697 1.6726656
-0.88063908 0.34505233 1.3271875
-0.85988915 0.33624199 1.0792141
-0.85833299 0.33270335 0.98442477
-0.84499151 0.32703346 0.81297654
-0.83659941 0.32362276 0.67271936
-0.83187723 0.32147035 0.55339235
-0.82243121 0.31766033 0.44452715
-0.81032008 0.31282514 0.34525582
-0.81580812 0.31462225 0.25747854
-0.80363232 0.30992919 0.17027344
-0.84880507 0.33037919 0.89239001
-0.83875322 0.32613733 0.73882216
-0.8293882 0.32233438 0.60850531
-0.82610792 0.3205699 0.49709606
-0.84582829 0.32805857 0.40489322
-0.8113668 0.31453443 0.30059788
-0.81251967 0.31498411 0.21375765
-0.81033278 0.31397918 0.12873179
-1.2648686 0.51973337 8.6935186
-1.2997674 0.52701366 6.7664647
-1.0823025 0.43273216 3.7734697
-0.99784374 0.39616728 2.5888383
-0.93129963 0.36826032 1.9025706
-0.90118134 0.35527629 1.4953396
-0.87266243 0.34351408 1.1994712
-0.40029156 0.18733805 7.4819245
-1.1837423 0.47831184 4.953052
-1.0230051 0.40945134 3.0507126
-0.95419496 0.37981075 2.1873345
-0.91067737 0.36121801 1.6726656
-0.87942922 0.34812424 1.3271875
-0.85871017 0.33924153 1.0792141
-0.85716635 0.33569747 0.98442477
-0.84384477 0.32998103 0.81297654
-0.8393591 0.32806334 0.67546082
-0.83074999 0.3243722 0.55339235
-0.82131737 0.32052919 0.44452715
-0.80922323 0.31565177 0.34525582
-0.81470495 0.31746805 0.25747854
-0.80254561 0.31273252 0.17027344
-0.84764665 0.33334005 0.89239001
-0.83760965 0.32906315 0.73882216
-0.8322705 0.32680324 0.61103851
-0.82498389 0.32345161 0.49709606
-0.84467804 0.33100906 0.40489322
-0.81478971 0.31913745 0.30177018
-0.8114152 0.31781843 0.21375765
-0.81388396 0.31862712 0.12893331
-1.2659169 0.52533728 8.713275
-1.298862 0.53193349 6.7713594
-1.0835534 0.43762586 3.7830136
-0.99826795 0.40037537 2.5934405
-0.93223262 0.37239757 1.9069598
-0.89993572 0.35841984 1.4953396
-0.87145805 0.34655815 1.1994712
-0.399896 0.18885806 7.4869161
-1.1843928 0.4833912 4.9627309
-1.0231694 0.41366681 3.0554056
-0.95488298 0.38395149 2.1918356
-0.9118318 0.36536491 1.6769315
-0.88100648 0.3523109 1.3311775
-0.86066949 0.34349376 1.0828893
-0.85598934 0.33868751 0.98442477
-0.84268779 0.33292457 0.81297654
-0.83820885 0.33099127 0.67546082
-0.83373344 0.32889578 0.55571121
-0.82450628 0.32509476 0.4464002
-0.81257939 0.32023349 0.34666586
-0.81359178 0.32030994 0.25747854
-0.80144906 0.315532 0.17027344
-0.84994781 0.33767557 0.89571548
-0.83645588 0.33198497 0.73882216
-0.83112466 0.3297064 0.61103851
-0.82806927 0.32800084 0.49919412
-0.84351742 0.33395553 0.40489322
-0.81367075 0.32197967 0.30177018
-0.81030089 0.32064888 0.21375765
-0.81276679 0.32146618 0.12893331
-1.2662252 0.53065443 8.7280931
-1.2969972 0.53646415 6.7713594
-1.0834012 0.44196948 3.7877855
-0.99686426 0.40385756 2.5934405
-0.93092698 0.37564939 1.9069598
-0.90128964 0.36260948 1.4994725
-0.87024301 0.34959799 1.1994712
-0.39949465 0.19037761 7.4919081
-1.1838603 0.48800179 4.9675703
-1.0233167 0.4178884 3.0600982
-0.95353699 0.38728234 2.1918356
-0.91055089 0.36854559 1.6769315
-0.87977129 0.35538405 1.3311775
-0.85946518 0.34649596 1.0828893
-0.85811335 0.34299722 0.98792928
-0.84152055 0.33586407 0.81297654
-0.83704835 0.33391514 0.67546082
-0.83258027 0.33180404 0.55571121
-0.82336646 0.32797083 0.4464002
-0.81145656 0.32306796 0.34666586
-0.81246877 0.32314795 0.25747854
-0.80497015 0.32016817 0.17072052
-0.84876394 0.3406404 0.89571548
-0.83904356 0.33640704 0.74176532
-0.82996869 0.33260554 0.61103851
-0.82691932 0.33088934 0.49919412
-0.84234661 0.33689788 0.40489322
-0.8125419 0.32481793 0.30177018
-0.80917668 0.32347539 0.21375765
-0.81163973 0.32430127 0.12893331
-1.2665117 0.53598011 8.7429113
-1.2951167 0.54098821 6.7713594
-1.084612 0.44688621 3.7973294
-0.99725652 0.40807489 2.5980432
-0.93182784 0.3798008 1.9113487
-0.90001845 0.36575335 1.4994725
-0.87198734 0.35383895 1.2033087
-0.39908755 0.19189663 7.4968996
-1.1844704 0.49309775 4.9772491
-1.023447 0.42211607 3.064791
-0.95217925 0.39060843 2.1918356
-0.91167289 0.37270886 1.6811975
-0.87852544 0.35845289 1.3311775
-0.85825044 0.34949395 1.0828893
-0.85691082 0.34599051 0.98792928
-0.84395289 0.34025505 0.81611502
-0.83587766 0.33683497 0.67546082
-0.83141702 0.33470824 0.55571121
-0.8265174 0.33257356 0.44827321
-0.81032395 0.3258985 0.34666586
-0.8113358 0.32598203 0.25747854
-0.80384767 0.32297611 0.17072052
-0.85102987 0.34500396 0.899041
-0.83786416 0.3393338 0.74176532
-0.82880265 0.33550069 0.61103851
-0.82575923 0.33377379 0.49919412
-0.84116542 0.33983618 0.40489322
-0.8159101 0.32947227 0.30294251
-0.80804259 0.32629797 0.21375765
-0.81050271 0.32713246 0.12893331
-1.2674907 0.5416196 8.7626677
-1.2932205 0.5455057 6.7713594
-1.0844235 0.45124313 3.8021016
-0.99582601 0.41155344 2.5980432
-0.93049639 0.38305119 1.9113487
-0.89873624 0.36889279 1.4994725
-0.87074691 0.35688061 1.2033087
-0.39867473 0.19341514 7.5018911
-1.1850593 0.49820393 4.986928
-1.0235603 0.4263497 3.0694838
-0.95282114 0.39476323 2.196337
-0.91036636 0.37588891 1.6811975
-0.87726885 0.36151731 1.3311775
-0.86016053 0.35377738 1.0865644
-0.85900003 0.35032648 0.9914338
-0.84276009 0.34319893 0.81611502
-0.83469677 0.33975068 0.67546082
-0.83024359 0.33760843 0.55571121
-0.82535148 0.33545661 0.44827321
-0.80918145 0.32872507 0.34666586
-0.810193 0.32881215 0.25747854
-0.80271536 0.32578009 0.17072052
-0.84982038 0.34797254 0.899041
-0.83667457 0.34225643 0.74176532
-0.82762647 0.33839169 0.61103851
-0.82879096 0.33836979 0.50129217
-0.83997405 0.34277034 0.40489322
-0.81475502 0.33231831 0.30294251
-0.81148398 0.33098689 0.21444833
-0.80935591 0.32995963 0.12893331
-1.2677326 0.54696459 8.7774858
-1.2913084 0.55001658 6.7713594
-1.0842179 0.45560417 3.8068733
-0.9961862 0.41577968 2.6026456
-0.92915362 0.3862969 1.9113487
-0.90004259 0.37310553 1.5036055
-0.87245733 0.36114398 1.2071462
-0.39825615 0.19493309 7.5068827
-1.1844699 0.50282884 4.9917674
-1.0236564 0.43058929 3.0741765
-0.95143735 0.39808679 2.196337
-0.91145575 0.38006833 1.6854634
-0.8760016 0.36457735 1.3311775
-0.85892034 0.35677773 1.0865644
-0.85777193 0.35332283 0.9914338
-0.84155697 0.34613863 0.81611502
-0.83350575 0.34266222 0.67546082
-0.82906002 0.34050444 0.55571121
-0.82846409 0.34009624 0.45014626
-0.81246698 0.33336872 0.3480759
-0.81358546 0.33350143 0.25841114
-0.80618113 0.33046898 0.1711676
-0.84860063 0.35093683 0.899041
-0.83547479 0.34517488 0.74176532
-0.82644022 0.34127858 0.61103851
-0.82760477 0.34126073 0.50129217
-0.83877248 0.34570032 0.40489322
-0.81359011 0.33516032 0.30294251
-0.81032372 0.33381748 0.21444833
-0.81281888 0.33468503 0.12913485
-1.2686647 0.55262822 8.7972422
-1.2893806 0.55452073 6.7713594
-1.085369 0.46055251 3.8164172
-0.99652904 0.42001346 2.6072483
-0.93000776 0.39046523 1.9157379
-0.89873469 0.37624496 1.5036055
-0.87119138 0.36418724 1.2071462
-0.39757329 0.19632208 7.5068827
-1.1850179 0.50795108 5.0014462
-1.0221471 0.43415987 3.0741765
-0.95204711 0.40225291 2.2008381
-0.91012353 0.38324758 1.6854634
-0.87472361 0.36763293 1.3311775
-0.85766971 0.35977376 1.0865644
-0.85653341 0.35631484 0.9914338
-0.84034359 0.3490741 0.81611502
-0.8323046 0.34556961 0.67546082
-0.82786644 0.34339634 0.55571121
-0.82727188 0.34298605 0.45014626
-0.81129837 0.33620271 0.3480759
-0.81241637 0.33633935 0.25841114
-0.80502266 0.33328107 0.1711676
-0.84737039 0.35389686 0.899041
-0.83799505 0.3496457 0.74470848
-0.8292225 0.3458207 0.61357164
-0.82640851 0.34414753 0.50129217
-0.83756065 0.34862608 0.40489322
-0.81241518 0.33799824 0.30294251
-0.80915356 0.33664399 0.21444833
-0.81164563 0.33752027 0.12913485
-1.2688615 0.55799216 8.8120604
-1.2874372 0.55901814 6.7713594
-1.0851268 0.46492642 3.8211894
-0.99505687 0.42348945 2.6072483
-0.92863911 0.39370915 1.9157379
-0.90000767 0.38047576 1.5077385
-0.87286764 0.36847275 1.2109838
-0.39714369 0.19783798 7.5118747
-1.1855447 0.51308328 5.0111251
-1.0222113 0.43840554 3.0788693
-0.95263952 0.40642819 2.2053394
-0.9111802 0.38744292 1.6897295
-0.87343502 0.37068406 1.3311775
-0.85640866 0.36276537 1.0865644
-0.85528439 0.35930255 0.9914338
-0.84270918 0.35351115 0.81925344
-0.83494937 0.35008979 0.67820227
-0.82666272 0.34628403 0.55571121
-0.82606959 0.34587166 0.45014626
-0.81454504 0.3408846 0.34948593
-0.81123739 0.33917317 0.25841114
-0.80844897 0.3380101 0.17161468
-0.84957016 0.3583037 0.90236646
-0.83676946 0.35256875 0.74470848
-0.82801032 0.34871313 0.61357164
-0.82520217 0.34703016 0.50129217
-0.83633864 0.35154757 0.40489322
-0.81123042 0.34083202 0.30294251
-0.8079735 0.33946642 0.21444833
-0.81046253 0.3403514 0.12913485
-1.2697465 0.56367958 8.8318176
-1.285478 0.56350875 6.7713594
-1.0848672 0.46930417 3.8259614
-0.99357253 0.42696026 2.6072483
-0.92946076 0.39789101 1.9201269
-0.89867413 0.38361505 1.5077385
-0.87157613 0.37151739 1.2109838
-0.39645067 0.19922306 7.5118747
-1.1860499 0.51822531 5.0208039
-1.0222582 0.44265696 3.0835621
-0.95321417 0.41061246 2.2098405
-0.91221863 0.39165023 1.6939954
-0.87490535 0.37491772 1.3351675
-0.85825408 0.36708593 1.0902396
-0.85730791 0.36367872 0.99493837
-0.84147006 0.35645059 0.81925344
-0.83372223 0.35300219 0.67820227
-0.82952869 0.35089338 0.55803001
-0.82485723 0.34875306 0.45014626
-0.81335014 0.3437258 0.34948593
-0.81457394 0.34391353 0.25934377
-0.80726415 0.34083006 0.17161468
-0.84831429 0.36126703 0.90236646
-0.83553374 0.35548747 0.74470848
-0.83075494 0.35328844 0.61610484
-0.82398576 0.34990853 0.50129217
-0.8394531 0.35630989 0.40653673
-0.81451029 0.3455601 0.30411482
-0.81134236 0.34421885 0.21513902
-0.80926961 0.34317833 0.12913485
-1.2713162 0.56969786 8.856514
-1.2835031 0.56799245 6.7713594
-1.0859581 0.47428343 3.8355052
-0.9920761 0.43042588 2.6072483
-0.93026453 0.40208343 1.9245161
-0.89991373 0.38786367 1.5118713
-0.87321806 0.37582478 1.2148212
-0.39601007 0.20073684 7.5168662
-1.1865339 0.52337718 5.0304828
-1.0207068 0.44622263 3.0835621
-0.95177513 0.4139373 2.2098405
-0.91323876 0.39586955 1.6982613
-0.8735913 0.37796938 1.3351675
-0.85696745 0.37007955 1.0902396
-0.85603321 0.36666906 0.99493837
-0.84379929 0.36091653 0.82239193
-0.83248496 0.35591027 0.67820227
-0.82829881 0.35378686 0.55803001
-0.82789838 0.35345054 0.45201927
-0.81655747 0.34844568 0.35089597
-0.8133685 0.34675485 0.25934377
-0.81065059 0.34559891 0.17206176
-0.85047817 0.36570111 0.90569204
-0.83800143 0.35999736 0.74765164
-0.82951671 0.35618615 0.61610484
-0.82693058 0.35457128 0.50339019
-0.83820426 0.35923794 0.40653673
-0.81329912 0.34840119 0.30411482
-0.81013584 0.34704885 0.21513902
-0.81265932 0.34796762 0.12933637
-1.273567 0.57605422 8.8861494
-1.2815126 0.57246929 6.7713594
-1.0856618 0.47867364 3.8402774
-0.99235702 0.43467024 2.6118507
-0.92885536 0.40532821 1.9245161
-0.90113455 0.39212558 1.5160043
-0.87190086 0.37887058 1.2148212
-0.39582044 0.20238195 7.5268493
-1.1858479 0.52802718 5.0353222
-1.0207217 0.45047981 3.0882547
-0.9523176 0.41813248 2.2143419
-0.91185135 0.39905494 1.6982613
-0.87502784 0.38222286 1.3391576
-0.858778 0.37442374 1.0939147
-0.85802132 0.37107071 0.99844289
-0.84253436 0.36385974 0.82239193
-0.83507651 0.36047131 0.68094373
-0.82705879 0.35667601 0.55803001
-0.82665956 0.35633832 0.45201927
-0.81533617 0.35129386 0.35089597
-0.81215316 0.34959188 0.25934377
-0.80943924 0.34842646 0.17206176
-0.84919643 0.3686676 0.90569204
-0.83673972 0.36292037 0.74765164
-0.82826835 0.35907954 0.61610484
-0.82568783 0.35745564 0.50339019
-0.83694518 0.36216161 0.40653673
-0.812078 0.35123801 0.30411482
-0.80891949 0.34987465 0.21513902
-0.81143975 0.35080221 0.12933637
-1.2750823 0.58211058 8.9108458
-1.2795066 0.57693905 6.7713594
-1.0853478 0.48306748 3.8450491
-0.99083364 0.43813157 2.6118507
-0.92962646 0.40953377 1.928905
-0.89976031 0.39526871 1.5160043
-0.87350816 0.3831996 1.2186587
-0.39511156 0.2037624 7.5268493
-1.1862903 0.5331943 5.045001
-1.0207192 0.45474246 3.0929477
-0.95284235 0.42233643 2.218843
-0.91283834 0.40328956 1.7025272
-0.87368834 0.38527495 1.3391576
-0.8574658 0.37741917 1.0939147
-0.85672081 0.37406349 0.99844289
-0.84482694 0.36835429 0.82553035
-0.83381319 0.36338407 0.68094373
-0.82580876 0.35956079 0.55803001
-0.82966143 0.3610718 0.45389232
-0.81410497 0.35413778 0.35089597
-0.81543308 0.35438266 0.26027638
-0.80821812 0.35124981 0.17206176
-0.85132402 0.37312862 0.90901756
-0.83546782 0.36583892 0.74765164
-0.82700986 0.36196855 0.61610484
-0.82443506 0.36033565 0.50339019
-0.84000313 0.36697143 0.40818024
-0.81084704 0.35407054 0.30411482
-0.81223154 0.35467792 0.21582969
-0.81021029 0.35363254 0.12933637
-1.2815101 0.59046137 8.9701166
-1.2774849 0.58140188 6.7713594
-1.0850166 0.48746499 3.8498213
-0.98929828 0.44158754 2.6118507
-0.9281913 0.41277629 1.928905
-0.90094745 0.39954805 1.5201373
-0.87216526 0.38624638 1.2186587
-0.39465374 0.20527415 7.5318413
-1.1855664 0.53785139 5.0498405
-1.0206994 0.45901063 3.0976403
-0.95136231 0.42565992 2.218843
-0.91142499 0.40647349 1.7025272
-0.8750909 0.38954794 1.3431475
-0.85924113 0.38178673 1.09759
-0.8586731 0.3784903 1.0019474
-0.84353596 0.37130105 0.82553035
-0.83253962 0.36629242 0.68094373
-0.8245486 0.36244121 0.55803001
-0.82839602 0.36396563 0.45389232
-0.81725597 0.3589063 0.35230598
-0.81419104 0.35722691 0.26027638
-0.80698705 0.35406888 0.17206176
-0.85001642 0.37609801 0.90901756
-0.83418566 0.36875302 0.74765164
-0.82574129 0.36485314 0.61610484
-0.82732445 0.36504349 0.50548828
-0.83871704 0.36990136 0.40818024
-0.80960613 0.35689875 0.30411482
-0.81098855 0.35751098 0.21582969
-0.80897093 0.35645851 0.12933637
-1.2759188 0.59329236 8.9454203
-1.2745224 0.58543247 6.7664647
-1.0860271 0.49248275 3.8593652
-0.98953199 0.4458409 2.6164534
-0.92892963 0.41699478 1.9332942
-0.89954728 0.4026905 1.5201373
-0.87373775 0.39059675 1.2224963
-0.39393479 0.2066505 7.5318413
-1.1848246 0.54251003 5.0546799
-1.0206623 0.46328416 3.1023331
-0.95185453 0.42987433 2.2233443
-0.91000062 0.4096525 1.7025272
-0.87372577 0.39260021 1.3431475
-0.85790324 0.38478372 1.09759
-0.85734671 0.38148531 1.0019474
-0.84223479 0.37424329 0.82553035
-0.83507735 0.37089372 0.68368518
-0.82732749 0.36711404 0.56034881
-0.82712048 0.36685506 0.45389232
-0.8159982 0.36175686 0.35230598
-0.81293917 0.3600668 0.26027638
-0.80574626 0.35688365 0.17206176
-0.84869844 0.37906283 0.90901756
-0.83289343 0.37166262 0.74765164
-0.82446271 0.36773327 0.61610484
-0.82604516 0.36792916 0.50548828
-0.83310682 0.37090608 0.40653673
-0.80835539 0.35972264 0.30411482
-0.81425989 0.36235306 0.21652037
-0.80772173 0.3592802 0.12933637
-1.2766533 0.59906334 8.9651775
-1.2724712 0.58987778 6.7664647
-1.0856586 0.49689206 3.8641372
-0.98974794 0.4501012 2.6210558
-0.92746842 0.4202348 1.9332942
-0.90070045 0.40698698 1.5242703
-0.87236899 0.39364427 1.2224963
-0.39321104 0.20802432 7.5318413
-1.1852056 0.54769737 5.0643587
-1.0206077 0.46756303 3.1070261
-0.95232904 0.43409747 2.2278454
-0.91093946 0.41390553 1.7067931
-0.87509412 0.39689246 1.3471376
-0.85655487 0.38777602 1.09759
-0.85926294 0.38593701 1.005452
-0.84092325 0.37718096 0.82553035
-0.83377767 0.37380639 0.68368518
-0.82604098 0.36999971 0.56034881
-0.82583487 0.36974001 0.45389232
-0.81473047 0.36460304 0.35230598
-0.81167734 0.36290228 0.26027638
-0.80449557 0.35969406 0.17206176
-0.84737003 0.38202304 0.90901756
-0.83527637 0.37622783 0.75059479
-0.82317406 0.37060899 0.61610484
-0.82475579 0.37081036 0.50548828
-0.83180702 0.3738119 0.40653673
-0.80709481 0.36254212 0.30411482
-0.81299007 0.36519313 0.21652037
-0.80646265 0.36209747 0.12933637
-1.2759588 0.60418141 8.9750557
-1.269482 0.59388435 6.7615695
-1.0866276 0.50193095 3.8736811
-0.98994631 0.45436847 2.6256583
-0.92817378 0.42446592 1.9376832
-0.89927435 0.41012853 1.5242703
-0.87098956 0.39668703 1.2224963
-0.3922281 0.20925915 7.5268493
-1.1844256 0.55236256 5.0691981
-1.0205356 0.47184715 3.1117187
-0.95080799 0.43741906 2.2278454
-0.9094891 0.41708279 1.7067931
-0.87370336 0.39994469 1.3471376
-0.85519606 0.39076358 1.09759
-0.85791051 0.38893408 1.005452
-0.83960158 0.38011405 0.82553035
-0.83246768 0.37671456 0.68368518
-0.82474434 0.37288091 0.56034881
-0.82453924 0.37262046 0.45389232
-0.81345278 0.36744475 0.35230598
-0.81488299 0.36775401 0.26120901
-0.80323511 0.36250007 0.17206176
-0.84603137 0.38497859 0.90901756
-0.83395797 0.37914118 0.75059479
-0.82579988 0.37526366 0.61863804
-0.82345641 0.37368703 0.50548828
-0.82619673 0.37476245 0.40489322
-0.80582434 0.36535722 0.30411482
-0.8117103 0.36802879 0.21652037
-0.80519378 0.36491036 0.12933637
-1.2766463 0.60997218 8.994813
-1.2674013 0.59831202 6.7615695
-1.0862218 0.50635177 3.8784533
-0.99189955 0.45946392 2.6348634
-0.92668647 0.42770326 1.9376832
-0.90039343 0.41444188 1.5284033
-0.86959964 0.39972493 1.2224963
-0.39149526 0.210627 7.5268493
-1.1847649 0.55756444 5.0788774
-1.0204461 0.47613645 3.1164114
-0.95124966 0.44165224 2.2323468
-0.91039443 0.42135057 1.7110591
-0.87503737 0.40425599 1.3511276
-0.85690534 0.39516622 1.1012651
-0.85979044 0.39341033 1.0089566
-0.83826959 0.38304245 0.82553035
-0.83114767 0.37961814 0.68368518
-0.82746768 0.37759662 0.56266761
-0.82323354 0.37549636 0.45389232
-0.8121652 0.37028202 0.35230598
-0.81359428 0.37059626 0.26120901
-0.80649674 0.36736608 0.17250884
-0.8446824 0.38792944 0.90901756
-0.8326295 0.38204995 0.75059479
-0.82448494 0.37814397 0.61863804
-0.82627326 0.3784492 0.5075863
-0.82488352 0.37764412 0.40489322
-0.80454415 0.36816785 0.30411482
-0.81042075 0.37085995 0.21652037
-0.80391508 0.36771879 0.12933637
-1.2780083 0.61611253 9.0195093
-1.265305 0.60273242 6.7615695
-1.0871489 0.51141143 3.8879972
-0.99205935 0.46375096 2.6394658
-0.92735881 0.43194681 1.9420724
-0.89894128 0.4175823 1.5284033
-0.86819905 0.40275797 1.2224963
-0.39101109 0.21213055 7.5318413
-1.1850821 0.56277531 5.0885558
-1.020339 0.48043087 3.1211042
-0.95167351 0.44589382 2.2368479
-0.90891808 0.42452586 1.7110591
-0.87362093 0.40730795 1.3511276
-0.85552067 0.39815497 1.1012651
-0.85841197 0.39640915 1.0089566
-0.83692747 0.38596624 0.82553035
-0.82981753 0.38251704 0.68368518
-0.82614464 0.38048273 0.56266761
-0.82612884 0.38030636 0.45576534
-0.81086773 0.37311473 0.35230598
-0.81229573 0.37343398 0.26120901
-0.80520952 0.370179 0.17250884
-0.84332311 0.39087555 0.90901756
-0.83495849 0.38665265 0.75353795
-0.82707191 0.38283056 0.62117118
-0.82494718 0.38133112 0.5075863
-0.8235603 0.38052121 0.40489322
-0.80325407 0.37097397 0.30411482
-0.80912125 0.37368658 0.21652037
-0.80262667 0.37052274 0.12933637
-1.2786446 0.62192988 9.0392656
-1.264111 0.6075868 6.7664647
-1.0867057 0.51584345 3.8927693
-0.99396825 0.46887845 2.6486709
-0.92801273 0.4362002 1.9464613
-0.89747816 0.42071766 1.5284033
-0.86969072 0.40714529 1.2263339
-0.39026824 0.21349412 7.5318413
-1.1853774 0.56799531 5.0982351
-1.0202144 0.48473033 3.125797
-0.95207912 0.45014372 2.241349
-0.90978968 0.42880806 1.715325
-0.87492025 0.41163796 1.3551177
-0.85719424 0.4025802 1.1049403
-0.857023 0.39940315 1.0089566
-0.83910388 0.39052781 0.82866883
-0.83226836 0.38717517 0.68642664
-0.8248114 0.38336417 0.56266761
-0.82479632 0.38318777 0.45576534
-0.80956036 0.37594292 0.35230598
-0.81098729 0.37626714 0.26120901
-0.80391246 0.37298745 0.17250884
-0.8453356 0.39539903 0.91234308
-0.8336038 0.38956484 0.75353795
-0.8257305 0.38571522 0.62117118
-0.82361102 0.38420838 0.5075863
-0.822227 0.38339365 0.40489322
-0.80195427 0.3737756 0.30411482
-0.81230038 0.37860072 0.21721105
-0.805857 0.37543195 0.12953791
-1.2799532 0.62810165 9.0639629
-1.2619826 0.61199564 6.7664647
-1.0875908 0.52092361 3.9023132
-0.99408937 0.473185 2.6532736
-0.92864835 0.44046348 1.9508505
-0.89854777 0.42505133 1.5325361
-0.8682642 0.41017857 1.2263339
-0.3897731 0.21499513 7.5368328
-1.1867821 0.5737713 5.1127529
-1.0200722 0.48903477 3.1304898
-0.95050204 0.45346439 2.241349
-0.91064245 0.43310153 1.7195909
-0.87347811 0.41468948 1.3551177
-0.85884714 0.40702194 1.1086154
-0.85885072 0.40391019 1.0124611
-0.83773559 0.39345446 0.82866883
-0.83091176 0.39007795 0.68642664
-0.82346821 0.38624096 0.56266761
-0.82345372 0.38606453 0.45576534
-0.80824316 0.37876651 0.35230598
-0.8096689 0.37909573 0.26120901
-0.80260557 0.37579137 0.17250884
-0.84395027 0.39834741 0.91234308
-0.8358947 0.39419648 0.75648111
-0.82827842 0.3904334 0.62370437
-0.82226491 0.387081 0.5075863
-0.82088369 0.38626143 0.40489322
-0.80504304 0.37864146 0.30528715
-0.81097388 0.38143387 0.21721105
-0.80454159 0.37824264 0.12953791
-1.2812341 0.63429004 9.0886583
-1.2598386 0.61639702 6.7664647
-1.0897975 0.52666587 3.9166293
-0.99595356 0.47834411 2.6624784
-0.92710519 0.4437024 1.9508505
-0.89705861 0.42818528 1.5325361
-0.86972034 0.41458628 1.2301713
-0.38902023 0.21635437 7.5368328
-1.1870314 0.57901287 5.1224318
-1.0214657 0.49409571 3.1398752
-0.95087469 0.45772386 2.2458501
-0.91147631 0.43740618 1.7238568
-0.87474269 0.41903797 1.3591076
-0.85742116 0.4100174 1.1086154
-0.85743558 0.40690568 1.0124611
-0.83987427 0.39804342 0.83180726
-0.82954514 0.39297602 0.68642664
-0.822115 0.38911307 0.56266761
-0.82629168 0.39091921 0.45763838
-0.80691606 0.38158551 0.35230598
-0.80834067 0.38191968 0.26120901
-0.80128896 0.3785907 0.17250884
-0.84592551 0.40289655 0.91566855
-0.8345136 0.39711189 0.75648111
-0.8269105 0.39332226 0.62370437
-0.82090873 0.38994884 0.5075863
-0.82379609 0.39114997 0.40653673
-0.80371648 0.38144928 0.30528715
-0.80963749 0.38426238 0.21721105
-0.80321634 0.38104871 0.12953791
-1.2824878 0.64049506 9.1133556
-1.2576792 0.62079096 6.7664647
-1.0906357 0.53177541 3.926173
-0.9960357 0.48266983 2.6670809
-0.92770737 0.44797754 1.9552395
-0.89809376 0.4325352 1.5366691
-0.86826789 0.41761965 1.2301713
-0.38851413 0.21785276 7.5418248
-1.1883863 0.58481842 5.1369505
-1.0212855 0.49841532 3.1445682
-0.95122933 0.46199149 2.2503514
-0.909944 0.44058517 1.7238568
-0.87327462 0.42208883 1.3591076
-0.85903794 0.41448122 1.1122906
-0.85601002 0.40989619 1.0124611
-0.83847976 0.40097269 0.83180726
-0.83194089 0.39767271 0.6891681
-0.82474899 0.39388958 0.56498641
-0.82492208 0.39380115 0.45763838
-0.80990863 0.38646582 0.35371602
-0.8070026 0.38473898 0.26120901
-0.79996252 0.38138542 0.17250884
-0.84451401 0.40584695 0.91566855
-0.83312231 0.40002248 0.75648111
-0.8255325 0.39620632 0.62370437
-0.81954253 0.39281201 0.5075863
-0.82242566 0.39402315 0.40653673
-0.80676383 0.38635188 0.30645946
-0.81275755 0.38922513 0.21790172
-0.8063876 0.38600725 0.12973943
-1.2830195 0.64636678 9.133112
-1.2545933 0.62472326 6.7615695
-1.0914515 0.53689736 3.9357171
-0.99785489 0.48786023 2.676286
-0.92829102 0.45226225 1.9596287
-0.89657843 0.43566751 1.5366691
-0.86968839 0.42204747 1.2340088
-0.38775134 0.2192076 7.5418248
-1.1885892 0.59008121 5.1466289
-1.0210876 0.50273967 3.1492608
-0.95156562 0.46626711 2.2548525
-0.91074371 0.44490364 1.7281228
-0.87450421 0.42645547 1.3630977
-0.85758591 0.41747728 1.1122906
-0.85778499 0.41443333 1.0159656
-0.83707494 0.40389708 0.83180726
-0.83054763 0.4005743 0.6891681
-0.82336903 0.3967661 0.56498641
-0.82354242 0.39667827 0.45763838
-0.80855465 0.38929057 0.35371602
-0.8056547 0.38755363 0.26120901
-0.79862636 0.38417548 0.17250884
-0.84645176 0.41042152 0.91899407
-0.83535844 0.40469053 0.75942427
-0.82414448 0.39908555 0.62370437
-0.82225215 0.39764637 0.50968438
-0.82104528 0.39689156 0.40653673
-0.80541027 0.38916564 0.30645946
-0.81139392 0.3920598 0.21790172
-0.80503529 0.38881969 0.12973943
-1.2842187 0.65260214 9.1578093
-1.2524048 0.62909883 6.7615695
-1.0922447 0.54203129 3.9452608
-0.99789798 0.49220487 2.6808887
-0.9288559 0.45655644 1.9640176
-0.89757884 0.44003338 1.5408021
-0.87108845 0.42649028 1.2378463
-0.38723427 0.22070326 7.5468159
-1.1898936 0.59591562 5.1611471
-1.0224173 0.50783658 3.1586463
-0.95188373 0.47055078 2.2593539
-0.91152442 0.44923314 1.7323887
-0.87301028 0.4295055 1.3630977
-0.85916632 0.42196295 1.1159657
-0.85633314 0.41742504 1.0159656
-0.83915955 0.4085204 0.83494574
-0.83290422 0.4053008 0.69190961
-0.82596296 0.40157482 0.56730521
-0.82215273 0.39955056 0.45763838
-0.81150568 0.39420667 0.35512605
-0.80871624 0.39250842 0.26214162
-0.79728049 0.38696086 0.17250884
-0.84501398 0.41337371 0.91899407
-0.83394074 0.40760404 0.75942427
-0.82661957 0.40385234 0.62623757
-0.82085913 0.40051416 0.50968438
-0.81965482 0.39975512 0.40653673
-0.80404693 0.39197469 0.30645946
-0.81002045 0.39488974 0.21790172
-0.80367315 0.39162743 0.12973943
-1.2846982 0.65849912 9.1775656
-1.2502012 0.63346666 6.7615695
-1.0930156 0.54717743 3.9548051
-0.99792272 0.49655566 2.6854911
-0.92725652 0.45979598 1.9640176
-0.89603734 0.44316381 1.5408021
-0.86959445 0.42952833 1.2378463
-0.38646153 0.22205363 7.5468159
-1.1911719 0.60176629 5.1756659
-1.0221812 0.51217556 3.1633391
-0.95023543 0.47387061 2.2593539
-0.90995079 0.45241219 1.7323887
-0.87150574 0.43255022 1.3630977
-0.86072576 0.42646468 1.1196409
-0.85487086 0.42041165 1.0159656
-0.8377285 0.41144711 0.83494574
-0.83148438 0.40820569 0.69190961
-0.82455611 0.40445551 0.56730521
-0.82075304 0.40241796 0.45763838
-0.81443232 0.39914814 0.35653609
-0.80734116 0.39532897 0.26214162
-0.79592484 0.38974154 0.17250884
-0.84691399 0.41797337 0.92231953
-0.8325128 0.41051254 0.75942427
-0.82520479 0.40673533 0.62623757
-0.81945604 0.40337703 0.50968438
-0.81825447 0.40261385 0.40653673
-0.80267382 0.39477894 0.30645946
-0.80863708 0.39771482 0.21790172
-0.80678463 0.39663455 0.12994097
-1.2851524 0.66440749 9.1973228
-1.2479824 0.6378268 6.7615695
-1.0937636 0.55233544 3.9643488
