# .PCD v0.7 - Point Cloud Data file format
VERSION 0.7
FIELDS x y z
SIZE 4 4 4
TYPE F F F
COUNT 1 1 1
WIDTH 1386
HEIGHT 1
VIEWPOINT 0 0 0 1 0 0 0
POINTS 1386
DATA ascii
-1.3045446 -0.057635285 6.3014178
-0.82129413 -0.040314753 2.6759133
-1.017562 -0.052367892 2.4599674
-0.96897942 -0.051206253 1.8455126
-0.9363718 -0.050451279 1.4498771
-0.92045194 -0.050067723 1.1802837
-0.47427642 0.0040450585 8.0409908
-0.87204987 -0.02509271 8.09342
-0.69403124 -0.03157201 2.7123985
-0.95581406 -0.04653886 2.6565204
-0.99743211 -0.050448515 2.1288188
-0.94973886 -0.049183588 1.6257404
-0.92045325 -0.048300762 1.2952673
-0.90844852 -0.04829473 1.0645134
-0.90130782 -0.050595142 0.96690202
-0.88518846 -0.050145768 0.79728431
-0.87051922 -0.049462624 0.65627056
-0.86826491 -0.049630955 0.54179835
-0.86631656 -0.049666185 0.43890804
-0.85280728 -0.049036156 0.34102574
-0.85820276 -0.049641732 0.25468066
-0.85491627 -0.049449082 0.16982636
-0.89456123 -0.048958741 0.87908798
-0.88242388 -0.048596259 0.72704947
-0.86694676 -0.047891121 0.59583938
-0.87568879 -0.048825953 0.49289995
-0.85865635 -0.048021853 0.38845813
-0.85427505 -0.047921315 0.29708093
-0.86018115 -0.048249975 0.21237628
-0.84771079 -0.047693864 0.12792566
-0.081654571 0.020173183 8.1339636
-1.2672069 -0.045652404 8.0612926
-1.3027031 -0.052998792 6.2916274
-0.82142985 -0.037447657 2.6759133
-1.0177386 -0.048815619 2.4599674
-0.9667601 -0.04770574 1.8411236
-0.93654221 -0.047182426 1.4498771
-0.9206211 -0.04685444 1.1802837
-0.47454807 0.0057046483 8.0459814
-0.87213218 -0.022048535 8.09342
-0.69413722 -0.029149197 2.7123985
-0.9559707 -0.043202162 2.6565204
-0.99760216 -0.046966519 2.1288188
-0.94990474 -0.04586808 1.6257404
-0.92061627 -0.045087487 1.2952673
-0.90522552 -0.044955384 1.0608382
-0.89791757 -0.047261417 0.9633975
-0.88535815 -0.047055576 0.79728431
-0.86651105 -0.046201158 0.65352911
-0.86843282 -0.046599843 0.54179835
-0.86648464 -0.046641871 0.43890804
-0.85297322 -0.046059005 0.34102574
-0.85346586 -0.046379235 0.25374803
-0.8550837 -0.046464566 0.16982636
-0.89099783 -0.045644987 0.87576252
-0.88258815 -0.045515727 0.72704947
-0.86710864 -0.044864621 0.59583938
-0.8758539 -0.045768932 0.49289995
-0.85881877 -0.045024291 0.38845813
-0.85443711 -0.044939045 0.29708093
-0.86034435 -0.045247089 0.21237628
-0.84787214 -0.044734512 0.12792566
-0.081583649 0.020458089 8.1339636
-1.2673585 -0.041228749 8.0612926
-1.3008453 -0.048375852 6.281837
-0.82155555 -0.034580104 2.6759133
-1.015951 -0.045176178 2.4553649
-0.96692073 -0.044330828 1.8411236
-0.93389022 -0.043781418 1.4457443
-0.92077905 -0.043640587 1.1802837
-0.47452524 0.0073610954 8.0459814
-0.87220383 -0.019004092 8.09342
-0.69297874 -0.026677994 2.7075593
-0.95611572 -0.039864939 2.6565204
-0.99776 -0.04348395 2.1288188
-0.95005912 -0.042552017 1.6257404
-0.92076802 -0.04187366 1.2952673
-0.90537697 -0.041795284 1.0608382
-0.89807707 -0.044126809 0.9633975
-0.885517 -0.043964811 0.79728431
-0.86666709 -0.043176189 0.65352911
-0.86859018 -0.04356816 0.54179835
-0.86664224 -0.043616991 0.43890804
-0.85312879 -0.043081291 0.34102574
-0.85362256 -0.043399803 0.25374803
-0.8552407 -0.043479484 0.16982636
-0.89115173 -0.042534545 0.87576252
-0.88274169 -0.042434644 0.72704947
-0.8629542 -0.041629996 0.59330624
-0.87600833 -0.042711355 0.49289995
-0.85425413 -0.041795503 0.38681462
-0.85458875 -0.041956231 0.29708093
-0.85555089 -0.042000879 0.21168561
-0.84802312 -0.041774612 0.12792566
-0.081511743 0.020742744 8.1339636
-1.2674948 -0.03680459 8.0612926
-1.2979532 -0.04373242 6.2671514
-0.82017976 -0.031654831 2.6711414
-1.0161026 -0.041629568 2.4553649
-0.96706957 -0.040955376 1.8411236
-0.93403733 -0.040521264 1.4457443
-0.9177236 -0.040285833 1.1764462
-0.47449666 0.0090174526 8.0459814
-0.87173182 -0.015949925 8.0884485
-0.69306761 -0.024258887 2.7075593
-0.95624906 -0.036527228 2.6565204
-0.99790573 -0.040000852 2.1288188
-0.95020187 -0.039235428 1.6257404
-0.92090857 -0.038659327 1.2952673
-0.90551734 -0.038634673 1.0608382
-0.89822567 -0.040991668 0.9633975
-0.88566512 -0.040873513 0.79728431
-0.86681247 -0.040150695 0.65352911
-0.86873698 -0.040535949 0.54179835
-0.86678916 -0.040591583 0.43890804
-0.85327399 -0.040103052 0.34102574
-0.85376883 -0.040419839 0.25374803
-0.85538727 -0.040493872 0.16982636
-0.89129472 -0.039423589 0.87576252
-0.88288444 -0.039353043 0.72704947
-0.86309427 -0.038617473 0.59330624
-0.87161827 -0.039448164 0.49080193
-0.85439485 -0.038813345 0.38681462
-0.85473001 -0.038972903 0.29708093
-0.85569233 -0.039014194 0.21168561
-0.84816378 -0.038814202 0.12792566
-0.081438839 0.021027146 8.1339636
-1.2683923 -0.032399647 8.0662327
-1.2960626 -0.039140329 6.2573614
-0.82028526 -0.028791675 2.6711414
-1.0162417 -0.038082454 2.4553649
-0.96481347 -0.03748665 1.8367344
-0.93417311 -0.037260618 1.4457443
-0.9178586 -0.037082136 1.1764462
-0.4744623 0.0106737 8.0459814
-0.87178218 -0.012906916 8.0884485
-0.69314808 -0.021839481 2.7075593
-0.95637071 -0.033189073 2.6565204
-0.99803925 -0.03651727 2.1288188
-0.950333 -0.035918366 1.6257404
-0.92103791 -0.03544452 1.2952673
-0.90564668 -0.035473593 1.0608382
-0.89836329 -0.037856024 0.9633975
-0.88580239 -0.037781715 0.79728431
-0.86694735 -0.037124708 0.65352911
-0.86887324 -0.037503242 0.54179835
-0.86229396 -0.037365075 0.43703499
-0.84861624 -0.036915917 0.3396157
-0.85390472 -0.037439384 0.25374803
-0.85552341 -0.037507769 0.16982636
-0.89142692 -0.036312144 0.87576252
-0.88301641 -0.036270961 0.72704947
-0.85891664 -0.035426963 0.59077305
-0.87175065 -0.036405407 0.49080193
-0.85452509 -0.035830714 0.38681462
-0.8548609 -0.035989102 0.29708093
-0.85582328 -0.036027033 0.21168561
-0.84330261 -0.035642374 0.12772413
-0.0814064 0.021324931 8.1389637
-1.2684976 -0.027971935 8.0662327
-1.2941556 -0.034561969 6.2475705
-0.82038075 -0.025928169 2.6711414
-1.0163685 -0.034534879 2.4553649
-0.9649384 -0.034118593 1.8367344
-0.93148535 -0.033897385 1.4416113
-0.91477942 -0.033759974 1.1726087
-0.47442216 0.012329818 8.0459814
-0.87128896 -0.0098579824 8.083477
-0.69322008 -0.01941981 2.7075593
-0.95648068 -0.029850515 2.6565204
-0.99598485 -0.032961443 2.1243174
-0.95045257 -0.032600868 1.6257404
-0.91814464 -0.032124121 1.2912773
-0.905765 -0.03231208 1.0608382
-0.89848995 -0.034719922 0.9633975
-0.88592887 -0.03468946 0.79728431
-0.86707163 -0.034098271 0.65352911
-0.86899877 -0.034470085 0.54179835
-0.86241913 -0.03435488 0.43703499
-0.84873992 -0.033953469 0.3396157
-0.85403019 -0.034458473 0.25374803
-0.85067314 -0.034320481 0.16937928
-0.89154828 -0.033200264 0.87576252
-0.87909842 -0.033036798 0.72410631
-0.85903502 -0.03242857 0.59077305
-0.87187243 -0.03336221 0.49080193
-0.85464501 -0.032847647 0.38681462
-0.85498124 -0.033004861 0.29708093
-0.8559438 -0.033039436 0.21168561
-0.84342188 -0.032698482 0.12772413
-0.081331469 0.02160896 8.1389637
-1.2685876 -0.023543881 8.0662327
-1.2932503 -0.030020855 6.2426753
-0.8219583 -0.023106026 2.6759133
-1.0145299 -0.030927557 2.4507625
-0.96505165 -0.030750122 1.8367344
-0.93159795 -0.030645687 1.4416113
-0.91489166 -0.030566592 1.1726087
-0.4743762 0.013985785 8.0459814
-0.87131804 -0.0068165562 8.083477
-0.69328368 -0.0169999 2.7075593
-0.95657909 -0.026511593 2.6565204
-0.99391788 -0.029420404 2.1198163
-0.94795376 -0.029202867 1.6214744
-0.91825116 -0.028919 1.2912773
-0.90587223 -0.029150175 1.0608382
-0.89860564 -0.031583395 0.9633975
-0.88604456 -0.03159678 0.79728431
-0.86718541 -0.031071421 0.65352911
-0.86911386 -0.031436503 0.54179835
-0.86253387 -0.031344265 0.43703499
-0.84885329 -0.03099061 0.3396157
-0.85414529 -0.031477138 0.25374803
-0.85078782 -0.031350866 0.16937928
-0.89165872 -0.03008798 0.87576252
-0.87920839 -0.029967969 0.72410631
-0.85914296 -0.02942978 0.59077305
-0.87198359 -0.030318605 0.49080193
-0.85475445 -0.029864177 0.38681462
-0.85023355 -0.029849734 0.2959086
-0.85605389 -0.030051431 0.21168561
-0.84353089 -0.02975419 0.12772413
-0.08125554 0.021892728 8.1389637
-1.268662 -0.019115541 8.0662327
-1.2923293 -0.025486486 6.2377801
-0.82203394 -0.020236714 2.6759133
-1.0146317 -0.027385999 2.4507625
-0.9651531 -0.027381275 1.8367344
-0.93169928 -0.027393617 1.4416113
-0.91499281 -0.027372839 1.1726087
-0.47432449 0.015641581 8.0459814
-0.87133652 -0.0037750471 8.083477
-0.69208205 -0.01455368 2.7027197
-0.95666581 -0.023172347 2.6565204
-0.99401456 -0.025950804 2.1198163
-0.94804996 -0.025893714 1.6214744
-0.91533452 -0.025629396 1.2872872
-0.90596849 -0.025987912 1.0608382
-0.89871043 -0.028446486 0.9633975
-0.88225913 -0.028378738 0.79414582
-0.86728859 -0.028044188 0.65352911
-0.86921829 -0.028402537 0.54179835
-0.862638 -0.028333269 0.43703499
-0.84895635 -0.028027369 0.3396157
-0.85424995 -0.028495425 0.25374803
-0.84591484 -0.028214892 0.1689322
-0.88802624 -0.026862603 0.872437
-0.87930769 -0.026898777 0.72410631
-0.86354929 -0.02656303 0.59330624
-0.87208408 -0.027274629 0.49080193
-0.85485345 -0.026880344 0.38681462
-0.85033256 -0.026881685 0.2959086
-0.85615361 -0.027063064 0.21168561
-0.8436296 -0.026809536 0.12772413
-0.081178628 0.02217623 8.1389637
-1.268721 -0.014686967 8.0662327
-1.2913923 -0.020958912 6.2328849
-0.82209957 -0.017367158 2.6759133
-1.0147212 -0.023844106 2.4507625
-0.96284854 -0.023952745 1.8323452
-0.93178922 -0.024141215 1.4416113
-0.91508275 -0.024178751 1.1726087
-0.47426701 0.017297188 8.0459814
-0.87134439 -0.00073349226 8.083477
-0.69338548 -0.012159493 2.7075593
-0.95501548 -0.01979728 2.6518276
-0.99192268 -0.022431877 2.115315
-0.94813454 -0.022584245 1.6214744
-0.91541839 -0.022434127 1.2872872
-0.90605372 -0.022825334 1.0608382
-0.89880425 -0.025309227 0.9633975
-0.88235283 -0.025298906 0.79414582
-0.8632015 -0.024896216 0.65078765
-0.86931211 -0.025368225 0.54179835
-0.86273164 -0.025321929 0.43703499
-0.84904897 -0.025063787 0.3396157
-0.85434425 -0.025513364 0.25374803
-0.84600818 -0.025261927 0.1689322
-0.88811457 -0.023762649 0.872437
-0.8793962 -0.023829257 0.72410631
-0.86363679 -0.023548519 0.59330624
-0.87217396 -0.02423032 0.49080193
-0.85494214 -0.023896186 0.38681462
-0.85042125 -0.023913305 0.2959086
-0.85129273 -0.02393523 0.21099493
-0.84871197 -0.024005793 0.12792566
-0.081059463 0.022445247 8.1339636
-1.2687645 -0.010258215 8.0662327
-1.2914575 -0.016450984 6.2328849
-0.82215518 -0.014497389 2.6759133
-1.0147982 -0.020301923 2.4507625
-0.96292627 -0.02059163 1.8323452
-0.93186784 -0.020888515 1.4416113
-0.91516161 -0.020984368 1.1726087
-0.47449219 0.018964723 8.0509739
-0.87134165 0.0023080716 8.083477
-0.69216675 -0.0097217215 2.7027197
-0.95507878 -0.016463535 2.6518276
-0.99199492 -0.018969284 2.115315
-0.94820762 -0.019274499 1.6214744
-0.9154911 -0.019238584 1.2872872
-0.90273851 -0.019589113 1.0571631
-0.8988871 -0.022171661 0.9633975
-0.8824358 -0.022218766 0.79414582
-0.86328316 -0.021882927 0.65078765
-0.86939538 -0.022333605 0.54179835
-0.86744916 -0.022430018 0.43890804
-0.85392672 -0.022224637 0.34102574
-0.84951752 -0.022401545 0.25281543
-0.84609121 -0.022308653 0.1689322
-0.88819212 -0.020662406 0.872437
-0.87947404 -0.020759447 0.72410631
-0.86371374 -0.02053372 0.59330624
-0.87225324 -0.021185717 0.49080193
-0.85502034 -0.020911736 0.38681462
-0.85535878 -0.021064242 0.29708093
-0.84642053 -0.020841664 0.21030425
-0.84879065 -0.02104309 0.12792566
-0.080980621 0.022728061 8.1339636
-1.2687926 -0.0058293389 8.0662327
-1.2915071 -0.011942855 6.2328849
-0.82070833 -0.011606603 2.6711414
-1.0148629 -0.016759492 2.4507625
-0.96299225 -0.017230263 1.8323452
-0.93193507 -0.017635562 1.4416113
-0.91522926 -0.017789731 1.1726087
-0.47442311 0.020620894 8.0509739
-0.87186128 0.0053531425 8.0884485
-0.69219649 -0.0073055495 2.7027197
-0.9551304 -0.013129586 2.6518276
-0.99205506 -0.01550646 2.115315
-0.94826913 -0.015964519 1.6214744
-0.91856545 -0.016095394 1.2912773
-0.90280133 -0.016437847 1.0571631
-0.89895904 -0.019033823 0.9633975
-0.88250792 -0.019138355 0.79414582
-0.86335421 -0.018869376 0.65078765
-0.86503935 -0.019200532 0.53947955
-0.86752218 -0.019401917 0.43890804
-0.85399908 -0.01924374 0.34102574
-0.84959054 -0.019436039 0.25281543
-0.85114259 -0.019468959 0.16937928
-0.88452578 -0.017488278 0.86911154
-0.87954116 -0.017689383 0.72410631
-0.86378014 -0.017518671 0.59330624
-0.86778438 -0.018046599 0.48870388
-0.85508806 -0.017927032 0.38681462
-0.85542709 -0.018078353 0.29708093
-0.84648812 -0.017886976 0.21030425
-0.84885895 -0.01808013 0.12792566
-0.080900796 0.023010597 8.1339636
-1.2688053 -0.0014003906 8.0662327
-1.2905227 -0.0074288934 6.2279897
-0.8207438 -0.0087417262 2.6711414
-1.0149152 -0.013216858 2.4507625
-0.96304655 -0.013868689 1.8323452
-0.93199092 -0.014382394 1.4416113
-0.91528583 -0.014594875 1.1726087
-0.47434822 0.022276815 8.0509739
-0.87183732 0.0083964737 8.0884485
-0.69221777 -0.004889288 2.7027197
-0.95517039 -0.0097954785 2.6518276
-0.99210316 -0.012043447 2.115315
-0.94831908 -0.012654345 1.6214744
-0.91861606 -0.012888904 1.2912773
-0.90285325 -0.013286383 1.0571631
-0.89901996 -0.015895754 0.9633975
-0.88256937 -0.016057711 0.79414582
-0.86341488 -0.015855592 0.65078765
-0.86510104 -0.016180862 0.53947955
-0.86758465 -0.01637358 0.43890804
-0.85406107 -0.01626261 0.34102574
-0.84965324 -0.016470296 0.25281543
-0.85120541 -0.016497798 0.16937928
-0.88458145 -0.0144006 0.86911154
-0.87959754 -0.014619103 0.72410631
-0.86383599 -0.01450341 0.59330624
-0.86784208 -0.015017357 0.48870388
-0.85514545 -0.014942108 0.38681462
-0.85548496 -0.015092246 0.29708093
-0.8415941 -0.014844784 0.20961356
-0.84891683 -0.01511695 0.12792566
-0.080861084 0.023307499 8.1389637
-1.2688024 0.0030285744 8.0662327
-1.2895226 -0.0029219512 6.2230945
-0.82076931 -0.0058767423 2.6711414
-1.0149552 -0.009674062 2.4507625
-0.96548402 -0.010532861 1.8367344
-0.93203545 -0.011129051 1.4416113
-0.91533118 -0.011399843 1.1726087
-0.47426757 0.023932463 8.0509739
-0.87180269 0.011439702 8.0884485
-0.69223064 -0.0024729674 2.7027197
-0.95519882 -0.006461252 2.6518276
-0.99431604 -0.008598906 2.1198163
-0.94574958 -0.0093185278 1.6172085
-0.9186554 -0.0096822577 1.2912773
-0.90289414 -0.010134757 1.0571631
-0.89906996 -0.012757493 0.9633975
-0.88262004 -0.01297687 0.79414582
-0.86346495 -0.012841614 0.65078765
-0.86072302 -0.013093738 0.53716075
-0.86300105 -0.013273845 0.43703499
-0.84931618 -0.01320677 0.3396157
-0.84970552 -0.013504352 0.25281543
-0.8512578 -0.013526437 0.16937928
-0.88462633 -0.011312747 0.86911154
-0.8796432 -0.011548646 0.72410631
-0.86388135 -0.011487971 0.59330624
-0.86788917 -0.011987932 0.48870388
-0.85519242 -0.011957001 0.38681462
-0.85553241 -0.012105955 0.29708093
-0.84164077 -0.011906981 0.20961356
-0.84896445 -0.012153585 0.12792566
-0.080779232 0.023589615 8.1389637
-1.268784 0.0074575022 8.0662327
-1.2885067 0.0015779187 6.2181988
-0.82078487 -0.003011687 2.6711414
-1.0149828 -0.0061311484 2.4507625
-0.96551484 -0.0071626287 1.8367344
-0.93206859 -0.007875572 1.4416113
-0.91536534 -0.0082046716 1.1726087
-0.47418118 0.02558782 8.0509739
-0.87175745 0.014482792 8.0884485
-0.69223505 -5.6616536e-05 2.7027197
-0.95521551 -0.0031269467 2.6518276
-0.99434 -0.0051280428 2.1198163
-0.94577634 -0.0060171885 1.6172085
-0.91868359 -0.0064754924 1.2912773
-0.902924 -0.0069830059 1.0571631
-0.89910907 -0.0096190758 0.9633975
-0.88265997 -0.0098958723 0.79414582
-0.86350447 -0.0098274807 0.65078765
-0.86076349 -0.010089174 0.53716075
-0.86304212 -0.010261329 0.43703499
-0.84935707 -0.010242023 0.3396157
-0.84974748 -0.010538245 0.25281543
-0.85129982 -0.010554911 0.16937928
-0.88466042 -0.0082247574 0.86911154
-0.87967813 -0.0084780473 0.72410631
-0.85960561 -0.0084302593 0.59077305
-0.86338741 -0.0089116255 0.48660582
-0.85050702 -0.0089223003 0.38517112
-0.85070902 -0.0090677673 0.2959086
-0.84662902 -0.0090217562 0.21030425
-0.84400606 -0.0091360109 0.12772413
-0.080696397 0.023871442 8.1389637
-1.2687503 0.011886341 8.0662327
-1.2874753 0.0060706614 6.213304
-0.82079035 -0.0001465948 2.6711414
-1.0130444 -0.0025833861 2.4461598
-0.96553397 -0.0037923092 1.8367344
-0.93209046 -0.0046219979 1.4416113
-0.91538841 -0.0050094007 1.1726087
-0.47408894 0.027242864 8.0509739
-0.8717016 0.017525705 8.0884485
-0.692231 0.0023597348 2.7027197
-0.95522064 0.00020739673 2.6518276
-0.99217486 -0.0016536972 2.115315
-0.9457916 -0.0027157767 1.6172085
-0.91870064 -0.0032686486 1.2912773
-0.9029429 -0.0038311707 1.0571631
-0.89913714 -0.0064805401 0.9633975
-0.88268912 -0.0068147541 0.79414582
-0.86353356 -0.0068132281 0.65078765
-0.86079347 -0.0070844875 0.53716075
-0.858437 -0.00720985 0.43516198
-0.84459078 -0.0072361263 0.33820567
-0.85469115 -0.0076157325 0.25374803
-0.85133141 -0.0075832554 0.16937928
-0.88468373 -0.0051366654 0.86911154
-0.87970239 -0.0054073464 0.72410631
-0.85962975 -0.0054296246 0.59077305
-0.86341327 -0.0058977865 0.48660582
-0.85053301 -0.0059534223 0.38517112
-0.85073549 -0.0060981829 0.2959086
-0.84665531 -0.0060664141 0.21030425
-0.84403276 -0.0061898245 0.12772413
-0.080653518 0.024168052 8.1439638
-1.2679242 0.016304862 8.0612926
-1.2854097 0.010547691 6.2035136
-0.82078588 0.0027184992 2.6711414
-1.0130472 0.00095281407 2.4461598
-0.96554136 -0.00042194358 1.8367344
-0.93210089 -0.001368367 1.4416113
-0.91219509 -0.0018079141 1.1687713
-0.47399098 0.028897576 8.0509739
-0.87163508 0.020568406 8.0884485
-0.69221854 0.0047760578 2.7027197
-0.95521408 0.0035417378 2.6518276
-0.99217463 0.0018096494 2.115315
-0.9457953 0.00058566843 1.6172085
-0.91870642 -6.1765211e-05 1.2912773
-0.90295076 -0.00067928847 1.0571631
-0.89558804 -0.0033288551 0.95989293
-0.88270754 -0.0037335528 0.79414582
-0.86355203 -0.003798892 0.65078765
-0.86081296 -0.004079714 0.53716075
-0.85845697 -0.0042133019 0.43516198
-0.84461093 -0.0042879102 0.33820567
-0.85471249 -0.0046322579 0.25374803
-0.84637284 -0.0045845639 0.1689322
-0.8846963 -0.0020485118 0.86911154
-0.87971592 -0.0023365794 0.72410631
-0.85964352 -0.0024289237 0.59077305
-0.85889018 -0.0028688253 0.48450777
-0.85054862 -0.0029844716 0.38517112
-0.85075164 -0.0031285246 0.2959086
-0.84667134 -0.0031109985 0.21030425
-0.84404927 -0.0032435625 0.12772413
-0.080527775 0.024434224 8.1389637
-1.2670826 0.020717761 8.0563536
-1.2833289 0.015010377 6.1937232
-0.8207714 0.0055835596 2.6711414
-1.0130377 0.0044890027 2.4461598
-0.96553695 0.0029484273 1.8367344
-0.929286 0.0018793871 1.4374783
-0.91219586 0.001376252 1.1687713
-0.47388721 0.03055194 8.0509739
-0.87155795 0.023610853 8.0884485
-0.69219768 0.0071923225 2.7027197
-0.95347035 0.0068633864 2.647135
-0.98998535 0.0052611963 2.1108139
-0.94578749 0.0038871064 1.6172085
-0.91568786 0.0031346013 1.2872872
-0.90294766 0.0024726018 1.0571631
-0.89559424 -0.00020264914 0.95989293
-0.88271523 -0.00065230567 0.79414582
-0.86356008 -0.00078450958 0.65078765
-0.86525166 -0.0010803035 0.53947955
-0.85846645 -0.0012167024 0.43516198
-0.8446207 -0.0013396419 0.33820567
-0.85472351 -0.0016487259 0.25374803
-0.84638369 -0.0016301431 0.1689322
-0.88469803 0.0010396671 0.86911154
-0.87971872 0.00073421653 0.72410631
-0.85964674 0.0005718068 0.59077305
-0.85889494 0.00012927818 0.48450777
-0.84583169 -1.5484611e-05 0.38352761
-0.85075736 -0.00015882838 0.2959086
-0.84667706 -0.00015554509 0.21030425
-0.84905142 -0.00029900536 0.12792566
-0.080441996 0.02471517 8.1389637
-1.2662257 0.025124984 8.0514145
-1.2812325 0.019458663 6.1839323
-0.81925422 0.008432921 2.6663692
-1.0130159 0.0080251368 2.4461598
-0.96552074 0.006318762 1.8367344
-0.92927378 0.0051231892 1.4374783
-0.91218549 0.0045604012 1.1687713
-0.47377768 0.032205928 8.0509739
-0.87200308 0.026669575 8.09342
-0.69216835 0.0096084988 2.7027197
-0.95344061 0.010191577 2.647135
-0.98778409 0.0086974809 2.1063125
-0.94576818 0.0071884971 1.6172085
-0.91567135 0.0063309292 1.2872872
-0.89954334 0.0056031612 1.0534879
-0.89558947 0.0029235594 0.95989293
-0.88271213 0.0024289493 0.79414582
-0.86355758 0.0022298822 0.65078765
-0.86525023 0.0019399952 0.53947955
-0.8631013 0.001789621 0.43703499
-0.84462029 0.0016086427 0.33820567
-0.85963631 0.0013425417 0.25468066
-0.84638423 0.0013242972 0.1689322
-0.88468903 0.0041278331 0.86911154
-0.87971073 0.0038050031 0.72410631
-0.85963953 0.0035725301 0.59077305
-0.85888922 0.00312738 0.48450777
-0.84582663 0.0029370191 0.38352761
-0.85075277 0.0028108698 0.2959086
-0.8417204 0.0027834889 0.20961356
-0.84904724 0.0026647388 0.12792566
-0.080355234 0.024995813 8.1389637
-1.2645768 0.029508173 8.0415363
-1.2781028 0.023873305 6.1692472
-0.81921983 0.0112926 2.6663692
-1.0110282 0.01153867 2.4415574
-0.96549278 0.00968902 1.8367344
-0.92925024 0.0083669284 1.4374783
-0.91216403 0.0077444948 1.1687713
-0.4739503 0.033880718 8.0559654
-0.87190467 0.029713269 8.09342
-0.69213057 0.012024559 2.7027197
-0.95167369 0.013494947 2.642442
-0.98774773 0.012145437 2.1063125
-0.9457373 0.0104898 1.6172085
-0.91564369 0.0095271803 1.2872872
-0.89951831 0.0087431194 1.0534879
-0.89914 0.0060740067 0.9633975
-0.87880599 0.0054857186 0.7910074
-0.86354452 0.0052442467 0.65078765
-0.86966795 0.0049857832 0.54179835
-0.8630898 0.0048023961 0.43703499
-0.8446095 0.0045569078 0.33820567
-0.85962635 0.0043432242 0.25468066
-0.84637445 0.0042787213 0.1689322
-0.88466924 0.0072159492 0.86911154
-0.87565029 0.0068439986 0.72116315
-0.85962176 0.00657321 0.59077305
-0.85887307 0.0061254441 0.48450777
-0.84581119 0.005889487 0.38352761
-0.85073775 0.0057805344 0.2959086
-0.84170556 0.0057216245 0.20961356
-0.84903276 0.0056284503 0.12792566
-0.080226757 0.025260508 8.1339636
-1.2652428 0.033943206 8.0464754
-1.2668142 0.028084379 6.1153998
-0.81917542 0.014152141 2.6663692
-1.0109817 0.015067746 2.4415574
-0.96545309 0.01305916 1.8367344
-0.92921537 0.011610567 1.4374783
-0.91213143 0.010928495 1.1687713
-0.47382915 0.035534907 8.0559654
-0.87179571 0.032756604 8.09342
-0.69208443 0.014440472 2.7027197
-0.95334625 0.016847545 2.647135
-0.98769927 0.015593247 2.1063125
-0.94569492 0.013790976 1.6172085
-0.91560489 0.012723315 1.2872872
-0.89948231 0.011882971 1.0534879
-0.89911336 0.0092125535 0.9633975
-0.8787815 0.0085532907 0.7910074
-0.86352092 0.0082585486 0.65078765
-0.86964518 0.0080214608 0.54179835
-0.86306781 0.0078151124 0.43703499
-0.84938526 0.0075478163 0.3396157
-0.85960597 0.0073438534 0.25468066
-0.8513341 0.0072756815 0.16937928
-0.88463867 0.010303977 0.86911154
-0.87562102 0.0099005476 0.72116315
-0.85959357 0.0095738098 0.59077305
-0.85884649 0.0091234334 0.48450777
-0.8457855 0.0088418834 0.38352761
-0.85071242 0.0087501276 0.2959086
-0.84168047 0.0086596906 0.20961356
-0.84401226 0.0085415216 0.12772413
-0.080138087 0.025540397 8.1339636
-1.2658932 0.038383249 8.0514145
-1.2473687 0.032006543 6.0223899
-0.81762868 0.016980251 2.6615975
-1.010923 0.018596638 2.4415574
-0.96540165 0.016429139 1.8367344
-0.92916918 0.014854063 1.4374783
-0.91208774 0.014112361 1.1687713
-0.47341445 0.037165459 8.0509739
-0.8722086 0.035821676 8.0983915
-0.69202977 0.01685621 2.7027197
-0.95845741 0.020285467 2.6612132
-0.98763883 0.019040866 2.1063125
-0.94564104 0.017091984 1.6172085
-0.91555488 0.015919294 1.2872872
-0.89943534 0.015022678 1.0534879
-0.89907569 0.012350989 0.9633975
-0.87874627 0.011620758 0.7910074
-0.86348689 0.011272749 0.65078765
-0.86961192 0.01105704 0.54179835
-0.8630352 0.010827733 0.43703499
-0.84935379 0.010512678 0.3396157
-0.85957509 0.010344394 0.25468066
-0.85130352 0.010247349 0.16937928
-0.8845973 0.013391879 0.86911154
-0.8755812 0.012956975 0.72116315
-0.85955495 0.012574294 0.59077305
-0.85880947 0.012121311 0.48450777
-0.8457495 0.011794171 0.38352761
-0.85067666 0.011719614 0.2959086
-0.84164512 0.011597651 0.20961356
-0.84397727 0.011487622 0.12772413
-0.080048449 0.025819976 8.1339636
-1.266528 0.042828243 8.0563536
-1.2248584 0.035703752 5.9146948
-0.81756443 0.019834206 2.6615975
-1.0108519 0.022125306 2.4415574
-0.96533841 0.019798921 1.8367344
-0.92629814 0.018042374 1.4333454
-0.9120329 0.017296055 1.1687713
-0.47328183 0.038817756 8.0509739
-0.87154573 0.038842037 8.09342
-0.69196671 0.019271743 2.7027197
-0.97390711 0.024015861 2.7034481
-0.98974282 0.022538023 2.1108139
-0.94557559 0.020392783 1.6172085
-0.91549373 0.019115081 1.2872872
-0.89937747 0.018162202 1.0534879
-0.89902711 0.015489274 0.9633975
-0.87870032 0.014688085 0.7910074
-0.86344224 0.014286811 0.65078765
-0.87399727 0.014164384 0.54411715
-0.86299217 0.013840223 0.43703499
-0.84931189 0.013477412 0.3396157
-0.85953373 0.013344808 0.25468066
-0.85126263 0.013218889 0.16937928
-0.88454521 0.016479619 0.86911154
-0.8755306 0.016013244 0.72116315
-0.85950577 0.015574624 0.59077305
-0.85876185 0.015119042 0.48450777
-0.85042459 0.014828728 0.38517112
-0.85549057 0.014772941 0.29708093
-0.84655088 0.014621031 0.21030425
-0.84393209 0.014433582 0.12772413
-0.079998404 0.026115313 8.1389637
-1.2663708 0.047248993 8.0563536
-1.1657021 0.038041685 5.6307716
-0.81749022 0.022687918 2.6615975
-1.0088155 0.025603926 2.4369547
-0.96765774 0.02322614 1.8411236
-0.92622954 0.021275647 1.4333454
-0.91196698 0.020479539 1.1687713
-0.47314343 0.040469583 8.0509739
-0.87140483 0.041884065 8.09342
-0.69189525 0.021687038 2.7027197
-0.98934215 0.027854355 2.745683
-0.98965812 0.025992731 2.1108139
-0.9454987 0.023693332 1.6172085
-0.91542143 0.022310633 1.2872872
-0.89930856 0.021301504 1.0534879
-0.89896756 0.01862737 0.9633975
-0.87864369 0.017755231 0.7910074
-0.86338711 0.017300699 0.65078765
-0.87394249 0.017215118 0.54411715
-0.86293864 0.016852543 0.43703499
-0.84925967 0.016441982 0.3396157
-0.85948193 0.016345059 0.25468066
-0.84623218 0.016095536 0.1689322
-0.88448226 0.019567156 0.86911154
-0.87546939 0.019069318 0.72116315
-0.85944623 0.018574763 0.59077305
-0.85870385 0.018116588 0.48450777
-0.85036761 0.017797174 0.38517112
-0.85543376 0.01775907 0.29708093
-0.84649467 0.017575955 0.21030425
-0.84387654 0.017379368 0.12772413
-0.079906754 0.026394401 8.1389637
-1.2669746 0.051701024 8.0612926
-1.1492815 0.041519217 5.5524483
-0.817406 0.02554135 2.6615975
-1.0087199 0.029125193 2.4369547
-0.96757072 0.026603753 1.8411236
-0.92614967 0.024508661 1.4333454
-0.91188991 0.023662772 1.1687713
-0.4729993 0.042120915 8.0509739
-0.87125331 0.044925578 8.09342
-0.69181532 0.024102071 2.7027197
-1.0030373 0.031746086 2.7832251
-0.98956138 0.029447125 2.1108139
-0.94541025 0.026993593 1.6172085
-0.91533798 0.025505915 1.2872872
-0.89922875 0.024440547 1.0534879
-0.8953318 0.021678729 0.95989293
-0.8785764 0.020822162 0.7910074
-0.85914117 0.020215863 0.64804614
-0.87387705 0.020265641 0.54411715
-0.85823989 0.019757865 0.43516198
-0.84919715 0.01940635 0.3396157
-0.85941964 0.019345112 0.25468066
-0.84617084 0.019049341 0.1689322
-0.88440859 0.022654457 0.86911154
-0.87135679 0.022022879 0.71822
-0.85937613 0.021574678 0.59077305
-0.86317247 0.02122559 0.48660582
-0.85030031 0.020765401 0.38517112
-0.85536653 0.020744983 0.29708093
-0.8464281 0.020530665 0.21030425
-0.84381074 0.02032494 0.12772413
-0.079814136 0.026673166 8.1389637
-1.2660102 0.056088708 8.0563536
-1.1694776 0.046340853 5.6503525
-0.81731188 0.028394474 2.6615975
-1.0086122 0.032646105 2.4369547
-0.96747196 0.029981043 1.8411236
-0.92605841 0.027741376 1.4333454
-0.91180176 0.026845718 1.1687713
-0.47284937 0.043771736 8.0509739
-0.87055892 0.047936976 8.0884485
-0.69047099 0.02646834 2.6978805
-1.0184418 0.03579459 2.82546
-0.98945254 0.032901157 2.1108139
-0.9427036 0.030209787 1.6129426
-0.91524333 0.028700883 1.2872872
-0.89913791 0.027579293 1.0534879
-0.89525068 0.024803888 0.95989293
-0.87849838 0.023888839 0.7910074
-0.85906535 0.023214703 0.64804614
-0.87380099 0.023315918 0.54411715
-0.85816574 0.022753561 0.43516198
-0.84912419 0.022370482 0.3396157
-0.85443628 0.022217195 0.25374803
-0.84112096 0.021873422 0.16848512
-0.88432407 0.02574148 0.86911154
-0.87127459 0.025064347 0.71822
-0.85929561 0.024574328 0.59077305
-0.86309314 0.024238495 0.48660582
-0.85022265 0.023733377 0.38517112
-0.85528892 0.023730643 0.29708093
-0.85130143 0.023622531 0.21099493
-0.84373462 0.023270264 0.12772413
-0.079720549 0.026951607 8.1389637
-1.2658066 0.060507566 8.0563536
-1.1825331 0.050995573 5.7139907
-0.81720781 0.031247253 2.6615975
-1.008492 0.03616662 2.4369547
-0.96496791 0.033275221 1.8367344
-0.92595595 0.030973757 1.4333454
-0.91170251 0.030028336 1.1687713
-0.47269371 0.045422021 8.0509739
-0.8703863 0.050975502 8.0884485
-0.69037437 0.028878374 2.6978805
-1.0321057 0.039884169 2.8630023
-0.98933166 0.036354791 2.1108139
-0.94259238 0.033500254 1.6129426
-0.91513759 0.031895503 1.2872872
-0.9024244 0.030833652 1.0571631
-0.89515865 0.027928745 0.95989293
-0.87840956 0.026955225 0.7910074
-0.85897911 0.026213259 0.64804614
-0.87371427 0.026365912 0.54411715
-0.85808104 0.025748979 0.43516198
-0.84424609 0.025191197 0.33820567
-0.85435349 0.025199601 0.25374803
-0.84103948 0.024809349 0.16848512
-0.88422883 0.028828191 0.86911154
-0.87118173 0.028105512 0.71822
-0.85920459 0.027573681 0.59077305
-0.86300325 0.027251104 0.48660582
-0.84541482 0.026552737 0.38352761
-0.85520089 0.026716014 0.29708093
-0.85121381 0.026593985 0.21099493
-0.84364825 0.026215307 0.12772413
-0.079625979 0.027229719 8.1389637
-1.2655877 0.064925686 8.0563536
-1.2464249 0.058122441 6.0223899
-0.81709373 0.03409965 2.6615975
-1.0083597 0.039686695 2.4369547
-0.9648459 0.036643386 1.8367344
-0.92584223 0.034205757 1.4333454
-0.91159213 0.03321059 1.1687713
-0.4725323 0.047071751 8.0509739
-0.87020308 0.054013405 8.0884485
-0.69026935 0.031288054 2.6978805
-1.0319601 0.043486647 2.8630023
-0.98919868 0.039807983 2.1108139
-0.94246966 0.036790311 1.6129426
-0.91502064 0.035089739 1.2872872
-0.90231127 0.03398351 1.0571631
-0.89149165 0.030929424 0.95638841
-0.87831014 0.030021282 0.7910074
-0.85888237 0.029211495 0.64804614
-0.87361693 0.02941558 0.54411715
-0.85798591 0.028744085 0.43516198
-0.84415299 0.028138012 0.33820567
-0.85426039 0.028181696 0.25374803
-0.84094781 0.027744973 0.16848512
-0.88412285 0.031914547 0.86911154
-0.87107831 0.031146331 0.71822
-0.85479504 0.030419243 0.58823985
-0.86290288 0.030263381 0.48660582
-0.84531701 0.029503625 0.38352761
-0.85510242 0.02970106 0.29708093
-0.85111582 0.029565115 0.21099493
-0.84355164 0.029160028 0.12772413
-0.079530448 0.027507499 8.1389637
-1.2653533 0.069343016 8.0563536
-1.2706206 0.063700743 6.1398754
-0.81696969 0.036951631 2.6615975
-1.0062631 0.043122429 2.4323523
-0.96231914 0.039911643 1.8323452
-0.92571712 0.037437338 1.4333454
-0.90826797 0.036264367 1.1649337
-0.47236508 0.048720911 8.0509739
-0.87000918 0.057050649 8.0884485
-0.69015592 0.033697352 2.6978805
-1.043869 0.047640774 2.8958514
-0.98905373 0.043260686 2.1108139
-0.94233555 0.040079918 1.6129426
-0.91489261 0.038283542 1.2872872
-0.90218717 0.037132956 1.0571631
-0.89137822 0.034041122 0.95638841
-0.87819999 0.033086974 0.7910074
-0.85877514 0.032209378 0.64804614
-0.87350893 0.032464892 0.54411715
-0.85324764 0.031567346 0.43328893
-0.84404963 0.031084485 0.33820567
-0.85415673 0.03116345 0.25374803
-0.84084582 0.03068026 0.16848512
-0.88027519 0.034852631 0.86578602
-0.87096429 0.034186769 0.71822
-0.85468364 0.033402853 0.58823985
-0.85825688 0.033100277 0.48450777
-0.84520888 0.032454152 0.38352761
-0.85499352 0.032685746 0.29708093
-0.8510074 0.032535885 0.21099493
-0.8384524 0.031914357 0.1275226
-0.07943394 0.027784945 8.1389637
-1.2651036 0.073759496 8.0563536
-1.2815746 0.068737447 6.1937232
-0.81683576 0.039803162 2.6615975
-1.0061065 0.046634678 2.4323523
-0.96217394 0.043270517 1.8323452
-0.9255808 0.040668469 1.4333454
-0.90813583 0.039434593 1.1649337
-0.47219214 0.050369479 8.0509739
-0.86927301 0.060050208 8.083477
-0.69003409 0.036106244 2.6978805
-1.0454201 0.051369172 2.9005444
-0.98889667 0.046712864 2.1108139
-0.94218987 0.04336904 1.6129426
-0.91475338 0.041476879 1.2872872
-0.90205204 0.040281955 1.0571631
-0.89125395 0.037152402 0.95638841
-0.87807918 0.036152262 0.7910074
-0.85865748 0.035206866 0.64804614
-0.86896414 0.035333719 0.54179835
-0.85313225 0.034545541 0.43328893
-0.84393591 0.034030579 0.33820567
-0.85404277 0.034144826 0.25374803
-0.84073359 0.033615172 0.16848512
-0.88014823 0.037925154 0.86578602
-0.87083966 0.037226796 0.71822
-0.85456187 0.03638605 0.58823985
-0.85360157 0.035905104 0.48240969
-0.84509045 0.035404284 0.38352761
-0.85487425 0.035670027 0.29708093
-0.85088867 0.035506252 0.21099493
-0.83833587 0.034840908 0.1275226
-0.07937663 0.028079106 8.1439638
-1.2648385 0.078175083 8.0563536
-1.2823434 0.073268808 6.1986179
-0.81669182 0.042654209 2.6615975
-1.0059376 0.05014636 2.4323523
-0.962017 0.04662887 1.8323452
-0.92543322 0.0438991 1.4333454
-0.90799272 0.042604335 1.1649337
-0.47201344 0.052017424 8.0509739
-0.86905807 0.06308417 8.083477
-0.68990386 0.038514692 2.6978805
-1.0417879 0.054836225 2.8911588
-0.98655343 0.050053954 2.1063125
-0.94203275 0.046657633 1.6129426
-0.91460299 0.04466971 1.2872872
-0.90190589 0.043430455 1.0571631
-0.89468151 0.040424392 0.95989293
-0.87794763 0.039217111 0.7910074
-0.85852939 0.038203925 0.64804614
-0.86883545 0.038366754 0.54179835
-0.85300642 0.037523318 0.43328893
-0.8486045 0.037186336 0.3396157
-0.85391837 0.037125785 0.25374803
-0.84558636 0.03676603 0.1689322
-0.88001049 0.040997211 0.86578602
-0.87070447 0.040266369 0.71822
-0.85442966 0.039368805 0.58823985
-0.84893721 0.038677838 0.48031163
-0.8449617 0.038353983 0.38352761
-0.85474455 0.03865388 0.29708093
-0.85075957 0.038476195 0.21099493
-0.83820915 0.03776703 0.1275226
-0.079278134 0.028356012 8.1439638
-1.2645578 0.082589723 8.0563536
-1.2830961 0.077806376 6.2035136
-0.81653798 0.045504734 2.6615975
-1.0077072 0.053761724 2.4369547
-0.96184838 0.049986653 1.8323452
-0.92527437 0.047129199 1.4333454
-0.9078384 0.045773562 1.1649337
-0.47211578 0.053697973 8.0559654
-0.86883259 0.066117361 8.083477
-0.68976521 0.040922668 2.6978805
-1.0381442 0.058278546 2.8817732
-0.98637271 0.053497363 2.1063125
-0.94186413 0.049945656 1.6129426
-0.91444153 0.047862001 1.2872872
-0.90174884 0.04657843 1.0571631
-0.89453489 0.043547165 0.95989293
-0.87780535 0.042281479 0.7910074
-0.85839081 0.041200519 0.64804614
-0.86869627 0.041399322 0.54179835
-0.85287023 0.040500637 0.43328893
-0.8484695 0.040148292 0.3396157
-0.85378361 0.040106285 0.25374803
-0.84545285 0.039717451 0.1689322
-0.87986201 0.044068769 0.86578602
-0.87055856 0.043305449 0.71822
-0.85428697 0.042351078 0.58823985
-0.84879702 0.041640945 0.48031163
-0.84482265 0.041303217 0.38352761
-0.84974945 0.041400664 0.2959086
-0.85062003 0.041445665 0.21099493
-0.83807218 0.040692702 0.1275226
-0.079218708 0.028649906 8.148963
-1.2642618 0.08700335 8.0563536
-1.2838329 0.082350112 6.2084088
-0.81637412 0.048354708 2.6615975
-1.0075135 0.05727895 2.4369547
-0.96166801 0.053343825 1.8323452
-0.9251042 0.05035872 1.4333454
-0.90767318 0.048942231 1.1649337
-0.47221214 0.055379875 8.060957
-0.86859649 0.069149747 8.083477
-0.68961817 0.043330148 2.6978805
-1.0362118 0.061799046 2.8770804
-0.98617995 0.056940123 2.1063125
-0.94168407 0.053233068 1.6129426
-0.91426885 0.051053707 1.2872872
-0.90158075 0.049725838 1.0571631
-0.89437741 0.046669405 0.95989293
-0.87765241 0.045345332 0.7910074
-0.85824174 0.044196613 0.64804614
-0.86854649 0.044431385 0.54179835
-0.85272372 0.043477464 0.43328893
-0.84832418 0.043109756 0.3396157
-0.85363841 0.043086305 0.25374803
-0.84530908 0.042668391 0.1689322
-0.8834312 0.04733976 0.86911154
-0.8704021 0.046344001 0.71822
-0.85843867 0.045561455 0.59077305
-0.84864646 0.044603549 0.48031163
-0.84467334 0.044251945 0.38352761
-0.84959972 0.044366587 0.2959086
-0.85047019 0.044414628 0.21099493
-0.83792508 0.043617867 0.1275226
-0.079118215 0.028926255 8.148963
-1.2639503 0.091415919 8.0563536
-1.2845535 0.086899921 6.213304
-0.81620038 0.051204089 2.6615975
-1.0073074 0.060795482 2.4369547
-0.96147603 0.056700349 1.8323452
-0.92492276 0.05358763 1.4333454
-0.90749675 0.052110303 1.1649337
-0.47230247 0.057063095 8.0659485
-0.86834985 0.072181299 8.083477
-0.68946272 0.045737103 2.6978805
-1.0342675 0.065306768 2.8723876
-0.98597515 0.060382187 2.1063125
-0.93888915 0.056363348 1.6086767
-0.91408509 0.054244787 1.2872872
-0.9014017 0.052872639 1.0571631
-0.89420915 0.049791083 0.95989293
-0.87748879 0.048408635 0.7910074
-0.85808223 0.047192164 0.64804614
-0.86838609 0.047462907 0.54179835
-0.85256678 0.046453759 0.43328893
-0.84816855 0.046070702 0.3396157
-0.85348284 0.046065796 0.25374803
-0.8401823 0.045350369 0.16848512
-0.88326055 0.05042322 0.86911154
-0.87023503 0.049381986 0.71822
-0.85827446 0.048557688 0.59077305
-0.85301703 0.047819745 0.48240969
-0.84451371 0.047200136 0.38352761
-0.84943974 0.047331974 0.2959086
-0.84536558 0.047107484 0.21030425
-0.83776772 0.04654251 0.1275226
-0.07905668 0.029219868 8.1539621
-1.2643983 0.095886298 8.0612926
-1.2862736 0.0915282 6.2230945
-0.81601667 0.054052852 2.6615975
-1.007089 0.064311273 2.4369547
-0.96127224 0.06005618 1.8323452
-0.92473012 0.056815885 1.4333454
-0.90730935 0.055277742 1.1649337
-0.47238681 0.058747623 8.07094
-0.8680926 0.075211965 8.083477
-0.68929887 0.048143499 2.6978805
-1.0357552 0.069031604 2.8770804
-0.98575842 0.063823514 2.1063125
-0.93868673 0.059640337 1.6086767
-0.91389018 0.057435207 1.2872872
-0.90121162 0.056018796 1.0571631
-0.89402986 0.052912153 0.95989293
-0.87731451 0.051471349 0.7910074
-0.86208659 0.050431486 0.65078765
-0.86821508 0.050493851 0.54179835
-0.85239941 0.049429491 0.43328893
-0.8432135 0.048754107 0.33820567
-0.85331684 0.049044725 0.25374803
-0.84001893 0.048282877 0.16848512
-0.88307917 0.053506069 0.86911154
-0.87005734 0.052419376 0.71822
-0.8580997 0.051553331 0.59077305
-0.85737544 0.051066991 0.48450777
-0.84434378 0.050147753 0.38352761
-0.84926933 0.050296783 0.2959086
-0.84519601 0.050058074 0.21030425
-0.83760017 0.04946658 0.1275226
-0.078954205 0.029495649 8.1539621
-1.264056 0.10029929 8.0612926
-1.2869616 0.096093565 6.2279897
-0.81582308 0.056900952 2.6615975
-1.0068583 0.067826271 2.4369547
-0.96105671 0.063411281 1.8323452
-0.92452615 0.06004345 1.4333454
-0.90711087 0.0584445 1.1649337
-0.47217885 0.060396202 8.07094
-0.86782479 0.078241721 8.083477
-0.68912661 0.050549306 2.6978805
-1.0372293 0.072767623 2.8817732
-0.9855296 0.067264058 2.1063125
-0.93847281 0.062916599 1.6086767
-0.91368413 0.060624935 1.2872872
-0.89762771 0.058941953 1.0534879
-0.89383972 0.056032576 0.95989293
-0.87324464 0.054291748 0.78786892
-0.86190528 0.053440422 0.65078765
-0.86803359 0.053524178 0.54179835
-0.85222167 0.05240462 0.43328893
-0.8430382 0.051697176 0.33820567
-0.84823728 0.051724028 0.25281543
-0.83984524 0.051214796 0.16848512
-0.88288707 0.056588262 0.86911154
-0.86986905 0.055456121 0.71822
-0.85361242 0.054274663 0.58823985
-0.86172146 0.054345243 0.48660582
-0.8441636 0.053094756 0.38352761
-0.84908855 0.053260982 0.2959086
-0.84501612 0.053008053 0.21030425
-0.8424086 0.052702006 0.12772413
-0.078850761 0.029771071 8.1539621
-1.2644725 0.10477541 8.0662327
-1.2876334 0.10066485 6.2328849
-0.81561941 0.059748359 2.6615975
-1.0066155 0.071340457 2.4369547
-0.9608295 0.066765614 1.8323452
-0.92431086 0.063270286 1.4333454
-0.90690136 0.061610557 1.1649337
-0.47196516 0.062044051 8.07094
-0.86754632 0.081270516 8.083477
-0.68894601 0.052954499 2.6978805
-1.03869 0.076514766 2.8864658
-0.9852888 0.07070379 2.1063125
-0.9382475 0.066192098 1.6086767
-0.91346699 0.063813917 1.2872872
-0.89741653 0.062074896 1.0534879
-0.89008021 0.058916591 0.95638841
-0.87304986 0.057339609 0.78786892
-0.86171353 0.056448709 0.65078765
-0.87226188 0.05684204 0.54411715
-0.85203356 0.055379108 0.43328893
-0.84285259 0.054639615 0.33820567
-0.84805155 0.054684609 0.25281543
-0.84463096 0.054466587 0.1689322
-0.88268411 0.059669767 0.86911154
-0.86967021 0.058492195 0.71822
-0.85341775 0.057253994 0.58823985
-0.86152655 0.057352886 0.48660582
-0.84397316 0.056041118 0.38352761
-0.84889752 0.056224529 0.2959086
-0.8398847 0.055630058 0.20961356
-0.84221947 0.055642236 0.12772413
-0.078746364 0.03004613 8.1539621
-1.264099 0.10918859 8.0662327
-1.2882891 0.10524199 6.2377801
-0.81540591 0.06259504 2.6615975
-1.0044122 0.074708633 2.4323523
-0.958202 0.069944553 1.8279562
-0.92408442 0.066496342 1.4333454
-0.90668076 0.064775854 1.1649337
-0.47145969 0.063651904 8.0659485
-0.86725742 0.084298313 8.083477
-0.68875694 0.055359047 2.6978805
-1.0384165 0.08014001 2.8864658
-0.98503602 0.074142657 2.1063125
-0.93801069 0.069466792 1.6086767
-0.91023344 0.066781439 1.2832973
-0.89719433 0.065207087 1.0534879
-0.88986915 0.062023189 0.95638841
-0.8728444 0.060386773 0.78786892
-0.86151123 0.059456307 0.65078765
-0.87205815 0.059886452 0.54411715
-0.85183501 0.058352925 0.43328893
-0.84265673 0.057581384 0.33820567
-0.84785551 0.057644535 0.25281543
-0.84443569 0.057414569 0.1689322
-0.87874609 0.062485542 0.86578602
-0.87349266 0.06181303 0.72116315
-0.85321271 0.060232632 0.58823985
-0.86584848 0.060677204 0.48870388
-0.84377241 0.05898679 0.38352761
-0.84384727 0.058849178 0.29473627
-0.83968538 0.058561459 0.20961356
-0.84202009 0.058581796 0.12772413
-0.078641005 0.030320823 8.1539621
-1.2637103 0.11360046 8.0662327
-1.2889283 0.10982493 6.2426753
-0.81518245 0.065440953 2.6615975
-1.0041451 0.078214236 2.4323523
-0.95795202 0.07328888 1.8279562
-0.92384666 0.069721594 1.4333454
-0.90644908 0.067940369 1.1649337
-0.47123465 0.065297216 8.0659485
-0.86642748 0.087271415 8.0785046
-0.68855953 0.057762917 2.6978805
-1.0381305 0.08376427 2.8864658
-0.98260105 0.077409454 2.1018114
-0.9377625 0.072740637 1.6086767
-0.90999478 0.069958337 1.2832973
-0.89696127 0.068338484 1.0534879
-0.88964719 0.065129034 0.95638841
-0.87262827 0.0634332 0.78786892
-0.86129838 0.062463183 0.65078765
-0.87626213 0.063249171 0.54643595
-0.85162616 0.061326023 0.43328893
-0.84245062 0.060522452 0.33820567
-0.84764916 0.060603749 0.25281543
-0.84423012 0.060361847 0.1689322
-0.87852263 0.065552562 0.86578602
-0.87327158 0.064861715 0.72116315
-0.85729629 0.063529246 0.59077305
-0.8656314 0.063699208 0.48870388
-0.83885181 0.061585903 0.3818841
-0.84363669 0.061794396 0.29473627
-0.83947587 0.061492153 0.20961356
-0.83682781 0.061156478 0.1275226
-0.078534685 0.030595146 8.1539621
-1.263306 0.11801094 8.0662327
-1.2895514 0.11441363 6.2475705
-0.81643647 0.06841097 2.6663692
-1.0038661 0.081718884 2.4323523
-0.95769036 0.076632306 1.8279562
-0.92359769 0.072945997 1.4333454
-0.90620643 0.071104057 1.1649337
-0.47071815 0.066900522 8.060957
-0.8661176 0.090295278 8.0785046
-0.68835366 0.060166087 2.6978805
-1.0378318 0.08738751 2.8864658
-0.9823249 0.080838896 2.1018114
-0.94010234 0.076224573 1.6129426
-0.9097451 0.073134385 1.2832973
-0.89671725 0.071469046 1.0534879
-0.88941443 0.068234086 0.95638841
-0.87240154 0.066478856 0.78786892
-0.8610751 0.065469287 0.65078765
-0.87161887 0.065973058 0.54411715
-0.85602963 0.064647593 0.43516198
-0.84223419 0.063462786 0.33820567
-0.84253395 0.063194767 0.25188279
-0.84401429 0.063308395 0.1689322
-0.87828845 0.068618782 0.86578602
-0.87303984 0.067909606 0.72116315
-0.85706925 0.066521384 0.59077305
-0.86540383 0.066720441 0.48870388
-0.83863175 0.064513668 0.3818841
-0.84341586 0.064738862 0.29473627
-0.83925611 0.064422093 0.20961356
-0.83660924 0.064077184 0.1275226
-0.078427404 0.030869098 8.1539621
-1.2621131 0.12234483 8.0612926
-1.289144 0.11891431 6.2475705
-0.81619275 0.071260452 2.6663692
-1.0035747 0.085222527 2.4323523
-0.95741701 0.0799748 1.8279562
-0.9233374 0.076169506 1.4333454
-0.90595269 0.074266873 1.1649337
-0.47048175 0.068543218 8.060957
-0.8652671 0.093260653 8.0735331
-0.68813944 0.062568523 2.6978805
-1.0358013 0.090858683 2.8817732
-0.98203671 0.084267356 2.1018114
-0.9398306 0.079505682 1.6129426
-0.90948427 0.076309539 1.2832973
-0.89646232 0.074598737 1.0534879
-0.88917083 0.071338311 0.95638841
-0.87216419 0.0695237 0.78786892
-0.85667306 0.068142898 0.64804614
-0.87138325 0.069015175 0.54411715
-0.85579878 0.067635298 0.43516198
-0.84200758 0.066402346 0.33820567
-0.84230816 0.066135377 0.25188279
-0.84378815 0.066254169 0.1689322
-0.88176495 0.071988143 0.86911154
-0.86876875 0.070628978 0.71822
-0.86112857 0.069861434 0.59330624
-0.86516565 0.069740862 0.48870388
-0.8384015 0.067440644 0.3818841
-0.84802967 0.068071507 0.2959086
-0.83902609 0.067351259 0.20961356
-0.83638048 0.066997103 0.1275226
-0.07835865 0.031161256 8.1589622
-1.2616782 0.12674968 8.0612926
-1.2897346 0.12351077 6.2524657
-0.81593901 0.074109063 2.6663692
-1.0032711 0.088725135 2.4323523
-0.95713204 0.083316326 1.8279562
-0.9230659 0.079392098 1.4333454
-0.90568793 0.077428788 1.1649337
-0.470525 0.070228308 8.0659485
-0.86493629 0.096280433 8.0735331
-0.68791687 0.064970203 2.6978805
-1.0354779 0.094473757 2.8817732
-0.98390478 0.08788868 2.1063125
-0.9395473 0.082785815 1.6129426
-0.90921235 0.07948377 1.2832973
-0.89619642 0.077727519 1.0534879
-0.88891643 0.074441656 0.95638841
-0.87191617 0.072567701 0.78786892
-0.85642999 0.071132831 0.64804614
-0.86672229 0.071691163 0.54179835
-0.8555575 0.070622183 0.43516198
-0.84177065 0.069341093 0.33820567
-0.84207219 0.069075175 0.25188279
-0.8435517 0.069199137 0.1689322
-0.88150829 0.075065643 0.86911154
-0.86851692 0.073661119 0.71822
-0.86087948 0.072866909 0.59330624
-0.86491692 0.072760418 0.48870388
-0.83816093 0.0703668 0.3818841
-0.84294331 0.070625395 0.29473627
-0.83878589 0.070279591 0.20961356
-0.83614153 0.069916204 0.1275226
-0.078249402 0.031434588 8.1589622
-1.2604554 0.13107245 8.0563536
-1.2892957 0.12801203 6.2524657
-0.81567532 0.076956771 2.6663692
-1.0029553 0.092226669 2.4323523
-0.95683539 0.086656831 1.8279562
-0.9227832 0.082613714 1.4333454
-0.90541214 0.080589749 1.1649337
-0.47027701 0.071870312 8.0659485
-0.86406547 0.099237956 8.0685616
-0.68768585 0.067371078 2.6978805
-1.0334238 0.097924665 2.8770804
-0.98359203 0.091322616 2.1063125
-0.93925261 0.086064942 1.6129426
-0.90892935 0.082657024 1.2832973
-0.8992961 0.081160262 1.0571631
-0.88865113 0.077544101 0.95638841
-0.87165749 0.075610809 0.78786892
-0.8561765 0.074121892 0.64804614
-0.86646676 0.074716158 0.54179835
-0.85530573 0.073608205 0.43516198
-0.84152347 0.072278999 0.33820567
-0.84182596 0.072014138 0.25188279
-0.84330499 0.072143257 0.1689322
-0.8812409 0.078142226 0.86911154
-0.86825448 0.076692365 0.71822
-0.86061984 0.07587149 0.59330624
-0.86013645 0.075382754 0.48660582
-0.84261441 0.073703662 0.38352761
-0.84269166 0.073567383 0.29473627
-0.83853549 0.073207073 0.20961356
-0.83589238 0.072834462 0.1275226
-0.078139201 0.03170754 8.1589622
-1.2592175 0.13538821 8.0514145
-1.2898539 0.13261606 6.2573614
-0.81540173 0.079803541 2.6663692
-1.0026273 0.095727071 2.4323523
-0.95652705 0.089996286 1.8279562
-0.92248917 0.085834324 1.4333454
-0.90512532 0.083749734 1.1649337
-0.47030842 0.073556669 8.07094
-0.86371374 0.1022535 8.0685616
-0.68744653 0.069771141 2.6978805
-1.0330757 0.10153139 2.8770804
-0.98326719 0.094755441 2.1063125
-0.93894649 0.089343019 1.6129426
-0.90863526 0.08582928 1.2832973
-0.89900732 0.084298894 1.0571631
-0.88837504 0.080645598 0.95638841
-0.87138832 0.078653 0.78786892
-0.85591251 0.07711006 0.64804614
-0.86178857 0.077344134 0.53947955
-0.85504359 0.076593332 0.43516198
-0.84126604 0.075216025 0.33820567
-0.84156942 0.074952215 0.25188279
-0.84304804 0.075086504 0.1689322
-0.88096279 0.081217848 0.86911154
-0.86798149 0.079722673 0.71822
-0.86034977 0.078875147 0.59330624
-0.85986805 0.078384727 0.48660582
-0.84235203 0.076644488 0.38352761
-0.84727037 0.076948158 0.2959086
-0.83827484 0.076133661 0.20961356
-0.8356331 0.075751826 0.1275226
-0.078028038 0.031980101 8.1589622
-1.2587373 0.13978288 8.0514145
-1.2893832 0.13711767 6.2573614
-0.8136332 0.082498491 2.6615975
-1.002287 0.099226311 2.4323523
-0.9562071 0.09333463 1.8279562
-0.92218393 0.089053892 1.4333454
-0.90482748 0.086908706 1.1649337
-0.47004879 0.075197898 8.07094
-0.86335158 0.1052678 8.0685616
-0.68719876 0.072170354 2.6978805
-1.0344318 0.10531187 2.8817732
