# .PCD v0.7 - Point Cloud Data file format
VERSION 0.7
FIELDS x y z
SIZE 4 4 4
TYPE F F F
COUNT 1 1 1
WIDTH 1526
HEIGHT 1
VIEWPOINT 0 0 0 1 0 0 0
POINTS 1526
DATA ascii
2.5214152 -10.550648 25.615267
2.048327 -8.5184317 16.123188
2.4938564 -10.323848 15.671353
3.1569591 -13.039105 16.138874
1.4713185 -6.3268323 25.046341
2.3553722 -9.9789343 27.936453
1.8778664 -7.8881531 16.829784
2.3582921 -9.8529711 16.641829
2.5942333 -10.805493 14.789529
3.2132905 -13.343062 14.956635
3.3252876 -13.630342 13.867137
3.4611177 -14.154967 11.832097
4.2383995 -17.320778 11.775658
5.4674501 -22.309792 12.110291
5.3260131 -21.716284 9.1222887
5.9231482 -24.132866 7.3940101
3.3734021 -13.911921 12.830935
3.6320448 -14.955812 11.290053
5.1537609 -21.205782 12.909622
5.4019713 -22.159708 8.0274887
8.0203075 -32.875641 8.2524271
6.2752924 -25.703274 1.1609732
-0.0029812204 -0.067676738 6.254035
1.4154586 -6.3571076 41.401283
1.7326537 -7.4449883 24.483881
2.4832289 -10.553679 25.60146
2.0141654 -8.5068846 16.088074
2.3451486 -9.8588772 14.956353
3.1091948 -13.040691 16.127363
1.4478227 -6.3258033 25.022144
2.0116084 -8.6575041 24.224474
1.8488297 -7.8883009 16.816278
2.3107238 -9.8052959 16.547977
2.5627379 -10.840875 14.825439
3.1643484 -13.344303 14.94561
3.2751892 -13.631463 13.856624
3.4080415 -14.151827 11.819544
4.1975064 -17.416767 11.830486
5.4009748 -22.376108 12.135798
5.2196975 -21.608566 9.0698433
5.7870221 -23.938906 7.3291478
3.3222182 -13.912716 12.820959
3.5798173 -14.968399 11.290053
5.0716801 -21.190104 12.889357
5.2705703 -21.953436 7.9469562
7.9089088 -32.917614 8.2559443
5.9694571 -24.826385 1.1236899
-0.0032174382 -0.06766592 6.254035
1.3910991 -6.3521423 41.337074
1.3097321 -5.8487997 28.839043
1.7086548 -7.4597211 24.51251
2.4450521 -10.556574 25.587652
1.9942442 -8.5558481 16.167078
2.3549929 -10.056057 15.241527
3.0614581 -13.042105 16.11585
1.4229715 -6.3185563 24.973751
1.9813759 -8.6644726 24.224474
1.8271554 -7.9201617 16.870295
2.2670534 -9.7726526 16.479723
2.5262465 -10.855624 14.833419
3.1154366 -13.345362 14.934584
3.2251232 -13.6324 13.846108
3.3559272 -14.152274 11.810128
4.1511674 -17.49234 11.871609
5.1163454 -21.509392 9.0211449
5.8034053 -24.37896 7.4560513
3.2710698 -13.913322 12.810982
3.5284719 -14.984737 11.292995
5.2001572 -22.015282 10.544669
5.1482806 -21.77869 7.8779292
7.8107419 -33.015976 8.2735291
5.8539858 -24.725534 1.1186516
-0.0034536168 -0.067654274 6.254035
1.3656468 -6.3417673 41.238289
1.2914979 -5.8632793 28.887997
1.6858867 -7.4802022 24.560232
2.4068854 -10.559329 25.573845
2.336942 -10.138253 15.353116
3.0130277 -13.040219 16.1005
1.4019941 -6.3283935 24.993107
1.9522555 -8.6763868 24.238552
1.8019074 -7.9371071 16.892801
2.1899722 -9.5923538 16.164043
2.4809382 -10.832067 14.789529
3.0665562 -13.346244 14.923558
3.1750908 -13.633155 13.835596
3.3029671 -14.148742 11.797575
4.109108 -17.58816 11.926438
5.3284006 -22.771271 12.328259
5.0465178 -21.54969 9.0305099
5.7883258 -24.697983 7.5462933
3.2207997 -13.917381 12.804331
3.4761438 -14.996963 11.292995
5.5080934 -23.744574 14.409264
5.1232777 -22.0333 10.544669
5.0861411 -21.856318 7.8992944
7.7086768 -33.099846 8.2875967
5.8515606 -25.105867 1.1335649
-0.0036897527 -0.06764181 6.254035
1.3505805 -6.3799429 41.455616
1.2712389 -5.8687468 28.892891
1.6617042 -7.4947848 24.588863
2.3683019 -10.560041 25.555435
2.3009162 -10.143605 15.348984
2.9646478 -13.038156 16.08515
2.1994066 -9.9367123 27.729971
2.4397998 -10.825964 14.769579
3.0177073 -13.346947 14.912534
3.125093 -13.633727 13.825083
3.2509434 -14.148803 11.788159
4.0720525 -17.708347 11.997716
5.2409282 -22.755199 12.309709
4.9660583 -21.544586 9.0211449
5.7020788 -24.718037 7.5462933
3.1697121 -13.917618 12.794354
3.4237735 -15.009005 11.292995
5.4664321 -23.94437 14.51819
5.0867758 -22.209955 8.0192709
7.6115513 -33.207092 8.3075256
5.7583041 -25.101793 1.1325573
-0.0039258446 -0.067628518 6.254035
1.3248211 -6.3678827 41.346951
1.2492611 -5.8661776 28.858625
1.6348963 -7.497623 24.579319
2.3301632 -10.562521 25.541626
1.8681967 -8.4125996 15.859841
2.2397523 -10.036222 15.1754
2.9163191 -13.035913 16.069799
1.3862129 -6.4707685 25.515766
2.1621385 -9.9325256 27.697123
1.9220673 -8.6982727 14.641105
2.3909082 -10.784404 14.701749
2.9681551 -13.344162 14.897833
3.0759139 -13.637595 13.818073
3.1989603 -14.148677 11.778744
4.0240564 -17.783628 12.038838
5.1790905 -22.851118 12.351447
5.5266352 -24.364855 10.182425
5.606204 -24.695686 7.5336027
3.120295 -13.924954 12.79103
3.3713617 -15.020864 11.292995
5.3828173 -23.963306 14.51819
4.4887772 -19.934399 9.5334082
5.026866 -22.305891 8.0472107
7.5105619 -33.299839 8.3239384
5.6376457 -24.975538 1.1265113
-0.0041618883 -0.067614406 6.254035
1.3025849 -6.3724685 41.346951
1.2287767 -5.8705025 28.858625
1.6093407 -7.5062027 24.588863
2.2907939 -10.559134 25.514011
1.8362647 -8.4073696 15.837896
2.17997 -9.9312878 15.005948
2.8666646 -13.027232 16.046776
1.366466 -6.4890981 25.569
2.1281767 -9.943388 27.706507
1.88837 -8.6896381 14.615511
2.9164858 -13.331258 14.872107
3.0221112 -13.620397 13.790036
3.146172 -14.144559 11.76619
3.9637728 -17.805731 12.044321
5.2014842 -23.32736 12.597239
5.3365417 -23.913437 9.9876299
5.5325127 -24.771286 7.5505233
3.0644355 -13.902945 12.7611
3.3189085 -15.032542 11.292995
5.3223896 -24.087181 14.58152
4.4230914 -19.96767 9.5418005
7.4227057 -33.453979 8.3555918
5.4681211 -24.624403 1.111195
-0.0043917256 -0.067556262 6.2490354
1.2788037 -6.3693585 41.297562
1.205201 -5.859796 28.785196
1.5831293 -7.5117745 24.588863
2.2510691 -10.553692 25.481794
1.8064035 -8.4113874 15.833508
2.1286662 -9.8618183 14.890226
2.8184621 -13.024628 16.031425
1.3417691 -6.4839811 25.530285
2.0906129 -9.9372463 27.668964
1.8574811 -8.6936264 14.611243
2.226501 -10.385403 14.139156
2.8670812 -13.328099 14.857406
2.9699869 -13.609958 13.76901
3.0942838 -14.144047 11.756775
3.8998063 -17.811287 12.038838
5.451158 -24.813875 7.5575738
3.0111408 -13.891663 12.741147
3.2664149 -15.044035 11.292995
5.2501769 -24.160376 14.614451
4.3620591 -20.0229 9.5606823
7.300703 -33.455936 8.3497295
5.4279699 -24.85322 1.1198609
-0.0046275142 -0.067540526 6.2490354
1.2552105 -6.3669229 41.253109
1.1841344 -5.8609729 28.77051
1.5572014 -7.5187173 24.593636
2.2138152 -10.559573 25.47719
1.7691165 -8.3801479 15.763283
2.0971494 -9.8829517 14.910891
2.7669778 -13.00617 15.996887
1.3221323 -6.503407 25.588358
2.0538163 -9.9343424 27.640806
1.8249793 -8.689847 14.594179
2.1983128 -10.43144 14.191025
2.8114223 -13.294909 14.809629
2.9172239 -13.595833 13.744478
3.0416186 -14.139541 11.744221
3.8376095 -17.824793 12.038838
4.9092903 -22.744713 9.4894028
5.3483019 -24.75773 7.5350132
2.9564059 -13.872875 12.714543
3.2138815 -15.055346 11.292995
4.5811791 -21.369215 7.6954999
7.2012105 -33.562012 8.3696585
5.4261475 -25.267664 1.1361848
-0.0048632463 -0.067523956 6.2490354
1.2325354 -6.3689766 41.238289
1.1636685 -5.8650708 28.77051
1.5318395 -7.5284948 24.60795
2.1722119 -10.544275 25.421961
1.7291507 -8.3346806 15.666723
2.7209051 -13.012613 15.993051
1.302376 -6.5227737 25.646431
2.0153484 -9.9228497 27.589188
2.0184195 -9.8412189 20.835863
1.7930536 -8.6885023 14.581382
2.2162704 -10.701659 14.546137
2.7698259 -13.327876 14.835356
2.8653319 -13.584996 13.723451
2.9898283 -14.138648 11.734806
3.7753658 -17.838079 12.038838
4.8260174 -22.743572 9.4819107
4.8961158 -23.054134 7.0175309
2.9056659 -13.872147 12.704566
3.1613088 -15.066472 11.292995
4.8019218 -22.806376 10.861475
4.5016904 -21.361973 7.6872821
7.0830102 -33.582188 8.3684874
5.3492646 -25.340221 1.1384016
-0.0050989194 -0.067506574 6.2490354
1.2095714 -6.3694234 41.213593
1.1365709 -5.8351159 28.604073
1.5067208 -7.5396519 24.627039
2.1338422 -10.544133 25.403551
1.6914371 -8.2984247 15.587719
2.0682089 -10.093081 15.204329
2.6819165 -13.053428 16.031425
1.2812918 -6.5359144 25.680307
1.9793488 -9.9230537 27.570417
1.9831953 -9.8439369 20.82686
1.7575326 -8.6691475 14.538724
2.2017295 -10.821535 14.697759
2.7293901 -13.367358 14.868432
2.8200653 -13.605391 13.733964
2.9380808 -14.137565 11.725389
3.7122247 -17.847054 12.036096
4.7842464 -22.920815 6.9724097
2.868516 -13.937062 12.754449
3.1086979 -15.077415 11.292995
4.746192 -22.938551 10.916024
4.419435 -21.340565 7.6741338
5.2810745 -25.456575 1.1424323
-0.00533453 -0.067488365 6.2490354
1.1876149 -6.3751345 41.223469
1.4812553 -7.5492592 24.641356
2.1050203 -10.591758 25.500202
1.6634003 -8.3089752 15.596498
2.0357416 -10.114033 15.224996
2.6401398 -13.081562 16.054451
1.2575196 -6.5354104 25.660948
1.9446989 -9.929903 27.570417
1.9488214 -9.8507996 20.82686
1.7216591 -8.6470938 14.491798
2.1781125 -10.900072 14.79352
2.6887121 -13.40672 14.901508
2.7803843 -13.653592 13.772513
2.8863778 -14.136294 11.715975
3.6499043 -17.859903 12.036096
5.0938745 -24.881437 13.380994
4.396318 -21.455116 8.9368582
4.6926441 -22.880985 6.9554896
2.8213291 -13.954309 12.7611
3.0560491 -15.088175 11.292995
4.635355 -22.803762 10.84469
4.3194962 -21.230919 7.6297588
5.1832027 -25.430798 1.1406186
-0.0055700759 -0.067469329 6.2490354
1.1635396 -6.3693047 41.15926
1.4574349 -7.5675759 24.684303
2.0680354 -10.599041 25.500202
1.6394674 -8.3405809 15.644778
2.0129738 -10.184571 15.320053
2.5975759 -13.106418 16.073639
1.2349322 -6.5409951 25.665789
1.9197969 -9.9874706 27.711199
1.9061239 -9.8148022 20.736837
1.6899636 -8.6453714 14.478999
2.1481724 -10.949004 14.84938
2.6412425 -13.412697 14.897833
2.7404008 -13.701682 13.811064
2.8347194 -14.134835 11.706559
3.5875392 -17.872536 12.036096
5.0227108 -24.977238 13.422732
4.3287168 -21.506689 8.9518423
2.7776923 -13.989708 12.784379
3.0025744 -15.094788 11.290053
4.2453599 -21.245869 7.6297588
-0.0058055539 -0.067449473 6.2490354
1.1402041 -6.3672085 41.119747
1.4301789 -7.5682173 24.669987
1.6235006 -8.4144497 15.772059
1.9859861 -10.235736 15.386181
2.5456889 -13.083942 16.035263
1.211177 -6.5403223 25.646431
1.8862017 -10.000894 27.729971
1.8763349 -9.8449183 20.78635
1.6548616 -8.6256046 14.43634
2.1059515 -10.935723 14.821449
2.6932433 -13.714663 13.814568
2.7831061 -14.133186 11.697144
3.5259397 -17.889053 12.038838
4.9775424 -25.207565 13.536353
4.224854 -21.376135 8.8919048
4.7962456 -24.244949 7.3545284
2.7309852 -14.010313 12.794354
2.9498656 -15.105176 11.290053
5.7221818 -29.274218 17.613735
5.7705874 -29.358662 1.300634
-0.0060409615 -0.067428797 6.2490354
1.1164947 -6.362731 41.065414
1.4059283 -7.5849047 24.708162
1.5936733 -8.4177132 15.767672
1.9597186 -10.292364 15.460574
1.1899112 -6.5531673 25.680307
1.8484557 -9.9921455 27.687737
1.8427585 -9.8556881 20.795353
1.6261897 -8.6390181 14.449138
2.0644093 -10.925243 14.797509
2.6473789 -13.734486 13.825083
2.7322781 -14.135173 11.690867
3.4634738 -17.901253 12.038838
4.9341989 -25.455278 13.659249
4.1219559 -21.245117 8.8319683
4.7079272 -24.242706 7.3488884
2.689079 -14.056434 12.827611
2.8963597 -15.11141 11.287109
4.1701546 -21.65522 7.7645268
5.7144461 -29.618996 1.3105091
-0.0062762946 -0.067407303 6.2490354
1.0942777 -6.36659 41.065414
0.97131491 -5.4961066 26.856476
1.3794435 -7.5897665 24.708162
1.9408301 -10.390427 15.59696
1.1676899 -6.5609937 25.694824
1.7144017 -9.4517899 26.176664
1.7957811 -9.79354 20.651314
1.5998122 -8.6651602 14.483266
2.0103357 -10.84646 14.681798
2.5967696 -13.729627 13.811064
2.6807442 -14.13315 11.681452
3.4009655 -17.913233 12.038838
4.8502798 -25.498455 13.673162
4.0044165 -21.031672 8.7383165
4.6008248 -24.141186 7.3136377
2.6406853 -14.069404 12.830935
2.8428466 -15.117457 11.284166
4.0121531 -21.315121 12.831094
4.1024294 -21.711407 7.7793183
5.6119504 -29.643669 1.3107105
-0.0065115523 -0.067384981 6.2490354
1.0723054 -6.3719034 41.075294
0.95229769 -5.5004673 26.861372
1.3655068 -7.6650739 24.937218
1.907084 -10.410977 15.617624
2.1264873 -11.574625 14.166398
1.1454284 -6.5687447 25.709345
1.6829084 -9.4662113 26.200129
1.7558075 -9.7676096 20.583796
1.571878 -8.6835222 14.504596
1.9546828 -10.755578 14.550128
2.9478133 -16.156368 17.882065
2.5475273 -13.731595 13.804054
2.628546 -14.127116 11.668899
3.3384159 -17.924995 12.038838
3.933532 -21.059195 8.7439356
4.4786191 -23.954338 7.2530065
2.5908818 -14.074864 12.827611
2.7900593 -15.127289 11.284166
3.9588559 -21.443453 12.899489
6.5118194 -35.100395 5.0713105
5.5057049 -29.648344 1.310106
-0.006754389 -0.067404799 6.254035
1.0500568 -6.3756075 41.075294
0.93053937 -5.4886999 26.787943
1.3395123 -7.6742058 24.951534
1.4637759 -8.2005243 15.333152
1.8707312 -10.417571 15.617624
2.0866396 -11.585132 14.170237
1.1233385 -6.5776587 25.728701
1.6483744 -9.4635286 26.176664
1.7186803 -9.7565279 20.547787
1.5424682 -8.6940918 14.513127
1.9012743 -10.673339 14.430428
2.896174 -16.193256 17.911469
2.4976647 -13.729878 13.793542
2.577121 -14.124718 11.659482
3.2758257 -17.936539 12.038838
4.2305994 -23.073328 6.9851003
2.539746 -14.072799 12.817634
2.7365186 -15.132957 11.281222
3.8954976 -21.520769 12.937488
6.3848243 -35.098549 5.0678573
5.4066539 -29.691956 1.3111136
-0.0069896351 -0.067380808 6.254035
1.0276718 -6.3784671 41.070354
0.91237444 -5.4979415 26.817316
1.3124646 -7.6773634 24.946762
1.4339041 -8.1985064 15.319985
1.8338681 -10.421267 15.613492
2.0467443 -11.595501 14.174073
1.1020292 -6.5914583 25.767416
1.6153306 -9.4692249 26.176664
1.6938671 -9.8160982 20.660316
1.5116644 -8.6968546 14.508862
1.7935487 -10.27621 13.887784
2.8390458 -16.199928 17.907791
2.4478452 -13.727981 13.783027
2.5257454 -14.122133 11.650067
3.2131953 -17.947865 12.038838
3.6962869 -20.584217 8.5379019
4.1423945 -23.045462 6.9724097
2.4893069 -14.074224 12.810982
2.6836782 -15.142417 11.281222
3.8512256 -21.708261 13.041348
5.1756907 -28.997509 1.2818917
-0.0072247954 -0.067356005 6.254035
1.0056423 -6.3835502 41.080231
0.89285117 -5.4990826 26.807526
1.2854112 -7.6804256 24.94199
1.4170035 -8.2719193 15.447268
1.8027381 -10.458109 15.658956
2.0057101 -11.599417 14.170237
1.0798258 -6.6002269 25.786776
1.5788563 -9.45438 26.120352
1.6675711 -9.869175 20.759344
1.7571594 -10.279437 13.883793
2.7836273 -16.216421 17.915142
2.3986833 -13.729416 13.776019
2.4744189 -14.119362 11.640653
3.1498034 -17.954851 12.036096
3.9193523 -22.295874 11.936381
3.6244121 -20.596994 8.5379019
4.046947 -22.974747 6.9470291
2.4388885 -14.075471 12.804331
2.6301138 -15.147711 11.27828
3.7894516 -21.802267 13.089478
3.6616342 -21.001736 9.9425278
5.1217756 -29.286068 1.2929759
-0.0074517587 -0.067287497 6.2490354
0.98323524 -6.3862538 41.075294
0.8747679 -5.5092053 26.841791
1.2569052 -7.6745543 24.908587
1.3869321 -8.2697296 15.434102
1.7634113 -10.447689 15.634157
1.9657433 -11.609508 14.174073
1.0593616 -6.620091 25.849686
1.5491841 -9.4802713 26.176664
1.6331111 -9.8749361 20.759344
1.5670774 -9.4043598 15.66493
1.7506092 -10.460852 14.119205
2.7270045 -16.22604 17.915142
2.3495412 -13.730675 13.76901
2.4231424 -14.116404 11.631236
3.08711 -17.965736 12.036096
3.8415012 -22.30942 11.936381
3.5784802 -20.760284 8.5997124
2.3891168 -14.080217 12.801006
2.5772221 -15.156799 11.27828
3.7104309 -21.798363 13.079345
3.5806632 -20.969652 9.9215479
3.6154776 -21.15132 7.557445
5.8017592 -33.905987 8.3872433
5.0616908 -29.549976 1.3030524
-0.0076865903 -0.067261077 6.2490354
0.9624387 -6.3996358 41.139503
0.85912257 -5.5353665 26.954382
1.2272753 -7.6612077 24.851322
1.357669 -8.2721567 15.429712
1.7264729 -10.451005 15.630025
0.037805464 -0.36930105 6.2589684
1.0360526 -6.6225071 25.844847
1.5188056 -9.5026617 26.223593
1.5829858 -9.7838717 20.556789
1.5367583 -9.4252157 15.690524
1.7345355 -10.591793 14.286786
2.6692479 -16.228769 17.907791
2.3004193 -13.731758 13.762
2.371917 -14.113262 11.621821
3.0216048 -17.959911 12.025131
3.7665496 -22.340164 11.945657
3.5067627 -20.777218 8.6015854
3.9296107 -23.257858 7.0231709
2.3387294 -14.081104 12.794354
2.5242996 -15.165704 11.27828
3.6350262 -21.815435 13.081879
3.5408437 -21.159151 7.5558009
4.2771921 -25.532051 6.334516
4.9585109 -29.567465 1.3030524
-0.0079213288 -0.067233838 6.2490354
0.93873996 -6.3937311 41.080231
0.84010059 -5.5403457 26.964172
1.2016799 -7.6728191 24.875183
1.3265079 -8.2626581 15.403378
1.6877367 -10.443078 15.609361
2.1283259 -13.125809 15.996887
0.036516134 -0.36943075 6.2589684
1.0123596 -6.6223555 25.83033
1.4869579 -9.5164309 26.247057
1.5522257 -9.8108387 20.601801
1.5034384 -9.427948 15.686259
1.7094668 -10.672166 14.386537
2.6136599 -16.244682 17.915142
2.2518957 -13.736184 13.758495
2.3213747 -14.113774 11.615544
2.958215 -17.966223 12.022388
3.7029686 -22.44059 11.992032
3.4191039 -20.697855 8.5641241
3.8288352 -23.153114 6.9879203
2.2889643 -14.085498 12.79103
2.4706962 -15.170432 11.275336
3.5602412 -21.836498 13.086944
3.382895 -20.680609 9.774684
3.470016 -21.190023 7.5623751
4.1935472 -25.580402 6.3427219
4.841517 -29.500784 1.2996264
-0.0081559699 -0.067205779 6.2490354
0.91641593 -6.3969688 41.080231
0.82254517 -5.5553308 27.022915
1.175341 -7.6799173 24.884726
1.6306291 -10.318267 15.415112
2.0824955 -13.133158 15.996887
0.035439286 -0.37185568 6.2989016
0.98793811 -6.6171465 25.796453
1.44748 -9.4806213 26.13443
1.5226275 -9.8463182 20.664818
1.4733313 -9.4511766 15.716121
1.662414 -10.615553 14.302747
2.5527248 -16.226915 17.885742
2.2033689 -13.740439 13.754992
2.2702396 -14.110263 11.606129
2.858912 -17.749388 11.871609
3.2906246 -20.361847 8.4217739
3.6123872 -22.328157 6.7383447
2.2386105 -14.086026 12.784379
2.4177265 -15.178965 11.275336
3.481281 -21.831766 13.076812
3.3106856 -20.692291 9.774684
4.1073074 -25.614082 6.3474116
4.7202973 -29.404051 1.2949911
-0.0083905123 -0.067176901 6.2490354
0.89332855 -6.3947425 41.045658
0.81013614 -5.6065402 27.257885
1.1483054 -7.6824975 24.879953
1.2132382 -7.9095187 14.731849
1.587729 -10.2794 15.348984
2.0381122 -13.14985 16.0084
0.034166668 -0.37226465 6.3038931
0.96465266 -6.6193104 25.791613
1.4894477 -9.9891233 27.518797
1.4911743 -9.870945 20.705328
1.4497564 -9.5181417 15.818503
1.943944 -12.70332 17.091772
2.15484 -13.744524 13.751486
2.219157 -14.106565 11.596713
2.7663634 -17.565125 11.742759
3.7326994 -23.647314 12.618108
3.2390664 -20.496845 8.4723463
2.1888542 -14.090064 12.781053
2.3641055 -15.183318 11.272393
3.4037249 -21.835266 13.071746
3.2370334 -20.694756 9.7704878
3.3081174 -21.125092 7.5311489
4.0178728 -25.628263 6.3474116
-0.0086249523 -0.067147203 6.2490354
0.86984867 -6.3893523 40.991325
0.79226553 -5.6214333 27.316629
1.1199731 -7.6761193 24.84655
1.1842021 -7.9042306 14.714292
1.5560358 -10.312704 15.390313
1.9873997 -13.125194 15.970025
0.032867014 -0.37238166 6.3038931
0.93941844 -6.6077042 25.733541
1.462274 -10.0472 27.664272
1.4589329 -9.8911657 20.736837
1.424964 -9.579896 15.912354
1.8986986 -12.704068 17.083794
2.1068497 -13.751962 13.751486
2.1687195 -14.106533 11.590437
2.692311 -17.492018 11.687931
3.6568866 -23.703981 12.641296
2.1390975 -14.093928 12.777727
2.3110912 -15.191478 11.272393
3.3261864 -21.83849 13.066679
3.1647754 -20.705927 9.7704878
3.2343569 -21.136511 7.5311489
4.0329094 -26.324379 6.5138803
-0.008859287 -0.067116685 6.2490354
0.84845924 -6.3992825 41.035782
0.77637869 -5.6514001 27.448799
1.0948541 -7.6918044 24.884726
1.1597229 -7.9296441 14.753794
1.5274104 -10.368185 15.464706
1.9420408 -13.135221 15.973862
0.031566959 -0.3724941 6.3038931
0.91686511 -6.6146784 25.748058
1.4267086 -10.048826 27.654886
1.4163342 -9.8401747 20.619804
1.393014 -9.5951357 15.929418
1.8530365 -12.701674 17.071823
2.0546117 -13.731017 13.723451
2.1177313 -14.102468 11.58102
2.6275058 -17.4765 11.671481
3.5609195 -23.628994 12.59492
3.601922 -23.844654 7.1782746
2.0887923 -14.093922 12.771076
2.2574551 -15.195453 11.26945
3.2486672 -21.84144 13.061612
3.0911388 -20.70787 9.7662916
3.2066238 -21.455912 7.6396203
3.9798372 -26.597881 6.5771856
3.9435971 -26.324341 1.1674222
-0.0090935137 -0.067085348 6.2490354
0.82631516 -6.4037466 41.045658
0.75705194 -5.657104 27.463486
1.0686135 -7.7000151 24.899042
1.1289917 -7.9123049 14.714292
1.8948056 -13.132403 15.96235
0.030289119 -0.37288985 6.3088851
0.84398311 -6.2491221 24.31559
1.393989 -10.070839 27.701813
1.3822795 -9.8472137 20.624308
1.3565868 -9.5792818 15.89529
1.5305939 -10.754073 14.458358
2.0046072 -13.72399 13.709432
2.0673625 -14.102073 11.574744
2.5598061 -17.440056 11.641325
3.5499928 -24.127752 12.852307
3.5144672 -23.828609 7.1698146
2.0390484 -14.097433 12.767752
2.2038193 -15.199241 11.266507
3.1711679 -21.844116 13.056546
3.0175273 -20.709553 9.7620955
3.1351175 -21.490337 7.6478376
3.8616791 -26.438465 6.5349822
3.8574672 -26.377491 1.1690344
-0.0093369335 -0.067095831 6.254035
0.80434376 -6.4096756 41.065414
0.73414451 -5.635479 27.345999
1.0379289 -7.6755924 24.808372
1.1003758 -7.9090819 14.701125
1.5022603 -10.715794 15.964792
1.8489532 -13.138937 15.96235
0.028987305 -0.37299332 6.3088851
0.82249212 -6.2545223 24.325268
1.3576736 -10.067093 27.67835
1.3499635 -9.8670778 20.655815
1.3188608 -9.5529556 15.844098
1.4905608 -10.741442 14.434417
1.9541737 -13.713251 13.69191
2.0170221 -14.101496 11.568467
2.4977276 -17.440605 11.635842
3.1069219 -21.640635 11.530591
2.9664216 -20.636435 8.5116796
3.4305849 -23.835983 7.1684046
4.6255527 -32.059414 6.241169
1.9893051 -14.100766 12.764425
2.1501846 -15.202839 11.263564
3.0942941 -21.850784 13.054013
3.0580871 -21.487125 7.6429076
3.6815972 -25.835846 6.3849258
3.7738369 -26.450144 1.1714528
-0.0095710848 -0.067062832 6.254035
0.78064859 -6.4016461 40.996265
1.0072331 -7.6495709 24.712934
1.0740482 -7.922368 14.718681
1.464846 -10.720973 15.964792
1.8017719 -13.135785 15.950838
0.027685137 -0.37309223 6.3088851
0.80161172 -6.2648358 24.354303
1.3225247 -10.071771 27.67835
1.3149376 -9.8674145 20.646812
1.2761205 -9.4877129 15.728918
1.4482123 -10.710746 14.386537
1.9048215 -13.709393 13.681396
1.9667112 -14.100742 11.562191
2.4362555 -17.44508 11.633101
3.0319769 -21.655735 11.532909
2.9194694 -20.825712 8.5847273
3.2466753 -23.130487 6.9554896
4.5136156 -32.075363 6.241169
1.9390547 -14.100226 12.757774
2.0965514 -15.206247 11.260621
3.0174119 -21.85718 13.051479
2.9644573 -21.390961 10.07051
2.9584007 -21.319929 7.5804539
3.5900531 -25.838911 6.3825808
3.7868102 -27.220247 1.202287
-0.0098051187 -0.067029014 6.254035
0.75683677 -6.3919868 40.91724
0.97843868 -7.6367531 24.660442
1.0532831 -7.9783063 14.815242
1.4103389 -10.597708 15.774677
1.7567574 -13.148349 15.958513
0.026402224 -0.37347466 6.3138766
0.77942824 -6.2651019 24.344625
1.2862662 -10.067766 27.654886
1.2930861 -9.9690924 20.849369
1.2389311 -9.4610777 15.677727
1.3982303 -10.620138 14.258857
1.8555197 -13.705355 13.670881
1.91643 -14.099809 11.555914
2.374218 -17.44519 11.627618
2.9497778 -21.617903 11.507402
2.8084748 -20.55559 8.4704723
3.1613638 -23.108412 6.9456196
1.8898238 -14.106909 12.757774
2.042383 -15.205461 11.254734
2.9416726 -21.871853 13.054013
2.9025245 -21.495628 10.114569
3.0440369 -22.514061 7.9962616
3.0759735 -22.720444 5.6205745
3.6917703 -27.233299 1.202287
-0.010039034 -0.066994376 6.254035
0.73522902 -6.4007645 40.956749
0.95085293 -7.6327157 24.636583
1.0321404 -8.034193 14.9118
1.3111662 -10.122562 15.063809
1.7075433 -13.128972 15.927813
0.025098393 -0.37356454 6.3138766
0.75664943 -6.2602968 24.31559
1.2582797 -9.973546 20.849369
1.2101829 -9.4989777 15.733185
1.3948438 -10.887971 14.609979
1.8062694 -13.701141 13.660368
1.8661792 -14.098695 11.549637
2.3122096 -17.44508 11.622135
2.8737161 -21.623678 11.505084
2.8204844 -21.194839 8.7270784
3.1307361 -23.494953 7.0570116
1.8381561 -14.094909 12.741147
1.9887697 -15.20849 11.251792
2.8653076 -21.881989 13.054013
3.1031637 -23.602535 11.09226
2.9678953 -22.54328 8.0028353
3.0080805 -22.81778 5.6416764
3.5842631 -27.151913 1.1984578
-0.010272827 -0.066958927 6.254035
0.71313941 -6.4056087 40.971569
0.92599726 -7.6508069 24.684303
1.0040895 -8.0377474 14.9118
1.2751206 -10.121495 15.055545
1.6604975 -13.125313 15.916301
0.023811828 -0.37393799 6.3188682
0.7342065 -6.257906 24.29623
1.2101609 -10.02853 27.523487
1.2218682 -9.9649124 20.822361
1.1799028 -9.5264387 15.771578
1.3646505 -10.955566 14.693769
1.7570713 -13.696752 13.649855
1.8154625 -14.09354 11.54022
2.2502308 -17.444754 11.616652
2.7953768 -21.611612 11.49349
2.733978 -21.108006 8.6877441
3.0740018 -23.700783 7.1148229
1.7884744 -14.097534 12.737822
1.9351597 -15.211329 11.248848
2.7861843 -21.870476 13.041348
3.0075107 -23.509682 11.044005
2.8759859 -22.450453 7.9666781
3.3099999 -25.802773 6.364996
4.7489781 -37.020237 5.2978535
3.4665484 -26.985872 1.1912028
-0.010506495 -0.066922657 6.254035
0.69194078 -6.4188747 41.040722
0.90259421 -7.6821599 24.774969
0.9849717 -8.1149082 15.047863
1.6146715 -13.13103 15.916301
0.022506397 -0.37401885 6.3188682
0.71150547 -6.2529378 24.267195
1.1755489 -10.036121 27.532873
1.1824439 -9.9302063 20.741339
1.3198841 -10.906417 14.621948
1.7083671 -13.695724 13.642846
1.7652882 -14.092068 11.533945
2.1882827 -17.444202 11.611169
3.1655433 -25.128244 10.32103
3.007463 -23.839872 7.152894
1.7305715 -14.033283 12.674637
1.8815544 -15.213981 11.245905
2.821532 -22.652481 8.0340624
3.223521 -25.843109 6.3720303
4.6534362 -37.306858 5.3358412
-0.010729841 -0.066843152 6.2490354
0.66872501 -6.4135222 40.991325
0.87965947 -7.7193756 24.884726
0.94739091 -8.0398045 14.903023
1.2266872 -10.317371 15.332452
0.021216251 -0.37438339 6.3238597
0.68898571 -6.249136 24.242996
1.1270713 -9.9218531 27.209074
1.1407784 -9.8737221 20.615305
1.2621181 -10.743367 14.398506
1.6584045 -13.683903 13.625323
1.714676 -14.086553 11.524529
2.1258597 -17.439281 11.602944
3.0766833 -25.129936 10.317284
2.924228 -23.850225 7.152894
1.6789116 -14.016995 12.654684
1.8279541 -15.216441 11.242961
2.7424428 -22.662191 8.0340624
3.1192572 -25.738396 6.3438945
4.5750155 -37.750572 5.3959298
-0.010963102 -0.066805288 6.2490354
0.64578867 -6.4104061 40.956749
0.58940411 -5.5869279 27.032705
0.85287231 -7.7238832 24.889498
0.92394423 -8.0835152 14.977637
1.1919552 -10.332772 15.348984
0.019909281 -0.37445515 6.3238597
0.66623449 -6.242753 24.209122
1.104852 -9.8646631 20.588297
1.0994456 -9.7093096 16.053129
1.1956147 -10.493228 14.059355
1.5288634 -13.335447 14.629545
1.6089619 -13.675441 13.611305
1.6645806 -14.084721 11.518251
2.0639896 -17.438293 11.597462
2.9511809 -24.822882 10.188045
2.8074946 -23.579245 7.0697021
1.6183335 -13.922633 12.564896
1.7743596 -15.218716 11.240019
2.8148286 -23.961355 8.4860268
3.0310986 -25.763611 6.3474116
4.4432139 -37.766315 5.3959298
3.1387529 -26.638649 1.1756849
-0.01118574 -0.066724263 6.2440357
0.62295735 -6.4079809 40.927116
0.56989849 -5.5889516 27.032705
0.82590574 -7.7268128 24.889498
0.93421382 -8.4342346 15.618443
1.1496258 -10.280937 15.266325
1.4709942 -13.093068 15.851062
0.018615616 -0.37481076 6.3288517
0.64379424 -6.2387896 24.184925
1.078392 -9.9420443 20.741339
1.0632719 -9.6923475 16.019001
1.1649312 -10.55125 14.131176
1.4852995 -13.367657 14.658946
1.5579811 -13.652627 13.583268
1.6145191 -14.082713 11.511975
2.0011978 -17.428772 11.586495
3.0995457 -26.911789 14.266775
2.721082 -23.589579 9.6823254
2.7235191 -23.574606 7.0654721
1.5764147 -13.987561 12.618104
1.7207717 -15.220801 11.237076
2.7787468 -24.388607 8.6322994
4.3231483 -37.884918 5.4104347
3.0389397 -26.589878 1.1732665
-0.011418584 -0.066684812 6.2440357
0.60015088 -6.4054756 40.89748
0.55078477 -5.5949597 27.052286
0.79708785 -7.7118316 24.832235
0.91983175 -8.5779428 15.877398
1.1085818 -10.237329 15.196065
1.4256289 -13.101312 15.8549
0.01730717 -0.37487346 6.3288517
0.62238675 -6.244751 24.199442
1.0280563 -9.683033 15.997672
1.1322559 -10.5942 14.183045
1.4382662 -13.36939 14.655272
1.5087473 -13.643805 13.569251
1.5640619 -14.076656 11.50256
1.9389607 -17.423187 11.578272
3.0218058 -27.067724 14.343295
1.5312262 -14.026384 12.648033
1.6671904 -15.222696 11.234132
2.6448886 -23.956955 8.4778099
4.2115612 -38.086815 5.4366803
2.950505 -26.640049 1.1748788
-0.011651287 -0.066644549 6.2440357
0.57743925 -6.4036613 40.872784
0.53038579 -5.5877252 27.008228
0.77016371 -7.7145667 24.832235
0.88963658 -8.5787191 15.87301
1.0696151 -10.210349 15.150602
1.374854 -13.058393 15.797338
0.015998511 -0.37493157 6.3288517
0.60058469 -6.2468853 24.199442
0.99105459 -9.6554298 15.946482
1.0924805 -10.571113 14.147135
1.4660468 -13.695085 13.614809
1.514083 -14.07429 11.496283
1.8767867 -17.417376 11.570047
2.946348 -27.254274 14.436048
2.5097337 -23.13998 6.9315186
1.488139 -14.08734 12.697915
1.6136172 -15.224403 11.23119
2.5160856 -23.543453 8.3298941
4.0712085 -38.032349 5.4270105
2.871877 -26.784309 1.1803201
-0.011883848 -0.066603467 6.2440357
0.55468047 -6.4009933 40.843151
0.74251473 -7.7097788 24.808372
0.85753751 -8.5603247 15.833508
1.0302837 -10.177624 15.096874
1.3351038 -13.12051 15.866412
0.014689658 -0.37498513 6.3288517
0.57854354 -6.2464409 24.189764
0.9716773 -9.9267931 20.687325
0.96068865 -9.6925697 16.00194
1.0573696 -10.592852 14.171075
1.4193349 -13.710762 13.625323
1.463737 -14.067876 11.486867
1.8146768 -17.411345 11.561823
2.8493516 -27.246769 14.426772
2.5468373 -24.312994 9.9651527
2.4264419 -23.124746 6.9244685
1.4389559 -14.092449 12.697915
1.5600523 -15.225923 11.228246
2.4426253 -23.636639 8.359477
3.9518149 -38.175648 9.3473721
2.771666 -26.729568 1.1777002
-0.012116266 -0.06656158 6.2440357
0.53233349 -6.4028907 40.843151
0.71518445 -7.7078648 24.794058
0.82511705 -8.5370436 15.785228
0.99201465 -10.153152 15.055545
1.2880431 -13.11233 15.851062
0.013380625 -0.37503415 6.3288517
0.55729347 -6.2546825 24.213963
0.93047673 -9.8607702 20.543285
0.93553489 -9.7867308 16.151247
1.0232754 -10.626472 14.210977
1.3743052 -13.74402 13.653359
1.4138435 -14.065154 11.48059
1.7522134 -17.400932 11.550858
2.7533348 -27.247732 14.422134
2.4535499 -24.238716 9.9314384
2.343287 -23.109213 6.9174185
1.3897554 -14.097385 12.697915
1.5064965 -15.227253 11.225303
2.1523304 -21.716673 12.909622
2.3582273 -23.626226 8.3529034
2.6768517 -26.724169 1.1770957
-0.012359762 -0.066561043 6.2490354
0.50936359 -6.3969646 40.793758
0.68774378 -7.7043667 24.774969
0.78798413 -8.4611769 15.640388
0.95498443 -10.139743 15.030746
1.2446823 -13.142275 15.881763
0.012071431 -0.37507856 6.3288517
0.53727865 -6.2778797 24.29623
0.89368737 -9.8379412 20.489269
0.91093087 -9.8938189 16.321884
0.98534071 -10.620978 14.199005
1.3270062 -13.755833 13.660368
1.3639867 -14.062254 11.474313
1.6902486 -17.394455 11.542632
2.6582055 -27.257177 14.422134
2.1525533 -22.032434 9.032383
2.2635412 -23.126799 6.920239
1.3394779 -14.091001 12.687939
1.4529504 -15.228395 11.22236
2.0810239 -21.771261 12.937488
2.274837 -23.624914 8.3496161
2.2873938 -23.711996 5.8362808
2.5801868 -26.698542 1.1756849
-0.012592029 -0.066517495 6.2490354
0.66084635 -7.7067204 24.774969
0.75523841 -8.4280949 15.574553
0.91805995 -10.126199 15.005948
1.1970532 -13.127388 15.858737
0.010762089 -0.3751184 6.3288517
0.51628649 -6.2909923 24.339787
0.86180276 -9.869194 20.547787
0.87937963 -9.9307089 16.37734
1.0283512 -11.52175 15.392023
1.277001 -13.739076 13.63934
1.3141675 -14.059178 11.468037
1.6283509 -17.387762 11.534409
2.554338 -27.173674 14.37344
2.0734594 -22.016735 9.0230179
2.1855035 -23.163214 6.9286985
1.2896022 -14.088153 12.681288
1.3994147 -15.229348 11.219417
2.1408863 -23.077877 8.1556826
2.2073083 -23.748875 5.8433146
2.5105996 -26.961077 1.1859629
-0.012824141 -0.066473134 6.2490354
0.4657045 -6.4143143 40.882664
0.63418549 -7.711956 24.784513
0.72643042 -8.4378376 15.587719
0.89711976 -10.294743 15.249792
1.1523424 -13.144258 15.874087
0.0094591146 -0.37544233 6.3338432
0.49540615 -6.3065405 24.393021
0.83098328 -9.9155293 20.63781
0.84338403 -9.918128 16.351746
0.9917298 -11.5673 15.447884
1.1582552 -13.399957 14.658946
1.2290349 -13.743449 13.63934
1.2643864 -14.055927 11.46176
1.5665203 -17.380846 11.526184
1.9869673 -21.917648 8.9799376
1.2400901 -14.088851 12.677962
1.34589 -15.230115 11.216474
1.3077223 -14.768859 8.7982731
2.0565383 -23.042879 8.1408901
2.4169185 -26.974653 1.1861645
-0.013056098 -0.066427968 6.2490354
0.44288328 -6.409699 40.843151
0.60691053 -7.7096581 24.770199
0.6973666 -8.445096 15.596498
0.87618649 -10.477283 15.514301
1.1061848 -13.145008 15.870251
0.0081485193 -0.37547305 6.3338432
0.47423542 -6.3195124 24.436575
0.79654074 -9.9205389 20.642311
0.81447893 -9.9911938 16.466925
0.94542068 -11.498617 15.352122
1.1111935 -13.400539 14.655272
1.1804433 -13.74055 13.632331
1.2146441 -14.052502 11.455483
1.5054793 -17.38204 11.523442
1.3372108 -15.376843 8.1660118
1.9076314 -21.892124 8.9668264
2.2565715 -25.844524 7.715497
1.1846157 -14.018682 12.611452
1.292377 -15.230692 11.213531
1.2554309 -14.764743 8.7932062
2.0527284 -23.94385 8.4531574
2.3343134 -27.117317 1.1916058
-0.013287894 -0.066381983 6.2490354
0.41974428 -6.3995762 40.769058
0.58156198 -7.7325687 24.837006
0.67335701 -8.5167179 15.723782
0.84792262 -10.584064 15.667221
1.0590053 -13.132812 15.851062
0.0068378239 -0.37549922 6.3338432
0.45289049 -6.3311591 24.475288
0.75974059 -9.8950424 20.583796
0.69806933 -8.9487247 14.75202
0.89132863 -11.324613 15.116711
1.0660201 -13.424614 14.677323
1.1289587 -13.701935 13.590277
1.1649411 -14.048897 11.449206
1.442718 -17.362186 11.506993
2.2858493 -27.393169 14.475468
1.8053192 -21.589123 8.8413334
2.1663435 -25.852243 7.715497
2.3175542 -27.541296 2.5742173
1.1281393 -13.929693 12.528315
1.2388766 -15.231083 11.210588
1.2101887 -14.846373 8.8388033
1.9768747 -24.044994 8.4860268
2.2388201 -27.115347 1.1912028
-0.01351953 -0.066335194 6.2490354
0.39740306 -6.4010024 40.769058
0.55467349 -7.7360411 24.84178
0.64687133 -8.5620041 15.802785
0.8176344 -10.67394 15.795341
1.0134032 -13.139627 15.8549
0.005527046 -0.37552077 6.3338432
0.43189645 -6.3490043 24.538202
0.72551382 -9.9019766 20.592798
0.66566575 -8.9355021 14.726424
0.83981866 -11.168403 14.90524
1.019153 -13.428253 14.677323
1.0808427 -13.702238 13.586773
1.1152779 -14.045117 11.442929
1.3840941 -17.392126 11.523442
1.1828856 -14.798515 7.8576121
1.7314286 -21.613775 8.8488255
2.0522883 -25.563183 7.6280751
2.2214031 -27.549217 2.5742173
1.0792204 -13.929824 12.52499
1.1853888 -15.231284 11.207644
1.1566817 -14.829017 8.8261375
2.2339232 -28.258526 1.2371519
-0.013751 -0.0662876 6.2490354
0.37505695 -6.4023504 40.769058
0.39356828 -6.2174311 29.974735
0.52969682 -7.767715 24.937218
0.61921728 -8.5952635 15.859841
0.78037035 -10.676728 15.795341
0.96400154 -13.095135 15.797338
0.0042161997 -0.37553778 6.3338432
0.41045976 -6.361763 24.581757
0.6802634 -10.028192 27.3874
0.68746108 -9.8544998 20.489269
0.63428634 -8.9351702 14.722158
0.76915878 -10.72945 14.318706
0.96615481 -13.347197 14.585444
1.026574 -13.62058 13.502664
1.0659499 -14.045043 11.43979
1.3221072 -17.380175 11.512476
1.1177205 -14.625876 7.7648597
1.6372074 -21.374702 8.7495546
1.9630437 -25.570192 7.6280751
2.103781 -27.278751 2.549181
1.033619 -13.974465 12.561569
1.1319151 -15.231298 11.204701
1.1055522 -14.841561 8.8312035
1.7452309 -23.210611 8.190196
2.1522036 -28.49033 1.2462207
-0.013982303 -0.066239201 6.2490354
0.35321864 -6.4129305 40.828331
0.37204525 -6.221817 29.989422
0.50402409 -7.7918606 25.008797
0.5921576 -8.6403818 15.938846
0.74114376 -10.651315 15.754013
0.9164921 -13.072842 15.766638
0.0029053027 -0.37555021 6.3338432
0.38978088 -6.3882494 24.678547
0.64436829 -10.016728 27.349855
0.65161943 -9.8351183 20.444258
0.60239059 -8.9269209 14.705094
0.72924197 -10.695995 14.270826
0.91746205 -13.320048 14.552367
0.98439068 -13.698778 13.576259
1.0163552 -14.040915 11.433515
1.2599182 -17.363832 11.498769
1.0450779 -14.333677 7.6095004
1.5649511 -21.412653 8.7626657
1.8653631 -25.462067 7.5942345
0.98562002 -13.989161 12.571547
1.0784554 -15.231124 11.201757
1.0226073 -14.406734 8.5728188
1.0948626 -15.311299 7.1835895
1.6692646 -23.287214 8.2148485
2.0875573 -28.98102 1.2657692
-0.014213436 -0.066189989 6.2490354
0.33143097 -6.4257636 40.902416
0.34981006 -6.2139282 29.945366
0.47828045 -7.8174114 25.08515
0.56012881 -8.6137171 15.886177
0.70377362 -10.651029 15.749879
0.86872393 -13.043978 15.728262
0.0015943703 -0.37555808 6.3338432
0.36776793 -6.3945909 24.697905
0.61285615 -10.075758 27.504719
0.61128676 -9.7417364 20.246206
0.56922841 -8.8977385 14.653904
0.69773513 -10.788685 14.390527
0.87449902 -13.377296 14.61117
0.93753976 -13.716363 13.590277
0.96680212 -14.036611 11.427238
1.0011266 -14.498133 9.6126394
0.97908962 -14.107441 7.4889231
1.489554 -21.408735 8.7589197
1.7414244 -24.965954 7.4461808
0.93952608 -14.033496 12.608127
1.0250109 -15.230763 11.198814
0.95228851 -14.113444 8.3980303
1.0392542 -15.283329 7.1689024
2.3607256 -34.628128 12.169131
1.8145875 -26.481054 1.1643991
-0.014444396 -0.066139966 6.2490354
0.30892432 -6.4253297 40.89254
0.32870734 -6.2262959 29.999214
0.45270821 -7.8488379 25.18059
0.5312342 -8.6347427 15.921288
0.66571176 -10.639378 15.729215
0.00028341828 -0.37556136 6.3338432
0.34557989 -6.3983459 24.707582
0.57787895 -10.081283 27.514105
0.57251501 -9.6634035 20.079659
0.53690678 -8.8788433 14.619776
0.66135901 -10.812107 14.418456
0.82737947 -13.3735 14.60382
0.89150119 -13.748023 13.618314
0.91729152 -14.032132 11.42096
0.95023906 -14.497368 9.6098986
0.92459667 -14.031209 7.4471846
1.4096189 -21.335167 8.7270784
1.6663158 -25.15377 7.4997625
0.88935238 -14.018059 12.591499
0.97106755 -15.222148 11.189985
0.86834466 -13.57463 8.0788498
0.96457642 -14.956239 7.0157447
1.7221403 -26.487228 1.1643991
-0.014662488 -0.0660474 6.2440357
0.28614816 -6.4186063 40.843151
0.30652064 -6.2182527 29.955156
0.42450064 -7.835465 25.132868
0.50289327 -8.6676283 15.978347
0.62939894 -10.655683 15.749879
-0.001029099 -0.37584871 6.3388348
0.32273641 -6.3894701 24.668867
0.54491043 -10.124594 27.62673
0.53284407 -9.5588388 19.8591
0.50457579 -8.8572292 14.581382
0.63020498 -10.928664 14.570078
0.78246987 -13.406767 14.636896
0.84328777 -13.74749 13.614809
0.8678239 -14.027478 11.414683
0.89186072 -14.375395 9.5276546
0.87561291 -14.03435 7.4471846
1.3345577 -21.330702 8.7233324
1.6088403 -25.642986 7.6421757
0.83996797 -14.013624 12.584847
0.91695338 -15.209306 11.178212
0.8170526 -13.513034 8.0408516
0.90600914 -14.855322 6.9674897
1.6269114 -26.448198 1.1625854
-0.014892948 -0.06599582 6.2440357
0.26339084 -6.4110265 40.788818
0.28481305 -6.2192845 29.955156
0.39827999 -7.859261 25.204449
0.47367737 -8.6884623 16.01346
0.59204376 -10.655005 15.745747
-0.0023410495 -0.37584281 6.3388348
0.30043104 -6.3905578 24.668867
0.50982583 -10.131604 27.640806
0.4978846 -9.5302048 19.796083
0.47198457 -8.8276854 14.530191
0.592053 -10.930798 14.570078
0.73473823 -13.392491 14.618521
0.79529494 -13.75035 13.614809
0.81840008 -14.022651 11.408406
0.82872564 -14.157184 9.3823576
0.8214106 -13.948879 7.4008088
1.2600914 -21.33523 8.7233324
1.5536427 -26.227873 7.8127894
0.7908358 -14.012743 12.581523
0.86294079 -15.196272 11.16644
0.76987833 -13.515803 8.0408516
0.83800006 -14.57747 6.8374104
1.4081129 -24.420835 8.6027164
1.5348696 -26.458706 1.162787
-0.015123226 -0.065943427 6.2440357
0.24068993 -6.4033651 40.734486
0.26292998 -6.2161717 29.935575
0.36796066 -7.7994704 25.008797
0.44339791 -8.9358492 21.137011
0.57511115 -11.273295 20.753666
0.55382317 -10.637336 15.716816
-0.0036565489 -0.37612104 6.3438263
0.27768514 -6.3815212 24.630152
0.46525064 -9.5449305 19.82309
0.4386948 -8.7797871 14.449138
0.55419868 -10.938816 14.578058
0.68728971 -13.381431 14.60382
0.74709898 -13.749483 13.611305
0.76923376 -14.021537 11.405268
0.76735473 -13.942883 9.2398014
0.76855057 -13.87647 7.3613892
0.74132532 -14.004232 12.571547
0.80838525 -15.170938 11.145838
0.72085369 -13.483972 8.020587
0.77805811 -14.412624 6.7597823
1.3261794 -24.486898 8.6240816
-0.015353318 -0.065890238 6.2440357
0.21812503 -6.397954 40.694969
0.24115101 -6.2150168 29.925785
0.34060293 -7.7977247 24.999254
0.41247323 -8.9431982 21.15082
0.53359705 -11.229779 20.670273
0.51136571 -10.529586 15.555632
0.64534253 -13.146792 15.835713
-0.0049694343 -0.37610599 6.3438263
0.25560865 -6.387475 24.649509
0.39786366 -9.183239 25.050402
0.4319298 -9.5464964 19.82309
0.40501904 -8.7161341 14.342489
0.51728922 -10.967773 14.613968
0.64008945 -13.37359 14.592794
0.6981945 -13.734199 13.593782
0.72008508 -14.020247 11.402129
0.7046926 -13.674045 9.0616055
0.7159766 -13.799438 7.3196507
0.83419412 -16.024038 6.5712175
0.69188386 -13.995547 12.561569
0.75522292 -15.16963 11.142895
0.67227584 -13.456267 8.0028543
0.71904856 -14.243009 6.6800566
1.2421294 -24.519676 8.6339436
-0.015583225 -0.065836243 6.2440357
0.19609915 -6.4087734 40.759182
0.21941921 -6.2148032 29.920889
0.31386098 -7.8107982 25.03743
0.38266706 -8.9777641 21.229061
0.49449983 -11.233967 20.674662
0.47245407 -10.483517 15.485371
0.59915584 -13.142561 15.828038
-0.0062878518 -0.37637499 6.3488183
0.27227533 -7.4560413 28.76302
0.36532515 -9.1725006 25.017553
0.40096402 -9.6044979 19.940123
0.37078562 -8.6289043 14.197448
0.47979 -10.987576 14.637909
0.59295225 -13.365582 14.581768
0.64957446 -13.722302 13.579764
0.67095488 -14.018789 11.398991
0.64913285 -13.513533 8.954689
0.66416383 -13.726635 7.280231
0.77488214 -15.957397 6.5431223
0.64234084 -13.982958 12.548268
0.70245326 -15.17621 11.145838
0.62089932 -13.363797 7.9471245
0.66740978 -14.204631 6.6611743
1.1571996 -24.538013 8.6388731
-0.015826359 -0.065822966 6.2490354
0.17381121 -6.4125252 40.778938
0.19765948 -6.2134957 29.911098
0.28692248 -7.820796 25.066061
0.35193738 -8.9946632 21.265882
0.37801325 -9.3283806 17.176565
0.43258485 -10.406378 15.369648
0.55435431 -13.170192 15.858737
-0.0076016071 -0.37635076 6.3488183
0.24595702 -7.4481521 28.729143
0.33061174 -9.0995655 24.815763
0.36793473 -9.6188898 19.967129
0.34076568 -8.6327524 14.201715
0.54574037 -13.35402 14.567067
0.60073364 -13.70311 13.558736
0.62167108 -14.013268 11.392714
0.60139978 -13.503185 8.9464645
0.6122722 -13.640363 7.2338548
0.59241909 -13.959002 12.52499
0.64981973 -15.186647 11.151724
0.5738771 -13.357269 7.9420581
0.61723071 -14.19327 6.65488
1.1069672 -25.353344 8.9215574
1.1606858 -26.372742 1.1585548
-0.016056027 -0.065767318 6.2490354
0.15166426 -6.4231911 40.843151
0.17594032 -6.2131295 29.906202
0.25981903 -7.8277178 25.08515
0.32095525 -9.0075512 21.293495
0.34633479 -9.3535776 17.220457
0.39764875 -10.444381 15.423377
0.50738955 -13.146423 15.828038
-0.0089152697 -0.37632191 6.3488183
0.21988249 -7.4464526 28.719465
0.29777062 -9.067894 24.726599
0.3345075 -9.6244678 19.976131
0.3084735 -8.5739431 14.103598
0.45883179 -12.511329 16.65287
0.49861649 -13.342294 14.552367
0.55260974 -13.697996 13.551727
0.57259285 -14.011462 11.389575
0.55100352 -13.42582 8.8943758
0.56227344 -13.584879 7.2037106
0.6370858 -15.327845 6.2865162
0.54339892 -13.953524 12.518339
0.5972805 -15.200939 11.160553
0.52401817 -13.277349 7.8939276
0.56387496 -14.100105 6.6108208
1.0194083 -25.380646 8.9297743
1.0639693 -26.26182 1.1539196
-0.0162855 -0.065710872 6.2490354
0.12914865 -6.4190207 40.813511
0.15422615 -6.2126884 29.901308
0.23448634 -7.8957191 25.299889
0.29007563 -9.0261908 21.334919
0.31408378 -9.3666973 17.242403
0.36400822 -10.527263 15.543233
0.46205905 -13.164131 15.847225
-0.010228824 -0.3762885 6.3488183
0.19343059 -7.4295831 28.651712
0.26404169 -8.9981556 24.534197
0.30131781 -9.6386318 20.003139
0.27617273 -8.5019808 13.984151
0.41565582 -12.527912 16.672821
0.45158109 -13.3304 14.537666
0.5025593 -13.639256 13.49215
0.52338958 -14.005597 11.383298
0.50099796 -13.344092 8.8395472
0.51417893 -13.569052 7.1944351
0.58569396 -15.385568 6.3089933
0.49442416 -13.947872 12.511688
0.54392648 -15.194852 11.154667
0.47689357 -13.257557 7.8812618
0.51283222 -14.052097 6.5877423
0.93288356 -25.440676 8.9494963
0.96951967 -26.190489 1.1508967
-0.016514776 -0.065653622 6.2490354
0.10658671 -6.4101095 40.754242
0.13253888 -6.2131886 29.901308
0.21044041 -8.0307865 25.729366
0.25845477 -9.023243 21.325714
0.28073904 -9.3461914 17.2029
0.32883233 -10.579097 15.617624
-0.011542254 -0.37625051 6.3488183
0.16791981 -7.4490633 28.724306
0.23263067 -8.9990234 24.534197
0.24649362 -8.5028934 13.984151
0.37219086 -12.538321 16.68479
0.4044289 -13.311563 14.515615
0.45577842 -13.665877 13.516682
0.47423425 -13.99956 11.377022
0.45128512 -13.253821 8.7792339
0.4634608 -13.473367 7.1434216
0.44680718 -13.9831 12.541617
0.49049181 -15.18454 11.145838
0.4262757 -13.125576 7.8027329
0.46003601 -13.9404 6.5352907
0.8806026 -26.268608 1.1539196
-0.016743848 -0.065595582 6.2490354
0.084139407 -6.405004 40.719669
0.1106325 -6.2013979 29.842566
0.18166143 -7.998642 25.624384
0.24557185 -9.2513494 17.027336
0.29174721 -10.574554 15.609361
-0.012844914 -0.37591943 6.3438263
0.14263403 -7.4873061 28.869488
0.20133245 -9.0049562 24.548275
0.21707727 -8.5141306 14.001215
0.32881609 -12.554605 16.704741
0.35768706 -13.302727 14.50459
0.4080728 -13.667385 13.516682
0.42524558 -13.997239 11.373882
0.40195319 -13.155009 8.713439
0.41505891 -13.430625 7.1202335
0.46199694 -14.865673 6.0973401
0.39841908 -13.999502 12.554918
0.43667018 -15.157877 11.125236
0.38020658 -13.118367 7.797667
0.41204143 -13.964604 6.5457816
-0.016972717 -0.06553673 6.2490354
0.06174396 -6.4013734 40.694969
0.088868335 -6.1936011 29.803404
0.15471415 -8.0499697 25.786631
0.21294609 -9.2377834 17.001003
-0.014145402 -0.37558383 6.3388348
0.11663426 -7.4965558 28.903364
0.17006068 -9.0142307 24.571739
0.18747081 -8.520052 14.009747
0.28485361 -12.549653 16.696762
0.31196323 -13.334398 14.537666
0.37617427 -13.990856 11.367605
0.35535258 -13.131252 8.696991
0.36781067 -13.418708 7.113277
0.41023105 -14.871829 6.0992131
0.35001522 -14.019472 12.571547
0.38344985 -15.147187 11.116406
0.33430275 -13.115304 7.7951341
0.36164117 -13.90244 6.5164084
1.0139204 -38.210205 1.6355784
-0.017201379 -0.065477088 6.2490354
0.039327428 -6.3898954 40.62088
0.067148924 -6.1847095 29.759346
0.12748109 -8.1056843 25.963194
0.17990308 -9.1977634 16.926388
0.21136799 -10.258416 15.142337
-0.01545635 -0.37553218 6.3388348
0.090707883 -7.5170274 28.980795
0.13859411 -9.0147696 24.571739
0.21478292 -11.182805 14.88529
0.26555052 -13.342185 14.545017
0.32724378 -13.988193 11.364468
0.30961227 -13.136593 8.6997318
0.32096836 -13.419909 7.113277
0.3588745 -14.896345 6.1085787
0.91023469 -37.511917 11.119316
0.30131641 -14.031806 12.581523
0.29486263 -13.511809 9.9244251
0.28908852 -13.14225 7.8103328
0.31178212 -13.844632 6.4891338
0.88168663 -38.263458 1.6375939
-0.01744426 -0.065457821 6.254035
0.017052801 -6.401649 40.694969
0.045500144 -6.1767612 29.720186
0.099587403 -8.138917 26.068178
0.14710361 -9.1552305 16.847385
0.17618385 -10.29567 15.196065
-0.016767107 -0.37547594 6.3388348
0.064597003 -7.5323811 29.038866
0.10659336 -8.9703341 24.449726
0.17664559 -11.24073 14.9611
0.21925408 -13.359979 14.563393
0.27833644 -13.985357 11.361329
0.26308379 -13.10415 8.6778002
0.27412221 -13.420948 7.113277
0.30687436 -14.897508 6.1085787
0.78008509 -37.553234 11.130596
0.25226733 -14.02904 12.578198
0.24369606 -13.294526 9.7654953
0.24185604 -13.069908 7.7672687
0.26284906 -13.813871 6.4744477
-0.017672645 -0.065396532 6.254035
-0.0052830568 -6.3900146 40.62088
0.02389594 -6.1656818 29.666338
0.11472366 -9.1221619 16.785938
0.14127848 -10.372191 15.307653
0.18672204 -13.20297 15.8856
-0.01807766 -0.37541512 6.3388348
0.038424574 -7.5564432 29.130817
0.075280406 -8.9706516 24.449726
0.1015026 -9.8474493 20.426252
0.13725981 -11.229227 14.94514
0.17283662 -13.377612 14.581768
0.22951673 -13.986244 11.361329
0.21699354 -13.084085 8.664093
0.22689773 -13.399678 7.1016831
0.25399828 -14.8475 6.0879755
0.68259192 -38.718033 3.5694153
0.20324121 -14.026102 12.574872
0.19476962 -13.125549 9.6418819
0.19564974 -13.031879 7.7444701
0.21455757 -13.810167 6.4723496
-0.017900815 -0.065334447 6.254035
-0.02761546 -6.396173 40.660397
0.0023721263 -6.1616554 29.646757
0.048572224 -9.2484779 29.613762
0.082750246 -9.1081362 16.759604
0.10524283 -10.389505 15.332452
0.14073633 -13.213156 15.897113
-0.019387992 -0.37534973 6.3388348
0.012059279 -7.5640726 29.159853
0.043848459 -8.9467001 24.384027
0.067350239 -9.8803968 20.493773
