# .PCD v0.7 - Point Cloud Data file format
VERSION 0.7
FIELDS x y z
SIZE 4 4 4
TYPE F F F
COUNT 1 1 1
WIDTH 1535
HEIGHT 1
VIEWPOINT 0 0 0 1 0 0 0
POINTS 1535
DATA ascii
2.7761357 -7.7574286 17.099855
3.3115168 -9.2180576 16.091524
11.334503 -31.006462 13.426518
8.4458799 -23.255283 14.624584
11.819341 -32.473324 12.116539
0.0045073736 -0.063450292 5.7790532
1.3410833 -3.927259 26.381001
1.7466329 -5.037611 25.657145
3.3656147 -9.4828339 23.765053
3.7766829 -10.5942 20.67905
3.8146555 -10.66545 16.708725
0.098854169 -0.34132642 5.9844275
0.20851392 -0.63208032 6.1644764
2.2580137 -6.487237 26.48365
3.1086774 -8.8370323 25.529062
2.7715564 -7.8306913 17.239395
3.2932897 -9.2688799 16.159779
10.917215 -30.191345 13.059404
8.3646526 -23.284622 14.624584
10.747767 -29.853025 11.132076
0.0042858631 -0.06346564 5.7790532
1.3363116 -3.9584196 26.558813
1.7280473 -5.0407877 25.64246
2.7942824 -8.0236397 27.208683
3.3324931 -9.494525 23.765053
3.7325125 -10.58699 20.639549
0.097662121 -0.34166938 5.9844275
0.20630625 -0.63280433 6.1644764
2.2320828 -6.4855709 26.444935
3.0749769 -8.8396807 25.505598
2.7427666 -7.8362079 17.230392
3.2868526 -9.3541374 16.287756
10.813323 -30.233633 13.061275
8.2645607 -23.260872 14.591653
10.627656 -29.845875 11.115642
0.004064301 -0.063480213 5.7790532
1.3303548 -3.9866459 26.716869
2.109122 -6.223289 31.614637
2.7716036 -8.048871 27.261175
3.3121419 -9.5430126 23.857101
3.6884384 -10.579601 20.600046
0.096468873 -0.3420082 5.9844275
0.20409611 -0.6335206 6.1644764
2.2053816 -6.4814229 26.396542
3.0418568 -8.843833 25.48683
2.699733 -7.8004756 17.131365
3.2832832 -9.4493141 16.432798
10.630424 -30.052668 12.967625
8.1561632 -23.212305 14.543522
11.423238 -32.456059 15.993312
10.513998 -29.856068 11.105782
0.0038426886 -0.063494019 5.7790532
1.3188642 -3.9986451 26.766264
2.0867388 -6.2286816 31.604845
2.7377183 -8.0415392 27.203909
3.2788105 -9.5545158 23.857101
3.6553888 -10.603733 20.621994
0.095274448 -0.34234285 5.9844275
0.20172212 -0.63372117 6.1595049
2.182744 -6.4890819 26.396542
3.0087454 -8.8478622 25.468058
2.6633255 -7.7830758 17.072847
3.2579057 -9.4829168 16.471191
10.51474 -30.058962 12.954514
12.689656 -36.215675 7.3771005
8.2094965 -23.627474 14.784174
11.168153 -32.088531 15.793997
10.414375 -29.905964 11.110711
0.0036210301 -0.063507043 5.7790532
1.3048981 -4.0032244 26.766264
2.0633841 -6.2310953 31.580372
2.7091553 -8.0496321 27.199139
3.2454391 -9.5659027 23.857101
3.4258873 -10.0174 15.621758
0.094078869 -0.34267336 5.9844275
0.19950879 -0.63442141 6.1595049
2.1545279 -6.4799633 26.328791
2.9756427 -8.8517675 25.449286
3.2382042 -9.533742 16.539446
10.347619 -29.915852 12.87772
12.52135 -36.139072 7.3528528
8.211009 -23.900602 14.936166
11.073796 -32.178818 15.819173
10.334518 -30.013571 11.137007
9.822648 -28.494719 1.3095014
0.0033993272 -0.063519299 5.7790532
1.2932979 -4.0151505 26.815655
1.6584486 -5.0673265 25.657145
2.6782131 -8.0505409 27.170506
3.2076795 -9.5642071 23.824884
2.8762217 -8.5363941 16.575262
3.3872941 -10.018634 15.605227
0.092882149 -0.34299967 5.9844275
0.19713522 -0.63460487 6.1545329
2.9425495 -8.8555498 25.430515
2.5647399 -7.6693473 16.784771
3.1974342 -9.5227356 16.501053
10.105119 -29.548231 12.7054
10.180991 -29.906416 11.084414
9.284749 -27.242588 1.254685
0.0031762046 -0.063574389 5.7840533
1.2809238 -4.0248237 26.850229
1.6379305 -5.0643659 25.613089
2.6454332 -8.04566 27.122787
3.1724308 -9.5697832 23.811077
2.8554876 -8.5736494 16.62793
3.3567615 -10.043741 15.625891
0.091684289 -0.34332177 5.9844275
0.19491884 -0.63528907 6.1545329
2.0261588 -6.239006 25.293154
2.9094663 -8.8592091 25.411743
2.5379534 -7.6782532 16.784771
3.1707466 -9.5536423 16.535181
9.9796429 -29.517448 12.677305
12.268749 -36.225609 7.3528528
8.9377661 -26.390305 2.594336
9.3889923 -27.866634 1.2798764
0.0029542691 -0.063585088 5.7840533
1.2617407 -4.0129633 26.741566
1.9915122 -6.2319932 31.477571
2.6122584 -8.0392294 27.070295
3.1365733 -9.5733719 23.792667
2.8270402 -8.5881147 16.636709
3.8477416 -11.64792 18.08913
0.09055803 -0.3439191 5.9894185
0.19254582 -0.63545531 6.1495614
2.0028322 -6.2412529 25.273794
2.8769262 -8.8643866 25.397665
2.4732816 -7.5711827 16.532703
3.139817 -9.5720854 16.547977
3.9857025 -12.122384 16.972073
9.8559742 -29.490549 12.651083
12.182769 -36.38932 7.3771005
8.8139715 -26.326895 2.5853944
7.6438985 -23.031988 14.345934
9.3374424 -28.036699 1.2857208
0.0027322972 -0.063595012 5.7840533
1.246573 -4.0136323 26.716869
1.9691331 -6.2369642 31.467779
2.582355 -8.042614 27.051207
3.1007299 -9.576828 23.774256
2.7985265 -8.6024857 16.645487
3.8070593 -11.66128 18.08913
0.089356974 -0.3442331 5.9894185
0.1903265 -0.63612354 6.1495614
2.295938 -7.2415118 29.285679
2.8438582 -8.8678026 25.378895
2.4602132 -7.6212034 16.622726
3.1071892 -9.5854683 16.552244
3.9461563 -12.144819 16.984043
9.6831751 -29.313477 12.561176
12.030981 -36.35701 7.3621788
8.7220192 -26.3575 2.5853944
7.6024184 -23.177317 14.419396
9.6503296 -29.33436 4.3992786
9.2598267 -28.130814 1.2883407
0.0025102932 -0.063604161 5.7840533
1.2300493 -4.009788 26.662539
1.9455315 -6.2379684 31.43841
2.55246 -8.0458879 27.032118
3.065496 -9.5820103 23.760448
2.764817 -8.6008024 16.623543
3.7620103 -11.661106 18.068464
0.08815483 -0.34454292 5.9894185
0.18825555 -0.63729542 6.1545329
1.9565816 -6.2466865 25.23992
2.8113229 -8.8727398 25.364817
2.4600551 -7.7127051 16.802776
3.0760977 -9.6037073 16.565042
3.8991332 -12.144175 16.964092
9.5865479 -29.364727 12.568668
11.05547 -33.844212 10.555303
11.827651 -36.16534 7.3155479
8.5448227 -26.127457 2.5608051
7.5214677 -23.203712 14.419396
9.7303381 -29.946848 11.048259
9.4207945 -28.976986 4.3419523
9.0966635 -27.963427 1.2798764
0.0022882577 -0.063612536 5.7840533
1.2149189 -4.0103393 26.637842
2.524359 -8.0547485 27.032118
3.0290859 -9.5833387 23.737436
2.7326026 -8.6035519 16.610374
3.718719 -11.666123 18.056065
4.0187407 -12.584607 15.893275
0.086881831 -0.34456843 5.9844275
0.1861787 -0.63846052 6.1595049
2.2430983 -7.2501588 29.256641
2.7782722 -8.8759117 25.346045
2.4285381 -7.7067108 16.771267
3.0519977 -9.6442242 16.616234
3.85763 -12.160585 16.968082
4.1374879 -13.011328 14.879457
7.3911009 -22.924244 12.694629
9.492527 -29.424482 12.579906
10.966739 -33.9739 10.583504
8.4918547 -26.275589 2.5719821
7.4535756 -23.27088 14.444728
9.6632757 -30.097527 11.090989
9.313529 -28.990835 4.3391895
9.0020571 -28.004522 1.2802794
0.0020661948 -0.063620135 5.7840533
1.197796 -4.0041337 26.568693
2.4966691 -8.0649376 27.03689
2.9950333 -9.5919895 23.732836
2.6968181 -8.594758 16.575262
3.6720572 -11.660244 18.027134
3.976716 -12.604671 15.90095
0.085678533 -0.34486961 5.9844275
0.18409602 -0.63961881 6.1644764
2.213002 -7.2423167 29.193727
2.7457435 -8.8806105 25.331966
2.4016216 -7.7151418 16.771267
3.0439939 -9.7369633 16.757008
3.8043447 -12.139471 16.920202
4.0930605 -13.028924 14.883131
7.059895 -22.188305 15.350529
7.4186025 -23.287567 12.880133
9.3672333 -29.386768 12.549939
8.3713026 -26.214939 2.5634875
7.3736 -23.300865 14.447262
9.1538467 -28.839088 4.312253
8.951129 -28.183384 1.2865269
0.0018441058 -0.06362696 5.7840533
1.1853517 -4.0135069 26.603268
1.5174505 -5.0507498 25.378119
2.4706836 -8.08074 27.060751
2.9580779 -9.5911846 23.705219
2.663964 -8.5949678 16.557705
3.6338403 -11.681052 18.039534
3.9279249 -12.603176 15.881763
0.084406346 -0.34488595 5.9794354
0.1822982 -0.64179611 6.1793909
2.1862559 -7.2451844 29.174372
2.7127118 -8.8835382 25.313196
2.3817134 -7.746367 16.820782
3.0415354 -9.8496981 16.931911
3.7539277 -12.12677 16.884291
4.0425324 -13.026943 14.864756
4.20649 -13.414564 13.895172
6.989924 -22.236748 15.366978
7.3904624 -23.48234 12.972884
9.3314362 -29.631535 12.639844
8.2797432 -26.243999 2.5634875
7.2690682 -23.252403 14.401665
8.6545477 -27.599785 4.1264601
8.8706436 -28.27166 1.2889453
0.0016219951 -0.06363301 5.7840533
1.1709 -4.0161281 26.59339
1.5024165 -5.0648012 25.422174
2.4441874 -8.0950317 27.079838
2.9217341 -9.5921068 23.682207
2.6290388 -8.5881834 16.526981
3.6070943 -11.739395 18.109795
3.8763635 -12.592302 15.851062
0.08320196 -0.34517846 5.9794354
0.1796262 -0.64088845 6.1644764
2.1584399 -7.244339 29.140495
2.679693 -8.8863449 25.294424
2.3793256 -7.8358712 16.996328
3.0147431 -9.8852015 16.974571
3.7150979 -12.151326 16.900251
3.9910746 -13.021527 14.842705
4.1575289 -13.422354 13.888165
6.8750615 -22.141211 15.284734
8.1658573 -26.201424 2.5567813
4.257103 -13.812052 12.953979
6.9818158 -22.610374 13.99129
8.5522938 -27.610907 4.1236978
8.8118362 -28.431295 1.2943866
0.0013998648 -0.063638285 5.7840533
1.1570888 -4.0209374 26.59833
1.4815805 -5.0592656 25.368326
2.4167686 -8.1063757 27.089382
2.5976582 -8.5927229 16.518204
3.5865219 -11.819234 18.213118
3.8314524 -12.602692 15.847225
0.081996553 -0.34546679 5.9794354
0.17752972 -0.64202541 6.1694474
2.1310112 -7.2445941 29.11146
2.6471806 -8.8906832 25.280346
2.3563352 -7.8587255 17.027836
2.9757063 -9.8806801 16.948975
3.6822398 -12.195951 16.944143
3.9416683 -13.022401 14.828005
4.1127367 -13.443604 13.895172
6.6248636 -21.601404 14.898188
6.9571786 -22.656788 12.492892
8.1007204 -26.315439 2.5648289
4.2110386 -13.83397 12.960629
6.7569804 -22.1563 13.69744
8.3486595 -27.290169 4.072587
8.6979151 -28.414106 1.2923713
0.0011777175 -0.063642785 5.7840533
1.1428337 -4.0242043 26.59339
1.4670211 -5.0751667 25.422174
2.3897214 -8.1190577 27.103699
2.5655935 -8.5948544 16.505037
3.5565512 -11.86942 18.270979
3.7791431 -12.588359 15.812688
0.080790147 -0.3457509 5.9794354
0.17472778 -0.64058375 6.1495614
2.1039574 -7.2459531 29.087261
2.6141832 -8.8932467 25.261574
2.3295066 -7.8689899 17.032337
2.9293048 -9.8510103 16.88072
3.6525581 -12.252046 17.003992
3.890363 -13.016591 14.805953
4.0565028 -13.427155 13.863632
6.4245777 -21.2122 14.615815
6.9127588 -22.795391 12.5555
8.4743538 -27.874861 5.6228423
8.1420774 -26.781906 2.6059601
4.1551995 -13.823555 12.937351
6.6547389 -22.097198 13.646777
9.4286089 -31.229004 11.442699
7.929687 -26.247803 3.9164934
8.6290379 -28.544724 1.2966034
0.00095555559 -0.063646503 5.7840533
1.1287796 -4.0281692 26.59339
1.4484588 -5.0773191 25.40749
2.3567853 -8.1115818 27.051207
1.9922776 -6.7950597 16.7416
2.5200047 -8.5509186 16.404089
3.5071144 -11.854777 18.229649
3.754307 -12.666009 15.893275
0.079582758 -0.34603083 5.9794354
0.17166179 -0.63810068 6.1197329
2.0758815 -7.2435861 29.048546
2.5812008 -8.8956881 25.242805
2.889024 -9.841157 16.846594
3.6259329 -12.319644 17.079803
3.8449025 -13.030092 14.805953
4.0055308 -13.427563 13.849614
6.2881942 -21.02618 14.473259
8.064292 -26.862631 2.6108778
4.1058588 -13.834397 12.934027
6.572649 -22.103765 13.636644
9.3222418 -31.270781 11.445988
7.7842245 -26.094995 3.8902476
8.717967 -29.206583 1.3232056
0.00073338149 -0.063649453 5.7840533
1.1145051 -4.0313363 26.588449
1.4315543 -5.0852847 25.422174
2.3268104 -8.1140194 27.032118
1.9674603 -6.7982192 16.732395
2.4754236 -8.5090714 16.307528
3.4633453 -11.858844 18.217251
3.7199731 -12.712875 15.935488
0.078374401 -0.3463065 5.9794354
0.17093319 -0.6443646 6.1744189
2.0505841 -7.2507882 29.048546
2.548708 -8.8996668 25.228725
2.1936681 -7.6047788 16.429176
2.8473952 -9.8261309 16.803934
3.5871108 -12.346693 17.099752
3.8012919 -13.049944 14.813304
3.9546053 -13.427778 13.835596
6.1934471 -20.975819 14.423914
7.905375 -26.670982 2.5903122
4.0522938 -13.830729 12.917397
6.4590263 -22.002485 13.560649
9.2050295 -31.275951 11.436127
7.6930885 -26.122009 3.8902476
7.6740036 -26.040451 1.1887844
0.00051119924 -0.063651629 5.7840533
1.1004262 -4.035202 26.588449
1.4135224 -5.0892696 25.41728
2.2956281 -8.1120386 26.998714
1.9431818 -6.8031678 16.727793
2.4443843 -8.5130558 16.29875
3.4203708 -11.865453 18.208984
3.6915832 -12.781212 16.004562
0.07716509 -0.34657797 5.9794354
2.0239103 -7.2530584 29.029188
2.5162189 -8.9035273 25.214647
2.1611485 -7.5914521 16.384163
2.8152301 -9.8435335 16.816732
3.5423295 -12.353346 17.091772
3.7650831 -13.095714 14.850055
3.9027321 -13.424378 13.818073
6.1201906 -20.997309 14.423914
6.6786366 -22.883541 12.564775
10.623755 -36.30685 7.2735796
7.817822 -26.717533 2.5921006
3.9998412 -13.830442 12.904097
6.3101964 -21.776468 13.408658
6.7729998 -23.327938 11.316752
9.0694504 -31.217194 11.403255
7.5175319 -25.858637 3.8481162
7.5565448 -25.975939 1.1849554
0.00028901058 -0.063653022 5.7840533
1.086334 -4.0390186 26.588449
1.3962868 -5.096137 25.427071
2.2652907 -8.1128139 26.974855
1.9215422 -6.8174305 16.746202
2.4192238 -8.5376663 16.329473
3.3766217 -11.869201 18.196585
3.6530964 -12.815598 16.031425
0.07595484 -0.34684521 5.9794354
1.9979129 -7.2576556 29.01951
2.4841976 -8.9089317 25.205261
2.1469994 -7.6429615 16.478687
2.7723517 -9.8231792 16.765539
3.497546 -12.359838 17.083794
3.7397053 -13.180529 14.930909
3.8637168 -13.465343 13.846108
6.0191131 -20.9221 14.358118
6.6673856 -23.14509 12.694629
7.9821043 -27.636515 5.5528955
7.7562947 -26.8547 2.6023834
3.9474409 -13.829959 12.890795
6.0741253 -21.238836 13.066679
6.717783 -23.443058 11.360811
8.9916649 -31.357603 11.442699
7.4012718 -25.794281 3.8349934
6.3311825e-05 -0.063697129 5.789053
1.0726268 -4.0442882 26.59833
1.3766305 -5.0940995 25.392805
2.2333903 -8.1077204 26.931906
1.9008735 -6.8353896 16.773817
3.3328884 -11.872787 18.184187
3.6048679 -12.815929 16.016075
0.074743658 -0.34710824 5.9794354
1.9715786 -7.2609463 29.004992
2.4526269 -8.9158859 25.200569
2.1267028 -7.6734858 16.528202
2.7254531 -9.7875738 16.688753
3.4527602 -12.366166 17.075813
3.7037275 -13.229414 14.971336
3.8176625 -13.48218 13.849614
5.9460444 -20.942984 14.358118
7.9084778 -27.744516 5.5687499
7.6270137 -26.757093 2.5907595
3.8991413 -13.843654 12.890795
5.9882421 -21.218424 13.041348
6.6680212 -23.579916 11.415361
8.9220114 -31.529661 11.493649
7.4029326 -26.143959 3.8819594
-0.0001590327 -0.063696966 5.789053
1.0581101 -4.046504 26.588449
1.3585781 -5.0978894 25.387909
2.2054667 -8.1169071 26.93668
2.4149635 -8.7552118 16.711325
3.289171 -11.876212 18.171787
3.559253 -12.825345 16.012238
0.073472582 -0.34708443 5.9744439
1.9452459 -7.2641416 28.990473
2.4169707 -8.9077377 25.153641
2.0976079 -7.6724629 16.510197
2.7016339 -9.8347511 16.752743
3.4071727 -12.369429 17.063843
3.6566231 -13.238993 14.96766
3.7993665 -13.598465 13.95475
5.816504 -20.762291 14.221045
7.8568063 -27.932732 5.6004591
7.470192 -26.558239 2.5697467
3.8487947 -13.849984 12.884144
5.9765825 -21.463446 13.178139
6.6405592 -23.799767 11.509773
8.8284063 -31.619736 11.515015
7.3929124 -26.460575 3.9240909
7.3769331 -26.385632 1.1988609
-0.00038137587 -0.063696019 5.789053
1.0430093 -4.046411 26.563755
1.3394812 -5.0976768 25.363432
2.1775064 -8.1259975 26.94145
1.9347482 -7.1502295 17.510221
2.3843875 -8.763588 16.711325
3.2454703 -11.879478 18.159389
3.5110772 -12.825325 15.996887
0.072260581 -0.34733877 5.9744439
1.9189149 -7.267242 28.975956
2.3822942 -8.9027843 25.1161
2.0685465 -7.6713314 16.492193
2.6891129 -9.9246731 16.889252
3.3623943 -12.37543 17.055862
3.6077147 -13.241863 14.956635
3.7623003 -13.649464 13.9933
5.7495646 -20.80262 14.234752
6.9327283 -25.049444 13.691712
7.7513738 -27.931587 5.5948639
7.3801041 -26.593748 2.5706408
3.804374 -13.877739 12.897446
5.7572045 -20.972742 15.919644
5.895916 -21.463394 13.165473
6.5490108 -23.792173 11.495088
8.7656307 -31.823359 11.577467
7.2952399 -26.467125 3.9213283
7.2196946 -26.175234 1.1889859
-0.00060371449 -0.063694298 5.789053
1.0277308 -4.0455084 26.534119
1.3196366 -5.0944357 25.32427
2.1479843 -8.12922 26.927135
1.9153178 -7.1777029 17.56085
2.3525412 -8.7672319 16.702545
3.2025194 -11.8853 18.151123
3.4637806 -12.828221 15.985375
0.070990697 -0.34730589 5.9694519
1.892586 -7.2702465 28.961435
2.3485618 -8.9010344 25.087942
2.0467906 -7.6974401 16.532703
2.65378 -9.9314804 16.884987
3.3168359 -12.37836 17.043894
3.5597103 -13.247828 14.949285
3.7127602 -13.65563 13.986291
6.7950807 -24.889736 13.592004
10.491258 -38.402168 16.172384
7.3056388 -26.686594 2.5769
3.7695525 -13.941395 12.944002
5.6765656 -20.965397 15.899041
6.2958665 -23.188555 11.195065
8.6879225 -31.976803 11.621843
7.1183586 -26.181818 3.8764338
6.9931912 -25.703743 1.1682283
-0.00082604523 -0.063691802 5.789053
1.0126598 -4.0453024 26.509422
1.2995791 -5.0901318 25.280212
2.1259913 -8.1612244 27.008259
2.3262117 -8.7915974 16.733269
3.1602898 -11.893687 18.14699
3.4165063 -12.83094 15.973862
0.069777936 -0.34755158 5.9694519
1.8665718 -7.2743735 28.951757
2.3140016 -8.8958178 25.050402
2.0099721 -7.6666336 16.451681
2.6117873 -9.9129419 16.838062
3.2712982 -12.381124 17.031923
3.5108402 -13.250342 14.938259
3.6613762 -13.654728 13.972273
5.5043063 -20.470755 13.982537
10.378856 -38.519131 16.206099
3.7314465 -13.994154 12.980583
5.5699811 -20.860119 15.80486
5.5834608 -20.89599 12.795629
6.1526685 -22.978031 11.083868
8.7375784 -32.60902 11.838786
6.997426 -26.096495 3.8605483
6.9655728 -25.959608 1.1779017
-0.0010483661 -0.063688532 5.789053
0.99704492 -4.0427771 26.469908
1.2798162 -5.0867376 25.241053
2.101203 -8.1830549 27.055979
2.49101 -9.6039238 23.43367
2.2973225 -8.8066158 16.746435
3.1166143 -11.89648 18.13459
3.3692555 -12.833488 15.96235
0.068509296 -0.34750962 5.9644604
1.8402437 -7.2771888 28.937239
2.2855065 -8.9138689 25.078558
1.9733939 -7.6356649 16.370661
2.5247173 -9.7200565 16.496788
3.2257812 -12.383718 17.019953
3.462853 -13.255956 14.930909
3.610955 -13.657082 13.96176
5.4338875 -20.493885 13.985278
6.7770333 -25.452063 2.45753
3.6939671 -14.050426 13.020489
5.4837537 -20.828621 15.7666
5.5093875 -20.911182 12.793096
6.0365076 -22.863337 11.018829
8.6273155 -32.653019 11.843717
6.9328709 -26.221298 3.8750525
6.9247518 -26.172125 1.1857615
-0.0012706742 -0.063684486 5.789053
0.98439384 -4.0522733 26.509422
1.2603376 -5.0842557 25.206785
2.0696964 -8.1787624 27.017803
2.4574709 -9.6125603 23.43367
3.0771801 -11.915461 18.14699
3.3228314 -12.838965 15.954675
0.067241803 -0.3474631 5.9594688
1.8142225 -7.2811284 28.927561
2.2569141 -8.9318323 25.106714
1.9440417 -7.6319585 16.348154
2.4357924 -9.5140543 16.134182
3.1802862 -12.386147 17.007982
3.4148693 -13.261397 14.923558
3.5596628 -13.6558 13.947742
5.3527999 -20.47632 13.960606
5.7521348 -21.972607 11.975801
7.0537834 -26.868286 5.3654394
6.7197614 -25.595984 2.4687068
3.6411526 -14.048777 13.007187
5.3318095 -20.542471 15.537032
5.5263081 -21.276592 13.003349
5.9326549 -22.792036 10.974771
8.521616 -32.714924 11.855221
6.887517 -26.422644 3.9006078
6.8005652 -26.070448 1.1805216
-0.0014929665 -0.063679665 5.789053
0.97006202 -4.0549288 26.504482
1.2408922 -5.0817003 25.17252
2.4186518 -9.6002417 23.383043
2.4087512 -9.5049915 18.036825
3.0286272 -11.898858 18.105659
3.2756183 -12.841168 15.943163
0.06602852 -0.34769568 5.9594688
1.7881962 -7.2849755 28.917881
1.9255592 -7.7339745 21.727922
1.9210993 -7.6534781 16.379662
2.3476989 -9.3050222 15.767311
3.1348138 -12.388411 16.996014
3.3668897 -13.266665 14.916208
3.5093112 -13.65778 13.937228
4.1453023 -16.098074 13.486064
5.6777887 -22.033558 15.002362
5.6466222 -21.881031 11.915512
6.9513369 -26.859453 5.3589106
6.6553273 -25.715704 2.4776483
3.5874705 -14.043314 12.99056
5.253058 -20.533546 15.516431
5.5525041 -21.688309 13.241468
5.827117 -22.711493 10.926515
8.9233398 -34.728905 8.7389393
6.7952428 -26.446526 3.9006078
6.9098258 -26.873034 1.2129681
-0.0017152409 -0.063674062 5.789053
0.9560799 -4.0590467 26.509422
1.2226701 -5.0840211 25.162729
2.3827729 -9.599144 23.360031
2.3680153 -9.4831352 17.979767
2.9822819 -11.890251 18.076729
3.2284303 -12.843199 15.931651
0.064762361 -0.3476401 5.9544773
1.7627561 -7.291173 28.917881
1.8977286 -7.7372961 21.718536
1.9011654 -7.6876092 16.438177
2.3126876 -9.3030376 15.750249
3.0893638 -12.390505 16.984043
3.3180926 -13.26847 14.905183
3.4589884 -13.659574 13.926713
4.1149354 -16.21431 13.570803
5.6955357 -22.426098 15.254578
5.5854955 -21.960711 11.947975
7.3472042 -28.866251 12.122888
6.9316015 -27.173904 5.4158006
6.6750717 -26.168243 2.5174384
3.5384283 -14.055751 12.99056
5.1853032 -20.567434 15.528203
5.7003298 -22.593681 13.778502
5.6710367 -22.428091 10.781749
8.8163767 -34.816383 8.7530069
6.6360264 -26.206053 3.8626204
-0.0019326239 -0.06362433 5.7840533
0.94208068 -4.0631161 26.51436
1.2039778 -5.0842948 25.143147
2.349715 -9.6093006 23.364632
2.9468346 -11.925175 18.113926
3.1812677 -12.845055 15.920137
0.063548483 -0.34786403 5.9544773
1.735548 -7.2899451 28.888845
1.8719245 -7.7489061 21.732616
1.8748344 -7.6963148 16.442678
2.2864032 -9.3363848 15.792908
3.0439379 -12.392435 16.972073
3.2693241 -13.270097 14.894158
3.4086967 -13.661185 13.9162
4.0828629 -16.326752 13.652403
5.5309343 -22.101055 15.021552
5.5088043 -21.980074 11.947975
6.8331118 -27.183643 5.4130025
6.635891 -26.399063 2.5366628
3.4875453 -14.060767 12.983909
5.1183491 -20.605022 15.542919
5.6359873 -22.672009 13.813967
8.6877298 -34.818645 8.7459726
6.3047395 -25.268105 3.7244842
-0.0021547028 -0.0636172 5.7840533
0.92789203 -4.06638 26.51436
1.1852984 -5.0844998 25.123566
2.3152432 -9.6136456 23.355427
2.2154648 -9.1433058 17.308237
3.1341319 -12.846741 15.908626
0.062333822 -0.34808376 5.9544773
1.7092303 -7.2922873 28.874327
1.852851 -7.788969 21.826469
1.8525283 -7.7218637 16.483191
2.2586911 -9.3645926 15.827036
2.9992445 -12.397127 16.964092
3.2205839 -13.271543 14.883131
3.3584359 -13.662611 13.905686
4.0426064 -16.40893 13.708894
5.3566613 -21.726421 14.75563
5.3385978 -21.620714 11.74392
6.79074 -27.481161 11.52539
6.7275534 -27.164415 5.4046092
6.5496864 -26.446236 2.5388982
3.4366703 -14.065602 12.977257
5.0473542 -20.626692 15.545863
5.5116973 -22.507311 13.702506
5.3228397 -21.686974 10.410394
6.1987681 -25.217827 3.7141242
-0.002371581 -0.063565969 5.7790532
0.91437286 -4.0726271 26.534119
1.1675429 -5.0886064 25.123566
2.281671 -9.6216688 23.355427
2.1740859 -9.1113815 17.233624
2.4148293 -10.073689 15.286989
3.087023 -12.848252 15.897113
0.061118402 -0.34829921 5.9544773
1.6815047 -7.2884111 28.835611
2.092819 -8.9362564 25.012859
1.8255627 -7.7282834 16.483191
2.236836 -9.4180927 15.903821
2.9538574 -12.398728 16.952124
3.1718743 -13.272813 14.872107
3.3082063 -13.663853 13.895172
4.0091691 -16.52129 13.790495
5.2610531 -21.663719 14.700802
5.2348285 -21.522999 11.681313
6.6583047 -27.292727 5.425127
6.5222483 -26.735033 2.5634875
3.3849308 -14.066623 12.967281
5.3967128 -22.375551 13.611313
6.0407867 -24.950529 3.6726832
-0.002593453 -0.063557297 5.7790532
0.89998358 -4.0750351 26.529179
1.1477555 -5.0837116 25.079508
2.2458508 -9.6200628 23.332415
2.5503137 -10.855899 20.503489
2.3660762 -10.024544 15.200197
3.0392036 -12.846473 15.881763
0.05990224 -0.34851041 5.9544773
1.6510444 -7.2721725 28.748503
2.0604501 -8.9384613 24.998781
2.215229 -9.4740953 15.984875
2.9105597 -12.408963 16.952124
3.1224184 -13.270603 14.857406
3.2580092 -13.66491 13.884659
3.9849477 -16.675255 13.906617
5.274879 -22.056091 14.953015
5.1751456 -21.605762 11.716095
6.7575784 -28.190605 11.800726
6.5687327 -27.339682 5.42979
3.333226 -14.067453 12.957305
5.4688067 -23.044689 17.329418
5.345469 -22.507494 13.679708
5.2564406 -22.081232 10.580337
5.9490623 -24.952194 3.6699207
-0.0028152938 -0.063547857 5.7790532
0.8870725 -4.0842261 26.568693
1.1302239 -5.0886812 25.084404
2.1106694 -9.2894831 30.50135
2.2118192 -9.6259394 23.327812
2.5064688 -10.839067 20.455208
2.3348908 -10.049189 15.224996
2.9921615 -12.847639 15.870251
0.058638245 -0.34843257 5.9494853
1.5297549 -6.8485308 27.054703
2.0292363 -8.9455996 24.998781
2.1827295 -9.4843111 15.989141
2.8597705 -12.386751 16.908232
3.0730166 -13.26821 14.842705
3.2078452 -13.665785 13.874146
3.9302819 -16.704218 13.919171
5.2400255 -22.253456 15.073641
5.0996957 -21.623695 11.716095
5.7635384 -24.419474 10.225505
6.4766517 -27.376783 5.4325876
5.9112449 -24.986818 2.3980684
3.2815564 -14.068093 12.947328
5.4030457 -23.126614 17.376509
5.1700101 -22.059675 10.561454
5.8958759 -25.117439 3.6906412
-0.0030371002 -0.063537642 5.7790532
0.87621689 -4.1032553 26.672417
1.1154958 -5.1065226 25.152937
2.0710664 -9.2647457 30.396368
2.1764817 -9.6259794 23.309402
2.482435 -10.908468 20.569323
2.2997985 -10.057278 15.224996
2.9430001 -12.83926 15.847225
0.057375524 -0.34835014 5.9444938
1.5071882 -6.8599668 27.078899
1.993112 -8.9307337 24.937775
2.1421216 -9.458806 15.933684
2.8145125 -12.387842 16.896263
3.0236697 -13.265635 14.828005
3.1577148 -13.666475 13.863632
3.8710713 -16.714045 13.916034
5.1821423 -22.357153 15.131211
5.01617 -21.606844 11.697544
5.6772141 -24.434925 10.223632
6.3855062 -27.418362 5.4363184
5.8646526 -25.181908 2.4141631
3.2299232 -14.068545 12.937351
5.3394966 -23.220181 17.432428
5.0344892 -21.876307 13.276933
5.0909357 -22.068743 10.557258
5.8081641 -25.137867 3.6906412
-0.0032588688 -0.06352666 5.7790532
0.86252671 -4.1093307 26.692175
1.1062152 -5.1502051 25.348747
2.0425603 -9.2894135 30.45363
2.0393333 -9.1081285 17.172176
2.2541771 -10.018572 15.154735
2.896049 -12.840075 15.835713
0.0561141 -0.34826317 5.9395022
0.12951359 -0.65068895 6.1445904
1.4824371 -6.8615003 27.064383
1.9600757 -8.9292088 24.91431
1.8516605 -8.3587637 17.766035
2.0983152 -9.4178591 15.852631
2.7600791 -12.3476 16.828432
2.9728944 -13.256261 14.805953
3.1076183 -13.666981 13.853118
3.8135695 -16.731249 13.919171
5.0929103 -22.326185 15.098314
4.9407172 -21.624222 11.697544
5.5898194 -24.445557 10.219886
9.6761913 -42.282318 12.839557
6.3665843 -27.77565 5.5016017
5.7066207 -24.896418 2.3859971
3.1775038 -14.065166 12.924049
5.2664394 -23.274158 17.458918
4.956192 -21.88534 13.271867
5.0088468 -22.064251 10.546767
5.7214789 -25.162815 3.6913316
-0.0034865283 -0.063558124 5.7840533
0.85225672 -4.1321025 26.820597
1.0840248 -5.1341105 25.250843
2.0101218 -9.2964869 30.45363
1.9925896 -9.0473614 17.044893
2.2198002 -10.029127 15.158869
2.8449626 -12.821943 15.801175
0.054853972 -0.34817162 5.9345107
0.12724148 -0.65113705 6.1445904
1.4587381 -6.8678627 27.069221
1.9321721 -8.9511776 24.956547
1.8247885 -8.3758116 17.788542
2.0693357 -9.4429588 15.882492
2.7208436 -12.374817 16.852373
2.923682 -13.253315 14.791252
3.0567784 -13.663823 13.8391
3.7559948 -16.748255 13.922309
5.2182341 -23.249571 15.706919
6.2106762 -27.603781 11.519771
9.5285406 -42.315838 12.839557
6.2047434 -27.510191 5.4456444
5.6273503 -24.950191 2.3891268
3.125958 -14.065237 12.914073
5.2027307 -23.371305 17.51778
4.4429231 -19.941748 12.091406
4.9317975 -22.0816 10.546767
5.7086577 -25.497242 1.1476722
-0.0037083663 -0.06354557 5.7840533
0.84137541 -4.1525674 26.934198
1.0627875 -5.1219115 25.17252
1.9810725 -9.3195076 30.506123
1.948323 -8.9957438 16.935167
2.1931577 -10.07531 15.21673
2.8001885 -12.831796 15.801175
0.05359517 -0.34807551 5.9295187
0.12596847 -0.65681297 6.1943049
1.434499 -6.8716826 27.064383
1.9009148 -8.9578676 24.956547
1.7850534 -8.3331709 17.685013
2.0391078 -9.4628725 15.903821
2.6846354 -12.416636 16.896263
2.8709331 -13.233623 14.758176
3.0059986 -13.66048 13.825083
3.698348 -16.765066 13.925448
5.1992478 -23.549381 15.896081
5.8533072 -26.380733 5.2218156
5.5402236 -24.969683 2.3891268
3.0744503 -14.065121 12.904097
6.2873502 -28.715811 21.488102
4.3557534 -19.877127 12.043275
4.948174 -22.524231 10.74818
5.6935987 -25.874401 3.7873361
5.5723424 -25.302336 1.1388047
-0.0039301589 -0.063532233 5.7840533
0.82854253 -4.1638618 26.988529
1.0388018 -5.0956593 25.025663
1.5212775 -7.1935616 17.38135
1.9084312 -8.9626684 16.860554
2.157975 -10.082904 15.21673
2.7580698 -12.854027 15.816525
0.052379832 -0.34826046 5.9295187
0.12259436 -0.6514855 6.1396189
1.410251 -6.8754163 27.059542
1.869282 -8.962759 24.951853
1.7487779 -8.3052673 17.612993
2.0066044 -9.4724836 15.908088
2.6475415 -12.455405 16.936163
2.8261359 -13.250194 14.765527
2.9560335 -13.660432 13.814568
3.6414552 -16.785482 13.931726
5.2970419 -24.335148 10.150583
5.7716584 -26.448996 5.2311416
3.0221968 -14.061166 12.890795
6.188777 -28.745487 21.49399
4.2881594 -19.900639 12.048341
4.8570614 -22.483694 10.720905
5.6210508 -25.976398 3.7990777
5.5051365 -25.419287 1.1428354
-0.0041519036 -0.063518129 5.7840533
0.81489646 -4.1713037 27.018166
1.0232068 -5.1102362 25.079508
1.4985433 -7.2103047 17.408966
1.8673222 -8.9223909 16.772772
2.1320345 -10.134435 15.282857
0.051122732 -0.34815544 5.9245272
0.12051233 -0.65295798 6.1495614
1.3867394 -6.882762 27.069221
1.8355598 -8.9573956 24.919003
1.7105137 -8.2665539 17.518469
1.9719324 -9.4717712 15.89529
2.6028159 -12.458673 16.928183
2.7861271 -13.289841 14.798603
2.9053636 -13.656715 13.80055
3.5836525 -16.801897 13.934863
5.1368499 -24.063549 16.216831
5.2043028 -24.317225 10.135599
5.6999102 -26.565041 5.249794
2.9707806 -14.060671 12.880818
6.0867243 -28.759005 21.488102
4.2240267 -19.940788 12.06354
5.5200372 -25.947424 3.792171
5.4007664 -25.365051 1.1398124
-0.0043735984 -0.06350325 5.7840533
0.80164731 -4.1809916 27.062618
1.0081118 -5.1277647 25.148043
1.8801267 -9.3236465 30.45363
1.4702389 -7.2001786 17.372147
1.8318243 -8.9077415 16.733269
2.1034822 -10.174884 15.332452
0.049907129 -0.34833175 5.9245272
0.11804318 -0.65232551 6.1396189
1.3631934 -6.8900266 27.078899
1.5982784 -7.9402423 22.07988
1.6630012 -8.1807413 17.324917
1.9372898 -9.4709311 15.882492
2.5593109 -12.467682 16.928183
2.7417719 -13.309447 14.809629
2.8554852 -13.656301 13.790036
3.5265784 -16.821924 13.94114
5.086309 -24.240934 16.32375
4.8441229 -23.046696 12.414054
5.0955291 -24.221827 10.088774
2.9194038 -14.059986 12.870841
5.9970007 -28.831522 21.526365
4.7509613 -22.821007 13.783568
4.5117297 -21.615173 10.295001
5.416255 -25.903521 3.7831922
5.2917261 -25.285952 1.1357818
-0.0045885565 -0.063444473 5.7790532
0.78992003 -4.1990366 27.161404
0.99020642 -5.1312523 25.148043
1.8011935 -8.9164295 16.737658
2.0774736 -10.229047 15.402713
0.048651796 -0.34821784 5.9195356
0.11585819 -0.6532585 6.1445904
1.3393741 -6.895977 27.08374
1.5735635 -7.96101 22.122114
1.6305991 -8.1672831 17.284407
1.9124376 -9.5185461 15.950747
2.5163708 -12.479494 16.932173
2.6986587 -13.33555 14.828005
2.8063631 -13.659199 13.783027
3.469408 -16.841755 13.947417
5.0033498 -24.266731 16.329231
4.7430367 -22.963684 12.360722
5.9370337 -28.643633 5.645225
5.221374 -25.190889 2.402539
2.8680687 -14.059116 12.860865
5.886611 -28.804756 21.491047
4.6634979 -22.799442 13.76077
4.4307799 -21.604113 10.282413
5.3158355 -25.87376 3.7762854
5.1329899 -24.961721 1.1216747
-0.004809991 -0.063428067 5.7790532
0.77511686 -4.201004 27.156464
0.9751299 -5.149684 25.22147
2.052213 -10.28867 15.481238
0.047435991 -0.34838554 5.9195356
0.11357718 -0.65365899 6.1445904
1.3174124 -6.9117231 27.127296
1.5444499 -7.9596777 22.103344
1.5903556 -8.1131096 17.158373
1.8822289 -9.5405169 15.976343
2.4704528 -12.476377 16.916212
2.6540749 -13.354864 14.83903
2.7572556 -13.661921 13.776019
3.4121425 -16.861395 13.953694
4.9235935 -24.308638 16.34568
4.6267333 -22.802105 12.265651
4.7436175 -23.35726 9.7179127
5.8360324 -28.659369 5.6442924
4.9247332 -24.1842 2.3086524
2.8167753 -14.058059 12.850889
5.7693229 -28.741909 21.429239
4.5635056 -22.714149 13.699974
4.3553405 -21.619448 10.282413
5.8916554 -29.193012 4.2459478
5.045826 -24.979486 1.1216747
-0.0050313664 -0.063410893 5.7790532
0.76127744 -4.2082715 27.1861
0.96068043 -5.1720772 25.314482
1.7849057 -9.35602 30.496578
1.591488 -8.1718197 15.324375
2.0216942 -10.323385 15.522567
0.04621961 -0.34854901 5.9195356
0.1112948 -0.65405148 6.1445904
1.298591 -6.9446974 27.238602
1.7090253 -8.9753704 24.900234
1.5587356 -8.1015091 17.122362
1.8563526 -9.5854359 16.040333
2.4257371 -12.47901 16.908232
2.6080909 -13.367374 14.842705
2.7074697 -13.660966 13.765505
3.3562992 -16.888474 13.966249
4.7465296 -23.862253 16.035894
4.2744064 -21.449636 11.535229
4.6611495 -23.369129 9.7160397
4.8441916 -24.220778 2.3104408
2.7648034 -14.053151 12.837586
5.6251888 -28.539795 21.264423
4.5017123 -22.818756 13.75317
4.2754445 -21.612259 10.271922
5.856144 -29.548574 4.2936049
-0.0052526812 -0.063392945 5.7790532
0.74766791 -4.2170243 27.225615
0.94262064 -5.1753993 25.314482
1.7530599 -9.3665953 30.510895
1.7059648 -8.9935608 21.624878
1.5647516 -8.1867342 15.34193
1.9909581 -10.358014 15.563897
2.9796534 -15.458288 18.924904
0.044966534 -0.34842181 5.9145441
0.10909829 -0.65496176 6.1495614
1.2791021 -6.9751515 27.340229
1.6745164 -8.9643183 24.853304
1.5195436 -8.0491438 17.00083
1.8228817 -9.5918579 16.040333
2.3832915 -12.49332 16.916212
2.5601389 -13.369739 14.835356
2.6584053 -13.663332 13.758495
3.2988174 -16.907724 13.972525
4.6656108 -23.890991 16.044121
4.2037597 -21.486164 11.546823
4.6080575 -23.530842 9.7759771
4.7768884 -24.325499 2.3184884
2.713608 -14.051719 12.827611
3.9945621 -20.646238 15.395761
4.4162951 -22.804705 13.735438
4.2025728 -21.640417 10.278216
6.8155322 -35.062786 12.520843
5.7945771 -29.782717 4.3239946
4.9410281 -25.372082 1.1363864
-0.0054739323 -0.063374221 5.7790532
0.73254442 -4.2173114 27.210796
0.92401272 -5.1756506 25.299793
1.7225095 -9.3844023 30.54907
1.6731316 -8.9917784 21.606468
1.5423446 -8.2251024 15.403378
1.9542682 -10.362135 15.559764
2.9274626 -15.478043 18.936417
0.04375004 -0.34857664 5.9145441
0.10689679 -0.65586483 6.1545329
1.259861 -7.008028 27.451536
1.6422821 -8.9650154 24.839228
1.4716204 -7.9473705 16.775768
1.7850871 -9.5750866 16.00194
2.5103245 -13.361934 14.816978
2.6093574 -13.665523 13.751486
3.2427063 -16.934429 13.985079
4.5939937 -23.968731 16.085241
4.1287336 -21.500706 11.546823
4.565268 -23.75165 9.8602638
5.208334 -27.021049 5.31601
4.9445496 -25.652534 2.4383056
2.6624563 -14.050099 12.817634
3.9367933 -20.735506 15.451682
4.3334455 -22.803041 13.725306
4.1227603 -21.632664 10.267726
6.7514977 -35.392502 12.629313
5.6302109 -29.486591 4.2791004
4.8589978 -25.423523 1.1377971
-0.0056951162 -0.063354731 5.7790532
0.72107494 -4.2389927 27.334278
0.90734398 -5.1868687 25.338957
1.6889483 -9.3859501 30.534754
1.6424356 -9.0014076 21.615673
1.5144904 -8.2351465 15.412155
1.9088724 -10.319086 15.485371
2.8704932 -15.47241 18.917229
0.042533014 -0.34872723 5.9145441
0.10469032 -0.65676039 6.1595049
1.2373533 -7.0235248 27.49509
1.6106733 -8.9689951 24.834534
1.4174271 -7.8068089 16.469687
1.7418038 -9.5273838 15.912354
2.4599814 -13.350612 14.794929
2.5596702 -13.664033 13.740973
3.1842933 -16.949471 13.988217
4.0380735 -21.432278 11.502766
4.5450492 -24.1 9.996995
5.0765529 -26.841171 5.2777729
2.6120312 -14.051966 12.810982
3.8836308 -20.852438 15.528203
4.2561922 -22.830744 13.732905
6.7269397 -35.944996 12.816673
5.6430459 -30.124224 4.3668165
-0.0059162308 -0.063334465 5.7790532
0.70563591 -4.2376518 27.309582
0.88871706 -5.1869931 25.32427
1.6566933 -9.3947296 30.544298
1.6147883 -9.0282402 21.666302
1.4946589 -8.2898808 15.504328
1.8748492 -10.336762 15.501903
2.8124511 -15.460261 18.890366
0.04131547 -0.34887359 5.9145441
0.10247889 -0.65764856 6.1644764
1.2158213 -7.0451417 27.562843
1.5781597 -8.9677649 24.815763
1.3813955 -7.7624135 16.366158
1.7080764 -9.530839 15.908088
2.4109533 -13.345772 14.780228
2.510025 -13.662362 13.730459
3.1251092 -16.960482 13.988217
3.9342568 -21.289423 11.419289
4.4979992 -24.316296 10.079408
4.9828291 -26.858728 5.2777729
2.5609565 -14.049979 12.801006
3.8267949 -20.953346 15.592954
4.1927514 -22.934511 13.786102
6.6014276 -35.968258 12.816673
-0.0061372737 -0.063313432 5.7790532
0.87060565 -5.1900635 25.32427
1.6241436 -9.401926 30.54907
1.5836012 -9.0357466 21.670902
1.465296 -8.2926884 15.499937
1.8387557 -10.343244 15.501903
2.7573423 -15.463674 18.88269
0.040097423 -0.34901568 5.9145441
0.10026254 -0.65852934 6.1694474
1.1893371 -7.0381885 27.519287
1.5459672 -8.9681168 24.801683
1.3591521 -7.7950683 16.424673
1.6734438 -9.5290365 15.89529
2.3590338 -13.324061 14.74715
2.4604228 -13.66051 13.719945
3.065887 -16.971287 13.988217
3.8567595 -21.285591 11.410013
4.332015 -23.884823 9.8958511
4.73804 -26.045876 2.4696009
2.5105836 -14.051481 12.794354
3.7799859 -21.113789 15.70185
4.1126699 -22.949007 13.786102
6.4758348 -35.991081 12.816673
-0.0063582407 -0.063291617 5.7790532
0.85281348 -5.1950808 25.334061
1.5923104 -9.4134235 30.568157
1.5513899 -9.0373678 21.661699
1.4359318 -8.295393 15.495549
1.8016741 -10.344055 15.493636
2.7016926 -15.463733 18.87118
0.038878884 -0.34915349 5.9145441
0.097963229 -0.65887529 6.1694474
1.1731702 -7.093142 27.717705
1.5146532 -8.9734592 24.801683
1.331934 -7.7997651 16.424673
1.6401711 -9.5348206 15.89529
2.31251 -13.332215 14.74715
2.4108641 -13.658481 13.709432
3.0066273 -16.981886 13.988217
3.905719 -22.037777 14.758372
4.1001301 -23.06452 9.5530863
6.7137947 -37.652912 7.3528528
4.6339817 -25.988718 2.4628949
2.460232 -14.052803 12.787704
3.7335002 -21.282122 15.816633
5.3574095 -30.352348 4.3909907
-0.0065871649 -0.063311927 5.7840533
0.83354431 -5.1909885 25.299793
1.5604169 -9.4248161 30.587246
1.5146534 -9.0119028 21.588058
1.4049655 -8.2885485 15.473604
2.6439133 -15.450953 18.844316
0.03762975 -0.34899998 5.9095521
0.095586516 -0.65868562 6.1644764
1.1570356 -7.1505499 27.9258
1.4850084 -8.9889069 24.829842
1.3032638 -7.7957783 16.40667
1.6155412 -9.5919237 15.980608
2.2653902 -13.336864 14.743476
2.3613496 -13.65627 13.698918
2.9479966 -16.996113 13.991356
3.8116019 -21.952402 14.692577
3.5987222 -20.683548 11.076107
4.0561857 -23.288784 9.639245
5.4224267 -31.037067 6.073298
4.6332269 -26.519829 2.5098381
2.4092705 -14.050266 12.777727
3.6626112 -21.314941 15.831348
3.6308157 -21.107861 12.671503
5.2750521 -30.507494 4.4103298
4.4384141 -25.642288 1.1434399
-0.0068081254 -0.063288547 5.7840533
0.57979035 -3.8092384 24.494204
0.81620866 -5.1988959 25.32427
1.529418 -9.4419937 30.625423
1.484455 -9.0248461 21.606468
1.3791603 -8.3123026 15.508716
1.6534052 -9.9011831 14.815833
2.5846674 -15.428475 18.805941
0.036411282 -0.3491292 5.9095521
0.093212329 -0.6584875 6.1595049
1.1507281 -7.2724905 28.385546
1.2810042 -7.9258986 21.887476
1.2570666 -7.684267 16.163605
1.5896841 -9.6438236 16.057396
2.21771 -13.338002 14.736126
2.3118801 -13.653882 13.688405
2.889303 -17.010138 13.994494
3.735651 -21.969694 14.695318
3.5242691 -20.682882 11.06915
3.8953583 -22.836668 9.4481964
5.3538222 -31.288216 6.1180634
2.3589747 -14.051225 12.771076
3.5875158 -21.323612 15.828406
3.5313396 -20.967371 12.580308
4.383944 -25.864506 1.1519042
-0.0070290021 -0.0632644 5.7840533
0.56626177 -3.8097017 24.484325
0.80037177 -5.2168107 25.397699
1.4957494 -9.442852 30.611105
1.4535642 -9.0338297 21.615673
1.3486016 -8.3076105 15.491159
1.6065812 -9.8319092 14.704244
2.5375376 -15.478524 18.855829
0.03519237 -0.34925416 5.9095521
0.090840675 -0.65828079 6.1545329
1.136284 -7.3472691 28.661392
1.2554847 -7.9439578 21.92502
1.2292039 -7.6821585 16.150099
1.5630693 -9.6930857 16.129917
2.1695049 -13.335624 14.7251
2.2630386 -13.654833 13.681396
2.8311856 -17.027798 14.000771
3.6568806 -21.970228 14.687095
3.4586105 -20.734383 11.090019
3.8179102 -22.863844 9.4538145
5.2461967 -31.316404 6.1199288
4.3706298 -26.089846 2.4678128
2.3080966 -14.048322 12.7611
3.5150306 -21.347969 15.837235
3.4013398 -20.635046 12.375121
4.2854562 -25.830362 1.1498889
-0.0072413106 -0.063196674 5.7790532
0.5530715 -3.8124244 24.489265
0.78607887 -5.2457533 25.524975
1.4609518 -9.4362144 30.572931
1.3274798 -8.3619413 15.583331
1.5704752 -9.8263426 14.687712
0.033973034 -0.34937489 5.9095521
0.088471599 -0.65806544 6.1495614
1.1141974 -7.3748045 28.75334
1.2280108 -7.9499965 21.92971
1.1673932 -7.4627218 15.681974
1.5292248 -9.6984835 16.129917
2.1218765 -13.336419 14.717751
2.2136481 -13.652086 13.670881
2.7667301 -17.006842 13.975663
3.5842004 -22.00762 14.703543
3.3904943 -20.772562 11.103932
3.7373297 -22.872458 9.4519424
5.1487708 -31.40724 6.1339183
4.3818493 -26.729067 2.5245917
2.2572672 -14.045233 12.751122
3.4398482 -21.356119 15.834292
3.3155644 -20.561676 12.324457
6.2431631 -38.503799 9.498601
4.9188356 -30.336205 4.3785586
4.1808567 -25.756401 1.1462613
-0.0074618631 -0.063171014 5.7790532
0.53986907 -3.8151009 24.494204
0.76820511 -5.2514882 25.539661
1.427781 -9.4397802 30.568157
1.3895706 -9.0379658 21.601866
1.3004863 -8.380723 15.609664
1.8602191 -11.905866 17.770893
0.032753278 -0.34949136 5.9095521
0.086173989 -0.65837026 6.1495614
0.94099033 -6.3788619 24.862444
1.1930439 -7.9064569 21.798315
1.1584395 -7.5786519 15.916037
1.4917866 -9.680563 16.091524
2.070622 -13.313597 14.684673
2.1648631 -13.652685 13.663873
2.7061253 -17.008709 13.969386
3.6415334 -22.862391 15.262802
3.6428349 -22.793806 9.4144812
4.34056 -27.068731 2.5540991
2.2070675 -14.04565 12.744473
3.3659091 -21.371988 15.837235
3.2430995 -20.568867 12.321925
6.1353641 -38.693378 9.5396318
4.8129125 -30.353188 4.3785586
4.0964084 -25.805378 1.1476722
-0.0076735453 -0.063101843 5.7740536
0.52676082 -3.8185017 24.504082
0.75432765 -5.2853851 25.691412
1.3939492 -9.4388008 30.54907
1.2798394 -8.4420424 15.715003
1.8148265 -11.887251 17.733696
0.03153313 -0.34960356 5.9095521
0.083875321 -0.65866709 6.1495614
0.9154951 -6.3597131 24.775335
1.3281556 -9.0151615 24.834534
1.1178367 -7.4879136 15.717983
1.4560452 -9.6728172 16.070194
2.0282104 -13.347556 14.714074
2.1161005 -13.653112 13.656864
2.644943 -17.006514 13.959971
3.5925853 -23.073282 15.394392
3.2686167 -20.944538 11.182772
3.5432098 -22.678133 9.3620367
4.2468176 -27.088638 2.5545459
2.1568921 -14.045887 12.737822
3.2906716 -21.379612 15.834292
3.1752198 -20.605623 12.337123
3.3708279 -21.79925 10.284511
5.9943051 -38.676132 9.5302534
4.7243748 -30.482359 4.394444
4.0093694 -25.839266 1.1484782
-0.0078937644 -0.063074671 5.7740536
0.51353204 -3.8210874 24.509024
0.73938107 -5.3131986 25.813793
1.3603544 -9.4391766 30.534754
1.2475578 -8.4275045 15.67989
1.7716614 -11.88238 17.717163
0.03031259 -0.34971151 5.9095521
0.081510492 -0.65842682 6.1445904
0.89084393 -6.3454437 24.707582
1.2929957 -8.9941216 24.764143
1.0898088 -7.4788446 15.690975
1.4222718 -9.6778412 16.070194
1.9816064 -13.354554 14.714074
2.0668278 -13.649837 13.64635
2.5843937 -17.007946 13.953694
3.515167 -23.106352 15.4081
3.4626276 -22.681198 9.3582907
3.9840631 -26.005571 2.4548473
2.1072958 -14.049637 12.734496
3.2160227 -21.390968 15.834292
3.1032734 -20.616583 12.337123
3.2913244 -21.788446 10.274021
5.8483491 -38.624733 9.5126686
3.9251397 -25.89262 1.1500905
-0.0081138881 -0.063046731 5.7740536
0.50039232 -3.8243976 24.518902
0.72178751 -5.3228102 25.848061
1.3263586 -9.4364767 30.510895
1.2150508 -8.4104748 15.640388
1.4416354 -9.9057913 14.774505
0.029091686 -0.34981516 5.9095521
0.07921166 -0.65870732 6.1445904
0.86902952 -6.3510051 24.71726
1.2599156 -8.986618 24.731293
1.0594071 -7.4524298 15.627959
1.38626 -9.6672554 16.044598
1.9359499 -13.368101 14.721425
2.0181253 -13.649913 13.63934
2.5238664 -17.009163 13.947417
3.4295738 -23.08539 15.386168
4.7784438 -32.011436 9.6035309
3.8954732 -26.034096 2.4561884
2.0571587 -14.049519 12.727844
3.1407475 -21.398064 15.831348
3.0306625 -20.623024 12.334591
4.1877065 -28.324825 4.08571
3.8383913 -25.930874 1.1510981
-0.0083339131 -0.063018024 5.7740536
0.48723572 -3.8276622 24.528778
0.70520186 -5.3404393 25.921488
1.293411 -9.4410486 30.510895
0.92806649 -6.653306 15.88553
1.2468343 -8.8486614 16.44359
1.40784 -9.9163361 14.78277
0.027870426 -0.34991461 5.9095521
0.076850399 -0.65845025 6.1396189
0.84602487 -6.3477697 24.693064
1.2285388 -8.9909611 24.731293
1.0327891 -7.4517694 15.618957
1.8902231 -13.381492 14.728775
1.9689382 -13.646285 13.628827
2.4639199 -17.014017 13.944279
3.3891699 -23.374477 15.569845
3.3415871 -22.961725 9.4631805
4.6825819 -32.1371 9.6359615
4.3648562 -29.883429 5.8252206
3.7815416 -25.889849 2.4418821
2.0081041 -14.056615 12.727844
3.0654624 -21.404898 15.828406
2.9537613 -20.599339 12.314324
4.0548654 -28.10401 4.0525575
3.7528522 -25.978727 1.1525089
-0.0085538365 -0.062988549 5.7740536
0.47406241 -3.8308818 24.538658
0.68590736 -5.3378186 25.897013
1.2618297 -9.455864 30.544298
0.90562594 -6.6623135 15.899339
1.2394012 -9.0237951 16.759604
1.3747602 -9.9323387 14.799301
0.026627732 -0.34972182 5.9045606
0.074491911 -0.65818483 6.1346469
0.82353854 -6.3481913 24.683384
1.0459979 -7.8593612 21.615297
1.0070627 -7.4574866 15.623459
1.3895178 -10.196111 16.90205
1.8439639 -13.391366 14.73245
1.9202977 -13.646011 13.621819
2.4034262 -17.014805 13.938003
3.0165362 -21.328474 14.207337
4.5832005 -32.243488 9.6627531
4.3256583 -30.355618 5.9128871
3.6834178 -25.84866 2.436964
1.95851 -14.05984 12.72452
2.9890497 -21.403458 15.819577
2.8854201 -20.635141 12.329524
3.901535 -27.725689 3.997303
3.6558735 -25.947144 1.1506951
-0.0087736556 -0.062958308 5.7740536
0.46124333 -3.8371425 24.568293
0.66828024 -5.3482628 25.936172
1.2293917 -9.4646521 30.558615
0.88518447 -6.6867385 15.949966
1.2421937 -9.2844429 17.233624
1.3408334 -9.9426546 14.807568
0.025406813 -0.34981266 5.9045606
0.072078452 -0.657381 6.1247044
0.80043036 -6.343545 24.654348
1.0163405 -7.8458505 21.568369
0.98074126 -7.4587979 15.618957
1.352546 -10.190557 16.884987
1.7985603 -13.407802 14.743476
1.8716832 -13.645564 13.614809
2.342957 -17.015381 13.931726
2.9403539 -21.326447 14.199113
4.2629361 -30.681925 5.9725747
3.5993347 -25.90575 2.4409878
1.9089178 -14.062891 12.721193
2.9170446 -21.433786 15.834292
2.9529552 -21.584959 10.158628
3.8148246 -27.812733 4.0076632
3.5693572 -25.989447 1.1519042
-0.0089933677 -0.062927298 5.7740536
0.44784638 -3.8387291 24.568293
0.66555536 -5.4819665 26.572554
1.1978431 -9.4807329 30.59679
0.86283636 -6.6975374 15.968375
1.2236956 -9.3955946 17.431133
1.3145446 -10.011446 14.902625
0.024185585 -0.3498992 5.9045606
0.06978333 -0.6576286 6.1247044
0.7775175 -6.3400626 24.630152
0.9826923 -7.7996984 21.432278
0.95442301 -7.4600167 15.614456
1.7517474 -13.413998 14.743476
1.8226233 -13.641411 13.604296
2.2819953 -17.011881 13.922309
2.8580999 -21.278561 14.160732
4.1334033 -30.531113 5.9408655
3.5990796 -26.584377 2.5013437
1.8593284 -14.065768 12.717869
2.8438022 -21.455858 15.843122
2.8354371 -21.364155 12.750031
2.8602073 -21.464674 10.097784
3.7236192 -27.870056 4.0138793
-0.0092129689 -0.062895522 5.7740536
0.43418217 -3.8379529 24.553476
0.65201563 -5.5317831 26.802629
1.1632866 -9.4730034 30.558615
0.84066653 -6.7102017 15.991389
1.1893864 -9.387929 17.409187
1.2867219 -10.0718 14.985284
0.022982137 -0.35026962 5.9095521
0.06743329 -0.65733784 6.1197329
0.75508457 -6.3402414 24.620474
0.95881563 -7.8304873 21.507362
0.93348211 -7.5043488 15.699978
1.2163568 -9.6822147 16.031801
1.7053401 -13.423393 14.74715
1.7740748 -13.640616 13.597286
2.221087 -17.008163 13.912894
2.7832646 -21.284264 14.157991
3.9767265 -30.165485 5.8681216
3.526438 -26.749832 2.515203
1.8092656 -14.064765 12.711217
2.7756124 -21.517771 15.881383
2.7575316 -21.34827 12.734832
2.8121171 -21.681564 10.194295
3.6205637 -27.838688 4.0076632
3.6904225 -28.337204 1.2464223
-0.0094324602 -0.062862977 5.7740536
0.42019042 -3.8340383 24.518902
0.6339739 -5.5451531 26.856476
1.1289753 -9.4666309 30.525211
1.1390468 -9.2494001 17.145842
1.2543317 -10.098572 15.018349
0.021759329 -0.35034773 5.9095521
0.065138347 -0.65756923 6.1197329
0.93106896 -7.8303599 21.497978
0.91119868 -7.5399799 15.767497
1.1831844 -9.6915789 16.040333
1.6530719 -13.385525 14.699373
1.7255541 -13.639649 13.590277
2.1607227 -17.008091 13.906617
2.7063134 -21.273109 14.144284
3.7612679 -29.320639 2.7467899
1.759696 -14.067291 12.707892
2.7080307 -21.587484 15.925529
2.9349895 -23.363768 13.922894
3.3949077 -26.873333 9.5165071
3.5096931 -27.743071 3.9924681
3.5814385 -28.270613 1.2431978
-0.0096518351 -0.062829673 5.7740536
0.40721402 -3.839345 24.543598
0.614838 -5.5493565 26.866266
1.0899733 -9.1130152 16.886887
1.217725 -10.091713 15.001816
0.020536255 -0.35042155 5.9095521
0.062842607 -0.65779257 6.1197329
0.82831508 -7.3946524 28.685589
0.90313691 -7.8284187 21.483898
0.89628601 -7.6404099 15.970052
1.1484262 -9.6878796 16.027534
1.4856596 -12.458591 16.688782
1.6039152 -13.371017 14.677323
1.6766268 -13.634972 13.579764
2.1003861 -17.007803 13.90034
3.0085442 -24.222816 9.9501686
