# .PCD v0.7 - Point Cloud Data file format
VERSION 0.7
FIELDS x y z
SIZE 4 4 4
TYPE F F F
COUNT 1 1 1
WIDTH 1488
HEIGHT 1
VIEWPOINT 0 0 0 1 0 0 0
POINTS 1488
DATA ascii
-0.5847953 1.0088767 4.5271826
-0.88462597 1.5148196 4.8245783
-1.0944951 1.8660796 4.5369682
-0.99514371 1.6919717 3.2809229
-0.92819351 1.5756381 2.4962647
-0.88781315 1.5047079 1.972279
-0.87812465 1.4782517 1.769443
-0.8531096 1.4344474 1.4281141
-0.8242498 1.3853787 1.14151
-0.80981076 1.3600434 0.91512519
-0.79993492 1.3429335 0.719863
-0.78351533 1.3148556 0.53984034
-0.77242142 1.2952197 0.37778652
-0.7651087 1.2829623 0.22705248
-0.86168498 1.455209 1.5874195
-0.83795315 1.4140177 1.2803636
-0.81429756 1.3735611 1.0239466
-0.79975444 1.3474351 0.81180394
-0.79106635 1.3322771 0.62841046
-0.77455813 1.3039656 0.45651609
-0.76116693 1.2814263 0.30009267
-0.75785601 1.2753553 0.15352009
-0.013266569 0.044971362 3.8541267
-0.32136172 0.56625581 4.1395221
-0.43485993 0.75824922 4.2258415
-0.69473571 1.1981896 4.4749508
-1.0140479 1.7392993 4.8026524
-1.0388385 1.7761669 3.8381546
-0.95247489 1.6246208 2.8385479
-0.91769481 1.5634354 2.2471099
-0.10799212 0.21257554 3.9628055
-0.21217287 0.38314584 4.0416441
-0.58189654 1.0120018 4.5320225
-0.8793329 1.5178983 4.8245783
-1.0945429 1.8811785 4.5639753
-0.9944886 1.7044456 3.2979865
-0.92876893 1.589275 2.5122247
-0.88769281 1.5165755 1.9833045
-0.8802014 1.4935977 1.7834612
-0.85403073 1.4474735 1.4375293
-0.82365972 1.3954494 1.146993
-0.80956435 1.3704901 0.91976279
-0.79995924 1.3536998 0.72360903
-0.78380322 1.3258413 0.54266042
-0.77539939 1.3105912 0.38058439
-0.76569718 1.2941973 0.22794664
-0.86227345 1.4678664 1.5973961
-0.83710909 1.4239031 1.2862499
-0.81386852 1.3838269 1.0290129
-0.79965174 1.3580405 0.81600004
-0.79120439 1.3431679 0.63169748
-0.77493709 1.3150367 0.45886073
-0.7617175 1.2926083 0.30147403
-0.7559368 1.2822969 0.15372162
-0.013109509 0.045017399 3.8541267
-0.31938314 0.56737411 4.1395221
-0.43221048 0.75976259 4.2258415
-0.69054908 1.2006074 4.4749508
-1.0089483 1.7445196 4.8072548
-1.0398433 1.7922122 3.8644891
-0.95245683 1.637666 2.8550797
-0.91707015 1.5749391 2.2586224
-0.10724943 0.21295121 3.9628055
-0.21109028 0.38435158 4.0466156
-0.57960552 1.0162104 4.5417008
-0.87316942 1.5194622 4.8198857
-1.0944985 1.8963007 4.5909829
-0.99506474 1.719193 3.3193161
-0.92926037 1.602935 2.5281849
-0.88750041 1.5284604 1.9943302
-0.88038188 1.5058975 1.7939749
-0.85487133 1.4605236 1.4469448
-0.82300919 1.4055328 1.152476
-0.80925471 1.3809514 0.92440039
-0.79991812 1.3644826 0.72735512
-0.78159714 1.3327073 0.54407042
-0.7757929 1.3217628 0.38244963
-0.76621658 1.3054519 0.2288408
-0.86466384 1.4837714 1.6106981
-0.83824241 1.4372914 1.2950795
-0.8133778 1.3941063 1.0340793
-0.79948473 1.3686614 0.82019615
-0.79127598 1.3540757 0.63498449
-0.77279508 1.3219299 0.46003303
-0.7597 1.2995344 0.3021647
-0.7565003 1.2935529 0.15412468
-0.012952289 0.045062885 3.8541267
-0.31777918 0.5691641 4.1444616
-0.42955577 0.76126665 4.2258415
-0.68709356 1.2043072 4.479723
-1.0038248 1.7497256 4.8118572
-1.039554 1.8062098 3.8864341
-0.95517141 1.6556058 2.8798773
-0.91797942 1.5892329 2.2739725
-0.10650544 0.21332428 3.9628055
-0.20974736 0.38508606 4.0466156
-0.57729232 1.0204158 4.5513802
-0.86700565 1.5210015 4.8151927
-1.0954434 1.9133345 4.6224909
-0.99554998 1.7339648 3.3406458
-0.92966777 1.6166176 2.5441449
-0.88723558 1.5403621 2.0053556
-0.88227618 1.5213016 1.8079931
-0.85563105 1.4735968 1.4563601
-0.82229835 1.4156284 1.1579589
-0.80665565 1.3875976 0.92671913
-0.79981154 1.3752817 0.73110116
-0.78176504 1.3437203 0.54689056
-0.77858937 1.337198 0.38524747
-0.76666647 1.3167259 0.22973496
-0.86508495 1.4964783 1.6206745
-0.83726841 1.4472061 1.3009658
-0.81282508 1.404399 1.0391457
-0.79925323 1.3792976 0.82439226
-0.78891271 1.3609148 0.63662797
-0.77305275 1.3330289 0.46237767
-0.76012772 1.3107461 0.30354607
-0.75699437 1.3048285 0.15452774
-0.012787717 0.045064785 3.8491268
-0.3157905 0.57026988 4.1444616
-0.4273929 0.76365012 4.2307367
-0.68288559 1.2066983 4.479723
-0.99867719 1.754917 4.8164601
-1.0403669 1.8223072 3.9127688
-0.95777231 1.6735841 2.904675
-0.91720665 1.600771 2.285485
-0.10563318 0.21343547 3.9578137
-0.20840189 0.38581589 4.0466156
-0.57495677 1.0246172 4.5610585
-0.86084187 1.5225166 4.8105001
-1.0962827 1.930398 4.6539998
-0.99723482 1.7510272 3.3662415
-0.92999083 1.6303226 2.5601048
-0.88858026 1.5552243 2.0200562
-0.88229525 1.5336459 1.8185068
-0.85630989 1.4866933 1.4657755
-0.82361454 1.4293593 1.1661832
-0.80623293 1.3980799 0.93135673
-0.79732251 1.3820808 0.73297417
-0.78186542 1.3547505 0.54971057
-0.78128755 1.3526688 0.38804534
-0.76455635 1.3237063 0.23018204
-0.86542785 1.5092062 1.630651
-0.83623523 1.4571314 1.3068521
-0.81435668 1.4184433 1.0467453
-0.79895711 1.3899487 0.82858837
-0.78886539 1.3718476 0.63991499
-0.77081853 1.3399324 0.46355
-0.76048625 1.3219764 0.30492741
-0.75741887 1.316123 0.1549308
-0.012630334 0.045109149 3.8491268
-0.3141717 0.57204992 4.1494007
-0.42472467 0.76513731 4.2307367
-0.67866921 1.2090746 4.479723
-0.99254531 1.7583922 4.8164601
-1.04108 1.8384322 3.9391036
-0.96164834 1.6940482 2.9336057
-0.91794807 1.6151096 2.3008351
-0.10488752 0.2138029 3.9578137
-0.20705387 0.38654098 4.0466156
-0.57259893 1.0288148 4.5707378
-0.85467809 1.524007 4.8058076
-1.0959476 1.9455935 4.6810069
-0.99752992 1.7658517 3.3875711
-0.93171328 1.646672 2.5800552
-0.88816053 1.5671651 2.0310817
-0.88223886 1.5460086 1.8290204
-0.85883856 1.5031918 1.4783293
-0.82276994 1.4394863 1.1716661
-0.80574679 1.408576 0.93599433
-0.79709834 1.3929029 0.73672026
-0.77951497 1.3616347 0.55112064
-0.78144515 1.3639122 0.38991058
-0.76240677 1.330688 0.2306291
-0.86384636 1.5187088 1.637302
-0.83714259 1.4705799 1.3156817
-0.81366688 1.4287692 1.0518116
-0.79859632 1.4006145 0.83278447
-0.78875118 1.3827966 0.64320201
-0.77095461 1.3510584 0.46589461
-0.76077569 1.3332251 0.30630878
-0.75529695 1.3230977 0.15513234
-0.012472797 0.045152962 3.8491268
-0.31217295 0.57314312 4.1494007
-0.42205125 0.76661515 4.2307367
-0.67444462 1.2114363 4.479723
-0.98640132 1.7618462 4.8164601
-1.0416931 1.8545842 3.9654377
-0.9640125 1.7121072 2.9584033
-0.9186005 1.6294726 2.316185
-0.10414056 0.21416773 3.9578137
-0.20570332 0.38726139 4.0466156
-0.56961155 1.0319079 4.5755773
-0.84851438 1.525473 4.8011146
-1.0955199 1.9608102 4.7080145
-0.99645871 1.778424 3.404635
-0.93185818 1.6604253 2.5960152
-0.88932925 1.5820768 2.0457823
-0.8821069 1.5583898 1.839534
-0.85934329 1.5163398 1.4877448
-0.82186455 1.4496245 1.1771491
-0.80738312 1.4229385 0.94295073
-0.79680824 1.4037402 0.7404663
-0.77949464 1.3726903 0.55394071
-0.78153366 1.3751732 0.39177582
-0.76021773 1.3376709 0.23107618
-0.86404377 1.5314709 1.6472787
-0.83597887 1.4805325 1.321568
-0.81291479 1.4391077 1.056878
-0.7981708 1.4112947 0.83698058
-0.78624481 1.3896514 0.64484555
-0.7710222 1.3622012 0.46823925
-0.76099575 1.344492 0.30769014
-0.75559717 1.3344209 0.1555354
-0.012315108 0.045196228 3.8491268
-0.31017038 0.5742293 4.1494007
-0.41937271 0.76808375 4.2307367
-0.67021185 1.2137831 4.479723
-0.98024535 1.7652786 4.8164601
-1.0433714 1.8728551 3.9961612
-0.9648903 1.7277465 2.9790683
-0.91916376 1.6438599 2.3315351
-0.10339235 0.21452995 3.9578137
-0.20435028 0.38797706 4.0466156
-0.56660938 1.0349925 4.5804162
-0.84235084 1.5269145 4.7964215
-1.0939441 1.9741431 4.7305207
-0.99657887 1.7932901 3.4259646
-0.93338376 1.6768324 2.6159654
-0.88875383 1.5940548 2.0568078
-0.88189906 1.5707884 1.8500476
-0.85976666 1.5295092 1.4971601
-0.82089841 1.459774 1.1826321
-0.80675644 1.4334689 0.94758832
-0.79417789 1.4105529 0.74233937
-0.77940667 1.3837621 0.55676073
-0.77914083 1.3821721 0.39270842
-0.75798917 1.3446546 0.23152326
-0.86598569 1.547511 1.6605806
-0.83673066 1.4940213 1.3303974
-0.81420743 1.4532188 1.0644776
-0.79768032 1.4219888 0.84117669
-0.78601116 1.4006236 0.64813256
-0.77102154 1.3733612 0.47058392
-0.75872219 1.3514582 0.30838081
-0.75338095 1.3414062 0.15573692
-0.012157268 0.045238938 3.8491268
-0.30853066 0.57599366 4.1543403
-0.41717362 0.77043849 4.2356324
-0.6659708 1.2161152 4.479723
-0.9740774 1.7686895 4.8164601
-1.0449351 1.8911601 4.026885
-0.96703386 1.7458739 3.003866
-0.91963768 1.6582707 2.346885
-0.10264286 0.21488954 3.9578137
-0.20299475 0.38868803 4.0466156
-0.56359279 1.0380689 4.5852556
-0.83618766 1.5283316 4.7917295
-1.0933368 1.9893967 4.7575274
-0.99786592 1.8104626 3.4515603
-0.93334985 1.6906323 2.6319253
-0.88974607 1.6090149 2.0715086
-0.87988049 1.5800887 1.8570567
-0.85821307 1.5393003 1.5034369
-0.81987149 1.4699343 1.188115
-0.80606598 1.4440124 0.95222592
-0.79376984 1.4214116 0.74608546
-0.77925086 1.3948501 0.5595808
-0.77670872 1.3891711 0.39364108
-0.75815141 1.3559856 0.23241742
-0.86601418 1.5603185 1.670557
-0.83543581 1.5040001 1.3362837
-0.81331754 1.4635882 1.0695438
-0.79712492 1.4326966 0.8453728
-0.78571039 1.411611 0.65141958
-0.77095217 1.3845376 0.47292855
-0.75881833 1.3627515 0.30976218
-0.75355643 1.3527569 0.15613998
-0.012005722 0.045324255 3.8541267
-0.30651817 0.57706708 4.1543403
-0.41448176 0.77188998 4.2356324
-0.66243404 1.2197443 4.4844952
-0.96789753 1.772079 4.8164601
-1.0452324 1.907398 4.0532193
-0.96770775 1.7615709 3.0245306
-0.92002213 1.6727047 2.3622351
-0.10189214 0.21524653 3.9578137
-0.20163673 0.38939425 4.0466156
-0.55996585 1.0400299 4.5852556
-0.82920188 1.5282074 4.7823434
-1.0926363 2.0046701 4.7845349
-0.99779427 1.8253771 3.4728897
-0.93323088 1.7044523 2.6478853
-0.88901442 1.6210283 2.0825341
-0.8795318 1.5925159 1.8675704
-0.8566016 1.5490992 1.5097139
-0.82080746 1.4837641 1.1963394
-0.80531168 1.4545684 0.95686358
-0.79329556 1.4322845 0.7498315
-0.77902699 1.4059538 0.56240088
-0.77185488 1.3918738 0.39364108
-0.75582862 1.3629789 0.2328645
-0.86776423 1.5764158 1.683859
-0.83603185 1.5175282 1.3451133
-0.81444585 1.4777447 1.0771434
-0.79650438 1.4434178 0.8495689
-0.7853424 1.422613 0.6547066
-0.76846433 1.3914751 0.47410086
-0.75884473 1.3740617 0.31114352
-0.75124586 1.3597519 0.15634152
-0.011847438 0.045365889 3.8541267
-0.30450198 0.57813352 4.1543403
-0.41178483 0.77333206 4.2356324
-0.65817225 1.2220492 4.4844952
-0.96263635 1.7771646 4.8210621
-1.0454291 1.923661 4.0795541
-0.96693754 1.7748226 3.0410624
-0.92031693 1.6871613 2.3775849
-0.10114016 0.21560088 3.9578137
-0.20051926 0.39057016 4.0515871
-0.55574012 1.0408691 4.5804162
-0.82222712 1.528053 4.7729578
-1.0918425 2.0199625 4.811542
-1.0001163 1.8448989 3.5027514
-0.93446463 1.72094 2.6678357
-0.88982946 1.6360344 2.0972347
-0.87910694 1.6049597 1.8780839
-0.85493213 1.5589055 1.5159907
-0.8216567 1.497618 1.2045637
-0.80449349 1.4651365 0.96150118
-0.79275507 1.4431715 0.75357759
-0.77873504 1.4170727 0.56522095
-0.76699162 1.3945596 0.39364108
-0.75346619 1.3699726 0.23331158
-0.86941242 1.5925442 1.697161
-0.83460552 1.5275314 1.3509996
-0.81341755 1.4881438 1.0822097
-0.79581863 1.4541519 0.85376495
-0.78490716 1.4336299 0.65799361
-0.76827234 1.4026752 0.4764455
-0.75880152 1.3853887 0.31252488
-0.75129622 1.3711286 0.15674458
-0.01168901 0.045406967 3.8541267
-0.30248207 0.57919294 4.1543403
-0.40908289 0.77476478 4.2356324
-0.65460563 1.225656 4.4892673
-0.95642698 1.780514 4.8210621
-1.045525 1.9399487 4.1058884
-0.96742415 1.7905663 3.0617273
-0.92052197 1.7016405 2.392935
-0.10038695 0.21595262 3.9578137
-0.1991547 0.39126775 4.0515871
-0.55151552 1.0416919 4.5755773
-0.8144514 1.5263463 4.7588797
-1.0909553 2.035274 4.8385496
-1.0023142 1.8644589 3.5326128
-0.93416589 1.7348038 2.6837957
-0.88894117 1.648082 2.1082602
-0.8786059 1.6174202 1.8885976
-0.85506433 1.5721383 1.5254062
-0.82241935 1.5114959 1.2127882
-0.80572969 1.4796069 0.96845758
-0.79214817 1.454072 0.75732362
-0.77837497 1.4282066 0.56804103
-0.76447117 1.4015408 0.39457369
-0.75344884 1.3813381 0.23420574
-0.87095845 1.6087033 1.7104629
-0.8350451 1.5410969 1.3598289
-0.81438088 1.5023437 1.0898093
-0.79290277 1.4609098 0.85586303
-0.78440452 1.4446608 0.66128063
-0.76801151 1.4138908 0.47879013
-0.75632465 1.3923806 0.31321558
-0.75127625 1.382522 0.15714765
-0.011530438 0.045447491 3.8541267
-0.3008154 0.58093536 4.1592793
-0.40684801 0.77709025 4.2405276
-0.65102178 1.2292528 4.4940395
-0.95204288 1.7872905 4.8302674
-1.044391 1.9541479 4.1278338
-0.9678126 1.8063347 3.082392
-0.92063701 1.7161415 2.4082851
-0.099632531 0.21630171 3.9578137
-0.19778772 0.39196053 4.0515871
-0.54729182 1.0424975 4.5707378
-0.80669767 1.5246038 4.7448015
-1.0899742 2.0506034 4.8655567
-1.0031607 1.881755 3.5582085
-0.93520099 1.7513444 2.7037458
-0.8895784 1.6631327 2.1229608
-0.87802857 1.6298965 1.8991114
-0.85326666 1.5819651 1.5316831
-0.82309502 1.5253973 1.2210126
-0.80476975 1.490206 0.97309518
-0.79147476 1.4649857 0.76106972
-0.7756657 1.435135 0.56945103
-0.76191139 1.4085214 0.39550632
-0.75099182 1.3883399 0.23465282
-0.87063611 1.6216027 1.7204396
-0.83540004 1.5546842 1.3686585
-0.81321388 1.5127711 1.0948756
-0.79425132 1.4756581 0.86215717
-0.78383446 1.4557058 0.66456765
-0.76768166 1.4251217 0.48113477
-0.75615668 1.4037318 0.31459692
-0.75118589 1.393932 0.15755071
-0.011371727 0.045487463 3.8541267
-0.29878572 0.58198184 4.1592793
-0.40413299 0.77850568 4.2405276
-0.64742076 1.2328393 4.4988108
-0.94944769 1.797513 4.8486776
-1.0431705 1.9683626 4.1497793
-0.96810257 1.8221275 3.1030567
-0.92066205 1.7306639 2.423635
-0.098876894 0.21664818 3.9578137
-0.1966563 0.39312547 4.0565586
-0.5430693 1.0432866 4.5658979
-0.79896599 1.5228261 4.7307234
-1.0878844 2.0640252 4.888063
-1.0038986 1.8990797 3.5838039
-0.93613195 1.7679132 2.723696
-0.8901214 1.6782078 2.1376615
-0.87737465 1.6423881 1.9096249
-0.85324657 1.5952307 1.5410986
-0.82368344 1.5393217 1.229237
-0.80374557 1.5008163 0.97773278
-0.79073465 1.4759123 0.76481575
-0.77518368 1.44629 0.57227111
-0.76163417 1.4198301 0.39737156
-0.75084913 1.3997298 0.23554698
-0.87023431 1.6345195 1.7304161
-0.83567035 1.5682926 1.377488
-0.81401175 1.5270129 1.1024752
-0.79336947 1.4864292 0.86635327
-0.78319669 1.466764 0.66785467
-0.76728266 1.4363672 0.48347941
-0.75591868 1.4150988 0.31597832
-0.75102496 1.4053581 0.15795377
-0.011212877 0.045526881 3.8541267
-0.29675239 0.58302122 4.1592793
-0.40141305 0.77991158 4.2405276
-0.6438027 1.2364159 4.503583
-0.94679278 1.807739 4.8670878
-1.0418634 1.9825926 4.1717248
-0.96829402 1.8379441 3.1237214
-0.92059678 1.7452071 2.4389851
-0.098120049 0.21699201 3.9578137
-0.19528283 0.39380953 4.0565586
-0.53884792 1.0440587 4.5610585
-0.79125655 1.5210127 4.7166448
-1.0867224 2.0793865 4.9150701
-1.003317 1.9141221 3.6051338
-0.93555784 1.7818419 2.739656
-0.89056987 1.6933067 2.1523621
-0.87831348 1.6580464 1.9236431
-0.85496795 1.6119539 1.5536524
-0.82222492 1.5495749 1.2347199
-0.80473471 1.5153499 0.98468918
-0.78992796 1.4868516 0.76856184
-0.77463317 1.457459 0.57509118
-0.76128727 1.4311537 0.3992368
-0.75063604 1.4111356 0.23644114
-0.86975276 1.6474527 1.7403926
-0.83585566 1.5819215 1.3863175
-0.81270552 1.5374674 1.1075416
-0.79454505 1.5012237 0.87264746
-0.78249127 1.4778354 0.67114168
-0.76681447 1.4476273 0.48582402
-0.75329244 1.4221048 0.31666899
-0.75079334 1.4168 0.15835683
-0.01105389 0.045565743 3.8541267
-0.29471546 0.58405358 4.1592793
-0.3986882 0.78130805 4.2405276
-0.64016753 1.2399821 4.5083551
-0.94407785 1.8179682 4.8854976
-1.0404698 1.9968375 4.1936703
-0.96968955 1.8562783 3.148519
-0.92044121 1.759771 2.4543352
-0.097478919 0.21759716 3.9628055
-0.19390699 0.39448881 4.0565586
-0.5346278 1.0448143 4.5562196
-0.78515148 1.5222318 4.7119522
-1.0844649 2.0928316 4.9375763
-1.0026426 1.9291838 3.6264634
-0.93628919 1.7984608 2.7596061
-0.89092368 1.7084291 2.1670628
-0.87915373 1.6737312 1.9376613
-0.85477108 1.6252632 1.5630677
-0.82265174 1.5635371 1.2429444
-0.80563211 1.5299084 0.99164557
-0.79121518 1.5019047 0.77418089
-0.77401406 1.4686416 0.5779112
-0.76087052 1.4424921 0.40110204
-0.75035238 1.4225566 0.23733529
-0.86919153 1.6604027 1.7503691
-0.83783168 1.599151 1.39809
-0.81333727 1.5517492 1.115141
-0.79351795 1.5120256 0.87684357
-0.78171802 1.4889199 0.6744287
-0.76627707 1.4589015 0.48816866
-0.75292915 1.4334939 0.31805035
-0.7481671 1.4238347 0.15855835
-0.010894769 0.045604054 3.8541267
-0.29267496 0.58507872 4.1592793
-0.39595848 0.78269494 4.2405276
-0.63651526 1.243538 4.5131273
-0.94130313 1.8282005 4.9039078
-1.0400882 2.0132241 4.2200041
-0.96967489 1.8721459 3.169184
-0.91871947 1.7715094 2.4658477
-0.096718773 0.21793608 3.9628055
-0.1922958 0.39468387 4.0515871
-0.53040892 1.0455531 4.5513802
-0.77826196 1.52189 4.7025666
-1.080137 2.1024134 4.9510798
-1.0006806 1.9419454 3.643527
-0.93691576 1.8151062 2.7795563
-0.89118272 1.7235745 2.1817634
-0.87824774 1.6862789 1.948175
-0.85449165 1.6385908 1.5724831
-0.82105696 1.5738137 1.2484273
-0.80438733 1.5405649 0.99628317
-0.79026049 1.5128757 0.77792698
-0.77332622 1.4798377 0.58073127
-0.76038378 1.4538449 0.40296727
-0.74999815 1.4339931 0.23822945
-0.86683035 1.6700547 1.7570201
-0.8378343 1.6128268 1.4069196
-0.81189138 1.562229 1.1202074
-0.79452002 1.5268645 0.88313776
-0.78087682 1.5000168 0.67771572
-0.76567012 1.4701893 0.49051329
-0.75249553 1.4448975 0.31943169
-0.74780935 1.435299 0.15896143
-0.010735515 0.045641802 3.8541267
-0.290286 0.58540058 4.1543403
-0.39322397 0.78407234 4.2405276
-0.632846 1.2470833 4.517899
-0.93846846 1.8384355 4.922318
-1.0406967 2.031764 4.2507277
-0.96956098 1.8880357 3.1898487
-0.9183926 1.7861077 2.4811976
-0.09607251 0.21853712 3.967797
-0.19091693 0.39535272 4.0515871
-0.52675605 1.0473981 4.5513802
-0.77216458 1.5230583 4.6978736
-1.0757556 2.1119905 4.9645834
-0.99982816 1.9570394 3.6648569
-0.93743753 1.8317778 2.7995064
-0.89134669 1.7387421 2.1964641
-0.87726474 1.6988405 1.9586885
-0.85591727 1.6553937 1.5850369
-0.82132143 1.5878121 1.2566516
-0.80307794 1.5512311 1.0009208
-0.78923875 1.5238581 0.78167301
-0.77477658 1.495306 0.58496141
-0.75982702 1.465212 0.40483251
-0.74957311 1.4454441 0.23912361
-0.86612076 1.6830301 1.7669965
-0.83960229 1.6301152 1.4186922
-0.81038213 1.5727177 1.1252737
-0.79334724 1.5376954 0.88733381
-0.77996773 1.5111258 0.68100274
-0.76499367 1.4814909 0.49285793
-0.75199133 1.4563156 0.32081306
-0.74508756 1.4423393 0.15916295
-0.010576129 0.045678999 3.8541267
-0.28824082 0.58641028 4.1543403
-0.39093766 0.78635192 4.2454224
-0.62915969 1.2506183 4.5226707
-0.93028116 1.8382138 4.9131126
-1.0401044 2.0481975 4.2770624
-0.96934795 1.9039475 3.2105134
-0.91797483 1.8007251 2.4965477
-0.095309094 0.21887115 3.967797
-0.18953574 0.39601672 4.0515871
-0.5225361 1.0481056 4.5465403
-0.76684344 1.5257442 4.6978736
-1.0713204 2.1215625 4.9780869
-1.0000607 1.9744772 3.6904523
-0.93785423 1.8484749 2.8194566
-0.88987982 1.7509099 2.2074897
-0.87782991 1.7145901 1.9727067
-0.85546017 1.6687624 1.5944521
-0.82149816 1.6018316 1.264876
-0.80372661 1.565848 1.0078771
-0.79026759 1.5389758 0.78729212
-0.77393621 1.5065352 0.58778149
-0.75920016 1.4765924 0.40669775
-0.74680012 1.4524807 0.23957069
-0.867028 1.699347 1.7802985
-0.83942145 1.6438354 1.4275216
-0.81077069 1.5870537 1.1328733
-0.79210842 1.5485364 0.89152992
-0.78114158 1.5264504 0.68593329
-0.76424766 1.4928054 0.49520257
-0.75141662 1.4677478 0.32219443
-0.7446031 1.4538245 0.15956602
-0.010416616 0.045715638 3.8541267
-0.28619212 0.58741289 4.1543403
-0.38819039 0.7877118 4.2454224
-0.62612247 1.2554787 4.5322151
-0.92298305 1.8397039 4.9085107
-1.0394096 2.064651 4.3033972
-0.96903551 1.9198805 3.231178
-0.91746622 1.8153611 2.5118976
-0.0945445 0.2192025 3.967797
-0.18815222 0.39667591 4.0515871
-0.51776087 1.0476692 4.5368614
-0.7607435 1.5268673 4.693181
-1.0678059 2.133076 4.9960918
-1.0001837 1.9919407 3.716048
-0.93816578 1.8651972 2.8394065
-0.88986415 1.766116 2.2221904
-0.87506771 1.7240043 1.9797159
-0.85668367 1.685618 1.607006
-0.82158691 1.6158713 1.2731004
-0.80227393 1.57654 1.0125147
-0.78909725 1.5499878 0.79103822
-0.77302688 1.5177768 0.59060156
-0.75850302 1.4879866 0.40856299
-0.74624872 1.4639523 0.24046485
-0.86614656 1.7123587 1.7902751
-0.83915508 1.6575743 1.4363512
-0.80912125 1.5975655 1.1379397
-0.79080361 1.5593877 0.89572603
-0.78008145 1.53759 0.68922031
-0.76343185 1.5041325 0.49754718
-0.75301242 1.4836093 0.32426646
-0.74178571 1.4608694 0.15976755
-0.010256975 0.045751724 3.8541267
-0.2841399 0.58840829 4.1543403
-0.38543838 0.78906202 4.2454224
-0.62239754 1.2589948 4.5369868
-0.91568577 1.8411649 4.9039078
-1.0386126 2.0811243 4.3297315
-0.96862358 1.9358343 3.2518427
-0.91830224 1.8328815 2.5310853
-0.093778767 0.21953119 3.967797
-0.18676642 0.39733025 4.0515871
-0.5135479 1.0483414 4.5320225
-0.75464499 1.527966 4.6884885
-1.0632563 2.1426404 5.0095959
-1.0001968 2.0094287 3.7416439
-0.93837178 1.8819438 2.8593569
-0.88975292 1.781343 2.236891
-0.87385321 1.7366052 1.9902295
-0.85604852 1.6990265 1.6164215
-0.82158762 1.6299311 1.2813249
-0.8027516 1.5911961 1.0194712
-0.7878595 1.5610101 0.79478431
-0.77204841 1.5290302 0.59342158
-0.75773555 1.4993936 0.41042823
-0.74338019 1.4709929 0.24091193
-0.8668583 1.7287225 1.8035771
-0.83880293 1.6713312 1.4451805
-0.80740821 1.6080852 1.1430061
-0.79147112 1.5743034 0.90202022
-0.78107482 1.5529597 0.69415081
-0.76473099 1.5198143 0.50106418
-0.75450647 1.4994996 0.3263385
-0.74117446 1.4723747 0.16017061
-0.010097209 0.045787245 3.8541267
-0.28208426 0.58939654 4.1543403
-0.38312519 0.79131919 4.2503181
-0.6186558 1.2625002 4.541759
-0.90838951 1.8425978 4.8993053
-1.0377133 2.0976176 4.3560658
-0.96811211 1.9518088 3.2725077
-0.91902703 1.8504294 2.5502727
-0.093011893 0.2198572 3.967797
-0.18560293 0.39846316 4.0565586
-0.50823873 1.046735 4.5175037
-0.74854815 1.5290409 4.6837955
-1.0615354 2.1580596 5.036603
-1.0012538 2.0292799 3.7715054
-0.93847233 1.8987148 2.879307
-0.88954628 1.7965907 2.2515917
-0.87415332 1.7524102 2.0042477
-0.85533017 1.7124509 1.6258368
-0.82150024 1.6440105 1.2895492
-0.80115515 1.6019123 1.0241088
-0.78655446 1.5720427 0.79853034
-0.77100074 1.5402952 0.59624165
-0.75909787 1.5152053 0.41322607
-0.74270213 1.4824837 0.24180609
-0.86580449 1.7417684 1.8135536
-0.83836496 1.6851057 1.4540101
-0.80755246 1.6224715 1.1506057
-0.79001963 1.5851806 0.90621626
-0.77986324 1.5641286 0.69743782
-0.76376033 1.5311735 0.50340879
-0.75589883 1.5154184 0.32841054
-0.74049187 1.4838934 0.16057368
-0.0099373199 0.045822214 3.8541267
-0.28002515 0.59037763 4.1543403
-0.38036063 0.79265177 4.2503181
-0.61424506 1.264652 4.541759
-0.90280974 1.8475127 4.9039078
-1.0367112 2.1141293 4.3824
-0.96874225 1.9703281 3.2973053
-0.91964042 1.8680046 2.5694602
-0.092133448 0.21991381 3.9628055
-0.1842109 0.39910862 4.0565586
-0.50294721 1.0451046 4.5029855
-0.74245304 1.530092 4.6791024
-1.0530419 2.159795 5.0321016
-1.0021844 2.0491629 3.8013666
-0.93846703 1.9155089 2.8992569
-0.89073759 1.8149019 2.2699676
-0.87277293 1.7650414 2.0147614
-0.85452831 1.7258905 1.6352521
-0.81946844 1.6543621 1.2950323
-0.80146134 1.6166058 1.0310652
-0.78724176 1.5872382 0.80414945
-0.76988381 1.5515715 0.59906173
-0.75817406 1.5266449 0.41509131
-0.7419529 1.4939877 0.24270025
-0.86632025 1.7581772 1.8268557
-0.83784097 1.6988975 1.4628397
-0.80569863 1.6330123 1.155672
-0.78850192 1.5960667 0.91041237
-0.78067547 1.5795416 0.70236832
-0.76271963 1.5425444 0.50575346
-0.7571891 1.5313649 0.33048257
-0.73973781 1.4954252 0.16097674
-0.0097816363 0.045900039 3.8591266
-0.27829283 0.59205478 4.1592793
-0.37759143 0.79397464 4.2503181
-0.61500549 1.2775488 4.5799346
-0.89720684 1.8524114 4.9085107
-1.0356066 2.1306598 4.4087348
-0.96925485 1.9888756 3.322103
-0.92154777 1.8884867 2.5924852
-0.091365248 0.22023408 3.9628055
-0.18281662 0.39974922 4.0565586
-0.49821419 1.0445846 4.4933071
-0.73635972 1.5311191 4.6744099
-1.0445492 2.1614976 5.0276008
-1.0029883 2.0690768 3.8312285
-0.93835598 1.9323261 2.9192071
-0.89032876 1.8301946 2.2846682
-0.87288445 1.7808864 2.0287795
-0.85192823 1.7358512 1.6415291
-0.81921715 1.6684726 1.3032565
-0.80167449 1.6313205 1.0380214
-0.78578705 1.5982971 0.80789554
-0.7686975 1.5628586 0.6018818
-0.75717956 1.5380965 0.41695657
-0.74333167 1.5099722 0.24404147
-0.86509335 1.7712554 1.836832
-0.8372308 1.7127059 1.4716691
-0.80567479 1.6474323 1.1632714
-0.78891361 1.6110376 0.91670656
-0.77931201 1.5907383 0.7056554
-0.76160878 1.5539266 0.50809807
-0.75837713 1.5473387 0.33255461
-0.73891228 1.5069698 0.1613798
-0.0096213548 0.045933902 3.8591266
-0.27655226 0.59372711 4.1642184
-0.37481764 0.79528785 4.2503181
-0.6137554 1.2864243 4.6037946
-0.89158046 1.857293 4.9131126
-1.034399 2.147208 4.4350691
-0.96964961 2.0074506 3.3469007
-0.92332333 1.9090052 2.6155102
-0.090595931 0.22055167 3.9628055
-0.18142013 0.4003849 4.0565586
-0.49295387 1.0429078 4.4787884
-0.73026824 1.5321224 4.6697173
-1.0369978 2.1651304 5.0276008
-1.0025358 2.0866699 3.8568239
-0.93813872 1.9491656 2.9391572
-0.89129627 1.8485599 2.3030438
-0.87445414 1.7999612 2.0463021
-0.8509717 1.7493151 1.6509445
-0.81887734 1.6826018 1.311481
-0.80179477 1.6460567 1.0449779
-0.78629559 1.6135327 0.81351459
-0.76744169 1.5741562 0.60470188
-0.7561143 1.5495596 0.41882181
-0.74242407 1.5215088 0.24493563
-0.86541247 1.7877073 1.850134
-0.83653444 1.7265307 1.4804987
-0.80556005 1.661872 1.170871
-0.78923041 1.6260306 0.92300069
-0.77994251 1.6061925 0.71058589
-0.76042765 1.5653197 0.51044267
-0.75946289 1.5633396 0.33462667
-0.74019885 1.5230198 0.16198438
-0.0094609568 0.045967206 3.8591266
-0.27447808 0.59468883 4.1642184
-0.37203929 0.79659134 4.2503181
-0.61372656 1.2980055 4.6371984
-0.88677037 1.8639224 4.922318
-1.0330886 2.1637733 4.4614038
-0.9687115 2.023514 3.3675654
-0.92496657 1.9295585 2.6385353
-0.089717872 0.22059868 3.9578137
-0.18002142 0.40101576 4.0565586
-0.48771146 1.0412072 4.4642701
-0.72491568 1.5346621 4.6697173
-1.0294338 2.1687372 5.0276008
-1.0030938 2.1066401 3.8866854
-0.93911272 1.968747 2.9630976
-0.89360791 1.8700131 2.3250947
-0.87435412 1.8158554 2.0603204
-0.84993142 1.7627931 1.6603597
-0.82026541 1.7005148 1.3224468
-0.80182177 1.6608131 1.0519344
-0.78469098 1.6246166 0.81726068
-0.76611626 1.5854639 0.60752195
-0.75497824 1.561034 0.42068705
-0.741445 1.5330575 0.24582979
-0.86401218 1.8008165 1.8601105
-0.83750129 1.744015 1.4922713
-0.80535418 1.6763307 1.1784705
-0.78748465 1.6369555 0.92719686
-0.77842671 1.6174153 0.71387291
-0.75917631 1.5767235 0.51278734
-0.75829774 1.5749047 0.33600801
-0.73921418 1.5345963 0.16238745
-0.0093004443 0.045999952 3.8591266
-0.27272341 0.59635013 4.169158
-0.36925641 0.79788518 4.2503181
-0.61425763 1.3109539 4.6753745
-0.8827579 1.8723079 4.9361253
-1.0326992 2.1825209 4.4921269
-0.9688791 2.0421379 3.3923631
-0.92647767 1.9501466 2.6615605
-0.088947296 0.2209105 3.9578137
-0.17862052 0.4016417 4.0565586
-0.48301595 1.0406228 4.4545918
-0.71955431 1.5371833 4.6697173
-1.0227839 2.1742873 5.0321016
-1.0024117 2.1242805 3.912281
-0.93996119 1.9883585 2.9870377
-0.89432967 1.8884408 2.3434706
-0.87415391 1.831771 2.0743387
-0.84880739 1.7762851 1.6697752
-0.81973481 1.7146852 1.3306712
-0.80175543 1.6755897 1.0588907
-0.78502017 1.6398902 0.82287979
-0.76679331 1.601108 0.61175203
-0.75377119 1.5725192 0.42255229
-0.74039418 1.5446178 0.24672395
-0.86413407 1.8173095 1.8734126
-0.8366192 1.7578769 1.5011007
-0.80691034 1.6947004 1.1886032
-0.78762531 1.6519846 0.93349099
-0.77684206 1.6286471 0.71715993
-0.75994784 1.5925242 0.51630425
-0.75706112 1.5864807 0.33738938
-0.73815775 1.5461843 0.16279051
-0.0091398181 0.046032134 3.8591266
-0.27064011 0.59729844 4.169158
-0.36689323 0.80009496 4.2552133
-0.61282021 1.3198599 4.6992345
-0.87787068 1.8789179 4.9453306
-1.0321915 2.2012916 4.522851
-0.96892834 2.060787 3.4171607
-0.92785609 1.9707683 2.6845856
-0.088175632 0.22121964 3.9578137
-0.17721742 0.40226278 4.0565586
-0.47885552 1.0411605 4.4497519
-0.71418417 1.5396855 4.6697173
-1.0170273 2.1817904 5.0411043
-1.0016186 2.1419418 3.9378769
-0.9406842 2.0079997 3.0109777
-0.89493358 1.9068962 2.3618467
-0.8753776 1.8509307 2.0918612
-0.84926522 1.7933084 1.6823291
-0.82269579 1.7364302 1.3443786
-0.79969764 1.6863832 1.0635283
-0.78326517 1.6509975 0.82662582
-0.76531345 1.6124423 0.61457211
-0.75249308 1.5840148 0.42441753
-0.7392717 1.5561892 0.24761811
-0.86255985 1.8304477 1.8833891
-0.83737475 1.7754097 1.5128733
-0.80650842 1.7092025 1.1962028
-0.78767055 1.6670344 0.93978512
-0.77518839 1.6398873 0.72044694
-0.75854021 1.6039551 0.51864892
-0.75363576 1.5935904 0.33808005
-0.73916596 1.5622996 0.16339511
-0.0089755123 0.046020273 3.8541267
-0.26823556 0.59753048 4.1642184
-0.36409816 0.8013708 4.2552133
-0.60820931 1.3219908 4.6992345
-0.87376881 1.8872896 4.9591379
-1.0315652 2.2200854 4.5535746
-0.96885914 2.0794613 3.4419582
-0.92774671 1.9885187 2.7037728
-0.087507717 0.22179508 3.9628055
-0.1758122 0.40287891 4.0565586
-0.47417614 1.0405378 4.440073
-0.70880526 1.5421692 4.6697173
-1.0103179 2.1873035 5.0456057
-1.0007142 2.1596234 3.9634721
-0.94254994 2.0304031 3.0389078
-0.89541948 1.9253787 2.3802223
-0.87496477 1.866892 2.1058795
-0.84796089 1.8068327 1.6917443
-0.82373774 1.7544314 1.3553444
-0.79945827 1.701192 1.0704848
-0.7834146 1.6663077 0.83224493
-0.76580554 1.6281266 0.61880219
-0.75114387 1.5955206 0.42628276
-0.7380774 1.5677714 0.24851227
-0.8624841 1.8469797 1.8966911
-0.838018 1.7929691 1.5246459
-0.80601507 1.7237225 1.2038023
-0.78762031 1.6821047 0.94607931
-0.77346569 1.6511357 0.72373396
-0.75706208 1.6153958 0.52099353
-0.75016987 1.6006953 0.33877075
-0.73794967 1.573917 0.16379817
-0.0088148173 0.046051327 3.8541267
-0.26614818 0.59846318 4.1642184
-0.36129862 0.80263686 4.2552133
-0.60297197 1.3227476 4.6944623
-0.86391759 1.883225 4.9407282
-1.0318217 2.2410769 4.5886869
-0.9698509 2.1007152 3.4708893
-0.92886949 2.0092013 2.7267978
-0.086732976 0.22209918 3.9628055
-0.17440481 0.40349016 4.0565586
-0.47054112 1.0421867 4.440073
-0.70413285 1.5462046 4.6744099
-1.0044883 2.1947758 5.0546079
-0.99752223 2.1725838 3.980536
-0.9430117 2.0501063 3.0628481
-0.89578718 1.9438877 2.3985982
-0.8759532 1.8861073 2.1234024
-0.84821391 1.8238991 1.7042983
-0.824664 1.7724609 1.3663102
-0.79725522 1.7120038 1.0751224
-0.78346664 1.681639 0.83786404
-0.76619738 1.6438338 0.62303233
-0.74972343 1.6070361 0.428148
-0.73681122 1.5793644 0.24940643
-0.86073542 1.860145 1.9066676
-0.83854884 1.8105546 1.5364187
-0.80724227 1.7421708 1.2139351
-0.78747433 1.6971945 0.95237339
-0.7716738 1.6623919 0.72702098
-0.75551319 1.6268455 0.5233382
-0.74666363 1.6077956 0.33946142
-0.73666137 1.5855451 0.16420123
-0.0086540142 0.046081815 3.8541267
-0.26437047 0.6000998 4.169158
-0.3584947 0.80389309 4.2552133
-0.59835106 1.3248442 4.6944623
-0.85653037 1.8844507 4.9361253
-1.0319442 2.2620969 4.6237998
-0.96953523 2.119442 3.4956868
-0.92852437 2.0270021 2.7459855
-0.086060114 0.22267029 3.967797
-0.17320463 0.40458676 4.0615301
-0.4663873 1.0426754 4.4352341
-0.6987313 1.548653 4.6744099
-0.99772006 2.2002513 5.0591087
-0.99425191 2.1855485 3.9975996
-0.94334722 2.0698373 3.0867882
-0.89603633 1.9624223 2.4169738
-0.87532735 1.9021122 2.1374204
-0.84835786 1.8409891 1.7168521
-0.82372373 1.7867209 1.3745347
-0.79684222 1.726843 1.0820787
-0.78147805 1.6927817 0.84161013
-0.76447737 1.6552082 0.62585235
-0.75029296 1.6230199 0.43094587
-0.73547298 1.5909675 0.25030059
-0.86046135 1.8767145 1.9199696
-0.83896697 1.8281653 1.5481913
-0.80655187 1.7567309 1.2215346
-0.78533679 1.7081804 0.95656961
-0.77178597 1.6779457 0.73195153
-0.75592542 1.6427194 0.52685511
-0.74518704 1.6193893 0.34084278
-0.73530066 1.597183 0.16460429
-0.0084931059 0.04611174 3.8541267
-0.26227415 0.60101897 4.169158
-0.3556864 0.8051396 4.2552133
-0.59372288 1.3269249 4.6944623
-0.84914511 1.8856478 4.9315233
-1.0319325 2.283145 4.6589122
-0.97026223 2.1407549 3.5246177
-0.92806625 2.0448244 2.765173
-0.085282326 0.22296934 3.967797
-0.1717913 0.40518886 4.0615301
-0.4627448 1.044297 4.4352341
-0.69402528 1.552658 4.6791024
-0.99003369 2.2037208 5.0591087
-0.99197477 2.2008944 4.0189295
-0.94355637 2.0895953 3.1107283
-0.89476973 1.9778932 2.4316745
-0.87607962 1.9213805 2.154943
-0.84839278 1.8581021 1.7294059
-0.82443118 1.8047988 1.3855006
-0.79449338 1.7376714 1.0867163
-0.78134948 1.7081467 0.84722924
-0.76468343 1.6709528 0.63008249
-0.75075996 1.6390272 0.43374372
-0.73613662 1.6071079 0.25164184
-0.86008197 1.8933045 1.9332715
-0.83759934 1.8421212 1.5570207
-0.80576968 1.7713075 1.2291342
-0.7850135 1.7233018 0.96286368
-0.77179891 1.6935205 0.73688203
-0.75421953 1.6541934 0.52919978
-0.74158412 1.6264865 0.34153345
-0.7338677 1.6088308 0.16500735
-0.0083320942 0.046141107 3.8541267
-0.26048255 0.60264421 4.1740975
-0.35328177 0.80730915 4.2601085
-0.58848268 1.3276246 4.6896906
-0.84176195 1.886816 4.9269204
-1.0317862 2.3042202 4.694025
-0.97085214 2.1620986 3.5535481
-0.92749488 2.0626683 2.7843604
-0.084604554 0.2235361 3.9727888
-0.17058176 0.40627775 4.0665016
-0.4585917 1.0447549 4.4303942
-0.68860132 1.5550711 4.6791024
-0.98322034 2.2091522 5.0636101
-0.98428619 2.2043436 4.0189295
-0.9448694 2.1121304 3.1386585
-0.8947925 1.996473 2.4500504
-0.87523997 1.937427 2.1689615
-0.84831852 1.8752375 1.7419597
-0.82329839 1.8190941 1.3937249
-0.79390657 1.7525395 1.0936728
-0.78112304 1.7235311 0.85284829
-0.76280797 1.6823497 0.6329025
-0.75112432 1.6550573 0.43654159
-0.73463833 1.6187373 0.25253597
-0.85959727 1.9099144 1.9465735
-0.8378045 1.8597751 1.5687933
-0.80666655 1.7898297 1.2392669
-0.78459412 1.7384418 0.96915793
-0.76976913 1.7048118 0.74016905
-0.75444376 1.670105 0.53271675
-0.73997939 1.6380912 0.34291482
-0.73441988 1.6250404 0.16561194
-0.008170981 0.046169911 3.8541267
-0.25868279 0.60426414 4.1790361
-0.35046154 0.80853742 4.2601085
-0.58504474 1.3324043 4.6992345
-0.83517057 1.8897429 4.9269204
-1.0324763 2.3275115 4.7335267
-0.97130477 2.1834724 3.5824785
-0.9268102 2.080533 2.8035481
-0.083823748 0.22383006 3.9727888
-0.16916254 0.40687072 4.0665016
-0.45494205 1.0463493 4.4303942
-0.68386197 1.5590457 4.6837955
-0.97550297 2.2125709 5.0636101
-0.98924506 2.2363875 4.0701203
-0.9448157 2.1319449 3.1625988
-0.89469635 2.0150769 2.4684262
-0.87575567 1.9567462 2.1864841
-0.84813488 1.892395 1.7545135
-0.8237865 1.8372185 1.4046907
-0.7950393 1.7714659 1.102948
-0.77889985 1.7347056 0.85659432
-0.76282781 1.6981297 0.63713264
-0.75138575 1.6711097 0.43933943
-0.73306781 1.6303757 0.25343013
-0.859007 1.9265443 1.9598755
-0.83624935 1.8737618 1.5776229
-0.80568635 1.8044434 1.2468663
-0.78407848 1.7535996 0.97545201
-0.76959825 1.7204202 0.7450996
-0.75456595 1.6860381 0.53623366
-0.74032545 1.6542244 0.34498686
-0.73282617 1.6367136 0.166015
-0.008009769 0.046198152 3.8541267
-0.25687492 0.60587895 4.1839757
-0.34803852 0.81069148 4.2650032
-0.58217585 1.338545 4.7135501
-0.82778561 1.8908569 4.922318
-1.0339798 2.3530283 4.7774177
-0.97162002 2.2048755 3.6114094
-0.92730588 2.1013498 2.8265731
-0.083041929 0.2241213 3.9727888
-0.16774127 0.40745875 4.0665016
-0.45078981 1.0467764 4.4255548
-0.67910326 1.5630062 4.6884885
-0.96777374 2.2159624 5.0636101
-0.99399197 2.2684927 4.1213117
-0.94584614 2.1545436 3.1905289
-0.89448118 2.033704 2.4868021
-0.87614709 1.9760923 2.2040069
-0.84784162 1.9095738 1.7670673
-0.82246059 1.8515472 1.4129152
-0.79424983 1.7863737 1.1099044
-0.77849227 1.7501215 0.86221349
-0.76274669 1.7139301 0.64136273
-0.74954551 1.6826969 0.4412047
-0.73142493 1.642023 0.25432429
-0.85981953 1.9466083 1.976503
-0.83460671 1.8877599 1.5864522
-0.80461407 1.819072 1.2544659
-0.78346658 1.768775 0.9817462
-0.76932764 1.736048 0.75003016
-0.75458598 1.7019923 0.53975064
-0.7385608 1.6658527 0.34636822
-0.73318541 1.6529622 0.1666196
-0.0078484574 0.046225831 3.8541267
-0.25535938 0.60820502 4.1938543
-0.34520656 0.81190145 4.2650032
-0.57868087 1.3433111 4.7230945
-0.82118022 1.8937348 4.922318
-1.0343618 2.3763871 4.8169193
-0.97292316 2.2288861 3.6444731
-0.92638385 2.1192586 2.8457606
-0.082259096 0.2244098 3.9727888
-0.16631795 0.40804178 4.0665016
-0.44713312 1.0483435 4.4255548
-0.67364317 1.5653671 4.6884885
-0.96089691 2.2213252 5.0681114
-0.99748856 2.2982655 4.1682372
-0.94673038 2.1771755 3.2184591
-0.8941468 2.0523543 2.505178
-0.87641394 1.9954646 2.2215295
-0.84587187 1.9232106 1.7764827
-0.82104462 1.8658888 1.4211395
-0.79336584 1.8012972 1.1168607
-0.77798647 1.7655553 0.8678326
-0.76256454 1.7297505 0.64559281
-0.7496165 1.6987855 0.44400257
-0.73172003 1.6582344 0.25566554
-0.85900575 1.9632806 1.9898051
-0.83449781 1.9054717 1.5982249
-0.80344927 1.833715 1.2620655
-0.78275818 1.7839671 0.98804033
-0.7689572 1.7516946 0.75496066
-0.75450385 1.7179669 0.54326761
-0.73871517 1.6820227 0.34844026
-0.73143041 1.6646593 0.16702266
-0.0076870518 0.046252944 3.8541267
-0.25353274 0.60981023 4.1987934
-0.34237036 0.81310147 4.2650032
-0.57574517 1.3494418 4.7374101
-0.81379402 1.8947947 4.9177151
-1.0355413 2.4019766 4.8608098
-0.97407049 2.2529325 3.6775367
-0.92662138 2.1401279 2.8687856
-0.081377983 0.22442377 3.967797
-0.1648926 0.40861982 4.0665016
-0.44298208 1.0487399 4.4207153
-0.66885149 1.5692966 4.693181
-0.95313716 2.2246659 5.0681114
-1.002849 2.3328822 4.2236938
-0.94746804 2.1998396 3.2463892
-0.89503604 2.0741394 2.5272288
-0.8779788 2.0181332 2.2425568
-0.8453716 1.940425 1.7890366
-0.81953865 1.8802429 1.429364
-0.7941587 1.8202965 1.1261359
-0.77738219 1.7810065 0.87345165
-0.76420087 1.7499865 0.65123296
-0.74761695 1.710394 0.44586781
-0.72991633 1.6699046 0.2565597
-0.85957068 1.9833966 2.0064325
-0.83266699 1.9194976 1.6070545
-0.80219203 1.8483717 1.269665
-0.78376222 1.8033383 0.99643254
-0.76848674 1.7673594 0.75989115
-0.75431925 1.7339615 0.54678452
-0.7387656 1.6982141 0.3505123
-0.73159641 1.6809448 0.16762725
-0.0075255525 0.046279494 3.8541267
-0.25169808 0.6114102 4.2037325
-0.33953005 0.81429166 4.2650032
-0.57219291 1.3541934 4.7469544
-0.80717498 1.8976238 4.9177151
-1.0374951 2.4298058 4.9090896
-0.97395384 2.2744267 3.7064672
-0.92798764 2.16397 2.895648
-0.0805941 0.22470647 3.967797
-0.16366252 0.40968817 4.0714731
-0.4393186 1.0502799 4.4207153
-0.6633696 1.5716218 4.693181
-0.94621599 2.2299831 5.0726123
-1.0038935 2.357965 4.2620873
-0.9480589 2.2225351 3.2743194
-0.89578408 2.0959554 2.5492799
-0.87798482 2.0375614 2.2600796
-0.8432194 1.9540857 1.7984519
-0.81794214 1.8946092 1.4375885
-0.79307139 1.8352569 1.1330924
-0.77667969 1.7964753 0.87907082
-0.76380074 1.7658521 0.65546304
-0.74749696 1.726517 0.44866565
-0.73001856 1.6861526 0.25790092
-0.85853285 2.0001092 2.0197346
-0.83234382 1.9372475 1.6188271
-0.80254447 1.8670022 1.2797977
-0.78464049 1.8227379 1.0048248
-0.76978421 1.7873795 0.76646519
-0.75403214 1.7499757 0.55030149
-0.73871195 1.7144263 0.35258433
-0.73165751 1.6972518 0.16823184
-0.0073619131 0.046261895 3.8491268
-0.24956231 0.61228508 4.2037325
-0.33707389 0.8164131 4.2698989
-0.56688637 1.3548054 4.7421823
-0.7997877 1.8986291 4.9131126
-1.0383344 2.4554713 4.9529805
-0.97479767 2.298538 3.7395308
-0.92794579 2.1848977 2.918673
-0.079809241 0.2249864 3.967797
-0.16223145 0.41025698 4.0714731
-0.43564975 1.0518069 4.4207153
-0.6585449 1.5755199 4.6978736
-0.93926936 2.2352796 5.0771136
-0.99970931 2.3710678 4.2791514
-0.94850278 2.2452614 3.3022494
-0.89506924 2.1146796 2.5676558
-0.87786585 2.0570142 2.2776024
-0.84251159 1.9713337 1.8110057
-0.81461161 1.9051423 1.4430714
-0.79188913 1.8502315 1.1400487
-0.77587837 1.8119603 0.88468987
-0.76329905 1.7817359 0.65969312
-0.74533761 1.738145 0.45053089
-0.72805363 1.6978444 0.25879508
-0.85884947 2.0202749 2.0363619
-0.83032429 1.9512992 1.6276567
-0.80108821 1.8816915 1.2873973
-0.78361285 1.8379906 1.0111189
-0.76909846 1.8030864 0.77139574
-0.75364232 1.7660087 0.55381846
-0.73661029 1.7261037 0.3539657
-0.72965199 1.7089849 0.16863491
-0.0072003836 0.046287309 3.8491268
-0.24742351 0.6131525 4.2037325
-0.33422205 0.81758475 4.2698989
-0.56215376 1.356776 4.7421823
-0.79390752 1.9032127 4.9177151
-1.039932 2.4833815 5.0012603
-0.97548491 2.3226831 3.7725942
-0.92776895 2.2058508 2.9416981
-0.078928992 0.22499081 3.9628055
-0.1607984 0.41082075 4.0714731
-0.4319756 1.0533214 4.4207153
-0.65370107 1.5794036 4.7025666
-0.9314611 2.2385447 5.0771136
-0.99343616 2.3793564 4.2876835
-0.94879931 2.2680173 3.3301797
-0.89554501 2.1365509 2.5897067
-0.87762153 2.0764904 2.295125
-0.84169358 1.9886005 1.8235595
-0.81284773 1.9195255 1.4512957
-0.79061204 1.8652202 1.1470052
-0.77678841 1.8317297 0.89218199
-0.76269579 1.7976376 0.66392326
-0.74502629 1.7543004 0.45332876
-0.72796249 1.7141266 0.26013631
-0.85758692 2.0370255 2.049664
-0.82821667 1.96536 1.6364861
-0.80121362 1.9003651 1.2975299
-0.78425354 1.8574392 1.0195111
-0.76831239 1.8188101 0.7763263
-0.75125754 1.7775831 0.55616307
-0.73636389 1.7423487 0.35603774
-0.72757328 1.7207242 0.16903797
-0.007038767 0.046312165 3.8491268
-0.2452817 0.61401242 4.2037325
-0.33136612 0.81874639 4.2698989
-0.55684787 1.3573489 4.7374101
-0.78725922 1.9059722 4.9177151
-1.0413474 2.5113328 5.0495405
-0.97601533 2.3468604 3.8056579
-0.92868942 2.2297883 2.9685607
-0.078143142 0.22526497 3.9628055
-0.15955546 0.4118768 4.0764446
-0.42829621 1.0548228 4.4207153
-0.64883822 1.5832727 4.7072592
-0.92447066 2.2437952 5.081615
-0.99708104 2.411732 4.3388743
-0.9489485 2.2908025 3.3581097
-0.89587879 2.1584511 2.6117578
-0.87725198 2.0959902 2.3126478
-0.8422699 2.0094752 1.8392519
-0.81099349 1.9339195 1.4595201
-0.79095417 1.8843068 1.1562804
-0.77756965 1.8515271 0.89967412
-0.76199061 1.8135564 0.66815329
-0.7446112 1.7704747 0.4561266
-0.72776651 1.7304289 0.26147756
-0.85621786 2.053792 2.0629661
-0.82757753 1.98316 1.6482587
-0.79955751 1.9150842 1.3051294
-0.78301728 1.8727273 1.0258054
-0.76742578 1.8345499 0.78125679
-0.75067765 1.7936461 0.55968004
-0.736013 1.758613 0.35810977
-0.72735119 1.7370784 0.16964257
-0.0068770647 0.04633645 3.8491268
-0.24342231 0.61558753 4.208672
-0.32850611 0.81989813 4.2698989
-0.55154485 1.3579013 4.7326379
-0.78134078 1.910517 4.922318
-1.04258 2.5393233 5.0978203
-0.97853166 2.3762739 3.8469875
-0.92823189 2.2507954 2.9915857
-0.077356353 0.22553636 3.9628055
-0.15811677 0.41243127 4.0764446
-0.42461157 1.0563114 4.4207153
-0.64460504 1.5887262 4.7166448
-0.91745496 2.2490244 5.0861163
-0.99952376 2.4417479 4.3857994
-0.94895029 2.3136165 3.38604
-0.89607054 2.1803794 2.6338086
-0.87675679 2.1155121 2.3301704
-0.84271044 2.0303781 1.8549441
-0.81065202 1.9521858 1.470486
-0.78947264 1.8993278 1.1632369
-0.77644217 1.8670719 0.90529323
-0.76118368 1.8294924 0.67238343
-0.74409223 1.7866671 0.45892447
-0.72746551 1.7467504 0.26281881
-0.85474211 2.0705733 2.0762682
-0.82682419 2.0009794 1.6600313
-0.79945534 1.9337988 1.3152622
-0.78341979 1.8922225 1.0341976
-0.76643866 1.8503058 0.78618735
-0.7499947 1.8097265 0.56319702
-0.73555738 1.7748957 0.36018181
-0.72511017 1.7488368 0.17004563
-0.0067152781 0.046360176 3.8491268
-0.24155492 0.61715716 4.2136111
-0.32564214 0.82103986 4.2698989
-0.54680151 1.3598183 4.7326379
-0.77466702 1.9132327 4.922318
-1.0418262 2.5629156 5.1373219
-0.97235572 2.3848867 3.8552532
-0.92885065 2.2747936 3.0184484
-0.076568611 0.22580501 3.9628055
-0.15667616 0.41298068 4.0764446
-0.42092177 1.0577871 4.4207153
-0.63969851 1.5925679 4.7213373
-0.91041386 2.2542317 5.0906172
-1.0007896 2.469393 4.4284592
-0.94880396 2.3364577 3.4139702
-0.89612013 2.2023351 2.6558597
-0.87748981 2.1383555 2.3511977
-0.84153593 2.047708 1.867498
-0.81019282 1.9704726 1.4814519
-0.7895816 1.9184579 1.1725119
-0.77698058 1.8869178 0.91278535
-0.75844747 1.8410091 0.6752035
-0.74346912 1.8028774 0.46172231
-0.7270593 1.7630907 0.26416004
-0.85457218 2.0908258 2.0928955
-0.82595634 2.0188174 1.671804
-0.79923207 1.9525357 1.3253949
-0.7819742 1.9075437 1.0404916
-0.76535076 1.8660768 0.79111785
-0.74920851 1.8258237 0.56671393
-0.73499703 1.7911965 0.36225384
-0.72089851 1.7559788 0.17024715
-0.0065534101 0.046383332 3.8491268
-0.23939915 0.61799663 4.2136111
-0.32314605 0.8231194 4.2747941
-0.54149967 1.3603319 4.7278662
-0.76871079 1.9177387 4.9269204
-1.0409204 2.5865331 5.1768236
-0.96929115 2.4013138 3.8759179
-0.92931306 2.2988238 3.045311
-0.07577993 0.22607091 3.9628055
-0.15523364 0.41352504 4.0764446
-0.41722685 1.0592499 4.4207153
-0.63541055 1.5979985 4.7307234
-0.90334773 2.2594173 5.0951185
-1.0018744 2.4970765 4.4711185
-0.94963372 2.3621221 3.4458902
-0.89729375 2.2274621 2.6815858
-0.87673163 2.1579256 2.3687205
-0.84171742 2.0686595 1.8831903
-0.81119233 1.9926529 1.4951591
-0.78789502 1.9335092 1.1794683
-0.77563971 1.9024971 0.91840452
-0.75745183 1.8569709 0.67943364
-0.74274194 1.8191051 0.46452022
-0.72843033 1.7840598 0.26594836
-0.85287058 2.1076405 2.1061976
-0.82497412 2.0366738 1.6835767
-0.79888785 1.9712948 1.3355277
-0.78213793 1.9270831 1.0488838
-0.76416206 1.8818626 0.7960484
-0.74831903 1.8419374 0.5702309
-0.73619562 1.8121028 0.36501658
-0.72040826 1.7723691 0.17085175
-0.0063925968 0.046449546 3.8541267
-0.2375183 0.6195541 4.2185502
-0.3206394 0.82519156 4.2796893
-0.53674799 1.3622139 4.7278662
-0.76201195 1.9204104 4.9269204
-1.0389758 2.6079507 5.2119365
-0.96507967 2.4151354 3.8924499
-0.9296189 2.3228843 3.0721734
-0.075079978 0.22660847 3.967797
-0.15397431 0.41456425 4.0814157
-0.41352683 1.0606998 4.4207153
-0.63235617 1.6066298 4.7494941
-0.89625645 2.264581 5.0996199
-1.0018154 2.5223732 4.5095115
-0.94918162 2.3850205 3.4738207
-0.89704722 2.2494748 2.7036369
-0.87717819 2.1808248 2.3897476
-0.84030855 2.0860267 1.8957441
-0.81048381 2.0109859 1.5061251
-0.78777003 1.95268 1.1887435
-0.77593464 1.9223888 0.92589664
-0.7563538 1.8729477 0.68366367
-0.7419104 1.8353493 0.46731806
-0.72779733 1.8004427 0.26728958
-0.85245055 2.1279349 2.1228251
-0.82538152 2.0582993 1.6982924
-0.79842216 1.9900748 1.3456604
-0.78048265 1.9424355 1.055178
-0.76287234 1.8976628 0.8009789
-0.74551243 1.8535575 0.57257551
-0.73356152 1.8238504 0.36639795
-0.71794724 1.7841426 0.17125481
-0.0062304186 0.046471577 3.8541267
-0.2353542 0.62037939 4.2185502
-0.31921789 0.83010763 4.2992702
-0.53144747 1.3626884 4.7230945
-0.7553038 1.9230585 4.9269204
-1.0351373 2.6249297 5.2382708
-0.96181834 2.4315729 3.9131145
-0.93094844 2.3499546 3.1028733
-0.074377194 0.2271439 3.9727888
-0.15252627 0.4150992 4.0814157
-0.40982181 1.0621369 4.4207153
-0.62924927 1.6152595 4.7682652
-0.88914013 2.2697227 5.1041212
-1.001592 2.5476999 4.547905
-0.9485811 2.4079442 3.5017507
-0.89790255 2.2746661 2.729363
-0.87747556 2.203753 2.4107749
-0.84023035 2.1070247 1.9114364
-0.81120652 2.0332215 1.5198324
-0.78752083 1.9718735 1.1980187
-0.77437985 1.9380004 0.93151569
-0.75515348 1.8889394 0.68789381
-0.74097443 1.8516097 0.4701159
-0.72705883 1.8168427 0.26863083
-0.85189903 2.1482518 2.1394527
-0.82564789 2.0799522 1.7130083
-0.7994262 2.0128815 1.3583262
-0.77872968 1.9577997 1.0614722
-0.76148164 1.9134767 0.80590945
-0.74443179 1.869696 0.57609248
-0.73268604 1.8402023 0.36846998
-0.71541268 1.7959203 0.17165788
-0.0060689948 0.046536665 3.8591266
-0.23318723 0.62119716 4.2185502
-0.31740406 0.83407199 4.3139558
-0.52615011 1.3631425 4.7183223
-0.74858648 1.9256834 4.9269204
-1.0372882 2.657531 5.2953286
-0.96050566 2.4532583 3.9420452
-0.9309302 2.3740783 3.1297359
-0.073583864 0.22740215 3.9727888
-0.15107638 0.41562906 4.0814157
-0.40655994 1.0647353 4.4255548
-0.62608981 1.6238869 4.7870364
-0.88199866 2.2748423 5.1086221
-1.0012039 2.5730555 4.5862985
-0.94892657 2.4337001 3.5336709
-0.89859277 2.2998905 2.755089
-0.87762332 2.2267098 2.4318025
-0.84001559 2.128047 1.9271286
-0.81024784 2.0515969 1.5307982
-0.78714722 1.9910887 1.2072939
-0.77272558 1.9536247 0.9371348
-0.7538507 1.9049454 0.69212389
-0.73993403 1.8678859 0.47291377
-0.72804862 1.8378893 0.27041915
-0.85121596 2.1685908 2.15608
-0.82577306 2.1016319 1.727724
