# .PCD v0.7 - Point Cloud Data file format
VERSION 0.7
FIELDS x y z
SIZE 4 4 4
TYPE F F F
COUNT 1 1 1
WIDTH 1431
HEIGHT 1
VIEWPOINT 0 0 0 1 0 0 0
POINTS 1431
DATA ascii
-0.98511201 -1.7001067 0.46452022
-0.97612238 -1.6845874 0.26773667
-1.1460615 -1.9636904 2.1061976
-1.102898 -1.8912369 1.6776904
-1.0625093 -1.8227018 1.3253949
-1.0350369 -1.7776988 1.0383936
-1.0121671 -1.739108 0.78947437
-0.9924342 -1.705878 0.56671393
-0.97610426 -1.677804 0.36294454
-0.96179122 -1.6538556 0.17085175
-0.23823607 -0.39162365 2.9145863
-0.12357914 -0.20544954 1.1761153
-0.17021826 -0.28582999 1.1107025
-0.19571 -0.3303498 0.96414709
-0.24745134 -0.41891772 0.95891857
-0.30895692 -0.52421802 0.96632218
-0.39285806 -0.66731846 1.0037585
-0.15565126 -0.25009823 2.7043095
-0.15055014 -0.25080281 1.1637828
-0.18249714 -0.30614489 1.0234377
-0.2186728 -0.36832687 0.94950068
-0.27859157 -0.47046927 0.96452057
-0.3479645 -0.5884971 0.98005539
-1.2002424 -2.0328329 2.6374838
-1.1728648 -1.9999911 2.358207
-1.1169692 -1.9069482 1.8643595
-1.0828297 -1.8493955 1.4896762
-1.0476052 -1.7906544 1.1725119
-1.0231308 -1.7495121 0.90716624
-1.0048636 -1.7189549 0.6752035
-0.98360759 -1.6839328 0.46172231
-0.97446138 -1.6682694 0.26639542
-1.141549 -1.9403692 2.0862446
-1.0992507 -1.8699528 1.6629746
-1.060129 -1.8041155 1.3152622
-1.0320467 -1.7584184 1.0300014
-1.0110627 -1.7233454 0.78454381
-0.99100608 -1.6898252 0.56319702
-0.97443938 -1.6615716 0.36087251
-0.96250504 -1.6418684 0.17044869
-0.23960166 -0.39078966 2.9145863
-0.12165215 -0.20066588 1.151639
-0.17044614 -0.28395459 1.1059306
-0.19786406 -0.33134168 0.96874958
-0.24891211 -0.41805139 0.95891857
-0.31078488 -0.52313638 0.96632218
-0.39518505 -0.66594303 1.0037585
-0.15652333 -0.24955338 2.7043095
-0.15272735 -0.25242588 1.1734617
-0.18356468 -0.30550599 1.0234377
-0.21995714 -0.36756131 0.94950068
-0.2802321 -0.4694939 0.96452057
-0.35001662 -0.5872789 0.98005539
-1.1951939 -2.0082386 2.6117578
-1.16895 -1.9774652 2.3371794
-1.1137238 -1.8862792 1.8486671
-1.0807773 -1.8312006 1.4787103
-1.0448481 -1.7717239 1.1632369
-1.0221686 -1.7339493 0.90154719
-1.0035516 -1.7030382 0.67097336
-0.98200238 -1.6677902 0.45892447
-0.97269845 -1.6519839 0.2650542
-1.1387924 -1.9203154 2.069617
-1.0975291 -1.8521951 1.651202
-1.0576324 -1.7855684 1.3051294
-1.0312454 -1.7430869 1.0237073
-1.0098609 -1.7076119 0.77961332
-0.98947811 -1.6738031 0.55968004
-0.97267336 -1.6453714 0.35880047
-0.96060556 -1.6255953 0.16984409
-0.24096429 -0.38995093 2.9145863
-0.11862991 -0.19416158 1.1173724
-0.17143629 -0.28335789 1.1059306
-0.20002739 -0.33232254 0.97335213
-0.25036988 -0.41717997 0.95891857
-0.31260908 -0.52204829 0.96632218
-0.39750722 -0.66455954 1.0037585
-0.15767893 -0.24945568 2.709281
-0.15426265 -0.25296402 1.1783011
-0.18462998 -0.30486336 1.0234377
-0.22123885 -0.36679128 0.94950068
-0.28052443 -0.46627823 0.96025461
-0.35206446 -0.58605355 0.98005539
-1.1917325 -1.9866112 2.5897067
-1.1648922 -1.954991 2.3161523
-1.110348 -1.8656566 1.8329749
-1.0764731 -1.8094491 1.4650031
-1.0442353 -1.7566426 1.1562804
-1.0187421 -1.7144291 0.89405507
-1.0021408 -1.6871519 0.66674334
-0.98029649 -1.6516794 0.4561266
-0.97083378 -1.6357309 0.26371297
-1.1339939 -1.8970995 2.049664
-1.0936242 -1.8310022 1.6364861
-1.0550193 -1.7670605 1.2949967
-1.0280253 -1.7238847 1.0153151
-1.0085615 -1.6919079 0.77468276
-0.99033844 -1.6619878 0.55733538
-0.97080606 -1.6292039 0.35672843
-0.9586041 -1.6093556 0.16923951
-0.24232402 -0.38910744 2.9145863
-0.11823746 -0.19201331 1.107582
-0.17242436 -0.28275776 1.1059306
-0.20220001 -0.33329231 0.97795463
-0.25182459 -0.41630346 0.95891857
-0.31442949 -0.52095395 0.96632218
-0.39982453 -0.66316795 1.0037585
-0.15854874 -0.24890375 2.709281
-0.15514471 -0.252424 1.1783011
-0.18569303 -0.30421701 1.0234377
-0.22251785 -0.36601678 0.94950068
-0.28215033 -0.46529618 0.96025461
-0.35410804 -0.58482105 0.98005539
-1.1881349 -1.9650331 2.5676558
-1.1625282 -1.935627 2.2986295
-1.108844 -1.8484184 1.8204211
-1.0741808 -1.7913363 1.4540372
-1.0412534 -1.7377874 1.1470052
-1.017574 -1.6989313 0.8884359
-0.99816704 -1.6671804 0.66110319
-0.97849023 -1.635601 0.45332876
-0.9688676 -1.6195114 0.26237172
-1.1309744 -1.8771391 2.0330365
-1.0916696 -1.8133221 1.6247134
-1.0522896 -1.7485927 1.2848641
-1.0270219 -1.7086161 1.0090209
-1.007165 -1.6762341 0.76975226
-0.98862571 -1.6460203 0.55381846
-0.97138751 -1.6173148 0.35534707
-0.95650119 -1.5931499 0.16863491
-0.24368076 -0.38825917 2.9145863
-0.11890698 -0.19159941 1.107582
-0.17341033 -0.28215414 1.1059306
-0.20336218 -0.33258447 0.97795463
-0.2532762 -0.4154219 0.95891857
-0.316246 -0.51985317 0.96632218
-0.40047231 -0.65902925 0.99992096
-0.1594166 -0.24834877 2.709281
-0.15536232 -0.25081271 1.1734617
-0.18675381 -0.30356699 1.0234377
-0.22379412 -0.3652378 0.94950068
-0.2837728 -0.46430847 0.96025461
-0.35614729 -0.58358145 0.98005539
-1.1844012 -1.9435042 2.5456047
-1.1581966 -1.9132528 2.2776024
-1.1052196 -1.8278828 1.8047289
-1.0717754 -1.7732617 1.4430714
-1.0404426 -1.7227664 1.1400487
-1.0139142 -1.6794939 0.88094378
-0.9965449 -1.6513647 0.65687311
-0.97658378 -1.6195556 0.45053089
-0.96937174 -1.6075903 0.26147756
-1.1278293 -1.8572228 2.0164089
-1.089605 -1.7956781 1.6129408
-1.05168 -1.7338518 1.2772646
-1.0259246 -1.6933756 1.0027267
-1.0056713 -1.6605906 0.76482171
-0.98681384 -1.6300853 0.55030149
-0.96933347 -1.6012053 0.35327503
-0.95429695 -1.5769786 0.16803031
-0.24503456 -0.38740623 2.9145863
-0.11957506 -0.19118318 1.107582
-0.17360759 -0.28027847 1.1011585
-0.20452186 -0.33187258 0.97795463
-0.25347051 -0.41249496 0.95452946
-0.3180587 -0.51874614 0.96632218
-0.40277031 -0.65762728 0.99992096
-0.16057271 -0.24823797 2.7142525
-0.15490432 -0.24813716 1.1637828
-0.18781231 -0.30291325 1.0234377
-0.22506768 -0.36445439 0.94950068
-0.28539181 -0.46331507 0.96025461
-0.35660329 -0.57976818 0.9760654
-1.1805317 -1.9220256 2.5235536
-1.1537228 -1.8909324 2.2565751
-1.1034909 -1.8107189 1.7921749
-1.0692568 -1.7552258 1.4321055
-1.0395399 -1.7077725 1.1330924
-1.0125411 -1.6640636 0.87532473
-0.99482447 -1.6355804 0.65264297
-0.97712868 -1.6077414 0.44866565
-0.96721798 -1.5914298 0.26013631
-1.1245594 -1.8373519 1.9997816
-1.0874308 -1.778071 1.6011682
-1.0487317 -1.7154586 1.2671319
-1.0247334 -1.6781638 0.99643254
-1.0040808 -1.6449783 0.75989115
-0.98490274 -1.6141831 0.54678452
-0.96717882 -1.5851302 0.35120299
-0.95459282 -1.5651075 0.16762725
-0.24638537 -0.38654852 2.9145863
-0.12024169 -0.19076462 1.107582
-0.17458487 -0.27967077 1.1011585
-0.20671031 -0.33281597 0.98255718
-0.25490886 -0.41160765 0.95452946
-0.31986755 -0.51763272 0.96632218
-0.40506336 -0.6562174 0.99992096
-0.16143824 -0.24767597 2.7142525
-0.15442955 -0.2454679 1.154104
-0.18795355 -0.30079266 1.0187449
-0.22518778 -0.36181858 0.94499946
-0.28563151 -0.4601005 0.95598871
-0.35862491 -0.57851994 0.9760654
-1.1765269 -1.9005979 2.5015028
-1.1509757 -1.8717046 2.2390523
-1.1016558 -1.7935894 1.7796211
-1.0666256 -1.7372292 1.4211395
-1.0362285 -1.6890302 1.1238172
-1.0110725 -1.6486632 0.86970562
-0.99300611 -1.6198288 0.64841288
-0.97503704 -1.5917542 0.44586781
-0.96756464 -1.5795506 0.25924215
-1.123125 -1.8207042 1.9864796
-1.085147 -1.7605009 1.5893955
-1.0479293 -1.7007772 1.2595323
-1.0234487 -1.6629812 0.99013841
-1.0023937 -1.6293974 0.75496066
-0.98289281 -1.5983142 0.54326761
-0.96492374 -1.5690895 0.34913093
-0.95220125 -1.5489975 0.16702266
-0.24773318 -0.38568613 2.9145863
-0.12090685 -0.19034374 1.107582
-0.17476462 -0.27779651 1.0963866
-0.20787081 -0.3320924 0.98255718
-0.25634408 -0.41071534 0.95452946
-0.32018462 -0.51412457 0.9621892
-0.40735152 -0.6547994 0.99992096
-0.16230181 -0.24711092 2.7142525
-0.15461175 -0.24386616 1.1492646
-0.18900238 -0.30013475 1.0187449
-0.22644939 -0.36103034 0.94499946
-0.2872358 -0.45910066 0.95598871
-0.36064211 -0.57726455 0.9760654
-1.1723871 -1.879222 2.4794517
-1.1462297 -1.849488 2.218025
-1.0997149 -1.776495 1.7670673
-1.0638818 -1.7192726 1.4101737
-1.0351288 -1.6740994 1.1168607
-1.0119466 -1.6372368 0.86595953
-0.99109006 -1.6041099 0.6441828
-0.97542626 -1.5799813 0.44400257
-0.96784019 -1.5676887 0.25834802
-1.1196164 -1.8009182 1.9698521
-1.0848868 -1.7464021 1.5805659
-1.0447631 -1.6824604 1.2493995
-1.0196782 -1.6439711 0.9817462
-1.0006102 -1.6138486 0.75003016
-0.98334473 -1.5866107 0.54092294
-0.96517748 -1.5572935 0.34774956
-0.95234025 -1.5371704 0.1666196
-0.24907798 -0.38481903 2.9145863
-0.12157054 -0.18992054 1.107582
-0.17573324 -0.27718478 1.0963866
-0.20902877 -0.33136475 0.98255718
-0.2577762 -0.40981805 0.95452946
-0.32197732 -0.51300377 0.9621892
-0.40963471 -0.65337354 0.99992096
-0.16345821 -0.24698697 2.719224
-0.15478465 -0.24226613 1.144425
-0.18912371 -0.29801649 1.0140522
-0.22770825 -0.36023769 0.94499946
-0.28883663 -0.45809522 0.95598871
-0.36265498 -0.57600218 0.9760654
-1.1699171 -1.8607683 2.461076
-1.1432321 -1.8303521 2.2005022
-1.0976681 -1.7594364 1.7545135
-1.0610257 -1.7013565 1.3992078
-1.0339378 -1.6591974 1.1099044
-1.0103018 -1.6218898 0.86034042
-0.99161202 -1.5924962 0.64136273
-0.97315019 -1.5640544 0.4412047
-0.96541393 -1.5516158 0.25700676
-1.1179659 -1.7843429 1.9565501
-1.0823965 -1.7289007 1.5687933
-1.0437688 -1.6678406 1.2418
-1.0181934 -1.6288564 0.97545201
-0.9987303 -1.5983319 0.7450996
-0.981152 -1.570801 0.53740603
-0.9627372 -1.5413148 0.34567752
-0.94976228 -1.5211236 0.166015
-0.2508446 -0.38459778 2.9195256
-0.12223275 -0.18949501 1.107582
-0.17589551 -0.27531216 1.0916146
-0.21018416 -0.3306331 0.98255718
-0.25920516 -0.40891576 0.95452946
-0.32376605 -0.51187676 0.9621892
-0.41020069 -0.64923006 0.9960835
-0.16431938 -0.24641488 2.719224
-0.15562937 -0.24172436 1.144425
-0.19016284 -0.29735449 1.0140522
-0.22896431 -0.35944062 0.94499946
-0.29043388 -0.45708421 0.95598871
-0.36304879 -0.57218856 0.97207534
-1.1655179 -1.839491 2.4390249
-1.142015 -1.8142782 2.1864841
-1.0934439 -1.7391185 1.7388211
-1.0602829 -1.6870219 1.3909835
-1.0302992 -1.6405727 1.1006291
-1.0110273 -1.6105007 0.85659432
-0.98951519 -1.5768354 0.63713264
-0.97077489 -1.5481627 0.43840683
-0.96553296 -1.5397983 0.25611261
-1.1162138 -1.7678014 1.943248
-1.0797974 -1.7114383 1.5570207
-1.0426854 -1.6532487 1.2342005
-1.0141963 -1.6099319 0.96705979
-0.9992708 -1.5868442 0.74181259
-0.97886097 -1.5550261 0.53388906
-0.96283531 -1.5295631 0.34429619
-0.94974476 -1.5093422 0.16561194
-0.25218555 -0.3837198 2.9195256
-0.12289346 -0.1890672 1.107582
-0.17685546 -0.2746965 1.0916146
-0.21239129 -0.33154216 0.98715967
-0.26063097 -0.40800846 0.95452946
-0.32555088 -0.51074344 0.9621892
-0.41246441 -0.64779425 0.9960835
-0.16517852 -0.2458398 2.719224
-0.15647221 -0.24117965 1.144425
-0.19026431 -0.2952387 1.0093594
-0.23021761 -0.35863921 0.94499946
-0.29202765 -0.45606759 0.95598871
-0.36504388 -0.57091779 0.97207534
-1.1628094 -1.8211249 2.4206491
-1.1387892 -1.7952236 2.1689615
-1.0911747 -1.7221397 1.7262673
-1.0572156 -1.6691808 1.3800176
-1.0289127 -1.6257371 1.0936728
-1.0092072 -1.5952086 0.85097528
-0.98988539 -1.5652632 0.63431257
-0.97092479 -1.5364594 0.43654159
-0.96292108 -1.5237889 0.25477138
-1.1123552 -1.7481439 1.9266205
-1.0792586 -1.697426 1.5481913
-1.0392003 -1.6350465 1.2240678
-1.0125123 -1.5948874 0.96076572
-0.99721301 -1.5713853 0.73688203
-0.97907555 -1.5433909 0.53154445
-0.96286321 -1.5178295 0.34291482
-0.94698107 -1.4933604 0.16500735
-0.25395292 -0.38348475 2.9244649
-0.12355267 -0.18863705 1.107582
-0.17700025 -0.2728256 1.0868427
-0.2135473 -0.33079877 0.98715967
-0.26205358 -0.40709618 0.95452946
-0.32733172 -0.50960398 0.9621892
-0.41472316 -0.6463505 0.9960835
-0.16573618 -0.24482076 2.7142525
-0.15731312 -0.24063198 1.144425
-0.19129373 -0.29457274 1.0093594
-0.2314681 -0.35783342 0.94499946
-0.29361784 -0.45504549 0.95598871
-0.36703455 -0.5696401 0.97207534
-1.1599866 -1.8028001 2.4022732
-1.1373652 -1.7792187 2.154943
-1.0888003 -1.7051982 1.7137135
-1.0540365 -1.6513817 1.3690518
-1.0274349 -1.610931 1.0867163
-1.0072926 -1.579949 0.84535617
-0.98760861 -1.5496621 0.63008249
-0.96836621 -1.5206306 0.43374372
-0.96020919 -1.5078169 0.25343013
-1.1103886 -1.7316781 1.9133185
-1.0764544 -1.6800352 1.5364187
-1.0379261 -1.6205188 1.2164682
-1.0107356 -1.579874 0.95447153
-0.99505955 -1.5559601 0.73195153
-0.97922087 -1.5317733 0.52919978
-0.96282089 -1.5061146 0.34153345
-0.94680774 -1.4816262 0.16460429
-0.25528997 -0.38259596 2.9244649
-0.12421039 -0.18820463 1.107582
-0.17795153 -0.27220607 1.0868427
-0.21576646 -0.33168867 0.99176222
-0.26347303 -0.40617895 0.95452946
-0.32910857 -0.50845826 0.9621892
-0.41697681 -0.64489895 0.9960835
-0.16658977 -0.24424075 2.7142525
-0.15815212 -0.24008138 1.144425
-0.19326626 -0.29534686 1.0140522
-0.23271576 -0.35702327 0.94499946
-0.29520446 -0.45401779 0.95598871
-0.36902073 -0.56835544 0.97207534
-1.1570505 -1.7845174 2.3838975
-1.1339123 -1.7602477 2.1374204
-1.0884273 -1.6915675 1.7042983
-1.0530083 -1.6371421 1.3608273
-1.0258666 -1.5961555 1.07976
-1.005284 -1.5647225 0.83973712
-0.98782742 -1.5381327 0.62726241
-0.96836221 -1.5089728 0.43187848
-0.96008736 -1.4960736 0.25253597
-1.1083208 -1.7152476 1.9000165
-1.0757345 -1.6660804 1.5275892
-1.0365634 -1.6060205 1.2088687
-1.0113258 -1.5687073 0.95027542
-0.99281073 -1.5405693 0.72702098
-0.97666484 -1.5160873 0.52568281
-0.96002686 -1.4902555 0.33946142
-0.94656414 -1.4699115 0.16420123
-0.25705785 -0.38234702 2.929404
-0.12430195 -0.18692262 1.1026868
-0.17807892 -0.27033707 1.0820706
-0.21692294 -0.33093348 0.99176222
-0.26488924 -0.40525681 0.95452946
-0.33088139 -0.50730634 0.9621892
-0.41747546 -0.6407541 0.99224597
-0.16713876 -0.24321884 2.709281
-0.15898921 -0.23952787 1.144425
-0.19429602 -0.29467043 1.0140522
-0.23396058 -0.35620874 0.94499946
-0.29678747 -0.45298454 0.95598871
-0.37100241 -0.56706381 0.97207534
-1.1558552 -1.7691156 2.3691969
-1.1322826 -1.7443138 2.1234024
-1.0858548 -1.6746944 1.6917443
-1.0496194 -1.6194211 1.3498615
-1.0242077 -1.5814105 1.0728035
-1.0031813 -1.5495292 0.83411795
-0.98537147 -1.5225935 0.62303233
-0.96562111 -1.4932088 0.42908064
-0.95719099 -1.480168 0.25119475
-1.1041145 -1.6957239 1.8833891
-1.0727261 -1.6487632 1.5158166
-1.035112 -1.5915512 1.2012691
-1.009378 -1.5537499 0.94398123
-0.99046665 -1.5252135 0.72209048
-0.97665787 -1.5045151 0.5233382
-0.95983022 -1.4785881 0.33808005
-0.9462502 -1.4582164 0.16379817
-0.2583909 -0.3814474 2.929404
-0.12495367 -0.18648759 1.1026868
-0.17736937 -0.2672272 1.0725267
-0.2180768 -0.33017427 0.99176222
-0.26630223 -0.40432969 0.95452946
-0.33265021 -0.50614828 0.9621892
-0.41970953 -0.63929296 0.99224597
-0.16768268 -0.24219613 2.7043095
-0.16052379 -0.24001586 1.1492646
-0.1962789 -0.29542744 1.0187449
-0.23520255 -0.35538992 0.94499946
-0.29692969 -0.44976947 0.9517228
-0.37297958 -0.56576532 0.97207534
-1.1527022 -1.7509122 2.350821
-1.1286032 -1.7254285 2.1058795
-1.085307 -1.6611187 1.6823291
-1.0484061 -1.6052448 1.341637
-1.0224584 -1.5666968 1.0658472
-1.0009849 -1.5343698 0.82849884
-0.9854396 -1.5111084 0.62021226
-0.96546382 -1.4815979 0.4272154
-0.95691419 -1.4684731 0.25030059
-1.1018337 -1.6793721 1.870087
-1.0718262 -1.6348678 1.506987
-1.0335723 -1.5771117 1.1936696
-1.007338 -1.5388254 0.9376871
-0.99061328 -1.513844 0.71880347
-0.97658205 -1.4929614 0.52099353
-0.95956385 -1.4669403 0.33669871
-0.94586629 -1.4465418 0.16339511
-0.26015925 -0.38118461 2.9343433
-0.12560388 -0.18605028 1.1026868
-0.1774707 -0.26536602 1.0677547
-0.21922797 -0.32941103 0.99176222
-0.26638731 -0.40140238 0.95014042
-0.33441496 -0.50498402 0.9621892
-0.42193854 -0.637824 0.99224597
-0.16852707 -0.24160932 2.7043095
-0.16136062 -0.23945408 1.1492646
-0.19922991 -0.29760784 1.0281305
-0.23644166 -0.35456675 0.94499946
-0.29849786 -0.44873026 0.9517228
-0.3749522 -0.56445998 0.97207534
-1.1494365 -1.7327526 2.3324451
-1.1267687 -1.7095679 2.0918612
-1.0825373 -1.6443163 1.6697752
-1.047107 -1.5910969 1.3334126
-1.0206189 -1.5520146 1.0588907
-0.99869502 -1.5192449 0.82287979
-0.98280507 -1.4956323 0.61598212
-0.96254098 -1.4659003 0.42441753
-0.95656747 -1.4567984 0.24940643
-1.0994525 -1.6630574 1.8567851
-1.0686145 -1.6176264 1.4952143
-1.0295691 -1.5591055 1.1835369
-1.0052063 -1.5239341 0.93139297
-0.9880932 -1.4985501 0.71387291
-0.97376263 -1.4773684 0.51747662
-0.9565028 -1.4511778 0.33462667
-0.94541246 -1.4348876 0.16299205
-0.26104757 -0.3796342 2.929404
-0.12567905 -0.18476936 1.0977916
-0.17839591 -0.26474491 1.0677547
-0.22146504 -0.33026609 0.99636471
-0.26778686 -0.40047008 0.95014042
-0.3346135 -0.50147301 0.95805627
-0.42416239 -0.63634723 0.99224597
-0.1690623 -0.24058388 2.699338
-0.16219549 -0.23888937 1.1492646
-0.20123303 -0.29834089 1.0328233
-0.2376779 -0.35373923 0.94499946
-0.30006242 -0.44768557 0.9517228
-0.37524396 -0.56064373 0.96808535
-1.1479422 -1.7174559 2.3177445
-1.1228645 -1.6907707 2.0743387
-1.0818152 -1.6307969 1.6603597
-1.0457218 -1.5769775 1.3251883
-1.0211364 -1.5410572 1.0542531
-0.99887192 -1.5080197 0.8191337
-0.98272306 -1.4841932 0.61316204
-0.96223092 -1.454338 0.42255229
-0.95615095 -1.4451439 0.24851227
-1.0969708 -1.6467798 1.843483
-1.0652956 -1.6004276 1.4834417
-1.027841 -1.5447356 1.1759374
-1.0054953 -1.5128564 0.92719686
-0.98809165 -1.4872254 0.71058589
-0.97353548 -1.4658624 0.51513195
-0.95608306 -1.4395797 0.33324531
-0.94212556 -1.4190923 0.16238745
-0.26325694 -0.37999749 2.9392827
-0.12689967 -0.18516888 1.1026868
-0.17847995 -0.26288602 1.0629827
-0.22261652 -0.32949102 0.99636471
-0.26918313 -0.39953288 0.95014042
-0.33636191 -0.50030196 0.95805627
-0.42638108 -0.63486278 0.99224597
-0.16990106 -0.23999228 2.699338
-0.16231804 -0.23728469 1.144425
-0.20324369 -0.29906356 1.037516
-0.23891121 -0.35290745 0.94499946
-0.30162328 -0.44663545 0.9517228
-0.37719867 -0.55933046 0.96808535
-1.1425674 -1.6965671 2.2956934
-1.1208259 -1.6749853 2.0603204
-1.0788492 -1.614067 1.6478059
-1.0442508 -1.5628875 1.3169639
-1.0191302 -1.5264311 1.0472968
-0.99640918 -1.4929558 0.81351459
-0.97991091 -1.4687824 0.60893196
-0.96185207 -1.4427959 0.42068705
-0.95566487 -1.4335104 0.24761811
-1.094389 -1.6305399 1.830181
-1.0618697 -1.5832717 1.4716691
-1.0260251 -1.5303966 1.1683378
-1.0031937 -1.4980243 0.92090267
-0.98802316 -1.4759192 0.70729887
-0.97053665 -1.4503365 0.51161504
-0.95559406 -1.4280025 0.33186394
-0.94151789 -1.4074899 0.16198438
-0.26324645 -0.37716568 2.9244649
-0.12754527 -0.18472479 1.1026868
-0.17939651 -0.26226139 1.0629827
-0.22376528 -0.32871193 0.99636471
-0.2719216 -0.40057215 0.95452946
-0.33810624 -0.49912474 0.95805627
-0.42859456 -0.63337058 0.99224597
-0.17073776 -0.23939775 2.699338
-0.16314533 -0.23671666 1.144425
-0.2052618 -0.29977584 1.0422088
-0.23891456 -0.35027319 0.94049823
-0.30318052 -0.44557986 0.9517228
-0.37914884 -0.5580104 0.96808535
-1.1408682 -1.6813473 2.2809927
-1.1166973 -1.6562783 2.0427978
-1.0779538 -1.6006061 1.6383907
-1.0403591 -1.5453585 1.3059981
-1.0170343 -1.5118378 1.0403403
-0.99644047 -1.4817747 0.80976856
-0.97967952 -1.4573905 0.60611188
-0.96140438 -1.4312742 0.41882181
-0.9551093 -1.4218979 0.24672395
-1.0917071 -1.6143385 1.816879
-1.0583372 -1.5661595 1.4598964
-1.0241218 -1.5160896 1.1607383
-1.0033395 -1.486989 0.91670656
-0.98788774 -1.4646317 0.70401186
-0.97015876 -1.4388796 0.50927037
-0.95226765 -1.4123404 0.3297919
-0.94084078 -1.3959093 0.16158132
-0.26635072 -0.3787857 2.944222
-0.12877157 -0.18511371 1.107582
-0.18031088 -0.26163357 1.0629827
-0.22491135 -0.32792884 0.99636471
-0.2733182 -0.39962053 0.95452946
-0.33984646 -0.49794152 0.95805627
-0.43080282 -0.63187063 0.99224597
-0.17157237 -0.2388003 2.699338
-0.16397062 -0.23614573 1.144425
-0.20630696 -0.29905751 1.0422088
-0.24013579 -0.34943709 0.94049823
-0.30473402 -0.44451883 0.9517228
-0.38109434 -0.55668354 0.96808535
-1.1295098 -1.6521672 2.2479162
-1.1144561 -1.6405705 2.0287795
-1.0747923 -1.5839504 1.6258368
-1.0387052 -1.5313362 1.2977736
-1.0148491 -1.4972779 1.033384
-0.99640602 -1.4706117 0.80602247
-0.97938049 -1.4460185 0.60329181
-0.96088797 -1.4197732 0.41695657
-0.95448434 -1.4103069 0.24582979
-1.0910282 -1.6012611 1.8069026
-1.0546982 -1.5490913 1.4481238
-1.0221311 -1.5018144 1.1531388
-1.0008689 -1.4722179 0.91041237
-0.98768586 -1.4533631 0.70072484
-0.96971267 -1.4274431 0.50692576
-0.9516263 -1.4008152 0.32841054
-0.94009423 -1.3843507 0.16117826
-0.26677224 -0.37658617 2.9343433
-0.13000214 -0.18549636 1.1124772
-0.18207495 -0.26222831 1.0677547
-0.22716573 -0.32874873 1.0009673
-0.27471146 -0.39866403 0.95452946
-0.34158254 -0.4967522 0.95805627
-0.43300584 -0.63036299 0.99224597
-0.17240489 -0.23819995 2.699338
-0.16479394 -0.23557194 1.144425
-0.20636424 -0.29691887 1.037516
-0.24135409 -0.34859669 0.94049823
-0.3062838 -0.44345242 0.9517228
-0.38303518 -0.55534983 0.96808535
-1.1275775 -1.6370468 2.2332156
-1.1121187 -1.6248987 2.0147614
-1.0737243 -1.5705496 1.6164215
-1.0369662 -1.5173445 1.2895492
-1.0125747 -1.482752 1.0264276
-0.99369186 -1.4556382 0.80040342
-0.97901416 -1.4346662 0.60047174
-0.96030307 -1.4082935 0.41509131
-0.95379013 -1.3987377 0.24493563
-1.0902714 -1.5882083 1.796926
-1.0532396 -1.5354009 1.4392942
-1.0200534 -1.4875717 1.1455393
-1.0008724 -1.4612265 0.90621626
-0.98474938 -1.4382176 0.69579428
-0.9691987 -1.4160274 0.50458109
-0.95091617 -1.3893119 0.32702917
-0.9392786 -1.3728143 0.1607752
-0.13064884 -0.18504143 1.1124772
-0.18298918 -0.26159114 1.0677547
-0.2283119 -0.32795379 1.0009673
-0.27473524 -0.39573556 0.95014042
-0.34331444 -0.49555683 0.95805627
-0.43520358 -0.62884766 0.99224597
-0.17355001 -0.23802698 2.7043095
-0.16561522 -0.23499526 1.144425
-0.20640914 -0.29478344 1.0328233
-0.24256946 -0.34775209 0.94049823
-0.30782992 -0.44238058 0.9517228
-0.38497138 -0.55400944 0.96808535
-1.133285 -1.6331007 2.2332156
-1.107661 -1.6063274 1.9972385
-1.0703681 -1.5539703 1.6038677
-1.0351422 -1.5033836 1.2813249
-1.0127224 -1.4719095 1.02179
-0.99351263 -1.4445213 0.79665732
-0.97858059 -1.4233342 0.59765172
-0.95686829 -1.3927864 0.41229346
-0.95020694 -1.383086 0.24359439
-1.0873127 -1.5721097 1.7836241
-1.0494001 -1.5184145 1.4275216
-1.020339 -1.4769087 1.1404729
-0.99823344 -1.4465178 0.89992213
-0.98440069 -1.4269974 0.69250727
-0.9686169 -1.4046328 0.50223649
-0.95013738 -1.3778307 0.3256478
-0.93839395 -1.3613006 0.16037214
-0.13188495 -0.18541339 1.1173724
-0.18476164 -0.26217055 1.0725267
-0.23057753 -0.32875401 1.0055698
-0.27611494 -0.39477414 0.95014042
-0.34343135 -0.49204805 0.95392334
-0.43739605 -0.6273247 0.99224597
-0.17406362 -0.23699054 2.699338
-0.1664345 -0.23441571 1.144425
-0.20644166 -0.29265139 1.0281305
-0.24252979 -0.34512243 0.93599701
-0.30937222 -0.44130337 0.9517228
-0.3869029 -0.55266225 0.96808535
-1.1051222 -1.590736 1.9832205
-1.0691284 -1.5406313 1.5944521
-1.0356169 -1.49289 1.275842
-1.010283 -1.4574437 1.0148336
-0.99326801 -1.4334236 0.79291129
-0.97807986 -1.4120228 0.59483165
-0.95613265 -1.3813597 0.41042823
-0.94936049 -1.3715713 0.24270025
-1.0863898 -1.5591145 1.7736475
-1.0477649 -1.504791 1.4186922
-1.0181001 -1.4627237 1.1328733
-0.99809486 -1.4355719 0.89572603
-0.98129088 -1.4119197 0.68757677
-0.96519405 -1.3892677 0.49871951
-0.94929022 -1.366372 0.32426646
-0.93744045 -1.3498099 0.15996908
-0.13253136 -0.1849519 1.1173724
-0.18567567 -0.26152402 1.0725267
-0.23172368 -0.32794711 1.0055698
-0.27611142 -0.39185038 0.94575131
-0.34514681 -0.49084628 0.95392334
-0.43958312 -0.62579411 0.99224597
-0.17488982 -0.2363815 2.699338
-0.16651987 -0.23281141 1.1395856
-0.2064618 -0.29052266 1.0234377
-0.24373302 -0.34427375 0.93599701
-0.31091076 -0.44022077 0.9517228
-0.38882971 -0.55130833 0.96808535
-1.102488 -1.5751821 1.9692023
-1.0678087 -1.5273203 1.5850369
-1.0336355 -1.4789839 1.2676175
-1.0102915 -1.4466447 1.010196
-0.99295801 -1.4223452 0.78916514
-0.97751224 -1.4007324 0.59201157
-0.95532906 -1.3699552 0.40856299
-0.94844538 -1.3600794 0.24180609
-1.0832442 -1.5430892 1.7603455
-1.0460473 -1.4911975 1.4098626
-1.0182496 -1.4521021 1.127807
-0.99528843 -1.4209273 0.88943189
-0.9807964 -1.4007494 0.68428975
-0.96446306 -1.3779259 0.49637488
-0.94837451 -1.3549361 0.3228851
-0.93641818 -1.3383424 0.15956602
-0.13377292 -0.18531315 1.1222677
-0.18745635 -0.26208803 1.0772986
-0.2340004 -0.32872754 1.0101724
-0.27747753 -0.39088416 0.94575131
-0.34685811 -0.48963848 0.95392334
-0.43991318 -0.62163961 0.98840851
-0.17571388 -0.23576958 2.699338
-0.1673315 -0.23222873 1.1395856
-0.20747463 -0.28980023 1.0234377
-0.24493328 -0.34342086 0.93599701
-0.31244555 -0.43913278 0.9517228
-0.39075178 -0.54994774 0.96808535
-0.50877517 -0.71706027 1.0314369
-1.0997591 -1.5596662 1.9551841
-1.0664092 -1.514037 1.5756215
-1.03157 -1.4651099 1.2593931
-1.0076878 -1.4322405 1.0032395
-0.98991579 -1.4074947 0.78354609
-0.97687769 -1.3894633 0.5891915
-0.95163363 -1.3545538 0.40576512
-0.94746155 -1.3486108 0.24091193
-1.0821561 -1.5301533 1.7503691
-1.0442477 -1.4776344 1.4010333
-1.0158501 -1.4379762 1.1202074
-0.99500871 -1.4100281 0.88523579
-0.98023599 -1.3896 0.68100274
-0.96366489 -1.3666064 0.49403024
-0.94739074 -1.3435233 0.32150373
-0.93820584 -1.3309823 0.15936449
-0.13441896 -0.18484508 1.1222677
-0.18837008 -0.26143208 1.0772986
-0.23514645 -0.32790872 1.0101724
-0.2788403 -0.38991323 0.94575131
-0.3485651 -0.48842475 0.95392334
-0.44208041 -0.62010026 0.98840851
-0.17653579 -0.23515479 2.699338
-0.16814111 -0.23164321 1.1395856
-0.20848498 -0.28907424 1.0234377
-0.24613054 -0.34256378 0.93599701
-0.31397647 -0.43803948 0.9517228
-0.39266905 -0.54858041 0.96808535
-0.49944574 -0.69873244 1.0093859
-1.0969352 -1.5441885 1.9411659
-1.0626777 -1.4976082 1.5630677
-1.0294201 -1.4512687 1.2511686
-1.0075579 -1.4214864 0.99860191
-0.98946244 -1.3964653 0.7798
-0.97340375 -1.3743012 0.58496141
-0.95068043 -1.3432046 0.40389988
-0.94640929 -1.3371656 0.24001777
-1.0809908 -1.517244 1.7403926
-1.0447106 -1.4673949 1.395147
-1.0158643 -1.4273974 1.115141
-0.99203533 -1.3954492 0.87894166
-0.97687423 -1.3746223 0.67607224
-0.95998442 -1.3513466 0.49051329
-0.94633883 -1.3321339 0.32012239
-0.93706083 -1.3195525 0.15896143
-0.13566589 -0.18519557 1.1271629
-0.19015887 -0.26198056 1.0820706
-0.23628964 -0.32708591 1.0101724
-0.28019965 -0.3889375 0.94575131
-0.35026795 -0.48720506 0.95392334
-0.44424227 -0.61855334 0.98840851
-0.17735557 -0.23453714 2.699338
-0.16969123 -0.23206908 1.144425
-0.20949277 -0.28834474 1.0234377
-0.24732482 -0.34170255 0.93599701
-0.31397659 -0.43482667 0.94745684
-0.39281896 -0.54476243 0.96409535
-0.49791938 -0.69148278 1.0020356
-1.0960922 -1.5316497 1.9306521
-1.0611081 -1.4843903 1.5536524
-1.0271864 -1.4374604 1.2429444
-1.0047908 -1.4071456 0.99164557
-0.98894417 -1.3854566 0.77605397
-0.97262239 -1.3630853 0.58214134
-0.94965953 -1.3318787 0.40203464
-0.94528872 -1.3257443 0.23912361
-1.0775715 -1.5013282 1.7270906
-1.0427591 -1.4538858 1.3863175
-1.0133051 -1.4133326 1.1075416
-0.99161518 -1.3845983 0.87474555
-0.97616887 -1.3635249 0.67278522
-0.95903808 -1.340082 0.48816866
-0.94233704 -1.3167413 0.31805035
-0.93584752 -1.308147 0.15855835
-0.13631152 -0.18472086 1.1271629
-0.19195381 -0.26251978 1.0868427
-0.23627996 -0.32467979 1.0055698
-0.28155556 -0.38795707 0.94575131
-0.35196644 -0.48597941 0.95392334
-0.44639874 -0.61699885 0.98840851
-0.17817317 -0.23391661 2.699338
-0.17050028 -0.23147534 1.144425
-0.21151766 -0.28900391 1.0281305
-0.24851608 -0.34083712 0.93599701
-0.31549248 -0.43372801 0.94745684
-0.39471811 -0.54338789 0.96409535
-0.49634853 -0.68425238 0.99468535
-1.0930897 -1.5162431 1.916634
-1.0594591 -1.4712018 1.5442369
-1.0248687 -1.4236853 1.2347199
-1.0045228 -1.3964375 0.98700798
-0.98836124 -1.3744684 0.77230787
-0.97177446 -1.3518914 0.57932127
-0.94857126 -1.3205763 0.4001694
-0.94700533 -1.3183919 0.23867653
-1.0762423 -1.4884808 1.7171141
-1.0407259 -1.4404082 1.377488
-1.0131842 -1.4027978 1.1024752
-0.98847568 -1.3700866 0.86845136
-0.975398 -1.3524491 0.66949821
-0.95802486 -1.3288407 0.48582402
-0.94113559 -1.3054101 0.31666899
-0.93456608 -1.2967662 0.15815529
-0.13756369 -0.1850605 1.1320581
-0.19375481 -0.2630496 1.0916146
-0.23741186 -0.32385302 1.0055698
-0.28290808 -0.38697189 0.94575131
-0.3536607 -0.48474789 0.95392334
-0.44854975 -0.61543685 0.98840851
-0.17898861 -0.23329325 2.699338
-0.17130722 -0.23087877 1.144425
-0.21252519 -0.2882638 1.0281305
-0.2497043 -0.33996758 0.93599701
-0.31700453 -0.4326241 0.94745684
-0.3966125 -0.54200679 0.96409535
-0.498734 -0.68251562 0.99468535
-1.0920886 -1.5037618 1.9061204
-1.0577312 -1.458043 1.5348215
-1.0224676 -1.4099443 1.2264955
-1.001593 -1.3821617 0.98005158
-0.98771352 -1.3635013 0.76856184
-0.97086048 -1.3407205 0.57650119
-0.94741571 -1.3092978 0.39830416
-0.94576281 -1.3070092 0.23778237
-1.0748364 -1.4756609 1.7071376
-1.0386114 -1.4269626 1.3686585
-1.0104659 -1.3887951 1.0948756
-0.98791558 -1.3592854 0.86425525
-0.97456163 -1.3413954 0.66621119
-0.95980114 -1.3215556 0.48465171
-0.9398663 -1.2941033 0.31528762
-0.93321669 -1.2854104 0.15775223
-0.13820884 -0.18457918 1.1320581
-0.19467184 -0.26237166 1.0916146
-0.23854087 -0.32302234 1.0055698
-0.28425714 -0.38598198 0.94575131
-0.35368389 -0.48124304 0.94979036
-0.44879818 -0.61128384 0.98457098
-0.17980185 -0.23266703 2.699338
-0.17286526 -0.23128577 1.1492646
-0.21455951 -0.28890523 1.0328233
-0.25088948 -0.33909386 0.93599701
-0.31851277 -0.43151492 0.94745684
-0.39850202 -0.54061908 0.96409535
-0.49910352 -0.67804044 0.99101019
-1.0910137 -1.4913058 1.8956068
-1.0536277 -1.4417716 1.5222677
-1.0199831 -1.3962375 1.2182711
-1.0011877 -1.3715014 0.97541398
-0.98426878 -1.3488109 0.76294273
-0.9698804 -1.3295724 0.57368112
-0.9461931 -1.2980436 0.39643893
-0.94445235 -1.2956512 0.23688821
-1.0733542 -1.462869 1.697161
-1.0364158 -1.4135495 1.3598289
-1.0102106 -1.3783059 1.0898093
-0.98461103 -1.3448428 0.85796106
-0.97366017 -1.3303642 0.66292417
-0.95866835 -1.3103515 0.48230708
-0.94145387 -1.2868179 0.31459692
-0.93179953 -1.2740799 0.15734917
-0.1394662 -0.18490794 1.1369534
-0.19558652 -0.26169053 1.0916146
-0.23966697 -0.32218769 1.0055698
-0.28560275 -0.38498741 0.94575131
-0.35536158 -0.48000553 0.94979036
-0.45092922 -0.60971349 0.98457098
-0.18159704 -0.23329853 2.7142525
-0.17367153 -0.23068096 1.1492646
-0.21556665 -0.28815454 1.0328233
-0.25207162 -0.33821604 0.93599701
-0.3184607 -0.4283078 0.94319093
-0.40038672 -0.53922474 0.96409535
-0.50146729 -0.67629415 0.99101019
-1.0877496 -1.4760051 1.8815886
-1.0517313 -1.4286817 1.5128524
-1.0198938 -1.385933 1.2127882
-1.0007203 -1.3608608 0.97077638
-0.98347938 -1.3378963 0.75919664
-0.96599376 -1.3145821 0.56945103
-0.94490343 -1.2868141 0.39457369
-0.94307423 -1.2843186 0.23599406
-1.0717961 -1.4501058 1.6871846
-1.0341395 -1.4001693 1.3509996
-1.0073341 -1.3643674 1.0822097
-0.98391163 -1.3340925 0.85376495
-0.97269362 -1.3193557 0.65963709
-0.95746911 -1.2991717 0.47996244
-0.94006401 -1.2755511 0.31321558
-0.93031472 -1.2627752 0.15694611
-0.14072755 -0.18523017 1.1418486
-0.19649878 -0.26100621 1.0916146
-0.24079016 -0.32134914 1.0055698
-0.28694487 -0.38398811 0.94575131
-0.35703492 -0.47876218 0.94979036
-0.45305479 -0.60813576 0.98457098
-0.18109231 -0.23098712 2.6943665
-0.17371556 -0.2290722 1.144425
-0.21553217 -0.28602248 1.0281305
-0.25325069 -0.33733407 0.93599701
-0.3199538 -0.42719355 0.94319093
-0.40226653 -0.53782386 0.96409535
-0.50382495 -0.67453957 0.99101019
-1.0865178 -1.4636089 1.8710749
-1.0497564 -1.4156224 1.5034369
-1.0172549 -1.372287 1.2045637
-1.0001909 -1.3502403 0.96613878
-0.98262578 -1.3270038 0.75545061
-0.96486849 -1.3034909 0.56663096
-0.94354707 -1.2756093 0.39270842
-0.94162863 -1.2730114 0.2350999
-1.0701618 -1.4373711 1.6772081
-1.0317823 -1.3868222 1.34217
-1.0069454 -1.3539248 1.0771434
-0.98314929 -1.3233638 0.8495689
-0.97166216 -1.3083702 0.65635008
-0.95620358 -1.2880161 0.47761783
-0.93860716 -1.2643095 0.31183422
-0.93173963 -1.2555083 0.15674458
-0.14447109 -0.18877789 1.1663249
-0.19740866 -0.26031873 1.0916146
-0.24191041 -0.32050666 1.0055698
-0.28828347 -0.38298416 0.94575131
-0.35870397 -0.47751299 0.94979036
-0.45517477 -0.60655063 0.98457098
-0.75081885 -0.94866872 11.240382
-0.1745141 -0.22846442 1.144425
-0.21652927 -0.2852684 1.0281305
-0.25442663 -0.33644801 0.93599701
-0.32144305 -0.42607412 0.94319093
-0.40414143 -0.53641635 0.96409535
-0.50617647 -0.67277676 0.99101019
-1.0852129 -1.4512395 1.8605614
-1.0477033 -1.4025946 1.4940217
-1.0170351 -1.362027 1.1990808
-0.99695027 -1.3360897 0.95918238
-0.97893631 -1.3124177 0.7498315
-0.96367759 -1.2924235 0.56381088
-0.94505906 -1.2683688 0.39177582
-0.94011563 -1.2617301 0.23420574
-1.0684519 -1.4246659 1.6672316
-1.0293448 -1.3735089 1.3333406
-1.0039111 -1.3400517 1.0695438
-0.98232406 -1.3126564 0.8453728
-0.97056597 -1.2974082 0.65306306
-0.95487183 -1.2768854 0.47527319
-0.94004899 -1.2570598 0.31114352
-0.93013394 -1.2442453 0.15634152
-0.33993441 -0.44050291 2.6985307
-0.19740951 -0.25844222 1.0868427
-0.24302772 -0.31966028 1.0055698
-0.28817123 -0.38006732 0.94136226
-0.35867038 -0.47401416 0.94565743
-0.45535633 -0.60240132 0.98073351
-0.75312853 -0.94479191 11.225467
-0.17454341 -0.22685812 1.1395856
-0.21647511 -0.28314027 1.0234377
-0.25428003 -0.33382636 0.93149579
-0.32135007 -0.42287317 0.93892491
-0.4060114 -0.53500241 0.96409535
-0.5085218 -0.67100579 0.99101019
-1.0816891 -1.4360484 1.8465432
-1.045572 -1.3895983 1.4846063
-1.0167563 -1.3517854 1.1935979
-0.99628484 -1.3255193 0.95454472
-0.97794205 -1.3015802 0.74608546
-0.96530229 -1.2852161 0.56240088
-0.94358319 -1.2572048 0.38991058
-0.93853533 -1.2504749 0.23331158
-1.0666662 -1.41199 1.6572551
-1.0292622 -1.3634557 1.3274543
-1.0033894 -1.3296573 1.0644776
-0.98143607 -1.3019712 0.84117669
-0.96940506 -1.2864697 0.64977604
-0.95347416 -1.2657799 0.47292855
-0.93847215 -1.24586 0.30976218
-0.92846096 -1.233009 0.15593846
-0.34084481 -0.43851 2.6936357
-0.19739968 -0.25656888 1.0820706
-0.24414207 -0.31881002 1.0055698
-0.28949615 -0.37905908 0.94136226
-0.36032283 -0.47275928 0.94565743
-0.45745632 -0.60080814 0.98073351
-0.7560879 -0.9417417 11.220495
-0.17456366 -0.2252544 1.1347462
-0.21746214 -0.28238294 1.0234377
-0.25544372 -0.33293673 0.93149579
-0.32282421 -0.42174888 0.93892491
-0.40604624 -0.53118807 0.96010524
-0.50880367 -0.66653192 0.98733491
-1.0802283 -1.4237407 1.8360294
-1.0433629 -1.3766341 1.475191
-1.0138932 -1.3382295 1.1853735
-0.99555779 -1.3149703 0.94990712
-0.97688401 -1.2907654 0.74233937
-0.96399397 -1.2741877 0.5595808
-0.94204104 -1.2460665 0.38804534
-0.93688804 -1.2392462 0.23241742
-1.0670663 -1.4023154 1.650604
-1.0266755 -1.3502021 1.3186247
-1.0001984 -1.3158511 1.056878
-0.98048574 -1.2913083 0.83698058
-0.96817976 -1.2755554 0.64648902
-0.95201069 -1.2546995 0.47058392
-0.93682867 -1.2346865 0.30838081
-0.92672104 -1.2217996 0.1555354
-0.33797744 -0.43170711 2.659369
-0.19829406 -0.25587827 1.0820706
-0.24525343 -0.31795588 1.0055698
-0.29081756 -0.37804624 0.94136226
-0.36197087 -0.47149864 0.94565743
-0.45955077 -0.5992077 0.98073351
-0.75467622 -0.93329543 11.150894
-0.17534888 -0.22464369 1.1347462
-0.21844651 -0.28162214 1.0234377
-0.25660434 -0.33204305 0.93149579
-0.32429445 -0.42061943 0.93892491
-0.40789798 -0.52976745 0.96010524
-0.51112717 -0.66475177 0.98733491
-1.0786949 -1.4114611 1.8255159
-1.0410761 -1.3637024 1.4657755
-1.0134847 -1.3280342 1.1798905
-0.99476933 -1.3044423 0.94526953
-0.97857302 -1.2836607 0.7404663
-0.96262062 -1.2631841 0.55676073
-0.94340885 -1.2388625 0.38711271
-0.93517393 -1.2280444 0.23152326
-1.0651407 -1.3896922 1.6406276
-1.0264667 -1.3401924 1.3127384
-0.9995442 -1.3055063 1.0518116
-0.97947276 -1.2806679 0.83278447
-0.96689016 -1.2646654 0.64320201
-0.95048141 -1.2436448 0.46823925
-0.93812573 -1.2274742 0.30769014
-0.92794722 -1.2145873 0.15533386
-0.34200546 -0.4337219 2.6789498
-0.19918604 -0.25518453 1.0820706
-0.24636181 -0.31709784 1.0055698
-0.29213542 -0.37702879 0.94136226
-0.36361453 -0.47023228 0.94565743
-0.46163961 -0.59759992 0.98073351
-0.75893956 -0.93189496 11.165809
-0.17613198 -0.22403023 1.1347462
-0.21942823 -0.28085789 1.0234377
-0.25776184 -0.33114532 0.93149579
-0.32576069 -0.41948488 0.93892491
-0.40974468 -0.5283404 0.96010524
-0.51136857 -0.66028339 0.98365974
-1.0770888 -1.3992094 1.8150022
-1.0410844 -1.353889 1.4594986
-1.0130175 -1.3178581 1.1744076
-0.99391949 -1.2939359 0.94063193
-0.97740096 -1.2728832 0.73672026
-0.96118218 -1.2522057 0.55394071
-0.94174808 -1.2277664 0.38524747
-0.93339306 -1.2168698 0.2306291
-1.0631399 -1.3770993 1.630651
-1.0237316 -1.3270004 1.3039091
-0.99883002 -1.2951822 1.0467453
-0.97839755 -1.2700504 0.82858837
-0.96553636 -1.2537999 0.63991499
-0.94888669 -1.2326164 0.46589461
-0.93636304 -1.2163441 0.30630878
-0.92608756 -1.2034222 0.1549308
-0.34161666 -0.43013418 2.6642642
-0.2000756 -0.25448769 1.0820706
-0.24867159 -0.31777418 1.0101724
-0.29492354 -0.37789458 0.94575131
-0.36525369 -0.46896011 0.94565743
-0.4637228 -0.59598482 0.98073351
-0.76184976 -0.92882812 11.160838
-0.17691289 -0.22341406 1.1347462
-0.22040726 -0.28009024 1.0234377
-0.2589162 -0.33024353 0.93149579
-0.32722297 -0.41834521 0.93892491
-0.41158646 -0.52690691 0.96010524
-0.51367027 -0.65849435 0.98365974
-1.0754106 -1.3869864 1.8044887
-1.0386536 -1.341015 1.4500831
-1.0099317 -1.3043953 1.1661832
-0.99029791 -1.2799481 0.93367553
-0.97616571 -1.2621297 0.73297417
-0.95967901 -1.2412529 0.55112064
-0.94302481 -1.2205844 0.38431486
-0.93154567 -1.2057227 0.22973496
-1.0610641 -1.3645374 1.6206745
-1.023397 -1.3170353 1.2980225
-0.99805599 -1.2848791 1.0416789
-0.97726035 -1.2594562 0.82439226
-0.96411848 -1.2429594 0.63662797
-0.95020509 -1.2254555 0.46472231
-0.93453425 -1.2052413 0.30492741
-0.92722189 -1.1962336 0.15472928
-0.75050497 -0.92891824 7.5920634
-0.34247965 -0.42814425 2.659369
-0.20188989 -0.25495759 1.0868427
-0.24977931 -0.31690422 1.0101724
-0.29624087 -0.37686279 0.94575131
-0.36688843 -0.4676823 0.94565743
-0.46382302 -0.59183985 0.97689599
-0.76508731 -0.92616314 11.160838
-0.17847605 -0.22377737 1.1395856
-0.22138363 -0.27931914 1.0234377
-0.26006737 -0.32933775 0.93149579
-0.32868132 -0.41720045 0.93892491
-0.41342321 -0.52546698 0.96010524
-0.51387107 -0.65403163 0.97998458
-1.0736601 -1.3747922 1.7939749
-1.0385399 -1.3312436 1.4438063
-1.0093358 -1.2942675 1.1607003
-0.98931366 -1.2694954 0.92903793
-0.97486722 -1.2514001 0.72922814
-0.95811105 -1.2303258 0.54830056
-0.94124603 -1.2095319 0.38244963
-0.93269032 -1.1985334 0.22928788
-1.0589138 -1.3520069 1.6106981
-1.0205144 -1.3039062 1.2891932
-0.99722224 -1.2745972 1.0366125
-0.97606105 -1.2488854 0.82019615
-0.96263683 -1.2321441 0.63334101
-0.9484933 -1.2144698 0.46237767
-0.93263942 -1.1941662 0.30354607
-0.92524308 -1.185114 0.15432622
-0.75962973 -0.9335236 7.6513343
-0.34269387 -0.42536089 2.6495786
-0.20277862 -0.2542513 1.0868427
-0.250884 -0.31603041 1.0101724
-0.29755458 -0.37582642 0.94575131
-0.36851874 -0.46639878 0.94565743
-0.46588612 -0.59021723 0.97689599
-0.76831555 -0.92348683 11.160838
-0.1792561 -0.22315301 1.1395856
-0.22343436 -0.27989295 1.0281305
-0.26121539 -0.32842794 0.93149579
-0.33013558 -0.41605055 0.93892491
-0.41525492 -0.52402067 0.96010524
-0.51615089 -0.6522339 0.97998458
-1.0718378 -1.3626271 1.7834612
-1.0359659 -1.318429 1.434391
-1.0086815 -1.2841599 1.1552174
-0.98826867 -1.2590652 0.92440039
-0.97350585 -1.2406952 0.72548205
-0.95943934 -1.2231995 0.54689056
-0.94243199 -1.2023728 0.38151699
-0.93072402 -1.1874316 0.22839372
-1.056689 -1.3395082 1.6007215
-1.0200548 -1.2939875 1.2833068
-0.99632895 -1.2643368 1.0315461
-0.97479993 -1.2383382 0.81600004
-0.96401179 -1.2250655 0.63169748
-0.94671649 -1.203511 0.46003303
-0.9337405 -1.1870114 0.30285537
-0.92319804 -1.1740227 0.15392315
-0.3428928 -0.42258129 2.6397882
-0.2036649 -0.25354192 1.0868427
-0.25198561 -0.31515273 1.0101724
-0.29737109 -0.37291321 0.94136226
-0.37014452 -0.46510956 0.94565743
-0.46794352 -0.58858734 0.97689599
-0.77119201 -0.92039084 11.155867
-0.18082516 -0.22350264 1.144425
-0.22441001 -0.2791113 1.0281305
-0.26236024 -0.32751411 0.93149579
-0.33158585 -0.41489565 0.93892491
-0.41708153 -0.52256799 0.96010524
-0.51842445 -0.65042824 0.97998458
-1.0699437 -1.3504918 1.7729477
-1.0357306 -1.3087007 1.4281141
-1.0053747 -1.2707936 1.146993
-0.98716295 -1.2486579 0.91976279
-0.97208172 -1.2300153 0.72173601
-0.95775563 -1.2123147 0.54407042
-0.94053566 -1.1913646 0.37965176
-0.92869169 -1.1763581 0.22749956
-1.05439 -1.3270416 1.5907451
-1.0170251 -1.2809224 1.2744772
-0.99537617 -1.2540983 1.0264798
-0.97347713 -1.2278155 0.81180394
-0.96241587 -1.2142916 0.62841046
-0.94789326 -1.1963893 0.45886073
-0.93172771 -1.1759819 0.30147403
-0.92418867 -1.1668767 0.15372162
-0.76612836 -0.92819768 7.6513343
-0.34436581 -0.42138177 2.6397882
-0.20360927 -0.25166941 1.0820706
-0.25185838 -0.31274992 1.0055698
-0.29867098 -0.37187293 0.94136226
-0.37176579 -0.46381471 0.94565743
-0.46999523 -0.58695036 0.97689599
-0.77405614 -0.91728604 11.150894
-0.18239886 -0.22384405 1.1492646
-0.22538292 -0.27832627 1.0281305
-0.26350185 -0.32659632 0.93149579
-0.3330321 -0.41373566 0.93892491
-0.41890311 -0.52110893 0.96010524
-0.52069175 -0.64861465 0.97998458
-1.067978 -1.3383862 1.7624339
-1.0330138 -1.2959464 1.4186987
-1.0045928 -1.260736 1.14151
-0.98599672 -1.2382737 0.91512519
-0.97348225 -1.2229875 0.719863
-0.95600766 -1.2014568 0.54125035
-0.94163126 -1.1842294 0.37871915
-0.92659342 -1.1653134 0.2266054
-1.0543498 -1.3175228 1.584094
-1.0164412 -1.2710512 1.268591
-0.99436414 -1.2438819 1.0214134
-0.97209287 -1.217317 0.80760783
-0.96075654 -1.2035438 0.62512344
-0.94600016 -1.1854748 0.45651609
-0.93273818 -1.1688517 0.30078334
-0.92202508 -1.1558323 0.15331855
-0.34389243 -0.41781947 2.6251025
-0.20448652 -0.25095713 1.0820706
-0.25294855 -0.31186888 1.0055698
-0.29996726 -0.37082809 0.94136226
-0.37338254 -0.46251416 0.94565743
-0.47204119 -0.58530623 0.97689599
-0.77690792 -0.91417235 11.145923
-0.18317913 -0.223206 1.1492646
-0.22635309 -0.27753785 1.0281305
-0.2646403 -0.32567453 0.93149579
-0.33283156 -0.41054496 0.934659
-0.41882324 -0.51730174 0.95611519
-0.52295262 -0.64679313 0.97998458
-1.065941 -1.3263111 1.7519203
-1.0326576 -1.2862624 1.4124217
-1.0037529 -1.2506996 1.1360271
-0.98477012 -1.227913 0.91048759
-0.97194564 -1.212348 0.71611691
-0.95419586 -1.1906258 0.53843033
-0.93961787 -1.1732669 0.37685391
-0.92754245 -1.1581848 0.22615832
-1.0519129 -1.3051133 1.5741175
-1.0132654 -1.2580516 1.2597615
-0.99329299 -1.233688 1.0163471
-0.97064728 -1.2068433 0.80341172
-0.95903403 -1.1928225 0.62183642
-0.94708741 -1.1783768 0.45534378
-0.93060791 -1.157869 0.29940197
-0.92292494 -1.1487123 0.15311703
-0.26368448 -0.31526086 2.6132915
-0.34014773 -0.41034737 2.5859406
-0.20441382 -0.24908836 1.0772986
-0.2527993 -0.30947134 1.0009673
-0.29974678 -0.36792225 0.93697321
-0.37321925 -0.45902476 0.94152451
-0.47408143 -0.58365488 0.97689599
-0.77974761 -0.91105008 11.140951
-0.18475851 -0.2235336 1.154104
-0.22732051 -0.27674606 1.0281305
-0.2657755 -0.32474878 0.93149579
-0.33426261 -0.40938067 0.934659
-0.4206264 -0.51583666 0.95611519
-0.52520716 -0.64496374 0.97998458
-1.0638326 -1.3142664 1.7414067
-1.029799 -1.2735702 1.4030064
-1.0028552 -1.2406844 1.1305442
-0.98348314 -1.217576 0.90584999
-0.97034675 -1.2017342 0.71237087
-0.95533299 -1.183555 0.53702027
-0.93753952 -1.162333 0.37498868
-0.92532641 -1.1471876 0.22526415
-1.0517557 -1.2956358 1.5674665
-1.0125577 -1.248229 1.2538751
-0.99216294 -1.2235168 1.0112808
-0.96914047 -1.1963946 0.79921561
-0.96021998 -1.1857976 0.62019289
-0.94507855 -1.1675078 0.45299914
-0.93152815 -1.1507645 0.2987113
-0.9237864 -1.1415999 0.15291549
-0.26778936 -0.31790197 2.6429272
-0.20528205 -0.2483733 1.0772986
-0.2526364 -0.30707866 0.99636471
-0.30102926 -0.36687371 0.93697321
-0.37481925 -0.45771921 0.94152451
-0.47611588 -0.58199644 0.97689599
-0.78257477 -0.90791899 11.13598
-0.18634245 -0.22385289 1.1589434
-0.22718468 -0.27462161 1.0234377
-0.26690745 -0.32381907 0.93149579
-0.33568954 -0.40821138 0.934659
-0.42242447 -0.51436526 0.95611519
-0.52745533 -0.64312649 0.97998458
-1.0616534 -1.3022529 1.7308931
-1.0293224 -1.2639316 1.3967296
-1.0019001 -1.230691 1.1250613
-0.98213619 -1.2072631 0.90121239
-0.96868563 -1.1911463 0.70862478
-0.95340651 -1.1727687 0.53420019
-0.93539637 -1.1514279 0.37312344
-0.92618519 -1.1400853 0.22481708
-1.0491818 -1.2832849 1.5574901
-1.0117939 -1.2384268 1.2479889
-0.98824716 -1.2100298 1.0036812
-0.96757251 -1.1859711 0.79501951
-0.95838428 -1.1751199 0.61690587
-0.94300526 -1.1566672 0.45065451
-0.92928094 -1.1398294 0.29732993
-0.92145318 -1.130623 0.15251243
-0.26638204 -0.31400445 2.6182308
-0.20614779 -0.24765521 1.0772986
-0.25370675 -0.30619493 0.99636471
-0.30230805 -0.36582068 0.93697321
-0.37641472 -0.45640805 0.94152451
-0.47610614 -0.57785738 0.97305846
-0.78573924 -0.90518183 11.13598
-0.18873896 -0.22512653 1.1686223
-0.22814192 -0.2738269 1.0234377
-0.26803619 -0.32288539 0.93149579
-0.33711243 -0.40703711 0.934659
-0.42229664 -0.51056582 0.95212519
-0.52969706 -0.64128137 0.97998458
-1.0594032 -1.2902706 1.7203795
-1.0263227 -1.2513026 1.3873141
-1.0008874 -1.2207193 1.1195784
-0.98072922 -1.1969744 0.8965748
-0.96696252 -1.1805849 0.70487875
-0.95141643 -1.1620103 0.53138018
-0.93629926 -1.1443539 0.3721908
-0.92700565 -1.1329912 0.22437
-1.0489079 -1.2738502 1.5508391
-1.010974 -1.2286452 1.2421026
-0.98698783 -1.1999145 0.99861485
-0.9688251 -1.1790799 0.79292148
-0.95648581 -1.1644694 0.61361885
-0.94086796 -1.1458554 0.44830987
-0.93011141 -1.1327515 0.29663923
-0.92222452 -1.1235381 0.15231091
-0.26444566 -0.30953035 2.5885952
-0.20701101 -0.24693413 1.0772986
-0.254774 -0.30530745 0.99636471
-0.30358317 -0.3647632 0.93697321
-0.37800556 -0.4550913 0.94152451
-0.47812036 -0.5761919 0.97305846
-0.78854316 -0.90203232 11.131008
-0.19033514 -0.22542627 1.1734617
-0.22798665 -0.2717073 1.0187449
-0.26916164 -0.32194784 0.93149579
-0.33686042 -0.40385538 0.9303931
-0.42407629 -0.50908858 0.95212519
-0.53193235 -0.6394285 0.97998458
-1.0593551 -1.2810682 1.7133703
-1.0257263 -1.2417107 1.3810372
-0.99981725 -1.2107697 1.1140954
-0.97926247 -1.1867102 0.89193714
-0.96517754 -1.17005 0.70113266
-0.94936287 -1.1512802 0.5285601
-0.93404031 -1.1334968 0.37032557
-0.92462087 -1.122062 0.22347584
-1.0461975 -1.261559 1.5408626
-1.0100982 -1.2188843 1.2362163
-0.98567009 -1.1898228 0.99354851
-0.96714777 -1.1686978 0.78872538
-0.95452464 -1.1538465 0.61033183
-0.94176441 -1.1388185 0.44713756
-0.92774808 -1.1218656 0.2952579
-0.91977441 -1.1126111 0.15190785
-0.26806051 -0.31154853 2.6132915
-0.17332208 -0.20341815 1.3082863
-0.20883518 -0.24735014 1.0820706
-0.25583819 -0.30441627 0.99636471
-0.30485457 -0.36370125 0.93697321
-0.37778607 -0.45161092 0.93739152
-0.48012874 -0.57451946 0.97305846
-0.79168701 -0.89927423 11.131008
-0.1919357 -0.2257176 1.1783011
-0.22893371 -0.27090985 1.0187449
-0.26888126 -0.31934136 0.92699456
-0.3382681 -0.40267706 0.9303931
-0.42585075 -0.5076052 0.95212519
-0.53416109 -0.63756782 0.97998458
-1.0569735 -1.2691417 1.7028567
-1.0250757 -1.2321384 1.3747603
-0.99869007 -1.2008426 1.1086124
-0.97773612 -1.1764712 0.88729954
-0.96629333 -1.1631079 0.69925964
-0.95031101 -1.1442689 0.52715003
-0.93171692 -1.1226692 0.3684603
-0.92535162 -1.1149955 0.22302876
-1.0458078 -1.2521681 1.5342115
-1.0091666 -1.2091446 1.23033
-0.984294 -1.179755 0.98848218
-0.96540999 -1.1583421 0.78452927
-0.95552385 -1.1468796 0.60868835
-0.93951255 -1.1280545 0.44479293
-0.92532009 -1.1110101 0.29387653
-0.92045599 -1.1055542 0.15170631
-0.26914638 -0.31061092 2.6132915
-0.1760222 -0.20512842 1.3229721
-0.20969734 -0.24661966 1.0820706
-0.25816181 -0.30501223 1.0009673
-0.30457705 -0.36080509 0.93258411
