# .PCD v0.7 - Point Cloud Data file format
VERSION 0.7
FIELDS x y z
SIZE 4 4 4
TYPE F F F
COUNT 1 1 1
WIDTH 1596
HEIGHT 1
VIEWPOINT 0 0 0 1 0 0 0
POINTS 1596
DATA ascii
4.2452483 4.1082292 3.5571256
4.5775204 4.4344068 3.0336413
4.8462944 4.6964087 2.4379139
20.011482 19.399267 6.8128214
19.100624 18.516273 3.8025312
19.474504 18.885303 1.1879783
0.053357936 0.028840549 5.4390664
2.7381818 2.5493331 23.782951
4.4974489 4.2266455 29.695707
6.5667577 6.2318239 28.988632
4.0386195 3.8514555 13.206861
4.3967443 4.2046757 11.216197
8.1593847 7.8273826 13.613798
0.2508902 0.21250732 5.5251946
0.4295679 0.39173159 5.3789787
5.5587826 5.2367458 29.44054
6.8086467 6.4568243 25.571297
3.9745305 3.783704 11.410322
5.6048932 5.3487754 12.742764
5.8228025 5.5644779 10.739655
7.7088709 7.37713 11.645311
7.481916 7.2025895 10.285491
6.9669428 6.7138653 7.8839192
4.6797185 4.5113101 4.3462839
4.4644237 4.3067617 3.3336334
4.5941472 4.433445 2.6678171
4.8182478 4.6513219 2.0584457
19.494987 18.832682 5.2376699
19.215601 18.562782 2.4915078
7.7652817 7.4545054 9.6683846
5.7005153 5.476203 5.8393197
4.3590264 4.1889672 3.6381872
4.4948478 4.3240075 2.9707
4.9681382 4.7809687 2.4888628
20.149111 19.396713 6.8362675
19.236496 18.518175 3.816345
19.677055 18.948895 1.1956364
0.053458285 0.028654121 5.4390664
2.7453525 2.5381775 23.768135
4.5099421 4.2088366 29.681023
6.5819521 6.2027206 28.959999
4.0633869 3.8480809 13.243682
4.4027109 4.1810565 11.194251
8.151845 7.7656908 13.556234
0.25163046 0.21163025 5.5251946
0.4309327 0.3902297 5.3789787
5.5788646 5.219027 29.450218
6.8424501 6.443665 25.613533
4.025681 3.8056984 11.518351
5.629209 5.3345599 12.755562
5.7437601 5.4908404 7.888381
6.9678388 6.6679759 7.8588119
4.6561708 4.4573574 4.3106451
4.6841569 4.4872723 3.4820366
4.5928597 4.4013433 2.658452
4.7998257 4.6012783 2.0443454
19.606689 18.808725 5.249794
19.373714 18.585228 2.5031319
6.8183398 6.499886 8.4712048
5.2340999 4.9931302 5.3507543
4.3393168 4.1409893 3.6103225
3.7124488 3.5464833 2.4608731
4.9677267 4.7472849 2.4806452
20.290478 19.396797 6.8608861
19.36187 18.509087 3.8280864
19.768354 18.904263 1.1970471
0.053517845 0.028450228 5.4340663
2.7519062 2.5264771 23.748377
4.518631 4.1875315 29.641861
6.6133728 6.1888871 29.002947
4.0867572 3.8432424 13.2759
4.4120517 4.1607337 11.181085
4.2607384 4.0264564 8.6825371
0.25236765 0.21075061 5.5251946
0.43229219 0.38872311 5.3789787
5.5988903 5.2012324 29.459898
7.6602345 7.1634803 28.574669
4.0389409 3.7916231 11.518351
5.6534934 5.3202395 12.76836
6.9426389 6.5424986 12.706737
5.8016882 5.5075865 7.940949
6.9431067 6.5980315 7.8054581
4.635334 4.4065056 4.2777472
4.5040102 4.2846489 3.34059
4.6014786 4.3788929 2.654706
4.7811131 4.5514207 2.0302451
19.750473 18.814711 5.2703118
19.485348 18.562143 2.5089438
6.8355637 6.4709129 8.4645538
5.2250881 4.9498119 5.3242664
4.3099389 4.0843043 3.5748577
3.7182207 3.5272558 2.456677
5.0938783 4.8339324 2.5332375
20.432091 19.396128 6.8855052
19.433544 18.448208 3.8294678
19.761768 18.76634 1.1930166
0.053616829 0.028263243 5.4340663
2.7589855 2.5152855 23.733559
4.5347199 4.1731124 29.651651
5.8126459 5.4016452 25.414415
4.1115713 3.8396208 13.312719
4.4265485 4.1453071 11.181085
4.2624555 4.0000052 8.6577396
0.25310177 0.2098684 5.5251946
0.4340443 0.38756645 5.3839498
5.6188593 5.1833615 29.469576
7.6851926 7.1366978 28.574669
4.0569291 3.7819552 11.531855
5.6758413 5.3040338 12.776893
6.9874368 6.5388136 12.746636
7.7263308 7.2403655 11.557108
5.846828 5.511764 7.9759946
7.3057981 6.8943229 8.1820726
4.5442657 4.2898359 4.1817961
4.6537995 4.3978291 2.6753092
4.8039436 4.5412946 2.0330651
19.890966 18.816544 5.289897
19.57173 18.514547 2.5116265
5.2802415 4.9637394 6.5357637
5.2364459 4.9260039 5.3183799
4.2990546 4.0456014 3.5545924
3.7635458 3.5453753 2.4776576
5.1141572 4.8193603 2.5348809
20.570408 19.391371 6.9089513
19.523046 18.404037 3.8343024
19.805344 18.676678 1.1918074
0.053715158 0.028075913 5.4340663
2.7654445 2.5035539 23.713802
4.5447493 4.1531367 29.62228
4.1349759 3.8345437 13.344937
4.4374838 4.1265688 11.172306
4.2702155 3.979347 8.6453409
8.3077202 7.7498651 13.679034
0.25383282 0.20898363 5.5251946
0.43579367 0.3864024 5.3889213
5.6396995 5.1662636 29.484095
6.86515 6.3307152 25.449286
4.0701056 3.7677705 11.531855
5.7019677 5.291285 12.793956
6.9991822 6.5041275 12.726687
7.7887845 7.2479935 11.612236
7.6286135 7.141293 10.348573
5.4411116 5.0988827 6.0949988
4.5561614 4.2710876 4.1790543
3.8779647 3.6378651 2.8698733
4.7232113 4.4323149 2.7052777
4.8722286 4.5737457 2.0542154
20.028133 18.814264 5.3085494
19.668905 18.476805 2.5156503
5.3057241 4.9529214 6.5457401
5.2890534 4.9408054 5.3536978
4.2659054 3.9864209 3.5165946
3.7825277 3.5384178 2.4818537
5.130949 4.8014793 2.5348809
20.744427 19.419102 6.9441214
19.916153 18.643744 3.8971543
19.797485 18.539135 1.1877768
0.053812832 0.027888242 5.4340663
2.7718551 2.4918077 23.694044
4.5629888 4.1406684 29.646757
4.1368384 3.8094995 13.308117
4.4518609 4.1110539 11.172306
4.28408 3.9644167 8.6453409
8.3323708 7.7186403 13.675198
0.25456074 0.20809631 5.5251946
0.43713978 0.38487881 5.3889213
5.6604881 5.1490831 29.498611
7.7322826 7.0805407 28.565283
4.0816302 3.7520669 11.527353
5.7472544 5.296092 12.85368
7.8015871 7.2092571 11.59386
7.6848388 7.1437569 10.390627
5.3591471 4.9870539 5.9851532
4.5710425 4.2551575 4.1790543
3.8906398 3.6243062 2.8698733
5.2507858 4.8930373 2.9881058
4.8706193 4.5403562 2.0471654
20.165525 18.811255 5.3272018
19.751488 18.42502 2.5178854
5.3531017 4.9622927 6.5823212
5.3062682 4.9223132 5.3536978
4.2797947 3.9715061 3.5165946
3.7649293 3.4973927 2.4629712
5.1442189 4.7803254 2.5332375
20.847685 19.379663 6.9558439
20.307543 18.877554 3.9593155
20.242567 18.823734 1.2087359
0.053909853 0.027700229 5.4340663
2.7787971 2.4805648 23.679228
4.5796838 4.12676 29.661442
5.8975973 5.3666005 25.538488
4.1602035 3.8042645 13.340335
4.4644184 4.0938697 11.167916
4.2875328 3.9399185 8.6246758
0.25528562 0.20720647 5.5251946
0.43848062 0.38335058 5.3889213
5.6812253 5.1318207 29.51313
6.3805981 5.8019996 23.506481
4.0657616 3.7113791 11.446331
5.7772503 5.2865615 12.879274
4.4029307 4.034627 7.9825482
7.811718 7.1682277 11.571809
7.8276496 7.2257419 10.548331
5.3765225 4.9683166 5.9851532
4.6779838 4.3243265 4.2612987
3.89026 3.5986707 2.8605981
5.2372098 4.8463407 2.9712484
21.766356 20.148832 8.8082724
20.303139 18.80751 5.3458538
5.3594022 4.9334617 6.5690188
5.2342305 4.8216052 5.2654028
4.277782 3.9419367 3.5039289
3.7604346 3.4688432 2.452481
5.1643438 4.765542 2.5348809
20.936636 19.326557 6.9628782
20.555254 18.974501 3.9938495
20.499012 18.929205 1.2192156
0.054006219 0.02751188 5.4340663
2.7856944 2.4693036 23.664408
4.5963373 4.1127858 29.676128
4.478682 4.0782614 11.167916
4.3033381 3.926825 8.628809
6.0076723 5.4877591 9.8185062
0.25578198 0.2061336 5.5202026
0.43981609 0.38181767 5.3889213
5.7019119 5.1144762 29.527649
6.3956885 5.7750654 23.487709
4.0544977 3.6752343 11.378814
4.403615 4.0070658 7.9586077
7.9632378 7.2995849 10.695522
5.3909645 4.946887 5.9820147
4.6807284 4.2966604 4.2503328
3.9027979 3.5850694 2.8605981
5.3155394 4.8844914 3.0049632
5.1105666 4.6977797 2.1303573
20.440973 18.803038 5.3645062
5.3710785 4.9096851 6.5623674
5.1854153 4.7432861 5.2006536
4.2819743 3.9182498 3.4963291
3.7557869 3.4403675 2.4419906
5.1809478 4.7474856 2.5348809
21.487682 19.696753 7.121141
20.606756 18.889246 3.9910867
20.638607 18.925064 1.2232462
0.054101922 0.027323196 5.4340663
2.7925472 2.4580247 23.649591
4.6106658 4.0967164 29.676128
4.4928904 4.062603 11.167916
4.3191042 3.9136693 8.6329422
6.0244169 5.464602 9.8146687
0.25649995 0.2052395 5.5202026
0.4415502 0.38062784 5.3938932
5.7234836 5.0978851 29.547007
6.4132385 5.750401 23.478323
4.054358 3.6494079 11.342804
4.0054998 3.6142719 8.8948917
4.404161 3.9795492 7.9346676
8.0546017 7.331758 10.783136
5.4168301 4.9359035 5.9914298
4.7049685 4.2887459 4.2585568
3.8596513 3.520674 2.8211787
5.363378 4.8940306 3.0218205
5.1552782 4.7057848 2.1416376
20.582649 18.801144 5.3840914
5.3854189 4.8883967 6.559042
5.1839881 4.7088499 5.1829944
4.2860541 3.8945823 3.4887297
3.7677732 3.4272366 2.4419906
5.2114587 4.7420845 2.541455
21.577871 19.641256 7.1281748
20.676229 18.820534 3.9917777
20.782116 18.923544 1.2274784
0.054196969 0.027134178 5.4340663
2.799355 2.4467282 23.634773
4.6341 4.0886807 29.734871
5.9724188 5.3214288 25.619612
4.5052619 4.0452948 11.163527
4.3452902 3.909862 8.6577396
6.0410738 5.4413943 9.8108311
0.25721481 0.2043429 5.5202026
0.44287616 0.3790842 5.3938932
5.7421861 5.0787086 29.551846
6.8714824 6.1181364 25.073866
4.0167556 3.5902612 11.203266
4.0103221 3.5933068 8.8778286
4.4045682 3.9520772 7.9107275
8.1066017 7.3275108 10.818181
5.4080515 4.8934617 5.9631834
4.7261105 4.2779088 4.26404
3.8029706 3.4447289 2.7724841
5.3872991 4.8815045 3.0255663
5.1183591 4.6394358 2.1204872
20.720921 18.795189 5.4027438
21.596603 19.589487 2.7105765
5.3747158 4.8445711 6.5257874
5.2274065 4.7150908 5.2094827
4.2900214 3.8709338 3.4811301
3.8639133 3.4901175 2.494442
5.2419949 4.7365279 2.5480289
21.729237 19.640779 7.155138
20.829969 18.827942 4.0083537
20.911041 18.907846 1.2309043
0.054291356 0.026944831 5.4340663
2.807292 2.4364324 23.629833
4.656003 4.0791893 29.783823
5.9685984 5.2807665 25.524172
4.5193553 4.0295439 11.163527
4.3673058 3.9021702 8.6742716
6.0624204 5.4224105 9.8146687
0.25769931 0.20326571 5.5152111
0.4441967 0.37753597 5.3938932
5.7608232 5.059463 29.556684
6.938046 6.1341181 25.238111
4.0553141 3.5993388 11.275286
4.0208926 3.5775528 8.8735628
4.4160872 3.9346738 7.9067378
6.0142484 5.3982353 8.021553
5.4135189 4.8641486 5.9506302
3.8446133 3.4580944 2.7933531
5.4663386 4.9184847 3.0592811
5.1024332 4.5926576 2.1077969
20.866699 18.795073 5.4232616
21.620449 19.473986 2.7052116
5.3804655 4.8158193 6.512485
5.3582468 4.7992921 5.3213234
4.2938757 3.8473055 3.4735308
3.8963444 3.494791 2.5070305
5.1811714 4.6488214 2.5118718
21.826601 19.590786 7.1645164
20.770264 18.642653 3.9848707
21.02524 18.878128 1.2335243
0.054385081 0.026755154 5.4340663
2.8146021 2.4256036 23.619955
4.6771274 4.0689263 29.827879
6.0015736 5.2727075 25.586206
4.5333934 4.0137439 11.163527
4.3872147 3.8925042 8.6866703
6.0669312 5.3884449 9.7916431
0.25817943 0.20218763 5.5102191
0.44510421 0.37563965 5.3889213
5.7793965 5.0401492 29.561525
4.1233821 3.6340992 11.428327
4.0314016 3.5617685 8.869297
4.4275384 3.9172382 7.9027476
6.01442 5.360599 7.9970217
5.2910566 4.720839 5.7999845
5.3454628 4.7710505 4.7821774
3.8632691 3.4505551 2.7979908
5.3037076 4.7387567 2.9618833
5.1577764 4.6099834 2.1233072
21.009069 18.790888 5.4428463
21.279989 19.033201 2.656033
5.3832889 4.7846069 6.4958577
5.4806752 4.8745766 5.4243336
4.3008375 3.8265626 3.4684641
7.050271 6.2793841 4.4519253
6.6358738 5.9123697 3.1824234
21.851313 19.475668 7.1504488
21.049631 18.761143 4.0249305
21.184233 18.887741 1.2385626
0.054478139 0.026565151 5.4340663
2.8230517 2.4157643 23.619955
4.6920733 4.0532413 29.832775
6.8815756 6.003377 29.241547
4.5473762 3.997895 11.163527
6.0784917 5.3608742 9.7801313
0.25888363 0.2012852 5.5102191
0.44641274 0.37408367 5.3889213
5.797905 5.0207677 29.566364
5.6773 4.9493041 20.535959
4.1688066 3.6483567 11.518351
4.0398889 3.5442348 8.8607645
4.438921 3.8997703 7.8987575
6.0411072 5.346663 8.0075359
5.2812829 4.679111 5.7717381
5.4434452 4.824471 4.8534551
3.7858083 3.3576863 2.735383
5.1815042 4.5971465 2.8869619
22.237364 19.736338 8.829423
21.151661 18.785942 5.4624314
21.018635 18.667791 2.6166899
5.3999577 4.7657862 6.4958577
5.5461321 4.8982272 5.4714246
4.3012466 3.8001101 3.4583316
7.0653481 6.2487226 4.4477291
6.7625723 5.9830403 3.231729
21.824526 19.315519 7.1199689
21.367155 18.910727 4.0718966
21.328587 18.883224 1.2427946
0.054570537 0.026374826 5.4340663
2.825546 2.4008644 23.570562
4.7046471 4.035512 29.822985
6.9024897 5.9793196 29.241547
4.5613041 3.9819975 11.163527
6.0899339 5.3332882 9.7686186
0.25935563 0.2002046 5.505228
0.44730577 0.3721824 5.3839498
5.8173013 5.0021377 29.576042
5.6749711 4.9125156 20.465569
4.220953 3.6680524 11.62638
4.0483027 3.526685 8.852232
4.4525065 3.8842518 7.8987575
6.1052723 5.3655643 8.0671129
5.3238854 4.6837859 5.7999845
5.4100294 4.761241 4.8095913
3.8839395 3.4205725 2.7956719
5.2357831 4.6127419 2.9075654
22.558043 19.880615 8.9281254
21.290791 18.776978 5.4810839
21.322706 18.80512 2.645303
5.4081359 4.7395253 6.4858813
5.5328064 4.8521872 5.4419928
4.3209662 3.7907584 3.4633977
3.9293172 3.4508028 2.5049322
6.7656775 5.9438148 3.2235112
21.80419 19.16221 7.0918331
21.369799 18.780451 4.0601549
21.473166 18.87793 1.2470268
0.054703094 0.026199594 5.4390664
2.8291581 2.3869791 23.53105
4.7187052 4.0190649 29.822985
6.0089288 5.1686888 25.385784
4.5751758 3.9660513 11.163527
9.3478823 8.1203537 18.258581
6.1060948 5.3098946 9.764781
0.2598232 0.19912317 5.500236
0.4486022 0.37061879 5.3839498
5.8375945 4.9842496 29.590561
5.605711 4.8184366 20.155846
4.1595635 3.5892985 11.423825
4.0586157 3.5108263 8.8479671
4.4637609 3.8667133 7.8947673
3.7701633 3.2901442 4.9971304
5.3402023 4.665174 5.7999845
5.329011 4.6570306 4.724606
3.8958559 3.4069941 2.7956719
5.6286874 4.924099 3.109853
22.71394 19.877573 8.9619665
21.444899 18.780216 5.5034671
21.41819 18.756824 2.6488798
5.388031 4.688755 6.4426498
5.5466619 4.8301897 5.4390497
4.3146696 3.7586632 3.4481988
4.12605 3.5981431 2.618227
6.6831894 5.8301401 3.1758497
21.805025 19.028458 7.0707312
21.394182 18.669926 4.0525575
21.629259 18.881714 1.2518636
0.054794211 0.026008485 5.4390664
2.8344946 2.3745942 23.506351
4.7303729 4.000597 29.808298
5.9815321 5.1089048 25.194904
4.5889921 3.9500568 11.163527
9.3399458 8.056427 18.18832
6.1197414 5.2843595 9.7571058
0.2605167 0.19821499 5.500236
0.44989318 0.36905062 5.3839498
5.8568749 4.9654675 29.600241
5.5673671 4.7517877 19.95875
4.2563772 3.6469941 11.653388
4.0688682 3.4949386 8.8437014
4.474946 3.849143 7.8907771
8.398428 7.277576 11.000418
12.615899 10.94371 13.548833
5.3104944 4.6082544 4.6944499
4.0013776 3.474699 2.8605981
5.3273559 4.6277609 2.9394069
22.786808 19.801311 8.963376
21.562218 18.750372 5.5165234
21.449713 18.652536 2.644856
5.3252602 4.6015649 6.3495355
5.5757184 4.8213739 5.4508219
4.262557 3.6871758 3.3975353
4.0802588 3.5332124 2.5825603
6.2823262 5.4419432 2.9819155
21.937435 19.009523 7.0918331
21.526587 18.653507 4.0649896
21.747887 18.851912 1.254685
0.054925591 0.025832191 5.444066
2.842766 2.3646853 23.506351
4.7427497 3.9827511 29.79851
5.9902215 5.0802708 25.156731
4.6045732 3.93557 11.167916
6.7242374 5.7593875 13.075862
6.1308498 5.2567058 9.7455931
0.26120701 0.19730441 5.500236
0.45159227 0.3678143 5.3889213
5.8760948 4.9466119 29.609919
3.7816253 3.2049484 13.534352
4.3237982 3.6786652 11.801928
4.0830269 3.4824066 8.8479671
4.5158505 3.8569829 7.9386578
4.8598671 4.1566553 7.0109296
8.4129667 7.2389112 10.9864
12.562598 10.820857 13.451541
4.0939984 3.5301373 2.9162495
4.0621719 3.5039239 2.2557499
5.3028207 4.575675 2.1486878
21.750231 18.780935 5.5472999
21.548616 18.606842 2.6488798
5.2789497 4.529459 6.2763748
5.3778467 4.6175642 5.244801
4.2623215 3.6610389 3.3874025
3.9032936 3.356205 2.4671674
6.1724019 5.3091249 2.922749
22.106819 19.021597 7.1246576
21.629107 18.61055 4.0718966
21.893074 18.844324 1.2589171
0.055015426 0.025640307 5.444066
2.8569944 2.3596957 23.555746
4.7542768 3.964215 29.783823
6.0261874 5.0747137 25.233082
4.6182828 3.9194732 11.167916
6.1540427 5.239429 9.7532682
0.26189414 0.19639143 5.500236
0.45328814 0.36657059 5.3938932
5.8952546 4.9276829 29.619598
3.7927897 3.1917288 13.534352
4.3233085 3.6523113 11.765918
4.0991383 3.4715035 8.8564987
4.5223923 3.8353491 7.9266872
4.8691788 4.1352768 7.0035791
3.7040889 3.1647706 4.8674622
12.144768 10.387335 12.96822
4.2940559 3.6739976 3.7897663
4.1231208 3.5302303 2.9278433
3.9933963 3.4203618 2.2126701
5.402545 4.6289239 2.1811185
21.811928 18.7017 5.5463676
21.723072 18.625513 2.661845
5.3174648 4.5303755 6.302979
5.2524424 4.4781337 5.1094151
3.999562 3.4111607 3.1746156
3.8666625 3.3013029 2.4377947
6.2663035 5.3519502 2.957263
22.265472 19.023251 7.1539655
21.776768 18.605705 4.0870914
22.061262 18.855427 1.2643585
0.055104595 0.025448112 5.444066
2.8682179 2.3521717 23.580442
4.7657323 3.9456475 29.769136
6.0564609 5.0641799 25.285572
3.8103106 3.2019076 11.784681
4.6319361 3.9033287 11.167916
6.4998341 5.4889865 12.567509
0.26281017 0.19564773 5.505228
0.45456496 0.36498609 5.3938932
5.9153214 4.9094825 29.634115
3.810529 3.1840024 13.557817
4.3360314 3.637198 11.765918
4.1092353 3.4554954 8.852232
4.5449719 3.8273034 7.9426479
4.8784008 4.113884 6.9962287
7.971076 6.7624178 10.352077
12.180952 10.344878 12.96822
4.3259749 3.6752298 3.8062153
4.2062926 3.576071 2.9765382
4.0088425 3.4094048 2.2145431
5.4332848 4.6224709 2.1867585
21.921957 18.663662 5.5575585
21.871374 18.620594 2.6716807
5.3332467 4.5117869 6.302979
5.1970878 4.3997045 5.0417228
4.0574999 3.4361813 3.2100801
3.8400819 3.255502 2.414716
5.1324835 4.3526835 2.4313397
22.409578 19.011446 7.1785846
21.841581 18.529575 4.0870914
22.126944 18.778303 1.2643585
0.055193089 0.025255606 5.444066
2.8776162 2.3431265 23.590321
4.7755437 3.9257553 29.744661
6.0901804 5.0563569 25.352381
3.818464 3.1860845 11.775476
4.6473703 3.8886733 11.172306
6.4844532 5.4373345 12.501382
0.26349151 0.19472916 5.505228
0.45625326 0.36372909 5.3988647
5.9343629 4.8904033 29.643795
3.8176355 3.1673763 13.543738
4.3068819 3.5872102 11.653388
4.1372876 3.4545023 8.8863602
4.9109263 4.1120653 7.0219555
8.0082693 6.7460408 10.369599
4.3387775 3.6601071 3.8062153
4.2153654 3.5585096 2.9742196
4.0171771 3.3923995 2.2126701
6.9188585 5.8448377 2.752182
21.889437 18.504574 5.5333109
21.959059 18.563425 2.6743631
5.2093196 4.3789353 5.0387793
4.5082855 3.7909906 3.546993
4.0041957 3.3706794 2.5070305
4.8984118 4.124867 2.3179379
22.557585 19.001999 7.2043753
22.042475 18.568079 4.1119556
22.242023 18.742805 1.2669784
0.055280909 0.025062792 5.444066
2.8960502 2.3413711 23.674288
4.7907953 3.9103489 29.754452
3.8400931 3.1814606 11.807693
4.6609159 3.872427 11.172306
6.4882555 5.4020629 12.472451
4.7041831 3.9208434 7.4085531
0.26416966 0.19380821 5.505228
0.45752013 0.36213428 5.3988647
5.9533434 4.8712506 29.653473
3.8206768 3.1474478 13.515581
4.2908583 3.5485697 11.576867
4.157352 3.4466977 8.9034243
4.9096084 4.0818934 6.9999037
8.1466608 6.8141437 10.51679
5.2337985 4.3823948 5.5865693
4.3675551 3.6583648 3.8199224
4.2481303 3.5608468 2.9881322
4.4162016 3.7030313 2.4168308
6.8289595 5.7281651 2.7098808
21.901222 18.383837 5.5202541
22.149593 18.592316 2.6891167
5.1466966 4.2926884 6.050241
5.1842327 4.327055 5.0005188
4.5049458 3.7614162 3.534327
3.9985256 3.3421283 2.4965401
5.3438797 4.4681983 2.5135152
22.019789 18.417948 4.0960703
22.261333 18.626579 1.2645601
0.055368058 0.024869673 5.444066
2.9066296 2.3331933 23.694044
4.8139086 3.9012947 29.813194
5.0787969 4.1571374 21.028963
3.8285434 3.1494205 11.738656
4.6762519 3.8576581 11.176695
6.5092416 5.3811755 12.476584
4.7079635 3.8962247 7.3932037
0.26461068 0.19271566 5.500236
0.45878142 0.36053503 5.3988647
5.9800668 4.8583655 29.70187
3.8196185 3.124259 13.473347
4.2779818 3.5128479 11.509348
4.1814394 3.4421101 8.929019
4.9395142 4.0776806 7.0219555
4.9879656 4.142621 6.4515166
5.2490635 4.3640985 5.5865693
4.2435102 3.5318277 2.9765382
4.6393018 3.8626022 2.5273397
21.916206 18.26639 5.5081301
22.134026 18.447931 2.679728
5.1300173 4.2485003 6.01366
5.0654821 4.1980267 4.8739624
4.5213671 3.7484198 3.5368602
5.9807272 4.9653168 2.7945554
4.5469995 3.7763467 1.5162911
22.038233 18.303005 4.0877824
22.268576 18.50087 1.2615371
0.055454534 0.02467625 5.444066
2.8953109 2.3075376 23.535988
3.6637175 2.9480953 22.631895
4.5140729 3.6686773 18.642971
3.8380008 3.1348014 11.734054
4.6896892 3.8413115 11.176695
6.5127602 5.3459229 12.447654
4.7264876 3.8838367 7.400878
0.26528177 0.19179083 5.500236
0.46003714 0.35893136 5.3988647
4.40519 3.5534997 21.828125
3.8305008 3.1109068 13.473347
4.3104653 3.5144005 11.563363
4.2015066 3.4340951 8.9460831
7.2188849 5.9086699 12.427435
4.9941411 4.1183777 6.4410028
5.1832204 4.2788458 5.5018306
5.5891562 4.6155839 4.8370061
4.1875186 3.4605563 2.9301622
4.2311349 3.4978364 2.3063219
6.7689714 5.5978084 2.6718099
22.013893 18.217964 5.5165234
22.148409 18.329281 2.6739161
5.1448159 4.230567 6.01366
6.0053101 4.9504166 2.7978423
4.5789032 3.7759132 1.5221527
22.147833 18.263773 4.0960703
22.263651 18.365803 1.2579095
0.055540331 0.024482528 5.444066
2.9045668 2.2983816 23.545868
3.668417 2.9308398 22.597628
4.5094261 3.6388371 18.57139
3.8504372 3.1226158 11.738656
4.7067857 3.8279397 11.185472
6.524837 5.3178234 12.435255
4.7474666 3.8733933 7.4123907
0.26571456 0.19069606 5.4952445
0.46128723 0.35732335 5.3988647
4.4146233 3.5357432 21.813606
3.84268 3.0986001 13.478039
4.3227067 3.4993329 11.563363
7.2722039 5.9100409 12.483295
4.9974494 4.0918827 6.4269853
5.1921039 4.2557921 5.4955535
5.6117005 4.6013484 4.8424892
4.1379313 3.395339 2.8884239
4.0104008 3.2918606 2.1845746
6.7884698 5.5741463 2.6718099
22.195005 18.237686 5.5454345
22.273819 18.302444 2.6810694
5.1711211 4.2220283 6.0269623
8.0213079 6.5537291 7.6258178
4.2737274 3.4930632 3.3291395
4.2159591 3.4495213 2.6056387
4.5431652 3.7198763 1.5069126
22.253597 18.22086 4.1036677
22.385599 18.335461 1.2609324
0.055584118 0.024274524 5.4390664
2.9137943 2.2891886 23.555746
3.8613138 3.1091561 11.738656
4.716392 3.8084779 11.176695
6.5433602 5.2950153 12.435255
4.7734113 3.8668857 7.4315782
0.26637858 0.18976738 5.4952445
0.46210894 0.35538632 5.3938932
4.4200516 3.5148358 21.77973
3.8629026 3.0927176 13.510889
4.3179269 3.4705846 11.518351
6.3618026 5.1260958 13.433846
7.3443804 5.9262486 12.571075
8.3413286 6.7402878 11.704115
5.0227709 4.0834117 6.4410028
5.2190037 4.2474699 5.5081077
5.5726023 4.5368528 4.7958841
4.1257172 3.3612881 2.8721921
4.0074925 3.2661266 2.1770825
22.346075 18.231525 5.566885
22.410885 18.284397 2.689564
5.3047457 4.3003531 6.1633077
8.1602793 6.6199079 7.7347145
4.2792001 3.4726911 3.3240731
4.1293416 3.3546557 2.5468934
5.2628241 4.2770023 2.4494185
4.5561228 3.7039952 1.5069126
22.420813 18.227413 4.1223164
22.573496 18.358078 1.2673814
0.055668514 0.024080351 5.4390664
2.9064496 2.2670577 23.432264
5.0977941 4.0551567 20.871489
3.872143 3.0956588 11.738656
4.7371321 3.7979839 11.194251
6.5596094 5.2703795 12.431122
4.7818851 3.8461823 7.4239035
0.2672756 0.18900234 5.500236
0.46334663 0.35377112 5.3938932
4.4382133 3.5040591 21.808767
3.8858328 3.0888786 13.553124
4.3504343 3.4717855 11.572366
6.3979864 5.1185207 13.472239
7.3697252 5.9043441 12.579056
8.3700933 6.715373 11.711465
5.0536447 4.0792942 6.4620304
5.2489352 4.2414579 5.5237999
5.6241755 4.546288 4.8260407
4.1615343 3.3663681 2.8884239
4.0188689 3.2521179 2.1770825
4.3812943 3.5466535 1.7468283
22.516455 18.239988 5.5929985
22.579052 18.290693 2.7016351
5.3575363 4.3122444 6.2065392
5.7248459 4.6111698 5.4361062
4.2778687 3.4469142 3.3139405
4.1728196 3.3658662 2.5657759
5.2777214 4.2586055 2.4494185
4.6446681 3.7491276 1.5303589
22.572927 18.220577 4.1382017
22.719067 18.345081 1.2716136
0.055752233 0.023885885 5.4390664
2.917417 2.2592769 23.456961
3.4277835 2.6802866 20.943043
5.1658044 4.0798941 21.091
3.8844557 3.083338 11.743258
4.752234 3.7829163 11.19864
6.5801663 5.2492051 12.435255
0.26817051 0.18823336 5.505228
0.46457872 0.35215157 5.3938932
4.4612999 3.4970748 21.862001
3.8965912 3.0752957 13.553124
4.3847084 3.4741533 11.630881
5.1333156 4.0774717 10.793233
7.4067974 5.8917131 12.606986
8.3696175 6.6671042 11.678389
5.076201 4.0683193 6.4725437
7.8898301 6.3300419 8.2385645
8.5358086 6.8507519 7.2604623
4.1732597 3.3518214 2.8884239
4.0988617 3.2932382 2.2126701
4.3936477 3.5313385 1.7468283
22.690992 18.250561 5.6200447
22.720371 18.274189 2.7105765
5.3200541 4.2515597 6.1466799
5.7882576 4.6290255 5.4802537
4.3100715 3.448118 3.3291395
4.2235107 3.3824868 2.5888543
5.3036108 4.2490144 2.454349
4.6615195 3.7359316 1.5315312
22.717541 18.206709 4.1527061
22.868717 18.334415 1.2760473
0.055793792 0.02367758 5.4340663
3.4507923 2.6789191 21.02626
5.1659184 4.0507846 21.033733
3.8859882 3.0625048 11.715644
6.6028614 5.2296982 12.443521
0.26906329 0.18746042 5.5102191
0.46580514 0.35052773 5.3938932
4.4943113 3.4976919 21.963629
3.8977938 3.0542252 13.520274
5.1598039 4.0692182 10.818829
8.4619751 6.6925268 11.773943
7.8753443 6.2733612 8.2009039
8.4713755 6.750556 7.1864429
4.2680564 3.403518 2.9440751
4.110332 3.2789106 2.2126701
4.4096971 3.5189724 1.7482384
22.835167 18.235617 5.6396294
22.869631 18.263136 2.7204123
5.2939138 4.2004733 6.1001229
5.7030849 4.5283623 5.3860726
4.3659635 3.4679074 3.3620708
4.2352915 3.3677235 2.5888543
5.2334113 4.1628642 2.4165485
4.5794463 3.6439753 1.5022233
22.870081 18.198217 4.1685915
23.022478 18.32604 1.2806826
0.055876102 0.023482678 5.4340663
3.7787118 2.8841913 30.218803
3.7488494 2.8893678 22.778753
5.2024064 4.0501494 21.124403
3.8966546 3.0489213 11.715644
6.6277127 5.2118368 12.45592
0.26971602 0.18652007 5.5102191
0.46702585 0.34889966 5.3938932
4.5303655 3.5004268 22.079775
3.8975348 3.0321238 13.482732
5.1637096 4.0431433 10.797499
7.1584582 5.613028 12.120203
5.7052059 4.512218 5.9474916
8.4686537 6.7001886 7.1645107
4.3841023 3.471091 3.0136392
4.0999479 3.2472732 2.201432
4.4031539 3.488663 1.7411882
22.987213 18.225988 5.6610799
23.0308 18.260544 2.7315893
5.6299777 4.4383607 5.3036637
4.411891 3.4793401 3.3874025
5.240499 4.1387172 2.4132614
4.5921378 3.6279676 1.5022233
23.018951 18.18581 4.1837869
23.17646 18.316813 1.2853177
0.055999305 0.023300752 5.4390664
3.789376 2.8714528 30.223745
3.7581036 2.8756454 22.773857
5.177537 4.0018415 20.966927
3.8949308 3.0257132 11.678823
6.6525192 5.1938653 12.468318
7.8908763 6.1673198 12.067284
0.27036545 0.18557745 5.5102191
0.46824092 0.3472673 5.3938932
4.5455489 3.4868863 22.094294
3.9080949 3.0185006 13.482732
5.1716142 4.0202918 10.784701
9.8671999 7.6814857 16.632921
6.5888009 5.1366963 9.1351748
5.3514256 4.1976218 6.7634211
5.5647945 4.3696799 5.7874303
8.3473072 6.5569367 7.0438867
4.347435 3.4174399 2.9811759
4.1732092 3.2816575 2.2332735
4.4153047 3.4732718 1.7411882
23.154909 18.227676 5.6862602
23.188314 18.253969 2.7423191
5.1642928 4.0391974 5.9205465
5.19982 4.0699005 4.8916216
4.4647393 3.4958091 3.4178007
4.9016614 3.8420393 2.9665039
4.5321097 3.5549192 1.4799492
23.179703 18.181757 4.2010536
23.334585 18.309818 1.2901545
0.056080297 0.023105133 5.4390664
3.7931662 2.8535368 30.174351
3.7648749 2.8600459 22.754276
3.8590579 2.9763057 11.540748
6.6795053 5.1775079 12.48485
7.8996944 6.1299129 12.048096
0.27077252 0.18447076 5.505228
0.46987972 0.34594643 5.3988647
4.5586925 3.47176 22.099133
3.9309325 3.0142908 13.524967
4.1809378 3.218714 10.973704
13.124176 10.128985 27.187218
9.9249468 7.6709504 16.68479
6.5530725 5.072165 9.0616713
8.3602524 6.5200448 7.0356622
4.327908 3.3777146 2.9603066
4.184639 3.2670703 2.2332735
4.4311829 3.4607913 1.7425983
23.280319 18.195137 5.7011824
23.353907 18.252647 2.7539432
5.1960549 4.0348859 5.9404993
5.1469707 3.9996421 4.8298154
4.4735117 3.4775572 3.4152675
4.8935523 3.8081822 2.9539156
6.5398951 5.0911903 2.9736981
4.4716272 3.4823344 1.4576752
23.317261 18.158545 4.2141767
23.485062 18.295799 1.2945881
0.056160606 0.022909237 5.4390664
3.8031039 2.8402789 30.174351
3.7764616 2.8481128 22.764067
4.8503141 3.6951344 19.540104
3.8275416 2.9307497 11.41648
6.7064576 5.1610246 12.501382
7.9362788 6.1140375 12.071121
0.27117515 0.18336348 5.500236
0.47108445 0.34430414 5.3988647
4.5828161 3.4649224 22.157206
3.9428036 3.0015962 13.529659
4.2855473 3.2754838 11.216769
13.163593 10.086285 27.195749
7.4415584 5.7101879 12.495266
6.5707378 5.0492592 9.0616713
4.3282466 3.3465157 5.4562254
7.8051872 6.0412903 8.0408421
4.3559923 3.3728094 3.6965563
4.4657316 3.460263 3.0437834
3.9798365 3.0848765 2.1227646
4.5152645 3.5011532 1.769389
23.456238 18.201096 5.7282286
23.507969 18.241234 2.764226
5.2041936 4.0121641 5.9338484
5.2185063 4.026094 4.8827925
4.4856234 3.4619207 3.4152675
6.5389447 5.0538917 2.9654803
4.5568166 3.5231929 1.4799492
23.482365 18.155796 4.2321343
23.663385 18.302349 1.3004326
0.056240235 0.022713061 5.4390664
3.8179886 2.830688 30.213865
4.8750887 3.687185 19.587824
3.7615376 2.8594401 11.190955
6.7356129 5.1461253 12.522047
7.9397507 6.0726666 12.044258
0.27181354 0.1824158 5.500236
0.47228339 0.34265766 5.3988647
4.5717607 3.4315503 22.0459
3.9587641 2.9919767 13.548431
4.2605362 3.2328713 11.122245
13.215327 10.052905 27.229876
7.4710326 5.6914806 12.511226
6.5721507 5.0139551 9.0396204
4.308784 3.3075006 5.4176755
7.8262277 6.0140076 8.0408421
4.341218 3.3371966 3.6746247
4.4777832 3.444654 3.0437834
3.9905803 3.0709653 2.1227646
4.573072 3.5204852 1.7863094
23.566326 18.155083 5.7394199
23.622786 18.198576 2.7700381
5.1499729 3.9417787 5.8573618
5.521328 4.2290568 5.1476765
4.3950253 3.3675859 3.339272
5.1067095 3.9185367 2.3294423
4.4881177 3.4451127 1.4553306
23.635944 18.143068 4.2480197
23.802416 18.277449 1.3042616
0.056319173 0.022516606 5.4390664
3.8309758 2.8196464 30.238562
3.0460415 2.2641163 18.270248
4.853312 3.6441543 19.449436
3.7761745 2.849823 11.204763
12.004623 9.0857239 27.657686
6.7647452 5.1310854 12.542711
0.27220789 0.18130659 5.4952445
0.47347662 0.34100699 5.3988647
4.5232348 3.3705094 21.755533
3.9705641 2.9791756 13.553124
4.2857056 3.2284582 11.158254
13.260745 10.014573 27.251207
4.2271409 3.1970396 7.0927725
6.6004224 4.9991703 9.0543213
4.320303 3.2924399 5.4176755
7.8533621 5.991375 8.0471191
4.3428688 3.3144124 3.6664004
4.6658053 3.5634379 3.1597233
4.0012755 3.0570171 2.1227646
4.6310692 3.5394561 1.8032297
23.812748 18.212818 2.7843447
5.1755919 3.9328136 5.8706636
5.5264034 4.2024183 5.1388469
4.3655825 3.320905 3.3088739
6.6867595 5.0939665 3.0147858
4.5001163 3.4294252 1.4553306
23.957453 18.263916 1.3088969
0.056397427 0.022319879 5.4390664
3.8458135 2.8099232 30.278074
3.0440941 2.2462156 18.211506
4.6266403 3.4487751 18.495039
3.7860992 2.8366244 11.204763
6.7938542 5.1159043 12.563376
0.2728391 0.1803553 5.4952445
0.47466409 0.33935216 5.3988647
3.7012656 2.7380145 17.763008
3.9850912 2.96839 13.567202
4.3649402 3.2643239 11.333801
13.308141 9.9776106 27.276802
4.2406845 3.1840742 7.0967622
6.6259618 4.982213 9.0653467
4.2891097 3.245064 5.3651075
4.8117595 3.6444347 4.9494624
4.3610773 3.3042829 3.6718831
4.6782155 3.5471296 3.1597233
4.0156159 3.0458331 2.1246376
4.6166458 3.5029721 1.7933595
7.3711944 5.5606999 8.3049297
4.6668029 3.5231202 4.3412504
4.2911468 3.2406983 3.2455444
4.1099496 3.1072297 2.4692655
6.7496958 5.104775 3.0345078
4.4694214 3.3814371 1.4424351
0.056474999 0.02212288 5.4390664
3.8549697 2.7960255 30.273136
4.5618553 3.3757784 18.189632
3.7787337 2.8105659 11.154136
10.660586 7.952055 24.440491
6.8274479 5.1039524 12.592307
0.273467 0.1794018 5.4952445
0.47584575 0.33769321 5.3988647
3.7097876 2.724334 17.758169
4.0023665 2.9595914 13.590666
4.3745604 3.2477698 11.3293
13.35544 9.9404373 27.302399
4.2517734 3.1692519 7.0967622
4.9861069 3.7220089 6.8234963
4.3118167 3.2386391 5.3791256
4.9177814 3.6977923 5.0436158
4.319119 3.2488234 3.6280198
4.6657948 3.5121295 3.1434917
4.0262237 3.0317976 2.1246376
4.636508 3.4926078 1.7961795
7.3696399 5.5192685 8.2816515
4.8440294 3.6304369 4.4913516
4.2851872 3.2127702 3.2328784
4.1207709 3.0928645 2.4692655
6.8467751 5.1407247 3.0690215
4.5900183 3.4475498 1.47526
0.056593757 0.021937849 5.444066
3.8653369 2.7830062 30.278074
5.0452547 3.6685576 30.013899
3.7822349 2.792717 11.135726
10.65556 7.8905644 24.365877
6.8610406 5.0918279 12.621238
0.27409157 0.17844613 5.4952445
0.47658563 0.33572349 5.3938932
4.6405578 3.3829327 22.147528
4.0279751 2.9568348 13.642286
4.3876228 3.2337718 11.333801
13.400547 9.9015074 27.323727
4.2385874 3.1364675 7.0568619
4.9173555 3.6440287 6.7132416
6.5102015 4.8543811 8.0601034
4.9712081 3.7108715 5.0844159
4.2634254 3.1836901 3.5731905
4.4793115 3.3473265 3.0136392
4.0776258 3.0482578 2.145241
4.4335384 3.3155208 1.7172177
7.4248176 5.5202427 8.321557
4.9993596 3.7196679 4.620851
4.247963 3.1617589 3.1974142
6.713232 5.0039096 3.0032809
4.6682673 3.4809 1.4951894
0.056669991 0.021740166 5.444066
3.8750274 2.7694964 30.278074
5.0555525 3.6491363 29.999214
3.7639635 2.7449114 14.939911
3.7856572 2.7748775 11.117315
6.8946314 5.0795312 12.650168
0.2747128 0.1774883 5.4952445
0.47775459 0.33405784 5.3938932
4.6258612 3.3475547 22.021702
4.0717444 2.9671471 13.754912
4.474432 3.2737086 11.527353
13.447644 9.8639259 27.349323
4.2422252 3.1163015 7.0448923
4.7580032 3.5002792 6.4817057
6.464046 4.7849474 7.9830036
5.0247846 3.7236223 5.1252155
4.3517718 3.2260616 3.6362443
4.4945264 3.3343096 3.0159578
4.1143007 3.0533447 2.1583521
4.4566402 3.308603 1.7214478
4.8364573 3.5697064 5.4350233
4.8757586 3.6013336 4.4972382
4.2104349 3.111047 3.1619496
4.3903804 3.2475514 2.611933
6.9356394 5.1321235 3.0920305
4.6842961 3.4674759 1.4963617
0.056745533 0.021542219 5.444066
3.884038 2.7555039 30.273136
5.0666046 3.6302812 29.989422
3.7674763 2.7273796 14.916052
6.9327631 5.0703845 12.687365
4.7652326 3.4889712 7.1476026
0.27533066 0.17652829 5.4952445
0.4793559 0.33269173 5.3988647
6.2474642 4.4878249 29.653473
4.0890679 2.957973 13.778377
13.490428 9.8230658 27.366388
4.2409034 3.092597 7.0249419
4.6743689 3.4136713 6.353075
6.423234 4.720119 7.9129124
5.0377517 3.7060599 5.1252155
4.3630061 3.2108514 3.6362443
4.6844826 3.4499435 3.1318977
4.1510606 3.0582128 2.1714635
4.5840106 3.3784063 1.7637489
4.9512916 3.6278322 5.54809
4.9111176 3.6010227 4.5178404
4.1726046 3.0606363 3.1264851
4.4529042 3.2698135 2.6413057
6.8697858 5.04638 3.0558734
4.6963716 3.4511034 1.4963617
0.056862392 0.02135581 5.4490662
3.8942676 2.7423766 30.278074
5.0717778 3.6072621 29.945366
3.776974 2.7142122 14.916052
3.9394727 2.8539045 8.9821558
6.9526973 5.0478067 12.691498
4.7877536 3.4798543 7.1629529
0.27570114 0.17541189 5.4902525
0.48007512 0.33071437 5.3938932
6.2927713 4.4871526 29.793818
4.1021714 2.9456942 13.787762
13.535202 9.7835531 27.387716
4.2394686 3.0689402 7.004992
4.6450849 3.3674867 6.2979474
6.3791676 4.653533 7.8393173
4.9846478 3.6402466 5.0593085
4.3302946 3.1635361 3.6006052
4.7680178 3.4858584 3.1782737
4.1804199 3.0573876 2.1808286
4.7893519 3.504009 1.8342505
4.979022 3.6215079 5.5647173
5.3321543 3.8811934 4.885735
4.1658392 3.0333652 3.1138194
4.3505974 3.1713736 2.5762661
4.7044621 3.4318244 1.4951894
0.056936592 0.021157192 5.4490662
3.9019063 2.7274311 30.263258
5.0893292 3.5930595 29.974735
3.7937167 2.7062125 14.944683
3.9494107 2.8401358 8.9821558
6.9794064 5.0300879 12.708029
11.625702 8.3878775 17.24024
0.27631176 0.17444846 5.4902525
0.48166683 0.32933712 5.3988647
4.6534801 3.2938468 21.987825
5.0665908 3.6114519 16.97415
13.573509 9.7392893 27.39625
4.2354736 3.0435731 6.9810519
4.7008381 3.382935 6.35675
4.9973245 3.6228247 5.0593085
4.4597855 3.2343202 3.6965563
4.7586455 3.4535825 3.164361
4.2135758 3.0591185 2.1920669
4.9645729 3.6056664 1.8934717
4.9916334 3.6041057 5.5647173
5.2899733 3.8223135 4.8357015
4.1309838 2.9859762 3.080888
5.872057 4.2506804 2.6121259
4.716413 3.4153817 1.4951894
0.057010096 0.020958317 5.4490662
3.9126799 2.7146802 30.273136
5.1018405 3.5752726 29.974735
3.7958302 2.687778 14.916052
5.7786255 4.1128635 16.769215
3.9476044 2.8179834 8.9558201
7.0014997 5.0089693 12.716295
11.634063 8.3323145 17.209539
0.27667391 0.1733304 5.4852614
0.48281351 0.3276538 5.3988647
4.6762633 3.2855315 22.041059
5.0763493 3.5917513 16.964766
4.5037317 3.1995702 11.486842
13.622293 9.7024393 27.426111
4.2338057 3.020021 6.9611015
4.6795158 3.3428586 6.3126483
6.1161346 4.3965654 7.4818535
5.0036211 3.6008115 5.0530314
4.5287385 3.2602642 3.7431612
4.7706718 3.4369507 3.164361
4.2392726 3.0552337 2.199559
5.1249943 3.6949198 1.9470531
5.0770192 3.6388626 5.6445298
4.8368845 3.4692993 4.4177728
4.3059983 3.0896535 3.1999471
6.2358255 4.4809155 2.7616851
4.7322531 3.4017348 1.4963617
0.057082906 0.020759188 5.4490662
3.9285319 2.7054124 30.322529
5.1151252 3.5580237 29.979631
5.7817774 4.0847769 16.736998
3.9574168 2.8041866 8.9558201
7.0372963 4.9975328 12.749359
11.65524 8.2860823 17.198027
0.2770316 0.17221189 5.4802694
0.48395428 0.32596645 5.3988647
3.0916684 2.1561925 14.54963
5.09168 3.5759928 16.97415
4.5219893 3.188848 11.504848
13.662465 9.6593456 27.438908
4.2320256 2.9965177 6.9411516
4.6745625 3.3147376 6.290597
6.1401529 4.3814034 7.4923668
5.0098257 3.5787988 5.0467544
4.540091 3.2444358 3.7431612
4.7321949 3.3842015 3.1318977
4.2763042 3.0592988 2.2126701
5.1378608 3.6770077 1.9470531
5.1383681 3.6557503 5.6977382
4.8588428 3.4594276 4.4266019
4.4220943 3.1496291 3.2759426
6.0053878 4.2836213 2.6565006
4.7440982 3.3851953 1.4963617
0.057155021 0.020559805 5.4490662
3.9443667 2.6960669 30.371922
5.12919 3.5413039 29.989422
5.0644565 3.5331933 19.788248
5.8231926 4.0836382 16.815241
3.9613047 2.7862225 8.9426537
7.0408974 4.9632101 12.724562
4.7965908 3.3849468 7.1053905
0.27763104 0.17124382 5.4802694
0.48464581 0.32397923 5.3938932
3.0991759 2.1453874 14.54963
5.1083789 3.5611587 16.98823
4.5366597 3.1755404 11.513849
13.711044 9.6220837 27.468769
4.2301326 2.9730635 6.9212012
4.6944218 3.3042541 6.3016229
6.1845112 4.3805571 7.5274124
5.006412 3.5500324 5.0310621
4.7873254 3.3984332 3.1597233
4.3171959 3.0658267 2.2276545
4.5601087 3.241909 1.1537265
5.1510983 3.6377919 5.6977382
9.2115316 6.5101094 8.2968578
4.3873024 3.1018224 3.2430112
5.1686964 3.658313 3.0147591
6.0203032 4.2626324 2.6565006
4.7558861 3.3686152 1.4963617
0.057226442 0.02036017 5.4490662
3.9550395 2.6831543 30.3818
5.1381602 3.5210757 29.969841
5.1013026 3.5324886 19.883686
3.9690423 2.7710066 8.9382648
7.0881534 4.9595747 12.77829
4.8110023 3.3700216 7.1092277
0.27798039 0.17012373 5.4752779
0.48577374 0.32228556 5.3938932
3.0942137 2.1260149 14.491558
4.2281289 2.9496598 6.9012513
4.7087059 3.289789 6.3052979
6.1910129 4.3527894 7.5168991
5.0665174 3.5661397 5.0781393
4.9421329 3.4798751 4.0474644
4.7557054 3.3510826 3.1318977
4.3998647 3.1014864 2.263242
4.8693776 3.433712 1.8413006
4.6155457 3.2571263 1.1639853
5.059813 3.5469201 5.584671
9.191184 6.4477391 8.2585974
4.5039611 3.1607771 3.3190067
5.1814351 3.6402485 3.0147591
6.0274191 4.2361612 2.6532137
4.7159243 3.3156505 1.4811215
0.057297163 0.020160289 5.4490662
2.4155483 1.6265963 18.512764
5.1596813 3.5094175 30.023689
5.1074514 3.5104332 19.859827
4.2586761 2.9423862 12.254139
3.976722 2.7557709 8.9338751
7.1077337 4.9364076 12.782422
0.27857253 0.16915236 5.4752779
0.48511404 0.31941664 5.3740072
8.7387867 6.0420933 17.448092
4.2260127 2.9263058 6.8813014
4.720161 3.2733321 6.3052979
6.235414 4.3515611 7.5519443
5.1108418 3.5707247 5.1095238
4.9062672 3.4290671 4.0090837
4.8073044 3.36239 3.1574047
4.4106641 3.0861092 2.263242
4.8970537 3.4276972 1.8469406
4.6268873 3.2409952 1.1639853
8.045084 5.5977802 8.8104057
4.3408513 3.0226331 3.9350944
4.4194622 3.07851 3.2506111
5.2909007 3.6896369 3.0693083
6.0499153 4.2204995 2.6565006
4.6995678 3.2796969 1.4729153
0.057367187 0.019960163 5.4490662
2.4212115 1.6181548 18.512764
5.1710558 3.4908154 30.018793
5.1233735 3.4951069 19.874144
4.2044725 2.8833075 12.070038
3.984344 2.7405155 8.9294863
7.1828437 4.9514952 12.885746
0.2791613 0.16817893 5.4752779
0.48845834 0.31917763 5.3988647
4.6589832 3.153398 21.69746
5.9624386 4.0644045 19.677183
8.7469225 6.0026984 17.422495
4.2262683 2.9047096 6.8653412
4.7315583 3.2568359 6.3052979
6.2241817 4.3114924 7.5204029
5.1520615 3.572825 5.1377697
4.145184 2.8756549 3.3922536
4.8590393 3.3733776 3.1829114
5.031116 3.4954314 1.8906518
4.6341391 3.2220206 1.1630527
7.9969845 5.5229836 8.7372446
4.3447256 3.0028663 3.929208
4.3060775 2.9772589 3.1619496
5.4007735 3.7383046 3.1238577
4.671031 3.235595 1.4611921
0.057436511 0.019759793 5.4490662
2.4249022 1.6084048 18.497946
5.1781344 3.4693439 29.989422
5.1417232 3.4813859 19.898003
4.078846 2.7762771 11.683427
3.9919081 2.7252407 8.9250965
7.3138833 5.0042534 13.088261
0.27974665 0.16720346 5.4752779
0.49046439 0.31805003 5.4088073
4.6981344 3.1560397 21.828125
6.0194688 4.072576 19.817966
8.7548885 5.9633203 17.396898
4.2264252 2.8831472 6.8493814
4.8240776 3.2957599 6.4118781
6.1774812 4.2473102 7.4468079
5.1773257 3.5636466 5.1503234
4.2585154 2.9323096 3.4744978
4.8452516 3.3388011 3.1666799
7.1797562 4.9511495 2.6534796
5.1059165 3.5000732 5.5946469
4.1885252 2.8733566 3.7820501
4.3839765 3.0085545 3.2100801
5.4137897 3.7194295 3.1238577
7.2778645 5.0019579 3.1627016
4.6822968 3.2192702 1.4611921
0.057505138 0.01955918 5.4490662
2.4363432 1.603775 18.542398
3.09677 2.0593138 17.903107
4.6433911 3.1204066 17.931946
4.0577536 2.7412441 11.595978
4.0013967 2.7112899 8.9250965
7.4360666 5.0498343 13.274243
4.9424081 3.3601878 7.2320285
0.28032857 0.16622593 5.4752779
0.49022621 0.31547168 5.3938932
4.0052576 2.6703787 18.571194
8.7497244 5.9151959 17.345707
4.2264824 2.861619 6.8334208
4.8944764 3.3188553 6.4890561
5.0817313 3.4678788 6.1255937
5.1833067 3.5411618 5.1440468
4.3550305 2.9764106 3.5430343
4.8349376 3.3068631 3.1527669
7.10186 4.8591275 3.5649998
7.2128301 4.9368958 2.6591198
5.1119294 3.4780285 5.5879965
4.1784835 2.8450694 3.7643909
4.4763966 3.0490489 3.2683432
5.5392318 3.7772171 3.1867993
6.0898786 4.1542535 2.6548572
4.7095652 3.2138655 1.4658815
0.057615452 0.019368656 5.4540653
2.439975 1.5939862 18.52758
3.1090384 2.051856 17.932478
4.6517711 3.1025229 17.922401
4.0575614 2.7205353 11.568363
4.0108366 2.6973059 8.9250965
7.5353198 5.0788932 13.418896
4.9461365 3.3375363 7.2205157
0.28090712 0.16524638 5.4752779
3.9464157 2.6112986 18.25663
5.7618752 3.8558986 14.399128
8.7984734 5.9035077 17.401165
4.2314434 2.843487 6.8254404
4.9988456 3.3642125 6.6103368
5.081995 3.4421198 6.1115761
5.3180547 3.6060553 5.263308
4.3584719 2.9564958 3.5375514
4.7804794 3.2451813 3.1110287
7.1648006 4.8655615 3.5874763
4.9523711 3.3643808 1.8497608
5.1426048 3.4727004 5.6079493
4.3022547 2.9074142 3.8644586
4.597723 3.1082482 3.3468719
5.4621763 3.6968069 3.1364462
6.1160741 4.140913 2.6597877
4.7328281 3.2055836 1.4693984
0.057682708 0.019167423 5.4540653
2.4435685 1.5841914 18.512764
4.6563482 3.0821466 17.89854
4.1174536 2.7399056 11.711041
4.0202274 2.6832891 8.9250965
7.5600204 5.0572534 13.431296
8.1429348 5.4533477 11.81017
0.28148222 0.16426483 5.4752779
3.9113774 2.5685306 18.053375
5.7100167 3.7924047 14.237084
7.0172882 4.672966 13.86044
4.23633 2.825356 6.817461
5.0753989 3.3900516 6.6948652
9.1724253 6.1659956 10.940841
5.4274845 3.6526651 5.3574619
4.6301327 3.1195664 3.0090015
7.2009621 4.853477 3.5968413
4.6896429 3.1620297 1.7524685
9.3325748 6.2547445 10.087398
4.3056636 2.887876 3.8585722
4.6049652 3.0897787 3.3443387
5.3168135 3.5714293 3.0483279
6.9849324 4.6936998 3.0180726
0.057749264 0.018965958 5.4540653
2.4497366 1.5760723 18.517702
4.6121836 3.0298147 17.688574
4.1221023 2.7222865 11.697233
4.0315657 2.670562 8.9294863
7.5776272 5.0308337 13.431296
8.1539125 5.4195676 11.798658
0.28205389 0.16328128 5.4752779
3.5569978 2.3181055 16.383772
4.5308585 2.986531 11.284287
7.0444369 4.655632 13.881769
4.2436533 2.808888 6.8134708
4.9572191 3.2861507 6.5258079
9.3422241 6.2329025 11.116068
5.3819404 3.5947833 5.3009696
4.6397614 3.1002274 3.7431612
4.5268393 3.0270519 2.9371185
5.3143415 3.5549781 2.6715631
4.6886916 3.1376369 1.7482384
9.2890644 6.1787043 10.017563
4.5762534 3.0474029 3.3164735
5.4500885 3.6334088 3.1154654
6.9816313 4.6561894 3.009855
0.057772618 0.018754376 5.4490662
4.0166264 2.5641522 30.292894
4.5489545 2.9656017 17.407026
4.0433435 2.650053 11.448698
4.0388618 2.6551573 8.9250965
7.6115904 5.0151887 13.460226
8.175456 5.392837 11.802496
0.28287295 0.16243872 5.4802694
3.5745673 2.3118184 16.427328
3.7298274 2.4297402 12.159372
4.5376124 2.9683137 11.275286
7.0606451 4.6310143 13.881769
4.2509141 2.7924032 6.8094811
4.8921905 3.2185192 6.4265785
5.0285559 3.3296473 6.0064392
10.78963 7.1523833 10.520222
4.6505547 3.0840125 3.7431612
4.4414139 2.9475458 2.8768299
5.3421674 3.5466628 2.6790552
4.7036119 3.1239052 1.7496485
5.0696263 3.3466628 5.4915566
4.2515244 2.8087308 3.7938228
4.5832672 3.0290334 3.3139405
5.5043736 3.6419098 3.1385441
6.9899654 4.6265774 3.006568
0.057837732 0.018552599 5.4490662
4.0294909 2.5526106 30.322529
2.6657033 1.7063627 15.240103
3.6180463 2.3407943 13.823267
3.9723206 2.5837293 11.223174
4.0541234 2.6449687 8.9382648
7.6290498 4.9885888 13.460226
8.1915493 5.3625107 11.798658
0.28343824 0.16145031 5.4802694
3.5868468 2.302042 16.446686
3.7397354 2.4176426 12.164064
5.7165499 3.711067 14.156062
7.0745807 4.6049166 13.877502
4.2606359 2.7775476 6.8094811
4.8693304 3.1791818 6.3824763
4.9954429 3.282697 5.9538713
10.733238 7.0611959 10.441761
4.3154979 2.840184 3.4717562
4.3184934 2.8443072 2.7933531
5.3003192 3.4922848 2.652833
4.7305088 3.1180274 1.7552886
5.0812769 3.3289461 5.4915566
4.2613029 2.7938735 3.7938228
4.5974169 3.0153804 3.3164735
4.7317438 3.1070182 2.7042472
6.9666047 4.5762239 2.9901328
0.057859574 0.01834101 5.444066
2.4726853 1.5544677 18.567095
2.6725028 1.6975931 15.244998
3.6186585 2.323312 13.794636
3.9304307 2.5370045 11.080495
4.0593104 2.6281977 8.9294863
7.6534986 4.9665236 13.472625
8.2155933 5.3373766 11.806333
0.28400007 0.16045995 5.4802694
3.5747156 2.276679 16.354736
3.7539616 2.4083009 12.182837
5.7459397 3.7017004 14.196573
7.092803 4.5816092 13.881769
4.2677751 2.7610219 6.805491
8.7355852 5.6600184 11.362325
4.9919353 3.2554994 5.9363489
10.783895 7.04071 10.466869
4.3813996 2.8616877 3.5156198
4.3135638 2.8195207 2.7840779
5.2659159 3.4433167 2.6303566
7.3387251 4.8005147 2.6675799
5.1961679 3.3783505 5.6012983
4.0948544 2.6643534 3.6407785
4.6079144 2.9993141 3.3164735
4.7311535 3.0830488 2.6979532
7.026051 4.5802445 3.0082116
0.057923242 0.018138928 5.444066
2.4761183 1.5445933 18.552277
2.6784122 1.6882539 15.244998
3.6015677 2.294626 13.699196
3.9047151 2.5011411 10.983843
4.0805492 2.6217797 8.9558201
7.6636906 4.9352069 13.460226
0.28455845 0.15946762 5.4802694
3.581579 2.2635157 16.349897
3.7550664 2.3905489 12.159372
7.1241226 4.5666752 13.911631
4.2773871 2.7461076 6.805491
8.7609921 5.6331582 11.369675
4.9403954 3.1973643 5.8627529
5.0886154 3.2970586 4.9714317
4.1422353 2.6849 3.3209755
4.327096 2.8068571 2.7863967
7.3554373 4.7748685 2.6675799
5.2079291 3.3601916 5.6012983
4.1075249 2.652236 3.6437213
4.5604186 2.9457872 3.2759426
4.7418861 3.0665152 2.6979532
7.0419965 4.5556912 3.0082116
0.057943571 0.017927341 5.4390664
2.48612 1.5388027 18.586851
2.6886055 1.6815938 15.269474
3.6095555 2.2820404 13.699196
3.9084749 2.4843516 10.970035
0.28511336 0.15847336 5.4802694
3.0133352 1.8897387 13.731769
3.7633884 2.3774266 12.159372
6.6098866 4.1932573 16.249126
7.1400199 4.5417795 13.911631
4.2844048 2.7295408 6.8015008
8.7691708 5.5952482 11.354974
4.8975134 3.1454105 5.7996707
5.45368 3.5066233 5.3103848
4.1550989 2.6726866 3.3237171
4.228848 2.7222021 2.7191515
4.8299007 3.1102953 2.4093387
4.8838816 3.1462569 1.7975897
5.2416372 3.3560851 5.6245766
4.1814208 2.6793149 3.6996417
4.4363928 2.8437762 3.182215
4.7640204 3.0572979 2.7042472
9.4937668 6.0949101 4.0156827
0.058005795 0.017724972 5.4390664
2.0624049 1.2666645 15.386212
2.6918635 1.6705879 15.254788
3.6174994 2.2694268 13.699196
3.9485195 2.4904952 11.057483
12.961621 8.2004337 28.175598
13.182377 8.3690872 18.771402
0.28541157 0.15733857 5.4752779
3.0124421 1.8745602 13.697891
3.7687399 2.3624425 12.149986
6.6889644 4.2107487 16.40667
4.2913599 2.7129591 6.7975106
8.7857838 5.5627904 11.351298
4.9265079 3.1397965 5.8206987
11.585477 7.3921838 11.163607
4.2454691 2.7099109 3.3867707
4.212193 2.6907315 2.70292
4.8407283 3.0934167 2.4093387
4.8988762 3.1317737 1.7989997
5.2060485 3.3077331 5.5746942
4.177104 2.6560276 3.6878691
