# .PCD v0.7 - Point Cloud Data file format
VERSION 0.7
FIELDS x y z
SIZE 4 4 4
TYPE F F F
COUNT 1 1 1
WIDTH 1462
HEIGHT 1
VIEWPOINT 0 0 0 1 0 0 0
POINTS 1462
DATA ascii
-1.0008166 -1.4077878 0.59765172
-0.97009254 -1.3655709 0.40949559
-0.97181433 -1.3679901 0.24359439
-1.1010126 -1.5396515 1.7669965
-1.0660708 -1.4918783 1.4186922
-1.0484229 -1.4677151 1.1455393
-1.0234674 -1.4343543 0.90202022
-1.0039514 -1.4075147 0.69086379
-0.97927272 -1.3734146 0.49754718
-0.96303725 -1.3506405 0.32357576
-0.95676082 -1.3423246 0.16017061
-0.045138095 -0.036563415 5.1440773
-0.52292246 -0.70332456 5.5719075
-0.70187902 -0.95307446 5.7139907
-1.3788159 -1.8910774 7.5290208
-1.4781588 -2.0376852 5.9901032
-1.3013532 -1.7992156 4.1366119
-1.2173775 -1.6868087 3.1278543
-1.1632453 -1.6135697 2.4581726
-0.19959068 -0.24361558 5.2855949
-0.35760748 -0.47047579 5.4684653
-0.90324998 -1.2294759 5.9112582
-1.4235704 -1.9509856 6.6219077
-1.387015 -1.9085239 4.9420772
-1.2576766 -1.7349882 3.5752723
-1.1835687 -1.6351414 2.7476361
-1.1346381 -1.5698305 2.1780884
-1.1195692 -1.558699 1.9656976
-1.0841192 -1.5109982 1.5818983
-1.0516272 -1.4662455 1.2676175
-1.0356315 -1.4449955 1.0171524
-1.0156608 -1.4176453 0.79291129
-1.0001383 -1.3964857 0.59483165
-0.96913564 -1.354187 0.40763035
-0.97078711 -1.3564903 0.24270025
-1.0998328 -1.5267105 1.7570201
-1.0641872 -1.4783067 1.4098626
-1.0459859 -1.4535495 1.1379397
-1.0231699 -1.4234025 0.89782411
-1.0033473 -1.3963321 0.68757677
-0.97838956 -1.3620926 0.49520257
-0.96485698 -1.3432486 0.3228851
-0.95561278 -1.3308605 0.15976755
-0.045265447 -0.03640563 5.1440773
-0.52490836 -0.70087314 5.566968
-0.70459479 -0.94980097 5.7090955
-1.3712692 -1.8670046 7.4526691
-1.4725826 -2.0151622 5.939476
-1.2963419 -1.779177 4.1014996
-1.2133292 -1.6688929 3.1030567
-1.1613364 -1.5991257 2.4428227
-0.20043986 -0.24291739 5.2855949
-0.35957196 -0.46964765 5.4734373
-0.90678823 -1.2253051 5.9064183
-1.4170847 -1.927929 6.5609021
-1.3833804 -1.8896189 4.9060674
-1.2560346 -1.7200565 3.5539424
-1.1803921 -1.6188266 2.7276859
-1.1341242 -1.5576384 2.1670628
-1.1187314 -1.546114 1.9551841
-1.0825466 -1.4977412 1.5724831
-1.0518411 -1.4557872 1.2621346
-1.0354829 -1.4341887 1.0125147
-1.0124636 -1.4028139 0.78729212
-0.99939334 -1.3852055 0.59201157
-0.96811122 -1.3428265 0.40576512
-0.97260392 -1.3490536 0.24225317
-1.0985761 -1.5137966 1.7470435
-1.064595 -1.4680387 1.4039763
-1.045993 -1.4429092 1.1328733
-1.0201465 -1.4087946 0.89152992
-1.0026774 -1.3851709 0.68428975
-0.97743934 -1.3507934 0.49285793
-0.96373385 -1.3318487 0.32150373
-0.95439649 -1.3194208 0.15936449
-0.045392253 -0.036247402 5.1440773
-0.52735168 -0.6990366 5.566968
-0.70790595 -0.94733566 5.7090955
-1.3635716 -1.8430079 7.376317
-1.4668673 -1.9927037 5.8888483
-1.2940414 -1.763057 4.0751648
-1.2108334 -1.6532964 3.082392
-1.1574484 -1.5821279 2.423635
-0.20147181 -0.24243771 5.2905865
-0.36120912 -0.46838963 5.4734373
-0.91030854 -1.2211248 5.9015794
-1.4135362 -1.9091023 6.5139742
-1.3796309 -1.8707627 4.8700581
-1.2543038 -1.7051576 3.5326128
-1.1771163 -1.6025541 2.7077358
-1.133539 -1.5454692 2.1560371
-1.1178193 -1.5335537 1.9446703
-1.0808947 -1.4845136 1.5630677
-1.0519948 -1.4453452 1.2566516
-1.0326658 -1.4198182 1.0055584
-1.0119017 -1.391772 0.78354609
-0.99576157 -1.3700674 0.58778149
-0.96701938 -1.3314899 0.40389988
-0.97145408 -1.3375916 0.24135901
-1.0972428 -1.5009102 1.7370671
-1.0649443 -1.4577861 1.39809
-1.0433962 -1.4288052 1.1252737
-1.0197085 -1.3978919 0.88733381
-0.99915963 -1.3702161 0.67935926
-0.97642213 -1.3395176 0.49051329
-0.96254289 -1.320473 0.32012239
-0.95311183 -1.3080059 0.15896143
-0.045518506 -0.036088735 5.1440773
-0.52931821 -0.69657308 5.5620284
-0.71059602 -0.9440456 5.7042003
-1.351263 -1.8131038 7.2761054
-1.4586858 -1.9671711 5.8290153
-1.2930681 -1.7489004 4.0532193
-1.2082436 -1.6377375 3.0617273
-1.1553576 -1.5677572 2.4082851
-0.20231682 -0.24173295 5.2905865
-0.36316919 -0.46754664 5.4784088
-0.91381067 -1.2169347 5.89674
-1.4088418 -1.8889409 6.4623537
-1.3757666 -1.8519558 4.8340483
-1.2509317 -1.6881965 3.5070174
-1.1755338 -1.5887465 2.6917758
-1.132883 -1.5333232 2.1450119
-1.1147225 -1.5181445 1.9306521
-1.0791637 -1.471316 1.5536524
-1.0520886 -1.4349202 1.2511686
-1.0323794 -1.4090582 1.0009208
-1.0112751 -1.3807513 0.7798
-0.99487031 -1.358842 0.58496141
-0.96586025 -1.3201772 0.40203464
-0.97023624 -1.3261542 0.24046485
-1.098047 -1.4910581 1.7304161
-1.0652348 -1.4475489 1.3922038
-1.0432683 -1.4182096 1.1202074
-1.0165193 -1.3833522 0.88103968
-0.99834526 -1.3591086 0.67607224
-0.97533828 -1.3282655 0.48816866
-0.96128434 -1.3091221 0.31874102
-0.95471555 -1.3006436 0.15875989
-0.045644198 -0.035929624 5.1440773
-0.53174651 -0.69472116 5.5620284
-0.71388704 -0.94155937 5.7042003
-1.3504137 -1.7988265 7.2379298
-1.45619 -1.949546 5.7921953
-1.2920119 -1.7347726 4.0312743
-1.2055601 -1.6222171 3.0410624
-1.1550914 -1.555994 2.3967726
-0.20315939 -0.24102525 5.2905865
-0.36479902 -0.46627611 5.4784088
-0.9172945 -1.2127351 5.8919005
-1.4050608 -1.8702154 6.4154258
-1.3704836 -1.8314558 4.7935371
-1.2490164 -1.6733699 3.4856877
-1.1720684 -1.5725538 2.6718256
-1.1341801 -1.5239203 2.1376615
-1.1136528 -1.5056428 1.9201386
-1.0773537 -1.4581485 1.5442369
-1.0521225 -1.424512 1.2456857
-1.0293998 -1.3947536 0.99396437
-1.010584 -1.3697519 0.77605397
-0.99106538 -1.3437791 0.58073127
-0.96463394 -1.308889 0.4001694
-0.96895045 -1.3147416 0.23957069
-1.0965712 -1.4782199 1.7204396
-1.0630599 -1.4340805 1.3833743
-1.0405129 -1.4041688 1.112608
-1.0159414 -1.3724997 0.87684357
-0.99746579 -1.3480237 0.67278522
-0.97418779 -1.3170373 0.48582402
-0.95995843 -1.2977961 0.31735966
-0.95330918 -1.2892689 0.15835683
-0.04580598 -0.035793774 5.1490774
-0.53369367 -0.6922456 5.5570893
-0.71716934 -0.9390617 5.7042003
-1.3431783 -1.7762432 7.1663499
-1.4547638 -1.9335234 5.7599773
-1.2908728 -1.7206732 4.0093288
-1.2044696 -1.6089884 3.0245306
-1.154757 -1.544252 2.3852601
-0.2039995 -0.24031463 5.2905865
-0.36675465 -0.46541837 5.4833803
-0.92076033 -1.2085259 5.8870606
-1.4011664 -1.8515395 6.3684988
-1.3663849 -1.812754 4.7575274
-1.2470132 -1.6585772 3.4643579
-1.1703135 -1.5588143 2.6558657
-1.1333916 -1.5118145 2.126636
-1.1103786 -1.4903075 1.9061204
-1.0754651 -1.4450117 1.5348215
-1.0496006 -1.4107666 1.2374614
-1.0289761 -1.3840419 0.98932678
-1.0125939 -1.3624952 0.77418089
-0.99002838 -1.3326101 0.5779112
-0.96626884 -1.3015697 0.3992368
-0.96759695 -1.3033543 0.23867653
-1.0950192 -1.4654104 1.7104629
-1.0632224 -1.4238836 1.377488
-1.0402507 -1.3936193 1.1075416
-1.0153002 -1.3616682 0.87264746
-0.996521 -1.3369614 0.66949821
-0.9729709 -1.3058335 0.48347941
-0.96152395 -1.2904663 0.31666899
-0.95481944 -1.2819268 0.15815529
-0.045930643 -0.035633661 5.1490774
-0.53610682 -0.69037843 5.5570893
-0.71982187 -0.9357456 5.6993051
-1.3385158 -1.757295 7.109086
-1.4532436 -1.9175347 5.7277598
-1.2939831 -1.7123352 4.0005503
-1.2016072 -1.5935403 3.003866
-1.1543549 -1.5325314 2.3737476
-0.20483711 -0.23960106 5.2905865
-0.36837706 -0.46413532 5.4833803
-0.92497325 -1.2053045 5.8870606
-1.3961126 -1.8315411 6.3168778
-1.3621726 -1.7941031 4.721518
-1.2449219 -1.6438192 3.4430282
-1.1684772 -1.5451062 2.6399055
-1.1325328 -1.499733 2.1156106
-1.1091516 -1.4778656 1.8956068
-1.0734981 -1.4319062 1.5254062
-1.0495032 -1.4004022 1.2319785
-1.0284902 -1.3733503 0.98468918
-1.0117869 -1.35153 0.77043486
-0.98892564 -1.3214649 0.57509118
-0.96492255 -1.2903211 0.39737156
-0.96617573 -1.2919925 0.23778237
-1.0933915 -1.4526299 1.7004865
-1.060897 -1.4104729 1.3686585
-1.0373368 -1.3796432 1.0999421
-1.0145957 -1.3508579 0.86845136
-0.9926759 -1.3221461 0.66456765
-0.97168767 -1.2946544 0.48113477
-0.96007729 -1.2791809 0.31528762
-0.95329189 -1.2705935 0.15775223
-0.046054751 -0.035473119 5.1490774
-0.53803456 -0.68789101 5.5521502
-0.72308385 -0.93322724 5.6993051
-1.3328285 -1.7372169 7.0470505
-1.4540005 -1.904686 5.7047472
-1.2868963 -1.690657 3.9610486
-1.2003537 -1.5803727 2.9873343
-1.1538851 -1.5208323 2.3622351
-0.20548318 -0.23866642 5.2855949
-0.36999494 -0.46284664 5.4833803
-0.9291749 -1.2020684 5.8870606
-1.3940892 -1.815707 6.279336
-1.356524 -1.7737749 4.6810069
-1.2411611 -1.6270225 3.4174328
-1.1665595 -1.5314301 2.6239452
-1.1295509 -1.4849777 2.1009099
-1.1057007 -1.4626058 1.8815886
-1.0714527 -1.4188319 1.5159907
-1.0468271 -1.3867184 1.223754
-1.0279423 -1.362679 0.98005158
-1.010916 -1.340587 0.76668876
-0.98486954 -1.3065131 0.57086104
-0.9635095 -1.2790977 0.39550632
-0.96468699 -1.2806566 0.23688821
-1.089432 -1.4369034 1.6871846
-1.0609322 -1.4003177 1.3627722
-1.0369409 -1.369141 1.0948756
-1.0138284 -1.3400694 0.86425525
-0.99158806 -1.3111401 0.66128063
-0.97326964 -1.2873772 0.47996244
-0.95856369 -1.2679212 0.31390625
-0.95169687 -1.2592866 0.15734917
-0.046178292 -0.035312138 5.1490774
-0.54043245 -0.68600875 5.5521502
-0.72571033 -0.92989492 5.6944098
-1.3270175 -1.7171999 6.9850144
-1.4487311 -1.8841122 5.6587219
-1.2811316 -1.6709501 3.925936
-1.1973133 -1.5649985 2.9666693
-1.1533477 -1.5091553 2.3507226
-0.20631501 -0.23794769 5.2855949
-0.37160832 -0.46155229 5.4833803
-0.93259293 -1.197826 5.8822217
-1.3972516 -1.8067348 6.2652574
-1.3507503 -1.7535081 4.6404958
-1.2388873 -1.6123401 3.3961029
-1.1663951 -1.5201771 2.6119754
-1.1285418 -1.4729526 2.0898843
-1.1043177 -1.4502256 1.8710749
-1.0693294 -1.4057897 1.5065755
-1.0465993 -1.376399 1.2182711
-1.0273325 -1.3520284 0.97541398
-1.009981 -1.3296669 0.76294273
-0.98362219 -1.2954261 0.56804103
-0.96203011 -1.2679002 0.39364108
-0.96313113 -1.269347 0.23599406
-1.0876422 -1.4241897 1.6772081
-1.0584569 -1.3869662 1.3539426
-1.0364845 -1.3586584 1.0898093
-1.0129981 -1.3293027 0.86005914
-0.9904356 -1.3001581 0.65799361
-0.97186786 -1.2762381 0.47761783
-0.95998353 -1.2606277 0.31321558
-0.95003468 -1.2480067 0.15694611
-0.046301275 -0.035150733 5.1490774
-0.54282379 -0.68411809 5.5521502
-0.72895193 -0.927356 5.6944098
-1.3210833 -1.697245 6.9229789
-1.4409429 -1.8605092 5.6034913
-1.276709 -1.6531996 3.8952124
-1.1941801 -1.549665 2.9460046
-1.1507877 -1.4949609 2.3353724
-0.20714436 -0.23722607 5.2855949
-0.37288111 -0.45983845 5.4784088
-0.93676847 -1.1945633 5.8822217
-1.398247 -1.7950397 6.2417936
-1.3461865 -1.7350233 4.6044865
-1.2365263 -1.5976938 3.3747735
-1.1643237 -1.5065598 2.5960152
-1.1253914 -1.4582691 2.0751836
-1.1028616 -1.437873 1.8605614
-1.0671279 -1.3927796 1.4971601
-1.0437696 -1.3627785 1.2100466
-1.0239685 -1.3378811 0.96845758
-1.0089823 -1.3187695 0.75919664
-0.98230952 -1.2843641 0.56522095
-0.96048421 -1.2567284 0.39177582
-0.96453208 -1.2620206 0.23554698
-1.0857773 -1.4115063 1.6672316
-1.0559018 -1.3736494 1.3451133
-1.0333408 -1.3447776 1.0822097
-1.012105 -1.3185582 0.85586303
-0.98921853 -1.2892002 0.6547066
-0.97040027 -1.2651244 0.47527319
-0.95835024 -1.2494106 0.31183422
-0.94830543 -1.2367536 0.15654305
-0.046423689 -0.034988895 5.1490774
-0.54520845 -0.68221909 5.5521502
-0.73218459 -0.92480588 5.6944098
-1.315026 -1.6773525 6.8609428
-1.4330081 -1.836984 5.5482612
-1.2662958 -1.6279389 3.8469329
-1.1909547 -1.5343726 2.9253399
-1.1501069 -1.4833359 2.3238599
-0.20797117 -0.23650156 5.2855949
-0.374484 -0.45853406 5.4784088
-0.94093257 -1.1912861 5.8822217
-1.3949169 -1.7779294 6.1995587
-1.3415103 -1.7165918 4.5684767
-1.2324748 -1.5810267 3.3491776
-1.1640223 -1.4953532 2.5840452
-1.1221521 -1.4436256 2.060483
-1.1013329 -1.4255482 1.8500476
-1.0672269 -1.3828834 1.4908831
-1.0434119 -1.3525054 1.2045637
-1.023223 -1.3272821 0.96381998
-1.0050899 -1.3042234 0.75357759
-0.98093164 -1.2733271 0.56240088
-0.95887202 -1.2455832 0.38991058
-0.96589363 -1.2546999 0.2350999
-1.083837 -1.3988532 1.6572551
-1.0557411 -1.3635632 1.339227
-1.0327516 -1.3343445 1.0771434
-1.0083733 -1.3042459 0.8495689
-0.98793733 -1.2782669 0.65141958
-0.96886712 -1.2540367 0.47292855
-0.95967805 -1.242139 0.31114352
-0.94650912 -1.2255279 0.15613998
-0.046545543 -0.034826636 5.1490774
-0.54758656 -0.68031186 5.5521502
-0.73540831 -0.92224443 5.6944098
-1.3097714 -1.6586949 6.803679
-1.4261336 -1.8150731 5.4976335
-1.2704935 -1.6216235 3.8425436
-1.1893704 -1.5213385 2.9088082
-1.1473862 -1.4692079 2.3085101
-0.20879544 -0.23577417 5.2855949
-0.37574333 -0.45681265 5.4734373
-0.94430256 -1.1870109 5.8773823
-1.4011145 -1.7730495 6.1995587
-1.3367219 -1.6982144 4.5324669
-1.2299327 -1.5664589 3.3278482
-1.1617978 -1.4817959 2.568085
-1.1209145 -1.4316918 2.0494576
-1.0997318 -1.413252 1.839534
-1.0648811 -1.3699306 1.4814678
-1.0429952 -1.3422515 1.1990808
-1.0196992 -1.3132058 0.95686358
-1.003951 -1.2933829 0.7498315
-0.98242962 -1.2661054 0.56099087
-0.95719391 -1.2344645 0.38804534
-0.96416432 -1.2434497 0.23420574
-1.0818217 -1.3862312 1.6472787
-1.0530372 -1.3503077 1.3303974
-1.0321022 -1.3239319 1.072077
-1.0073427 -1.2935565 0.8453728
-0.98949248 -1.2710843 0.64977604
-0.96726829 -1.2429751 0.47058392
-0.9579255 -1.2309654 0.30976218
-0.94464612 -1.21433 0.15573692
-0.046666823 -0.034663949 5.1490774
-0.54995799 -0.67839622 5.5521502
-0.73862302 -0.91967177 5.6944098
-1.3044025 -1.6400943 6.7464156
-1.4203362 -1.7947649 5.4516082
-1.267244 -1.6058985 3.8162091
-1.1859685 -1.5061233 2.8881433
-1.1445808 -1.4551169 2.29316
-0.20961718 -0.23504388 5.2855949
-0.37699527 -0.45508805 5.4684653
-0.94844031 -1.1837074 5.8773823
-1.4040709 -1.7640973 6.1854806
-1.3318214 -1.6798916 4.4964571
-1.227304 -1.5519282 3.3065183
-1.159493 -1.4682724 2.552125
-1.1196074 -1.4197844 2.0384321
-1.0980581 -1.400984 1.8290204
-1.0648575 -1.3600758 1.475191
-1.0399426 -1.3287244 1.1908565
-1.0188187 -1.3026597 0.95222592
-0.99989337 -1.2789141 0.74421245
-0.9809351 -1.2551091 0.5581708
-0.95847362 -1.2272444 0.38711271
-0.96236831 -1.2322271 0.23331158
-1.0820391 -1.3765756 1.6406276
-1.0527506 -1.3402665 1.3245111
-1.0313927 -1.3135403 1.0670106
-1.0062498 -1.2828902 0.84117669
-0.98809588 -1.2601905 0.64648902
-0.96560407 -1.23194 0.46823925
-0.95610666 -1.2198191 0.30838081
-0.94579786 -1.2070925 0.1555354
-0.046750255 -0.034478176 5.1440773
-0.55232263 -0.67647243 5.5521502
-0.74118829 -0.91629642 5.6895146
-1.2998532 -1.6227167 6.693924
-1.4144148 -1.7745193 5.4055829
-1.2668809 -1.5939656 3.7986526
-1.184224 -1.4931555 2.8716116
-1.1436816 -1.4435759 2.2816474
-0.21043636 -0.23431076 5.2855949
-0.37858155 -0.45376933 5.4684653
-0.9517768 -1.1794113 5.8725429
-1.4112996 -1.7605319 6.1901736
-1.3281683 -1.6633248 4.4649487
-1.222964 -1.535395 3.2809229
-1.1571081 -1.4547834 2.5361648
-1.1182307 -1.4079037 2.0274065
-1.0985222 -1.3915443 1.8220112
-1.0623678 -1.3471816 1.4657755
-1.0368083 -1.315235 1.1826321
-1.0151359 -1.2886562 0.94526953
-0.99861515 -1.2681316 0.7404663
-0.98234314 -1.247908 0.55676073
-0.95667744 -1.2161695 0.38524747
-0.96050578 -1.221032 0.23241742
-1.0798845 -1.3640081 1.630651
-1.0524067 -1.3302437 1.3186247
-1.0279492 -1.2997886 1.0594112
-1.0050949 -1.2722476 0.83698058
-0.98956203 -1.2530278 0.64484555
-0.96387482 -1.220932 0.46589461
-0.95729035 -1.2125875 0.30769014
-0.94381559 -1.1959403 0.15513234
-0.046870321 -0.034314778 5.1440773
-0.55468065 -0.67454034 5.5521502
-0.7443822 -0.91370356 5.6895146
-1.2951986 -1.6053908 6.6414318
-1.4083692 -1.7543371 5.3595576
-1.264953 -1.5801854 3.7767072
-1.1841596 -1.482417 2.8592129
-1.1407168 -1.4295536 2.2662973
-0.21125297 -0.23357476 5.2855949
-0.37981999 -0.45203722 5.4634943
-0.95588797 -1.1760818 5.8725429
-1.4163523 -1.7542522 6.1854806
-1.32578 -1.6485004 4.4379416
-1.2201557 -1.5209455 3.259593
-1.1546429 -1.4413289 2.5202048
-1.116785 -1.39605 2.016381
-1.0967143 -1.3793274 1.8114977
-1.0598011 -1.3343215 1.4563601
-1.0335926 -1.3017837 1.1744076
-1.0141212 -1.2781645 0.94063193
-0.99727398 -1.2573737 0.73672026
-0.98371279 -1.2407126 0.55535072
-0.95786631 -1.2089725 0.38431486
-0.95548433 -1.2059619 0.23107618
-1.0776554 -1.3514725 1.6206745
-1.0494869 -1.3170788 1.3097954
-1.0271083 -1.2894489 1.0543448
-1.0038778 -1.2616286 0.83278447
-0.98805064 -1.2421749 0.64155853
-0.96208048 -1.2099509 0.46355
-0.95535308 -1.2014863 0.30630878
-0.94487584 -1.1887274 0.1549308
-0.046989813 -0.034150962 5.1440773
-0.55703181 -0.67260003 5.5521502
-0.74692112 -0.91031265 5.6846194
-1.2904391 -1.5881175 6.5889401
-1.4046571 -1.7372574 5.3227377
-1.2629448 -1.5664384 3.7547622
-1.1822708 -1.4695045 2.8426807
-1.137668 -1.4155699 2.2509475
-0.21206701 -0.23283593 5.2855949
-0.38105094 -0.45030198 5.4585228
-0.9599874 -1.172738 5.8725429
-1.4224672 -1.7492974 6.1854806
-1.3219342 -1.6320217 4.4064331
-1.2172616 -1.5065345 3.2382634
-1.1520983 -1.4279095 2.5042446
-1.1152701 -1.3842236 2.0053556
-1.0970638 -1.3699236 1.8044887
-1.0595893 -1.3245351 1.4500831
-1.0329071 -1.2916366 1.1689247
-1.0130458 -1.2676958 0.93599433
-0.99876344 -1.250263 0.73484725
-0.98205072 -1.2297742 0.55253065
-0.9559527 -1.1979425 0.38244963
-0.95347565 -1.1948344 0.23018204
-1.0776902 -1.3418803 1.6140234
-1.049018 -1.3071028 1.3039091
-1.0235101 -1.2757686 1.0467453
-1.0054374 -1.2545751 0.83068645
-0.98647565 -1.2313477 0.63827151
-0.9632597 -1.2027915 0.46237767
-0.95335007 -1.1904136 0.30492741
-0.94277489 -1.177622 0.15452774
-0.047146264 -0.034008998 5.1490774
-0.55937624 -0.6706515 5.5521502
-0.75009418 -0.90769988 5.6846194
-1.2855749 -1.5708972 6.5364485
-1.4008431 -1.7202249 5.2859173
-1.2593461 -1.5508654 3.7284274
-1.1803064 -1.4566236 2.826149
-1.1345356 -1.4016248 2.2355974
-0.21287847 -0.23209427 5.2855949
-0.38227442 -0.44856361 5.4535513
-0.96327543 -1.1684101 5.867703
-1.4274712 -1.7429864 6.1807876
-1.320742 -1.6189635 4.3839269
-1.2142818 -1.4921622 3.2169337
-1.1494741 -1.4145256 2.4882846
-1.1136864 -1.372425 1.9943302
-1.095122 -1.3577583 1.7939749
-1.05688 -1.311736 1.4406679
-1.0295407 -1.2782539 1.1607003
-1.0119096 -1.2572502 0.93135673
-0.99730927 -1.2395451 0.73110116
-0.98032457 -1.2188628 0.54971057
-0.9570511 -1.1907694 0.38151699
-0.94828123 -1.1798539 0.2288408
-1.0753232 -1.3294017 1.6040471
-1.0459512 -1.2940027 1.2950795
-1.019829 -1.2621292 1.0391457
-1.0041091 -1.2439947 0.82649034
-0.98483711 -1.2205467 0.63498449
-0.96134913 -1.1918552 0.46003303
-0.95439053 -1.1832241 0.30423674
-0.94060802 -1.1665455 0.15412468
-0.047264688 -0.033844218 5.1490774
-0.56121379 -0.6681 5.5472107
-0.75260657 -0.90429354 5.6797242
-1.2787073 -1.5514265 6.4744124
-1.3969274 -1.7032403 5.2490973
-1.2571704 -1.5371906 3.7064819
-1.1782665 -1.4437742 2.8096173
-1.133345 -1.3902032 2.2240849
-0.21349077 -0.23113833 5.2806029
-0.38349041 -0.44682226 5.4485793
-0.96734816 -1.1650405 5.867703
-1.4335467 -1.737993 6.1807876
-1.3180929 -1.6042517 4.3569193
-1.2112166 -1.4778293 3.1956041
-1.1467706 -1.4011775 2.4723246
-1.1120341 -1.3606542 1.9833045
-1.0953575 -1.3483913 1.7869658
-1.056547 -1.3019941 1.434391
-1.0260935 -1.2649105 1.152476
-1.0107129 -1.246828 0.92671913
-0.99579257 -1.2288529 0.72735512
-0.9785341 -1.2079784 0.54689056
-0.95502037 -1.1797853 0.37965176
-0.9461273 -1.1687952 0.22794664
-1.0728821 -1.3169558 1.5940706
-1.0453579 -1.2840747 1.2891932
-1.0187863 -1.2518746 1.0340793
-1.0027195 -1.233439 0.82229424
-0.9831354 -1.2097723 0.63169748
-0.95937401 -1.1809469 0.45768842
-0.95539248 -1.1760418 0.30354607
-0.93837535 -1.1554987 0.15372162
-0.047382537 -0.033679027 5.1490774
-0.56354254 -0.66613698 5.5472107
-0.75575858 -0.90166092 5.6797242
-1.2793475 -1.5412111 6.4505525
-1.3929101 -1.6863042 5.2122769
-1.2549146 -1.52355 3.6845365
-1.1743647 -1.4287833 2.7889526
-1.1320888 -1.3788073 2.2125723
-0.2142963 -0.2303917 5.2806029
-0.3846989 -0.44507787 5.4436083
-0.97060257 -1.1606927 5.862864
-1.4385018 -1.7316511 6.176095
-1.3167452 -1.5912554 4.3344135
-1.2080662 -1.463536 3.1742744
-1.1420712 -1.3855404 2.4523742
-1.1103131 -1.3489119 1.972279
-1.0955409 -1.3390393 1.7799567
-1.056159 -1.2922707 1.4281141
-1.0252113 -1.254845 1.146993
-1.0122575 -1.2398609 0.92440039
-0.9942134 -1.2181861 0.72360903
-0.97667962 -1.1971214 0.54407042
-0.9560287 -1.1726371 0.37871915
-0.94390768 -1.157766 0.22705248
-1.0727357 -1.3074298 1.5874195
-1.0421451 -1.2710409 1.2803636
-1.0149519 -1.2383089 1.0264798
-1.0012684 -1.222908 0.81809807
-0.98137039 -1.1990248 0.62841046
-0.96041244 -1.173829 0.45651609
-0.95949179 -1.1726997 0.30354607
-0.9392401 -1.1483488 0.15352009
-0.047499809 -0.033513427 5.1490774
-0.56586432 -0.66416574 5.5472107
-0.7582444 -0.89823937 5.674829
-1.2751445 -1.5252844 6.4028325
-1.388792 -1.6694171 5.175457
-1.2525793 -1.5099443 3.6625915
-1.1721669 -1.4160048 2.7724209
-1.1307669 -1.3674371 2.2010598
-0.21509922 -0.22964226 5.2806029
-0.38554963 -0.4429287 5.4336653
-0.97383839 -1.1563362 5.8580246
-1.4434304 -1.7252958 6.1714025
-1.3139291 -1.5766158 4.3074059
-1.2031635 -1.4472774 3.1486788
-1.1392016 -1.3722718 2.4364142
-1.1106875 -1.3398082 1.9649286
-1.0956725 -1.3297026 1.7729477
-1.055716 -1.2825658 1.4218372
-1.0269284 -1.2480298 1.1442515
-1.0109521 -1.2294768 0.91976279
-0.99257207 -1.2075459 0.719863
-0.97476143 -1.1862922 0.54125035
-0.95388156 -1.1617 0.37685391
-0.94478303 -1.1506153 0.2266054
-1.0701575 -1.2950429 1.5774431
-1.0414281 -1.261162 1.2744772
-1.0137795 -1.2281096 1.0214134
-0.9997561 -1.2124023 0.81390196
-0.97954249 -1.1883044 0.62512344
-0.95832181 -1.1629671 0.45417145
-0.96043026 -1.1655217 0.30285537
-0.93688983 -1.1373512 0.15311703
-0.047616504 -0.03334742 5.1490774
-0.56817925 -0.6621865 5.5472107
-0.76137519 -0.89558715 5.674829
-1.2785381 -1.5185404 6.3932886
-1.3858277 -1.6540769 5.143239
-1.2501643 -1.4963733 3.640646
-1.1680924 -1.4010979 2.751756
-1.1293794 -1.3560929 2.1895473
-0.21589951 -0.22889002 5.2806029
-0.3867417 -0.44117957 5.4286933
-0.97786885 -1.1529298 5.8580246
-1.44722 -1.7176075 6.1620164
-1.3110269 -1.5620154 4.2803993
-1.1981623 -1.4310712 3.1230834
-1.1381862 -1.3613518 2.424444
-1.1088392 -1.3281161 1.9539032
-1.0934747 -1.3176371 1.7624339
-1.0552182 -1.27288 1.4155602
-1.0259423 -1.2379985 1.1387686
-1.0095867 -1.2191169 0.91512519
-0.99086851 -1.1969317 0.71611691
-0.97277957 -1.1754911 0.53843033
-0.95166981 -1.1507922 0.37498868
-0.94244629 -1.139635 0.22571123
-1.0698946 -1.2855598 1.5707921
-1.0406549 -1.2513038 1.268591
-1.0125484 -1.2179338 1.0163471
-0.99818283 -1.2019224 0.80970585
-0.98066807 -1.1812446 0.62347996
-0.95927143 -1.1558746 0.45299914
-0.96133029 -1.1583514 0.3021647
-0.93766433 -1.1302289 0.15291549
-0.047732621 -0.033181004 5.1490774
-0.57048726 -0.66019917 5.5472107
-0.76383442 -0.8921507 5.6699333
-1.2799691 -1.5095146 6.3742008
-1.3815134 -1.6372848 5.1064186
-1.2461277 -1.4810051 3.6143112
-1.1657376 -1.3883916 2.7352242
-1.1299865 -1.347231 2.1818724
-0.21689665 -0.22834368 5.2855949
-0.38792625 -0.43942752 5.4237218
-0.98107082 -1.1485536 5.8531852
-1.45209 -1.7112296 6.1573243
-1.3094443 -1.5491171 4.2578931
-1.1947439 -1.4169112 3.1017535
-1.1351677 -1.3481508 2.408484
-1.1069227 -1.3164531 1.9428777
-1.0934933 -1.3083395 1.7554249
-1.0546657 -1.2632133 1.4092834
-1.0248988 -1.2279894 1.1332856
-1.0081614 -1.2087816 0.91048759
-0.98910308 -1.1863444 0.71237087
-0.97073442 -1.1647184 0.53561026
-0.94939357 -1.1399142 0.37312344
-0.94323152 -1.1325116 0.22526415
-1.0671798 -1.2732327 1.5608156
-1.0398254 -1.2414665 1.2627047
-1.0140262 -1.2110869 1.013814
-0.9994604 -1.1949495 0.80760783
-0.97872722 -1.1705688 0.62019289
-0.95706594 -1.1450602 0.45065451
-0.962192 -1.1511891 0.30147403
-0.93840057 -1.1231151 0.15271397
-0.047810171 -0.032992702 5.1440773
-0.5727883 -0.65820372 5.5472107
-0.76627892 -0.888708 5.6650386
-1.2774751 -1.4959569 6.3360248
-1.3796293 -1.6235205 5.078804
-1.2435478 -1.4675107 3.592366
-1.1633086 -1.3757193 2.7186925
-1.1305455 -1.3383814 2.1741974
-0.21769239 -0.22758518 5.2855949
-0.38910329 -0.43767264 5.4187508
-0.98425424 -1.1441692 5.8483453
-1.4546909 -1.702215 6.1432457
-1.3063765 -1.5345913 4.2308855
-1.1912414 -1.4027927 3.0804241
-1.1359688 -1.339584 2.4005039
-1.1071296 -1.307407 1.9355273
-1.0911638 -1.2963297 1.7449113
-1.0540587 -1.2535659 1.4030064
-1.0264884 -1.2212036 1.1305442
-1.0066763 -1.1984712 0.90584999
-0.99025697 -1.1793342 0.7104978
-0.96862584 -1.1539743 0.53279018
-0.95020998 -1.1328298 0.3721908
-0.94397861 -1.1253968 0.22481708
-1.0668007 -1.2637937 1.5541645
-1.0389402 -1.23165 1.2568183
-1.0126895 -1.2009488 1.0087476
-0.99777746 -1.1845113 0.80341172
-0.97672409 -1.1599212 0.61690587
-0.95792693 -1.1379939 0.4494822
-0.95982641 -1.1402464 0.30009267
-0.9390986 -1.1160101 0.15251243
-0.047925048 -0.032825615 5.1440773
-0.57559478 -0.65678453 5.5521502
-0.76937646 -0.88602781 5.6650386
-1.2846359 -1.4937519 6.3455687
-1.3751251 -1.6068209 5.0419836
-1.2408888 -1.4540523 3.5704205
-1.1608055 -1.3630807 2.7021606
-1.1289796 -1.327103 2.1626849
-0.21868643 -0.2270312 5.2905865
-0.39062873 -0.43631172 5.4187508
-0.98741913 -1.1397768 5.8435063
-1.4583724 -1.6945109 6.1338601
-1.3046402 -1.5217587 4.2083793
-1.187655 -1.3887161 3.0590942
-1.1347672 -1.3287368 2.3885341
-1.1050866 -1.2957963 1.924502
-1.0864576 -1.2816319 1.7308931
-1.0508816 -1.240968 1.393591
-1.0253416 -1.2112303 1.1250613
-1.0079926 -1.1915681 0.90353119
-0.98838055 -1.1687907 0.70675176
-0.96645415 -1.1432593 0.52997011
-0.94781858 -1.1220009 0.37032557
-0.94468755 -1.1182905 0.22437
-1.0639505 -1.2515283 1.5441881
-1.037999 -1.221855 1.250932
-1.0112945 -1.190835 1.0036812
-0.99603397 -1.1740994 0.79921561
-0.97771269 -1.1529032 0.61526239
-0.95560712 -1.127228 0.44713756
-0.96059847 -1.1331117 0.29940197
-0.93975854 -1.1089138 0.15231091
-0.048039336 -0.032658126 5.1440773
-0.57839811 -0.65535367 5.5570893
-0.77179414 -0.88257033 5.6601434
-1.2722502 -1.4689498 6.2596731
-1.3717968 -1.5916523 5.0097656
-1.2381512 -1.4406307 3.5484753
-1.1600602 -1.3526125 2.6897616
-1.1294342 -1.3182861 2.1550097
-0.21947759 -0.22626644 5.2905865
-0.39179212 -0.4345499 5.4137793
-0.9913916 -1.1363231 5.8435063
-1.4597571 -1.6841941 6.1150894
-1.3014077 -1.5073093 4.1813722
-1.1856871 -1.3766577 3.0420306
-1.1335034 -1.3179141 2.3765638
-1.1029763 -1.2842157 1.9134763
-1.0839778 -1.269695 1.7203795
-1.0501554 -1.2313691 1.3873141
-1.0241376 -1.2012798 1.1195784
-1.0064002 -1.1812984 0.89889359
-0.98644269 -1.1582748 0.70300567
-0.96421963 -1.1325736 0.52715003
-0.94854623 -1.1149442 0.36939296
-0.9453584 -1.1111933 0.22392292
-1.0634558 -1.2421341 1.537537
-1.0370022 -1.2120818 1.2450458
-1.0126432 -1.1840218 1.001148
-0.99423003 -1.1637143 0.79501951
-0.97559762 -1.1423019 0.61197537
-0.95637995 -1.1201888 0.44596523
-0.95811701 -1.1222193 0.29802063
-0.94038039 -1.1018265 0.15210937
-0.048153043 -0.032490235 5.1440773
-0.58171499 -0.6544919 5.566968
-0.7741971 -0.87910694 5.6552482
-1.2606885 -1.4453773 6.1785493
-1.3683797 -1.5765269 4.9775481
-1.2369026 -1.4290568 3.5309191
-1.1592563 -1.3421664 2.6773629
-1.1298411 -1.3094821 2.1473348
-0.22026607 -0.22549894 5.2905865
-0.39294794 -0.43278524 5.4088073
-0.99452227 -1.1319113 5.8386669
-1.4599528 -1.6725883 6.0916252
-1.2995188 -1.4945437 4.1588659
-1.1853584 -1.3666003 3.0292325
-1.1321783 -1.3071167 2.364594
-1.1007987 -1.2726657 1.902451
-1.0814282 -1.2577912 1.7098659
-1.0468389 -1.218838 1.3778987
-1.0256007 -1.1945252 1.1168369
-1.0047483 -1.1710542 0.89425594
-0.98746163 -1.1513054 0.70113266
-0.96504468 -1.1255592 0.52574003
-0.95243233 -1.1116264 0.36939296
-0.94599128 -1.1041049 0.22347584
-1.0604705 -1.2299312 1.5275606
-1.0359501 -1.2023305 1.2391595
-1.0111433 -1.1739473 0.99608171
-0.99532592 -1.1567963 0.79292148
-0.97342038 -1.1317294 0.60868835
-0.95711541 -1.1131581 0.44479293
-0.95557117 -1.1113582 0.29663923
-0.94096428 -1.0947486 0.15190785
-0.048266161 -0.032321952 5.1440773
-0.5845145 -0.65303612 5.5719075
-0.77726102 -0.8763991 5.6552482
-1.248978 -1.421904 6.0974259
-1.3648735 -1.5614446 4.9453306
-1.2355882 -1.4175091 3.5133626
-1.1583935 -1.3317422 2.664964
-1.1280979 -1.298272 2.1358223
-0.22105186 -0.2247287 5.2905865
-0.39445627 -0.43141094 5.4088073
-0.99846733 -1.1284329 5.8386669
-1.4612248 -1.6622977 6.072854
-1.2975568 -1.4818099 4.1363602
-1.184974 -1.3565619 3.0164349
-1.1327724 -1.2986155 2.3566139
-1.098554 -1.2611468 1.8914254
-1.0788085 -1.2459207 1.6993521
-1.0459943 -1.2092887 1.3716217
-1.027029 -1.1877749 1.1140954
-1.0059336 -1.164188 0.89193714
-0.98541361 -1.1408349 0.69738662
-0.96269745 -1.1149222 0.52291995
-0.95309758 -1.1045758 0.3684603
-0.94658613 -1.0970256 0.22302876
-1.0598611 -1.2205837 1.5209095
-1.0348424 -1.1926013 1.2332731
-1.0124103 -1.1671543 0.99354851
-0.99341357 -1.146455 0.78872538
-0.97427303 -1.1247553 0.60704482
-0.95463157 -1.1024613 0.44244829
-0.95296144 -1.1005287 0.2952579
-0.93824041 -1.0839027 0.15150478
-0.048340347 -0.032132465 5.1390781
-0.58731079 -0.65156871 5.5768461
-0.77963704 -0.87292129 5.6503525
-1.2371191 -1.3985299 6.0163021
-1.3599882 -1.5449401 4.9085107
-1.2326285 -1.4041884 3.4914172
-1.1574721 -1.3213406 2.6525652
-1.1284012 -1.2895024 2.1281471
-0.22183497 -0.22395572 5.2905865
-0.39559841 -0.42963952 5.4038358
-1.0015639 -1.1240025 5.8338275
-1.460155 -1.6494347 6.0446973
-1.2940819 -1.4674754 4.1093531
-1.1828115 -1.3445848 2.9993713
-1.1313323 -1.2878622 2.3446436
-1.0962423 -1.2496589 1.8803998
-1.0784632 -1.2367717 1.6923431
-1.0450957 -1.1997603 1.3653449
-1.0256768 -1.1778759 1.1086124
-1.0041755 -1.1539862 0.88729954
-0.98330444 -1.1303927 0.69364047
-0.96343559 -1.107935 0.52150995
-0.9537254 -1.0975343 0.36752769
-0.9471432 -1.0899557 0.22258168
-1.0591995 -1.2112554 1.5142586
-1.0310197 -1.1798511 1.2244437
-1.0108061 -1.1571203 0.98848218
-0.99144113 -1.1361414 0.78452927
-0.97198486 -1.1142308 0.6037578
-0.95527941 -1.095459 0.44127598
-0.95354247 -1.0934633 0.2945672
-0.93873537 -1.0768551 0.15130325
-0.048452217 -0.031963531 5.1390781
-0.5901041 -0.65008986 5.5817857
-0.78199828 -0.86943763 5.6454577
-1.2400073 -1.3919741 6.0067577
-1.3575963 -1.5314122 4.8808951
-1.2295907 -1.3909056 3.4694719
-1.1564925 -1.3109616 2.6401665
-1.128657 -1.2807462 2.1204722
-0.22261538 -0.22318001 5.2905865
-0.39709571 -0.42825603 5.4038358
-1.0054812 -1.1204994 5.8338275
-1.4636068 -1.6417516 6.0353122
-1.2919683 -1.4548109 4.0868468
-1.1823093 -1.3345915 2.9865732
-1.1318276 -1.2793916 2.3366637
-1.0961086 -1.2407434 1.8730495
-1.075714 -1.2249609 1.6818293
-1.0441436 -1.1902531 1.3590679
-1.0270252 -1.1711446 1.105871
-1.0023583 -1.1438109 0.88266194
-0.98113453 -1.1199794 0.68989444
-0.96097642 -1.0973476 0.51868987
-0.95431566 -1.0905019 0.36659506
-0.94438285 -1.0791478 0.22168753
-1.0584856 -1.2019467 1.5076076
-1.0297911 -1.1701763 1.2185574
-1.0091443 -1.1471118 0.98341578
-0.98940897 -1.1258554 0.78033316
-0.97275168 -1.1072835 0.60211432
-0.95268273 -1.0848135 0.43893132
-0.95081812 -1.0826864 0.29318586
-0.93589658 -1.0660629 0.15090019
-0.048563495 -0.031794205 5.1390781
-0.59289414 -0.64859939 5.5867248
-0.78502846 -0.86670262 5.6454577
-1.2318991 -1.3731936 5.9447222
-1.3551267 -1.5179203 4.8532801
-1.2248827 -1.3758725 3.4431372
-1.1573234 -1.3027093 2.6319005
-1.1288655 -1.2720042 2.1127973
-0.22339305 -0.22240157 5.2905865
-0.39858818 -0.42686731 5.4038358
-1.0085435 -1.1160502 5.8289876
-1.4531879 -1.6186562 5.9696131
-1.2883309 -1.4405566 4.0598392
-1.1800153 -1.3226722 2.9695096
-1.1302731 -1.2686836 2.3246934
-1.0936724 -1.2293113 1.8620242
-1.0752581 -1.2158557 1.6748203
-1.0405607 -1.1778502 1.3496526
-1.025571 -1.1612843 1.1003881
-1.0004823 -1.1336625 0.87802434
-0.98197109 -1.1130713 0.68802142
-0.96162802 -1.0903887 0.51727986
-0.95486856 -1.0834787 0.36566246
-0.94485146 -1.0721086 0.22124045
-1.0577197 -1.1926576 1.5009565
-1.0285076 -1.1605247 1.212671
-1.007425 -1.1371288 0.97834945
-0.98731703 -1.1155976 0.77613705
-0.97035283 -1.0968077 0.5988273
-0.95002335 -1.0741994 0.43658668
-0.94803023 -1.071942 0.29180449
-0.93630296 -1.0590466 0.15069866
-0.048674181 -0.031624492 5.1390781
-0.59568101 -0.64709735 5.5916643
-0.78736275 -0.86320502 5.6405625
-1.236685 -1.3688853 5.9447222
-1.3525795 -1.504464 4.825665
-1.221684 -1.3626727 3.4211919
-1.1562345 -1.2923701 2.6195016
-1.1268909 -1.2608867 2.1012847
-0.22416802 -0.22162043 5.2905865
-0.40007579 -0.42547336 5.4038358
-1.0124331 -1.112523 5.8289876
-1.4495701 -1.6033338 5.9320712
-1.286067 -1.4279631 4.0373335
-1.177653 -1.3107853 2.9524457
-1.1286577 -1.258002 2.3127234
-1.0934323 -1.2204365 1.8546739
-1.0723799 -1.2041056 1.6643068
-1.0394914 -1.1683949 1.3433758
-1.0212818 -1.148324 1.0921637
-1.0014906 -1.1268522 0.87570554
-0.97969222 -1.1027056 0.68427533
-0.96224278 -1.0834386 0.5158698
-0.95538408 -1.0764651 0.36472982
-0.94528234 -1.0650793 0.22079337
-1.0544147 -1.180604 1.49098
-1.0271693 -1.1508963 1.2067847
-1.0056483 -1.1271722 0.97328311
-0.98516572 -1.1053684 0.77194095
-0.97103423 -1.0898882 0.59718376
-0.9505344 -1.0672469 0.43541437
-0.94847256 -1.0649282 0.29111382
-0.93334967 -1.0483093 0.1502956
-0.048784275 -0.031454396 5.1390781
-0.59846461 -0.64558369 5.5966034
-0.79037106 -0.86045134 5.6405625
-1.2404513 -1.363456 5.9399505
-1.3512664 -1.4924926 4.8026524
-1.2168028 -1.3477345 3.3948576
-1.1550877 -1.2820545 2.6071029
-1.1269968 -1.2521807 2.0936098
-0.2251469 -0.22103818 5.2955785
-0.40119174 -0.42368746 5.3988647
-1.0154611 -1.1080557 5.8241487
-1.4447014 -1.5867804 5.8898363
-1.2837307 -1.415403 4.0148273
-1.1769717 -1.3008651 2.9396482
-1.1249615 -1.2451117 2.2967634
-1.0908724 -1.2090611 1.8436482
-1.0718142 -1.1950454 1.6572976
-1.0383687 -1.1589614 1.3370987
-1.0169146 -1.1354079 1.0839393
-0.99950945 -1.116748 0.87106794
-0.97735298 -1.0923692 0.6805293
-0.9596228 -1.0729222 0.51304972
-0.95586228 -1.069461 0.36379722
-0.94235712 -1.0543472 0.21989921
-1.0535355 -1.1713642 1.484329
-1.0257765 -1.1412916 1.2008984
-1.0038145 -1.1172417 0.96821666
-0.98295504 -1.0951676 0.76774484
-0.96852547 -1.0794625 0.59389675
-0.94776309 -1.0566857 0.43306974
-0.94887763 -1.0579245 0.29042313
-0.9336682 -1.0413251 0.15009406
-0.048893776 -0.031283915 5.1390781
-0.60124481 -0.64405853 5.6015425
-0.79267818 -0.85693979 5.6356673
-1.2431861 -1.3569167 5.9304061
-1.3485699 -1.4791051 4.7750373
-1.2134435 -1.3346188 3.3729122
-1.153883 -1.2717628 2.5947039
-1.1249028 -1.2411146 2.0820973
-0.22612444 -0.22045177 5.3005695
-0.40266827 -0.42228445 5.3988647
-1.0176175 -1.1026571 5.8144698
-1.440901 -1.5715525 5.852294
-1.2813226 -1.4028767 3.9923213
-1.174479 -1.2890376 2.9225843
-1.1232169 -1.234491 2.2847934
-1.0905265 -1.2002279 1.8362979
-1.0711982 -1.1860037 1.6502886
-1.0398004 -1.1524401 1.3339603
-1.0152705 -1.1256413 1.0784563
-0.99746984 -1.1066713 0.86643034
-0.97495371 -1.082063 0.6767832
-0.96015167 -1.0660015 0.51163971
-0.95630324 -1.0624669 0.36286458
-0.94270009 -1.0473498 0.21945213
-1.0526048 -1.1621449 1.4776781
-1.0270416 -1.1347072 1.1979553
-1.0019236 -1.1073381 0.96315032
-0.98068511 -1.0849957 0.76354873
-0.96912181 -1.0725715 0.59225327
-0.94818777 -1.0497638 0.43189743
-0.94592601 -1.047256 0.28904179
-0.93394935 -1.0343517 0.14989254
-0.049002677 -0.031113055 5.1390781
-0.60348934 -0.64195591 5.6015425
-0.79566461 -0.85416764 5.6356673
-1.2469027 -1.3514717 5.9256339
-1.3457963 -1.4657546 4.7474217
-1.2100078 -1.3215432 3.3509667
-1.1507221 -1.2594178 2.5781722
-1.1205848 -1.2277112 2.0667472
-0.22710063 -0.21986125 5.3055615
-0.40413985 -0.42087629 5.3988647
-1.0206044 -1.0981776 5.8096299
-1.4370123 -1.5563709 5.8147521
-1.2788427 -1.3903846 3.969815
-1.1719183 -1.2772436 2.9055204
-1.121412 -1.2238981 2.2728233
-1.0901322 -1.1914117 1.8289475
-1.0681325 -1.1743429 1.6397748
-1.0385817 -1.143042 1.3276834
-1.0135707 -1.1159002 1.0729734
-0.99537212 -1.0966226 0.86179274
-0.97560966 -1.0752199 0.67491019
-0.96064395 -1.0590904 0.51022971
-0.96000606 -1.0591222 0.36286458
-0.94300574 -1.0403631 0.21900505
-1.0516225 -1.1529465 1.471027
-1.0255504 -1.1251409 1.1920689
-0.99997592 -1.0974611 0.95808399
-0.97835642 -1.0748534 0.75935262
-0.9696818 -1.0656894 0.59060973
-0.94530517 -1.0392565 0.42955279
-0.9462437 -1.0402845 0.28835109
-0.93755418 -1.0310854 0.14989254
-0.049110983 -0.030941814 5.1390781
-0.6062609 -0.64040953 5.606482
-0.79864138 -0.85138506 5.6356673
-1.2505965 -1.3460176 5.9208622
-1.3442726 -1.453876 4.7244091
-1.2064956 -1.3085082 3.3290212
-1.1493951 -1.2491813 2.5657735
-1.1161869 -1.2143531 2.0513971
-0.22786671 -0.21906719 5.3055615
-0.40523568 -0.41908011 5.3938932
-1.0227135 -1.092773 5.7999516
-1.4330351 -1.5412356 5.7772098
-1.2762913 -1.3779269 3.947309
-1.1675196 -1.2635678 2.884191
-1.119547 -1.2133325 2.2608531
-1.0873924 -1.18012 1.8179222
-1.0674075 -1.1653478 1.6327658
-1.0373101 -1.1336666 1.3214065
-1.0118152 -1.1061847 1.0674905
-0.99321651 -1.0866021 0.85715514
-0.97310245 -1.0649632 0.6711641
-0.95786434 -1.0486469 0.50740957
-0.96038562 -1.0521367 0.36193198
-0.94327426 -1.0333869 0.21855797
-1.0505888 -1.1437691 1.4643761
-1.0240048 -1.1155987 1.1861825
-1.0008861 -1.0907878 0.95555079
-0.97903562 -1.0680861 0.75725454
-0.96701533 -1.055335 0.58732271
-0.94564384 -1.0323663 0.42838046
-0.94317931 -1.0296719 0.28696972
-0.93777376 -1.0241218 0.149691
-0.049218692 -0.030770196 5.1390781
-0.609029 -0.63885152 5.6114211
-0.80160844 -0.84859204 5.6356673
-1.2542675 -1.3405541 5.9160905
-1.3413512 -1.4405965 4.6967945
-1.2012776 -1.2937587 3.3026869
-1.1480104 -1.2389692 2.5533745
-1.1138868 -1.203393 2.0398846
-0.22863001 -0.21827045 5.3055615
-0.40669608 -0.41766304 5.3938932
-1.0247973 -1.0873671 5.7902722
-1.4301496 -1.5274068 5.7443609
-1.2736689 -1.3655043 3.9248033
-1.1648165 -1.2518477 2.8671272
-1.117622 -1.2027953 2.2488832
-1.0868932 -1.171347 1.8105719
-1.0666327 -1.1563722 1.6257567
-1.0333482 -1.1214519 1.3119911
-1.0100043 -1.0964952 1.0620075
-0.99400324 -1.0798694 0.85483634
-0.97367477 -1.0581485 0.66929108
-0.95827132 -1.0417664 0.50599957
-0.95740366 -1.0415449 0.36006674
-0.94350547 -1.0264217 0.21811089
-1.0495042 -1.134613 1.457725
-1.025149 -1.1090493 1.1832393
-0.99883634 -1.0809553 0.95048445
-0.97660106 -1.0579925 0.75305843
-0.96749085 -1.0484825 0.58567923
-0.94594604 -1.0254862 0.42720816
-0.9434101 -1.0227333 0.28627905
-0.93795609 -1.0171694 0.14948948
-0.049325801 -0.030598203 5.1390781
-0.61125529 -0.63672179 5.6114211
-0.80456573 -0.84578872 5.6356673
-1.2579155 -1.3350813 5.9113183
-1.3383533 -1.4273549 4.669179
-1.1976072 -1.2808112 3.2807415
-1.1465687 -1.2287823 2.5409758
-1.1093385 -1.1901194 2.0245347
-0.22939052 -0.21747105 5.3055615
-0.40815154 -0.41624087 5.3938932
-1.0277214 -1.0828716 5.7854328
-1.4260011 -1.5123614 5.7068186
-1.270975 -1.3531168 3.902297
-1.1620458 -1.2401621 2.8500636
-1.117696 -1.1944864 2.2409031
-1.0840312 -1.1601149 1.7995464
-1.0658084 -1.1474161 1.6187476
-1.0319614 -1.1121316 1.3057142
-1.0081382 -1.0868318 1.0565246
-0.99174368 -1.0698957 0.85019881
-0.9710604 -1.0479424 0.66554505
-0.95538211 -1.0313767 0.50317949
-0.95769662 -1.0345918 0.35913411
-0.94369966 -1.0194675 0.21766382
-1.0483683 -1.1254786 1.451074
-1.0235059 -1.099547 1.177353
-0.99673021 -1.0711505 0.94541812
-0.97719818 -1.0512528 0.75096041
-0.96793032 -1.0416399 0.58403569
-0.94621181 -1.0186168 0.42603585
-0.94360405 -1.0158058 0.28558838
-0.93810141 -1.0102282 0.14928794
-0.049432307 -0.030425837 5.1390781
-0.61401433 -0.63514262 5.6163602
-0.80680865 -0.84224004 5.6307716
-1.2625682 -1.3306823 5.9113183
-1.3352796 -1.414152 4.6415639
-1.1938611 -1.267905 3.2587962
-1.1450696 -1.2186204 2.5285769
-1.1069049 -1.1792291 2.0130222
-0.23014824 -0.21666901 5.3055615
-0.40960202 -0.41481361 5.3938932
-1.029758 -1.0774604 5.7757545
-1.4229531 -1.498615 5.6739688
-1.2682103 -1.3407646 3.879791
-1.1627878 -1.2323046 2.8415318
-1.115659 -1.1839987 2.2289329
-1.0834275 -1.1513861 1.792196
-1.0649346 -1.1384799 1.6117386
-1.0305221 -1.1028349 1.2994373
-1.006217 -1.0771948 1.0510417
-0.9924494 -1.0631891 0.84788001
-0.97154969 -1.041157 0.66367197
-0.9524321 -1.0210199 0.50035942
-0.95460308 -1.0240562 0.35726887
-0.94385678 -1.0125244 0.21721675
-1.0471816 -1.116366 1.4444231
-1.0218091 -1.0900698 1.1714667
-0.99456781 -1.0613737 0.94035172
-0.97465861 -1.0412087 0.7467643
-0.96510738 -1.031359 0.58074868
-0.94976169 -1.0153078 0.42603585
-0.94376117 -1.0088894 0.28489769
-0.93820971 -1.0032984 0.14908642
-0.04953821 -0.030253101 5.1390781
-0.61622769 -0.63299543 5.6163602
-0.8097437 -0.83941859 5.6307716
-1.2672055 -1.326267 5.9113183
-1.3307837 -1.3995724 4.6093459
-1.1916878 -1.2567786 3.2412398
-1.1435139 -1.2084842 2.5161779
-1.1066107 -1.1706997 2.0053473
-0.23090315 -0.21586433 5.3055615
-0.41104746 -0.41338128 5.3938932
-1.0335126 -1.0738593 5.7757545
-1.4198271 -1.4849087 5.6411195
-1.2653751 -1.3284485 3.8572848
-1.1634892 -1.2244571 2.8329997
-1.1156368 -1.1757256 2.220953
-1.0804442 -1.1402149 1.7811704
-1.0640115 -1.129564 1.6047294
-1.0290304 -1.0935618 1.2931604
-1.004241 -1.0675848 1.0455588
-0.99008638 -1.0532632 0.84324241
-0.9720034 -1.0343812 0.66179895
-0.9527058 -1.0141928 0.49894941
-0.95144784 -1.0135548 0.35540363
-0.943977 -1.0055927 0.21676967
-1.045944 -1.1072755 1.437772
-1.0200588 -1.080618 1.1655804
-0.99234945 -1.0516251 0.93528539
-0.9720608 -1.0311953 0.74256819
-0.9654631 -1.0245471 0.5791052
-0.9533 -1.0119863 0.42603585
-0.94048589 -0.99837977 0.28351635
-0.93485606 -0.99274307 0.14868335
-0.049643513 -0.030079996 5.1390781
-0.61897761 -0.63139528 5.6212997
-0.81195939 -0.8358568 5.6258769
-1.2707922 -1.3207599 5.9065461
-1.3262024 -1.3850414 4.5771284
-1.1894512 -1.2456827 3.2236834
-1.1419015 -1.1983738 2.5037792
-1.1040605 -1.159865 1.9938346
-0.23165525 -0.215057 5.3055615
-0.41248792 -0.41194394 5.3938932
-1.0363799 -1.0693427 5.7709146
-1.4166226 -1.4712424 5.6082706
-1.2624694 -1.3161685 3.8347785
-1.1641498 -1.2166197 2.8244677
-1.1155704 -1.1674672 2.2129729
-1.0797368 -1.1315314 1.77382
-1.0630392 -1.1206686 1.5977204
-1.0301641 -1.0871379 1.290022
-1.0050857 -1.0610372 1.0428174
-0.99071157 -1.0465837 0.84092361
-0.97242165 -1.0276146 0.65992594
-0.95294368 -1.0073763 0.49753937
-0.95160544 -1.0066578 0.35447103
-0.94406039 -0.9986726 0.21632259
-1.0472292 -1.1009125 1.4344465
-1.0182546 -1.0711915 1.1596941
-0.99304467 -1.0450299 0.93275219
-0.97252971 -1.0245043 0.74047017
-0.96578294 -1.0177454 0.57746166
-0.9534815 -1.0051261 0.42486352
-0.94055706 -0.99149811 0.28282565
-0.93487799 -0.98584872 0.14848182
-0.049787458 -0.029925574 5.1440773
-0.62172389 -0.62978357 5.6262388
-0.81415987 -0.83228964 5.6209817
-1.2753948 -1.316316 5.9065461
-1.3228922 -1.3719659 4.5495133
-1.188812 -1.2363443 3.2105162
-1.1402322 -1.1882894 2.4913802
-1.1014482 -1.1490628 1.9823222
-0.23240453 -0.21424705 5.3055615
-0.41354463 -0.41012651 5.3889213
-1.0409844 -1.066618 5.7757545
-1.4133402 -1.4576166 5.5754209
-1.2594936 -1.3039254 3.8122728
-1.16477 -1.2087928 2.8159359
-1.11546 -1.1592236 2.2049928
-1.078982 -1.1228666 1.7664698
-1.0620178 -1.1117935 1.5907112
-1.0285784 -1.0779036 1.2837451
-1.0030109 -1.0514711 1.0373343
-0.98824567 -1.0367064 0.83628595
-0.97280461 -1.0208579 0.65805292
-0.94983673 -0.99709707 0.4947193
-0.94833964 -0.99621409 0.35260579
-0.94410706 -0.99176413 0.21587551
-1.0458999 -1.0918577 1.4277955
-1.0163975 -1.0617912 1.1538078
-0.99072564 -1.0353283 0.92768586
-0.96982777 -1.014542 0.73627406
-0.96606719 -1.010954 0.57581812
-0.95698422 -1.0017917 0.42486352
-0.94059157 -0.98462808 0.28213498
-0.93141276 -0.97535306 0.14807875
-0.049891613 -0.029751601 5.1440773
-0.62446648 -0.62816036 5.6311784
-0.81706011 -0.82944262 5.6209817
-1.2789392 -1.3107877 5.9017744
-1.3181459 -1.3575289 4.5172958
-1.186456 -1.2253051 3.1929598
-1.1385069 -1.1782314 2.4789815
-1.1010002 -1.140599 1.9746472
-0.23315099 -0.21343452 5.3055615
-0.41497374 -0.40868047 5.3889213
-1.0447012 -1.0629778 5.7757545
-1.4111855 -1.4452665 5.5472646
-1.2564477 -1.291719 3.7897668
-1.16535 -1.2009764 2.807404
-1.1132089 -1.1488312 2.1930227
-1.0781798 -1.114221 1.7591195
-1.0609474 -1.1029394 1.5837022
-1.0296377 -1.0715001 1.2806066
-1.0008814 -1.0419326 1.0318514
-0.98572296 -1.0268592 0.83164835
-0.96994233 -1.0107661 0.65430683
-0.94999063 -0.99031371 0.49330926
-0.94841194 -0.98935163 0.35167316
-0.94067073 -0.98127264 0.21498135
-1.0445204 -1.0828258 1.4211446
-1.0144871 -1.0524168 1.1479214
-0.99134225 -1.0287595 0.92515266
-0.96706802 -1.0046111 0.73207796
-0.96304148 -1.0007704 0.5725311
-0.95710564 -0.99494225 0.42369121
-0.93715662 -0.97420126 0.28075361
-0.9313488 -0.96849477 0.14787722
-0.049995162 -0.029577266 5.1440773
-0.62665534 -0.62597674 5.6311784
-0.81923324 -0.82586277 5.616086
-1.283507 -1.3063154 5.9017744
-1.3146809 -1.3445388 4.4896808
-1.1857095 -1.2160122 3.1797926
-1.1367251 -1.1681999 2.4665825
-1.0982723 -1.129854 1.9631346
-0.23389457 -0.21261936 5.3055615
-0.41601634 -0.40685698 5.3839498
-1.0492897 -1.060218 5.7805939
-1.407752 -1.4317188 5.5144153
-1.2533319 -1.2795497 3.7672606
-1.1658894 -1.1931707 2.7988722
-1.1130031 -1.1406252 2.1850426
-1.0773306 -1.1055948 1.7517692
-1.0598283 -1.0941064 1.5766931
-1.0279583 -1.0623053 1.2743297
-0.99869776 -1.0324218 1.0263685
-0.98314357 -1.0170422 0.82701075
-0.97024316 -1.0040406 0.65243381
-0.95010877 -0.98354149 0.49189925
-0.94503617 -0.97896671 0.34980792
-0.94063151 -0.97440028 0.21453427
-1.0456922 -1.0764951 1.417819
-1.0153391 -1.0459689 1.1449783
-0.99192518 -1.0221993 0.92261952
-0.96425086 -0.99471194 0.72788185
-0.96324277 -0.9940117 0.57088763
-0.95719081 -0.98810416 0.42251888
-0.93710595 -0.96736723 0.28006294
-0.93124831 -0.96164894 0.14767569
-0.050098103 -0.029402569 5.1440773
-0.62938839 -0.62433249 5.6361175
-0.82211113 -0.82299811 5.616086
-1.2870091 -1.3007661 5.8970022
-1.3097706 -1.3301975 4.4574628
-1.1832347 -1.2050306 3.1622362
-1.1348872 -1.1581953 2.4541838
-1.0977252 -1.1214325 1.9554596
-0.23485024 -0.21199439 5.3105531
-0.41743401 -0.40540236 5.3839498
-1.0529841 -1.0565488 5.7805939
-1.4042413 -1.4182129 5.4815655
-1.2501466 -1.267418 3.7447543
-1.1645596 -1.1835171 2.7860744
-1.1127539 -1.1324347 2.1770625
-1.0740598 -1.0945684 1.7407438
-1.0586604 -1.0852947 1.569684
-1.0289435 -1.0559231 1.2711912
-0.99937779 -1.0259343 1.023627
-0.98050785 -1.0072559 0.82237315
-0.97050881 -0.99732524 0.6505608
-0.9501912 -0.97678041 0.49048921
-0.9450236 -0.97213972 0.34887531
-0.9370845 -0.96396923 0.21364009
-1.0442214 -1.0675002 1.411168
-1.013333 -1.0366375 1.139092
-0.99247438 -1.0156474 0.92008632
-0.96137649 -0.98484474 0.72368574
-0.96340859 -0.98726368 0.56924409
-0.95723999 -0.98127759 0.42134658
-0.93356091 -0.95700061 0.27868158
-0.93111145 -0.9548158 0.14747415
-0.050200433 -0.029227516 5.1440773
-0.6315639 -0.62213171 5.6361175
-0.8242566 -0.81940562 5.6111908
-1.2915417 -1.2962657 5.8970022
-1.3061521 -1.317294 4.4298482
-1.1806977 -1.1940813 3.14468
-1.1329935 -1.1482179 2.4417849
-1.0948825 -1.110746 1.943947
-0.23558882 -0.21117333 5.3105531
-0.41846263 -0.40357307 5.3789787
-1.0575563 -1.0537537 5.7854328
-1.4018722 -1.4059709 5.4534092
-1.246892 -1.2553244 3.7222483
-1.1650121 -1.1757396 2.7775426
-1.1124611 -1.1242599 2.1690826
-1.0731081 -1.0859898 1.7333934
-1.0574439 -1.0765046 1.5626749
-1.0271708 -1.0467688 1.2649143
-0.99709642 -1.0164696 1.018144
-0.97781581 -0.99750048 0.81773555
-0.97073954 -0.99062043 0.64868772
-0.95023811 -0.97003096 0.48907918
-0.94153875 -0.96181458 0.34701008
-0.93696004 -0.95713371 0.21319301
-1.045321 -1.0611888 1.4078425
-1.0112742 -1.0273331 1.1332057
-0.98996639 -1.0060318 0.91501999
-0.96162683 -0.97824645 0.72158772
-0.96022928 -0.97715849 0.56595707
-0.95725316 -0.97446281 0.42017427
-0.93342543 -0.95020342 0.27799088
-0.9309383 -0.94799519 0.14727263
-0.050302148 -0.029052105 5.1440773
-0.6342873 -0.62046653 5.6410565
-0.82638711 -0.81580824 5.6062956
-1.2950014 -1.2906958 5.8922305
-1.30384 -1.3058147 4.4068351
-1.1780987 -1.1831642 3.1271236
-1.1330273 -1.1402638 2.4335189
-1.0942369 -1.1023679 1.936272
-0.23654078 -0.21054095 5.3155451
-0.41948357 -0.40174142 5.3740072
-1.0603346 -1.0491719 5.7805939
