# .PCD v0.7 - Point Cloud Data file format
VERSION 0.7
FIELDS x y z
SIZE 4 4 4
TYPE F F F
COUNT 1 1 1
WIDTH 1467
HEIGHT 1
VIEWPOINT 0 0 0 1 0 0 0
POINTS 1467
DATA ascii
-1.1141235 -1.698103 1.8900402
-1.0740424 -1.6382481 1.5099303
-1.0477501 -1.5987448 1.2088687
-1.0222528 -1.5616088 0.95027542
-1.0009561 -1.5296494 0.7253775
-0.97924286 -1.4970291 0.52216589
-0.96769637 -1.4793727 0.33877075
-0.95953697 -1.4674487 0.16440275
-0.047472756 -0.041153673 5.6890569
-0.76127338 -1.1144152 8.579916
-1.0014031 -1.4805735 8.6168604
-1.4969532 -2.2363858 8.6504374
-1.5110561 -2.2693584 6.482574
-0.96183985 -1.4489359 3.2544069
-1.2046455 -1.8187627 3.2766404
-1.1930583 -1.803301 2.6653979
-0.7327801 -0.96671331 20.814644
-0.54196519 -0.77533066 8.7794867
-1.2511188 -1.854479 8.6503725
-1.6918223 -2.5255332 8.3206892
-0.86831957 -1.3016697 3.2991343
-1.0989039 -1.6516156 3.3150501
-1.2070396 -1.8168523 2.9630976
-1.1606812 -1.7497029 2.3544962
-1.136582 -1.7244561 2.1093841
-1.0932391 -1.6605711 1.6854674
-1.056302 -1.6050683 1.3443786
-1.032789 -1.5705206 1.0704848
-1.011428 -1.5386142 0.83224493
-0.99334264 -1.5116682 0.62162226
-0.97332579 -1.482325 0.428148
-0.95656747 -1.4567984 0.24940643
-1.1118075 -1.6817451 1.876738
-1.0708425 -1.620999 1.4981576
-1.0438224 -1.5806888 1.1987361
-1.0202005 -1.5466652 0.94398123
-0.99849105 -1.5143192 0.72044694
-0.97911257 -1.4854851 0.51982123
-0.96740395 -1.4677166 0.33738938
-0.95640731 -1.4515749 0.16379817
-0.04761612 -0.040987711 5.6890569
-0.76559937 -1.1123911 8.5848551
-1.0065652 -1.477069 8.6168604
-1.5039158 -2.2299094 8.6456652
-1.4895787 -2.2202673 6.3583055
-0.9655602 -1.443579 3.2500179
-1.2063004 -1.8075247 3.2642415
-1.190456 -1.7857908 2.6462102
-0.73457164 -0.96208578 20.769718
-0.54466832 -0.77343416 8.7794867
-1.2575845 -1.8501005 8.6503725
-1.6919385 -2.5067396 8.2784548
-0.87042904 -1.2950174 3.2901318
-1.0959483 -1.6347723 3.2894547
-1.2066691 -1.8026118 2.9471374
-1.1592458 -1.7343668 2.3397954
-1.1327294 -1.7056243 2.0918612
-1.090422 -1.6437708 1.6729136
-1.0549654 -1.5909168 1.3361541
-1.030924 -1.5558279 1.0635283
-1.0116724 -1.5273443 0.82849884
-0.99331659 -1.5001922 0.61880219
-0.97036254 -1.4666282 0.42535016
-0.9588989 -1.4492973 0.24895935
-1.109391 -1.6654242 1.863436
-1.069775 -1.607157 1.489328
-1.0421693 -1.5662689 1.1911365
-1.0205687 -1.5355351 0.93978512
-0.99854445 -1.5029583 0.71715993
-0.97891366 -1.4739603 0.51747662
-0.96430224 -1.4519553 0.33531734
-0.95594186 -1.4399033 0.16339511
-0.047758903 -0.040821251 5.6890569
-0.76947773 -1.1097119 8.5848551
-1.0117149 -1.4735465 8.6168604
-1.5116906 -2.2246461 8.6456652
-1.4754364 -2.1826839 6.2662549
-0.97059339 -1.4401999 3.2500179
-1.2078915 -1.7962974 3.2518427
-1.1877463 -1.768321 2.6270227
-0.73616362 -0.9572289 20.719803
-0.54736477 -0.77152818 8.7794867
-1.2647454 -1.8467366 8.6552124
-1.6909736 -2.4865491 8.2315273
-0.87250251 -1.2883663 3.2811296
-1.0943485 -1.6201313 3.2681251
-1.2062141 -1.7883965 2.9311771
-1.1558239 -1.7162502 2.3214197
-1.1307428 -1.6898046 2.0778432
-1.0896643 -1.6302469 1.6634983
-1.0535431 -1.5767945 1.3279297
-1.0289693 -1.5411675 1.056572
-1.009277 -1.5122356 0.82287979
-0.99056017 -1.4847442 0.61457211
-0.97002655 -1.4550576 0.42348492
-0.95842725 -1.437654 0.24806519
-1.1068741 -1.649141 1.850134
-1.0686243 -1.5933424 1.4804987
-1.0404285 -1.5518799 1.1835369
-1.0183462 -1.5206504 0.93349099
-0.99590391 -1.4876914 0.71222943
-0.9786464 -1.4624552 0.51513195
-0.96385646 -1.4403492 0.33393598
-0.95540673 -1.4282525 0.16299205
-0.047901105 -0.040654294 5.6890569
-0.77379167 -1.1076559 8.5897932
-1.0162731 -1.4691685 8.6119652
-1.5194468 -2.2193558 8.6456652
-1.444553 -2.1210067 6.1051664
-0.97561467 -1.4368031 3.2500179
-1.2078406 -1.7827517 3.235311
-1.1831325 -1.7482377 2.6039979
-0.74038541 -0.95579374 20.744761
-0.55005461 -0.76961285 8.7794867
-1.271184 -1.8423105 8.6552124
-1.6918393 -2.469243 8.193985
-0.87576735 -1.2835147 3.2766283
-1.0970625 -1.6119893 3.259593
-1.2056746 -1.7742063 2.9152172
-1.1541934 -1.7009841 2.3067191
-1.1266658 -1.6710626 2.0603204
-1.0866511 -1.6135195 1.6509445
-1.0543704 -1.5661702 1.3224468
-1.0293975 -1.5302154 1.0519344
-1.0093756 -1.5010096 0.8191337
-0.99038446 -1.4733151 0.61175203
-0.9696216 -1.4435073 0.42161968
-0.9578861 -1.4260318 0.24717103
-1.1042572 -1.6328957 1.836832
-1.06739 -1.5795555 1.4716691
-1.0386001 -1.5375223 1.1759374
-1.018571 -1.5095621 0.92929488
-0.99580961 -1.4763763 0.70894241
-0.97831064 -1.4509699 0.51278734
-0.9605729 -1.4246581 0.33186394
-0.95200974 -1.4124805 0.16238745
-0.048042726 -0.040486839 5.6890569
-0.77810073 -1.1055833 8.5947323
-1.0213952 -1.4656121 8.6119652
-1.5263369 -2.2128096 8.640893
-1.4530534 -2.1175621 6.1097693
-0.97927171 -1.4314121 3.2456288
-1.2092963 -1.7715523 3.2229121
-1.1765872 -1.7255599 2.5771353
-0.74371719 -0.95320344 20.744761
-0.55273765 -0.7676881 8.7794867
-1.277607 -1.8378621 8.6552124
-1.6818205 -2.4363401 8.1048222
-0.87777561 -1.2768621 3.2676258
-1.1012076 -1.605999 3.2553272
-1.2050508 -1.7600418 2.8992569
-1.1524704 -1.6857506 2.2920184
-1.1244761 -1.65532 2.0463021
-1.0835345 -1.5968336 1.6383907
-1.052789 -1.5520988 1.3142223
-1.0272764 -1.5156122 1.0449779
-1.0068076 -1.4859632 0.81351459
-0.99014097 -1.4619056 0.60893196
-0.96914786 -1.4319776 0.41975445
-0.95727557 -1.4144311 0.24627687
-1.1036431 -1.6197745 1.8268557
-1.0660725 -1.5657967 1.4628397
-1.0366842 -1.5231963 1.1683378
-1.016179 -1.4947376 0.92300069
-0.99564862 -1.46508 0.7056554
-0.97790676 -1.439505 0.51044267
-0.95997459 -1.4131041 0.33048257
-0.95132095 -1.4008827 0.16198438
-0.048148099 -0.040293746 5.6840568
-0.78240478 -1.1034944 8.5996723
-1.026505 -1.4620379 8.6119652
-1.5340518 -2.2074683 8.640893
-1.4271047 -2.0642684 5.9716935
-0.9869808 -1.4319289 3.2544069
-1.2090942 -1.7580463 3.2063804
-1.1735286 -1.7082332 2.5579479
-0.74775434 -0.95150894 20.764729
-0.55541402 -0.76575404 8.7794867
-1.2840146 -1.8333913 8.6552124
-1.6568124 -2.382287 7.9452682
-0.88098782 -1.2720008 3.2631247
-1.1053244 -1.5999995 3.2510612
-1.204343 -1.7459034 2.883297
-1.1506552 -1.6705498 2.2773178
-1.1221901 -1.6396132 2.032284
-1.0825114 -1.5834022 1.6289753
-1.0511224 -1.5380578 1.3059981
-1.027564 -1.5047009 1.0403403
-1.0067608 -1.4747822 0.80976856
-0.98712605 -1.4465533 0.60470188
-0.96583802 -1.4164104 0.41695657
-0.95659572 -1.4028522 0.24538271
-1.1008375 -1.6035993 1.8135536
-1.0646721 -1.5520666 1.4540101
-1.0371189 -1.512458 1.1632714
-1.0136962 -1.4799482 0.91670656
-0.99275297 -1.4499066 0.70072484
-0.97743493 -1.4280605 0.50809807
-0.95930731 -1.4015714 0.3291012
-0.95056301 -1.3893071 0.16158132
-0.048288457 -0.040125433 5.6840568
-0.78625196 -1.1007565 8.5996723
-1.0316021 -1.4584458 8.6119652
-1.5417479 -2.2020998 8.640893
-0.99470556 -1.4324092 3.263185
-1.2088124 -1.744563 3.1898487
-1.1685388 -1.6883135 2.5349226
-0.75053298 -0.94821441 20.749752
-0.55808365 -0.76381063 8.7794867
-1.2904065 -1.8288981 8.6552124
-1.6591766 -2.3680098 7.9171114
-0.88542259 -1.2689178 3.2631247
-1.1094129 -1.593991 3.2467954
-1.2018315 -1.7293172 2.8633468
-1.1468151 -1.6525971 2.2589419
-1.1198083 -1.6239425 2.0182657
-1.0792 -1.566792 1.6164215
-1.0493705 -1.5240475 1.2977736
-1.0252771 -1.4901564 1.033384
-1.0040213 -1.4598 0.80414945
-0.98673391 -1.4351931 0.6018818
-0.96521312 -1.4049329 0.41509131
-0.95584691 -1.3912952 0.24448855
-1.1000565 -1.5905346 1.8035771
-1.0631889 -1.5383652 1.4451805
-1.0350411 -1.4981887 1.155672
-1.0137004 -1.4689301 0.91251045
-0.99244505 -1.4386584 0.69743782
-0.97689497 -1.4166371 0.50575346
-0.95857126 -1.3900609 0.32771987
-0.95257133 -1.3818672 0.1613798
-0.048428226 -0.039956629 5.6840568
-0.79054344 -1.0986358 8.6046114
-1.0366868 -1.4548359 8.6119652
-1.5494254 -2.1967049 8.640893
-1.0189219 -1.456401 3.3246322
-1.2084514 -1.7311034 3.1733167
-1.1670915 -1.6737078 2.5195727
-0.75329787 -0.94491202 20.734777
-0.56043029 -0.76142871 8.7745152
-1.2960541 -1.8233578 8.6503725
-1.6256329 -2.3029931 7.7200155
-0.88859439 -1.2640386 3.2586234
-1.1119753 -1.5858382 3.2382634
-1.1992189 -1.7127699 2.8433967
-1.1448065 -1.6374704 2.2442412
-1.117331 -1.6083087 2.0042477
-1.0780051 -1.5534221 1.607006
-1.0475339 -1.5100683 1.2895492
-1.0229015 -1.4756469 1.0264276
-1.0038298 -1.4486655 0.80040342
-0.98627454 -1.423853 0.59906173
-0.96451986 -1.3934768 0.41322607
-0.95219475 -1.375666 0.24314731
-1.0970632 -1.5744314 1.7902751
-1.0616232 -1.5246935 1.4363512
-1.0328763 -1.4839522 1.1480724
-1.011049 -1.4542036 0.90621626
-0.99207097 -1.4274302 0.69415081
-0.97628742 -1.4052348 0.50340879
-0.95776665 -1.3785726 0.3263385
-0.95168954 -1.3703269 0.16097674
-0.048603326 -0.039812114 5.6890569
-0.79482979 -1.0964986 8.6095505
-1.041165 -1.4503814 8.60707
-1.5570838 -2.191283 8.640893
-0.83059686 -1.1750194 3.4495103
-1.0405579 -1.4763259 3.3773012
-1.208011 -1.7176676 3.156785
-1.1655564 -1.659133 2.5042226
-0.7571345 -0.94295162 20.749752
-0.56276703 -0.75903976 8.7695436
-1.3024111 -1.8188227 8.6503725
-1.6106586 -2.2649598 7.612082
-0.89300132 -1.2609291 3.2586234
-1.1175041 -1.581947 3.2382634
-1.1965057 -1.6962621 2.8234465
-1.140754 -1.6196061 2.2258654
-1.1168032 -1.5956339 1.9937341
-1.0744996 -1.5368899 1.5944521
-1.0456125 -1.4961205 1.2813249
-1.0229735 -1.4648037 1.02179
-1.0009192 -1.4337488 0.79478431
-0.98574817 -1.412534 0.59624165
-0.96375853 -1.382043 0.41136083
-0.95129389 -1.3641642 0.24225317
-1.0939709 -1.5583687 1.7769731
-1.059975 -1.5110513 1.4275216
-1.0330999 -1.4732789 1.1430061
-1.0109115 -1.4432311 0.90202022
-0.99163049 -1.4162222 0.69086379
-0.97282487 -1.3898723 0.49989185
-0.9568935 -1.3671069 0.32495713
-0.95360291 -1.362903 0.1607752
-0.048742 -0.039642211 5.6890569
-0.79865241 -1.0937176 8.6095505
-1.0462214 -1.4467381 8.60707
-1.5647233 -2.1858344 8.640893
-0.82789302 -1.1625652 3.421895
-1.0540249 -1.4844009 3.4036357
-1.207492 -1.7042562 3.1402533
-1.1639339 -1.6445893 2.4888728
-0.75769562 -0.93693811 20.674879
-0.56509405 -0.75664377 8.7645731
-1.3080165 -1.813246 8.6455336
-1.5944339 -2.2256567 7.499455
-0.89866185 -1.2595763 3.2631247
-1.1275562 -1.5844108 3.2510612
-1.1936918 -1.6797942 2.8034966
-1.1385529 -1.6045551 2.2111647
-1.1141455 -1.5800678 1.9797159
-1.0731336 -1.5235835 1.5850369
-1.0436065 -1.4822046 1.2731004
-1.0204332 -1.4503551 1.0148336
-1.0005839 -1.4226625 0.79103822
-0.98515475 -1.4012361 0.59342158
-0.96292913 -1.3706316 0.40949559
-0.9503243 -1.3526856 0.24135901
-1.0907801 -1.542347 1.763671
-1.0582447 -1.4974396 1.4186922
-1.0307742 -1.4591013 1.1354066
-1.0107094 -1.4322771 0.89782411
-0.99112403 -1.4050348 0.68757677
-0.97206819 -1.3785232 0.49754718
-0.95309836 -1.3516173 0.3228851
-0.9525978 -1.3513993 0.16037214
-0.048880082 -0.039471827 5.6890569
-0.80292588 -1.0915489 8.6144905
-1.051265 -1.4430773 8.60707
-1.5723438 -2.1803591 8.640893
-0.82966822 -1.1564935 3.4126902
-1.0633806 -1.4865563 3.4168029
-1.2068938 -1.6908693 3.1237214
-1.1622241 -1.6300775 2.4735227
-0.76315147 -0.93697184 20.734777
-0.56741112 -0.75424081 8.7596016
-1.314338 -1.8086691 8.6455336
-1.591084 -2.2046854 7.447835
-0.9030531 -1.2564317 3.2631247
-1.142198 -1.5931826 3.2766569
-1.1907777 -1.6633669 2.7835462
-1.134289 -1.5867815 2.1927891
-1.1113926 -1.5645397 1.9656976
-1.0716878 -1.5103053 1.5756215
-1.0415163 -1.4683212 1.264876
-1.0203663 -1.4395562 1.010196
-1.0001833 -1.4115958 0.78729212
-0.98449457 -1.3899596 0.59060156
-0.9620319 -1.3592428 0.40763035
-0.94928628 -1.3412304 0.24046485
-1.085324 -1.5233257 1.7470435
-1.0564322 -1.4838585 1.4098626
-1.0283624 -1.444958 1.127807
-1.0078137 -1.4176433 0.89152992
-0.99055153 -1.3938682 0.68428975
-0.97124434 -1.3671967 0.49520257
-0.95207471 -1.3402081 0.32150373
-0.95441651 -1.3439925 0.16017061
-0.049017563 -0.039300963 5.6890569
-0.80673122 -1.0887395 8.6144905
-1.056296 -1.439399 8.60707
-1.579945 -2.1748574 8.640893
-0.82797784 -1.1456738 3.3896773
-1.0713637 -1.4867212 3.425581
-1.2062173 -1.6775076 3.1071897
-1.1604273 -1.6155976 2.4581726
-0.76550108 -0.93318695 20.70982
-0.56939614 -0.75140613 8.7496586
-1.3206434 -1.8040701 8.6455336
-1.5764441 -2.1684117 7.344594
-0.90871018 -1.255035 3.2676258
-1.1538606 -1.5976427 3.2937207
-1.1860011 -1.6445365 2.7596061
-1.1318964 -1.5718083 2.1780884
-1.1106207 -1.5519505 1.9551841
-1.072426 -1.5002224 1.5693445
-1.0393419 -1.4544704 1.2566516
-1.0202365 -1.4287757 1.0055584
-0.99971777 -1.4005494 0.78354609
-0.98376775 -1.3787048 0.58778149
-0.96391881 -1.3518769 0.40669775
-0.9481799 -1.3297991 0.23957069
-1.081926 -1.5073948 1.7337415
-1.054538 -1.4703083 1.4010333
-1.0283762 -1.4343529 1.1227406
-1.0074708 -1.4067372 0.88733381
-0.98716432 -1.3788832 0.67935926
-0.97035319 -1.3558928 0.49285793
-0.95098305 -1.3288224 0.32012239
-0.95328856 -1.3325263 0.15976755
-0.049154453 -0.039129622 5.6890569
-0.81052667 -1.0859168 8.6144905
-1.0613139 -1.435703 8.60707
-1.587527 -2.1693292 8.640893
-0.82737201 -1.1364592 3.3712673
-1.082175 -1.4907247 3.4431372
-1.203811 -1.6618923 3.086525
-1.1585437 -1.6011503 2.4428227
-0.57136834 -0.74856681 8.7397146
-1.3269328 -1.7994493 8.6455336
-1.5758462 -2.151758 7.3070517
-0.91436851 -1.2536142 3.2721272
-1.1655681 -1.6020406 3.3107843
-1.1828784 -1.6281976 2.739656
-1.1274222 -1.5541273 2.1597126
-1.1076889 -1.5364928 1.9411659
-1.0708324 -1.4869943 1.5599293
-1.0395267 -1.4440465 1.2511686
-1.0174571 -1.4144177 0.99860191
-0.99648094 -1.3857598 0.77792698
-0.98297441 -1.3674721 0.58496141
-0.96290028 -1.3405247 0.40483251
-0.94700533 -1.3183919 0.23867653
-1.0806178 -1.4945321 1.7237651
-1.0549295 -1.4600658 1.395147
-1.0258045 -1.4202706 1.115141
-1.0070641 -1.3958507 0.88313776
-0.98644704 -1.3677689 0.67607224
-0.9693951 -1.3446118 0.49051329
-0.94982368 -1.3174609 0.31874102
-0.95209217 -1.3210846 0.15936449
-0.049254391 -0.038933661 5.6840568
-0.81431228 -1.0830809 8.6144905
-1.066319 -1.4319897 8.60707
-1.5950898 -2.1637745 8.640893
-0.8255564 -1.1256876 3.3482547
-1.0873721 -1.4869381 3.4431372
-1.199652 -1.6440414 3.0617273
-1.1565734 -1.5867358 2.4274726
-0.33671576 -0.40556425 8.954464
-0.57332766 -0.74572289 8.7297716
-1.3324562 -1.7937976 8.6406937
-1.5751514 -2.1351352 7.2695098
-0.91873884 -1.2504147 3.2721272
-1.1773202 -1.6063763 3.3278482
-1.1814361 -1.6143324 2.723696
-1.1248389 -1.5392339 2.1450119
-1.1067582 -1.5239602 1.9306521
-1.0691594 -1.4737958 1.5505139
-1.0371966 -1.4302543 1.2429444
-1.0171894 -1.4036835 0.99396437
-0.99587262 -1.3747643 0.77418089
-0.98211473 -1.356262 0.58214134
-0.95893461 -1.3252164 0.40203464
-0.94576281 -1.3070092 0.23778237
-1.0792331 -1.4816968 1.7137885
-1.0528835 -1.4465705 1.3863175
-1.0256834 -1.4097097 1.1100746
-1.0039254 -1.381313 0.87684357
-0.98566413 -1.3566767 0.67278522
-0.97122639 -1.3372868 0.48934099
-0.95150656 -1.3101305 0.31805035
-0.95082754 -1.3096675 0.15896143
-0.049389996 -0.038761493 5.6840568
-0.81808805 -1.0802319 8.6144905
-1.071311 -1.4282587 8.60707
-1.6026331 -2.1581933 8.640893
-0.82367593 -1.1149427 3.325242
-1.0882943 -1.4773488 3.4299703
-1.1970497 -1.628507 3.0410624
-1.1545167 -1.5723549 2.4121227
-0.33256117 -0.39775282 8.8047142
-0.57527411 -0.7428745 8.7198296
-1.3387097 -1.7891355 8.6406937
-1.5805361 -2.1268539 7.2601242
-0.92439312 -1.2489499 3.2766283
-1.1875676 -1.6085511 3.3406458
-1.1781234 -1.5980719 2.7037458
-1.1221654 -1.5243777 2.1303113
-1.1036483 -1.508575 1.916634
-1.0651109 -1.4574845 1.5379601
-1.0372496 -1.4198723 1.2374614
-1.0142471 -1.3893907 0.98700798
-0.9951998 -1.36379 0.77043486
-0.98118871 -1.3450743 0.57932127
-0.95776749 -1.3139218 0.4001694
-0.94738585 -1.2996755 0.23733529
-1.0777719 -1.4688897 1.703812
-1.0507565 -1.4331076 1.377488
-1.0255011 -1.3991671 1.1050084
-1.0033789 -1.3704764 0.87264746
-0.98481596 -1.3456067 0.66949821
-0.9701485 -1.3260429 0.48699635
-0.95022601 -1.298808 0.31666899
-0.95244408 -1.3023078 0.15875989
-0.049524996 -0.038588855 5.6840568
-0.8218537 -1.0773696 8.6144905
-1.07629 -1.4245105 8.60707
-1.6092627 -2.1513906 8.6361208
-0.82289696 -1.1057919 3.3068321
-1.0877354 -1.4658481 3.4124138
-1.1943539 -1.6130114 3.0203977
-1.1542799 -1.5605845 2.40061
-0.33394754 -0.39658955 8.8047142
-0.57687956 -0.73960137 8.704915
-1.3449467 -1.7844516 8.6406937
-1.5620955 -2.0867879 7.1428046
-0.92874718 -1.2457155 3.2766283
-1.1947318 -1.6064887 3.3449118
-1.1765082 -1.5842733 2.6877859
-1.1194022 -1.509559 2.1156106
-1.1025602 -1.4961009 1.9061204
-1.0632691 -1.4443541 1.5285445
-1.0347642 -1.4061396 1.229237
-1.0138422 -1.3787045 0.98237038
-0.99446267 -1.3528373 0.76668876
-0.98019671 -1.33391 0.57650119
-0.95653319 -1.3026518 0.39830416
-0.94602174 -1.2883326 0.23644114
-1.078454 -1.4591135 1.697161
-1.0485481 -1.419677 1.3686585
-1.0226973 -1.3851751 1.0974088
-1.0027688 -1.3596604 0.86845136
-0.98390257 -1.3345592 0.66621119
-0.96900392 -1.3148228 0.48465171
-0.94887793 -1.2875103 0.31528762
-0.95105761 -1.2909307 0.15835683
-0.049659394 -0.038415749 5.6840568
-0.826083 -1.0751102 8.6194296
-1.0806392 -1.4199346 8.6021748
-1.6167625 -2.1457601 8.6361208
-0.82089216 -1.0950971 3.2838192
-1.0856756 -1.452451 3.3904684
-1.1915644 -1.5975543 2.999733
-1.15206 -1.546265 2.3852601
-0.33532989 -0.39542145 8.8047142
-0.57846928 -0.73632604 8.6899996
-1.3511676 -1.7797459 8.6406937
-1.5485901 -2.0537663 7.0489497
-0.93308991 -1.2424659 3.2766283
-1.201896 -1.6043957 3.3491776
-1.1730062 -1.5680929 2.6678357
-1.1165491 -1.4947783 2.1009099
-1.0992726 -1.4807894 1.8921022
-1.061349 -1.4312546 1.5191293
-1.034686 -1.3958008 1.223754
-1.0107381 -1.3644785 0.97541398
-0.99366122 -1.3419065 0.76294273
-0.97913879 -1.322769 0.57368112
-0.95523202 -1.2914064 0.39643893
-0.94459015 -1.2770151 0.23554698
-1.0768512 -1.4463557 1.6871846
-1.0486718 -1.4095225 1.3627722
-1.0223811 -1.3746787 1.0923425
-0.99938893 -1.3452225 0.86215717
-0.9829241 -1.3235345 0.66292417
-0.96779293 -1.3036269 0.48230708
-0.95041454 -1.2802141 0.31459692
-0.95258069 -1.2835913 0.15815529
-0.049793191 -0.038242169 5.6840568
-0.82983083 -1.0722201 8.6194296
-1.0855892 -1.4161538 8.6021748
-1.6233402 -2.1389146 8.6313486
-0.82353246 -1.0906659 3.2792168
-1.0835356 -1.4390863 3.3685231
-1.188682 -1.5821366 2.9790683
-1.1497543 -1.5319803 2.36991
-0.33745974 -0.39512518 8.8246813
-0.5800432 -0.73304886 8.675086
-1.3573718 -1.7750186 8.6406937
-1.5265226 -2.0098708 6.9175525
-0.93610775 -1.2374653 3.2721272
-1.207489 -1.6001906 3.3491776
-1.171219 -1.5543628 2.6518755
-1.1156449 -1.4827448 2.0898843
-1.0980275 -1.4683753 1.8815886
-1.0593503 -1.4181861 1.5097139
-1.0320462 -1.3821293 1.2155296
-1.0101963 -1.3538413 0.97077638
-0.99002367 -1.3272818 0.75732362
-0.97801518 -1.3116519 0.57086104
-0.95679909 -1.2841251 0.39550632
-0.94606656 -1.2697167 0.2350999
-1.077413 -1.4366139 1.6805335
-1.0463132 -1.39615 1.3539426
-1.0220039 -1.3642015 1.0872761
-0.99863994 -1.3344584 0.85796106
-0.98188072 -1.3125329 0.65963709
-0.96651566 -1.2924557 0.47996244
-0.94894612 -1.2689571 0.31321558
-0.95107287 -1.2722554 0.15775223
-0.049926378 -0.038068127 5.6840568
-0.83356851 -1.069317 8.6194296
-1.0899035 -1.4115499 8.5972795
-1.6307967 -2.133235 8.6313486
-0.82733458 -1.0877846 3.2792168
-1.0813156 -1.4257543 3.3465776
-1.185706 -1.5667585 2.9584033
-1.149296 -1.5202872 2.3583977
-0.33845958 -0.39350781 8.8146973
-0.58126873 -0.72935271 8.6551991
-1.3635594 -1.7702698 8.6406937
-1.5282861 -1.9976772 6.8940883
-0.9404217 -1.2341901 3.2721272
-1.2083325 -1.5897371 3.33638
-1.1675284 -1.5382642 2.6319253
-1.1146706 -1.4707361 2.0788589
-1.0967091 -1.4559879 1.8710749
-1.0596137 -1.4082593 1.5034369
-1.0318375 -1.3718351 1.2100466
-1.0095929 -1.3432248 0.96613878
-0.9890812 -1.3164053 0.75357759
-0.97682589 -1.3005586 0.56804103
-0.95537817 -1.27292 0.39364108
-0.9445141 -1.2584409 0.23420574
-1.0756689 -1.4239067 1.670557
-1.0438744 -1.3828114 1.3451133
-1.0189697 -1.3503031 1.0796765
-0.99782795 -1.3237162 0.85376495
-0.98077255 -1.3015549 0.65635008
-0.96517223 -1.2813092 0.47761783
-0.9474107 -1.2577261 0.31183422
-0.95250279 -1.2649368 0.15755071
-0.050058953 -0.037893619 5.6840568
-0.83729601 -1.0664008 8.6194296
-1.0948241 -1.4077369 8.5972795
-1.6373223 -2.1263466 8.6265764
-0.82993841 -1.0833392 3.2746143
-1.0790159 -1.4124554 3.3246322
-1.1843438 -1.5536585 2.9418716
-1.1448864 -1.503516 2.33921
-0.34002057 -0.39254183 8.8196888
-0.58247566 -0.72565717 8.635314
-1.3697306 -1.7654992 8.6406937
-1.4983814 -1.9444902 6.7298412
-0.94339848 -1.2291729 3.2676258
-1.2011905 -1.5689436 3.3022525
-1.1655701 -1.5246042 2.6159654
-1.1115687 -1.4560577 2.0641582
-1.095318 -1.4436278 1.8605614
-1.0574696 -1.395246 1.4940217
-1.0290444 -1.3582265 1.2018223
-1.0089276 -1.332629 0.96150118
-0.9908725 -1.3092482 0.75170451
-0.9755711 -1.2894899 0.56522095
-0.95685321 -1.2656587 0.39270842
-0.94589788 -1.2511636 0.23375866
-1.0738496 -1.4112294 1.6605806
-1.041355 -1.3695068 1.3362837
-1.0184593 -1.3398743 1.0746102
-0.99420881 -1.3093811 0.84747082
-0.97959977 -1.2906008 0.65306306
-0.96376288 -1.2701881 0.47527319
-0.94880193 -1.2504663 0.31114352
-0.95087415 -1.2536433 0.15714765
-0.050190922 -0.037718646 5.6840568
-0.84101337 -1.0634716 8.6194296
-1.0997313 -1.4039066 8.5972795
-1.6447346 -2.1206183 8.6265764
-0.83371484 -1.0804356 3.2746143
-1.0766366 -1.3991902 3.3026869
-1.1829045 -1.5405873 2.9253399
-1.1403737 -1.4867942 2.3200223
-0.34138876 -0.39135253 8.8196888
-0.58399916 -0.72237635 8.6203995
-1.3758849 -1.7607073 8.6406937
-1.5030434 -1.9365216 6.7204561
-0.94768333 -1.2258724 3.2676258
-1.1986963 -1.5544151 3.2809229
-1.1616925 -1.5085896 2.5960152
-1.1104448 -1.4441065 2.0531328
-1.0938537 -1.4312952 1.8500476
-1.0552477 -1.382265 1.4846063
-1.0287056 -1.3479784 1.1963394
-1.0082006 -1.3220543 0.95686358
-0.98981553 -1.2984079 0.74795848
-0.97425115 -1.2784458 0.56240088
-0.95531321 -1.2544948 0.39084318
-0.94422525 -1.2399303 0.2328645
-1.071955 -1.3985822 1.650604
-1.0412135 -1.3594457 1.3303974
-1.0178888 -1.3294655 1.0695438
-0.99325883 -1.2986927 0.84327471
-0.97836262 -1.2796707 0.64977604
-0.96523929 -1.2629544 0.47410086
-0.94714701 -1.2392778 0.30976218
-0.9491784 -1.2423767 0.15674458
-0.050322279 -0.037543219 5.6840568
-0.84472042 -1.0605294 8.6194296
-1.1046251 -1.4000593 8.5972795
-1.6512079 -2.113688 8.6218052
-0.83628219 -1.0759764 3.2700117
-1.0741777 -1.3859589 3.2807415
-1.1848316 -1.531997 2.917074
-1.1357585 -1.4701226 2.3008351
-0.34275275 -0.39015847 8.8196888
-0.58550686 -0.71909374 8.605484
-1.3820226 -1.7558937 8.6406937
-1.4917246 -1.9081521 6.6406789
-0.95195663 -1.2225569 3.2676258
-1.1961153 -1.5399232 3.259593
-1.1595639 -1.4950017 2.5800552
-1.1092509 -1.4321808 2.0421071
-1.092317 -1.4189907 1.839534
-1.0553209 -1.3724021 1.4783293
-1.0283079 -1.3377489 1.1908565
-1.0074122 -1.3115009 0.95222592
-0.98869485 -1.2875911 0.74421245
-0.97286594 -1.2674267 0.5595808
-0.95370698 -1.2433572 0.38897794
-0.94551677 -1.2326754 0.23241742
-1.0699852 -1.3859656 1.6406276
-1.0385456 -1.3462021 1.321568
-1.0172582 -1.3190771 1.0644776
-0.99224645 -1.288027 0.83907861
-0.97706121 -1.2687652 0.64648902
-0.9637118 -1.2518742 0.47175622
-0.94542545 -1.2281162 0.30838081
-0.95046246 -1.2350966 0.15654305
-0.050453026 -0.037367333 5.6840568
-0.84841728 -1.0575743 8.6194296
-1.1095055 -1.3961949 8.5972795
-1.6585761 -2.1079113 8.6218052
-0.84003299 -1.0730507 3.2700117
-1.0731137 -1.3746496 3.263185
-1.1849838 -1.521192 2.904675
-1.1310407 -1.4535012 2.2816474
-0.34411255 -0.38895968 8.8196888
-0.58699882 -0.71580952 8.5905704
-1.3881433 -1.7510589 8.6406937
-1.4930381 -1.8961545 6.6172152
-0.95621842 -1.2192265 3.2676258
-1.1934478 -1.5254685 3.2382634
-1.1573548 -1.481447 2.564095
-1.1079875 -1.4202814 2.0310817
-1.0907075 -1.4067142 1.8290204
-1.0529546 -1.3594784 1.468914
-1.0252913 -1.3242327 1.1826321
-1.0065626 -1.3009694 0.94758832
-0.98751074 -1.2767978 0.7404663
-0.9714157 -1.256433 0.55676073
-0.95503801 -1.2361333 0.38804534
-0.94372451 -1.2214859 0.23152326
-1.0702324 -1.3763273 1.6339766
-1.0382781 -1.3361853 1.3156817
-1.0165675 -1.3087096 1.0594112
-0.9911719 -1.2773844 0.8348825
-0.97569549 -1.2578844 0.64320201
-0.9621188 -1.2408202 0.46941158
-0.94363767 -1.2169816 0.30699944
-0.94864661 -1.2238741 0.15613998
-0.05058315 -0.037190992 5.6840568
-0.85210365 -1.0546063 8.6194296
-1.1143724 -1.3923136 8.5972795
-1.6649967 -2.1009393 8.617033
-0.84256381 -1.0685779 3.2654092
-1.0705036 -1.3614824 3.2412398
-1.1868123 -1.5126187 2.8964093
-1.1281983 -1.4394537 2.2662973
-0.34566063 -0.38797131 8.8246813
-0.58881462 -0.71293449 8.5806274
-1.3942472 -1.7462027 8.6406937
-1.4899964 -1.8787631 6.5749803
-0.96046847 -1.2158812 3.2676258
-1.1923084 -1.5130997 3.2211998
-1.1532018 -1.4655579 2.5441449
-1.1066545 -1.408408 2.0200562
-1.089026 -1.3944666 1.8185068
-1.050511 -1.346588 1.4594986
-1.0247645 -1.314051 1.1771491
-1.0056516 -1.2904598 0.94295073
-0.98626339 -1.2660286 0.73672026
-0.96990073 -1.245465 0.55394071
-0.95331335 -1.2250386 0.3861801
-0.94492406 -1.214254 0.23107618
-1.0681231 -1.3637646 1.6240001
-1.0379534 -1.326187 1.3097954
-1.0131603 -1.2949678 1.0518116
-0.99003512 -1.2667649 0.83068645
-0.97426593 -1.2470287 0.63991499
-0.96046066 -1.2297928 0.46706694
-0.94483185 -1.2097775 0.30630878
-0.94676405 -1.2126794 0.15573692
-0.050675422 -0.03699147 5.6790571
-0.85577983 -1.0516255 8.6194296
-1.1192257 -1.3884152 8.5972795
-1.6723201 -2.0951145 8.617033
-0.84507352 -1.0641005 3.2608066
-1.0722755 -1.3539822 3.2324615
-1.1885954 -1.5040512 2.8881433
-1.1252717 -1.4254439 2.2509475
-0.34739926 -0.38719141 8.8346643
-0.59061748 -0.71005541 8.5706835
-1.3995464 -1.7403458 8.6358538
-1.4879287 -1.8627645 6.5374379
-0.96335137 -1.2108178 3.2631247
-1.1910971 -1.5007573 3.2041361
-1.1508238 -1.4520777 2.5281849
-1.1031482 -1.3939034 2.0053556
-1.0872722 -1.3822478 1.8079931
-1.0503953 -1.3367918 1.4532217
-1.0241793 -1.3038895 1.1716661
-1.0046797 -1.2799723 0.93831313
-0.98495311 -1.255284 0.73297417
-0.9683212 -1.2345228 0.55112064
-0.95455337 -1.2178373 0.38524747
-0.94608468 -1.2070287 0.2306291
-1.068252 -1.3541652 1.617349
-1.0350691 -1.313033 1.3009658
-1.0123382 -1.2846516 1.0467453
-0.98883641 -1.256169 0.82649034
-0.97277248 -1.2361983 0.63662797
-0.95873719 -1.2187921 0.46472231
-0.94292557 -1.1986877 0.30492741
-0.9448151 -1.2015128 0.15533386
-0.050804235 -0.036814354 5.6790571
-0.85944545 -1.0486319 8.6194296
-1.1234235 -1.3837094 8.5923843
-1.6786883 -2.0881011 8.6122618
-0.84634185 -1.0580931 3.2516015
-1.0769953 -1.3502311 3.2324615
-1.1850756 -1.4888847 2.8674786
-1.122261 -1.411472 2.2355974
-0.34894264 -0.38619021 8.8396559
-0.59240741 -0.70717251 8.5607405
-1.4056128 -1.7354499 8.6358538
-1.4836043 -1.8441143 6.4905105
-0.96757209 -1.2074476 3.2631247
-1.1898144 -1.4884423 3.1870723
-1.1483659 -1.4386321 2.5122247
-1.1016676 -1.3820913 1.9943302
-1.0832318 -1.3672632 1.7939749
-1.0502239 -1.327013 1.4469448
-1.0209413 -1.2904688 1.1634418
-1.0036469 -1.2695076 0.93367553
-0.98357981 -1.2445639 0.72922814
-0.96965075 -1.2273711 0.54971057
-0.95271093 -1.2067869 0.38338223
-0.94412065 -1.1959016 0.22973496
-1.0660039 -1.341658 1.6073725
-1.0346192 -1.3030809 1.2950795
-1.0114561 -1.2743572 1.0416789
-0.98757577 -1.2455971 0.82229424
-0.97121531 -1.2253938 0.63334101
-0.95694876 -1.2078185 0.46237767
-0.94402879 -1.1915076 0.30423674
-0.94279969 -1.1903747 0.1549308
-0.05093243 -0.036636792 5.6790571
-0.86260581 -1.0450263 8.6144905
-1.1282467 -1.3797795 8.5923843
-1.684088 -2.0799086 8.6027174
-0.84880441 -1.053611 3.246999
-1.0817018 -1.3464634 3.2324615
-1.1832247 -1.4759569 2.8509469
-1.1211703 -1.4000405 2.2240849
-0.35184619 -0.38667506 8.8795891
-0.59452844 -0.70469314 8.5557699
-1.411662 -1.7305329 8.6358538
-1.4802542 -1.8268579 6.4482756
-0.97041357 -1.2023689 3.2586234
-1.1884604 -1.4761543 3.1700087
-1.1477163 -1.4275699 2.5002546
-1.1001179 -1.3703066 1.9833045
-1.0813246 -1.3551111 1.7834612
-1.0475711 -1.314208 1.4375293
-1.0202279 -1.2803569 1.1579589
-1.0025533 -1.2590659 0.92903793
-0.98214376 -1.2338687 0.72548205
-0.96795535 -1.2164717 0.54689056
-0.9508031 -1.1957642 0.38151699
-0.94518995 -1.1887008 0.22928788
-1.0660146 -1.3320986 1.6007215
-1.0315881 -1.2899913 1.2862499
-1.007823 -1.2607174 1.0340793
-0.98908556 -1.2385958 0.82019615
-0.96959472 -1.2146152 0.630054
-0.95812726 -1.2006716 0.46120536
-0.94200462 -1.1804638 0.30285537
-0.94071817 -1.1792655 0.15452774
-0.051060006 -0.036458779 5.6790571
-0.86575156 -1.0414115 8.6095505
-1.133056 -1.3758328 8.5923843
-1.6913379 -2.0740175 8.6027174
-0.85247701 -1.0506418 3.246999
-1.0879019 -1.3445412 3.2368507
-1.181298 -1.46306 2.834415
-1.1200136 -1.3886341 2.2125723
-0.35241196 -0.38459459 8.859622
-0.59629387 -0.70180136 8.5458269
-1.4176942 -1.7255946 8.6358538
-1.4757105 -1.8083103 6.4013476
-0.97460473 -1.1989743 3.2586234
-1.1870352 -1.4638942 3.1529448
-1.1451072 -1.4141879 2.4842944
-1.0984994 -1.3585497 1.972279
-1.0793458 -1.3429893 1.7729477
-1.0472784 -1.3044732 1.4312525
-1.0194564 -1.2702658 1.152476
-0.99862766 -1.2451915 0.92208159
-0.98354495 -1.2268159 0.72360903
-0.96919572 -1.209342 0.54548049
-0.9519006 -1.1886038 0.38058439
-0.94622052 -1.1815072 0.2288408
-1.0636287 -1.3196484 1.5907451
-1.0310137 -1.2800868 1.2803636
-1.0068105 -1.2504764 1.0290129
-0.98771411 -1.2280625 0.81600004
-0.96791077 -1.2038629 0.62676698
-0.95622253 -1.1897427 0.45886073
-0.94301713 -1.1733085 0.3021647
-0.93857062 -1.1681855 0.15412468
-0.051186964 -0.036280327 5.6790571
-0.86888254 -1.0377874 8.6046114
-1.1378517 -1.3718693 8.5923843
-1.6985674 -2.0681009 8.6027174
-0.85490292 -1.0461469 3.2423966
-1.0925885 -1.3407354 3.2368507
-1.1775205 -1.4480116 2.8137503
-1.1208119 -1.3797405 2.2048974
-0.35335994 -0.3829385 8.8496389
-0.59874004 -0.69971567 8.5458269
-1.4237089 -1.7206354 8.6358538
-1.4688642 -1.7871511 6.3450346
-0.97740489 -1.1938806 3.2541223
-1.1855388 -1.4516621 3.1358809
-1.1443233 -1.4031769 2.4723246
-1.0968125 -1.346821 1.9612535
-1.0795395 -1.3336698 1.7659385
-1.0469307 -1.2947563 1.4249755
-1.018627 -1.2601957 1.146993
-0.997401 -1.2348061 0.91744399
-0.98199654 -1.2161616 0.719863
-0.96738517 -1.1984861 0.54266042
-0.94987571 -1.1776268 0.37871915
-0.9472124 -1.1743209 0.22839372
-1.0611688 -1.3072311 1.5807685
-1.0303829 -1.270202 1.2744772
-1.005739 -1.240258 1.0239466
-0.98628122 -1.2175541 0.81180394
-0.96913534 -1.1968071 0.62512344
-0.95731139 -1.1826196 0.45768842
-0.94087547 -1.1623116 0.30078334
-0.93635726 -1.1571348 0.15372162
-0.051313292 -0.036101431 5.6790571
-0.87199885 -1.0341543 8.5996723
-1.1426336 -1.3678892 8.5923843
-1.7000672 -2.0552583 8.5740852
-0.85854942 -1.0431564 3.2423966
-1.0972619 -1.3369135 3.2368507
-1.1754353 -1.4351847 2.7972186
-1.1215619 -1.3708583 2.1972225
-0.35449758 -0.38149163 8.8446474
-0.60083067 -0.69721776 8.5408554
-1.4289018 -1.7146899 8.6310148
-1.4574864 -1.7607446 6.2699504
-0.98156631 -1.1904615 3.2541223
-1.1823148 -1.4374441 3.1145513
-1.1434765 -1.3921885 2.4603543
-1.0972071 -1.3377419 1.9539032
-1.0774276 -1.321601 1.7554249
-1.0440701 -1.2820399 1.4155602
-1.0177399 -1.250147 1.14151
-0.99611402 -1.2244444 0.91280639
-0.98038572 -1.2055329 0.71611691
-0.96853667 -1.1913798 0.54125035
-0.94778585 -1.1666785 0.37685391
-0.94502568 -1.1632768 0.22749956
-1.0609987 -1.2977378 1.5741175
-1.0296956 -1.2603375 1.268591
-1.0046085 -1.2300622 1.0188802
-0.98478705 -1.2070707 0.80760783
-0.96733797 -1.1860982 0.62183642
-0.95529085 -1.1717361 0.45534378
-0.93866855 -1.1513439 0.29940197
-0.93723434 -1.1499864 0.15352009
-0.051438998 -0.035922091 5.6790571
-0.87560332 -1.0311041 8.5996723
-1.1467459 -1.3631133 8.5874891
-1.6919429 -2.030962 8.4977331
-0.86218548 -1.0401531 3.2423966
-1.1019219 -1.3330752 3.2368507
-1.1732751 -1.42239 2.7806866
-1.1202251 -1.3595141 2.1857097
-0.35562941 -0.38004151 8.8396559
-0.60326076 -0.69511622 8.5408554
-1.4348783 -1.7096915 8.6310148
-1.4569932 -1.7476938 6.2417936
-0.98571587 -1.1870279 3.2541223
-1.1806699 -1.425275 3.0974877
-1.142567 -1.3812234 2.4483843
-1.0953926 -1.3260626 1.9428777
-1.075245 -1.3095638 1.7449113
-1.0436021 -1.2723688 1.4092834
-1.0167949 -1.2401199 1.1360271
-0.99476695 -1.2141068 0.90816879
-0.97871268 -1.1949306 0.71237087
-0.9666115 -1.1805685 0.53843033
-0.94874191 -1.1595613 0.37592128
-0.94592696 -1.1561167 0.22705248
-1.0584017 -1.2853794 1.5641412
-1.0263839 -1.247372 1.2597615
-1.0034189 -1.2198896 1.013814
-0.98323184 -1.1966127 0.80341172
-0.96847492 -1.1790652 0.62019289
-0.9562906 -1.1646379 0.45417145
-0.93953919 -1.1442331 0.2987113
-0.93490338 -1.1389846 0.15311703
-0.051564075 -0.03574232 5.6790571
-0.87869209 -1.027451 8.5947323
-1.1514971 -1.3591021 8.5874891
-1.6875081 -2.011322 8.4404697
-0.86455894 -1.0356376 3.2377942
-1.1050361 -1.3273801 3.2324615
-1.1710401 -1.4096278 2.7641549
-1.12087 -1.3506626 2.1780348
-0.35695386 -0.37879783 8.8396559
-0.60568351 -0.69300622 8.5408554
-1.4400259 -1.7037123 8.6261749
-1.447549 -1.7240953 6.176095
-0.98566329 -1.1785704 3.2406185
-1.1806253 -1.4151373 3.0846899
-1.1396661 -1.3679663 2.4324241
-1.09351 -1.3144126 1.9318523
-1.0729915 -1.2975577 1.7343976
-1.0430791 -1.2627165 1.4030064
-1.0157924 -1.2301147 1.1305442
-0.99336004 -1.2037938 0.90353119
-0.97697771 -1.1843547 0.70862478
-0.96767449 -1.1734861 0.53702027
-0.94653589 -1.1486605 0.37405604
-0.9467898 -1.1489646 0.2266054
-1.0581151 -1.2759291 1.5574901
-1.0255734 -1.2375573 1.2538751
-1.004921 -1.21306 1.0112808
-0.98161566 -1.1861804 0.79921561
-0.96957475 -1.1720389 0.61854941
-0.95415497 -1.1538014 0.45182684
-0.93721575 -1.1333141 0.29732993
-0.93569028 -1.1318637 0.15291549
-0.051688526 -0.035562109 5.6790571
-0.88227326 -1.0243776 8.5947323
-1.1562343 -1.3550743 8.5874891
-1.6819932 -1.9905976 8.3784332
-0.86816871 -1.0326134 3.2377942
-1.1096628 -1.3235146 3.2324615
-1.1687303 -1.3968989 2.7476232
-1.1194111 -1.3393639 2.1665225
-0.35827395 -0.3775495 8.8396559
-0.60809886 -0.69088775 8.5408554
-1.4459642 -1.6986753 8.6261749
-1.4524442 -1.7177144 6.1714025
-0.9939788 -1.1801175 3.2541223
-1.1788468 -1.4030207 3.067626
-1.1366868 -1.3547467 2.4164641
-1.0915594 -1.302792 1.9208267
-1.0706674 -1.2855835 1.7238841
-1.0400122 -1.2500913 1.393591
-1.0120589 -1.2169169 1.1223198
-0.99189311 -1.1935054 0.89889359
-0.97814339 -1.1773713 0.70675176
-0.96563524 -1.1627204 0.53420019
-0.9474026 -1.1415695 0.37312344
-0.94443387 -1.1379883 0.22571123
-1.0577755 -1.2664964 1.5508391
-1.0221168 -1.2246604 1.2450458
-1.0036259 -1.2029248 1.0062144
-0.97993875 -1.175774 0.79501951
-0.96761465 -1.1613914 0.61526239
-0.95506597 -1.1467289 0.45065451
-0.9379968 -1.1262305 0.29663923
-0.93643898 -1.1247512 0.15271397
-0.051774401 -0.035359919 5.6740575
-0.88584363 -1.0212916 8.5947323
-1.1609573 -1.35103 8.5874891
-1.6308846 -1.9165093 8.0921154
-0.87176794 -1.0295767 3.2377942
-1.1204571 -1.3269526 3.2500179
-1.1645324 -1.3820512 2.7269583
-1.1158229 -1.3256397 2.1511722
-0.35958964 -0.37629661 8.8396559
-0.61050677 -0.68876088 8.5408554
-1.4510667 -1.6926634 8.621335
-0.81506318 -0.95721334 3.4730618
-1.0276667 -1.2115015 3.3486478
-1.176998 -1.3909339 3.0505624
-1.1336291 -1.3415647 2.4005039
-1.0895413 -1.2912011 1.9098014
-1.0705647 -1.2763739 1.716875
-1.0393698 -1.2404865 1.3873141
-1.0109307 -1.2069658 1.1168369
-0.99036658 -1.1832418 0.89425594
-0.97629744 -1.1668389 0.70300567
-0.96661037 -1.1556633 0.53279018
-0.94823134 -1.1344864 0.3721908
-0.9452067 -1.1308637 0.22526415
-1.0573829 -1.2570819 1.5441881
-1.0211838 -1.214897 1.2391595
-1.0022722 -1.1928136 1.001148
-0.97820115 -1.1653937 0.7908234
-0.96862745 -1.1543894 0.61361885
-0.95281559 -1.1359401 0.44830987
-0.93555754 -1.1153615 0.2952579
-0.93714935 -1.1176473 0.15251243
-0.051897515 -0.035178978 5.6740575
-0.8894031 -1.0181932 8.5947323
-1.1656661 -1.3469694 8.5874891
-1.6375647 -1.9108047 8.0921154
-0.87662417 -1.0280137 3.2423966
-1.1421496 -1.3431019 3.2982976
-1.1620663 -1.3693957 2.7104266
-1.1142255 -1.3144021 2.1396599
-0.36110154 -0.37524673 8.8446474
-0.61255211 -0.6862281 8.5358829
-1.4569663 -1.687588 8.621335
-0.81165862 -0.94650322 3.444905
-1.0587572 -1.239354 3.4341707
-1.1750793 -1.3788773 3.0334985
-1.1324463 -1.3307153 2.3885341
-1.0896509 -1.2822233 1.902451
-1.0681093 -1.264456 1.7063613
-1.0361629 -1.2279267 1.3778987
-1.0097452 -1.1970373 1.1113539
-0.98878062 -1.1730037 0.88961834
-0.97438985 -1.1563337 0.69925964
-0.96445727 -1.1449443 0.52997011
-0.9458589 -1.1236535 0.37032557
-0.94594139 -1.1237476 0.22481708
-1.0545241 -1.2448366 1.5342115
-1.0201951 -1.205155 1.2332731
-1.0008605 -1.1827264 0.99608171
-0.97933316 -1.158506 0.78872538
-0.96655512 -1.1437876 0.61033183
-0.95363826 -1.1288941 0.44713756
-0.93624949 -1.1083059 0.2945672
-0.93782175 -1.1105523 0.15231091
-0.051981904 -0.034976326 5.6690574
-0.89295191 -1.0150824 8.5947323
-1.1703609 -1.3428922 8.5874891
-1.6091113 -1.8643978 7.9203234
-0.88148034 -1.0264297 3.246999
-1.1639687 -1.3591158 3.3465776
-1.1595261 -1.3567744 2.6938949
-1.110482 -1.3007541 2.1243098
-0.36261046 -0.37419087 8.8496389
-0.6149438 -0.68408579 8.5358829
-1.4628483 -1.6824919 8.621335
-0.81608564 -0.94497019 3.4495978
-1.073016 -1.2472018 3.4656792
-1.1730908 -1.366851 3.0164349
-1.1312016 -1.3198905 2.3765638
-1.0853024 -1.2681098 1.8877504
-1.0678948 -1.2552875 1.6993521
-1.0354016 -1.2183706 1.3716217
-1.0085028 -1.1871319 1.105871
-0.99000221 -1.1661681 0.88729954
-0.97242081 -1.1458561 0.69551355
-0.96224135 -1.1342548 0.52715003
-0.94659883 -1.1165981 0.36939296
-0.94663787 -1.1166402 0.22437
-1.054016 -1.235467 1.5275606
-1.0217732 -1.1985105 1.23033
-0.9993903 -1.1726638 0.99101532
-0.97748697 -1.148169 0.78452927
-0.96748137 -1.1368107 0.60868835
-0.9512738 -1.1181543 0.44479293
-0.9369036 -1.1012594 0.29387653
-0.93521923 -1.0996605 0.15190785
-0.05210368 -0.034794662 5.6690574
-0.89648974 -1.0119592 8.5947323
-1.1750413 -1.3387988 8.5874891
-1.5646858 -1.8001887 7.6721807
-0.88633597 -1.0248239 3.2516015
-1.1780915 -1.3659258 3.3729122
-1.156912 -1.3441875 2.6773629
-1.1087465 -1.2895787 2.1127973
-0.36452052 -0.37354153 8.8646145
-0.61697 -0.68153995 8.5309114
-1.4687124 -1.6773753 8.621335
-0.81598145 -0.93820977 3.4355197
-1.0773631 -1.2434487 3.4656792
-1.1710328 -1.3548555 2.9993713
-1.1298953 -1.3090909 2.364594
-1.083082 -1.2566099 1.8767248
-1.065309 -1.2434278 1.6888385
-1.0320553 -1.2058778 1.3622065
-1.0099221 -1.1804272 1.1031295
-0.98830956 -1.1559714 0.88266194
-0.97340256 -1.1389306 0.69364047
-0.95996273 -1.1235946 0.52433002
-0.94411141 -1.1058152 0.36752769
-0.94729632 -1.1095415 0.22392292
-1.0510223 -1.2232844 1.517584
-1.0206844 -1.1888034 1.2244437
-0.99786228 -1.1626259 0.98594898
-0.97558051 -1.1378591 0.78033316
-0.96529752 -1.1262558 0.60540134
-0.95200861 -1.1111358 0.44362062
-0.93752003 -1.0942217 0.29318586
-0.93580222 -1.0925949 0.15170631
-0.052186575 -0.034591559 5.6640577
-0.90001673 -1.0088238 8.5947323
-1.1797074 -1.3346889 8.5874891
-1.5493292 -1.770007 7.5671968
-0.89119112 -1.0231969 3.2562041
-1.1875643 -1.3672295 3.3860793
-1.1542242 -1.3316356 2.6608312
-1.1048485 -1.2760084 2.0974472
-0.36501125 -0.37144476 8.8446474
-0.61934525 -0.67938221 8.5309114
-1.4745586 -1.6722383 8.621335
-0.81470287 -0.93016368 3.4167485
-1.0659519 -1.2216381 3.4161658
-1.1689055 -1.3428912 2.9823074
-1.1285273 -1.2983164 2.3526237
-1.0830171 -1.2477013 1.8693745
-1.0649832 -1.2343014 1.6818293
-1.0311759 -1.1963713 1.3559296
-1.0085776 -1.1705593 1.0976466
-0.98655766 -1.1458007 0.87802434
-0.97132367 -1.1284987 0.68989444
-0.9607501 -1.1166006 0.52291995
-0.94156045 -1.0950634 0.36566246
-0.94467002 -1.098676 0.22302876
-1.0503995 -1.2139611 1.510933
-1.0195403 -1.1791183 1.2185574
-0.9962765 -1.152613 0.98088264
-0.9765802 -1.1310116 0.77823514
-0.96613747 -1.1193048 0.6037578
-0.94953054 -1.1004457 0.44127598
-0.93809867 -1.0871933 0.29249516
-0.93308407 -1.0817555 0.15130325
-0.052307006 -0.034409184 5.6640577
-0.90353268 -1.0056759 8.5947323
-1.1843591 -1.3305628 8.5874891
-1.5505623 -1.7589895 7.5433369
-0.8973341 -1.0230172 3.2654092
-1.1907526 -1.3612732 3.3816903
-1.151463 -1.319119 2.6442995
-1.102976 -1.2648969 2.0859349
-0.36691594 -0.37078279 8.859622
-0.62135231 -0.67682368 8.5259399
-1.479552 -1.6661412 8.6164961
-0.81337816 -0.92213792 3.3979776
-1.029972 -1.1721239 3.2901318
-1.1667089 -1.3309582 2.9652438
-1.1251132 -1.2853004 2.3366637
-1.0806718 -1.2362561 1.8583488
-1.0622678 -1.2225008 1.6713158
-1.0302426 -1.186886 1.3496526
-1.0071765 -1.1607153 1.0921637
-0.9876492 -1.1390033 0.87570554
-0.96918386 -1.1180952 0.68614835
-0.95835906 -1.1059896 0.52009988
-0.93894595 -1.0843431 0.36379722
-0.94523942 -1.0916071 0.22258168
-1.0472717 -1.2018424 1.5009565
-1.0183411 -1.1694558 1.212671
-0.99463296 -1.1426256 0.97581625
-0.97456604 -1.1207464 0.77403903
-0.96384263 -1.1087978 0.60047078
-0.95017779 -1.0934557 0.44010365
-0.93539155 -1.0764362 0.29111382
-0.93357813 -1.0747203 0.15110172
-0.052426796 -0.034226388 5.6640577
-0.90703762 -1.0025159 8.5947323
-1.1896762 -1.3271785 8.5923843
-1.5388541 -1.733474 7.4574409
-0.90478015 -1.0242708 3.2792168
-1.1875811 -1.348123 3.359745
-1.1504866 -1.3087511 2.6319005
-1.0989244 -1.2514057 2.0705848
-0.36779964 -0.36909154 8.8496389
-0.62371105 -0.67465055 8.5259399
-1.485359 -1.6609665 8.6164961
-0.81200743 -0.91413289 3.3792064
-1.0225149 -1.1554801 3.2541223
-1.1661694 -1.3210121 2.9524457
-1.1216221 -1.272324 2.3207035
-1.0782602 -1.2248428 1.8473235
-1.0618315 -1.213418 1.6643068
-1.0292557 -1.1774217 1.3433758
-1.0057189 -1.1508954 1.0866808
-0.9857915 -1.1288756 0.87106794
-0.97003204 -1.1112128 0.68427533
-0.95905966 -1.0990231 0.51868987
-0.93949676 -1.0773567 0.36286458
-0.94577104 -1.0845476 0.22213461
-1.0465349 -1.1925669 1.4943056
-1.019752 -1.162855 1.2097279
-0.99293196 -1.1326636 0.97074991
-0.9724921 -1.110509 0.76984292
-0.96148634 -1.0983205 0.59718376
-0.95078784 -1.0864745 0.43893132
-0.93588209 -1.069438 0.29042313
-0.93074501 -1.0639346 0.15069866
-0.05254595 -0.034043178 5.6640577
-0.91053152 -0.99934363 8.5947323
-1.1943016 -1.3230176 8.5923843
-1.5279818 -1.7091745 7.376317
-0.90575278 -1.0181872 3.2700117
-1.1875112 -1.3385948 3.3465776
-1.1513174 -1.3005134 2.6236346
-1.0969156 -1.2403592 2.0590723
-0.86305755 -0.8581695 20.884527
-0.62606221 -0.67246932 8.5259399
-1.4911478 -1.6557715 8.6164961
-0.81059068 -0.90614867 3.3604355
-1.0192997 -1.1437782 3.231616
-1.1673077 -1.3130354 2.9439139
-1.1180543 -1.2593879 2.3047435
-1.0757818 -1.2134613 1.8362979
-1.0589868 -1.2016776 1.653793
-1.0282154 -1.1679788 1.3370987
-1.0069678 -1.1442388 1.0839393
-0.98387516 -1.1187749 0.86643034
-0.96778315 -1.1008565 0.6805293
-0.9565568 -1.0884621 0.5158698
-0.93676883 -1.0666888 0.36099935
-0.94626492 -1.077498 0.22168753
-1.0457461 -1.1833111 1.4876546
-1.0184536 -1.1532292 1.2038416
-0.99402648 -1.125959 0.96821666
-0.9733606 -1.1037036 0.76774484
-0.9590686 -1.0878732 0.59389675
-0.95136088 -1.0795025 0.43775901
-0.93633527 -1.0624493 0.28973246
-0.92784804 -1.0531819 0.1502956
-0.052664462 -0.033859551 5.6640577
-0.91453975 -0.99673164 8.5996723
-1.1989125 -1.3188407 8.5923843
-1.5209539 -1.6894097 7.3142819
-0.90669399 -1.0121092 3.2608066
-1.1857936 -1.3272976 3.3290212
-1.1483591 -1.2880851 2.6071029
-1.0948431 -1.229342 2.0475595
-0.86193615 -0.85109836 20.784695
-0.62877053 -0.67066854 8.5309114
-1.4969184 -1.6505563 8.6164961
-0.80912828 -0.89818567 3.3416643
-1.0218321 -1.1385931 3.2271149
-1.1666648 -1.3031236 2.9311161
-1.1144098 -1.2464921 2.2887833
-1.0754954 -1.204641 1.8289475
-1.0584404 -1.1926392 1.6467839
-1.0271218 -1.1585575 1.3308219
-1.0054089 -1.1344583 1.0784563
-0.98483741 -1.1120174 0.86411154
-0.96854693 -1.0940007 0.67865622
-0.95717108 -1.0815243 0.51445979
-0.93723226 -1.0597328 0.36006674
-0.94342202 -1.0667275 0.22079337
-1.0449055 -1.1740755 1.4810036
-1.0171005 -1.1436265 1.1979553
-0.99222219 -1.1160392 0.96315032
-0.97117949 -1.0935124 0.76354873
-0.95972502 -1.0809877 0.59225327
-0.95189673 -1.0725397 0.43658668
-0.93346393 -1.0517671 0.28835109
-0.92820305 -1.0461996 0.15009406
-0.052782331 -0.03367551 5.6640577
-0.91801345 -0.99353319 8.5996723
-1.2035089 -1.3146477 8.5923843
-1.4917481 -1.6453872 7.1472621
-0.9076038 -1.0060371 3.2516015
-1.1856138 -1.3178091 3.3158541
-1.1472082 -1.277787 2.5947039
-1.0927074 -1.2183548 2.0360472
-0.86139464 -0.84465116 20.699837
-0.63110775 -0.66846967 8.5309114
-1.5026708 -1.6453211 8.6164961
-0.80877972 -0.89152181 3.3275859
-1.0243404 -1.1334043 3.2226136
-1.1694601 -1.2971064 2.9268503
-1.1127052 -1.2358767 2.2768133
-1.0728937 -1.1933166 1.8179222
-1.0554675 -1.1809604 1.6362704
-1.025975 -1.1491582 1.3245449
-1.0037941 -1.1247026 1.0729734
-0.98281586 -1.101961 0.85947394
-0.9661895 -1.0836927 0.67491019
-0.954557 -1.0710143 0.51163971
-0.93765861 -1.0527865 0.35913411
-0.94382763 -1.0597091 0.22034629
-1.0440133 -1.16486 1.4743526
-1.0156927 -1.1340475 1.1920689
-0.9903608 -1.1061457 0.95808399
-0.97196507 -1.086733 0.76145065
-0.95719761 -1.0705904 0.58896625
-0.94915658 -1.0619622 0.43424204
-0.93382955 -1.0448101 0.28766042
-0.92852068 -1.0392277 0.14989254
-0.052899562 -0.03349106 5.6640577
-0.92147595 -0.99032271 8.5996723
-1.2074003 -1.3096902 8.5874891
-1.4974824 -1.64017 7.1472621
-0.90979624 -1.001417 3.246999
-1.1853821 -1.3083382 3.3026869
-1.1441121 -1.2654257 2.5781722
-1.0905081 -1.2073972 2.0245347
-0.86785692 -0.84506023 20.784695
-0.63343734 -0.66626257 8.5309114
-1.508405 -1.6400657 8.6164961
-0.80723041 -0.88359749 3.308815
-1.0282905 -1.1298218 3.2226136
-1.1704743 -1.2891548 2.9183185
-1.1109403 -1.2252884 2.2648432
-1.0725017 -1.1845382 1.8105719
-1.0548117 -1.1719676 1.6292613
-1.0247751 -1.1397812 1.3182681
-1.0021236 -1.1149724 1.0674905
-0.98369634 -1.0952281 0.85715514
-0.96686918 -1.0768639 0.67303717
-0.95508546 -1.0641057 0.51022971
-0.93804789 -1.0458503 0.3582015
-0.9408707 -1.0489936 0.21945213
-1.0430696 -1.1556653 1.4677017
-1.0142305 -1.1244922 1.1861825
-0.99132925 -1.0994804 0.95555079
-0.96967769 -1.076589 0.75725454
-0.9577691 -1.0637335 0.58732271
-0.94960594 -1.0550299 0.43306974
-0.93415797 -1.0378634 0.28696972
-0.92880094 -1.0322664 0.149691
-0.053016145 -0.033306204 5.6640577
-0.92492723 -0.98710006 8.5996723
-1.2119646 -1.3054676 8.5874891
-1.5011778 -1.6327351 7.1377177
-0.9119674 -0.99679381 3.2423966
-1.1834846 -1.2971159 3.2851305
-1.140944 -1.2531015 2.5616403
-1.0882459 -1.1964701 2.0130222
-0.86934739 -0.84062207 20.749752
-0.63539034 -0.66366261 8.5259399
-1.5141206 -1.6347904 8.6164961
-0.80680436 -0.87696481 3.2947366
-1.0322281 -1.1262255 3.2226136
-1.1714473 -1.2812117 2.9097865
-1.1111469 -1.2169528 2.2568631
-1.0697771 -1.1732719 1.7995464
-1.0541061 -1.1629939 1.6222522
-1.0235225 -1.1304266 1.3119911
-1.0003972 -1.1052673 1.0620075
-0.98157036 -1.0852172 0.8525176
-0.96751297 -1.0700437 0.6711641
-0.95557731 -1.0572066 0.50881964
-0.93510753 -1.0352788 0.35633627
-0.93785053 -1.0383117 0.21855797
-1.0420744 -1.1464914 1.4610506
-1.0127143 -1.1149611 1.1802962
-0.98936534 -1.0896305 0.95048445
-0.97038054 -1.069836 0.75515652
-0.95830435 -1.0568855 0.58567923
-0.94675416 -1.0445061 0.4307251
-0.93444926 -1.0309271 0.28627905
-0.92904407 -1.0253158 0.14948948
-0.05313208 -0.033120938 5.6640577
-0.9278338 -0.98330051 8.5947323
-1.2158188 -1.3004855 8.5825939
-1.4977401 -1.6176281 7.0947704
-0.9141174 -0.99216771 3.2377942
-1.1815231 -1.2859228 3.2675743
-1.1377038 -1.240815 2.5451086
-1.0880857 -1.1879371 2.0053473
-0.87185967 -0.83718282 20.739771
-0.63770306 -0.66144061 8.5259399
-1.5198179 -1.6294951 8.6164961
-0.80516887 -0.86908007 3.2759655
-1.036153 -1.1226156 3.2226136
-1.1706125 -1.2713592 2.8969886
-1.1092693 -1.2064124 2.2448931
-1.0692803 -1.1645364 1.792196
-1.0533506 -1.1540393 1.615243
-1.022217 -1.1210947 1.3057142
-0.99861556 -1.095588 1.0565246
-0.98236942 -1.0785094 0.85019881
-0.96499979 -1.0598043 0.66741806
-0.95280355 -1.0467695 0.50599957
