# .PCD v0.7 - Point Cloud Data file format
VERSION 0.7
FIELDS x y z
SIZE 4 4 4
TYPE F F F
COUNT 1 1 1
WIDTH 1530
HEIGHT 1
VIEWPOINT 0 0 0 1 0 0 0
POINTS 1530
DATA ascii
14.869369 -3.5724666 31.68379
0.23316929 -0.14991471 30.273119
3.5598304 -0.91039592 23.358175
4.2611008 -1.0685054 21.143747
9.5209312 -2.3384142 31.388941
12.957597 -3.1490283 31.474281
1.6840971 -0.52058578 30.318762
3.155472 -0.84388137 30.420444
5.6939092 -1.4205239 22.63147
11.179626 -2.7499878 31.362171
14.854692 -3.6238325 31.679289
0.23268074 -0.1507521 30.27812
3.5603912 -0.9237926 23.382872
4.2474771 -1.0808613 21.094793
9.482295 -2.3640504 31.288727
12.948421 -3.1947074 31.478882
1.6822697 -0.52646118 30.318762
3.1535361 -0.85517001 30.430387
5.7047572 -1.4444019 22.694384
11.168283 -2.7885771 31.357477
14.856744 -3.6793263 31.710796
0.23222527 -0.15161248 30.28812
3.5533879 -0.9352259 23.358175
4.23382 -1.0931352 21.045843
9.4638548 -2.3945723 31.255323
12.937191 -3.2398863 31.478882
1.6804217 -0.53233016 30.318762
3.1510458 -0.86631411 30.435358
5.7082019 -1.466496 22.728258
11.156809 -2.8271208 31.352787
14.8417 -3.7306328 31.706295
0.23173061 -0.15244681 30.293119
3.561362 -0.95063061 23.432264
4.2289934 -1.1076496 21.040947
9.4597769 -2.4287066 31.269642
12.927696 -3.2855072 31.483484
1.6782784 -0.53810441 30.31377
3.1485157 -0.87745118 30.440329
5.7468357 -1.4978265 22.902475
11.145201 -2.8656182 31.348093
14.839134 -3.7851079 31.728802
0.23119706 -0.15325476 30.293119
3.5422723 -0.95879179 23.328539
4.2241173 -1.1221431 21.036051
9.4541302 -2.462465 31.279184
12.916149 -3.3306131 31.483484
1.6761155 -0.54387015 30.308779
3.1459467 -0.88858116 30.445301
5.7828894 -1.5288016 23.067017
11.13513 -2.9045048 31.348093
0.23069653 -0.15408579 30.298119
3.538904 -0.97115082 23.328539
4.22509 -1.1382058 21.060528
9.4440336 -2.4950695 31.27441
12.906335 -3.3761733 31.488089
1.6739327 -0.54962742 30.303789
3.1433384 -0.89970386 30.450272
5.7945151 -1.5535361 23.134769
11.124924 -2.943356 31.348093
0.23012151 -0.15486509 30.293119
3.5467207 -0.98662245 23.402628
4.222074 -1.1532155 21.065424
9.4352665 -2.5280201 31.27441
12.894471 -3.4212041 31.488089
1.6717298 -0.55537593 30.298796
3.1406908 -0.91081929 30.455244
5.7975473 -1.5760616 23.168646
11.116249 -2.9826186 31.352787
0.22954389 -0.15564227 30.28812
3.5312898 -0.99562222 23.323601
4.2101722 -1.1657721 21.02626
9.427825 -2.5613317 31.279184
12.878676 -3.465178 31.478882
1.6695074 -0.56111592 30.293804
3.1380033 -0.92192703 30.460215
5.8041282 -1.5996292 23.217039
11.10577 -3.0214033 31.352787
0.22899923 -0.15644258 30.28812
3.5397465 -1.011359 23.402628
4.2168608 -1.1834884 21.080109
9.4202662 -2.5946214 31.283957
1.6675386 -0.56694013 30.293804
3.1368101 -0.93348366 30.480101
5.8118262 -1.6236002 23.270273
11.096819 -3.0606101 31.357477
0.22841623 -0.15721557 30.283119
3.5444043 -1.0260862 23.456961
4.2283735 -1.2026584 21.158432
9.4010878 -2.6246789 31.250553
1.6658224 -0.57285148 30.298796
3.134553 -0.94473517 30.490046
5.804914 -1.643535 23.265432
11.086067 -3.0993264 31.357477
0.22786607 -0.15801193 30.283119
3.551239 -1.0415144 23.52611
4.2486091 -1.2244616 21.280813
9.3875599 -2.6562595 31.236238
1.6640853 -0.57875782 30.303789
3.1373541 -0.95753914 30.549702
5.7858515 -1.6599746 23.2122
11.075181 -3.138005 31.357477
0.22734843 -0.15883204 30.28812
3.5513058 -1.0550109 23.550806
4.2355123 -1.2367153 21.236755
9.3710566 -2.6869547 31.212378
1.6620549 -0.58456308 30.303789
3.1299183 -0.96722513 30.509932
5.7727795 -1.6780554 23.183165
11.065819 -3.1771221 31.362171
0.2268278 -0.15965042 30.293119
3.549834 -1.0680727 23.565624
4.2311697 -1.2514925 21.236755
9.3601866 -2.7192328 31.207603
1.6602762 -0.59045798 30.308779
3.1249967 -0.97766691 30.495016
5.7608581 -1.6964204 23.158968
11.054662 -3.2157297 31.362171
0.22630426 -0.16046713 30.298119
3.5512867 -1.0820431 23.600199
4.2316523 -1.2677158 21.261232
9.3520699 -2.752311 31.212378
1.6584766 -0.59634763 30.31377
3.1200407 -0.98808634 30.480101
5.7536964 -1.7161598 23.154127
11.043369 -3.2542982 31.362171
0.22577778 -0.16128214 30.303118
3.544518 -1.0935162 23.580442
6.1047535 -1.8522073 30.694334
9.3438358 -2.7853656 31.21715
1.6569273 -0.60233074 30.323753
3.1160648 -0.99880838 30.475128
5.7476707 -1.7362335 23.154127
11.040211 -3.295295 31.385635
0.22521342 -0.16206926 30.303118
3.5206549 -1.0996262 23.447083
6.1050639 -1.8755989 30.728601
9.3340559 -2.8179646 31.21715
1.6553565 -0.60831034 30.333736
3.1130664 -1.0098441 30.480101
5.7511911 -1.7592279 23.192842
11.023685 -3.3323143 31.371559
0.22464631 -0.16285442 30.303118
3.5145726 -1.1112059 23.432264
6.099452 -1.8972007 30.733498
9.3241625 -2.8505292 31.21715
1.6537642 -0.6142863 30.343721
3.1105354 -1.0210371 30.490046
5.747417 -1.7800364 23.202522
0.22404173 -0.1636112 30.298119
3.489212 -1.1165979 23.289026
6.092792 -1.9184803 30.733498
9.3141556 -2.8830593 31.21715
1.6524205 -0.62036008 30.358694
3.1074581 -1.0320567 30.495016
0.22346926 -0.16439225 30.298119
3.4734662 -1.1249393 23.209997
6.0860586 -1.9397365 30.733498
9.3040352 -2.9155543 31.21715
1.6507846 -0.62632948 30.368679
3.1048472 -1.0432373 30.504959
7.6229997 -2.4194362 30.829454
0.22285947 -0.16514467 30.293119
3.4473681 -1.1297959 23.061821
6.0782814 -1.9606562 30.728601
9.2938013 -2.9480138 31.21715
1.6491274 -0.63229495 30.378662
3.100682 -1.0538973 30.499989
7.6109176 -2.4448774 30.814936
0.22228166 -0.16592157 30.293119
3.4493032 -1.1437794 23.101334
6.0714002 -1.9818614 30.728601
9.2834549 -2.980437 31.21715
1.6474484 -0.63825655 30.388645
3.0959761 -1.0643674 30.490046
7.5999465 -2.4706521 30.805258
0.22170113 -0.16669647 30.293119
3.4357135 -1.1525993 23.037125
6.064445 -2.0030425 30.728601
9.272994 -3.0128243 31.21715
1.6454793 -0.64410865 30.393637
3.0917385 -1.0749928 30.485071
7.5912762 -2.4971659 30.805258
0.2211179 -0.16746934 30.293119
3.4228399 -1.1615881 22.977852
6.0574164 -2.024199 30.728601
9.2624207 -3.0451748 31.21715
1.6434894 -0.64995492 30.398628
3.0869615 -1.0854247 30.475128
7.5872831 -2.5252371 30.824615
0.22079106 -0.16782798 30.28812
3.4134541 -1.1650499 22.928459
6.0542293 -2.0337114 30.728601
9.2562094 -3.0592518 31.212378
1.6431898 -0.6514954 30.40362
3.0855105 -1.0879408 30.470158
7.5867105 -2.5309312 30.829454
0.22016972 -0.16857047 30.283119
3.4042256 -1.1751828 22.893885
6.0467343 -2.0558879 30.728601
9.2463493 -3.0936306 31.21715
1.6403314 -0.65865892 30.40362
3.0792284 -1.100855 30.455244
7.5775285 -2.566139 30.839132
0.21954592 -0.1693107 30.27812
3.3971684 -1.1860338 22.874128
6.0395212 -2.0769823 30.728601
9.2298384 -3.1239734 31.198061
1.6380222 -0.66438073 30.40362
3.0748656 -1.1114155 30.450272
7.5673366 -2.5921664 30.834295
0.21877114 -0.1702396 30.273119
3.394681 -1.2024755 22.893885
6.0290732 -2.1040318 30.723707
9.216979 -3.1663094 31.202831
1.6350229 -0.67248762 30.408613
3.0663953 -1.1253265 30.420444
7.553391 -2.6287031 30.829454
0.21802625 -0.17119254 30.273119
3.3901329 -1.2175387 22.898823
6.0188751 -2.1299789 30.718811
9.1974382 -3.2045317 31.183746
1.6323395 -0.67972648 30.413603
3.0634542 -1.139439 30.440329
7.5406637 -2.6612177 30.824615
0.21776089 -0.17160045 30.27812
3.389678 -1.2233901 22.908703
6.0149364 -2.1380396 30.713917
1.6321021 -0.68029624 30.413603
3.0645549 -1.1410666 30.455244
7.5390139 -2.6621151 30.819775
0.21716414 -0.17242521 30.283119
3.3880908 -1.2368717 22.928459
6.0066824 -2.1611195 30.713917
1.6288782 -0.68797976 30.413603
3.0601413 -1.155872 30.465187
7.5247312 -2.6985013 30.814936
0.21653405 -0.17328569 30.28812
3.3830984 -1.2504624 22.928459
5.9979587 -2.1852145 30.713917
1.6264901 -0.69434261 30.418596
3.0566759 -1.1679941 30.475128
7.5131326 -2.7269452 30.810097
0.21595822 -0.1740028 30.28812
3.3755138 -1.2597258 22.903765
5.9910641 -2.2040467 30.713917
1.6243007 -0.699449 30.418596
3.053489 -1.1777831 30.480101
7.5045285 -2.7505348 30.810097
0.2154105 -0.17468038 30.28812
3.3693581 -1.269502 22.888945
5.9841104 -2.2228575 30.713917
1.6222183 -0.70426524 30.418596
3.0499811 -1.1868379 30.480101
7.4963346 -2.772789 30.810097
0.21476614 -0.175403 30.283119
3.3620017 -1.2801495 22.86919
5.9744081 -2.2430165 30.704126
1.6198903 -0.71032232 30.423588
3.0451143 -1.1978134 30.475128
7.487299 -2.8006866 30.814936
0.21411939 -0.17612325 30.27812
3.3560624 -1.291319 22.85931
5.9646382 -2.2631347 30.694334
1.617401 -0.71597248 30.423588
3.0409145 -1.2084355 30.475128
7.478653 -2.8272493 30.819775
0.21347024 -0.17684114 30.273119
3.3479133 -1.3016179 22.834614
5.9548001 -2.2832122 30.684544
1.6151556 -0.7217319 30.428579
3.0361834 -1.2188443 30.470158
7.4699125 -2.8537865 30.824615
0.21285166 -0.17758521 30.273119
3.3462424 -1.3144329 22.85437
5.9448957 -2.3032489 30.674753
1.6128894 -0.72748429 30.433571
3.0314164 -1.2292348 30.465187
7.4599056 -2.8798437 30.824615
0.21223047 -0.17832713 30.273119
3.3401892 -1.3255321 22.844492
5.9349227 -2.3232439 30.664963
1.6103401 -0.73310983 30.433571
3.0266137 -1.2396067 30.460215
7.4498076 -2.9058661 30.824615
0.21163946 -0.17909567 30.27812
3.3384266 -1.3383402 22.864248
5.9258308 -2.3435721 30.660069
1.6077713 -0.7387265 30.433571
3.0227611 -1.250368 30.465187
7.4396186 -2.9318531 30.824615
0.210915 -0.17974658 30.263121
3.3330145 -1.3496937 22.85931
5.917614 -2.3642428 30.660069
1.6051829 -0.74433416 30.433571
3.0188696 -1.2611173 30.470158
7.4305072 -2.9582691 30.829454
0.21022114 -0.18042366 30.25312
3.3376317 -1.3651445 22.923519
5.908381 -2.3845038 30.655174
1.6020521 -0.74968773 30.423588
3.0154314 -1.2720618 30.480101
7.4201355 -2.9841886 30.829454
0.20939523 -0.18098149 30.223122
3.3335643 -1.3770834 22.928459
5.9000216 -2.4051132 30.655174
1.5994254 -0.75527537 30.423588
3.0114629 -1.2827889 30.485071
7.4096737 -3.0100715 30.829454
0.20876221 -0.1817113 30.223122
3.3380594 -1.3926014 22.99267
5.8925314 -2.4260812 30.660069
1.5965189 -0.76072955 30.418596
3.0069668 -1.293293 30.485071
7.3991213 -3.0359178 30.829454
0.20832026 -0.18261516 30.25312
3.340338 -1.4072621 23.042063
5.884027 -2.4466352 30.660069
1.5941137 -0.76642299 30.423588
3.002923 -1.3039938 30.490046
7.3884792 -3.061727 30.829454
0.20774586 -0.18340018 30.263121
3.3439848 -1.4225641 23.101334
5.8754511 -2.4671593 30.660069
1.5916884 -0.77210903 30.428579
2.998353 -1.314468 30.490046
7.3777466 -3.0874989 30.829454
0.20713647 -0.18415383 30.26812
3.3461382 -1.4372954 23.150726
5.8677402 -2.4880509 30.664963
1.5897611 -0.77804142 30.443554
2.9942338 -1.325142 30.495016
7.3657665 -3.1127439 30.824615
0.20652434 -0.18490545 30.273119
3.3489413 -1.4523679 23.205057
5.8590198 -2.508518 30.664963
1.5870355 -0.78358603 30.443554
2.9900768 -1.3358034 30.499989
7.354856 -3.1384363 30.824615
0.20587765 -0.18562523 30.273119
3.3474102 -1.4656076 23.229755
5.8502278 -2.5289545 30.664963
1.5827407 -0.7883479 30.413603
2.9853957 -1.3462324 30.499989
7.3450103 -3.164588 30.829454
0.20522845 -0.18634275 30.273119
3.3508017 -1.4810535 23.289026
5.8413644 -2.54936 30.664963
1.5792055 -0.79347861 30.398628
2.9811635 -1.3568662 30.504959
7.335072 -3.1907091 30.834295
0.20464003 -0.18711807 30.283119
3.3456116 -1.492741 23.289026
5.8324299 -2.5697348 30.664963
1.5748816 -0.79820222 30.368679
2.9759245 -1.3670415 30.499989
7.3227386 -3.2157881 30.829454
0.20401718 -0.18786143 30.28812
3.3439224 -1.5060058 23.313721
5.8234243 -2.5900781 30.664963
1.5723426 -0.80382627 30.373671
2.9696836 -1.3767482 30.485071
7.3160653 -3.2433677 30.848812
0.20339158 -0.18860267 30.293119
3.3407671 -1.5186338 23.328539
5.8152771 -2.6108072 30.669859
1.5697838 -0.8094424 30.378662
2.9638941 -1.386654 30.475128
7.3092885 -3.2709396 30.86817
0.202732 -0.1893115 30.293119
3.3326211 -1.5289899 23.308783
5.806128 -2.6310904 30.669859
1.5674608 -0.8151837 30.388645
2.9566259 -1.3958534 30.450272
7.288662 -3.292294 30.829454
0.20206995 -0.190018 30.293119
3.3272636 -1.5406135 23.308783
5.7978344 -2.6517649 30.674753
1.5648613 -0.82078439 30.393637
2.9522169 -1.4063947 30.455244
0.20137432 -0.19069164 30.28812
3.3211615 -1.5518894 23.303843
5.7885423 -2.6719871 30.674753
1.5596907 -0.82502556 30.348711
2.9511328 -1.4185393 30.495016
0.20067644 -0.19136269 30.283119
3.3157241 -1.563473 23.303843
5.7791805 -2.6921763 30.674753
1.5550188 -0.82951277 30.31377
2.9490407 -1.4302281 30.524845
0.20000724 -0.19206202 30.283119
3.3109484 -1.5753715 23.308783
5.7697477 -2.7123332 30.674753
1.5513513 -0.83452499 30.298796
2.9454665 -1.4412165 30.539759
0.1993356 -0.19275901 30.283119
3.3061292 -1.5872555 23.313721
5.7602444 -2.7324569 30.674753
1.5496973 -0.84062415 30.323753
2.9404178 -1.4514893 30.539759
0.19866154 -0.19345364 30.283119
3.3019671 -1.5994639 23.323601
5.7506714 -2.7525473 30.674753
1.5470067 -0.84616721 30.328747
2.9339018 -1.4610314 30.524845
0.19798504 -0.19414592 30.283119
3.2984581 -1.6120039 23.338417
5.7401118 -2.7721612 30.669859
1.5442963 -0.85170162 30.333736
2.9244974 -1.4691097 30.480101
0.19730613 -0.19483583 30.283119
3.2949018 -1.6245389 23.353237
5.7303996 -2.792181 30.669859
1.5418184 -0.85736793 30.343721
2.9241059 -1.481719 30.529816
0.19662483 -0.19552337 30.283119
3.2919934 -1.6374147 23.372992
5.7197042 -2.8117175 30.664963
1.5388162 -0.86274469 30.343721
2.9179668 -1.4914318 30.519873
0.19594112 -0.19620854 30.283119
3.2890358 -1.6502899 23.39275
5.7098551 -2.8316658 30.664963
1.5360464 -0.86825305 30.348711
2.9127429 -1.5016084 30.519873
0.19525504 -0.19689131 30.283119
3.2832549 -1.6617608 23.39275
5.6999359 -2.8515799 30.664963
1.5332571 -0.87375265 30.353704
2.911267 -1.5137345 30.559645
0.19456656 -0.19757167 30.283119
3.2753582 -1.6721512 23.377932
5.6890383 -2.8710003 30.660069
1.5304481 -0.87924337 30.358694
2.9097416 -1.5258682 30.599417
0.19387573 -0.19824964 30.283119
3.261903 -1.6796608 23.323601
5.6780748 -2.8903792 30.655174
1.5273696 -0.88458025 30.358694
2.9043975 -1.5360159 30.599417
0.19318253 -0.19892518 30.283119
3.2594676 -1.6928276 23.348295
5.6679511 -2.910182 30.655174
1.5245218 -0.89005214 30.363688
2.9018402 -1.5476503 30.629246
0.19245727 -0.19956632 30.27812
3.2487209 -1.7016709 23.313721
5.6541409 -2.9280758 30.635593
1.5216542 -0.89551473 30.368679
2.8936033 -1.5562547 30.599417
0.19175948 -0.2002369 30.27812
5.6493006 -2.950623 30.664963
1.518519 -0.90082085 30.368679
2.8872166 -1.5658376 30.589476
0.19105937 -0.20090505 30.27812
4.2406735 -2.2592235 30.544796
5.6398678 -2.9707997 30.669859
1.5156131 -0.90626436 30.373671
2.8803301 -1.5751388 30.57456
0.19032755 -0.20153847 30.273119
4.2279706 -2.2714379 30.51022
5.6312613 -2.9914236 30.679649
1.5126877 -0.91169846 30.378662
2.8738809 -1.5846684 30.564615
0.1896814 -0.20226638 30.283119
4.2179666 -2.2850718 30.495403
5.6225805 -3.0120239 30.68944
1.5097427 -0.9171232 30.383656
2.867866 -1.5944315 30.559645
0.18900335 -0.20295976 30.28812
4.211328 -2.3005266 30.505281
5.6120324 -3.0316319 30.68944
1.5067781 -0.92253852 30.388645
2.8613529 -1.6039112 30.549702
0.18840981 -0.2037486 30.308119
4.2039533 -2.3155878 30.51022
5.6014156 -3.0512033 30.68944
1.5037943 -0.92794418 30.393637
2.8548088 -1.6133646 30.539759
0.18769744 -0.20440502 30.308119
4.1972032 -2.3310027 30.5201
5.5907307 -3.0707371 30.68944
1.5007912 -0.93334043 30.398628
2.8482332 -1.622792 30.529816
0.18686762 -0.20492783 30.28812
4.1897182 -2.346019 30.525038
5.5790868 -3.0897403 30.684544
1.4977685 -0.9387269 30.40362
2.8416271 -1.6321932 30.519873
0.18606511 -0.20548019 30.273119
4.1821809 -2.361012 30.529978
5.5682678 -3.1091959 30.684544
1.4947267 -0.94410372 30.408613
2.8349898 -1.6415682 30.509932
0.18520391 -0.20596352 30.248119
4.1745887 -2.3759801 30.534916
5.5573807 -3.1286139 30.684544
1.4919089 -0.94962585 30.418596
2.8287821 -1.6511854 30.504959
0.18454073 -0.20667492 30.25812
4.1662698 -2.3905377 30.534916
5.5473118 -3.1484964 30.68944
1.4888279 -0.95498371 30.423588
2.8225417 -1.6607791 30.499989
0.18387483 -0.20738417 30.26812
4.1578994 -2.4050663 30.534916
5.5345201 -3.1668296 30.679649
1.4862124 -0.96064544 30.43856
2.8162687 -1.6703496 30.495016
0.18329088 -0.20819117 30.293119
4.1494789 -2.4195654 30.534916
5.5243139 -3.1866381 30.684544
1.4833338 -0.96614283 30.448545
2.8099635 -1.6798964 30.490046
0.18250684 -0.20876294 30.283119
4.1410079 -2.4340348 30.534916
5.5096359 -3.2038548 30.664963
1.4809173 -0.97194892 30.468512
2.8031695 -1.6891445 30.480101
0.18158115 -0.2091644 30.248119
4.1324863 -2.4484749 30.534916
1.4758306 -0.97599667 30.433571
2.7968004 -1.6986421 30.475128
0.18059912 -0.20949478 30.203121
4.1239147 -2.4628851 30.534916
1.4724147 -0.98114246 30.433571
2.7903996 -1.7081161 30.470158
0.17986675 -0.2101239 30.203121
4.1152921 -2.4772651 30.534916
1.4687414 -0.9861151 30.428579
2.78442 -1.717846 30.470158
0.17932561 -0.21098688 30.238121
4.1066198 -2.4916153 30.534916
1.4652903 -0.99123597 30.428579
2.7784066 -1.7275549 30.470158
0.17858803 -0.21161155 30.238121
4.0972347 -2.5055294 30.529978
1.4620596 -0.99650741 30.433571
2.7723596 -1.7372429 30.470158
0.17793046 -0.21233553 30.25312
4.0884638 -2.5198162 30.529978
1.4583344 -1.0014414 30.428579
2.7667291 -1.7471943 30.475128
0.17721546 -0.21298939 30.25812
4.0796432 -2.5340724 30.529978
1.4548299 -1.0065259 30.428579
2.7610633 -1.7571278 30.480101
0.17647091 -0.2136067 30.25812
4.0714312 -2.5487099 30.534916
1.4510708 -1.0114326 30.423588
2.7549129 -1.766755 30.480101
0.17575124 -0.21425563 30.263121
4.0625095 -2.5629063 30.534916
1.4472953 -1.0163257 30.418596
2.748729 -1.7763605 30.480101
0.17492153 -0.21476479 30.248119
4.0548501 -2.5779052 30.544796
1.4437388 -1.0213716 30.418596
2.7425115 -1.7859447 30.480101
0.17411721 -0.21530519 30.238121
4.0458269 -2.5920434 30.544796
1.4403996 -1.0265725 30.423588
2.7358148 -1.7952143 30.475128
0.1732312 -0.21573901 30.213121
4.0406709 -2.6086793 30.57443
1.4368075 -1.0315943 30.423588
2.7290874 -1.8044592 30.470158
0.17247707 -0.2163424 30.213121
4.0295868 -2.6214967 30.559614
1.4331977 -1.0366033 30.423588
2.7223287 -1.813679 30.465187
0.17180017 -0.21704729 30.228123
4.0171623 -2.6334164 30.534916
1.4291042 -1.0412595 30.413603
2.715981 -1.8231707 30.465187
0.1710941 -0.21771528 30.238121
4.000814 -2.6427116 30.480585
1.4249955 -1.0458999 30.40362
2.7091589 -1.8323411 30.460215
0.17035928 -0.21834607 30.243122
3.997386 -2.6605361 30.525038
1.420872 -1.0505241 30.393637
2.7027462 -1.8417869 30.460215
0.16959608 -0.21893941 30.243122
3.9880745 -2.674473 30.525038
1.4167335 -1.0551324 30.383656
2.6963005 -1.8512099 30.460215
0.16883081 -0.21953008 30.243122
3.9806461 -2.6896832 30.539856
1.41258 -1.0597245 30.373671
2.6898222 -1.8606104 30.460215
0.16806346 -0.22011806 30.243122
3.9725177 -2.7044365 30.549736
1.4086421 -1.0644746 30.368679
2.6833112 -1.8699883 30.460215
0.1672684 -0.22066812 30.238121
3.9662569 -2.7204843 30.57443
1.4044585 -1.0690353 30.358694
2.6772037 -1.8796499 30.465187
0.1664971 -0.22125065 30.238121
3.9567366 -2.7343125 30.57443
1.4002603 -1.0735797 30.348711
2.6706262 -1.8889837 30.465187
0.16569832 -0.22179505 30.233122
3.9446173 -2.7463312 30.554674
1.3955908 -1.0777546 30.328747
2.6644502 -1.8986036 30.470158
0.1649231 -0.2223721 30.233122
3.9337344 -2.7591915 30.544796
1.392959 -1.0835065 30.353704
2.6578064 -1.9078927 30.470158
0.16412067 -0.22291081 30.228123
3.9221756 -2.7715607 30.529978
1.3893956 -1.0885403 30.358694
2.6511307 -1.9171586 30.470158
0.16331646 -0.22344662 30.223122
3.9118443 -2.7847841 30.525038
1.385814 -1.0935626 30.363688
2.6444223 -1.9264011 30.470158
0.16248558 -0.22394377 30.213121
3.9020994 -2.7984219 30.525038
1.382666 -1.0989326 30.378662
2.6376817 -1.9356201 30.470158
0.16170287 -0.22450958 30.213121
3.8929377 -2.8124809 30.529978
1.378371 -1.1033912 30.368679
2.6309092 -1.9448156 30.470158
0.16104177 -0.22525249 30.238121
3.8837245 -2.82651 30.534916
1.3740618 -1.1078333 30.358694
2.623677 -1.9536691 30.465187
0.16030365 -0.22588535 30.248119
3.8750875 -2.8409684 30.544796
1.3695143 -1.1120765 30.343721
2.616415 -1.9624954 30.460215
0.15963647 -0.22662421 30.273119
3.8670223 -2.8558626 30.559614
1.3651774 -1.1164844 30.333736
2.6086981 -1.9709737 30.450272
0.15884443 -0.22718006 30.273119
3.8570299 -2.8693435 30.559614
1.3608264 -1.1208757 30.323753
2.6009541 -1.979422 30.440329
0.15785685 -0.22744273 30.233122
3.8438816 -2.8804598 30.534916
1.3564613 -1.1252501 30.31377
2.5914907 -1.9865429 30.410501
0.1568934 -0.22773762 30.198122
3.8325632 -2.8929234 30.525038
1.3525251 -1.1299782 30.31377
2.5858061 -1.9965543 30.425415
0.15607356 -0.22824743 30.193123
3.8187308 -2.9034622 30.495403
1.3487933 -1.1348785 30.318762
2.5796626 -2.006223 30.435358
0.15532352 -0.22886395 30.203121
3.8116567 -2.9191368 30.5201
1.345264 -1.1399534 30.328747
2.573483 -2.0158727 30.445301
0.15454738 -0.22944137 30.208122
3.8020592 -2.9328985 30.525038
1.341496 -1.1448296 30.333736
2.5668492 -2.0251739 30.450272
0.15374555 -0.22997946 30.208122
3.7930253 -2.9471056 30.534916
1.3374916 -1.1495054 30.333736
2.5597641 -2.0341215 30.450272
0.15291838 -0.23047791 30.203121
3.7839384 -2.9612861 30.544796
1.3336893 -1.1543562 30.33873
2.5522323 -2.0427113 30.445301
0.15208963 -0.23097342 30.198122
3.774189 -2.9749575 30.549736
1.3296517 -1.1590047 30.33873
2.5450861 -2.0516076 30.445301
0.15125927 -0.23146594 30.193123
3.7637813 -2.9881136 30.549736
1.3260314 -1.1640201 30.348711
2.5370817 -2.0598073 30.435358
0.15042733 -0.23195547 30.188124
3.7521145 -3.000263 30.539856
1.3223927 -1.1690243 30.358694
2.5294635 -2.0683131 30.430387
0.14961675 -0.23247914 30.188124
3.7404087 -3.012367 30.529978
1.3187349 -1.1740173 30.368679
2.521817 -2.0767913 30.425415
0.14882712 -0.2330372 30.193123
3.7286637 -3.0244262 30.5201
1.315918 -1.1797705 30.398628
2.514142 -2.0852408 30.420444
0.14803544 -0.23359255 30.198122
3.7168803 -3.0364401 30.51022
1.3111492 -1.183776 30.383656
2.5064385 -2.0936623 30.415472
0.14721914 -0.23410788 30.198122
3.7050581 -3.048408 30.500341
1.3065821 -1.1879569 30.373671
2.4987073 -2.1020558 30.410501
0.14640105 -0.23462035 30.198122
3.6931982 -3.0603311 30.490463
1.3020018 -1.1921203 30.363688
2.4909477 -2.1104202 30.405529
0.14558117 -0.23512995 30.198122
3.6801074 -3.071213 30.470707
1.2974082 -1.1962663 30.353704
2.4831605 -2.1187563 30.400557
0.14475954 -0.23563668 30.198122
3.6717432 -3.0860398 30.490463
1.2938589 -1.2013774 30.368679
2.4757495 -2.1274114 30.400557
0.14393613 -0.23614056 30.198122
3.6645072 -3.10185 30.5201
1.2898682 -1.2060838 30.373671
2.4683084 -2.1360404 30.400557
0.14311096 -0.23664154 30.198122
1.2860706 -1.2109751 30.383656
2.4608371 -2.1446433 30.400557
0.14228407 -0.23713966 30.198122
1.282045 -1.2156556 30.388645
2.4537363 -2.1535718 30.405529
0.14145543 -0.23763488 30.198122
1.2780024 -1.2203228 30.393637
2.4462042 -2.1621239 30.405529
0.14062506 -0.2381272 30.198122
1.2739428 -1.2249768 30.398628
2.438642 -2.1706495 30.405529
0.13979298 -0.23861663 30.198122
1.2696592 -1.2294161 30.398628
2.4310501 -2.1791487 30.405529
0.13893799 -0.23906502 30.193123
1.2651534 -1.2336389 30.393637
2.4238245 -2.1879787 30.410501
0.13810265 -0.23954853 30.193123
1.2606335 -1.2378452 30.388645
2.4157777 -2.1960673 30.405529
0.13726562 -0.24002914 30.193123
1.2560999 -1.242035 30.383656
2.4080973 -2.2044866 30.405529
0.13642694 -0.24050683 30.193123
1.25053 -1.2451892 30.353704
2.4003875 -2.2128789 30.405529
0.13558659 -0.24098159 30.193123
1.2482133 -1.2515919 30.40362
2.3922579 -2.2208817 30.400557
0.13474457 -0.24145341 30.193123
1.2448521 -1.2569678 30.428579
2.3841016 -2.2288549 30.395584
0.13388051 -0.24188372 30.188124
1.241266 -1.2621292 30.448545
2.3763072 -2.2371633 30.395584
0.13303536 -0.24234958 30.188124
1.2360464 -1.2656277 30.428579
2.3680966 -2.2450776 30.390614
0.13216846 -0.24277377 30.183125
1.2312193 -1.2695198 30.418596
2.3598599 -2.2529621 30.385643
0.13130021 -0.24319488 30.178123
1.2261797 -1.2731857 30.40362
2.3515971 -2.2608163 30.380671
0.13043064 -0.24361287 30.173124
1.2213293 -1.2770407 30.393637
2.343308 -2.2686403 30.3757
0.12955974 -0.24402776 30.168123
1.2170628 -1.2815056 30.398628
2.3349931 -2.2764339 30.370728
0.12870713 -0.24447852 30.168123
1.2123842 -1.2855359 30.393637
2.3255112 -2.2830768 30.350842
0.12785296 -0.2449263 30.168123
1.2076923 -1.2895494 30.388645
2.318665 -2.292305 30.365757
0.12699723 -0.24537109 30.168123
1.2029871 -1.2935455 30.383656
2.3114045 -2.301137 30.3757
0.12615913 -0.24585208 30.173124
1.1980728 -1.2973124 30.373671
2.304111 -2.3099461 30.385643
0.12531923 -0.24633023 30.178123
1.1931472 -1.3010609 30.363688
2.2967837 -2.3187323 30.395584
0.32447743 -0.3088806 0.13316588
0.33650723 -0.32145026 0.15712188
0.12449645 -0.2468448 30.188124
1.1882098 -1.3047906 30.353704
2.2890496 -2.3271155 30.400557
0.32699221 -0.31345761 0.13361296
0.34965837 -0.33635554 0.1598846
0.12365281 -0.24731725 30.193123
1.1834545 -1.3087161 30.348711
2.2809124 -2.3350916 30.400557
0.33664474 -0.32497334 0.13495418
0.33781171 -0.32723725 0.15781257
0.12286332 -0.24790518 30.213121
1.1784936 -1.3124095 30.33873
2.2723763 -2.3426566 30.395584
0.33193752 -0.32267526 0.13450712
0.35084644 -0.34224638 0.16057529
0.12199722 -0.24833255 30.213121
1.1744812 -1.3171618 30.353704
2.2641852 -2.3505745 30.395584
0.35102752 -0.34362078 0.18473415
0.32013315 -0.31338093 0.13316588
0.12103782 -0.248559 30.188124
1.1700675 -1.3214698 30.358694
2.2559664 -2.3584635 30.395584
0.34982595 -0.34484398 0.18473415
0.32613027 -0.32148865 0.13406004
0.12011477 -0.24886104 30.173124
1.1664002 -1.3266306 30.383656
2.2473528 -2.3659372 30.390614
0.34862009 -0.34606299 0.18473415
0.32147184 -0.31911665 0.13361296
0.11919108 -0.24915968 30.158123
1.1617622 -1.330694 30.383656
2.2390804 -2.3737676 30.390614
0.34740996 -0.34727779 0.18473415
0.11844628 -0.24985261 30.193123
1.1559762 -1.3334317 30.353704
2.2311454 -2.3819582 30.395584
0.34965757 -0.35197335 0.18566677
0.11768025 -0.25050351 30.223122
1.15075 -1.3368021 30.33873
2.2228172 -2.3897319 30.395584
0.34497705 -0.3496947 0.18473415
0.34767228 -0.3536557 0.21032943
0.11680511 -0.25091279 30.223122
1.1455144 -1.340152 30.323753
2.214462 -2.3974762 30.395584
0.33687925 -0.34387863 0.18286891
0.339645 -0.34791091 0.20798479
0.1158409 -0.25111923 30.198122
1.1406426 -1.3439223 30.318762
2.2060797 -2.4051917 30.395584
0.33842847 -0.34909439 0.20798479
0.11491145 -0.25140199 30.183125
1.1359446 -1.3478956 30.318762
2.1976705 -2.4128776 30.395584
0.3473208 -0.36077881 0.21150175
0.11394694 -0.25160116 30.158123
1.1312326 -1.3518527 30.318762
2.1892347 -2.4205344 30.395584
0.35613552 -0.37252945 0.21501869
0.11306799 -0.25199738 30.158123
1.1266912 -1.3560153 30.323753
2.1811283 -2.4285581 30.400557
0.36152583 -0.38082066 0.21736333
0.11222162 -0.25247097 30.168123
1.1221346 -1.3601627 30.328747
2.1726377 -2.4361567 30.400557
0.37686503 -0.3997646 0.22322492
0.11135647 -0.25290138 30.173124
1.1177455 -1.3645184 30.33873
2.1641207 -2.4437258 30.400557
0.3721455 -0.39752918 0.2220526
0.1104897 -0.25332889 30.178123
1.1133397 -1.3688598 30.348711
2.1555774 -2.4512651 30.400557
0.37075561 -0.39882582 0.2220526
0.10962129 -0.25375339 30.183125
1.1087359 -1.3729625 30.353704
2.146657 -2.4583731 30.395584
0.10873485 -0.25413448 30.183125
1.1042976 -1.377275 30.363688
2.1384118 -2.4662542 30.400557
0.1078471 -0.25451249 30.183125
1.0996629 -1.3813473 30.368679
2.1304855 -2.4745116 30.410501
0.10697415 -0.25492793 30.188124
1.0950134 -1.385404 30.373671
2.1221812 -2.4823384 30.415472
0.33529025 -0.36988419 0.23668331
0.10608363 -0.25529981 30.188124
1.0901706 -1.3892177 30.373671
2.1162627 -2.4929826 30.455244
0.34362477 -0.38174871 0.24091341
0.10519183 -0.25566855 30.188124
1.0854921 -1.3932426 30.378662
2.1054866 -2.4979086 30.425415
0.34548688 -0.3865225 0.24232344
0.10429873 -0.25603417 30.188124
1.0806222 -1.3970232 30.378662
2.0960701 -2.5044253 30.415472
0.35050413 -0.39490172 0.2451435
0.10338882 -0.25635591 30.183125
1.0760905 -1.4012449 30.388645
2.0862935 -2.5104969 30.400557
0.36181048 -0.41051835 0.25078365
0.10247792 -0.25667444 30.178123
1.0717173 -1.4056815 30.40362
2.0771782 -2.5173528 30.395584
0.34773865 -0.39733908 0.2451435
0.10158134 -0.25703058 30.178123
1.0671523 -1.4098747 30.413603
2.0673652 -2.523351 30.380671
0.34005651 -0.39130858 0.24232344
0.10068352 -0.25738361 30.178123
1.0627443 -1.4142839 30.428579
2.0585446 -2.5305521 30.380671
0.099784464 -0.25773349 30.178123
1.0579736 -1.4182163 30.433571
2.0463498 -2.5335751 30.330957
0.098899052 -0.25812125 30.183125
1.05336 -1.422365 30.443554
2.0408278 -2.5448618 30.380671
0.098012134 -0.25850597 30.188124
1.0485594 -1.4262658 30.448545
2.0319321 -2.55197 30.380671
0.097109184 -0.25884655 30.188124
1.0439146 -1.4303839 30.458529
2.0236726 -2.5598836 30.390614
0.096205041 -0.25918394 30.188124
1.0390846 -1.4342531 30.463522
2.0147247 -2.5669317 30.390614
0.095271192 -0.25943571 30.178123
1.0345769 -1.4385747 30.478495
2.0044417 -2.5722671 30.370728
0.09433677 -0.25968415 30.168123
1.0298842 -1.4426475 30.48848
1.9970815 -2.5813563 30.395584
0.093401752 -0.25992915 30.158123
1.025009 -1.4464692 30.493469
1.9887079 -2.5891571 30.405529
0.092452355 -0.26012948 30.143126
1.0199536 -1.4500384 30.493469
1.9806275 -2.5973554 30.420444
0.091584846 -0.26057488 30.158123
1.0148858 -1.4535898 30.493469
1.9728357 -2.6059532 30.440329
0.090701811 -0.26097596 30.168123
1.0098056 -1.4571236 30.493469
1.9618061 -2.6102669 30.410501
0.089817099 -0.26137403 30.178123
1.0047132 -1.4606396 30.493469
1.9526825 -2.617099 30.410501
0.088930696 -0.26176909 30.188124
0.9996084 -1.4641378 30.493469
1.9429009 -2.6230423 30.400557
0.088042639 -0.26216114 30.198122
0.99449158 -1.4676181 30.493469
1.933417 -2.6293788 30.395584
0.087139949 -0.26250854 30.203121
3.9129658 -5.1103706 15.222767
0.98920166 -1.4708411 30.48848
1.9239128 -2.6356809 30.390614
0.08626157 -0.26293623 30.218122
3.8927388 -5.1208882 15.213562
0.98390126 -1.4740448 30.483486
1.9143882 -2.6419492 30.385643
0.085279837 -0.26302698 30.193123
3.8677795 -5.1250882 15.185947
0.97859055 -1.4772295 30.478495
1.9048431 -2.6481826 30.380671
0.084336117 -0.26323947 30.183125
3.8475232 -5.1354313 15.176743
0.97342807 -1.4806365 30.478495
1.8955877 -2.6548157 30.380671
0.083391957 -0.2634486 30.173124
3.8295739 -5.1488304 15.176743
0.9680962 -1.4837835 30.473503
1.886309 -2.6614163 30.380671
0.082459606 -0.26369619 30.168123
3.8104169 -5.1605945 15.172139
0.96291095 -1.4871536 30.473503
1.8773142 -2.6684206 30.385643
0.081538633 -0.26398245 30.168123
3.7900696 -5.170712 15.162933
0.95771396 -1.4905058 30.473503
1.8679883 -2.6749573 30.385643
0.08061666 -0.26426545 30.168123
3.7719977 -5.1839108 15.162933
0.95250523 -1.4938397 30.473503
1.8589431 -2.6818995 30.390614
0.079693712 -0.26454523 30.168123
3.758455 -5.2033811 15.181344
0.94728494 -1.4971555 30.473503
1.8495702 -2.6883721 30.390614
0.078781448 -0.26486385 30.173124
3.7778356 -5.2688642 15.333228
0.94205308 -1.500453 30.473503
1.8401748 -2.6948121 30.390614
0.077856421 -0.26513723 30.173124
3.7594211 -5.2820191 15.333228
0.93711483 -1.5042225 30.483486
1.8307569 -2.7012191 30.390614
0.077404976 -0.26531485 30.178123
3.7750568 -5.3236327 15.434483
5.5210347 -7.7458072 14.042973
0.93372768 -1.5046289 30.458529
1.8257414 -2.7039685 30.385643
4.9137993 -6.9244909 13.958556
0.076489672 -0.26562557 30.183125
3.71597 -5.279264 15.268791
5.502089 -7.7765179 14.063637
0.92771375 -1.5066496 30.433571
1.8162917 -2.710325 30.385643
4.8805866 -6.9288073 13.932961
0.075584278 -0.2659753 30.193123
3.6639526 -5.2441578 15.130716
5.4668245 -7.784162 14.042973
0.92124593 -1.5079072 30.393637
1.8065246 -2.7162049 30.380671
4.8503928 -6.9372516 13.915895
0.07467737 -0.26632199 30.203121
3.6600976 -5.2777858 15.19055
5.4524932 -7.8216648 14.076035
0.91463119 -1.508891 30.348711
1.7967386 -2.7220492 30.3757
3.9731834 -5.7399788 14.498155
4.8038445 -6.9220023 13.851908
0.073758125 -0.26662329 30.208122
3.6682372 -5.3291526 15.301011
5.4235559 -7.8383365 14.071903
0.9089126 -1.511332 30.333736
1.786934 -2.7278583 30.370728
3.9469597 -5.7448411 14.475648
4.7500634 -6.895772 13.766589
0.072869778 -0.26704836 30.228123
3.6496124 -5.3419251 15.301011
5.3993478 -7.8618593 14.080169
0.90244943 -1.5125116 30.293804
1.7774011 -2.7340794 30.370728
4.6950531 -6.8670993 13.677005
0.071937159 -0.26730108 30.228123
3.6353285 -5.3610992 15.31942
5.373457 -7.8829842 14.084301
0.89833951 -1.5176406 30.333736
1.7678466 -2.740267 30.370728
4.6549454 -6.8597074 13.630079
0.070962057 -0.26738104 30.208122
3.568599 -5.3024416 15.116909
5.3459077 -7.9016929 14.084301
0.89303643 -1.5207671 30.333736
1.7582704 -2.7464213 30.370728
4.6105757 -6.8456302 13.570356
0.070018038 -0.26758471 30.203121
3.5500681 -5.3148661 15.116909
5.3198619 -7.9226422 14.088435
0.88873881 -1.5256219 30.368679
1.7489587 -2.7529919 30.3757
3.1197629 -4.7328434 21.862001
4.5866523 -6.8616824 13.570356
0.069063358 -0.2677426 30.193123
3.5282562 -5.3223405 15.103102
5.2937341 -7.9435043 14.092567
0.88225359 -1.5267146 30.328747
1.7396226 -2.7595313 30.380671
3.1052873 -4.7468605 21.876518
4.5496964 -6.8580914 13.531962
0.068108432 -0.2678971 30.183125
3.5203936 -5.3509455 15.149127
5.2675266 -7.9642825 14.096701
0.8767755 -1.5295343 30.323753
1.7299794 -2.7655869 30.380671
3.0873301 -4.7555623 21.86684
4.5271635 -6.8761091 13.536229
0.067163073 -0.26809067 30.178123
3.4963536 -5.355022 15.126115
5.2366056 -7.9779162 14.088435
0.87157369 -1.5328366 30.328747
1.7203151 -2.7716086 30.380671
3.0720727 -4.7684236 21.876518
4.4945745 -6.8787694 13.510633
0.066226855 -0.26832348 30.178123
3.4978237 -5.3983459 15.213562
4.5394292 -6.9846134 15.333152
5.2071896 -7.9937887 14.084301
0.86522603 -1.5341089 30.293804
1.7106301 -2.777597 30.380671
3.0560863 -4.7801776 21.881359
4.4818873 -6.9119229 13.54476
0.065280318 -0.26851046 30.173124
3.4948077 -5.4351721 15.2826
4.5059342 -6.9863276 15.302428
5.1746716 -8.0048265 14.071903
0.85944331 -1.5363635 30.278828
1.7012019 -2.7840061 30.385643
3.0407283 -4.7929387 21.891037
4.9264741 -7.7090058 24.933083
4.4647889 -6.9384923 13.566091
0.064352006 -0.26877931 30.178123
3.4947293 -5.4769835 15.365446
4.4750643 -6.9919276 15.280483
5.1451778 -8.0204716 14.067769
0.85575426 -1.5423846 30.33873
1.6914735 -2.7899275 30.385643
3.0253184 -4.8056507 21.900715
4.9087758 -7.7407289 24.980009
4.4405422 -6.9540348 13.566091
0.063431822 -0.26908758 30.188124
3.4661839 -5.4742932 15.324023
4.4416428 -6.9933538 15.24976
5.112617 -8.0312614 14.05537
0.85119921 -1.5468802 30.368679
1.6814499 -2.7953579 30.380671
3.0098572 -4.8183141 21.910395
4.8826451 -7.7592769 24.984701
4.4162412 -6.9694924 13.566091
0.062519334 -0.26943541 30.203121
3.4137957 -5.433423 15.176743
4.4044356 -6.988554 15.20587
5.0830483 -8.0466805 14.051238
0.84579438 -1.549842 30.368679
1.671682 -2.8012102 30.380671
2.9950063 -4.8319964 21.924913
4.8491325 -7.766027 24.951853
4.3724508 -6.9539557 13.506367
0.061623029 -0.26986557 30.228123
3.3855069 -5.4303856 15.13532
4.3800139 -7.0038857 15.20587
5.042973 -8.0452986 14.018174
1.6613506 -2.8061109 30.370728
2.9800966 -4.845634 21.939432
4.8219948 -7.7829065 24.951853
4.3288236 -6.9381981 13.446644
0.060680646 -0.27007902 30.228123
4.076622 -6.6261749 24.918131
3.3264487 -5.3773727 14.955821
4.3530135 -7.0150619 15.197091
5.0148592 -8.0628529 14.018174
1.6510055 -2.8109736 30.360785
2.9657829 -4.8602991 21.95879
4.7884717 -7.7893996 24.919003
4.3032055 -6.9510489 13.442378
0.059694439 -0.27007532 30.203121
4.0526896 -6.6390901 24.913357
3.3219647 -5.412262 15.020257
4.3222222 -7.0200171 15.175146
5.019197 -8.1329937 14.109099
1.6403786 -2.8153377 30.345871
2.9487994 -4.8706217 21.95879
4.7540641 -7.794282 24.881462
4.276185 -6.9615822 13.433846
0.058734402 -0.27019644 30.193123
4.0217576 -6.6404281 24.865639
3.302036 -5.4221559 15.015653
4.2939453 -7.0289297 15.161978
4.984899 -8.1408644 14.092567
1.6305412 -2.8210466 30.345871
2.9285433 -4.8754973 21.934591
4.7241478 -7.8063998 24.867382
4.2762895 -7.0165534 13.510633
0.057774246 -0.27031416 30.183125
3.9939408 -6.646749 24.837006
3.2780378 -5.4252887 14.99264
4.273108 -7.0500207 15.175146
4.9798293 -8.1966953 14.158694
1.6220093 -2.8290334 30.370728
2.9095767 -4.8824511 21.920074
4.6817689 -7.7976913 24.787605
4.250422 -7.0292068 13.506367
0.24073583 -0.39421409 0.20212321
0.056822155 -0.27047133 30.178123
3.9684222 -6.6568041 24.822691
3.2500398 -5.421617 14.951218
4.9526401 -8.2164392 14.162828
1.6126512 -2.8356049 30.380671
2.8905971 -4.8893313 21.905556
4.6598201 -7.8228817 24.815763
4.2755013 -7.126749 13.664207
0.24187697 -0.39920923 0.20329553
0.055877689 -0.27066803 30.178123
3.9444015 -6.6693306 24.817917
3.2440767 -5.4547582 15.011051
4.962924 -8.2988834 14.274416
1.6035287 -2.8426096 30.395584
2.876056 -4.9037285 21.924913
4.6333623 -7.8405852 24.820456
4.2212534 -7.0923252 13.570356
0.23858227 -0.39533135 0.17913844
0.24799439 -0.41254887 0.20681247
0.054924671 -0.2708185 30.173124
3.9150543 -6.6727586 24.779743
3.2240236 -5.4643655 15.006448
4.9281821 -8.3064766 14.257886
1.5933362 -2.8477244 30.390614
2.8601854 -4.9159112 21.934591
4.6068377 -7.8581996 24.825148
4.1726022 -7.0665932 13.493569
0.24477097 -0.40880555 0.18193629
0.24655281 -0.41341203 0.20681247
0.053986724 -0.2710515 30.178123
3.8812265 -6.668323 24.712934
3.1950612 -5.4587255 14.960423
4.8634729 -8.2630005 14.154562
1.5833861 -2.8532689 30.390614
2.8442647 -4.9280424 21.944271
4.5793796 -7.8742323 24.825148
4.1215463 -7.0361071 13.408251
0.25086847 -0.42232758 0.18473415
0.2525332 -0.42682007 0.21032943
0.053040247 -0.27123833 30.178123
3.8444915 -6.6585612 24.627039
3.1396921 -5.4073324 14.79013
4.8317618 -8.2750664 14.146296
1.5731598 -2.8583117 30.385643
2.8282943 -4.9401221 21.953949
4.5518656 -7.8901691 24.825148
4.0943398 -7.0459418 13.399718
0.24191105 -0.4105044 0.18193629
0.052093126 -0.27142179 30.178123
3.8212256 -6.6719403 24.627039
3.1227477 -5.4216452 14.799335
4.8197718 -8.3211021 14.195891
1.5629175 -2.8633177 30.380671
2.8110328 -4.9499645 21.953949
4.5234389 -7.9045129 24.820456
4.0710225 -7.0624504 13.403984
0.23799753 -0.40710554 0.18100367
0.051152635 -0.27164501 30.183125
3.7993872 -6.6878343 24.636583
3.1038036 -5.4325128 14.799335
4.8075194 -8.3671551 14.245486
1.5529131 -2.8687561 30.380671
2.7968214 -4.9652228 21.978146
4.4949679 -7.9187541 24.815763
4.0528178 -7.0879378 13.425315
0.25136071 -0.43343025 0.18659939
0.050211225 -0.27186495 30.188124
3.7752864 -6.6997552 24.631811
3.0771158 -5.4297161 14.762514
1.5426377 -2.8736894 30.3757
2.7819247 -4.9793448 21.997505
4.4656057 -7.9313884 24.806377
4.0319114 -7.1088471 13.438111
0.23514962 -0.40875712 0.18100367
0.049268905 -0.27208164 30.193123
3.7708111 -6.7467713 24.755882
3.0734603 -5.4676733 14.836155
4.0754342 -7.2266574 15.271705
1.5323468 -2.8785861 30.370728
2.7730553 -5.0044179 22.065256
4.4362102 -7.9439149 24.796991
4.012187 -7.1319699 13.455175
0.23128681 -0.40530893 0.18007106
0.048305228 -0.27216578 30.183125
2.3381991 -4.2668109 23.415133
3.7747369 -6.8095036 24.937218
3.0543559 -5.4783683 14.836155
4.645318 -8.2844963 14.022307
1.5222893 -2.8839173 30.370728
2.7616234 -5.0250831 22.113651
4.4067817 -7.9563327 24.787605
3.9910796 -7.1527643 13.467973
0.047341563 -0.27224651 30.173124
2.3223188 -4.2731576 23.405342
3.7509444 -6.822638 24.937218
3.1051712 -5.6155143 15.176743
3.8668723 -6.9701076 14.67479
4.6218419 -8.3104982 14.038838
1.5122133 -2.8892136 30.370728
2.7506824 -5.046833 22.166885
4.3764892 -7.9671288 24.773529
3.2539353 -5.896729 13.989517
3.9686134 -7.171216 13.476505
0.046384439 -0.27236694 30.168123
2.3073885 -4.2812381 23.405342
3.7006679 -6.7871985 24.760654
3.0827317 -5.6211796 15.162933
3.8413646 -6.9814658 14.670402
1.5021189 -2.8944745 30.370728
2.7348418 -5.0597215 22.181402
4.3470011 -7.9793258 24.764143
3.2270617 -5.8965936 13.96251
3.9460664 -7.1895976 13.485037
0.04542068 -0.27244085 30.158123
2.2957895 -4.2955523 23.439608
3.6783736 -6.802701 24.770199
3.8158243 -6.9927301 14.666014
1.49225 -2.9001744 30.3757
2.7189448 -5.0725608 22.195921
4.3158402 -7.988378 24.745371
3.2158048 -5.9250417 14.003021
3.9246869 -7.2102013 13.497835
0.044469409 -0.27259773 30.158123
2.2798276 -4.3017402 23.429817
3.6764722 -6.8562813 24.918131
2.9831326 -5.530797 14.86377
3.7868323 -6.997582 14.648457
1.4821174 -2.9053657 30.3757
2.7029917 -5.085351 22.21044
4.2895594 -8.0064373 24.754757
3.1909759 -5.9285631 13.985016
3.9019723 -7.2284465 13.506367
0.043523662 -0.27279454 30.163124
2.2647979 -4.3096724 23.429817
3.6917605 -6.9428792 25.18536
2.9518301 -5.5187802 14.803937
3.7623832 -7.0107574 14.648457
1.4719667 -2.9105215 30.3757
2.6863959 -5.0969787 22.220118
4.2518706 -8.0030746 24.698444
3.1733372 -5.9454274 13.99852
3.8804088 -7.2489209 13.519165
0.042571168 -0.27294481 30.163124
2.2492702 -4.316649 23.424923
3.6842113 -6.9874139 25.299889
2.9261405 -5.5169692 14.77172
3.7367625 -7.0217333 14.644067
1.4617982 -2.9156418 30.3757
2.6697519 -5.1085529 22.229797
4.2190824 -8.0087061 24.670286
3.1505277 -5.95262 13.989517
3.8636413 -7.2785468 13.549026
0.041623913 -0.27313498 30.168123
2.2332537 -4.3226647 23.415133
3.6625645 -7.0055232 25.318977
2.8877683 -5.4908385 14.675066
3.7099941 -7.0304985 14.63529
4.3770442 -8.2736368 13.819793
1.4513745 -2.9202495 30.370728
2.6530602 -5.1200728 22.239475
4.1919003 -8.0249147 24.674978
3.1378229 -5.979002 14.025527
3.8382108 -7.2919893 13.549026
0.040670242 -0.27327862 30.168123
2.2186153 -4.3313398 23.420027
3.6380882 -7.0182648 25.318977
2.8333554 -5.4333262 14.495568
3.6876509 -7.0476494 14.644067
4.3363719 -8.2664366 13.782596
1.4411721 -2.9252977 30.370728
2.6345973 -5.1281853 22.234636
2.485358 -4.7985668 14.749779
3.1038699 -5.9648137 13.967011
3.827214 -7.3330884 13.600218
0.039716076 -0.2734189 30.168123
2.2057879 -4.3435979 23.444504
3.6217556 -7.0468531 25.37624
2.7928379 -5.4015326 14.385108
3.6663365 -7.0668569 14.657235
4.2971025 -8.2615519 13.749534
1.4309522 -2.9303105 30.370728
2.6189623 -5.14183 22.253994
2.4875114 -4.8440557 14.862406
3.08303 -5.9756122 13.967011
3.808785 -7.3603005 13.625813
0.038761422 -0.2735559 30.168123
2.1933591 -4.3567271 23.473875
3.5964575 -7.0581226 25.371468
2.7882252 -5.4390655 14.458748
3.6712248 -7.137116 14.775741
3.9419243 -7.6437373 12.703897
1.4207147 -2.9352877 30.370728
2.6038308 -5.1565509 22.278193
2.4658897 -4.8434825 14.834249
3.0829709 -6.0270376 14.061537
3.7985458 -7.4037166 13.68127
0.037806299 -0.27368954 30.168123
2.180866 -4.3698239 23.503246
3.562376 -7.05198 25.304661
2.7701075 -5.4505072 14.46335
3.6963394 -7.2480316 14.977637
3.9229047 -7.6724839 12.728694
1.4104601 -2.9402292 30.370728
2.590879 -5.175725 22.321747
2.4513004 -4.8566818 14.848327
3.0717597 -6.0571785 14.106549
3.7714968 -7.414607 13.677005
0.03685572 -0.27386317 30.173124
2.1692107 -4.3847113 23.542408
3.5283813 -7.0456867 25.237852
3.7109983 -7.3399715 15.140033
3.8999157 -7.6936603 12.741093
1.4001881 -2.9451344 30.370728
2.577266 -5.1937451 22.360462
2.4358768 -4.8682957 14.857713
3.0457084 -6.0581388 14.084044
3.7514632 -7.4393697 13.698334
0.035899535 -0.27399015 30.173124
2.1534438 -4.3913422 23.537514
3.4971287 -7.0445895 25.190134
2.7965858 -5.5990486 14.803937
3.6842816 -7.35074 15.135645
3.8641915 -7.6896257 12.712162
1.3898991 -2.9500041 30.370728
2.5635588 -5.2117333 22.399178
2.4188685 -4.8767691 14.857713
3.0439632 -6.1077008 14.174067
3.7313025 -7.4640827 13.719664
0.03494291 -0.2741138 30.173124
2.1376567 -4.3979163 23.532618
3.4659266 -7.0433602 25.142412
2.7770245 -5.6087766 14.803937
3.6607313 -7.3678455 15.144423
1.3793679 -2.954355 30.365757
2.550859 -5.2319484 22.447571
2.4018307 -4.8851829 14.857713
3.0245531 -6.1221929 14.183069
3.7086997 -7.4840736 13.732461
0.033990417 -0.27427748 30.178123
2.1209664 -4.4025993 23.517931
3.4315042 -7.0352917 25.070833
2.7049258 -5.5114522 14.523183
3.6339324 -7.3784304 15.140033
4.0895028 -8.2816057 13.637943
1.3688231 -2.9586678 30.360785
2.5325806 -5.2408209 22.447571
2.3855195 -4.8950882 14.862406
3.6848524 -7.5016551 13.740993
0.033032801 -0.27439445 30.178123
2.107779 -4.4145703 23.542408
3.4069257 -7.0472269 25.070833
2.6873798 -5.524374 14.532389
3.6081545 -7.3910699 15.140033
1.3580428 -2.9624588 30.350842
2.5251296 -5.2723026 22.544359
2.3654158 -4.8971696 14.843634
3.092953 -6.3722978 14.709711
3.6517942 -7.5004029 13.715397
0.032074787 -0.27450809 30.178123
2.0906148 -4.4182196 23.522827
3.3855305 -7.0658073 25.094694
2.6468687 -5.4897265 14.417325
3.5719018 -7.3820615 15.096143
4.080719 -8.4112263 13.803261
1.3476937 -2.9671812 30.350842
2.5147946 -5.2981176 22.616951
2.3572483 -4.9240746 14.899947
3.0820155 -6.4065962 14.763726
3.6142561 -7.4896154 13.672739
0.031116378 -0.27461839 30.178123
2.0764763 -4.428256 23.537514
3.3602052 -7.0762329 25.08992
2.6057899 -5.4531007 14.29766
3.5357559 -7.372889 15.052251
4.07938 -8.4837484 13.898318
1.3364534 -2.9699228 30.330957
2.5043106 -5.3239255 22.689543
2.3274715 -4.9057684 14.82017
3.0483911 -6.3937349 14.709711
3.5779631 -7.4810104 13.634345
0.030149696 -0.27463844 30.168123
2.3986485 -5.1622014 27.390057
3.3348484 -7.0865688 25.08515
2.5917561 -5.4727573 14.325275
3.5099978 -7.3851857 15.052251
4.0497413 -8.4979362 13.898318
1.3271632 -2.9770043 30.355814
2.4846492 -5.3303561 22.679863
2.3015223 -4.8951225 14.763858
3.0018744 -6.3531609 14.59268
3.4836891 -7.3496962 13.374123
0.029187052 -0.27469856 30.163124
2.3818917 -5.1733174 27.404741
3.3119836 -7.1022248 25.099464
2.5759566 -5.4888453 14.343685
3.4801157 -7.3887267 15.034696
4.0368776 -8.5476456 13.956181
1.3174093 -2.9830818 30.370728
3.1185021 -6.7517281 28.671072
4.0057392 -8.5978718 25.848171
2.9796796 -6.3636007 14.59268
3.39592 -7.2296185 13.135231
0.028220711 -0.27471179 30.153124
2.3671997 -5.1890111 27.443905
3.2865462 -7.1123881 25.094694
2.5691383 -5.5243754 14.412723
3.9724245 -8.487772 13.836325
1.3042117 -2.9813132 30.306099
3.0912538 -6.7545719 28.637196
3.9561741 -8.569499 25.721468
2.9629457 -6.3858118 14.619688
3.3299427 -7.153944 12.977391
8.9925079 -19.032364 6.2772636
0.027258122 -0.2747651 30.148123
2.3457177 -5.1898198 27.404741
3.2567279 -7.1129584 25.056517
2.5351219 -5.5013714 14.329877
3.9451404 -8.5066919 13.844591
3.0692141 -6.7687554 28.651712
3.9097269 -8.5471621 25.613533
2.9515488 -6.4198503 14.673702
3.2732744 -7.0968442 12.85368
8.9260187 -19.063639 6.2772636
4.7749343 -10.27253 10.170535
0.026298847 -0.27485859 30.148123
2.3296678 -5.2026229 27.429218
3.2275629 -7.1147676 25.023113
2.5061662 -5.4888611 14.274648
3.3945694 -7.4073462 14.999582
3.9118969 -8.5127392 13.832191
1.2869395 -2.9986734 30.390614
3.0254805 -6.7347102 28.462976
3.8577857 -8.5120325 25.468058
2.9408531 -6.4558692 14.732218
3.2810023 -7.1793885 12.981657
4.7725501 -10.30975 9.2428713
8.7281857 -18.811832 6.1856117
12.807465 -27.578703 2.8227935
4.7343616 -10.278961 10.160559
0.025345625 -0.27503574 30.158123
2.3119059 -5.2116537 27.434113
2.4910173 -5.5064759 14.29766
3.9054797 -8.5775642 13.91485
2.9963324 -6.7325978 28.409742
3.8337045 -8.5380411 25.505598
2.9174042 -6.4641099 14.727716
3.2645273 -7.2098045 13.015784
4.6138244 -10.152155 12.167185
4.6754193 -10.207183 11.112563
4.7381563 -10.329885 9.2460098
8.4801245 -18.44556 6.0572987
12.627849 -27.442282 2.8049102
4.6984525 -10.295424 10.160559
9.0505533 -19.768084 7.656055
11.729953 -25.608608 4.0207863
0.024388455 -0.27516609 30.163124
2.2945189 -5.2215567 27.443905
3.1735642 -7.1275811 24.98971
2.4773738 -5.5276175 14.329877
4.0178399 -8.9066544 14.423203
2.9591224 -6.7119613 28.279078
3.812294 -8.5702915 25.561913
2.8894911 -6.4623308 14.70071
3.2425427 -7.2282953 13.028583
4.5700073 -10.149651 12.145135
4.6456566 -10.236431 11.126581
4.6907964 -10.321556 9.22404
8.2247849 -18.055962 5.9219351
12.755104 -27.975565 2.8531947
4.6624866 -10.311763 10.160559
9.02246 -19.889864 7.6905689
11.548397 -25.446474 3.9897056
0.023433568 -0.27533662 30.173124
2.2774975 -5.2323351 27.45859
3.146858 -7.1345186 24.975393
2.4580636 -5.536231 14.329877
3.3450873 -7.5059276 15.126866
4.0073919 -8.9668684 14.497596
4.5074682 -10.071715 13.28761
