# .PCD v0.7 - Point Cloud Data file format
VERSION 0.7
FIELDS x y z
SIZE 4 4 4
TYPE F F F
COUNT 1 1 1
WIDTH 1540
HEIGHT 1
VIEWPOINT 0 0 0 1 0 0 0
POINTS 1540
DATA ascii
7.4410353 -2.752506 2.8504348
0.10845263 -0.087120056 14.443723
1.1998347 -0.47110346 8.1946535
1.5889159 -0.61542475 8.2154522
2.2701011 -0.86671042 7.81534
4.5108476 -1.7026174 8.9031515
5.6184273 -2.1139948 8.889185
3.5273848 -1.3250937 4.5879874
0.7788825 -0.35074043 14.610013
0.83773309 -0.33936429 8.3867388
1.9966954 -0.77067083 8.2777367
2.3494692 -0.89797997 6.8940883
3.741786 -1.4220167 8.3404942
5.0723276 -1.9206409 8.9418173
5.6569023 -2.1374991 8.0822992
3.722029 -1.4034165 4.3905373
3.6150105 -1.3508285 3.8721707
4.3862915 -1.6364394 3.8572795
7.0621262 -2.6333659 5.0261674
5.6635494 -2.1096065 3.2501566
5.0839581 -1.8927082 2.2800994
6.555356 -2.4392037 2.1458676
4.0443702 -1.5177184 3.9285717
4.9983821 -1.8737561 3.9704125
4.7489142 -1.7792959 3.0656888
5.1828117 -1.9387829 2.6455019
7.0465703 -2.6345882 2.7074494
0.10814786 -0.087498091 14.443723
1.1974607 -0.47500214 8.1897135
1.5867579 -0.62096733 8.2154522
2.2670619 -0.87462926 7.81534
4.5048771 -1.7183528 8.9031515
5.6136441 -2.1345944 8.8933172
3.534724 -1.3419492 4.6033378
0.47215983 -0.21417126 8.8047142
0.83210415 -0.34046757 8.3419952
1.993993 -0.77763593 8.2777367
2.3527594 -0.90866286 6.9128594
3.7469606 -1.4389719 8.3629999
5.068028 -1.9392672 8.9460831
5.5987358 -2.1378834 8.010478
5.3866134 -2.0525875 6.3273487
3.6102731 -1.363439 3.8721707
4.3477745 -1.6393807 3.8290334
5.0612845 -1.9074211 3.6307611
5.5690904 -2.0965872 3.2014618
5.0729814 -1.9088103 2.2782264
6.5602722 -2.4671371 2.1500978
4.0530124 -1.537123 3.9418736
4.984251 -1.8883281 3.9645259
4.7507372 -1.798915 3.0707552
5.2396908 -1.9809372 2.6769726
7.4923153 -2.8310933 2.8767309
0.10784177 -0.087875068 14.443723
1.1950741 -0.47888994 8.1847744
1.5845807 -0.62650239 8.2154522
2.2639949 -0.88253742 7.81534
4.4988513 -1.7340673 8.9031515
5.6061587 -2.1541767 8.8933172
3.544981 -1.3600203 4.6225252
0.47140935 -0.21581809 8.8047142
0.82647765 -0.34153572 8.2972517
1.9912664 -0.7845915 8.2777367
2.3543959 -0.91875219 6.9269376
3.7581506 -1.4583431 8.3990097
5.0612283 -1.956946 8.9460831
5.5434484 -2.1389725 7.9426479
5.3667612 -2.066505 6.3126483
3.6054919 -1.3760328 3.8721707
4.2765555 -1.6295992 3.772541
5.0155191 -1.9101942 3.6033466
5.176693 -1.9695187 2.9858134
5.0879536 -1.9347454 2.2875915
6.5874925 -2.5036557 2.1613781
4.0929461 -1.5686324 3.9851053
4.9663048 -1.9013791 3.9556966
4.7444291 -1.8154871 3.0707552
5.1352329 -1.9619598 2.6287174
0.10750171 -0.088222049 14.438723
1.1919547 -0.48247519 8.1748953
1.5823841 -0.63202977 8.2154522
2.2609007 -0.89043492 7.81534
4.4950023 -1.7506297 8.9075413
5.6012282 -2.174751 8.8974504
3.5432005 -1.3735448 4.6263623
0.47143868 -0.21782711 8.8196888
0.82036197 -0.34236318 8.2475367
1.9885155 -0.79153752 8.2777367
2.3543851 -0.92823106 6.9363232
3.7773578 -1.4809886 8.4530239
5.0567956 -1.9755503 8.9503498
5.395577 -2.1035812 7.7431469
5.33108 -2.0741625 6.279572
3.6006665 -1.38861 3.8721707
4.198195 -1.6165435 3.7097719
5.0439425 -1.9412069 3.6280198
5.1615167 -1.9843972 2.9811759
5.7562466 -2.2119024 2.5797846
6.5876694 -2.5300748 2.1641982
4.0630732 -1.5734711 3.9618268
4.9747167 -1.9245368 3.9674692
4.7702284 -1.8444747 3.0910206
4.8235092 -1.8621825 2.4776576
7.4855843 -2.8884299 2.8816614
0.1071931 -0.088596761 14.438723
1.1895444 -0.48633882 8.1699572
1.5801684 -0.63754952 8.2154522
2.2577786 -0.89832151 7.81534
4.4888639 -1.7663096 8.9075413
5.5962224 -2.1953175 8.9015837
3.5353999 -1.3847355 4.6225252
0.46989119 -0.21910387 8.8047142
0.81768852 -0.34460291 8.2326212
1.9857404 -0.79847389 8.2777367
2.3527339 -0.93708229 6.9410157
3.8652658 -1.5310451 8.66008
5.0498691 -1.9931897 8.9503498
5.3825941 -2.1201937 7.7351665
5.3458929 -2.1014407 6.3052979
3.5991204 -1.4024651 3.8756754
4.1272335 -1.6057839 3.6532798
5.0722098 -1.9724413 3.652693
5.817636 -2.2588296 2.6097531
6.8158202 -2.6450372 2.23893
4.0401702 -1.5808414 3.9451993
4.9980855 -1.9536625 3.9910145
4.7677765 -1.8626835 3.0935538
5.0157056 -1.9565284 2.5762661
7.1146889 -2.7738845 2.7468936
0.10688318 -0.0889704 14.438723
1.1871214 -0.49019143 8.1650181
1.5779333 -0.6430614 8.2154522
2.2532442 -0.90564036 7.8105679
4.4826708 -1.7819679 8.9075413
5.5885253 -2.2148385 8.9015837
3.5305448 -1.397068 4.6225252
0.46860161 -0.22049594 8.7947311
0.81500959 -0.34682822 8.2177076
1.9829412 -0.80540061 8.2777367
2.3510494 -0.94593346 6.9457088
3.9629748 -1.5857767 8.8896418
5.0453029 -2.0117707 8.9546156
5.4143562 -2.1545675 7.7910266
5.3133192 -2.1100781 6.2758965
3.594203 -1.4150199 3.8756754
4.1324701 -1.6244529 3.6626952
5.0497265 -1.9840181 3.6417272
5.5269041 -2.1692841 3.1945055
6.0427642 -2.3705475 2.7108967
6.8154778 -2.6723149 2.24175
4.0381002 -1.5963074 3.9485247
5.0100327 -1.9785206 4.0057302
4.7492156 -1.8745666 3.0859542
4.9666214 -1.9573834 2.5552855
7.8430862 -3.089457 3.0230031
0.10657197 -0.089342944 14.438723
1.1882713 -0.49552912 8.1847744
1.5756788 -0.64856553 8.2154522
2.2500691 -0.91350013 7.8105679
4.4764237 -1.7976044 8.9075413
5.5833731 -2.2353787 8.9057169
3.5256467 -1.4093834 4.6225252
0.46782908 -0.22213033 8.7947311
0.81085593 -0.34840691 8.1878777
1.9801177 -0.81231743 8.2777367
2.3493319 -0.95478421 6.9504013
3.9574153 -1.5996004 8.8896418
5.03825 -2.0293701 8.9546156
5.4487395 -2.1903126 7.8508768
5.2681637 -2.1134646 6.2317944
3.5892417 -1.4275573 3.8756754
4.1484795 -1.6474878 3.6815257
5.0544291 -2.0062609 3.6499515
5.5192981 -2.1885636 3.1945055
5.9741163 -2.367713 2.6846745
7.0068026 -2.7755902 2.3052013
4.0463734 -1.6159323 3.9618268
4.9843249 -1.9885079 3.9910145
4.7146139 -1.8799559 3.068222
4.7784452 -1.9025182 2.4650693
7.7532783 -3.0853875 2.9934199
0.10625946 -0.089714415 14.438723
1.1879665 -0.5002774 8.1946535
1.5734054 -0.65406173 8.2154522
2.2468667 -0.92134881 7.8105679
4.4701214 -1.8132191 8.9075413
5.5755358 -2.2548547 8.9057169
3.5147612 -1.4192811 4.61485
0.46679077 -0.22363678 8.7897396
0.8096348 -0.35123521 8.1878777
1.9772701 -0.81922436 8.2777367
2.3459847 -0.96297908 6.9504013
3.9538231 -1.6142277 8.8941431
5.0311356 -2.0469444 8.9546156
5.5080657 -2.236527 7.9466381
5.2199092 -2.1152887 6.1840177
3.5875459 -1.441407 3.87918
4.1499281 -1.6648573 3.6878028
5.0241094 -2.0145545 3.6335027
5.5157371 -2.2094631 3.1968243
5.7936635 -2.3196268 2.6097531
6.9079976 -2.7643867 2.2770007
4.0614834 -1.6384282 3.9817796
7.8228455 -3.1526604 6.2248735
4.692029 -1.8899591 3.0580893
4.8433571 -1.9479767 2.500736
7.0983953 -2.8535202 2.7518241
0.10594565 -0.090084776 14.438723
1.1876428 -0.50502956 8.2045317
1.5711128 -0.65954995 8.2154522
2.2436371 -0.92918622 7.8105679
2.3787172 -0.97837752 6.1189742
4.4637651 -1.8288116 8.9075413
5.5702357 -2.2753673 8.9098501
3.5246248 -1.4375941 4.6340375
0.46600726 -0.22526482 8.7897396
0.80742759 -0.35363108 8.1779356
1.9732389 -0.82563609 8.2728968
2.3426089 -0.9711622 6.9504013
3.9461515 -1.6271892 8.8896418
5.0239596 -2.0644939 8.9546156
5.6312556 -2.3094797 8.1341686
5.1968064 -2.1270757 6.1656423
3.5824926 -1.4539211 3.87918
6.2111087 -2.5169811 5.4861388
5.0674291 -2.0524869 3.6691418
5.5120969 -2.2303648 3.1991429
4.9990439 -2.0217555 2.266988
6.9116483 -2.7938764 2.2812307
8.3156605 -3.3884354 8.0787964
7.7930741 -3.172328 6.2101574
4.6374879 -1.8868302 3.0276911
4.8785753 -1.9819537 2.5217166
5.0057845 -2.0326216 1.9695139
0.10563055 -0.090454049 14.438723
1.1865866 -0.50947887 8.2094707
1.5678635 -0.66463262 8.210557
2.2417569 -0.93758839 7.81534
2.3897209 -0.99267095 6.1557946
4.4573541 -1.844382 8.9075413
5.5622592 -2.2947972 8.9098501
3.5314395 -1.4547722 4.6493878
0.4652181 -0.22689012 8.7897396
0.80570084 -0.35623157 8.1729641
1.9703449 -0.83251894 8.2728968
2.3407965 -0.97999996 6.9550943
3.9424574 -1.6417909 8.8941431
5.0191307 -2.0830178 8.9588804
5.7205963 -2.3694816 8.2738199
5.1736846 -2.1387272 6.1472659
3.5773957 -1.4664174 3.87918
6.1950803 -2.5356977 5.4798617
5.0911946 -2.0828292 3.6910737
5.5575857 -2.271379 3.2292874
4.9962482 -2.0409462 2.2688611
6.9151773 -2.8234258 2.2854609
8.3244972 -3.4259677 8.0987492
7.7894301 -3.2025859 6.2160435
4.6388474 -1.9062836 3.0327575
4.8716273 -1.9989711 2.5217166
4.9986587 -2.0500827 1.9695139
6.9396582 -2.8447351 1.8996389
0.10531416 -0.09082222 14.438723
1.184801 -0.51361775 8.2094707
1.5655339 -0.6701014 8.210557
2.2384706 -0.94540787 7.81534
2.3754318 -0.9964717 6.1281791
4.4508886 -1.8599299 8.9075413
5.5568132 -2.3152816 8.9139824
0.46416447 -0.22838467 8.7847471
0.80396575 -0.35882434 8.1679926
1.9674269 -0.83939165 8.2728968
2.3373616 -0.98816496 6.9550943
3.9367025 -1.6555427 8.8941431
5.0118294 -2.1005251 8.9588804
5.8512826 -2.4475775 8.473321
5.1661873 -2.1567736 6.1472659
3.5755498 -1.48026 3.8826842
6.2005792 -2.5632551 5.492415
5.0800285 -2.0989914 3.6883321
5.5946646 -2.3093569 3.2547944
4.9933786 -2.0601423 2.2707343
4.878582 -2.0117886 1.6410758
8.381444 -3.4836659 8.1652584
7.7856698 -3.2328568 6.22193
4.6998501 -1.9505563 3.0758214
4.8059216 -1.9916383 2.4923439
4.9827471 -2.0639045 1.9662268
6.8937588 -2.8540676 1.8902603
0.10502834 -0.091219097 14.443723
1.1822891 -0.51743865 8.2045317
1.5631853 -0.67556208 8.210557
2.2365298 -0.95380145 7.8201122
2.3845315 -1.0100921 6.1603966
4.4443688 -1.8754549 8.9075413
5.551291 -2.3357558 8.9181156
0.46310607 -0.22987464 8.7797556
0.80270833 -0.3616285 8.1679926
1.9644849 -0.84625417 8.2728968
2.3338978 -0.99631786 6.9550943
3.9308994 -1.6692742 8.8941431
5.0044665 -2.1180069 8.9588804
5.8510303 -2.4715049 8.4852905
3.5703611 -1.492732 3.8826842
6.1987777 -2.5878825 5.498692
5.1575675 -2.1521373 3.7486444
5.5988355 -2.3339853 3.2617507
4.8791747 -2.0329835 2.2239084
4.8892441 -2.0361831 1.6467161
4.2516642 -1.7845714 4.1879606
7.7743378 -3.2600138 6.22193
4.7128916 -1.9752816 3.0884874
4.8575535 -2.0329325 2.5217166
4.9493742 -2.0703514 1.9563658
6.8837543 -2.878114 1.8902603
0.10470929 -0.091585159 14.443723
1.1804757 -0.5215624 8.2045317
1.5617508 -0.68142176 8.2154522
2.2331867 -0.96160257 7.8201122
2.3845835 -1.0199462 6.1696019
4.4377956 -1.8909572 8.9075413
5.5456934 -2.3562195 8.9222479
5.0680571 -2.1501575 6.6679149
0.46230084 -0.23148978 8.7797556
0.80095601 -0.36420739 8.1630211
1.9615189 -0.85310638 8.2728968
2.3319905 -1.0051417 6.9597874
3.9270494 -1.6838433 8.8986444
4.9970431 -2.1354628 8.9588804
5.8395963 -2.4907317 8.4813013
3.4728394 -1.4783735 4.1700277
3.5684142 -1.506573 3.886189
6.1897068 -2.6095047 5.498692
5.2425027 -2.2090969 3.8144395
5.5824885 -2.3500774 3.257113
4.9446902 -2.0805681 2.2557499
4.8555751 -2.0420792 1.638256
4.2385335 -1.7964876 4.1813097
7.7443004 -3.2792511 6.2072144
4.7655158 -2.0169239 3.1264851
4.9298573 -2.0834448 2.5615797
4.9725671 -2.1004777 1.9678704
0.10438896 -0.091950104 14.443723
1.1779385 -0.52536327 8.1995926
1.5593626 -0.68686914 8.2154522
2.2298164 -0.969392 7.8201122
2.3863893 -1.0305878 6.1834097
4.4311681 -1.9064366 8.9075413
5.5400209 -2.3766725 8.9263811
5.0781984 -2.1754081 6.6909404
0.46148998 -0.2331021 8.7797556
0.79919541 -0.36677846 8.1580486
1.95968 -0.86045355 8.2777367
2.3316324 -1.0146531 6.9691725
3.9211476 -1.697541 8.8986444
4.9895582 -2.1528928 8.9588804
5.7921209 -2.4944141 8.4254408
3.470772 -1.4918257 4.1737022
3.5664144 -1.5204186 3.8896935
4.4113998 -1.8779433 3.9482946
5.2347593 -2.2273831 3.8144395
5.5824046 -2.3730154 3.2617507
4.9373975 -2.0978158 2.2557499
4.8351707 -2.0533903 1.6340258
4.2288041 -1.8098027 4.1779842
7.7476721 -3.3126199 6.218987
4.7505193 -2.0301583 3.1214187
7.9698071 -3.4010324 4.0931578
4.9608612 -2.1159697 1.9662268
0.10403582 -0.092283778 14.438723
1.1760974 -0.52947181 8.1995926
1.557886 -0.69272202 8.2203474
2.2264192 -0.97716957 7.8201122
2.3881495 -1.0412542 6.197217
4.4266829 -1.9228469 8.9119301
5.5368552 -2.3982334 8.9346476
5.0646906 -2.1905763 6.6832652
0.4604165 -0.23458003 8.7747641
0.79791027 -0.36956593 8.1580486
1.9566644 -0.86728889 8.2777367
2.3296561 -1.0234801 6.9738655
3.9151983 -1.711218 8.8986444
4.9820132 -2.1702964 8.9588804
3.4593236 -1.5012326 4.1663523
3.5643609 -1.5342685 3.8931983
4.4334254 -1.9056273 3.9734023
5.2500038 -2.2555461 3.8308885
7.8699484 -3.3779178 4.5695539
5.0535965 -2.1680429 2.3100679
4.8412004 -2.0759273 1.638256
4.2327433 -1.8289962 4.1879606
7.7768831 -3.3572669 6.2513618
4.7552776 -2.051852 3.1290183
7.9953995 -3.4449949 4.1120405
4.9491076 -2.1314056 1.9645834
0.10371305 -0.092646375 14.438723
1.1735348 -0.5332523 8.1946535
1.5554584 -0.69815582 8.2203474
2.224359 -0.98554003 7.8248835
2.3880765 -1.0511583 6.2064223
4.4221373 -1.9392492 8.9163198
5.5310287 -2.4186735 8.9387798
5.0393887 -2.2005455 6.6602397
0.45959488 -0.23618576 8.7747641
0.79661542 -0.3723489 8.1580486
1.9536251 -0.87411362 8.2777367
2.3292241 -1.0330051 6.9832506
3.9111931 -1.7257532 8.9031458
4.9744072 -2.1876738 8.9588804
4.7619662 -2.0902896 6.9611015
3.4509571 -1.5119383 4.1626773
3.562254 -1.5481224 3.8967025
4.4410286 -1.9272894 3.9859562
5.1039996 -2.2139542 3.7321954
7.6061077 -3.2961607 4.4257884
5.0842838 -2.2022538 2.3269253
4.8383265 -2.0947194 1.639666
4.2160664 -1.839281 4.1779842
7.90592 -3.4457619 6.3632016
4.7401819 -2.0649951 3.1239519
8.0790453 -3.5145235 4.1602955
4.9806118 -2.1656146 1.9793749
0.10338902 -0.093007833 14.438723
1.1716661 -0.53734547 8.1946535
1.5530119 -0.70358115 8.2203474
2.2209053 -0.99329841 7.8248835
2.3879633 -1.0610746 6.2156272
4.4153414 -1.9546734 8.9163198
5.5251269 -2.4391024 8.9429131
5.049274 -2.2258806 6.6832652
0.45876762 -0.23778862 8.7747641
0.79482871 -0.37489969 8.1530771
1.9505619 -0.88092774 8.2777367
2.3271792 -1.0418346 6.9879436
3.9051452 -1.7393954 8.9031458
4.9667401 -2.2050242 8.9588804
4.7326021 -2.0971332 6.9291816
3.4487588 -1.5253465 4.1663523
3.5568285 -1.5605476 3.8967025
4.4235787 -1.9380938 3.9765408
5.1192217 -2.2418215 3.7486444
7.5539718 -3.304935 4.4026003
5.1572685 -2.2552795 2.3625128
4.2198715 -1.8585014 4.1879606
7.9345403 -3.4912448 6.3955765
7.2662954 -3.1957021 4.7502527
5.133007 -2.2532158 2.0401847
0.10303252 -0.093337677 14.433724
1.1697834 -0.54143208 8.1946535
1.5505465 -0.70899791 8.2203474
2.2174246 -1.0010448 7.8248835
2.38781 -1.071003 6.2248321
4.4084916 -1.9700741 8.9163198
5.5191493 -2.4595191 8.9470463
5.8438439 -2.600563 7.7347412
0.45767921 -0.2392543 8.7697725
0.79399651 -0.3779012 8.1580486
1.9474751 -0.88773108 8.2777367
2.3266735 -1.051373 6.9973292
3.9010353 -1.7539089 8.9076471
4.959013 -2.222348 8.9588804
4.7142506 -2.1087186 6.9132218
3.4434133 -1.5373757 4.1663523
3.5546203 -1.574398 3.900207
4.3740706 -1.9346297 3.9388795
5.0195808 -2.2190995 3.6828492
7.655849 -3.3813958 4.4675264
5.0433388 -2.2264612 2.3156869
4.2133584 -1.8732202 4.1879606
7.9112229 -3.5139973 6.3867469
7.2235761 -3.2070525 4.7299871
5.3064356 -2.3514717 2.1092122
4.9420776 -2.1889842 1.3943701
0.10270607 -0.093696766 14.433724
1.1678863 -0.54551208 8.1946535
1.5480622 -0.71440601 8.2203474
2.2139168 -1.0087789 7.8248835
2.3876164 -1.0809431 6.2340374
4.4015875 -1.9854505 8.9163198
5.5156627 -2.4810784 8.9553118
5.8756638 -2.6393335 7.788466
0.45684126 -0.24085043 8.7697725
0.79267257 -0.38067049 8.1580486
1.9443644 -0.89452362 8.2777367
2.3245592 -1.0602043 7.0020218
3.8948894 -1.7675153 8.9076471
4.9512253 -2.2396448 8.9588804
4.7041149 -2.1239214 6.9092317
3.4411168 -1.550779 4.1700277
3.549103 -1.5867964 3.900207
6.2438784 -2.7877529 5.595984
4.8285189 -2.1548121 3.5512588
7.6885037 -3.4279418 4.4930334
4.9339094 -2.1987622 2.2707343
4.789834 -2.1335592 1.6312057
4.1999812 -1.8848586 4.1813097
7.8730912 -3.5300159 6.3661451
7.169066 -3.2128556 4.7021227
6.17349 -2.7628062 3.2140741
5.3757849 -2.4046879 2.1387954
4.9521561 -2.2141578 1.3990594
0.10237839 -0.094054706 14.433724
1.1659749 -0.5495854 8.1946535
1.545559 -0.71980536 8.2203474
2.210382 -1.0165008 7.8248835
2.3856056 -1.0900829 6.2386398
4.3946304 -2.0008028 8.9163198
5.509531 -2.5014799 8.959445
5.8459811 -2.6505623 7.7616034
0.45574313 -0.24230765 8.76478
0.79133892 -0.3834351 8.1580486
1.9412301 -0.90130526 8.2777367
2.3208442 -1.068312 7.0020218
3.8906751 -1.782007 8.9121485
4.9433775 -2.2569141 8.9588804
4.6857042 -2.1353307 6.893271
3.4325967 -1.5613775 4.1663523
3.5467927 -1.6006424 3.9037118
6.237658 -2.8111303 5.5991225
4.82478 -2.1733711 3.5540004
7.8299947 -3.5238428 4.5811481
4.7866855 -2.1532106 2.2089241
4.7823572 -2.1502659 1.6312057
7.6397748 -3.4574831 6.1895552
6.1348553 -2.77126 3.1993876
5.4060926 -2.4409275 2.1535869
4.944397 -2.2314308 1.3990594
0.10204946 -0.0944115 14.433724
1.1640494 -0.55365211 8.1946535
1.5430371 -0.725196 8.2203474
2.2054665 -1.0235819 7.8201122
2.3835599 -1.0992218 6.2432423
4.3876195 -2.0161307 8.9163198
5.5058823 -2.5230412 8.9677105
0.45464033 -0.24376008 8.7597885
0.78999567 -0.38619503 8.1580486
1.9380722 -0.90807599 8.2777367
2.3186662 -1.077134 7.0067148
3.8844309 -1.795577 8.9121485
4.9378376 -2.2752473 8.9631472
4.6700096 -2.1478965 6.8813014
3.4209635 -1.570521 4.1590018
3.5411839 -1.6130133 3.9037118
6.2703228 -2.8522263 5.6367846
7.2038093 -3.2753417 5.2728996
7.817647 -3.5511532 4.5811481
4.7622552 -2.1622398 2.201432
4.7704539 -2.1649635 1.6297957
3.8946905 -1.7806171 3.8953166
7.620306 -3.4807708 6.1836686
7.162147 -3.2699878 4.712255
6.0921082 -2.7775953 3.1826031
5.4190245 -2.4695747 2.1618044
4.9498477 -2.2547209 1.4025763
0.10171928 -0.094767146 14.433724
1.1621097 -0.55771202 8.1946535
1.5404961 -0.73057777 8.2203474
2.20188 -1.0312742 7.8201122
2.3814797 -1.1083596 6.2478452
4.3805552 -2.0314341 8.9163198
5.4995956 -2.543426 8.9718437
5.4257712 -2.505847 7.2320285
0.45353308 -0.24520783 8.7547979
0.78864276 -0.38895032 8.1580486
1.9348906 -0.91483551 8.2777367
2.3148921 -1.0852211 7.0067148
3.8781397 -1.8091253 8.9121485
4.9298654 -2.2924697 8.9631472
4.6515508 -2.1591098 6.8653412
3.4400687 -1.5938547 4.1884031
3.5420122 -1.6283438 3.9107206
6.2957025 -2.8903363 5.668169
7.2265358 -3.3161638 5.2975726
7.9421134 -3.6411891 4.659987
4.7462497 -2.1749873 2.197686
3.8715003 -1.7863796 3.8786893
5.236186 -2.4127755 3.4735308
6.0823755 -2.7988436 3.1826031
5.4146609 -2.4904487 2.1634481
4.9331141 -2.2679245 1.4002316
0.10138786 -0.095121637 14.433724
1.1601559 -0.56176513 8.1946535
1.5379367 -0.73595071 8.2203474
2.1969173 -1.038316 7.81534
2.3793647 -1.1174965 6.2524476
4.3734374 -2.0467129 8.9163198
5.4957843 -2.5649884 8.9801102
5.4140859 -2.523417 7.2281909
0.45267439 -0.24678946 8.7547979
0.78728026 -0.3917008 8.1580486
1.9316854 -0.92158401 8.2777367
2.31265 -1.094033 7.0114074
3.8718009 -1.8226516 8.9121485
4.921833 -2.309664 8.9631472
4.6357999 -2.171499 6.8533716
3.539542 -1.6421988 3.9142253
4.0182614 -1.8617665 3.6532798
7.1276479 -3.3009527 5.234519
5.1432848 -2.3797743 3.0530586
4.7470441 -2.1954336 2.201432
5.8873448 -2.7215681 1.9964042
3.8889344 -1.8109162 3.9019678
4.8472271 -2.2551148 3.9762986
5.2042789 -2.4201322 3.4583316
6.0602202 -2.8143234 3.1763091
5.251739 -2.4377589 2.1042817
4.9295769 -2.2871761 1.4014039
0.1010552 -0.095474966 14.433724
1.1574898 -0.56547022 8.1897135
1.5353583 -0.74131459 8.2203474
2.1932795 -1.0459783 7.81534
2.3736839 -1.1249584 6.2478452
4.3684316 -2.062989 8.9207077
5.491889 -2.5865545 8.9883757
5.3095303 -2.4972811 7.101553
0.45155743 -0.24822851 8.7498064
0.78590816 -0.39444655 8.1580486
1.9284568 -0.92832124 8.2777367
2.3119311 -1.1035858 7.020793
3.8654151 -1.8361555 8.9121485
4.9160981 -2.3279467 8.9674129
4.620019 -2.1838045 6.8414011
3.9930003 -1.8840191 4.8646336
3.5402474 -1.6575686 3.9212346
4.0399451 -1.8889707 3.6783874
6.9304643 -3.2390604 5.1001873
5.2232499 -2.438946 3.1040723
4.7435522 -2.2139509 2.203305
6.0690885 -2.8313379 2.0584457
3.8893476 -1.8276558 3.9086185
4.8393259 -2.2720211 3.9762986
5.187994 -2.4346209 3.453265
6.0503592 -2.8354607 3.1763091
5.2431974 -2.4560761 2.1042817
4.9215627 -2.3043697 1.4014039
0.10075178 -0.095858358 14.438723
1.1555089 -0.56950712 8.1897135
1.5327612 -0.74666947 8.2203474
2.189615 -1.053628 7.81534
2.3697424 -1.1332371 6.2478452
4.3612041 -2.0782251 8.9207077
5.4853673 -2.6069167 8.9925079
5.2660327 -2.4993074 7.0555029
0.45068821 -0.24980323 8.7498064
0.78452659 -0.39718747 8.1580486
1.9252045 -0.93504715 8.2777367
2.3096197 -1.1123981 7.0254855
3.8589823 -1.8496372 8.9121485
4.9079423 -2.345093 8.9674129
4.6042085 -2.1960263 6.8294306
4.0384355 -1.9227211 4.9271111
3.5376642 -1.6714396 3.9247389
4.0333266 -1.9030612 3.6783874
6.7943125 -3.2043717 5.0097189
5.2868342 -2.4911518 3.1458106
4.7399898 -2.232471 2.205178
5.7076159 -2.6870029 1.9442331
3.8930655 -1.8460205 3.9185953
4.7911854 -2.2698634 3.943924
5.1833601 -2.4545605 3.4557984
5.3028998 -2.5066521 2.1305778
4.9266729 -2.3277645 1.4049209
0.10041656 -0.096209466 14.438723
1.1535139 -0.57353717 8.1897135
1.5301455 -0.75201529 8.2203474
2.1859238 -1.0612648 7.81534
2.3657725 -1.1415023 6.2478452
4.3539233 -2.093436 8.9207077
5.4813089 -2.6284821 9.0007744
4.638639 -2.2214053 6.2342772
0.44956172 -0.25123355 8.7448139
0.78266066 -0.39968088 8.1530771
1.9219289 -0.94176167 8.2777367
2.3072748 -1.1212078 7.0301785
3.8525023 -1.8630962 8.9121485
4.9020753 -2.3633432 8.9716787
4.5910845 -2.2094712 6.8214507
4.0683694 -1.9544226 4.9712133
3.5382466 -1.6868478 3.9317482
4.0266595 -1.9171286 3.6783874
6.7793102 -3.2262719 5.0069776
7.2263994 -3.4359591 4.2750659
4.7321677 -2.2490032 2.205178
4.5369587 -2.1552625 1.5663441
3.88323 -1.857987 3.9152696
4.7248855 -2.2586808 3.8968334
5.1786504 -2.4744976 3.4583316
5.3154287 -2.5353122 2.1387954
4.9097433 -2.3407643 1.4025763
0.10008011 -0.096559405 14.438723
1.1515049 -0.57756019 8.1897135
1.5275112 -0.75735188 8.2203474
2.1822062 -1.0688885 7.81534
2.3617735 -1.1497533 6.2478452
4.3465891 -2.1086211 8.9207077
5.4771671 -2.6500506 9.0090408
4.6221986 -2.2333999 6.222764
0.44817954 -0.2525169 8.7348309
0.78126073 -0.40241045 8.1530771
1.9186299 -0.94846475 8.2777367
2.3064456 -1.1307743 7.0395637
3.8459754 -1.8765327 8.9121485
4.893796 -2.3804402 8.9716787
4.5806336 -2.2241678 6.817461
4.1316876 -2.0026219 5.0557423
3.538764 -1.7022802 3.9387569
6.370604 -3.0604486 5.7811532
6.7566986 -3.2444861 4.9987526
7.6257377 -3.6585264 4.5139027
4.7242885 -2.2655077 2.205178
4.5553627 -2.1835275 1.5748044
3.9002573 -1.8828936 3.9385481
4.7642999 -2.2979884 3.9350944
5.1855135 -2.5000479 3.4684641
8.2857599 -3.9894252 4.3386302
5.3108015 -2.5558989 2.1404388
4.9497242 -2.3810661 1.4154718
0.099772595 -0.096939705 14.443723
1.1494818 -0.58157617 8.1897135
1.5248582 -0.76267928 8.2203474
2.1784618 -1.0764993 7.81534
2.3594992 -1.158852 6.2524476
4.3392019 -2.1237807 8.9207077
5.4729409 -2.6716225 9.0173063
4.6143742 -2.2495208 6.222764
0.44679388 -0.25379363 8.7248468
0.77985132 -0.4051351 8.1530771
1.9153073 -0.95515621 8.2777367
2.3024845 -1.1388184 7.0395637
3.8394017 -1.8899461 8.9121485
4.885457 -2.3975084 8.9716787
4.5890779 -2.2480974 6.8414011
4.1246719 -2.0170319 5.0557423
3.5392175 -1.7177368 3.9457662
6.2933345 -3.0504112 5.7215228
6.7490954 -3.2698748 5.0014944
7.5411506 -3.6503813 4.4721642
4.7163515 -2.2819848 2.205178
4.5477128 -2.1994152 1.5748044
3.9138021 -1.906307 3.9585011
4.7962284 -2.3340609 3.9674692
5.1690016 -2.5143621 3.4633977
6.3163538 -3.0683963 3.333663
5.0852065 -2.4692264 2.0566199
4.8626728 -2.3601267 1.3943701
0.099433593 -0.097287387 14.443723
1.1474446 -0.58558506 8.1897135
1.5221868 -0.76799738 8.2203474
2.1746907 -1.084097 7.81534
2.3571901 -1.1679484 6.25705
4.3296151 -2.1378543 8.9163198
5.4686303 -2.6931968 9.0255718
4.5806084 -2.2528827 6.1882272
0.44515455 -0.25491983 8.7098732
0.77843237 -0.4078548 8.1530771
1.9119616 -0.96183604 8.2777367
2.3000393 -1.1476191 7.0442567
3.8327813 -1.9033366 8.9121485
4.8793955 -2.4157045 8.9759445
4.5839038 -2.2654376 6.8453913
4.0659213 -2.0059183 4.9932642
3.5396056 -1.7332174 3.9527755
4.3385396 -2.121634 3.9765408
6.6737771 -3.2621965 4.9548893
4.7062135 -2.298399 2.828135
4.7083573 -2.298434 2.205178
4.5400076 -2.2152765 1.5748044
6.0006328 -2.9253993 1.3589029
3.9540379 -1.943011 4.0050578
4.8461046 -2.3792911 4.0145597
5.1601934 -2.5323899 3.4633977
6.3056045 -3.0904257 3.333663
5.0595937 -2.478652 2.0500457
4.9417119 -2.4198387 1.4178164
0.099063478 -0.097602129 14.438723
1.1453936 -0.58958679 8.1897135
1.5194967 -0.77330613 8.2203474
2.1708932 -1.0916815 7.81534
2.3548465 -1.177043 6.2616525
4.3221259 -2.1529543 8.9163198
5.4617162 -2.7135215 9.029705
4.5468755 -2.2560365 6.1536894
0.4435128 -0.25603768 8.6948977
0.77700394 -0.41056958 8.1530771
1.9085926 -0.96850419 8.2777367
2.2960196 -1.1556407 7.0442567
3.8261139 -1.9167041 8.9121485
4.8709335 -2.4327219 8.9759445
4.0255094 -2.0034826 4.9528375
3.5367312 -1.7471417 3.9562798
4.3764849 -2.1591532 4.0173407
6.6548491 -3.2817736 4.9494061
4.6941881 -2.312855 2.8258162
4.7003055 -2.3148551 2.205178
4.5236397 -2.2268729 1.5719843
6.0212402 -2.9615037 1.3654313
4.0074458 -1.9866527 4.0649171
4.8413916 -2.3979867 4.0175028
6.3069839 -3.1184523 3.339957
4.9196768 -2.4314384 1.9990971
0.098722182 -0.097947329 14.438723
1.1433285 -0.59358138 8.1897135
1.5167881 -0.77860546 8.2203474
2.1670694 -1.0992526 7.81534
2.3524678 -1.1861354 6.2662549
4.3145847 -2.1680284 8.9163198
5.4572425 -2.7350917 9.0379705
4.4988456 -2.2518086 6.0999641
0.4418686 -0.25714716 8.6799221
0.7755661 -0.41327932 8.1530771
1.9052001 -0.97516048 8.2777367
2.2904327 -1.1628671 7.0395637
3.8194001 -1.930048 8.9121485
4.862412 -2.4497097 8.9759445
4.0184913 -2.0175219 4.9528375
3.5369947 -1.7626582 3.963289
4.2957458 -2.1379962 3.9514332
6.6995087 -3.3329206 4.9905281
4.6821194 -2.3272548 2.8234975
4.6880445 -2.3291855 2.203305
4.6361389 -2.3023934 1.6114653
6.0064654 -2.9803202 1.3644986
4.1040096 -2.052402 4.1680079
4.7751398 -2.3859646 3.9704125
7.4755955 -3.7336814 4.9959712
6.2757535 -3.1303201 3.3294671
4.9660974 -2.4759874 2.0204625
0.098379679 -0.09829133 14.438723
1.1412497 -0.59756875 8.1897135
1.514061 -0.78389525 8.2203474
2.1645479 -1.1074904 7.8201122
2.3483131 -1.1943398 6.2662549
4.3091269 -2.1841586 8.9207077
5.4501734 -2.755394 9.0421038
4.4909577 -2.2674987 6.0999641
0.4402222 -0.25824833 8.6649475
0.77411872 -0.41598403 8.1530771
1.9017847 -0.98180497 8.2777367
2.2863598 -1.170855 7.0395637
3.8126395 -1.9433684 8.9121485
4.8538313 -2.4666679 8.9759445
5.3875914 -2.7332118 8.0743189
4.0356193 -2.0437903 4.9822388
3.5371928 -1.7781973 3.9702981
4.2569499 -2.13726 3.923187
6.9830737 -3.5044534 5.2071042
4.6898069 -2.3515265 2.8327725
4.6881747 -2.3496902 2.207051
5.009789 -2.5097947 1.7369581
5.9872403 -2.996871 1.3626333
4.0968208 -2.0667152 4.1680079
4.6548896 -2.34622 3.8791742
7.4779158 -3.7675114 5.006104
6.2323542 -3.1358876 3.3126824
5.1050773 -2.567569 2.0779855
0.098035976 -0.098634139 14.438723
1.1391568 -0.60154879 8.1897135
1.5113155 -0.78917557 8.2203474
2.1606688 -1.1150393 7.8201122
2.3441298 -1.2025297 6.2662549
4.3014765 -2.1991868 8.9207077
5.4455357 -2.7769587 9.0503702
4.4573097 -2.2700696 6.0654268
0.43832523 -0.25919369 8.6449804
0.77266192 -0.41868368 8.1530771
1.8983458 -0.98843747 8.2777367
2.2807257 -1.1780369 7.0348716
3.8058329 -1.956665 8.9121485
4.8451915 -2.4835958 8.9759445
5.3994775 -2.7629826 8.1062384
4.0344992 -2.0609496 4.9895892
3.5341449 -1.7921466 3.9738026
4.2668252 -2.1608996 3.9388795
7.183444 -3.6364558 5.3633676
4.6799445 -2.3660405 2.207051
5.317822 -2.6873758 1.8413006
5.9811277 -3.0199664 1.363566
4.0829258 -2.0776165 4.1613564
4.5241675 -2.3001702 3.7791069
7.480092 -3.801404 5.0162368
5.1803079 -2.6281028 2.1108556
4.7557154 -2.4116571 1.3767853
0.097691081 -0.098975748 14.438723
1.1363642 -0.60515618 8.1847744
1.5085516 -0.79444623 8.2203474
2.1567633 -1.1225747 7.8201122
2.3381827 -1.209807 6.2616525
4.2959018 -2.2152863 8.9250965
5.4383121 -2.7972376 9.0545034
4.4465075 -2.2841499 6.0615892
0.43667474 -0.26027727 8.6300068
0.77119577 -0.42137823 8.1530771
1.8948841 -0.99505788 8.2777367
2.2765996 -1.1859909 7.0348716
3.7989795 -1.969938 8.9121485
4.8388095 -2.5016913 8.9802113
5.4058652 -2.7901056 8.1301785
4.0393353 -2.0812314 5.0042896
3.5342178 -1.8077204 3.9808118
4.4360337 -2.2660861 4.0989404
7.0962267 -3.623477 5.3085389
5.3519759 -2.7304726 3.2316062
4.7088261 -2.4013174 2.2239084
6.4580698 -3.2919564 2.2205994
5.9705496 -3.0408258 1.363566
4.0723267 -2.0901506 4.158031
4.480145 -2.2975039 3.7496755
7.4667773 -3.8274913 5.0162368
6.2466688 -3.1979346 3.3315649
4.9735274 -2.5450652 2.0336108
4.7948699 -2.4525914 1.3896809
0.097315647 -0.099283874 14.433724
1.134245 -0.60911912 8.1847744
1.5057691 -0.79970723 8.2203474
2.1541531 -1.1307901 7.8248835
2.3339455 -1.2179614 6.2616525
4.2881432 -2.2302682 8.9250965
5.428515 -2.8162038 9.0545034
4.4356618 -2.2981827 6.0577517
0.43526921 -0.26150161 8.6200228
0.7697202 -0.42406762 8.1530771
1.8913991 -1.0016662 8.2777367
2.2724459 -1.1939305 7.0348716
3.7920799 -1.983187 8.9121485
4.8300471 -2.5185666 8.9802113
5.4201479 -2.821481 8.1660891
4.0380616 -2.0984452 5.0116401
3.5310552 -1.821681 3.9843161
4.4626966 -2.2993848 4.1303253
7.0872521 -3.65014 5.3112798
5.3581676 -2.7572455 3.2408814
6.6257205 -3.4066052 2.2798209
5.9598989 -3.0616484 1.363566
6.6645927 -3.4501243 6.765223
4.4972291 -2.3261275 3.7702775
6.2596641 -3.232214 3.3441532
4.9855938 -2.5732396 2.0418282
6.1815181 -3.1891415 1.7683394
0.096968487 -0.099622972 14.433724
1.1321119 -0.61307466 8.1847744
1.5029685 -0.80495846 8.2203474
2.150193 -1.1383027 7.8248835
2.3296797 -1.226101 6.2616525
4.2824526 -2.2463355 8.9294863
5.421144 -2.8364401 9.0586357
4.4247718 -2.3121676 6.0539141
0.43386042 -0.26271936 8.6100397
0.76870114 -0.42701098 8.1580486
1.8878912 -1.0082624 8.2777367
2.2682645 -1.2018555 7.0348716
3.7851343 -1.9964118 8.9121485
4.8212266 -2.5354114 8.9802113
5.4396133 -2.8557911 8.20998
4.0517311 -2.1235442 5.0373664
3.5246747 -1.8339955 3.9843161
4.4408278 -2.3077691 4.1177711
4.7590175 -2.4720767 3.6006052
5.3485107 -2.7759323 3.2408814
6.5115843 -3.3767121 2.24598
5.9535375 -3.0846934 1.3644986
6.6260309 -3.4595423 6.7386193
4.5105839 -2.3530288 3.7879364
4.8445067 -2.526159 3.2962079
7.4680252 -3.8892415 3.9798634
5.0603533 -2.6342359 2.0746984
6.0970473 -3.1725578 1.74841
0.096620142 -0.099960849 14.433724
1.1299649 -0.61702275 8.1847744
1.4992536 -0.80971593 8.2154522
2.1475232 -1.1465044 7.8296556
2.3253858 -1.2342256 6.2616525
4.2745852 -2.2612703 8.9294863
5.4112101 -2.855346 9.0586357
4.4166741 -2.327599 6.0539141
0.43269461 -0.26408133 8.6050472
0.76720589 -0.42969164 8.1580486
1.8843601 -1.0148461 8.2777367
2.2640555 -1.209766 7.0348716
3.7781427 -2.0096121 8.9121485
4.814651 -2.5534472 8.984477
5.4429269 -2.8818116 8.229929
4.056283 -2.1440117 5.0520668
3.5214095 -1.8479451 3.9878209
4.2465811 -2.2256837 3.9482946
4.7207279 -2.47315 3.5786736
5.338788 -2.7945852 3.2408814
7.3122973 -3.8260069 3.4226496
5.5475812 -2.9014239 1.9301326
5.9557939 -3.1122818 1.3672965
6.5577507 -3.4530761 6.6820855
4.4451089 -2.3386469 3.7408457
4.8356595 -2.5430541 3.2962079
7.5468183 -3.963825 4.0281186
4.76264 -2.5004244 1.9612963
6.0428958 -3.1712344 1.7366867
0.096299641 -0.10033008 14.438723
1.1278043 -0.62096328 8.1847744
1.4973123 -0.81543148 8.2203474
2.1448224 -1.1547014 7.8344274
2.3210633 -1.2423352 6.2616525
4.2666659 -2.2761776 8.9294863
5.4012098 -2.8742173 9.0586357
4.3972006 -2.3369846 6.0385642
0.43127894 -0.26528659 8.5950642
0.76570135 -0.43236706 8.1580486
1.8808061 -1.0214176 8.2777367
2.2598188 -1.2176616 7.0348716
3.7730229 -2.0238171 8.9166498
4.8057089 -2.5702379 8.984477
5.4913116 -2.9320173 8.3177099
4.0218492 -2.143805 5.0189905
3.5180895 -1.861894 3.9913254
4.1424332 -2.1895635 3.8604181
4.6935806 -2.4798465 3.5649662
5.348588 -2.8235445 3.2524755
7.3111978 -3.8579988 3.4282684
5.5034757 -2.9028668 1.9188524
5.936203 -3.1284721 1.3654313
6.4005609 -3.3988943 6.5357637
4.4940472 -2.3844612 3.7879364
4.8457956 -2.5700176 3.3088739
4.5851312 -2.4287033 2.4860497
4.8498688 -2.5678558 1.9990971
0.095948845 -0.10066562 14.438723
1.126309 -0.62527359 8.1897135
1.4944568 -0.82065308 8.2203474
2.1407788 -1.1621813 7.8344274
2.3167126 -1.2504297 6.2616525
4.2586946 -2.2910573 8.9294863
5.3911443 -2.8930535 9.0586357
4.3579412 -2.335664 5.9963517
0.43035027 -0.26679045 8.5950642
0.7641874 -0.43503723 8.1580486
1.8783317 -1.0285804 8.2825766
2.2555547 -1.2255424 7.0348716
3.7659354 -2.0369749 8.9166498
4.7990026 -2.5882354 8.9887428
5.462472 -2.9411681 8.2897797
3.9904528 -2.1449897 4.9895892
3.514715 -1.8758423 3.9948301
3.9870691 -2.1252801 3.7254643
4.692276 -2.5001473 3.5704489
6.0816364 -3.2377231 3.6930473
7.2976861 -3.8834963 3.4282684
5.4890747 -2.919807 1.9174423
5.9772983 -3.1768389 1.3766227
6.3590341 -3.4053514 6.5058341
4.6389432 -2.482132 3.9144921
4.8443975 -2.5909829 3.3139405
4.592638 -2.4532473 2.494442
5.0866427 -2.715997 2.0960641
5.4803109 -2.9249728 1.5889748
0.095596872 -0.10099993 14.438723
1.1247975 -0.62958097 8.1946535
1.491583 -0.82586473 8.2203474
2.1380181 -1.1703637 7.8391995
2.3123336 -1.2585089 6.2616525
4.2506714 -2.3059089 8.9294863
5.3810129 -2.9118545 9.0586357
4.3413019 -2.3462896 5.984839
0.42917189 -0.26813757 8.5900736
0.7626642 -0.43770209 8.1580486
1.8747299 -1.0351307 8.2825766
2.2512629 -1.2334083 7.0348716
3.7607131 -2.0511506 8.9211502
4.7899389 -2.6049712 8.9887428
5.4495239 -2.9587798 8.2857895
3.9889023 -2.1621373 4.9969397
3.5112858 -1.8897897 3.9983344
4.2401834 -2.2792456 3.9639871
4.7129874 -2.5323443 3.5923805
6.1795788 -3.3176019 3.7579737
7.3657842 -3.9527893 3.4657292
5.4703946 -2.9344144 1.9146223
5.9575133 -3.1930432 1.3747574
6.3569641 -3.4328504 6.5158105
4.6373658 -2.5021486 3.9203787
4.8467059 -2.6140163 3.3215399
4.5840464 -2.4692636 2.494442
5.0189228 -2.702394 2.073055
5.4229865 -2.9187448 1.5760792
0.09524373 -0.10133301 14.438723
1.122593 -0.63350344 8.1946535
1.4886912 -0.83106625 8.2203474
2.13392 -1.1778196 7.8391995
2.3079267 -1.2665728 6.2616525
4.2446976 -2.321882 8.9338751
5.3708158 -2.9306202 9.0586357
4.254282 -2.3184822 5.877389
0.42798933 -0.26947975 8.5850811
0.76113164 -0.44036162 8.1580486
1.8711051 -1.0416685 8.2825766
2.2484541 -1.2420937 7.0395637
3.7535305 -2.0642653 8.9211502
4.783103 -2.6229293 8.9930086
5.4365201 -2.9763372 8.2818003
3.9813306 -2.176048 4.9969397
3.504668 -1.9020348 3.9983344
4.3964534 -2.3830657 4.1146326
4.7298546 -2.5627244 3.6115711
5.99266 -3.2442491 3.6536279
7.3070917 -3.954206 3.4451258
5.9420099 -3.2114835 1.3738248
4.6818604 -2.5472975 3.9645259
4.8072562 -2.6144421 3.3012745
4.5514708 -2.4722521 2.4818537
6.4121332 -3.4814866 2.628561
5.4811172 -2.9747534 1.5948364
0.094889432 -0.10166486 14.438723
1.1210501 -0.63780248 8.1995926
1.4866682 -0.83675718 8.2252417
2.1310997 -1.1859871 7.8439717
2.3034914 -1.2746212 6.2616525
4.236567 -2.3366845 8.9338751
5.3605528 -2.9493499 9.0586357
4.1787462 -2.2962708 5.7852888
0.42680261 -0.27081689 8.5800896
0.75958991 -0.44301578 8.1580486
1.8674576 -1.0481936 8.2825766
2.2441046 -1.2499346 7.0395637
3.7463019 -2.0773551 8.9211502
4.7739182 -2.6396093 8.9930086
5.4419255 -3.0040336 8.3057404
4.0063705 -2.2079315 5.0373664
3.5011356 -1.9159688 4.0018392
4.4564171 -2.4357338 4.177402
4.7245498 -2.5812242 3.6143126
5.740232 -3.1335497 3.5098622
7.2851057 -3.9752474 3.4413795
4.6580434 -2.5406878 1.6495361
6.3688459 -3.4969139 6.5523915
4.57726 -2.5111327 3.8850608
4.7716422 -2.6166971 3.2835424
4.5507741 -2.492485 2.4860497
6.4372196 -3.5242569 2.6433525
5.4706998 -2.9938679 1.5948364
0.094683342 -0.10179728 14.433724
1.1192607 -0.63937259 8.1946535
1.4853519 -0.83909142 8.2252417
2.1318407 -1.1907892 7.8535161
2.3017094 -1.2778362 6.2616525
4.2333002 -2.3425975 8.9338751
5.3569455 -2.9558966 9.0586357
4.1422515 -2.2828093 5.7392387
0.42656609 -0.27118924 8.5800896
0.75920302 -0.44367847 8.1580486
1.8667254 -1.049497 8.2825766
2.2432315 -1.251501 7.0395637
3.7452137 -2.0793161 8.9211502
4.7725358 -2.6421087 8.9930086
5.4461513 -3.0088475 8.3137207
4.0412221 -2.2289784 5.0814681
3.4977863 -1.9220765 4.0018392
4.4798856 -2.4577084 4.2025099
4.6911583 -2.5725574 3.5923805
7.373075 -4.0366197 3.4844596
4.6591444 -2.5486791 1.6509463
6.4181318 -3.5312691 6.6055994
4.6605225 -2.5610464 3.9556966
4.766036 -2.6179521 3.281009
4.5490327 -2.4956615 2.4860497
4.1372046 -2.2678523 1.7312051
5.3966665 -2.9570258 1.5749069
0.094299041 -0.10209404 14.428724
1.1170219 -0.64327568 8.1946535
1.4822665 -0.84452987 8.2252417
2.1300623 -1.2000602 7.863059
2.2967858 -1.2866647 6.2616525
4.2242742 -2.358835 8.9338751
5.345037 -2.9773769 9.0586357
4.1162491 -2.2900691 5.7162137
0.42513612 -0.27289149 8.575098
0.75725985 -0.44698688 8.1580486
1.8619437 -1.0579571 8.2825766
2.2390325 -1.2625152 7.0442567
3.7353735 -2.0969422 8.9211502
4.7600322 -2.6645691 8.9930086
5.4340124 -3.036896 8.3177099
4.0628462 -2.2668712 5.1218948
3.4941752 -1.936003 4.0053434
4.3959241 -2.4326489 4.1334639
4.656086 -2.5755663 3.5731905
4.5916576 -2.5378425 2.8327725
7.2479601 -4.0043702 3.4338877
5.4593315 -3.0149415 1.9230825
6.4940381 -3.6100359 6.6987128
4.7583914 -2.6430123 4.0469346
4.7239561 -2.6228123 3.2607436
4.5297232 -2.5118766 2.4818537
4.1842933 -2.3193738 1.7542142
5.4251876 -3.0059812 1.5866301
0.093942091 -0.10242258 14.428724
1.1140978 -0.64678061 8.1897135
1.4793097 -0.84969878 8.2252417
2.1258602 -1.2074882 7.863059
2.2922807 -1.2946742 6.2616525
4.2160144 -2.3735662 8.9338751
5.3321586 -2.9946389 9.0545034
4.1082301 -2.3044236 5.7162137
0.42393884 -0.27421653 8.5701065
0.75569499 -0.44962752 8.1580486
1.8582394 -1.06445 8.2825766
2.2346117 -1.2703233 7.0442567
3.7280309 -2.1099682 8.9211502
4.7507019 -2.6811686 8.9930086
4.0549088 -2.2810392 5.1218948
3.4905095 -1.9499273 4.0088482
4.3194256 -2.4100482 4.0706944
4.6397634 -2.5877297 3.5677075
4.5711627 -2.5473857 2.8258162
7.1731887 -3.9958053 3.4057922
5.4529657 -3.0363138 1.9244925
6.5009403 -3.6436357 6.7186666
4.7667699 -2.669481 4.0616503
4.6997266 -2.6308634 3.2506111
4.5209279 -2.527673 2.4818537
4.1267066 -2.3063207 1.7344921
5.4231491 -3.0296416 1.5889748
0.093555838 -0.10271654 14.423724
1.1118335 -0.65066558 8.1897135
1.4763346 -0.85485739 8.2252417
2.1190424 -1.213418 7.8535161
2.2894449 -1.3036346 6.2662549
4.2077036 -2.3882682 8.9338751
5.3216729 -3.0132334 9.0545034
4.0973711 -2.3171721 5.7123761
0.42225444 -0.2752203 8.555131
0.75366378 -0.45198819 8.1530771
1.8545125 -1.0709301 8.2825766
2.2301638 -1.2781157 7.0442567
3.7206433 -2.1229687 8.9211502
4.7413139 -2.6977353 8.9930086
4.043973 -2.2935073 5.1182199
3.486789 -1.9638497 4.0123525
4.1956463 -2.3602262 3.9639871
4.6307025 -2.6039097 3.5677075
4.461832 -2.5069094 2.7655275
7.1551557 -4.0185499 3.4039192
5.3837724 -3.0224531 1.9047521
6.4426718 -3.6405892 6.6721091
4.7644625 -2.6900787 4.0675368
4.6266937 -2.6112325 3.2075469
4.5239377 -2.5501244 2.488148
4.1268592 -2.3253479 1.7377791
5.4464211 -3.0676363 1.5983534
0.09319672 -0.10304248 14.423724
1.1088862 -0.65414768 8.1847744
1.4733417 -0.8600055 8.2252417
2.1096227 -1.217822 7.8344274
2.2848806 -1.3116183 6.2662549
4.2014198 -2.4041309 8.9382648
5.3111219 -3.0317912 9.0545034
4.086473 -2.3298728 5.708539
0.41984528 -0.27573884 8.5251808
0.75208151 -0.45461625 8.1530771
1.850763 -1.077397 8.2825766
2.2301714 -1.2884827 7.0583348
3.7132099 -2.1359432 8.9211502
4.7318683 -2.7142692 8.9930086
4.0065122 -2.2907817 5.0814681
3.4830134 -1.9777699 4.0158572
4.1907678 -2.3767776 3.9671257
4.6725101 -2.6489289 3.6060879
4.4453454 -2.5181022 2.76089
7.2379031 -4.0983238 3.4488719
3.9156394 -2.2306774 4.0948467
4.755043 -2.7066932 4.0675368
4.6437774 -2.6422901 3.2252791
4.7635956 -2.707175 2.6203251
4.0899754 -2.3234115 1.7262745
5.482173 -3.1130304 1.6112487
0.092836462 -0.10336717 14.423724
1.106596 -0.65801442 8.1847744
1.4703306 -0.86514318 8.2252417
2.0898776 -1.2161682 7.7771645
2.2819793 -1.3205646 6.2708578
4.1930027 -2.418782 8.9382648
5.3029451 -3.0517151 9.0586357
4.0866523 -2.3489151 5.7200513
0.42320794 -0.2800791 8.6150312
0.75049001 -0.45723873 8.1530771
1.8469908 -1.0838507 8.2825766
2.2196956 -1.2927853 7.0395637
3.7076147 -2.1499836 8.9256516
4.7223644 -2.7307699 8.9930086
4.0014286 -2.3064463 5.0851436
3.4760888 -1.9899157 4.0158572
4.1655507 -2.3817315 3.9514332
4.7104292 -2.6921966 3.6417272
4.4019074 -2.5138328 2.7400208
7.1712132 -4.0936852 3.4245222
6.908299 -3.9420075 2.4278741
3.8948779 -2.2368939 4.0815449
4.7525773 -2.7272985 4.0734229
4.6046119 -2.641324 3.2050138
4.8328767 -2.7689109 2.6622863
4.0531564 -2.3212469 1.71477
5.4459639 -3.1176589 1.6042149
0.092475079 -0.10369059 14.423724
1.103626 -0.66147357 8.1798353
1.4673017 -0.87027037 8.2252417
2.0843322 -1.2227006 7.7723923
2.2773559 -1.3285223 6.2708578
4.1845336 -2.4334035 8.9382648
5.2922602 -3.0702074 9.0586357
4.0812016 -2.3647728 5.7238889
0.42414668 -0.2828398 8.6549644
0.74843532 -0.45957649 8.1481056
1.8431963 -1.0902914 8.2825766
2.2047529 -1.2944094 7.0067148
3.7000871 -2.1629126 8.9256516
4.7128038 -2.7472374 8.9930086
3.9757655 -2.3101799 5.0630922
3.4722104 -2.0038202 4.019362
4.1201172 -2.3748755 3.9169099
4.690134 -2.7023599 3.6335027
4.396945 -2.5313931 2.7423396
6.9841046 -4.0192618 3.3439822
6.632534 -3.8154018 2.3390422
4.113234 -2.3814344 4.3143296
4.7360311 -2.7398236 4.0675368
4.5804367 -2.6487491 3.194881
4.7485104 -2.7426353 2.6224234
4.0572972 -2.342464 1.7197005
5.4476771 -3.1439385 1.6077318
0.092112564 -0.10401276 14.423724
1.1013104 -0.66532189 8.1798353
1.4633813 -0.8748644 8.2203474
2.0569243 -1.2162914 7.6864963
2.2710204 -1.3354731 6.2662549
4.1780806 -2.4492068 8.9426537
5.2839403 -3.0900829 9.062768
4.0978308 -2.393554 5.7584262
0.42004579 -0.28221944 8.5900736
0.74682653 -0.46218622 8.1481056
1.8382996 -1.0960749 8.2777367
2.1913106 -1.2968239 6.9785581
3.6925147 -2.1758149 8.9256516
4.7054343 -2.764993 8.9972744
3.9881546 -2.3360386 5.0888186
3.4651947 -2.0159283 4.019362
4.1118021 -2.3892429 3.9169099
4.6408992 -2.6956129 3.6033466
4.3919134 -2.5489497 2.7446582
6.04774 -3.5085526 2.9131844
6.0880051 -3.5304978 2.1585579
4.1468177 -2.4202449 4.3575611
4.712472 -2.7481937 4.0557642
4.5637145 -2.6603794 3.1898146
4.6408544 -2.7021024 2.569972
4.0776649 -2.3732398 1.7312051
5.4366698 -3.1629353 1.6077318
0.091748931 -0.10433366 14.423724
1.0989813 -0.66916215 8.1798353
1.4603186 -0.87996721 8.2203474
2.0334334 -1.2119991 7.6149163
2.2663448 -1.3433924 6.2662549
4.1695056 -2.4637759 8.9426537
5.2731218 -3.1085083 9.062768
4.0756412 -2.3997121 5.7392387
0.41881934 -0.28352165 8.5850811
0.74520862 -0.46479031 8.1481056
1.8333852 -1.1018375 8.2728968
2.1778786 -1.2991601 6.9504013
3.6848969 -2.1886909 8.9256516
4.6957541 -2.7814012 8.9972744
3.9342871 -2.3266592 6.1271868
3.4612129 -2.0298159 4.0228662
4.1269474 -2.4173524 3.9388795
4.5953779 -2.6906683 3.575932
4.3791656 -2.5620277 2.7423396
6.0234509 -3.5226209 2.9075654
6.3613968 -3.718775 2.2558503
12.513183 -7.3091774 1.3939288
4.2348871 -2.4915056 4.4573264
6.2743587 -3.6884694 5.3831291
4.6157374 -2.7090962 2.5615797
4.0489912 -2.3755114 1.7229875
5.4297891 -3.1843526 1.6089042
0.091384187 -0.10465329 14.423724
1.0966387 -0.6729942 8.1798353
1.457238 -0.88505936 8.2203474
2.0202339 -1.213708 7.5815125
2.2599647 -1.3502932 6.2616525
4.1608801 -2.4783154 8.9426537
5.2622395 -3.1268961 9.062768
0.41496903 -0.28302413 8.5251808
0.74358165 -0.46738875 8.1481056
1.8284526 -1.107579 8.2680578
2.1659362 -1.302308 6.9269376
3.6772346 -2.2015405 8.9256516
4.6860166 -2.7977753 8.9972744
3.9261415 -2.3403783 6.1271868
4.3300748 -2.5770903 5.540864
3.4541063 -2.0418854 4.0228662
4.1318908 -2.4396596 3.9514332
4.5571494 -2.6896896 3.5540004
4.3701959 -2.5772982 2.7423396
6.0111179 -3.5436249 2.9075654
6.3153138 -3.7214739 2.24457
12.534797 -7.3806062 1.3988466
4.1105509 -2.4377086 4.3376079
6.2996964 -3.7330148 5.4155045
4.2891126 -2.5405846 3.0150251
4.5945344 -2.7182586 2.5552855
5.4019036 -3.1933925 1.6042149
0.091018319 -0.10497165 14.423724
1.0942829 -0.67681807 8.1798353
1.4541396 -0.89014059 8.2203474
2.0134315 -1.2192062 7.571969
2.2552373 -1.3581737 6.2616525
4.1522036 -2.4928243 8.9426537
5.2512922 -3.1452458 9.062768
6.212501 -3.7165666 8.7440042
0.41611701 -0.2859467 8.5701065
0.74239576 -0.47026691 8.1530771
1.8235025 -1.1132997 8.2632179
2.1599011 -1.308966 6.9222445
3.6695275 -2.2143629 8.9256516
4.6762218 -2.8141155 8.9972744
3.9179482 -2.3540688 6.1271868
4.3704743 -2.6218379 5.6033416
3.450021 -2.0557554 4.0263705
4.1099706 -2.446105 3.9388795
4.5153909 -2.6863391 3.5293269
5.9867558 -3.5574818 2.9019463
3.9802337 -2.3792429 4.2112393
6.2866273 -3.7549822 5.4155045
4.2765169 -2.5533309 3.0124919
4.54214 -2.7087097 2.532207
6.7418194 -4.0189128 2.8208516
5.4784098 -3.2644796 1.6288337
0.090651341 -0.10528871 14.423724
1.0919136 -0.68063372 8.1798353
1.4510236 -0.8952111 8.2203474
2.0078893 -1.2254492 7.5671968
2.2504828 -1.3660376 6.2616525
4.143477 -2.5073032 8.9426537
5.2402811 -3.1635568 9.062768
6.2132139 -3.7465055 8.7631922
0.41511631 -0.28739747 8.5701065
0.74074972 -0.47285551 8.1530771
1.8185347 -1.1189992 8.258379
2.1523738 -1.3146983 6.9128594
3.6617756 -2.2271585 8.9256516
4.6663704 -2.8304214 8.9972744
3.8813548 -2.3505599 6.0832963
4.3787017 -2.6476023 5.6253924
3.4428241 -2.0677857 4.0263705
4.1047444 -2.4624386 3.9420176
4.656086 -2.7898951 2.9278433
6.0061183 -3.5974147 2.9169304
6.3303366 -3.7901144 2.2586703
4.0710459 -2.4528575 4.3143296
6.263093 -3.7706494 5.4066744
4.2675781 -2.568243 3.0124919
4.4626398 -2.6824605 2.494442
6.8167982 -4.0959277 2.8570087
5.5961518 -3.361166 1.6651754
0.090283267 -0.10560451 14.423724
1.0895312 -0.68444109 8.1798353
1.4478899 -0.90027058 8.2203474
2.0048709 -1.2332327 7.571969
2.2457008 -1.3738849 6.2616525
4.1346998 -2.5217514 8.9426537
5.2292066 -3.1818297 9.062768
6.1781859 -3.754853 8.7324924
0.41481996 -0.28934163 8.5850811
0.73909461 -0.47543833 8.1530771
1.8135495 -1.1246779 8.2535391
2.149241 -1.3231083 6.9175525
3.6558352 -2.241065 8.9301529
4.6586866 -2.8480532 9.0015402
3.8679824 -2.3609543 6.0753164
4.3954873 -2.6787496 5.6584687
3.4386361 -2.0816376 4.0298753
4.1161084 -2.4888358 3.9608486
4.6918216 -2.8336124 2.9556692
6.2636757 -3.7799668 2.2403398
4.2475581 -2.5794623 4.5072088
6.0840259 -3.6918385 5.2654028
4.2622733 -2.5853598 3.0150251
4.4959474 -2.723891 2.5175207
6.8468904 -4.1466064 2.8750875
5.5885429 -3.3831968 1.6663477
0.089941069 -0.10595331 14.428724
1.0871354 -0.68824011 8.1798353
1.4438758 -0.90477842 8.2154522
2.0005538 -1.2402235 7.571969
2.2408912 -1.3817155 6.2616525
4.1258717 -2.5361688 8.9426537
5.2180681 -3.2000637 9.062768
6.1541085 -3.7696989 8.7171421
0.41404331 -0.29095432 8.5900736
0.73743057 -0.47801533 8.1530771
1.8085468 -1.1303352 8.2487001
2.1446092 -1.3306025 6.9175525
3.6479902 -2.2538123 8.9301529
4.6487169 -2.8642976 9.0015402
3.8314869 -2.357074 6.0314264
4.4381075 -2.7260151 5.7246222
3.4343936 -2.0954857 4.03338
4.23702 -2.5821874 4.0832486
4.1906228 -2.5529139 3.3017855
4.5036426 -2.7403903 2.2182894
5.2176323 -3.1736023 1.8850117
4.2576361 -2.6059692 4.5271616
4.2532225 -2.6002223 3.0150251
4.525146 -2.763221 2.538501
6.763854 -4.1286559 2.8471477
5.5103121 -3.3621764 1.6475906
0.089570671 -0.10626663 14.428724
1.0853813 -0.69244879 8.1847744
1.4407088 -0.90981299 8.2154522
1.9962125 -1.2471992 7.571969
2.2360544 -1.3895293 6.2616525
4.1190295 -2.5518165 8.9470425
5.2044721 -3.2167788 9.0586357
6.1463671 -3.7945256 8.7248173
0.41302517 -0.29239783 8.5900736
0.73620367 -0.48087829 8.1580486
1.8024632 -1.1353014 8.2390213
2.1399517 -1.3380805 6.9175525
3.6401007 -2.2665327 8.9301529
4.6386905 -2.8805072 9.0015402
3.8078697 -2.3609066 6.0074859
4.4862146 -2.7771792 5.7981253
3.427058 -2.1074612 4.03338
4.3506951 -2.672338 4.1993713
4.1709957 -2.5609627 3.293561
4.5256648 -2.7754834 2.2332735
5.2147017 -3.1968102 1.8878317
11.6949 -7.1638298 1.3241845
4.2485137 -2.620815 4.5271616
5.0017676 -3.0830886 4.3618526
4.2918305 -2.6444504 3.0479567
4.5541248 -2.8027878 2.5594816
6.7574458 -4.1571903 2.8504348
5.3908925 -3.3151901 1.6171104
11.878519 -7.3048463 2.037153
