# .PCD v0.7 - Point Cloud Data file format
VERSION 0.7
FIELDS x y z
SIZE 4 4 4
TYPE F F F
COUNT 1 1 1
WIDTH 1448
HEIGHT 1
VIEWPOINT 0 0 0 1 0 0 0
POINTS 1448
DATA ascii
-1.1098833 0.42366624 3.8450491
-0.99663621 0.37767503 2.5704281
-0.93472856 0.35274091 1.8981816
-0.9013831 0.33909526 1.4870737
-0.88695192 0.33314615 1.2109838
-0.73498911 0.29768598 7.3526654
-1.2086984 0.46645001 5.0256433
-1.0405937 0.39764538 3.0835621
-0.96207792 0.36554942 2.1918356
-0.91379976 0.3459456 1.6683997
-0.88760757 0.3353329 1.3311775
-0.86710501 0.32690781 1.0828893
-0.86567414 0.32344064 0.98792928
-0.85257053 0.31804636 0.81611502
-0.84440851 0.3148388 0.67546082
-0.83989376 0.31282961 0.55571121
-0.82625073 0.30758896 0.44452715
-0.81408143 0.3029021 0.34525582
-0.81959099 0.30463204 0.25747854
-0.81202668 0.30182314 0.17072052
-0.85627371 0.32129654 0.89571548
-0.84645981 0.31728479 0.74176532
-0.83730102 0.31369016 0.61103851
-0.82571185 0.30886325 0.49499801
-0.84534997 0.31604683 0.40324971
-0.81970197 0.30629992 0.30177018
-0.81630719 0.30503407 0.21375765
-0.80942798 0.30230793 0.12853025
-1.3158994 0.5220148 8.999752
-1.2615464 0.49364913 6.5363889
-1.1097903 0.42807528 3.8498213
-0.99713618 0.38185048 2.5750306
-0.93349159 0.35600159 1.8981816
-0.90282422 0.34323984 1.4912066
-0.88578361 0.33624017 1.2109838
-0.7369051 0.30146238 7.3824944
-1.208234 0.47112313 5.0304828
-1.040809 0.40189713 3.0882547
-0.96282828 0.36968601 2.196337
-0.91258669 0.34913325 1.6683997
-0.88924664 0.33950412 1.3351675
-0.86595863 0.32993257 1.0828893
-0.86787617 0.32772043 0.9914338
-0.85145515 0.32102042 0.81611502
-0.8433044 0.3177844 0.67546082
-0.83879668 0.31575948 0.55571121
-0.82517201 0.31047124 0.44452715
-0.8130191 0.30574194 0.34525582
-0.82312107 0.30921862 0.25841114
-0.81096816 0.30465582 0.17072052
-0.85514694 0.32428351 0.89571548
-0.84534711 0.32023755 0.74176532
-0.84023237 0.31813756 0.61357164
-0.82887393 0.31334862 0.49709606
-0.84424156 0.31899574 0.40324971
-0.81862783 0.30915934 0.30177018
-0.81523746 0.30788165 0.21375765
-0.80836779 0.30513149 0.12853025
-1.3162328 0.5274725 9.0145702
-1.2598155 0.49804974 6.5363889
-1.1096801 0.4324888 3.854593
-0.99761915 0.38603407 2.5796332
-0.93447787 0.36011928 1.9025706
-0.90162057 0.34638917 1.4912066
-0.88460457 0.33933008 1.2109838
-0.73141533 0.30219844 7.3377509
-1.2077515 0.4757987 5.0353222
-1.0393999 0.40552777 3.0882547
-0.961532 0.37304464 2.196337
-0.91136235 0.35231665 1.6683997
-0.8880561 0.34260613 1.3351675
-0.86796534 0.33417153 1.0865644
-0.86672688 0.33074787 0.9914338
-0.8503294 0.32399061 0.81611502
-0.84219003 0.32072616 0.67546082
-0.83768934 0.3186855 0.55571121
-0.82408321 0.31334975 0.44452715
-0.81194693 0.30857804 0.34525582
-0.82203668 0.31208998 0.25841114
-0.80989981 0.30748478 0.17072052
-0.85749626 0.32860279 0.899041
-0.8442241 0.3231864 0.74176532
-0.83911675 0.32106858 0.61357164
-0.82777512 0.31624001 0.49709606
-0.84312296 0.32194075 0.40324971
-0.81754369 0.312015 0.30177018
-0.81878436 0.31249127 0.21444833
-0.80729777 0.30795139 0.12853025
-1.3165441 0.53293896 9.0293884
-1.2580693 0.50244427 6.5363889
-1.1095525 0.43690675 3.8593652
-0.99808496 0.39022559 2.5842357
-0.93321514 0.36337903 1.9025706
-0.900406 0.3495343 1.4912066
-0.8864032 0.34357443 1.2148212
-1.207251 0.48047659 5.0401616
-1.0395833 0.40978649 3.0929477
-0.96225065 0.37719339 2.2008381
-0.91012698 0.35549575 1.6683997
-0.88966221 0.34679848 1.3391576
-0.86679357 0.33719927 1.0865644
-0.86556709 0.33377132 0.9914338
-0.84919327 0.32695684 0.81611502
-0.84106535 0.32366401 0.67546082
-0.83657181 0.32160765 0.55571121
-0.8229844 0.31622443 0.44452715
-0.81086481 0.3114104 0.34525582
-0.82094234 0.3149575 0.25841114
-0.81347108 0.31209382 0.1711676
-0.85634398 0.33159402 0.899041
-0.84309083 0.32613134 0.74176532
-0.83799088 0.32399571 0.61357164
-0.83090007 0.32076216 0.49919412
-0.84199399 0.32488185 0.40324971
-0.82098454 0.31661585 0.30294251
-0.8223089 0.31712937 0.21513902
-0.81087953 0.3125644 0.12873179
-1.316833 0.53841388 9.0442047
-1.2563077 0.50683266 6.5363889
-1.1094075 0.44132906 3.8641372
-1.0003506 0.39514297 2.5934405
-0.93416965 0.36751133 1.9069598
-0.90180004 0.35370287 1.4953396
-0.88519847 0.34666646 1.2148212
-1.2067326 0.48515677 5.045001
-1.0397497 0.41405144 3.0976403
-0.96092814 0.38055 2.2008381
-0.90888053 0.3586705 1.6683997
-0.88844627 0.34990188 1.3391576
-0.86876637 0.34146321 1.0902396
-0.86771959 0.33808553 0.99493837
-0.85167426 0.33133045 0.81925344
-0.83993042 0.3265979 0.67546082
-0.83544409 0.32452586 0.55571121
-0.82619721 0.32077321 0.4464002
-0.80977285 0.31423894 0.34525582
-0.81525779 0.31604561 0.25747854
-0.81237668 0.31493145 0.1711676
-0.85865831 0.33594173 0.90236646
-0.84571189 0.33054385 0.74470848
-0.83685482 0.32691887 0.61357164
-0.82977539 0.32366058 0.49919412
-0.84525442 0.32953429 0.40489322
-0.81987435 0.3194797 0.30294251
-0.82581103 0.32179591 0.21582969
-0.80978352 0.31539297 0.12873179
-1.3178182 0.5441941 9.0639629
-1.2554737 0.5115993 6.5412846
-1.1092453 0.44575569 3.8689091
-1.0007797 0.39935672 2.5980432
-0.93510669 0.37165472 1.9113487
-0.9005599 0.35684857 1.4953396
-0.88398302 0.34975427 1.2148212
-1.207361 0.49031234 5.0546799
-1.039899 0.41832253 3.1023331
-0.96161509 0.38471076 2.2053394
-0.90762305 0.3618409 1.6683997
-0.89001912 0.35411516 1.3431475
-0.86756915 0.34449369 1.0902396
-0.86653417 0.34111238 0.99493837
-0.8505125 0.33430132 0.81925344
-0.84267706 0.33105692 0.67820227
-0.83430624 0.32744014 0.55571121
-0.82507241 0.32365522 0.4464002
-0.81313705 0.31881475 0.34666586
-0.81414962 0.31888947 0.25747854
-0.81590945 0.31958154 0.17161468
-0.85748041 0.33893695 0.90236646
-0.84455293 0.33349392 0.74470848
-0.83570856 0.32983801 0.61357164
-0.82864052 0.32655507 0.49919412
-0.84409899 0.33248278 0.40489322
-0.8187542 0.32233965 0.30294251
-0.82468271 0.32467654 0.21582969
-0.80867761 0.31821775 0.12873179
-1.3180617 0.54968852 9.0787811
-1.2536803 0.51597863 6.5412846
-1.1090655 0.45018658 3.8736811
-1.0011914 0.40357822 2.6026456
-0.93380368 0.37491655 1.9113487
-0.8993088 0.35998997 1.4953396
-0.88275677 0.35283783 1.2148212
-1.2068049 0.49500099 5.0595198
-1.0400311 0.4225997 3.1070261
-0.96228456 0.38888091 2.2098405
-0.90635443 0.36500692 1.6683997
-0.88877767 0.35721976 1.3431475
-0.86950779 0.34878227 1.0939147
-0.86533821 0.34413505 0.99493837
-0.84934038 0.33726814 0.81925344
-0.84151638 0.33399642 0.67820227
-0.83727598 0.33198327 0.55803001
-0.82393765 0.32653329 0.4464002
-0.81201923 0.32165122 0.34666586
-0.81303149 0.32172945 0.25747854
-0.81478894 0.32242766 0.17161468
-0.85629213 0.34192806 0.90236646
-0.84338373 0.33643991 0.74470848
-0.83455211 0.33275318 0.61357164
-0.82749552 0.32944557 0.49919412
-0.8429333 0.33542722 0.40489322
-0.81762403 0.32519567 0.30294251
-0.8281458 0.32938343 0.21652037
-0.81220448 0.32288423 0.12893331
-1.318283 0.55519122 9.0935984
-1.2528117 0.5207426 6.5461793
-1.1088685 0.45462161 3.8784533
-1.0033953 0.40854442 2.6118507
-0.93470865 0.37907419 1.9157379
-0.90065545 0.364182 1.4994725
-0.88151973 0.35591707 1.2148212
-1.207392 0.50017291 5.0691981
-1.040146 0.42688289 3.1117187
-0.96092129 0.39223754 2.2098405
-0.90507478 0.36816844 1.6683997
-0.89031714 0.36145365 1.3471376
-0.868285 0.35181528 1.0939147
-0.86413163 0.34715357 0.99493837
-0.8517704 0.34168008 0.82239193
-0.84034538 0.33693179 0.67820227
-0.83611208 0.3349039 0.55803001
-0.82709658 0.33113053 0.44827321
-0.81089151 0.32448372 0.34666586
-0.81646478 0.32638896 0.25841114
-0.81365848 0.32526985 0.17161468
-0.85855603 0.34631193 0.90569204
-0.84595317 0.3408927 0.74765164
-0.8373841 0.33727497 0.61610484
-0.83055127 0.33402562 0.50129217
-0.8417573 0.33836758 0.40489322
-0.81648391 0.32804775 0.30294251
-0.82699096 0.3322722 0.21652037
-0.81107247 0.32571736 0.12893331
-1.3184819 0.56070215 9.1084156
-1.2509863 0.52511257 6.5461793
-1.1086539 0.45906079 3.8832252
-1.0019631 0.41204444 2.6118507
-0.93337977 0.38233462 1.9157379
-0.89937872 0.36732364 1.4994725
-0.88323981 0.36020252 1.2186587
-1.2079579 0.50535506 5.0788774
-1.0418377 0.43183297 3.1211042
-0.96155882 0.39641932 2.2143419
-0.90619642 0.37231681 1.6726656
-0.88905007 0.3645592 1.3471376
-0.87018913 0.35612822 1.09759
-0.86621904 0.35150898 0.99844289
-0.85057247 0.34465125 0.82239193
-0.83916414 0.33986309 0.67820227
-0.83493793 0.33782044 0.55803001
-0.82593572 0.33401561 0.44827321
-0.81420135 0.32911009 0.3480759
-0.81532049 0.32923695 0.25841114
-0.81713581 0.32997277 0.17206176
-0.85734195 0.34930673 0.90569204
-0.84475803 0.34384358 0.74765164
-0.83620167 0.34019589 0.61610484
-0.82938027 0.33692276 0.50129217
-0.84057105 0.3413038 0.40489322
-0.81533378 0.33089581 0.30294251
-0.82582611 0.33515692 0.21652037
-0.80993056 0.32854655 0.12893331
-1.3186584 0.56622124 9.1232328
-1.2500832 0.52987367 6.5510745
-1.1070447 0.46292791 3.8832252
-1.0023229 0.41628897 2.6164534
-0.93425238 0.38650611 1.9201269
-0.90069234 0.37153408 1.5036055
-0.88197714 0.36328343 1.2186587
-1.2085021 0.5105471 5.0885558
-1.0419158 0.43613353 3.125797
-0.96217877 0.40061027 2.218843
-0.90489125 0.37547776 1.6726656
-0.89055598 0.36881348 1.3511276
-0.86894071 0.35916358 1.09759
-0.86498684 0.35453048 0.99844289
-0.84936422 0.34761819 0.82239193
-0.84184271 0.34437355 0.68094373
-0.83375365 0.34073284 0.55803001
-0.82476473 0.33689663 0.44827321
-0.81304765 0.33195019 0.3480759
-0.81416625 0.33208096 0.25841114
-0.81597894 0.3328231 0.17206176
-0.85611743 0.35229728 0.90569204
-0.84355265 0.34679019 0.74765164
-0.8350091 0.34311274 0.61610484
-0.82819909 0.3398158 0.50129217
-0.8437435 0.34602767 0.40653673
-0.81417382 0.33373985 0.30294251
-0.82465112 0.33803755 0.21652037
-0.80877876 0.33137175 0.12893331
-1.3195252 0.5720576 9.1429911
-1.2482259 0.53423405 6.5510745
-1.106797 0.46737021 3.8879972
-1.0008637 0.4197852 2.6164534
-0.93289751 0.38976488 1.9201269
-0.90198749 0.37575811 1.5077385
-0.883663 0.36759111 1.2224963
-1.2101809 0.51624256 5.1030741
-1.0419765 0.44043988 3.1304898
-0.96278119 0.40481043 2.2233443
-0.90598041 0.37964228 1.6769315
-0.88926309 0.37191987 1.3511276
-0.86768174 0.36219457 1.09759
-0.86374396 0.3575477 0.99844289
-0.85174268 0.35206789 0.82553035
-0.84063554 0.34731004 0.68094373
-0.83255917 0.3436411 0.55803001
-0.82358372 0.33977354 0.44827321
-0.81188393 0.33478624 0.3480759
-0.8175441 0.33679202 0.25934377
-0.81481224 0.33566937 0.17206176
-0.85488248 0.35528353 0.90569204
-0.84606999 0.35128275 0.75059479
-0.83778781 0.34767783 0.61863804
-0.83120066 0.34444222 0.50339019
-0.84253049 0.3489708 0.40653673
-0.81300384 0.3365798 0.30294251
-0.82346612 0.34091404 0.21652037
-0.81223351 0.33610317 0.12913485
-1.3199663 0.5807538 9.1676865
-1.246251 0.54138553 6.5559697
-1.1055413 0.47413293 3.8927693
-0.99850351 0.42536849 2.6164534
-0.93070614 0.39496908 1.9201269
-0.89980835 0.38094696 1.5077385
-0.88153118 0.37267452 1.2224963
-1.2092192 0.52483732 5.1127529
-1.0407737 0.44766015 3.1351826
-0.96214825 0.4118762 2.2278454
-0.90830737 0.38753217 1.6854634
-0.88684285 0.37765467 1.3511276
-0.86838019 0.36926806 1.1012651
-0.86514789 0.36344674 1.0019474
-0.84982538 0.35667109 0.82553035
-0.84259999 0.35347089 0.68368518
-0.83068776 0.34814063 0.55803001
-0.82167327 0.34436798 0.44827321
-0.81000149 0.33931538 0.3480759
-0.81559074 0.34149513 0.25934377
-0.81280601 0.34049863 0.17206176
-0.85269624 0.36049905 0.90569204
-0.84390837 0.35644451 0.75059479
-0.83558673 0.3529349 0.61863804
-0.82895899 0.34980264 0.50339019
-0.84025937 0.3544043 0.40653673
-0.8107537 0.34196439 0.30294251
-0.82118702 0.34636796 0.21652037
-0.80992693 0.34162405 0.12913485
-1.322294 0.58702028 9.1973228
-1.2444489 0.5455153 6.5559697
-1.1067863 0.47878939 3.9023132
-0.99716228 0.42850327 2.6164534
-0.93166244 0.39883375 1.9245161
-0.90126216 0.38472 1.5118713
-0.88337004 0.37654549 1.2263339
-1.2102367 0.52879727 5.1224318
-1.0349263 0.44814417 3.1211042
-0.9632104 0.41491958 2.2323468
-0.90982223 0.39062116 1.6897295
-0.88598371 0.37966591 1.3511276
-0.86760491 0.37108597 1.1012651
-0.86387396 0.36646447 1.0019474
-0.85222197 0.36100563 0.82866883
-0.84142315 0.35626313 0.68368518
-0.83360851 0.35261926 0.56034881
-0.82058728 0.34694764 0.44827321
-0.80893147 0.34185839 0.3480759
-0.81909937 0.34582421 0.26027638
-0.81185198 0.34276709 0.17206176
-0.85518467 0.36419326 0.90901756
-0.84297234 0.35865262 0.75059479
-0.83472186 0.35497558 0.61863804
-0.8323406 0.35345665 0.50548828
-0.8394531 0.35630989 0.40653673
-0.81003571 0.3436617 0.30294251
-0.8159011 0.34615296 0.21582969
-0.813869 0.34512877 0.12933637
-1.3237818 0.59322178 9.2220192
-1.2434682 0.55026811 6.5608654
-1.1064761 0.48324746 3.9070849
-0.99566042 0.43198141 2.6164534
-0.93026453 0.40208343 1.9245161
-0.89991373 0.38786367 1.5118713
-0.88499439 0.38089401 1.2301713
-1.2118336 0.53454095 5.1369505
-1.0301934 0.45037118 3.1117187
-0.96375251 0.4191477 2.2368479
-0.91323876 0.39586955 1.6982613
-0.88465303 0.38275623 1.3511276
-0.86630428 0.37411222 1.1012651
-0.86586761 0.37088203 1.005452
-0.85095662 0.36397824 0.82866883
-0.84017444 0.35919806 0.68368518
-0.83237255 0.35552695 0.56034881
-0.81937122 0.34980989 0.44827321
-0.80773324 0.34468001 0.3480759
-0.81788725 0.3486813 0.26027638
-0.81065059 0.34559891 0.17206176
-0.85390818 0.3671762 0.90901756
-0.84171522 0.36159295 0.75059479
-0.83347774 0.35788712 0.61863804
-0.83110172 0.3563599 0.50548828
-0.83820426 0.35923794 0.40653673
-0.80883121 0.34648716 0.30294251
-0.81468785 0.3489989 0.21582969
-0.81265932 0.34796762 0.12933637
-1.3252423 0.59944081 9.2467146
-1.2415398 0.55460531 6.5608654
-1.107514 0.48831165 3.9166293
-0.99593592 0.43623829 2.6210558
-0.93105036 0.40628627 1.928905
-0.90113455 0.39212558 1.5160043
-0.88365942 0.3839809 1.2301713
-1.2122567 0.53979069 5.1466289
-1.0223004 0.45117673 3.0929477
-0.96228349 0.42250928 2.2368479
-0.91424048 0.40010071 1.7025272
-0.88607281 0.38704827 1.3551177
-0.8649931 0.37713388 1.1012651
-0.8645677 0.37390223 1.005452
-0.8496809 0.3669464 0.82866883
-0.83891553 0.36212862 0.68368518
-0.83519399 0.36018464 0.56266761
-0.82240236 0.35450312 0.45014626
-0.81093067 0.34939566 0.34948593
-0.81666511 0.35153413 0.26027638
-0.80943924 0.34842646 0.17206176
-0.8560462 0.37164173 0.91234308
-0.8404479 0.36452889 0.75059479
-0.83222336 0.36079431 0.61863804
-0.83401769 0.36106202 0.5075863
-0.84127897 0.36403701 0.40818024
-0.812078 0.35123801 0.30411482
-0.80891949 0.34987465 0.21513902
-0.81143975 0.35080221 0.12933637
-1.325969 0.60535455 9.2664719
-1.2405244 0.55935436 6.5657601
-1.10853 0.49338886 3.926173
-0.99619377 0.44050238 2.6256583
-0.92962646 0.40953377 1.928905
-0.89976031 0.39526871 1.5160043
-0.88524878 0.38835093 1.2340088
-1.2138042 0.54556531 5.1611471
-1.019143 0.45404002 3.0882547
-0.96279287 0.42674798 2.241349
-0.91522378 0.40434369 1.7067931
-0.88471639 0.39013889 1.3551177
-0.86367136 0.380151 1.1012651
-0.86652547 0.37834498 1.0089566
-0.84839481 0.36991012 0.82866883
-0.83764637 0.36505479 0.68368518
-0.83393168 0.36309779 0.56266761
-0.8211599 0.35737169 0.45014626
-0.80970615 0.3522242 0.34948593
-0.81543308 0.35438266 0.26027638
-0.81278539 0.35323477 0.17250884
-0.85474372 0.37462762 0.91234308
-0.84287286 0.36908183 0.75353795
-0.83490795 0.36542571 0.62117118
-0.83275223 0.36397108 0.5075863
-0.84000313 0.36697143 0.40818024
-0.81084704 0.35407054 0.30411482
-0.8076933 0.35269615 0.21513902
-0.81021029 0.35363254 0.12933637
-1.3259647 0.61095524 9.2812901
-1.2404177 0.56452507 6.5755506
-1.1095241 0.49847916 3.9357171
-0.99643397 0.44477352 2.6302607
-0.93037957 0.41374967 1.9332942
-0.89837509 0.39840707 1.5160043
-0.88388783 0.39143866 1.2340088
-1.2141818 0.55083787 5.170826
-1.023847 0.46042651 3.1070261
-0.96328437 0.4309954 2.2458501
-0.91618866 0.40859839 1.7110591
-0.88610184 0.39445037 1.3591076
-0.86543721 0.3845402 1.1049403
-0.86519951 0.38136742 1.0089566
-0.8506608 0.37443754 0.83180726
-0.83636695 0.36797649 0.68368518
-0.83265913 0.36600655 0.56266761
-0.82415175 0.36210075 0.45201927
-0.80847168 0.35504845 0.34948593
-0.81419104 0.35722691 0.26027638
-0.8115474 0.35606977 0.17250884
-0.85343087 0.37760895 0.91234308
-0.84157932 0.3720217 0.75353795
-0.83362728 0.36833784 0.62117118
-0.83147669 0.36687571 0.5075863
-0.83871704 0.36990136 0.40818024
-0.81405377 0.35885948 0.30528715
-0.80645722 0.35551339 0.21513902
-0.80897093 0.35645851 0.12933637
-1.3266419 0.61689103 9.3010464
-1.2393649 0.56927663 6.5804462
-1.1091367 0.50296569 3.9404888
-0.99665648 0.44905177 2.6348634
-0.92892963 0.41699478 1.9332942
-0.89697891 0.40154055 1.5160043
-0.88251603 0.39452162 1.2340088
-1.2156799 0.55664319 5.1853442
-1.0332327 0.46899161 3.1398752
-0.96375805 0.43525147 2.2503514
-0.91713488 0.41286474 1.715325
-0.88746804 0.3987762 1.3630977
-0.86408961 0.38755882 1.1049403
-0.86386305 0.3843852 1.0089566
-0.8493486 0.37740463 0.83180726
-0.83889872 0.37259108 0.68642664
-0.8354255 0.37070766 0.56498641
-0.82288271 0.36497536 0.45201927
-0.80722743 0.35786837 0.34948593
-0.81293917 0.3600668 0.26027638
-0.81485283 0.36091724 0.17295592
-0.85551667 0.38210851 0.91566855
-0.84396678 0.37660438 0.75648111
-0.83627337 0.37300161 0.62370437
-0.83433682 0.37162259 0.50968438
-0.8374207 0.37282678 0.40818024
-0.81279618 0.36169887 0.30528715
-0.80973566 0.36033967 0.21582969
-0.80772173 0.3592802 0.12933637
-1.3272939 0.62283903 9.3208046
-1.2392174 0.57445604 6.5902362
-1.1100887 0.50807703 3.9500329
-0.99686128 0.45333689 2.6394658
-0.92964977 0.4212234 1.9376832
-0.89557177 0.40466914 1.5160043
-0.88405502 0.39891827 1.2378463
-1.2160114 0.56193817 5.1950235
-1.041002 0.47690889 3.1680319
-0.96421355 0.43951607 2.2548525
-0.9156881 0.41606364 1.715325
-0.88607061 0.40187162 1.3630977
-0.86581987 0.39197102 1.1086154
-0.86576915 0.38885963 1.0124611
-0.84802604 0.3803671 0.83180726
-0.83759308 0.37551713 0.68642664
-0.83412641 0.37362158 0.56498641
-0.82583487 0.36974001 0.45389232
-0.81035191 0.36264351 0.35089597
-0.81616169 0.36490729 0.26120901
-0.81358802 0.3637594 0.17295592
-0.85417759 0.3850925 0.91566855
-0.84264702 0.37954807 0.75648111
-0.8349663 0.37591851 0.62370437
-0.83303452 0.37453273 0.50968438
-0.83611423 0.37574762 0.40818024
-0.81596243 0.36652553 0.30645946
-0.80847287 0.36316398 0.21582969
-0.80646265 0.36209747 0.12933637
-1.3279203 0.62879902 9.3405609
-1.2399713 0.58007306 6.6049218
-1.1096635 0.51257497 3.9548051
-0.9952727 0.45681384 2.6394658
-0.92817378 0.42446592 1.9376832
-0.89671409 0.40896067 1.5201373
-0.88265717 0.4020018 1.2378463
-1.2163206 0.56724226 5.2047019
-1.0487285 0.48488602 3.1961884
-0.96465117 0.44378915 2.2593539
-0.91660076 0.42034474 1.7195909
-0.88740218 0.4062165 1.3670877
-0.86752975 0.39639997 1.1122906
-0.86440647 0.39187938 1.0124611
-0.84669316 0.38332498 0.83180726
-0.84008658 0.38016263 0.6891681
-0.83281708 0.37653098 0.56498641
-0.82453924 0.37262046 0.45389232
-0.80908108 0.36546993 0.35089597
-0.81488299 0.36775401 0.26120901
-0.81231332 0.36659715 0.17295592
-0.8528282 0.38807178 0.91566855
-0.84499657 0.38416013 0.75942427
-0.83364898 0.37883079 0.62370437
-0.83172208 0.37743825 0.50968438
-0.8347975 0.37866393 0.40818024
-0.81467801 0.36937156 0.30645946
-0.8117103 0.36802879 0.21652037
-0.80519378 0.36491036 0.12933637
-1.3292224 0.63510609 9.3652573
-1.2397803 0.58526748 6.6147127
-1.1105732 0.51770699 3.9643488
-0.99544477 0.46110657 2.6440685
-0.92886096 0.42870709 1.9420724
-0.89528102 0.4120883 1.5201373
-0.88124853 0.40508038 1.2378463
-1.2166077 0.57255536 5.2143812
-1.0454659 0.48781401 3.1914957
-0.96507055 0.44807062 2.263855
-0.91512787 0.42354172 1.7195909
-0.88597882 0.40931162 1.3670877
-0.86921936 0.40084568 1.1159657
-0.86627614 0.39637834 1.0159656
-0.84534997 0.38627812 0.83180726
-0.83875448 0.38309276 0.6891681
-0.83149767 0.37943575 0.56498641
-0.82323354 0.37549636 0.45389232
-0.80780041 0.36829194 0.35089597
-0.81359428 0.37059626 0.26120901
-0.80649674 0.36736608 0.17250884
-0.85146838 0.39104632 0.91566855
-0.84365046 0.38710737 0.75942427
-0.83232152 0.38173845 0.62370437
-0.83039951 0.38033921 0.50968438
-0.83347064 0.38157561 0.40818024
-0.81338376 0.37221307 0.30645946
-0.81042075 0.37085995 0.21652037
-0.80391508 0.36771879 0.12933637
-1.3297967 0.64109224 9.3850145
-1.2395682 0.59046763 6.6245031
-1.1114606 0.52285165 3.9738929
-0.99559885 0.46540597 2.6486709
-0.92952973 0.43295819 1.9464613
-0.89638919 0.41639659 1.5242703
-0.88273674 0.40950304 1.2416838
-1.2157371 0.57733792 5.2192206
-1.0453178 0.49219564 3.1961884
-0.96350062 0.45143658 2.263855
-0.91600674 0.4278374 1.7238568
-0.88727558 0.41367522 1.3710777
-0.86781478 0.40387738 1.1159657
-0.86488724 0.39939979 1.0159656
-0.84399647 0.38922659 0.83180726
-0.83741218 0.38601822 0.6891681
-0.83016819 0.3823359 0.56498641
-0.82612884 0.38030636 0.45576534
-0.81086773 0.37311473 0.35230598
-0.81229573 0.37343398 0.26120901
-0.80520952 0.370179 0.17250884
-0.85348564 0.3955864 0.91899407
-0.84229398 0.3900499 0.75942427
-0.83489591 0.38645238 0.62623757
-0.82906681 0.38323551 0.50968438
-0.83213359 0.38448265 0.40818024
-0.81207949 0.37505001 0.30645946
-0.80912125 0.37368658 0.21652037
-0.80716258 0.37261671 0.12953791
-1.3303455 0.64709032 9.4047718
-1.2402524 0.59611464 6.6391888
-1.1109771 0.52736831 3.9786646
-0.99573505 0.46971211 2.6532736
-0.93018019 0.4372192 1.9508505
-0.89493024 0.41952306 1.5242703
-0.88130188 0.41258189 1.2416838
-1.2159812 0.58266479 5.228899
-1.0435934 0.49584147 3.1961884
-0.96388692 0.45572779 2.2683563
-0.91686678 0.43214431 1.7281228
-0.88582617 0.41676989 1.3710777
-0.86946821 0.40834546 1.1196409
-0.86672014 0.40392295 1.0194702
-0.84263265 0.39217031 0.83180726
-0.83985084 0.39070287 0.69190961
-0.82882845 0.38523138 0.56498641
-0.82479632 0.38318777 0.45576534
-0.80956036 0.37594292 0.35230598
-0.81098729 0.37626714 0.26120901
-0.80391246 0.37298745 0.17250884
-0.8520996 0.39856321 0.91899407
-0.84092736 0.39298767 0.75942427
-0.83354181 0.38936433 0.62623757
-0.82772404 0.38612717 0.50968438
-0.83078647 0.38738498 0.40818024
-0.81076539 0.37788242 0.30645946
-0.80781192 0.37650865 0.21652037
-0.805857 0.37543195 0.12953791
-1.3308684 0.65309989 9.4245281
-1.2409123 0.60177356 6.6538744
-1.1104755 0.53188813 3.9834368
-0.99761724 0.47486469 2.6624784
-0.92864835 0.44046348 1.9508505
-0.89600408 0.42384788 1.5284033
-0.87985635 0.41565567 1.2416838
-1.2162032 0.58800036 5.2385783
-1.0434123 0.50022751 3.2008812
-0.96229029 0.45908964 2.2683563
-0.91770786 0.43646246 1.7323887
-0.88436604 0.41985944 1.3710777
-0.86803752 0.411378 1.1196409
-0.86530489 0.40694591 1.0194702
-0.84125859 0.39510927 0.83180726
-0.8384819 0.39363211 0.69190961
-0.83148921 0.39000341 0.56730521
-0.8276512 0.38803256 0.45763838
-0.80824316 0.37876651 0.35230598
-0.8096689 0.37909573 0.26120901
-0.80260557 0.37579137 0.17250884
-0.85407966 0.40312904 0.92231953
-0.8395505 0.39592066 0.75942427
-0.83217764 0.39227158 0.62623757
-0.82637113 0.38901412 0.50968438
-0.82942915 0.3902826 0.40818024
-0.80944139 0.38071024 0.30645946
-0.80649275 0.37932616 0.21652037
-0.80454159 0.37824264 0.12953791
-1.3313657 0.65912098 9.4442854
-1.2415478 0.60744441 6.66856
-1.1113 0.53706056 3.992981
-0.99947554 0.48003611 2.6716835
-0.92926544 0.44473651 1.9552395
-0.89451915 0.42697296 1.5284033
-0.88129324 0.42010379 1.2455213
-1.2164026 0.59334451 5.2482567
-1.0447665 0.50536984 3.2102668
-0.96068186 0.46244586 2.2683563
-0.9161787 0.43966323 1.7323887
-0.88561255 0.42424592 1.3750678
-0.86659628 0.41440549 1.1196409
-0.86710095 0.41149303 1.0229747
-0.84339148 0.39971051 0.83494574
-0.83710277 0.39655659 0.69190961
-0.83012283 0.39290348 0.56730521
-0.82629168 0.39091921 0.45763838
-0.81125271 0.38363633 0.35371602
-0.81278211 0.38401818 0.26214162
-0.80128896 0.3785907 0.17250884
-0.85266727 0.40610787 0.92231953
-0.84181309 0.4005858 0.76236743
-0.83469605 0.39702579 0.62877071
-0.82500821 0.39189631 0.50968438
-0.82806176 0.39317548 0.40818024
-0.81249869 0.38561752 0.30763176
-0.80516374 0.38213903 0.21652037
-0.80773014 0.38319007 0.12973943
-1.3318371 0.6651535 9.4640427
-1.2412457 0.6126762 6.6783504
-1.1121018 0.54224515 4.0025249
-0.99955177 0.48437411 2.676286
-0.92986405 0.44901916 1.9596287
-0.89555848 0.43131399 1.5325361
-0.87982148 0.42317754 1.2455213
-1.2177073 0.5992524 5.2627749
-1.0445468 0.50977069 3.2149594
-0.96101987 0.46674761 2.2728574
-0.91698575 0.44399536 1.7366546
-0.88412625 0.4273347 1.3750678
-0.86514443 0.41742796 1.1196409
-0.8656593 0.41451728 1.0229747
-0.84199113 0.40265206 0.83494574
-0.83571345 0.3994762 0.69190961
-0.83274359 0.39770794 0.56962395
-0.82492208 0.39380115 0.45763838
-0.80990863 0.38646582 0.35371602
-0.81143665 0.38685301 0.26214162
-0.79996252 0.38138542 0.17250884
-0.85460973 0.41069919 0.92564505
-0.8404097 0.40352184 0.76236743
-0.83330512 0.399937 0.62877071
-0.82772785 0.39673552 0.51178247
-0.8266843 0.39606354 0.40818024
-0.81114769 0.38845131 0.30763176
-0.8038249 0.38494727 0.21652037
-0.8063876 0.38600725 0.12973943
-1.3322825 0.67119735 9.4837999
-1.2418338 0.6183672 6.6930361
-1.1128809 0.5474419 4.0120687
-0.99960995 0.48871854 2.6808887
-0.93044394 0.45331135 1.9640176
-0.8940475 0.43443745 1.5325361
-0.88122249 0.42764562 1.2493588
-1.2189854 0.60517663 5.2772937
-1.0443093 0.51417619 3.2196524
-0.9593848 0.47009936 2.2728574
-0.91543031 0.4471935 1.7366546
-0.88533747 0.43173918 1.3790579
-0.86673015 0.42192933 1.123316
-0.86420703 0.41753647 1.0229747
-0.84408593 0.4072803 0.83808416
-0.83808011 0.40420753 0.69465113
-0.83135027 0.40061232 0.56962395
-0.82354242 0.39667827 0.45763838
-0.80855465 0.38929057 0.35371602
-0.81008136 0.3896831 0.26214162
-0.80311406 0.3863343 0.17295592
-0.85317093 0.41367984 0.92564505
-0.84263355 0.40821531 0.76531059
-0.83190399 0.40284336 0.62877071
-0.82633793 0.39962238 0.51178247
-0.8252967 0.39894682 0.40818024
-0.81416327 0.39339513 0.30880409
-0.80693507 0.3899053 0.21721105
-0.80503529 0.38881969 0.12973943
-1.3327019 0.67725235 9.5035563
-1.2423971 0.62406981 6.7077217
-1.1123003 0.55198693 4.0168409
-0.99789798 0.49220487 2.6808887
-0.93100524 0.45761311 1.9684068
-0.89505219 0.43879449 1.5366691
-0.87972432 0.43071908 1.2493588
-1.2213608 0.61168009 5.2966514
-1.0440536 0.51858622 3.2243452
-0.95968944 0.4744103 2.2773588
-0.91620302 0.45153937 1.7409205
-0.883825 0.434827 1.3790579
-0.86525208 0.42495221 1.123316
-0.86274433 0.42055058 1.0229747
-0.84265912 0.41022423 0.83808416
-0.83666408 0.40713054 0.69465113
-0.83393061 0.40544885 0.57194275
-0.82632226 0.40157697 0.4595114
-0.80719084 0.39211056 0.35371602
-0.81313545 0.39465332 0.26307425
-0.80176067 0.38913533 0.17295592
-0.85507566 0.41829634 0.92897052
-0.84120351 0.41115415 0.76531059
-0.83049273 0.40574476 0.62877071
-0.824938 0.40250441 0.51178247
-0.82389909 0.40182519 0.40818024
-0.81278515 0.39623469 0.30880409
-0.80556917 0.39271966 0.21721105
-0.80367315 0.39162743 0.12973943
-1.3337868 0.68367308 9.5282536
-1.2420275 0.62932348 6.7175121
-1.1143708 0.55787134 4.0311565
-0.99617374 0.49568516 2.6808887
-0.92940217 0.46086016 1.9684068
-0.89351505 0.44191614 1.5366691
-0.88108921 0.43520689 1.2531964
-1.2225838 0.61764044 5.3111696
-1.0437797 0.52300072 3.2290378
-0.9580276 0.47775736 2.2773588
-0.91462129 0.45473474 1.7409205
-0.88500082 0.43924925 1.3830478
-0.86680108 0.42947519 1.1269913
-0.86127108 0.42355955 1.0229747
-0.84471565 0.41487917 0.84122264
-0.8352378 0.41004854 0.69465113
-0.83251017 0.40835735 0.57194275
-0.82491547 0.40445891 0.4595114
-0.80581725 0.39492577 0.35371602
-0.81175286 0.39748928 0.26307425
-0.80486995 0.39412174 0.17340299
-0.85361028 0.42127854 0.92897052
-0.8397631 0.41408801 0.76531059
-0.83293796 0.41054723 0.63130391
-0.82759982 0.40738603 0.51388049
-0.82249147 0.4046987 0.40818024
-0.81139708 0.39906943 0.30880409
-0.80863708 0.39771482 0.21790172
-0.80230123 0.39443037 0.12973943
-1.3348428 0.69010955 9.552949
-1.2416363 0.6345821 6.7273026
-1.1137491 0.56243086 4.0359287
-0.99618328 0.500036 2.6854911
-0.92992961 0.46517318 1.9727957
-0.894485 0.44628888 1.5408021
-0.88243341 0.43970948 1.2570338
-1.2237799 0.62361687 5.3256874
-1.0434878 0.52741963 3.2337308
-0.95829862 0.48207703 2.2818599
-0.91535944 0.45909396 1.7451864
-0.88346213 0.44233578 1.3830478
-0.86832905 0.43401414 1.1306664
-0.85978734 0.42656338 1.0229747
-0.84326231 0.41782525 0.84122264
-0.83754838 0.41481754 0.69739258
-0.83107972 0.41126087 0.57194275
-0.82349861 0.40733594 0.4595114
-0.80443376 0.39773622 0.35371602
-0.81036043 0.40032041 0.26307425
-0.80795413 0.39913455 0.17385007
-0.85213453 0.42425564 0.92897052
-0.84193152 0.41881719 0.76825374
-0.83149981 0.41345221 0.63130391
-0.82617277 0.41027242 0.51388049
-0.82107377 0.40756726 0.40818024
-0.80999911 0.40189931 0.30880409
-0.80724388 0.40053508 0.21790172
-0.80091947 0.39722854 0.12973943
-1.3358701 0.69656169 9.5776453
-1.2403187 0.63937914 6.7321978
-1.1144391 0.56767052 4.0454726
-0.99443179 0.5035103 2.6854911
-0.93043834 0.46949553 1.977185
-0.89543515 0.45067376 1.544935
-0.88375688 0.44422677 1.2608713
-1.2238314 0.62903434 5.3353667
-1.0431777 0.53184283 3.2384233
-0.95855135 0.48640448 2.2863612
-0.91375136 0.46228635 1.7451864
-0.88460237 0.44677556 1.3870379
-0.86983579 0.43856895 1.1343416
-0.86148214 0.43115827 1.0264792
-0.84528023 0.42250666 0.84436107
-0.83609533 0.41773859 0.69739258
-0.83360243 0.41613802 0.57426155
-0.82621986 0.412278 0.46138445
-0.80733317 0.40268299 0.35512605
-0.80895811 0.40314665 0.26307425
-0.80655599 0.40195239 0.17385007
-0.8506484 0.42722756 0.92897052
-0.84046441 0.42175353 0.76825374
-0.83005148 0.41635218 0.63130391
-0.82879341 0.41518667 0.51597857
-0.81964612 0.41043085 0.40818024
-0.80859125 0.40472427 0.30880409
-0.81026912 0.40556699 0.21859241
-0.79952806 0.40002185 0.12973943
-1.3375565 0.70339125 9.6072817
-1.2398859 0.64464444 6.7419887
-1.1137784 0.57223952 4.0502448
-0.99788761 0.50964475 2.6992986
-0.93092805 0.47382703 1.9815739
-0.89385659 0.45379665 1.544935
-0.88220084 0.44730893 1.2608713
-1.2227441 0.63388115 5.3402061
-1.0428494 0.53627026 3.2431161
-0.95684767 0.48974746 2.2863612
-0.91213208 0.46547312 1.7451864
-0.88303745 0.44986069 1.3870379
-0.87132138 0.44313958 1.1380167
-0.85997194 0.43416277 1.0264792
-0.84380025 0.42545465 0.84436107
-0.83463204 0.42065457 0.69739258
-0.83214474 0.4190453 0.57426155
-0.8247757 0.41515952 0.46138445
-0.80592263 0.40549862 0.35512605
-0.80754596 0.40596801 0.26307425
-0.80514801 0.40476537 0.17385007
-0.85248262 0.43188182 0.93229604
-0.83898717 0.42468473 0.76825374
-0.82859308 0.41924706 0.63130391
-0.82733905 0.41807717 0.51597857
-0.81820846 0.41328946 0.40818024
-0.80717361 0.40754431 0.30880409
-0.8088485 0.40839288 0.21859241
-0.80258691 0.4050613 0.12994097
-1.3385249 0.70987678 9.6319771
-1.2385298 0.64944148 6.7468839
-1.1144246 0.57749766 4.0597882
-0.99957591 0.51491463 2.7085037
-0.93139899 0.47816768 1.9859631
-0.8947717 0.45819685 1.549068
-0.8834877 0.45184532 1.2647089
-1.2227516 0.63931054 5.349885
-1.0440347 0.54149663 3.2525017
-0.95706666 0.49408334 2.2908626
-0.91050178 0.46865422 1.7451864
-0.88414174 0.45431769 1.3910279
-0.86976922 0.44617835 1.1380167
-0.86162901 0.43878049 1.0299838
-0.84230995 0.42839748 0.84436107
-0.83315861 0.42356542 0.69739258
-0.83067697 0.42194748 0.57426155
-0.8274551 0.4201349 0.46325746
-0.80450225 0.40830937 0.35512605
-0.80612391 0.40878439 0.26307425
-0.80817175 0.40982571 0.17429715
-0.85096985 0.43485489 0.93229604
-0.83749962 0.42761075 0.76825374
-0.83096415 0.42409655 0.6338371
-0.82587469 0.4209626 0.51597857
-0.82096833 0.41828686 0.40982375
-0.80574608 0.41035941 0.30880409
-0.80741805 0.41121382 0.21859241
-0.80116808 0.40786037 0.12994097
-1.3401494 0.71674424 9.6616125
-1.2380553 0.65471309 6.7566743
-1.1137248 0.58207583 4.0645604
-1.0029731 0.52110332 2.7223115
-0.93185097 0.48251742 1.990352
-0.89566702 0.4626089 1.553201
-0.88190508 0.45492652 1.2647089
-1.2216244 0.64416128 5.3547244
-1.0436671 0.54593766 3.2571945
-0.95726687 0.49842659 2.2953637
-0.90886027 0.47182962 1.7451864
-0.88255048 0.45740113 1.3910279
-0.87121743 0.45076975 1.1416919
-0.8600921 0.44178545 1.0299838
-0.84427255 0.43311182 0.84749955
-0.83167499 0.42647108 0.69739258
-0.83314145 0.42686453 0.57658035
-0.82598346 0.42302069 0.46325746
-0.80307209 0.41111511 0.35512605
-0.80906546 0.41383281 0.26400685
-0.80673623 0.4126443 0.17429715
-0.84944677 0.4378227 0.93229604
-0.83959526 0.43238232 0.7711969
-0.82947874 0.42699456 0.6338371
-0.82440025 0.42384285 0.51597857
-0.81950319 0.42115003 0.40982375
-0.80430871 0.41316947 0.30880409
-0.8059777 0.41402972 0.21859241
-0.80418378 0.41293657 0.1301425
-1.3410584 0.72326273 9.6863089
-1.2366607 0.65951002 6.7615695
-1.1143272 0.58735228 4.0741048
-1.0080695 0.52822888 2.7407215
-0.930161 0.48576725 1.990352
-0.89404672 0.46573251 1.553201
-0.88315505 0.45948166 1.2685463
-1.2204782 0.64901197 5.3595638
-1.0448074 0.55118811 3.2665799
-0.95744848 0.50277734 2.299865
-0.90951818 0.47620916 1.7494525
-0.88361883 0.46187505 1.395018
-0.86963856 0.4538081 1.1416919
-0.86171114 0.44642565 1.0334884
-0.84275562 0.43605626 0.84749955
-0.83389527 0.43129259 0.70013404
-0.83164632 0.42977017 0.57658035
-0.82450187 0.42590135 0.46325746
-0.80163217 0.41391587 0.35512605
-0.807616 0.41665444 0.26400685
-0.80529094 0.41545781 0.17429715
-0.85122603 0.44250748 0.93562156
-0.83808088 0.43531039 0.7711969
-0.83180898 0.43187389 0.63637024
-0.82291567 0.42671797 0.51597857
-0.82222056 0.4261812 0.41146725
-0.80286157 0.4159745 0.30880409
-0.80452752 0.41684058 0.21859241
-0.80273747 0.41574118 0.1301425
-1.3426206 0.73016751 9.7159443
-1.2361445 0.66478753 6.7713594
-1.114906 0.59263998 4.0836482
-1.0027651 0.52991855 2.7315164
-0.93057865 0.49012744 1.9947413
-0.8949067 0.47015947 1.5573338
-0.88154578 0.46256167 1.2685463
-1.2204205 0.65445662 5.3692427
-1.0444007 0.5556426 3.2712729
-0.95761132 0.50713539 2.3043661
-0.90785033 0.47938108 1.7494525
-0.88200122 0.46495664 1.395018
-0.8680492 0.45684096 1.1416919
-0.8601476 0.44943088 1.0334884
-0.84122837 0.43899533 0.84749955
-0.83238471 0.43420082 0.70013404
-0.83014113 0.43267053 0.57658035
-0.82301015 0.42877677 0.46325746
-0.80443716 0.41892734 0.35653609
-0.80615664 0.419471 0.26400685
-0.80383581 0.41826624 0.17429715
-0.84967625 0.44547611 0.93562156
-0.84013665 0.44010895 0.77414006
-0.8302964 0.43477482 0.63637024
-0.82544285 0.43169126 0.5180766
-0.82072788 0.42904869 0.41146725
-0.80571258 0.42102563 0.3099764
-0.80306762 0.41964638 0.21859241
-0.8057096 0.42085376 0.13034403
-1.3434697 0.73671836 9.7406406
-1.2356064 0.67006952 6.7811503
-1.1154616 0.5979389 4.0931926
-1.0009092 0.53341562 2.7315164
-0.93097717 0.49449641 1.9991302
-0.89574647 0.47459802 1.5614668
-0.88275868 0.46713534 1.2723838
-1.2203399 0.65990877 5.3789215
-1.0454959 0.56091684 3.2806582
-0.95583528 0.51047498 2.3043661
-0.90847343 0.48377317 1.7537184
-0.88303339 0.4694472 1.3990079
-0.86944366 0.4614577 1.145367
-0.86172861 0.45409337 1.036993
-0.84313518 0.44374204 0.85063797
-0.83086395 0.43710372 0.70013404
-0.82862574 0.43556562 0.57658035
-0.82150847 0.43164703 0.46325746
-0.80296987 0.42173278 0.35653609
-0.80903721 0.42456514 0.26493949
-0.80237091 0.42106962 0.17429715
-0.85141671 0.45018473 0.93894702
-0.83859527 0.44303891 0.77414006
-0.82877368 0.43767044 0.63637024
-0.82393092 0.43456995 0.5180766
-0.81922525 0.43191093 0.41146725
-0.80423802 0.42383552 0.3099764
-0.80159789 0.42244706 0.21859241
-0.80423564 0.42366368 0.13034403
-1.3442895 0.74328393 9.765337
-1.2341532 0.67486715 6.7860456
-1.1159936 0.60324878 4.1027365
-0.99904114 0.53690618 2.7315164
-0.93135649 0.49887413 2.0035193
-0.89408439 0.47772187 1.5614668
-0.88112277 0.47021389 1.2723838
-1.2213393 0.66597021 5.3934398
-1.0450491 0.56538415 3.285351
-0.95596421 0.51484078 2.3088672
-0.90907687 0.48817542 1.7579843
-0.88404495 0.47395062 1.402998
-0.86782759 0.46448982 1.145367
-0.8601383 0.4570986 1.036993
-0.84158111 0.44668242 0.85063797
-0.83302683 0.44196117 0.70287549
-0.82710028 0.43845543 0.57658035
-0.82409298 0.4366827 0.46513051
-0.80573195 0.42677853 0.35794613
-0.80755025 0.42738661 0.26493949
-0.80089617 0.42386785 0.17429715
-0.8498401 0.45315397 0.93894702
-0.83704364 0.44596344 0.77414006
-0.83104575 0.44258723 0.63890344
-0.82240897 0.43744335 0.5180766
-0.82188195 0.43698484 0.41311076
-0.80275369 0.42664024 0.3099764
-0.80449122 0.42756665 0.21928309
-0.80716383 0.4288123 0.13054556
-1.3450797 0.74986422 9.7900333
-1.2335731 0.6801545 6.795836
-1.1165023 0.6085698 4.1122804
-0.99716085 0.54039019 2.7315164
-0.92960936 0.5021221 2.0035193
-0.89488864 0.48217487 1.5655998
-0.87947595 0.47328675 1.2723838
-1.2212099 0.67144084 5.4031181
-1.0460988 0.57068181 3.2947366
-0.95607412 0.51921362 2.3133683
-0.90966046 0.49258772 1.7622502
-0.88238513 0.47703364 1.402998
-0.86620092 0.46751627 1.145367
-0.86168069 0.46178293 1.0404975
-0.84344834 0.45145425 0.85377645
-0.83147901 0.4448663 0.70287549
-0.82947129 0.44342837 0.57889915
-0.82256365 0.43955669 0.46513051
-0.80423731 0.4295885 0.35794613
-0.80605352 0.43020287 0.26493949
-0.80380511 0.42900577 0.17474423
-0.85154158 0.45788616 0.94227254
-0.83904243 0.45079571 0.77708322
-0.82949579 0.44548541 0.63890344
-0.82087696 0.44031143 0.5180766
-0.8203516 0.43985108 0.41311076
-0.80125952 0.42943978 0.3099764
-0.80299383 0.43037227 0.21928309
-0.8056621 0.43162718 0.13054556
-1.3458405 0.75645912 9.8147297
-1.2320812 0.68495131 6.8007312
-1.1156791 0.61318249 4.1170521
-0.99698269 0.54480463 2.7361188
-0.92995417 0.50650972 2.0079086
-0.8932001 0.48529568 1.5655998
-0.87781852 0.47635379 1.2723838
-1.2221565 0.67752832 5.4176369
-1.0456123 0.57516176 3.2994294
-0.95616525 0.52359354 2.3178697
-0.91022438 0.49701008 1.7665161
-0.88336021 0.48155326 1.406988
-0.86754137 0.47215781 1.1490422
-0.86006349 0.46478793 1.0404975
-0.84186733 0.45439571 0.85377645
-0.83360106 0.44975156 0.70561695
-0.82791835 0.44632107 0.57889915
-0.82102436 0.44242528 0.46513051
-0.80695617 0.43466815 0.35935616
-0.80454683 0.43301392 0.26493949
-0.80230266 0.43180898 0.17474423
-0.84993809 0.46085581 0.94227254
-0.83746374 0.45372176 0.77708322
-0.82793564 0.44837818 0.63890344
-0.82332695 0.44533348 0.52017462
-0.81881124 0.44271198 0.41311076
-0.80403161 0.43454519 0.31114873
-0.80584311 0.43552718 0.21997377
-0.80415046 0.43443686 0.13054556
-1.3465712 0.76306838 9.839426
-1.2305709 0.6897459 6.8056264
-1.1161431 0.61852056 4.1265965
-0.996786 0.54922444 2.7407215
-0.92818052 0.50975281 2.0079086
-0.89396852 0.48976281 1.5697327
-0.87896216 0.48095378 1.2762213
-1.2230755 0.68363059 5.4321551
-1.0466163 0.58048242 3.308815
-0.95623738 0.52798039 2.3223708
-0.91076857 0.50144237 1.7707821
-0.88431442 0.48608547 1.410978
-0.86588794 0.47518322 1.1490422
-0.85843587 0.4677873 1.0404975
-0.84369475 0.45919243 0.85691494
-0.83202606 0.45265865 0.70561695
-0.8263554 0.44920832 0.57889915
-0.82354838 0.44750199 0.46700355
-0.80543405 0.4374823 0.35935616
-0.80734783 0.43816283 0.26587209
-0.80516738 0.43698236 0.1751913
-0.84832424 0.4638198 0.94227254
-0.83587486 0.45664233 0.77708322
-0.83014882 0.45333165 0.64143664
-0.82176745 0.44820473 0.52017462
-0.8214069 0.44782794 0.41475427
-0.8025099 0.43734914 0.31114873
-0.80431795 0.43833742 0.21997377
-0.80262911 0.4372412 0.13054556
-1.3465979 0.76930642 9.8591833
-1.2281559 0.6940372 6.8056264
-1.1165833 0.62386936 4.1361403
-0.99827826 0.55459845 2.7499266
-0.92849052 0.51415002 2.0122976
-0.8947165 0.49424115 1.5738657
-0.87727797 0.48401901 1.2762213
-1.2239666 0.68974745 5.4466734
-1.0460898 0.58497465 3.3135076
-0.9562906 0.53237414 2.3268721
-0.91129273 0.50588441 1.775048
-0.88261223 0.48916933 1.410978
-0.86719018 0.47984433 1.1527174
-0.85992318 0.47249845 1.0440021
-0.84208673 0.46213469 0.85691494
-0.83044088 0.45556021 0.70561695
-0.82866681 0.45421946 0.58121794
-0.82198125 0.45037398 0.46700355
-0.80810928 0.44259551 0.3607662
-0.80581343 0.44097832 0.26587209
-0.80363715 0.43979025 0.1751913
-0.84996974 0.46858093 0.94559801
-0.83781606 0.46150759 0.78002638
-0.82856137 0.45622665 0.64143664
-0.82019788 0.45107049 0.52017462
-0.8198387 0.45069245 0.41475427
-0.80523831 0.44248864 0.31232107
-0.80278301 0.44114235 0.21997377
-0.80109799 0.44004026 0.13054556
-1.3465972 0.77555382 9.8789396
-1.2266102 0.69882417 6.8105216
-1.1156993 0.62849587 4.1409121
-1.0014493 0.56094432 2.7637341
-0.92878121 0.51855564 2.0166867
-0.89298582 0.49736127 1.5738657
-0.87838399 0.48863667 1.2800589
-1.2248299 0.69587886 5.4611917
-1.0470477 0.59031796 3.3228931
-0.95632458 0.53677464 2.3313732
-0.91179705 0.51033634 1.7793139
-0.88352972 0.49371728 1.414968
-0.86550993 0.48286846 1.1527174
-0.85826862 0.47549728 1.0440021
-0.84046841 0.46507129 0.85691494
-0.83250457 0.46048021 0.70835841
-0.8270762 0.45710924 0.58121794
-0.82040417 0.45324051 0.46700355
-0.80655944 0.44541365 0.3607662
-0.80426925 0.44378847 0.26587209
-0.80645728 0.44499877 0.17563838
-0.84832889 0.47154501 0.94559801
-0.8362 0.46442932 0.78002638
-0.82696378 0.45911607 0.64143664
-0.81861842 0.45393077 0.52017462
-0.81826043 0.45355147 0.41475427
-0.80794036 0.44765249 0.31349337
-0.80123824 0.44394192 0.21997377
-0.79955709 0.44283393 0.13054556
-1.3458976 0.78142041 9.8937578
-1.2241633 0.70310158 6.8105216
-1.1160945 0.63386124 4.1504564
-1.0028872 0.56635833 2.772939
-0.92905235 0.52296948 2.0210757
-0.8936978 0.50185335 1.5779986
-0.87946844 0.49326789 1.2838963
-1.2256655 0.70202476 5.4757099
-1.047981 0.59567505 3.3322787
-0.95823413 0.54225415 2.3403757
-0.9100101 0.51351601 1.7793139
-0.88180095 0.49679837 1.414968
-0.86677384 0.48754889 1.1563925
-0.85971695 0.48022959 1.0475066
-0.84223902 0.46989882 0.86005342
-0.83089215 0.46338338 0.70835841
-0.82547557 0.45999351 0.58121794
-0.82286704 0.45835748 0.46887657
-0.80499977 0.44822636 0.3607662
-0.80271524 0.4465932 0.26587209
-0.8048991 0.44781113 0.17563838
-0.84993476 0.47632891 0.94892353
-0.83810043 0.46932039 0.78296953
-0.82911766 0.46410564 0.64396977
-0.81702888 0.4567855 0.52017462
-0.81667233 0.45640495 0.41475427
-0.8106162 0.45284057 0.31466568
-0.80400681 0.44915116 0.22066444
-0.79800642 0.44562218 0.13054556
-1.3451731 0.78729147 9.9085751
-1.2225827 0.7078808 6.8154168
-1.1164657 0.63923693 4.1599998
-1.0042996 0.57178915 2.7821441
-0.92930418 0.52739161 2.025465
-0.89194053 0.50496989 1.5779986
-0.87774128 0.49633482 1.2838963
-1.2253844 0.70755619 5.4853888
-1.0473926 0.60018766 3.3369715
-0.96011698 0.54775357 2.3493781
-0.91047883 0.5179792 1.7835798
-0.88268149 0.50136179 1.4189581
-0.86506671 0.49057153 1.1563925
-0.85803539 0.48322764 1.0475066
-0.84059364 0.47283593 0.86005342
-0.83291423 0.46833038 0.71109986
-0.82772684 0.46504205 0.58353674
-0.821262 0.46122706 0.46887657
-0.80343026 0.45103359 0.3607662
-0.80115145 0.44939244 0.26587209
-0.80767429 0.45305434 0.17608546
-0.8482669 0.47929284 0.94892353
-0.83645707 0.47224304 0.78296953
-0.82749259 0.46699697 0.64396977
-0.81938303 0.46186337 0.52227271
-0.81507421 0.45925289 0.41475427
-0.80903053 0.45566738 0.31466568
-0.80243409 0.45195493 0.22066444
-0.80079943 0.45085606 0.13074709
-1.3444241 0.793167 9.9233932
-1.2201043 0.71214408 6.8154168
-1.1168129 0.64462298 4.1695442
-1.0056862 0.57723671 2.7913492
-0.92953622 0.53182179 2.0298538
-0.89017248 0.50808024 1.5779986
-0.87878788 0.5009833 1.2877338
-1.2261659 0.7137267 5.499907
-1.0482795 0.60556686 3.3463571
-0.96008623 0.5521872 2.3538795
-0.90866524 0.52115417 1.7835798
-0.88354081 0.5059374 1.4229481
-0.86629206 0.49527097 1.1600677
-0.8594445 0.48798072 1.0510111
-0.838938 0.47576725 0.86005342
-0.83127439 0.47123498 0.71109986
-0.82609844 0.46792853 0.58353674
-0.82368112 0.46637523 0.47074962
-0.80185091 0.45383534 0.3607662
-0.79957789 0.45218626 0.26587209
-0.80608791 0.4558709 0.17608546
-0.84983295 0.48409912 0.95224905
-0.83831626 0.4771595 0.78591269
-0.8258574 0.46988261 0.64396977
-0.81776583 0.46472073 0.52227271
-0.81346613 0.46209523 0.41475427
-0.80743504 0.45848864 0.31466568
-0.80085158 0.45475319 0.22066444
-0.7992208 0.4536486 0.13074709
-1.342983 0.79864973 9.9332724
-1.2176111 0.71639866 6.8154168
-1.1171362 0.65001911 4.1790881
-1.005356 0.58172226 2.7959518
-0.92974871 0.53626001 2.0342431
-0.89083248 0.51258808 1.5821315
-0.8798126 0.50564504 1.2915714
-1.225835 0.71927494 5.5095859
-1.0476506 0.61009097 3.3510499
-0.96191925 0.55771935 2.3628819
-0.90909827 0.52562845 1.7878458
-0.88176936 0.50901848 1.4229481
-0.86455798 0.49829188 1.1600677
-0.8608309 0.49274957 1.0545157
-0.84065109 0.48062482 0.8631919
-0.82962441 0.47413379 0.71109986
-0.82830679 0.4730061 0.58585554
-0.82204819 0.46924758 0.47074962
-0.80026186 0.45663157 0.3607662
-0.80226195 0.45740762 0.26680472
-0.80881792 0.46114853 0.17653254
-0.84813792 0.48706266 0.95224905
-0.83664554 0.48008287 0.78591269
-0.82795155 0.47490752 0.64650303
-0.81613874 0.46757242 0.52227271
-0.81594586 0.46727878 0.41639778
-0.80161136 0.45888945 0.31349337
-0.80355698 0.46000621 0.22135513
-0.7976324 0.45643565 0.13074709
-1.3415196 0.80413193 9.9431496
-1.2151029 0.72064459 6.8154168
-1.1174355 0.65542549 4.188632
-1.0066942 0.58719707 2.8051567
-0.92994148 0.5407061 2.0386319
-0.89147192 0.51710665 1.5862645
-0.88081545 0.51032001 1.2954088
-1.2265621 0.72546959 5.5241041
-1.0484906 0.61549169 3.3604355
-0.96372533 0.56327099 2.3718843
-0.90951103 0.53011209 1.7921119
-0.88259149 0.51360899 1.4269381
-0.86574453 0.50300997 1.1637428
-0.86219442 0.49753404 1.0580202
-0.83896834 0.48355633 0.8631919
-0.83158737 0.47911435 0.71384138
-0.82665068 0.47589454 0.58585554
-0.82040519 0.47211421 0.47074962
-0.80282116 0.46181419 0.36217624
-0.80066037 0.46020523 0.26680472
-0.80720329 0.46396899 0.17653254
-0.84966385 0.49189112 0.95557451
-0.83846343 0.48502445 0.78885585
-0.82628876 0.47779471 0.64650303
-0.81843168 0.47268838 0.52437073
-0.81430984 0.4701241 0.41639778
-0.80000466 0.46168482 0.31349337
-0.8019464 0.46280837 0.22135513
-0.79603422 0.45921713 0.13074709
-1.3393695 0.80921167 9.9480896
-1.2125801 0.72488171 6.8154168
-1.1189953 0.6616016 4.2029481
-1.0080063 0.59268826 2.8143618
-0.93011451 0.54516017 2.0430212
-0.8920905 0.52163589 1.5903975
-0.87902874 0.51339149 1.2954088
-1.2272612 0.73167819 5.5386224
-1.0478209 0.62002683 3.365128
-0.96362877 0.56773674 2.3763855
-0.90990359 0.53460491 1.7963778
-0.88339227 0.51821154 1.4309281
-0.86398345 0.50602889 1.1637428
-0.86661744 0.50412732 1.0650293
-0.83727527 0.4864819 0.8631919
-0.82990986 0.48201424 0.71384138
-0.82881564 0.48100081 0.58817434
-0.81875223 0.47497508 0.47074962
-0.80120426 0.46461377 0.36217624
-0.79904908 0.46299723 0.26680472
-0.80557883 0.46678382 0.17653254
-0.84794164 0.49485397 0.95557451
-0.83676529 0.4879483 0.78885585
-0.82834005 0.48284712 0.64903617
-0.81677669 0.47554237 0.52437073
-0.81266385 0.47296369 0.41639778
-0.79838818 0.46447453 0.31349337
-0.80032599 0.46560484 0.22135513
-0.79874521 0.46450454 0.13094862
-1.3372002 0.81428635 9.9530287
-1.2091702 0.72858429 6.8105216
-1.1192434 0.6670323 4.212492
-1.007612 0.5971995 2.8189645
-0.93026775 0.54962194 2.0474102
-0.89026421 0.52474666 1.5903975
-0.87999338 0.5180831 1.2992463
-1.2279315 0.73790038 5.5531406
-1.0486141 0.62544888 3.3745136
-0.96538442 0.57332045 2.3853879
-0.91027588 0.53910697 1.8006437
-0.88157797 0.52129197 1.4309281
-0.86513102 0.51076537 1.167418
-0.86792874 0.50895345 1.0685339
-0.83893055 0.49136886 0.86633033
-0.83183068 0.487021 0.71658283
-0.82713163 0.48389095 0.58817434
-0.82109106 0.48017049 0.47262263
-0.79957759 0.46740767 0.36217624
-0.80166972 0.46826127 0.26773736
-0.80394453 0.46959299 0.17653254
-0.84620917 0.49781081 0.95557451
-0.8350569 0.49086615 0.78885585
-0.82664961 0.48573563 0.64903617
-0.81902587 0.48068786 0.52646881
-0.81100792 0.47579756 0.41639778
