# .PCD v0.7 - Point Cloud Data file format
VERSION 0.7
FIELDS x y z
SIZE 4 4 4
TYPE F F F
COUNT 1 1 1
WIDTH 1392
HEIGHT 1
VIEWPOINT 0 0 0 1 0 0 0
POINTS 1392
DATA ascii
-1.0802399 -0.22976199 3.5778182
-1.0171094 -0.21890269 2.5105953
-0.96237206 -0.20851073 1.8718469
-0.93000853 -0.20250309 1.470542
-0.91939586 -0.20068677 1.2033087
-0.47424576 -0.072654121 8.1358318
-0.91964966 -0.17620239 8.6899996
-1.1648531 -0.24331962 4.6191316
-1.0373633 -0.22024877 2.9380865
-0.97440696 -0.20881422 2.1243174
-0.94240576 -0.20314308 1.6470701
-0.92150682 -0.19930002 1.3231975
-0.90560657 -0.19651102 1.0828893
-0.90600491 -0.1994113 0.9914338
-0.8885898 -0.19605651 0.81611502
-0.88816082 -0.19611916 0.68094373
-0.87943786 -0.19450739 0.55803001
-0.86986375 -0.1925441 0.44827321
-0.85741466 -0.1899405 0.3480759
-0.85840887 -0.19046982 0.25841114
-0.85545993 -0.18981287 0.17161468
-0.89711213 -0.19613636 0.899041
-0.88699394 -0.19424123 0.74470848
-0.87761396 -0.19234274 0.61357164
-0.87434912 -0.19209926 0.50129217
-0.88144124 -0.19381326 0.40324971
-0.85461241 -0.18806568 0.30177018
-0.85591084 -0.18834876 0.21444833
-0.85357583 -0.18798588 0.12893331
-1.1292963 -0.22492988 7.3204045
-1.2894444 -0.26303491 6.3503704
-1.0795743 -0.2256846 3.5730462
-1.0159559 -0.21494681 2.5059927
-0.963094 -0.20515014 1.8718469
-0.93070972 -0.19925551 1.470542
-0.91695684 -0.19680382 1.1994712
-0.47363973 -0.07087189 8.1208572
-0.92130697 -0.17318761 8.6999426
-1.164464 -0.2389995 4.6142926
-1.0364363 -0.21627404 2.9333935
-0.97299975 -0.20496313 2.1198163
-0.94055766 -0.19931176 1.642804
-0.91924948 -0.19545566 1.3192074
-0.90297133 -0.19264145 1.0792141
-0.90669543 -0.19624755 0.9914338
-0.88926876 -0.19295356 0.81611502
-0.88475376 -0.19213051 0.67820227
-0.87578285 -0.19049497 0.55571121
-0.87053055 -0.18950655 0.44827321
-0.85807252 -0.18694639 0.3480759
-0.85906845 -0.18747224 0.25841114
-0.85611725 -0.1868256 0.17161468
-0.8941409 -0.19221906 0.89571548
-0.88766652 -0.19114386 0.74470848
-0.87827998 -0.18927813 0.61357164
-0.87501436 -0.18904606 0.50129217
-0.88211232 -0.19073528 0.40324971
-0.85526365 -0.18508138 0.30177018
-0.85656303 -0.18535993 0.21444833
-0.85422683 -0.1850052 0.12893331
-1.129312 -0.22083761 7.3154655
-1.2873595 -0.25793272 6.3356848
-1.0788933 -0.22161464 3.5682743
-1.0147872 -0.21100163 2.5013902
-0.96146011 -0.20129652 1.867458
-0.92864585 -0.19542621 1.466409
-0.91763824 -0.19360186 1.1994712
-0.47474143 -0.069341518 8.1358318
-0.9229545 -0.17016342 8.7098866
-1.164059 -0.23468508 4.6094532
-1.037185 -0.21265487 2.9333935
-0.97370929 -0.20156547 2.1198163
-0.94124764 -0.1960274 1.642804
-0.91992617 -0.19224568 1.3192074
-0.9036383 -0.18948832 1.0792141
-0.90737492 -0.19308139 0.9914338
-0.88993686 -0.18984824 0.81611502
-0.88541901 -0.18904096 0.67820227
-0.87644237 -0.18743676 0.55571121
-0.87118679 -0.18646666 0.44827321
-0.85402912 -0.18294528 0.34666586
-0.85971767 -0.1844724 0.25841114
-0.8567642 -0.18383606 0.17161468
-0.89480644 -0.18909676 0.89571548
-0.8843739 -0.18720722 0.74176532
-0.87893534 -0.1862112 0.61357164
-0.87566894 -0.18599053 0.50129217
-0.88277274 -0.18765497 0.40324971
-0.85590446 -0.18209483 0.30177018
-0.85720485 -0.18236884 0.21444833
-0.84998101 -0.18098184 0.12873179
-1.1293129 -0.21674797 7.3105259
-1.2862538 -0.25304466 6.3258939
-1.0796603 -0.21784727 3.5682743
-1.0155176 -0.20745808 2.5013902
-0.96215695 -0.19793916 1.867458
-0.92932236 -0.19218345 1.466409
-0.91830844 -0.19039752 1.1994712
-0.47126403 -0.067162275 8.07094
-0.92459208 -0.16712984 8.7198296
-1.163638 -0.23037638 4.6046133
-1.0362294 -0.20869267 2.9287009
-0.97227359 -0.19773172 2.115315
-0.93937105 -0.19221801 1.6385381
-0.92059159 -0.18903337 1.3192074
-0.90429419 -0.1863329 1.0792141
-0.90804338 -0.18991289 0.9914338
-0.89059418 -0.18674062 0.81611502
-0.88607353 -0.18594913 0.67820227
-0.87709141 -0.18437625 0.55571121
-0.87183237 -0.18342452 0.44827321
-0.85466254 -0.17996305 0.34666586
-0.85554981 -0.18045653 0.25747854
-0.85252786 -0.17981653 0.1711676
-0.89546102 -0.18597217 0.89571548
-0.88502198 -0.18411905 0.74176532
-0.87535971 -0.18226342 0.61103851
-0.87631279 -0.18293275 0.50129217
-0.88342237 -0.18457238 0.40324971
-0.8565349 -0.17910606 0.30177018
-0.85783625 -0.17937553 0.21444833
-0.85060757 -0.17801376 0.12873179
-1.1300626 -0.21280462 7.3105259
-1.28413 -0.2479746 6.3112087
-1.0789498 -0.21378727 3.5635023
-1.01432 -0.20352784 2.4967875
-0.96049434 -0.19410518 1.8630688
-0.92998755 -0.18893833 1.466409
-0.91582668 -0.18655129 1.1956338
-0.47492796 -0.06598641 8.1308403
-0.92516983 -0.16390139 8.7198296
-1.1632012 -0.2260735 4.5997739
-1.0369515 -0.20507428 2.9287009
-0.97082311 -0.19391046 2.1108139
-0.9400363 -0.18893781 1.6385381
-0.91829205 -0.18522316 1.3152174
-0.90493912 -0.18317518 1.0792141
-0.90520746 -0.18602435 0.98792928
-0.8912406 -0.18363075 0.81611502
-0.8867172 -0.18285501 0.67820227
-0.87339139 -0.18041746 0.55339235
-0.86792737 -0.17944163 0.4464002
-0.85058796 -0.17600667 0.34525582
-0.85617453 -0.177469 0.25747854
-0.85315031 -0.17683955 0.1711676
-0.89610475 -0.18284529 0.89571548
-0.88565934 -0.18102862 0.74176532
-0.87599051 -0.17920673 0.61103851
-0.87694603 -0.17987272 0.50129217
-0.88406128 -0.18148753 0.40324971
-0.85715485 -0.1761151 0.30177018
-0.85845715 -0.17638002 0.21444833
-0.85122377 -0.17504349 0.12873179
-1.1300344 -0.20871773 7.3055863
-1.2829869 -0.24311183 6.3014178
-1.0796895 -0.21001974 3.5635023
-1.0150243 -0.19998597 2.4967875
-0.96116608 -0.19075124 1.8630688
-0.92788166 -0.18514048 1.462276
-0.91647232 -0.18335333 1.1956338
-0.47773087 -0.06467139 8.175766
-0.92731196 -0.16094367 8.7347431
-1.1627485 -0.22177647 4.5949349
-1.0359669 -0.20112468 2.9240079
-0.97149402 -0.19052048 2.1108139
-0.93813139 -0.18515055 1.6342722
-0.91893297 -0.1820166 1.3152174
-0.90224791 -0.17935443 1.0755389
-0.9058513 -0.18286346 0.98792928
-0.88806117 -0.1797466 0.81297654
-0.88735008 -0.17975868 0.67820227
-0.87401581 -0.17736767 0.55339235
-0.86854845 -0.1764109 0.4464002
-0.85119718 -0.17303649 0.34525582
-0.85678881 -0.17447931 0.25747854
-0.85376245 -0.17386042 0.1711676
-0.89673752 -0.17971618 0.89571548
-0.88232291 -0.17714052 0.73882216
-0.87661076 -0.17614786 0.61103851
-0.8775686 -0.17681052 0.50129217
-0.88468945 -0.17840049 0.40324971
-0.85299987 -0.17216042 0.30059788
-0.85906762 -0.17338237 0.21444833
-0.85182953 -0.1720711 0.12873179
-1.1299914 -0.20463364 7.3006473
-1.2818255 -0.23826011 6.2916274
-1.0789497 -0.20596993 3.5587301
-1.013798 -0.19607089 2.4921851
-0.96182609 -0.18739501 1.8630688
-0.92852229 -0.18190044 1.462276
-0.91710675 -0.18015312 1.1956338
-0.47967145 -0.063226186 8.2057152
-0.9247148 -0.15717129 8.704915
-1.16228 -0.21748538 4.5900955
-1.0366626 -0.19750726 2.9240079
-0.97215319 -0.18712817 2.1108139
-0.93877196 -0.18187474 1.6342722
-0.91660488 -0.17823285 1.3112274
-0.90286845 -0.17620391 1.0755389
-0.90298587 -0.17900704 0.98442477
-0.8886832 -0.17664559 0.81297654
-0.88797212 -0.17666015 0.67820227
-0.87462962 -0.17431571 0.55339235
-0.86915892 -0.17337802 0.4464002
-0.85179597 -0.17006421 0.34525582
-0.85739267 -0.1714875 0.25747854
-0.85436416 -0.17087917 0.1711676
-0.89735937 -0.17658488 0.89571548
-0.88293588 -0.17405955 0.73882216
-0.87722027 -0.17308684 0.61103851
-0.87372816 -0.17286539 0.49919412
-0.88530678 -0.17531125 0.40324971
-0.85359555 -0.16918184 0.30059788
-0.8596676 -0.1703826 0.21444833
-0.85242504 -0.16909662 0.12873179
-1.1291689 -0.20041682 7.2907691
-1.2806458 -0.23341943 6.281837
-1.0796621 -0.20220244 3.5587301
-1.0125568 -0.19216679 2.4875827
-0.96012199 -0.18358687 1.8586799
-0.9263882 -0.17812704 1.4581431
-0.91458267 -0.17634408 1.1917962
-0.4735879 -0.060756516 8.0958986
-0.93314582 -0.15525116 8.7794867
-1.1617957 -0.21320026 4.5852556
-1.0373456 -0.19388743 2.9240079
-0.97280043 -0.18373358 2.1108139
-0.93683892 -0.17810978 1.6300063
-0.91722143 -0.17503223 1.3112274
-0.90347803 -0.17305124 1.0755389
-0.90360522 -0.17585395 0.98442477
-0.88929439 -0.17354244 0.81297654
-0.88447946 -0.17275804 0.67546082
-0.87523276 -0.17126161 0.55339235
-0.86975884 -0.17034304 0.4464002
-0.85238439 -0.16708985 0.34525582
-0.85798603 -0.1684936 0.25747854
-0.85495538 -0.16789584 0.1711676
-0.89430434 -0.17274348 0.89239001
-0.88353807 -0.17097647 0.73882216
-0.87358701 -0.16920413 0.60850531
-0.87432623 -0.16981445 0.49919412
-0.88591331 -0.17221989 0.40324971
-0.85418093 -0.16620122 0.30059788
-0.86025709 -0.16738078 0.21444833
-0.84810627 -0.1651651 0.12853025
-1.1290959 -0.19634111 7.2858295
-1.2804505 -0.22876883 6.2769423
-1.0788933 -0.19816303 3.5539584
-1.0132214 -0.18863115 2.4875827
-0.96075696 -0.1802343 1.8586799
-0.92700428 -0.17489225 1.4581431
-0.91519272 -0.17315052 1.1917962
-0.47265097 -0.05896249 8.0759325
-0.93526059 -0.15224917 8.7944021
-1.1600586 -0.20869878 4.5755773
-1.0397137 -0.19057618 2.9287009
-0.97343588 -0.18033676 2.1108139
-0.93745494 -0.17483853 1.6300063
-0.91486496 -0.17127517 1.3072374
-0.90407664 -0.16989645 1.0755389
-0.90421355 -0.17269871 0.98442477
-0.88989472 -0.17043716 0.81297654
-0.88507712 -0.16966958 0.67546082
-0.87582523 -0.16820544 0.55339235
-0.86579561 -0.16643092 0.44452715
-0.85296249 -0.16411345 0.34525582
-0.85856891 -0.16549765 0.25747854
-0.85553622 -0.16491047 0.1711676
-0.89490187 -0.16962072 0.89239001
-0.88412946 -0.16789132 0.73882216
-0.87417227 -0.16615371 0.60850531
-0.87491369 -0.16676146 0.49919412
-0.88650912 -0.16912642 0.40324971
-0.85475588 -0.16321856 0.30059788
-0.86083609 -0.1643769 0.21444833
-0.84867764 -0.16220364 0.12853025
-1.1282424 -0.19213817 7.2759514
-1.2792352 -0.22394699 6.2671514
-1.0781093 -0.19413143 3.5491862
-1.0119518 -0.18474254 2.4829803
-0.95902467 -0.17644635 1.8542906
-0.92484206 -0.17114349 1.4540101
-0.91264009 -0.16937019 1.1879587
-1.1595421 -0.20443007 4.5707378
-1.0403726 -0.18694574 2.9287009
-0.97191745 -0.17654885 2.1063125
-0.93805951 -0.17156513 1.6300063
-0.91545731 -0.16808064 1.3072374
-0.9046641 -0.1667396 1.0755389
-0.90130562 -0.16888472 0.9809202
-0.88665891 -0.16661115 0.80983812
-0.8815546 -0.16580629 0.67271936
-0.87640709 -0.16514722 0.55339235
-0.86637121 -0.16340773 0.44452715
-0.85353011 -0.16113506 0.34525582
-0.85914141 -0.16249967 0.25747854
-0.8561067 -0.16192308 0.1711676
-0.89181757 -0.16581357 0.88906449
-0.88471013 -0.1648041 0.73882216
-0.87474698 -0.16310127 0.60850531
-0.87549043 -0.16370642 0.49919412
-0.88709402 -0.1660309 0.40324971
-0.8505429 -0.15933895 0.29942557
-0.86140466 -0.16137102 0.21444833
-0.84923863 -0.1592402 0.12853025
-1.1281399 -0.18807112 7.2710118
-1.2790056 -0.21930836 6.2622561
-1.0773103 -0.19010773 3.5444143
-1.0106673 -0.18086508 2.4783776
-0.95963472 -0.17309766 1.8542906
-0.92543381 -0.16791414 1.4540101
-0.91322571 -0.16618346 1.1879587
-1.1577712 -0.19995382 4.5610585
-1.0393192 -0.18301393 2.9240079
-0.9725278 -0.17315516 2.1063125
-0.93865269 -0.16828965 1.6300063
-0.91603839 -0.16488408 1.3072374
-0.90524065 -0.16358073 1.0755389
-0.90188962 -0.16573754 0.9809202
-0.88723505 -0.16351512 0.80983812
-0.88212806 -0.16272809 0.67271936
-0.87697816 -0.16208698 0.55339235
-0.86693639 -0.16038254 0.44452715
-0.85408741 -0.1581547 0.34525582
-0.85970342 -0.15949972 0.25747854
-0.85177028 -0.15802535 0.17072052
-0.89239091 -0.16269952 0.88906449
-0.88528001 -0.16171488 0.73882216
-0.87531096 -0.16004685 0.60850531
-0.87159246 -0.15983088 0.49709606
-0.88766825 -0.16293335 0.40324971
-0.85109389 -0.15636903 0.29942557
-0.85709214 -0.15746838 0.21375765
-0.84978938 -0.15627484 0.12853025
-1.1280226 -0.18400712 7.2660728
-1.2787592 -0.21467406 6.2573614
-1.0764964 -0.186092 3.5396423
-1.0112926 -0.1773361 2.4783776
-0.95787472 -0.16933015 1.8499017
-0.9260143 -0.16468275 1.4540101
-0.91380024 -0.16299468 1.1879587
-1.1559833 -0.19549242 4.5513802
-1.0399517 -0.17938492 2.9240079
-0.97098178 -0.16938545 2.1018114
-0.93923438 -0.16501211 1.6300063
-0.91364092 -0.16116226 1.3032473
-0.90246785 -0.15982883 1.0718638
-0.90246266 -0.16258836 0.9809202
-0.88397014 -0.15972516 0.80669963
-0.88269067 -0.1596479 0.67271936
-0.87317979 -0.15823498 0.55107355
-0.86292946 -0.15652806 0.44265413
-0.85463428 -0.15517241 0.34525582
-0.86025494 -0.15649782 0.25747854
-0.85231668 -0.15505116 0.17072052
-0.8929534 -0.15958349 0.88906449
-0.88186038 -0.15791139 0.735879
-0.87586427 -0.15699047 0.60850531
-0.87214506 -0.15678748 0.49709606
-0.88823158 -0.15983382 0.40324971
-0.8516345 -0.1533972 0.29942557
-0.85763657 -0.15447561 0.21375765
-0.85032964 -0.15330759 0.12853025
-1.1271234 -0.17982404 7.2561941
-1.2774912 -0.20987925 6.2475705
-1.0756676 -0.18208428 3.5348704
-1.00998 -0.17347445 2.4737751
-0.95845997 -0.16598551 1.8499017
-0.92658353 -0.16144936 1.4540101
-0.91120619 -0.1592523 1.1841213
-1.1541784 -0.19104593 4.5417008
-1.03887 -0.17546654 2.9193153
-0.96942121 -0.16562863 2.0973101
-0.93723446 -0.16129047 1.6257404
-0.91419792 -0.15797208 1.3032473
-0.90302026 -0.15667763 1.0718638
-0.90302467 -0.15943718 0.9809202
-0.88452226 -0.15663855 0.80669963
-0.88324261 -0.15656576 0.67271936
-0.87372684 -0.15518606 0.55107355
-0.86347061 -0.15351492 0.44265413
-0.85044789 -0.15134782 0.34384581
-0.86079597 -0.15349402 0.25747854
-0.85285276 -0.15207507 0.17072052
-0.89350498 -0.15646553 0.88906449
-0.88240623 -0.15483215 0.735879
-0.87640697 -0.15393217 0.60850531
-0.87268704 -0.15374216 0.49709606
-0.88878405 -0.15673234 0.40324971
-0.8521648 -0.15042351 0.29942557
-0.85329384 -0.15062018 0.21306697
-0.85085964 -0.15033844 0.12853025
-1.1277442 -0.17588854 7.2561941
-1.2772106 -0.20525731 6.2426753
-1.0748241 -0.17808457 3.5300984
-1.0105793 -0.16994789 2.4737751
-0.95903355 -0.16263886 1.8499017
-0.92436755 -0.15774083 1.4498771
-0.91175652 -0.15607062 1.1841213
-1.1523567 -0.18661444 4.5320225
-1.0377735 -0.17155787 2.9146225
-0.96999341 -0.16224369 2.0973101
-0.93779176 -0.15801792 1.6257404
-0.91474372 -0.15477997 1.3032473
-0.90021944 -0.15295686 1.0681885
-0.90006167 -0.15567645 0.97741568
-0.88506365 -0.15355003 0.80669963
-0.87966394 -0.15276639 0.66997784
-0.87426323 -0.15213524 0.55107355
-0.86400121 -0.15049993 0.44265413
-0.85097098 -0.14837828 0.34384581
-0.86132652 -0.15048835 0.25747854
-0.85337836 -0.14909713 0.17072052
-0.89404571 -0.15334566 0.88906449
-0.87895763 -0.15106651 0.73293579
-0.8726905 -0.15014122 0.60597211
-0.86874598 -0.14992328 0.49499801
-0.88932574 -0.15362895 0.40324971
-0.85268468 -0.14744797 0.29942557
-0.85381436 -0.14764071 0.21306697
-0.85137922 -0.14736746 0.12853025
-1.127583 -0.17183405 7.251255
-1.2759076 -0.200482 6.2328849
-1.0739657 -0.17409301 3.5253265
-1.0092386 -0.16610222 2.4691725
-0.95723277 -0.15889822 1.8455126
-0.92491251 -0.15451322 1.4498771
-0.91229582 -0.15288706 1.1841213
-1.1517595 -0.1823944 4.5271826
-1.0366625 -0.16765904 2.9099298
-0.96840549 -0.1585054 2.092809
-0.93833756 -0.15474345 1.6257404
-0.91230565 -0.15109383 1.2992573
-0.90074784 -0.14981356 1.0681885
-0.9005996 -0.1525337 0.97741568
-0.88559425 -0.15045966 0.80669963
-0.8801918 -0.14969486 0.66997784
-0.87478894 -0.14908256 0.55107355
-0.86452132 -0.14748307 0.44265413
-0.85148376 -0.14540693 0.34384581
-0.85700464 -0.14665233 0.2565459
-0.84898496 -0.14527744 0.17027344
-0.89457554 -0.15022393 0.88906449
-0.87947959 -0.14799745 0.73293579
-0.8732093 -0.14709404 0.60597211
-0.86926401 -0.14688987 0.49499801
-0.88520056 -0.14973618 0.4016062
-0.85319418 -0.14447066 0.29942557
-0.85432458 -0.14465944 0.21306697
-0.85188848 -0.1443947 0.12853025
-1.1274074 -0.16778283 7.2463155
-1.2745868 -0.1957183 6.2230945
-1.0730925 -0.1701096 3.5205543
-1.0098122 -0.1625783 2.4691725
-0.95778155 -0.1555559 1.8455126
-0.92266899 -0.15082994 1.4457443
-0.91282392 -0.14970163 1.1841213
-1.151147 -0.17818081 4.5223432
-1.0372415 -0.16403939 2.9099298
-0.96895289 -0.15512405 2.092809
-0.93887204 -0.1514671 1.6257404
-0.91282755 -0.14790836 1.2992573
-0.90126526 -0.14666846 1.0681885
-0.90112656 -0.14938909 0.97741568
-0.88611406 -0.14736743 0.80669963
-0.88070899 -0.1466215 0.66997784
-0.87530398 -0.14602807 0.55107355
-0.86503083 -0.14446443 0.44265413
-0.85198611 -0.14243381 0.34384581
-0.8575114 -0.14365993 0.2565459
-0.84948695 -0.14231305 0.17027344
-0.89509445 -0.14710037 0.88906449
-0.87999082 -0.14492659 0.73293579
-0.87371737 -0.14404508 0.60597211
-0.86977142 -0.14385468 0.49499801
-0.88571781 -0.14664532 0.4016062
-0.85369331 -0.14149158 0.29942557
-0.8548243 -0.14167641 0.21306697
-0.85238731 -0.14142017 0.12853025
-1.1272173 -0.16373493 7.2413759
-1.2732483 -0.19096628 6.213304
-1.0736798 -0.16636276 3.5205543
-1.0103736 -0.1590524 2.4691725
-0.95595324 -0.15183617 1.8411236
-0.92318988 -0.1476083 1.4457443
-0.91334087 -0.14651436 1.1841213
-1.150519 -0.17397372 4.5175037
-1.0378077 -0.16041774 2.9099298
-0.9694885 -0.15174083 2.092809
-0.93681884 -0.1477827 1.6214744
-0.91333824 -0.14472111 1.2992573
-0.90177178 -0.14352156 1.0681885
-0.89812225 -0.14567187 0.97391111
-0.88278127 -0.14364843 0.80356121
-0.88121539 -0.14354636 0.66997784
-0.87580842 -0.1429718 0.55107355
-0.86552984 -0.14144403 0.44265413
-0.85247809 -0.13945895 0.34384581
-0.85800761 -0.14066578 0.2565459
-0.84997851 -0.13934693 0.17027344
-0.89560252 -0.143975 0.88906449
-0.88049138 -0.14185397 0.73293579
-0.87421489 -0.14099437 0.60597211
-0.87026829 -0.14081773 0.49499801
-0.88622433 -0.14355271 0.4016062
-0.854182 -0.13851076 0.29942557
-0.85042548 -0.13789907 0.21237628
-0.85287577 -0.13844393 0.12853025
-1.1277819 -0.1597992 7.2413759
-1.2728996 -0.18637331 6.2084088
-1.072778 -0.16239068 3.5157826
-1.0089917 -0.15522772 2.46457
-0.95647746 -0.14849834 1.8411236
-0.9236995 -0.14438488 1.4457443
-0.91068023 -0.14282887 1.1802837
-1.1498759 -0.16977322 4.5126648
-1.0383614 -0.15679413 2.9099298
-0.96786028 -0.14802685 2.0883076
-0.93732899 -0.1445117 1.6214744
-0.91383791 -0.14153208 1.2992573
-0.90226728 -0.14037292 1.0681885
-0.89862525 -0.14253595 0.97391111
-0.88327736 -0.14056608 0.80356121
-0.87758172 -0.13981174 0.66723639
-0.87630212 -0.13991378 0.55107355
-0.8660183 -0.13842189 0.44265413
-0.85295969 -0.1364824 0.34384581
-0.85849339 -0.13766992 0.2565459
-0.84554261 -0.13559061 0.16982636
-0.89609963 -0.14084789 0.88906449
-0.88098115 -0.13877963 0.73293579
-0.87470174 -0.13794193 0.60597211
-0.87075454 -0.13777907 0.49499801
-0.88205594 -0.13971962 0.39996269
-0.85466027 -0.13552827 0.29942557
-0.85090166 -0.13492969 0.21237628
-0.8533538 -0.13546599 0.12853025
-1.1283329 -0.15586154 7.2413759
-1.2715263 -0.18164127 6.1986179
-1.0733383 -0.15864502 3.5157826
-1.0095273 -0.15170474 2.46457
-0.95462203 -0.14479975 1.8367344
-0.9214161 -0.14073502 1.4416113
-0.91117322 -0.13964914 1.1802837
-1.1492172 -0.16557929 4.5078249
-1.0389024 -0.15316862 2.9099298
-0.96837103 -0.14464748 2.0883076
-0.93524873 -0.14085074 1.6172085
-0.91432637 -0.13834132 1.2992573
-0.89940012 -0.13671328 1.0645134
-0.89911735 -0.13939831 0.97391111
-0.88376266 -0.137482 0.80356121
-0.87806445 -0.13674755 0.66723639
-0.87678516 -0.13685407 0.55107355
-0.86649621 -0.1353981 0.44265413
-0.85343099 -0.1335042 0.34384581
-0.85896873 -0.13467237 0.2565459
-0.84601074 -0.13263829 0.16982636
-0.89289528 -0.13715237 0.88573903
-0.88146019 -0.13570358 0.73293579
-0.87091738 -0.13423128 0.60343897
-0.87123019 -0.13473873 0.49499801
-0.88253832 -0.13663982 0.39996269
-0.85512817 -0.13254413 0.29942557
-0.85136747 -0.13195866 0.21237628
-0.85382146 -0.1324864 0.12853025
-1.12887 -0.15192197 7.2413759
-1.2701358 -0.17692111 6.188828
-1.0738854 -0.15489739 3.5157826
-1.0081178 -0.14789653 2.4599674
-0.9551217 -0.14146662 1.8367344
-0.9219017 -0.13751779 1.4416113
-0.91165519 -0.1364677 1.1802837
-1.1485435 -0.16139205 4.5029855
-1.0394307 -0.14954124 2.9099298
-0.96671593 -0.14095248 2.0838065
-0.93573469 -0.13758525 1.6172085
-0.91182274 -0.1347087 1.2952673
-0.89987183 -0.13357295 1.0645134
-0.89959842 -0.13625894 0.97391111
-0.88423717 -0.13439626 0.80356121
-0.8785364 -0.13368171 0.66723639
-0.87725753 -0.13379268 0.55107355
-0.86238068 -0.13167299 0.44078106
-0.84914982 -0.12979956 0.34243578
-0.85943359 -0.1316732 0.2565459
-0.84646857 -0.12968436 0.16982636
-0.89336866 -0.13403474 0.88573903
-0.8819285 -0.13262589 0.73293579
-0.87138069 -0.1311904 0.60343897
-0.87169522 -0.13169675 0.49499801
-0.88300991 -0.13355835 0.39996269
-0.85558558 -0.12955835 0.29942557
-0.85182291 -0.12898603 0.21237628
-0.85427868 -0.1295052 0.12853025
-1.1293935 -0.14798056 7.2413759
-1.2697365 -0.17234966 6.1839323
-1.0744196 -0.15114789 3.5157826
-1.006694 -0.14410001 2.4553649
-0.95323926 -0.13778932 1.8323452
-0.92237616 -0.13429892 1.4416113
-0.91212595 -0.1332846 1.1802837
-1.1490999 -0.15738191 4.5029855
-1.0382372 -0.14567246 2.905237
-0.96720207 -0.13757716 2.0838065
-0.93362767 -0.13394792 1.6129426
-0.91228741 -0.13152502 1.2952673
-0.90033263 -0.13043101 1.0645134
-0.90006858 -0.13311793 0.97391111
-0.88470089 -0.13130887 0.80356121
-0.87486166 -0.12999979 0.66449493
-0.87333775 -0.1300772 0.54875475
-0.86283505 -0.12866192 0.44078106
-0.84959769 -0.12683469 0.34243578
-0.85502982 -0.12794548 0.2556133
-0.84691614 -0.12672883 0.16982636
-0.89013666 -0.13037457 0.88241351
-0.87838691 -0.1289596 0.72999263
-0.87183326 -0.12814792 0.60343897
-0.87214959 -0.12865315 0.49499801
-0.88347071 -0.13047527 0.39996269
-0.85603261 -0.12657101 0.29942557
-0.85226792 -0.12601183 0.21237628
-0.8547256 -0.12652242 0.12853025
-1.1291324 -0.14393927 7.2364373
-1.2693208 -0.16778313 6.1790371
-1.0734618 -0.14719395 3.5110104
-1.0052558 -0.14031525 2.4507625
-0.95371443 -0.13446106 1.8323452
-0.92283934 -0.13107842 1.4416113
-0.91258568 -0.13009988 1.1802837
-1.1483961 -0.15320382 4.4981461
-1.0387394 -0.14204744 2.905237
-0.96552002 -0.13390131 2.0793054
-0.93408954 -0.13068813 1.6129426
-0.91274095 -0.12833975 1.2952673
-0.90078247 -0.12728746 1.0645134
-0.90052778 -0.12997529 0.97391111
-0.88515383 -0.1282199 0.80356121
-0.87531012 -0.12694515 0.66449493
-0.87378645 -0.12702788 0.54875475
-0.86327887 -0.12564927 0.44078106
-0.85003525 -0.12386827 0.34243578
-0.85547119 -0.12496009 0.2556133
-0.84735334 -0.12377178 0.16982636
-0.89058638 -0.1272666 0.88241351
-0.87883168 -0.12589265 0.72999263
-0.86800814 -0.124492 0.60090578
-0.86810112 -0.12496147 0.49289995
-0.88392079 -0.12739058 0.39996269
-0.85165852 -0.12288804 0.29825324
-0.85270262 -0.12303609 0.21237628
-0.85516202 -0.1235381 0.12853025
-1.1296279 -0.13999699 7.2364373
-1.2688891 -0.16322164 6.1741424
-1.073969 -0.14344598 3.5110104
-1.0038036 -0.13654228 2.4461598
-0.95180529 -0.1308053 1.8279562
-0.92329127 -0.12785631 1.4416113
-0.9130342 -0.12691356 1.1802837
-1.1476775 -0.14903256 4.4933071
-1.0375185 -0.13819307 2.9005444
-0.96598154 -0.13053021 2.0793054
-0.93454003 -0.12742676 1.6129426
-0.91318339 -0.1251529 1.2952673
-0.89786279 -0.12367991 1.0608382
-0.89744449 -0.12633413 0.97040659
-0.88559604 -0.12512936 0.80356121
-0.87574792 -0.12388898 0.66449493
-0.86983865 -0.12335516 0.54643595
-0.85912234 -0.1219835 0.43890804
-0.8504625 -0.12090034 0.34243578
-0.85590219 -0.12197319 0.2556133
-0.84778023 -0.12081321 0.16982636
-0.89102513 -0.12415711 0.88241351
-0.87926579 -0.12282419 0.72999263
-0.86843741 -0.12146133 0.60090578
-0.868532 -0.12193047 0.49289995
-0.88436007 -0.12430434 0.39996269
-0.85208225 -0.11991446 0.29825324
-0.85312688 -0.12005886 0.21237628
-0.85558802 -0.12055228 0.12853025
-1.1293383 -0.13596033 7.2314978
-1.2674303 -0.15853898 6.1643515
-1.0729829 -0.139504 3.5062382
-1.0023375 -0.13278116 2.4415574
-0.95225608 -0.12748209 1.8279562
-0.9209432 -0.12425657 1.4374783
-0.91347164 -0.1237257 1.1802837
-1.1469436 -0.14486818 4.4884672
-1.0379945 -0.13457063 2.9005444
-0.96643126 -0.12715749 2.0793054
-0.93497914 -0.12416382 1.6129426
-0.91361469 -0.12196454 1.2952673
-0.89828902 -0.12054504 1.0608382
-0.89788008 -0.1232007 0.97040659
-0.88602746 -0.12203728 0.80356121
-0.87617505 -0.12083131 0.66449493
-0.87026393 -0.12031811 0.54643595
-0.85954291 -0.11898386 0.43890804
-0.85087931 -0.11793093 0.34243578
-0.85632271 -0.11898478 0.2556133
-0.84819674 -0.11785316 0.16982636
-0.89145315 -0.12104609 0.88241351
-0.87968922 -0.11975423 0.72999263
-0.86885607 -0.11842918 0.60090578
-0.86895239 -0.11889798 0.49289995
-0.88478857 -0.12121659 0.39996269
-0.85249567 -0.1169394 0.29825324
-0.84863466 -0.11640723 0.21168561
-0.85600364 -0.11756498 0.12853025
-1.1290342 -0.13192739 7.2265587
-1.2669652 -0.15399118 6.1594563
-1.0719825 -0.13557066 3.5014665
-1.0027949 -0.12928155 2.4415574
-0.95032036 -0.12384801 1.8235672
-0.92137128 -0.12104113 1.4374783
-0.91072023 -0.12011741 1.1764462
-1.1474423 -0.14086372 4.4884672
-1.0367457 -0.13073082 2.8958514
-0.96686929 -0.12378325 2.0793054
-0.93540686 -0.12089939 1.6129426
-0.91104668 -0.1183866 1.2912773
-0.89870435 -0.11740869 1.0608382
-0.89476985 -0.11959348 0.96690202
-0.88259023 -0.11842626 0.80042273
-0.87659144 -0.11777214 0.66449493
-0.8706786 -0.11727959 0.54643595
-0.85995299 -0.11598276 0.43890804
-0.85128576 -0.11496009 0.34243578
-0.85673285 -0.11599493 0.2556133
-0.84860295 -0.11489169 0.16982636
-0.89187026 -0.1179336 0.88241351
-0.88010186 -0.11668282 0.72999263
-0.86926419 -0.11539558 0.60090578
-0.8648634 -0.11526459 0.49080193
-0.88052565 -0.11750283 0.39831915
-0.85289866 -0.11396292 0.29825324
-0.8539443 -0.11410002 0.21237628
-0.851457 -0.11391379 0.12832873
-1.1287158 -0.12789823 7.2216191
-1.2664838 -0.14944856 6.1545615
-1.0709676 -0.13164599 3.4966943
-1.0013014 -0.12553751 2.4369547
-0.95074683 -0.12053003 1.8235672
-0.92178816 -0.11782421 1.4374783
-0.911134 -0.11693768 1.1764462
-1.1466789 -0.13670893 4.4836278
-1.035483 -0.12690142 2.8911588
-0.96729547 -0.1204075 2.0793054
-0.93582314 -0.11763347 1.6129426
-0.91145438 -0.11520572 1.2912773
-0.89910865 -0.11427092 1.0608382
-0.89518183 -0.11646943 0.96690202
-0.88299829 -0.11534471 0.80042273
-0.87699723 -0.11471155 0.66449493
-0.87108272 -0.11423963 0.54643595
-0.86035264 -0.11298026 0.43890804
-0.85168183 -0.11198784 0.34243578
-0.85713255 -0.11300366 0.2556133
-0.84899884 -0.11192881 0.16982636
-0.89227647 -0.11481968 0.88241351
-0.88050377 -0.11360998 0.72999263
-0.86966175 -0.11236059 0.60090578
-0.86526042 -0.11224494 0.49080193
-0.88093042 -0.11442851 0.39831915
-0.85329127 -0.11098506 0.29825324
-0.85433739 -0.11111852 0.21237628
-0.85184944 -0.11094095 0.12832873
-1.1291553 -0.12395751 7.2216191
-1.2649745 -0.14479557 6.1447706
-1.0699384 -0.12773007 3.4919224
-1.0017335 -0.12204157 2.4369547
-0.9511618 -0.11721057 1.8235672
-0.91940129 -0.114259 1.4333454
-0.91153663 -0.11375652 1.1764462
-1.1459004 -0.13256118 4.4787884
-1.0359195 -0.12328613 2.8911588
-0.9677099 -0.11703028 2.0793054
-0.93363923 -0.11405008 1.6086767
-0.91185099 -0.11202345 1.2912773
-0.8995021 -0.11113174 1.0608382
-0.89558291 -0.11334395 0.96690202
-0.88339549 -0.11226177 0.80042273
-0.87739229 -0.11164957 0.66449493
-0.87147617 -0.1111983 0.54643595
-0.85614318 -0.10938893 0.43703499
-0.85206759 -0.10901424 0.34243578
-0.85752177 -0.11001103 0.2556133
-0.84938437 -0.10896458 0.16982636
-0.89267182 -0.11170435 0.88241351
-0.88089502 -0.11053576 0.72999263
-0.87004858 -0.10932422 0.60090578
-0.86564696 -0.10922395 0.49080193
-0.88132447 -0.11135278 0.39831915
-0.85367346 -0.10800584 0.29825324
-0.85472 -0.10813565 0.21237628
-0.85223144 -0.10796677 0.12832873
-1.1288085 -0.11993337 7.21668
-1.2644602 -0.14026701 6.1398754
-1.0688949 -0.12382294 3.4871504
-1.0002133 -0.11831482 2.4323523
-0.95156515 -0.11388968 1.8235672
-0.9197945 -0.111049 1.4333454
-0.91192812 -0.11057396 1.1764462
-1.1451072 -0.12842055 4.4739494
-1.0346293 -0.1194716 2.8864658
-0.96811253 -0.11365163 2.0793054
-0.93403167 -0.11079038 1.6086767
-0.90924448 -0.10848305 1.2872872
-0.89651853 -0.10758746 1.0571631
-0.89597315 -0.11021709 0.96690202
-0.88378203 -0.10917746 0.80042273
-0.87777668 -0.10858621 0.66449493
-0.87185901 -0.1081556 0.54643595
-0.85651982 -0.10639977 0.43703499
-0.85244292 -0.10603931 0.34243578
-0.85302609 -0.10640904 0.25468066
-0.84975958 -0.105999 0.16982636
-0.88934988 -0.10813717 0.87908798
-0.88127548 -0.10746019 0.72999263
-0.86614591 -0.10576414 0.59837258
-0.8615182 -0.10564929 0.48870388
-0.87702084 -0.10770021 0.39667568
-0.85404527 -0.1050253 0.29825324
-0.85509229 -0.10515145 0.21237628
-0.85260314 -0.10499127 0.12832873
-1.1292202 -0.11599237 7.21668
-1.2639297 -0.13574381 6.1349807
-1.0678372 -0.11992467 3.4823785
-0.99867928 -0.1146002 2.4277496
-0.95195687 -0.11056741 1.8235672
-0.92017657 -0.10783764 1.4333454
-0.91230851 -0.10739006 1.1764462
-1.1442988 -0.12428707 4.4691095
-1.0333251 -0.11566758 2.8817732
-0.96634036 -0.11002553 2.0748043
-0.93441266 -0.10752933 1.6086767
-0.9096176 -0.10530853 1.2872872
-0.89688861 -0.10445737 1.0571631
-0.89635241 -0.10708889 0.96690202
-0.88415772 -0.10609182 0.80042273
-0.87399882 -0.10502282 0.66175348
-0.87223119 -0.10511158 0.54643595
-0.85228348 -0.10285398 0.43516198
-0.85280788 -0.10306308 0.34243578
-0.8533923 -0.10343077 0.25468066
-0.85012436 -0.10303214 0.16982636
-0.88972187 -0.10503209 0.87908798
-0.87763131 -0.10390822 0.72704947
-0.8665098 -0.10274009 0.59837258
-0.86188167 -0.10264138 0.48870388
-0.87739146 -0.10463819 0.39667568
-0.85440665 -0.10204349 0.29825324
-0.85545415 -0.10216598 0.21237628
-0.84800386 -0.10142121 0.12812719
-1.1296182 -0.11204994 7.21668
-1.263383 -0.13122603 6.130085
-1.0667653 -0.11603528 3.4776065
-0.99907321 -0.11111346 2.4277496
-0.95233703 -0.10724378 1.8235672
-0.91775131 -0.10430739 1.4292125
-0.90949333 -0.10384146 1.1726087
-0.89186031 -0.078772366 8.3071947
-1.1434754 -0.12016078 4.4642701
-1.0320069 -0.11187413 2.8770804
-0.96671855 -0.10665171 2.0748043
-0.93478233 -0.10426696 1.6086767
-0.90698522 -0.10179684 1.2832973
-0.89724773 -0.10132601 1.0571631
-0.89672077 -0.10395938 0.96690202
-0.88452268 -0.10300489 0.80042273
-0.87436008 -0.10197135 0.66175348
-0.86819297 -0.10155176 0.54411715
-0.85263735 -0.099878319 0.43516198
-0.85316247 -0.1000856 0.34243578
-0.8488695 -0.099877276 0.25374803
-0.85047883 -0.10006402 0.16982636
-0.88637358 -0.10150114 0.87576252
-0.87798864 -0.10084409 0.72704947
-0.86686313 -0.099714778 0.59837258
-0.86223477 -0.099632226 0.48870388
-0.87775135 -0.10157488 0.39667568
-0.85475767 -0.099060431 0.29825324
-0.85580558 -0.099179268 0.21237628
-0.84835273 -0.098460518 0.12812719
-1.1300025 -0.10810616 7.21668
-1.2628202 -0.12671372 6.1251898
-1.0656793 -0.11215483 3.4728346
-0.99751258 -0.10741641 2.4231472
-0.95032471 -0.10365935 1.8191781
-0.91810983 -0.1011032 1.4292125
-0.90985024 -0.10066611 1.1726087
-0.89319211 -0.075748287 8.3171368
-1.1426374 -0.11604176 4.4594307
-1.0306748 -0.10809129 2.8723876
-0.96492022 -0.10304562 2.070303
-0.93514061 -0.10100333 1.6086767
-0.90733498 -0.09863025 1.2832973
-0.897596 -0.098193407 1.0571631
-0.89707816 -0.10082861 0.96690202
-0.88487679 -0.099916704 0.80042273
-0.87471074 -0.098918639 0.66175348
-0.86854219 -0.098520584 0.54411715
-0.85298073 -0.096901454 0.43516198
-0.85350662 -0.097106896 0.34243578
-0.849213 -0.096913569 0.25374803
-0.84587514 -0.09653008 0.16937928
-0.88672245 -0.098406494 0.87576252
-0.8783353 -0.097778715 0.72704947
-0.86720592 -0.096688256 0.59837258
-0.86257726 -0.096621856 0.48870388
-0.87340784 -0.097983964 0.39503217
-0.85509825 -0.096076168 0.29825324
-0.85614651 -0.096191347 0.21237628
-0.84869123 -0.095498614 0.12812719
-1.1303729 -0.10416105 7.21668
-1.2612281 -0.122109 6.1153998
-1.0645792 -0.10828339 3.4680624
-0.99788147 -0.10393379 2.4231472
-0.95068073 -0.10034147 1.8191781
-0.91565895 -0.09759973 1.4250796
-0.91019607 -0.097489521 1.1726087
-0.88973182 -0.072329454 8.2823362
-1.1417845 -0.11193007 4.4545918
-1.0310458 -0.1044929 2.8723876
-0.9652741 -0.099676795 2.070303
-0.93548751 -0.09773846 1.6086767
-0.90767378 -0.095462464 1.2832973
-0.8979333 -0.095059618 1.0571631
-0.89742464 -0.097696602 0.96690202
-0.88522017 -0.096827298 0.80042273
-0.87505066 -0.095864728 0.66175348
-0.86888075 -0.095488206 0.54411715
-0.8579219 -0.094430514 0.43703499
-0.85384041 -0.094127014 0.34243578
-0.84954613 -0.09394867 0.25374803
-0.8462069 -0.093576841 0.16937928
-0.88706058 -0.095310658 0.87576252
-0.87867123 -0.094712161 0.72704947
-0.86753815 -0.093660548 0.59837258
-0.86290926 -0.093610317 0.48870388
-0.87374449 -0.094934605 0.39503217
-0.85059631 -0.09256494 0.29708093
-0.8515541 -0.092666566 0.21168561
-0.84901947 -0.09253554 0.12812719
-1.1307297 -0.10021468 7.21668
-1.2606328 -0.11761133 6.1105042
-1.0634652 -0.10442099 3.4632907
-0.99823821 -0.1004499 2.4231472
-0.94864261 -0.09677951 1.8147889
-0.91599405 -0.094402887 1.4250796
-0.91053087 -0.094311751 1.1726087
-0.89529359 -0.06963408 8.3320522
-1.1409169 -0.10782575 4.4497519
-1.0296868 -0.10072544 2.8676949
-0.96561611 -0.096306749 2.070303
-0.93322814 -0.094210662 1.6044106
-0.90800142 -0.092293508 1.2832973
-0.89825964 -0.091924667 1.0571631
-0.89421356 -0.094190024 0.9633975
-0.88555282 -0.093736716 0.80042273
-0.87537998 -0.092809647 0.66175348
-0.86920881 -0.092454664 0.54411715
-0.85824627 -0.091435231 0.43703499
-0.84939373 -0.090637051 0.34102574
-0.84986889 -0.090982623 0.25374803
-0.84652841 -0.090622455 0.16937928
-0.88738787 -0.092213653 0.87576252
-0.87899655 -0.091644444 0.72704947
-0.86785984 -0.090631709 0.59837258
-0.86323076 -0.09059763 0.48870388
-0.87407058 -0.091884091 0.39503217
-0.85091418 -0.089595243 0.29708093
-0.85187232 -0.089693531 0.21168561
-0.84933728 -0.089571349 0.12812719
-1.1310725 -0.096267089 7.21668
-1.2600213 -0.11311931 6.1056089
-1.0638232 -0.10070816 3.4632907
-0.99858272 -0.096964784 2.4231472
-0.94897461 -0.093467541 1.8147889
-0.916318 -0.091204897 1.4250796
-0.91085452 -0.091132835 1.1726087
-0.89287317 -0.066312373 8.3071947
-1.1412864 -0.10384255 4.4497519
-1.0300322 -0.097130552 2.8676949
-0.96594638 -0.092935532 2.070303
-0.93355131 -0.090952516 1.6044106
-0.9083181 -0.089123428 1.2832973
-0.89520127 -0.088455416 1.0534879
-0.89453685 -0.091068059 0.9633975
-0.88587463 -0.090644985 0.80042273
-0.87153894 -0.089327246 0.65901202
-0.86952627 -0.089419998 0.54411715
-0.8585602 -0.088438831 0.43703499
-0.84970492 -0.087671556 0.34102574
-0.85018134 -0.088015474 0.25374803
-0.84683961 -0.087666966 0.16937928
-0.88770431 -0.08911553 0.87576252
-0.87931108 -0.088575616 0.72704947
-0.86817092 -0.087601759 0.59837258
-0.86354178 -0.08758384 0.48870388
-0.87438595 -0.08883246 0.39503217
-0.85122174 -0.086624451 0.29708093
-0.85218024 -0.086719394 0.21168561
-0.84964478 -0.086606063 0.12812719
-1.1321762 -0.092381313 7.2216191
-1.2593942 -0.108633 6.1007137
-1.0641683 -0.096994117 3.4632907
-0.99696988 -0.093296669 2.4185448
-0.9469108 -0.08992821 1.8103999
-0.91663074 -0.088005796 1.4250796
-0.91116703 -0.0879528 1.1726087
-0.88990867 -0.062971033 8.2773647
-1.1403896 -0.099748738 4.4449124
-1.0303649 -0.093534477 2.8676949
-0.9662649 -0.089563183 2.070303
-0.9338631 -0.087693259 1.6044106
-0.90862364 -0.08595226 1.2832973
-0.89550459 -0.085330047 1.0534879
-0.8948493 -0.087944992 0.9633975
-0.88618565 -0.087552153 0.80042273
-0.87184542 -0.086284459 0.65901202
-0.86983305 -0.086384237 0.54411715
-0.85886371 -0.085441358 0.43703499
-0.84523237 -0.084229395 0.3396157
-0.85048336 -0.085047252 0.25374803
-0.84714043 -0.084710412 0.16937928
-0.88801003 -0.08601632 0.87576252
-0.87559181 -0.085114785 0.72410631
-0.86847144 -0.084570751 0.59837258
-0.86384225 -0.084568977 0.48870388
-0.87469077 -0.085779734 0.39503217
-0.85151899 -0.083652608 0.29708093
-0.85247773 -0.083744206 0.21168561
-0.84994185 -0.083639726 0.12812719
-1.1324917 -0.088428721 7.2216191
-1.2587508 -0.10415245 6.095818
-1.0645005 -0.093278885 3.4632907
-0.99728948 -0.089816019 2.4185448
-0.94721895 -0.08662232 1.8103999
-0.91693234 -0.084805623 1.4250796
-0.91146857 -0.0847717 1.1726087
-0.47494784 -0.014188386 8.0559654
-0.88746381 -0.059686728 8.2525082
-1.1394783 -0.095662475 4.440073
-1.0306852 -0.08993727 2.8676949
-0.96657169 -0.086189747 2.070303
-0.931566 -0.084198371 1.6001447
-0.90591735 -0.082506947 1.2793072
-0.89579695 -0.082203627 1.0534879
-0.89515084 -0.084820844 0.9633975
-0.8826111 -0.084089249 0.79728431
-0.8721413 -0.083240628 0.65901202
-0.87012935 -0.083347432 0.54411715
-0.85915667 -0.082442842 0.43703499
-0.84552121 -0.081278466 0.3396157
-0.84588546 -0.081606321 0.25281543
-0.84743094 -0.081752822 0.16937928
-0.88830489 -0.082916066 0.87576252
-0.87588352 -0.082057886 0.72410631
-0.8687613 -0.0815387 0.59837258
-0.86413217 -0.081553094 0.48870388
-0.87498486 -0.082725972 0.39503217
-0.85180575 -0.080679737 0.29708093
-0.85276484 -0.080767989 0.21168561
-0.85022867 -0.080672361 0.12812719
-1.1327935 -0.08447504 7.2216191
-1.2580918 -0.099677719 6.0909233
-1.0648196 -0.08956252 3.4632907
-0.99565059 -0.086166054 2.4139423
-0.94512975 -0.083105817 1.8060108
-0.91722286 -0.081604414 1.4250796
-0.91175884 -0.081589557 1.1726087
-0.47239703 -0.012467396 8.0110407
-0.88394278 -0.056352943 8.2177076
-1.1398052 -0.091684364 4.440073
-1.0309929 -0.086338952 2.8676949
-0.96469766 -0.082629696 2.0658019
-0.93185425 -0.080946088 1.6001447
-0.90619981 -0.079344206 1.2793072
-0.89607847 -0.079076208 1.0534879
-0.89544147 -0.081695668 0.9633975
-0.88289922 -0.081007853 0.79728431
-0.87242651 -0.080195777 0.65901202
-0.87041491 -0.0803096 0.54411715
-0.85943925 -0.079443328 0.43703499
-0.8457998 -0.078326553 0.3396157
-0.84616524 -0.078653134 0.25281543
-0.84771121 -0.078794241 0.16937928
-0.88858885 -0.079814792 0.87576252
-0.87616467 -0.078999974 0.72410631
-0.86904067 -0.078505658 0.59837258
-0.86441159 -0.078536212 0.48870388
-0.87526828 -0.079671204 0.39503217
-0.84724158 -0.07726451 0.2959086
-0.85304165 -0.077790789 0.21168561
-0.85050511 -0.077704012 0.12812719
-1.1330814 -0.080520347 7.2216191
-1.2574167 -0.095208853 6.0860281
-1.0651256 -0.085845061 3.4632907
-0.99594527 -0.08269006 2.4139423
-0.94541413 -0.079806194 1.8060108
-0.91750205 -0.078402214 1.4250796
-0.90884465 -0.078132093 1.1687713
-0.47214904 -0.010812351 8.0060482
-0.88785881 -0.053489659 8.2525082
-1.1388651 -0.087608933 4.4352341
-1.0312879 -0.082739592 2.8676949
-0.96498019 -0.079261772 2.0658019
-0.93213117 -0.077692814 1.6001447
-0.90647125 -0.076180495 1.2793072
-0.89634907 -0.075947829 1.0534879
-0.8957212 -0.078569494 0.9633975
-0.87929934 -0.077583522 0.79414582
-0.87270117 -0.077149957 0.65901202
-0.87068999 -0.077270798 0.54411715
-0.85509366 -0.076032355 0.43516198
-0.84606808 -0.075373687 0.3396157
-0.84643453 -0.075698987 0.25281543
-0.84798104 -0.075834692 0.16937928
-0.88514209 -0.076391675 0.872437
-0.87240821 -0.075592346 0.72116315
-0.86930937 -0.075471662 0.59837258
-0.86468047 -0.07551837 0.48870388
-0.87554109 -0.07661546 0.39503217
-0.84750611 -0.074306615 0.2959086
-0.85330796 -0.074812643 0.21168561
-0.85077113 -0.074734733 0.12812719
-1.1333556 -0.076564662 7.2216191
-1.2557102 -0.090672761 6.0762372
-1.0639305 -0.082012035 3.4585185
-0.9962278 -0.07921306 2.4139423
-0.94568694 -0.076505594 1.8060108
-0.91777015 -0.075199053 1.4250796
-0.9091118 -0.074959159 1.1687713
-0.47304991 -0.0091791414 8.0210238
-0.88804013 -0.050390124 8.2525082
-1.139164 -0.083633021 4.4352341
-1.0315704 -0.079139218 2.8676949
-0.9630807 -0.075722449 2.0613005
-0.92979693 -0.074231252 1.5958788
-0.90372807 -0.072774202 1.2753172
-0.89660865 -0.072818533 1.0534879
-0.89599001 -0.075442366 0.9633975
-0.87956482 -0.074513718 0.79414582
-0.87296516 -0.074103184 0.65901202
-0.87095439 -0.074231051 0.54411715
-0.85535383 -0.073047049 0.43516198
-0.85110557 -0.072828814 0.34102574
-0.85158789 -0.073164359 0.25374803
-0.84824061 -0.072874226 0.16937928
-0.88540334 -0.073301487 0.872437
-0.87266678 -0.072546616 0.72116315
-0.86956757 -0.072436742 0.59837258
-0.86493886 -0.072499618 0.48870388
-0.87109756 -0.073163643 0.39338866
-0.84291691 -0.070940241 0.29473627
-0.8535639 -0.071833588 0.21168561
-0.85102683 -0.071764529 0.12812719
-1.1328405 -0.072558582 7.21668
-1.2550032 -0.086219355 6.0713425
-1.0642103 -0.078297727 3.4585185
-0.99649829 -0.075735092 2.4139423
-0.94594824 -0.07320407 1.8060108
-0.91522169 -0.071775176 1.4209466
-0.90617263 -0.07153327 1.1649337
-0.88980758 -0.047374234 8.2674227
-1.138195 -0.079568624 4.4303942
-1.0301193 -0.075412102 2.8630023
-0.96116841 -0.07219737 2.0567994
-0.93005037 -0.070985205 1.5958788
-0.90397662 -0.069619156 1.2753172
-0.89685744 -0.069688335 1.0534879
-0.89624786 -0.072314315 0.9633975
-0.87981957 -0.071443014 0.79414582
-0.86905092 -0.070716538 0.65627056
-0.8667931 -0.070829742 0.54179835
-0.85560364 -0.070060872 0.43516198
-0.8513546 -0.069857456 0.34102574
-0.85183805 -0.070191316 0.25374803
-0.84848976 -0.069912873 0.16937928
-0.88565379 -0.070210412 0.872437
-0.87291467 -0.069499999 0.72116315
-0.86551791 -0.069058225 0.59583938
-0.86518663 -0.069479972 0.48870388
-0.87134761 -0.070122503 0.39338866
-0.84315938 -0.067997478 0.29473627
-0.84887338 -0.068455644 0.21099493
-0.8462925 -0.068391047 0.12792566
-1.1330869 -0.068603784 7.21668
-1.2542806 -0.081772 6.0664473
-1.062988 -0.074478343 3.4537466
-0.99675655 -0.0722562 2.4139423
-0.94619799 -0.069901645 1.8060108
-0.91546661 -0.068580016 1.4209466
-0.90641677 -0.068369702 1.1649337
-0.47512314 -0.005897243 8.0559654
-0.89049983 -0.04429416 8.2723932
-1.1384659 -0.075595096 4.4303942
-1.0303763 -0.071815856 2.8630023
-0.96141452 -0.068841822 2.0567994
-0.92769134 -0.067549102 1.5916129
-0.90421408 -0.066463269 1.2753172
-0.89371431 -0.066306643 1.0498128
-0.89649481 -0.069185391 0.9633975
-0.88006359 -0.068371437 0.79414582
-0.86929244 -0.067682557 0.65627056
-0.86703503 -0.067803636 0.54179835
-0.85584301 -0.067073829 0.43516198
-0.85159332 -0.066885248 0.34102574
-0.85697496 -0.067603692 0.25468066
-0.84376413 -0.066559076 0.1689322
-0.88589346 -0.067118473 0.872437
-0.87315196 -0.066452533 0.72116315
-0.86575371 -0.066036582 0.59583938
-0.86542386 -0.066459484 0.48870388
-0.8715871 -0.067080505 0.39338866
-0.8433916 -0.065053895 0.29473627
-0.84910715 -0.065492108 0.21099493
-0.84652609 -0.06543652 0.12792566
-1.1333195 -0.064648159 7.21668
-1.2535419 -0.077330723 6.061552
-1.0632416 -0.070767365 3.4537466
-0.99700272 -0.068776429 2.4139423
-0.94643623 -0.066598371 1.8060108
-0.91570044 -0.065384023 1.4209466
-0.90664995 -0.065205298 1.1649337
-0.47514081 -0.0042387177 8.0559654
-0.89064902 -0.041185461 8.2723932
-1.1374682 -0.071541943 4.4255548
-1.0306207 -0.06821873 2.8630023
-0.95947695 -0.065337755 2.0522981
-0.92792147 -0.064310439 1.5916129
-0.90444058 -0.063306563 1.2753172
-0.89394033 -0.063186601 1.0498128
-0.89317429 -0.065793812 0.95989293
-0.88029683 -0.065299019 0.79414582
-0.86952341 -0.064647742 0.65627056
-0.86726648 -0.064776704 0.54179835
-0.85607189 -0.064085968 0.43516198
-0.8518216 -0.063912228 0.34102574
-0.85720569 -0.064611875 0.25468066
-0.84399128 -0.063613378 0.1689322
-0.88612235 -0.064025722 0.872437
-0.87337857 -0.063404255 0.72116315
-0.8659789 -0.063014135 0.59583938
-0.86565059 -0.063438192 0.48870388
-0.87181592 -0.064037688 0.39338866
-0.84361356 -0.062109511 0.29473627
-0.84933066 -0.062527768 0.21099493
-0.84674931 -0.062481195 0.12792566
-1.1335382 -0.060691737 7.21668
-1.2527878 -0.072895609 6.0566564
-1.0619924 -0.066961795 3.4489746
-0.99528718 -0.065168388 2.4093397
-0.94666296 -0.063294291 1.8060108
-0.91592312 -0.062187236 1.4209466
-0.90687203 -0.062040102 1.1649337
-0.47515273 -0.002580141 8.0559654
-0.89078736 -0.03807627 8.2723932
-1.1364563 -0.067496672 4.4207153
-1.0308526 -0.064620778 2.8630023
-0.95969927 -0.061988153 2.0522981
-0.92814034 -0.061071001 1.5916129
-0.90465611 -0.060149092 1.2753172
-0.89415544 -0.06006578 1.0498128
-0.89339846 -0.062675647 0.95989293
-0.88051945 -0.062225819 0.79414582
-0.86974376 -0.061612152 0.65627056
-0.86748725 -0.061748985 0.54179835
-0.8562904 -0.061097328 0.43516198
-0.85203946 -0.060938422 0.34102574
-0.85742605 -0.061619274 0.25468066
-0.84420824 -0.060666911 0.1689322
-0.8863405 -0.060932182 0.872437
-0.87359458 -0.060355209 0.72116315
-0.86619359 -0.05999092 0.59583938
-0.86133921 -0.060100317 0.48660582
-0.87203413 -0.060994092 0.39338866
-0.84867388 -0.059504274 0.2959086
-0.84954369 -0.059562676 0.21099493
-0.84696227 -0.05952511 0.12792566
-1.1329672 -0.056695949 7.211741
-1.252018 -0.068466701 6.0517616
-1.0622196 -0.063254341 3.4489746
-0.99550861 -0.061693791 2.4093397
-0.94687808 -0.059989434 1.8060108
-0.9161346 -0.058989689 1.4209466
-0.90708309 -0.058874149 1.1649337
-0.4734267 -0.00092183478 8.0260153
-0.89038229 -0.034945961 8.2674227
-1.13543 -0.063459344 4.4158759
-1.0293491 -0.060920298 2.8583093
-0.95773685 -0.058505274 2.0477967
-0.92834783 -0.057830814 1.5916129
-0.90486056 -0.056990884 1.2753172
-0.89435965 -0.056944229 1.0498128
-0.89361179 -0.059556723 0.95989293
-0.88073128 -0.059151851 0.79414582
-0.86995351 -0.058575802 0.65627056
-0.86769754 -0.058720514 0.54179835
-0.85649842 -0.058107946 0.43516198
-0.852247 -0.057963882 0.34102574
-0.85763592 -0.058625925 0.25468066
-0.84441483 -0.057719707 0.1689322
-0.8865478 -0.057837911 0.872437
-0.87379998 -0.057305429 0.72116315
-0.86639774 -0.056966975 0.59583938
-0.86154372 -0.057093311 0.48660582
-0.8722418 -0.057949755 0.39338866
-0.84887642 -0.056541484 0.2959086
-0.84974641 -0.056596849 0.21099493
-0.85214972 -0.056901131 0.12812719
-1.1331582 -0.052740809 7.211741
-1.2512324 -0.064044051 6.0468664
-1.0609436 -0.059462797 3.4442027
-0.99376756 -0.058104623 2.4047372
-0.94708174 -0.056683846 1.8060108
-0.91352606 -0.055620607 1.4168135
-0.90728307 -0.055707481 1.1649337
-0.4708288 0.00072121556 7.9810901
-0.88890064 -0.031781364 8.2525082
-1.1356446 -0.059495565 4.4158759
-1.0278324 -0.057231091 2.8536165
-0.95793521 -0.055161797 2.0477967
-0.92854404 -0.054589923 1.5916129
-0.90505391 -0.053831983 1.2753172
-0.89455301 -0.053821981 1.0498128
-0.89381427 -0.056437075 0.95989293
-0.8770479 -0.05583005 0.7910074
-0.87015271 -0.05553874 0.65627056
-0.86789721 -0.055691328 0.54179835
-0.85669607 -0.055117853 0.43516198
-0.85244417 -0.054988626 0.34102574
-0.85293341 -0.055314001 0.25374803
-0.84461123 -0.054771796 0.1689322
-0.8867442 -0.054742925 0.872437
-0.87399465 -0.054254949 0.72116315
-0.86659127 -0.053942338 0.59583938
-0.86173785 -0.05408562 0.48660582
-0.86772585 -0.0546082 0.39174515
-0.85391968 -0.053884063 0.29708093
-0.84993881 -0.053630337 0.21099493
-0.85234308 -0.053926226 0.12812719
-1.1333354 -0.048785027 7.211741
-1.2514483 -0.059676044 6.0468664
-1.0611446 -0.05575905 3.4442027
-0.99396437 -0.054635372 2.4047372
-0.94727379 -0.053377565 1.8060108
-0.91371459 -0.052431468 1.4168135
-0.90427208 -0.052355066 1.1610962
-0.47313294 0.0023812368 8.0210238
-0.88740778 -0.028627539 8.2375927
-1.1345899 -0.055469882 4.4110365
-1.0280259 -0.05364294 2.8536165
-0.9581219 -0.051817641 2.0477967
-0.92872894 -0.051348366 1.5916129
-0.9052363 -0.050672431 1.2753172
-0.8947354 -0.050699085 1.0498128
-0.89400578 -0.053316738 0.95989293
-0.87723744 -0.052768238 0.7910074
-0.87034124 -0.052501004 0.65627056
-0.86808634 -0.05266146 0.54179835
-0.85688323 -0.052127089 0.43516198
-0.84784275 -0.05172069 0.3396157
-0.85312128 -0.052336372 0.25374803
-0.84479725 -0.051823221 0.1689322
-0.88320249 -0.051430397 0.86911154
-0.87417871 -0.051203806 0.72116315
-0.86677432 -0.050917041 0.59583938
-0.86192137 -0.051077262 0.48660582
-0.86791116 -0.051578939 0.39174515
-0.85410255 -0.050903 0.29708093
-0.85012084 -0.050663169 0.21099493
-0.85252619 -0.050950665 0.12812719
-1.1342752 -0.044859156 7.21668
-1.2506318 -0.055262543 6.0419707
-1.0598419 -0.051981702 3.4394307
-0.99414903 -0.051165454 2.4047372
-0.94745439 -0.05007064 1.8060108
-0.91389203 -0.049241688 1.4168135
-0.90444934 -0.049198247 1.1610962
-0.46994627 0.0039989562 7.9661155
-0.88537097 -0.025469456 8.2177076
-1.1347766 -0.051509086 4.4110365
-1.0264833 -0.049970441 2.8489239
-0.9582969 -0.048472855 2.0477967
-0.92629796 -0.047971506 1.587347
-0.90540767 -0.047512256 1.2753172
-0.89490694 -0.047575567 1.0498128
