# .PCD v0.7 - Point Cloud Data file format
VERSION 0.7
FIELDS x y z
SIZE 4 4 4
TYPE F F F
COUNT 1 1 1
WIDTH 1405
HEIGHT 1
VIEWPOINT 0 0 0 1 0 0 0
POINTS 1405
DATA ascii
-1.0958698 -0.41179377 2.4844146
-1.0264834 -0.38713679 1.8646327
-0.98621953 -0.37272736 1.4708283
-0.96489739 -0.36542669 1.1968194
-0.95652568 -0.36550257 1.0860566
-0.94073159 -0.36002177 0.89457643
-0.91970706 -0.352155 0.73029011
-0.91134685 -0.34931073 0.59744954
-0.90976369 -0.34888056 0.4819878
-0.89158159 -0.3420814 0.3706364
-0.88044053 -0.33815411 0.2705352
-0.89238954 -0.34274054 0.17876793
-0.94900024 -0.36110419 0.98550397
-0.93164122 -0.35486376 0.80945796
-0.91608065 -0.34911492 0.6617021
-0.90419412 -0.34511942 0.53486103
-0.89604956 -0.34218463 0.42297181
-0.8809945 -0.33660635 0.31818265
-0.88343269 -0.33753517 0.22411785
-0.87707978 -0.33527786 0.13155322
-0.047664043 -0.0054239491 3.9791219
-0.57247055 -0.20584935 3.8678632
-0.73892748 -0.2694751 3.8048522
-1.0889575 -0.40297395 3.7591536
-1.1579211 -0.43166271 2.9708476
-1.0522878 -0.3939437 2.1264138
-1.0043157 -0.37716889 1.6482588
-0.97979879 -0.36853781 1.3299464
-0.22757865 -0.070150025 3.9578137
-0.40057382 -0.1393221 3.912385
-0.91920561 -0.33638853 3.8061085
-1.2083714 -0.44664508 3.5575314
-1.0932194 -0.40644902 2.4754121
-1.0278285 -0.38355133 1.8646327
-0.98469216 -0.36822727 1.4668382
-0.96299261 -0.36086687 1.1931442
-0.95779574 -0.36216143 1.0860566
-0.94198251 -0.35673583 0.89457643
-0.92093068 -0.34894246 0.73029011
-0.91256058 -0.34612742 0.59744954
-0.91097599 -0.3457028 0.4819878
-0.88828558 -0.33726448 0.3692264
-0.88161558 -0.33507875 0.2705352
-0.88892543 -0.33785421 0.17832085
-0.95025498 -0.35778937 0.98550397
-0.9328742 -0.35160959 0.80945796
-0.91326016 -0.34439415 0.6591689
-0.9053933 -0.34196109 0.53486103
-0.89723849 -0.33905476 0.42297181
-0.88216412 -0.33352906 0.31818265
-0.88460559 -0.33444935 0.22411785
-0.87824476 -0.33221424 0.13155322
-0.047682684 -0.0052575371 3.9791219
-0.57318562 -0.20384979 3.8678632
-0.73986357 -0.2668941 3.8048522
-1.0903575 -0.39917031 3.7591536
-1.1557548 -0.42626646 2.9616427
-1.0536566 -0.39026812 2.1264138
-1.0056262 -0.37366089 1.6482588
-0.97807527 -0.3639977 1.3261089
-0.22782214 -0.069355205 3.9578137
-0.40105772 -0.137923 3.912385
-0.91801023 -0.33232257 3.7964296
-1.2066816 -0.44123942 3.5481458
-1.0925883 -0.40187916 2.4709108
-1.0267144 -0.37905806 1.8603667
-0.98597157 -0.36478782 1.4668382
-0.96424633 -0.35750321 1.1931442
-0.95571387 -0.35756639 1.0825521
-0.93957722 -0.35207987 0.89143795
-0.9221431 -0.34572572 0.73029011
-0.91376323 -0.34293985 0.59744954
-0.91217715 -0.34252077 0.4819878
-0.88496679 -0.33247468 0.36781636
-0.88277984 -0.33199927 0.2705352
-0.89009935 -0.33474922 0.17832085
-0.94799924 -0.35316685 0.98217851
-0.9303087 -0.34693888 0.8065148
-0.91445673 -0.34120417 0.6591689
-0.90658146 -0.33879858 0.53486103
-0.89841658 -0.33592072 0.42297181
-0.88332301 -0.3304477 0.31818265
-0.8811295 -0.32962441 0.22342718
-0.87939906 -0.32914656 0.13155322
-0.047700744 -0.0050910613 3.9791219
-0.57389367 -0.20184778 3.8678632
-0.74174976 -0.26465175 3.8097472
-1.0903406 -0.39485371 3.7543814
-1.1554003 -0.42155999 2.9570401
-1.0527636 -0.38576391 2.1220245
-1.0042831 -0.36917755 1.6441258
-0.9793399 -0.36058134 1.3261089
-0.22833967 -0.068641476 3.9628055
-0.4015367 -0.1365222 3.912385
-0.91798121 -0.32869259 3.7915902
-1.2049688 -0.43585095 3.5387604
-1.0919387 -0.39731866 2.4664097
-1.0255816 -0.37457731 1.8561009
-0.98440915 -0.36030838 1.4628483
-0.96230555 -0.35296789 1.1894691
-0.95695621 -0.35422814 1.0825521
-0.94080043 -0.34879798 0.89143795
-0.91942382 -0.3410506 0.72754866
-0.91495478 -0.33974814 0.59744954
-0.90902144 -0.33772016 0.48011476
-0.88612187 -0.32938352 0.36781636
-0.88393331 -0.32891577 0.2705352
-0.88659507 -0.32990345 0.17787378
-0.9492262 -0.34985557 0.98217851
-0.93151402 -0.34368935 0.8065148
-0.9156422 -0.33801001 0.6591689
-0.90775859 -0.33563197 0.53486103
-0.8995837 -0.33278263 0.42297181
-0.88447106 -0.3273623 0.31818265
-0.88227475 -0.3265467 0.22342718
-0.88054264 -0.3260749 0.13155322
-0.047761854 -0.0049242876 3.9841218
-0.5745948 -0.19984327 3.8678632
-0.74266905 -0.26206097 3.8097472
-1.0917122 -0.3910453 3.7543814
-1.1531893 -0.41619822 2.947835
-1.0518521 -0.3812708 2.1176355
-1.0029211 -0.36470821 1.6399928
-0.97758079 -0.35606381 1.3222713
-0.22857788 -0.067844003 3.9628055
-0.40201083 -0.13511974 3.912385
-0.91912299 -0.32548624 3.7915902
-1.2032331 -0.43047988 3.5293748
-1.0912704 -0.39276758 2.4619086
-1.0244298 -0.37010905 1.8518349
-0.98566091 -0.35686994 1.4628483
-0.96034479 -0.34845048 1.1857939
-0.9548381 -0.34965944 1.0790474
-0.93835795 -0.34417167 0.88829952
-0.9206087 -0.33783916 0.72754866
-0.91613513 -0.33655229 0.59744954
-0.91019481 -0.33454505 0.48011476
-0.88276404 -0.32463276 0.36640632
-0.88507605 -0.32582828 0.2705352
-0.88774121 -0.32680666 0.17787378
-0.94693375 -0.34526116 0.97885299
-0.92891103 -0.33904991 0.80357164
-0.91681647 -0.33481178 0.6591689
-0.90892458 -0.33246127 0.53486103
-0.90073985 -0.32964048 0.42297181
-0.88560838 -0.32427293 0.31818265
-0.8834092 -0.32346499 0.22342718
-0.88167548 -0.32299924 0.13155322
-0.047778755 -0.0047575375 3.9841218
-0.57528889 -0.19783635 3.8678632
-0.74454075 -0.25980216 3.8146427
-1.0930706 -0.38723215 3.7543814
-1.1509551 -0.41085702 2.9386299
-1.050922 -0.37678868 2.1132464
-1.0015399 -0.36025286 1.63586
-0.9788177 -0.35264924 1.3222713
-0.22881331 -0.067045704 3.9628055
-0.40197396 -0.13354808 3.9074132
-0.92025357 -0.32227591 3.7915902
-1.2031016 -0.42570177 3.5246823
-1.090584 -0.38822609 2.4574075
-1.0232595 -0.36565346 1.847569
-0.98406368 -0.35241142 1.4588583
-0.96155524 -0.34509611 1.1857939
-0.95605284 -0.34632432 1.0790474
-0.93955362 -0.34089407 0.88829952
-0.91785192 -0.33319685 0.7248072
-0.9214679 -0.3348653 0.5997684
-0.90700018 -0.3297818 0.47824174
-0.88389182 -0.32154936 0.36640632
-0.88620806 -0.3227368 0.2705352
-0.88887662 -0.32370588 0.17787378
-0.94813317 -0.34195361 0.97885299
-0.93008888 -0.33580536 0.80357164
-0.91392517 -0.33014494 0.6566357
-0.91007954 -0.32928652 0.53486103
-0.90188503 -0.32649428 0.42297181
-0.8867349 -0.3211796 0.31818265
-0.88453293 -0.32037935 0.22342718
-0.8827976 -0.31991965 0.13155322
-0.047838703 -0.0045901886 3.9891217
-0.57597595 -0.19582701 3.8678632
-0.74544311 -0.25720164 3.8146427
-1.0944157 -0.38341427 3.7543814
-1.15054 -0.40618673 2.9340274
-1.0499735 -0.37231773 2.1088572
-1.0027915 -0.3567546 1.63586
-0.97702342 -0.34815466 1.3184339
-0.2293236 -0.066325627 3.967797
-0.40243769 -0.13214412 3.9074132
-0.92137289 -0.31906167 3.7915902
-1.2013226 -0.42036 3.5152967
-1.0878255 -0.38297138 2.448405
-1.0220705 -0.36121053 1.843303
-0.98528785 -0.34897426 1.4588583
-0.9595592 -0.34060374 1.1821188
-0.95389855 -0.34178218 1.0755429
-0.93707424 -0.33629772 0.88516104
-0.91900945 -0.32999095 0.7248072
-0.9226312 -0.33164674 0.5997684
-0.90378338 -0.32504493 0.4763687
-0.88500881 -0.31846204 0.36640632
-0.88732916 -0.31964138 0.2705352
-0.89000112 -0.32060114 0.17787378
-0.94932103 -0.33864194 0.97885299
-0.9312554 -0.33255669 0.80357164
-0.91507202 -0.32695276 0.6566357
-0.91549653 -0.32763687 0.53695905
-0.90301919 -0.32334414 0.42297181
-0.88785064 -0.31808236 0.31818265
-0.88564587 -0.3172898 0.22342718
-0.88390893 -0.31683615 0.13155322
-0.047854431 -0.0044231727 3.9891217
-0.57960254 -0.19480404 3.8876202
-0.7463364 -0.25459802 3.8146427
-1.0957474 -0.3795917 3.7543814
-1.1482618 -0.40088055 2.9248226
-1.0490067 -0.36785799 2.1044683
-1.001376 -0.35231826 1.631727
-0.97520971 -0.34367692 1.3145963
-0.22955371 -0.065524735 3.967797
-0.40289652 -0.13073854 3.9074132
-0.922481 -0.31584352 3.7915902
-1.2011516 -0.41559991 3.5106039
-1.0870998 -0.37845626 2.4439037
-1.0208632 -0.35678032 1.8390369
-0.98365605 -0.3445369 1.4548682
-0.96074224 -0.33725217 1.1821188
-0.95508581 -0.3384504 1.0755429
-0.93824244 -0.33302468 0.88516104
-0.9162153 -0.32538173 0.72206575
-0.92378324 -0.3284241 0.5997684
-0.90491253 -0.32188812 0.4763687
-0.88611507 -0.31537086 0.36640632
-0.88381225 -0.31489345 0.2696026
-0.89111489 -0.31749251 0.17787378
-0.94697624 -0.33408406 0.97552752
-0.92859924 -0.32795805 0.80062848
-0.91620767 -0.32375655 0.6566357
-0.91663462 -0.3244392 0.53695905
-0.89969105 -0.31861374 0.42132831
-0.88437396 -0.31335795 0.31701031
-0.88674808 -0.31419638 0.22342718
-0.88030076 -0.31207949 0.13135168
-0.047869582 -0.0042561027 3.9891217
-0.58027899 -0.19277966 3.8876202
-0.74722052 -0.25199124 3.8146427
-1.098478 -0.37624803 3.7591536
-1.1459606 -0.39559525 2.9156172
-1.0480214 -0.36340958 2.1000791
-0.99994189 -0.34789613 1.6275939
-0.97337657 -0.33921605 1.3107588
-0.22978105 -0.064723037 3.967797
-0.40335044 -0.12933138 3.9074132
-0.92476857 -0.31302431 3.7964296
-1.2009622 -0.41084617 3.5059111
-1.0863558 -0.3739509 2.4394026
-1.0196373 -0.35236302 1.8347712
-0.98200536 -0.34011522 1.4508783
-0.95871085 -0.33278492 1.1784436
-0.95289576 -0.33393517 1.0720384
-0.93572652 -0.32845855 0.88202262
-0.91340029 -0.32079613 0.71932429
-0.92492402 -0.32519752 0.5997684
-0.90165734 -0.3171891 0.47449568
-0.89173549 -0.3138684 0.36781636
-0.88490599 -0.31180644 0.2696026
-0.89221764 -0.31437999 0.17787378
-0.94813663 -0.33077648 0.97552752
-0.92973834 -0.32471463 0.80062848
-0.91733223 -0.32055643 0.6566357
-0.91776156 -0.32123756 0.53695905
-0.90079772 -0.31547129 0.42132831
-0.8854624 -0.310269 0.31701031
-0.8831659 -0.30946159 0.22273649
-0.88138479 -0.30900475 0.13135168
-0.047927767 -0.0040879832 3.9941213
-0.74809557 -0.24938142 3.8146427
-1.1011986 -0.37288994 3.7639256
-1.1454855 -0.39096183 2.9110148
-1.0470181 -0.35897255 2.09569
-0.99848914 -0.34348831 1.623461
-0.97455472 -0.33581629 1.3107588
-0.23000556 -0.063920557 3.967797
-0.40379941 -0.12792262 3.9074132
-0.92704767 -0.31019303 3.8012691
-1.2007543 -0.40609884 3.5012183
-1.0855935 -0.36945531 2.4349012
-1.0183929 -0.34795859 1.8305051
-0.9831866 -0.3366853 1.4508783
-0.95986664 -0.32943636 1.1784436
-0.95405561 -0.33060691 1.0720384
-0.93686736 -0.32519025 0.88202262
-0.91451454 -0.31760579 0.71932429
-0.92605352 -0.32196695 0.5997684
-0.90275908 -0.3140398 0.47449568
-0.89282566 -0.31075376 0.36781636
-0.88598901 -0.30871564 0.2696026
-0.88860697 -0.30962509 0.1774267
-0.94575578 -0.32624742 0.972202
-0.92704546 -0.32014799 0.79768533
-0.91844559 -0.31735238 0.6566357
-0.91458845 -0.31654772 0.53486103
-0.89743125 -0.31077981 0.4196848
-0.88194734 -0.305585 0.31583801
-0.88424075 -0.3063769 0.22273649
-0.88245797 -0.30592626 0.13135168
-0.047941748 -0.0039206594 3.9941213
-1.8278692 -0.59245586 12.215209
-0.74992871 -0.24708693 3.8195379
-1.1039089 -0.36951739 3.7686975
-1.144992 -0.38633651 2.9064121
-1.0459962 -0.35454687 2.091301
-0.9970178 -0.33909491 1.619328
-0.97268701 -0.33137894 1.3069214
-0.23022729 -0.063117303 3.967797
-0.40475237 -0.12667103 3.912385
-0.92931825 -0.30734959 3.8061085
-1.2005278 -0.40135795 3.4965255
-1.0848132 -0.36496967 2.4304001
-1.0171305 -0.34356719 1.8262392
-0.9815017 -0.3322852 1.4468882
-0.95780021 -0.32499459 1.1747683
-0.95183003 -0.32611883 1.0685339
-0.9343152 -0.32065463 0.87888414
-0.91166288 -0.31305373 0.71658283
-0.92717177 -0.31873244 0.5997684
-0.90384978 -0.31088665 0.47449568
-0.88936901 -0.30607435 0.36640632
-0.88241684 -0.304021 0.26866996
-0.88968229 -0.30652139 0.1774267
-0.94335485 -0.32173899 0.96887648
-0.92815739 -0.31691003 0.79768533
-0.9195478 -0.31414449 0.6566357
-0.9156878 -0.31335327 0.53486103
-0.89404303 -0.30611572 0.41804129
-0.88300866 -0.30250454 0.31583801
-0.88061994 -0.30168352 0.22204581
-0.87879449 -0.30122414 0.13115016
-0.04795514 -0.0037532873 3.9941213
-0.75078666 -0.24446769 3.8195379
-1.1066093 -0.3661305 3.7734697
-1.1426269 -0.38110143 2.8972073
-1.0449566 -0.35013276 2.0869119
-0.99819541 -0.3356126 1.619328
-0.97383785 -0.32798162 1.3069214
-0.23044622 -0.062313274 3.967797
-0.40519211 -0.1252574 3.912385
-0.93158031 -0.30449408 3.8109479
-1.1986443 -0.39608234 3.4871402
-1.0840148 -0.36049393 2.4258988
-1.0158497 -0.33918881 1.8219732
-0.97979802 -0.32790098 1.4428982
-0.95892882 -0.32164928 1.1747683
-0.95296258 -0.32279435 1.0685339
-0.93542886 -0.31739131 0.87888414
-0.91275001 -0.30986953 0.71658283
-0.92408437 -0.31406865 0.59744954
-0.90492946 -0.30772975 0.47449568
-0.89043194 -0.302968 0.36640632
-0.88347274 -0.30093893 0.26866996
-0.88603282 -0.30180824 0.17697962
-0.94447219 -0.3184441 0.96887648
-0.92542821 -0.31237566 0.79474217
-0.92472297 -0.31231201 0.6591689
-0.91247684 -0.30870062 0.53276294
-0.89510608 -0.30299306 0.41804129
-0.88405919 -0.29942045 0.31583801
-0.88166767 -0.29860777 0.22204581
-0.87984055 -0.29815474 0.13115016
-0.04792434 -0.0035873239 3.9891217
-1.8275158 -0.57827485 12.185574
-0.75163543 -0.24184547 3.8195379
-1.1092995 -0.36272922 3.7782414
-1.1420947 -0.37649915 2.8926048
-1.0438988 -0.34573025 2.0825229
-0.99669045 -0.33123893 1.615195
-0.97193551 -0.32356802 1.3030838
-0.23066233 -0.061508488 3.967797
-0.40613684 -0.12399741 3.9173565
-0.93383372 -0.30162656 3.8157876
-1.1983792 -0.39136031 3.4824471
-1.0831984 -0.35602826 2.4213977
-1.0145509 -0.33482364 1.8177074
-0.98093665 -0.32447886 1.4428982
-0.95682782 -0.31723332 1.1710931
-0.95408356 -0.31946594 1.0685339
-0.93653101 -0.31412414 0.87888414
-0.91382611 -0.30668154 0.71658283
-0.92097586 -0.30943036 0.59513074
-0.90599811 -0.30456907 0.47449568
-0.89148414 -0.29985797 0.36640632
-0.87986243 -0.2962856 0.26773736
-0.88708091 -0.29871356 0.17697962
-0.94203573 -0.31396493 0.96555102
-0.92651302 -0.30914342 0.79474217
-0.92580754 -0.30908221 0.6591689
-0.90494037 -0.30263495 0.52856684
-0.89168012 -0.29836833 0.41639778
-0.88509899 -0.29633266 0.31583801
-0.88270462 -0.29552835 0.22204581
-0.880876 -0.2950817 0.13115016
-0.04793657 -0.0034200151 3.9891217
-1.8339731 -0.5732823 12.215209
-0.75247508 -0.23922029 3.8195379
-1.1119795 -0.35931364 3.7830136
-1.1415443 -0.37190518 2.8880022
-1.0450993 -0.34208426 2.0825229
-0.99784058 -0.32775778 1.615195
-0.97305906 -0.32017335 1.3030838
-0.23087563 -0.060702953 3.967797
-0.40656722 -0.12257897 3.9173565
-0.93488091 -0.29836503 3.8157876
-1.1964533 -0.38611516 3.4730618
-1.0844346 -0.35224503 2.4213977
-1.0157135 -0.33128014 1.8177074
-0.97919917 -0.32011661 1.4389081
-0.95792937 -0.31389141 1.1710931
-0.95519286 -0.31613362 1.0685339
-0.93392718 -0.30962837 0.87574571
-0.91489106 -0.30348983 0.71658283
-0.91784632 -0.30481762 0.59281194
-0.90705574 -0.30140471 0.47449568
-0.88797337 -0.2952309 0.36499628
-0.88089132 -0.2932125 0.26773736
-0.88339311 -0.2940425 0.17653254
-0.94312596 -0.3106747 0.96555102
-0.92758644 -0.3059074 0.79474217
-0.92688078 -0.30584866 0.6591689
-0.90168202 -0.29804996 0.52646881
-0.89271623 -0.29525399 0.41639778
-0.88612801 -0.29324132 0.31583801
-0.88373083 -0.29244536 0.22204581
-0.88190067 -0.29200506 0.13115016
-0.047948215 -0.0032526646 3.9891217
-1.835963 -0.56687713 12.215209
-0.75330549 -0.2365922 3.8195379
-1.1146488 -0.35588372 3.7877855
-1.140976 -0.36731967 2.8833997
-1.0440083 -0.33769721 2.0781338
-0.99630201 -0.32340404 1.6110622
-0.97112256 -0.3157838 1.2992463
-0.23108611 -0.059896674 3.967797
-0.40699261 -0.12115903 3.9173565
-0.93471783 -0.29472211 3.8109479
-1.1961496 -0.38141233 3.468369
-1.0835847 -0.34779236 2.4168963
-1.0143813 -0.32693276 1.8134414
-0.98031068 -0.31669661 1.4389081
-0.95901918 -0.31054571 1.1710931
-0.95290095 -0.3116889 1.0650293
-0.93500233 -0.30636644 0.87574571
-0.91594487 -0.30029443 0.71658283
-0.91469586 -0.30023047 0.59049314
-0.90810233 -0.29823664 0.47449568
-0.88899845 -0.29212949 0.36499628
-0.87724316 -0.28860071 0.26680472
-0.88441414 -0.29095709 0.17653254
-0.94065428 -0.30622503 0.9622255
-0.92480552 -0.30141523 0.79179901
-0.92794275 -0.30261138 0.6591689
-0.89840269 -0.29349142 0.52437073
-0.89374137 -0.29213601 0.41639778
-0.88714617 -0.29014635 0.31583801
-0.88474625 -0.28935876 0.22204581
-0.88291454 -0.2889249 0.13115016
-0.047959276 -0.0030852738 3.9891217
-1.8319848 -0.55865276 12.175694
-0.75412673 -0.23396124 3.8195379
-1.1158843 -0.35199067 3.7877855
-1.1403893 -0.3627426 2.8787971
-1.0428993 -0.3333219 2.0737445
-0.99742478 -0.31992432 1.6110622
-0.97221899 -0.31239203 1.2992463
-0.23101379 -0.059019394 3.9628055
-0.40741307 -0.11973763 3.9173565
-0.93454069 -0.29108393 3.8061085
-1.1958277 -0.37671632 3.4636762
-1.0827171 -0.34334996 2.4123952
-1.0130311 -0.32259873 1.8091755
-0.97853953 -0.31235665 1.4349182
-0.95686835 -0.30616322 1.167418
-0.95398313 -0.30836073 1.0650293
-0.93606603 -0.30310082 0.87574571
-0.91698748 -0.29709533 0.71658283
-0.91152453 -0.29566908 0.58817434
-0.90472829 -0.29363391 0.47262263
-0.89001274 -0.28902453 0.36499628
-0.87824517 -0.2855368 0.26680472
-0.88542438 -0.28786814 0.17653254
-0.94171745 -0.30293968 0.9622255
-0.925852 -0.29818523 0.79179901
-0.92899346 -0.29937041 0.6591689
-0.89510268 -0.28895944 0.52227271
-0.89026213 -0.28756312 0.41475427
-0.88815361 -0.28704783 0.31583801
-0.88575089 -0.28626865 0.22204581
-0.88391775 -0.2858412 0.13115016
-0.047969755 -0.0029178462 3.9891217
-1.8346676 -0.55247843 12.180634
-0.75493884 -0.23132743 3.8195379
-1.1171062 -0.34809339 3.7877855
-1.1397847 -0.3581742 2.8741946
-1.0417726 -0.32895851 2.0693557
-0.99585283 -0.31559077 1.6069292
-0.9702484 -0.30802673 1.2954088
-0.2312184 -0.058212642 3.9628055
-0.40782854 -0.11831476 3.9173565
-0.93675256 -0.28818941 3.8109479
-1.1954876 -0.37202722 3.4589834
-1.0818315 -0.33891782 2.4078939
-1.0116632 -0.3182781 1.8049095
-0.97962391 -0.30893898 1.4349182
-0.95793128 -0.30282128 1.167418
-0.95165658 -0.30394402 1.0615247
-0.93341112 -0.29864553 0.87260723
-0.91403663 -0.29261786 0.71384138
-0.90833265 -0.29113352 0.58585554
-0.90574771 -0.29047403 0.47262263
-0.89101624 -0.28591603 0.36499628
-0.87923658 -0.28246942 0.26680472
-0.88642383 -0.28477567 0.17653254
-0.93921077 -0.29851976 0.95890003
-0.9230355 -0.29372606 0.78885585
-0.92592502 -0.29481804 0.6566357
-0.89178193 -0.28445408 0.52017462
-0.89126045 -0.28445375 0.41475427
-0.8891502 -0.28394589 0.31583801
-0.8867448 -0.28317508 0.22204581
-0.88015121 -0.2812334 0.13094862
-0.048023224 -0.0027481676 3.9941213
-1.8350953 -0.54562825 12.170755
-0.75574172 -0.22869079 3.8195379
-1.1183145 -0.34419182 3.7877855
-1.1391622 -0.35361439 2.869592
-1.0406281 -0.32460701 2.0649664
-0.99426281 -0.31127208 1.6027963
-0.97131771 -0.30463803 1.2954088
-0.23142017 -0.057405185 3.9628055
-0.40823904 -0.11689045 3.9173565
-0.93895566 -0.28528297 3.8157876
-1.1951294 -0.36734506 3.4542906
-1.0809282 -0.33449611 2.4033928
-1.0102775 -0.31397098 1.8006437
-0.97781938 -0.30462152 1.4309281
-0.95574641 -0.29846522 1.1637428
-0.9527117 -0.30062026 1.0615247
-0.93444788 -0.29538548 0.87260723
-0.91505241 -0.28942552 0.71384138
-0.90934336 -0.2879611 0.58585554
-0.90233684 -0.2859104 0.47074962
-0.89200884 -0.28280407 0.36499628
-0.87553519 -0.27791247 0.26587209
-0.88741249 -0.28167975 0.17653254
-0.94024712 -0.29523951 0.95890003
-0.92405516 -0.29050228 0.78885585
-0.92283636 -0.29029074 0.65410256
-0.89276946 -0.28133947 0.52017462
-0.89224797 -0.28134093 0.41475427
-0.88550049 -0.279378 0.31466568
-0.88300526 -0.27858806 0.22135513
-0.88112754 -0.27815938 0.13094862
-0.048032526 -0.0025805184 3.9941213
-1.8369888 -0.5392192 12.170755
-0.75653541 -0.22605136 3.8195379
-1.1195091 -0.34028611 3.7877855
-1.1385217 -0.34906334 2.8649898
-1.0394661 -0.32026756 2.0605774
-0.99534333 -0.30779955 1.6027963
-0.97237515 -0.30124566 1.2954088
-0.23161915 -0.056597028 3.9628055
-0.40864459 -0.11546473 3.9173565
-0.96402603 -0.28922355 3.912576
-1.1947531 -0.36266997 3.4495978
-1.0800073 -0.3300848 2.3988914
-1.0113673 -0.31044257 1.8006437
-0.97887677 -0.30120644 1.4309281
-0.95678246 -0.29512724 1.1637428
-0.95035052 -0.29623172 1.0580202
-0.93175787 -0.29096177 0.86946881
-0.91206598 -0.28498268 0.71109986
-0.91034299 -0.28478512 0.58585554
-0.89890504 -0.28137416 0.46887657
-0.88841277 -0.27825493 0.36358625
-0.87649995 -0.2748546 0.26587209
-0.8883903 -0.2785804 0.17653254
-0.9412719 -0.29195565 0.95890003
-0.92506367 -0.28727496 0.78885585
-0.92384404 -0.28706768 0.65410256
-0.89374602 -0.27822137 0.52017462
-0.8932246 -0.27822471 0.41475427
-0.8818298 -0.27483907 0.31349337
-0.88397235 -0.27550411 0.22135513
-0.87732369 -0.27359465 0.13074709
-0.048041239 -0.0024128375 3.9941213
-1.8381134 -0.53258759 12.165816
-0.75731987 -0.22340918 3.8195379
-1.1206901 -0.33637619 3.7877855
-1.1378634 -0.34452108 2.8603871
-1.0405777 -0.31663722 2.0605774
-0.99372035 -0.30350152 1.5986633
-0.9734208 -0.2978496 1.2954088
-0.23181531 -0.055788185 3.9628055
-0.40904513 -0.11403758 3.9173565
-0.99034035 -0.29334924 4.0142035
-1.1943586 -0.35800198 3.444905
-1.0769846 -0.32505515 2.389889
-1.0099488 -0.30615389 1.7963778
-0.9770391 -0.29691172 1.4269381
-0.95780677 -0.29178563 1.1637428
-0.95137876 -0.29291257 1.0580202
-0.93276787 -0.28770757 0.86946881
-0.91305518 -0.28179726 0.71109986
-0.91133153 -0.28160569 0.58585554
-0.89988178 -0.27823466 0.46887657
-0.88479584 -0.27373436 0.36217624
-0.87276173 -0.27033997 0.26493949
-0.88935733 -0.27547762 0.17653254
-0.93871528 -0.28757471 0.95557451
-0.92219633 -0.28285897 0.78591269
-0.92071939 -0.28257644 0.65156937
-0.89471179 -0.27509996 0.52017462
-0.89419037 -0.27510506 0.41475427
-0.87813836 -0.27032921 0.31232107
-0.88019568 -0.27095985 0.22066444
-0.87827343 -0.27053052 0.13074709
-0.048049372 -0.0022451284 3.9941213
-1.8399613 -0.52616811 12.165816
-0.75907278 -0.2210487 3.8244331
-1.1218574 -0.33246222 3.7877855
-1.1371872 -0.33998767 2.8557847
-1.0393827 -0.31231391 2.0561883
-0.99477375 -0.30003092 1.5986633
-0.97445458 -0.29444993 1.2954088
-0.23172744 -0.054913275 3.9578137
-0.40944073 -0.11260905 3.9173565
-0.99135828 -0.28989053 4.0142035
-1.1939462 -0.35334116 3.4402122
-1.0760263 -0.32067224 2.3853879
-1.0110114 -0.30262664 1.7963778
-0.97518343 -0.29263353 1.4229481
-0.95557302 -0.28746402 1.1600677
-0.94898331 -0.28855255 1.0545157
-0.93004304 -0.28331575 0.86633033
-0.91403329 -0.27860838 0.71109986
-0.91654581 -0.27971578 0.58817434
-0.89641362 -0.27373791 0.46700355
-0.88574594 -0.27064419 0.36217624
-0.87370008 -0.26729181 0.26493949
-0.88555139 -0.27091467 0.17608546
-0.93971336 -0.28429621 0.95557451
-0.92317814 -0.27963817 0.78591269
-0.91757464 -0.27811053 0.64903617
-0.89132386 -0.27065653 0.5180766
-0.89514518 -0.27198207 0.41475427
-0.8790766 -0.26726231 0.31232107
-0.88113618 -0.26788574 0.22066444
-0.87921232 -0.26746315 0.13074709
-0.04801337 -0.002080214 3.9891217
-1.8417867 -0.51974219 12.165816
-0.75983977 -0.21839768 3.8244331
-1.1230111 -0.32854417 3.7877855
-1.1364933 -0.33546314 2.851182
-1.0404665 -0.30868387 2.0561883
-0.99311799 -0.29575372 1.5945303
-0.97240502 -0.29013041 1.2915714
-0.23191771 -0.05410406 3.9578137
-0.40931669 -0.11104012 3.912385
-0.98994875 -0.28573155 4.0045252
-1.1935159 -0.34868762 3.4355197
-1.0750507 -0.31629997 2.3808868
-1.0095606 -0.2983568 1.7921119
-0.97619891 -0.28922772 1.4229481
-0.95657063 -0.2841267 1.1600677
-0.94998479 -0.28523821 1.0545157
-0.93102634 -0.28006756 0.86633033
-0.9150002 -0.27541611 0.71109986
-0.91751665 -0.27651471 0.58817434
-0.89736372 -0.27060717 0.46700355
-0.88209277 -0.26616502 0.3607662
-0.87462777 -0.26424038 0.26493949
-0.88649166 -0.26782188 0.17608546
-0.94070005 -0.28101423 0.95557451
-0.92414862 -0.27641401 0.78591269
-0.91853982 -0.27490589 0.64903617
-0.89226323 -0.26754358 0.5180766
-0.89608914 -0.26885578 0.41475427
-0.87534875 -0.26279452 0.31114873
-0.87732303 -0.26338455 0.21997377
-0.88014066 -0.2643925 0.13074709
-0.048020341 -0.0019126039 3.9891217
-1.8428414 -0.5131017 12.160877
-0.76157707 -0.2160216 3.8293283
-1.1241511 -0.32462215 3.7877855
-1.1357818 -0.33094764 2.8465796
-1.0392393 -0.30437711 2.0517993
-0.99414426 -0.29228529 1.5945303
-0.9734118 -0.28673431 1.2915714
-0.23210515 -0.053294186 3.9578137
-0.40970179 -0.10961065 3.912385
-0.98731321 -0.2812418 3.9900069
-1.1930677 -0.34404135 3.4308267
-1.0740576 -0.31193843 2.3763855
-1.0080922 -0.2941007 1.7878458
-0.9743104 -0.28497267 1.4189581
-0.95755655 -0.28078592 1.1600677
-0.9509747 -0.28192043 1.0545157
-0.93199825 -0.27681598 0.86633033
-0.91194791 -0.27102938 0.70835841
-0.91847628 -0.2733103 0.58817434
-0.89830285 -0.26747316 0.46700355
-0.88301647 -0.26308432 0.3607662
-0.88025212 -0.26258996 0.26587209
-0.882649 -0.26330227 0.17563838
-0.94167525 -0.27772889 0.95557451
-0.92123133 -0.27204183 0.78296953
-0.91535968 -0.27047649 0.64650303
-0.88883984 -0.26313913 0.51597857
-0.89702213 -0.26572621 0.41475427
-0.87626076 -0.2597374 0.31114873
-0.87823707 -0.26032051 0.21997377
-0.88105816 -0.26131862 0.13074709
-0.048026726 -0.0017449696 3.9891217
-1.8438718 -0.50646025 12.155938
-0.76232648 -0.21336189 3.8293283
-1.1252774 -0.32069615 3.7877855
-1.1331748 -0.32590142 2.8373744
-1.0402955 -0.30074763 2.0517993
-0.9924559 -0.28802913 1.5903975
-0.97132897 -0.28243998 1.2877338
-0.23200792 -0.052421231 3.9528222
-0.41008192 -0.10817986 3.912385
-0.98828894 -0.27779371 3.9900069
-1.1909417 -0.33893031 3.4214413
-1.0730473 -0.30758771 2.3718843
-1.0091126 -0.29058 1.7878458
-0.97240412 -0.28073433 1.414968
-0.95527428 -0.27649927 1.1563925
-0.95195299 -0.27859917 1.0545157
-0.92922378 -0.27246597 0.8631919
-0.91288841 -0.26784444 0.70835841
-0.91942471 -0.27010256 0.58817434
-0.89923102 -0.26433587 0.46700355
-0.88392943 -0.26000041 0.3607662
-0.8811633 -0.2595157 0.26587209
-0.88356268 -0.26021963 0.17563838
-0.94263893 -0.27444014 0.95557451
-0.92217529 -0.26882449 0.78296953
-0.9121598 -0.2660726 0.64396977
-0.88975298 -0.26003492 0.51597857
-0.89341182 -0.26126805 0.41311076
-0.87716204 -0.25667712 0.31114873
-0.87914038 -0.25725332 0.21997377
-0.88196498 -0.25824156 0.13074709
-0.048032522 -0.0015773145 3.9891217
-1.8456285 -0.5000208 12.155938
-0.76404822 -0.2109703 3.8342235
-1.12639 -0.31676623 3.7877855
-1.132426 -0.32141063 2.8327718
-1.0390358 -0.29645756 2.0474102
-0.99075007 -0.28378835 1.5862645
-0.97230893 -0.27904767 1.2877338
-0.23218949 -0.051611051 3.9528222
-0.41045704 -0.10674775 3.912385
-0.98682994 -0.27367082 3.9803278
-1.190456 -0.33430469 3.4167485
-1.0720196 -0.30324781 2.367383
-1.007612 -0.28634304 1.7835798
-0.97337812 -0.27733827 1.414968
-0.95623362 -0.27316308 1.1563925
-0.94949347 -0.27428496 1.0510111
-0.93016917 -0.26922071 0.8631919
-0.91381782 -0.26465625 0.70835841
-0.91610742 -0.26565787 0.58585554
-0.90014827 -0.26119536 0.46700355
-0.88483161 -0.25691333 0.3607662
-0.87734687 -0.25506699 0.26493949
-0.87968367 -0.25574365 0.1751913
-0.9400025 -0.27011698 0.95224905
-0.9231081 -0.26560384 0.78296953
-0.91308302 -0.26288694 0.64396977
-0.89065522 -0.25692749 0.51597857
-0.8943184 -0.25814787 0.41311076
-0.87805271 -0.25361368 0.31114873
-0.87527543 -0.25280884 0.21928309
-0.87806153 -0.25377423 0.13054556
-0.048037738 -0.0014096401 3.9891217
-1.8458612 -0.4931744 12.14606
-0.76477998 -0.20830198 3.8342235
-1.1274889 -0.31283247 3.7877855
-1.127897 -0.31587568 2.8189645
-1.0400642 -0.29282886 2.0474102
-0.99173462 -0.28032827 1.5862645
-0.97019309 -0.27477872 1.2838963
-0.23265052 -0.050860707 3.9578137
-0.41082713 -0.10531433 3.912385
-0.98656672 -0.26989299 3.9754882
-1.1882895 -0.32922602 3.4073629
-1.0730716 -0.29950392 2.367383
-1.0086054 -0.28282407 1.7835798
-0.97143948 -0.27312347 1.410978
-0.95391834 -0.26890388 1.1527174
-0.95044512 -0.27096894 1.0510111
-0.93110329 -0.26597217 0.8631919
-0.91071558 -0.26031575 0.70561695
-0.91702914 -0.26245844 0.58585554
-0.9010545 -0.25805163 0.46700355
-0.88572305 -0.25382313 0.3607662
-0.87823188 -0.25200292 0.26493949
-0.88057101 -0.25267142 0.1751913
-0.94093972 -0.26683411 0.95224905
-0.92014122 -0.26127601 0.78002638
-0.90984839 -0.25852001 0.64143664
-0.88718152 -0.25257435 0.51388049
-0.89067256 -0.25373086 0.41146725
-0.8789326 -0.25054714 0.31114873
-0.87615252 -0.24975203 0.21928309
-0.87894201 -0.25070769 0.13054556
-0.04808585 -0.0012383655 3.9941213
-1.8460686 -0.48633248 12.136181
-0.76550239 -0.20563114 3.8342235
-1.128574 -0.30889487 3.7877855
-1.1252265 -0.31089643 2.8097594
-1.0387725 -0.28855574 2.0430212
-0.98999643 -0.27610895 1.5821315
-0.9680593 -0.27052793 1.2800589
-0.23310913 -0.050107777 3.9628055
-0.41119224 -0.10387964 3.912385
-0.98507565 -0.26579317 3.9658096
-1.1877669 -0.32462132 3.4026701
-1.0720117 -0.29517868 2.3628819
-1.0070727 -0.27860641 1.7793139
-0.9723869 -0.26973087 1.410978
-0.95485115 -0.26557243 1.1527174
-0.94795215 -0.266684 1.0475066
-0.93202603 -0.26272041 0.8631919
-0.91161871 -0.25713518 0.70561695
-0.91793972 -0.25925583 0.58585554
-0.90194976 -0.25490481 0.46700355
-0.88660365 -0.25072983 0.3607662
-0.87910616 -0.24893577 0.26493949
-0.88144761 -0.2495961 0.1751913
-0.94186544 -0.26354802 0.95224905
-0.92104769 -0.25806254 0.78002638
-0.91074526 -0.25534248 0.64143664
-0.88805777 -0.24947597 0.51388049
-0.89155287 -0.25062028 0.41146725
-0.87512273 -0.24616148 0.3099764
-0.87701899 -0.24669217 0.21928309
-0.87500274 -0.24628453 0.13034403
-0.04808988 -0.0010705068 3.9941213
-1.8462509 -0.47949514 12.126302
-0.76621556 -0.20295778 3.8342235
-1.1296453 -0.30495355 3.7877855
-1.1206499 -0.30542612 2.7959518
-1.0374635 -0.2842952 2.0386319
-0.99095422 -0.27265155 1.5821315
-0.96899778 -0.26714715 1.2800589
-0.23328263 -0.049293771 3.9628055
-0.41155237 -0.10244367 3.912385
-0.98356801 -0.26170701 3.9561307
-1.1872265 -0.32002431 3.3979776
-1.0709345 -0.29086441 2.3583806
-1.0055231 -0.27440295 1.775048
-0.97041607 -0.26553982 1.406988
-0.95577234 -0.26223776 1.1527174
-0.94887727 -0.2633734 1.0475066
-0.92918742 -0.25842261 0.86005342
-0.90848231 -0.25283051 0.70287549
-0.9188391 -0.25605005 0.58585554
-0.90283412 -0.25175488 0.46700355
-0.8874734 -0.24763347 0.3607662
-0.87523872 -0.24454378 0.26400685
-0.88231349 -0.24651775 0.1751913
-0.94277966 -0.26025867 0.95224905
-0.92194283 -0.25484592 0.78002638
-0.90747619 -0.25101268 0.63890344
-0.88892317 -0.24637455 0.51388049
-0.88787186 -0.24624471 0.40982375
-0.87597668 -0.24310522 0.3099764
-0.87787473 -0.24362929 0.21928309
-0.87585711 -0.24322867 0.13034403
-0.048093323 -0.00090263557 3.9941213
-1.8464079 -0.47266248 12.116425
-0.76691931 -0.20028195 3.8342235
-1.130703 -0.30100849 3.7877855
-1.1160492 -0.29999158 2.7821441
-1.0361376 -0.28004736 2.0342431
-0.98918402 -0.26845396 1.5779986
-0.96683139 -0.26292217 1.2762213
-0.23373617 -0.048536666 3.967797
-0.41190743 -0.10100646 3.912385
-0.98325956 -0.25795335 3.9512913
-1.1866686 -0.31543502 3.3932846
-1.0698406 -0.28656134 2.3538795
-1.0064747 -0.27089134 1.775048
-0.97133708 -0.26215082 1.406988
-0.95668191 -0.2588999 1.1527174
-0.94635117 -0.25911796 1.0440021
-0.93008381 -0.25517756 0.86005342
-0.90935934 -0.24965778 0.70287549
-0.91972727 -0.25284111 0.58585554
-0.90370739 -0.24860185 0.46700355
-0.8837074 -0.24326105 0.35935616
-0.87608701 -0.24148715 0.26400685
-0.88316864 -0.24343643 0.1751913
-0.94007969 -0.25598532 0.94892353
-0.92282683 -0.25162616 0.78002638
-0.90834689 -0.24784349 0.63890344
-0.88539988 -0.24207328 0.51178247
-0.888726 -0.24314396 0.40982375
-0.87681997 -0.24004601 0.3099764
-0.87871987 -0.24056345 0.21928309
-0.87670082 -0.24016988 0.13034403
-0.048096184 -0.00073475268 3.9941213
-1.8457862 -0.4656446 12.101606
-0.76761377 -0.19760369 3.8342235
-1.1331906 -0.29743859 3.7925575
-1.1114241 -0.29459292 2.7683365
-1.0347944 -0.27581221 2.0298538
-0.99011511 -0.26499942 1.5779986
-0.96774328 -0.25954568 1.2762213
-0.23390415 -0.047720481 3.967797
-0.41277581 -0.09969265 3.9173565
-0.98171997 -0.25389054 3.9416125
-1.1860931 -0.31085351 3.388592
-1.0687294 -0.28226942 2.3493781
-1.0048935 -0.2667076 1.7707821
-0.9693343 -0.25798383 1.402998
-0.95430428 -0.2546849 1.1490422
-0.94724995 -0.255813 1.0440021
-0.93096882 -0.2519294 0.86005342
-0.90618914 -0.24538918 0.70013404
-0.92060429 -0.24962914 0.58585554
-0.90009546 -0.24423189 0.46513051
-0.88455117 -0.24017483 0.35935616
-0.87692463 -0.23842755 0.26400685
-0.884013 -0.24035208 0.1751913
-0.94096756 -0.25270227 0.94892353
-0.91979617 -0.24735382 0.77708322
-0.90920651 -0.24467126 0.63890344
-0.88623953 -0.23898122 0.51178247
-0.88956934 -0.24004026 0.40982375
-0.87296003 -0.23571685 0.30880409
-0.87955427 -0.23749469 0.21928309
-0.87753379 -0.23710817 0.13034403
-0.048098452 -0.00056686159 3.9941213
-1.8458921 -0.4588241 12.091727
-0.76829886 -0.19492301 3.8342235
-1.1356671 -0.29385492 3.7973294
-1.1067748 -0.28923017 2.754529
-1.035751 -0.27219844 2.0298538
-0.9883132 -0.26082376 1.5738657
-0.96554458 -0.25534675 1.2723838
-0.2340693 -0.046903711 3.967797
-0.41312131 -0.098251186 3.9173565
-0.98138225 -0.2501519 3.9367731
-1.1855001 -0.3062799 3.3838992
-1.0676016 -0.27798879 2.344877
-1.0058184 -0.26319826 1.7707821
-0.97022891 -0.25459865 1.402998
-0.9551875 -0.25135219 1.1490422
-0.94469088 -0.25158733 1.0404975
-0.92808175 -0.24767472 0.85691494
-0.90704018 -0.24222451 0.70013404
-0.92146999 -0.24641412 0.58585554
-0.90094256 -0.24108848 0.46513051
-0.88538414 -0.23708571 0.35935616
-0.87775153 -0.23536506 0.26400685
-0.88484663 -0.23726486 0.1751913
-0.93823451 -0.24846049 0.94559801
-0.920654 -0.24414162 0.77708322
-0.90588838 -0.24039049 0.63637024
-0.88706833 -0.23588619 0.51178247
-0.89040178 -0.23693362 0.40982375
-0.87377751 -0.23266822 0.30880409
-0.88037789 -0.23442301 0.21928309
-0.8783561 -0.23404355 0.13034403
-0.04810014 -0.00039896296 3.9941213
-1.8452183 -0.45182389 12.07691
-0.7689746 -0.19223996 3.8342235
-1.1381323 -0.2902576 3.8021016
-1.1134536 -0.28682661 2.7683365
-1.0343764 -0.26798087 2.025465
-0.98921758 -0.25737232 1.5738657
-0.96643007 -0.25197479 1.2723838
-0.23423162 -0.046086367 3.967797
-0.41346174 -0.096808523 3.9173565
-0.97981107 -0.2461127 3.927094
-1.1832173 -0.30128857 3.3745136
-1.0664568 -0.27371943 2.3403757
-1.0042055 -0.25903443 1.7665161
-0.96819448 -0.25045592 1.3990079
-0.95277739 -0.24716531 1.145367
-0.94556332 -0.2482882 1.0404975
-0.92894065 -0.24443357 0.85691494
-0.90383661 -0.23799229 0.69739258
-0.92232454 -0.24319609 0.58585554
-0.90177864 -0.23794214 0.46513051
-0.88620633 -0.23399369 0.35935616
-0.88331681 -0.23355535 0.26493949
-0.88566941 -0.2341747 0.1751913
-0.93909609 -0.24518393 0.94559801
-0.92150062 -0.24092646 0.77708322
-0.90672195 -0.23722689 0.63637024
-0.88788635 -0.23278831 0.51178247
-0.89122343 -0.23382409 0.40982375
-0.87458432 -0.22961675 0.30880409
-0.87640101 -0.23009104 0.21859241
-0.87916774 -0.2309761 0.13034403
-0.048101239 -0.00023105985 3.9941213
-1.8452736 -0.44501603 12.067032
-0.76964092 -0.18955457 3.8342235
-1.1405864 -0.28664666 3.8068733
-1.1182353 -0.28389931 2.7775416
-1.0353055 -0.26436859 2.025465
-0.98738414 -0.25321889 1.5697327
-0.96730369 -0.2485998 1.2723838
-0.23439105 -0.045268469 3.967797
-0.41379714 -0.095364682 3.9173565
-0.97944403 -0.24238928 3.9222548
-1.182588 -0.29673669 3.3698208
-1.0652952 -0.26946148 2.3358746
-1.0051036 -0.25552753 1.7665161
-0.96906281 -0.24707475 1.3990079
-0.95363438 -0.24383798 1.145367
-0.94642425 -0.24498607 1.0404975
-0.92978823 -0.24118948 0.85691494
-0.90466183 -0.23483586 0.69739258
-0.92316788 -0.23997508 0.58585554
-0.90260369 -0.23479289 0.46513051
-0.88701773 -0.23089884 0.35935616
-0.88412672 -0.23047057 0.26493949
-0.88648146 -0.23108171 0.1751913
-0.93633026 -0.24097393 0.94227254
-0.9184218 -0.23669973 0.77414006
-0.90754449 -0.23406039 0.63637024
-0.89308769 -0.23082319 0.51388049
-0.89203417 -0.23071171 0.40982375
-0.87538046 -0.22656249 0.30880409
-0.87719882 -0.22703044 0.21859241
-0.87513232 -0.22665325 0.1301425
-0.048058365 -6.7798253e-05 3.9891217
-1.8453038 -0.43821332 12.057153
-0.77029794 -0.18686686 3.8342235
-1.14158 -0.28266352 3.8068733
-1.12301 -0.28094211 2.7867467
-1.0338992 -0.26016879 2.0210757
-0.988262 -0.24977073 1.5697327
-0.96505845 -0.24443497 1.2685463
-0.23426379 -0.044397458 3.9628055
-0.4141275 -0.09391968 3.9173565
-0.97906286 -0.23867141 3.9174151
-1.180266 -0.29177895 3.3604355
-1.064117 -0.26521498 2.3313732
-1.0034595 -0.25138393 1.7622502
-0.96699691 -0.24295652 1.395018
-0.95119232 -0.23967952 1.1416919
-0.94381809 -0.24079947 1.036993
-0.92685342 -0.23697841 0.85377645
-0.90547603 -0.23167656 0.69739258
-0.91970867 -0.23565178 0.58353674
-0.89892709 -0.23048945 0.46325746
-0.88317174 -0.22660899 0.35794613
-0.88492578 -0.22738299 0.26493949
-0.88728267 -0.22798592 0.1751913
-0.93716574 -0.23770407 0.94227254
-0.9192425 -0.23349239 0.77414006
-0.90835601 -0.23089105 0.63637024
-0.89828604 -0.22882456 0.51597857
-0.89283407 -0.22759652 0.40982375
-0.87616599 -0.22350545 0.30880409
-0.87798595 -0.22396705 0.21859241
-0.87591809 -0.22359709 0.1301425
-0.048058309 9.9957302e-05 3.9891217
-1.8445522 -0.43123901 12.042335
-0.77094555 -0.18417689 3.8342235
-1.1425598 -0.27867696 3.8068733
-1.1258807 -0.2774877 2.7913492
-1.034801 -0.25655821 2.0210757
-0.98639721 -0.2456397 1.5655998
-0.96590579 -0.24106479 1.2685463
-0.23441733 -0.043579452 3.9628055
-0.4149732 -0.092589088 3.922328
-0.97866774 -0.23495919 3.912576
-1.1796006 -0.28724915 3.3557425
-1.0650362 -0.2614989 2.3313732
-1.0043309 -0.24787964 1.7622502
-0.96783906 -0.23957957 1.395018
-0.95202315 -0.23635776 1.1416919
-0.94465286 -0.23750347 1.036993
-0.92767501 -0.23374166 0.85377645
-0.90627927 -0.22851445 0.69739258
-0.91193557 -0.2302711 0.57889915
-0.89972615 -0.22735021 0.46325746
-0.88395733 -0.22352476 0.35794613
-0.88571411 -0.22429265 0.26493949
-0.88807309 -0.22488734 0.1751913
-0.93798971 -0.2344313 0.94227254
-0.92005193 -0.23028222 0.77414006
-0.90915638 -0.22771889 0.63637024
-0.89907932 -0.22568758 0.51597857
-0.89362311 -0.22447857 0.40982375
-0.87694085 -0.22044569 0.30880409
-0.87876242 -0.22090094 0.21859241
-0.87669325 -0.2205382 0.1301425
-0.048057668 0.00026771153 3.9891217
-1.8445319 -0.42444947 12.032456
-0.7725749 -0.1817175 3.8391187
-1.1435256 -0.27468696 3.8068733
-1.128741 -0.27401665 2.7959518
-1.0333637 -0.2523765 2.0166867
-0.9872486 -0.24219503 1.5655998
-0.96674138 -0.23769169 1.2685463
-0.23456804 -0.04276092 3.9628055
-0.41529387 -0.091139995 3.922328
-0.97825861 -0.2312526 3.9077363
-1.1772398 -0.2823253 3.3463571
-1.0638266 -0.25726813 2.3268721
-1.0026559 -0.24375647 1.7579843
-0.96574193 -0.23548608 1.3910279
-0.95284241 -0.23303315 1.1416919
-0.94547617 -0.23420458 1.036993
-0.92848527 -0.23050204 0.85377645
-0.90301323 -0.22434151 0.69465113
-0.90843511 -0.22601706 0.57658035
-0.9005143 -0.22420818 0.46325746
-0.88007742 -0.21927811 0.35653609
-0.89125782 -0.22238876 0.26587209
-0.88885272 -0.22178601 0.1751913
-0.93880236 -0.23115568 0.94227254
-0.91692573 -0.22610167 0.7711969
-0.90994579 -0.22454394 0.63637024
-0.89986163 -0.22254781 0.51597857
-0.88981736 -0.22022347 0.40818024
-0.87298691 -0.21621478 0.30763176
-0.87952816 -0.21783215 0.21859241
-0.87745774 -0.21747664 0.1301425
-0.048056442 0.00043546266 3.9891217
-1.8437287 -0.41749376 12.017639
-0.77320451 -0.17901962 3.8391187
-1.1444774 -0.27069366 3.8068733
-1.1258904 -0.2691668 2.7867467
-1.0342385 -0.24876787 2.0166867
-0.98808801 -0.23874742 1.5655998
-0.96756524 -0.23431568 1.2685463
-0.23471586 -0.041941863 3.9628055
-0.41613066 -0.089801721 3.9272995
-0.97661126 -0.22726707 3.8980575
-1.1765387 -0.27781788 3.3416643
-1.0626003 -0.25304899 2.3223708
-1.0009642 -0.239648 1.7537184
-0.96655804 -0.23211357 1.3910279
-0.95365006 -0.22970569 1.1416919
-0.94282317 -0.23005755 1.0334884
-0.92550325 -0.22633512 0.85063797
-0.90379083 -0.22118804 0.69465113
-0.90491599 -0.22179024 0.57426155
-0.90129143 -0.22106344 0.46325746
-0.88083756 -0.21620473 0.35653609
-0.89202869 -0.21927634 0.26587209
-0.88478547 -0.21749325 0.17474423
-0.93960357 -0.22787724 0.94227254
-0.91770935 -0.22289962 0.7711969
-0.91072398 -0.22136627 0.63637024
-0.90063298 -0.21940535 0.51597857
-0.89058059 -0.21711609 0.40818024
-0.87373632 -0.21316616 0.30763176
-0.88028318 -0.21476068 0.21859241
-0.87821156 -0.21441241 0.1301425
-0.048054628 0.00060320797 3.9891217
-1.8428994 -0.41054893 12.002821
-0.77382469 -0.17631954 3.8391187
-1.1454153 -0.26669702 3.8068733
-1.1249214 -0.26478761 2.7821441
-1.0327699 -0.24460438 2.0122976
-0.98617774 -0.23464569 1.5614668
-0.96525937 -0.23019347 1.2647089
-0.23486084 -0.041122295 3.9628055
-0.41644159 -0.088348605 3.9272995
-0.97739857 -0.22385669 3.8980575
-1.1758202 -0.27331874 3.3369715
-1.0613577 -0.24884154 2.3178697
-0.99925607 -0.23555432 1.7494525
-0.96442997 -0.22804505 1.3870379
-0.95114738 -0.22559322 1.1380167
-0.9436205 -0.22676508 1.0334884
-0.92628771 -0.22310315 0.85063797
-0.90455747 -0.21803187 0.69465113
-0.90568471 -0.21863014 0.57426155
-0.90205753 -0.217916 0.46325746
-0.87692404 -0.21200153 0.35512605
-0.89278865 -0.21616124 0.26587209
-0.88553929 -0.21440345 0.17474423
-0.93676156 -0.22372882 0.93894702
-0.91848183 -0.21969485 0.7711969
-0.9072988 -0.2171825 0.6338371
-0.90139335 -0.21626022 0.51597857
-0.8913331 -0.21400605 0.40818024
-0.87447506 -0.21011496 0.30763176
-0.88102746 -0.21168661 0.21859241
-0.87409717 -0.2101776 0.12994097
-0.048052229 0.00077094632 3.9891217
-1.8420442 -0.40361494 11.988004
-0.77443546 -0.1736173 3.8391187
-1.1448842 -0.26236391 3.8021016
-1.1239356 -0.26041847 2.7775416
-1.031285 -0.24045423 2.0079086
-0.98699081 -0.23120186 1.5614668
-0.966057 -0.22682269 1.2647089
-0.23528768 -0.040349822 3.967797
-0.41674745 -0.086894415 3.9272995
-0.97694784 -0.22016743 3.8932183
-1.1734027 -0.26844335 3.3275859
-1.0579773 -0.24415652 2.3088672
-0.99499118 -0.23088616 1.7409205
-0.96522009 -0.22467718 1.3870379
-0.95192903 -0.22227173 1.1380167
-0.94440627 -0.22346985 1.0334884
-0.92706078 -0.21986844 0.85063797
-0.90531301 -0.21487306 0.69465113
-0.90213257 -0.21444303 0.57194275
-0.90281278 -0.21476589 0.46325746
-0.87765872 -0.20893921 0.35512605
-0.89353776 -0.21304351 0.26587209
-0.88628227 -0.21131103 0.17474423
-0.93753678 -0.22045754 0.93894702
-0.9192431 -0.21648742 0.7711969
-0.90805137 -0.21401411 0.6338371
-0.90214276 -0.21311246 0.51597857
-0.88747913 -0.2098071 0.40653673
-0.87520319 -0.20706119 0.30763176
-0.87694198 -0.2074699 0.21790172
-0.87482548 -0.20712514 0.12994097
-0.048049245 0.00093867513 3.9891217
-1.8411632 -0.39669195 11.973186
-0.77503675 -0.17091297 3.8391187
-1.1457931 -0.2583659 3.8021016
-1.1229329 -0.25605947 2.772939
-1.0297836 -0.2363174 2.0035193
-0.98504972 -0.22712316 1.5573338
-0.96684289 -0.22344913 1.2647089
-0.23571201 -0.039574873 3.9727888
-0.41757053 -0.085545614 3.932271
-0.97648311 -0.21648407 3.8883786
-1.1709654 -0.26358819 3.3182003
-1.0567002 -0.23998006 2.3043661
-0.9932484 -0.22683111 1.7366546
-0.96306133 -0.22063385 1.3830478
-0.95269912 -0.21894753 1.1380167
-0.94518059 -0.2201719 1.0334884
-0.92403227 -0.21574621 0.84749955
-0.90605754 -0.21171162 0.69465113
-0.9028756 -0.2112927 0.57194275
-0.90355694 -0.21161318 0.46325746
-0.87371224 -0.20477973 0.35371602
-0.88949364 -0.20880064 0.26493949
-0.88216627 -0.20707802 0.17429715
-0.93466294 -0.21634176 0.93562156
-0.91999316 -0.21327734 0.7711969
-0.90459365 -0.20986901 0.63130391
-0.90288115 -0.2099621 0.51597857
-0.88820612 -0.20670794 0.40653673
-0.87592065 -0.2040049 0.30763176
-0.87766087 -0.20440754 0.21790172
-0.87554318 -0.20407017 0.12994097
-0.048045676 0.0011063927 3.9891217
-1.8410163 -0.38994092 11.963306
-0.77562869 -0.16820654 3.8391187
-1.146688 -0.25436479 3.8021016
-1.1219136 -0.25171062 2.7683365
-1.0282661 -0.23219399 1.9991302
-0.98309219 -0.22306082 1.553201
-0.96449149 -0.2193622 1.2608713
-0.23584871 -0.038751844 3.9727888
-0.41786659 -0.084087506 3.932271
-0.97600472 -0.21280661 3.8835394
-1.1668236 -0.25838038 3.304122
-1.0554069 -0.23581554 2.299865
-0.99148947 -0.22279105 1.7323887
-0.96382564 -0.21727079 1.3830478
-0.95345759 -0.21562065 1.1380167
-0.94594342 -0.21687126 1.0334884
-0.92477971 -0.21251942 0.84749955
-0.90679103 -0.20854759 0.69465113
-0.90360767 -0.20813978 0.57194275
-0.90429008 -0.20845789 0.46325746
-0.87442172 -0.20172867 0.35371602
-0.88543099 -0.20458859 0.26400685
-0.88288373 -0.20399742 0.17429715
-0.93541247 -0.21307787 0.93562156
-0.92073202 -0.21006466 0.7711969
-0.9053207 -0.2067101 0.63130391
-0.90803266 -0.20782162 0.5180766
-0.88892221 -0.20360626 0.40653673
-0.87662745 -0.20094612 0.30763176
-0.87354213 -0.20023629 0.21721105
-0.87625015 -0.2010127 0.12994097
-0.048041523 0.0012740967 3.9891217
-1.8400842 -0.38303751 11.948489
-0.77621108 -0.16549806 3.8391187
-1.1461104 -0.25004256 3.7973294
-1.1208775 -0.24737205 2.7637341
-1.0290703 -0.22860326 1.9991302
-0.98386484 -0.21962783 1.553201
-0.96525133 -0.21599416 1.2608713
-0.23626778 -0.037972957 3.9777803
-0.41815758 -0.082628362 3.932271
-0.97551256 -0.20913517 3.8786998
-1.1643461 -0.25357178 3.2947366
-1.0562236 -0.23213004 2.299865
-0.98971456 -0.21876605 1.7281228
-0.9616363 -0.2132529 1.3790579
-0.95089513 -0.21155506 1.1343416
-0.94669467 -0.21356797 1.0334884
-0.92171949 -0.20843168 0.84436107
-0.9075135 -0.20538102 0.69465113
-0.9043287 -0.20498434 0.57194275
-0.90501225 -0.20530006 0.46325746
-0.87512058 -0.19867513 0.35371602
-0.88613969 -0.20149663 0.26400685
-0.87873441 -0.19981019 0.17385007
-0.93615055 -0.20981137 0.93562156
-0.91751581 -0.20596425 0.76825374
-0.90183079 -0.20260391 0.62877071
-0.90875256 -0.20465073 0.5180766
-0.88962758 -0.2005021 0.40653673
-0.87732357 -0.1978849 0.30763176
-0.87423581 -0.19718584 0.21721105
-0.87694645 -0.19795281 0.12994097
-0.048080001 0.0014477901 3.9941213
-1.8391261 -0.37614536 11.933671
-0.77678406 -0.16278759 3.8391187
-1.1469762 -0.24604034 3.7973294
-1.119825 -0.24304377 2.7591317
-1.0275222 -0.22449873 1.9947413
-0.98187691 -0.21558885 1.549068
-0.96286911 -0.21193466 1.2570338
-0.23639888 -0.037147999 3.9777803
-0.41896689 -0.081269205 3.9372425
-0.97500664 -0.20546976 3.8738606
-1.1584743 -0.24806133 3.2759655
-1.0548996 -0.22798203 2.2953637
-0.99047214 -0.21530998 1.7281228
-0.96237481 -0.20989487 1.3790579
-0.95162779 -0.20823453 1.1343416
-0.94395286 -0.20948963 1.0299838
-0.92244142 -0.20521303 0.84436107
-0.90414333 -0.20130338 0.69190961
-0.90071511 -0.20086235 0.56962395
-0.90119874 -0.20113 0.46138445
-0.87580878 -0.1956192 0.35371602
-0.8820439 -0.19732977 0.26307425
-0.87942654 -0.19674161 0.17385007
-0.933231 -0.20573865 0.93229604
-0.91822916 -0.20276026 0.76825374
-0.90253246 -0.19945469 0.62877071
-0.90946138 -0.20147735 0.5180766
-0.89032203 -0.1973955 0.40653673
-0.87800896 -0.19482127 0.30763176
-0.87491876 -0.194133 0.21721105
-0.87763208 -0.19489048 0.12994097
-0.048074655 0.0016156113 3.9941213
-1.8381425 -0.36926457 11.918853
-0.77734756 -0.1600751 3.8391187
-1.1492888 -0.24234296 3.8021016
-1.1187558 -0.23872581 2.754529
-1.0259579 -0.22040778 1.990352
-0.98262346 -0.21216016 1.549068
-0.96360296 -0.20857233 1.2570338
-0.23652712 -0.036322586 3.9777803
-0.41924801 -0.079806238 3.9372425
-0.97448701 -0.2018104 3.8690209
-1.1610219 -0.24437127 3.2806582
-1.0535595 -0.22384614 2.2908626
-0.99121767 -0.21185127 1.7281228
-0.96310163 -0.20653427 1.3790579
-0.94903457 -0.20419851 1.1306664
-0.94467831 -0.20619334 1.0299838
-0.92315209 -0.20199184 0.84436107
-0.90484047 -0.19814609 0.69190961
-0.90141082 -0.19771704 0.56962395
-0.90189528 -0.19798301 0.46138445
-0.87648624 -0.19256085 0.35371602
-0.88272738 -0.19424966 0.26307425
-0.87524438 -0.19260041 0.17340299
-0.93394345 -0.20247981 0.93229604
-0.91498131 -0.19869618 0.76531059
-0.90322322 -0.19630307 0.62877071
-0.9057247 -0.19733544 0.51597857
-0.88639188 -0.19328055 0.40489322
-0.87393475 -0.19071896 0.30645946
-0.87559104 -0.19107777 0.21721105
-0.88318795 -0.19289178 0.1301425
-0.048068721 0.0017834139 3.9941213
-1.8371333 -0.36239526 11.904036
-0.77790153 -0.15736067 3.8391187
-1.1501276 -0.23832971 3.8021016
-1.1176703 -0.23441833 2.7499266
-1.0267211 -0.21682517 1.990352
-0.9806053 -0.20814475 1.544935
-0.9611901 -0.20454049 1.2531964
-0.23636678 -0.035455108 3.9727888
-0.41952404 -0.078342311 3.9372425
-0.97395378 -0.19815719 3.8641818
