# .PCD v0.7 - Point Cloud Data file format
VERSION 0.7
FIELDS x y z
SIZE 4 4 4
TYPE F F F
COUNT 1 1 1
WIDTH 1492
HEIGHT 1
VIEWPOINT 0 0 0 1 0 0 0
POINTS 1492
DATA ascii
-0.95259994 2.8044279 4.9147758
-0.89721775 2.6353676 3.7611022
-0.84449285 2.4748642 2.913121
-0.82844949 2.4044855 2.5789931
-0.7946437 2.3024786 2.0463901
-0.76502538 2.2154171 1.6212666
-0.74441481 2.1533163 1.2791767
-0.73072159 2.1125269 0.99145275
-0.7155385 2.0674789 0.73301482
-0.70599937 2.0376301 0.5008924
-0.69283813 1.9996519 0.28293735
-0.8115322 2.3661203 2.3090532
-0.78188193 2.2770998 1.836621
-0.75414115 2.1950743 1.4495207
-0.73585308 2.138221 1.1328059
-0.72123307 2.0945649 0.86014521
-0.70936167 2.0589361 0.61595124
-0.69680494 2.0224974 0.39057174
-0.68212044 1.9787688 0.17810686
-0.0035157928 0.059375808 5.3040714
-0.23700994 0.7350359 4.9100466
-0.30784529 0.94003057 4.7790022
-0.44957396 1.3510045 4.5990224
-0.96764213 2.8849411 7.2281828
-0.99430192 2.9508336 5.7737384
-0.91417527 2.7037125 4.2644153
-0.87049913 2.5701244 3.3254488
-0.081233606 0.29949626 5.2057285
-0.16194437 0.52106178 5.0458879
-0.37674922 1.145995 4.682044
-0.63378435 1.9070487 5.5191078
-1.0368998 3.1004643 6.823585
-0.94861573 2.8250427 4.9446373
-0.89570206 2.6613305 3.7930224
-0.84451741 2.5034957 2.9425225
-0.82810026 2.4309933 2.6035252
-0.79414326 2.3273411 2.0652206
-0.76404244 2.23786 1.634974
-0.74262464 2.1726685 1.288452
-0.72934353 2.1326108 0.99894488
-0.71452957 2.088119 0.73865497
-0.7068423 2.0633175 0.50555545
-0.6923095 2.0209029 0.28472567
-0.81046158 2.3901548 2.329006
-0.78042489 2.2989528 1.8513367
-0.75479251 2.2221842 1.4647198
-0.73423219 2.1579628 1.1411982
-0.72000444 2.1149507 0.86671925
-0.71000636 2.0844049 0.62181288
-0.69612765 2.0436678 0.39333448
-0.68004411 1.9953245 0.17871146
-0.0033085106 0.059387717 5.3040714
-0.23444273 0.73585874 4.9100466
-0.30456212 0.94109941 4.7790022
-0.44485536 1.3525656 4.5990224
-0.96063948 2.8975732 7.251195
-0.99610388 2.990643 5.8439636
-0.91186774 2.7282383 4.2974792
-0.87068045 2.600502 3.3599863
-0.080187678 0.29977801 5.2057285
-0.16012454 0.52162391 5.0458879
-0.37274668 1.1473032 4.682044
-0.62712365 1.9092493 5.5191078
-1.034269 3.1288683 6.8775992
-0.95600009 2.8803174 5.0342216
-0.89401579 2.6873143 3.8249426
-0.84542447 2.535373 2.9755988
-0.8275761 2.4575279 2.628057
-0.79347891 2.3522277 2.0840514
-0.76424915 2.2642846 1.6514227
-0.74070835 2.1920342 1.2977272
-0.72783405 2.1527104 1.0064369
-0.71338522 2.1087768 0.74429512
-0.70593864 2.084383 0.50928593
-0.69164085 2.0421746 0.28651398
-0.80923307 2.4142108 2.348959
-0.77882475 2.3208232 1.8660526
-0.75389165 2.2452383 1.4773858
-0.73103565 2.1734183 1.1474924
-0.72014844 2.1398287 0.87493682
-0.70893073 2.1052966 0.62650216
-0.69531101 2.064858 0.39609718
-0.67945564 2.016624 0.17951758
-0.0031027196 0.059355304 5.2990718
-0.23187268 0.73667258 4.9100466
-0.30096528 0.94118685 4.774107
-0.43967003 1.3526906 4.5942507
-0.95234394 2.9064784 7.2650027
-0.99689096 3.0282257 5.9098001
-0.9111653 2.7581248 4.3388081
-0.87166721 2.633955 3.3983612
-0.07906805 0.2997767 5.2007365
-0.15830275 0.52217966 5.0458879
-0.36873955 1.1485974 4.682044
-0.62045532 1.9114268 5.5191078
-1.0314525 3.1572917 6.9316139
-0.95650715 2.9158525 5.0896788
-0.8921591 2.7133188 3.8568628
-0.8450582 2.5640674 3.0050001
-0.82687652 2.4840875 2.6525886
-0.79388154 2.3808303 2.1060207
-0.76428062 2.2907374 1.6678715
-0.7414726 2.2198162 1.31164
-0.72619319 2.1728253 1.0139291
-0.7136265 2.1340013 0.75134528
-0.70489633 2.1054668 0.5130164
-0.68925112 2.0587435 0.28785524
-0.80902064 2.4418309 2.3722377
-0.77708131 2.34271 1.8807683
-0.75419682 2.2724044 1.4925847
-0.73060364 2.1974902 1.1579826
-0.71863681 2.1602523 0.88151085
-0.70925277 2.1308177 0.63236368
-0.69435483 2.086067 0.39885989
-0.67872667 2.0379434 0.18032371
-0.0028955115 0.059365772 5.2990718
-0.22929978 0.73747748 4.9100466
-0.29767808 0.94223171 4.774107
-0.43494555 1.3542171 4.5942507
-0.94520158 2.9190786 7.2880154
-0.99742782 3.0658495 5.975636
-0.90502536 2.7719886 4.35534
-0.87043828 2.6613531 3.4290612
-0.078021146 0.30005088 5.2007365
-0.15647905 0.52272904 5.0458879
-0.36472797 1.1498774 4.682044
-0.61430639 1.9152243 5.5238004
-1.0291188 3.1878047 6.9901299
-0.95919007 2.9588685 5.1579337
-0.88920045 2.7364769 3.884793
-0.84555161 2.5960133 3.0380769
-0.82488716 2.5072846 2.6736159
-0.79287577 2.4057674 2.1248515
-0.76413661 2.3172178 1.6843203
-0.74066305 2.2434235 1.3232338
-0.72442061 2.192955 1.0214212
-0.71520579 2.1638076 0.75980544
-0.70371556 2.1265688 0.51674694
-0.68831861 2.0800481 0.28964353
-0.80746323 2.4659305 2.3921907
-0.77645367 2.3684535 1.8984272
-0.7543214 2.2995996 1.5077838
-0.72859561 2.2172737 1.1663748
-0.71699136 2.1806915 0.88808489
-0.7094053 2.1563663 0.63822532
-0.69480646 2.1119981 0.40231332
-0.67629486 2.0545363 0.18092829
-0.0026882687 0.059375517 5.2990718
-0.22672412 0.73827344 4.9100466
-0.29438728 0.94326508 4.774107
-0.42976451 1.3543042 4.589479
-0.93798262 2.9316638 7.311028
-0.99771386 3.1035137 6.041472
-0.91262329 2.8286934 4.4379992
-0.87001431 2.6918247 3.4635987
-0.076902531 0.30004153 5.195745
-0.15465343 0.5232721 5.0458879
-0.36108759 1.1523432 4.6868839
-0.60865968 1.9206471 5.5331864
-1.0265845 3.2183394 7.0486455
-0.9599933 2.9969711 5.2176566
-0.88516974 2.7567782 3.9087331
-0.84687066 2.6312201 3.0748284
-0.82384849 2.5338895 2.6981478
-0.79170555 2.4307265 2.143682
-0.76381701 2.343725 1.7007691
-0.7410717 2.2712631 1.3371466
-0.72395509 2.2175055 1.0307864
-0.71509606 2.1890907 0.76685566
-0.70392287 2.1523569 0.52141005
-0.68569767 2.096638 0.29098478
-0.80689687 2.4936013 2.4154692
-0.77565569 2.3942211 1.9160864
-0.75559443 2.330924 1.5255162
-0.72786015 2.2413869 1.1768651
-0.71667117 2.2056363 0.89630246
-0.70938796 2.181942 0.6440869
-0.69355434 2.1332483 0.40507603
-0.67530107 2.0758879 0.18173441
-0.0024809935 0.05938454 5.2990718
-0.22414568 0.73906034 4.9100466
-0.2910929 0.94428688 4.774107
-0.42458808 1.3543718 4.5847068
-0.93068737 2.9442344 7.3340406
-0.99774903 3.1412168 6.1073084
-0.90958077 2.8533108 4.4710627
-0.86841303 2.7192719 3.4942987
-0.075784937 0.30002803 5.1907535
-0.15282592 0.52380872 5.0458879
-0.35706294 1.1535965 4.6868839
-0.60298264 1.9260538 5.5425715
-1.0238495 3.2488952 7.1071615
-0.96054202 3.0351148 5.27738
-0.88009697 2.7742121 3.9286833
-0.84692687 2.6632371 3.1079049
-0.82263404 2.5605173 2.7226796
-0.79037058 2.4557061 2.1625128
-0.76332158 2.3702579 1.717218
-0.74129498 2.2991326 1.3510596
-0.72332668 2.2420788 1.0401516
-0.71481836 2.2143989 0.77390575
-0.70093739 2.1688237 0.52420789
-0.68296921 2.1132348 0.292326
-0.80614698 2.5212975 2.4387476
-0.77591938 2.423861 1.9366884
-0.75534296 2.3581796 1.5407152
-0.72835171 2.2698431 1.1894534
-0.71474183 2.226109 0.9028765
-0.7077139 2.2029154 0.64877617
-0.69367689 2.15923 0.4085294
-0.67416632 2.0972576 0.18254055
-0.0022736872 0.059392836 5.2990718
-0.22178715 0.7405827 4.9149861
-0.28779492 0.94529724 4.774107
-0.41985786 1.3558456 4.5847068
-0.92331576 2.9567895 7.3570533
-0.99825007 3.1812432 6.1775336
-0.91229409 2.8967295 4.5330567
-0.86855942 2.7528541 3.5326738
-0.074668363 0.30001032 5.1857619
-0.15099657 0.52433896 5.0458879
-0.3534013 1.156038 4.6917233
-0.59778488 1.933093 5.5566497
-1.0215605 3.2815492 7.1701779
-0.96083599 3.0732982 5.3371034
-0.88212198 2.8146474 3.9805536
-0.85083401 2.7082231 3.1556821
-0.82232249 2.5905662 2.750716
-0.79005033 2.4844151 2.1844821
-0.7639178 2.4008 1.7364081
-0.74133259 2.3270311 1.3649724
-0.72112775 2.2622578 1.0476437
-0.712915 2.2351615 0.7795459
-0.70083398 2.1946545 0.528871
-0.68013322 2.1298378 0.29366726
-0.80521351 2.5490186 2.4620261
-0.77476662 2.4496777 1.9543474
-0.75491029 2.3854613 1.5559143
-0.73002499 2.3026559 1.2041397
-0.71410614 2.251096 0.91109401
-0.7059021 2.2239039 0.65346545
-0.6921283 2.1805182 0.41129214
-0.67137825 2.1138825 0.18314514
-0.002066354 0.059400413 5.2990718
-0.21920069 0.74135232 4.9149861
-0.28449348 0.94629616 4.774107
-0.41512254 1.3573029 4.5847068
-0.91644359 2.9711957 7.3846684
-0.9977746 3.2190225 6.2433696
-0.91471535 2.9402013 4.5950508
-0.8684817 2.7864697 3.5710487
-0.07362067 0.30026916 5.1857619
-0.14916536 0.52486289 5.0458879
-0.3493638 1.1572646 4.6917233
-0.59254539 1.9401191 5.5707283
-1.0222547 3.3246307 7.2557015
-0.96087503 3.1115205 5.3968258
-0.88298416 2.8522513 4.0284338
-0.84438962 2.72089 3.1667075
-0.82074398 2.6172409 2.7752478
-0.78837258 2.509438 2.2033129
-0.76431018 2.4313753 1.7555984
-0.74251419 2.3591828 1.3812039
-0.72018915 2.2868707 1.0570089
-0.71231699 2.2605128 0.78659606
-0.69908082 2.215826 0.53260148
-0.67868787 2.1511958 0.29545557
-0.80409628 2.5767639 2.4853046
-0.77464855 2.4793742 1.9749496
-0.75300997 2.408654 1.56858
-0.73147792 2.3355076 1.2188261
-0.71189243 2.2715991 0.91766804
-0.70540655 2.2495439 0.65932697
-0.69043946 2.2018218 0.41405487
-0.66997796 2.1352806 0.18395126
-0.0018589954 0.059407264 5.2990718
-0.21661155 0.74211299 4.9149861
-0.28118858 0.94728339 4.774107
-0.41038212 1.3587437 4.5847068
-0.90891278 2.983721 7.407681
-0.99634647 3.2545474 6.3048167
-0.91684407 2.9837253 4.6570454
-0.86912298 2.8231816 3.6132615
-0.07257209 0.30052429 5.1857619
-0.14733234 0.52538037 5.0458879
-0.3453221 1.1584771 4.6917233
-0.58676594 1.94548 5.5801139
-1.0226605 3.3677568 7.3412247
-0.96141946 3.1522748 5.4608154
-0.88447553 2.892777 4.0803041
-0.84283441 2.7497518 3.1961088
-0.81898934 2.6439359 2.7997797
-0.78883684 2.541914 2.2284205
-0.76449811 2.4619813 1.7747886
-0.74348032 2.3913713 1.3974355
-0.71908742 2.3115039 1.0663741
-0.71012497 2.281307 0.79223621
-0.69864976 2.2417016 0.53726459
-0.67710161 2.1725695 0.29724389
-0.80279499 2.6045318 2.5085831
-0.7743324 2.5090992 1.9955517
-0.75222886 2.4359813 1.5837791
-0.73271024 2.3683972 1.2335125
-0.71094072 2.2966254 0.92588562
-0.70330244 2.2705646 0.66401625
-0.68861026 2.2231398 0.41681761
-0.66843635 2.1566942 0.18475738
-0.0016516137 0.059413388 5.2990718
-0.21401976 0.74286461 4.9149861
-0.27788022 0.94825917 4.774107
-0.40563673 1.3601679 4.5847068
-0.90130556 2.9962299 7.4306936
-0.99537528 3.2923932 6.3706532
-0.91867989 3.0272992 4.7190394
-0.86858582 2.8568645 3.6516364
-0.071588509 0.30105692 5.1907535
-0.14535578 0.52537751 5.0409164
-0.34127614 1.1596755 4.6917233
-0.58144855 1.9524779 5.594192
-1.0234027 3.4130106 7.4312487
-0.96169102 3.1930702 5.5248041
-0.8848235 2.9304624 4.1281843
-0.8381415 2.7689009 3.2144847
-0.81810147 2.6740608 2.827816
-0.7890839 2.5744238 2.2535281
-0.76325572 2.4886212 1.7912376
-0.74293023 2.4193594 1.4113483
-0.71782237 2.3361571 1.0757391
-0.70638657 2.2975276 0.79646635
-0.69660151 2.2629061 0.54099506
-0.67537445 2.193958 0.29903221
-0.80130965 2.6323223 2.5318615
-0.77381808 2.5388515 2.0161538
-0.75126594 2.4633322 1.5989783
-0.73239553 2.3969829 1.2461008
-0.70982277 2.321672 0.93410313
-0.70106018 2.2915981 0.66870558
-0.6866405 2.2444718 0.41958031
-0.66675341 2.178123 0.1855635
-0.0014442124 0.059418794 5.2990718
-0.21142538 0.7436071 4.9149861
-0.2748512 0.95020157 4.7790022
-0.40130782 1.3630075 4.589479
-0.89362222 3.0087221 7.4537063
-0.99346697 3.3279769 6.4321003
-0.92022252 3.0709217 4.781034
-0.86782426 2.890578 3.6900115
-0.070537187 0.30130497 5.1907535
-0.14352098 0.52588171 5.0409164
-0.33722603 1.1608596 4.6917233
-0.57608962 1.9594629 5.6082706
-1.0219873 3.4520478 7.5077691
-0.96243268 3.2364051 5.5930591
-0.88491911 2.9681852 4.1760645
-0.83623749 2.7977951 3.243886
-0.81701303 2.7042108 2.8558524
-0.78798592 2.6032403 2.2754972
-0.76304859 2.5192835 1.8104278
-0.74219382 2.4473732 1.4252611
-0.71774006 2.3652658 1.0869774
-0.70393723 2.3183398 0.80210644
-0.69584227 2.2888229 0.54565811
-0.67350596 2.2153606 0.30082053
-0.79856509 2.6565576 2.5518146
-0.77310526 2.5686307 2.036756
-0.75012124 2.4907057 1.6141773
-0.73057914 2.4212501 1.2565911
-0.70853859 2.3467391 0.9423207
-0.69867945 2.3126428 0.67339486
-0.68596232 2.2705569 0.42303368
-0.66348326 2.1947839 0.1861681
-0.0012367929 0.059423473 5.2990718
-0.20882843 0.7443406 4.9149861
-0.27153268 0.95115519 4.7790022
-0.39696401 1.3658334 4.5942507
-0.8864122 3.0230713 7.4813213
-0.99064517 3.3612895 6.4891582
-0.92067337 3.1118932 4.8388948
-0.86683768 2.9243205 3.7283864
-0.069485001 0.30154935 5.1907535
-0.14168443 0.52637953 5.0409164
-0.33282551 1.1608213 4.6868839
-0.5706889 1.9664338 5.6223488
-1.0190907 3.4869373 7.5752873
-0.96288341 3.2797837 5.661314
-0.88391125 3.0030532 4.2199554
-0.83893913 2.8429673 3.2916632
-0.81674355 2.7378035 2.8873932
-0.78781086 2.6358094 2.3006048
-0.76143849 2.5459685 1.8268765
-0.74127066 2.4754107 1.4391739
-0.71613246 2.389961 1.0963426
-0.70135123 2.3391631 0.80774659
-0.69349825 2.3100576 0.54938865
-0.67292827 2.2415466 0.30305591
-0.79672337 2.6843851 2.5750933
-0.77219403 2.5984356 2.057358
-0.7487945 2.518101 1.6293764
-0.7298981 2.4498832 1.2691793
-0.70843703 2.3763499 0.9521817
-0.69616032 2.3336987 0.67808414
-0.68369472 2.2919195 0.42579642
-0.66153377 2.2162352 0.18697423
-0.0010293595 0.059427429 5.2990718
-0.20622891 0.74506503 4.9149861
-0.26821089 0.95209718 4.7790022
-0.39260542 1.3686457 4.5990224
-0.87911272 3.0374067 7.5089359
-0.98760289 3.3946228 6.5462165
-0.92163819 3.155606 4.9008894
-0.86652625 2.9611673 3.7705991
-0.068431973 0.30179003 5.1907535
-0.13970982 0.52635556 5.0359445
-0.3287715 1.161976 4.6868839
-0.56524652 1.9733906 5.6364269
-1.0219961 3.5427651 7.6878176
-0.96231699 3.3206997 5.7253032
-0.88267064 3.03795 4.2638454
-0.84038734 2.884937 3.3357651
-0.81624925 2.7714262 2.9189341
-0.7885195 2.672142 2.328851
-0.7596513 2.5726724 1.8433253
-0.74016082 2.5034714 1.4530867
-0.71567631 2.4191191 1.1075808
-0.69862825 2.3599958 0.81338674
-0.69101435 2.3313031 0.55311912
-0.67217582 2.267755 0.3052913
-0.79259741 2.7050655 2.5917206
-0.77108389 2.6282649 2.07796
-0.74728549 2.545517 1.6445755
-0.72774523 2.4741867 1.2796696
-0.70813727 2.4059885 0.96204275
-0.6935026 2.3547652 0.68277335
-0.68128622 2.313293 0.42855912
-0.66085482 2.2424917 0.18798187
-0.00081870955 0.059474174 5.3040714
-0.20362689 0.74578035 4.9149861
-0.26488578 0.95302767 4.7790022
-0.38823199 1.3714441 4.6037946
-0.87172419 3.0517282 7.536552
-0.98433989 3.4279752 6.6032743
-0.92152929 3.1966586 4.9587507
-0.86418909 2.9918885 3.8051367
-0.067316167 0.30174509 5.1857619
-0.13787164 0.52684003 5.0359445
-0.32437563 1.1619058 4.682044
-0.5602318 1.9819942 5.6551981
-1.0304843 3.6195922 7.8453603
-0.9614765 3.3616509 5.7892919
-0.88036656 3.0699782 4.3037457
-0.84155273 2.9269509 3.3798671
-0.81553024 2.8050792 2.950475
-0.78789544 2.7047741 2.3539586
-0.75651681 2.5953803 1.8570327
-0.73762298 2.527302 1.4646807
-0.71502519 2.4483025 1.118819
-0.69845951 2.3900471 0.8218469
-0.68701094 2.3478446 0.55591697
-0.67124856 2.2939854 0.30752671
-0.79352319 2.7436836 2.6249754
-0.7708993 2.6620004 2.1015053
-0.74679387 2.5770931 1.6623077
-0.72543144 2.4985044 1.2901599
-0.7076391 2.4356537 0.9719038
-0.69070625 2.3758409 0.68746263
-0.68011928 2.3394332 0.43201256
-0.65860498 2.2639732 0.188788
-0.0006111007 0.05947667 5.3040714
-0.20082064 0.74573624 4.9100466
-0.26155752 0.95394647 4.7790022
-0.38424519 1.3756663 4.6133385
-0.86424619 3.066035 7.564167
-0.98020291 3.4590416 6.6559434
-0.92191511 3.2404556 5.0207448
-0.86428392 3.0318763 3.8511868
-0.066140547 0.30141386 5.1757784
-0.13603179 0.52731806 5.0359445
-0.32031786 1.163031 4.682044
-0.55470043 1.9889247 5.6692767
-1.0325612 3.6755631 7.9578905
-0.96107006 3.4051464 5.8575468
-0.884413 3.1252215 4.375566
-0.84150952 2.9657466 3.420294
-0.81556964 2.8421881 2.9855206
-0.78705305 2.7374341 2.3790665
-0.75554514 2.6261346 1.876223
-0.7361539 2.5554016 1.4785935
-0.7154631 2.4819655 1.1319302
-0.69675988 2.4155164 0.82889712
-0.68426341 2.3691056 0.55964744
-0.67014617 2.3202367 0.30976209
-0.79521376 2.7859309 2.661556
-0.76937765 2.6918802 2.1221075
-0.74609089 2.6086967 1.68004
-0.72545719 2.5315621 1.3048463
-0.7069425 2.4653447 0.98176491
-0.68911165 2.4015977 0.69332421
-0.67741221 2.3608332 0.43477526
-0.657592 2.2902679 0.18979566
-0.00040348462 0.059478439 5.3040714
-0.19821632 0.74643266 4.9100466
-0.25796041 0.95387071 4.774107
-0.38023371 1.3798773 4.6228828
-0.85720223 3.0822086 7.5963845
-0.97586107 3.4901206 6.7086124
-0.92200613 3.2842934 5.0827389
-0.8597706 3.0564733 3.8780491
-0.065088019 0.30164289 5.1757784
-0.13432121 0.52830642 5.0409164
-0.31625617 1.164142 4.682044
-0.54912746 1.9958405 5.6833549
-1.0365855 3.7399833 8.0884266
-0.96107113 3.4511919 5.9300675
-0.88727409 3.177628 4.4433966
-0.84120548 3.0045767 3.4607208
-0.81438816 2.8758998 3.0170617
-0.78492969 2.7663765 2.4010355
-0.74751562 2.6327782 1.8789644
-0.73207474 2.5749993 1.4878687
-0.71440601 2.5112019 1.1431684
-0.6962043 2.4456162 0.83735728
-0.68137586 2.3903761 0.56337792
-0.66886866 2.3465078 0.3119975
-0.79661882 2.8282232 2.6981366
-0.76765668 2.7217813 2.1427097
-0.74517626 2.6403265 1.6977723
-0.72402591 2.5602825 1.3174345
-0.70733279 2.4996035 0.99326944
-0.68867004 2.4320495 0.70035815
-0.67321479 2.3774776 0.43684733
-0.65640336 2.3165832 0.1908033
-0.00019220549 0.059522964 5.3090711
-0.19560955 0.74712008 4.9100466
-0.25462919 0.95476532 4.774107
-0.37619746 1.3840773 4.6324267
-0.85057282 3.1002545 7.6332045
-0.97768217 3.5442989 6.805172
-0.92180216 3.3281708 5.144733
-0.86366701 3.1119606 3.9432869
-0.064034685 0.30186826 5.1757784
-0.13247626 0.52877206 5.0409164
-0.31219059 1.1652389 4.682044
-0.54351288 2.0027413 5.697433
-1.039024 3.8002756 8.2099581
-0.96076238 3.4972787 6.0025887
-0.88897973 3.2271869 4.5072365
-0.8406406 3.0434408 3.5011473
-0.81394076 2.9130719 3.0521069
-0.78156447 2.7915888 2.4198663
-0.75298482 2.6877151 1.9146035
-0.72786778 2.5945997 1.4971439
-0.71315342 2.5404606 1.1544065
-0.6967442 2.4803598 0.84722745
-0.67834806 2.4116549 0.56710839
-0.66741592 2.372798 0.31423289
-0.79673856 2.8669612 2.7313917
-0.76573628 2.7517025 2.1633117
-0.74404973 2.6719811 1.7155044
-0.72240287 2.5890234 1.3300229
-0.70622253 2.5293465 1.0031306
-0.68802404 2.4625263 0.70739204
-0.67024201 2.3988907 0.43961003
-0.65369368 2.3381057 0.19160943
1.5569811e-05 0.05952327 5.3090711
-0.19300044 0.74779832 4.9100466
-0.25129491 0.95564836 4.774107
-0.3721365 1.3882657 4.6419706
-0.84382778 3.1182914 7.6700249
-0.97222048 3.5731108 6.8534517
-0.92130303 3.3720865 5.2067275
-0.86295474 3.1520541 3.9893367
-0.062980585 0.30208993 5.1757784
-0.13062969 0.52923125 5.0409164
-0.30812126 1.1663215 4.682044
-0.53785688 2.0096276 5.7115111
-1.0427543 3.8669357 8.3449955
-0.9608255 3.5459218 6.0793757
-0.89272016 3.2855194 4.5830474
-0.84070563 3.0856078 3.5452492
-0.81229609 2.9468379 3.083648
-0.77699649 2.8130591 2.4355586
-0.75250965 2.7225695 1.9365352
-0.72116965 2.6056633 1.5017815
-0.71294266 2.574209 1.1675179
-0.69576883 2.5105135 0.85568774
-0.67517996 2.4329417 0.57083887
-0.66445595 2.3943079 0.3160212
-0.79659736 2.9057338 2.7646465
-0.7636162 2.7816434 2.1839139
-0.74385309 2.7078168 1.73577
-0.72058791 2.6177838 1.3426112
-0.70616722 2.5636647 1.0146351
-0.68717355 2.4930286 0.71442592
-0.66712767 2.4203117 0.44237274
-0.65217012 2.364454 0.19261709
0.00022334425 0.059522852 5.3090711
-0.19019768 0.74771428 4.9051075
-0.24795754 0.95651966 4.774107
-0.36766964 1.3909994 4.6467428
-0.83696705 3.1363187 7.7068448
-0.97339696 3.6273725 6.9500117
-0.92050844 3.4160388 5.2687216
-0.86364406 3.1983693 4.0430622
-0.061982721 0.30259094 5.1807699
-0.12878154 0.52968401 5.0409164
-0.30404818 1.16739 4.682044
-0.53215945 2.0164986 5.7255898
-1.0387595 3.9063175 8.4215164
-0.95988727 3.5920877 6.1518965
-0.88904494 3.3177214 4.6229472
-0.8396067 3.1245379 3.5856764
-0.81136113 2.9840689 3.1186936
-0.77126497 2.830776 2.4481125
-0.75290018 2.7614875 1.9612085
-0.72723651 2.6637192 1.5319259
-0.71128297 2.603514 1.178756
-0.69332635 2.5360634 0.86273783
-0.67576265 2.4684494 0.57736725
-0.66266876 2.4206288 0.31825659
-0.79619515 2.9445407 2.7979016
-0.76235271 2.8155041 2.2074592
-0.74228793 2.7395222 1.7535021
-0.72095925 2.6553228 1.3593956
-0.70464259 2.593456 1.0244961
-0.68611836 2.5235541 0.72145987
-0.663872 2.44174 0.44513547
-0.64915895 2.385999 0.19342321
0.00042700302 0.059478272 5.3040714
-0.18758652 0.74837363 4.9051075
-0.24461715 0.9573794 4.774107
-0.36356437 1.3951633 4.6562862
-0.82949364 3.1524467 7.7390623
-0.97604412 3.6886311 7.0597386
-0.91869551 3.4573064 5.3265829
-0.86319566 3.2416298 4.0929494
-0.060982127 0.30308867 5.1857619
-0.12693182 0.53013033 5.0409164
-0.29997137 1.1684442 4.682044
-0.52642053 2.0233543 5.7396679
-1.0483036 3.9983621 8.6105671
-0.95863831 3.6382899 6.2244172
-0.88823473 3.3615904 4.6788077
-0.83911443 3.1667745 3.6297784
-0.80925238 3.017884 3.1502345
-0.77450931 2.8823175 2.4889123
-0.75302798 2.8004405 1.9858816
-0.72714788 2.7004614 1.5504763
-0.70942742 2.6328385 1.1899942
-0.6932115 2.5708897 0.87260813
-0.67482495 2.4992473 0.58296293
-0.65940773 2.4421582 0.3200449
-0.79456961 2.9797714 2.8278313
-0.76086205 2.8493896 2.2310045
-0.74162316 2.7754138 1.7737676
-0.71872932 2.6841276 1.3719839
-0.70291859 2.6232672 1.0343572
-0.68485838 2.5541024 0.72849375
-0.66303986 2.4727414 0.44927955
-0.64729989 2.4123766 0.19443086
0.00063035352 0.059432998 5.2990718
-0.18497306 0.74902391 4.9051075
-0.24127379 0.9582274 4.774107
-0.3594346 1.3993155 4.6658306
-0.81946546 3.1591053 7.7482677
-0.97706628 3.7453172 7.1606879
-0.91731852 3.5013244 5.388577
-0.86164176 3.2818253 4.1389995
-0.059978824 0.30358312 5.1907535
-0.12520246 0.53108919 5.0458879
-0.2958909 1.1694843 4.682044
-0.52064019 2.030194 5.753746
-1.0534047 4.075767 8.7681093
-0.95773399 3.6870508 6.3012042
-0.88485008 3.3967457 4.7226982
-0.83919418 3.2123256 3.6775556
-0.80600572 3.0482726 3.1782708
-0.77540946 2.9263909 2.5234354
-0.75182134 2.8353865 2.0078135
-0.72794843 2.7415161 1.5713456
-0.70737571 2.6621816 1.2012324
-0.69162917 2.6011095 0.88106829
-0.67494434 2.534816 0.58949131
-0.65728575 2.4685068 0.32228032
-0.79365712 3.0186372 2.8610861
-0.76017314 2.8872075 2.257493
-0.73961848 2.8071656 1.7914999
-0.7174657 2.7173374 1.3866704
-0.70099503 2.6530981 1.0442182
-0.68215096 2.5799732 0.73435533
-0.66199923 2.5037658 0.45342362
-0.6439867 2.4339402 0.19523698
0.00083780964 0.059430439 5.2990718
-0.18235736 0.74966496 4.9051075
-0.23792748 0.95906383 4.774107
-0.35491407 1.4020089 4.6706028
-0.81472355 3.186553 7.8081007
-0.98307222 3.8229301 7.3011379
-0.91986722 3.5617228 5.475369
-0.8606208 3.3251519 4.1888871
-0.058918752 0.30379063 5.1907535
-0.12334784 0.53152293 5.0458879
-0.29211071 1.1717296 4.6868839
-0.51397306 2.0336721 5.7584391
-1.0579778 4.153254 8.9256516
-0.9545604 3.7282696 6.3651934
-0.88572711 3.4494298 4.7905283
-0.83812064 3.254632 3.7216575
-0.80525529 3.0890276 3.2168207
-0.77601105 2.9705052 2.5579584
-0.75037974 2.8703575 2.0297451
-0.7273491 2.7783237 1.589896
-0.70630246 2.6960268 1.2143437
-0.68984431 2.6313493 0.88952851
-0.67482358 2.5704153 0.59601969
-0.65625232 2.4996865 0.32496279
-0.79248279 3.0575328 2.8943412
-0.75922936 2.9250548 2.2839816
-0.73848486 2.8431094 1.8117652
-0.71597886 2.7505705 1.4013567
-0.69887149 2.6829469 1.0540793
-0.68049717 2.6105592 0.74138927
-0.66199911 2.5396051 0.45825839
-0.64431375 2.4700124 0.1966477
0.0010406865 0.059383757 5.2940717
-0.17973942 0.75029695 4.9051075
-0.23457827 0.95988846 4.774107
-0.35074022 1.4061359 4.6801462
-0.80168641 3.1817997 7.7896905
-0.9797231 3.8658056 7.3757524
-0.91992289 3.6139991 5.5497622
-0.85534644 3.3529823 4.2195873
-0.057857968 0.30399445 5.1907535
-0.12149173 0.53195029 5.0458879
-0.28801882 1.172742 4.6868839
-0.50770491 2.0388031 5.7678246
-1.0614927 4.2287111 9.0786924
-0.95621449 3.789741 6.4633093
-0.88772535 3.5080037 4.8663392
-0.83759582 3.3002558 3.7694347
-0.8086676 3.1470847 3.2728934
-0.77631408 3.0146587 2.5924816
-0.74765968 2.9013033 2.0489352
-0.72650158 2.8151596 1.6084462
-0.70500153 2.7298963 1.2274549
-0.68785667 2.6616085 0.89798868
-0.67077011 2.5917776 0.59975016
-0.65376151 2.5260677 0.32719818
-0.79289478 3.1036918 2.9342473
-0.75803047 2.96293 2.3104699
-0.73710912 2.8790786 1.8320307
-0.71426862 2.7838256 1.416043
-0.69654822 2.7128131 1.0639404
-0.67863822 2.641165 0.74842316
-0.66052443 2.570678 0.46240246
-0.64439684 2.5061166 0.19805843
0.0012479683 0.05937976 5.2940717
-0.1771193 0.75091982 4.9051075
-0.23122621 0.96070147 4.774107
-0.34618583 1.4088012 4.6849184
-0.79104555 3.1864746 7.7942929
-0.99291277 3.97609 7.5776496
-0.92030919 3.6690485 5.6282883
-0.85692078 3.4087927 4.2848248
-0.056796476 0.30419457 5.1907535
-0.11963414 0.5323711 5.0458879
-0.28392345 1.1737404 4.6868839
-0.50140709 2.0439148 5.7772098
-1.0608355 4.2894497 9.2002258
-0.95619267 3.8462064 6.5528941
-0.88859618 3.5637083 4.9381595
-0.83511752 3.3393369 3.8098612
-0.80993342 3.1982882 3.3219571
-0.77631807 3.0588498 2.6270044
-0.7447325 2.9322648 2.0681255
-0.72540575 2.8520234 1.6269966
-0.70347261 2.7637892 1.2405661
-0.68566614 2.691885 0.90644884
-0.66657561 2.6131423 0.60348064
-0.65232521 2.557287 0.32988065
-0.79208249 3.1462693 2.9708276
-0.75756443 3.0047517 2.3399014
-0.73443669 2.910893 1.8497629
-0.71233487 2.8171024 1.4307294
-0.6940248 2.7426953 1.0738014
-0.67776692 2.6765013 0.75662941
-0.66005641 2.6065719 0.46723723
-0.64423555 2.5422506 0.19946913
0.0014552351 0.059375044 5.2940717
-0.17432158 0.75077659 4.9001679
-0.22810592 0.9624936 4.7790022
-0.34161708 1.4114519 4.6896906
-0.77991784 3.1892164 7.7942929
-0.98932528 4.0213933 7.6566534
-0.91964716 3.7214122 5.7026815
-0.85426301 3.4490981 4.3308749
-0.055683214 0.3041068 5.1857619
-0.11777509 0.53278548 5.0458879
-0.27982461 1.1747242 4.6868839
-0.49467468 2.0473301 5.7819028
-1.0711014 4.3967657 9.420785
-0.95578814 3.9027178 6.6424789
-0.89052641 3.6253138 5.0179601
-0.83318758 3.3817325 3.8539631
-0.81085134 3.2495382 3.3710206
-0.77602297 3.1030774 2.6615274
-0.73956817 2.9551284 2.0818329
-0.72406125 2.8889136 1.6455472
-0.70171559 2.7977047 1.2536774
-0.68444031 2.7268314 0.91631913
-0.66224009 2.6345093 0.60721111
-0.6518929 2.5933564 0.3330102
-0.79188132 3.1925023 3.0107336
-0.75681555 3.0466056 2.369333
-0.73155099 2.9427233 1.8674953
-0.71017742 2.8503993 1.4454159
-0.69244355 2.7771745 1.0853059
-0.67548031 2.7071469 0.76366329
-0.65694797 2.6328838 0.47069064
-0.64261943 2.5735667 0.20067832
0.0016624834 0.059369601 5.2940717
-0.17169981 0.7513805 4.9001679
-0.2247448 0.9632839 4.7790022
-0.33703402 1.4140879 4.6944623
-0.76786584 3.1881206 7.7850876
-0.99671292 4.1132722 7.8234377
-0.91663414 3.7656124 5.7646756
-0.8574115 3.5143371 4.4076247
-0.054571263 0.30401498 5.1807699
-0.1159146 0.53319335 5.0458879
-0.27572235 1.1756939 4.6868839
-0.48832378 2.052402 5.7912879
-1.0765681 4.4872699 9.6053352
-0.95744652 3.9694135 6.7491274
-0.89203715 3.6869755 5.0977607
-0.82937276 3.4175656 3.8907149
-0.81056994 3.2973697 3.4165797
-0.77542847 3.1473401 2.6960506
-0.73725593 2.990171 2.1037648
-0.72246796 2.9258287 1.6640975
-0.70084232 2.8361413 1.2686616
-0.68182719 2.7571447 0.9247793
-0.65658253 2.6511095 0.61000896
-0.65001953 2.62462 0.3356927
-0.79136705 3.2387719 3.0506394
-0.75578362 3.0884907 2.3987646
-0.72742665 2.9703815 1.8826944
-0.7077961 2.8837144 1.4601021
-0.69175631 2.8162613 1.098454
-0.67298794 2.7378089 0.77069718
-0.65602803 2.6688232 0.47552541
-0.64198583 2.6097531 0.20208904
0.0018697119 0.059363436 5.2940717
-0.16890579 0.75121713 4.8952284
-0.22160861 0.96505499 4.7838979
-0.33243674 1.4167089 4.6992345
-0.75898647 3.2002864 7.8081007
-1.0012478 4.1959329 7.9726667
-0.91988325 3.8372018 5.8679991
-0.85861725 3.5734067 4.4766998
-0.05350972 0.30420363 5.1807699
-0.11405271 0.53359473 5.0458879
-0.27161673 1.1766491 4.6868839
-0.48233709 2.0591347 5.8053665
-1.0834178 4.5863395 9.8078899
-0.9441874 3.9752688 6.7533932
-0.8931281 3.7486913 5.1775608
-0.82689375 3.4600077 3.9348168
-0.80996442 3.3452384 3.4621389
-0.77453423 3.1916354 2.7305734
-0.74062866 3.0496125 2.1421452
-0.72062564 2.9627671 1.6826479
-0.69861281 2.8701012 1.2817729
-0.68014598 2.7921331 0.93464959
-0.66013116 2.7058806 0.62026775
-0.6467554 2.6510632 0.33792809
-0.79053926 3.2850769 3.0905457
-0.75541538 3.1343348 2.4311395
-0.72210723 2.9938555 1.8953601
-0.7062571 2.9214592 1.4768865
-0.68969423 2.8507872 1.1099586
-0.67143345 2.7732103 0.77890337
-0.65369982 2.699975 0.47966948
-0.63875443 2.6362555 0.2030967
0.0020769178 0.059356548 5.2940717
-0.16628253 0.75180209 4.8952284
-0.21846278 0.96681595 4.7887931
-0.32782528 1.4193152 4.7040062
-0.75003135 3.2124288 7.8311133
-1.0095991 4.2973261 8.1570082
-0.92070431 3.9006424 5.9589243
-0.86015874 3.6356456 4.5496125
-0.052447524 0.30438855 5.1807699
-0.11218941 0.53398961 5.0458879
-0.26750779 1.17759 4.6868839
-0.47630915 2.0658505 5.8194447
-1.0861373 4.6706676 9.9789352
-0.9528687 4.0750427 6.9154987
-0.89311075 3.8075252 5.2533712
-0.8295635 3.5255737 4.0046449
-0.80903441 3.3931427 3.5076981
-0.77334017 3.2359626 2.7650967
-0.73970485 3.0928466 2.1695597
-0.71647042 2.9911125 1.6965607
-0.69723535 2.9085882 1.2967571
-0.67934775 2.8318081 0.94592983
-0.65871489 2.7416027 0.62679613
-0.6444779 2.6823578 0.34061053
-0.78939766 3.3314145 3.1304517
-0.75473613 3.180213 2.4635143
-0.72360545 3.0466878 1.9257584
-0.70446324 2.959228 1.4936711
-0.68739939 2.8853328 1.1214632
-0.66851264 2.803906 0.78593731
-0.65116203 2.731143 0.48381355
-0.63650531 2.6676264 0.20430589
0.002284098 0.059348941 5.2940717
-0.16365723 0.75237799 4.8952284
-0.21530735 0.9685666 4.7936878
-0.32353038 1.4233621 4.7135501
-0.74100065 3.2245474 7.8541255
-1.0156357 4.3918276 8.3281832
-0.92236727 3.9696167 6.058115
-0.85982203 3.691695 4.61485
-0.051337589 0.30428496 5.1757784
-0.11021738 0.5338558 5.0409164
-0.26312163 1.17729 4.682044
-0.47062203 2.0742321 5.8382158
-1.0853671 4.7423368 10.122974
-0.95677036 4.1571331 7.0477424
-0.89337128 3.8693402 5.3331718
-0.827196 3.5713837 4.052422
-0.8085947 3.4445527 3.5567617
-0.77273726 3.2841086 2.8027582
-0.74040496 3.1442516 2.2024574
-0.71517646 3.0323987 1.71743
-0.69559759 2.9470999 1.3117414
-0.67717803 2.8668423 0.9558
-0.65818805 2.7821276 0.63425708
-0.6431362 2.7185147 0.34374011
-0.7862457 3.3705111 3.1637065
-0.75374568 3.226124 2.4958889
-0.72474343 3.099566 1.9561565
-0.70137852 2.9926004 1.5083573
-0.68487167 2.9198964 1.1329677
-0.66538566 2.8346145 0.79297125
-0.64954609 2.7671463 0.48864833
-0.63518727 2.7038765 0.2057166
0.0024912504 0.059340604 5.2940717
-0.16102995 0.75294465 4.8952284
-0.21214238 0.97030705 4.798583
-0.31888556 1.4259396 4.7183223
-0.73232549 3.2385478 7.881741
-1.0194303 4.4794164 8.4861889
-0.92355967 4.0386496 6.1573057
-0.86053652 3.7540336 4.6877623
-0.05022902 0.30417734 5.1707869
-0.10835321 0.53423727 5.0409164
-0.25901052 1.1782013 4.682044
-0.46676147 2.0910206 5.8804507
-1.0884138 4.8331709 10.307524
-0.96126246 4.2443876 7.188518
-0.89254344 3.9282644 5.4089823
-0.82979232 3.640357 4.1259251
-0.80780578 3.4960001 3.6058252
-0.77180761 3.332289 2.8404195
-0.73886675 3.1875513 2.2298722
-0.70759243 3.047822 1.7243863
-0.69474846 2.9901505 1.3285986
-0.67477185 2.9018953 0.96567023
-0.65738624 2.8226821 0.64171803
-0.64042026 2.7498441 0.34642258
-0.7828303 3.409626 3.1969616
-0.7533496 3.276006 2.5312068
-0.72552103 3.1524889 1.9865546
-0.70010972 3.034832 1.5272398
-0.68317318 2.9590783 1.1461158
-0.66205233 2.865335 0.80000514
-0.64768672 2.8031714 0.49348307
-0.63249832 2.7352822 0.20692578
0.0026983728 0.059331547 5.2940717
-0.1584007 0.75350219 4.8952284
-0.209823 0.97601926 4.8230596
-0.31454724 1.4299598 4.7278662
-0.72356141 3.2525268 7.9093561
-1.0215791 4.5624099 8.6354179
-0.92489892 4.1104841 6.2606297
-0.86012101 3.8132951 4.7568378
-0.049121823 0.30406567 5.1657953
-0.10648771 0.53461224 5.0409164
-0.25489625 1.1790982 4.682044
-0.46204942 2.1044359 5.9133
-1.0889561 4.9155817 10.47407
-0.9645896 4.3291764 7.3250279
-0.8913148 3.9872286 5.4847927
-0.83117527 3.7060833 4.1957536
-0.8074581 3.550961 3.6583936
-0.76968586 3.3767076 2.8749425
-0.7370351 3.2308781 2.2572868
-0.71174961 3.115051 1.7591683
-0.69360721 3.0332313 1.3454559
-0.6731993 2.9416425 0.97695053
-0.65521169 2.8584762 0.64824641
-0.63860601 2.7860415 0.34955215
-0.77750582 3.4414737 3.2235656
-0.75261432 3.3259237 2.5665247
-0.7249856 3.2012501 2.0144196
-0.69754976 3.0726647 1.5440242
-0.68016326 2.9936788 1.1576203
-0.66066796 2.9055457 0.80938363
-0.64558357 2.8392169 0.49831784
-0.63070643 2.7715733 0.2083365
0.0029054619 0.059321765 5.2940717
-0.15576953 0.75405049 4.8952284
-0.20809722 0.9847157 4.8622212
-0.30986923 1.4325079 4.7326379
-0.71429116 3.264575 7.9323683
-1.0257363 4.657167 8.806592
-0.92513955 4.1796279 6.3598204
-0.85930204 3.8725991 4.825913
-0.048060138 0.30423528 5.1657953
-0.10462092 0.53498071 5.0409164
-0.25077888 1.1799808 4.682044
-0.45797753 2.1212175 5.9555349
-1.085229 4.9810371 10.604605
-0.97236061 4.4369678 7.4999313
-0.88903832 4.0432887 5.556613
-0.83210915 3.7718625 4.2655816
-0.80673647 3.6059613 3.7109616
-0.76896685 3.4287474 2.9157424
-0.73490977 3.2742302 2.2847013
-0.7105878 3.1607356 1.7823563
-0.69217348 3.0763395 1.3623133
-0.67030346 2.9767337 0.98682076
-0.6527952 2.8942888 0.65477473
-0.63764244 2.8271172 0.35312876
-0.78168899 3.5170636 3.2900755
-0.75153959 3.3758757 2.6018426
-0.72411859 3.2500453 2.0422845
-0.69770193 3.1238041 1.5671029
-0.67795014 3.0329022 1.1707684
-0.65794969 2.9410379 0.81758988
-0.6432367 2.8752816 0.50315261
-0.62866873 2.8078847 0.20974721
0.0031125157 0.059311263 5.2940717
-0.15313645 0.75458968 4.8952284
-0.20589964 0.991418 4.891593
-0.30517733 1.4350408 4.7374101
-0.70494562 3.2765985 7.9553814
-1.0221471 4.7192378 8.9163198
-0.92610568 4.2543225 6.4672771
-0.85876268 3.9350741 4.8988252
-0.046997871 0.30440119 5.1657953
-0.10275285 0.53534263 5.0409164
-0.24665846 1.180849 4.682044
-0.45236132 2.1312437 5.9789991
-1.0801462 5.0422688 10.726137
-0.97774255 4.5372167 7.6620374
-0.89020187 4.1170526 5.6523738
-0.83259386 3.837693 4.3354101
-0.80640692 3.6644819 3.7670343
-0.76705521 3.4770217 2.9534039
-0.73339218 3.3216896 2.3148575
-0.71007222 3.2107754 1.8078631
-0.69144899 3.1240005 1.3810436
-0.66820836 3.0165236 0.998101
-0.65120065 2.9349151 0.66223568
-0.63532102 2.8633578 0.3562583
-0.78056985 3.570838 3.3366327
-0.75098974 3.4298086 2.6401038
-0.72291946 3.2988727 2.0701494
-0.69653165 3.1705487 1.5880834
-0.6764853 3.0767584 1.18556
-0.65603614 2.981293 0.82696843
-0.64171004 2.9162002 0.50867802
-0.62638503 2.8442149 0.21115793
0.0033257627 0.059343223 5.2990718
-0.15050152 0.75511962 4.8952284
-0.20406446 1.0001123 4.9307547
-0.30047148 1.4375587 4.7421823
-0.69552481 3.2885962 7.978394
-1.0330997 4.851613 9.1577187
-0.92832804 4.3373289 6.5871325
-0.85645276 3.9913244 4.9640627
-0.045935024 0.3045634 5.1657953
-0.10088353 0.535698 5.0409164
-0.24278755 1.1829342 4.6868839
-0.44527146 2.1344993 5.9836917
-1.0710607 5.086483 10.811661
-0.98243612 4.6375551 7.8241425
-0.88960809 4.184978 5.7401543
-0.83404332 3.9102032 4.4125886
-0.80567855 3.7230439 3.823107
-0.76481581 3.5253241 2.9910653
-0.73066503 3.365092 2.3422723
-0.70921582 3.2608492 1.83337
-0.68941414 3.1671641 1.3979009
-0.66584349 3.056335 1.0093813
-0.64933032 2.975565 0.66969663
-0.63275433 2.8996165 0.35938787
-0.77986926 3.6282971 3.3865151
-0.74922162 3.4798267 2.6754217
-0.72138828 3.3477309 2.0980146
-0.69600171 3.2217588 1.6111619
-0.67472255 3.1206408 1.2003516
-0.65487748 3.0263207 0.83751923
-0.63990533 2.9571426 0.51420349
-0.62385535 2.8805635 0.21256864
0.0035392705 0.059374414 5.3040714
-0.14801365 0.75640297 4.9001679
-0.20117174 1.0038136 4.9454403
-0.29575178 1.440061 4.7469544
-0.68602884 3.3005681 8.0014067
-1.0352907 4.9466133 9.3288918
-0.92418903 4.3928642 6.6656585
-0.85508335 4.0538783 5.0369759
-0.044871617 0.30472189 5.1657953
-0.099012978 0.53604692 5.0409164
-0.23865685 1.1837744 4.6868839
-0.43920356 2.1428025 6.0024629
-1.0722656 5.1818576 11.005213
-0.98750407 4.7430878 7.9947805
-0.89163172 4.2676964 5.8478851
-0.83290964 3.972815 4.4787412
-0.80380893 3.7781565 3.8756754
-0.76224852 3.5736525 3.0287268
-0.72851646 3.4126041 2.3724282
-0.70801824 3.3109553 1.8588767
-0.68805635 3.2148838 1.4166312
-0.66320866 3.0961657 1.0206615
-0.64718401 3.0162368 0.67715758
-0.62889743 2.9310224 0.36207035
-0.77954865 3.6894472 3.439723
-0.74795032 3.533828 2.7136827
-0.71952468 3.3966179 2.1258793
-0.69417983 3.2685637 1.6321424
-0.67266148 3.1645474 1.2151432
-0.65240097 3.0666223 0.84689784
-0.63782263 2.9981077 0.5197289
-0.6210795 2.9169285 0.21397936
0.0037465044 0.0593617 5.3040714
-0.14537242 0.75691497 4.9001679
-0.1982557 1.007507 4.9601254
-0.29101831 1.4425478 4.7517266
-0.67684847 3.3144274 8.0290222
-1.0397257 5.0557637 9.5264015
-0.93505502 4.5228281 6.8557739
-0.8487339 4.094501 5.0830259
-0.043847799 0.30516255 5.1707869
-0.097141221 0.53638923 5.0409164
-0.2347672 1.1858335 4.6917233
-0.4327426 2.1493976 6.016541
-1.0684811 5.2559686 11.153752
-0.98975629 4.8384905 8.1483536
-0.89490616 4.359334 5.9675856
-0.83545303 4.0553889 4.5669456
-0.80156416 3.8333006 3.9282434
-0.7585544 3.6181962 3.0632501
-0.72604507 3.4601419 2.4025846
-0.70647949 3.3610926 1.8843836
-0.68637377 3.2626319 1.4353615
-0.66030383 3.1360149 1.0319418
-0.64577526 3.0617359 0.68555117
-0.62585658 2.9673092 0.36519989
-0.77729249 3.7433271 3.4862802
-0.74631101 3.5878625 2.7519438
-0.718207 3.4497526 2.1562774
-0.69203949 3.3153946 1.653123
-0.67223334 3.2177227 1.2332218
-0.65064573 3.1117003 0.85744864
-0.63546157 3.0390937 0.52525437
-0.61805719 2.9533086 0.21539007
0.0039603747 0.059391376 5.3090711
-0.1425858 0.7566542 4.8952284
-0.1951234 1.0101925 4.9699163
-0.28598109 1.4435549 4.7517266
-0.66757971 3.328263 8.0566368
-1.0424623 5.1603074 9.7151318
-0.91926169 4.5260644 6.8557739
-0.8517046 4.1822395 5.1866384
-0.04278231 0.30531374 5.1707869
-0.095268279 0.53672504 5.0409164
-0.23086607 1.1878796 4.6965628
-0.42757931 2.1627457 6.0493903
-1.0633398 5.3258452 11.29329
-0.9928956 4.941637 8.3147259
-0.89695597 4.4480915 6.0832963
-0.82667124 4.0848632 4.5963464
-0.79822648 3.8849814 3.9773073
-0.75377303 3.6589444 3.0946343
-0.72409493 3.5117986 2.435482
-0.70549524 3.415597 1.912209
-0.68436611 3.3104074 1.4540918
-0.65712881 3.1758814 1.0432221
-0.64405674 3.1072614 0.69394475
-0.61852711 2.9841046 0.36654112
-0.77690834 3.8082106 3.5428135
-0.74349409 3.6379676 2.7872617
-0.71566319 3.4986959 2.1841426
-0.69049245 3.3666961 1.6762016
-0.67144209 3.2709327 1.2513005
-0.64858371 3.1568034 0.86799955
-0.63282204 3.0800993 0.53077978
-0.61478847 2.9897029 0.21680079
0.0041676648 0.05937719 5.3090711
-0.13994372 0.75714731 4.8952284
-0.19140661 1.0098671 4.9650211
-0.28122523 1.4460095 4.7564979
-0.65822256 3.3420739 8.0842514
-1.0449475 5.2672806 9.9082508
-0.93428159 4.6837873 7.0872192
-0.84590107 4.2291889 5.2403631
-0.041716307 0.30546123 5.1707869
-0.093394183 0.53705436 5.0409164
-0.22695349 1.1899129 4.7014017
-0.42199942 2.1743894 6.0775471
-1.0635859 5.4256577 11.495845
-0.99128836 5.0243926 8.446969
-0.89781159 4.5339599 6.1950173
-0.81769383 4.1143246 4.6257477
-0.79383212 3.9331892 4.0228662
-0.75412041 3.726408 3.1479881
-0.72013265 3.5552866 2.4628966
-0.70413899 3.470135 1.9400347
-0.68203312 3.3582077 1.4728222
-0.65368342 3.2157633 1.0545024
-0.64104795 3.1479986 0.7014057
-0.6180439 3.035044 0.37101194
-0.7768141 3.8767974 3.6026728
-0.73954093 3.6841335 2.8196368
-0.7136355 3.5518889 2.2145407
-0.6876992 3.4135771 1.6971821
-0.67028737 3.3241754 1.2693789
-0.6462146 3.2019291 0.87855041
-0.63088363 3.1259775 0.53699589
-0.61028385 3.0212128 0.21800998
0.004374905 0.059362277 5.3090711
-0.13729994 0.75763118 4.8952284
-0.18788034 1.010529 4.9650211
-0.2764557 1.4484487 4.76127
-0.64914805 3.3577785 8.1164703
-1.0407469 5.3437719 10.044312
-0.93739504 4.7864361 7.2360048
-0.85336798 4.3453422 5.3785133
-0.040649798 0.30560499 5.1707869
-0.091518946 0.53737712 5.0409164
-0.22302955 1.1919334 4.7062416
-0.41698897 2.1894109 6.1150894
-1.053277 5.4742293 11.59037
-0.99456942 5.1353612 8.6261387
-0.89865339 4.6228452 6.3107281
-0.8189078 4.1970115 4.7139516
-0.79604375 4.0163951 4.1034708
-0.7509712 3.7786472 3.1887882
-0.71995443 3.6192954 2.5040188
-0.70241034 3.5247045 1.9678603
-0.67937475 3.4060318 1.4915526
-0.64996749 3.2556591 1.0657825
-0.63776249 3.1887519 0.70886666
-0.61721241 3.0860155 0.37548271
-0.77192587 3.9234481 3.6425788
-0.73527437 3.7303152 2.8520114
-0.71041059 3.6008801 2.2424057
-0.68722928 3.4738359 1.7244568
-0.66693461 3.3681848 1.2841705
-0.64448315 3.2518439 0.89027357
-0.62766969 3.167021 0.54252136
-0.60556674 3.0527275 0.21921916
0.0045820912 0.059346646 5.3090711
-0.13451889 0.75734079 4.8902898
-0.18435179 1.0111787 4.9650211
-0.27167258 1.4508721 4.7660422
-0.63960755 3.3715405 8.1440849
-1.0346761 5.4132395 10.167207
-0.94564593 4.9195614 7.430254
-0.85396749 4.4301248 5.4782887
-0.039582785 0.30574501 5.1707869
-0.089642592 0.53769326 5.0409164
-0.21909425 1.193941 4.711081
-0.4090271 2.189157 6.1103964
-1.0531412 5.5784135 11.801928
-1.0004961 5.264348 8.8351688
-0.89549762 4.6940312 6.4024982
-0.82019198 4.2830863 4.805831
-0.79632175 4.0926619 4.1770663
-0.75491989 3.8691123 3.2609727
-0.71933782 3.6833448 2.5451407
-0.70030934 3.5793035 1.9956859
-0.6772815 3.458427 1.5121559
-0.65243995 3.3285205 1.0869331
-0.63420027 3.2295203 0.71632767
-0.61603254 3.1370175 0.3799535
-0.77167696 3.9957736 3.7057631
-0.72992647 3.7725427 2.8814428
-0.70767188 3.6541243 2.2728038
-0.68548173 3.5296769 1.7496334
-0.66508484 3.4214821 1.3022492
-0.64241099 3.3017857 0.90199673
-0.62417692 3.2080803 0.54804677
-0.59872693 3.0744379 0.22002529
0.0047892216 0.059330288 5.3090711
-0.13187444 0.75780582 4.8902898
-0.18099989 1.0128183 4.9699163
-0.26687589 1.4532799 4.7708144
-0.62997895 3.3852766 8.1716995
-1.0285742 5.4850831 10.29449
-0.95193541 5.0472698 7.6162362
-0.85517663 4.5212617 5.5857387
-0.038515296 0.30588132 5.1707869
-0.087765142 0.53800291 5.0409164
-0.21492529 1.1946985 4.711081
-0.39827377 2.1735971 6.0634685
-1.0229613 5.5242605 11.680395
-1.0055342 5.3934374 9.0441999
-0.89518148 4.7830219 6.5182095
-0.82213694 4.3758841 4.9050603
-0.79674584 4.172482 4.2541666
-0.75531787 3.9443579 3.3206034
-0.71828282 3.7474337 2.5862627
-0.69783545 3.63393 2.0235114
-0.67483068 3.5108488 1.5327592
-0.65169257 3.3873057 1.1038535
-0.63036108 3.2703021 0.72378862
-0.61356145 3.1831584 0.38397723
-0.77440816 4.0864863 3.7855749
-0.72806245 3.8346341 2.9255905
-0.70376527 3.7031577 2.300669
-0.68420219 3.5900059 1.776908
-0.66198605 3.4701681 1.3186842
-0.63999796 3.3517516 0.91371989
-0.61947626 3.2442889 0.55288154
-0.59549439 3.115766 0.22163753
0.0049888603 0.059270218 5.3040714
-0.12922841 0.7582615 4.8902898
-0.1774634 1.0134441 4.9699163
-0.26233003 1.4571407 4.7803578
-0.62026227 3.3989863 8.1993151
-1.0215499 5.554594 10.417384
-0.95632094 5.1695466 7.7939534
-0.85400575 4.6030059 5.6816764
-0.037481464 0.30630055 5.1757784
-0.085886627 0.538306 5.0409164
-0.21097177 1.1966795 4.7159204
-0.38732913 2.1562905 6.0118484
-1.0032829 5.5256557 11.675894
-1.0073377 5.5097971 9.2319012
-0.88772726 4.8365011 6.5860395
-0.82344383 4.4687457 5.0042896
-0.79662216 4.2523541 4.3312664
-0.75376219 4.012002 3.3739572
-0.71756172 3.8156686 2.6301262
-0.69498867 3.6885822 2.051337
-0.67202199 3.5632944 1.5533626
-0.65054268 3.4461255 1.1207738
-0.62533194 3.3062694 0.73031694
-0.61077559 3.2293196 0.38800094
-0.77446824 4.1662531 3.8554106
-0.73317426 3.9364939 2.9991693
-0.70031476 3.7564449 2.3310671
-0.68084162 3.6414459 1.7999867
-0.65942401 3.5235152 1.3367629
-0.63813865 3.4065177 0.92661542
-0.61453032 3.2805033 0.55771631
-0.59750485 3.1865709 0.22445898
0.0051957211 0.059252441 5.3040714
-0.12658079 0.75870794 4.8902898
-0.17409663 1.0150609 4.9748111
-0.2575013 1.4595176 4.78513
-0.61045754 3.4126701 8.2269306
-1.0140529 5.6241217 10.540278
-0.96036631 5.2946825 7.9758034
-0.84883255 4.6658754 5.7545891
-0.036445182 0.30671629 5.1807699
-0.084007062 0.53860253 5.0409164
-0.20679329 1.1974086 4.7159204
-0.38069707 2.1627281 6.0259266
-0.96339357 5.4133873 11.432828
-1.0175419 5.6775756 9.504921
-0.88044411 4.8929515 6.6578593
-0.81989336 4.5383162 5.0777931
-0.79595041 4.3322749 4.4083662
-0.75244874 4.0835104 3.4304495
-0.71713126 3.8880553 2.6767311
-0.69176871 3.743258 2.0791626
-0.6696986 3.6203218 1.575839
-0.64898998 3.5049779 1.1376942
-0.62185138 3.3519008 0.73871052
-0.60858327 3.2803962 0.39247173
-0.77465028 4.249743 3.9285717
-0.73322642 4.0145774 3.0550892
-0.69572538 3.8055122 2.3589318
-0.67794853 3.6973693 1.8251634
-0.65649742 3.5768859 1.3548415
-0.63590491 3.4613116 0.93951094
-0.60933906 3.3167222 0.56255108
-0.59631729 3.242686 0.22667581
0.0054025194 0.059233945 5.3040714
-0.12405653 0.75991201 4.8952284
-0.17088917 1.0176708 4.984602
-0.25265914 1.4618785 4.7899022
-0.60090202 3.4282503 8.2591476
-1.0060828 5.6936646 10.663173
-0.95862418 5.3922024 8.1163235
-0.85279548 4.7824068 5.8927388
-0.035438586 0.30741549 5.1907535
-0.082046583 0.53836542 5.0359445
-0.2026123 1.1981231 4.7159204
-0.37373173 2.1674449 6.0353122
-0.94673496 5.429585 11.459835
-1.0153097 5.7812729 9.6712923
-0.88742858 5.0324993 6.8414011
-0.81882238 4.6246066 5.169672
-0.79536229 4.4157519 4.4889712
-0.74580133 4.1282454 3.4649723
-0.71620411 3.9604847 2.723336
-0.68896526 3.802315 2.1093071
-0.66698509 3.6773753 1.5983154
-0.64617729 3.5591412 1.1532046
-0.6224556 3.4217119 0.75176722
-0.6051504 3.3265965 0.39649543
-0.77097517 4.3149056 3.9851053
-0.7334547 4.0966878 3.1139529
-0.6908021 3.854593 2.386797
-0.67065865 3.7309818 1.8398496
-0.65404248 3.6349261 1.3745636
-0.63329607 3.5161302 0.95240635
-0.60390234 3.3529446 0.56738585
-0.59740448 3.3135812 0.22949725
0.0056092516 0.059214726 5.3040714
-0.12140319 0.76034045 4.8952284
-0.1671709 1.0172564 4.9797068
-0.2478036 1.4642233 4.7946739
-0.5905841 3.4399545 8.2821608
-0.99641401 5.7561393 10.7729
-0.96104133 5.5174971 8.2981739
-0.84437096 4.8327155 5.9503016
-0.034303028 0.30696326 5.1807699
-0.080166839 0.53864855 5.0359445
-0.19842884 1.1988231 4.7159204
-0.36702523 2.1738412 6.0493903
-1.0110393 5.8773117 9.8248653
-0.89396209 5.1751227 7.0289321
-0.81078571 4.6742005 5.2211246
-0.79482085 4.5027881 4.5730801
-0.7490294 4.2304745 3.5465722
-0.71477985 4.0329542 2.7699411
-0.68420863 3.852674 2.134814
-0.66469264 3.7390177 1.6226648
-0.64299428 3.6133265 1.168715
-0.61999291 3.4770594 0.76202601
-0.60140234 3.3728125 0.40051913
-0.76749837 4.3837719 4.0449643
-0.73032469 4.1629224 3.1610434
-0.68927246 3.9249141 2.4273279
-0.67259026 3.8182247 1.8797127
-0.65119028 3.6929922 1.3942857
-0.62946737 3.5661857 0.96412951
-0.60510623 3.4281824 0.57774603
-0.5893113 3.3353252 0.23030338
0.0058159153 0.059194785 5.3040714
-0.11886791 0.76152736 4.9001679
-0.16265067 1.0118017 4.9503355
-0.24293481 1.466552 4.7994461
-0.58213454 3.4631882 8.3327885
-0.9883222 5.8304214 10.904572
-0.95786333 5.6151323 8.438693
-0.85182363 4.9778032 6.1229892
-0.033231314 0.30708113 5.1807699
-0.078286119 0.53892511 5.0359445
-0.19424294 1.1995084 4.7159204
-0.35971612 2.1768117 6.0540833
-1.0056775 5.9708185 9.9741735
-0.89448524 5.2881408 7.1765633
-0.81206357 4.7806129 5.3350544
-0.7924661 4.5828457 4.6501803
-0.74689621 4.3059287 3.6062028
-0.7135734 4.109581 2.8192873
-0.67986804 3.9074099 2.1626396
-0.66197795 3.8006885 1.6470143
-0.63944077 3.6675327 1.1842253
-0.61799681 3.5372701 0.77321744
-0.59819591 3.4239478 0.40498993
-0.76228791 4.4453053 4.0981722
-0.72263402 4.2052822 3.1904747
-0.69310635 4.0292583 2.4881241
-0.66929036 3.8786907 1.9069872
-0.64874417 3.7557354 1.4156513
-0.62612498 3.6210463 0.97702503
-0.60410452 3.4937091 0.58672488
-0.58448189 3.376744 0.23191562
0.0060306913 0.05921698 5.3090711
-0.11620896 0.76193762 4.9001679
-0.1600651 1.0183986 4.9797068
