# .PCD v0.7 - Point Cloud Data file format
VERSION 0.7
FIELDS x y z
SIZE 4 4 4
TYPE F F F
COUNT 1 1 1
WIDTH 1512
HEIGHT 1
VIEWPOINT 0 0 0 1 0 0 0
POINTS 1512
DATA ascii
2.1952007 -2.0412436 4.4751954
2.3216131 -2.1565437 3.8703744
0.17840546 -0.18726231 4.3122215
0.35561413 -0.34739935 4.5934811
2.0215361 -1.9120959 10.750683
2.7497604 -2.5838306 10.315115
2.5107253 -2.3501868 7.1746793
1.9455568 -1.8167001 4.4241929
2.2894979 -2.134907 4.2199554
3.265908 -3.0411818 4.9160857
0.026606025 -0.041575547 4.1391158
2.6024981 -2.5084107 22.977852
3.7228811 -3.5548716 24.771111
2.4163613 -2.2848375 10.678531
3.0000041 -2.8229606 9.7641735
1.8201171 -1.7078921 4.641356
2.1942241 -2.0546641 4.4875946
2.3749299 -2.221565 3.9701493
0.17775071 -0.18788391 4.3122215
0.35439929 -0.34863859 4.5934811
3.4246097 -3.2621064 18.24695
2.748245 -2.6005304 10.343272
2.5310194 -2.3858154 7.2557015
1.9601027 -1.8431334 4.4711185
2.2974076 -2.1573246 4.2478852
3.2725825 -3.0687959 4.941812
0.026460737 -0.041668165 4.1391158
2.5909388 -2.5147738 22.953156
3.7163212 -3.5734913 24.810272
2.405128 -2.2901702 10.664214
2.9986398 -2.8414781 9.7917891
1.8141443 -1.7142351 4.641356
2.1870387 -2.0623109 4.4875946
2.4091561 -2.2694023 4.0392246
0.17689693 -0.18829207 4.3072295
0.3531802 -0.34987354 4.5934811
3.3950603 -3.2566373 18.150162
2.5479374 -2.4186163 7.3277206
1.9707 -1.8661035 4.5095115
2.3008101 -2.1756828 4.2678356
0.026315128 -0.041760277 4.1391158
2.580478 -2.5221732 22.938339
3.7074819 -3.5899835 24.834747
2.3928096 -2.2944188 10.645125
2.9152076 -2.7817926 9.5524569
1.8046796 -1.7172551 4.6325779
2.1757455 -2.066057 4.4793286
2.4244735 -2.2998574 4.0775995
0.17643471 -0.18912028 4.3122215
0.35195675 -0.35110423 4.5934811
2.0014021 -1.9331599 10.750683
2.685199 -2.5766385 10.174332
2.5489209 -2.4365213 7.3547277
1.9773861 -1.8855704 4.5393734
2.3062942 -2.1961689 4.2917752
0.026169196 -0.041851882 4.1391158
2.5672283 -2.5268044 22.898823
3.6978438 -3.6057467 24.854328
2.3804913 -2.2986097 10.626039
2.8420906 -2.7310359 9.3453445
1.8090494 -1.7334868 4.6589122
2.1461489 -2.0522456 4.433866
2.4303367 -2.3215904 4.1006246
0.17577349 -0.18973498 4.3122215
0.35072902 -0.35233065 4.5934811
2.0081565 -1.9532814 10.823274
2.6612976 -2.5716054 10.118018
2.5529468 -2.4574819 7.3907375
1.9896033 -1.9105256 4.5820327
2.2964392 -2.2021205 4.2877855
0.34424126 -0.32769132 0.15850325
0.026022946 -0.041942973 4.1391158
2.5617034 -2.5390325 22.928459
3.685235 -3.6186326 24.854328
2.3671024 -2.301702 10.602179
2.4647126 -2.3849881 8.1394825
1.7943704 -1.7314754 4.6369667
2.1187024 -2.040205 4.3925366
2.4106684 -2.3189492 4.0814366
0.17491549 -0.19013418 4.3072295
0.3498714 -0.35393217 4.5984521
2.0049179 -1.9637978 10.842631
2.6510682 -2.5796764 10.113326
2.5474792 -2.469409 7.3997402
1.9997952 -1.933776 4.6204262
2.2844031 -2.2059367 4.2798057
0.32033688 -0.30600649 0.1327188
0.3538197 -0.33917168 0.16057529
0.025876381 -0.042033553 4.1391158
2.5522749 -2.5474102 22.923519
3.6740294 -3.6329064 24.864119
2.355854 -2.3068175 10.587863
2.4633684 -2.4003944 8.1624947
1.7865978 -1.7360592 4.6325779
2.069145 -2.0064487 4.3057446
2.4002571 -2.3251197 4.0775995
0.17425072 -0.19074358 4.3072295
0.34863383 -0.3551513 4.5984521
1.9980506 -1.9707842 10.842631
2.6395819 -2.5864987 10.103941
2.5528638 -2.4919722 7.4402514
2.0061121 -1.9534812 4.6502876
2.265888 -2.2033937 4.2598553
0.31567782 -0.30367032 0.13227172
0.34194517 -0.33008656 0.15850325
0.025729498 -0.042123623 4.1391158
2.5444634 -2.5574052 22.933399
3.6591613 -3.6435537 24.849434
2.3445988 -2.3118825 10.573546
2.4549747 -2.4089787 8.1624947
1.7788154 -1.74061 4.6281886
2.0621285 -2.0136592 4.3057446
2.3921263 -2.3334842 4.0775995
0.17358385 -0.19135067 4.3072295
0.34776378 -0.3567481 4.6034241
1.9911591 -1.9777467 10.842631
2.6133409 -2.578727 10.038241
2.5208631 -2.4779768 7.3727331
2.0998337 -2.0590782 4.8806481
2.2086666 -2.1627996 4.1680846
0.3253465 -0.3151654 0.13361296
0.35144326 -0.34163353 0.16057529
0.025582302 -0.042213179 4.1391158
2.536067 -2.5668247 22.938339
3.6449826 -3.6548624 24.839643
2.3386331 -2.3221562 10.583091
2.4437714 -2.4147871 8.1532898
1.765905 -1.7400843 4.6106324
2.0771577 -2.0425489 4.3512073
2.3702469 -2.3283427 4.0545745
0.17291485 -0.19195542 4.3072295
0.34651637 -0.35795987 4.6034241
1.9842434 -1.9846851 10.842631
2.6030998 -2.5866177 10.033549
2.5586109 -2.5327067 7.5077691
2.1056232 -2.0792234 4.9105096
2.1560478 -2.126065 4.0842943
0.34811047 -0.33957741 0.18380153
0.30998543 -0.30238929 0.13182464
0.32901624 -0.32207325 0.1564312
0.025434796 -0.042302221 4.1391158
2.5276356 -2.576216 22.943277
3.630053 -3.6653929 24.824959
2.3273461 -2.3271389 10.568774
2.4367123 -2.4246809 8.1578932
1.7666204 -1.752986 4.6281886
2.0800126 -2.0596876 4.3718719
2.3598263 -2.3343482 4.0507369
0.17224374 -0.19255784 4.3072295
0.34526473 -0.35916725 4.6034241
1.978189 -1.9924912 10.847471
2.5928354 -2.5944676 10.028856
2.5975487 -2.5892665 7.6473064
2.1630781 -2.1509254 5.0598173
2.1165414 -2.1017292 4.0244436
0.33991447 -0.33390561 0.18193629
0.31958571 -0.31393918 0.13316588
0.025268681 -0.042351134 4.1341162
2.5186274 -2.5850234 22.943277
3.6150947 -3.6758637 24.810272
2.3192089 -2.3352487 10.568774
2.4282339 -2.433172 8.1578932
1.7655728 -1.7642205 4.641356
2.0847659 -2.0788579 4.3966699
2.324414 -2.3154261 4.0046868
0.17157055 -0.19315791 4.3072295
0.34400892 -0.36037025 4.6034241
1.9703394 -1.9984893 10.842631
2.5971336 -2.6169763 10.080476
2.585422 -2.5952334 7.6383047
2.1241069 -2.1240196 4.0523744
0.33874685 -0.3350901 0.18193629
0.31848794 -0.31505284 0.13316588
0.025120694 -0.042439081 4.1341162
2.5095887 -2.5937994 22.943277
3.6008186 -3.6870031 24.80048
2.3215244 -2.3539586 10.616494
2.4100993 -2.4319191 8.1256742
1.7222636 -1.7329986 4.544796
2.0894103 -2.0980859 4.4214673
2.3253691 -2.3326058 4.0200367
0.17089525 -0.19375563 4.3072295
0.34274888 -0.36156887 4.6034241
1.9633514 -2.0053549 10.842631
2.6025181 -2.6407759 10.13679
2.5549133 -2.5825756 7.5752873
2.199429 -2.2178266 5.1792636
2.1570215 -2.1720452 4.1281843
0.34801555 -0.34667093 0.18473415
0.31032997 -0.30913341 0.13227172
0.024972403 -0.04252651 4.1341162
2.5005195 -2.6025436 22.943277
3.5857999 -3.6973574 24.785795
2.3206038 -2.369513 10.649898
2.3947442 -2.4333546 8.1026621
1.6808766 -1.7032009 4.4526253
2.0919673 -2.1153712 4.442132
2.3375072 -2.3612096 4.0545745
0.17021787 -0.19435097 4.3072295
0.34148467 -0.36276311 4.6034241
3.3248971 -3.4200063 18.401812
2.6125956 -2.6695783 10.211874
2.5306275 -2.5759487 7.5302758
2.2099731 -2.2440729 5.2219229
2.2023206 -2.2331996 4.2279348
0.35373935 -0.35484147 0.18659939
0.024823803 -0.042613421 4.1341162
2.4908834 -2.6106942 22.938339
3.5714595 -3.7083845 24.776005
2.3196032 -2.3850901 10.683302
2.3753121 -2.430521 8.0658417
1.6782738 -1.7124791 4.4614038
2.096401 -2.1347077 4.4669299
2.3427329 -2.3830693 4.0775995
0.16953842 -0.19494396 4.3072295
0.34058002 -0.36434263 4.6083956
3.3077009 -3.4261656 18.372776
2.6044638 -2.6799192 10.216567
2.4836168 -2.5458093 7.4177456
2.196656 -2.2461793 5.209125
2.2177026 -2.264555 4.2718253
0.35595447 -0.35956514 0.18753201
0.024692645 -0.042739678 4.1391158
2.4828238 -2.6205013 22.948217
3.5563822 -3.7186215 24.76132
2.3174853 -2.3996153 10.711934
2.3736162 -2.4458075 8.0888538
1.683978 -1.7303418 4.4921269
2.0987597 -2.1520855 4.4875946
2.3590288 -2.4164617 4.119812
0.1688569 -0.19553459 4.3072295
0.33930615 -0.36552924 4.6083956
3.2939816 -3.4358761 18.363098
2.609473 -2.7038951 10.27288
2.4429066 -2.5216277 7.3232193
2.1779006 -2.2426076 5.1835294
2.1908779 -2.2528405 4.2359152
0.3546972 -0.36080545 0.18753201
0.33004749 -0.33690101 0.20446785
0.024543306 -0.042825609 4.1391158
2.4752586 -2.6308496 22.963034
3.5412765 -3.7287977 24.746635
2.3163271 -2.4152317 10.745338
2.36642 -2.4554851 8.0934572
1.6812563 -1.7396539 4.5009055
2.1029804 -2.1715276 4.512392
2.3505795 -2.4246817 4.119812
0.16817334 -0.19612281 4.3072295
0.33802816 -0.36671144 4.6083956
3.2811015 -3.4464428 18.358257
2.6000187 -2.7129874 10.27288
2.4084327 -2.503469 7.2466989
2.1620688 -2.2387989 4.1960149
0.34314135 -0.35149619 0.18473415
0.35259432 -0.36243933 0.21267407
0.024393667 -0.042911019 4.1391158
2.4681818 -2.6417451 22.982792
3.5268416 -3.7396545 24.736845
2.3119998 -2.4276264 10.764425
2.3632374 -2.4693763 8.1118679
1.6851232 -1.7558802 4.5272398
2.107091 -2.191025 4.53719
2.3132033 -2.4028528 4.0699244
0.16748773 -0.19670866 4.3072295
0.33674601 -0.36788914 4.6083956
3.2673237 -3.456048 18.348577
2.5929122 -2.7245469 10.282266
2.3515599 -2.461489 7.1026602
1.9457335 -2.0317218 4.671617
2.7402956 -2.8574646 5.3172121
0.3344416 -0.34618869 0.20681247
0.024243731 -0.042995911 4.1391158
2.4610589 -2.6526229 23.002548
3.5116785 -3.7497134 24.722157
2.3168449 -2.4497814 10.826462
2.8162117 -2.9633646 9.6905336
1.6756794 -1.7582842 4.5184617
2.0994298 -2.1983669 4.53719
2.2870829 -2.3923776 4.0392246
0.16680007 -0.19729209 4.3072295
0.3354598 -0.36906236 4.6083956
3.2517991 -3.4637666 18.329222
2.5869417 -2.737344 10.296344
2.3594337 -2.4870553 7.1521735
1.9188602 -2.0177124 4.624692
2.7303042 -2.8670125 5.3172121
0.34332573 -0.35787684 0.21032943
0.024093499 -0.043080274 4.1391158
2.4554696 -2.6651981 23.037125
3.4964883 -3.7597117 24.707472
2.2980611 -2.4469724 10.778742
2.791101 -2.9575474 9.639905
1.6678853 -1.762383 4.5140724
2.0878706 -2.2015979 4.528924
2.2632711 -2.3840742 4.012362
0.16611037 -0.19787315 4.3072295
0.3345263 -0.37062711 4.6133671
3.2482593 -3.4842906 18.377615
2.5809133 -2.7501328 10.310423
2.3477526 -2.4921072 7.1431713
1.9118054 -2.0243981 4.624692
2.7471948 -2.9049871 5.369082
0.35213223 -0.36963111 0.21384639
0.023925932 -0.043123946 4.1341162
2.4430048 -2.6703131 23.007488
3.4812708 -3.7696495 24.692787
2.2986679 -2.4648044 10.82169
2.3706458 -2.5296271 8.2269306
1.6650035 -1.771685 4.522851
2.0878897 -2.2170672 4.5454555
2.2373464 -2.3733017 3.981662
0.16560262 -0.19867423 4.3122215
0.33323056 -0.37179255 4.6133671
3.2437623 -3.5039101 18.421169
2.5748272 -2.7629123 10.3245
2.3405266 -2.5018771 7.1476722
1.9082952 -2.0348639 4.6332235
2.7617903 -2.9409177 5.4169626
0.36754125 -0.38851315 0.21970797
0.023775255 -0.043207202 4.1341162
2.435236 -2.6805499 23.022305
3.4667144 -3.7802775 24.682997
2.2910643 -2.4739084 10.826462
2.3591397 -2.5350263 8.2177258
1.6637111 -1.7827392 4.5360179
2.0820599 -2.2263973 4.5495887
2.2202866 -2.3717372 3.9663119
0.16490811 -0.19925109 4.3122215
0.33228472 -0.37335196 4.6183381
3.2289596 -3.5124352 18.406652
2.5710275 -2.7782166 10.347964
2.346595 -2.5259812 7.1926842
1.9225087 -2.0644164 4.6844153
2.7741132 -2.9747818 5.4608526
0.3761667 -0.40042174 0.22322492
0.02364105 -0.043330215 4.1391158
2.4222214 -2.6849954 22.98773
3.451441 -3.7900968 24.668312
2.2824149 -2.4818909 10.826462
1.6477108 -1.7779955 4.5096836
2.0781054 -2.2377756 4.5578547
2.1879888 -2.3536494 3.9240992
0.16402917 -0.19960175 4.3072295
0.33133215 -0.37490931 4.6233101
3.2166793 -3.523685 18.406652
2.5624816 -2.7884445 10.352656
2.3525238 -2.5501583 7.2376966
1.9152908 -2.0711145 4.6844153
2.7759962 -2.9977121 5.4847927
0.38139778 -0.40884089 0.22556956
0.023489656 -0.043412473 4.1391158
2.4206104 -2.702116 23.061821
3.4361415 -3.7998559 24.653624
2.2636721 -2.4788198 10.778742
2.8010492 -3.0523679 9.8194036
1.6350074 -1.7766867 4.4921269
2.3812261 -2.5822194 5.2315249
2.1732376 -2.354207 3.9125867
0.16333143 -0.20017311 4.3072295
0.33002144 -0.37606359 4.6233101
3.2018268 -3.5320976 18.392134
2.5399377 -2.7833505 10.301037
2.3406668 -2.5551438 7.228694
1.9327452 -2.1046817 4.7441382
2.7675552 -3.0096023 5.4887829
0.023321494 -0.043453801 4.1341162
2.4189091 -2.7192578 23.135908
3.4208159 -3.8095543 24.638939
2.2459815 -2.4767542 10.735794
2.7956409 -3.0679033 9.8378143
1.6191024 -1.771775 4.4657931
2.3778994 -2.5967419 5.2439241
2.1780019 -2.3759553 3.935612
0.16263171 -0.20074202 4.3072295
0.32870671 -0.3772133 4.6233101
3.1894782 -3.5432525 18.392134
2.5186193 -2.7794116 10.254109
2.3361282 -2.56813 7.242198
2.752969 -3.0147941 5.480803
0.02316967 -0.043534942 4.1341162
2.4063163 -2.7241905 23.106274
3.4054642 -3.8191919 24.624254
2.2363234 -2.4834695 10.731022
2.784915 -3.0776432 9.8378143
1.6112983 -1.7756422 4.4614038
2.3404231 -2.5737963 5.1819296
2.1783252 -2.3930249 3.9509621
0.1617499 -0.20108283 4.302238
0.32738799 -0.37835839 4.6233101
3.1754153 -3.5524902 18.382456
2.5089018 -2.7881863 10.254109
2.3256903 -2.5746536 7.2376966
2.0037799 -2.212853 4.9531689
2.7424288 -3.0243855 5.480803
0.023017565 -0.043615554 4.1341162
2.3967924 -2.7325737 23.106274
3.3900871 -3.8287687 24.609568
2.2186863 -2.4812458 10.688074
2.7819891 -3.0960646 9.8654289
1.5906616 -1.7652425 4.4219022
2.2861638 -2.5318241 5.0827389
2.1721079 -2.4029915 3.9547992
0.16104701 -0.20164621 4.302238
0.3260653 -0.3794989 4.6233101
3.1479769 -3.5466311 18.295345
2.4991541 -2.7969267 10.254109
2.3195958 -2.5859971 7.2466989
2.7298386 -3.0317006 5.4768128
0.33916318 -0.37284705 0.23809335
0.022865178 -0.043695632 4.1341162
2.3877497 -2.741509 23.111212
3.3740125 -3.8375199 24.589985
2.2119939 -2.4912078 10.697618
2.7581584 -3.0911791 9.8194036
2.7550642 -3.0790801 7.6390972
2.2622838 -2.5230277 5.0496755
2.153002 -2.3986328 3.935612
0.16034216 -0.20220713 4.302238
0.32473862 -0.38063475 4.6233101
3.1222804 -3.5425096 18.217915
2.4973927 -2.8146694 10.286959
2.3395126 -2.6265912 7.3367233
2.717231 -3.038965 5.4728227
0.33785963 -0.37402868 0.23809335
0.022712512 -0.043775182 4.1341162
2.3710506 -2.7415988 23.042063
3.3572485 -3.8454392 24.56551
2.717257 -3.0582416 7.5644832
2.2572052 -2.5351124 5.0579414
2.1382179 -2.3989549 3.9240992
0.15963534 -0.20276561 4.302238
0.32375219 -0.382173 4.6282816
3.1041012 -3.5467658 18.18404
2.4943969 -2.8311386 10.315115
2.3692691 -2.6787698 7.4582558
2.708607 -3.0506845 5.4768128
0.33334896 -0.37163472 0.23668331
0.02255957 -0.043854196 4.1341162
2.3614659 -2.7498589 23.042063
3.3358018 -3.8479023 24.506767
2.2525957 -2.5603051 8.0934572
2.6622 -3.017421 7.4415884
2.2576618 -2.5535171 5.0786061
2.1213338 -2.3968031 3.9087491
0.15892658 -0.20332161 4.302238
0.32241616 -0.38330078 4.6282816
3.0900526 -3.5556815 18.17436
2.4913168 -2.8476217 10.343272
2.33692 -2.6608524 7.3862362
2.0467927 -2.3247876 5.1366043
2.7039196 -3.0669014 5.4887829
0.34800231 -0.39070717 0.24373347
0.022406353 -0.043932676 4.1341162
2.3463075 -2.751581 22.98773
3.3170357 -3.8533492 24.467606
2.2372184 -2.560796 8.0704451
2.6248219 -2.9960704 7.3669744
2.2394519 -2.5508087 5.0579414
2.1150703 -2.4066012 3.9125867
0.1582159 -0.20387512 4.302238
0.32107624 -0.38442388 4.6282816
3.0776222 -3.5664461 18.17436
2.4892833 -2.8654201 10.376121
2.3190331 -2.6591494 7.3592291
2.0352323 -2.3279912 5.1280723
0.35299236 -0.3991062 0.24655353
0.022252863 -0.044010624 4.1341162
2.3346803 -2.7573822 22.967974
3.2956264 -3.8556161 24.408863
2.6174915 -3.0088284 7.3757524
2.2305343 -2.5586102 5.0579414
2.098227 -2.4043093 3.8972368
0.15767859 -0.20465554 4.3072295
0.3197324 -0.3855423 4.6282816
3.0749681 -3.5886219 18.232433
2.4792659 -2.8740919 10.376121
2.3111618 -2.668874 7.3637304
2.0288031 -2.3370507 5.132338
0.35792798 -0.40754482 0.24937361
0.0220991 -0.044088032 4.1341162
2.5540254 -3.0379248 25.230154
3.138521 -3.6978571 23.341703
1.6316228 -1.88879 4.641356
2.2179062 -2.5621254 5.0496755
2.0835245 -2.4043519 3.8857243
0.15696326 -0.2052047 4.3072295
0.31838465 -0.38665605 4.6282816
3.0738258 -3.6127365 18.300184
2.4636054 -2.8761752 10.352656
2.0410662 -2.3678236 5.1835294
0.34073895 -0.39071447 0.24232344
0.021945072 -0.044164903 4.1341162
2.5429075 -3.0462248 25.225214
3.1242816 -3.707233 23.331913
1.6359345 -1.9071993 4.6720796
2.2089491 -2.5698519 5.0496755
0.15641969 -0.20598194 4.3122215
0.31669599 -0.38735211 4.6233101
3.0741746 -3.6388075 18.377615
2.4513147 -2.8821282 10.343272
2.0327883 -2.374934 5.1835294
0.021790773 -0.044241238 4.1341162
2.5322587 -3.0550826 25.225214
3.1119754 -3.7188973 23.336809
1.6230557 -1.9056048 4.6545229
2.1981387 -2.5754066 5.0455427
0.15569973 -0.2065267 4.3122215
0.31567755 -0.38886935 4.6282816
3.0671086 -3.6562574 18.411491
2.4367857 -2.8853934 10.3245
2.4280839 -2.8639643 7.8273559
0.021636209 -0.044317033 4.1341162
2.5245414 -3.0675032 25.25485
3.097023 -3.7273879 23.322124
1.5931966 -1.8838277 4.5886869
2.2018707 -2.5980914 5.0744734
0.15497787 -0.20706894 4.3122215
0.31431821 -0.3899689 4.6282816
3.0551319 -3.6679075 18.416332
2.4322429 -2.9004936 10.347964
2.4166701 -2.8707569 7.8228545
0.021481382 -0.044392284 4.1341162
2.5118518 -3.0738897 25.235092
3.0865848 -3.7413175 23.341703
2.1705561 -2.592108 8.0244188
1.5588889 -1.8563632 4.5096836
2.2163417 -2.6337521 5.1282015
0.15425412 -0.20760864 4.3122215
0.31328776 -0.39148018 4.6332531
3.0399065 -3.6756432 18.401812
2.4353533 -2.9248803 10.404278
2.4205956 -2.8958783 7.867867
0.021311665 -0.04442589 4.1291161
2.5001276 -3.0814323 25.225214
3.0741518 -3.7528567 23.3466
3.6042173 -4.3565202 18.122826
2.6612642 -3.1917496 7.6829877
2.1963091 -2.628516 5.103404
0.1535285 -0.20814581 4.3122215
0.31225058 -0.39298898 4.6382241
3.0246644 -3.6833177 18.387295
2.440522 -2.9519839 10.469975
2.3632033 -2.8473542 7.7148256
0.021156458 -0.044500012 4.1291161
2.4878941 -3.0883253 25.210396
3.0636029 -3.7667246 23.366179
3.5851984 -4.3644609 18.103737
2.1474323 -2.6011717 8.0060101
2.6592705 -3.2120891 7.7093225
2.1925106 -2.6426637 5.1158028
0.15297064 -0.20891407 4.3172131
0.31087688 -0.39407653 4.6382241
2.9998748 -3.67924 18.314703
2.4291079 -2.9591513 10.465283
2.3532495 -2.8555858 7.7148256
0.021000996 -0.04457359 4.1291161
2.4761281 -3.095777 25.200518
3.0491567 -3.7758114 23.35639
3.5756023 -4.3838897 18.132368
2.1358626 -2.6056299 7.9968042
1.5363224 -1.8688853 4.5009055
0.15224046 -0.20944676 4.3172131
0.30982774 -0.39557925 4.6431961
2.9743598 -3.6740572 18.237272
2.4187636 -2.9676123 10.465283
2.3281035 -2.8452494 7.6653118
0.020845277 -0.044646624 4.1291161
2.4638574 -3.1025763 25.185701
3.0359581 -3.786432 23.35639
3.5565202 -4.3917036 18.113281
2.1230545 -2.6085236 7.9829965
1.5252465 -1.8686705 4.4877386
0.15167645 -0.21021166 4.3222051
0.30844501 -0.39665836 4.6431961
2.9497054 -3.6697216 18.16468
2.4073048 -2.9746959 10.460591
2.3167849 -2.8516693 7.6608105
0.020689303 -0.044719115 4.1291161
2.4530122 -3.1111579 25.185701
3.1254508 -3.9260612 24.149416
3.5402336 -4.4029284 18.108509
2.11762 -2.6204777 7.9968042
1.5187143 -1.8739831 4.4877386
0.15094174 -0.21073984 4.3222051
0.30738395 -0.39815482 4.6481676
2.9243331 -3.6642759 18.08725
2.3936636 -2.9790449 10.446512
2.30955 -2.8631277 7.6698132
0.020533079 -0.044791065 4.1291161
2.4392638 -3.1160302 25.156065
3.5229805 -4.4129262 18.098965
2.117018 -2.6385202 8.0290222
1.5121636 -1.8792731 4.4877386
0.15020521 -0.21126543 4.3222051
0.30599228 -0.39922538 4.6481676
2.9146469 -3.6784022 18.106607
2.3322015 -2.9119525 7.777842
0.020376604 -0.044862468 4.1291161
3.126251 -3.9838324 24.369701
3.5066276 -4.424027 18.094193
2.1236188 -2.6657588 8.0888538
1.5026048 -1.8807975 4.47896
0.14930129 -0.21155195 4.3172131
0.30459681 -0.40029109 4.6481676
2.9017889 -3.6885536 18.106607
2.3437006 -2.9473386 7.8498616
0.020233503 -0.044974774 4.1341162
2.2347219 -2.8961332 23.254452
3.1160798 -3.9995399 24.399073
3.4911633 -4.4362402 18.094193
2.111877 -2.6700912 8.0796499
2.5929067 -3.2689524 7.7137108
0.14856192 -0.21207181 4.3172131
0.30351865 -0.40177748 4.6531391
2.8919907 -3.7026229 18.125965
2.3320494 -2.9537928 7.8453603
0.020076387 -0.045045126 4.1341162
3.1027234 -4.0111985 24.403969
3.4802523 -4.4542813 18.118053
2.0892718 -2.6605444 8.0290222
2.5740714 -3.2685754 7.6917658
0.14782076 -0.2125891 4.3172131
0.30211434 -0.4028345 4.6531391
2.8913722 -3.7285888 18.203396
2.3002372 -2.9345016 7.7733407
0.019919029 -0.045114931 4.1341162
2.2116268 -2.9079525 23.224815
3.0856018 -4.0179663 24.379492
3.4692569 -4.4722996 18.141912
2.0631557 -2.6462507 7.9645867
2.5360932 -3.2435789 7.6127625
0.14707778 -0.2131038 4.3172131
0.30102432 -0.40431443 4.6581101
2.8982751 -3.7645555 18.329222
2.2819583 -2.932205 7.7463341
0.019761426 -0.045184188 4.1341162
2.2047398 -2.9199958 23.25939
3.0703235 -4.0270934 24.369701
3.4599996 -4.4926605 18.175316
2.0108573 -2.5978184 7.7988958
2.5071328 -3.2297091 7.5600939
0.14633301 -0.21361589 4.3172131
0.29961112 -0.40536276 4.6581101
2.9072518 -3.803611 18.469564
4.1251493 -5.3602781 18.44768
2.2783639 -2.948766 7.7688394
0.019603582 -0.045252893 4.1341162
2.1949997 -2.9282961 23.26433
3.0525601 -4.0329146 24.34033
3.4442964 -4.5047107 18.175316
1.9803498 -2.5769377 7.7160501
2.4753766 -3.2118826 7.4986463
0.14558646 -0.21412539 4.3172131
0.2985093 -0.40683618 4.6630821
2.900795 -3.8227479 18.513119
4.1085081 -5.377387 18.457064
0.019445501 -0.045321047 4.1341162
2.1852283 -2.9365633 23.269268
3.4348683 -4.5250292 18.208721
1.9748975 -2.5884943 7.7298579
2.4568734 -3.2109935 7.4767013
0.14483814 -0.21463227 4.3172131
0.29677391 -0.40744454 4.6581101
2.8927276 -3.8398786 18.546995
4.0834556 -5.3834462 18.428907
0.019274434 -0.045346919 4.1291161
2.1740413 -2.9429233 23.25939
3.4127638 -4.5286469 18.175316
1.9776455 -2.6109462 7.7758832
2.4572392 -3.2348073 7.5118136
0.14408804 -0.21513656 4.3172131
0.29534984 -0.40847799 4.6581101
2.8845761 -3.8569994 18.580872
4.0646386 -5.3976674 18.428907
0.019116025 -0.045413923 4.1291161
2.163296 -2.9498677 23.254452
2.8714011 -3.8772726 23.219322
3.3888879 -4.5297751 18.132368
1.9708675 -2.6209562 7.7850876
2.4978449 -3.3122051 7.6698208
0.14349508 -0.21587925 4.3222051
0.29392219 -0.40950647 4.6581101
2.8703454 -3.8660352 18.576031
4.0426731 -5.4076767 18.414831
0.018957384 -0.045480374 4.1291161
2.1529858 -2.957401 23.254452
2.8650861 -3.8971169 23.278067
3.3819549 -4.5535603 18.180088
1.9546949 -2.6184266 7.757473
2.496315 -3.3343244 7.7005444
0.14274064 -0.21637884 4.3222051
0.29218206 -0.4100956 4.6531391
2.857579 -3.8770432 18.580872
4.01863 -5.4148259 18.391365
2.3514202 -3.1556623 8.2009563
0.018798513 -0.045546267 4.1291161
2.1426497 -2.9648983 23.254452
2.9637048 -4.0609002 24.193474
3.3686969 -4.5689421 18.194405
1.9467063 -2.6268036 7.7620754
2.5032332 -3.3680069 7.7576017
0.14198448 -0.21687576 4.3222051
0.29074878 -0.41111299 4.6531391
2.8418012 -3.8839507 18.566353
3.9966335 -5.4246526 18.377287
2.3403907 -3.163851 8.2009563
0.018627247 -0.045569707 4.1241164
2.1350043 -2.9761479 23.284086
2.9650424 -4.09266 24.320749
3.3562539 -4.5854912 18.213491
2.5270088 -3.4249048 7.8673291
0.14138292 -0.21761274 4.3271961
0.28900602 -0.41168883 4.6481676
2.8341358 -3.9019835 18.605068
3.9674869 -5.4246416 18.33036
2.3331976 -3.1772649 8.2144594
0.018468065 -0.045634452 4.1241164
2.126405 -2.9861138 23.303843
2.9572773 -4.1120782 24.374596
3.3481236 -4.6080475 18.256439
2.5263596 -3.4491622 7.9024415
0.14062244 -0.21810493 4.3271961
0.2875672 -0.41269514 4.6481676
2.820498 -3.9118524 18.605068
3.9475129 -5.4370608 18.325666
2.323375 -3.1871493 8.2189608
0.018308658 -0.045698639 4.1241164
2.1191077 -2.9979601 23.338417
2.9500041 -4.1323204 24.433338
3.3433697 -4.6354456 18.318476
2.5143044 -3.4579599 7.9024415
0.13986026 -0.21859448 4.3271961
0.28612486 -0.41369641 4.6481676
2.7995105 -3.9114521 18.556673
3.9365819 -5.4620075 18.363209
2.3033023 -3.1828945 8.1874523
0.018149029 -0.045762267 4.1241164
2.1086299 -3.0053389 23.338417
2.2468181 -3.1705649 18.705925
3.3271685 -4.6470881 18.318476
2.5022187 -3.4667151 7.9024415
0.13909636 -0.21908134 4.3271961
0.28498039 -0.4151324 4.6531391
2.7734647 -3.9037802 18.474403
3.9205041 -5.4799256 18.377287
2.2870979 -3.1838429 8.1694479
0.017989177 -0.045825344 4.1241164
2.0959065 -3.0094926 23.313721
2.2398374 -3.1842186 18.740191
3.3161154 -4.6659741 18.347109
2.492892 -3.4793224 7.9112201
0.13833079 -0.21956554 4.3271961
0.28352958 -0.41612464 4.6531391
2.7351925 -3.8785114 18.309864
3.9053483 -5.4992061 18.396059
2.2683871 -3.1811717 8.1424398
0.01784054 -0.045929968 4.1291161
2.0840633 -3.014873 23.298904
2.2269604 -3.1895127 18.725504
3.2903428 -4.6641035 18.294617
2.4751799 -3.4801965 7.8936639
0.13756351 -0.22004707 4.3271961
0.28237352 -0.4175536 4.6581101
2.6560454 -3.7943261 17.869476
3.8851345 -5.5113935 18.391365
2.2635574 -3.1979551 8.1649466
0.017680107 -0.045991961 4.1291161
2.0722084 -3.0202072 23.284086
2.2158132 -3.1972668 18.725504
3.2748981 -4.6767836 18.299387
0.13679457 -0.22052592 4.3271961
0.28091425 -0.41853672 4.6581101
2.6219859 -3.7736378 17.729132
3.8609257 -5.5178518 18.367901
2.2573862 -3.2129622 8.182951
0.017519457 -0.046053395 4.1291161
2.0594664 -3.0242109 23.25939
2.2011774 -3.1999488 18.696133
3.2568491 -4.6857347 18.289843
0.13602395 -0.22100207 4.3271961
0.27974671 -0.41995865 4.6630821
2.6137927 -3.7900105 17.763008
3.847548 -5.5398002 18.396059
2.2486477 -3.2243936 8.1919537
0.017358596 -0.046114273 4.1291161
2.0545533 -3.0397506 23.323601
2.190568 -3.2084534 18.701029
3.2311492 -4.6835594 18.237352
0.1354012 -0.2217225 4.3321881
0.2782791 -0.42093259 4.6630821
2.6055169 -3.8063719 17.796885
3.8360217 -5.5645628 18.433599
0.01719752 -0.046174582 4.1291161
2.0391691 -3.0398054 23.269268
2.1810687 -3.2186096 18.715715
3.2215276 -4.7046628 18.275528
0.1346264 -0.22219381 4.3321881
0.27680808 -0.4219014 4.6630821
2.5900955 -3.812325 17.782366
3.8224213 -5.5864644 18.461758
0.01702554 -0.046192028 4.1241164
2.1654608 -3.2525887 24.839952
2.8141544 -4.184351 24.266901
3.9451058 -5.8047857 22.484417
0.13384999 -0.22266237 4.3321881
0.27504319 -0.42241812 4.6581101
2.5774746 -3.8223846 17.787205
3.8125923 -5.6140494 18.508684
0.016864195 -0.046251178 4.1241164
2.154094 -3.260128 24.839952
2.7967048 -4.1899142 24.242426
3.9264884 -5.8209963 22.493961
0.13307194 -0.22312824 4.3321881
0.27356699 -0.42337561 4.6581101
2.5613203 -3.8271801 17.767849
3.8055108 -5.6459265 18.569691
0.016702646 -0.046309762 4.1241164
2.1363106 -3.2578804 24.765865
2.7798131 -4.1962552 24.222843
3.1812191 -4.7517848 18.32802
0.13229226 -0.22359139 4.3321881
0.27208745 -0.42432797 4.6581101
2.5521176 -3.8423798 17.796885
3.7435627 -5.596065 18.363209
0.016540892 -0.046367783 4.1241164
0.41635182 -0.63936502 4.8507757
2.757318 -4.1940212 24.15431
3.1571784 -4.7516704 18.285072
0.13151099 -0.22405182 4.3321881
0.27089041 -0.4257251 4.6630821
2.5421486 -3.8565125 17.821083
3.7135065 -5.5932837 18.311588
0.016378939 -0.046425238 4.1241164
0.4158034 -0.64342546 4.8705325
2.7426612 -4.2036209 24.15431
3.8587437 -5.8518257 22.455788
0.1307281 -0.22450951 4.3321881
0.26940271 -0.42666811 4.6630821
2.5314233 -3.8695705 17.840439
3.67592 -5.5788331 18.222425
0.016216785 -0.046482131 4.1241164
0.41313571 -0.64421874 4.8655934
2.7274179 -4.2123141 24.149416
3.8423803 -5.8715043 22.479647
0.12994361 -0.22496447 4.3321881
0.26819435 -0.42805785 4.6680536
2.5220075 -3.8847094 17.869476
3.6394248 -5.5656328 18.137957
0.016054433 -0.046538454 4.1241164
0.41296899 -0.64893532 4.8902898
2.7154496 -4.2260923 24.173893
3.1161897 -4.7982421 18.337564
0.12915754 -0.22541668 4.3321881
0.26669851 -0.42899141 4.6680536
2.507751 -3.892432 17.864635
3.6152778 -5.5710645 18.114492
0.015891885 -0.04659421 4.1241164
0.40987203 -0.64905864 4.8804107
2.7012289 -4.2364044 24.178789
3.0897183 -4.7940335 18.2803
0.12836991 -0.22586615 4.3321881
0.26519945 -0.42991975 4.6680536
2.5043039 -3.9170477 17.937227
3.5733862 -5.54883 18.001867
0.015729144 -0.0466494 4.1241164
0.40801623 -0.65114397 4.8853502
2.6880577 -4.2483883 24.193474
3.0802033 -4.8161077 18.32325
0.1275807 -0.22631286 4.3321881
0.26369712 -0.43084285 4.6680536
2.5020628 -3.9438102 18.019499
3.5577123 -5.5670862 18.020638
0.015566211 -0.04670402 4.1241164
0.40574083 -0.65256429 4.8853502
2.6742945 -4.2594705 24.203264
3.0745707 -4.8444748 18.390057
0.12678996 -0.22675684 4.3321881
0.26219159 -0.4317607 4.6680536
2.4976556 -3.967412 18.08725
3.5502715 -5.5984159 18.081642
0.01540309 -0.046758074 4.1241164
0.4038682 -0.65463799 4.8902898
2.6604865 -4.2705083 24.213055
3.0632098 -4.8640189 18.42346
0.12599765 -0.22719803 4.3321881
0.26068288 -0.43267331 4.6680536
2.4831257 -3.9750402 18.082411
3.5371413 -5.6209989 18.114492
0.015248843 -0.046854239 4.1291161
0.401986 -0.65670657 4.8952284
2.6428866 -4.2754383 24.188578
3.0462124 -4.8746824 18.42346
0.12520382 -0.22763646 4.3321881
0.25917098 -0.43358061 4.6680536
2.4473829 -3.9484265 17.92271
3.5211544 -5.6391664 18.133263
0.015076284 -0.046864469 4.1241164
0.4000943 -0.65877008 4.9001679
2.6252847 -4.2802973 24.164101
3.0283916 -4.884017 18.418688
4.3022604 -6.9009218 19.217758
0.12440845 -0.22807211 4.3321881
0.25765589 -0.43448263 4.6680536
2.4283178 -3.9483795 17.883993
3.4987226 -5.6470227 18.119186
0.014912604 -0.046916805 4.1241164
0.3985939 -0.66149408 4.9100466
2.6135035 -4.2946544 24.193474
3.0113244 -4.8945584 18.418688
4.2760901 -6.9125748 19.208553
0.12361157 -0.228505 4.3321881
0.25640762 -0.43583909 4.6730251
2.4092832 -3.9482481 17.84528
3.4762781 -5.6547904 18.105106
0.014748744 -0.046968576 4.1241164
0.39668089 -0.66354841 4.9149861
2.9949987 -4.9063144 18.42346
0.12281319 -0.22893509 4.3321881
0.25488472 -0.43673143 4.6730251
2.3876748 -3.9437301 17.787205
3.4592137 -5.6713104 18.119186
0.014584703 -0.047019772 4.1241164
0.39515445 -0.6662659 4.9248643
2.9770808 -4.915462 18.418688
0.12187871 -0.22910699 4.3271961
0.25362539 -0.43808004 4.6779966
2.3713055 -3.9477313 17.767849
3.4492242 -5.6995916 18.170807
0.014420484 -0.047070395 4.1241164
0.39361387 -0.6689809 4.9347429
2.965286 -4.9347801 18.452091
0.12107823 -0.22953103 4.3271961
0.25209466 -0.4389627 4.6779966
2.3587978 -3.9581442 17.777527
3.4399667 -5.7293501 18.227119
0.01425609 -0.047120444 4.1241164
0.39205918 -0.67169321 4.9446211
2.9126613 -4.9403372 27.595657
2.9403994 -4.9322796 18.404371
0.12027629 -0.22995228 4.3271961
0.25082427 -0.44030336 4.6829677
2.3456068 -3.9674356 17.782366
3.4199464 -5.741323 18.227119
0.24187697 -0.39920923 0.20329553
0.014091522 -0.04716992 4.1241164
0.39010125 -0.67373019 4.9495606
2.8969405 -4.9531107 27.610342
2.9132864 -4.9258103 18.342335
0.11947286 -0.23037073 4.3271961
0.24954766 -0.44164056 4.6879396
2.3323789 -3.9766829 17.787205
3.4314902 -5.8067102 18.396059
0.24549024 -0.40838292 0.20564015
0.013926782 -0.047218822 4.1241164
0.38852054 -0.67643565 4.9594388
2.8796329 -4.9631929 27.610342
2.8809674 -4.9102001 18.246897
0.118668 -0.23078635 4.3271961
0.24826474 -0.44297418 4.6929111
2.3191159 -3.9858873 17.792046
3.4373815 -5.8633146 18.536842
0.23972422 -0.40037635 0.18007106
0.24406323 -0.40923735 0.20564015
0.013761873 -0.04726715 4.1241164
0.38654134 -0.67846298 4.9643784
2.8653381 -4.9785094 27.639713
2.875073 -4.9395781 18.318476
4.0852008 -6.9795785 19.1119
0.11786167 -0.23119918 4.3271961
0.24697556 -0.4443042 4.6978827
2.3051884 -3.9939582 17.792046
3.4316418 -5.9006367 18.616617
0.23832519 -0.4012107 0.18007106
0.24263322 -0.41008681 0.20564015
0.013596796 -0.047314901 4.1241164
0.38455275 -0.68048471 4.9693179
2.8479424 -4.988481 27.639713
2.8466177 -4.9301934 18.246897
4.0666981 -7.0039315 19.139515
0.11705392 -0.23160918 4.3271961
0.24568009 -0.44563061 4.7028537
2.291857 -4.0030708 17.796885
3.4075749 -5.906601 18.597847
0.23941715 -0.40627229 0.18100367
0.23381917 -0.39835545 0.20212321
0.013438973 -0.047405072 4.1291161
0.38217509 -0.6818229 4.9693179
2.8310137 -4.9992781 27.644608
2.8279071 -4.9375091 18.237352
0.11624474 -0.23201635 4.3271961
0.24437839 -0.44695345 4.7078257
2.2778697 -4.0110464 17.796885
3.3835077 -5.9124684 18.579077
0.24295574 -0.4155871 0.18286891
0.013273417 -0.047451694 4.1291161
0.37979272 -0.68315279 4.9693179
2.814044 -5.0100169 27.649504
2.806968 -4.9408603 18.213491
0.11556156 -0.23267978 4.3321881
0.24307045 -0.44827259 4.7127972
2.2644718 -4.0200686 17.801723
3.3764784 -5.9482551 18.654161
0.24643216 -0.42493144 0.18473415
0.013107698 -0.047497738 4.1291161
0.37740576 -0.68447435 4.9693179
2.7970343 -5.020699 27.6544
2.7955663 -4.9610324 18.251669
0.11474866 -0.23308174 4.3321881
0.24175628 -0.44958803 4.7177687
2.2541034 -4.0345325 17.830759
3.3836327 -6.0096273 18.809021
0.24249794 -0.42153108 0.18380153
0.012934851 -0.047500126 4.1241164
0.37501422 -0.68578756 4.9693179
2.7804768 -5.0322146 27.66419
2.7847862 -4.9824877 18.294617
0.11393435 -0.23348089 4.3321881
0.24043584 -0.45089972 4.7227397
2.2424433 -4.0467744 17.850119
3.3920822 -6.0741358 18.973269
0.23372138 -0.40957546 0.18100367
0.012768966 -0.04754499 4.1241164
0.37261808 -0.68709242 4.9693179
2.7633832 -5.0427823 27.669085
3.4071085 -6.1462846 22.51305
0.11324335 -0.23413754 4.3371797
0.23886044 -0.45173624 4.7227397
2.2313304 -4.0600853 17.874315
3.3675146 -6.0799012 18.954498
0.012602926 -0.047589272 4.1241164
0.3705852 -0.68907344 4.974257
2.746736 -5.0541868 27.678875
3.3827569 -6.1529074 22.493961
0.11242536 -0.2345314 4.3371797
0.23728214 -0.45256728 4.7227397
2.2195508 -4.0722642 17.893673
3.3462713 -6.091619 18.954498
0.012436732 -0.047632974 4.1241164
0.36817765 -0.69036281 4.974257
2.7295601 -5.0646405 27.683771
3.3605442 -6.1633677 22.489191
0.11160602 -0.23492241 4.3371797
0.23570094 -0.45339277 4.7227397
2.20592 -4.0810928 17.898514
3.2944424 -6.0471926 18.780865
0.01226402 -0.047632933 4.1191168
0.36540258 -0.69095671 4.9693179
2.7123444 -5.0750351 27.688665
3.3304896 -6.1593037 22.431925
0.11066334 -0.23504889 4.3321881
0.23411687 -0.45421278 4.7227397
2.1916611 -4.0887685 17.898514
3.2864375 -6.0829477 18.855949
0.012097674 -0.047675453 4.1191168
0.36298847 -0.69222802 4.9693179
2.6941359 -5.0835724 27.683771
2.6487348 -4.939559 17.965349
0.1098422 -0.23543374 4.3321881
0.23252994 -0.45502722 4.7227397
2.1773751 -4.0963936 17.898514
3.2684438 -6.1004672 18.874722
0.011931183 -0.047717389 4.1191168
0.36021173 -0.69280136 4.9643784
2.6777954 -5.0956502 27.698456
2.6532004 -4.9896321 18.113281
4.0971279 -7.6601329 20.524876
0.1090197 -0.23581572 4.3321881
0.23069969 -0.45536044 4.7177687
2.1583743 -4.0950727 17.859797
3.2503676 -6.1179347 18.893492
0.011764545 -0.047758747 4.1191168
0.35743544 -0.69336373 4.9594388
2.6646967 -5.113996 27.747408
2.6482985 -5.0226302 18.199177
4.070364 -7.6743875 20.524876
0.10819589 -0.23619485 4.3321881
0.22910878 -0.45616296 4.7177687
2.1394095 -4.0936699 17.821083
3.2362309 -6.1429839 18.935726
0.011597765 -0.047799524 4.1191168
0.35501298 -0.69460714 4.9594388
2.6468291 -5.1232667 27.747408
2.6355908 -5.0411038 18.23258
4.0408225 -7.6833625 20.511068
0.10737076 -0.23657107 4.3321881
0.22751509 -0.45695993 4.7177687
2.125107 -4.1011133 17.821083
3.2315464 -6.1863647 19.034275
0.011430842 -0.047839716 4.1191168
0.35223526 -0.695149 4.9545002
1.7586365 -3.4332359 18.568857
2.6097348 -5.0343699 18.175316
4.0085583 -7.6870265 20.483452
0.10654432 -0.23694442 4.3321881
0.22591861 -0.45775133 4.7177687
2.1102042 -4.107388 17.816242
3.2004087 -6.1792183 18.977961
0.011269243 -0.047922611 4.1241164
0.34945807 -0.69567978 4.9495606
1.7461807 -3.4384458 18.563963
2.6153443 -5.0885887 18.337564
3.9799063 -7.6975012 20.474247
0.10571657 -0.23731489 4.3321881
0.2245532 -0.45901611 4.7227397
2.0969946 -4.1169691 17.82592
3.1772432 -6.1872821 18.968575
0.011101892 -0.04796166 4.1241164
0.34702757 -0.69689542 4.9495606
1.7346253 -3.4454296 18.568857
2.6158633 -5.1335979 18.466408
3.9503396 -7.7061319 20.46044
0.10488755 -0.23768246 4.3321881
0.22294956 -0.45979717 4.7227397
2.0848775 -4.1287522 17.84528
3.1258762 -6.1398973 18.790251
0.010939566 -0.048043445 4.1291161
0.34424919 -0.6974057 4.9446211
1.7225879 -3.4514635 18.568857
2.5999467 -5.1466947 18.480724
3.9216459 -7.7163911 20.451235
0.10405724 -0.23804714 4.3321881
0.22134322 -0.4605726 4.7227397
2.0721402 -4.1393762 17.859797
3.1067574 -6.1553926 18.804329
0.010771796 -0.048081342 4.1291161
0.34181267 -0.69860309 4.9446211
1.711884 -3.4601936 18.583544
2.5839708 -5.1597428 18.495039
3.8929284 -7.7265429 20.44203
0.10333935 -0.23867428 4.3371797
0.21973418 -0.46134242 4.7227397
2.0587962 -4.1488366 17.869476
3.0898852 -6.1754594 18.832487
0.010603895 -0.048118647 4.1291161
0.33937201 -0.69979191 4.9446211
1.7002435 -3.4670622 18.588438
2.5745723 -5.1861124 18.557076
3.8624423 -7.7330937 20.423618
0.10250559 -0.23903355 4.3371797
0.21834959 -0.46258888 4.7277117
2.0454109 -4.1582537 17.879154
3.5145614 -7.0859637 21.563677
0.010435865 -0.048155367 4.1291161
0.33692724 -0.70097232 4.9446211
1.6885761 -3.4738922 18.593334
2.5564537 -5.1950679 18.557076
3.8345587 -7.7447786 20.419018
0.10167059 -0.23938993 4.3371797
0.21673352 -0.46334824 4.7277117
2.031985 -4.1676278 17.888834
3.4532604 -7.0238543 21.338423
0.010267708 -0.048191503 4.1291161
0.33447832 -0.70214415 4.9446211
1.6764396 -3.4797652 18.593334
2.5422304 -5.2120099 18.585709
3.8195508 -7.7826695 20.483452
0.10072344 -0.2394768 4.3321881
0.21533859 -0.46458581 4.7326832
2.0179718 -4.1758275 17.893673
3.0764518 -6.3129654 19.151594
0.010099426 -0.048227049 4.1291161
0.33235681 -0.70401019 4.9495606
1.663844 -3.4846766 18.588438
2.5259705 -5.2248836 18.600023
3.8000522 -7.8117666 20.524876
0.099886894 -0.23982693 4.3321881
0.21393763 -0.46581924 4.7376547
2.0044689 -4.185113 17.903351
3.0341325 -6.2817097 19.024889
4.1347561 -8.5187597 19.643044
0.009989976 -0.048249841 4.1291161
0.3307586 -0.70476246 4.9495606
1.6559333 -3.4884429 18.588438
2.5137281 -5.2274718 18.590479
3.7930431 -7.8390541 20.575502
0.099468172 -0.2400009 4.3321881
0.21320565 -0.46615472 4.7376547
1.9989748 -4.1905255 17.913031
3.019773 -6.2771373 18.996733
4.1219096 -8.5225639 19.63854
0.0098467721 -0.048279271 4.1291161
0.32899383 -0.70644522 4.9545002
1.6434063 -3.488735 18.563963
2.4960079 -5.2326488 18.580935
3.7793868 -7.8738265 20.635334
0.098671749 -0.24032944 4.3321881
0.21179678 -0.46738178 4.7426257
1.985605 -4.1982675 17.91787
4.0911946 -8.5349379 19.634041
0.0096781859 -0.048313349 4.1291161
0.32652587 -0.70758933 4.9545002
1.6338023 -3.4999864 18.593334
2.4783654 -5.2426791 18.585709
3.75104 -7.8852072 20.630733
0.097790234 -0.24068947 4.3321881
0.21008231 -0.46815491 4.7426257
1.9758663 -4.2195215 17.975945
2.9084535 -6.1581483 18.574383
4.0527916 -8.5387831 19.607033
0.0094212918 -0.048319891 4.1241164
0.32301414 -0.71005297 4.9594388
1.6148416 -3.508775 18.593334
2.4490461 -5.2564392 18.585709
3.703625 -7.8989592 20.612322
0.096424133 -0.24155088 4.3371797
0.20713668 -0.46946564 4.7426257
1.9529963 -4.2398443 18.009819
2.8653409 -6.1669116 18.546227
3.9957254 -8.5608311 19.59803
0.0093116332 -0.048341144 4.1241164
0.32184631 -0.71143597 4.9643784
2.4486606 -5.279664 18.652515
3.689007 -7.9036407 20.607721
0.096213296 -0.24163494 4.3371797
0.20689085 -0.46957403 4.7426257
1.9576041 -4.2557116 18.072731
2.8795426 -6.2059803 18.658854
3.99055 -8.5536385 19.580027
0.0090837283 -0.048384484 4.1241164
0.31836575 -0.71300036 4.9643784
2.4262543 -5.3014908 18.685919
3.6481388 -7.9204369 20.603117
0.094881885 -0.24247086 4.3421717
0.20401852 -0.47082907 4.7426257
1.933126 -4.2710266 18.08725
2.8430126 -6.226594 18.668238
3.932507 -8.5732927 19.566521
0.0089789713 -0.048359904 4.1191168
0.31731144 -0.71432042 4.9693179
2.4016249 -5.343318 28.187979
2.4204013 -5.315649 18.719322
3.6312976 -7.9238734 20.593912
0.094585583 -0.2425866 4.3421717
0.20344315 -0.47107801 4.7426257
1.9196367 -4.2550526 18.009819
3.9189994 -8.5675077 19.544016
0.0088269999 -0.048387878 4.1191168
0.31506577 -0.71531373 4.9693179
2.4116755 -5.3409123 18.781359
3.6055782 -7.9334641 20.58931
0.093823008 -0.24288255 4.3421717
0.20175283 -0.47122464 4.7376547
1.9098525 -4.269094 18.043695
2.7611573 -6.1178255 18.306894
3.893863 -8.5837421 19.553019
0.0086549288 -0.048374869 4.1141167
0.31256694 -0.71640921 4.9693179
2.3653116 -5.3572659 28.178188
2.3930175 -5.3492985 18.781359
3.5770614 -7.9442205 20.584709
4.230618 -9.3608599 18.892694
0.092830166 -0.24295472 4.3371797
0.20002437 -0.47196093 4.7376547
1.9048827 -4.3002 18.145323
2.7415321 -6.1342068 18.325666
3.8588076 -8.5900135 19.535013
0.0084606707 -0.048409224 4.1141167
0.30956334 -0.71771222 4.9693179
2.3742123 -5.367466 18.80999
3.5437534 -7.9591341 20.584709
4.19137 -9.3784981 18.892694
0.091769196 -0.24335746 4.3371797
0.19775769 -0.47233737 4.7326832
1.9213836 -4.3890748 18.484083
2.7077687 -6.1303253 18.27874
3.831007 -8.6286554 19.584526
0.0082297223 -0.04840501 4.109117
0.30617777 -0.719163 4.9693179
2.346503 -5.3731227 18.790903
3.5054214 -7.9739566 20.580105
4.1242261 -9.3506613 18.796137
0.090536289 -0.24381882 4.3371797
0.19516149 -0.4728393 4.7277117
1.915086 -4.4356723 18.638945
3.7962503 -8.6725264 19.63854
0.0080607077 -0.048433445 4.109117
0.30379125 -0.72017437 4.9693179
2.3268936 -5.3767643 18.776587
3.4797399 -7.9873285 20.584709
4.0900311 -9.3525991 18.774191
0.08985506 -0.24407069 4.3371797
0.19363873 -0.47288898 4.7227397
1.9061569 -4.449091 18.672821
2.6143417 -6.0468597 17.969017
3.7830775 -8.7043982 19.688055
0.0078915935 -0.048461284 4.109117
0.30127552 -0.72123039 4.9693179
2.2969384 -5.3587861 18.685919
3.4518375 -7.9994264 20.584709
4.0554557 -9.3624239 18.765413
0.08900255 -0.24438286 4.3371797
0.191787 -0.47306788 4.7177687
1.8866874 -4.4464602 18.634104
2.5911803 -6.0511894 17.954937
3.7647207 -8.7455435 19.75107
0.00772466 -0.048532106 4.1141167
0.29875612 -0.72227764 4.9693179
1.9084884 -4.5573463 23.777378
2.2583885 -5.3200545 18.523672
3.4238935 -8.0114269 20.584709
4.0170851 -9.3633165 18.739079
0.088148959 -0.24469206 4.3371797
0.1899364 -0.47323957 4.7127972
1.8623908 -4.4321599 18.546995
2.5713892 -6.063375 17.964323
3.7367315 -8.7646399 19.764576
0.0075552044 -0.048558775 4.1141167
0.29623309 -0.72331613 4.9693179
1.8910087 -4.5602179 23.757799
2.2345982 -5.3155203 18.480724
3.3905771 -8.0107355 20.55249
3.9815667 -9.3706694 18.725912
0.087390125 -0.24527059 4.3421717
0.18808691 -0.47340414 4.7078257
1.8362857 -4.4131021 18.440529
2.5495408 -6.0707231 17.959631
3.7018805 -8.767602 19.742067
0.0073856572 -0.048584852 4.1141167
0.29370645 -0.72434574 4.9693179
1.8797195 -4.578094 23.816542
3.3603282 -8.0171165 20.538683
3.9451172 -9.3756809 18.708355
0.086533442 -0.24557413 4.3421717
0.1862386 -0.47356156 4.7028537
1.8261367 -4.4322696 18.493763
2.5203829 -6.0604649 17.903318
3.6704137 -8.7784624 19.737568
0.0072178384 -0.048653934 4.1191168
0.29146543 -0.72608781 4.974257
1.8583601 -4.5714226 23.748009
2.2247381 -5.3972344 18.709778
3.3308249 -8.0251884 20.529476
3.9105237 -9.3849726 18.699577
0.085675701 -0.24587469 4.3421717
0.1843915 -0.47371188 4.6978827
1.8135024 -4.4456 18.522797
2.4932992 -6.0548644 17.861084
3.6389155 -8.7892094 19.733065
0.0070479605 -0.048678834 4.1191168
0.28892913 -0.72710079 4.974257
1.8442919 -4.5826039 23.772484
2.2109609 -5.4174061 18.752726
2.8587234 -6.9561663 17.777168
3.8768263 -9.3963518 18.695187
0.08481691 -0.24617226 4.3421717
0.18254562 -0.47385508 4.6929111
1.7970319 -4.4495716 18.513119
2.4675884 -6.0523448 17.828234
3.607388 -8.7998438 19.728565
4.1717453 -10.141306 18.006927
11.409461 -27.504025 26.601831
0.0068795122 -0.048746742 4.1241164
0.2866734 -0.72882795 4.9791961
1.8279544 -4.5858569 23.757799
2.1929839 -5.4247079 18.752726
2.8479097 -6.9922533 17.846207
3.8436625 -9.3996181 18.677631
0.084172152 -0.24639346 4.3421717
0.18130444 -0.47433135 4.6929111
1.7866222 -4.4551167 18.51796
2.4573252 -6.0695534 17.861084
3.5857704 -8.8039742 19.719563
4.147738 -10.148331 18.002661
11.320356 -27.492369 26.561924
0.0067944224 -0.048758674 4.1241164
0.28568381 -0.73005098 4.9841352
1.8199477 -4.5890408 23.757799
2.202451 -5.4756136 18.914974
2.834234 -6.9935923 17.837002
3.8416927 -9.4418058 18.747856
0.083741985 -0.24654 4.3421717
0.18047631 -0.47464705 4.6929111
1.7765149 -4.4523907 18.493763
2.4486625 -6.0786352 17.875162
3.5687637 -8.8061838 19.71056
4.132967 -10.162803 18.015459
7.9308519 -19.327682 20.609882
11.377272 -27.671751 24.207033
11.225641 -27.398067 26.452183
0.0066241813 -0.048782095 4.1241164
0.28313375 -0.7310437 4.9841352
1.8031158 -4.5956802 23.757799
2.181263 -5.4808755 18.90543
3.8170331 -9.4853706 18.804913
0.082665451 -0.24690305 4.3421717
0.17840356 -0.47543001 4.6929111
1.7585948 -4.4662542 18.51796
2.4223285 -6.0928912 17.884546
3.52561 -8.8188601 19.701557
4.0801749 -10.170064 17.994129
7.8848133 -19.408112 20.665956
11.198027 -27.522179 24.040693
11.061172 -27.336033 26.345766
10.376226 -25.540752 3.9372139
0.0063771894 -0.048814997 4.1241164
0.27957869 -0.73324233 4.9890747
1.7786615 -4.6041088 23.752903
2.1504879 -5.4898171 18.895885
3.1773765 -8.0535765 20.455837
3.7806518 -9.5437384 18.879528
0.081198856 -0.24738924 4.3421717
0.17557918 -0.47648031 4.6929111
1.7338747 -4.4813004 18.537317
2.3957348 -6.1349015 17.964323
3.469286 -8.8341541 19.688055
4.0160613 -10.189945 17.985598
7.7520156 -19.361691 20.574839
10.834517 -27.225828 26.179491
10.246739 -25.683634 3.9489553
0.0062323245 -0.048833705 4.1241164
0.27753001 -0.73402017 4.9890747
1.7657974 -4.6090574 23.752903
2.1301601 -5.480124 18.843395
3.1527202 -8.0527706 20.432825
3.7660863 -9.5752344 18.923418
0.080723755 -0.24754468 4.3421717
0.17466407 -0.47681651 4.6929111
1.7283081 -4.4901853 18.561514
2.8137105 -7.2388358 21.174175
3.4538198 -8.835537 19.679052
3.9962401 -10.186529 17.968533
7.6590099 -19.295111 20.480215
10.578406 -26.609293 23.171341
10.760246 -27.191031 26.126286
10.201727 -25.674908 3.945502
0.0060269623 -0.048815757 4.1191168
0.2743246 -0.73522419 4.9890747
1.7453099 -4.615766 23.748009
2.1008811 -5.4754295 18.795675
3.1147368 -8.0591612 20.414413
3.7147985 -9.5721302 18.883917
0.079556338 -0.24792233 4.3421717
0.17223461 -0.47713274 4.6879396
1.7076817 -4.5021033 18.576031
2.7758014 -7.2497616 21.164789
3.4074905 -8.8488426 19.67005
3.94087 -10.196896 17.951471
7.0750117 -18.230894 21.277918
7.4961042 -19.117855 20.259428
10.417056 -26.526567 23.061497
10.597386 -27.166763 26.053123
10.060812 -25.698544 3.9413579
0.0058991425 -0.04883137 4.1191168
0.27252731 -0.73589224 4.9890747
1.7336683 -4.6190634 23.743113
2.0901523 -5.4875212 18.819534
3.0957432 -8.0643845 20.409813
3.6939318 -9.5827703 18.888308
4.2160807 -10.903371 17.241875
0.078993596 -0.24779922 4.3371797
0.17113866 -0.4769606 4.6829677
1.6998214 -4.5050769 18.576031
2.7631812 -7.2508879 21.155405
3.3920283 -8.8501177 19.661047
3.9228816 -10.192653 17.934406
7.0825462 -18.326134 21.377148
7.4563742 -19.164003 20.287466
10.316483 -26.473961 22.992449
10.521587 -27.11212 25.983288
10.008732 -25.671045 3.9351418
0.0056860205 -0.048856642 4.1191168
0.26918513 -0.73712134 4.9890747
1.7119831 -4.6249728 23.73332
2.0636544 -5.4927578 18.805218
3.05494 -8.0715733 20.391401
3.6461811 -9.5933552 18.875141
4.1606431 -10.912601 17.225344
0.077695034 -0.24820943 4.3371797
0.16846201 -0.47734737 4.6779966
1.6692994 -4.4977102 18.50828
2.7196696 -7.2544208 21.122555
3.3425593 -8.8642683 19.652046
3.8658943 -10.214402 17.934406
6.997344 -18.420498 21.439625
7.3752418 -19.203012 20.294474
10.221832 -26.573217 23.039526
10.522499 -27.28385 5.6433601
10.37149 -27.145912 25.963337
10.323502 -26.992065 21.126095
9.8483047 -25.695894 3.9303069
0.0055239741 -0.048875231 4.1191168
0.2666041 -0.73723263 4.9841352
1.6984962 -4.6331968 23.748009
2.0484707 -5.5048099 18.824306
3.0268245 -8.0738144 20.372992
3.6151807 -9.6025209 18.87075
4.1223631 -10.915088 17.208811
0.077001601 -0.24842542 4.3371797
0.16695277 -0.47731262 4.6730251
1.6523927 -4.4905577 18.459887
2.6447268 -7.1110935 20.686127
3.3178158 -8.8689098 19.643044
3.845557 -10.241579 17.964268
7.3165922 -19.240698 20.308493
10.171061 -26.705177 23.124264
12.02704 -31.561712 22.228867
10.439746 -27.31036 5.642427
9.9683466 -26.077185 2.5992539
10.236618 -26.990553 21.102549
9.7714014 -25.682856 3.9247816
0.0053874678 -0.048890468 4.1191168
0.26454434 -0.73797423 4.9841352
1.6827691 -4.6302652 23.708845
2.0341237 -5.51331 18.833851
3.0022717 -8.0725546 20.349979
3.5883529 -9.6074648 18.861973
4.0927858 -10.923207 17.204678
0.076478094 -0.24888912 4.3421717
0.16561162 -0.47721538 4.6680536
1.6422774 -4.496943 18.469564
2.517395 -6.8233337 19.832045
3.2938619 -8.8708677 19.629538
