# .PCD v0.7 - Point Cloud Data file format
VERSION 0.7
FIELDS x y z
SIZE 4 4 4
TYPE F F F
COUNT 1 1 1
WIDTH 1457
HEIGHT 1
VIEWPOINT 0 0 0 1 0 0 0
POINTS 1457
DATA ascii
-0.79653406 0.67812634 0.39742702
-0.77073318 0.65570319 0.2835919
-0.77361602 0.65815914 0.18413289
-0.82237399 0.70405889 1.0453631
-0.81281644 0.69539434 0.86243486
-0.80400527 0.68761939 0.70729923
-0.79104906 0.67583138 0.56842989
-0.78681612 0.67198408 0.44926795
-0.76901197 0.65655249 0.33459508
-0.76820207 0.65586442 0.23309669
-0.76742029 0.65497214 0.13437465
-0.93549705 0.83164185 7.9575691
-1.1098365 0.97746921 7.1336069
-1.0685533 0.93196374 4.5799346
-0.96573728 0.83817655 3.0721033
-0.89848942 0.77763486 2.2449188
-0.86514461 0.74721152 1.7515824
-0.84597945 0.72989738 1.4143715
-0.6982097 0.6342963 8.7546301
-1.1781757 1.0351807 6.0757985
-1.0082846 0.88003534 3.6936216
-0.92780906 0.80669028 2.6059475
-0.87801707 0.76153696 1.9712811
-0.85160089 0.73759806 1.5665889
-0.83421993 0.72154045 1.2739978
-0.83054268 0.71406615 1.1561475
-0.81432265 0.6993919 0.94793022
-0.80431199 0.69055641 0.77963656
-0.7978819 0.68456191 0.63686919
-0.79589987 0.6826269 0.51195633
-0.79416209 0.68090266 0.39742702
-0.76843971 0.65838957 0.2835919
-0.77131391 0.66085559 0.18413289
-0.81991136 0.70692521 1.0453631
-0.81038404 0.69822735 0.86243486
-0.80160016 0.6904217 0.70729923
-0.79212546 0.68154866 0.57052791
-0.78446567 0.67472649 0.44926795
-0.770401 0.66240185 0.33576739
-0.765908 0.65854198 0.23309669
-0.76891804 0.66090351 0.13457619
-0.92969447 0.83231026 7.9328728
-1.1071792 0.98201305 7.1385016
-1.0697793 0.93962878 4.5990224
-0.9657473 0.84411412 3.0813081
-0.89757478 0.78234017 2.2493079
-0.8646543 0.75207382 1.7557154
-0.84584576 0.73494834 1.418209
-0.69559824 0.63636959 8.7496586
-1.1802027 1.0442853 6.104835
-1.0090947 0.88696772 3.7077
-0.92826295 0.81279242 2.6149497
-0.87731749 0.76631296 1.975547
-0.85129166 0.74254704 1.5705789
-0.83425242 0.72667485 1.277673
-0.83074105 0.71929544 1.1596521
-0.81482029 0.70477664 0.95106864
-0.80505955 0.69609475 0.78237802
-0.79548752 0.68734288 0.63686919
-0.79351223 0.68540096 0.51195633
-0.79541117 0.68680573 0.39883706
-0.76613683 0.66106796 0.2835919
-0.76900238 0.66354394 0.18413289
-0.8202579 0.71223104 1.0486885
-0.81099474 0.70370102 0.86537802
-0.8024416 0.69604033 0.70983243
-0.79317141 0.68728167 0.57262594
-0.78567487 0.68055242 0.45091146
-0.76808411 0.66508704 0.33576739
-0.76734817 0.66445315 0.23378737
-0.76660633 0.66358352 0.13457619
-0.92447567 0.83346879 7.9131155
-1.1037446 0.98587191 7.1385016
-1.0709647 0.94731367 4.6181107
-0.96572763 0.85006195 3.0905132
-0.89843804 0.78862858 2.258086
-0.86625713 0.7587961 1.7639813
-0.84568727 0.74000728 1.4220465
-0.69258887 0.63807112 8.7397146
-1.1821804 1.0534166 6.1338716
-1.0098686 0.89391649 3.7217784
-0.92868555 0.81890756 2.6239522
-0.87659538 0.77109337 1.979813
-0.85095829 0.7475028 1.574569
-0.83425921 0.7318182 1.2813481
-0.82822514 0.72219086 1.1596521
-0.81529003 0.71017325 0.95420712
-0.80577815 0.70164669 0.78511947
-0.79642498 0.69302332 0.63918799
-0.79461265 0.69120932 0.51382935
-0.79300892 0.68957806 0.39883706
-0.76753241 0.6669603 0.2845245
-0.77044046 0.66949075 0.18457997
-0.82057738 0.71754783 1.052014
-0.8115769 0.70918733 0.86832118
-0.8000071 0.69883716 0.70983243
-0.79418713 0.6930303 0.57472402
-0.78329456 0.68329078 0.45091146
-0.76942116 0.6709587 0.33693972
-0.76502407 0.66712761 0.23378737
-0.76428539 0.66625541 0.13457619
-0.9186849 0.83407855 7.8884192
-1.0995396 0.98903763 7.1336069
-1.070995 0.95402527 4.6324267
-0.96567816 0.85601991 3.0997183
-0.89926845 0.79493266 2.2668641
-0.8657133 0.76367688 1.7681142
-0.84550375 0.74507403 1.425884
-0.69035733 0.64048475 8.7397146
-1.1841087 1.0625745 6.1629081
-1.0106062 0.90088141 3.7358565
-0.92907667 0.82503551 2.6329546
-0.87585044 0.77587801 1.9840788
-0.85060066 0.75246543 1.578559
-0.83424032 0.73697054 1.2850233
-0.82837886 0.7274307 1.1631566
-0.81573206 0.71558172 0.9573456
-0.8033241 0.70445514 0.78511947
-0.79400098 0.69579917 0.63918799
-0.79219496 0.69397885 0.51382935
-0.79420584 0.69550234 0.4002471
-0.7651996 0.66963542 0.2845245
-0.76809883 0.672176 0.18457997
-0.81806767 0.72040784 1.052014
-0.81213081 0.71468633 0.87126434
-0.80079943 0.70447284 0.71236569
-0.79176313 0.69579828 0.57472402
-0.78445232 0.68913746 0.452555
-0.76707441 0.67364037 0.33693972
-0.7664116 0.67306167 0.23447806
-0.76570946 0.67221522 0.13477771
-0.91118127 0.83308476 7.8489051
-1.0960807 0.99286968 7.1336069
-1.0721024 0.96174544 4.6515145
-0.96705627 0.86328912 3.1135259
-0.90006554 0.80125201 2.2756422
-0.86514598 0.76856321 1.7722472
-0.84529495 0.75014848 1.4297215
-0.68772811 0.64252663 8.7347431
-1.1850549 1.0709158 6.1871057
-1.0113076 0.90786231 3.7499349
-0.92943633 0.83117616 2.641957
-0.87508291 0.78066701 1.9883448
-0.85021871 0.75743443 1.5825491
-0.83419555 0.74213153 1.2886984
-0.82850599 0.7326805 1.1666611
-0.81322926 0.7184248 0.9573456
-0.80399424 0.71002293 0.78786093
-0.79488868 0.70149773 0.64150673
-0.79324412 0.69980687 0.51570243
-0.79177332 0.69827044 0.4002471
-0.76654279 0.67555022 0.28545713
-0.76948392 0.67814571 0.18502705
-0.81834143 0.7257365 1.0553395
-0.8126561 0.72019786 0.8742075
-0.79833549 0.70726389 0.71236569
-0.79272813 0.70156568 0.57682204
-0.78204197 0.69187158 0.452555
-0.7683593 0.67953396 0.33811203
-0.76776695 0.67901355 0.23516873
-0.76335835 0.67488396 0.13477771
-0.9122681 0.83994538 7.8834796
-1.0926082 0.99668968 7.1336069
-1.0720614 0.96848416 4.6658306
-0.96694249 0.86927199 3.122731
-0.89904642 0.80598778 2.2800314
-0.86455512 0.77345484 1.7763801
-0.84506112 0.75523055 1.4335591
-0.68548107 0.64492333 8.7347431
-1.1868868 1.0801225 6.2161417
-1.0119724 0.91485912 3.7640131
-0.93138194 0.8387863 2.6554608
-0.87429243 0.78545982 1.9926107
-0.84981245 0.76241004 1.5865391
-0.83159995 0.74503887 1.2886984
-0.82860655 0.73794001 1.1701657
-0.8136245 0.72384632 0.96048403
-0.80463541 0.71560401 0.79060239
-0.79243517 0.70426816 0.64150673
-0.79079652 0.70257157 0.51570243
-0.78933108 0.70103002 0.4002471
-0.76418 0.67822188 0.28545713
-0.76711208 0.68082762 0.18502705
-0.8185879 0.73107588 1.058665
-0.81315279 0.7257216 0.87715065
-0.7990784 0.71291625 0.71489882
-0.79027444 0.7043286 0.57682204
-0.78314793 0.69773853 0.45419851
-0.76598257 0.68221194 0.33811203
-0.76909006 0.68498307 0.23585941
-0.76099789 0.67754447 0.13477771
-0.90990025 0.84365314 7.8884192
-1.0891224 1.0004976 7.1336069
-1.0719864 0.97523427 4.6801462
-0.96824676 0.87657583 3.1365385
-0.8997826 0.8123312 2.2888095
-0.86394054 0.77835166 1.780513
-0.84241974 0.75817573 1.4335591
-0.68322569 0.64731216 8.7347431
-1.1877421 1.0885056 6.2403388
-1.0126005 0.92187148 3.7780917
-0.93167323 0.84495741 2.6644633
-0.87541306 0.79200655 2.0011425
-0.84938169 0.76739192 1.5905291
-0.83151108 0.75020826 1.2923737
-0.8286804 0.74320906 1.1736702
-0.81399173 0.7292794 0.96362251
-0.80213255 0.71840829 0.79060239
-0.79327279 0.7099843 0.64382553
-0.79179418 0.70841891 0.51757544
-0.79045475 0.70697904 0.40165716
-0.76547045 0.68415874 0.28638974
-0.76844388 0.68681979 0.18547413
-0.81880707 0.73642576 1.0619905
-0.81061453 0.72855568 0.87715065
-0.79979163 0.71858233 0.71743202
-0.78781104 0.70708287 0.57682204
-0.78422236 0.70362157 0.45584202
-0.76721495 0.68812698 0.33928433
-0.76669437 0.6876635 0.23585941
-0.76234788 0.68353188 0.13497925
-0.90808529 0.84788483 7.8982973
-1.0856234 1.0042932 7.1336069
-1.0729778 0.98300415 4.6992345
-0.96951187 0.88389933 3.150346
-0.89871353 0.81707829 2.2931986
-0.86330223 0.78325355 1.7846459
-0.84214288 0.7632643 1.4373965
-0.68134749 0.65006125 8.7397146
-1.189477 1.0977606 6.2693753
-1.0131922 0.92889941 3.7921698
-0.93353999 0.85260898 2.6779668
-0.87457091 0.79681414 2.0054085
-0.84892654 0.77238011 1.5945191
-0.8313964 0.75538605 1.2960488
-0.8287276 0.74848765 1.1771748
-0.81433088 0.73472381 0.96676093
-0.8027249 0.72400457 0.79334384
-0.79408014 0.71571487 0.64614433
-0.79276049 0.71428162 0.51944846
-0.78798217 0.70973396 0.40165716
-0.7667287 0.69011289 0.28732237
-0.76604176 0.68949801 0.18547413
-0.81899875 0.74178606 1.065316
-0.81106311 0.73409319 0.88009381
-0.80047488 0.72426206 0.71996522
-0.78870505 0.71287191 0.57892013
-0.78176147 0.70635474 0.45584202
-0.76841521 0.69405884 0.34045666
-0.76796418 0.69365495 0.23655009
-0.75995725 0.68618882 0.13497925
-0.90512013 0.85104948 7.8982973
-1.0828559 1.0087707 7.1385016
-1.073928 0.99079269 4.7183223
-0.9692986 0.88992089 3.1595511
-0.89762229 0.82182783 2.2975879
-0.86264032 0.78816056 1.788779
-0.8418408 0.7683602 1.441234
-0.67907423 0.65243566 8.7397146
-1.190241 1.106185 6.2935724
-1.0137471 0.93594253 3.8062482
-0.93376255 0.85881007 2.6869693
-0.87562746 0.80338871 2.0139403
-0.84844679 0.77737445 1.5985092
-0.82875454 0.75828356 1.2960488
-0.82874787 0.75377548 1.1806793
-0.81464195 0.74017942 0.96989942
-0.80019277 0.72680211 0.79334384
-0.79485703 0.72145969 0.64846313
-0.79026234 0.71704453 0.51944846
-0.78905308 0.71570307 0.4030672
-0.76795471 0.69608408 0.28825498
-0.76732004 0.69551229 0.18592121
-0.81916291 0.74715656 1.0686415
-0.8084957 0.73691988 0.88009381
-0.80112827 0.72995532 0.72249836
-0.78621185 0.71562064 0.57892013
-0.78278375 0.71225739 0.45748553
-0.76598781 0.69673687 0.34045666
-0.76920146 0.69966358 0.23724076
-0.76125371 0.6921984 0.13518077
-0.89988762 0.8520664 7.8785405
-1.0793281 1.0125445 7.1385016
-1.0748367 0.99859977 4.7374101
-0.9704895 0.89727819 3.1733589
-0.89650881 0.82657975 2.3019767
-0.86195469 0.79307246 1.792912
-0.84151334 0.77346319 1.4450716
-0.67717564 0.65517294 8.7446871
-1.1918783 1.115487 6.3226094
-1.0142649 0.94300091 3.8203266
-0.93555015 0.86650246 2.7004728
-0.87473315 0.80821025 2.0182061
-0.84794259 0.7823748 1.6024991
-0.8285957 0.76346922 1.299724
-0.82611161 0.7566638 1.1806793
-0.81205332 0.74301851 0.96989942
-0.80073619 0.73241311 0.7960853
-0.79560351 0.72721863 0.65078193
-0.79117692 0.7229259 0.52132148
-0.78654999 0.71845305 0.4030672
-0.76552027 0.69876051 0.28825498
-0.76488757 0.69818646 0.18592121
-0.81929964 0.75253731 1.071967
-0.80889612 0.74247092 0.88303697
-0.80175155 0.7356618 0.72503155
-0.78705466 0.72142744 0.58101815
-0.78377426 0.71817577 0.45912904
-0.76713526 0.70268965 0.34162897
-0.77040613 0.70568931 0.23793145
-0.75883287 0.69485146 0.13518077
-0.89578342 0.85412973 7.8686624
-1.0757871 1.0163059 7.1385016
-1.076794 1.0074452 4.76127
-0.97021097 0.90332317 3.1825638
-0.89712799 0.83296347 2.3107548
-0.8633092 0.79990178 1.8011779
-0.84351265 0.78075063 1.4527465
-0.6748845 0.65753269 8.7446871
-1.193465 1.1248139 6.3516455
-1.014746 0.95007432 3.8344047
-0.93570352 0.87273276 2.7094753
-0.87572509 0.814812 2.0267382
-0.84962106 0.78943229 1.6104792
-0.82841069 0.76866287 1.3033991
-0.82608664 0.76196086 1.1841838
-0.81231707 0.74848628 0.97303784
-0.80125022 0.73803681 0.79882681
-0.79631937 0.73299152 0.65310073
-0.79206002 0.72882235 0.52319455
-0.78403735 0.72119427 0.4030672
-0.76669294 0.7047528 0.28918761
-0.76611215 0.70422238 0.18636829
-0.81940877 0.75792807 1.0752926
-0.80926776 0.74803382 0.88598019
-0.79917872 0.73845595 0.72503155
-0.78786653 0.72724885 0.58311623
-0.78473294 0.72410959 0.46077254
-0.76825047 0.70865881 0.3428013
-0.76793814 0.7083742 0.23793145
-0.76007557 0.70088285 0.13538231
-0.89167583 0.85617483 7.8587832
-1.0714954 1.0193529 7.1336069
-1.0787027 1.0163165 4.78513
-0.96990204 0.9093771 3.1917689
-0.89596432 0.83772588 2.3151441
-0.86256903 0.80483019 1.8053107
-0.84312665 0.7858758 1.4565841
-0.67296553 0.66025794 8.7496586
-1.1950012 1.1341654 6.3806825
-1.0151899 0.95716244 3.8484831
-0.93582463 0.87897462 2.7184777
-0.87477869 0.81964737 2.0310042
-0.84906042 0.79445213 1.6144693
-0.82819945 0.77386457 1.3070743
-0.82603484 0.76726699 1.1876884
-0.81255257 0.75396478 0.97617632
-0.80173463 0.74367291 0.80156827
-0.79700452 0.73877811 0.65541953
-0.78951114 0.73158276 0.52319455
-0.78151512 0.72392666 0.4030672
-0.76783311 0.71076173 0.29012021
-0.76730382 0.71027529 0.18681537
-0.81949013 0.76332879 1.078618
-0.80961013 0.75360811 0.88892335
-0.79975194 0.74417776 0.72756475
-0.78532314 0.7299946 0.58311623
-0.78220052 0.72684443 0.46077254
-0.76933336 0.71464431 0.34397361
-0.76908898 0.71442086 0.23862213
-0.76128525 0.70693123 0.13558383
-0.88812333 0.85874194 7.8538446
-1.0679307 1.023087 7.1336069
-1.0794796 1.0241857 4.8042183
-0.96956259 0.91543978 3.200974
-0.89652175 0.84413207 2.3239222
-0.86180508 0.80976331 1.8094438
-0.84505206 0.79320157 1.464259
-0.67065668 0.66260302 8.7496586
-1.1973951 1.1444098 6.4145579
-1.0155966 0.96426523 3.8625612
-0.93591368 0.88522798 2.7274802
-0.87380898 0.82448578 2.03527
-0.85066807 0.80154413 1.6224493
-0.8279621 0.77907419 1.3107494
-0.82595587 0.77258193 1.191193
-0.81275964 0.75945407 0.97931474
-0.80218941 0.74932128 0.80430973
-0.79442084 0.74155569 0.65541953
-0.79034197 0.73749703 0.52506757
-0.77898335 0.72665024 0.4030672
-0.76534736 0.71343762 0.29012021
-0.76846254 0.71634501 0.18726245
-0.81954378 0.76873916 1.0819435
-0.80697465 0.75642955 0.88892335
-0.79714942 0.74696493 0.72756475
-0.7860834 0.73583293 0.58521426
-0.78310657 0.73279697 0.46241605
-0.77038372 0.72064596 0.34514591
-0.76659048 0.71710104 0.23862213
-0.76246196 0.7129966 0.13578537
-0.88456374 0.86129457 7.8489051
-1.064353 1.0268085 7.1336069
-1.0812938 1.0331039 4.8280783
-0.97060829 0.9228574 3.2147813
-0.89704543 0.85055238 2.3327003
-0.86101723 0.81470084 1.8135767
-0.84460747 0.79834843 1.4680965
-0.66871744 0.66531622 8.7546301
-1.1997321 1.1546849 6.4484344
-1.0159659 0.97138238 3.8766394
-0.93597037 0.89149255 2.7364826
-0.87470675 0.83112407 2.0438018
-0.85005075 0.80658275 1.6264393
-0.83015901 0.7866233 1.3180997
-0.82584989 0.77790576 1.1946975
-0.81293833 0.76495391 0.98245323
-0.80261463 0.75498199 0.80705118
-0.79505509 0.74735832 0.65773833
-0.79114115 0.74342608 0.52694058
-0.77993846 0.73264945 0.40447721
-0.76643378 0.71946687 0.29105285
-0.76958817 0.72243148 0.18770951
-0.81956959 0.77415919 1.0852691
-0.80726856 0.76201648 0.89186651
-0.79767245 0.75270158 0.73009789
-0.78681254 0.74168557 0.58731234
-0.78398055 0.73876458 0.46405956
-0.76786351 0.72333068 0.34514591
-0.76408267 0.71977258 0.23862213
-0.76360559 0.71907878 0.13598689
-0.88099724 0.86383295 7.8439655
-1.0607622 1.0305176 7.1336069
-1.0819833 1.0410123 4.8471661
-0.97020304 0.92894232 3.2239864
-0.89753515 0.85698658 2.3414786
-0.86020529 0.81964272 1.8177097
-0.84413701 0.80350167 1.4719341
-0.66639096 0.66764641 8.7546301
-1.2020116 1.1649899 6.4823103
-1.0175411 0.97971088 3.8954105
-0.93599474 0.89776838 2.7454851
-0.87368453 0.83597541 2.0480678
-0.84940839 0.81162679 1.6304293
-0.82986075 0.79185683 1.321775
-0.82571673 0.78323817 1.198202
-0.81308842 0.77046424 0.98559165
-0.79997438 0.757779 0.80705118
-0.79244149 0.75012904 0.65773833
-0.78854138 0.74618316 0.52694058
-0.77737629 0.73536748 0.40447721
-0.76748747 0.72551239 0.29198545
-0.76706171 0.72511345 0.18770951
-0.81686229 0.77701533 1.0852691
-0.80753332 0.76761466 0.89480966
-0.79504019 0.75548142 0.73009789
-0.78421885 0.74442756 0.58731234
-0.78482229 0.7447471 0.46570307
-0.76886028 0.72935188 0.34631824
-0.76156557 0.72243536 0.23862213
-0.76109087 0.72173989 0.13598689
-0.87742376 0.86635691 7.8390265
-1.0578862 1.0349262 7.1385016
-1.0815587 1.047899 4.8614817
-0.96976715 0.93503553 3.2331915
-0.89626461 0.8617745 2.3458676
-0.86139965 0.82653725 1.8259755
-0.84364098 0.80866152 1.4757715
-0.66480654 0.670726 8.7645731
-1.2042338 1.1753249 6.5161862
-1.0178316 0.98686093 3.9094892
-0.93598664 0.90405518 2.7544875
-0.87451702 0.84263957 2.0565996
-0.85091257 0.81876564 1.6384094
-0.82953596 0.79709774 1.3254501
-0.82813507 0.79104245 1.2052112
-0.81039399 0.77329779 0.98559165
-0.80034983 0.76345301 0.80979264
-0.79302466 0.75594723 0.66005719
-0.78928792 0.75212932 0.5288136
-0.77827793 0.74138522 0.40588725
-0.76495028 0.72818696 0.29198545
-0.76813293 0.73122025 0.18815659
-0.81684124 0.78244489 1.0885946
-0.8077687 0.77322394 0.89775282
-0.79551262 0.76123232 0.73263109
-0.78489619 0.75029665 0.58941036
-0.78221786 0.74748212 0.46570307
-0.76630974 0.73203123 0.34631824
-0.75903916 0.72508931 0.23862213
-0.76217997 0.72784251 0.13618843
-0.87384349 0.8688665 7.8340874
-1.0542673 1.0386126 7.1385016
-1.0821676 1.0558381 4.8805699
-0.97070205 0.94249821 3.246999
-0.89669192 0.86822993 2.3546457
-0.86053282 0.83149451 1.8301084
-0.84311908 0.81382757 1.479609
-0.66171372 0.6722824 8.7546301
-1.2063985 1.1856896 6.5500622
-1.0193192 0.99523056 3.9282601
-0.93594605 0.91035277 2.7634897
-0.87531358 0.84931958 2.0651317
-0.85021323 0.82382786 1.6423994
-0.82918477 0.80234605 1.3291253
-0.82793891 0.79640079 1.2087157
-0.81049621 0.77881885 0.98873013
-0.80069548 0.76913887 0.81253409
-0.79357672 0.76177853 0.66237599
-0.79000264 0.75808978 0.53068668
-0.77568525 0.74409741 0.40588725
-0.76594973 0.73425204 0.29291809
-0.76917076 0.73734331 0.18860367
-0.81679231 0.78788376 1.09192
-0.80797476 0.77884412 0.90069598
-0.7959547 0.76699591 0.73516428
-0.7822724 0.75303185 0.58941036
-0.78300649 0.75348246 0.46734658
-0.76374978 0.73470169 0.34631824
-0.76007229 0.73116761 0.23931281
-0.75963473 0.73049861 0.13618843
-0.86915833 0.87026161 7.8192692
-1.0513582 1.0430036 7.1433969
-1.0827341 1.0637941 4.8996577
-0.97019982 0.94861269 3.2562041
-0.89708507 0.87469888 2.3634241
-0.85964191 0.83645582 1.8342415
-0.84486967 0.82123399 1.4872841
-0.65973538 0.67496949 8.7596016
-1.2085055 1.1960837 6.5839381
-1.0195301 1.0024123 3.9423382
-0.93431777 0.91513771 2.7679911
-0.87607414 0.85601544 2.0736635
-0.85164553 0.83099967 1.6503794
-0.828807 0.80760163 1.3328004
-0.8277154 0.80176729 1.2122202
-0.81056976 0.78434998 0.99186856
-0.8010112 0.77483648 0.81527555
-0.79091281 0.76454401 0.66237599
-0.78735155 0.76084274 0.53068668
-0.77308315 0.74680054 0.40588725
-0.76338208 0.73692119 0.29291809
-0.7665922 0.74002373 0.18860367
-0.81671524 0.79333174 1.0952456
-0.80525118 0.78165972 0.90069598
-0.7963661 0.77277172 0.73769742
-0.78289771 0.75891691 0.59150839
-0.78376263 0.75949723 0.46899009
-0.76467162 0.74074513 0.34749055
-0.75751543 0.73381627 0.23931281
-0.76066911 0.73662126 0.13638996
-0.86666226 0.87384206 7.8242087
-1.0477111 1.0466671 7.1433969
-1.0843192 1.072817 4.9235177
-0.97105861 0.95610589 3.2700117
-0.89744401 0.88118112 2.3722022
-0.86073655 0.84339052 1.8425074
-0.84428841 0.82642037 1.4911215
-2.2319274 2.3009453 29.853691
-1.2114446 1.2073941 6.6226535
-1.0197033 1.0096079 3.9564166
-0.93421715 0.92145115 2.7769935
-0.87679851 0.86272681 2.0821953
-0.85088879 0.83607942 1.6543695
-0.82840252 0.81286424 1.3364756
-0.82746446 0.80714196 1.2157247
-0.81061453 0.78989106 0.99500704
-0.80129671 0.78054553 0.81801701
-0.79141337 0.77039015 0.66469479
-0.7880134 0.76681966 0.53255969
-0.77391016 0.75283957 0.40729728
-0.76080507 0.73958141 0.29291809
-0.76757514 0.74616635 0.18905075
-0.81661004 0.79878879 1.0985711
-0.80540812 0.78729129 0.90363914
-0.79674685 0.77855974 0.74023062
-0.78349149 0.76481551 0.59360647
-0.78110677 0.76222843 0.46899009
-0.76208127 0.74340981 0.34749055
-0.75849402 0.73991394 0.24000348
-0.75809318 0.739272 0.13638996
-0.86578709 0.8790769 7.8439655
-1.0454866 1.0517625 7.1531878
-1.0858545 1.0818638 4.9473777
-0.97048968 0.96224093 3.2792168
-0.89776856 0.88767648 2.3809803
-0.85979021 0.8483665 1.8466402
-0.8436811 0.83161253 1.494959
-2.2264702 2.31141 29.888493
-1.2116582 1.216068 6.6468506
-1.0198388 1.0168167 3.9704952
-0.93408382 0.92777497 2.785996
-0.87748671 0.86945367 2.0907271
-0.85010689 0.84116399 1.6583595
-0.83038288 0.82051694 1.3438259
-0.82718605 0.81252474 1.2192293
-0.8106305 0.7954421 0.99814546
-0.79856724 0.78333783 0.81801701
-0.79188281 0.77624905 0.66701359
-0.78864288 0.77281028 0.53443271
-0.77127755 0.75553638 0.40729728
-0.76172906 0.74566895 0.29385069
-0.76496589 0.74884117 0.18905075
-0.81647664 0.80425465 1.1018965
-0.8055355 0.79293346 0.9065823
-0.79709691 0.78435981 0.74276382
-0.78081697 0.7675457 0.59360647
-0.78180945 0.76826024 0.47063357
-0.76294905 0.74947166 0.34866288
-0.75943923 0.74602741 0.24069417
-0.75550807 0.74191368 0.13638996
-0.86488593 0.88431621 7.8637228
-1.0425241 1.0561302 7.1580825
-1.0873398 1.0909342 4.9712372
-0.97127205 0.96976411 3.2930243
-0.89805859 0.89418483 2.3897583
-0.86081576 0.85532969 1.8549061
-0.84304786 0.83681065 1.4987966
-2.2183886 2.3191676 29.888493
-1.2118258 1.2247581 6.6710482
-1.0199363 1.0240389 3.9845734
-0.93545681 0.93564868 2.7994995
-0.8781386 0.87619585 2.0992589
-0.85143435 0.84838021 1.6663395
-0.82991666 0.82580173 1.347501
-0.82688004 0.81791514 1.2227339
-0.80784893 0.79826689 0.99814546
-0.79880279 0.78905928 0.82075852
-0.79232073 0.78212047 0.66933239
-0.78924024 0.77881479 0.53630573
-0.77205062 0.76159292 0.40870732
-0.7591216 0.74832326 0.29385069
-0.76234734 0.75150681 0.18905075
-0.81631505 0.80972934 1.105222
-0.80276269 0.79574049 0.9065823
-0.7943542 0.78713739 0.74276382
-0.78135842 0.77345955 0.5957045
-0.78247941 0.77430612 0.47227708
-0.76723945 0.7589671 0.35100752
-0.76387161 0.75563908 0.24207552
-0.75291365 0.74454641 0.13638996
-0.86341745 0.88900238 7.8785405
-1.0402565 1.0612173 7.1678734
-1.0887749 1.100028 4.9950972
-0.97201383 0.97730452 3.3068321
-0.8966229 0.89901 2.3941474
-0.85981399 0.86031985 1.8590392
-0.84238851 0.84201431 1.502634
-2.2066088 2.3230317 29.838778
-1.2119476 1.2334641 6.6952448
-1.0199956 1.031274 3.9986515
-0.93525237 0.94199824 2.808502
-0.87691438 0.88110447 2.1035249
-0.85059476 0.85348147 1.6703296
-0.82942379 0.83109343 1.3511763
-0.82654649 0.82331342 1.2262385
-0.80781651 0.80382746 1.0012839
-0.79900807 0.79479176 0.82349998
-0.78958583 0.78488141 0.66933239
-0.78651685 0.78156501 0.53630573
-0.76938742 0.76428324 0.40870732
-0.75999105 0.75442928 0.29478332
-0.76325369 0.75767171 0.18949783
-0.81612515 0.81521267 1.1085476
-0.80284083 0.80139345 0.90952545
-0.79465306 0.79295033 0.74529696
-0.78186798 0.7793864 0.59780258
-0.7797718 0.77703273 0.47227708
-0.76802903 0.76507097 0.35217986
-0.76473761 0.76179582 0.2427662
-0.75385022 0.75069529 0.13659149
-0.86192673 0.89368904 7.8933587
-1.038676 1.0670313 7.182559
-1.0891134 1.1080806 5.014185
-0.97134197 0.98347175 3.3160369
-0.89684975 0.90553778 2.4029255
-0.86077011 0.86731076 1.867305
-0.84170312 0.8472237 1.5064715
-2.2010465 2.3334348 29.873577
-1.2111455 1.241286 6.7146025
-1.021226 1.0397531 4.0174227
-0.93654335 0.94990808 2.8220057
-0.87749976 0.88787019 2.112057
-0.8497299 0.85858727 1.6743195
-0.82890391 0.83639169 1.3548514
-0.82618535 0.82871926 1.229743
-0.80775511 0.80939758 1.0044224
-0.79918295 0.80053514 0.82624143
-0.78997201 0.79076678 0.67165118
-0.78706086 0.78758496 0.5381788
-0.77010632 0.77035683 0.41011736
-0.75735295 0.75707757 0.29478332
-0.76060426 0.76033133 0.18949783
-0.81590688 0.82070452 1.111873
-0.80288923 0.80705661 0.91246861
-0.79188025 0.79571939 0.74529696
-0.77914268 0.78211081 0.59780258
-0.78038794 0.78309476 0.47392058
-0.76878536 0.77118963 0.35335216
-0.76556993 0.76796776 0.24345689
-0.75122517 0.75332218 0.13659149
-0.85933918 0.89725345 7.8982973
-1.0384829 1.0743113 7.2070351
-1.0904515 1.1172172 5.0380454
-0.9720068 0.991041 3.3298445
-0.89704198 0.9120782 2.4117036
-0.85971248 0.87231445 1.8714379
-0.84324259 0.85472029 1.5141466
-2.1928878 2.3411036 29.873577
-1.2111782 1.2500204 6.7387996
-1.0212048 1.0470179 4.0315008
-0.93626761 0.95628268 2.8310082
-0.8762219 0.8927893 2.1163228
-0.84883976 0.86369747 1.6783097
-0.82835716 0.84169626 1.3585266
-0.82579648 0.83413261 1.2332475
-0.80766457 0.81497693 1.0075608
-0.79932749 0.80628961 0.82898289
-0.79032665 0.79666442 0.67396998
-0.78757238 0.79361814 0.54005182
-0.77079213 0.77644479 0.4115274
-0.75816756 0.76320159 0.29571593
-0.76145524 0.76651478 0.18994491
-0.81566018 0.82620472 1.1151985
-0.80290776 0.81272978 0.91541177
-0.79212803 0.80154502 0.74783015
-0.77959967 0.78805238 0.5999006
-0.78097129 0.78917062 0.47556409
-0.77292776 0.7807771 0.3556968
-0.76288456 0.77063543 0.24345689
-0.75210637 0.75948972 0.13679302
-0.85673738 0.90081096 7.9032369
-1.0354316 1.0786644 7.2119303
-1.0907003 1.1253046 5.0571332
-0.97126746 0.99722713 3.3390496
-0.89719933 0.9186309 2.4204819
-0.86059856 0.87933248 1.8797038
-0.84249687 0.85994822 1.517984
-2.1857915 2.349915 29.888493
-1.2111645 1.2587699 6.7629967
-1.0223457 1.0555348 4.0502715
-0.93747598 0.9642278 2.8445115
-0.87674052 0.89957809 2.1248546
-0.85002869 0.87096834 1.6862897
-0.82778352 0.84700733 1.3622017
-0.82537991 0.8395533 1.236752
-0.80754495 0.82056552 1.0106993
-0.79944164 0.81205475 0.83172441
-0.79064971 0.80257404 0.67628878
-0.78805131 0.7996645 0.54192483
-0.76807714 0.77913064 0.4115274
-0.75549889 0.76584351 0.29571593
-0.76227224 0.77271336 0.19039199
-0.81538498 0.8317132 1.1185241
-0.80289644 0.81841296 0.91835493
-0.79234451 0.80738187 0.75036329
-0.77684408 0.79076886 0.5999006
-0.77821177 0.79189193 0.47556409
-0.77360511 0.78693664 0.35686913
-0.7636615 0.77682513 0.24414757
-0.75295365 0.76567256 0.13699456
-0.85198766 0.90210092 7.8884192
-1.0386842 1.0896432 7.2608824
-1.0919408 1.1344829 5.0809932
-0.97185481 1.0048246 3.3528571
-0.89732182 0.92519575 2.42926
-0.85948515 0.88434941 1.8838367
-0.84172499 0.86518127 1.5218216
-2.1775756 2.3575306 29.888493
-1.2119728 1.2684433 6.7920337
-1.0222435 1.0628287 4.0643501
-0.93712842 0.97062677 2.853514
-0.87540865 0.90450716 2.1291206
-0.8490802 0.87609404 1.6902797
-0.82954383 0.85475755 1.3695521
-0.82493544 0.84498119 1.2402567
-0.80739611 0.82616317 1.0138377
-0.79952508 0.81783044 0.83446586
-0.79094106 0.80849564 0.67860758
-0.78525513 0.80241042 0.54192483
-0.76870859 0.78523493 0.4129374
-0.75625855 0.77198505 0.29664856
-0.76305526 0.77892691 0.19083907
-0.81508136 0.83722979 1.1218495
-0.80285525 0.82410592 0.92129809
-0.79253006 0.8132301 0.75289649
-0.77724826 0.79672444 0.60199869
-0.77874082 0.79798317 0.4772076
-0.77424884 0.79311037 0.35804144
-0.7609452 0.77948606 0.24414757
-0.75376683 0.77187055 0.13719608
-0.85627311 0.91300565 7.9575691
-1.0411731 1.0999184 7.3049397
-1.0941619 1.1447626 5.1096253
-0.97104788 1.0110291 3.3620622
-0.89740932 0.93177259 2.4380381
-0.86030108 0.89139402 1.8921027
-0.84092683 0.8704195 1.5256591
-2.167892 2.3635459 29.868607
-1.211863 1.2772257 6.8162303
-1.0232946 1.0713825 4.0831213
-0.93825412 0.97860658 2.8670177
-0.87586027 0.91131836 2.1376524
-0.84810627 0.88122368 1.6942697
-0.82890755 0.86008918 1.3732272
-0.82446313 0.85041624 1.2437612
-0.80721807 0.83176976 1.0169762
-0.79957801 0.82361656 0.83720732
-0.78811407 0.81125164 0.67860758
-0.78568029 0.80847126 0.54379785
-0.7693066 0.79135305 0.41434744
-0.75698459 0.77814126 0.2975812
-0.7638042 0.7851553 0.19128615
-0.81474894 0.8427543 1.125175
-0.80278409 0.82980853 0.92424124
-0.7926842 0.81908935 0.75542969
-0.77762032 0.80269253 0.60409671
-0.77595061 0.80069661 0.4772076
-0.77147561 0.7958082 0.35804144
-0.76166654 0.78569323 0.24483825
-0.75454587 0.7780835 0.13739762
-0.85837507 0.92167628 8.0069618
-1.0429056 1.1094819 7.3441014
-1.0952966 1.1539887 5.1334848
-0.9715575 1.0186541 3.3758698
-0.89746201 0.93836135 2.4468162
-0.85913134 0.89642334 1.8962357
-0.8401022 0.87566257 1.5294967
-2.1610639 2.3726754 29.888493
-1.2125688 1.2869378 6.8452673
-1.0242983 1.0799568 4.1018925
-0.93783432 0.98502922 2.8760202
-0.87447435 0.9162569 2.1419184
-0.84918869 0.88853574 1.7022496
-0.82824415 0.86542666 1.3769025
-0.82396287 0.85585821 1.2472657
-0.80701065 0.83738518 1.0201148
-0.79960024 0.82941306 0.83994877
-0.78835303 0.81718588 0.68092638
-0.78607261 0.81454486 0.54567093
-0.76653957 0.79403359 0.41434744
-0.75767666 0.78431195 0.29851383
-0.76105881 0.7878167 0.19128615
-0.81438792 0.84828669 1.1285006
-0.8026827 0.83552057 0.9271844
-0.79280722 0.82495958 0.75796282
-0.77796018 0.8086729 0.60619479
-0.7764253 0.80680293 0.47885111
-0.77206403 0.80199802 0.35921374
-0.75891936 0.78834718 0.24483825
-0.75529069 0.78431123 0.13759914
-0.85515261 0.92466694 8.0069618
-1.0445838 1.119071 7.3832631
-1.0974042 1.1643232 5.162117
-0.9706825 1.0248764 3.3850746
-0.89747953 0.94496173 2.4555948
-0.85987675 0.90349388 1.9045017
-0.84146202 0.88323128 1.5371716
-1.2089279 1.2920806 6.8501067
-1.0240715 1.0872945 4.1159706
-0.93887663 0.99304277 2.889524
-0.8748585 0.92308986 2.1504502
-0.84815615 0.89368027 1.7062398
-0.82988894 0.87322754 1.3842528
-0.82343459 0.86130697 1.2507702
-0.80677384 0.84300923 1.0232532
-0.79959166 0.83521956 0.84269029
-0.78856015 0.82313168 0.68324518
-0.78643215 0.82063091 0.54754394
-0.76708287 0.80016744 0.41575748
-0.75833493 0.79049677 0.29944643
-0.76175171 0.79406232 0.19173324
-0.81399816 0.85382682 1.131826
-0.80255133 0.84124202 0.93012756
-0.79289883 0.83084065 0.76049602
-0.77826768 0.81466538 0.60829288
-0.77686679 0.81292218 0.48049462
-0.77597719 0.81171507 0.36155838
-0.75958478 0.7945711 0.24552894
-0.75600123 0.79055357 0.13780068
-0.85349596 0.92936349 8.0217791
-1.0462078 1.1286854 7.4224248
-1.0984329 1.1735964 5.185977
-0.97111422 1.0325282 3.3988824
-0.89746177 0.95157373 2.4643729
-0.86058331 0.91058034 1.9127675
-0.84057659 0.88849163 1.5410092
-1.2052656 1.2972136 6.8549457
-1.0249845 1.0959044 4.1347418
-0.93838441 0.99948829 2.8985264
-0.87520564 0.92993671 2.158982
-0.84916461 0.90102148 1.7142198
-0.82916242 0.87858462 1.3879279
-0.82533365 0.86934894 1.2577794
-0.80650753 0.84864175 1.0263916
-0.79955232 0.84103626 0.84543175
-0.78873515 0.82908869 0.68556398
-0.78356278 0.82337111 0.54754394
-0.76759255 0.80631459 0.41716751
-0.75895911 0.79669577 0.30037907
-0.75897527 0.79671645 0.19173324
-0.81357968 0.85937452 1.1351515
-0.80238974 0.84697276 0.93307072
-0.79295897 0.83673233 0.76302922
-0.7785427 0.82066965 0.6103909
-0.77727485 0.81905425 0.48213813
-0.7764855 0.81794399 0.36273071
-0.75680655 0.79721773 0.24552894
-0.75667733 0.79681039 0.1380022
-0.85024667 0.93233711 8.0217791
-1.0470879 1.1375753 7.4566917
-1.1004263 1.1839842 5.2146087
-0.9701708 1.0387673 3.4080875
-0.89740872 0.95819688 2.473151
-0.86125082 0.91768289 1.9210334
-0.83966452 0.89375645 1.5448467
-1.2024348 1.3032607 6.864625
-1.0258498 1.1045337 4.153513
-0.93785864 1.0059426 2.9075289
-0.87551552 0.93679708 2.1675138
-0.84807307 0.90618014 1.7182097
-0.82840866 0.88394737 1.3916031
-0.82474035 0.87481952 1.2612839
-0.80621165 0.85428268 1.02953
-0.79948205 0.84686267 0.8481732
-0.78887826 0.83505702 0.68788278
-0.78386796 0.82947057 0.54941696
-0.76477337 0.80898905 0.41716751
-0.75954932 0.80290872 0.30131167
-0.75618958 0.79936093 0.19173324
-0.81313229 0.86492968 1.138477
-0.80219793 0.85271257 0.93601388
-0.79298764 0.84263456 0.76556236
-0.77878535 0.82668585 0.61248899
-0.77764976 0.82519925 0.48378164
-0.77695984 0.82418627 0.36390302
-0.75741607 0.80345792 0.24621962
-0.75389135 0.79944688 0.1380022
-0.8443799 0.93241912 7.9970832
-1.0479184 1.146485 7.4909582
-1.1013482 1.1933033 5.2384686
-0.97052419 1.0464451 3.421895
-0.89895135 0.96658516 2.4863181
-0.86187905 0.92480099 1.9292994
-0.83872598 0.8990258 1.5486841
-1.1987273 1.3083769 6.8694644
-1.0278373 1.1144511 4.1769767
-0.93877798 1.0140028 2.9210322
-0.87578815 0.94367105 2.1760459
-0.84695596 0.91134238 1.7221999
-0.82762754 0.88931549 1.3952782
-0.82655603 0.88290012 1.268293
-0.80588621 0.85993183 1.0326686
-0.79652107 0.84964824 0.8481732
-0.78595865 0.83780563 0.68788278
-0.78096777 0.83220172 0.54941696
-0.76522803 0.81515115 0.41857755
-0.756742 0.80555516 0.30131167
-0.75680435 0.80562532 0.19218032
-0.81265599 0.8704921 1.1418025
-0.80197567 0.8584612 0.93895704
-0.79298472 0.84854704 0.76809555
-0.77899545 0.83271366 0.61458701
-0.77799106 0.83135659 0.48542514
-0.7773999 0.83044183 0.36507532
-0.75799102 0.80971205 0.2469103
-0.754511 0.80572021 0.13820374
-1.0466468 1.1531521 7.5105391
-1.1022184 1.2026432 5.2623286
-0.97215903 1.0555753 3.4403052
-0.89882147 0.97323632 2.4950962
-0.86055684 0.92986923 1.9334321
-0.83993906 0.90665078 1.5563592
-1.1941528 1.3125533 6.8694644
-1.0286025 1.1231228 4.1957479
-0.93817919 1.020479 2.9300346
-0.87602353 0.95055819 2.1845777
-0.84785658 0.91872227 1.7301799
-0.826819 0.8946889 1.3989534
-0.82589716 0.88839203 1.2717975
-0.80553114 0.86558908 1.035807
-0.79639941 0.85548395 0.85091466
-0.78604877 0.84378535 0.69020158
-0.78121871 0.83831441 0.55129004
-0.76564896 0.82132632 0.41998756
-0.75727624 0.81178385 0.30224431
-0.75398761 0.80826217 0.19218032
-0.81215078 0.87606174 1.145128
-0.80172312 0.86421877 0.94190019
-0.79001784 0.85130996 0.76809555
-0.77917284 0.83875304 0.61668509
-0.77829874 0.83752638 0.48706865
-0.77780575 0.83671045 0.36624765
-0.75515997 0.81235301 0.2469103
-0.75509602 0.81200761 0.13840528
-1.0501126 1.1651194 7.5643864
-1.1030366 1.2120036 5.2861886
-0.97242349 1.0632875 3.4541125
-0.89865601 0.97989827 2.5038743
-0.86111385 0.9370116 1.9416981
-0.83893913 0.91193622 1.5601966
-1.1895639 1.3167137 6.8694644
-1.0293195 1.1318135 4.2145185
-0.93901426 1.0285711 2.9435384
-0.8762213 0.95745838 2.1931098
-0.84668028 0.92389786 1.7341701
-0.8282752 0.90256536 1.4063038
-0.82520992 0.8938899 1.2753021
-0.80514646 0.87125438 1.0389454
-0.79624677 0.86132926 0.85365611
-0.78610677 0.84977591 0.69252038
-0.77828765 0.84103632 0.55129004
-0.76603597 0.82751423 0.4213976
-0.75443798 0.81442225 0.30224431
-0.75454587 0.81454253 0.19262739
-0.81161648 0.88163841 1.1484535
-0.80144006 0.86998498 0.94484335
-0.78996271 0.85723251 0.77062875
-0.77931756 0.84480363 0.61878312
-0.77537048 0.84023803 0.48706865
-0.7781772 0.84299201 0.36741996
-0.75567865 0.81862283 0.24760097
-0.75225705 0.8146385 0.13840528
-1.0514706 1.1748484 7.603548
-1.1038029 1.2213842 5.3100481
-0.97395939 1.0724609 3.4725227
-0.89845508 0.98657089 2.5126526
-0.85973465 0.94209051 1.9458311
-0.84007418 0.9195922 1.5678717
-1.1857998 1.3217937 6.8743033
-1.0299884 1.1405228 4.2332897
-0.93834221 1.0350685 2.9525409
-0.87638164 0.96437156 2.2016416
-0.84750599 0.93130517 1.7421501
-0.82740295 0.90795696 1.4099789
-0.82449442 0.89939392 1.2788066
-0.80473197 0.87692744 1.0420839
-0.79606289 0.8671838 0.85639757
-0.7861324 0.85577708 0.69483918
-0.77848393 0.84716147 0.55316305
-0.76638919 0.83371484 0.42280763
-0.75159055 0.81705081 0.30224431
-0.75169802 0.81717139 0.19262739
-0.81105328 0.88722211 1.1517791
-0.80112654 0.87575972 0.94778651
-0.78696555 0.85998482 0.77062875
-0.7794295 0.85086554 0.6208812
-0.77562308 0.84642106 0.48871216
-0.77522993 0.84570324 0.36741996
-0.75281656 0.82125568 0.24760097
-0.75278533 0.82094157 0.1386068
-1.0554787 1.1876457 7.6622915
-1.1045172 1.230785 5.3339081
-0.97413456 1.0802069 3.4863303
-0.89982468 0.99503052 2.5258198
-0.8602199 0.94925642 1.9540969
-0.83901256 0.92489308 1.5717092
-1.1811786 1.3259249 6.8743033
-1.0306091 1.1492506 4.2520609
-0.93909258 1.0431917 2.9660444
-0.87650424 0.97129744 2.2101734
-0.84627008 0.93649346 1.74614
-0.82877773 0.91586727 1.4173292
-0.8237505 0.90490377 1.2823112
-0.80428755 0.88260818 1.0452224
-0.79584783 0.87304753 0.85913903
-0.78612566 0.86178875 0.69715798
-0.77864689 0.85329825 0.55503613
-0.76670831 0.83992797 0.42421767
-0.75204688 0.82329625 0.30317691
-0.75219959 0.8234672 0.19307446
-0.81046087 0.89281243 1.1551045
-0.80078238 0.8815428 0.95072967
-0.7868579 0.86591703 0.77316189
-0.77645463 0.85358107 0.6208812
-0.77584183 0.85261601 0.49035567
-0.77554494 0.85199857 0.36859229
-0.75327867 0.82754064 0.24829166
-0.75327873 0.82725823 0.13880834
-1.05941 1.2004852 7.721034
-1.1061722 1.24132 5.3625402
-0.9755708 1.0894227 3.5047405
-0.89954603 1.0017295 2.5345981
-0.86066556 0.95643711 1.9623629
-0.84006923 0.93257928 1.5793842
-1.1765431 1.3300399 6.8743033
-1.0300337 1.1567076 4.266139
-0.9383468 1.0497096 2.9750469
-0.87658918 0.9782359 2.2187052
-0.84702069 0.94392741 1.7541201
-0.82784146 0.92127633 1.4210044
-0.8229782 0.91041934 1.2858157
-0.8064248 0.8911826 1.0514992
-0.79560155 0.87892044 0.86188054
-0.78311265 0.86452764 0.69715798
-0.77877635 0.85944647 0.55690914
-0.7669934 0.84615332 0.42562771
-0.74916852 0.82591635 0.30317691
-0.75266641 0.82977653 0.19352154
-0.80983919 0.89840949 1.15843
-0.80040759 0.88733405 0.95367283
-0.78671837 0.87185895 0.77569515
-0.77651244 0.85965413 0.62297922
-0.77602684 0.85882276 0.49199918
-0.7725662 0.85470051 0.36859229
-0.75370604 0.83383876 0.24898234
-0.75373721 0.83358836 0.13900986
-1.0639355 1.2141324 7.7846723
-1.107767 1.2518815 5.3911719
-0.97565645 1.0972016 3.5185483
-0.89923149 1.0084386 2.5433762
-0.86107153 0.9636324 1.9706287
-0.83894563 0.93789512 1.5832217
-1.1718932 1.3341386 6.8743033
-1.0294188 1.1641748 4.2802176
-0.93901211 1.0578631 2.9885504
-0.87663639 0.98518682 2.2272372
-0.84772956 0.95137793 1.7621001
-0.82913464 0.92921978 1.4283547
-0.82217729 0.91594052 1.2893202
-0.80591053 0.89688736 1.0546377
-0.79532391 0.88480198 0.864622
-0.78305256 0.8705495 0.69947678
-0.77887249 0.86560589 0.55878216
-0.76403517 0.84882545 0.42562771
-0.74956846 0.83217627 0.30410954
-0.75309825 0.83609897 0.19396862
-0.81167859 0.9067952 1.165081
-0.8000021 0.89313346 0.95661598
-0.78942353 0.88102102 0.78076148
-0.77653742 0.86573803 0.62507725
-0.77302426 0.86152643 0.49199918
-0.7728247 0.86100936 0.3697646
-0.75409859 0.84014994 0.24967301
-0.75082278 0.8362143 0.13900986
-1.0670419 1.2262892 7.8385196
-1.1093016 1.2624693 5.4198041
-0.97699255 1.1064588 3.5369582
-0.8988812 1.0151579 2.5521543
-0.8614378 0.97084224 1.9788946
-0.83992356 0.94561088 1.5908966
-1.1672291 1.3382212 6.8743033
-1.0287642 1.1716514 4.2942958
-0.93819249 1.0644009 2.9975529
-0.87664557 0.99214977 2.235769
-0.84839678 0.95884484 1.7700801
-0.82813418 0.93464589 1.4320298
-0.82372087 0.92412943 1.2963293
-0.80536622 0.90259939 1.0577762
-0.79501486 0.89069241 0.86736345
-0.78295982 0.87658131 0.70179558
-0.77584618 0.86831945 0.55878216
-0.76426429 0.85506392 0.42703772
-0.74993384 0.83844906 0.30504215
-0.75349504 0.84243453 0.1944157
-0.81098872 0.91241378 1.1684066
-0.79956585 0.89894086 0.95955914
-0.78920883 0.88699186 0.78329468
-0.77652925 0.87183261 0.62717533
-0.77315354 0.86774522 0.49364269
-0.76981455 0.86370176 0.3697646
-0.75445628 0.84647393 0.25036371
-0.75122404 0.84255904 0.1392114
-1.0700762 1.2384824 7.8923669
-1.1117569 1.2742077 5.4532075
-0.9769879 1.1142694 3.5507658
-0.90007609 1.0236855 2.5653214
-0.85990381 0.97595471 1.9830275
-0.8408578 0.95334482 1.5985717
-1.1633735 1.3432376 6.8791428
-1.029204 1.1804385 4.313067
-0.93877226 1.072584 3.0110567
-0.8766169 0.99912488 2.2443008
-0.84902215 0.96632797 1.7780602
-0.82934517 0.94262153 1.4393802
-0.82285345 0.92966956 1.2998339
-0.80737293 0.91123194 1.0640531
-0.7946744 0.89659142 0.87010491
-0.78283453 0.8826232 0.70411438
-0.77588719 0.8744902 0.56065518
-0.76445925 0.86131436 0.42844775
-0.75026453 0.84473455 0.30597478
-0.75385678 0.84878308 0.19486278
-0.81274015 0.92083794 1.1750575
-0.79909873 0.90475595 0.96250236
-0.78896195 0.89297181 0.78582788
-0.77648801 0.87793756 0.62927336
-0.77324891 0.87397546 0.49528623
-0.76679498 0.86638361 0.3697646
-0.75477892 0.85281056 0.25105438
-0.75159013 0.84891683 0.13941292
-1.0723757 1.2499387 7.9413185
-1.1141436 1.2859786 5.4866118
-0.97822338 1.1235672 3.5691757
-0.90122235 1.0322337 2.5784888
-0.86019742 0.98318624 1.9912934
-0.8417483 0.96109676 1.6062467
-1.1586777 1.3472904 6.8791428
-1.0295949 1.189243 4.3318381
-0.94073415 1.0824273 3.0290616
-0.87655008 1.0061117 2.2528327
-0.84762472 0.97155643 1.7820503
-0.82828015 0.94806397 1.4430554
-0.82195747 0.93521506 1.3033384
-0.80675817 0.91696697 1.0671915
-0.79430234 0.90249878 0.87284636
-0.78267658 0.8886748 0.70643318
-0.77589452 0.88067174 0.56252825
-0.76461971 0.86757642 0.42985779
-0.74731129 0.84734833 0.30597478
-0.75418335 0.85514426 0.19530986
-0.8119818 0.92647737 1.1783831
-0.79860079 0.91057885 0.96544552
-0.788683 0.89896095 0.78836101
-0.77641356 0.88405281 0.63137144
-0.77331018 0.88021696 0.49692973
-0.76697469 0.87270606 0.3709369
-0.75179744 0.85544008 0.25105438
-0.75192094 0.85528731 0.13961446
-1.0746078 1.2614261 7.9902711
-1.1164616 1.2977815 5.5200157
-0.97940582 1.132887 3.5875859
-0.90231997 1.0408026 2.5916562
-0.86045122 0.9904319 1.9995594
-0.84049147 0.96644771 1.6100842
-1.1539677 1.3513267 6.8791428
-1.0310616 1.1993731 4.3553019
-0.94121653 1.0906489 3.0425651
-0.87644506 1.0131103 2.2613645
-0.84817392 0.9790644 1.7900304
-0.82718718 0.95351022 1.4467305
-0.82103288 0.94076562 1.306843
-0.80611318 0.92270881 1.07033
-0.79389864 0.90841442 0.87558782
-0.7824859 0.89473599 0.70875198
-0.77586794 0.88686383 0.56440127
-0.76474577 0.87385011 0.43126783
-0.7475853 0.85364723 0.30690739
-0.75119382 0.85777169 0.19530986
-0.81364483 0.93493932 1.185034
-0.79807192 0.91640919 0.96838868
-0.7883718 0.90495896 0.79089421
-0.77630579 0.8901782 0.63346946
-0.77333713 0.88646936 0.49857324
-0.76392376 0.87537795 0.3709369
-0.75206286 0.8617903 0.25174505
-0.74893081 0.85790676 0.13961446
-1.0761155 1.2721668 8.0343285
-1.1177412 1.3084811 5.5486474
-0.98053503 1.1422288 3.6059959
-0.90180618 1.0475762 2.6004343
-0.86066473 0.99769109 2.0078254
-0.84130245 0.97422779 1.6177592
-1.1492436 1.3553466 6.8791428
-1.0313499 1.2082152 4.374073
-0.94165295 1.0988871 3.0560689
-0.87800121 1.0220987 2.2741623
-0.84671617 0.98430359 1.7940203
-0.82606632 0.95896059 1.4504057
-0.82007945 0.94632101 1.3103476
-0.80543798 0.92845726 1.0734684
-0.79346341 0.91433835 0.87832928
-0.78226238 0.90080667 0.71107078
-0.77276754 0.88956672 0.56440127
-0.76483727 0.88013512 0.43267787
-0.74460089 0.85625154 0.30690739
-0.75146282 0.86414641 0.19575694
-0.81281763 0.94059902 1.1883595
-0.79751199 0.92224687 0.97133183
-0.78802818 0.91096568 0.79342741
-0.77616471 0.89631349 0.63556755
-0.77332979 0.89273262 0.50021678
-0.76404655 0.88171262 0.37210923
-0.74905002 0.86441022 0.25174505
-0.74920398 0.86429083 0.13981599
-1.0788707 1.284493 8.0881758
-1.1199254 1.3203439 5.5820513
-0.98034364 1.1501052 3.6198037
-0.90281212 1.0561795 2.6136014
-0.860838 1.0049638 2.0160913
-0.83998299 0.97959179 1.6215967
-1.1445055 1.35935 6.8791428
-1.0327047 1.2183906 4.3975368
-0.9420433 1.1071416 3.0695722
-0.87781292 1.029126 2.2826943
-0.84523207 0.98954445 1.7980103
-0.8271209 0.96699089 1.457756
-0.82142329 0.95458442 1.3173567
-0.80473232 0.93421227 1.0766069
-0.79299635 0.92027014 0.88107073
-0.78200597 0.9068867 0.71338952
-0.77268565 0.89576918 0.56627429
-0.76489431 0.88643146 0.43408787
-0.74481791 0.86256349 0.30784002
-0.75169647 0.87053353 0.19620402
-0.8119607 0.94626421 1.1916851
-0.79955405 0.93115836 0.97721815
-0.78765231 0.91698098 0.79596055
-0.77599019 0.90245867 0.63766557
-0.77328825 0.89900672 0.50186026
-0.76096416 0.88437426 0.37210923
-0.74925804 0.87077338 0.25243574
-0.74618244 0.8669008 0.13981599
-1.0782926 1.2929432 8.117547
-1.1201172 1.3299543 5.6059117
-0.98137128 1.1594856 3.6382136
-0.9022193 1.0629766 2.6223795
-0.85914773 1.0101061 2.0202241
-0.84071398 0.98739898 1.6292717
-1.1397536 1.3633367 6.8791428
-1.0328897 1.2272694 4.4163079
-0.94238746 1.1154122 3.083076
-0.87758625 1.0361644 2.2912261
-0.84567064 0.99708503 1.8059905
-0.82593507 0.9724564 1.4614313
-0.82040262 0.96015722 1.3208612
-0.80399632 0.93997353 1.0797453
-0.79249758 0.92620987 0.88381225
-0.78171664 0.91297585 0.71570832
-0.77256984 0.90198189 0.5681473
-0.76491654 0.89273888 0.43549791
-0.74180251 0.86515814 0.30784002
-0.74865317 0.87315214 0.19620402
-0.81107408 0.95193487 1.1950105
-0.79892123 0.93701959 0.98016131
-0.78724396 0.92300469 0.79849374
-0.77283531 0.90516192 0.63766557
-0.77014536 0.9017005 0.50186026
-0.76102984 0.89072061 0.37328154
-0.74621391 0.87338346 0.25243574
-0.74639785 0.87329799 0.14001752
-1.0776687 1.3014052 8.1469183
-1.1221703 1.341872 5.6393151
-0.98360217 1.1703827 3.6612263
-0.90158987 1.0697824 2.6311576
-0.85924774 1.0173988 2.0284901
-0.83933151 0.99277538 1.6331092
-1.1357905 1.3682742 6.8839827
-1.0341319 1.2374887 4.4397717
-0.94268525 1.1236986 3.0965798
-0.87899941 1.0452096 2.3040237
-0.84412593 1.0023359 1.8099804
-0.82690644 0.98051679 1.4687816
-0.82166022 0.96845406 1.3278702
-0.80322987 0.94574112 1.0828838
-0.79196703 0.93215728 0.8865537
-0.7813943 0.91907388 0.71802717
-0.77241999 0.90820467 0.57002032
-0.76490408 0.89905709 0.43690795
-0.74196237 0.87148261 0.30877262
-0.74882901 0.87955201 0.1966511
-0.81015772 0.95761079 1.198336
-0.79825723 0.9428876 0.98310447
-0.78680319 0.92903674 0.80102688
-0.7726059 0.91131598 0.63976365
-0.77004743 0.90798467 0.5035038
-0.75791603 0.89337164 0.37328154
-0.7463643 0.87975913 0.25312641
-0.74657756 0.87970722 0.14021905
-1.0724728 1.3043725 8.142024
-1.1232004 1.3526719 5.6679468
-0.98576862 1.1813093 3.6842389
-0.90246087 1.0784334 2.644325
-0.85930729 1.0247046 2.0367558
-0.83998239 1.0006092 1.6407841
-1.1318067 1.3732005 6.8888221
-1.0353149 1.2477316 4.4632354
-0.9429366 1.1320006 3.1100833
-0.87868869 1.0522754 2.3125558
-0.84448767 1.0098995 1.8179604
-0.82565522 0.98599654 1.4724567
-0.82057226 0.97404379 1.3313749
-0.80243295 0.95151466 1.0860223
-0.79140443 0.93811214 0.88929516
-0.77818137 0.92179585 0.71802717
-0.77223611 0.91443729 0.57189339
-0.76485693 0.90538633 0.43831801
-0.74208713 0.87781864 0.30970526
-0.74896932 0.88596362 0.19709818
-0.81161314 0.96615088 1.204987
-0.79756188 0.94876236 0.98604763
-0.78632981 0.93507683 0.80356008
-0.7723428 0.91747952 0.64186168
-0.76991493 0.91427934 0.50514728
-0.75792444 0.89972931 0.37445387
-0.74647915 0.88614637 0.25381708
-0.74672157 0.88612831 0.14042059
-1.0473111 1.2828655 7.9853759
-1.1241688 1.3634951 5.696579
-0.98787093 1.1922654 3.7072515
-0.901752 1.0852615 2.6531031
-0.85932624 1.0320232 2.0450218
-0.83853662 1.0059973 1.6446217
-1.1285985 1.3790885 6.8985004
-1.0364393 1.2579978 4.4866991
-0.94452882 1.1419955 3.1280882
-0.87833917 1.0593518 2.3210876
-0.84673166 1.0197965 1.8299305
-0.82654309 0.99408638 1.479807
-0.82174331 0.98237324 1.3383839
-0.80160546 0.95729417 1.0891607
-0.79080999 0.94407439 0.89203662
-0.77780461 0.92790157 0.72034597
-0.77201813 0.92067975 0.57376641
-0.76477468 0.91172594 0.43972805
-0.74217665 0.88416612 0.31063786
-0.74907386 0.89238697 0.19754526
-0.81062716 0.97184539 1.2083125
-0.79683524 0.95464373 0.98899078
-0.78582388 0.94112498 0.80609328
-0.77204621 0.92365223 0.6439597
-0.76974785 0.92058384 0.50679076
-0.75477916 0.9023695 0.37445387
-0.74655849 0.89254522 0.25450778
-0.74362385 0.88872939 0.14042059
-1.0043634 1.2390492 7.6916623
-1.1260207 1.3754967 5.7299829
-0.98990858 1.2032504 3.7302639
-0.90253025 1.0939449 2.6662703
-0.85930449 1.0393541 2.0532877
-0.83910698 1.0138569 1.6522968
-1.1253628 1.3849709 6.9081798
-1.0375044 1.2682867 4.5101633
-0.94468123 1.150333 3.1415918
-0.87795097 1.0664384 2.3296194
-0.84700006 1.0273961 1.8379105
-0.82522631 0.99957991 1.4834822
-0.82058775 0.98797917 1.3418884
-0.80074739 0.96307951 1.0922991
-0.79018348 0.95004404 0.89477807
-0.77739465 0.93401581 0.72266477
-0.77176595 0.92693174 0.57563943
-0.7646575 0.91807598 0.44113809
-0.74537587 0.89429826 0.3125031
-0.74914265 0.89882171 0.19799234
-0.80961138 0.97754472 1.211638
-0.79607725 0.96053159 0.99193394
-0.78528523 0.94718099 0.80862641
-0.77171582 0.92983395 0.64605778
-0.76954609 0.92689842 0.5084343
-0.75473017 0.90873778 0.37562618
-0.74660236 0.89895529 0.25519845
-0.74370962 0.8951624 0.14062211
-0.96811759 1.2028823 7.4469013
-1.1278023 1.3875277 5.7633867
-0.99188149 1.214264 3.7532768
-0.90325898 1.1026471 2.6794376
-0.85924196 1.0466976 2.0615535
-0.83759779 1.0192561 1.6561341
-1.1220998 1.3908474 6.9178581
-1.0395982 1.279938 4.5383196
-0.94616246 1.1603725 3.1595967
-0.87752414 1.0735353 2.3381512
-0.84722573 1.0350099 1.8458906
-0.82603025 1.0076983 1.4908326
-0.81940287 0.99358886 1.3453929
-0.80233651 0.97187209 1.0985761
