# .PCD v0.7 - Point Cloud Data file format
VERSION 0.7
FIELDS x y z
SIZE 4 4 4
TYPE F F F
COUNT 1 1 1
WIDTH 1486
HEIGHT 1
VIEWPOINT 0 0 0 1 0 0 0
POINTS 1486
DATA ascii
-0.82530546 1.7498193 1.4922713
-0.808348 1.7131013 1.1987361
-0.78573173 1.662931 0.9376871
-0.77317029 1.635618 0.71880347
-0.75854021 1.6039551 0.51864892
-0.75151867 1.5891136 0.33738938
-0.73275608 1.5487516 0.16279051
-0.0090432968 0.04684652 3.9491231
-0.27427551 0.61100137 4.2580643
-0.36241433 0.79766232 4.2356324
-0.5732792 1.2460474 4.4320035
-0.82370597 1.779142 4.6783843
-1.0174373 2.189677 4.4921269
-0.95459878 2.048852 3.3923631
-0.91826099 1.9681858 2.6769104
-0.088765562 0.22502296 4.0227051
-0.17793946 0.40776661 4.1062737
-0.47834456 1.0496888 4.4787884
-0.68718863 1.495128 4.528934
-0.95463848 2.066747 4.7710309
-0.98207504 2.119395 3.8909514
-0.94001257 2.0249367 3.0309277
-0.88827187 1.9100085 2.3618467
-0.87042469 1.8572042 2.095366
-0.84465379 1.7997854 1.6854674
-0.82018363 1.7468613 1.3498615
-0.79569024 1.6931736 1.0658472
-0.78144222 1.6621124 0.83037192
-0.76580554 1.6281266 0.61880219
-0.75114387 1.5955206 0.42628276
-0.7380774 1.5677714 0.24851227
-0.85458541 1.8300642 1.8800635
-0.82603812 1.7673366 1.5040439
-0.80784094 1.7276274 1.2063355
-0.78569573 1.6779943 0.94398123
-0.77346569 1.6511357 0.72373396
-0.7591247 1.619797 0.52216589
-0.75016987 1.6006953 0.33877075
-0.73158711 1.5603467 0.16319357
-0.0088797174 0.046877805 3.9491231
-0.27214104 0.61195505 4.2580643
-0.36004549 0.79985112 4.2405276
-0.56954515 1.2493991 4.4367752
-0.82074857 1.7891093 4.6967945
-1.0218062 2.2193215 4.544796
-0.95451784 2.0675011 3.4171607
-0.91810983 1.9859262 2.6960979
-0.087979548 0.22533143 4.0227051
-0.176515 0.40838525 4.1062737
-0.47416055 1.0502067 4.4739494
-0.68196547 1.4975176 4.528934
-0.94741833 2.0700667 4.7710309
-0.98228818 2.1394017 3.9208131
-0.94175249 2.0473685 3.0588579
-0.88727444 1.9254137 2.3765471
-0.86994487 1.8731693 2.1093841
-0.8449313 1.8168402 1.6980213
-0.81937253 1.7610874 1.358086
-0.79538512 1.707988 1.0728035
-0.77955109 1.6732345 0.83411795
-0.76619738 1.6438338 0.62303233
-0.75180024 1.6114877 0.42908064
-0.73891664 1.5838774 0.24985351
-0.8544637 1.8465904 1.8933655
-0.8249597 1.7812123 1.5128733
-0.80905455 1.7460821 1.2164682
-0.78365397 1.6889606 0.94817728
-0.7716738 1.6623919 0.72702098
-0.75756043 1.6312538 0.5245105
-0.75083518 1.6167784 0.34084278
-0.7303462 1.5719526 0.16359663
-0.0087127658 0.046865005 3.9441233
-0.27031618 0.61361247 4.2630038
-0.35725129 0.801103 4.2405276
-0.56518048 1.2513796 4.4367752
-0.81934822 1.8026351 4.7244091
-1.0259806 2.2490232 4.5974655
-0.95431828 2.0861745 3.4419582
-0.91918087 2.0066035 2.7191229
-0.087295398 0.22590686 4.0276966
-0.17508841 0.40899894 4.1062737
-0.46997872 1.0507078 4.4691095
-0.67673403 1.499889 4.528934
-0.94018674 2.0733612 4.7710309
-0.98129344 2.1570611 3.9464085
-0.94459677 2.0725791 3.0907781
-0.88618016 1.9408348 2.3912477
-0.8693642 1.8891534 2.1234024
-0.84509999 1.8339189 1.7105752
-0.82022256 1.7791262 1.3690518
-0.79498625 1.7228209 1.07976
-0.77953494 1.6885726 0.83973712
-0.76447737 1.6552082 0.62585235
-0.75029296 1.6230199 0.43094587
-0.73965228 1.6000081 0.25119475
-0.85423708 1.8631383 1.9066676
-0.82548034 1.7987758 1.5246459
-0.80835056 1.7606487 1.2240678
-0.78344095 1.7040566 0.95447153
-0.77178597 1.6779457 0.73195153
-0.75795734 1.6471349 0.52802747
-0.74932724 1.6283865 0.34222415
-0.72903305 1.5835687 0.16399969
-0.0085491231 0.046895131 3.9441233
-0.26817265 0.61455232 4.2630038
-0.35486394 0.80327654 4.2454224
-0.5608089 1.2533449 4.4367752
-0.81305087 1.8054842 4.7244091
-1.0289735 2.2765977 4.6457453
-0.954 2.1048717 3.4667561
-0.92011857 2.027312 2.7421479
-0.0865063 0.22621021 4.0276966
-0.17365967 0.40960759 4.1062737
-0.46529004 1.0500435 4.4594307
-0.67219841 1.5038176 4.533627
-0.93383569 2.0786164 4.7755322
-0.98125893 2.1771171 3.97627
-0.94603634 2.0950878 3.1187084
-0.88638622 1.9593602 2.4096236
-0.87016177 1.9084009 2.1409249
-0.84354299 1.8474798 1.7199905
-0.81921923 1.7933886 1.3772761
-0.79449338 1.7376714 1.0867163
-0.77749276 1.6997151 0.84348315
-0.76468343 1.6709528 0.63008249
-0.74871433 1.6345612 0.43281111
-0.73821044 1.6116356 0.2520889
-0.85390514 1.8797066 1.9199696
-0.82588845 1.8163646 1.5364187
-0.80933946 1.7791553 1.2342005
-0.78313214 1.7191716 0.96076572
-0.77179891 1.6935205 0.73688203
-0.75825244 1.6630387 0.53154445
-0.74774724 1.640004 0.34360549
-0.72972101 1.59974 0.16460429
-0.008385377 0.046924688 3.9441233
-0.26571786 0.61477131 4.2580643
-0.35205781 0.80451035 4.2454224
-0.55643052 1.2552948 4.4367752
-0.8027643 1.7993903 4.7013969
-1.0327649 2.3064063 4.6984138
-0.95471525 2.1261587 3.4956868
-0.92223722 2.0509748 2.7690105
-0.085716151 0.22651079 4.0276966
-0.1724347 0.410703 4.1112452
-0.46061185 1.0493591 4.4497519
-0.66694504 1.5061548 4.533627
-0.92657429 2.0818634 4.7755322
-0.98109645 2.1971993 4.0061316
-0.94609982 2.114881 3.1426485
-0.88647372 1.9779109 2.4279995
-0.86936742 1.9244269 2.154943
-0.84190166 1.8610522 1.7294059
-0.81812626 1.8076657 1.3855006
-0.79390657 1.7525395 1.0936728
-0.77729577 1.7150861 0.8491022
-0.76280797 1.6823497 0.6329025
-0.74706423 1.646111 0.43467635
-0.73669642 1.6232722 0.25298306
-0.85346788 1.8962951 1.9332715
-0.82618368 1.8339778 1.5481913
-0.80843771 1.7937598 1.2418
-0.78272712 1.734305 0.96705979
-0.76976913 1.7048118 0.74016905
-0.75644475 1.6745347 0.53388906
-0.7460953 1.6516302 0.34498686
-0.7282474 1.6113826 0.16500735
-0.0082215276 0.046953671 3.9441233
-0.26357028 0.61569506 4.2580643
-0.34965211 0.8066687 4.2503181
-0.55204529 1.2572294 4.4367752
-0.79489911 1.7986076 4.6921916
-1.0353895 2.3340793 4.7466936
-0.95529342 2.1474764 3.5246177
-0.92420179 2.074677 2.7958732
-0.085025072 0.22707939 4.0326886
-0.17100003 0.41130242 4.1112452
-0.45594406 1.0486549 4.440073
-0.6616835 1.5084736 4.533627
-0.92017972 2.0870769 4.7800336
-0.97975045 2.2149212 4.0317273
-0.9448157 2.1319449 3.1625988
-0.88781804 1.9995842 2.4500504
-0.86847174 1.9404705 2.1689615
-0.84176755 1.8781873 1.7419597
-0.81694353 1.8219568 1.3937249
-0.79322553 1.7674242 1.1006291
-0.77510202 1.7262472 0.85284829
-0.76086217 1.6937538 0.63572258
-0.74735695 1.6621494 0.43747419
-0.73510998 1.6349177 0.25387722
-0.85292512 1.9129034 1.9465735
-0.82636589 1.8516151 1.5599639
-0.80744392 1.8083798 1.2493995
-0.78222603 1.7494565 0.97335398
-0.76959825 1.7204202 0.7450996
-0.75655144 1.6904747 0.53740603
-0.74437118 1.6632645 0.34636822
-0.72670138 1.6230344 0.16541041
-0.0080602346 0.047025636 3.9491231
-0.26111656 0.61589593 4.2531252
-0.34683418 0.80788428 4.2503181
-0.54765338 1.2591487 4.4367752
-0.78704911 1.7977918 4.6829863
-1.0281992 2.3398719 4.7510829
-0.95573437 2.1688237 3.5535481
-0.92601192 2.0984173 2.8227355
-0.084231898 0.22737482 4.0326886
-0.16956326 0.41189682 4.1112452
-0.45029283 1.0456219 4.4207153
-0.65641385 1.5107743 4.533627
-0.91376013 2.0922713 4.7845349
-0.9803859 2.2374382 4.0658545
-0.9422127 2.1462662 3.1785588
-0.88902181 2.0212908 2.4721014
-0.86892003 1.9597913 2.1864841
-0.83994448 1.8917863 1.7513751
-0.81567103 1.8362617 1.4019494
-0.79245019 1.7823259 1.1075855
-0.77472401 1.7416499 0.8584674
-0.76079637 1.7095475 0.63995266
-0.74554789 1.6737224 0.43933943
-0.73345125 1.646572 0.25477138
-0.85378546 1.9329466 1.963201
-0.82643491 1.8692757 1.5717366
-0.80810148 1.8269567 1.2595323
-0.78162849 1.7646252 0.97964811
-0.76741451 1.7317306 0.74838662
-0.75458598 1.7019923 0.53975064
-0.74257493 1.6749068 0.34774956
-0.72710848 1.6392617 0.166015
-0.007896035 0.047053486 3.9491231
-0.2589651 0.61680365 4.2531252
-0.34441024 0.8100273 4.2552133
-0.54325485 1.2610528 4.4367752
-0.77999175 1.798736 4.6783843
-1.0324503 2.371995 4.8081408
-0.95716339 2.1927791 3.5866117
-0.92766756 2.1221955 2.8495982
-0.083437704 0.22766745 4.0326886
-0.16832517 0.41298002 4.1162167
-0.44466835 1.0425621 4.4013577
-0.65113628 1.5130563 4.533627
-0.90731525 2.0974462 4.7890358
-0.98087609 2.2599864 4.0999818
-0.9407227 2.1633587 3.1985087
-0.89008474 2.04303 2.4941523
-0.86780983 1.9758731 2.2005022
-0.84117085 1.9125217 1.7670673
-0.81262434 1.8467523 1.4074323
-0.79158038 1.7972432 1.114542
-0.77424783 1.7570707 0.86408657
-0.75869441 1.7209716 0.64277273
-0.74565029 1.6897972 0.44213733
-0.73373049 1.6627904 0.25611261
-0.85301936 1.9495978 1.976503
-0.82639068 1.8869592 1.5835092
-0.80863917 1.8455603 1.269665
-0.78093469 1.7798111 0.9859423
-0.76516104 1.7430466 0.75167364
-0.75450385 1.7179669 0.54326761
-0.74070644 1.6865568 0.34913093
-0.72741103 1.6555114 0.1666196
-0.0077317399 0.047080759 3.9491231
-0.25651249 0.61698622 4.2481861
-0.34197551 0.81216305 4.2601085
-0.53884959 1.2629414 4.4367752
-0.77447909 1.8032426 4.6829863
-1.0241642 2.3755846 4.8081408
-0.95843685 2.2167706 3.6196752
-0.92789483 2.1430693 2.8726232
-0.082642481 0.22795731 4.0326886
-0.16688257 0.41356507 4.1162167
-0.43907076 1.039476 4.382
-0.64652723 1.5169075 4.5383196
-0.90084553 2.1026015 4.7935371
-0.98740011 2.2969413 4.1597052
-0.93793297 2.1776996 3.214469
-0.88966346 2.0616882 2.5125282
-0.86802047 1.9952414 2.218025
-0.84070796 1.9297198 1.7796211
-0.81118506 1.861077 1.4156566
-0.79061604 1.8121762 1.1214983
-0.77367318 1.7725089 0.86970562
-0.75844169 1.736798 0.64700282
-0.74368209 1.7013918 0.44400257
-0.73191088 1.6744678 0.25700676
-0.8521474 1.9662671 1.9898051
-0.82784134 1.908373 1.5982249
-0.8073405 1.860235 1.2772646
-0.78014416 1.7950134 0.99223644
-0.76472086 1.7586983 0.75660414
-0.75238025 1.7295043 0.54561222
-0.73679018 1.6936731 0.3498216
-0.72760898 1.6717831 0.16722418
-0.0075673508 0.047107462 3.9491231
-0.25435725 0.61787784 4.2481861
-0.33953005 0.81429166 4.2650032
-0.53443784 1.2648146 4.4367752
-0.76817983 1.805935 4.6829863
-1.0205678 2.3901584 4.8300862
-0.95844668 2.2382107 3.6486058
-0.92798764 2.16397 2.895648
-0.08184626 0.22824441 4.0326886
-0.16543795 0.41414508 4.1162167
-0.4335002 1.0363637 4.3626423
-0.64122832 1.519155 4.5383196
-0.89350063 2.1057334 4.7935371
-0.99163496 2.3291695 4.2108965
-0.93505448 2.1920466 3.2304289
-0.89045495 2.0834856 2.5345793
-0.86951762 2.0179102 2.2390523
-0.84013522 1.946938 1.7921749
-0.80965567 1.8754143 1.4238811
-0.79131413 1.8311905 1.1307735
-0.77300036 1.7879647 0.87532473
-0.75808758 1.7526435 0.65123296
-0.74359363 1.7175012 0.44680041
-0.73001856 1.6861526 0.25790092
-0.85116941 1.9829539 2.0031071
-0.82755727 1.9261065 1.6099977
-0.80765158 1.8788837 1.2873973
-0.77925712 1.8102319 0.99853063
-0.76231289 1.7700312 0.75989115
-0.75210875 1.7455118 0.54912919
-0.73675239 1.7098784 0.35189366
-0.72770208 1.6880761 0.16782878
-0.0074028685 0.047133591 3.9491231
-0.2521989 0.61876196 4.2481861
-0.33862725 0.82017809 4.2894797
-0.52944356 1.2652955 4.4320035
-0.76262963 1.810406 4.6875892
-1.0150163 2.4003239 4.8432536
-0.96051562 2.264859 3.6858025
-0.92794579 2.1848977 2.918673
-0.08104904 0.22852871 4.0326886
-0.1639913 0.41472006 4.1162167
-0.43036076 1.039032 4.3674817
-0.63658696 1.5229763 4.5430121
-0.88951772 2.1168673 4.811542
-0.99464345 2.3590519 4.257822
-0.93091476 2.2036247 3.2423992
-0.88978368 2.1021914 2.5529552
-0.87086707 2.0406137 2.2600796
-0.83945239 1.9641755 1.8047289
-0.80803603 1.8897634 1.4321055
-0.79014623 1.8461591 1.13773
-0.77222878 1.8034369 0.88094378
-0.75574315 1.764098 0.65405303
-0.74146581 1.7291157 0.44866565
-0.73001623 1.7024213 0.25924215
-0.85154593 2.003094 2.0197346
-0.82715911 1.9438605 1.6217704
-0.80784225 1.8975568 1.2975299
-0.77827317 1.8254657 1.0048248
-0.76168776 1.7857121 0.76482171
-0.75173455 1.7615383 0.5526461
-0.73466665 1.7215489 0.35327503
-0.72769028 1.7043902 0.16843337
-0.0072382963 0.047159143 3.9491231
-0.24974704 0.61891788 4.2432466
-0.33807257 0.82701075 4.318851
-0.52559483 1.2685149 4.4367752
-0.75630552 1.8130571 4.6875892
-1.0103316 2.412689 4.8608098
-0.96132046 2.2889543 3.7188659
-0.92652637 2.2028964 2.9378607
-0.080250837 0.22881022 4.0326886
-0.16254267 0.41528994 4.1162167
-0.42673126 1.0405278 4.3674817
-0.63192672 1.5267838 4.5477052
-0.88379562 2.1239793 4.8205447
-0.99846011 2.3913901 4.3090129
-0.92786837 2.2179801 3.2583592
-0.89030308 2.1240444 2.575006
-0.87206835 2.0633507 2.2811067
-0.84017652 1.9850162 1.8204211
-0.80632591 1.9041237 1.4403298
-0.78888321 1.8611414 1.1446863
-0.77135873 1.8189256 0.88656294
-0.75520146 1.7799734 0.65828311
-0.74118596 1.7452575 0.45146352
-0.72796249 1.7141266 0.26013631
-0.85034347 2.0198193 2.0330365
-0.8266471 1.9616354 1.633543
-0.80791223 1.9162539 1.3076627
-0.77719229 1.8407147 1.0111189
-0.76096237 1.8014101 0.76975226
-0.74936539 1.773106 0.55499077
-0.73250836 1.7332258 0.3546564
-0.72757328 1.7207242 0.16903797
-0.0070736362 0.047184121 3.9491231
-0.24758507 0.6197859 4.2432466
-0.33709246 0.83290535 4.343327
-0.5211637 1.2703419 4.4367752
-0.75071794 1.8174918 4.6921916
-1.0046555 2.422838 4.8739772
-0.96088833 2.3104844 3.7477968
-0.92622483 2.2238703 2.9608858
-0.079451643 0.22908896 4.0326886
-0.16089997 0.41535753 4.1112452
-0.42309654 1.0420111 4.3674817
-0.62724769 1.5305772 4.5523982
-0.88798511 2.1552308 4.8835616
-0.99907368 2.4165521 4.3474059
-0.93165171 2.2490444 3.2982595
-0.89068055 2.1459262 2.5970571
-0.8731215 2.0861208 2.302134
-0.83926076 2.0022957 1.8329749
-0.80614245 1.9223511 1.4512957
-0.78752524 1.8761376 1.1516428
-0.77038974 1.83443 0.89218199
-0.75455803 1.7958663 0.6625132
-0.74080247 1.7614185 0.45426136
-0.72776651 1.7304289 0.26147756
-0.85047108 2.0400066 2.049664
-0.82757753 1.98316 1.6482587
-0.80620062 1.9309964 1.3152622
-0.7777651 1.8601654 1.0195111
-0.7619589 1.8214809 0.7763263
-0.74880111 1.7891624 0.55850768
-0.73027748 1.7449086 0.35603774
-0.72735119 1.7370784 0.16964257
-0.0069088899 0.047208525 3.9491231
-0.24513471 0.61992365 4.2383075
-0.33607531 0.83880335 4.3678031
-0.51728779 1.2735363 4.4415474
-0.74436915 1.8201013 4.6921916
-0.99801117 2.4307613 4.8827553
-0.96138883 2.334641 3.7808604
-0.92578799 2.244869 2.9839108
-0.078651495 0.2293649 4.0326886
-0.15944912 0.41591665 4.1112452
-0.41945666 1.0434816 4.3674817
-0.62254989 1.5343565 4.5570908
-0.88456756 2.168396 4.9060674
-0.99952376 2.4417479 4.3857994
-0.93408602 2.277374 3.3341696
-0.89220464 2.1709721 2.6227832
-0.87266093 2.1056287 2.3196568
-0.83823436 2.0195932 1.8455287
-0.80744493 1.9444621 1.4650031
-0.78607219 1.8911467 1.1585991
-0.76932186 1.8499496 0.8978011
-0.75381285 1.8117764 0.66674334
-0.73842657 1.7730629 0.4561266
-0.72555089 1.7421532 0.26237172
-0.85046822 2.0602195 2.0662916
-0.82528067 1.9972439 1.6570883
-0.80604285 1.949734 1.3253949
-0.77647543 1.8754491 1.0258054
-0.76101732 1.8372176 0.78125679
-0.74627298 1.8007458 0.56085235
-0.72986978 1.7611713 0.35810977
-0.72702366 1.7534517 0.17024715
-0.0067440588 0.047232356 3.9491231
-0.24296929 0.62077552 4.2383075
-0.33427081 0.84281111 4.3824892
-0.51283914 1.2753342 4.4415474
-0.73801124 1.8226885 4.6921916
-0.99132383 2.4386675 4.8915334
-0.96173239 2.358829 3.8139238
-0.92642748 2.2688589 3.0107732
-0.077850379 0.22963805 4.0326886
-0.15799633 0.41647071 4.1112452
-0.41581169 1.0449394 4.3674817
-0.61847633 1.5397229 4.5664763
-0.88514447 2.1916564 4.9510798
-0.9998101 2.4669759 4.4241929
-0.93746746 2.3085394 3.3740702
-0.89356476 2.1960547 2.6485093
-0.87207454 2.1251583 2.3371794
-0.83857691 2.0405076 1.861221
-0.8070128 1.962738 1.475969
-0.78620976 1.9102648 1.1678745
-0.76992011 1.8697709 0.90529323
-0.75296569 1.8277028 0.67097336
-0.73785102 1.7892536 0.45892447
-0.72516078 1.7584869 0.26371297
-0.85174704 2.0839133 2.0862446
-0.82442588 2.0150764 1.6688609
-0.80413103 1.9645045 1.3329945
-0.77680993 1.8949457 1.0341976
-0.76176703 1.8573388 0.78783083
-0.74551815 1.8168302 0.56436926
-0.7293573 1.7774523 0.36018181
-0.72659057 1.7698437 0.17085175
-0.0065791463 0.047255609 3.9491231
-0.24052055 0.62089527 4.2333684
-0.33244237 0.84681642 4.3971748
-0.50948817 1.2798905 4.4510913
-0.73091757 1.82344 4.6875892
-0.98459345 2.4465568 4.9003115
-0.96191847 2.3830473 3.8469875
-0.92691058 2.2928803 3.0376358
-0.077048317 0.22990841 4.0326886
-0.1565416 0.41701967 4.1112452
-0.41216162 1.0463846 4.3674817
-0.61501038 1.5466832 4.5805545
-0.88314545 2.2088823 4.9825883
-1.0009034 2.4946561 4.4668527
-0.93951851 2.3369598 3.4099801
-0.89602715 2.2243176 2.6779106
-0.87136251 2.1447096 2.3547022
-0.83731681 2.0578437 1.8737749
-0.80646276 1.9810345 1.4869348
-0.78622341 1.9294069 1.1771495
-0.76863921 1.8853257 0.91091239
-0.75201654 1.8436455 0.6752035
-0.73717141 1.8054618 0.46172231
-0.72278297 1.7702284 0.2646071
-0.85147017 2.1041794 2.1028721
-0.82497412 2.0366738 1.6835767
-0.80212593 1.9792852 1.3405941
-0.77701771 1.9144672 1.0425898
-0.76060891 1.8731123 0.79276139
-0.74466008 1.8329309 0.56788623
-0.7287401 1.7937512 0.36225384
-0.72417068 1.7816256 0.17125481
-0.0064141531 0.047278285 3.9491231
-0.23835178 0.6217311 4.2333684
-0.33022144 0.84987003 4.4069648
-0.5050174 1.2816612 4.4510913
-0.7245481 1.8259803 4.6875892
-0.97604734 2.4499788 4.9003115
-0.96299136 2.409909 3.8841841
-0.92604637 2.313957 3.0606608
-0.076245323 0.23017596 4.0326886
-0.15508498 0.41756356 4.1112452
-0.40850654 1.0478169 4.3674817
-0.61150348 1.553638 4.5946331
-0.88584298 2.2382662 5.0411043
-1.0008529 2.5199494 4.5052462
-0.9402684 2.3626227 3.4419003
-0.89830291 2.2526238 2.7073119
-0.87052453 2.1642814 2.372225
-0.8373999 2.0788059 1.8894671
-0.80735779 2.0032291 1.5006422
-0.78611284 1.9485722 1.1864247
-0.76899403 1.9051929 0.91840452
-0.75096518 1.8596036 0.67943364
-0.73638755 1.8216866 0.46452022
-0.72219831 1.7865915 0.26594836
-0.85106206 2.1244688 2.1194994
-0.82387722 2.0545478 1.6953493
-0.80002725 1.9940757 1.3481935
-0.77540642 1.9298016 1.0488838
-0.75934976 1.8889 0.79769188
-0.74369866 1.8490478 0.57140321
-0.72801793 1.8100673 0.36432588
-0.72354233 1.7980467 0.1718594
-0.0062490823 0.047300391 3.9491231
-0.23590477 0.62183261 4.2284288
-0.32798332 0.85291845 4.4167557
-0.50108272 1.2848068 4.455863
-0.71888399 1.8303168 4.6921916
-0.96836787 2.4555991 4.9047008
-0.96285331 2.4341898 3.9172478
-0.92622662 2.3380349 3.0875232
-0.07544139 0.23044069 4.0326886
-0.15362647 0.41810235 4.1112452
-0.40484652 1.0492364 4.3674817
-0.60670274 1.557371 4.5993257
-0.87881863 2.2433717 5.0456057
-1.001592 2.5476999 4.547905
-0.94085062 2.3883193 3.4738207
-0.89914721 2.2778194 2.7330382
-0.86956036 2.1838732 2.3897476
-0.83734697 2.0997937 1.9051595
-0.8081075 2.0254538 1.5143495
-0.78587788 1.9677596 1.1956999
-0.76749933 1.9207805 0.92402357
-0.74981141 1.8755765 0.68366367
-0.73367429 1.8333672 0.46638545
-0.7215082 1.8029722 0.26728958
-0.85052264 2.1447809 2.136127
-0.82266545 2.0724387 1.707122
-0.79624397 2.0048687 1.3532599
-0.77537495 1.9493653 1.057276
-0.7579897 1.9047017 0.80262244
-0.7426337 1.86518 0.57492018
-0.72535878 1.821799 0.36570725
-0.72280812 1.8144852 0.172464
-0.006083935 0.047321916 3.9491231
-0.23373273 0.62265229 4.2284288
-0.32536599 0.85500985 4.4216509
-0.49713218 1.2879407 4.4606352
-0.7131983 1.834636 4.6967945
-0.95979041 2.4589641 4.9047008
-0.96358329 2.4611194 3.9544442
-0.92507994 2.359158 3.1105483
-0.074636549 0.23070262 4.0326886
-0.15216608 0.41863605 4.1112452
-0.40118152 1.0506432 4.3674817
-0.59878016 1.5530386 4.5805545
-0.87491679 2.2565746 5.0681114
-1.0012039 2.5730555 4.5862985
-0.94126463 2.4140482 3.5057409
-0.89982647 2.3030484 2.7587643
-0.86977762 2.2068026 2.4107749
-0.83715749 2.120806 1.9208517
-0.80871201 2.047708 1.5280569
-0.78714722 1.9910887 1.2072939
-0.76761025 1.9406917 0.93151569
-0.75032037 1.8960242 0.68930382
-0.73269755 1.8496181 0.4691833
-0.72071242 1.8193696 0.26863083
-0.84985173 2.1651151 2.1527545
-0.82133871 2.0903456 1.7188946
-0.79397219 2.0196719 1.3608595
-0.77355355 1.9647291 1.0635703
-0.75652844 1.9205167 0.80755287
-0.74324733 1.8858494 0.57960939
-0.72444224 1.8381413 0.36777928
-0.72013521 1.8262926 0.17286706
-0.0059187133 0.047342863 3.9491231
-0.23128763 0.62273586 4.2234898
-0.3230966 0.85804635 4.4314413
-0.49316594 1.2910628 4.4654074
-0.70819277 1.8407612 4.7059994
-0.9520641 2.4645336 4.9090896
-0.96413678 2.4880831 3.9916406
-0.92379695 2.3803012 3.1335733
-0.073830791 0.23096175 4.0326886
-0.15070383 0.41916469 4.1112452
-0.39751163 1.0520372 4.3674817
-0.59274036 1.553507 4.5758619
-0.86781424 2.2616472 5.0726123
-1.0006508 2.598439 4.624692
-0.94042552 2.4369977 3.5336709
-0.90156311 2.3314714 2.7881656
-0.86984533 2.2297599 2.4318025
-0.83683151 2.1418426 1.9365441
-0.80917072 2.0699906 1.541764
-0.78664887 2.0103252 1.2165691
-0.76759142 1.960627 0.93900776
-0.74894613 1.9120318 0.69353396
-0.7316162 1.8658841 0.47198114
-0.72162879 1.8404194 0.27041915
-0.85040116 2.1889505 2.1727076
-0.819897 2.1082687 1.7306672
-0.7931698 2.0385008 1.3709922
-0.77328223 1.9843324 1.0719625
-0.75668144 1.9407444 0.81412703
-0.74195927 1.9020172 0.58312643
-0.72342056 1.8544995 0.36985135
-0.71920514 1.8427573 0.17347164
-0.0057534203 0.047363233 3.9491231
-0.22911248 0.62353945 4.2234898
-0.32045478 0.86012322 4.4363365
-0.48865631 1.2927763 4.4654074
-0.70245796 1.8450477 4.7106018
-0.9434554 2.4678419 4.9090896
-0.96451378 2.5150807 4.0288372
-0.92007929 2.3954802 3.1489234
-0.073024131 0.23121805 4.0326886
-0.14923976 0.41968819 4.1112452
-0.39383692 1.0534184 4.3674817
-0.58609515 1.5523376 4.5664763
-0.85991442 2.2646627 5.0726123
-0.99807525 2.6189756 4.6545534
-0.93943775 2.4599707 3.5616009
-0.90190047 2.3567679 2.8138916
-0.86976326 2.2527442 2.4528296
-0.83636874 2.1629026 1.9522364
-0.80797499 2.0884018 1.55273
-0.78762555 2.0337131 1.2281631
-0.76576775 1.9762626 0.94462693
-0.74920321 1.9325254 0.69917405
-0.73043013 1.8821651 0.47477901
-0.72240692 1.8614978 0.27220747
-0.84945458 2.209331 2.1893351
-0.81979173 2.1299791 1.7453829
-0.79069644 2.0533254 1.3785917
-0.77288336 2.0039575 1.0803547
-0.75670218 1.9609962 0.82070106
-0.74231791 1.9227334 0.58781564
-0.72229338 1.8708727 0.37192339
-0.71636862 1.8545772 0.17387471
-0.005588057 0.047383029 3.9491231
-0.22693451 0.62433535 4.2234898
-0.31780234 0.86219198 4.4412317
-0.48466346 1.2958724 4.4701791
-0.69739062 1.8511451 4.7198071
-0.93568271 2.4733601 4.9134789
-0.96571231 2.5447421 4.0701666
-0.91740561 2.4136581 3.1681111
-0.072216585 0.23147155 4.0326886
-0.14795025 0.42070961 4.1162167
-0.3901574 1.0547867 4.3674817
-0.58006912 1.5527573 4.5617833
-0.85123849 2.2656128 5.0681114
-0.99812895 2.6468468 4.6972132
-0.93830097 2.4829662 3.5895314
-0.90207219 2.3820951 2.839618
-0.87080395 2.2790861 2.4773614
-0.83576912 2.183985 1.9679285
-0.80815566 2.1107345 1.5664372
-0.78686309 2.0529957 1.2374383
-0.76550412 1.996238 0.95211905
-0.74760777 1.9485649 0.70340413
-0.72913933 1.8984604 0.47757691
-0.72126108 1.8779546 0.27354869
-0.84970373 2.2332211 2.2092881
-0.81810635 2.1479371 1.7571558
-0.79119927 2.0762143 1.3912575
-0.77073848 2.0193639 1.0866488
-0.75659066 1.9812714 0.8272751
-0.74080598 1.9389343 0.59133261
-0.72106051 1.8872602 0.37399539
-0.71524221 1.8710665 0.17447931
-0.0054226248 0.047402248 3.9491231
-0.22449124 0.62439245 4.2185502
-0.31479079 0.86329615 4.4412317
-0.48065487 1.2989562 4.4749508
-0.69160682 1.8553987 4.7244091
-0.92788291 2.4788544 4.9178681
-0.96770447 2.5770764 4.1156292
-0.91235948 2.4258461 3.1796236
-0.071492039 0.23199847 4.0376801
-0.14648078 0.42122349 4.1162167
-0.38647315 1.0561422 4.3674817
-0.57464546 1.5547726 4.5617833
-0.83801562 2.2542865 5.036603
-0.99891168 2.6771934 4.7441382
-0.93701488 2.5059831 3.6174614
-0.90326744 2.4106264 2.8690193
-0.87167138 2.3054626 2.5018933
-0.8350324 2.2050898 1.9836209
-0.80670869 2.1291835 1.5774032
-0.78597564 2.0722976 1.2467135
-0.76511019 2.0162354 0.95961118
-0.7476123 1.9691015 0.70904434
-0.72948873 1.9193612 0.48130739
-0.72177827 1.8990812 0.27533701
-0.84848082 2.2536454 2.2259157
-0.8177309 2.1696913 1.7718714
-0.7900309 2.0950978 1.4013903
-0.77009892 2.0390251 1.095041
-0.75634688 2.0015695 0.83384907
-0.74090898 1.9596946 0.59602183
-0.71972209 1.9036621 0.37606746
-0.71400928 1.88757 0.17508389
-0.0052571273 0.047420885 3.9491231
-0.22205034 0.62444007 4.2136111
-0.31212062 0.8653475 4.4461269
-0.47663072 1.3020279 4.479723
-0.68445033 1.8559687 4.7198071
-0.92005605 2.484324 4.9222569
-0.9694826 2.6094553 4.1610918
-0.9195351 2.4710722 3.2333484
-0.070681773 0.23224662 4.0376801
-0.14500955 0.42173225 4.1162167
-0.38278416 1.0574847 4.3674817
-0.56921476 1.556769 4.5617833
-0.82037419 2.2306368 4.9780869
-1.0040102 2.7198102 4.8123932
-0.93244326 2.5205431 3.6334214
-0.90309596 2.4360163 2.8947453
-0.87111545 2.3285322 2.5229206
-0.83415836 2.2262151 1.9993131
-0.8051427 2.1476479 1.588369
-0.78496283 2.0916181 1.2559887
-0.76458591 2.0362542 0.9671033
-0.74579537 1.9851711 0.71327436
-0.72797185 1.9356894 0.4841052
-0.7221567 1.9202341 0.27712533
-0.84842885 2.2775867 2.2458684
-0.81721348 2.1914687 1.7865874
-0.79024708 2.118037 1.4140562
-0.76774269 2.0544548 1.1013352
-0.75431663 2.0174668 0.83877957
-0.73917294 1.9759264 0.5995388
-0.71827793 1.9200773 0.37813953
-0.71266985 1.9040878 0.17568849
-0.0050915652 0.047438946 3.9491231
-0.21986929 0.62521136 4.2136111
-0.30909809 0.86643165 4.4461269
-0.47259101 1.3050872 4.4844952
-0.67729813 1.8565112 4.7152042
-0.91137862 2.4875205 4.9222569
-0.97104627 2.6418774 4.2065539
-0.91090381 2.4742668 3.2333484
-0.069870643 0.23249193 4.0376801
-0.14353655 0.42223585 4.1162167
-0.37909052 1.0588145 4.3674817
-0.56377721 1.5587466 4.5617833
-0.79695451 2.1905253 4.8835616
-1.0106122 2.7673953 4.8891802
-0.94020778 2.5690582 3.6972618
-0.90392542 2.4646165 2.9241467
-0.87040913 2.3516262 2.5439477
-0.83314699 2.2473617 2.0150054
-0.80345744 2.166127 1.5993348
-0.78228271 2.1068039 1.2629452
-0.76231676 2.0519478 0.97272241
-0.74554658 2.0057483 0.71891451
-0.72806293 1.9566342 0.48783568
-0.72065961 1.9367453 0.27846655
-0.84821993 2.3015549 2.2658215
-0.81795293 2.2170613 1.8042463
-0.78881997 2.1369588 1.424189
-0.76686198 2.0741498 1.1097274
-0.75382292 2.0378032 0.8453536
-0.73901963 1.9967284 0.60422808
-0.71844667 1.9411497 0.38090223
-0.71122366 1.9206189 0.17629308
-0.0049259416 0.047456432 3.9491231
-0.21743065 0.62524104 4.208672
-0.30607179 0.86750537 4.4461269
-0.4690389 1.3095397 4.4940395
-0.67015046 1.8570263 4.7106018
-0.90268993 2.4906867 4.9222569
-0.97239536 2.6743424 4.2520161
-0.91981012 2.5256197 3.2947488
-0.069058672 0.2327344 4.0376801
-0.14206178 0.42273432 4.1162167
-0.37539226 1.0601313 4.3674817
-0.55833268 1.5607049 4.5617833
-0.79446274 2.2076325 4.9150701
-1.0062623 2.7856236 4.9147758
-0.94149101 2.6006579 3.7371624
-0.90456611 2.4932523 2.953548
-0.86955214 2.3747432 2.564975
-0.83333826 2.272182 2.0338361
-0.80165309 2.1846204 1.6103007
-0.77950609 2.1219959 1.2699015
-0.76154649 2.0720017 0.98021454
-0.7451632 2.0263476 0.72455466
-0.7280165 1.9776027 0.49156618
-0.71905595 1.9532692 0.27980781
-0.84785408 2.3255496 2.2857745
-0.81713766 2.2388878 1.818962
-0.7887488 2.159946 1.4368547
-0.76741201 2.0981262 1.1202177
-0.75319642 2.0581605 0.8519277
-0.73705888 2.0129888 0.60774505
-0.71677428 1.9575961 0.38297427
-0.70795226 1.9324719 0.17669614
-0.0047602579 0.047473338 3.9491231
-0.21524683 0.62599617 4.208672
-0.30304176 0.86856848 4.4461269
-0.46645802 1.3167974 4.5131273
-0.6636641 1.8593543 4.7106018
-0.89883906 2.5073497 4.9485912
-0.97257721 2.7042003 4.2933459
-0.92076468 2.5559545 3.3292859
-0.068245858 0.23297405 4.0376801
-0.14075284 0.42373362 4.1211877
-0.37210464 1.0626216 4.3723211
-0.5534569 1.5642715 4.5664763
-0.78894156 2.2165451 4.9285736
-1.0123262 2.8333268 4.9915624
-0.94764346 2.6464818 3.7970126
-0.90501785 2.5219221 2.9829493
-0.86854416 2.3978825 2.5860023
-0.83203888 2.2933719 2.0495286
-0.79972923 2.2031274 1.6212666
-0.77663296 2.1371944 1.276858
-0.76064545 2.0920749 0.98770666
-0.7430051 2.0424607 0.72878474
-0.7278325 1.9985949 0.49529666
-0.71904963 1.9744847 0.28159612
-0.84606427 2.3460569 2.302402
-0.81618005 2.2607358 1.8336779
-0.78852683 2.1829579 1.4495207
-0.76625985 2.1178632 1.1286099
-0.75082952 2.0740974 0.85685819
-0.7366488 2.0338299 0.61243433
-0.71668214 1.9787103 0.38573697
-0.70630878 1.9490223 0.17730074
-0.004594516 0.047489665 3.9491231
-0.21281064 0.62600797 4.2037325
-0.30033991 0.87058359 4.4510221
-0.46383214 1.3240528 4.5322151
-0.65716976 1.8616595 4.7106018
-0.89488286 2.5240161 4.974926
-0.97256225 2.7340918 4.3346758
-0.92367017 2.592366 3.3714988
-0.067432217 0.23321085 4.0376801
-0.13927288 0.42422238 4.1211877
-0.36839315 1.0639139 4.3723211
-0.54856306 1.5678228 4.5711689
-0.78481323 2.229553 4.9510798
-1.0067743 2.8491385 5.0128922
-0.94544065 2.6696563 3.8249426
-0.90528035 2.5506251 3.0123508
-0.86738533 2.4210439 2.6070297
-0.83191633 2.3182437 2.0683591
-0.79909897 2.2255828 1.634974
-0.77516145 2.1565671 1.2861332
-0.75961351 2.1121669 0.99519879
-0.74236768 2.0630968 0.73442489
-0.72584605 2.0149879 0.49809453
-0.71721619 1.9910382 0.28293735
-0.84539586 2.3700964 2.322355
-0.81507981 2.2826042 1.8483937
-0.78670335 2.2019353 1.4596534
-0.76497912 2.1376178 1.137002
-0.74995226 2.0944889 0.86343223
-0.73610198 2.054692 0.6171236
-0.71645135 1.9998477 0.38849968
-0.70455837 1.9655849 0.17790534
-0.0044287178 0.047505412 3.9491231
-0.21062416 0.62674701 4.2037325
-0.29729918 0.87162668 4.4510221
-0.46116126 1.331306 4.5513029
-0.65066731 1.8639421 4.7106018
-0.89161354 2.5429451 5.0056496
-0.97235036 2.7640157 4.3760047
-0.92526728 2.6258049 3.4098735
-0.066695817 0.23372275 4.0426717
-0.13779122 0.42470592 4.1211877
-0.36467713 1.0651934 4.3723211
-0.54308695 1.569728 4.5711689
-0.78060371 2.242559 4.9735861
-1.003705 2.8723321 5.0470195
-0.94408345 2.6956916 3.8568628
-0.90423059 2.5761616 3.0380769
-0.86607516 2.4442255 2.628057
-0.83293188 2.3468103 2.0903282
-0.79832149 2.2480605 1.6486813
-0.7735641 2.1759553 1.2954084
-0.76000392 2.1366444 1.0045639
-0.74159521 2.0837531 0.74006504
-0.72540253 2.0360188 0.50182498
-0.7169472 2.0122941 0.28472567
-0.84208584 2.3871176 2.3356571
-0.81518257 2.3083036 1.8660526
-0.78619307 2.2249908 1.4723194
-0.76508403 2.1616673 1.1474924
-0.75051802 2.1193504 0.8716498
-0.73541862 2.0755754 0.62181288
-0.71608162 2.0210073 0.39126241
-0.70270091 1.9821587 0.17850992
-0.0042628665 0.047520585 3.9491231
-0.2084351 0.62747842 4.2037325
-0.29490504 0.87458909 4.4608126
-0.45892885 1.3399687 4.5751624
-0.6454317 1.8698957 4.7198071
-0.88665396 2.5573564 5.027595
-0.97101688 2.7913134 4.4132013
-0.92769682 2.6623135 3.4520864
-0.065879568 0.23395413 4.0426717
-0.13630788 0.42518431 4.1211877
-0.36095673 1.0664599 4.3723211
-0.53816265 1.573247 4.5758619
-0.77489609 2.2514453 4.9870896
-1.0004859 2.8955383 5.0811467
-0.94354194 2.724597 3.8927729
-0.90412498 2.6049242 3.0674782
-0.86815149 2.4775243 2.6595979
-0.83246917 2.3717399 2.1091592
-0.79739678 2.2705598 1.6623886
-0.77184081 2.1953588 1.3046836
-0.76023281 2.1611507 1.0139291
-0.74228007 2.108954 0.74711519
-0.72482097 2.0570707 0.50555545
-0.71488357 2.0288754 0.28606692
-0.84112662 2.411195 2.3556101
-0.81378317 2.330215 1.8807683
-0.78553128 2.2480688 1.4849851
-0.76503021 2.1857433 1.1579826
-0.74935853 2.1397846 0.87822384
-0.73459828 2.0964785 0.62650216
-0.71393532 2.0375152 0.39333448
-0.70073628 1.9987433 0.17911452
-0.004096962 0.047535174 3.9491231
-0.20624353 0.6282022 4.2037325
-0.29249382 0.87754518 4.470603
-0.45568448 1.3458043 4.589479
-0.63953143 1.8739861 4.7244091
-0.88393426 2.5785604 5.0627074
-0.97499579 2.8346014 4.4751954
-0.92988253 2.6988699 3.4942987
-0.065138645 0.23446113 4.0476632
-0.13482288 0.42565754 4.1211877
-0.35723189 1.0677134 4.3723211
-0.53266776 1.575116 4.5758619
-0.76422757 2.2458928 4.9690847
-0.99880314 2.9236932 5.1238065
-0.93890572 2.7421279 3.9127231
-0.90382957 2.6337173 3.0968795
-0.86883831 2.5074975 2.6876342
-0.83184236 2.3966939 2.12799
-0.79769623 2.2970295 1.6788374
-0.77144599 2.2189605 1.3162776
-0.7602998 2.1856844 1.0232943
-0.74122119 2.1296544 0.75275534
-0.72410119 2.0781434 0.50928593
-0.71271276 2.0454664 0.28740814
-0.84487927 2.4494133 2.388865
-0.81355995 2.3559651 1.8984272
-0.78471792 2.2711699 1.4976511
-0.7648176 2.2098451 1.1684729
-0.74961048 2.1646981 0.88644135
-0.73523211 2.1219935 0.63236368
-0.71168244 2.0540326 0.39540651
-0.69866425 2.0153379 0.17971911
-0.0039310092 0.047549184 3.9491231
-0.20404944 0.62891823 4.2037325
-0.29006556 0.88049519 4.4803934
-0.44956303 1.3431399 4.5751624
-0.63361061 1.8780583 4.729012
-0.87646544 2.5861671 5.071486
-0.97687238 2.872622 4.528924
-0.93182427 2.7354743 3.5365114
-0.064319819 0.23468708 4.0476632
-0.13317755 0.42561671 4.1162167
-0.35350266 1.0689539 4.3723211
-0.5277133 1.5786023 4.5805545
-0.75221932 2.2361665 4.9420772
-0.98859143 2.9271617 5.1238065
-0.94285351 2.7853475 3.9685836
-0.90334404 2.6625397 3.1262808
-0.87048203 2.540879 2.7191751
-0.83105141 2.4216723 2.1468205
-0.79782063 2.3235288 1.6952862
-0.76945567 2.2383964 1.3255527
-0.76020443 2.2102442 1.0326594
-0.74158764 2.1549084 0.75980544
-0.72484308 2.1038799 0.5139491
-0.71205705 2.0667756 0.28919646
-0.84837538 2.4876873 2.4221201
-0.8131668 2.3817422 1.9160864
-0.78375274 2.2942917 1.510317
-0.7644459 2.2339718 1.1789632
-0.74816811 2.1851718 0.89301538
-0.7341215 2.1429403 0.63705301
-0.71092772 2.0752435 0.39816925
-0.69810486 2.0366685 0.18052523
-0.0037650072 0.047562618 3.9491231
-0.20185287 0.62962669 4.2037325
-0.28793523 0.8844071 4.495079
-0.44159096 1.3347806 4.541759
-0.62828702 1.8839654 4.7382174
-0.86971474 2.5960233 5.0846529
-0.97939199 2.9133577 4.5867853
-0.93352157 2.7721245 3.5787239
-0.063500211 0.23491016 4.0476632
-0.13169107 0.42607901 4.1162167
-0.3501595 1.0713762 4.3771605
-0.52219975 1.5804348 4.5805545
-0.73479402 2.2098579 4.8790607
-0.98167104 2.9404902 5.1408701
-0.94364244 2.8200543 4.0124736
-0.90374619 2.6946046 3.1593573
-0.87190318 2.5743022 2.750716
-0.83009619 2.4466746 2.1656513
-0.79776967 2.3500569 1.711735
-0.76876444 2.2620399 1.3371466
-0.76143944 2.239219 1.0438976
-0.74178678 2.180191 0.76685566
-0.72383016 2.1249969 0.51767957
-0.70965534 2.0833905 0.29053769
-0.8551926 2.5366292 2.4653516
-0.81260347 2.4075446 1.9337454
-0.78401494 2.3215189 1.5255162
-0.76536942 2.2624216 1.1915514
-0.74810582 2.2101347 0.90123296
-0.73287344 2.1639049 0.64174229
-0.71003342 2.0964737 0.40093195
-0.69740498 2.0580196 0.18133135
-0.0035975056 0.047619078 3.9541228
-0.19965383 0.63032746 4.2037325
-0.28546953 0.88734555 4.5048699
-0.435074 1.3306384 4.5226707
-0.62170696 1.8861471 4.7382174
-0.86215323 2.6035905 5.093431
-0.98075157 2.9514747 4.6405139
-0.93497419 2.8088193 3.6209364
-0.062606633 0.23485115 4.0426717
-0.13020296 0.42653608 4.1162167
-0.34641755 1.0725919 4.3771605
-0.51721537 1.5838884 4.585247
-0.72231865 2.1979322 4.8475518
-0.96976644 2.9389455 5.132338
-0.94420034 2.8548005 4.0563641
-0.90393525 2.7267041 3.1924336
-0.87310141 2.6077659 2.7822568
-0.8277387 2.4680088 2.1813436
-0.79754305 2.3766124 1.7281839
-0.76509601 2.2773073 1.3441031
-0.76100421 2.263835 1.0532628
-0.74181831 2.2055008 0.77390575
-0.72424626 2.1507876 0.52234262
-0.70555711 2.095294 0.29143184
-0.85341543 2.5608525 2.4853046
-0.81186986 2.433372 1.9514043
-0.78409648 2.3487756 1.5407152
-0.76610351 2.290905 1.2041397
-0.74787837 2.2351234 0.90945053
-0.73303103 2.1894956 0.64760381
-0.70899957 2.117723 0.40369466
-0.69497758 2.0746534 0.18193595
-0.0034312622 0.047631346 3.9541228
-0.19722062 0.63027883 4.1987934
-0.28298679 0.89027745 4.5146599
-0.42721501 1.3222059 4.4892673
-0.61572421 1.8901632 4.7428193
-0.85454959 2.6111369 5.1022091
-0.98097891 2.9869628 4.6901093
-0.93618202 2.8455577 3.6631491
-0.061786469 0.23506826 4.0426717
-0.12886663 0.42749849 4.1211877
-0.34305334 1.0749921 4.382
-0.51221323 1.5873265 4.5899401
-0.71598679 2.2045813 4.8565545
-0.96031034 2.9447923 5.1366043
-0.94639933 2.895313 4.1082344
-0.90496671 2.7620595 3.2291853
-0.87519705 2.6446548 2.8173025
-0.82646722 2.4930508 2.2001743
-0.7971406 2.4031947 1.7446326
-0.76831049 2.3135962 1.3626535
-0.761868 2.2928739 1.064501
-0.74016869 2.226285 0.7795459
-0.72293973 2.171946 0.52607316
-0.70295715 2.1119194 0.2927731
-0.85031134 2.5815475 2.5019321
-0.81223148 2.4630618 1.9720063
-0.78534776 2.3801544 1.5584474
-0.76807219 2.3237298 1.2188261
-0.74748534 2.2601368 0.91766804
-0.73149186 2.2104993 0.65229309
-0.70782596 2.1389904 0.40645739
-0.69401276 2.0960371 0.18274207
-0.0032649764 0.047643032 3.9541228
-0.19501935 0.63096339 4.1987934
-0.27957258 0.89028829 4.5097647
-0.42259705 1.3236891 4.4892673
-0.60912257 1.892301 4.7428193
-0.84616673 2.6163826 5.1065984
-0.98183882 3.0251646 4.7438374
-0.93615335 2.8792899 3.701524
-0.060965553 0.23528251 4.0426717
-0.12737361 0.4279457 4.1211877
-0.33929881 1.076183 4.382
-0.50666934 1.5891049 4.5899401
-0.70629162 2.2008486 4.843051
-0.9500252 2.9481263 5.1366043
-0.94740081 2.9330075 4.1561146
-0.90576226 2.7974551 3.2659371
-0.87593704 2.6781998 2.8488433
-0.8226071 2.5107157 2.2127283
-0.79656231 2.4298029 1.7610815
-0.77128088 2.3499355 1.3812039
-0.76109195 2.3175421 1.0738662
-0.7398805 2.2516418 0.78659606
-0.72149414 2.1931214 0.52980363
-0.70180589 2.1332827 0.29456142
-0.8470732 2.602252 2.5185597
-0.81239569 2.4927838 1.9926084
-0.78505313 2.4074714 1.5736464
-0.76841182 2.352282 1.2314144
-0.74692678 2.2851751 0.92588562
-0.73132581 2.2361383 0.65815473
-0.70805174 2.1649816 0.40991077
-0.69290715 2.1174397 0.1835482
-0.0030986515 0.047654141 3.9541228
-0.19281569 0.63164032 4.1987934
-0.27646318 0.89125878 4.5097647
-0.41797391 1.3251562 4.4892673
-0.60251349 1.8944156 4.7428193
-0.83775759 2.6216016 5.1109872
-0.97986603 3.0553694 4.7851667
-0.93492031 2.9100049 3.7360616
-0.060143892 0.23549388 4.0426717
-0.12587902 0.42838773 4.1211877
-0.33554018 1.0773609 4.382
-0.5011192 1.5908638 4.5899401
-0.7025522 2.2157514 4.8700581
-0.94051975 2.9539099 5.1408701
-0.95089889 2.9793561 4.2159653
-0.90632153 2.8328891 3.3026886
-0.87755013 2.7151754 2.883889
-0.82582718 2.5506024 2.2441127
-0.79709655 2.4604139 1.7802718
-0.77400678 2.386323 1.3997543
-0.7601527 2.3422322 1.0832313
-0.7379427 2.2724612 0.79223621
-0.71990943 2.2143128 0.53353411
-0.69897413 2.1499271 0.29590264
-0.84141421 2.6158564 2.5285361
-0.81112313 2.5186887 2.0102675
-0.78589934 2.4389186 1.5913787
-0.76298445 2.3635881 1.2356106
-0.74620241 2.310236 0.93410313
-0.73098946 2.2618029 0.66401625
-0.70810455 2.1910005 0.41336417
-0.6916604 2.1388597 0.18435432
-0.0029322887 0.047664665 3.9541228
-0.19060968 0.6323095 4.1987934
-0.27335045 0.89221841 4.5097647
-0.41378963 1.3280324 4.4940395
-0.59589708 1.8965073 4.7428193
-0.82932234 2.6267939 5.1153765
-0.98024404 3.0936451 4.8388948
-0.9344539 2.9438012 3.7744367
-0.0593215 0.23570238 4.0426717
-0.12453091 0.42933661 4.1261597
-0.33214685 1.0797271 4.3868394
-0.49556303 1.5926033 4.5899401
-0.69546419 2.2202678 4.8745594
-0.93098545 2.9596629 5.1451364
-0.95317858 3.0228903 4.2718253
-0.90766609 2.8715937 3.3431156
-0.87891549 2.7521944 2.9189341
-0.82759273 2.5868349 2.2723589
-0.79615188 2.4870758 1.7967205
-0.77648801 2.4227581 1.4183048
-0.75905037 2.3669436 1.0925965
-0.73586833 2.2932937 0.79787636
-0.71968794 2.2401962 0.53819716
-0.69755799 2.1713192 0.29769096
-0.84358644 2.6543615 2.5617909
-0.8109051 2.5484669 2.0308697
-0.78522772 2.4662929 1.6065778
-0.75886667 2.3792086 1.2419046
-0.74531215 2.3353202 0.9423207
-0.72900432 2.2828619 0.66870558
-0.70798433 2.2170458 0.41681761
-0.69027257 2.1602967 0.18516044
-0.0027658902 0.047674611 3.9541228
-0.18840134 0.63297105 4.1987934
-0.27023435 0.89316714 4.5097647
-0.40915141 1.3294686 4.4940395
-0.58927339 1.8985758 4.7428193
-0.81800908 2.6228137 5.1022091
-0.97364217 3.1104758 4.85956
-0.92992657 2.9653955 3.7974615
-0.058498383 0.23590802 4.0426717
-0.12303147 0.42976868 4.1261597
-0.32837588 1.0808799 4.3868394
-0.49000078 1.5943234 4.5899401
-0.68963981 2.2289209 4.888063
-0.92142236 2.965385 5.1494017
-0.95516592 3.0664761 4.3276858
-0.90875119 2.9103413 3.3835423
-0.88003314 2.7892559 2.9539797
-0.82911515 2.6231098 2.3006048
-0.79503065 2.5137603 1.8131692
-0.77471238 2.4465694 1.4298987
-0.75778466 2.3916759 1.1019617
-0.73510724 2.3187122 0.80492651
-0.71929449 2.2661052 0.54286027
-0.69750756 2.197474 0.29992637
-0.84661847 2.6964757 2.5983715
-0.81170106 2.58213 2.054415
-0.78437442 2.4936919 1.6217768
-0.74919307 2.3775144 1.2398067
-0.74425572 2.3604257 0.95053828
-0.72834331 2.3085697 0.67456716
-0.70769078 2.2431166 0.42027098
-0.68874341 2.1817501 0.18596657
-0.002599458 0.047683977 3.9541228
-0.18619071 0.63362479 4.1987934
-0.26711497 0.89410496 4.5097647
-0.4045082 1.3308887 4.4940395
-0.58321506 1.9024892 4.7474217
-0.80602872 2.6164975 5.0846529
-0.9835583 3.181067 4.9628835
-0.93284667 3.0114877 3.8511868
-0.057674553 0.23611078 4.0426717
-0.12138613 0.4296824 4.1211877
-0.32460091 1.0820196 4.3868394
-0.48493364 1.5976754 4.5946331
-0.6812191 2.2292328 4.8835616
-0.91183078 2.9710765 5.1536679
-0.95774645 3.1129925 4.387536
-0.90957683 2.949131 3.423969
-0.88090247 2.8263583 2.9890254
-0.8292343 2.6557114 2.3257127
-0.7937327 2.5404673 1.8296181
-0.77278 2.4703979 1.4414928
-0.75635546 2.4164279 1.1113268
-0.73417753 2.3441532 0.81197667
-0.71872884 2.292038 0.54752338
-0.69579285 2.2189026 0.30171469
-0.84826058 2.7350767 2.6316266
-0.81107318 2.611969 2.075017
-0.78333932 2.5211148 1.6369759
-0.75168049 2.4147825 1.2565911
-0.74303305 2.3855519 0.95875573
-0.72751164 2.3343005 0.68042874
-0.70722377 2.2692125 0.42372438
-0.68707275 2.2032182 0.18677269
-0.0024329941 0.047692761 3.9541228
-0.18397783 0.63427091 4.1987934
-0.26399234 0.89503193 4.5097647
-0.39986008 1.3322926 4.4940395
-0.57657057 1.9045134 4.7474217
-0.79410237 2.6101298 5.0670967
-0.98641902 3.2302339 5.0331435
-0.9354561 3.0576358 3.9049115
-0.05685002 0.23631066 4.0426717
-0.11988551 0.43010351 4.1211877
-0.32082194 1.0831461 4.3868394
-0.47935376 1.5993584 4.5946331
-0.67280465 2.2295132 4.8790607
-0.90221065 2.9767373 5.1579337
-0.96001363 3.1595635 4.4473863
-0.91113043 2.9912047 3.4680707
-0.88152349 2.8635001 3.0240705
-0.83028299 2.6920648 2.3539586
-0.79349101 2.5711908 1.8488083
-0.7706905 2.494242 1.4530867
-0.75476259 2.4411986 1.120692
-0.73307908 2.3696156 0.81902683
-0.71799088 2.3179946 0.55218649
-0.693937 2.240346 0.30350298
-0.84964347 2.7737217 2.6648817
-0.81024677 2.6418347 2.095619
-0.78212225 2.5485606 1.6521751
-0.74991548 2.4390821 1.2670813
-0.7430324 2.4152114 0.96861678
-0.72650909 2.3600531 0.68629032
-0.70658308 2.2953317 0.42717776
-0.68378997 2.2199268 0.18737729
-0.0022665006 0.04770096 3.9541228
-0.18176268 0.63490921 4.1987934
-0.26058206 0.89497036 4.5048699
-0.39520708 1.3336803 4.4940395
-0.56991911 1.9065143 4.7474217
-0.78223038 2.6037111 5.0495405
-0.99138552 3.2875416 5.1158028
-0.93775463 3.1038384 3.9586368
-0.056024797 0.23650767 4.0426717
-0.11838345 0.43051934 4.1211877
-0.31703913 1.0842594 4.3868394
-0.47425756 1.6026767 4.5993257
-0.66439658 2.2297616 4.8745594
-0.89256209 2.982367 5.1622
-0.96110129 3.2033017 4.5032468
-0.91240126 3.0333252 3.5121732
-0.88085836 2.8972681 3.0556116
-0.82995373 2.7247341 2.3790665
-0.79304433 2.6019435 1.8679986
-0.76973689 2.5223386 1.4669995
-0.75300592 2.4659874 1.1300571
-0.73181176 2.3950987 0.82607704
-0.71708035 2.3439736 0.5568496
-0.69193989 2.2618029 0.3052913
-0.84968561 2.8088348 2.6948111
-0.80922163 2.6717265 2.1162212
-0.78072304 2.5760283 1.6673741
-0.75194585 2.4764273 1.2838658
-0.74146098 2.4403815 0.97683436
-0.72392178 2.3811767 0.69097954
-0.70576853 2.3214738 0.43063119
-0.68185276 2.2414191 0.18818341
-0.0020999792 0.047708582 3.9541228
-0.17954531 0.63553983 4.1987934
-0.25745648 0.8958745 4.5048699
-0.39054924 1.3350517 4.4940395
-0.56326061 1.9084921 4.7474217
-0.7710939 2.5995371 5.0363727
-0.99355465 3.3368316 5.1860628
-0.93882549 3.1470222 4.0085244
-0.055134486 0.23642036 4.0376801
-0.1167409 0.43041542 4.1162167
-0.31325242 1.0853595 4.3868394
-0.4686603 1.6043224 4.5993257
-0.65660918 2.2320673 4.8745594
-0.88288522 2.9879653 5.1664658
-0.96103936 3.2441959 4.5551171
-0.91338891 3.07549 3.5562751
-0.88099366 2.9344819 3.0906572
-0.83052742 2.7611609 2.4073124
-0.79239249 2.632724 1.8871889
-0.76731825 2.5462172 1.4785935
-0.7510854 2.4907935 1.1394223
-0.73037529 2.4206011 0.83312714
-0.71457636 2.3652716 0.56058007
-0.6912415 2.2880404 0.30752671
-0.8505615 2.8475599 2.728066
-0.80799764 2.7016425 2.1368234
-0.78037733 2.6076465 1.6851063
-0.7524209 2.5094681 1.298552
-0.73972279 2.46557 0.98505193
-0.72259331 2.4069662 0.69684118
-0.7047801 2.3476381 0.43408459
-0.68121117 2.2677093 0.18919106
-0.0019334323 0.047715623 3.9541228
-0.1773258 0.6361627 4.1987934
-0.25405014 0.89578807 4.4999747
-0.38588667 1.3364068 4.4940395
-0.55659533 1.9104465 4.7474217
-0.75999612 2.5953176 5.0232058
-0.98824948 3.3618779 5.2191262
-0.93960625 3.1902509 4.0584121
-0.054308891 0.23661138 4.0376801
-0.11523775 0.43082029 4.1162167
-0.30946192 1.0864463 4.3868394
-0.46353525 1.6076068 4.6040182
-0.64881378 2.2343457 4.8745594
-0.87318009 2.9935329 5.1707315
-0.96070349 3.2851288 4.6069875
-0.9140932 3.1176984 3.6003771
-0.87885284 2.9648931 3.1186936
-0.82974875 2.7938931 2.4324203
-0.79272646 2.6675396 1.9091206
-0.76600552 2.5743551 1.4925063
-0.74900061 2.5156157 1.1487875
-0.73013937 2.4507203 0.84158736
-0.71193248 2.3865807 0.56431055
-0.68894476 2.3095281 0.30931503
-0.8511771 2.8863244 2.7613211
-0.8065744 2.7315822 2.1574254
-0.7785989 2.6351595 1.7003053
-0.75267434 2.5425425 1.3132385
-0.73781765 2.4907753 0.99326944
-0.71971226 2.4281144 0.70153046
-0.70221025 2.3690755 0.43684733
-0.67897367 2.289232 0.18999718
-0.0017637344 0.047765601 3.9591229
-0.17510408 0.63677776 4.1987934
-0.2509217 0.89666945 4.4999747
-0.38121939 1.3377457 4.4940395
-0.54992324 1.9123778 4.7474217
-0.74960226 2.593353 5.0144277
-0.98434979 3.3923328 5.2604561
-0.94099128 3.2366006 4.1121368
-0.053420197 0.23651765 4.0326886
-0.11373322 0.43121994 4.1162167
-0.30566761 1.0875199 4.3868394
-0.45839307 1.6108749 4.6087112
-0.64161021 2.2386897 4.8790607
-0.86272544 2.9965625 5.1707315
-0.9592579 3.3232031 4.6548676
-0.91545618 3.1632049 3.6481543
-0.88151789 3.0124383 3.1642525
-0.82984668 2.8303883 2.4606662
-0.79164982 2.6983769 1.9283109
-0.76575416 2.606765 1.5087379
-0.74675179 2.5404539 1.1581527
-0.72834837 2.4762647 0.84863752
-0.70914841 2.4078999 0.56804103
-0.68791318 2.3358042 0.31155041
-0.8504889 2.9215429 2.7912505
-0.80495203 2.7615447 2.1780276
-0.77663779 2.6626916 1.7155044
-0.75270599 2.5756483 1.3279248
-0.7370708 2.5205297 1.0031306
-0.71805733 2.4539371 0.70739204
-0.70088989 2.3952761 0.4403007
-0.67799795 2.3155613 0.19100484
-0.0015969907 0.047771469 3.9591229
-0.17328639 0.6388852 4.208672
-0.24751948 0.89655828 4.495079
-0.37654746 1.3390683 4.4940395
-0.54324442 1.9142859 4.7474217
-0.73923129 2.5913475 5.0056496
-0.98644704 3.444443 5.3348489
-0.94206399 3.2829986 4.1658621
-0.052594271 0.23670268 4.0326886
-0.11222728 0.43161428 4.1162167
-0.3018696 1.0885803 4.3868394
-0.45323363 1.6141267 4.6134043
-0.63438416 2.2430103 4.8835616
-0.85297304 3.0020647 5.1749978
-0.95590693 3.355511 4.694768
-0.91651249 3.2087586 3.6959314
-0.88386148 3.0600374 3.2098114
-0.82861769 2.863179 2.485774
-0.79153055 2.7332551 1.9502426
-0.76405215 2.6349497 1.5226507
-0.74433857 2.5653067 1.1675179
-0.72772533 2.5064328 0.85709774
-0.7062242 2.4292285 0.5717715
-0.6867066 2.3621013 0.31378582
-0.85059613 2.9603798 2.8245056
-0.80424768 2.7954133 2.2015729
-0.7756865 2.6943843 1.7332367
-0.75125778 2.6044245 1.3405132
-0.73481578 2.5457723 1.0113481
-0.71623075 2.4797773 0.71325362
-0.699395 2.4214962 0.44375411
-0.67545944 2.3371117 0.19181097
-0.0014302274 0.047776751 3.9591229
-0.17105521 0.63948619 4.208672
-0.2443884 0.89741677 4.495079
-0.37226984 1.3418128 4.4988108
-0.53603232 1.914289 4.7428193
-0.72953242 2.5916066 5.0012603
-0.97441769 3.4478655 5.3348489
