# .PCD v0.7 - Point Cloud Data file format
VERSION 0.7
FIELDS x y z
SIZE 4 4 4
TYPE F F F
COUNT 1 1 1
WIDTH 1544
HEIGHT 1
VIEWPOINT 0 0 0 1 0 0 0
POINTS 1544
DATA ascii
15.741595 16.957836 20.689093
0.070331745 0.040999789 7.8239756
0.66251695 0.68767798 6.0707722
0.69307625 0.73312104 3.2724111
0.91106844 0.96831346 3.1917689
1.0949527 1.1669465 2.9998405
1.3352876 1.4260195 2.9418716
1.5975157 1.707823 2.8764608
0.23418984 0.22121969 5.4103861
0.38979548 0.39616418 5.1403461
0.77644897 0.81532425 4.3723211
0.83676183 0.88441586 3.365128
1.1613399 1.2320921 3.5647061
1.3696725 1.4566232 3.3406458
1.5838897 1.6867619 3.1386585
1.7817529 1.9001025 2.9020958
2.1596529 2.3168232 3.1922889
15.328555 16.460943 18.218857
15.678303 16.771858 20.529469
0.070474431 0.040754035 7.8239756
0.66870183 0.68926382 6.1053472
0.63112867 0.65661722 4.40207
0.69666052 0.73177826 3.2771833
0.91444296 0.96512729 3.1917689
1.1006644 1.164858 3.0042293
1.3402573 1.4213499 2.9418716
1.6100607 1.7092354 2.8879731
0.23474944 0.22020403 5.4053946
0.39042506 0.3940444 5.1304035
0.77232897 0.80535239 4.3336058
0.83865345 0.88024038 3.3604355
1.3729554 1.4499396 3.33638
1.5711348 1.6615187 3.1027484
1.8139786 1.9209846 2.9425225
2.1701677 2.3118706 3.1957932
15.423196 16.447086 18.262794
15.746989 16.727903 20.54277
0.07061626 0.040507786 7.8239756
0.67490584 0.69081473 6.1399217
0.63270855 0.65367872 4.3971748
0.69714427 0.72718722 3.2676392
0.92589879 0.97040963 3.219384
1.1047238 1.1610088 3.0042293
1.3432727 1.4146223 2.9377387
1.6270471 1.7152318 2.9071608
0.23530482 0.21918716 5.400403
0.39142135 0.3923021 5.125432
0.7533024 0.78005058 4.2126203
0.83455187 0.86983687 3.3322787
1.0390404 1.0870517 3.1731002
1.3762085 1.4432509 3.332114
1.547833 1.6254745 3.0468879
1.820673 1.914641 2.9425225
2.1782243 2.304281 3.1957932
15.828403 16.697222 20.572699
0.070796445 0.040280163 7.8289752
0.69094038 0.70229775 6.2634034
0.63285387 0.64927924 4.3824892
0.70486301 0.73011816 3.2914991
0.93604887 0.97421497 3.2423966
1.1104268 1.1588748 3.0086186
1.3462576 1.407891 2.9336057
1.6418805 1.7188126 2.9225106
0.23585594 0.21816906 5.3954115
0.39241022 0.39055765 5.1204605
0.70869124 0.72876334 3.9512913
0.82918876 0.85823202 3.2994294
1.0443383 1.0849866 3.1776016
1.3866572 1.4440815 3.3449118
1.5472406 1.6135372 3.0349178
1.8203108 1.9009285 2.9314969
2.1837959 2.2940807 3.1922889
0.07093662 0.040032789 7.8289752
0.70706314 0.71367693 6.3868847
0.63654321 0.64851916 4.3922796
0.71052927 0.73086369 3.3058152
0.93944389 0.9709416 3.2423966
1.1144654 1.1549915 3.0086186
1.3511639 1.4031832 2.9336057
1.6589807 1.7246203 2.9416981
0.23661606 0.21734445 5.3954115
0.39339173 0.38881105 5.1154885
1.3199219 1.3476431 7.3001728
0.82014447 0.84296513 3.2525017
1.0481193 1.0813346 3.1776016
1.5639244 1.6173377 3.7501755
1.5382112 1.5929536 3.0069876
1.8081089 1.8750402 2.9020958
2.1843863 2.2787204 3.1817751
0.071036577 0.039766084 7.8239756
0.71503949 0.71670353 6.4362774
0.64095092 0.64846528 4.4069648
0.71620935 0.73157847 3.3201311
0.95509869 0.98024887 3.2838192
1.1201593 1.1528119 3.0130074
1.3540946 1.396438 2.9294727
1.6694511 1.7234234 2.9493732
0.23715939 0.2163233 5.3904195
0.39474651 0.3874355 5.1154885
1.3210871 1.3394482 7.2808151
0.82187408 0.83886456 3.2478089
1.0975078 1.1244019 3.3126378
1.5731995 1.6156058 3.7587075
1.5311579 1.5746131 2.9830475
1.7886631 1.8419642 2.8616688
2.1873739 2.2659504 3.1747661
0.071174949 0.039517879 7.8239756
0.72469801 0.72132695 6.5004873
0.64464754 0.64766699 4.4167557
0.72190303 0.73226261 3.3344471
0.98451358 1.0034027 3.3712673
1.1258516 1.1506065 3.0173967
1.3569949 1.3896896 2.9253399
1.6709803 1.7129966 2.9416981
0.23812762 0.21568726 5.3954115
0.39609653 0.38605523 5.1154885
1.3310697 1.3401791 7.3098516
0.81752461 0.82862079 3.2196524
1.1609445 1.1811092 3.4881854
1.5239954 1.5563414 2.9591074
1.7927116 1.8332857 2.8579938
2.1206954 2.1815875 3.0696297
0.071312457 0.03926919 7.8239756
0.72886986 0.72043103 6.5153055
0.64762539 0.64613181 4.4216509
0.72761005 0.73291564 3.348763
1.0305799 1.0430381 3.5139456
1.1315422 1.1483755 3.021786
1.3598644 1.3829378 2.921207
1.6747036 1.7048669 2.9378607
0.23887907 0.21485473 5.3954115
0.39744169 0.38467023 5.1154885
0.73924351 0.73923647 4.0625978
0.82406133 0.82943428 3.2337308
1.1589341 1.1708611 3.4701805
1.4103497 1.4282914 3.3534436
1.5188398 1.5402845 2.9391572
1.8466746 1.8753276 2.9314969
2.078403 2.123203 2.9995389
0.071449101 0.039020028 7.8239756
0.73193485 0.71842659 6.5202446
0.64842987 0.64243424 4.4118605
0.73121947 0.73142689 3.3535349
1.0355927 1.0408193 3.5185483
1.1389179 1.1478187 3.0305641
1.3646834 1.3781826 2.921207
1.6761361 1.6944532 2.9301858
0.23984353 0.21421123 5.400403
0.39878201 0.38328055 5.1154885
0.71951783 0.71451288 3.9416125
0.82817221 0.8277725 3.2384233
1.1276652 1.1313484 3.3666525
1.4042928 1.412264 3.3278482
1.5135911 1.5242829 2.9192071
1.9176621 1.9338651 3.0307264
2.0757873 2.1057765 2.9855206
0.07162448 0.03878868 7.8289752
0.73610783 0.71749383 6.5350623
0.64921647 0.63873911 4.40207
0.73588657 0.73097366 3.3630788
1.0101787 1.0082181 3.421895
1.1429176 1.143836 3.0305641
1.3794211 1.3833735 2.9418716
1.6797785 1.6863214 2.9263482
0.2405898 0.21337272 5.400403
0.40011749 0.38188621 5.1154885
0.72469306 0.71464425 3.9561307
0.83228153 0.82609218 3.2431161
1.1130999 1.1089687 3.3126378
1.409214 1.4073535 3.3278482
1.5103798 1.5104675 2.9032471
1.9579386 1.9607439 3.0821788
2.1032248 2.1187654 3.013557
0.07175944 0.038538426 7.8289752
0.73972476 0.71600032 6.5449409
0.64998513 0.63504618 4.3922796
0.73949647 0.72944856 3.3678508
0.99842721 0.98955894 3.3712673
1.1621928 1.1550333 3.0700655
1.4001933 1.3944352 2.9749353
1.6811147 1.6759218 2.918673
0.24155039 0.21272172 5.4053946
0.40144807 0.3804872 5.1154885
0.73526722 0.72002387 3.9996855
0.83761835 0.82560438 3.2525017
1.0906544 1.0790499 3.2361174
1.4141179 1.4024259 3.3278482
1.5199194 1.5094326 2.9112272
1.9671745 1.9562877 3.0858538
2.1408632 2.1416767 3.0556116
0.071893528 0.038287703 7.8289752
0.74502128 0.71610534 6.5696373
0.65073597 0.63135582 4.3824892
0.74310476 0.72790718 3.372623
0.98516554 0.9696241 3.3160369
1.1764457 1.1610628 3.0964
1.4310639 1.4152619 3.0286636
1.6846765 1.6677884 2.9148357
0.24229144 0.21187726 5.4053946
0.40316224 0.37944862 5.1204605
0.72876316 0.70869136 3.9512913
0.84172845 0.82388246 3.2571945
1.0618021 1.0431994 3.1415918
1.4227214 1.4011409 3.33638
1.5316154 1.510465 2.923197
1.9667546 1.9422629 3.0748284
2.1837471 2.1693773 3.1046753
0.072026737 0.038036518 7.8289752
0.74751639 0.71350038 6.5696373
0.65146905 0.6276679 4.3726983
0.74671125 0.72634953 3.3773947
0.97736603 0.95525575 3.2792168
1.1890444 1.1653306 3.1183455
1.4681201 1.4418046 3.0947907
1.6882021 1.6596507 2.9109981
0.24281099 0.21084161 5.400403
0.40721238 0.38058475 5.1552606
0.72128481 0.69654006 3.8980575
0.84583688 0.822142 3.2618873
1.0514125 1.0258054 3.1010809
1.4313327 1.3998129 3.3449118
1.5390316 1.5072178 2.9271872
1.975943 1.9377595 3.0785036
2.1963837 2.1667504 3.1116843
0.072119214 0.037767123 7.8239756
0.7426694 0.70394003 6.5054269
0.65365601 0.62538999 4.3726983
0.7503159 0.72477555 3.3821669
0.97789049 0.94911718 3.2700117
1.1948212 1.1628433 3.1227345
1.4771734 1.4406006 3.1030567
1.6916918 1.6515088 2.9071608
0.2435455 0.20999277 5.400403
0.40932038 0.37988564 5.165204
0.71463794 0.68531966 3.8496633
0.84994316 0.82038271 3.2665799
1.0596775 1.0266731 3.1145847
1.4698882 1.4275129 3.4216986
1.5486039 1.5060378 2.9351673
1.982695 1.9308503 3.0785036
2.1962912 2.1515837 3.1011708
0.072250612 0.037515152 7.8239756
0.73776478 0.6944223 6.4412165
0.65805006 0.6252079 4.3873839
0.75284129 0.72215205 3.3821669
0.9755705 0.94027537 3.2516015
1.1885396 1.1486796 3.0964
1.4801714 1.4334778 3.0989237
1.6951449 1.6433625 2.9033232
0.24405712 0.20895426 5.3954115
0.4188813 0.38603449 5.2696056
0.71520495 0.68108761 3.8399844
0.85404772 0.81860483 3.2712729
1.0616859 1.0214586 3.1100833
1.4936353 1.440477 3.4643579
1.5560189 1.5027162 2.9391572
1.9869858 1.9215609 3.0748284
2.1858947 2.1264973 3.0766389
0.072381124 0.037262723 7.8239756
0.72031128 0.67327851 6.2683425
0.66022843 0.62290716 4.3873839
0.75427645 0.7184903 3.3773947
0.97461224 0.93281204 3.2377942
1.18563 1.1378908 3.0788438
1.4892229 1.4322034 3.1071897
1.7031802 1.6396583 2.9071608
0.24456447 0.20791477 5.3904195
0.45839697 0.41944906 5.7518415
0.70935714 0.67081553 3.7964296
0.85814995 0.81680828 3.2759655
1.0668192 1.0192502 3.1145847
1.5909523 1.5236412 3.6733885
1.561255 1.4972755 2.9391572
1.9936812 1.9146132 3.0748284
2.1907392 2.1163762 3.0731344
0.072510749 0.037009835 7.8239756
0.72208744 0.67023164 6.2634034
0.75569528 0.71482736 3.372623
0.97219771 0.92402112 3.219384
1.1791918 1.1238319 3.0525093
1.4942132 1.4269964 3.1071897
1.7042593 1.6292734 2.8994856
0.2448464 0.20668878 5.3804364
0.4736751 0.4303835 5.9258437
0.71077806 0.66747504 3.7915902
0.86225027 0.81499308 3.2806582
1.0703706 1.0155201 3.1145847
1.6246098 1.545037 3.7373779
1.5664718 1.4918166 2.9391572
1.9978989 1.9053029 3.0711532
2.2032602 2.1136534 3.0801432
0.072639495 0.036756501 7.8239756
0.71356434 0.65770483 6.1695576
0.82412797 0.76666528 5.4349627
0.75709772 0.71116328 3.3678508
0.96973366 0.91525853 3.200974
1.181368 1.1180626 3.0481203
1.4951015 1.4178991 3.0989237
1.7122607 1.6255213 2.9033232
0.24534455 0.20564806 5.3754449
0.48507482 0.43764797 6.0501313
1.1351258 1.0583943 6.012886
0.86634815 0.81315911 3.285351
1.0754933 1.0132703 3.1190858
1.5351841 1.4498256 3.524081
1.5694805 1.4842691 2.9351673
2.0045373 1.8983171 3.0711532
2.2441931 2.1379275 3.1257024
0.072767355 0.036502719 7.8239756
0.70782924 0.64786792 6.1004076
0.82455492 0.7617116 5.4202771
0.75739223 0.70648015 3.3583069
0.96864599 0.90786034 3.1871662
1.1887542 1.1172124 3.0568984
1.4816039 1.3953089 3.0617273
1.7365829 1.6371235 2.9340231
0.24561596 0.20442244 5.3654613
0.48659953 0.43595207 6.0501313
1.1388133 1.0544255 6.012886
0.87044394 0.8113066 3.2900438
1.0790237 1.0095099 3.1190858
1.4394077 1.3499066 3.2979865
1.5702589 1.4746562 2.9271872
2.0235002 1.9029208 3.089529
2.3552711 2.228112 3.2658844
0.072894335 0.03624849 7.8239756
0.71123666 0.646438 6.1102862
0.6711126 0.61569262 4.40207
0.75766313 0.70180362 3.348763
0.96751851 0.90048093 3.1733589
1.1943977 1.1146899 3.0612874
1.4761885 1.3805183 3.0410624
1.7656868 1.6529564 2.9723983
0.2458818 0.20319743 5.3554783
0.48771986 0.43389684 6.0451598
1.1304568 1.0393854 5.9499736
0.87200391 0.80709106 3.285351
1.0825411 1.0057373 3.1190858
1.4116644 1.3146591 3.2254655
1.573193 1.4671109 2.923197
2.0871193 1.9490637 3.174058
2.4020228 2.2565029 3.3184526
0.073020414 0.035993822 7.8239756
0.71118093 0.64186966 6.090529
0.67325771 0.61334628 4.40207
0.75791073 0.6971339 3.3392189
0.96778613 0.89444637 3.1641538
1.2000382 1.1121417 3.0656767
1.46244 1.3581237 3.003866
1.7949218 1.6686056 3.0107732
0.24636583 0.20215547 5.3504863
0.48803228 0.43113378 6.0302453
1.1396482 1.0405176 5.9790101
0.87227458 0.80170703 3.2759655
1.0876453 1.0034285 3.1235871
1.4162446 1.3097235 3.2254655
1.5716718 1.4554685 2.9112272
2.1510847 1.9947846 3.2585866
2.4177082 2.2554023 3.3289661
0.073145613 0.035738714 7.8239756
0.72267771 0.64767778 6.1695576
0.67312884 0.6089437 4.3873839
0.75813502 0.69247097 3.329675
0.96802348 0.88842088 3.1549485
1.2056754 1.1095679 3.0700655
1.4671718 1.3530105 3.003866
1.8289977 1.688419 3.0568233
0.24662124 0.20093101 5.3405032
0.48793045 0.42802256 6.0103593
0.74560171 0.67607284 3.912576
0.87251824 0.79633099 3.2665799
1.0911413 0.99962574 3.1235871
1.4112029 1.2959521 3.2041361
1.5723068 1.4458944 2.9032471
2.1705041 1.9987462 3.2769625
2.4124851 2.2348316 3.3114433
0.073229514 0.03546669 7.8189754
0.7440936 0.66219169 6.3325529
0.67752326 0.60863113 4.40207
0.75833589 0.68781501 3.3201311
0.96967465 0.88372064 3.150346
1.2130772 1.1085836 3.0788438
1.4677349 1.3440801 2.9956
1.8419684 1.6885217 3.068336
0.24687107 0.1997072 5.3305197
0.48901936 0.42596692 6.0053878
0.76010239 0.68439794 3.9754882
0.87273502 0.79096305 3.2571945
1.0962344 0.99727565 3.1280882
1.4099365 1.2857463 3.1913381
1.575119 1.4383652 2.8992569
2.1924791 2.004884 3.2990136
2.4281456 2.2336402 3.3219571
0.073352873 0.035210852 7.8189754
0.77959663 0.6889081 6.6140904
0.67736363 0.60422957 4.3873839
0.75962299 0.68416494 3.3153591
0.9698562 0.87770891 3.1411412
1.2187132 1.1059519 3.0832329
1.4682537 1.3351623 2.9873343
1.8620732 1.6950274 3.0913608
0.24711536 0.19848409 5.3205361
0.49050331 0.42425734 6.0053878
0.76248676 0.68174052 3.9754882
0.87164229 0.7844491 3.2431161
1.0997088 0.99344301 3.1280882
1.3892837 1.2580602 3.1358809
1.5756658 1.4288101 2.8912768
2.1994643 1.9972185 3.2990136
2.4253955 2.2155299 3.3079391
0.073475339 0.034954589 7.8189754
0.79601693 0.6984781 6.7326326
0.67870629 0.60118657 4.3824892
0.75978094 0.6795193 3.3058152
0.9772737 0.87823528 3.1549485
1.2296832 1.1081038 3.1007893
1.4708167 1.3281431 2.983201
1.8798677 1.6992636 3.1105483
0.24735415 0.19726172 5.3105531
0.48429355 0.41594878 5.9109297
0.82502854 0.73247451 4.2852116
0.8718015 0.77910221 3.2337308
1.1047906 0.99105185 3.1325896
1.3742731 1.2357655 3.0932217
1.5806437 1.4233013 2.8912768
2.2039046 1.9872587 3.2953384
2.4278309 2.2022581 3.3009298
0.073637478 0.034713957 7.8239756
0.80548179 0.70181841 6.7919035
0.67927128 0.59746915 4.3726983
0.76103204 0.67587197 3.301043
0.98470676 0.87872052 3.1687562
1.2585316 1.1261621 3.1622362
1.4775391 1.3248794 2.9873343
1.8977144 1.7033962 3.1297359
0.2475874 0.19604012 5.3005695
0.48290184 0.41183636 5.8761292
0.82758027 0.72959018 4.2852116
0.87322491 0.77490908 3.2290378
1.1114944 0.99008512 3.1415918
1.3571787 1.2118542 3.0462966
1.583356 1.4157668 2.8872871
2.2083023 1.9772921 3.2916632
0.0737582 0.034456704 7.8239756
0.80910218 0.70001894 6.8017826
0.68135267 0.59509444 4.3726983
0.76338661 0.6732114 3.301043
0.99069262 0.87786907 3.1779611
1.309006 1.163121 3.2763524
1.4926633 1.32907 3.0079987
1.9156129 1.7074248 3.1489234
0.24781516 0.1948193 5.2905865
0.47863808 0.40532932 5.8065281
0.83958119 0.73497486 4.3336058
0.87333483 0.7695747 3.2196524
1.1165744 0.98764145 3.1460929
1.355546 1.2019188 3.0334985
1.5882884 1.4102312 2.8872871
2.2101235 1.9650663 3.2843127
0.073918708 0.034214798 7.8289752
0.81154078 0.69719034 6.8017826
0.68265641 0.59204549 4.3678031
0.76460886 0.66955936 3.2962713
0.99961823 0.87956733 3.1963713
1.309466 1.1553756 3.2675743
1.5036182 1.3294432 3.0203977
1.9335623 1.711349 3.1681111
0.24803743 0.19359927 5.2806029
0.4743349 0.39885712 5.7369266
0.84214157 0.73203969 4.3336058
0.87471694 0.76538521 3.2149594
1.1232865 0.98661083 3.1550953
1.3558183 1.193733 3.0249667
1.5954615 1.4066712 2.8912768
2.2144279 1.9550959 3.2806377
0.074037693 0.033956569 7.8289752
0.81337816 0.69384927 6.7968431
0.67159981 0.57836688 4.284584
0.76694137 0.66688633 3.2962713
1.0085676 0.88121384 3.2147813
1.2954763 1.1350158 3.2236834
1.5167086 1.3316126 3.0369296
1.951562 1.7151686 3.1872983
0.24825418 0.19238007 5.2706199
0.46958303 0.39207861 5.6623545
0.83327162 0.7192415 4.2755322
0.87738335 0.76232719 3.2149594
1.1283643 0.98411465 3.1595967
1.3580133 1.1872764 3.0207007
1.6048964 1.405063 2.8992569
2.2314363 1.9562936 3.2953384
0.07415577 0.033697922 7.8289752
0.81579524 0.69100577 6.7968431
0.67284065 0.5753575 4.2796893
0.77039444 0.66518039 3.301043
1.0160649 0.88152844 3.2285891
1.2885884 1.1210555 3.1973488
1.5255899 1.3300085 3.0451953
1.9696122 1.7188832 3.206486
0.24869482 0.19133702 5.2656283
0.46561083 0.38601801 5.5977249
0.8157323 0.69915396 4.1739044
0.88265252 0.76151425 3.2243452
1.135084 0.98302001 3.1685991
1.3680578 1.1876578 3.0334985
1.6143395 1.4034061 2.9072371
2.2459223 1.9551703 3.3063638
0.074272946 0.033438865 7.8289752
0.81820232 0.68815392 6.7968431
0.77384508 0.66345859 3.3058152
1.0605825 0.91367656 3.3574595
1.2816192 1.1071573 3.1710143
1.525968 1.3209915 3.0369296
1.9877119 1.7224927 3.2256734
0.2491312 0.19029324 5.2606363
0.47642669 0.39217567 5.7120695
0.81146616 0.69060075 4.1400285
0.88661599 0.75955117 3.2290378
1.1401591 0.98047107 3.1731002
1.3741707 1.1845779 3.0377645
1.6237905 1.4017003 2.9152172
2.280946 1.9717054 3.3467906
0.074389219 0.033179399 7.8289752
0.82238901 0.68678737 6.8116608
0.77501947 0.65978587 3.301043
1.1068212 0.94679415 3.4909327
1.2763865 1.0948807 3.1490691
1.5284357 1.3138226 3.0327964
1.9985716 1.7197248 3.2333484
0.24979393 0.18942246 5.2606363
0.48233542 0.39421779 5.7667561
0.73801541 0.62368298 3.7577143
0.89320552 0.75980562 3.2431161
1.1468859 0.97931224 3.1821027
1.3882042 1.1882532 3.0590942
1.6309614 1.3979846 2.9192071
2.31354 1.9858118 3.3835423
0.074463628 0.032904472 7.8239756
0.82777262 0.68639147 6.8363571
0.57028282 0.47745717 3.5992527
0.79213953 0.66960186 3.3630788
1.1101193 0.9429248 3.4909327
1.2729073 1.0842071 3.1315129
1.5287316 1.3048258 3.0245306
2.0021257 1.710656 3.229511
0.25022244 0.18837647 5.2556453
0.48702168 0.39521655 5.8065281
0.73537284 0.61706406 3.7335172
0.89980763 0.76002324 3.2571945
1.1536185 0.97811836 3.1911051
1.40228 1.1918449 3.0804241
1.6404208 1.3961889 2.9271872
2.3359389 1.9909182 3.4055934
0.074578039 0.032644343 7.8239756
0.8343634 0.68695378 6.8709316
0.56724691 0.47155955 3.5698812
0.80819374 0.67834651 3.4203427
1.1163911 0.94156295 3.5001378
1.2785128 1.0813037 3.1359019
1.5311302 1.2976623 3.0203977
2.0056405 1.7015833 3.2256734
0.25087848 0.18750189 5.2556453
0.49255145 0.39685577 5.8562431
0.7027517 0.58553386 3.5592978
0.90377748 0.75798649 3.2618873
1.158691 0.97548753 3.1956065
1.4163977 1.1953527 3.1017535
1.6452844 1.3904543 2.9271872
0.074650474 0.032369044 7.8189754
0.83795959 0.68502039 6.8808107
0.57124579 0.47152045 3.5845668
0.81285036 0.6774323 3.4298866
1.1106837 0.93013501 3.4725227
1.2786113 1.0737541 3.1271236
1.5334975 1.2904979 3.0162647
2.0091164 1.692507 3.2218359
0.25129905 0.18645374 5.2506533
0.49768198 0.39812836 5.9009862
0.6980108 0.57746989 3.5254219
0.9210059 0.76697278 3.3135076
1.1620891 0.97143698 3.1956065
1.4305568 1.1987764 3.1230834
1.650128 1.3847027 2.9271872
0.074763007 0.03210827 7.8189754
0.84034568 0.68209118 6.8808107
0.58943009 0.48307252 3.6873667
0.8152101 0.67459083 3.4298866
1.1004032 0.91501147 3.4311001
1.2860307 1.0723518 3.1359019
1.5358334 1.2833327 3.0121319
2.0125537 1.6834271 3.2179983
0.25171536 0.18540494 5.2456617
0.49990398 0.39705122 5.9109297
0.69905084 0.57423222 3.5205824
0.93165785 0.77035046 3.3416643
1.1671481 0.96876484 3.2001076
1.4407473 1.1987795 3.1358809
1.6549515 1.3789341 2.9271872
2.445164 2.0401917 3.5305486
0.074915789 0.031861588 7.8239756
0.84151125 0.67817879 6.8709316
0.59190267 0.48165452 3.6922619
0.82448065 0.67742586 3.4585185
1.1186566 0.9236021 3.4771254
1.2786969 1.0586925 3.1095674
1.5403036 1.2779639 3.0121319
2.0159521 1.6743439 3.2141612
0.25212744 0.18435553 5.2406697
0.50673121 0.39959115 5.9755592
0.69130886 0.56384587 3.4721882
0.94634593 0.77694738 3.3838992
1.1688427 0.96330047 3.1956065
1.450955 1.1987261 3.1486788
1.6620765 1.3750696 2.9311771
2.4627135 2.0402954 3.5452492
0.075026549 0.03159989 7.8239756
0.84265983 0.67426682 6.8610535
0.59278816 0.47894579 3.6873667
0.81411588 0.66416597 3.4060268
1.14756 0.94074553 3.5553682
1.2731338 1.0466183 3.0876219
1.5469271 1.2743686 3.0162647
2.0193112 1.6652576 3.2103236
0.25276941 0.1834743 5.2406697
0.5064432 0.39650655 5.9556732
0.69424981 0.56222016 3.4770277
0.95707828 0.78018057 3.4120557
1.1721981 0.95921457 3.1956065
1.4591634 1.196962 3.1572106
1.6668662 1.3692596 2.9311771
2.4541111 2.0187645 3.5231986
0.075136401 0.031337805 7.8239756
0.84379125 0.67035484 6.8511748
0.58810103 0.47177839 3.6482048
0.8083089 0.65474439 3.372623
1.2637913 1.0315675 3.0568984
1.5644354 1.2796506 3.0410624
2.0201519 1.6541375 3.2026484
0.25340831 0.18259084 5.2406697
0.50613981 0.39342886 5.9357872
0.69228911 0.55664355 3.45767
0.96382022 0.78009158 3.4261341
1.1755393 0.95511699 3.1956065
1.4673771 1.1951551 3.1657426
1.6739708 1.3653373 2.9351673
2.4480145 1.999463 3.5048227
0.075286634 0.031089395 7.8289752
0.84490573 0.66644341 6.8412967
0.58416778 0.46528378 3.6139383
0.80942613 0.65098351 3.3678508
1.3455645 1.0874246 4.1352863
1.2618022 1.0226262 3.0437312
1.5688927 1.2741817 3.0410624
2.0284007 1.6490977 3.206486
0.25404415 0.18170518 5.2406697
0.50751007 0.39165971 5.9357872
0.69226295 0.55265558 3.4479911
0.96653742 0.77672243 3.4261341
1.178866 0.95100784 3.1956065
1.4695121 1.188386 3.1614769
1.6810681 1.3613819 2.9391572
2.4444466 1.9823644 3.4901221
0.075394697 0.030826403 7.8289752
0.84600317 0.66253215 6.8314176
0.58419067 0.46197915 3.6041479
0.81402671 0.65001667 3.3773947
1.350876 1.0839437 4.1398888
1.2616322 1.0152128 3.0349529
1.590856 1.2828285 3.074126
2.0416269 1.6480467 3.2179983
0.25444096 0.18065093 5.2356787
0.50845081 0.38956189 5.9308157
0.69320267 0.54945517 3.4431517
0.97194082 0.77549618 3.4355197
1.1821785 0.94688696 3.1956065
1.4736514 1.1832491 3.1614769
1.6928551 1.3611699 2.9511273
2.4645545 1.9844503 3.508498
0.075501844 0.03056304 7.8289752
0.84647006 0.65814471 6.8166003
0.58740181 0.46119419 3.6139383
0.81746066 0.64809847 3.3821669
1.2996397 1.0354006 3.9741976
1.2614257 1.007813 3.0261748
1.6194884 1.296613 3.1195884
2.0648751 1.6549417 3.2448611
0.25530648 0.17992721 5.2406697
0.50641167 0.38520524 5.8910437
0.6951164 0.54703212 3.4431517
0.97599465 0.77317017 3.4402122
1.1837726 0.94139969 3.1911051
1.4757334 1.1764722 3.1572106
1.7187905 1.3721718 2.9870377
2.4741144 1.9779524 3.5121732
0.075608075 0.030299304 7.8289752
0.8463015 0.65328753 6.7968431
0.58900809 0.45914099 3.6139383
0.82089096 0.64616412 3.3869388
1.2159029 0.9617793 3.711854
1.2761946 1.0123334 3.0525093
1.6438307 1.306711 3.156785
2.1007366 1.6716728 3.2909112
0.25593299 0.17903493 5.2406697
0.50519955 0.38150945 5.8612142
0.69603103 0.54382867 3.4383123
0.98140055 0.77189201 3.4495978
1.1870514 0.93726182 3.1911051
1.4777861 1.1696953 3.1529448
1.7826066 1.4129556 3.0867882
0.075754873 0.030048672 7.8339748
0.84734303 0.64938444 6.7869644
0.59141266 0.45770511 3.6188335
0.82196522 0.64237577 3.3821669
1.1024743 0.86583138 3.3620622
1.2891285 1.0152813 3.0744548
1.6726807 1.3201414 3.2022474
2.1467996 1.6961212 3.3523111
0.25655639 0.17814045 5.2406697
0.50439459 0.37814638 5.8363571
0.69891846 0.54216599 3.4431517
0.98544925 0.76952356 3.4542906
1.1868892 0.9304266 3.1821027
1.4798094 1.1629183 3.1486788
1.8396235 1.4477198 3.1745687
0.075859301 0.029784055 7.8339748
0.84589374 0.64360088 6.757329
0.59381431 0.45625803 3.6237288
0.82302308 0.63858777 3.3773947
1.0854601 0.84636247 3.3022294
1.3020984 1.0181508 3.0964
1.6794938 1.3160303 3.2063804
2.1527071 1.6886171 3.3523111
0.25717664 0.17724383 5.2406697
0.50143307 0.37320367 5.7866421
0.70080674 0.53972298 3.4431517
0.99085724 0.76819342 3.4636762
1.1832577 0.92093009 3.1640978
1.4818033 1.1561414 3.1444128
1.8826573 1.4709717 3.238409
2.4946916 1.9519353 3.5121732
0.075962804 0.029519077 7.8339748
0.84503448 0.63830346 6.7326326
0.59702277 0.45541707 3.6335194
0.82406443 0.6348002 3.372623
1.0775932 0.83419782 3.2700117
1.3132122 1.0194738 3.1139565
1.6929618 1.3170708 3.2229121
2.1712327 1.6909394 3.3714988
0.25803259 0.17650726 5.2456617
0.50015914 0.36955222 5.7568126
0.7036851 0.5380367 3.4479911
0.99490029 0.76578236 3.468369
1.1812971 0.91280133 3.1505942
1.4858301 1.1509619 3.1444128
1.8853996 1.4625443 3.2344191
2.5095215 1.9494544 3.5231986
0.076107018 0.029266777 7.838975
0.8429051 0.63208795 6.6980581
0.60104454 0.4551737 3.6482048
0.82508945 0.6310131 3.3678508
1.0758513 0.82686001 3.2562041
1.3167627 1.0148836 3.1139565
1.7042302 1.3163137 3.235311
2.1771221 1.6833501 3.3714988
0.25864711 0.17560548 5.2456617
0.49843577 0.36559927 5.722012
0.7055589 0.53557712 3.4479911
0.99893856 0.76335251 3.4730618
1.1775669 0.90337247 3.1325896
1.4877712 1.1441787 3.140147
1.8809439 1.4486001 3.2184591
2.5028884 1.9303308 3.5048227
0.076208711 0.029000934 7.838975
0.60507184 0.4549078 3.6628907
0.82609814 0.62722677 3.3630788
1.0802842 0.82428461 3.2608066
1.3202974 1.0102811 3.1139565
1.717747 1.3172059 3.2518427
2.1829846 1.6757404 3.3714988
0.25925851 0.17470157 5.2456617
0.49151719 0.35790119 5.6275539
0.7074241 0.53311098 3.4479911
1.001597 0.75986093 3.4730618
1.1737853 0.89398098 3.1145847
1.4917561 1.1389784 3.140147
1.885989 1.4420254 3.2184591
2.5042279 1.9174606 3.4974725
0.076309487 0.02873474 7.838975
0.60257524 0.44974899 3.6384144
0.82709038 0.62344098 3.3583069
1.0815976 0.81932914 3.2562041
1.3238158 1.0056663 3.1139565
1.7312908 1.3180199 3.2683747
2.1888208 1.66811 3.3714988
0.2596263 0.1736358 5.2406697
0.48152542 0.34807214 5.4982948
0.70928073 0.53063834 3.4479911
1.0028648 0.75532204 3.468369
1.1751623 0.88856536 3.1100833
1.4978011 1.1353396 3.1444128
1.8886108 1.4336115 3.214469
2.5163035 1.9128106 3.5048227
0.076409318 0.028468197 7.838975
0.60168672 0.44582504 3.6237288
0.8292616 0.6205501 3.3583069
1.1016273 0.82846385 3.3068321
1.3292304 1.0024812 3.1183455
1.749351 1.3221483 3.2931724
2.1946304 1.6604595 3.3714988
0.26023081 0.17272848 5.2406697
0.47797099 0.34297422 5.4436083
0.71112871 0.52815926 3.4479911
1.0054953 0.75181681 3.468369
1.1799979 0.88576466 3.1145847
1.4975872 1.1269683 3.1358809
1.8960102 1.4288237 3.2184591
2.512141 1.8958468 3.4901221
0.076466411 0.028188847 7.8339748
1.0338286 0.75286239 8.1304436
0.60077804 0.4419128 3.6090431
0.83022428 0.61676162 3.3535349
1.1217338 0.83746839 3.3574595
1.3346388 0.9992705 3.1227345
1.7607085 1.3211005 3.3055713
2.200413 1.6527886 3.3714988
0.26083216 0.17181906 5.2406697
0.47178048 0.3360517 5.3590927
0.71195608 0.52492803 3.4431517
1.0067277 0.74727398 3.4636762
1.1883196 0.88554233 3.1280882
1.4952437 1.1170514 3.1230834
1.9082245 1.4276117 3.2304289
2.5106037 1.8809682 3.4790967
0.076564349 0.027921757 7.8339748
1.0427482 0.75379968 8.1798353
0.60067195 0.43861261 3.5992527
0.83117062 0.61297405 3.348763
1.1246504 0.83354771 3.3574595
1.340041 0.9960342 3.1271236
1.7630525 1.3132654 3.3014381
2.2061689 1.6450976 3.3714988
0.26167247 0.17106473 5.2456617
0.47251517 0.33409542 5.3541212
0.7137841 0.5224396 3.4431517
1.0079406 0.74273169 3.4589834
1.196654 0.88527274 3.1415918
1.4760904 1.0947366 3.0761578
1.9180343 1.4245352 3.238409
0.076661348 0.027654326 7.8339748
1.0453731 0.75015515 8.1798353
0.59890097 0.43412384 3.5796719
0.83330518 0.61006898 3.348763
1.1244056 0.8273015 3.3482547
1.345437 0.99277252 3.1315129
1.7517873 1.2953918 3.2725077
2.2222028 1.6450148 3.3868487
0.26226801 0.17015028 5.2456617
0.47498813 0.33336166 5.3690352
0.71560347 0.51994491 3.4431517
1.0091343 0.73819011 3.4542906
1.2050009 0.88495564 3.1550953
1.4567999 1.0725694 3.0292325
1.927846 1.4214077 3.2463892
0.076715462 0.027374543 7.8289752
1.0498841 0.74785358 8.1946535
0.60206604 0.43321955 3.5894623
0.83542973 0.60715652 3.348763
1.1193981 0.81761074 3.325242
1.3527586 0.9909004 3.140291
1.7449558 1.2809432 3.2518427
2.2408459 1.6467377 3.4060364
0.26286033 0.16923375 5.2456617
0.47614884 0.33170164 5.3690352
0.71741402 0.51744384 3.4431517
1.0131013 0.73567688 3.4589834
1.2168785 0.88715571 3.1776016
1.4563236 1.0643998 3.0207007
1.9376589 1.4182289 3.254369
2.692486 1.9858555 3.3675163
0.076810554 0.027106589 7.8289752
1.0601027 0.74956554 8.2539244
0.60523206 0.43229845 3.5992527
0.83633339 0.60336345 3.343991
1.1190817 0.81140494 3.3160369
1.3581463 0.98758072 3.14468
1.7312222 1.2615867 3.2187793
2.2595274 1.6483505 3.4252236
0.26344949 0.16831517 5.2456617
0.47774246 0.33034039 5.3740072
0.71921587 0.51493639 3.4431517
1.0114633 0.72910923 3.444905
1.2217314 0.88417876 3.1821027
1.4621413 1.0608414 3.0249667
1.9425977 1.4114565 3.254369
2.6907692 1.9701244 3.3570025
0.076904707 0.026838303 7.8289752
1.0569879 0.74184448 8.2094707
0.60922974 0.43194914 3.6139383
0.8384344 0.6004405 3.343991
1.1155643 0.8029291 3.297627
1.3615853 0.98283386 3.14468
1.7310555 1.2522374 3.2105134
2.2782478 1.6498528 3.444411
0.26379108 0.16724074 5.2406697
0.47889268 0.32867074 5.3740072
0.71998417 0.51169473 3.4383123
1.0055811 0.71954966 3.4167485
1.2248104 0.8799088 3.1821027
1.4658355 1.0557312 3.0249667
1.9475129 1.4046669 3.254369
2.6976297 1.9607199 3.3570025
0.076997921 0.026569694 7.8289752
1.0544697 0.7345984 8.1699572
0.61323237 0.43157721 3.628624
0.84052521 0.5975101 3.343991
1.1120014 0.79448771 3.2792168
1.3669547 0.97947001 3.1490691
1.7377017 1.2478284 3.2146463
2.3048139 1.6568569 3.4751112
0.26412842 0.16616598 5.2356787
0.47959629 0.32669732 5.3690352
0.72176594 0.5091784 3.4383123
1.0010518 0.71103936 3.3932846
1.2207843 0.87057263 3.1640978
1.4695117 1.050608 3.0249667
1.9499542 1.3961064 3.2503791
2.7044575 1.9512916 3.3570025
0.077048086 0.026289327 7.8239756
1.0621411 0.73444736 8.2094707
0.61139554 0.42710257 3.6090431
0.84260577 0.59457248 3.343991
1.1083933 0.78608108 3.2608066
1.3703654 0.9746924 3.1490691
1.7420468 1.241755 3.2146463
2.3001468 1.6413544 3.4597611
0.26446143 0.16509089 5.2306867
0.47985011 0.32442474 5.3590927
0.72250915 0.50593507 3.4334726
0.99788576 0.70356375 3.3745136
1.2202619 0.86379069 3.1550953
1.4731699 1.045472 3.0249667
1.9548156 1.3892912 3.2503791
0.077139385 0.026020218 7.8239756
1.0608538 0.72809803 8.1798353
0.61037195 0.42322597 3.5943573
0.84467614 0.59162766 3.343991
1.10474 0.77770931 3.2423966
1.3737594 0.96990299 3.1490691
1.7463708 1.2356668 3.2146463
0.26651156 0.1650741 5.2606363
0.4800939 0.32215437 5.3491497
0.72323847 0.50269282 3.4286335
0.99467987 0.69611895 3.3557425
1.2179259 0.8557716 3.1415918
1.474678 1.0388213 3.0207007
1.9670401 1.3876699 3.2623494
0.077229746 0.025750792 7.8239756
1.068527 0.72788888 8.2193489
0.607651 0.41820776 3.5698812
0.84673607 0.58867556 3.343991
1.110651 0.77608615 3.2516015
1.3790978 0.96647614 3.1534581
1.7529763 1.2311804 3.2187793
0.26757905 0.16444354 5.2706199
0.48032776 0.31988633 5.3392067
0.72395408 0.49945158 3.4237938
0.99285167 0.68968958 3.3416643
1.2173344 0.84902459 3.1325896
1.4782952 1.0336674 3.0207007
1.9817452 1.3877087 3.2783093
0.07731916 0.025481053 7.8239756
0.48650625 0.32912448 3.7345033
0.60826612 0.41551 3.564986
0.85001445 0.58656389 3.348763
1.1181697 0.7755444 3.2654092
1.3824631 0.96165633 3.1534581
1.7572633 1.2250539 3.2187793
0.26889232 0.16395704 5.2855949
0.48277619 0.31908852 5.3541212
0.72465581 0.49621153 3.4189546
0.99099052 0.68328136 3.3275859
1.2167107 0.84229225 3.1235871
1.4818945 1.0285009 3.0207007
2.0137949 1.3996994 3.3221998
0.077407636 0.025211005 7.8239756
0.48571622 0.3261258 3.7196853
0.6113987 0.41452652 3.5747764
0.85205674 0.58359319 3.348763
1.1417906 0.78603649 3.325242
1.3858114 0.95682478 3.1534581
1.7684711 1.223716 3.231178
2.3149352 1.6036042 3.4482489
0.26995799 0.16331473 5.2955785
0.48522487 0.31827745 5.3690352
0.72534376 0.49297264 3.414115
0.99052119 0.67786902 3.3182003
1.223232 0.84050536 3.1325896
1.4876235 1.0248014 3.0249667
2.0409911 1.4080608 3.3581097
0.077495165 0.024940647 7.8239756
0.48814529 0.32528946 3.7295637
0.61453182 0.41352621 3.5845668
0.85532331 0.58145446 3.3535349
1.1671115 0.79747504 3.3896773
1.3911186 0.95333534 3.1578474
1.777371 1.2207215 3.239444
2.3178773 1.5936978 3.444411
0.27102238 0.16266695 5.3055615
0.48722687 0.31716275 5.3789787
0.72601789 0.48973501 3.4092758
0.98859853 0.67149901 3.304122
1.2297556 0.83868331 3.1415918
1.4954975 1.0225463 3.0334985
2.0707567 1.4179518 3.39801
0.077581756 0.024669986 7.8239756
0.4899261 0.32401183 3.7345033
0.61766535 0.41250905 3.5943573
0.85734773 0.57846528 3.3535349
1.1876749 0.80545682 3.4403052
1.394438 0.94847363 3.1578474
1.7885971 1.2192649 3.2518427
2.3075411 1.574757 3.4213862
0.27183706 0.16186683 5.3105531
0.49012282 0.31661573 5.3988647
0.72667831 0.48649868 3.4044361
0.98664361 0.66515064 3.2900438
1.2344785 0.83560562 3.1460929
1.5033739 1.0202485 3.0420306
2.0856624 1.4174896 3.4139702
0.077667393 0.024399025 7.8239756
0.49235371 0.32315177 3.7443817
0.62079924 0.41147509 3.6041479
0.85936177 0.57546902 3.3535349
1.2196535 0.82094002 3.5231504
1.3997253 0.94494021 3.1622362
1.7975037 1.2161677 3.2601087
2.313024 1.5666926 3.4213862
0.2728985 0.16120905 5.3205361
0.49032712 0.31432825 5.3889213
0.72732508 0.48326373 3.3995969
0.98465627 0.65882403 3.2759655
1.2446162 0.83614683 3.1640978
1.5112525 1.0179085 3.0505624
2.0905976 1.4102007 3.4139702
0.0777945 0.024138018 7.8289752
0.49478126 0.32227865 3.7542601
0.62393343 0.41042417 3.6139383
0.86136526 0.57246578 3.3535349
1.2225118 0.81667769 3.5231504
1.405005 0.94138157 3.1666255
1.8064106 1.2130233 3.2683747
2.3104985 1.5532445 3.4098735
0.27345955 0.16025546 5.3205361
0.4905214 0.31204322 5.3789787
0.72795796 0.48003015 3.3947573
0.98551238 0.65442854 3.2712729
1.2656405 0.84387273 3.20911
1.5169647 1.0140764 3.0548284
2.0854917 1.3961895 3.39801
0.077878281 0.023866318 7.8289752
0.49525043 0.32012808 3.7493207
0.62706786 0.40935647 3.6237288
0.86335832 0.56945556 3.3535349
1.2269834 0.81348485 3.5277531
1.4082824 0.93647152 3.1666255
1.8129754 1.2082709 3.2725077
2.3105736 1.5416123 3.4021988
0.27426732 0.15944424 5.3255281
0.49025473 0.30947641 5.3640637
0.72857732 0.47679815 3.3899181
0.98779082 0.65098441 3.2712729
1.2812871 0.84785819 3.2406185
1.5248418 1.0116584 3.0633602
2.082823 1.3838989 3.38604
0.077961117 0.023594327 7.8289752
0.49571067 0.3179782 3.7443817
0.63020241 0.40827179 3.6335194
0.86534077 0.56643844 3.3535349
1.2281834 0.80812317 3.5231504
1.4135418 0.93286914 3.1710143
1.814835 1.2003827 3.2683747
2.3079233 1.5282286 3.3906863
0.27457166 0.15834247 5.3205361
0.48997611 0.30691531 5.3491497
0.7291829 0.47356761 3.3850784
0.99005711 0.64753246 3.2712729
1.2987967 0.85293949 3.2766283
1.5305421 1.0077636 3.067626
2.0876412 1.3766199 3.38604
0.078043006 0.02332205 7.8289752
0.49616188 0.31582898 3.7394423
0.63248032 0.40661991 3.6384144
0.86731279 0.56341439 3.3535349
1.2309967 0.80383104 3.5231504
1.4187931 0.92924136 3.1754036
1.8307766 1.2017611 3.2890394
2.3078864 1.5166427 3.3830111
0.27487171 0.15724052 5.3155451
0.48968565 0.30435997 5.3342352
0.73083144 0.47101939 3.3850784
0.99231142 0.64407253 3.2712729
1.3127092 0.85553169 3.3036354
1.5362338 1.0038415 3.071892
2.0974762 1.3726242 3.3940198
0.078123935 0.023049487 7.8289752
0.49660423 0.31368056 3.7345033
0.63389587 0.40440965 3.6384144
0.87052888 0.5611921 3.3583069
1.2321556 0.79846686 3.5185483
1.4220282 0.92428321 3.1754036
1.8467497 1.2030427 3.3097041
2.307797 1.5050758 3.3753364
0.27516732 0.15613841 5.3105531
0.48983723 0.30208981 5.3242917
0.73247117 0.46846545 3.3850784
0.9960044 0.64153904 3.2759655
1.3339678 0.86276573 3.3486478
1.5419167 0.99989182 3.0761578
2.1199448 1.3767823 3.4219503
0.078203917 0.022776643 7.8289752
0.49703756 0.31153286 3.7295637
0.63616413 0.40273887 3.6433098
0.87248254 0.55814999 3.3583069
1.2349353 0.79416102 3.5185483
1.4272584 0.9206118 3.1797926
1.8603909 1.2026998 3.3262358
2.3103456 1.4952694 3.3714988
0.27545866 0.15503614 5.3055615
0.49134362 0.30065599 5.3292637
0.73410201 0.46590576 3.3850784
0.9996919 0.63898772 3.2806582
1.3461319 0.8639828 3.3711536
1.5475909 0.99591476 3.0804241
2.1576648 1.3905938 3.4738207
0.078282945 0.022503521 7.8289752
0.49812201 0.30979595 3.7295637
0.63670367 0.39997441 3.6384144
0.87442553 0.55510104 3.3583069
1.232759 0.78669286 3.5047405
1.4304633 0.91562414 3.1797926
1.8811578 1.2068346 3.3551667
2.3047633 1.4802674 3.3561487
0.27574563 0.15393375 5.3005695
0.49193424 0.29866278 5.3242917
0.73678762 0.46401006 3.3899181
1.0033736 0.63641834 3.285351
1.3271048 0.84524649 3.3171391
1.5576522 0.99471736 3.0932217
2.1904294 1.4009117 3.5177109
0.078361019 0.022230126 7.8289752
0.49920037 0.30805528 3.7295637
0.64068872 0.39936453 3.6531003
0.87635785 0.55204535 3.3583069
1.2321962 0.78029472 3.4955354
1.4316291 0.90934134 3.1754036
1.8901067 1.203283 3.3634324
2.3180251 1.4773812 3.3676612
0.27628127 0.15297027 5.3005695
0.4929738 0.29694378 5.3242917
0.73840278 0.46143538 3.3899181
1.0085101 0.63475019 3.2947366
1.328207 0.83944589 3.3126378
1.5699269 0.99485773 3.1102853
2.2182038 1.4077885 3.5536211
0.078480825 0.021965522 7.8339748
0.50027263 0.30631086 3.7295637
0.64294493 0.397661 3.6579952
0.87827957 0.54898292 3.3583069
1.2299496 0.77287072 3.4817278
1.4388468 0.9068923 3.1841817
1.8895371 1.1936722 3.3551667
2.323168 1.4692808 3.3676612
0.27656007 0.15186679 5.2955785
0.49400732 0.29522115 5.3242917
0.74107742 0.45951721 3.3947573
1.0121834 0.63213992 3.2994294
1.320063 0.82786548 3.2856307
1.5844294 0.99631274 3.1316152
2.2358534 1.4080653 3.5735712
0.078557014 0.02169144 7.8339748
0.50133878 0.30456275 3.7295637
0.65040499 0.39914054 3.6922619
0.88145918 0.54670042 3.3630788
1.2276664 0.76547223 3.4679203
1.4582487 0.91202319 3.2192943
1.891308 1.1855747 3.3510334
2.3282826 1.4611624 3.3676612
0.27708852 0.1509005 5.2955785
0.4945761 0.29322347 5.3193207
0.74374765 0.45758605 3.3995969
1.0173178 0.63042057 3.308815
1.3192481 0.82095248 3.2766283
1.6011736 0.99905896 3.1572106
2.2407548 1.4002522 3.5735712
0.078674994 0.021425858 7.838975
0.50239891 0.30281088 3.7295637
0.64744514 0.39422137 3.6677856
0.88336217 0.54362023 3.3630788
1.223685 0.75707114 3.4495103
1.4756687 0.91576678 3.2500179
1.8906556 1.1759931 3.3427677
0.27761358 0.14993237 5.2955785
0.49467731 0.29095548 5.3093777
0.74641335 0.45564178 3.4044361
1.0224524 0.62867308 3.3182003
1.3258104 0.81862962 3.2856307
1.6179563 1.0017003 3.1828063
2.243068 1.3908341 3.5695813
0.078749306 0.021151101 7.838975
0.50345278 0.30105534 3.7295637
0.64533055 0.38985395 3.6482048
0.88525432 0.54053336 3.3630788
1.221325 0.74972922 3.4357026
1.4972112 0.92191094 3.2895195
1.8923546 1.1679085 3.3386347
0.27788031 0.1488269 5.2905865
0.49522924 0.28895864 5.3044057
0.74907458 0.45368454 3.4092758
1.0275872 0.62689739 3.3275859
1.3379416 0.8196823 3.3081367
1.6347766 1.0042365 3.2084019
2.2453427 1.3814169 3.5655911
0.078822657 0.020876085 7.838975
0.50516909 0.29969221 3.7345033
0.64930803 0.38916853 3.6628907
0.88841248 0.53821319 3.3678508
1.2189289 0.74241304 3.421895
1.5106393 0.92292178 3.311465
1.8964198 1.1612959 3.3386347
0.27839813 0.14785601 5.2905865
0.49577335 0.28696153 5.2994342
0.75173122 0.45171422 3.414115
1.032722 0.62509346 3.3369715
1.3519565 0.82179087 3.335144
1.6538615 1.0080248 3.2382634
2.2475791 1.3720009 3.5616009
0.078895047 0.020600816 7.838975
0.50621212 0.29792702 3.7345033
0.64278454 0.38221839 3.6188335
0.89028579 0.5351088 3.3678508
1.2164965 0.73512274 3.4080875
1.5158998 0.91888446 3.3158541
1.898057 1.153208 3.3345017
0.27891254 0.14688332 5.2905865
0.49630955 0.28496414 5.2944632
0.75438327 0.44973084 3.4189546
1.0378566 0.62326127 3.3463571
1.3529527 0.81594259 3.3306429
1.6729923 1.0116919 3.2681251
2.2497771 1.362586 3.5576108
0.07892362 0.020317128 7.8339748
0.507249 0.29615822 3.7345033
0.64060628 0.37790394 3.5992527
0.89343047 0.53276223 3.372623
1.2140282 0.72785866 3.39428
1.5170457 0.9123531 3.311465
1.9020709 1.1465755 3.3345017
0.27916723 0.14577603 5.2855949
0.49776465 0.28349343 5.2994342
0.75594848 0.44709483 3.4189546
1.042991 0.62140095 3.3557425
1.3557926 0.81121492 3.3306429
1.6966417 1.017921 3.3065183
2.2545197 1.3547245 3.5576108
0.078951173 0.02003349 7.8289752
0.5089522 0.29477483 3.7394423
0.63664788 0.37258142 3.5698812
0.89528471 0.52964032 3.372623
1.211524 0.72062063 3.3804724
1.5078804 0.89968973 3.2851305
1.9108917 1.1428175 3.3427677
0.2794176 0.14466874 5.2806029
0.49875116 0.28175417 5.2994342
0.75750458 0.44445336 3.4189546
1.0481251 0.61951226 3.365128
1.354872 0.80425519 3.3216405
1.706908 1.015994 3.3193161
2.2592349 1.3468466 3.5576108
0.078977704 0.019749908 7.8239756
0.50997806 0.29299647 3.7394423
0.63442165 0.36831301 3.5503004
0.89712805 0.52651197 3.372623
1.2106668 0.71440178 3.3712673
1.4986455 0.88710159 3.2587962
1.9172893 1.1375762 3.3469007
0.27966365 0.14356151 5.2756119
0.50019681 0.28027171 5.3044057
0.75796491 0.44117433 3.414115
1.0547475 0.61846805 3.3792064
1.3539191 0.79731166 3.3126378
1.7194271 1.0153337 3.33638
2.2613289 1.3374183 3.5536211
0.079046167 0.019474104 7.8239756
0.51167303 0.29159895 3.7443817
0.63482094 0.36558834 3.5454051
0.89767033 0.52262628 3.3678508
1.2097809 0.70819765 3.3620622
1.4831454 0.87095088 3.2192943
1.9406497 1.1422956 3.3799641
0.27964762 0.14232418 5.2656283
0.50117213 0.27852398 5.3044057
0.75841159 0.43789759 3.4092758
1.0613751 0.61738509 3.3932846
1.3548144 0.79148275 3.3081367
1.7319623 1.0145983 3.3534436
2.2659836 1.3295166 3.5536211
0.079113655 0.019198064 7.8239756
0.51268774 0.2898111 3.7443817
0.6360932 0.36337018 3.5454051
0.8994891 0.51948965 3.3678508
1.2088666 0.70200849 3.3528571
1.4861765 0.86576843 3.2192943
1.9689265 1.1497037 3.421294
0.27962643 0.14108872 5.2556453
0.5021413 0.27677286 5.3044057
0.75884461 0.43462309 3.4044361
1.0680081 0.61626339 3.4073629
1.3556852 0.78565729 3.3036354
1.7332383 1.007236 3.3491776
2.2654021 1.3185673 3.5456409
0.079180188 0.018921787 7.8239756
0.5143742 0.28839934 3.7493207
0.63647175 0.36064589 3.5405099
0.90129697 0.51634669 3.3678508
1.2096167 0.69680941 3.3482547
1.4891895 0.86057544 3.2192943
1.9777977 1.1456447 3.4295595
0.27959999 0.13985515 5.2456617
0.50263643 0.27476305 5.2994342
0.76035708 0.43197155 3.4044361
1.0731484 0.61424577 3.4167485
1.3565321 0.77983552 3.2991343
1.7367437 1.0011798 3.3491776
2.2673814 1.3091449 3.5416508
0.079245761 0.018645281 7.8239756
0.51605701 0.28697938 3.7542601
0.63772672 0.35842198 3.5405099
0.90309387 0.51319742 3.3678508
1.2103454 0.69161367 3.3436522
1.4901065 0.85418099 3.2149053
1.9817847 1.1387339 3.4295595
0.27982742 0.1387509 5.2406697
0.5031237 0.27275315 5.2944632
0.76076514 0.42869794 3.3995969
1.0797882 0.61305165 3.4308267
1.3573548 0.77401733 3.2946329
1.7243794 0.98604953 3.3193161
2.2667077 1.2982273 3.5336709
0.079310358 0.01836855 7.8239756
0.51705563 0.28517625 3.7542601
0.63808441 0.35569823 3.5356147
0.90618026 0.51077467 3.372623
1.2110525 0.68642139 3.3390496
1.5014071 0.85370916 3.2324615
1.9344059 1.1025481 3.3427677
0.27979106 0.13752025 5.2306867
0.50360304 0.27074322 5.2894917
0.76225698 0.42603976 3.3995969
1.0879364 0.61266518 3.4495978
1.3562585 0.76713121 3.2856307
1.7141995 0.97230452 3.2937207
2.2633657 1.2858421 3.5217009
0.079373993 0.018091593 7.8239756
0.51872975 0.28374222 3.7591994
0.63932216 0.35346875 3.5356147
0.90795767 0.50760847 3.372623
1.2117381 0.68123257 3.3344471
1.5127226 0.8531689 3.2500179
1.8843496 1.0653226 3.2518427
0.28000945 0.13641715 5.2256951
0.50454503 0.26898366 5.2894917
0.76373947 0.42337638 3.3995969
1.0945884 0.61138791 3.4636762
1.3570296 0.76132739 3.2811296
1.6993986 0.95608532 3.259593
2.2678404 1.2779335 3.5217009
0.07943666 0.017814416 7.8239756
0.51971704 0.28192979 3.7591994
0.6405521 0.35123491 3.5356147
0.91102964 0.50515968 3.3773947
1.2141086 0.67699867 3.3344471
1.5240524 0.85255986 3.2675743
1.858603 1.0422233 3.2022474
0.28022355 0.13531421 5.2207031
0.50548089 0.26722082 5.2894917
0.76521271 0.42070785 3.3995969
1.1012447 0.61007166 3.4777546
1.3558741 0.75446904 3.2721272
1.6958933 0.9463352 3.2467954
2.2670267 1.2670695 3.5137208
0.079498358 0.017537022 7.8239756
0.52138245 0.28048167 3.7641387
0.64177424 0.34899682 3.5356147
0.91278738 0.50197649 3.3773947
1.2164644 0.67275649 3.3344471
1.5333021 0.85072029 3.2807415
1.8499331 1.0288907 3.1815827
0.28069416 0.13433522 5.2207031
0.5064106 0.26545474 5.2894917
0.76667655 0.4180342 3.3995969
1.1094176 0.6095472 3.4965255
1.3565934 0.74867976 3.2676258
1.7037501 0.94293523 3.2553272
2.2872484 1.2679135 3.5376611
0.079559095 0.017259413 7.8239756
0.52235836 0.27866 3.7641387
0.64298856 0.34675449 3.5356147
0.91453409 0.49878722 3.3773947
1.2188053 0.66850615 3.3344471
1.5446556 0.84998095 3.2982976
1.8609055 1.0265043 3.1939816
0.28090015 0.13323174 5.2157121
0.50733405 0.26368544 5.2894917
0.76702529 0.41475779 3.3947573
1.1160847 0.6081475 3.5106039
1.3630179 0.74602997 3.2766283
1.7138901 0.94074684 3.2681251
5.5289564 3.0396411 8.429431
0.079618856 0.016981594 7.8239756
0.52332789 0.27683493 3.7641387
0.64419508 0.34450793 3.5356147
0.9162696 0.49559188 3.3773947
1.2228477 0.6651811 3.3390496
1.5497155 0.84573114 3.3026869
1.8842276 1.0308063 3.2270451
0.28136352 0.13225041 5.2157121
0.50825143 0.26191288 5.2894917
0.76846838 0.41207784 3.3947573
1.1273104 0.6091693 3.5387604
1.367527 0.74230605 3.2811296
1.7217448 0.93725216 3.2766569
5.5289516 3.0145533 8.4134712
0.079677649 0.01670357 7.8239756
0.52360272 0.27464592 3.7591994
0.64539373 0.34225717 3.5356147
0.91799396 0.49239045 3.3773947
1.2268816 0.66183585 3.3436522
1.5568711 0.84259623 3.311465
1.9026551 1.032274 3.2518427
0.28156134 0.13114642 5.2107201
0.5091626 0.26013717 5.2894917
0.76990211 0.40939286 3.3947573
1.1263876 0.60360068 3.5293748
1.3739437 0.73959142 3.2901318
1.7318909 0.93495297 3.2894547
5.5394406 2.9952354 8.4134712
0.079735465 0.016425341 7.8239756
0.52455825 0.27281651 3.7591994
0.64658445 0.34000224 3.5356147
0.91970712 0.48918307 3.3773947
1.2326299 0.659392 3.3528571
1.561913 0.83828908 3.3158541
1.9483753 1.0482912 3.322103
0.28201741 0.13016279 5.2107201
0.51054323 0.25859877 5.2944632
0.77132648 0.40670294 3.3947573
1.1269639 0.59885561 3.5246823
1.380358 0.73684102 3.2991343
1.7397426 0.93136352 3.2979865
5.5445504 2.973033 8.4054909
0.079792313 0.016146913 7.8239756
0.52481663 0.27062804 3.7542601
0.64776736 0.33774319 3.5356147
0.92140907 0.48596972 3.3773947
1.238376 0.65691608 3.3620622
1.566944 0.83395696 3.3202431
1.9867817 1.0600277 3.3799641
0.28247008 0.12917756 5.2107201
0.51191938 0.25705391 5.2994342
0.77385551 0.40459019 3.3995969
1.1275206 0.59411383 3.5199893
1.3848457 0.73303646 3.3036354
1.7429831 0.92528492 3.2979865
5.5256286 2.9380996 8.3615999
0.079848193 0.015868288 7.8239756
0.52575803 0.26879445 3.7542601
0.64984697 0.3359473 3.5405099
0.92309982 0.48275045 3.3773947
1.2441198 0.6544081 3.3712673
1.5698454 0.82848227 3.3202431
2.0203187 1.0688769 3.4295595
5.9780631 3.1666224 8.176054
0.28291926 0.12819077 5.2107201
0.51376832 0.25573981 5.3093777
0.77526307 0.40188646 3.3995969
1.128058 0.58937544 3.5152967
1.3912513 0.73022115 3.3126378
1.7485102 0.92040998 3.3022525
5.5145273 2.9075511 8.3296804
0.079903103 0.015589468 7.8239756
0.5259999 0.26660663 3.7493207
0.6510157 0.33367687 3.5405099
0.9247793 0.47952527 3.3773947
1.2481287 0.65096456 3.3758698
1.5706058 0.82188708 3.3158541
2.0265296 1.0631254 3.4336927
5.9919181 3.1472263 8.1798916
0.28362876 0.1273198 5.2157121
0.51609248 0.25465137 5.3242917
0.77777922 0.3997522 3.4044361
1.1270437 0.58384699 3.5059111
1.3957229 0.72636521 3.3171391
1.7517126 0.91430098 3.3022525
5.5059505 2.8785117 8.3017502
0.079957031 0.01531046 7.8239756
0.52692729 0.2647689 3.7493207
0.6521765 0.33140239 3.5405099
0.92644757 0.47629428 3.3773947
1.2486581 0.64570659 3.3712673
1.5713392 0.81529671 3.311465
2.0277317 1.0547465 3.4295595
6.0170813 3.1336939 8.1990786
0.28407148 0.12632897 5.2157121
0.51841533 0.25354987 5.3392067
0.78029001 0.39760527 3.4092758
1.1275398 0.57912105 3.5012183
1.4001846 0.72248697 3.3216405
1.7525768 0.90698206 3.2979865
5.5159645 2.8592749 8.3017502
0.080009982 0.015031264 7.8239756
0.5278483 0.26292798 3.7493207
0.65423876 0.32958165 3.5454051
0.92810446 0.47305745 3.3773947
1.2491658 0.6404528 3.3666646
1.569916 0.80761576 3.3026869
2.041405 1.052821 3.4460914
6.0222878 3.1097302 8.1914043
0.28477526 0.12545213 5.2207031
0.52073675 0.25243524 5.3541212
0.78167313 0.39487913 3.4092758
1.1264787 0.57361585 3.4918327
1.4065742 0.71957773 3.3306429
1.7557322 0.90085894 3.2979865
5.5259118 2.840003 8.3017502
0.08010529 0.014757044 7.8289752
0.5280661 0.26074022 3.7443817
0.65538526 0.3272959 3.5454051
0.92975008 0.4698149 3.3773947
1.2496521 0.63520342 3.3620622
1.5684584 0.79995471 3.2939088
2.0450675 1.0456887 3.4460914
0.28547639 0.12457192 5.2256951
0.52161473 0.25061598 5.3541212
0.78641886 0.39383605 3.4237938
