# .PCD v0.7 - Point Cloud Data file format
VERSION 0.7
FIELDS x y z
SIZE 4 4 4
TYPE F F F
COUNT 1 1 1
WIDTH 1491
HEIGHT 1
VIEWPOINT 0 0 0 1 0 0 0
POINTS 1491
DATA ascii
-0.67273343 1.1989244 5.3305273
-0.91519302 1.6186602 5.110837
-1.0769335 1.8963234 4.572978
-0.96497017 1.6943693 3.259593
-0.91207552 1.5989137 2.5122247
-0.86335421 1.5110699 1.9649286
-0.85206467 1.4810944 1.7589295
-0.82328528 1.4293543 1.4124217
-0.80065143 1.3895059 1.1360271
-0.78631687 1.3635426 0.91048759
-0.77415699 1.3419245 0.71424389
-0.76268291 1.3215121 0.53843033
-0.76654637 1.3271466 0.38244963
-0.74463046 1.2892076 0.2266054
-0.8357113 1.4573811 1.5774431
-0.81410503 1.418568 1.2744772
-0.79289395 1.3810581 1.0214134
-0.77860171 1.3545353 0.80970585
-0.76767993 1.335005 0.62512344
-0.75627637 1.314653 0.45651609
-0.7456705 1.2962215 0.30078334
-0.73997539 1.2858124 0.15352009
-0.015377387 0.061902769 5.7990527
-0.41545215 0.75665981 5.4879398
-2.0814276 3.7514489 20.649328
-0.81162107 1.445992 5.3482246
-1.0357563 1.8349544 5.0235734
-1.0151182 1.7925824 3.8425436
-0.93525523 1.6475501 2.8550797
-0.8910253 1.5677363 2.2355974
-0.14862883 0.30392462 5.6899195
-0.28493822 0.53228295 5.5877819
-0.66854429 1.2012653 5.3305273
-0.90953732 1.621845 5.110837
-1.0788542 1.9152452 4.6089873
-0.96546316 1.7090815 3.2809229
-0.91094011 1.6099555 2.5241947
-0.86308873 1.5229229 1.9759542
-0.85219187 1.4933519 1.769443
-0.82408345 1.4423585 1.4218372
-0.80202097 1.4031831 1.1442515
-0.78595144 1.3739693 0.91512519
-0.77407312 1.352666 0.71798992
-0.76044863 1.3283296 0.53984034
-0.76679307 1.3383387 0.38431486
-0.74260139 1.2961199 0.22705248
-0.83615685 1.4700259 1.5874195
-0.81514716 1.4319395 1.2833068
-0.79233479 1.3913094 1.0264798
-0.7783646 1.3651302 0.81390196
-0.76769441 1.3458802 0.62841046
-0.75650078 1.3257283 0.45886073
-0.74604994 1.3074187 0.3021647
-0.7404362 1.2970651 0.15392315
-0.015154319 0.06191298 5.7940526
-0.41243702 0.75742286 5.4830003
-2.0732281 3.7676122 20.698282
-0.81165028 1.4579462 5.381628
-1.0293448 1.8385587 5.0235734
-1.0217555 1.8190849 3.8908234
-0.9350208 1.6606132 2.8716116
-0.89184326 1.5820056 2.2509475
-0.14756705 0.30444157 5.6899195
-0.28307846 0.53327429 5.5877819
-0.66373968 1.2024912 5.3256874
-0.90387046 1.62501 5.110837
-1.0795941 1.9323027 4.6404958
-0.96586519 1.7238176 3.3022525
-0.91121328 1.6236365 2.5401547
-0.86275095 1.5347922 1.9869798
-0.85224384 1.5056285 1.7799567
-0.8228817 1.4519989 1.4281141
-0.80124247 1.4132493 1.1497345
-0.7855227 1.3844103 0.91976279
-0.77392358 1.3634231 0.72173601
-0.76054472 1.3393188 0.54266042
-0.76454383 1.3452779 0.38524747
-0.74299371 1.3073635 0.22794664
-0.83468974 1.4794396 1.5940706
-0.81411844 1.4418156 1.2891932
-0.7917136 1.4015735 1.0315461
-0.77806306 1.3757399 0.81809807
-0.76764238 1.3567717 0.63169748
-0.75426269 1.3325909 0.46003303
-0.74636012 1.3186342 0.30354607
-0.73836577 1.3039893 0.15412468
-0.01493811 0.061965503 5.7940526
-0.40979061 0.75885791 5.4830003
-0.80583477 1.4594636 5.3768559
-1.0229208 1.8421406 5.0235734
-1.0200614 1.8310095 3.9083796
-0.93607843 1.6761515 2.8922763
-0.8925724 1.5962998 2.2662973
-0.14637919 0.30469421 5.6849275
-0.28121528 0.5342592 5.5877819
-0.65953821 1.2048007 5.3256874
-0.89819264 1.6281551 5.110837
-1.0802281 1.9493887 4.6720047
-0.96617591 1.738577 3.3235822
-0.91140199 1.6373391 2.5561152
-0.86234069 1.5466776 1.9980052
-0.85222042 1.5179232 1.7904702
-0.82543707 1.4684346 1.4406679
-0.80245292 1.4269716 1.1579589
-0.78503054 1.3948646 0.92440039
-0.7737084 1.3741957 0.72548205
-0.76057327 1.3503246 0.54548049
-0.75984329 1.3479385 0.38524747
-0.74087107 1.3142872 0.22839372
-0.83499026 1.4921193 1.6040471
-0.8130306 1.4517018 1.2950795
-0.79313737 1.4156109 1.0391457
-0.77547657 1.382406 0.82019615
-0.76752359 1.3676791 0.63498449
-0.75436538 1.3436924 0.46237767
-0.7466011 1.3298676 0.30492741
-0.73625588 1.3109146 0.15432622
-0.014715126 0.061974138 5.789053
-0.40713921 0.76028377 5.4830003
-1.0164843 1.8456999 5.0235734
-1.0194548 1.8450408 3.930325
-0.9356755 1.6892554 2.9088082
-0.89321256 1.610618 2.2816474
-0.14531471 0.30520332 5.6849275
-0.27910236 0.53476483 5.5828104
-0.65532863 1.2070956 5.3256874
-0.893332 1.6327945 5.11553
-1.0807557 1.9665025 4.7035131
-0.96639538 1.7533597 3.3449118
-0.91150612 1.6510625 2.5720751
-0.86185801 1.5585788 2.0090308
-0.85212153 1.5302361 1.800984
-0.82599223 1.4815059 1.4500831
-0.80154055 1.4370677 1.1634418
-0.78447497 1.4053323 0.92903793
-0.77342743 1.3849833 0.72922814
-0.7581948 1.3571594 0.54689056
-0.75753069 1.3548702 0.3861801
-0.74113941 1.3255588 0.22928788
-0.83521223 1.5048188 1.6140234
-0.81384629 1.4651315 1.3039091
-0.79237896 1.4259071 1.0442121
-0.77505946 1.3930364 0.82439226
-0.76733792 1.3786021 0.63827151
-0.75439972 1.3548108 0.46472231
-0.74677271 1.3411187 0.30630878
-0.73410672 1.3178412 0.15452774
-0.014498706 0.062025122 5.789053
-0.40448284 0.76170033 5.4830003
-1.1745473 2.1629395 7.9155512
-1.0100354 1.849237 5.0235734
-1.0187626 1.85909 3.9522705
-0.93654722 1.7048433 2.9294727
-0.89376348 1.6249602 2.2969975
-0.14412606 0.30544725 5.6799359
-0.27723396 0.53573585 5.5828104
-0.65170681 1.2104826 5.3305273
-0.88762707 1.6359028 5.11553
-1.081177 1.9836435 4.7350216
-0.96652329 1.7681646 3.3662415
-0.91297239 1.6674494 2.592025
-0.86293268 1.5734679 2.0237315
-0.85367101 1.5456886 1.8150022
-0.8264662 1.494599 1.4594986
-0.80056733 1.4471745 1.1689247
-0.78385586 1.4158132 0.93367553
-0.77308047 1.3957855 0.73297417
-0.75810266 1.3681896 0.54971057
-0.75517899 1.3618022 0.38711271
-0.74133807 1.336848 0.23018204
-0.83535576 1.5175381 1.6240001
-0.81262779 1.4750443 1.3097954
-0.79155821 1.4362153 1.0492785
-0.77457744 1.4036808 0.82858837
-0.76708531 1.3895404 0.64155853
-0.7543655 1.3659457 0.46706694
-0.74448079 1.3480521 0.30699944
-0.73433405 1.3291414 0.1549308
-0.014282109 0.062075354 5.789053
-0.40182155 0.76310754 5.4830003
-1.1691132 2.170969 7.9298677
-1.0026438 1.8510336 5.018971
-1.0179846 1.8731565 3.974216
-0.93732148 1.7204578 2.9501376
-0.89422512 1.6393255 2.3123474
-0.14305896 0.30594847 5.6799359
-0.27536222 0.53670031 5.5828104
-0.64747751 1.2127501 5.3305273
-0.88272887 1.640511 5.1202226
-1.0804567 1.9988964 4.7620287
-0.96904522 1.7875776 3.3961029
-0.91289753 1.6812185 2.6079853
-0.86391389 1.5883832 2.0384321
-0.85340983 1.5580425 1.8255159
-0.82685876 1.5077133 1.468914
-0.79953331 1.4572922 1.1744076
-0.78317302 1.4263066 0.93831313
-0.77266741 1.406602 0.73672026
-0.75794262 1.3792357 0.55253065
-0.75278807 1.3687342 0.38804534
-0.74146682 1.3481548 0.23107618
-0.83542061 1.5302765 1.6339766
-0.81134993 1.484966 1.3156817
-0.79274249 1.4503174 1.056878
-0.77403057 1.4143387 0.83278447
-0.76676559 1.4004936 0.64484555
-0.75426275 1.3770967 0.46941158
-0.74214953 1.354986 0.30769014
-0.73209065 1.3360779 0.15513234
-0.014065339 0.062124833 5.789053
-0.39915538 0.76450557 5.4830003
-1.188948 2.2263901 8.1159744
-0.99617636 1.8545221 5.018971
-1.0182568 1.8893485 4.0005503
-0.937998 1.7360983 2.9708023
-0.89459729 1.6537138 2.3276975
-0.14199013 0.30644599 5.6799359
-0.27348712 0.53765821 5.5828104
-0.64324021 1.2150028 5.3305273
-0.87699705 1.6435823 5.1202226
-1.0806713 2.0160866 4.7935371
-0.97020859 1.8047326 3.4216986
-0.91273761 1.6950072 2.6239452
-0.86641067 1.6063083 2.0568078
-0.85307264 1.5704134 1.8360294
-0.82902938 1.5242677 1.4814678
-0.80043679 1.4710933 1.1826321
-0.78242648 1.4368125 0.94295073
-0.77218831 1.4174327 0.7404663
-0.75541919 1.3860853 0.55394071
-0.75035793 1.375666 0.38897794
-0.73914105 1.3551066 0.23152326
-0.83540666 1.5430337 1.6439531
-0.81193823 1.4984506 1.3245111
-0.79178369 1.4606555 1.0619444
-0.77341872 1.4250097 0.83698058
-0.76412559 1.4073116 0.64648902
-0.75177127 1.3839924 0.47058392
-0.74214256 1.3662714 0.30907148
-0.73219317 1.3474046 0.1555354
-0.013848397 0.062173549 5.789053
-0.39648432 0.76589417 5.4830003
-1.1811693 2.2305269 8.1159744
-0.98969686 1.8579881 5.018971
-1.0184284 1.9055653 4.026885
-0.93857664 1.7517642 2.991467
-0.89487982 1.6681247 2.3430474
-0.14091958 0.30693975 5.6799359
-0.27160868 0.53860956 5.5828104
-0.63841105 1.2161278 5.3256874
-0.87206143 1.6481589 5.1249151
-1.0807791 2.0333028 4.8250461
-0.97249067 1.8242184 3.4515603
-0.91249251 1.7088152 2.6399055
-0.867194 1.6212808 2.0715086
-0.85265952 1.5828007 1.8465432
-0.8292467 1.5374297 1.4908831
-0.79926801 1.4812382 1.188115
-0.78161603 1.4473305 0.94758832
-0.77164292 1.428277 0.74421245
-0.75513798 1.397154 0.55676073
-0.75022566 1.3869182 0.39084318
-0.73914498 1.3664389 0.23241742
-0.8353138 1.5558095 1.6539296
-0.81052893 1.5083967 1.3303974
-0.79076236 1.4710044 1.0670106
-0.77274173 1.4356936 0.84117669
-0.76368588 1.4182857 0.64977604
-0.75154591 1.3951668 0.47292855
-0.74206585 1.3775731 0.31045285
-0.73222554 1.3587482 0.15593846
-0.013631287 0.062221512 5.789053
-0.39380842 0.76727355 5.4830003
-1.1948862 2.2756069 8.2639055
-0.9832052 1.8614315 5.018971
-1.0196205 1.9239222 4.0576086
-0.93773711 1.7649702 3.0079987
-0.89507264 1.6825575 2.3583977
-0.13984729 0.30742979 5.6799359
-0.2697269 0.53955436 5.5828104
-0.63416213 1.2183487 5.3256874
-0.86630297 1.6511929 5.1249151
-1.0807797 2.050544 4.8565545
-0.97464836 1.8437421 3.4814217
-0.91216207 1.7226421 2.6558657
-0.86788315 1.6362778 2.0862093
-0.85217017 1.5952041 1.8570567
-0.82938218 1.5506117 1.5002986
-0.8000108 1.4950798 1.1963394
-0.78074169 1.4578602 0.95222592
-0.76884192 1.4350483 0.74608546
-0.7547887 1.4082375 0.5595808
-0.7500239 1.3981861 0.39270842
-0.73672479 1.3733991 0.2328645
-0.83689642 1.5718992 1.6672316
-0.81096095 1.5219187 1.339227
-0.78967834 1.4813638 1.072077
-0.77199954 1.4463902 0.8453728
-0.76317888 1.429274 0.65306306
-0.74896145 1.402069 0.47410086
-0.73958594 1.384523 0.31114352
-0.72983283 1.3657022 0.15613998
-0.01341401 0.062268712 5.789053
-0.39147988 0.7693361 5.4879398
-1.1986527 2.3022728 8.3450298
-0.97579533 1.8631215 5.0143685
-1.0206968 1.9423101 4.0883317
-0.93812829 1.7806813 3.0286636
-0.89517552 1.6970117 2.3737476
-0.13889116 0.30817962 5.6849275
-0.26784188 0.54049259 5.5828104
-0.6299054 1.2205549 5.3256874
-0.86053395 1.6542068 5.1249151
-1.0816813 2.0697393 4.8925643
-0.97668153 1.8633028 3.5112834
-0.91174614 1.7364873 2.6718256
-0.86847812 1.6512994 2.1009099
-0.85160458 1.6076235 1.8675704
-0.82943565 1.5638131 1.5097139
-0.80066663 1.5089442 1.2045637
-0.78188097 1.4723139 0.95918238
-0.76817793 1.4459113 0.7498315
-0.75437105 1.4193355 0.56240088
-0.74975264 1.4094694 0.39457369
-0.73426497 1.3803591 0.23331158
-0.83663362 1.5847164 1.6772081
-0.81130826 1.5354615 1.3480563
-0.7885316 1.4917336 1.0771434
-0.77119195 1.4570988 0.8495689
-0.76260442 1.4402758 0.65635008
-0.74861306 1.4132652 0.4764455
-0.73938447 1.3958484 0.31252488
-0.72973979 1.3770702 0.15654305
-0.01319657 0.062315159 5.789053
-0.38879201 0.77069795 5.4879398
-1.2043017 2.3329718 8.4404697
-0.96928585 1.8665164 5.0143685
-1.0216571 1.9607294 4.1190557
-0.93842101 1.7964162 3.0493283
-0.89518827 1.7114871 2.3890977
-0.13781455 0.30866256 5.6849275
-0.26571888 0.54094565 5.5778389
-0.62564105 1.2227464 5.3256874
-0.85475445 1.6572006 5.1249151
-1.0814604 2.0870328 4.9240723
-0.97738725 1.8805859 3.5368788
-0.91124457 1.7503506 2.6877859
-0.86897868 1.666345 2.1156106
-0.85096264 1.6200579 1.8780839
-0.82759529 1.5735886 1.5159907
-0.80123544 1.5228314 1.2127882
-0.78086478 1.4828733 0.96381998
-0.76744753 1.4567872 0.75357759
-0.75388515 1.4304477 0.56522095
-0.74941164 1.4207677 0.39643893
-0.7340889 1.3917233 0.23420574
-0.83802313 1.6008592 1.69051
-0.80969507 1.545445 1.3539426
-0.78732198 1.5021132 1.0822097
-0.77031898 1.4678193 0.85376495
-0.75976735 1.4471099 0.65799361
-0.74819565 1.4244761 0.47879013
-0.73911297 1.407189 0.31390625
-0.72957623 1.3884542 0.15694611
-0.012978969 0.062360846 5.789053
-0.38609943 0.77205038 5.4879398
-1.2056707 2.3557649 8.5072775
-0.96187025 1.8681512 5.0097656
-1.0236002 1.9813066 4.1541681
-0.93861544 1.812175 3.069993
-0.89511067 1.7259829 2.4044476
-0.13673629 0.30914173 5.6849275
-0.26382899 0.54186982 5.5778389
-0.62136906 1.2249229 5.3256874
-0.84896457 1.6601741 5.1249151
-1.080137 2.1024134 4.9510798
-0.97917855 1.9002146 3.5667403
-0.91065723 1.7642312 2.7037458
-0.86938477 1.6814139 2.1303113
-0.85189152 1.6356707 1.8921022
-0.82749647 1.5868219 1.5254062
-0.79978287 1.5330336 1.2182711
-0.78183454 1.4973704 0.97077638
-0.76665044 1.4676753 0.75732362
-0.75333077 1.4415736 0.56804103
-0.74900085 1.4320806 0.39830416
-0.73153436 1.3986901 0.23465282
-0.83930999 1.6170305 1.703812
-0.80988538 1.5590228 1.3627722
-0.78803736 1.5163277 1.0898093
-0.76938057 1.4785514 0.85796106
-0.75907224 1.4581306 0.66128063
-0.74770904 1.4357011 0.48113477
-0.7387712 1.4185447 0.31528762
-0.72934192 1.3998537 0.15734917
-0.01276121 0.062405769 5.789053
-0.38340211 0.77339339 5.4879398
-1.2197268 2.4038882 8.664753
-0.95534337 1.8714974 5.0097656
-1.0243204 1.9997891 4.1848917
-0.93999648 1.8304601 3.0947907
-0.89494288 1.740499 2.4197977
-0.13565634 0.30961716 5.6849275
-0.26170459 0.54230726 5.5728669
-0.61708951 1.2270843 5.3256874
-0.84316427 1.6631274 5.1249151
-1.0797075 2.1197498 4.9825883
-0.98084486 1.9198788 3.596602
-0.90998405 1.778129 2.7197061
-0.87124252 1.6995227 2.1486869
-0.85272163 1.6513094 1.9061204
-0.82552767 1.5966157 1.5316831
-0.80018985 1.546958 1.2264955
-0.78067607 1.5079582 0.97541398
-0.76578671 1.4785758 0.76106972
-0.75270796 1.452713 0.57086104
-0.74625874 1.4390472 0.3992368
-0.73123264 1.4100769 0.23554698
-0.83878577 1.6299105 1.7137885
-0.80813986 1.5690272 1.3686585
-0.78668851 1.5267333 1.0948756
-0.76837659 1.4892949 0.86215717
-0.75830948 1.4691639 0.66456765
-0.74715304 1.4469401 0.48347941
-0.73608714 1.4255151 0.31597832
-0.72903693 1.4112685 0.15775223
-0.012543296 0.062449936 5.789053
-0.38070011 0.77472705 5.4879398
-1.2294372 2.4441371 8.7935963
-0.9488048 1.8748208 5.0097656
-1.0249238 2.0183008 4.2156153
-0.93998462 1.846269 3.1154556
-0.89322889 1.7521793 2.4313099
-0.13457476 0.31008881 5.6849275
-0.26003963 0.54369849 5.5778389
-0.61280245 1.2292309 5.3256874
-0.83735377 1.6660603 5.1249151
-1.0781887 2.1351652 5.0095959
-0.98238564 1.9395776 3.6264634
-0.91058826 1.7947307 2.739656
-0.87144858 1.7146426 2.1633875
-0.85345286 1.6669736 1.9201386
-0.82527602 1.6098789 1.5410986
-0.80050933 1.5609039 1.2347199
-0.78147596 1.5224971 0.98237038
-0.76485604 1.4894878 0.76481575
-0.75201637 1.4638655 0.57368112
-0.74572331 1.4503807 0.40110204
-0.73086035 1.4214785 0.23644114
-0.83818173 1.6428063 1.7237651
-0.80817258 1.5826381 1.377488
-0.7872377 1.5409869 1.1024752
-0.76730686 1.500049 0.86635327
-0.75747883 1.4802092 0.66785467
-0.74652773 1.4581926 0.48582402
-0.73562002 1.4368918 0.31735966
-0.72866112 1.4226979 0.15815529
-0.012325228 0.062493339 5.789053
-0.37799349 0.77605122 5.4879398
-1.2315546 2.4697876 8.8699484
-0.94225466 1.8781214 5.0097656
-1.0254105 2.0368409 4.2463388
-0.94114166 1.8646121 3.1402533
-0.89433557 1.7695901 2.4504976
-0.13360475 0.31082225 5.6899195
-0.25814021 0.54460293 5.5778389
-0.60850787 1.2313625 5.3256874
-0.83076358 1.6674287 5.1202226
-1.0794986 2.1564362 5.0501065
-0.98380059 1.9593099 3.6563249
-0.91108751 1.8113581 2.7596061
-0.87155962 1.7297847 2.1780884
-0.85408503 1.682663 1.9341568
-0.82494175 1.6231595 1.5505139
-0.79884595 1.5711432 1.2402028
-0.78017467 1.5331116 0.98700798
-0.7638585 1.5004113 0.76856184
-0.75125611 1.4750308 0.57650119
-0.7428869 1.4573514 0.40203464
-0.73041725 1.4328947 0.23733529
-0.83749777 1.6557176 1.7337415
-0.80811995 1.5962682 1.3863175
-0.7857492 1.551417 1.1075416
-0.7661714 1.5108141 0.87054938
-0.75658029 1.4912667 0.67114168
-0.74363303 1.4651239 0.48699635
-0.73508233 1.4482825 0.31874102
-0.72595245 1.4296874 0.15835683
-0.012107011 0.062535979 5.789053
-0.37494472 0.77666605 5.4830003
-1.257979 2.5449958 9.1228638
-0.93569309 1.8813989 5.0097656
-1.02578 2.0554087 4.2770624
-0.9409228 1.8804688 3.1609178
-0.8938958 1.7841641 2.4658477
-0.13251896 0.31128672 5.6899195
-0.25533241 0.54357004 5.5579529
-0.60365307 1.2323502 5.3208485
-0.82493812 1.6703185 5.1202226
-1.0797056 2.1757917 5.0861163
-0.98508996 1.9790761 3.6861866
-0.91148162 1.8280106 2.7795563
-0.87157542 1.7449481 2.1927891
-0.85461795 1.6983768 1.948175
-0.82452482 1.6364574 1.5599293
-0.79712093 1.58139 1.2456857
-0.77880883 1.5437357 0.99164557
-0.7648828 1.5154846 0.77418089
-0.75042695 1.4862084 0.57932127
-0.74222642 1.4687041 0.40389988
-0.7299034 1.444325 0.23822945
-0.83840746 1.6719816 1.7470435
-0.80798203 1.6099173 1.395147
-0.78613162 1.5657076 1.115141
-0.76700866 1.5256441 0.87684357
-0.75773549 1.5065546 0.67607224
-0.74288368 1.4763945 0.48934099
-0.734474 1.4596869 0.32012239
-0.72545016 1.4411376 0.15875989
-0.011888646 0.062577859 5.789053
-0.37223133 0.77797014 5.4830003
-0.71650404 1.4622332 5.2527843
-0.92912006 1.8846537 5.0097656
-1.0260323 2.0740037 4.307786
-0.94060469 1.8963468 3.1815827
-0.89336509 1.7987564 2.4811976
-0.13143156 0.3117474 5.6899195
-0.59989655 1.2355806 5.3256874
-0.818344 1.6716378 5.11553
-1.0807511 2.1971283 5.126627
-0.98625302 1.9988748 3.716048
-0.91310561 1.8473892 2.8034966
-0.8714959 1.7601326 2.2074897
-0.85505158 1.7141148 1.9621931
-0.82576418 1.6532543 1.5724831
-0.79533404 1.5916438 1.2511686
-0.77737826 1.5543687 0.99628317
-0.76373684 1.5264372 0.77792698
-0.749529 1.4973985 0.58214134
-0.74149567 1.4800698 0.40576512
-0.7293185 1.4557689 0.23912361
-0.83755189 1.6849285 1.7570201
-0.80775851 1.6235843 1.4039763
-0.78642392 1.58002 1.1227406
-0.76572722 1.5364363 0.88103968
-0.75668603 1.5176424 0.67935926
-0.74206471 1.4876779 0.4916856
-0.73379505 1.4711046 0.32150373
-0.722646 1.4481314 0.15896143
-0.011670136 0.062618978 5.789053
-0.36984614 0.77996695 5.4879398
-0.71465564 1.4714392 5.2766442
-0.92339349 1.8896409 5.0143685
-1.0261673 2.0926256 4.3385096
-0.94018716 1.9122454 3.2022474
-0.89274329 1.8133664 2.4965477
-0.13034256 0.3122043 5.6899195
-0.59557992 1.2376672 5.3256874
-0.81175065 1.6729317 5.110837
-1.0807068 2.2165418 5.1626368
-0.98614413 2.0163624 3.7416439
-0.91327977 1.8640953 2.8234465
-0.8713209 1.7753375 2.2221904
-0.85380495 1.7266793 1.9727067
-0.82516921 1.6665912 1.5818983
-0.79348516 1.6019043 1.2566516
-0.7758829 1.5650105 1.0009208
-0.76252359 1.5374001 0.78167301
-0.74856192 1.5086 0.58496141
-0.74069458 1.4914483 0.40763035
-0.72866261 1.4672264 0.24001777
-0.83826619 1.7012391 1.7703221
-0.80744952 1.6372696 1.4128059
-0.78662562 1.5943531 1.1303401
-0.76638997 1.5513071 0.88733381
-0.75556839 1.5287412 0.68264627
-0.74117595 1.4989733 0.49403024
-0.73304528 1.4825351 0.3228851
-0.72201693 1.4596012 0.15936449
-0.011451484 0.062659331 5.789053
-0.36712128 0.78125316 5.4879398
-0.71534091 1.4860303 5.3195925
-0.91679174 1.8928527 5.0143685
-1.0261846 2.1112728 4.3692331
-0.94090265 1.9306935 3.2270451
-0.89343601 1.8308747 2.5157351
-0.12925197 0.31265739 5.6899195
-0.59071511 1.2386039 5.3208485
-0.80590606 1.675755 5.110837
-1.0795931 2.2340214 5.1941457
-0.98592496 2.0338736 3.7672393
-0.91334826 1.8808247 2.8433967
-0.86956733 1.787514 2.2332156
-0.85405052 1.7424586 1.986725
-0.82620597 1.6834381 1.5944521
-0.79157436 1.6121712 1.2621346
-0.77627641 1.5796365 1.0078771
-0.76328838 1.5525334 0.78729212
-0.74752569 1.5198128 0.58778149
-0.73765349 1.4984319 0.40856299
-0.72793549 1.4786968 0.24091193
-0.83887678 1.7175748 1.7836241
-0.80705458 1.6509722 1.4216353
-0.78484315 1.6048344 1.1354066
-0.76496208 1.5621248 0.89152992
-0.75438243 1.5398507 0.68593329
-0.74021727 1.5102805 0.49637488
-0.73222458 1.4939784 0.32426646
-0.72131646 1.471084 0.15976755
-0.011232692 0.062698923 5.789053
-0.36439195 0.78252995 5.4879398
-0.7120772 1.4925603 5.3339081
-0.91525108 1.9066089 5.0419836
-1.0271235 2.1321039 4.4043455
-0.94150066 1.9491698 3.2518427
-0.89262176 1.8455242 2.5310853
-0.12815981 0.31310666 5.6899195
-0.58638793 1.2406584 5.3208485
-0.79930925 1.6769999 5.106144
-1.0793105 2.2534835 5.230155
-0.98672491 2.0537586 3.7971005
-0.913311 1.8975774 2.8633468
-0.86921167 1.8027534 2.2479162
-0.85419625 1.7582603 2.0007432
-0.82543254 1.6968125 1.6038677
-0.79143125 1.6262041 1.2703589
-0.77657717 1.5942841 1.0148336
-0.76192605 1.5635234 0.79103822
-0.74642032 1.5310369 0.59060156
-0.73672682 1.509827 0.41042823
-0.72713715 1.4901799 0.24180609
-0.83938348 1.7339356 1.796926
-0.80833626 1.6683296 1.4334079
-0.78487718 1.6192015 1.1430061
-0.76346803 1.5729516 0.89572603
-0.75312799 1.5509702 0.68922031
-0.73706484 1.5172272 0.49754718
-0.73133284 1.5054337 0.3256478
-0.72054464 1.4825796 0.16017061
-0.011013763 0.062737748 5.789053
-0.36165822 0.78379714 5.4879398
-0.70558703 1.4923378 5.3243642
-0.91530401 1.923906 5.078804
-1.0279294 2.152967 4.4394584
-0.94319624 1.970212 3.2807736
-0.89310145 1.8630806 2.5502727
-0.12706608 0.31355211 5.6899195
-0.58205372 1.2426977 5.3208485
-0.79345053 1.6797798 5.106144
-1.0751716 2.2651041 5.2481599
-0.98627675 2.0713186 3.8226964
-0.91446513 1.9170723 2.8872871
-0.86876023 1.8180122 2.2626171
-0.85269481 1.7708708 2.0112567
-0.82626605 1.7137078 1.6164215
-0.78938317 1.6364892 1.275842
-0.77678502 1.6089529 1.02179
-0.76049614 1.5745225 0.79478431
-0.74524558 1.5422715 0.59342158
-0.73359084 1.5168117 0.41136083
-0.72626752 1.5016754 0.24270025
-0.83978605 1.7503207 1.810228
-0.80775678 1.6820722 1.4422375
-0.7848205 1.6335886 1.1506057
-0.76387519 1.5878768 0.90202022
-0.75385296 1.5663549 0.69415081
-0.73598152 1.5285498 0.49989185
-0.73251826 1.5213628 0.32771987
-0.71970129 1.4940877 0.16057368
-0.010794701 0.062775813 5.789053
-0.35892004 0.78505474 5.4879398
-0.69910711 1.4920881 5.3148203
-0.91191506 1.9341577 5.0972137
-1.0275778 2.1716962 4.4701815
-0.94355005 1.9887469 3.3055713
-0.89209402 1.8777673 2.5656228
-0.12597081 0.31399372 5.6899195
-0.5777123 1.2447219 5.3208485
-0.78758216 1.6825392 5.106144
-1.0802301 2.2964222 5.3111773
-0.98683089 2.0912595 3.8525579
-0.91420633 1.9338737 2.9072371
-0.86676168 1.8302256 2.2736425
-0.8526516 1.7867107 2.025275
-0.82531345 1.7271175 1.6258368
-0.78727275 1.6467797 1.2813249
-0.77689987 1.6236423 1.0287464
-0.75899869 1.5855305 0.79853034
-0.74607348 1.557843 0.59765172
-0.73253828 1.5282226 0.41322607
-0.7253263 1.5131826 0.24359439
-0.84008443 1.7667295 1.8235301
-0.80709124 1.6958309 1.4510671
-0.78281969 1.6441023 1.155672
-0.76223409 1.5987269 0.90621626
-0.75244665 1.5775011 0.69743782
-0.73482805 1.5398831 0.50223649
-0.73146868 1.5328492 0.3291012
-0.71878636 1.5056077 0.16097674
-0.010571787 0.062769644 5.7840533
-0.35585713 0.78559494 5.4830003
-0.46403137 1.0120674 5.3762202
-1.3060366 2.8132663 9.9627333
-0.91921508 1.9674199 5.175457
-1.0281247 2.1926179 4.5052948
-0.94378585 2.007308 3.330369
-0.89236015 1.8953698 2.5848103
-0.12487399 0.31443155 5.6899195
-0.5733639 1.2467309 5.3208485
-0.78170425 1.6852782 5.106144
-1.0804845 2.3179369 5.3516879
-0.98836243 2.1135914 3.8866854
-0.91511965 1.9534253 2.9311771
-0.86612868 1.845516 2.2883432
-0.85250813 1.8025718 2.0392931
-0.82594311 1.7440591 1.6383907
-0.78689051 1.6608542 1.2895492
-0.77692163 1.6383522 1.0357027
-0.75942069 1.6007358 0.80414945
-0.74474472 1.5691051 0.60047174
-0.73141497 1.5396444 0.41509131
-0.72431362 1.5247017 0.24448855
-0.83868694 1.7797838 1.8335066
-0.80633932 1.7096052 1.4598964
-0.78259444 1.6585206 1.1632714
-0.76052654 1.6095849 0.91041237
-0.75298977 1.5929257 0.70236832
-0.73568237 1.5556208 0.50575346
-0.73246485 1.5488232 0.33117324
-0.71779972 1.5171397 0.1613798
-0.010352616 0.062806167 5.7840533
-0.35311273 0.78683233 5.4830003
-0.45965385 1.0118269 5.3664293
-1.3061886 2.8395061 10.039084
-0.93942505 2.0291226 5.3273401
-1.0275288 2.2113974 4.5360179
-0.94509178 2.0284457 3.3592994
-0.89251411 1.9129966 2.6039979
-0.12377566 0.3148655 5.6899195
-0.24197006 0.5548864 5.6026964
-0.56900853 1.2487247 5.3208485
-0.77581674 1.6879966 5.106144
-1.0833403 2.3454106 5.4057026
-0.98865354 2.1335931 3.9165471
-0.9159075 1.973007 2.9551175
-0.86682904 1.8638983 2.3067191
-0.85226429 1.8184536 2.0533113
-0.82481086 1.7575023 1.6478059
-0.78641939 1.6749458 1.2977736
-0.77684999 1.6530815 1.042659
-0.75777322 1.6117676 0.80789554
-0.74334645 1.580377 0.60329181
-0.73022074 1.5510768 0.41695657
-0.72322929 1.536232 0.24538271
-0.83878815 1.7962329 1.8468086
-0.8055011 1.723395 1.468726
-0.78045219 1.6690522 1.1683378
-0.76067698 1.6245607 0.91670656
-0.75143111 1.6040969 0.7056554
-0.73437303 1.5669818 0.50809807
-0.73125684 1.5603386 0.33255461
-0.71462035 1.5241594 0.16158132
-0.010133319 0.062841922 5.7840533
-0.35036403 0.78806013 5.4830003
-0.45570144 1.0124966 5.3615346
-1.3179343 2.8915887 10.206103
-0.94373947 2.05725 5.3917751
-1.026814 2.2301993 4.5667415
-0.94508231 2.0470619 3.3840973
-0.89255577 1.9306474 2.6231852
-0.12267583 0.31529564 5.6899195
-0.24003166 0.55572766 5.6026964
-0.56516325 1.2518491 5.3256874
-0.76991981 1.6906945 5.106144
-1.0832994 2.3669934 5.4462132
-0.98772883 2.1512523 3.9421425
-0.91531056 1.9898796 2.9750674
-0.86599261 1.8792286 2.3214197
-0.85191977 1.8343554 2.0673294
-0.82523614 1.7744881 1.6603597
-0.78762329 1.6928456 1.3087394
-0.776685 1.6678305 1.0496155
-0.75605804 1.6228074 0.81164157
-0.74390513 1.596006 0.60752195
-0.72895563 1.5625197 0.41882181
-0.72207326 1.5477732 0.24627687
-0.83878464 1.8127044 1.8601105
-0.80457622 1.7371993 1.4775554
-0.78005826 1.6835005 1.1759374
-0.76073205 1.6395569 0.92300069
-0.75179178 1.6195598 0.71058589
-0.73504049 1.582761 0.51161504
-0.73206317 1.5763559 0.33462667
-0.71350574 1.5357062 0.16198438
-0.0099138981 0.06287691 5.7840533
-0.34729809 0.78856707 5.4780612
-0.45174989 1.013151 5.3566394
-1.3477603 2.9846015 10.516283
-0.95514363 2.1014395 5.4976335
-1.0249866 2.2468441 4.5930762
-0.94495404 2.0657024 3.4088948
-0.89248508 1.9483217 2.6423728
-0.12157449 0.31572196 5.6899195
-0.23788105 0.55607194 5.5977249
-0.56079006 1.2538142 5.3256874
-0.76401353 1.6933717 5.106144
-1.0813233 2.3846393 5.4777222
-0.98669285 2.168931 3.9677382
-0.91585642 2.0095143 2.9990077
-0.86505979 1.894576 2.3361204
-0.85147482 1.8502769 2.0813477
-0.82392383 1.7879632 1.6697752
-0.7869612 1.7069768 1.3169639
-0.77457041 1.6785761 1.0542531
-0.75621802 1.6380639 0.81726068
-0.74235219 1.607303 0.61034197
-0.72761941 1.5739725 0.42068705
-0.7208454 1.559325 0.24717103
-0.83712018 1.8258034 1.870087
-0.80356485 1.7510183 1.486385
-0.77777421 1.6940485 1.1810037
-0.76069164 1.6545733 0.92929488
-0.75008035 1.6307544 0.71387291
-0.73357493 1.5941483 0.51395965
-0.73069644 1.587899 0.33600801
-0.71440846 1.5518018 0.16258898
-0.0096943555 0.06291113 5.7840533
-0.34454337 0.78977454 5.4780612
-0.4482106 1.0147218 5.3566394
-0.65528411 1.4645467 5.1764326
-0.9670527 2.1475148 5.6080937
-1.0230554 2.2635028 4.6194105
-0.94586885 2.08693 3.4378257
-0.89230186 1.9660189 2.6615605
-0.12047167 0.31614441 5.6899195
-0.23510815 0.55493498 5.5778389
-0.55640996 1.2557641 5.3256874
-0.75809789 1.6960282 5.106144
-1.080129 2.4042857 5.5137315
-0.98661679 2.1890056 3.9975996
-0.91503638 2.0264306 3.0189579
-0.86542749 1.9130281 2.3544962
-0.85092872 1.8662174 2.095366
-0.82414401 1.8049912 1.6823291
-0.78794724 1.7249269 1.3279297
-0.77423215 1.6933558 1.0612096
-0.75435227 1.6491252 0.82100672
-0.74072951 1.6186086 0.61316204
-0.72621214 1.5854348 0.42255229
-0.71954572 1.570887 0.24806519
-0.83691877 1.8423125 1.8833891
-0.80413967 1.7685307 1.4981576
-0.77721083 1.7085248 1.1886032
-0.76055557 1.6696091 0.93558902
-0.7482999 1.6419567 0.71715993
-0.7340551 1.6099671 0.51747662
-0.72925788 1.5994517 0.33738938
-0.71313405 1.5633769 0.16299205
-0.0094746966 0.062944584 5.7840533
-0.34178442 0.79097247 5.4780612
-0.44466582 1.0162802 5.3566394
-0.65137744 1.4695545 5.185977
-0.97069275 2.1758561 5.6725292
-1.0210204 2.2801754 4.6457453
-0.94779944 2.1107562 3.4708893
-0.89200568 1.9837381 2.680748
-0.11926632 0.31629252 5.6849275
-0.23337555 0.55624402 5.5828104
-0.55202317 1.2576987 5.3256874
-0.7514745 1.6970863 5.1014519
-1.0779256 2.4219635 5.5452399
-0.98428619 2.2043436 4.0189295
-0.91533971 2.0461159 3.0428979
-0.86567676 1.9315057 2.3728719
-0.85028177 1.8821765 2.1093841
-0.82425523 1.8220423 1.6948829
-0.7870934 1.7390951 1.3361541
-0.77380013 1.7081532 1.0681659
-0.75433207 1.6644158 0.82662582
-0.74101776 1.6342912 0.61739212
-0.72473365 1.5969064 0.42441753
-0.71817404 1.5824589 0.24895935
-0.83507979 1.8554369 1.8933655
-0.8029418 1.7823828 1.506987
-0.7765559 1.7230177 1.1962028
-0.75845683 1.6805273 0.93978512
-0.7464503 1.6531664 0.72044694
-0.73243284 1.6213789 0.51982123
-0.72774756 1.6110133 0.33877075
-0.71178752 1.5749618 0.16339511
-0.0092549212 0.062977277 5.7840533
-0.33932683 0.79287517 5.4830003
-0.44071093 1.0168918 5.3517442
-0.64624375 1.4718194 5.185977
-0.99151856 2.2435617 5.8382201
-1.0179102 2.2946723 4.6676908
-0.94843143 2.1320496 3.4998198
-0.89290094 2.0044072 2.7037728
-0.11816153 0.31670693 5.6849275
-0.23122829 0.55656284 5.5778389
-0.54712862 1.2584652 5.3208485
-0.74415982 1.6965383 5.0920658
-1.077368 2.443639 5.5857511
-0.98502529 2.2268472 4.0530567
-0.91551661 2.0658276 3.066838
-0.86443186 1.9469095 2.3875725
-0.84953368 1.8981537 2.1234024
-0.82425743 1.8391161 1.7074367
-0.78615028 1.7532785 1.3443786
-0.77146035 1.7189268 1.0728035
-0.75231534 1.6754972 0.83037192
-0.73923987 1.6456196 0.62021226
-0.72519827 1.6128671 0.4272154
-0.71673024 1.59404 0.24985351
-0.83467984 1.8719815 1.9066676
-0.80330426 1.7999393 1.5187596
-0.77756667 1.7414631 1.2063355
-0.7581436 1.6955943 0.94607931
-0.74645978 1.6686935 0.7253775
-0.7327252 1.6372355 0.5233382
-0.72616535 1.622584 0.34015211
-0.71036869 1.5865563 0.16379817
-0.0090376893 0.063052744 5.789053
-0.33655712 0.79405481 5.4830003
-0.43715864 1.0184239 5.3517442
-0.64229256 1.476804 5.1955204
-0.99464852 2.2720652 5.9026556
-1.0224187 2.3267162 4.7247486
-0.95006096 2.1559482 3.5328834
-0.89366257 2.0251062 2.7267978
-0.11695613 0.31684634 5.6799359
-0.22928411 0.55736655 5.5778389
-0.54273242 1.2603673 5.3208485
-0.73754561 1.6975428 5.0873733
-1.080157 2.4733202 5.6442671
-0.9782927 2.2326608 4.057323
-0.91556692 2.0855656 3.0907781
-0.86445481 1.9654317 2.4059484
-0.84868437 1.9141484 2.1374204
-0.82415032 1.8562119 1.7199905
-0.78681511 1.7712977 1.3553444
-0.77085441 1.7337526 1.07976
-0.75211453 1.6908205 0.83599097
-0.73934221 1.6613381 0.62444234
-0.72356141 1.6243631 0.42908064
-0.71318799 1.6010813 0.25030059
-0.83417445 1.8885454 1.9199696
-0.80191952 1.813823 1.5275892
-0.77671432 1.7559938 1.2139351
-0.75773424 1.7106794 0.95237339
-0.74445671 1.6799235 0.72866452
-0.73094577 1.6486702 0.52568281
-0.72451127 1.634163 0.34153345
-0.70887756 1.5981601 0.16420123
-0.0088175377 0.063083909 5.789053
-0.33408377 0.79594129 5.4879398
-0.43360102 1.0199437 5.3517442
-0.63536239 1.4749242 5.1812048
-1.0310086 2.3776922 6.1649995
-1.0228926 2.3500347 4.7642498
-0.94703215 2.1695676 3.5494151
-0.89429069 2.0458353 2.7498231
-0.11584942 0.31725267 5.6799359
-0.22733714 0.55816352 5.5778389
-0.53783667 1.2610978 5.316009
-0.73093367 1.6985219 5.0826807
-1.0810233 2.4990542 5.6937799
-0.98399097 2.2671638 4.1127801
-0.91669214 2.1080923 3.1187084
-0.8643589 1.9839774 2.4243243
-0.84773362 1.9301599 2.1514387
-0.8239339 1.8733293 1.7325443
-0.78736347 1.7893426 1.3663102
-0.7701543 1.7485948 1.0867163
-0.74994659 1.7019203 0.83973712
-0.73934376 1.6770772 0.62867242
-0.72185308 1.6358671 0.43094587
-0.71161568 1.6126732 0.25119475
-0.83356351 1.9051285 1.9332715
-0.80206895 1.8314211 1.5393618
-0.77576983 1.7705396 1.2215346
-0.75722885 1.7257822 0.95866758
-0.74428231 1.6954836 0.73359501
-0.7290954 1.6601123 0.52802747
-0.72477639 1.6502843 0.34360549
-0.70731401 1.6097726 0.16460429
-0.0085972808 0.0631143 5.789053
-0.33130339 0.79710263 5.4879398
-0.43003809 1.0214511 5.3517442
-0.6302101 1.4771329 5.1812048
-1.0620176 2.4728286 6.3997283
-1.0241642 2.3755846 4.8081408
-0.9461534 2.1883581 3.574213
-0.89478475 2.0665929 2.7728481
-0.11474129 0.31765512 5.6799359
-0.22538739 0.55895364 5.5778389
-0.53294235 1.2618095 5.3111696
-0.72432375 1.6994753 5.0779877
-1.0825802 2.5268247 5.7477946
-0.98945999 2.3017335 4.1682372
-0.91767108 2.130652 3.1466384
-0.86414391 2.0025463 2.4427001
-0.84810394 1.9494584 2.1689615
-0.82360792 1.8904674 1.7450981
-0.78779554 1.8074127 1.3772761
-0.76935989 1.7634534 1.0936728
-0.74956465 1.717274 0.84535617
-0.73732466 1.68844 0.6314925
-0.72204065 1.6518801 0.43374372
-0.70997113 1.6242735 0.2520889
-0.83284688 1.9217302 1.9465735
-0.80210525 1.8490424 1.5511343
-0.77473336 1.7851003 1.2291342
-0.7566272 1.7409022 0.96496183
-0.7440083 1.7110628 0.73852557
-0.72911292 1.6760186 0.53154445
-0.7229622 1.6618862 0.34498686
-0.70567805 1.6213934 0.16500735
-0.0083769187 0.063143931 5.789053
-0.32851896 0.79825425 5.4879398
-0.42646995 1.022946 5.3517442
-0.62446922 1.4779488 5.1764326
-1.0732591 2.5232639 6.5193939
-1.0252697 2.4011714 4.8520317
-0.94293946 2.2019949 3.5907447
-0.8951447 2.0873785 2.7958732
-0.11363177 0.31805369 5.6799359
-0.22343491 0.55973703 5.5778389
-0.52853459 1.2636621 5.3111696
-0.7177161 1.7004035 5.0732951
-1.0831062 2.5526328 5.797308
-0.99367809 2.3339689 4.2194285
-0.91732138 2.1504719 3.1705787
-0.86514205 2.024255 2.464751
-0.84834987 1.9687829 2.1864841
-0.82471436 1.9111999 1.7607905
-0.78811079 1.8255076 1.388242
-0.76847106 1.7783272 1.1006291
-0.74908471 1.732646 0.85097528
-0.73713946 1.7042121 0.63572258
-0.72017348 1.6634063 0.43560895
-0.71023273 1.6404521 0.25343013
-0.83349729 1.9417813 1.963201
-0.8020283 1.8666862 1.562907
-0.77360445 1.799675 1.2367337
-0.75592905 1.7560388 0.9712559
-0.74363458 1.7266607 0.74345607
-0.72710484 1.6874813 0.53388906
-0.72107583 1.6734953 0.34636822
-0.70396942 1.6330224 0.16541041
-0.0081564542 0.063172787 5.789053
-0.32573053 0.7993961 5.4879398
-0.42289659 1.0244284 5.3517442
-0.61873037 1.4787424 5.1716604
-1.0841613 2.573807 6.6390591
-1.0252763 2.4245889 4.8915334
-0.94074047 2.2182264 3.6114094
-0.8953703 2.1081917 2.818898
-0.11252086 0.31844839 5.6799359
-0.2214797 0.56051356 5.5778389
-0.52508199 1.2678221 5.3208485
-0.7117762 1.7028984 5.0732951
-1.080092 2.5704467 5.8288164
-1.0017357 2.375874 4.2876835
-0.91801691 2.1730912 3.1985087
-0.86467773 2.0428727 2.4831269
-0.84847116 1.9881326 2.2040069
-0.8241564 1.9283837 1.7733443
-0.78830934 1.8436263 1.3992078
-0.76748776 1.7932165 1.1075855
-0.74850643 1.7480352 0.85659432
-0.73496413 1.7155937 0.63854265
-0.72017056 1.6794541 0.43840683
-0.71039003 1.6566521 0.25477138
-0.83255684 1.9584236 1.976503
-0.80183768 1.8843515 1.5746796
-0.77238327 1.8142635 1.2443333
-0.75513446 1.7711917 0.97755009
-0.74130827 1.7379332 0.74674314
-0.72693342 1.7034209 0.53740603
-0.71911722 1.6851115 0.34774956
-0.70414996 1.649254 0.166015
-0.0079339948 0.063157283 5.7840533
-0.32293811 0.80052829 5.4879398
-0.41931811 1.0258983 5.3517442
-0.61356479 1.4808931 5.1716604
-1.0969796 2.6298661 6.7725325
-1.0260568 2.4502444 4.9354243
-0.94497693 2.2500365 3.6568718
-0.89546144 2.1290319 2.841923
-0.11140859 0.31883922 5.6799359
-0.21952181 0.56128323 5.5778389
-0.52208358 1.2731364 5.3353667
-0.70516783 1.703778 5.0686021
-1.0778027 2.5902808 5.8648262
-1.0004696 2.3962033 4.3175449
-0.9174028 2.1929615 3.2224488
-0.86540431 2.0646384 2.505178
-0.84846747 2.0075068 2.2215295
-0.82348841 1.9455867 1.7858981
-0.78839087 1.8617687 1.4101737
-0.76640981 1.8081203 1.114542
-0.74782985 1.7634413 0.86221349
-0.7345919 1.7313968 0.64277273
-0.72006422 1.6955221 0.4412047
-0.71044278 1.6728729 0.25611261
-0.83295912 1.9785241 1.9931306
-0.80310315 1.905763 1.5893955
-0.7727443 1.8328375 1.2544659
-0.75424314 1.78636 0.98384422
-0.74074978 1.7535602 0.75167364
-0.72476721 1.7149023 0.53975064
-0.71708626 1.6967343 0.34913093
-0.70227998 1.6609049 0.16641806
-0.007713486 0.063184597 5.7840533
-0.32014179 0.80165064 5.4879398
-0.41573453 1.0273558 5.3517442
-0.6078254 1.481645 5.1668892
-1.1064365 2.6788223 6.8875957
-1.0257533 2.4737225 4.974926
-0.94576114 2.2741077 3.6899354
-0.89418572 2.146939 2.8611107
-0.11029495 0.31922618 5.6799359
-0.21756122 0.56204605 5.5778389
-0.51952708 1.2796098 5.3547244
-0.69921619 1.7062292 5.0686021
-1.0745589 2.6081169 5.8963346
-1.0000702 2.4189625 4.3516722
-0.91781425 2.2156379 3.2503791
-0.86598927 2.0864339 2.5272288
-0.8483389 2.0269051 2.2390523
-0.82271039 1.9628085 1.7984519
-0.7867384 1.8760778 1.4183981
-0.76523703 1.8230382 1.1214983
-0.74705476 1.778864 0.8678326
-0.73226005 1.7427956 0.64559281
-0.72175884 1.7161375 0.44493517
-0.71039093 1.6891142 0.25745386
-0.83179432 1.9952049 2.0064325
-0.80267233 1.9234759 1.6011682
-0.77132416 1.8474578 1.2620655
-0.75325519 1.8015438 0.99013841
-0.74009103 1.7692041 0.75660414
-0.7244063 1.7308732 0.54326761
-0.71498281 1.7083634 0.3505123
-0.70033717 1.6725626 0.16682112
-0.0074928841 0.063211136 5.7840533
-0.31734157 0.80276328 5.4879398
-0.41214582 1.0288007 5.3517442
-0.60264981 1.4837576 5.1668892
-1.1155647 2.7278759 7.0026588
-1.0262078 2.4994433 5.0188165
-0.94746017 2.3008139 3.7271321
-0.89401758 2.1678264 2.8841357
-0.10917997 0.31960922 5.6799359
-0.21559797 0.56280208 5.5778389
-0.51786906 1.2884135 5.3837605
-0.69325614 1.7086595 5.0686021
-1.0720258 2.6279776 5.9323444
-0.99952376 2.4417479 4.3857994
-0.91693503 2.2355554 3.2743194
-0.86643261 2.108258 2.5492799
-0.84808511 2.0463269 2.2565751
-0.82182199 1.9800483 1.8110057
-0.78659898 1.8942596 1.429364
-0.76396948 1.8379699 1.1284548
-0.74618095 1.7943025 0.87345165
-0.73170024 1.7586281 0.64982289
-0.72142965 1.7322507 0.44773304
-0.71023422 1.7053752 0.25879508
-0.83052325 2.0119014 2.0197346
-0.80367094 1.9449444 1.6158841
-0.76981133 1.8620903 1.269665
-0.75043416 1.8125488 0.99433452
-0.73752505 1.7805022 0.75989115
-0.72394258 1.7468622 0.54678452
-0.71280694 1.7199984 0.35189366
-0.70023501 1.6888419 0.16742572
-0.0072721899 0.063236907 5.7840533
-0.31453747 0.80386609 5.4879398
-0.40817696 1.0292865 5.3468485
-0.59746683 1.4858522 5.1668892
-1.1272963 2.7842693 7.1361318
-1.027397 2.5274162 5.0670967
-0.94792181 2.3249536 3.7601955
-0.89371461 2.1887386 2.9071608
-0.10806366 0.3199884 5.6799359
-0.21363214 0.56355125 5.5778389
-0.51801407 1.3018932 5.4321551
-0.68793064 1.7126703 5.0732951
-1.0791489 2.6720753 6.0223689
-0.9998101 2.4669759 4.4241929
-0.91706151 2.2582855 3.3022494
-0.86801171 2.133251 2.575006
-0.8477059 2.0657711 2.2740977
-0.82082325 1.9973055 1.8235595
-0.78634214 1.9124628 1.4403298
-0.76429278 1.8570112 1.13773
-0.74520856 1.8097566 0.87907082
-0.72921145 1.7700422 0.65264297
-0.72099662 1.7483821 0.45053089
-0.70997256 1.7216557 0.26013631
-0.82914573 2.0286133 2.0330365
-0.80299896 1.962702 1.6276567
-0.76820558 1.8767346 1.2772646
-0.74926686 1.8277555 1.0006286
-0.7366811 1.796173 0.76482171
-0.72337598 1.7628689 0.55030149
-0.71243834 1.7362201 0.3539657
-0.69813025 1.7005193 0.16782878
-0.0070514074 0.063261904 5.7840533
-0.31144917 0.8042345 5.4830003
-0.40458158 1.030705 5.3468485
-0.59172469 1.4865417 5.162117
-1.1335599 2.8280828 7.2373877
-1.0275092 2.5532055 5.1109872
-0.94822639 2.3491242 3.7932591
-0.89327633 2.2096746 2.9301858
-0.10703664 0.32063776 5.6849275
-0.21166366 0.5642935 5.5778389
-0.51392692 1.3048631 5.4369946
-0.68194813 1.7150613 5.0732951
-1.0811282 2.7041254 6.0853858
-0.99993229 2.4922354 4.4625864
-0.91591644 2.2782476 3.3261895
-0.86816007 2.1551356 2.5970571
-0.84585899 2.0819335 2.288116
-0.81971395 2.0145798 1.8361133
-0.78596777 1.9306874 1.4512957
-0.76282072 1.8719745 1.1446863
-0.74413717 1.8252252 0.88468987
-0.72846377 1.7859023 0.65687311
-0.71860296 1.7599838 0.45239612
-0.70960593 1.7379551 0.26147756
-0.82766145 2.0453396 2.0463386
-0.80373001 1.9842248 1.6423724
-0.76812613 1.8953857 1.2873973
-0.74970943 1.8471813 1.0090209
-0.73751312 1.8162344 0.77139574
-0.72087699 1.7743896 0.5526461
-0.71196508 1.7524601 0.35603774
-0.69783372 1.7168305 0.16843337
-0.0068305396 0.063286133 5.7840533
-0.30864 0.80531675 5.4830003
-0.40061274 1.0311618 5.3419533
-0.58653212 1.4885982 5.162117
-1.1380903 2.8683417 7.3294377
-1.0274537 2.579026 5.1548781
-0.94941777 2.3759382 3.8304558
-0.89270282 2.2306342 2.9532106
-0.10591675 0.32100946 5.6849275
-0.20969261 0.56502891 5.5778389
-0.67595732 1.7174312 5.0732951
-1.083698 2.738246 6.152904
-0.99989027 2.5175257 4.5009799
-0.91464317 2.2982295 3.3501298
-0.86816615 2.1770473 2.619108
-0.84524035 2.1014168 2.3056388
-0.81994832 2.035481 1.8518057
-0.78547567 1.9489326 1.4622616
-0.76291078 1.8910584 1.1539615
-0.74296689 1.8407086 0.89030898
-0.72761405 1.8017786 0.66110319
-0.71797794 1.7761441 0.455194
-0.70913398 1.7542725 0.26281881
-0.82607055 2.0620804 2.0596406
-0.80281633 2.0020249 1.654145
-0.76632053 1.910058 1.2949967
-0.74833322 1.8624209 1.0153151
-0.73645276 1.8319421 0.7763263
-0.72012001 1.7904236 0.55616307
-0.70953929 1.7641234 0.3574191
-0.69556671 1.7285254 0.16883643
-0.0066095879 0.063309595 5.7840533
-0.30527642 0.80493593 5.4731216
-0.39737609 1.0335044 5.3468485
-0.5807901 1.4892457 5.1573448
-1.1423533 2.9086661 7.4214888
-1.028109 2.6071055 5.2031579
-0.9493984 2.4001718 3.8635192
-0.89317411 2.2545962 2.9800732
-0.10479558 0.32137722 5.6849275
-0.20771903 0.56575745 5.5778389
-0.6705845 1.7213883 5.0779877
-1.0844548 2.768363 6.2114201
-0.99872959 2.5404184 4.5351076
-0.91434586 2.321033 3.3780599
-0.86802971 2.1989846 2.6411591
-0.84317666 2.1176076 2.3196568
-0.81860495 2.0527928 1.8643595
-0.78486562 1.9671974 1.4732274
-0.76123393 1.9060516 1.160918
-0.74341756 1.8605108 0.8978011
-0.72666228 1.8176702 0.66533327
-0.71542376 1.7877609 0.45705923
-0.70855677 1.7706076 0.26416004
-0.8257491 2.0823057 2.0762682
-0.80327928 2.0235994 1.6688609
-0.76760405 1.9327533 1.3076627
-0.74685973 1.8776734 1.0216092
-0.7352916 1.8476639 0.78125679
-0.71925992 1.8064741 0.55968004
-0.7088725 1.7803919 0.35949114
-0.69507533 1.7448666 0.16944103
-0.0063885562 0.063332275 5.7840533
-0.30273756 0.80672425 5.4780612
-0.39376608 1.0348852 5.3468485
-0.57558811 1.491264 5.1573448
-1.1435174 2.9417713 7.4951291
-1.0285807 2.6352203 5.2514381
-0.95024717 2.4270546 3.9007158
-0.89465898 2.2815726 3.0107732
-0.10367312 0.32174107 5.6849275
-0.2057429 0.56647909 5.5778389
-1.1747811 3.0775609 12.720328
-0.66457164 1.7237186 5.0779877
-1.085801 2.8005481 6.2744365
-0.99836695 2.565764 4.5735011
-0.91390043 2.3438628 3.4059904
-0.86775064 2.2209475 2.6632099
-0.8423177 2.1371272 2.3371794
-0.81715059 2.0701194 1.8769133
-0.78567362 1.9893711 1.4869348
-0.75946164 1.9210559 1.1678745
-0.74203384 1.8760272 0.90342015
-0.72560847 1.8335773 0.66956335
-0.71279722 1.7993813 0.45892447
-0.707874 1.78696 0.26550126
-0.82529634 2.1025536 2.0928955
-0.80212325 2.0414393 1.6806335
-0.76873827 1.9554806 1.3203285
-0.74695134 1.8971609 1.0300014
-0.73402965 1.8634002 0.78618735
-0.71829635 1.82254 0.56319702
-0.70810062 1.7966769 0.36156318
-0.69447827 1.7612253 0.17004563
-0.0061681238 0.06339781 5.789053
-0.29775807 0.80194801 5.4385471
-0.39015126 1.0362533 5.3468485
-0.57037914 1.4932641 5.1573448
-1.1451656 2.976743 7.5733719
-1.0271425 2.6589017 5.2909398
-0.94990301 2.4513483 3.9337795
-0.89480662 2.3055985 3.0376358
-0.1025494 0.322101 5.6849275
-0.20376424 0.56719381 5.5778389
-1.1653633 3.0851705 12.734846
-0.65855068 1.726028 5.0779877
-1.0845963 2.8266783 6.3239503
-0.99690205 2.5887036 4.6076283
-0.91547596 2.3723392 3.4419003
-0.8673287 2.2429349 2.685261
-0.84133273 2.1566665 2.3547022
-0.81416881 2.0838356 1.8863287
-0.78481382 2.0076792 1.4979006
-0.75759381 1.936071 1.1748308
-0.74224102 1.8958738 0.91091239
-0.72445244 1.849499 0.67379349
-0.71189141 1.8155782 0.46172231
-0.70526785 1.7986926 0.26639542
-0.82471228 2.1228235 2.1095231
-0.80085224 2.0592952 1.6924061
-0.7697233 1.9782393 1.3329945
-0.74526817 1.912443 1.0362955
-0.73266667 1.8791497 0.79111785
-0.71722937 1.838621 0.56671393
-0.70722371 1.8129781 0.36363521
-0.69195908 1.7729468 0.17044869
-0.0059467866 0.063418955 5.789053
-0.29629526 0.80662978 5.4632435
-0.38653168 1.037609 5.3468485
-0.5651632 1.4952459 5.1573448
-1.141718 2.9989805 7.6193976
-1.0264065 2.6848419 5.3348303
-0.95040834 2.4782965 3.9709761
-0.89479733 2.3296528 3.0644984
-0.10142443 0.32245699 5.6849275
-0.20178315 0.56790161 5.5778389
-1.155467 3.0915744 12.744525
-0.65191233 1.7267016 5.0732951
-1.091722 2.8752213 6.4229765
-0.99528915 2.6116643 4.6417561
-0.91578901 2.3980408 3.4738207
-0.86676377 2.2649462 2.7073119
-0.841506 2.1795518 2.3757296
-0.81250495 2.1011863 1.8988826
-0.78534448 2.0299056 1.511608
-0.75563031 1.9510963 1.1817871
-0.74064338 1.9114212 0.91653144
-0.72492784 1.8699074 0.67943364
-0.71088105 1.8317906 0.46452022
-0.70438999 1.8150715 0.26773667
-0.82399666 2.1431146 2.1261506
-0.80091822 2.0809398 1.707122
-0.77210766 2.0050514 1.3481935
-0.74512041 1.9319707 1.0446877
-0.7312026 1.8949125 0.7960484
-0.71780938 1.8592511 0.57140321
-0.704458 1.8246753 0.36501658
-0.69116658 1.7893324 0.17105328
-0.0057253777 0.063439324 5.789053
-0.29506844 0.81204134 5.4928789
-0.38290739 1.0389519 5.3468485
-0.5599404 1.4972097 5.1573448
-1.1388179 3.0230584 7.6700249
-1.0238073 2.7063291 5.3699431
-0.9517352 2.5079083 4.0123053
-0.89463103 2.3537354 3.0913608
-0.10021339 0.3225331 5.6799359
-0.19979957 0.5686025 5.5778389
-1.1446685 3.0955889 12.744525
-0.64588106 1.7289667 5.0732951
-1.0939283 2.9116206 6.4949961
-0.99444824 2.6370854 4.6801491
-0.91699868 2.4265914 3.5097306
-0.86725622 2.2901516 2.7330382
-0.84152955 2.2024641 2.3967569
-0.81072974 2.1185505 1.9114364
-0.78572941 2.0521593 1.5253153
-0.75357109 1.9661311 1.1887435
-0.74060625 1.9313092 0.92402357
-0.72526956 1.8903415 0.68507373
-0.70976615 1.8480179 0.46731806
-0.70340633 1.8314657 0.2690779
-0.82447714 2.1669164 2.1461036
-0.79940403 2.0988319 1.7188946
-0.77277911 2.0278754 1.3608595
-0.74484533 1.9515207 1.05308
-0.72963738 1.9106877 0.8009789
-0.71651936 1.875367 0.57492018
-0.70338655 1.8410009 0.36708862
-0.69026798 1.8057339 0.17165788
-0.0055038976 0.063458927 5.789053
-0.37892985 1.0393255 5.3419533
-0.55471075 1.4991552 5.1573448
-1.1357635 3.0471523 7.7206526
-1.0244285 2.7368026 5.4226117
-0.95187771 2.5349252 4.0495019
-0.89430732 2.3778446 3.1182234
-0.099086933 0.32288095 5.6799359
-0.19798817 0.56980014 5.5828104
-1.1355829 3.1042879 12.763884
-0.63924378 1.729592 5.0686021
-1.0974106 2.9521513 6.5760179
-0.99253017 2.6600888 4.7142768
-0.91802013 2.4551795 3.5456409
-0.86639369 2.3122127 2.755089
-0.84140342 2.2254033 2.417784
-0.81022155 2.1395681 1.9271286
-0.78596848 2.0744405 1.5390227
-0.75298697 1.9853172 1.1980187
-0.74043912 1.95122 0.93151569
-0.7254774 1.9108003 0.69071388
-0.7102918 1.8688514 0.47104853
-0.70231676 1.8478754 0.27041915
-0.82348579 2.1872528 2.1627309
-0.79920012 2.1205211 1.7336103
-0.77330053 2.0507283 1.3735253
-0.74444276 1.9710922 1.0614722
-0.72964013 1.9308922 0.80755287
-0.71512544 1.8914964 0.57843715
-0.70220971 1.8573413 0.36916068
-0.68749577 1.8174779 0.17206094
-0.0052823513 0.063477755 5.789053
-0.37529963 1.0406419 5.3419533
-0.5494743 1.5010823 5.1573448
-1.1332306 3.0730946 7.7758832
-1.0281762 2.7762973 5.4928374
-0.9528231 2.5646114 4.0908318
-0.89382613 2.4019797 3.1450858
-0.097959265 0.32322487 5.6799359
-0.195998 0.5704878 5.5828104
-1.1255952 3.1105967 12.773561
-0.63320243 1.7318128 5.0686021
-1.098369 2.9866114 6.6435361
-0.99136674 2.6855571 4.7526703
-0.91885298 2.4838037 3.5815511
-0.866566 2.3374743 2.7808154
-0.84112728 2.2483678 2.4388115
-0.80957645 2.1606076 1.9428209
-0.7845937 2.092833 1.5499885
-0.75383443 2.0086706 1.2096127
-0.73851246 1.9668131 0.9371348
-0.72555107 1.9312836 0.69635403
-0.70895123 1.8851128 0.47384638
-0.69936812 1.8596381 0.27131331
-0.82366574 2.2111075 2.1826839
-0.79744214 2.1384468 1.7453829
-0.77216482 2.0695705 1.3836579
-0.74232388 1.9864329 1.0677663
-0.72951066 1.9511201 0.81412703
