# .PCD v0.7 - Point Cloud Data file format
VERSION 0.7
FIELDS x y z
SIZE 4 4 4
TYPE F F F
COUNT 1 1 1
WIDTH 1554
HEIGHT 1
VIEWPOINT 0 0 0 1 0 0 0
POINTS 1554
DATA ascii
1.5226246 -0.88182855 30.263855
1.517365 -0.8908484 30.263855
1.5170538 -0.89137799 30.263855
1.5111088 -0.90141982 30.263855
1.5105463 -0.90179914 30.258863
1.5050627 -0.9092477 30.243887
1.5029083 -0.91224796 30.238895
1.4976716 -0.91695583 30.203955
1.4956897 -0.92293668 30.228912
1.4931941 -0.92860985 30.243887
1.4904326 -0.93412334 30.25387
1.487407 -0.93947458 30.258863
1.4843619 -0.94481599 30.263855
1.4812977 -0.95014757 30.268845
1.477972 -0.95531249 30.268845
1.4746284 -0.96046573 30.268845
1.4710255 -0.96544874 30.263855
1.4674058 -0.97041833 30.258863
1.4637693 -0.97537452 30.25387
1.4603558 -0.98047799 30.25387
1.4569243 -0.98556966 30.25387
1.4534751 -0.99064928 30.25387
1.4500083 -0.99571681 30.25387
1.4467611 -1.0009366 30.258863
1.4432584 -1.0059806 30.258863
1.439738 -1.0110124 30.258863
1.4362001 -1.016032 30.258863
1.4326447 -1.0210389 30.258863
1.4286032 -1.0256966 30.24888
1.425014 -1.0306771 30.24888
1.4200083 -1.0346242 30.218929
1.4177839 -1.0406004 30.24888
1.4141428 -1.0455431 30.24888
1.4109476 -1.0508181 30.258863
1.4075017 -1.0559101 30.263855
1.4040375 -1.060991 30.268845
3.7514582 -2.5473073 21.824184
1.4003255 -1.0658855 30.268845
3.7425435 -2.5603869 21.824184
1.3968253 -1.0709429 30.273838
3.7302301 -2.5711236 21.804602
1.3930784 -1.0758122 30.273838
3.7245777 -2.586452 21.824184
1.3893148 -1.0806684 30.273838
3.7146921 -2.5988536 21.819286
1.385534 -1.0855114 30.273838
3.7055979 -2.6118042 21.819286
1.3815099 -1.0901623 30.268845
3.6956282 -2.6241341 21.814392
1.3776962 -1.094978 30.268845
3.6856184 -2.636426 21.809498
1.3738656 -1.0997803 30.268845
3.6747408 -2.6480846 21.799707
1.3700182 -1.1045693 30.268845
3.6638265 -2.659699 21.789917
1.3661542 -1.1093448 30.268845
3.6528766 -2.6712697 21.780127
1.3622736 -1.1141069 30.268845
3.64189 -2.6827965 21.770336
1.3581536 -1.1186717 30.263855
3.6300507 -2.6936727 21.755651
1.3542404 -1.1234057 30.263855
3.6198101 -2.7057176 21.750753
1.3500893 -1.1279408 30.258863
3.6087162 -2.7171116 21.740963
1.3457022 -1.1322746 30.24888
3.6000216 -2.7303071 21.745859
1.3413013 -1.1365917 30.238895
3.5904689 -2.742857 21.745859
1.3368868 -1.1408916 30.228912
3.5816796 -2.7559941 21.750753
1.3322397 -1.1449864 30.213938
3.5720375 -2.7684801 21.750753
1.3295438 -1.1507641 30.243887
3.5623519 -2.7809317 21.750753
1.3257364 -1.1555879 30.24888
3.552623 -2.7933497 21.750753
1.3221283 -1.1605897 30.258863
3.5428505 -2.8057337 21.750753
1.3180691 -1.1651977 30.258863
3.5322394 -2.8174486 21.745859
1.3137782 -1.1695994 30.25387
3.5231767 -2.830399 21.750753
1.3096875 -1.1741782 30.25387
3.5069437 -2.8375561 21.711594
1.3055809 -1.1787428 30.25387
3.4930708 -2.8465638 21.687119
1.3016719 -1.1834873 30.258863
3.4799647 -2.8561554 21.667536
1.2975328 -1.1880238 30.258863
4.3037686 -3.4999106 15.139277
3.4652648 -2.8643928 21.638165
1.2933779 -1.1925458 30.258863
4.2808456 -3.5061648 15.101737
3.454463 -2.8758199 21.63327
1.2894186 -1.1972498 30.263855
4.2725744 -3.5243804 15.115814
3.4451835 -2.8885148 21.638165
1.2852315 -1.2017434 30.263855
4.2562642 -3.5359652 15.101737
3.4389694 -2.9038079 21.66264
1.2810289 -1.2062223 30.263855
3.4303634 -2.9171138 21.67243
1.2768105 -1.2106866 30.263855
3.4224801 -2.9310575 21.687119
1.2725767 -1.2151362 30.263855
3.41377 -2.9443164 21.696907
3.5765262 -3.0544491 15.083072
1.2683274 -1.2195709 30.263855
3.4057779 -2.9582179 21.711594
3.5624473 -3.0639946 15.068755
1.2640625 -1.2239908 30.263855
3.4030943 -2.9767923 21.760546
3.530293 -3.0578418 14.978087
1.2597823 -1.2283956 30.263855
3.3980308 -2.9933648 21.794811
3.5297215 -3.0789776 15.021035
1.2552809 -1.2325833 30.258863
4.0672011 -3.5503798 14.735701
3.3944161 -3.0112896 21.838869
3.5111024 -3.0843835 14.987632
1.2505604 -1.2365513 30.24888
4.0483036 -3.5588579 14.712237
3.3884397 -3.0271904 21.86824
3.4991963 -3.0956314 14.98286
1.2458276 -1.2405015 30.238895
4.059113 -3.5935581 14.796707
3.3725538 -3.0342326 21.833975
3.4839113 -3.1038554 14.963772
1.2406747 -1.2440245 30.218929
4.0246477 -3.588182 14.71693
3.3596778 -3.0439351 21.819286
3.4774997 -3.1199851 14.98286
1.237746 -1.2497844 30.25387
4.0146661 -3.6045146 14.726315
3.3475285 -3.0542719 21.809498
3.4499745 -3.1170936 14.91128
1.2333759 -1.2540973 30.25387
3.9956594 -3.6127198 14.702851
3.3345969 -3.0638714 21.794811
3.4291363 -3.1200757 14.868332
1.2306035 -1.2600482 30.293804
3.9830244 -3.6266451 14.702851
3.3216398 -3.0734179 21.780127
3.40942 -3.1239593 14.830156
1.2251933 -1.2632992 30.268845
3.9754281 -3.6451917 14.721622
3.3101463 -3.0842998 21.775232
3.3984947 -3.1358411 14.830156
1.2203757 -1.2671523 30.258863
3.942395 -3.6403143 14.646539
3.3001027 -3.0965323 21.780127
3.3973689 -3.1568298 14.873104
1.2155463 -1.2709869 30.24888
3.9081805 -3.6340764 14.566762
2.6555135 -2.5328288 23.328539
3.2892735 -3.1080329 21.780127
3.3841488 -3.1666296 14.86356
1.2109035 -1.2750127 30.243887
3.8954713 -3.6476965 14.566762
2.6561818 -2.5512338 23.412506
3.2843051 -3.1251106 21.819286
3.376334 -3.1814945 14.877876
1.2062477 -1.2790217 30.238895
2.6411171 -2.5545475 23.358175
3.2770524 -3.140079 21.843765
3.3673735 -3.1953158 14.88742
1.2017757 -1.2832246 30.238895
3.7798142 -3.5892444 14.228882
2.6277318 -2.5594137 23.318663
3.2682698 -3.15362 21.85845
3.3594365 -3.2101445 14.901735
1.1972891 -1.2874117 30.238895
3.763521 -3.5988386 14.214804
2.6204455 -2.5702028 23.333479
3.2572415 -3.1650093 21.85845
3.3503618 -3.2239218 14.91128
1.1927879 -1.2915832 30.238895
3.7509358 -3.611954 14.214804
0.32555366 -0.30774611 0.13316588
0.33762726 -0.3202737 0.15712188
2.6120105 -2.5798802 23.338417
3.2461736 -3.1763599 21.85845
3.3423035 -3.2387133 14.925596
1.1884671 -1.2959517 30.243887
3.7420211 -3.628629 14.228882
0.3352983 -0.31918156 0.13450712
0.33292645 -0.31802958 0.1564312
2.5996842 -2.5856943 23.308783
3.2343414 -3.1869574 21.853556
3.3352516 -3.2545307 14.944683
1.1839361 -1.3000923 30.243887
3.7305667 -3.6428747 14.233575
0.33058715 -0.31690383 0.13406004
0.36036482 -0.34665498 0.16195664
2.5933871 -2.5975025 23.333479
3.2217517 -3.1967931 21.843765
3.326 -3.2682457 14.954227
1.1795843 -1.3044314 30.24888
3.720289 -3.6582942 14.24296
0.33664474 -0.32497334 0.13495418
0.34848216 -0.33757403 0.1598846
2.5848515 -2.6070912 23.338417
3.2098527 -3.2072997 21.838869
3.3166938 -3.2819357 14.963772
1.174831 -1.308326 30.243887
3.7099488 -3.6736872 14.252346
0.32122514 -0.31226155 0.13316588
0.34375691 -0.33533043 0.15919392
2.5768254 -2.6172056 23.348295
3.1979196 -3.2177625 21.833975
3.300988 -3.2892783 14.944683
1.1698729 -1.3119879 30.233904
3.6946585 -3.6841774 14.24296
0.35102752 -0.34362078 0.18473415
0.30945715 -0.30292988 0.13182464
2.5687604 -2.6272955 23.358175
3.1859529 -3.2281809 21.829079
3.286325 -3.2976089 14.930368
1.1654774 -1.3162798 30.238895
3.6793406 -3.6946061 14.233575
0.3533242 -0.34829253 0.18566677
0.31194434 -0.3075043 0.13227172
2.5590327 -2.6356888 23.353237
3.1739526 -3.238555 21.824184
3.2716441 -3.305877 14.916052
1.1589706 -1.3181708 30.188978
3.6652083 -3.7062001 14.228882
0.35210627 -0.34952372 0.18566677
0.30733481 -0.30508286 0.13182464
2.5498168 -2.6446056 23.353237
3.1626287 -3.2496145 21.824184
3.2558994 -3.3130183 14.896963
1.1566392 -1.3248193 30.24888
3.648622 -3.7152781 14.214804
0.34740996 -0.34727779 0.18473415
2.5400324 -2.6529286 23.348295
3.1512659 -3.2606344 21.824184
3.2411876 -3.3211582 14.882648
1.1531415 -1.3301581 30.278828
3.6368353 -3.7292266 14.219496
0.35658148 -0.35894334 0.18753201
2.5307565 -2.6617789 23.348295
3.1398649 -3.2716146 21.824184
3.2254198 -3.3281641 14.86356
3.6249962 -3.7431386 14.224189
0.34497705 -0.3496947 0.18473415
0.34085736 -0.3467232 0.20798479
2.5214498 -2.6705966 23.348295
3.1291282 -3.2832916 21.829079
3.2096424 -3.3351004 14.844472
3.6107121 -3.7545252 14.219496
0.34719184 -0.35440582 0.18566677
0.34304032 -0.35138902 0.20915711
2.5126438 -2.6799488 23.353237
3.1169484 -3.2934549 21.824184
3.1928251 -3.3408883 14.820612
4.1551123 -4.326704 14.191802
3.6083105 -3.7783384 14.261731
5.8923655 -6.1315274 13.979886
0.34181166 -0.35258433 0.20915711
2.503803 -2.6892717 23.358175
3.1068277 -3.305799 21.833975
3.1801159 -3.3509297 14.81584
4.1372871 -4.3383541 14.182596
3.5939121 -3.7896585 14.257038
5.8691263 -6.1501722 13.97562
0.34057882 -0.35377532 0.20915711
2.4954553 -2.6991365 23.368053
3.0973535 -3.3188572 21.84866
3.1704471 -3.3641829 14.825384
4.1234617 -4.354188 14.187199
3.6090558 -3.8323324 14.369665
5.8422403 -6.1649423 13.962821
0.34605932 -0.36198902 0.21150175
2.4881201 -2.7101204 23.387812
3.0912864 -3.3356235 21.887821
3.1607244 -3.3774092 14.834929
4.1068993 -4.3671317 14.182596
3.6369092 -3.8890219 14.533912
5.8188982 -6.1833987 13.958556
0.36487231 -0.38434586 0.21853565
2.4807386 -2.7210863 23.407568
3.0844502 -3.3516386 21.922089
3.150948 -3.3906085 14.844472
4.0902967 -4.3800135 14.177994
3.6209636 -3.8991642 14.524527
5.7954969 -6.2017665 13.954289
0.37686503 -0.3997646 0.22322492
2.4733107 -2.732033 23.427324
3.0782268 -3.3683984 21.961248
3.1370687 -3.3993928 14.834929
4.0736547 -4.3928318 14.173392
4.8931065 -5.2618003 13.235172
3.608501 -3.9130487 14.52922
5.7738132 -6.2219586 13.954289
0.36882371 -0.39398068 0.22088028
2.466356 -2.7435391 23.452021
3.0705552 -3.3836472 21.990622
3.135268 -3.4213278 14.882648
4.0556488 -4.404151 14.164186
4.8812089 -5.2858863 13.252729
3.590158 -3.9205301 14.510448
5.7520595 -6.2420754 13.954289
2.4526253 -2.7474945 23.412506
3.0628145 -3.3988831 22.019991
3.1263201 -3.4355628 14.896963
4.0428877 -4.421164 14.173392
4.8659654 -5.3064237 13.261508
3.5648413 -3.9202704 14.46352
5.731997 -6.2640409 13.958556
2.4425046 -2.7554576 23.407568
3.0536478 -3.4125888 22.039574
3.1143086 -3.446455 14.896963
4.0326834 -4.4410348 14.191802
4.8554749 -5.3322306 13.283453
3.5580742 -3.9403749 14.491676
5.7136045 -6.2878709 13.967089
2.4380047 -2.7697995 23.456961
3.0444217 -3.4262719 22.059155
5.2904053 -5.8960333 25.371468
4.0145402 -4.4521828 14.182596
4.8368325 -5.3491473 13.283453
3.5719466 -3.9836073 14.604303
5.693368 -6.3097134 13.971354
0.33334532 -0.36516857 0.23527327
2.4145162 -2.7624955 23.323601
3.0351379 -3.4399326 22.078735
5.1883669 -5.8230748 24.980165
4.8133307 -5.360652 13.270286
3.5890021 -4.0308504 14.731008
5.674789 -6.3334327 13.979886
0.33851191 -0.37343842 0.23809335
2.4084234 -2.7750151 23.358175
3.0251248 -3.4528039 22.09342
5.1007504 -5.7651281 24.65567
4.7961826 -5.3792081 13.274674
4.2184138 -4.8031411 24.649509
3.5749102 -4.0433536 14.731008
5.6526465 -6.3532028 13.979886
0.34041557 -0.37818328 0.23950337
2.4063303 -2.7922347 23.432264
3.0170634 -3.4679518 22.122793
5.0796103 -5.7817764 24.650898
4.7678514 -5.3851581 13.24834
4.2049265 -4.8216262 24.668867
3.5482509 -4.041543 14.679388
5.630435 -6.3728962 13.979886
0.34868369 -0.3900992 0.24373347
3.0056052 -3.4792325 22.127687
5.0682287 -5.8095965 24.693848
3.9429717 -4.4975166 14.150379
4.1847787 -4.8324738 24.649509
3.5443275 -4.0656114 14.721622
5.6081553 -6.3925109 13.979886
0.35050413 -0.39490172 0.2451435
2.9954309 -3.4920216 22.142372
5.0606236 -5.8419199 24.755882
3.9272482 -4.5112529 14.150379
4.1687045 -4.8480053 24.654348
3.5380201 -4.0870914 14.754472
0.34278005 -0.38892502 0.24232344
2.9792619 -3.4978051 22.113003
5.0421472 -5.8618116 24.765425
3.9153104 -4.5293684 14.164186
4.1509404 -4.8615708 24.649509
3.5192323 -4.0941815 14.735701
4.5734401 -5.3001051 14.538666
0.35405695 -0.40455893 0.24796358
2.9657195 -3.5066288 22.10321
3.0527332 -3.5740657 15.073527
3.8994758 -4.5430079 14.164186
4.6671996 -5.4221606 13.178115
4.1331325 -4.8750725 24.64467
3.5037997 -4.1051288 14.731008
4.5549111 -5.3160377 14.538666
2.9508417 -3.5138404 22.08363
3.0431352 -3.588115 15.087844
3.8810594 -4.5536175 14.154982
4.6482444 -5.4384189 13.178115
4.1160898 -4.8894701 24.64467
3.5028367 -4.1331325 14.787321
4.5278635 -5.3219562 14.511658
2.9411666 -3.5272477 22.10321
3.0402067 -3.6101334 15.135563
3.8651407 -4.5671377 14.154982
4.6323318 -5.4582629 13.186893
4.0989976 -4.9038081 24.64467
3.4983878 -4.157218 14.829556
4.5120687 -5.3410554 14.52066
2.9340305 -3.543767 22.142372
4.9923668 -5.9705749 24.927673
3.8479183 -4.5791059 14.150379
4.6333141 -5.4982085 13.243951
4.0826573 -4.9190536 24.649509
3.4882812 -4.1747012 14.848327
4.5073876 -5.3734512 14.565672
2.9248755 -3.5579202 22.166849
4.9676814 -5.9833713 24.908587
3.8331621 -4.5940099 14.154982
4.6110191 -5.5106745 13.235172
4.0662613 -4.9342446 24.654348
3.4858074 -4.2014613 14.899947
4.5039282 -5.4075527 14.615186
2.7116199 -3.3540866 27.418245
2.9156573 -3.5720525 22.191326
4.954361 -6.0098901 24.946762
3.8183489 -4.6088662 14.159584
4.5994077 -5.5359478 13.257118
4.0514007 -4.9513273 24.668867
3.479898 -4.2242594 14.93749
4.4864125 -5.4249187 14.619688
2.7042727 -3.3689857 27.4627
2.907017 -3.5869546 22.220697
4.9305162 -6.0236821 24.932446
3.803479 -4.6236758 14.164186
4.5739594 -5.5445786 13.239562
4.0340929 -4.9654393 24.668867
3.4727793 -4.2457314 14.970339
4.4674482 -5.4405465 14.619688
2.6871696 -3.3717203 27.408367
2.89767 -3.601047 22.245173
4.9348779 -6.0721331 25.061289
3.7897878 -4.6399508 14.173392
4.5560951 -5.5623636 13.243951
4.0127897 -4.9745989 24.64467
3.4361804 -4.2310362 14.876484
4.444303 -5.4510455 14.606183
2.676348 -3.3822982 27.418245
2.8882596 -3.6151171 22.26965
4.9136519 -6.0893221 25.061289
3.7772598 -4.6577029 14.187199
4.5260735 -5.565227 13.213227
3.9930437 -4.9856324 24.630152
3.3953938 -4.2107635 14.763858
4.4238791 -5.4648337 14.601683
2.6602056 -3.386121 27.373793
2.8813179 -3.6323566 22.313705
4.9016991 -6.1180863 25.109009
3.7646542 -4.6754255 14.201007
4.5201607 -5.5977621 13.252729
3.9724867 -4.9956045 24.610794
3.3806746 -4.22259 14.763858
4.4047761 -5.4802427 14.601683
2.6445467 -3.3904841 27.334278
2.8749201 -3.6503913 22.362658
4.883101 -6.1386638 25.123323
3.75807 -4.7007451 14.237827
4.5065856 -5.6209807 13.270286
3.9487939 -5.0015483 24.572079
4.3842611 -5.4938831 14.59718
2.63222 -3.3990805 27.329338
2.8678048 -3.6676238 22.406715
2.8577735 -3.6183324 14.787208
3.7209907 -4.6878209 14.159584
4.4958873 -5.6479201 13.29662
3.9119253 -4.9905691 24.451092
3.2730715 -4.1471996 14.421285
4.3650575 -5.5091538 14.59718
2.6250744 -3.414408 27.378731
2.8612285 -3.6856556 22.455667
2.849731 -3.6341593 14.811069
3.7070231 -4.7038503 14.16879
4.4687195 -5.6541843 13.274674
3.8975692 -5.008162 24.470451
3.2458034 -4.1422992 14.364972
4.2892709 -5.4524951 14.408131
2.6112542 -3.4210799 27.358973
2.8539398 -3.702879 22.499725
2.8333604 -3.6393728 14.79198
3.6893773 -4.7152228 14.164186
4.4474769 -5.6678643 13.270286
3.8800638 -5.0217366 24.470451
3.2472181 -4.1740351 14.435364
4.2527928 -5.4451308 14.349615
2.6063349 -3.4394636 27.433064
2.8416154 -3.7136273 22.50462
2.8188138 -3.6468787 14.782436
4.4276652 -5.6833544 13.270286
3.8801062 -5.0581894 24.581757
3.2410667 -4.1962705 14.472906
4.2364278 -5.4633832 14.358617
5.3152056 -6.8374028 14.235841
2.8317146 -3.7275779 22.529095
2.8060663 -3.6566961 14.782436
4.4092655 -5.7006698 13.274674
3.8647108 -5.0747023 24.596275
3.2274492 -4.2089276 14.477599
5.2897124 -6.8538494 14.231576
2.8229768 -3.7431302 22.563362
2.7923808 -3.6652815 14.777664
3.6504874 -4.7675595 14.205609
4.3922567 -5.7198257 13.283453
3.8591015 -5.1042042 24.673706
4.3673887 -5.7142172 14.934772
5.2721004 -6.8805532 14.24864
2.8141651 -3.758667 22.597628
2.7777686 -3.6726253 14.768121
3.6397343 -4.7880497 14.228621
4.3722644 -5.7351227 13.283453
3.8548427 -5.1357393 24.760815
3.2666574 -4.3222213 14.787321
4.3461003 -5.7276936 14.930271
2.8083167 -3.7782743 22.656372
2.7631392 -3.6799116 14.758576
3.6265297 -4.8054037 14.24243
4.3319831 -5.7236137 13.222006
3.854166 -5.1723471 24.872122
3.2567282 -4.3404994 14.810784
4.3300095 -5.7480454 14.943774
2.7939017 -3.7864156 22.646582
2.7458167 -3.6835504 14.734715
3.6027048 -4.8086514 14.214814
4.3119779 -5.7387004 13.222006
3.8405726 -5.1918325 24.901159
3.2920673 -4.4196553 15.04073
4.3386011 -5.8014793 15.042801
2.7788627 -3.7936807 22.631895
2.7356057 -3.6967123 14.749032
3.5893955 -4.825901 14.228621
4.0914426 -5.4849524 12.607535
3.8425133 -5.2325621 25.031824
3.2796979 -4.4352827 15.054809
4.3222165 -5.8218327 15.056305
2.7656035 -3.8033576 22.631895
2.7262199 -3.711051 14.768121
3.5725279 -4.8384013 14.228621
4.0608697 -5.4838033 12.572422
3.8242249 -5.2459431 25.031824
3.2815554 -4.4703531 15.134585
4.3018684 -5.836884 15.056305
2.7523105 -3.812988 22.631895
2.7238033 -3.7350178 14.825384
3.5521519 -4.8461146 14.214814
4.0317731 -5.484437 12.541698
3.8058898 -5.2592602 25.031824
3.2699959 -4.487359 15.153358
4.219768 -5.7675323 14.840246
2.7413838 -3.786823 14.992403
4.0111923 -5.496542 12.537309
3.788975 -5.2745547 25.041502
3.1986852 -4.4218445 14.895255
4.1650691 -5.7346687 14.718714
2.7499249 -3.8266745 15.111703
3.9919813 -5.5105104 12.537309
3.774189 -5.2928658 25.065701
3.1439769 -4.378315 14.712237
4.0737324 -5.6502848 14.466645
2.2453725 -3.2121763 24.914042
2.7824922 -3.9006577 15.364618
3.4909647 -4.8687572 14.173392
3.9713235 -5.5224671 12.532921
3.757143 -5.3080597 25.075378
3.1607261 -4.4342308 14.862406
4.0514507 -5.6609302 14.457644
2.7809353 -3.927402 15.431426
3.4784796 -4.88728 14.191802
3.9520223 -5.5362959 12.532921
3.7458174 -5.3314281 25.123772
3.1452284 -4.4452367 14.862406
4.0354481 -5.6803613 14.471147
2.2295027 -3.2373729 24.988131
4.3130322 -6.1365685 24.025768
3.4602711 -4.8977966 14.187199
3.9340575 -5.552011 12.537309
3.7192757 -5.3331294 25.070539
3.118783 -4.4406543 14.810784
4.0143404 -5.6926341 14.466645
2.2146814 -3.2400038 24.948616
2.7881272 -4.0382142 23.615837
4.2634015 -6.1111865 23.868294
3.4050162 -4.8554606 14.030713
3.9146533 -5.5657101 12.537309
3.7006366 -5.3460798 25.070539
3.1032634 -4.4515138 14.810784
3.9994383 -5.7137465 14.484651
2.2029219 -3.2470713 24.943676
2.7734385 -4.0470819 23.610941
2.7379565 -3.9538536 15.421882
3.3713057 -4.8432646 13.961676
3.8965728 -5.5813046 12.541698
3.6798174 -5.3558564 25.056021
3.0739589 -4.4424515 14.745087
3.9807112 -5.7294598 14.489152
4.7771606 -6.8579664 13.740993
2.190706 -3.2534521 24.933798
2.7615855 -4.0601063 23.630522
2.7283654 -3.9695377 15.445742
3.3532679 -4.8533959 13.957073
3.8797948 -5.5988092 12.550476
3.6483526 -5.3499756 24.96891
3.0867643 -4.4944077 14.881177
3.9508009 -5.7289829 14.453142
4.736877 -6.8510022 13.694068
2.1771779 -3.2578492 24.909101
2.7536623 -4.0790048 23.68437
2.7144928 -3.979037 15.445742
3.3418307 -4.8731279 13.980086
3.8615851 -5.6142917 12.554866
3.6183832 -5.3460226 24.891479
3.0924404 -4.5365252 14.984418
3.9184833 -5.7247744 14.408131
4.701128 -6.8502927 13.659941
2.1645043 -3.2634864 24.894285
2.7382739 -4.0869002 23.67458
2.6955657 -3.9810722 15.41711
3.3291969 -4.891223 13.998496
3.8473654 -5.6356492 12.572422
3.584281 -5.3356657 24.785013
3.0756192 -4.5458627 14.979725
3.9021463 -5.7438202 14.421635
4.6595693 -6.8407946 13.608749
2.1513908 -3.2684259 24.874527
2.7234275 -4.0955858 23.669683
2.6808197 -3.989218 15.412337
3.3208516 -4.9157658 14.035316
3.8276701 -5.6490445 12.572422
3.5370471 -5.305264 24.586597
3.0510745 -4.5436773 14.93749
3.8832896 -5.7592111 14.426135
4.6342015 -6.8548574 13.604484
2.138694 -3.2739642 24.859711
2.7091146 -4.1050673 23.669683
2.6643941 -3.9948261 15.398023
3.3014965 -4.9240823 14.026111
3.8186197 -5.6782703 12.607535
3.4886825 -5.2725019 24.378502
3.0351954 -4.5542998 14.93749
3.8655839 -5.7763491 14.435138
4.6044331 -6.8623285 13.58742
2.1259851 -3.2794538 24.844893
2.6947689 -4.1144991 23.669683
2.6479616 -4.0003681 15.383707
3.2691364 -4.912806 13.961676
3.8147299 -5.7154703 12.660203
3.459218 -5.2678366 24.301071
3.0154717 -4.5591092 14.918719
3.845397 -5.7898078 14.435138
4.5804505 -6.8783593 13.58742
2.1132636 -3.2848942 24.830074
2.6815 -4.1255879 23.679476
2.6323428 -4.0070915 15.374163
3.2390487 -4.9046249 13.906446
3.8040137 -5.7427278 12.690927
3.4305153 -5.2640829 24.228479
3.8167772 -5.790472 14.403629
4.5664787 -6.9095373 13.617281
2.100112 -3.2896309 24.810316
2.6665304 -4.1340671 23.67458
2.6142633 -4.0100031 15.350303
3.2176249 -4.9093652 13.888035
3.8115728 -5.7979984 12.783098
3.4182622 -5.2855244 24.272034
2.9138701 -4.4730492 14.571453
3.8001163 -5.8092256 14.417133
4.5523443 -6.940701 13.647142
2.087369 -3.2949724 24.7955
2.6570234 -4.1510682 23.718636
2.6018713 -4.0216107 15.359846
3.2004685 -4.9205666 13.888035
3.8567412 -5.911562 13.002552
3.3997915 -5.2974243 24.272034
2.8954282 -4.4788456 14.557376
2.0729604 -3.2976339 24.760923
2.6479764 -4.1689129 23.76759
2.5724955 -4.0068021 15.269178
3.194927 -4.9497643 13.938663
3.9571314 -6.111958 13.410736
3.3819544 -5.3103194 24.276873
2.8685949 -4.4714952 14.501062
2.0630817 -3.307487 24.780682
2.6393797 -4.1876059 23.821436
4.2251124 -6.6318245 25.18536
3.1776295 -4.9608865 13.938663
3.9564855 -6.1579733 13.480962
3.3539965 -5.3072166 24.209122
2.8798432 -4.5236979 14.637153
4.7566767 -7.4205375 14.487531
2.0445728 -3.3034358 24.696712
2.6339238 -4.2114701 23.904655
4.1987467 -6.6414857 25.166271
3.1833487 -5.0082211 14.039918
3.9375412 -6.1757851 13.489739
3.3561511 -5.3519044 24.359144
2.8658781 -4.5366406 14.646539
3.7174706 -5.859879 14.412632
4.7349448 -7.4436984 14.50033
2.0281506 -3.3026068 24.637444
2.6186702 -4.2197733 23.899759
4.1953683 -6.6877136 25.285572
3.1783543 -5.0391321 14.095149
3.9390082 -6.2259231 13.568743
3.3792839 -5.4308233 24.664028
2.5704896 -4.1006532 13.215244
3.6703196 -5.8304458 14.309104
4.7005801 -7.4469481 14.474734
2.013376 -3.3043578 24.597929
2.60606 -4.2323565 23.91934
4.2019725 -6.750474 25.466908
3.1814735 -5.0833178 14.187199
3.9121583 -6.2315211 13.551187
3.3768144 -5.4693255 24.785013
2.5516031 -4.1022744 13.191781
3.585361 -5.7398262 14.057035
4.6648664 -7.4478388 14.444873
1.9990159 -3.306711 24.563353
2.5923321 -4.2431655 23.929131
4.184659 -6.7752609 25.505085
3.1874149 -5.1325645 14.293056
3.8840506 -6.2349749 13.529241
3.3636115 -5.4907265 24.828569
2.5381744 -4.1126246 13.196474
3.4896131 -5.6301827 13.759955
4.6292033 -7.4485712 14.415011
1.9926559 -3.3223314 24.627563
2.576977 -4.251318 23.924236
2.3335919 -3.807795 14.324326
3.187927 -5.1735983 14.375902
3.8635221 -6.2505322 13.53363
3.3509531 -5.513175 24.876963
2.5210996 -4.1170444 13.182395
3.4870443 -5.670145 13.827474
4.6031747 -7.464685 14.415011
1.9862113 -3.3379478 24.691774
2.5621216 -4.2602873 23.924236
2.3257143 -3.8248458 14.35773
3.1708674 -5.1863618 14.380506
3.7477732 -6.1108584 13.204449
3.331039 -5.5237622 24.872122
2.5076089 -4.1272945 13.187088
1.9725729 -3.3415148 24.66708
2.5472348 -4.2692051 23.924236
2.3100359 -3.8291061 14.343413
3.7675028 -6.1914206 13.349289
3.3098011 -5.5321202 24.857605
2.491405 -4.1330667 13.177702
3.6593237 -6.0444579 14.673702
4.3114047 -7.1020355 13.659941
1.9608968 -3.3483801 24.66708
2.5317979 -4.277194 23.91934
2.287457 -3.8217766 14.28615
3.8052828 -6.3029494 13.559964
3.2885456 -5.5403972 24.843086
2.4769628 -4.1417379 13.177702
3.638202 -6.0571947 14.673702
4.2919703 -7.1259789 13.677005
0.24762517 -0.40709195 0.20564015
1.9460748 -3.3498294 24.627563
2.5163372 -4.2851276 23.914446
2.2748647 -3.8310213 14.290922
3.832484 -6.3983793 13.735528
3.2679105 -5.5496759 24.833408
2.4607294 -4.1473908 13.168317
4.2831225 -7.1677823 13.728195
0.25122544 -0.41627696 0.20798479
1.9324303 -3.3532357 24.602869
2.501364 -4.2938852 23.914446
2.2584474 -3.8337941 14.271833
3.164855 -5.3427482 14.688874
3.812573 -6.4158354 13.744306
3.2491524 -5.5621347 24.838245
2.4462373 -4.1559553 13.168317
4.3817611 -7.3913293 14.124928
0.24801485 -0.41258788 0.18286891
0.25476453 -0.42549196 0.21032943
1.9218702 -3.3619847 24.617685
2.4853413 -4.300827 23.904655
2.2442982 -3.8403654 14.267061
3.1768694 -5.4059787 14.831553
3.8071826 -6.4579897 13.805754
3.2234154 -5.5625663 24.789852
2.430845 -4.1629782 13.163624
4.4088178 -7.4965029 14.295566
0.24908914 -0.4176701 0.18380153
0.25327775 -0.42637867 0.21032943
2.4703133 -4.3094764 23.904655
2.2286334 -3.8443022 14.252747
2.8096771 -4.819551 13.202259
3.8100066 -6.5146551 13.897923
3.199594 -5.5661564 24.755978
2.4171638 -4.1729317 13.168317
3.1843565 -5.47328 13.156793
0.24762967 -0.41853702 0.18380153
5.1134672 -8.7051659 9.0731201
0.2468525 -0.4188849 0.20798479
2.4527395 -4.3136473 23.880178
2.2062714 -3.8365295 14.195482
2.7928364 -4.829329 13.202259
3.8220963 -6.5879917 14.025208
3.1726739 -5.5641875 24.697905
2.4008634 -4.1783509 13.158932
3.1652317 -5.4843621 13.156793
5.0559416 -8.6486492 9.9245224
0.26108626 -0.44481757 0.18939726
5.0868087 -8.729413 9.079771
2.4396675 -4.3257303 23.899759
2.1891682 -3.8377244 14.171622
2.77985 -4.8458266 13.220669
3.8026605 -6.6075206 14.038374
3.1588011 -5.5850754 24.741459
2.3811369 -4.1777105 13.130774
3.14715 -5.4972668 13.161294
4.964963 -8.6203051 10.862502
5.023932 -8.6631594 9.9210176
0.25706026 -0.44148114 0.18846464
5.0488324 -8.7341871 9.0664692
2.4260442 -4.3368859 23.914446
2.1632631 -3.8232565 14.090499
3.2357686 -5.6681361 12.028175
4.8959413 -8.5452223 11.867733
3.139286 -5.5960679 24.741459
2.361444 -4.1769834 13.102618
3.1268668 -5.5063257 13.156793
4.8340378 -8.4748449 12.994018
4.9314785 -8.6316957 10.855151
4.979435 -8.6559134 9.8929815
0.23586269 -0.40834609 0.18100367
5.0183134 -8.7517576 9.0664692
2.4118788 -4.3471088 23.924236
2.1499043 -3.8307846 14.090499
3.2195036 -5.6856489 12.041344
4.7580872 -8.3824244 14.228955
4.8581643 -8.5483265 11.848546
3.1178997 -5.6036963 24.72694
2.3400972 -4.1731591 13.065076
3.1268573 -5.5513487 13.237815
4.6864858 -8.2966928 15.656398
4.8059096 -8.4942904 12.998009
4.9013181 -8.6488571 10.855151
4.9456553 -8.6670475 9.885972
0.24420387 -0.42621595 0.18473415
4.9674277 -8.7335196 9.0298891
2.0812767 -3.824657 27.680025
2.3976717 -4.3572855 23.934027
2.1445045 -3.8526125 14.14299
3.2008102 -5.6989408 12.045732
4.7315588 -8.4038858 14.23722
4.8109822 -8.5345192 11.806333
2.325516 -4.1813021 13.065076
3.1074603 -5.5622296 13.237815
4.6523976 -8.3039007 15.639334
4.758534 -8.4794807 12.950128
4.8594699 -8.6452265 10.829426
4.9030747 -8.6625328 9.8614397
4.9277391 -8.7345476 9.0132618
2.0660684 -3.8284793 27.655331
2.3834226 -4.3674159 23.943815
2.1296008 -3.8574615 14.133447
2.714766 -4.8892918 13.234477
3.1797321 -5.7079864 12.041344
4.6994514 -8.4154367 14.228955
4.7749052 -8.5400696 11.790983
2.3042388 -4.1773062 13.027534
3.0658693 -5.5330553 13.14329
4.6145158 -8.3041325 15.609472
4.7289057 -8.4960394 12.950128
4.8160567 -8.6384468 10.800024
4.8640785 -8.6640472 9.8439178
4.8826337 -8.7256279 8.9866571
2.3686473 -4.3766046 23.948711
2.1175561 -3.8674901 14.14299
2.6920285 -4.8884697 13.206861
3.1621046 -5.7232442 12.050121
4.6577768 -8.4096355 14.191759
4.7357392 -8.5398674 11.767959
2.2929559 -4.1913795 13.046305
3.029762 -5.5131979 13.07127
4.5855007 -8.3201885 15.609472
4.6861143 -8.4887533 12.914219
4.7743902 -8.6344385 10.774298
4.8233962 -8.6622782 9.8228903
4.8448982 -8.7295599 8.9733553
2.3552818 -4.3884349 23.968294
2.1076047 -3.8814175 14.16685
2.674948 -4.8978367 13.206861
3.1432583 -5.7363472 12.054511
4.6148453 -8.4011784 14.150428
4.7028112 -8.5507288 11.760283
2.8868515 -5.3633332 23.488049
2.2783113 -4.199358 13.046305
3.010499 -5.5237403 13.07127
4.5401688 -8.3063936 15.554015
4.6477723 -8.4892006 12.890278
4.7311807 -8.6272717 10.744897
4.7827845 -8.6603308 9.8018627
4.8089957 -8.7366056 8.9633789
2.344254 -4.4047194 24.01235
2.0905046 -3.8821793 14.14299
2.6587656 -4.9088621 13.211464
3.1255023 -5.7514925 12.063289
4.565299 -8.3801689 14.088435
4.6621914 -8.5473957 11.73342
2.8681126 -5.3733773 23.488049
2.2628214 -4.2057657 13.041613
2.9891288 -5.5303845 13.062267
4.4987183 -8.299264 15.511356
4.6066089 -8.4841881 12.858357
4.6896987 -8.6228867 10.719171
4.7525253 -8.6769724 9.8018627
4.7731023 -8.7435074 8.9534025
2.3326657 -4.4200792 24.051512
2.0769405 -3.8894527 14.14299
2.6453116 -4.9249978 13.229874
3.1076794 -5.7665844 12.072066
4.5373559 -8.3985291 14.092567
4.633852 -8.5664368 11.737258
2.8469863 -5.378912 23.468691
2.2530003 -4.2227736 13.069769
2.9698062 -5.5407853 13.062267
4.4635468 -8.3034306 15.490026
4.5626798 -8.4736862 12.818458
4.66118 -8.6421881 10.722846
4.7171016 -8.6841087 9.7913494
5.0615659 -9.3066683 8.6245956
4.7372198 -8.7502642 8.9434252
2.3205271 -4.4345107 24.085777
2.0626528 -3.8953598 14.138218
2.6326962 -4.9428234 13.252887
3.0909178 -5.7837338 12.085235
4.490736 -8.3820696 14.038838
4.602406 -8.5797348 11.73342
2.8316977 -5.3954954 23.497726
2.2382464 -4.2306128 13.069769
2.9453385 -5.5415063 13.039762
4.4308543 -8.3120556 15.477228
4.534493 -8.492219 12.822448
4.634182 -8.6643839 10.730196
4.6884513 -8.703661 9.7948542
5.0345917 -9.3345575 8.6340103
4.6960506 -8.7470093 8.9234724
8.9507017 -16.623224 6.660089
2.3097224 -4.4516215 24.134731
2.0490429 -3.9025362 14.138218
2.6154263 -4.951983 13.252887
3.0740743 -5.800837 12.098401
4.4654107 -8.4051504 14.051238
4.5844717 -8.6183863 11.764121
2.8128467 -5.4053469 23.497726
2.2266715 -4.2445126 13.088539
2.9290221 -5.5575314 13.053265
4.3981571 -8.3205547 15.464431
4.5146918 -8.5266361 12.850377
4.6293254 -8.7284279 10.788999
4.6916471 -8.7828856 9.8649445
5.0148273 -9.3760996 8.6559792
4.6725078 -8.7765322 8.9367752
8.8548098 -16.583551 6.6321492
2.2955666 -4.4623733 24.149416
2.035408 -3.9096646 14.138218
2.6044693 -4.9731975 13.285105
3.0571489 -5.8178926 12.111568
4.446537 -8.4406033 14.084301
4.5737996 -8.6711922 11.814008
2.787622 -5.4028449 23.444492
2.2166197 -4.261445 13.116696
2.9176707 -5.5831566 13.089274
4.3787718 -8.3543367 15.498559
4.4989076 -8.5690222 12.890278
4.6193428 -8.7835417 10.836776
4.6759844 -8.8275719 9.8964853
4.9747734 -9.3797932 8.6434259
4.6557884 -8.8192034 8.9633789
8.8012877 -16.622707 6.6354361
2.2822888 -4.4748945 24.173893
2.0224328 -3.918072 14.14299
2.5834925 -4.9753222 13.266694
3.0412488 -5.8370247 12.129126
4.4300747 -8.4810162 14.125631
4.5568728 -8.7126675 11.848546
2.7641661 -5.4035897 23.405777
2.2135952 -4.2921624 13.187088
2.9041731 -5.6049051 13.116282
4.3507857 -8.3718843 15.502824
4.4884477 -8.6220932 12.946138
4.6137342 -8.8477077 10.895578
4.6733327 -8.8975143 9.9560633
4.9438128 -9.4005461 8.6465645
4.6370964 -8.8585577 8.9866571
8.7673569 -16.699318 6.6535149
2.2689514 -4.4873767 24.198368
2.009424 -3.9264369 14.147762
3.0252519 -5.8561163 12.146681
4.4263263 -8.5464029 14.208289
4.5485654 -8.7712011 11.906108
2.7407396 -5.4042377 23.367062
2.8885696 -5.6227536 13.134287
3.9595866 -7.6845536 14.210246
4.4845819 -8.6885834 13.021948
4.5843787 -8.8667707 10.899254
4.6488357 -8.926425 9.9700813
4.9199672 -9.4350023 8.6622562
8.5236282 -16.318027 7.5264645
4.6199059 -8.9012022 9.0132618
9.3631477 -17.986404 7.1465678
2.250993 -4.4907184 24.173893
1.9970566 -3.9360898 14.157307
3.0091588 -5.8751674 12.164238
4.4131775 -8.5943451 14.262018
4.5281801 -8.8069792 11.93297
2.7286332 -5.427248 23.425135
2.3138728 -4.5645618 13.97078
2.8768287 -5.6483212 13.170297
3.9339244 -7.7006502 14.214512
4.4693251 -8.7336912 13.065839
4.5534 -8.882719 10.899254
4.6111031 -8.9299231 9.9560633
4.9102416 -9.4970665 8.7030563
8.5049915 -16.42178 7.5601792
4.5990572 -8.9371929 9.0332146
9.3479538 -18.111294 7.1827245
2.2276018 -4.483047 24.090673
1.9846464 -3.945704 14.16685
2.7147224 -5.3646874 14.224019
2.9940538 -5.8963127 12.186183
4.4023008 -8.647315 14.324013
4.4843097 -8.7970314 11.898434
2.7085509 -5.4344897 23.415457
2.3095479 -4.5957403 14.041171
2.8521888 -5.6486125 13.147791
3.9058423 -7.7120094 14.210246
4.425179 -8.7223682 13.025939
4.5085425 -8.8713598 10.866178
4.5701528 -8.9269171 9.9350357
4.9054699 -9.5695696 8.7532721
8.4624405 -16.480236 7.5732903
8.7417927 -17.016966 5.7132506
4.5797105 -8.9764738 9.0564928
9.4890366 -18.543169 7.3388577
1.763854 -3.623791 25.620356
2.2029419 -4.4725266 23.992769
1.9622027 -3.935241 14.104815
2.7397788 -5.4614434 14.454145
2.9799149 -5.9195633 12.212517
4.3657494 -8.6500673 14.303349
4.45502 -8.8154907 11.90227
2.6856673 -5.4360218 23.38158
2.3042638 -4.6253986 14.10687
2.8626604 -5.7188807 13.287328
4.3933511 -8.7350683 13.021948
4.4729719 -8.8779602 10.855151
4.5325079 -8.9300957 9.9210176
4.872036 -9.5866346 8.7532721
8.4427204 -16.58404 7.6070051
8.6954021 -17.073023 5.7217107
4.5449786 -8.9857426 9.0498419
9.1636019 -18.062412 7.13835
12.214803 -24.066261 3.8564041
1.7522068 -3.6320257 25.635174
2.1636429 -4.4316936 23.73332
1.9484541 -3.9420662 14.104815
2.7163486 -5.4622273 14.431133
2.9656501 -5.9427876 12.238853
4.3254557 -8.6451216 14.270284
4.4156075 -8.8137941 11.879246
2.6738617 -5.4600391 23.444492
2.3446445 -4.7479143 14.454134
2.8436482 -5.7307887 13.291829
4.2621169 -8.563282 15.716121
4.3547664 -8.7341709 12.998009
4.4328661 -8.8753214 10.8331
4.4948969 -8.9331198 9.9069996
4.8332887 -9.593154 8.7438564
8.4557981 -16.754124 7.6706882
4.5102377 -8.9948769 9.043191
9.2349243 -18.353598 5.0461388
12.021656 -23.891994 3.822561
1.737172 -3.6332126 25.600599
2.132195 -4.4062233 23.557095
1.9116974 -3.9019265 13.937796
2.6894915 -5.455905 14.38971
2.9512591 -5.9659834 12.265186
4.2940021 -8.6576471 14.266151
4.3791118 -8.8176708 11.863896
1.5966059 -3.289135 14.114082
2.3265395 -4.7529702 14.44475
2.8101754 -5.7133317 13.228812
4.2264304 -8.5664139 15.694792
4.3189116 -8.7385139 12.982048
4.3958416 -8.8785877 10.818399
4.4573197 -8.9359903 9.8929815
4.8015122 -9.6134491 8.746995
8.3972645 -16.783539 7.6706882
8.5029945 -16.987463 5.67377
4.4688406 -8.9905052 9.0232372
9.1773119 -18.398773 5.0496559
11.898397 -23.854048 3.8101287
1.7241465 -3.6385522 25.595657
2.1154809 -4.4108849 23.542408
1.8804612 -3.8723211 13.808951
2.647274 -5.4178658 14.265442
2.9367423 -5.989151 12.291521
4.2538228 -8.65238 14.233088
4.3426428 -8.8214006 11.848546
1.5829355 -3.2901571 14.094726
2.3121941 -4.7657199 14.458827
2.7768595 -5.6957111 13.165795
4.1942101 -8.5764284 15.686259
4.281754 -8.7400064 12.962098
4.3573546 -8.8786612 10.800024
4.4181972 -8.9355106 9.8754587
4.7661986 -9.6266623 8.7438564
8.3489265 -16.833513 7.6800532
8.501215 -17.133064 5.7118406
4.4291792 -8.9893026 9.0066099
9.1831799 -18.580715 7.302701
9.1755075 -18.557051 5.083653
11.747017 -23.757824 3.7887175
1.7091235 -3.6396248 25.561083
2.1009452 -4.4200816 23.552198
1.8572228 -3.858686 13.737372
2.6130185 -5.3954239 14.182596
2.920006 -6.0079823 12.309077
4.2186627 -8.6570559 14.216556
4.3047967 -8.8221025 11.829358
1.5660316 -3.2843161 14.04633
2.7664323 -5.7249708 13.210808
4.1551471 -8.5722408 15.652131
4.2446389 -8.7413473 12.942148
4.3204045 -8.8816233 10.785324
4.3807015 -8.9380693 9.8614397
4.7325664 -9.6432409 8.7438564
8.3248863 -16.933279 7.7118945
8.608614 -17.502695 5.8232331
4.3912201 -8.9912891 8.993309
8.9396029 -18.247963 7.1613593
9.0529203 -18.471123 5.052001
11.413386 -23.287313 3.7092896
1.6950976 -3.6427512 25.541328
2.083334 -4.4227824 23.527721
1.8437421 -3.8651452 13.737372
2.5865607 -5.3886604 14.141173
2.9021344 -6.024611 12.322244
4.181076 -8.6565266 14.191759
4.268393 -8.8255339 11.814008
1.5491878 -3.2783978 13.997936
2.0791674 -4.3626909 13.196474
2.7454913 -5.7326293 13.206306
4.1206818 -8.5772905 15.635069
4.2075658 -8.7425337 12.922197
4.2820139 -8.881382 10.766948
4.3432417 -8.9404755 9.8474226
4.6988764 -9.6597013 8.7438564
8.2677574 -16.966402 7.713768
8.5853052 -17.610252 5.8486137
4.3516736 -8.9897585 8.9766808
7.9352813 -16.34203 6.4119186
8.9905119 -18.506983 5.0531731
11.286588 -23.233471 3.6947851
1.6804197 -3.6444118 25.511692
2.069175 -4.432796 23.542408
1.8327907 -3.8769557 13.756459
2.5702524 -5.4029489 14.154982
2.8841827 -6.0411892 12.335412
4.1447577 -8.6583767 14.171093
4.2306328 -8.8259268 11.794821
1.5398667 -3.2883389 14.017294
2.0617154 -4.3652411 13.182395
2.7282643 -5.7480779 13.21981
4.0851107 -8.5798483 15.613739
4.170537 -8.7435684 12.902247
4.2451396 -8.8840389 10.752247
4.3042717 -8.9395151 9.8298988
4.6634388 -9.6725397 8.7407179
8.1399317 -16.853226 7.650085
8.4862137 -17.562368 5.8232331
13.046298 -26.975531 5.7804551
4.313807 -8.9914284 8.9633789
5.1102033 -10.641896 8.6794691
7.906858 -16.429201 6.4349279
8.9870062 -18.665257 5.0871701
11.190381 -23.241493 3.6899502
1.6660739 -3.6467216 25.486996
2.054544 -4.4418402 23.552198
1.814814 -3.8738675 13.723056
2.5538764 -5.4171896 14.16879
2.8661501 -6.0577145 12.348579
4.1084785 -8.66008 14.150428
4.1942978 -8.8290606 11.77947
1.5289078 -3.2948341 14.022133
2.235188 -4.7756572 14.393128
2.7091095 -5.7595363 13.224311
4.0495715 -8.582262 15.592408
4.1335521 -8.7444525 12.882298
4.2068477 -8.8834829 10.733871
4.2653613 -8.9383926 9.812377
4.6296468 -9.6887589 8.7407179
7.9849744 -16.680824 7.5601792
8.4082823 -17.557272 5.8119531
12.911715 -26.936741 5.7627354
11.145864 -23.252781 2.4079041
4.2759809 -8.9929438 8.9500771
5.0764985 -10.666968 8.6853552
7.8535275 -16.465225 6.4382148
8.9217978 -18.696512 5.0871701
11.023877 -23.101643 3.6623232
1.6514122 -3.648268 25.457359
2.0390265 -4.4489851 23.552198
1.8000237 -3.8774707 13.713511
2.5308168 -5.4172211 14.145776
2.8470206 -6.0720196 12.357357
4.0710406 -8.6590891 14.125631
4.1566267 -8.8291483 11.760283
1.5179225 -3.3012931 14.026973
2.2156003 -4.7771683 14.374357
2.6889887 -5.7689576 13.224311
4.0162754 -8.5892582 15.579611
4.096612 -8.7451849 12.862348
4.1700521 -8.8858376 10.719171
4.2265115 -8.937108 9.7948542
4.5957985 -9.7048607 8.7407179
7.8074756 -16.457285 7.4477968
8.013731 -16.884453 5.5835276
12.585751 -26.493574 5.6601472
11.071039 -23.305042 2.4092453
4.2366061 -8.9909267 8.9334497
5.0581994 -10.724838 8.7177305
8.1728201 -17.2819 4.7014775
10.96434 -23.184748 3.66923
1.6367599 -3.6497562 25.427723
2.0260098 -4.461638 23.58157
1.7846067 -3.8796623 13.699196
2.519278 -5.4419785 14.187199
2.8288352 -6.0884366 12.370524
4.0336599 -8.6579418 14.100833
4.1203618 -8.8319845 11.744933
1.5063896 -3.3065717 14.026973
2.2046759 -4.7974176 14.411901
2.6733987 -5.7881908 13.246817
3.984076 -8.5984926 15.571079
4.0597172 -8.7457657 12.842398
4.1318617 -8.8849697 10.700794
4.1877227 -8.9356604 9.7773314
4.5618939 -9.7208433 8.7407179
7.7361741 -16.45507 7.4346857
12.507839 -26.568455 5.6666756
4.1988773 -8.9921274 8.9201469
5.0173087 -10.735106 8.7118435
7.3037066 -15.591707 6.081574
8.1289454 -17.345533 4.710856
10.845518 -23.142166 3.6567976
1.6214865 -3.6497664 25.38821
2.0108411 -4.4696112 23.586464
1.769196 -3.8817928 13.68488
2.5035248 -5.4578424 14.205609
2.8105702 -6.1048007 12.383692
3.9963367 -8.6566401 14.076035
4.0827823 -8.8317661 11.725745
1.4943212 -3.3106637 14.022133
2.1700394 -4.7658205 14.294581
2.651366 -5.7935281 13.237815
3.9496841 -8.6028652 15.554015
4.0228686 -8.7461958 12.822448
4.0951471 -8.887023 10.686094
4.1504974 -8.9372854 9.7633133
4.5279346 -9.7367086 8.7407179
7.6649837 -16.452559 7.4215746
12.396331 -26.57189 5.6582818
11.08282 -23.756346 2.446353
4.1611915 -8.9931755 8.9068451
4.9815044 -10.756222 8.7147865
7.2373075 -15.591407 6.0717125
8.0683489 -17.373802 4.710856
10.756327 -23.161917 3.6540349
1.606859 -3.6511369 25.358574
1.9902534 -4.4654427 23.527721
1.7537925 -3.8838634 13.670564
2.4893079 -5.4772196 14.233225
2.7912312 -6.1189318 12.392469
3.9602427 -8.6577415 14.05537
4.0452552 -8.8313942 11.706558
1.4822426 -3.3147123 14.017294
2.8693664 -6.3605547 19.029581
2.6257329 -5.7908521 13.210808
3.9250305 -8.6284714 15.575346
3.9848168 -8.7437334 12.798508
4.0584683 -8.8889275 10.671393
4.1118212 -8.9355211 9.7457905
4.4939194 -9.7524548 8.7407179
7.6055646 -16.475006 7.4197016
7.8485498 -16.993574 5.5919876
12.297318 -26.60162 5.6554837
10.970572 -23.7316 2.4400938
4.1219935 -8.990675 8.8902178
4.9506717 -10.78824 8.7265596
7.1571865 -15.560802 6.0503469
10.727163 -23.311789 3.6713018
1.5913104 -3.6503134 25.314121
1.9730092 -4.4686375 23.508141
1.7353483 -3.8790607 13.632388
2.4757884 -5.4983454 14.265442
2.7728143 -6.1351852 12.405637
3.9241893 -8.6586981 14.034706
4.0077796 -8.8308668 11.68737
1.4701542 -3.3187172 14.012455
2.8520749 -6.3815598 19.062431
2.5965827 -5.7801242 13.165795
3.8713129 -8.5898104 15.481495
3.948071 -8.7438574 12.778557
4.0204291 -8.8875961 10.653018
4.0732079 -8.9335947 9.7282677
4.4598494 -9.7680817 8.7407179
7.7951722 -17.033955 5.5962181
12.128697 -26.479139 5.6209769
10.924995 -23.851246 2.4481411
4.0828643 -8.9880123 8.8735905
4.9414239 -10.868008 8.7765932
7.0949936 -15.568504 6.0437732
7.2874861 -15.983509 4.3275084
10.627235 -23.308538 3.6650858
1.5788667 -3.656559 25.319061
1.9545428 -4.4689665 23.473875
1.7224023 -3.8864596 13.63716
2.4565804 -5.5069542 14.265442
2.7543178 -6.1513848 12.418804
3.8881779 -8.6595078 14.014042
3.9703584 -8.8301868 11.668183
1.4575505 -3.3215265 14.002776
2.8269873 -6.3851647 19.043659
2.5719652 -5.7792087 13.14329
3.8391786 -8.5985079 15.472962
3.9126034 -8.746583 12.762597
3.9838352 -8.8892002 10.638317
4.0346584 -8.9315081 9.7107449
4.4257255 -9.7835903 8.7407179
6.9449739 -15.324282 6.8858871
7.9654527 -17.56786 5.7597818
4.0438037 -8.9851847 8.8569622
4.9366598 -10.958897 8.8354568
7.030889 -15.571654 6.0355549
7.2956805 -16.150599 4.3650227
10.812871 -23.936693 3.7555649
1.5660933 -3.6620481 25.319061
1.9373125 -4.4720249 23.454292
1.7100254 -3.8951819 13.646704
2.4397116 -5.5208564 14.27925
2.7357416 -6.1675291 12.431972
3.8522084 -8.6601706 13.993378
3.9329896 -8.8293514 11.648995
1.4454464 -3.3254411 13.997936
2.8019094 -6.3886728 19.024889
2.5377259 -5.7562795 13.07127
3.1286945 -7.0734434 12.721435
3.8759446 -8.7464132 12.742646
3.9445281 -8.8844624 10.616266
3.9961729 -8.9292612 9.693222
4.3915472 -9.7989788 8.7407179
6.8743496 -15.310369 6.8690295
7.91784 -17.626188 5.7696519
10.986944 -24.435638 2.498214
4.0063329 -8.9856043 8.8436604
4.896729 -10.97237 8.8325129
6.9456396 -15.527134 6.0092587
7.7217402 -17.254061 4.6498957
10.709021 -23.92909 3.7486582
1.55118 -3.6624839 25.284487
1.9180776 -4.4703383 23.410236
1.6982039 -3.9052339 13.66102
2.4180751 -5.5239697 14.265442
2.7161233 -6.1814265 12.440749
3.8162818 -8.6606894 13.972712
3.8956757 -8.8283653 11.629808
1.4338298 -3.3304665 13.997936
2.7844048 -6.4094939 19.057739
2.5263293 -5.7850533 13.116282
3.0642128 -6.993547 12.55933
3.8405457 -8.7488537 12.726687
3.9066677 -8.8826599 10.59789
3.9591982 -8.9301147 9.679204
4.3573155 -9.814249 8.7407179
6.8472419 -15.39357 6.8952522
7.7743492 -17.469646 5.7104306
11.345058 -25.469433 5.3850241
11.04545 -24.796824 2.5299566
3.9674006 -8.9824581 8.827034
4.8567638 -10.9857 8.8295698
6.9086165 -15.590139 6.0240507
7.7757263 -17.538631 4.7178898
10.785995 -24.328493 3.8039126
1.5407898 -3.6736088 25.323999
1.8996742 -4.4704461 23.375969
1.6863329 -3.9152505 13.675336
2.4018867 -5.539547 14.283853
2.6935737 -6.188674 12.43636
3.7803986 -8.6610632 13.952047
3.8571332 -8.8242884 11.606783
1.4217025 -3.3342948 13.993096
2.7626963 -6.4207592 19.062431
2.5052559 -5.7918382 13.111781
2.9671028 -6.8367295 12.260714
3.8051767 -8.751152 12.710727
3.8661594 -8.8744869 10.572165
3.9208322 -8.9275551 9.6616812
4.3230309 -9.8293982 8.7407179
6.9467521 -15.765251 7.0488415
6.6974106 -15.192211 4.9701633
11.315578 -25.643705 5.4130025
10.890471 -24.680321 2.514756
3.9285388 -8.9791479 8.8104057
4.818387 -11.002585 8.8295698
6.8842664 -15.690185 8.0081234
7.4408283 -16.942619 4.5537658
10.939958 -24.910086 3.8867943
1.5282552 -3.6796825 25.328939
1.8801088 -4.4676652 23.327019
1.6708992 -3.9169943 13.66102
2.372514 -5.52456 14.224019
2.6729031 -6.2002382 12.440749
3.7434425 -8.6587076 13.927249
3.8173921 -8.8171072 11.57992
1.409566 -3.3380795 13.988257
2.7429733 -6.4367137 19.081202
2.4824517 -5.7945447 13.098277
2.9349804 -6.8278766 12.226586
3.7638793 -8.7394733 12.674816
3.8257556 -8.8661375 10.546437
3.883955 -8.9281063 9.6476631
4.2886939 -9.844429 8.7407179
6.9213505 -15.857386 7.0788097
6.632822 -15.189122 4.9617033
11.231897 -25.69655 5.4158006
10.800265 -24.709059 2.5138619
3.8897483 -8.9756775 8.7937784
4.7783432 -11.015631 8.8266277
6.737196 -15.501837 7.901123
7.1441903 -16.430473 6.3248129
7.249794 -16.665403 4.4740481
1.5195379 -3.6950555 25.398088
1.8609778 -4.4657421 23.282961
1.6537309 -3.9145525 13.632388
2.3608613 -5.550786 14.270044
2.6503034 -6.2073274 12.43636
3.7076571 -8.6587877 13.906584
3.7777493 -8.8097582 11.553058
1.3979055 -3.3429792 13.988257
2.721159 -6.4478388 19.085894
2.4596591 -5.7971621 13.084773
2.9080644 -6.8308816 12.213789
3.7227099 -8.7276134 12.638906
3.7854583 -8.8576174 10.520712
3.8471215 -8.9285088 9.6336451
4.2527618 -9.8557644 8.7375793
6.8052464 -15.741023 7.0169992
6.5778565 -15.207778 4.9602928
11.101146 -25.640934 5.3962154
10.644698 -24.586658 2.498214
3.8525026 -8.9754753 8.7804766
4.7398629 -11.032243 8.8266277
6.6274161 -15.396029 7.8360834
7.0737195 -16.424953 6.3133087
7.1492624 -16.592403 4.448257
12.741026 -29.570103 4.5829997
1.5121967 -3.7140105 25.491934
1.8449898 -4.4712696 23.278067
1.6417848 -3.9244328 13.646704
2.3672543 -5.6202092 14.426531
2.6304851 -6.220953 12.445139
3.6653244 -8.6431789 13.861121
3.7369514 -8.7992907 11.522358
1.3857468 -3.3466773 13.983418
2.6773427 -6.4063473 18.935726
2.4394081 -5.8057132 13.084773
2.8791366 -6.8289747 12.192459
3.6816697 -8.7155733 12.602996
3.7399814 -8.8364353 10.480286
3.8089333 -8.9254837 9.6161222
4.2183328 -9.8705502 8.7375793
6.5312829 -15.253281 6.7922354
6.543622 -15.274742 4.9743938
8.2586813 -19.259642 4.0700297
10.554885 -24.614511 2.4973199
3.8153062 -8.9751244 8.7671747
4.6997414 -11.045002 8.8236837
6.5504947 -15.364797 7.8088093
7.0163426 -16.449545 6.3133087
7.0607762 -16.545727 4.4295001
12.482235 -29.250021 4.5277452
1.5131643 -3.7538588 25.729019
1.8274455 -4.4729695 23.25359
1.633217 -3.9425514 13.689652
2.3476217 -5.6284385 14.426531
2.6096787 -6.2323065 12.449528
3.6253259 -8.6325703 13.823925
3.69503 -8.7856894 11.48782
1.3740563 -3.3514941 13.983418
2.682677 -6.4826245 19.132824
2.4249814 -5.8282628 13.116282
3.5767088 -8.5669985 15.255401
3.640759 -8.7033539 12.567086
3.7078032 -8.8463097 10.47661
3.7722013 -8.9255848 9.6021042
4.1823354 -9.8816299 8.7344408
6.8182621 -16.078375 7.1443658
6.5127459 -15.350482 4.9913139
8.2240458 -19.365219 4.0858841
10.42802 -24.554943 2.487931
3.7781594 -8.9746218 8.7538719
4.6611581 -11.061339 8.8236837
6.4650459 -15.312308 7.7710443
6.9386673 -16.426085 6.2952299
6.4599261 -15.285316 4.0930452
12.252825 -28.992359 4.4821606
1.5069618 -3.7764385 25.847561
1.8102939 -4.4755454 23.234009
1.62341 -3.957896 13.723056
2.3175201 -5.6113191 14.362096
2.5906599 -6.2480149 12.462695
3.5811241 -8.6113949 13.770198
3.6581786 -8.783741 11.468633
1.3628218 -3.3574345 13.988257
2.6947076 -6.5765815 19.381538
2.4087682 -5.846756 13.138788
3.5507679 -8.5890713 15.272463
3.5999782 -8.6909542 12.531176
3.6937952 -8.8999033 10.524386
3.7355146 -8.9255381 9.5880861
4.1478167 -9.8961697 8.7344408
5.1380992 -12.252896 8.7956839
6.8644123 -16.345713 7.2511287
6.5000033 -15.470421 5.0223346
7.495584 -17.822559 3.762265
10.39244 -24.710548 2.4995553
3.7396257 -8.9705248 8.7372446
4.6209621 -11.073812 8.8207407
6.4343157 -15.389215 7.7983184
7.063519 -16.885845 6.4595809
6.4121594 -15.32122 4.0965619
12.086546 -28.879637 4.4586773
1.4977661 -3.7917933 25.91671
1.792768 -4.4771109 23.209532
1.6123923 -3.9704537 13.746916
2.2979188 -5.6193743 14.362096
2.5697441 -6.2592349 12.467084
3.5414 -8.6004248 13.733001
3.6384926 -8.8231239 11.50317
1.3506253 -3.3610051 13.983418
1.9367784 -4.7741551 14.064634
2.391633 -5.8631911 13.156793
3.5178013 -8.5941734 15.259665
3.5719059 -8.7090425 12.539155
3.6652834 -8.919014 10.531737
3.6975091 -8.9220505 9.5705624
4.1132474 -9.9105873 8.7344408
5.0985045 -12.278481 8.8011665
6.7980204 -16.355267 9.3578758
6.8233337 -16.4081 7.2679858
6.4275346 -15.448725 5.008234
10.306121 -24.746675 2.4995553
3.7025912 -8.969718 8.7239428
4.5822792 -11.089875 8.8207407
6.4777789 -15.646411 7.9158096
6.8563514 -16.552654 6.3248129
1.4833894 -3.7941034 25.896954
1.7748781 -4.4776621 23.180162
1.5996366 -3.9788277 13.756459
