# .PCD v0.7 - Point Cloud Data file format
VERSION 0.7
FIELDS x y z
SIZE 4 4 4
TYPE F F F
COUNT 1 1 1
WIDTH 1493
HEIGHT 1
VIEWPOINT 0 0 0 1 0 0 0
POINTS 1493
DATA ascii
3.0550911 -23.174381 5.7284274
2.9992614 -22.750902 3.2928092
4.6624284 -35.319359 1.5307823
1.0591874 -9.1244659 44.185581
0.88403428 -7.3040438 23.567657
1.3791971 -11.167313 26.567989
1.0014178 -8.0163584 14.872299
1.1583508 -9.1945658 13.683406
1.5534916 -12.279462 14.895524
0.8189916 -6.9807353 27.098259
1.0493337 -8.6956244 23.872517
1.1113054 -8.9725533 14.858668
1.2648358 -10.154206 13.624442
1.626709 -12.985682 14.265704
1.6749403 -13.056507 13.015532
1.7289376 -13.421829 10.99413
1.8361942 -14.234919 9.4947577
2.6601386 -20.537914 8.4554892
2.7531567 -21.227032 6.3816061
1.6700584 -13.164105 11.899796
1.698985 -13.354844 9.8861656
2.0828924 -16.349848 9.7710133
2.8894515 -22.586807 10.613905
2.5501747 -19.907101 7.0742526
2.9234655 -22.789574 5.6322975
2.915417 -22.726851 3.2879746
4.5416589 -35.355236 1.5315886
1.0264198 -9.1200123 44.14642
0.85888135 -7.31005 23.577202
0.97112095 -8.0007858 14.837187
1.1303523 -9.23207 13.733001
1.5098364 -12.278447 14.887849
0.79433513 -6.9810538 27.088579
1.0183717 -8.6940928 23.858438
1.0874547 -9.0385208 14.96105
1.1548105 -9.5423241 12.802497
1.5756359 -12.944167 14.214252
1.6284715 -13.055195 13.008523
1.6883653 -13.47799 11.03493
1.785453 -14.232944 9.489275
2.6029174 -20.662066 8.5023146
2.6760416 -21.212715 6.3745556
2.7429004 -21.681793 4.2406993
1.6332364 -13.243969 11.966306
1.6513652 -13.35267 9.8802786
2.0247486 -16.348465 9.7659473
2.4800868 -19.911196 7.0726094
2.7819304 -22.302845 5.511549
2.7612891 -22.137384 3.2037117
4.4175987 -35.365917 1.531387
0.99391675 -9.117466 44.11705
0.83335924 -7.313004 23.577202
0.94346732 -8.006505 14.841576
1.1060926 -9.3030224 13.832191
1.4669675 -12.283643 14.887849
0.77147681 -6.9975281 27.141813
0.98743325 -8.6924515 23.84436
1.0610398 -9.0862999 15.033572
1.1229008 -9.5582676 12.818458
1.5272596 -12.922655 14.184851
1.5820323 -13.053719 13.001513
1.6417783 -13.487665 11.038068
1.7352537 -14.234937 9.4865322
2.5212002 -20.592798 8.4704723
2.601979 -21.221928 6.3745556
2.6654017 -21.676609 4.2379012
1.5918807 -13.290369 12.002886
1.6037815 -13.350327 9.8743925
1.9666394 -16.34687 9.7608805
2.705816 -22.326895 5.5150657
2.7006803 -22.284536 3.2230506
4.2947235 -35.386082 1.5315886
0.96197814 -9.1198683 44.112152
0.80668044 -7.3054824 23.543798
0.91551369 -8.0097494 14.841576
1.0700653 -9.2760782 13.78673
1.4233427 -12.282321 14.880174
0.74651271 -6.9951782 27.122456
0.96463549 -8.7644567 24.03207
1.0702055 -9.555295 19.944624
1.0243279 -9.0458927 14.96105
1.0915761 -9.5800934 12.842398
1.4863893 -12.964957 14.225278
1.5356233 -13.052078 12.994504
1.5942308 -13.489449 11.03493
1.6850626 -14.236755 9.4837914
2.4454715 -20.569248 8.4573612
2.4802437 -20.830755 6.2561135
2.5879724 -21.671146 4.2351031
1.5484966 -13.321807 12.026165
1.5562341 -13.347814 9.8685055
1.9090662 -16.349356 9.7583466
2.6460383 -22.490679 5.5525799
2.5864232 -21.983984 3.1795378
4.1729307 -35.415741 1.5321931
0.78069878 -7.3038011 23.529484
0.88359427 -7.977191 14.775741
1.036741 -9.2713661 13.77433
1.379745 -12.280843 14.872499
0.72338033 -7.0102444 27.170849
0.9336704 -8.7643385 24.022684
1.0373141 -9.5633001 19.953627
0.99502069 -9.0701532 14.995178
1.0624272 -9.6227798 12.894267
1.4418727 -12.976804 14.232627
1.4896494 -13.053817 12.991
1.5471342 -13.494931 11.03493
1.6348797 -14.238397 9.4810495
3.1641295 -27.430468 11.244434
2.4064143 -20.829754 6.2532935
2.5145721 -21.699568 4.2388339
1.4986402 -13.297448 11.99956
1.5082699 -13.341116 9.8596764
1.8510145 -16.347351 9.7532806
2.5190198 -22.074802 5.4494162
2.5276353 -22.150324 3.2016394
4.0555215 -35.484692 1.53441
0.75412488 -7.2960877 23.496078
0.85267919 -7.9516497 14.72307
1.0001305 -9.2357616 13.716469
1.3368685 -12.285584 14.872499
0.90307146 -8.7675447 24.022684
1.0039257 -9.5668631 19.953627
0.96087599 -9.050231 14.956785
1.0294714 -9.6324224 12.902247
1.3991048 -13.005355 14.258354
1.4432901 -13.051847 12.983991
1.499159 -13.492512 11.028653
1.5847061 -14.239861 9.4783087
3.0503299 -27.280094 11.178879
2.3336904 -20.838028 6.2532935
1.4518093 -13.298887 11.996236
1.4612515 -13.34228 9.8567333
1.7934705 -16.34943 9.7507477
3.7563937 -34.024837 12.003137
2.4072247 -21.769434 5.3732157
3.9365819 -35.543324 1.5362236
0.72998649 -7.3120437 23.539026
0.82220036 -7.9283729 14.67479
0.96348792 -9.1972151 13.654474
1.2912909 -12.264676 14.8418
0.87229079 -8.7689266 24.017992
0.97052491 -9.5703087 19.953627
0.93460447 -9.1054182 15.042104
1.0007975 -9.6839142 12.966087
1.3529974 -13.003415 14.251004
1.3973423 -13.05326 12.980487
1.4508032 -13.486053 11.019237
1.5345421 -14.241148 9.4755669
1.5127804 -13.970628 5.7658134
2.2490411 -20.736357 6.2208629
1.4053787 -13.303875 11.996236
1.4138172 -13.339261 9.8508463
1.7359344 -16.351303 9.7482147
2.3596749 -22.043518 5.4376931
3.8215435 -35.641296 1.5396498
0.70417219 -7.3115759 23.529484
1.0997996 -11.135461 26.420708
0.79237193 -7.9097481 14.63529
0.92996085 -9.1865234 13.63381
1.2491202 -12.275486 14.849475
0.84035784 -8.7581758 23.98045
0.93859684 -9.5888042 19.985134
0.90049994 -9.0852661 15.003711
0.96878397 -9.7053385 12.990028
1.3069206 -13.001312 14.243653
1.351035 -13.050964 12.973477
1.4033165 -13.487164 11.016099
1.4843884 -14.24226 9.4728251
1.476079 -14.091091 5.8126392
2.1761434 -20.739311 6.2194524
1.3581723 -13.30127 11.989584
1.3660101 -13.332053 9.8420172
1.6784067 -16.352974 9.7456818
2.008189 -19.432688 6.8885369
2.3397691 -22.602787 5.5713372
0.67988664 -7.3273664 23.572432
1.0653681 -11.185909 26.53117
0.76360494 -7.9005456 14.613343
0.89487833 -9.158906 13.588346
1.2056366 -12.273392 14.8418
0.80914575 -8.7541819 23.961679
0.90593791 -9.6006918 20.003139
0.87324774 -9.135087 15.080498
0.94009864 -9.7626505 13.061849
1.2608751 -12.999045 14.236303
1.3047608 -13.048503 12.966469
1.3515576 -13.445507 10.978437
1.4338266 -14.239033 9.4673424
2.7724283 -27.38895 11.21072
2.1037364 -20.74678 6.2194524
2.4942987 -24.513273 4.7694945
1.310635 -13.294782 11.979607
1.3186684 -13.328695 9.8361311
1.6200386 -16.345863 9.7380819
1.293364 -12.980549 6.1177783
1.9361231 -19.397289 6.873745
2.2710121 -22.712383 5.5959558
0.65483594 -7.3356419 23.591518
1.029884 -11.22847 26.62322
0.73202521 -7.8602381 14.53434
0.86527705 -9.1871891 13.625544
0.77766621 -8.7466402 23.933523
0.87360132 -9.6168051 20.030148
0.89825886 -9.7561741 16.095789
0.91464329 -9.8588829 13.185539
1.2135992 -12.983115 14.214252
1.2585202 -13.045878 12.959459
1.3833055 -14.235627 9.4618597
1.332624 -13.664577 7.2732744
1.3902911 -14.230243 5.8650842
2.4144788 -24.580498 4.7806864
1.2589196 -13.243521 11.929726
1.2713666 -13.325169 9.8302441
1.5617405 -16.338547 9.7304831
1.2545587 -13.052749 6.1492491
1.8674968 -19.394529 6.8704581
2.1917171 -22.720173 5.5959558
0.63011831 -7.3482938 23.624922
0.99136949 -11.23978 26.64163
0.7024461 -7.838892 14.49045
0.83472687 -9.2069683 13.650342
0.80755234 -9.8413134 38.054714
0.74654275 -8.7424231 23.914751
0.84097385 -9.6306391 20.052652
0.86488813 -9.767045 16.108587
0.88772392 -9.9460535 13.29726
1.1667536 -12.97039 14.195876
1.2119839 -13.03954 12.948946
1.2500509 -13.37323 10.912529
1.3328258 -14.232043 9.4563761
1.2824301 -13.642682 7.2593617
1.3366979 -14.193469 5.848227
1.9291062 -20.445755 6.12639
2.3300517 -24.603445 4.783484
1.2045151 -13.158596 11.849913
1.2241056 -13.321475 9.824358
1.5050941 -16.34819 9.733016
1.2068963 -13.034454 6.1387591
1.7810298 -19.198744 6.799787
2.1038489 -22.635731 5.5736818
0.7096293 -9.1776876 44.278587
0.60409725 -7.3459859 23.610605
0.95147002 -11.235386 26.62322
0.67877632 -7.8842473 14.569453
0.8016063 -9.1986122 13.63381
0.77319485 -9.8440723 38.054714
0.71616232 -8.7466965 23.919445
0.80735147 -9.6335154 20.052652
0.83211523 -9.7855959 16.134182
0.85892016 -10.018144 13.389031
1.1188439 -12.943985 14.1628
1.165507 -13.033032 12.938432
1.203362 -13.377512 10.912529
1.2823881 -14.22828 9.4508944
1.8546879 -20.418924 6.1165199
1.1621767 -13.203635 11.886494
1.1768861 -13.317616 9.8184729
1.1906182 -13.446305 8.0180531
1.1613902 -13.038588 6.1387591
1.7165215 -19.233067 6.8096485
2.8508472 -31.880148 7.8104639
3.0133967 -33.697926 4.8109241
0.67961186 -9.2075262 44.410763
0.58126211 -7.3837643 23.725134
0.91208732 -11.236691 26.618616
0.65243345 -7.9008904 14.595788
0.76597494 -9.1592922 13.571816
0.96938336 -11.519287 13.916961
0.73807567 -9.8366842 38.015999
0.68562627 -8.7491436 23.919445
0.77284831 -9.6254253 20.030148
0.79329073 -9.7312546 16.040333
0.82814234 -10.072134 13.456861
1.0705727 -12.910647 14.122373
1.1178694 -13.012151 12.913899
1.1606807 -13.428167 10.950191
1.2323533 -14.228503 9.4481525
1.0823859 -12.446514 6.6263294
1.1599071 -13.311101 5.4867315
1.7842358 -20.434832 6.1193399
2.0664289 -23.571907 4.5839033
1.118281 -13.233655 11.909772
1.1297082 -13.313587 9.8125858
1.1429442 -13.44179 8.0129871
2.0345776 -23.73213 8.379199
2.7549403 -32.069088 7.8538389
2.8999891 -33.757576 4.817831
0.64746749 -9.2098427 44.410763
0.55548441 -7.3857479 23.725134
0.87361461 -11.249546 26.64163
0.62711513 -7.9317698 14.648457
0.83466518 -10.418567 15.423377
0.92890996 -11.519403 13.913122
0.70373476 -9.839201 38.015999
0.65495306 -8.7497616 23.914751
0.73891133 -9.623723 20.021145
0.75039387 -9.6195583 15.852631
0.7925061 -10.068954 13.44888
1.022011 -12.870373 14.074596
1.0753702 -13.051516 12.948946
1.1131573 -13.424378 10.943914
1.1819866 -14.224384 9.4426689
1.0256717 -12.291295 6.5428524
1.1134355 -13.315068 5.4867315
1.7028798 -20.321426 6.0840893
1.9866065 -23.608349 4.5894995
1.0732857 -13.252364 11.923074
1.0829006 -13.31342 9.8096428
1.0893624 -13.364062 7.9648566
1.0384223 -12.657371 5.9583263
1.9432119 -23.635548 8.3430424
2.7427607 -33.289558 8.1469183
2.786202 -33.816845 4.8247375
0.61490822 -9.2059517 44.381393
0.53194112 -7.4189081 23.825346
0.83405221 -11.24863 26.632425
0.60140872 -7.9601803 14.696736
0.80087143 -10.455087 15.472972
0.88598299 -11.487423 13.87091
0.66947049 -9.8428507 38.020836
0.62465233 -8.7554369 23.924137
0.70531368 -9.6262436 20.021145
0.71332359 -9.575304 15.775844
0.75848377 -10.086683 13.468832
0.98067051 -12.921187 14.126048
1.0303662 -13.062301 12.955956
1.0650582 -13.412661 10.93136
1.132327 -14.228423 9.4426689
0.98311383 -12.299216 6.5451713
1.6315506 -20.322466 6.0826788
1.0281734 -13.270921 11.936377
1.0357941 -13.30906 9.8037558
1.0135422 -12.993879 7.7444701
0.98783821 -12.579476 5.9205613
1.0945084 -13.906845 4.9442654
2.6747618 -33.91029 4.8364792
0.58354115 -9.2202349 44.440132
0.50817311 -7.4519944 23.925556
0.79395616 -11.239779 26.604809
0.57465124 -7.9765639 14.72307
0.76662773 -10.48869 15.518435
0.84540844 -11.484054 13.863236
0.6352703 -9.8476372 38.030518
0.59280175 -8.7386255 23.872517
0.67095011 -9.6177883 19.998638
0.67786402 -9.5491199 15.728918
0.72327006 -10.08927 13.468832
0.93556124 -12.924532 14.126048
0.98690802 -13.094267 12.983991
1.0173491 -13.404654 10.921946
1.0804336 -14.203104 9.4234791
0.93950051 -12.293739 6.5405335
0.99035823 -12.929615 5.3275237
1.5631723 -20.361519 6.0925498
1.8742447 -24.302422 4.7191334
0.98294455 -13.289322 11.949677
0.98903108 -13.308563 9.8008137
0.95569044 -12.829681 7.6456761
0.94256353 -12.564745 5.9121695
1.0381684 -13.806986 4.9081082
2.5552599 -33.90461 4.8344073
0.55147445 -9.2242489 44.449924
0.48244667 -7.4581914 23.939873
0.75419378 -11.234685 26.586399
0.54844171 -8.0024157 14.766962
0.72571373 -10.429543 15.427509
0.87592191 -12.494112 15.072049
0.60104477 -9.8523035 38.040195
0.56295931 -8.7509747 23.900673
0.64487833 -9.5566311 15.73745
0.68968707 -10.115784 13.500751
0.89440054 -12.985215 14.188525
0.94068325 -13.090518 12.976981
0.96999002 -13.400359 10.915668
1.0281255 -14.169254 9.3988056
0.89529318 -12.279272 6.5312586
0.9455573 -12.937616 5.3293967
1.4840263 -20.256813 6.0601187
1.7944506 -24.377403 4.7321901
0.93628788 -13.288948 11.946352
0.94199848 -13.303871 9.7949266
0.89167243 -12.56204 7.4860859
0.88316095 -12.350664 5.8114629
0.97916281 -13.659802 4.855516
1.6721898 -23.271145 5.7178769
0.51944405 -9.2291679 44.464611
0.45650095 -7.4613199 23.944645
0.71422869 -11.225552 26.558784
0.52050471 -8.004281 14.766962
0.68707722 -10.398318 15.377914
0.83720261 -12.570651 15.160312
0.56672233 -9.8555965 38.045036
0.60256273 -9.602684 19.958126
0.61201507 -9.5666332 15.750249
0.84906828 -12.988258 14.188525
0.8952263 -13.09728 12.980487
0.92240578 -13.392014 10.906254
0.97721916 -14.151899 9.3850985
0.84475774 -12.171843 6.4732885
0.89556438 -12.871468 5.3013015
1.4086347 -20.194872 6.0403781
0.88939619 -13.284684 11.939701
0.89528227 -13.303046 9.7919846
0.84230357 -12.483357 7.4379559
0.83727264 -12.312919 5.7925806
0.89710897 -13.159037 4.6796603
1.5906168 -23.27199 5.7167044
0.48738602 -9.2339754 44.479294
0.43234369 -7.4956532 24.049629
0.67503983 -11.227976 26.558784
0.49270838 -8.00844 14.77135
0.65095186 -10.403461 15.382047
0.70229822 -11.130804 13.429598
0.53265524 -9.8637915 38.069233
0.5048148 -8.8063765 24.041456
0.5784601 -9.5661077 15.745982
0.66338253 -10.845192 14.462347
0.80372554 -12.991143 14.188525
0.84927207 -13.096766 12.976981
0.87539941 -13.391268 10.903114
0.92261779 -14.075949 9.3330116
0.79935223 -12.130515 6.4501004
0.84023774 -12.717237 5.237618
1.3311572 -20.094364 6.0093579
0.84278226 -13.283982 11.936377
0.8485831 -13.302054 9.7890406
0.79294455 -12.395879 7.3847585
0.79019821 -12.252358 5.7632074
0.85177934 -13.171512 4.6829476
1.5096873 -23.282251 5.7178769
0.45464951 -9.2254505 44.430344
0.40512693 -7.4777398 23.987593
0.6358428 -11.230264 26.558784
0.46405724 -7.9981556 14.749405
0.66382152 -11.139586 13.437273
0.497904 -9.859313 38.045036
0.47592616 -8.8425493 24.135311
0.54580617 -9.5810871 15.767311
0.63020498 -10.928664 14.570078
0.75817567 -12.990485 14.184851
0.80355066 -13.09965 12.976981
0.8272078 -13.370934 10.884284
0.87865609 -14.16255 9.3878393
0.75369388 -12.080176 6.4222746
0.7900517 -12.627555 5.2001576
1.2577025 -20.046225 5.9938474
0.79506701 -13.264481 11.916423
0.80165863 -13.296866 9.7831535
0.74888957 -12.385663 7.3771596
0.74631959 -12.236923 5.7548156
0.81386888 -13.306378 4.7289658
1.4281104 -23.282528 5.7167044
0.42230427 -9.2239294 44.415657
0.37939987 -7.4865623 24.011454
0.59622353 -11.224611 26.540375
0.54315561 -9.9631004 18.352839
0.56597465 -10.185787 15.055545
0.62690735 -11.177038 13.479486
0.46324959 -9.8559685 38.025677
0.4469645 -8.8820724 24.238552
0.51277632 -9.5907478 15.78011
0.60036367 -11.084249 14.77357
0.71319717 -12.999824 14.192202
0.75781947 -13.102375 12.976981
0.77894211 -13.346539 10.862314
0.83165777 -14.207274 9.4152546
0.70917803 -12.042934 6.4014058
0.74077535 -12.542307 5.1645699
1.188004 -20.055279 5.9952569
2.1633368 -36.305912 6.996592
0.74770856 -13.248536 11.899796
0.75500989 -13.295549 9.7802114
0.70221895 -12.327948 7.3416944
0.69995368 -12.176019 5.7254429
0.767416 -13.309138 4.7289658
1.3883657 -24.005543 5.8902073
0.38980326 -9.2182274 44.381393
0.35347554 -7.4923143 24.025768
0.50971657 -9.9912462 18.401119
0.53187907 -10.215803 15.096874
0.58788836 -11.179158 13.479486
0.4286792 -9.8537579 38.011162
0.41394034 -8.8404846 24.121233
0.47139657 -9.6710443 20.084162
0.47955552 -9.5976896 15.788643
0.56441277 -11.140446 14.845389
0.66555446 -12.958219 14.144424
0.71053123 -13.076454 12.948946
0.7317096 -13.337517 10.852899
0.77976227 -14.168339 9.3878393
0.6627267 -11.965722 6.3596673
0.69338965 -12.480013 5.1383476
1.1209272 -20.111992 6.0107675
2.0357668 -36.298527 6.9937935
0.70047122 -13.232423 11.883168
0.70816505 -13.290031 9.7743244
0.65548998 -12.142132 5.7086587
0.71176052 -13.141988 4.6697993
1.3085179 -24.083046 5.9077926
0.35762325 -9.219532 44.381393
0.49779579 -10.476208 19.287714
0.54681951 -11.139524 13.429598
0.39423034 -9.8539381 38.006321
0.38263074 -8.8315306 24.093077
0.43773383 -9.6748047 20.088661
0.44665557 -9.6123304 15.809972
0.58457059 -12.39447 16.505239
0.62031782 -12.960463 14.144424
0.66379523 -13.057484 12.927918
0.68514854 -13.33999 10.852899
0.73159194 -14.19603 9.4042892
0.61797076 -11.910454 6.3295231
0.64741194 -12.436061 5.1196175
0.75495303 -14.453372 4.3441086
1.9067276 -36.261265 6.9854002
0.65261805 -13.201224 11.853239
0.66136795 -13.284348 9.7684383
0.59484327 -11.906312 7.09091
0.61104262 -12.103551 5.6897759
0.6615817 -13.059502 4.6402164
1.2362889 -24.320475 5.9640636
0.32551071 -9.2227583 44.391182
0.34860587 -8.6758699 27.80518
0.43140671 -10.12157 23.92614
0.46533081 -10.571196 19.458887
0.50793201 -11.141365 13.429598
0.35973957 -9.8527422 37.996643
0.35248715 -8.8500557 24.140003
0.40468603 -9.6936741 20.124672
0.41265181 -9.6034088 15.792908
0.54143369 -12.399446 16.50923
0.61736894 -13.04191 12.910396
0.6400677 -13.373404 10.878007
0.68163288 -14.190145 9.3988056
0.5761776 -11.908113 6.3272042
0.60557199 -12.470658 5.1327286
0.70659822 -14.499042 4.3567991
0.60773253 -13.22953 11.876517
0.614806 -13.282537 9.7654953
0.5550794 -11.947072 7.1137085
0.5687896 -12.105611 5.6897759
0.61643642 -13.071165 4.6435032
0.29331529 -9.2238388 44.391182
0.31749886 -8.6546583 27.733601
0.39569139 -10.113253 23.903128
0.47709689 -11.774056 21.662205
0.46742091 -11.104642 13.383548
0.32530344 -9.8526821 37.991802
0.32209364 -8.8650284 24.177547
0.37076315 -9.692852 20.120171
0.37892139 -9.599577 15.784375
0.43756363 -10.892837 14.510228
0.57027864 -13.008357 12.875349
0.5944168 -13.398887 10.896837
0.5332166 -11.879074 6.3109727
0.56746334 -12.593108 5.1814275
0.66378665 -14.673938 4.4075603
0.56249893 -13.253953 11.896469
0.56809199 -13.276526 9.7596092
0.51559335 -12.000619 7.1441069
0.52574098 -12.089385 5.6813836
0.56956983 -13.044931 4.6336422
0.26111627 -9.2248058 44.391182
0.2863462 -8.627368 27.642933
0.35830078 -10.056 23.765053
0.4368808 -11.799583 21.706095
0.42803755 -11.09019 13.36436
0.29090917 -9.8537569 37.991802
0.29109028 -8.8643742 24.172853
0.33700213 -9.6962633 20.124672
0.34456661 -9.5773849 15.745982
0.52587372 -13.035213 12.899882
0.54875481 -13.428103 10.918806
0.51396936 -12.523391 8.3022194
0.4906486 -11.854307 6.29706
0.52350169 -12.595013 5.1814275
0.61256099 -14.676166 4.4075603
0.51579475 -13.244643 11.886494
0.52158606 -13.274388 9.7566652
0.47098026 -11.933426 7.1035762
0.48281258 -12.073008 5.6729918
0.52516818 -13.07515 4.6435032
0.22886364 -9.2236261 44.381393
0.25596359 -8.6193628 27.6143
0.32087561 -9.9849405 23.594759
0.39560965 -11.798643 21.701706
0.38853607 -11.069194 13.337497
0.25641334 -9.8509436 37.977283
0.26206857 -8.9308834 24.351179
0.30254182 -9.6777983 20.084162
0.3123183 -9.6150227 15.805705
0.34302479 -10.33848 13.772073
0.48023784 -13.033404 12.896378
0.50216931 -13.437716 10.925083
0.46868283 -12.483325 8.2748051
0.44825989 -11.829387 6.2831469
0.47530141 -12.485581 5.1364746
0.47495741 -13.268049 9.7507792
0.42761746 -11.887609 7.0757108
0.44116348 -12.088225 5.6792855
0.4796972 -13.081622 4.6451464
0.22583579 -8.6187115 27.609529
0.28534877 -9.9625664 23.539528
0.35384721 -11.7808 21.666594
0.31668249 -10.188136 15.043145
0.34908509 -11.044854 13.306798
0.22182748 -9.8429823 37.943409
0.23089239 -8.9317436 24.351179
0.26773125 -9.6417999 20.007641
0.27905592 -9.626482 15.822769
0.30684531 -10.336603 13.768084
0.39434087 -12.97948 14.155449
0.45486459 -13.427718 10.915668
0.42069423 -12.355334 8.1898193
0.40574667 -11.795463 6.2645965
0.43123519 -12.473265 5.1308556
0.48276904 -13.893841 4.1763148
0.42850995 -13.265588 9.7478361
0.38360083 -11.811475 7.0301137
0.39612103 -12.003508 5.6394229
0.43074307 -12.984107 4.6106329
0.164248 -9.2127819 44.322647
0.19510604 -8.5910931 27.51886
0.31221417 -11.762812 21.631481
0.28119496 -10.191993 15.047279
0.30818781 -10.962702 13.207022
0.20352972 -9.1032953 24.815763
0.23407343 -9.6426764 20.007641
0.24611598 -9.6534681 15.865428
0.27131408 -10.358696 13.796014
0.35021606 -13.024835 14.203227
0.40787214 -13.425332 10.912529
0.37641421 -12.319113 8.1651459
0.36361259 -11.765813 6.2483649
0.38567671 -12.409822 5.1046329
0.43426758 -13.895441 4.1763148
0.3779211 -13.279177 11.913098
0.38208544 -13.262963 9.744894
0.34236878 -11.812742 7.0301137
0.35194311 -11.927695 5.603756
0.38261563 -12.891129 4.5777626
0.98994422 -33.159142 8.0918198
1.1074169 -37.094128 5.2681541
0.13226327 -9.2255173 44.381393
0.16571814 -8.6230631 27.619074
0.27065584 -11.74228 21.59198
0.24703971 -10.251989 15.13407
0.27173296 -11.037409 13.295284
0.1730531 -9.172965 25.003473
0.2127617 -9.6699133 15.891024
0.23583746 -10.389705 13.835914
0.30419382 -13.002254 14.177501
0.36079729 -13.418893 10.906254
0.33182675 -12.261833 8.1267653
0.32132632 -11.72273 6.2251768
0.34248388 -12.415728 5.1065059
0.38429663 -13.844124 4.1608047
0.3310999 -13.261751 11.896469
0.33568442 -13.260175 9.74195
0.3011325 -11.813866 7.0301137
0.30959749 -11.901629 5.5911674
0.33749127 -12.887666 4.5761189
0.87867409 -33.332455 8.1328506
0.97962397 -37.162125 5.2771335
0.1000594 -9.2259226 44.381393
0.21223724 -10.300617 15.204329
0.23367737 -11.060721 13.322146
0.14267562 -9.2804909 25.294424
0.17968157 -9.7071037 15.950747
0.20003197 -10.414566 13.867834
0.2593452 -13.030351 14.206902
0.29862392 -13.056665 12.913899
0.3138634 -13.416179 10.903114
0.29276645 -12.421766 8.2309408
0.27976891 -11.697208 6.2112641
0.29836124 -12.384405 5.0933948
0.33596927 -13.845382 4.1608047
0.28616828 -13.326286 11.953004
0.28930756 -13.257224 9.739007
0.25970301 -11.806225 7.0250473
0.26907289 -11.948011 5.6121478
0.29153869 -12.846277 4.5613279
0.76553929 -33.476238 8.1668482
0.8476336 -37.066299 5.2633195
0.17033036 -10.601619 19.498388
0.17642449 -10.309737 15.21673
0.1955753 -11.090312 13.356685
0.11030029 -9.2826586 25.299118
0.14563979 -9.6972418 15.933684
0.16419774 -10.448342 13.911725
0.21346991 -13.007449 14.181175
0.25408214 -13.111113 12.966469
0.26695287 -13.413302 10.899977
0.24906892 -12.405991 8.2199755
0.23893636 -11.698113 6.2112641
0.25560716 -12.408545 5.1027598
0.28823557 -13.875247 4.1692648
0.2428813 -13.250072 9.7331209
0.21833053 -11.798441 7.0199814
0.22779658 -11.971565 5.6226382
0.24687633 -12.856658 4.5646148
0.65056396 -33.575905 8.1902943
0.13362372 -10.626097 19.542278
0.14150833 -10.389075 15.332452
0.15713356 -11.110157 13.37971
0.077998295 -9.2950668 25.331966
0.11160896 -9.6820431 15.908088
0.12816699 -10.485008 13.959604
0.16802035 -13.004726 14.177501
0.22000237 -13.406369 10.8937
0.20312798 -12.247912 8.1157999
0.19840086 -11.716594 6.2205396
0.21252955 -12.423267 5.1083789
0.240629 -13.924132 4.1833653
0.19656849 -13.246796 9.7301769
0.17708024 -11.79482 7.0174479
0.1850197 -11.908757 5.5932655
0.20266426 -12.899936 4.5794063
0.53582847 -33.733486 8.227808
0.003439921 -9.2203541 44.352016
0.096530899 -10.626499 19.542278
0.10524283 -10.389505 15.332452
0.11835092 -11.110638 13.37971
0.045745939 -9.3349724 25.439899
0.077853523 -9.6875896 15.91662
0.091908544 -10.524563 14.011476
0.1225924 -13.001842 14.173824
0.17335485 -13.418731 10.903114
0.15884101 -12.131476 8.0390387
0.15767968 -11.730502 6.2274957
0.16916294 -12.423934 5.1083789
0.19189097 -13.915293 4.1805449
0.15023562 -13.239317 9.7242908
0.13551033 -11.760882 6.9971824
0.14317599 -11.886639 5.5827751
0.15723 -12.867512 4.5679016
0.41885638 -33.798336 8.2430487
-0.028751541 -9.2223473 44.361809
0.041152634 -9.7985516 23.143711
0.059410166 -10.621982 19.533503
0.068621442 -10.336345 15.253926
0.079337478 -11.078932 13.341335
0.044060718 -9.693018 15.925152
0.055470169 -10.58207 14.087285
0.077186652 -12.998801 14.17015
0.12611017 -13.37644 10.868591
0.11557011 -12.035789 7.9759851
0.11686382 -11.74427 6.2344522
0.12509036 -12.354913 5.0802832
0.14193326 -13.781568 4.1410642
0.10398912 -13.235721 9.7213478
0.094283305 -11.739729 6.9845166
0.10160537 -11.877989 5.5785789
0.11227186 -12.863261 4.566258
-0.060929853 -9.2201538 44.352016
0.0069176867 -9.7537012 23.037853
0.032575808 -10.347775 15.270457
0.040664308 -11.079142 13.341335
0.010282858 -9.7478819 16.014736
0.018531512 -10.582199 14.087285
0.031836744 -13.009162 14.181175
0.079232134 -13.345661 10.843484
0.074476197 -12.186647 8.0746775
0.075524688 -11.69145 6.2066264
0.08165545 -12.308917 5.061553
0.092584953 -13.599695 4.0874829
0.053024333 -13.198569 11.836611
0.057769578 -13.231961 9.7184048
0.05320562 -11.718434 6.9718509
0.059683397 -11.787502 5.5366178
0.067370012 -12.863575 4.566258
-0.02711276 -9.7478056 23.024046
-0.012004059 -8.658247 15.934457
-0.003547814 -10.35627 15.282857
0.0019889574 -11.0696 13.329822
-0.023883855 -9.8052349 16.108587
-0.018281152 -10.509881 13.991524
-0.013545497 -12.982073 14.151774
0.032045878 -12.228648 8.1020927
0.034595158 -11.651774 6.1857572
0.03852861 -12.258132 5.0409498
0.045414839 -13.69108 4.1142735
0.0068937535 -13.086661 11.736846
0.011577531 -13.22804 9.7154617
0.012273244 -11.692684 6.9566517
0.018615397 -11.837563 5.5596967
0.022318991 -12.778732 4.536675
-0.12537985 -9.2256126 44.381393
-0.042238604 -8.6605463 15.938846
-0.039535843 -10.313984 15.220862
-0.03672557 -11.091976 13.356685
-0.058094889 -9.8024836 16.104321
-0.054241624 -10.371146 13.807983
-0.058830537 -12.975165 14.144424
-0.013967858 -13.373136 10.865453
-0.010607424 -12.191052 8.0774193
-0.006054142 -11.607527 6.1625695
-0.0042378362 -12.193289 5.0147271
-0.0023804074 -13.71514 4.1213236
-0.038720798 -13.064204 11.716893
-0.034597013 -13.228 9.7154617
-0.028468177 -11.662478 6.9389191
-0.022888497 -11.932864 5.603756
-0.02221307 -12.736233 4.5218835
-0.072589681 -8.674716 15.96518
-0.075558759 -10.316598 15.224996
-0.092262425 -9.7970047 16.095789
-0.09078519 -10.410065 13.859854
-0.10412195 -12.974881 14.144424
-0.065460332 -12.942229 12.79825
-0.06066639 -13.376897 10.868591
-0.053016111 -12.157489 8.0554876
-0.046803098 -11.665021 6.1927137
-0.04681813 -12.197835 5.0166001
-0.050255165 -13.715048 4.1213236
-0.084540144 -13.097592 11.746823
-0.08074645 -13.223757 9.7125187
-0.068973012 -11.627823 6.9186535
-0.064566374 -11.937249 5.6058536
-0.066200912 -12.646358 4.4906569
-0.012276939 -0.79084092 2.5757015
-0.10298335 -8.6839895 15.982738
-0.11172219 -10.33034 15.24566
-0.11983752 -11.642722 14.016735
-0.12676294 -9.8200941 16.134182
-0.12752749 -10.442828 13.903745
-0.148553 -12.899861 14.06357
-0.11048426 -12.924091 12.780727
-0.1075476 -13.399958 10.887423
-0.094303928 -12.010885 7.9595361
-0.087687559 -11.686935 6.2043076
-0.089396238 -12.197598 5.0166001
-0.097442776 -13.61885 4.093123
-0.16034557 -16.121424 14.440477
-0.12686667 -13.219352 9.7095747
-0.10935813 -11.605958 6.9059877
-0.10736589 -12.064025 5.6645994
-0.11022091 -12.631884 4.4857264
-0.014980101 -0.78780836 2.5661576
-0.18798903 -11.225186 26.508158
-0.13329551 -8.6835766 15.982738
-0.1481033 -10.352397 15.278723
-0.16056587 -11.648643 14.02441
-0.16138297 -9.8404531 16.16831
-0.16397899 -10.442319 13.903745
-0.19261423 -12.834858 13.993742
-0.15594064 -12.952154 12.808764
-0.15423185 -13.391716 10.881145
-0.13651378 -12.035569 7.9759851
-0.12896912 -11.730853 6.2274957
-0.13152178 -12.155491 4.999743
-0.14482762 -13.604036 4.0888929
-0.21586621 -16.064762 14.390594
-0.17295715 -13.214787 9.7066326
-0.1494801 -11.575334 6.8882556
-0.14970152 -12.081731 5.6729918
-0.15460218 -12.65503 4.4939437
-0.01776384 -0.78924364 2.5709298
-0.22677556 -11.204928 26.462132
-0.18479002 -10.382767 15.324185
-0.19578345 -9.8424368 16.172575
-0.19857737 -10.345277 13.776064
-0.23678789 -12.800211 13.95699
-0.2017051 -12.98719 12.84381
-0.20085989 -13.383312 10.874868
-0.17908321 -12.072649 8.000658
-0.16953163 -11.703755 6.213583
-0.17415059 -12.168864 5.005362
-0.19156773 -13.550685 4.0733824
-0.21908431 -13.214103 9.7066326
-0.19115761 -11.652325 6.9338531
-0.19115292 -12.035755 5.6520109
-0.19855304 -12.640249 4.4890132
-0.020323334 -0.78171581 2.5470698
-0.26597941 -11.207974 26.471336
-0.20830607 -9.3265266 17.163399
-0.22097161 -10.379245 15.320053
-0.22995581 -9.8338718 16.159779
-0.2354399 -10.377657 13.819953
-0.28131843 -12.792528 13.94964
-0.24710545 -12.989971 12.847314
-0.24757512 -13.382529 10.874868
-0.22160664 -12.092854 8.0143652
-0.20966765 -11.66323 6.1927137
-0.21646172 -12.158912 5.001616
-0.23835996 -13.521156 4.0649223
-0.31169796 -15.264004 13.678938
-0.26512766 -13.209216 9.7036886
-0.23268828 -11.694685 6.9591846
-0.23158182 -11.953337 5.6142459
-0.24258386 -12.634758 4.48737
-0.023096191 -0.7831322 2.5518417
-0.30504775 -11.205026 26.466734
-0.24086045 -9.3257418 17.163399
-0.25775844 -10.400915 15.353116
-0.27554148 -11.357935 13.679034
-0.26407078 -9.8251877 16.146978
-0.27529165 -10.515335 14.003495
-0.32674837 -12.82197 13.982718
-0.29284886 -13.006857 12.864836
-0.29445854 -13.389366 10.881145
-0.26336116 -12.071104 8.000658
-0.25170991 -11.72443 6.2251768
-0.2588042 -12.153447 4.999743
-0.28423923 -13.457893 4.0465918
-0.74624723 -35.925365 6.913588
-0.36444178 -15.240427 13.658985
-0.3112348 -13.20821 9.7036886
-0.27441621 -11.732589 6.9819832
-0.27257901 -11.920693 5.5995598
-0.28625739 -12.614951 4.4807954
-0.025780199 -0.78155488 2.5470698
-0.2748864 -9.3751173 17.255569
-0.29366511 -10.385888 15.332452
-0.31491956 -11.347292 13.667522
-0.026744159 -0.73071188 2.852742
-0.31396192 -10.580572 14.091274
-0.37552992 -12.959689 14.133399
-0.33824944 -13.005755 12.864836
-0.340996 -13.380475 10.874868
-0.30761173 -12.153712 8.0554876
-0.29329756 -11.750051 6.23909
-0.30099636 -12.143202 4.995997
-0.33121431 -13.45682 4.0465918
-0.86866665 -35.79977 6.8902726
-0.41804776 -15.253991 13.672287
-0.35722885 -13.203003 9.7007456
-0.31536892 -11.731559 6.9819832
-0.31083962 -11.792635 5.5408139
-0.33016646 -12.609155 4.4791522
-0.028562877 -0.78295183 2.5518417
-0.30761001 -9.3741007 17.255569
-0.32991683 -10.3848 15.332452
-0.35582867 -11.387772 13.717411
-0.028990675 -0.72307831 2.8237054
-0.35149255 -10.597482 14.115215
-0.42098543 -12.965075 14.140748
-0.38364595 -13.004496 12.864836
-0.38510719 -13.289718 10.802684
-0.35244223 -12.23616 8.1103172
-0.33531916 -11.78438 6.2576404
-0.34272689 -12.118906 4.9866319
-0.37724191 -13.422015 4.0367217
-0.99403483 -35.811253 6.8930712
-0.47140694 -15.256171 13.675612
-0.40331376 -13.201675 9.7007456
-0.35513973 -11.691607 6.9591846
-0.3544395 -11.873136 5.5785789
-0.37445873 -12.617365 4.482439
-0.031295713 -0.78284734 2.5518417
-0.42244124 -11.203168 26.471336
-0.33633128 -9.2628736 17.053671
-0.36606535 -10.380772 15.32832
-0.39557722 -11.386461 13.717411
-0.031514514 -0.72297275 2.8237054
-0.38936582 -10.620278 14.147135
-0.46526456 -12.936424 14.111347
-0.42868495 -12.992385 12.854323
-0.4285889 -13.198816 10.730499
-0.39596218 -12.25993 8.1267653
-0.37758398 -11.818558 6.2761908
-0.38517493 -12.12227 4.9885049
-0.42575786 -13.473358 4.0522323
-1.1170386 -35.743736 6.8809466
-0.52414465 -15.239507 13.662311
-0.44939375 -13.200187 9.7007456
-0.39565706 -11.681681 6.9541187
-0.39573106 -11.86729 5.5764809
-0.41849929 -12.61598 4.482439
-0.034093279 -0.78422463 2.5566137
-0.46114281 -11.191867 26.448324
-0.36999658 -9.295146 17.115118
-0.40240777 -10.382243 15.332452
-0.43483105 -11.372199 13.70206
-0.0340974 -0.72411394 2.8285449
-0.42643514 -10.618855 14.147135
-0.50974983 -12.917784 14.092972
-0.47390413 -12.987244 12.850818
-0.47339955 -13.162231 10.702253
-0.43950281 -12.279366 8.1404724
-0.41883615 -11.817168 6.2761908
-0.42797741 -12.134749 4.9941239
-0.47514161 -13.538907 4.0719724
-1.2407773 -35.710163 6.875351
-0.49463135 -13.054895 11.716893
-0.49531662 -13.194499 9.6978035
-0.43610939 -11.671613 6.9490519
-0.43447959 -11.793268 5.542912
-0.46270776 -12.619162 4.4840827
-0.036900848 -0.7855919 2.5613856
-0.50046867 -11.196043 26.462132
-0.40420222 -9.3344755 17.189734
-0.43852726 -10.377963 15.32832
-0.47278717 -11.328979 13.652172
-0.036561005 -0.72273511 2.8237054
-0.46218491 -10.587198 14.107235
-0.55411071 -12.898992 14.074596
-0.51781023 -12.949877 12.815773
-0.51949489 -13.164388 10.705391
-0.47793075 -12.164947 8.0664539
-0.45698059 -11.735958 6.2344522
-0.47069213 -12.142447 4.99787
-0.52239835 -13.537167 4.0719724
-1.3644828 -35.681072 6.870688
-0.54066157 -13.064279 11.72687
-0.54137105 -13.19269 9.6978035
-0.47579223 -11.644176 6.9338531
-0.47436261 -11.759935 5.5282259
-0.50694358 -12.622189 4.4857264
-0.039642848 -0.78545833 2.5613856
-0.43723103 -9.342576 17.207289
-0.4746218 -10.373558 15.324185
-0.51232976 -11.32726 13.652172
-0.0390836 -0.72260308 2.8237054
-0.50655472 -10.585991 17.40543
-0.49715114 -10.543383 14.051375
-0.59582913 -12.82586 13.997416
-0.56146121 -12.912362 12.780727
-0.57246083 -13.325822 10.837207
-0.52503878 -12.271822 8.1377316
-0.49550226 -11.676755 6.2043076
-0.5128786 -12.136099 4.995997
-0.56460571 -13.41544 4.0367217
-1.4865667 -35.617199 6.8594966
-0.057542834 -1.2829224 1.2249401
-0.58723891 -13.186682 9.6948595
-0.51739025 -11.663977 6.9465189
-0.5197823 -11.857961 5.5743828
-0.55120605 -12.625059 4.48737
-0.042465091 -0.78680563 2.5661576
-0.52131677 -10.084081 23.847898
-0.46743342 -9.2931547 17.119509
-0.51207542 -10.397134 15.361382
-0.55014998 -11.290187 13.60996
-0.041533139 -0.72120738 2.8188658
-0.54029328 -10.521648 17.303049
-0.53120726 -10.487412 13.979554
-0.63907373 -12.793229 13.96434
-0.60535872 -12.885387 12.756196
-0.61897314 -13.323743 10.837207
-0.56922555 -12.299153 8.1569223
-0.53707182 -11.692655 6.213583
-0.556086 -12.152758 5.003489
-0.60465914 -13.264832 3.9930108
-1.6122166 -35.641235 6.8650923
-0.062020719 -1.2827137 1.2249401
-0.63326544 -13.184551 9.6948595
-0.55830806 -11.666406 6.9490519
-0.56696492 -11.978477 5.6310306
-0.59549487 -12.627775 4.4890132
-0.045383148 -0.7896331 2.5757015
-0.55640584 -10.080249 23.843294
-0.50308686 -9.3512545 17.229235
-0.5492546 -10.412144 15.386181
-0.58771771 -11.252989 13.567748
-0.044050369 -0.72105795 2.8188658
-0.57787454 -10.535322 17.328644
-0.56732309 -10.476469 13.967585
-0.68137395 -12.746913 13.916564
-0.65195161 -12.91525 12.787736
-0.66858524 -13.3837 10.887423
-0.61402529 -12.334678 8.1815948
-0.57788348 -11.690709 6.213583
-0.59553868 -12.090549 4.9791398
-0.65331006 -13.310555 4.0071111
-1.7368569 -35.640297 6.866025
-0.065917477 -1.2713032 1.2149636
-0.67907631 -13.178225 9.6919165
-0.5994702 -11.672997 6.9541187
-0.60900456 -11.980958 5.6331286
-0.63933146 -12.620903 4.48737
-0.048139207 -0.78946984 2.5757015
-0.5933066 -10.1075 23.912333
-0.53969955 -9.4187813 17.356518
-0.58970606 -10.483212 15.493636
-0.62289202 -11.177262 13.479486
-0.04648573 -0.7196455 2.8140266
-0.6040628 -10.477432 13.971574
-0.72547925 -12.737686 13.909214
-0.69856828 -12.941385 12.815773
-0.71633786 -13.400718 10.903114
-0.65574265 -12.307405 8.1651459
-0.61541003 -11.626691 6.1811199
-0.64311218 -12.190246 5.0203462
-0.70505834 -13.408792 4.0367217
-1.8615104 -35.63892 6.8669572
-0.070561223 -1.2747934 1.218289
-0.72462857 -13.167702 9.6860304
-0.64044911 -11.675138 6.9566517
-0.66411847 -12.223477 5.7464232
-0.68389356 -12.628026 4.4906569
-0.050991006 -0.79078668 2.5804737
-0.62603724 -10.064419 23.81568
-0.57533616 -9.4622622 17.439911
-0.62847799 -10.517608 15.547365
-0.65110075 -10.99264 13.260747
-0.048911765 -0.71822476 2.8091869
-0.63842475 -10.439169 13.923695
-0.7734158 -12.792603 13.971691
-0.74250984 -12.917506 12.794745
-0.76399612 -13.413679 10.915668
-0.696329 -12.263295 8.1377316
-0.65673977 -11.637739 6.188076
-0.68539977 -12.183297 5.0184731
-0.75185949 -13.406249 4.0367217
-1.9859021 -35.632206 6.8669572
-0.074571677 -1.2670846 1.211638
-0.77035171 -13.161056 9.6830864
-0.67969209 -11.647009 6.9414525
-0.70678234 -12.221085 5.7464232
-0.72525114 -12.578418 4.4742217
-0.05385258 -0.7920931 2.5852456
-0.65898687 -10.029033 23.737436
-0.61097533 -9.5008268 17.514524
-0.66518754 -10.515349 15.547365
-0.6812396 -10.859143 13.103409
-0.051238362 -0.7155422 2.7995081
-0.67252696 -10.400794 13.875814
-0.81871486 -12.799976 13.982718
-0.086829178 -1.4366944 1.2429451
-0.73510557 -12.194008 8.0938683
-0.7013346 -11.701705 6.2228584
-0.72958249 -12.208596 5.0297112
-0.7949422 -13.341291 4.0183911
-2.1102695 -35.625057 6.8669572
-0.078761682 -1.26309 1.2083125
-0.81553692 -13.146185 9.6742573
-0.71901274 -11.623053 6.9287868
-0.74499184 -12.146064 5.7128544
-0.77520746 -12.67479 4.5087352
-0.056723904 -0.7933892 2.5900176
-0.69196689 -9.9974356 23.668398
-0.70037121 -10.327794 19.037537
-0.70038909 -10.490501 15.514301
-0.053830225 -0.71661246 2.8043478
-0.71436185 -10.47955 13.983543
-0.86498773 -12.820718 14.008443
-0.076183461 -1.1820081 1.2437612
-0.091098242 -1.4247296 1.2335297
-0.78139293 -12.249788 8.1322489
-0.74329865 -11.716868 6.2321334
-0.77248675 -12.210602 5.0315843
-0.84603781 -13.410249 4.0395417
-2.234304 -35.612572 6.866025
-0.082679205 -1.2553561 1.2016616
-0.860892 -13.135191 9.6683712
-0.759018 -11.611869 6.9237204
-0.77769375 -11.993932 5.6436186
-0.82188392 -12.709706 4.5218835
-0.059604917 -0.79467481 2.5947895
-0.72912776 -10.026135 23.742039
-0.74340409 -10.423231 19.217487
-0.73641169 -10.479571 15.501903
-0.056529023 -0.71892631 2.8140266
-0.75567776 -10.543117 14.071324
-0.91189528 -12.848055 14.04152
-0.080792852 -1.188851 1.2507702
-0.096070923 -1.4244028 1.2335297
-0.78685671 -11.753982 6.2530026
-0.82529724 -12.360476 5.0933948
-2.3579519 -35.594749 6.8641596
-0.086543709 -1.2476102 1.1950105
-0.90645862 -13.128074 9.6654282
-0.80073118 -11.626351 6.9338531
-0.81058085 -11.859833 5.5827751
-0.86945581 -12.753872 4.5383186
-0.062378492 -0.79446191 2.5947895
-0.77513617 -10.358477 19.103371
-0.059657477 -0.72624099 2.8430631
-0.67696488 -8.7791567 18.27017
-0.7924754 -10.540414 14.071324
-0.95673782 -12.844794 14.04152
-0.084687874 -1.1850047 1.2472657
-0.10049127 -1.4162937 1.2272528
-0.89140451 -12.590227 8.3597908
-0.82881492 -11.764421 6.2599592
-0.86908829 -12.366769 5.0971408
-0.96680993 -13.791626 4.1537542
-2.4818447 -35.581406 6.8632274
-0.09035515 -1.2398528 1.1883595
-0.95169359 -13.116766 9.6595421
-0.84224343 -11.636384 6.9414525
-0.84807104 -11.802609 5.5575986
-0.91633326 -12.783731 4.5498228
-0.065151304 -0.79423934 2.5947895
-0.75722456 -9.6656704 17.834927
-0.062514916 -0.72978538 2.8575814
-0.70883048 -8.7919292 18.301682
-0.82619011 -10.498531 14.019454
-1.001305 -12.837996 14.037844
-0.08855702 -1.1811455 1.2437612
-0.10543445 -1.4159343 1.2272528
-0.93534714 -12.587039 8.3597908
-0.87248939 -11.796798 6.2785096
-0.89928776 -12.187974 5.0259657
-1.0145936 -13.783383 4.1523442
-2.6056731 -35.567627 6.8622947
-0.094397977 -1.2358068 1.185034
-0.99716723 -13.109333 9.6565981
-0.88872886 -11.710745 6.9870496
-0.89097011 -11.822206 5.568089
-0.9613052 -12.785162 4.5514665
-0.067923315 -0.79400706 2.5947895
-0.79330432 -9.6916122 17.887598
-0.065621741 -0.73582256 2.8817785
-0.74079353 -8.8045864 18.333189
-0.82914114 -10.000456 16.483988
-0.86011595 -10.46255 13.975565
-1.0458366 -12.831043 14.034169
-0.092679448 -1.1808293 1.2437612
-0.11007366 -1.4116771 1.2241144
-0.97895402 -12.579529 8.357049
-0.91366249 -11.79368 6.2785096
-0.93182254 -12.05534 4.9735208
-2.729059 -35.548515 6.8604288
-0.098413683 -1.2317479 1.1817086
-1.0429213 -13.105773 9.6565981
-0.94017941 -11.840787 7.065578
-0.9322319 -11.819023 5.568089
-0.070561811 -0.79227835 2.5900176
-0.82998192 -9.7221928 17.949045
-0.88029301 -10.440228 15.460574
-0.95186627 -11.359931 13.725086
-0.068422489 -0.73809218 2.8914573
-0.86471808 -10.005297 16.496788
-0.8938005 -10.426459 13.931675
-1.0906188 -12.827315 14.034169
-0.096800752 -1.1804985 1.2437612
-0.11500066 -1.4112843 1.2241144
-1.0147232 -12.476011 8.291254
-0.95303673 -11.768342 6.2669153
-0.9843533 -12.181398 5.0259657
-3.0640087 -37.99926 11.29557
-2.8527369 -35.533878 6.8594966
-0.1024022 -1.227676 1.1783831
-1.0886626 -13.102053 9.6565981
-0.97936839 -11.811657 7.0503793
-0.8725518 -10.613246 3.7954524
-0.073326945 -0.79202724 2.5900176
-0.93135136 -10.477852 19.344772
-0.91746956 -10.4455 15.472972
-0.98788965 -11.315029 13.675198
-0.071119197 -0.73910004 2.8962967
-0.90010506 -10.007412 16.505318
-0.9277795 -10.396263 13.895764
-1.1353879 -12.82343 14.034169
-0.10092086 -1.1801535 1.2437612
-0.1195965 -1.406996 1.2209759
-1.0547311 -12.430728 8.2638388
-0.99485606 -11.773772 6.271553
-1.0237521 -12.140932 5.0109816
-2.974705 -35.499226 6.8548336
-0.10668696 -1.2273111 1.1783831
-1.1343907 -13.098172 9.6565981
-1.006858 -11.64926 6.9566517
-0.90999693 -10.614841 3.7970958
-0.076091193 -0.79176646 2.5900176
-0.96792018 -10.474537 19.344772
-0.95520568 -10.456246 15.493636
-1.0227414 -11.260439 13.613798
-0.073823765 -0.74009794 2.9011362
-0.93381834 -9.9912252 16.483988
-0.96239346 -10.374959 13.871823
-1.1801431 -12.819388 14.034169
-0.10535616 -1.1833462 1.2472657
-0.12450711 -1.40657 1.2209759
-1.0285686 -11.686385 6.2274957
-0.92820156 -10.567118 4.3741503
-2.334269 -26.627449 7.9467425
-3.1037295 -35.547352 6.866025
-0.11130688 -1.2306498 1.1817086
-1.1801049 -13.094133 9.6565981
-1.0475153 -11.645674 6.9566517
-0.94620466 -10.602193 3.7938092
-0.07870625 -0.79001063 2.5852456
-1.0044773 -10.471094 19.344772
-0.99435699 -10.480863 15.534967
-1.0581273 -11.215315 13.56391
-0.076406732 -0.7398358 2.9011362
-0.96994746 -10.000884 16.505318
-1.0003358 -10.389533 13.895764
-1.224884 -12.815191 14.034169
-0.10915736 -1.1794201 1.2437612
-0.13048668 -1.4177545 1.2303913
-1.2742524 -13.867931 9.2151279
-1.0693555 -11.682723 6.2274957
-0.96466023 -10.559197 4.3722773
-2.4280732 -26.628695 7.9495625
-3.2286828 -35.546085 6.8678899
-0.11560198 -1.2302538 1.1817086
-1.2261817 -13.09396 9.6595421
-1.0969861 -11.736372 7.0123816
-0.97451609 -10.485295 4.9554577
-0.44146028 -4.7589664 1.7525707
-0.081463426 -0.78973109 2.5852456
-1.0388887 -10.446075 19.305269
-1.0829074 -11.064814 13.387385
-0.079122573 -0.74081439 2.9059756
-1.0058945 -10.007817 16.522383
-1.0377932 -10.397971 13.911725
-1.2692754 -12.807463 14.030494
-0.11395601 -1.1861316 1.2507702
-0.13728654 -1.4366636 1.2460835
-1.323447 -13.871724 9.2206116
-1.0010749 -10.55115 4.3704042
-2.5237236 -26.64871 7.9580231
-0.12025806 -1.2335589 1.185034
-1.2710989 -13.081553 9.6536551
-1.1471026 -11.826865 7.0681114
-1.0115465 -10.486346 4.9575558
-0.44992271 -4.6727886 1.7229875
-0.084219605 -0.78944194 2.5852456
-1.075346 -10.442386 19.305269
-1.2190243 -11.96021 17.729563
-1.1160274 -11.006755 13.322146
-0.081708014 -0.74053371 2.9059756
-1.0402824 -9.9990568 16.513849
-1.0725337 -10.379298 13.891773
-1.3146664 -12.809699 14.037844
-0.11951002 -1.1999214 1.2647884
-0.14422001 -1.4555424 1.2617759
-1.3702136 -13.850376 9.2096453
-1.0378993 -10.547592 4.3704042
-0.49147397 -5.0035806 1.5677543
-0.12531401 -1.2405614 1.1916851
-1.3191841 -13.101167 9.6713142
-0.16096762 -1.601658 1.0315461
-1.047693 -10.478236 4.9554577
-0.46810704 -4.6899848 1.7295616
-0.087138563 -0.79062688 2.5900176
-1.1105218 -10.426661 19.283323
-1.2696195 -12.039837 17.85355
-0.084292464 -0.74024397 2.9059756
-1.1068366 -10.357515 13.867834
-1.3600883 -12.811775 14.045195
-0.12223393 -1.1853071 1.2507702
-0.1504921 -1.466646 1.2711912
-1.4198307 -13.857987 9.2178688
-1.0633953 -10.414921 5.566638
-1.074711 -10.543904 4.3704042
-0.51185042 -5.0304694 1.5762146
-0.13003196 -1.24383 1.1950105
-1.3619745 -13.068339 9.6507111
-0.16655748 -1.6010863 1.0315461
-1.0842625 -10.474515 4.9554577
-0.48447531 -4.6883221 1.7295616
-0.089897834 -0.79031789 2.5900176
-1.1450769 -10.406055 19.2526
-1.3082849 -12.00456 17.808088
-0.086729005 -0.73869687 2.9011362
-1.1396776 -10.323637 13.827933
-1.4040622 -12.800209 14.037844
-0.15889803 -1.4970762 1.2962989
-0.50172448 -4.7341418 3.2058339
-1.0992782 -10.40674 5.5643191
-1.1115094 -10.540089 4.3704042
-0.53041136 -5.0381927 1.5790346
-0.13517554 -1.2507926 1.2016616
-0.14530978 -1.3488714 1.0713993
-0.17260636 -1.6047812 1.0340793
-1.1217848 -10.479691 4.9596534
-0.50284481 -4.7053843 1.7361356
-0.092830159 -0.79148179 2.5947895
-1.1738259 -10.335364 19.129705
-1.3498659 -11.997123 17.803955
-0.08930701 -0.73838961 2.9011362
-1.175707 -10.319596 13.827933
-0.16582051 -1.5119889 1.3088527
-0.51915711 -4.7406745 3.2113171
-1.13704 -10.416051 5.5712752
-1.1487967 -10.540753 4.3722773
-0.1403693 -1.2577347 1.2083125
-0.15091142 -1.3563904 1.0772856
-0.18201531 -1.6384444 1.0543448
-1.1588577 -10.480222 4.9617515
-3.3160946 -30.085052 7.3907738
-0.095771722 -0.79263479 2.5995615
-1.2020952 -10.264599 19.006813
-1.3735685 -11.835804 17.572512
-1.2850463 -11.123831 13.483322
-0.091728352 -0.73682606 2.8962967
-1.215589 -10.348349 13.871823
-1.4567834 -12.806309 12.745682
-1.5150799 -13.381058 10.940775
-0.15663348 -1.3857782 0.99895382
-1.1733919 -10.412019 5.5712752
-1.1855838 -10.536678 4.3722773
-0.14604039 -1.2683648 1.218289
-0.15610626 -1.3598709 1.0802288
-0.18773346 -1.6377991 1.0543448
-1.195948 -10.480622 4.9638495
-3.4359243 -30.20369 7.4224262
-0.098906934 -0.79525816 2.6091056
-1.2330407 -10.219918 18.932198
-1.3227311 -11.109729 13.47181
-0.094299801 -0.7365014 2.8962967
-1.2707244 -10.440207 17.273188
-1.2531523 -10.356009 13.887784
-1.500646 -12.794061 12.738672
-1.5631337 -13.387287 10.950191
-0.1614698 -1.3852229 0.99895382
-1.2087066 -10.399058 5.566638
-1.222891 -10.537081 4.3741503
-0.15222752 -1.2826781 1.231591
-0.16132723 -1.3633317 1.083172
-0.19041368 -1.6114478 1.0391457
-1.2330552 -10.480892 4.9659476
-0.10187197 -0.79638863 2.6138773
-1.2704786 -10.229814 18.958532
-1.3552622 -11.054142 13.410411
-0.096870087 -0.73616773 2.8962967
-1.1763268 -9.2992935 19.444988
-1.3113737 -10.469349 17.328644
-1.2952528 -10.399413 13.951624
-1.5851442 -12.799544 14.059896
-1.5478634 -12.809988 12.7597
-0.16630414 -1.3846509 0.99895382
-1.2529008 -10.460752 5.6014199
-1.2596648 -10.532748 4.3741503
-0.56316155 -4.7159238 1.4859724
-0.15851635 -1.2969638 1.2448931
-0.16510697 -1.3547356 1.0772856
-0.19447492 -1.5979356 1.0315461
-1.2701789 -10.481029 4.9680457
-0.10504095 -0.7989881 2.6234214
-1.3116424 -10.268079 19.037537
-1.4348365 -11.326639 16.840979
-1.3926365 -11.039803 13.398897
-0.099439204 -0.73582512 2.8962967
-1.2090611 -9.2972908 19.44949
-1.3323114 -10.400806 13.959604
-1.6280997 -12.780482 14.045195
-1.5925691 -12.804507 12.7597
-1.2523088 -10.111982 8.2981958
-0.17216289 -1.3923616 1.0044367
-1.2904923 -10.465106 5.6060572
-1.2969897 -10.532887 4.3760228
-0.57961977 -4.7139292 1.4859724
-0.16490674 -1.3112208 1.258195
-0.17184727 -1.3701932 1.0890583
-0.19737253 -1.5758603 1.0188802
-1.3073187 -10.481036 4.9701438
-0.59364343 -4.7661805 1.7607882
-0.10682929 -0.79122037 2.5995615
-1.3530886 -10.306181 19.116539
-1.4732747 -11.31319 16.828579
-1.4398217 -11.101625 13.479486
-0.10183412 -0.73422849 2.8914573
-1.2415073 -9.2930136 19.44949
-1.3638892 -10.360243 13.911725
-1.6735822 -12.781443 14.052545
-1.6377079 -12.802406 12.763204
-1.2856311 -10.092104 8.2856417
-0.17807746 -1.400048 1.0099196
-1.342067 -10.579192 5.6686649
-1.3337485 -10.528296 4.3760228
-0.59306061 -4.6880813 1.4789221
-0.17139857 -1.3254489 1.271497
-0.17973167 -1.3936379 1.1067171
-0.20342283 -1.579437 1.0214134
-1.3444738 -10.48091 4.9722419
-0.61147702 -4.7734475 1.7640753
-0.10918019 -0.78788555 2.5900176
-1.3973774 -10.363106 19.230654
-1.5142488 -11.319135 16.845112
-1.4942293 -11.214087 13.621473
-0.10439644 -0.73386854 2.8914573
-0.41278994 -2.9681237 8.2033701
-1.2774884 -9.3145046 19.503504
-1.4145793 -10.462917 14.055365
-1.716832 -12.765444 14.04152
-1.6833163 -12.803684 12.770213
-1.3223673 -10.099133 8.2950573
-0.1824213 -1.3952719 1.0071782
-1.3789872 -10.574443 5.6686649
-1.3704908 -10.523576 4.3760228
-0.60942143 -4.6859827 1.4789221
-0.17799172 -1.3396475 1.2847991
-0.19203044 -1.4490994 1.1479214
-0.20950052 -1.5829909 1.0239466
-1.3828301 -10.489652 4.9785361
-0.63429946 -4.8181024 1.7805104
-2.1200266 -16.125032 4.0133276
-2.202121 -16.772034 0.77604908
-0.11129878 -0.78306621 2.5757015
-1.4302595 -10.334441 19.186764
-1.5394468 -11.253263 13.675198
-0.10677582 -0.73225594 2.8866179
-0.42314813 -2.9666648 8.2033701
-1.4900239 -10.738475 14.430428
-1.3338227 -9.8784981 9.8754587
-1.360206 -10.113744 8.31075
