# .PCD v0.7 - Point Cloud Data file format
VERSION 0.7
FIELDS x y z
SIZE 4 4 4
TYPE F F F
COUNT 1 1 1
WIDTH 1487
HEIGHT 1
VIEWPOINT 0 0 0 1 0 0 0
POINTS 1487
DATA ascii
-0.80721939 1.0168242 3.1181283
-0.96682888 1.2144636 2.9120588
-0.92175728 1.155385 2.2434032
-0.89328933 1.1185129 1.790447
-0.29738581 0.42469507 8.8047142
-0.36759275 0.48498088 5.632525
-1.3375241 1.706133 8.3842039
-0.6977002 0.88387251 3.1164114
-0.8987751 1.1342251 3.0560689
-0.95004362 1.1959614 2.5685117
-0.90584821 1.1387079 2.0015016
-0.87736064 1.1013356 1.6047627
-0.86789757 1.0828516 1.4435203
-0.83740413 1.0436993 1.1613452
-0.82321042 1.0256494 0.94686598
-0.80813217 1.006155 0.76208436
-0.7990256 0.99446911 0.60373497
-0.78458083 0.97614992 0.45805845
-0.77275664 0.96075946 0.32555979
-0.76767457 0.954445 0.2029102
-0.85303235 1.0673623 1.2981011
-0.83220655 1.0405697 1.0537404
-0.81710815 1.0213327 0.85422367
-0.80076337 0.9998405 0.67962664
-0.79458725 0.99178219 0.53144342
-0.78131181 0.97487122 0.39203864
-0.76796269 0.95821893 0.26348662
-0.76547396 0.95478022 0.14304048
-0.032890536 0.083997533 8.8339367
-0.54147327 0.70390713 5.6459961
-0.71784109 0.92440772 5.6503525
-1.2222307 1.5585308 6.378973
-0.80124664 1.0165668 3.1089232
-0.96852386 1.2253472 2.9296153
-0.92121285 1.1630074 2.2516692
-0.89336228 1.1266474 1.7981219
-0.29590154 0.42573056 8.8047142
-0.36621782 0.48668718 5.6374965
-1.3315604 1.7107916 8.3842039
-0.69354635 0.8849442 3.1117187
-0.89481038 1.1373556 3.0560689
-0.94747806 1.2013183 2.5727777
-0.90560293 1.1465925 2.0094817
-0.87771684 1.1097095 1.612113
-0.86633295 1.0886652 1.4470248
-0.83860612 1.0527049 1.1676221
-0.82223117 1.031787 0.94960743
-0.80737686 1.0124332 0.76440316
-0.79844034 1.0008763 0.60560799
-0.78416073 0.9826321 0.45946848
-0.77246344 0.96728945 0.32649243
-0.76744586 0.9610104 0.20335729
-0.85394287 1.0761832 1.304752
-0.8310827 1.0466337 1.0566835
-0.81621927 1.0275543 0.85675687
-0.80009305 1.0061821 0.68172467
-0.79406005 0.9982453 0.5330869
-0.78093058 0.98139602 0.39321095
-0.76769668 0.96476871 0.26417729
-0.76524788 0.96135521 0.14324202
-0.032597128 0.084111832 8.8339367
-0.53901285 0.7057929 5.6459961
-0.71460998 0.92690784 5.6503525
-1.2433743 1.5969458 6.5173602
-0.79648948 1.0178188 3.104321
-0.96867603 1.234373 2.9427824
-0.92236608 1.172852 2.2640681
-0.89338923 1.134796 1.805797
-0.29441366 0.42676088 8.8047142
-0.36451674 0.48796257 5.6374965
-1.3255805 1.7154292 8.3842039
-0.69045311 0.88735974 3.1117187
-0.89083481 1.1404721 3.0560689
-0.94488674 1.2066717 2.5770435
-0.90531361 1.154489 2.0174615
-0.88011903 1.1207657 1.6231384
-0.86694914 1.0972793 1.454034
-0.83734083 1.0586787 1.1707606
-0.82121897 1.03793 0.95234889
-0.8065877 1.0187182 0.76672196
-0.79782003 1.0072913 0.607481
-0.783705 0.98912334 0.46087852
-0.77213418 0.97382909 0.32742503
-0.76718062 0.96758562 0.20380437
-0.85480213 1.0850235 1.311403
-0.82992649 1.0527025 1.0596267
-0.81796616 1.037167 0.8618232
-0.79938823 1.0125309 0.68382275
-0.79349744 1.004717 0.53473043
-0.78051335 0.98793 0.39438328
-0.77046406 0.97521412 0.26555866
-0.76808304 0.97185981 0.14364508
-0.032303326 0.084225103 8.8339367
-0.53701514 0.70828944 5.6509352
-0.71075141 0.92858797 5.6454577
-1.2679158 1.6402515 6.6748357
-0.79173326 1.01905 3.0997183
-0.96877694 1.2434148 2.9559495
-0.92172974 1.1805006 2.2723341
-0.89534396 1.1454839 1.8173094
-0.29308483 0.42802453 8.8097057
-0.36281121 0.489232 5.6374965
-1.3195845 1.7200458 8.3842039
-0.68735141 0.88976443 3.1117187
-0.88684839 1.1435747 3.0560689
-0.94707149 1.2181989 2.5941074
-0.90498024 1.1623976 2.0254416
-0.8803702 1.1291784 1.6304888
-0.8653146 1.1031048 1.4575385
-0.83844793 1.0677178 1.1770375
-0.82275689 1.0473669 0.9578318
-0.80576444 1.0250102 0.76904076
-0.79716474 1.0137143 0.60935402
-0.7861793 0.99939358 0.46369857
-0.77176863 0.98037827 0.32835767
-0.76687878 0.97417074 0.20425145
-0.85561007 1.0938829 1.318054
-0.82873809 1.0587761 1.0625699
-0.81699836 1.0434099 0.8643564
-0.79864872 1.018887 0.68592077
-0.79289925 1.0111967 0.53637397
-0.78005987 0.99447292 0.39555559
-0.7701115 0.981794 0.26624933
-0.76776999 0.9784655 0.1438466
-0.032009128 0.084337346 8.8339367
-0.53453952 0.71015972 5.6509352
-0.70627385 0.92944163 5.6356673
-1.3067089 1.7026951 6.9086628
-0.78697819 1.0202606 3.0951159
-0.96736139 1.2505778 2.9647279
-0.92277527 1.1903833 2.2847328
-0.89526999 1.1536667 1.8249844
-0.29175079 0.42928404 8.8146973
-0.36110124 0.49049544 5.6374965
-1.3135723 1.7246416 8.3842039
-0.68424135 0.89215833 3.1117187
-0.88417906 1.1483884 3.06057
-0.94759375 1.2276913 2.6069052
-0.90460247 1.1703178 2.0334218
-0.88057333 1.1376064 1.6378391
-0.86364996 1.1089324 1.461043
-0.8395021 1.0767775 1.1833144
-0.82166731 1.0535296 0.96057326
-0.80490696 1.0313088 0.77135956
-0.79647422 1.0201448 0.6112271
-0.78563869 1.0059124 0.4651086
-0.77136678 0.98693663 0.32929027
-0.76654029 0.98076546 0.20469853
-0.85407645 1.0998118 1.3213795
-0.8299976 1.0680459 1.0684562
-0.81599689 1.0496589 0.86688954
-0.80066192 1.0288323 0.69011688
-0.79226547 1.0176845 0.53801745
-0.77957022 1.0010246 0.39672789
-0.7697224 0.98838323 0.26694003
-0.76434982 0.98113954 0.1438466
-0.031701572 0.084406897 8.8289366
-0.53205734 0.71202123 5.6509352
-0.701186 0.92946243 5.6209817
-1.3061848 1.7143705 6.937295
-0.78341198 1.0230013 3.0951159
-0.96590739 1.257746 2.973506
-0.9237631 1.2002876 2.2971318
-0.89319354 1.1593239 1.828822
-0.2904115 0.43053946 8.8196888
-0.35938692 0.49175298 5.6374965
-1.3083022 1.7302189 8.3890429
-0.68112296 0.89454138 3.1117187
-0.8801651 1.1514678 3.06057
-0.94964731 1.2392722 2.6239688
-0.90418059 1.1782495 2.0414019
-0.87866277 1.1433614 1.6415143
-0.86413646 1.1175828 1.468052
-0.8381207 1.0827793 1.1864529
-0.82310468 1.0630039 0.96605617
-0.8067286 1.0411155 0.77599716
-0.79574847 1.026583 0.61310011
-0.78506213 1.0124397 0.46651864
-0.77092844 0.99350405 0.3302229
-0.76616508 0.98736954 0.2051456
-0.85479158 1.1087005 1.3280305
-0.82873338 1.0741369 1.0713993
-0.81496179 1.0559136 0.86942273
-0.79984051 1.0352123 0.69221497
-0.791596 1.0241802 0.53966099
-0.78201741 1.0114304 0.39907253
-0.76929659 0.99498171 0.2676307
-0.76397693 0.98775345 0.14404814
-0.031406745 0.084517047 8.8289366
-0.53003132 0.71449822 5.6558743
-0.69610667 0.9294591 5.6062956
-1.3082962 1.7296344 6.9802423
-0.77865398 1.0241745 3.0905132
-0.96586704 1.2668239 2.9866731
-0.92469275 1.2102129 2.3095305
-0.89303583 1.1675266 1.8364969
-0.289067 0.43179077 8.8246813
-0.35735548 0.49257278 5.632525
-1.3022547 1.7347752 8.3890429
-0.67799628 0.89691347 3.1117187
-0.87614036 1.1545331 3.06057
-0.95005274 1.248807 2.6367669
-0.90371418 1.1861924 2.049382
-0.87877887 1.1518122 1.6488646
-0.8624016 1.1234214 1.4715567
-0.83907932 1.0918709 1.1927298
-0.8219375 1.0691856 0.96879768
-0.80579048 1.0474362 0.77831602
-0.79498756 1.0330284 0.61497313
-0.78444946 1.018975 0.46792868
-0.77045363 1.0000805 0.33115551
-0.76879221 0.99792808 0.20603976
-0.85318571 1.1146425 1.331356
-0.82989448 1.0834408 1.0772856
-0.81651461 1.0655955 0.87448907
-0.79898441 1.0415992 0.69431299
-0.79089075 1.0306834 0.54130447
-0.78144175 1.0180097 0.40024486
-0.76883405 1.0015892 0.26832137
-0.76052439 0.99041414 0.14404814
-0.031098858 0.084584415 8.8239374
-0.52753407 0.71634406 5.6558743
-0.69164336 0.93024892 5.5965052
-1.3022506 1.7341906 6.9802423
-0.77507424 1.0268861 3.0905132
-0.96577519 1.2759169 2.9998405
-0.92556447 1.2201595 2.3219295
-0.89283156 1.1757423 1.844172
-0.28755799 0.43279716 8.8246813
-0.35563388 0.49381718 5.632525
-1.2969424 1.7403183 8.3938828
-0.675897 0.90065497 3.1164114
-0.87341475 1.1593233 3.0650711
-0.95040292 1.2583592 2.6495645
-0.90502095 1.1965497 2.061352
-0.87884659 1.1602777 1.656215
-0.86279815 1.1320978 1.4785657
-0.83998454 1.1009823 1.1990067
-0.82327396 1.0786964 0.97428066
-0.8075068 1.0572836 0.78295356
-0.79419124 1.0394809 0.61684614
-0.78671378 1.0293298 0.47074872
-0.77292657 1.0105675 0.33302075
-0.76832956 1.0045612 0.20648684
-0.85380763 1.1235597 1.3380071
-0.82855415 1.0895486 1.0802288
-0.8127901 1.0684391 0.87448907
-0.800843 1.0516033 0.6985091
-0.79014969 1.0371941 0.54294801
-0.78082967 1.0245972 0.40141717
-0.76833475 1.0082055 0.26901206
-0.76009136 0.99703598 0.14424966
-0.030803412 0.084692456 8.8239374
-0.52503031 0.71818107 5.6558743
-0.68536937 0.92856079 5.5720291
-1.3077863 1.7542845 7.0422783
-0.77265644 1.031149 3.0951159
-0.96707022 1.2869391 3.0173967
-0.92468512 1.2278788 2.3301952
-0.89258087 1.1839706 1.8518469
-0.28604552 0.43379828 8.8246813
-0.35390797 0.49505556 5.632525
-1.2923547 1.7468561 8.4035616
-0.67274898 0.90300882 3.1164114
-0.86936271 1.162365 3.0650711
-0.95069802 1.2679292 2.6623623
-0.90445715 1.2045208 2.0693319
-0.87682849 1.166048 1.6598901
-0.86314446 1.1407907 1.4855748
-0.83848631 1.1070105 1.2021452
-0.82202876 1.0848963 0.97702211
-0.80648774 1.0636258 0.78527236
-0.79616106 1.049634 0.62059224
-0.78601557 1.0358912 0.47215876
-0.77236491 1.0171716 0.33395338
-0.76782984 1.0112033 0.20693392
-0.85437763 1.1324946 1.344658
-0.82961655 1.098886 1.0861151
-0.81425142 1.0781499 0.87955546
-0.79990429 1.0580126 0.70060712
-0.78937292 1.0437124 0.54459149
-0.78018099 1.0311928 0.40258947
-0.76779854 1.0148305 0.26970273
-0.75660646 0.99968314 0.14424966
-0.030507591 0.084799461 8.8239374
-0.52252018 0.72000945 5.6558743
-0.6797173 0.92766172 5.5524483
-1.3087579 1.7684381 7.0804543
-0.76905227 1.0338398 3.0951159
-0.96973199 1.2999059 3.0393422
-0.92544812 1.2378608 2.3425941
-0.8922835 1.1922115 1.859522
-0.28452954 0.43479413 8.8246813
-0.35186955 0.49585298 5.6275539
-1.286993 1.7523696 8.4084015
-0.6695928 0.90535164 3.1164114
-0.86659759 1.1671404 3.0695722
-0.95093775 1.2775164 2.6751602
-0.90384859 1.2125025 2.077312
-0.87680882 1.174535 1.6672404
-0.86344057 1.1494998 1.492584
-0.83929545 1.1161526 1.2084221
-0.82075024 1.0911008 0.97976357
-0.80543411 1.0699737 0.78759116
-0.79528093 1.0561101 0.62246525
-0.78816736 1.0462918 0.47497886
-0.77472353 1.0277066 0.33581862
-0.7672931 1.017854 0.207381
-0.85489571 1.1414473 1.3513091
-0.82819974 1.1050097 1.0890583
-0.81306881 1.0844346 0.8820886
-0.79893064 1.0644282 0.7027052
-0.79139549 1.0540138 0.5478785
-0.77949572 1.0377963 0.4037618
-0.76722544 1.021464 0.2703934
-0.75911444 1.0103064 0.14465272
-0.03022364 0.084947318 8.8289366
-0.52000374 0.721829 5.6558743
-1.3105303 1.7838229 7.1234021
-0.76659924 1.0380896 3.0997183
-0.97088963 1.3109818 3.0568984
-0.92447561 1.2456032 2.3508601
-0.89385098 1.2030376 1.8710346
-0.2830101 0.43578467 8.8246813
-0.35013658 0.49707821 5.6275539
-1.2816087 1.7578672 8.4132414
-0.66642851 0.90768343 3.1164114
-0.86251819 1.1701583 3.0695722
-0.95112222 1.2871207 2.687958
-0.90319544 1.2204946 2.0852921
-0.87674046 1.1830361 1.6745907
-0.86581826 1.1610836 1.5030977
-0.8377226 1.1221948 1.2115605
-0.8219403 1.1006598 0.98524648
-0.80434602 1.0763272 0.78990996
-0.79714108 1.066306 0.62621135
-0.78738326 1.0528784 0.4763889
-0.77407473 1.0343375 0.33675122
-0.76373547 1.0205262 0.207381
-0.85536158 1.1504172 1.3579601
-0.82916307 1.1143798 1.0949446
-0.81185234 1.0907243 0.8846218
-0.79792202 1.0708499 0.70480323
-0.79053348 1.0605561 0.54952204
-0.77877396 1.0444075 0.40493411
-0.76661545 1.0281059 0.2710841
-0.75857025 1.0169547 0.14485426
-0.029939028 0.085094228 8.8339367
-0.51748091 0.72363979 5.6558743
-0.48432508 0.67066151 4.0006614
-1.3113316 1.7980354 7.1615777
-0.76412594 1.042335 3.104321
-0.96630746 1.3143629 3.0568984
-0.92346013 1.2533537 2.3591259
-0.89345121 1.2113094 1.8787096
-0.2814872 0.4367699 8.8246813
-0.3480942 0.49786034 5.6225824
-1.2762015 1.7633482 8.4180794
-0.66325599 0.9100042 3.1164114
-0.85842836 1.1731619 3.0695722
-0.95125103 1.2967417 2.7007556
-0.90428132 1.2309254 2.0972621
-0.87662333 1.191551 1.681941
-0.86600351 1.1698315 1.5101067
-0.83843517 1.1313666 1.2178375
-0.8205834 1.1068813 0.987988
-0.80586255 1.0862436 0.79454756
-0.79617691 1.0728048 0.62808436
-0.78656274 1.0594721 0.47779894
-0.77631837 1.0449194 0.33861646
-0.76313835 1.0271833 0.20782807
-0.85577512 1.1594042 1.364611
-0.8276695 1.1205184 1.0978878
-0.81060183 1.0970186 0.887155
-0.79687816 1.0772774 0.70690131
-0.78963554 1.0671049 0.55116552
-0.77801543 1.0510263 0.40610644
-0.76596826 1.0347558 0.27177477
-0.75798893 1.0236113 0.14505579
-0.029653758 0.085240178 8.8389368
-0.51495177 0.72544169 5.6558743
-0.48198107 0.67234802 4.0006614
-1.3111744 1.8110662 7.1949821
-0.76163232 1.0465757 3.1089232
-0.96030182 1.3157933 3.0525093
-0.92406303 1.2633837 2.3715248
-0.89489782 1.2221792 1.890222
-0.27980581 0.43750635 8.8196888
-0.34635422 0.49907237 5.6225824
-1.2700385 1.7677922 8.4180794
-0.66108686 0.91371208 3.1211042
-0.85432798 1.1761513 3.0695722
-0.95285952 1.3084877 2.7178197
-0.90530521 1.2413784 2.1092322
-0.87645751 1.2000793 1.6892914
-0.86613834 1.1785948 1.5171157
-0.83678728 1.1374217 1.2209759
-0.82167149 1.1164745 0.99347091
-0.8046928 1.0926169 0.79686636
-0.79517698 1.0793098 0.62995738
-0.78570563 1.0660728 0.47920895
-0.7784977 1.0555296 0.3404817
-0.76250416 1.0338488 0.20827515
-0.85392958 1.1653962 1.3679365
-0.82853329 1.12992 1.103774
-0.81186676 1.1067934 0.89222133
-0.79848534 1.0873688 0.71109742
-0.78870142 1.0736606 0.55280906
-0.77722019 1.0576525 0.40727875
-0.76528406 1.0414138 0.27246544
-0.76032925 1.0343015 0.14545885
-0.029356031 0.085343167 8.8389368
-0.51241636 0.72723478 5.6558743
-0.4802213 0.67485613 4.0055566
-1.3109418 1.8241172 7.2283859
-0.75911838 1.0508116 3.1135259
-0.95429802 1.3171978 3.0481203
-0.9246071 1.273433 2.3839235
-0.89439505 1.230481 1.897897
-0.27827692 0.43848038 8.8196888
-0.34461004 0.50027829 5.6225824
-1.26386 1.7722148 8.4180794
-0.65990645 0.91881758 3.1304898
-0.84894419 1.1773604 3.0650711
-0.95286965 1.3181468 2.7306173
-0.90626723 1.2518536 2.1212022
-0.87624276 1.208621 1.6966418
-0.8662225 1.1873734 1.5241249
-0.83510739 1.1434791 1.2241144
-0.82023597 1.1227123 0.99621236
-0.80610281 1.1025712 0.80150396
-0.79414135 1.0858209 0.63183039
-0.78481203 1.0726805 0.48061898
-0.78061223 1.0661676 0.34234694
-0.76183259 1.0405222 0.20872223
-0.85424894 1.174409 1.3745875
-0.82934141 1.1393412 1.1096603
-0.81053585 1.1131054 0.89475453
-0.79735833 1.093817 0.7131955
-0.78773111 1.0802226 0.55445254
-0.77638817 1.0642859 0.40845108
-0.76456267 1.0480795 0.27315614
-0.75965929 1.0409849 0.14566039
-0.029057952 0.085445121 8.8389368
-0.5098747 0.72901899 5.6558743
-0.47668827 0.67486465 3.9957659
-1.3097674 1.8359735 7.2570176
-0.75772244 1.0566305 3.122731
-0.94829601 1.3185765 3.0437312
-0.92509216 1.2835015 2.3963223
-0.8957206 1.2413936 1.9094095
-0.27674463 0.43944907 8.8196888
-0.34286162 0.5014782 5.6225824
-1.2576661 1.7766157 8.4180794
-0.65769678 0.92252076 3.1351826
-0.8435623 1.1785463 3.06057
-0.95130336 1.3257028 2.7391491
-0.90540862 1.2599034 2.1291823
-0.87597913 1.2171758 1.7039921
-0.86625588 1.1961668 1.5311339
-0.83567989 1.1526898 1.2303913
-0.82122159 1.1323385 1.0016953
-0.80485106 1.1089636 0.80382276
-0.7930699 1.0923378 0.63370347
-0.7838819 1.0792949 0.48202902
-0.78266191 1.0768331 0.34421217
-0.76112366 1.0472035 0.20916931
-0.85232997 1.1804109 1.377913
-0.8277266 1.1455057 1.1126035
-0.81169611 1.1229154 0.89982086
-0.79619598 1.1002705 0.71529353
-0.78672457 1.0867908 0.55609608
-0.77266836 1.0669895 0.40845108
-0.76380396 1.0547527 0.27384681
-0.75895184 1.0476761 0.14586191
-0.028748009 0.085503943 8.8339367
-0.50732684 0.73079437 5.6558743
-0.47491398 0.67735839 4.0006614
-1.3085262 1.8478439 7.2856498
-0.75629514 1.0624523 3.1319361
-0.94368756 1.3218786 3.0437312
-0.92551827 1.2935889 2.4087212
-0.89511448 1.2497244 1.9170846
-0.27520898 0.44041243 8.8196888
-0.34110907 0.50267196 5.6225824
-1.2507346 1.7799666 8.4132414
-0.65646595 0.9276284 3.1445682
-0.83818257 1.179709 3.0560689
-0.94969606 1.3332641 2.7476809
-0.90625465 1.2704157 2.1411526
-0.87763667 1.2285018 1.7150176
-0.86623824 1.2049747 1.538143
-0.83619827 1.1619184 1.2366682
-0.81970698 1.1385919 1.0044367
-0.80615389 1.1189547 0.80846035
-0.79467303 1.1026214 0.6374495
-0.78572041 1.089807 0.4848491
-0.78177255 1.0835423 0.34514484
-0.76037741 1.0538925 0.20961639
-0.8525545 1.1894485 1.384564
-0.82843471 1.1549569 1.1184899
-0.8102845 1.1292443 0.902354
-0.79764599 1.1104153 0.71948963
-0.78568172 1.0933652 0.55773956
-0.77177626 1.073627 0.40962341
-0.76300794 1.0614336 0.2745375
-0.75820684 1.0543752 0.14606345
-0.02844937 0.085603774 8.8339367
-0.50477278 0.73256081 5.6558743
-0.47254664 0.67901206 4.0006614
-1.3106513 1.8646129 7.3333697
-0.75370914 1.0666815 3.1365385
-0.93768299 1.3232105 3.0393422
-0.92751437 1.3059891 2.4252532
-0.8963182 1.2606784 1.928597
-0.27366999 0.44137037 8.8196888
-0.33935234 0.50385958 5.6225824
-1.2445135 1.7843217 8.4132414
-0.65520751 0.9327386 3.1539536
-0.83405948 1.1826276 3.0560689
-0.94804746 1.3408302 2.7562129
-0.90529698 1.2784898 2.1491325
-0.87726504 1.2370889 1.7223679
-0.86409831 1.2108941 1.5416477
-0.83666223 1.1711646 1.2429451
-0.81815869 1.1448482 1.0071782
-0.80481988 1.125365 0.81077915
-0.7935167 1.109159 0.63932252
-0.78470337 1.096444 0.4862591
-0.78370601 1.0942519 0.34701008
-0.75959367 1.060589 0.21006347
-0.85056192 1.1954595 1.3878895
-0.82908672 1.164427 1.1243762
-0.81133944 1.1390884 0.90742046
-0.79639995 1.1168882 0.72158772
-0.78734475 1.1037899 0.56102657
-0.77084714 1.080271 0.41079572
-0.76217455 1.0681214 0.27522817
-0.75452179 1.0570153 0.14606345
-0.028150382 0.085702553 8.8339367
-0.5026511 0.7349599 5.6608138
-0.47017354 0.68065739 4.0006614
-1.3032805 1.8679522 7.3285975
-0.75222445 1.0725049 3.1457434
-0.93305838 1.3264755 3.0393422
-0.92781389 1.316119 2.4376521
-0.89560825 1.269037 1.936272
-0.27152449 0.44133833 8.7997227
-0.33759147 0.50504106 5.6225824
-1.2375622 1.7876215 8.4084015
-0.65490812 0.93926704 3.1680319
-0.82992625 1.1855319 3.0560689
-0.94485945 1.346266 2.760479
-0.90602666 1.2890379 2.1611025
-0.87684405 1.2456881 1.7297182
-0.86398882 1.2197233 1.5486567
-0.83707184 1.1804281 1.249222
-0.81899601 1.1545182 1.0126611
-0.80345094 1.1317797 0.81309795
-0.7923243 1.115702 0.6411956
-0.78364944 1.1030871 0.48766914
-0.78272784 1.1009846 0.34794268
-0.76165789 1.0713516 0.21095763
-0.85069156 1.2045211 1.3945405
-0.82734996 1.170615 1.1273193
-0.809847 1.1454335 0.90995359
-0.79511833 1.1233659 0.72368574
-0.78621572 1.1103854 0.56267005
-0.76988101 1.0869216 0.41196805
-0.76130372 1.0748165 0.27591884
-0.75371587 1.063719 0.14626497
-0.027851053 0.085800298 8.8339367
-0.50008255 0.73671001 5.6608138
-0.46779475 0.68229443 4.0006614
-1.2950526 1.8700356 7.3190532
-0.74289578 1.067107 3.122731
-0.92842251 1.3297244 3.0393422
-0.92966712 1.3285723 2.4541838
-0.89668989 1.2800313 1.9477845
-0.26953244 0.44154331 8.7847471
-0.33582646 0.50621641 5.6225824
-1.230603 1.7908945 8.4035616
-0.65358925 0.94438553 3.1774173
-0.8257829 1.1884216 3.0560689
-0.9431358 1.3538362 2.7690108
-0.90496957 1.2971354 2.1690826
-0.87637359 1.2542994 1.7370685
-0.86382812 1.2285665 1.5556659
-0.8374269 1.1897087 1.2554989
-0.81736821 1.1607889 1.0154026
-0.80204695 1.1381985 0.81541675
-0.79376698 1.1260393 0.64494163
-0.78255868 1.1097362 0.48907918
-0.78171211 1.1077235 0.34887531
-0.76078486 1.0780727 0.21140471
-0.85076821 1.2135979 1.4011915
-0.82790118 1.1801137 1.1332057
-0.8107962 1.1553106 0.91501999
-0.79641032 1.1335617 0.72788185
-0.78505027 1.1169865 0.56431359
-0.77167344 1.0975549 0.41431266
-0.76039547 1.0815184 0.27660954
-0.75287235 1.0704299 0.14646651
-0.027551385 0.085896999 8.8339367
-0.49794182 0.73909563 5.6657529
-0.46541029 0.68392318 4.0006614
-1.2935899 1.8819259 7.3476853
-0.73805577 1.0680863 3.1181283
-0.9237752 1.3329571 3.0393422
-0.92983949 1.3387432 2.4665825
-0.89587569 1.2884169 1.9554596
-0.26754227 0.44173974 8.7697725
-0.33405742 0.50738561 5.6225824
-1.2236359 1.7941407 8.3987226
-0.65321958 0.95092881 3.1914957
-0.82162952 1.1912968 3.0560689
-0.94285381 1.3635556 2.7818084
-0.90558237 1.3077184 2.1810527
-0.87778568 1.2657086 1.7480941
-0.86361629 1.2374234 1.5626749
-0.83772743 1.1990062 1.2617759
-0.81810212 1.1704895 1.0208856
-0.80060798 1.1446213 0.81773555
-0.79248929 1.1326016 0.6468147
-0.7814309 1.1163911 0.49048921
-0.78065902 1.1144688 0.34980792
-0.75987422 1.0848006 0.21185179
-0.85079181 1.22269 1.4078425
-0.82839626 1.1896306 1.139092
-0.80922246 1.1616709 0.91755313
-0.7950446 1.1400576 0.72997987
-0.78384823 1.1235929 0.56595707
-0.77061927 1.1042279 0.41548499
-0.75944966 1.088227 0.27730021
-0.75199115 1.0771478 0.14666803
-0.02724061 0.08595036 8.8289366
-0.49579054 0.74147534 5.6706924
-0.46302009 0.6855436 4.0006614
-1.2878542 1.8876631 7.3524575
-0.73211324 1.0674336 3.1089232
-0.91911674 1.3361735 3.0393422
-0.92995209 1.3489314 2.4789815
-0.89501393 1.2968124 1.9631346
-0.26377553 0.43895486 8.6948977
-0.33228424 0.50854856 5.6225824
-1.2173657 1.7984011 8.3987226
-0.65281206 0.95748085 3.205574
-0.81746608 1.1941577 3.0560689
-0.94251549 1.3732897 2.7946064
-0.9044255 1.3158381 2.1890328
-0.87720644 1.27435 1.7554444
-0.86335301 1.2462937 1.569684
-0.83797306 1.20832 1.2680528
-0.81877816 1.1802094 1.0263685
-0.80166012 1.1546866 0.82237315
-0.79381984 1.1429764 0.6505608
-0.78026628 1.1230516 0.49189925
-0.78237236 1.1252534 0.35167316
-0.75892568 1.0915352 0.21229887
-0.85288411 1.2348694 1.417819
-0.82883483 1.1991652 1.1449783
-0.81006575 1.1715803 0.92261952
-0.79622632 1.1502894 0.73417598
-0.78529787 1.1340868 0.56924409
-0.77229553 1.1149023 0.41782963
-0.75846624 1.0949422 0.27799088
-0.75391763 1.0879791 0.14707109
-0.02694042 0.086044922 8.8289366
-0.49319932 0.74320149 5.6706924
-0.46062428 0.68715566 4.0006614
-1.2846045 1.8970912 7.3715453
-0.72728354 1.0683677 3.104321
-0.91444701 1.3393738 3.0393422
-0.93159384 1.3614591 2.4955132
-0.89410442 1.3052174 1.9708096
-0.26548326 0.44533455 8.8047142
-0.33050707 0.50970536 5.6225824
-1.2110808 1.8026394 8.3987226
-0.65236688 0.96404177 3.2196524
-0.8132928 1.1970038 3.0560689
-0.94358879 1.3851933 2.8116701
-0.90492105 1.3264549 2.2010028
-0.87657768 1.2830029 1.7627947
-0.86505872 1.2581158 1.5801976
-0.83816385 1.2176502 1.2743297
-0.81702489 1.1865044 1.02911
-0.80013818 1.1611255 0.82469195
-0.79245639 1.1495572 0.65243381
-0.78178793 1.1336665 0.4947193
-0.78122985 1.1320206 0.35260579
-0.75793952 1.0982765 0.21274593
-0.85279053 1.2439983 1.4244701
-0.82693052 1.2053843 1.1479214
-0.80841035 1.1779552 0.92515266
-0.79477626 1.1568025 0.73627406
-0.78400904 1.1407127 0.57088763
-0.77115291 1.1215966 0.41900194
-0.75744516 1.1016637 0.27868158
-0.7529465 1.0947202 0.14727263
-0.026639905 0.086138435 8.8289366
-0.4910292 0.74556756 5.6756315
-0.45765907 0.68791145 3.9957659
-0.7224561 1.0692809 3.0997183
-0.90976614 1.3425577 3.0393422
-0.9315784 1.3716866 2.5079119
-0.89314699 1.3136318 1.9784846
-0.26334125 0.44526353 8.7847471
-0.32872584 0.51085597 5.6225824
-1.2054782 1.8079019 8.4035616
-0.65092176 0.96917838 3.2290378
-0.80910951 1.1998355 3.0560689
-0.94459051 1.3971211 2.8287337
-0.90535337 1.337091 2.2129729
-0.87780154 1.2944725 1.77382
-0.86468208 1.267019 1.5872066
-0.83829969 1.2269963 1.2806066
-0.81759691 1.1962534 1.0345929
-0.80108172 1.1712242 0.82932955
-0.79105669 1.1561426 0.65430683
-0.78053546 1.1403472 0.49612933
-0.78004962 1.1387933 0.35353839
-0.75691545 1.105024 0.21319301
-0.85264361 1.2531415 1.4311211
-0.82726759 1.2149456 1.1538078
-0.80914706 1.1878955 0.93021905
-0.7932902 1.1633195 0.73837209
-0.7853446 1.1512445 0.57417464
-0.77271265 1.1323113 0.42134658
-0.75638634 1.1083914 0.27937225
-0.75193739 1.1014681 0.14747415
-0.026339063 0.086230904 8.8289366
-0.48842368 0.74727702 5.6756315
-0.45525503 0.6895048 3.9957659
-1.327648 1.9904598 7.6960402
-0.7187193 1.0717962 3.0997183
-0.90507424 1.3457251 3.0393422
-0.93150306 1.3819306 2.5203109
-0.89214176 1.3220553 1.9861596
-0.26309589 0.44842356 8.8296728
-0.32694066 0.51200026 5.6225824
-1.1991601 1.8120987 8.4035616
-0.65040565 0.97575265 3.2431161
-0.80612707 1.2044617 3.06057
-0.94406712 1.406907 2.8415318
-0.90572238 1.3477463 2.2249429
-0.87706327 1.3031538 1.7811704
-0.86225408 1.2729825 1.5907112
-0.8383804 1.236358 1.2868835
-0.81811082 1.206021 1.0400758
-0.79947656 1.1776785 0.83164835
-0.78962058 1.162732 0.65617985
-0.77924585 1.1470329 0.49753937
-0.77883148 1.1455716 0.35447103
-0.75585341 1.1117777 0.21364009
-0.8524431 1.2622988 1.437772
-0.82528484 1.2211748 1.1567509
-0.80741 1.194284 0.93275219
-0.79431236 1.1735986 0.74256819
-0.78396863 1.157889 0.57581812
-0.77148122 1.1390262 0.42251888
-0.75528979 1.1151252 0.28006294
-0.75089025 1.108222 0.14767569
-0.026048079 0.086364754 8.8339367
-0.48623484 0.74962938 5.6805706
-0.45284545 0.69108975 3.9957659
-1.3264591 2.0037954 7.7294445
-0.71389133 1.0726721 3.0951159
-0.90037125 1.3488762 3.0393422
-0.9313674 1.3921906 2.5327098
-0.8928721 1.3331511 1.9976722
-0.26080528 0.44809023 8.8047142
-0.32515144 0.51313841 5.6225824
-1.1928273 1.8162735 8.4035616
-0.6498515 0.98233497 3.2571945
-0.80191779 1.2072682 3.06057
-0.94493252 1.4188769 2.8585954
-0.90435612 1.3559133 2.2329228
-0.87627512 1.3118458 1.7885209
-0.863774 1.2848636 1.6012248
-0.83840597 1.2457353 1.2931604
-0.8185665 1.2158066 1.0455588
-0.80031115 1.1878096 0.83628595
-0.78814816 1.1693256 0.65805292
-0.78060079 1.1577008 0.50035942
-0.77757555 1.1523553 0.35540363
-0.75753903 1.1226656 0.21453427
-0.85218918 1.2714701 1.4444231
-0.82552004 1.2307619 1.1626372
-0.80803984 1.2042545 0.93781859
-0.79274154 1.1801317 0.74466628
-0.78255576 1.164538 0.57746166
-0.77292395 1.1497799 0.42486352
-0.75691819 1.1259744 0.28144431
-0.74980521 1.114982 0.14787722
-0.025746452 0.086455151 8.8339367
-0.48361516 0.75132209 5.6805706
-0.45043033 0.69266623 3.9957659
-0.71014273 1.0751574 3.0951159
-0.89565724 1.352011 3.0393422
-0.93272781 1.4048109 2.5492415
-0.89176154 1.3415984 2.0053473
-0.26067823 0.45150083 8.8546305
-0.32335827 0.51427031 5.6225824
-1.1871665 1.8214793 8.4084015
-0.65778172 1.0019094 3.3135076
-0.79769874 1.2100601 3.06057
-0.9457258 1.4308699 2.875659
-0.90460694 1.3666 2.2448931
-0.87543678 1.3205479 1.7958713
-0.86324221 1.2938042 1.6082339
-0.8362143 1.251891 1.2962989
-0.81896371 1.22561 1.0510417
-0.80108482 1.1979607 0.84092361
-0.78921688 1.1797761 0.66179895
-0.77922285 1.1644053 0.50176948
-0.77628171 1.159144 0.35633627
-0.75638664 1.1294409 0.21498135
-0.85188133 1.2806547 1.451074
-0.82569832 1.2403655 1.1685236
-0.80622065 1.2106558 0.94035172
-0.79113483 1.1866679 0.7467643
-0.78110617 1.1711912 0.5791052
-0.77160335 1.1565143 0.42603585
-0.7557314 1.1327291 0.28213498
-0.74590862 1.1175926 0.14787722
-0.025444509 0.086544491 8.8339367
-0.48098961 0.75300568 5.6805706
-0.44800973 0.69423431 3.9957659
-1.3841727 2.1230478 8.1493788
-0.70638537 1.0776298 3.0951159
-0.89093244 1.3551291 3.0393422
-0.93246311 1.4151075 2.5616403
-0.89060283 1.3500543 2.0130222
-0.25838566 0.45115405 8.8296728
-0.32156116 0.51539588 5.6225824
-1.180801 1.8256121 8.4084015
-0.65710604 1.0085372 3.3275859
-0.79466164 1.2146591 3.0650711
-0.94644678 1.4428856 2.8927228
-0.90479428 1.3773049 2.2568631
-0.87641168 1.3320924 1.8068967
-0.86265838 1.3027564 1.615243
-0.83614051 1.2612909 1.3025758
-0.81930244 1.235431 1.0565246
-0.80179727 1.2081317 0.84556121
-0.78765786 1.186386 0.66367197
-0.77780741 1.1711142 0.50317949
-0.77494997 1.1659378 0.35726887
-0.75795275 1.1403692 0.21587551
-0.85151988 1.2898525 1.457725
-0.82581955 1.2499851 1.1744099
-0.80674332 1.2206554 0.94541812
-0.7919963 1.1969924 0.75096041
-0.77961946 1.1778485 0.58074868
-0.77024513 1.1632534 0.42720816
-0.75724077 1.1436181 0.28351635
-0.74476182 1.1243546 0.14807875
-0.02515199 0.086675316 8.8389368
-0.47877398 0.75533646 5.6855102
-0.44558364 0.69579393 3.9957659
-1.386483 2.1429062 8.2066431
-0.70261943 1.080089 3.0951159
-0.88619667 1.3582307 3.0393422
-0.93367791 1.4277747 2.5781722
-0.88939595 1.3585182 2.0206971
-0.31976014 0.5165152 5.6225824
-1.1744213 1.8297228 8.4084015
-0.6601395 1.0209694 3.3604355
-0.7904169 1.2174256 3.0650711
-0.94709522 1.4549236 2.9097865
-0.90491766 1.3880275 2.2688332
-0.87546319 1.3408209 1.814247
-0.86202276 1.3117207 1.6222522
-0.83601111 1.2707053 1.3088527
-0.81728363 1.2417761 1.0592661
-0.80244839 1.2183222 0.85019881
-0.78606254 1.1929994 0.66554505
-0.77635473 1.1778275 0.5045895
-0.77358019 1.1727363 0.3582015
-0.75670958 1.1471651 0.21632259
-0.85110444 1.2990634 1.4643761
-0.82588369 1.2596208 1.1802962
-0.80484176 1.2270688 0.94795126
-0.7903043 1.2035433 0.75305843
-0.77809596 1.1845095 0.58239222
-0.77151859 1.1740592 0.42955279
-0.75868326 1.1545314 0.28489769
-0.74357688 1.1311221 0.14828028
-0.024849284 0.086762585 8.8389368
-0.47613442 0.75700307 5.6855102
-0.44315216 0.69734508 3.9957659
-1.3789945 2.147733 8.2066431
-0.69884497 1.0825349 3.0951159
-0.88145018 1.3613158 3.0393422
-0.93481559 1.4404674 2.5947039
-0.8898868 1.3696779 2.0322096
-0.3179552 0.51762819 5.6225824
-1.1680272 1.8338112 8.4084015
-1.2025893 1.8744307 6.1103964
-0.78616244 1.2201772 3.0650711
-0.94767118 1.4669838 2.9268503
-0.9049772 1.3987679 2.2808034
-0.87630779 1.3524042 1.8252726
-0.86133486 1.320696 1.6292613
-0.83369839 1.276875 1.3119911
-0.81751716 1.2516232 1.064749
-0.80061442 1.2248238 0.8525176
-0.78696758 1.2034961 0.66929108
-0.77486455 1.1845447 0.50599957
-0.76948184 1.1754293 0.3582015
-0.75542819 1.1539661 0.21676967
-0.85063511 1.3082873 1.471027
-0.82589048 1.2692719 1.1861825
-0.80525684 1.2370964 0.95301759
-0.79105407 1.2138996 0.75725454
-0.77911401 1.19513 0.58567923
-0.77007079 1.1808165 0.4307251
-0.7600587 1.1654686 0.28627905
-0.74508357 1.1420794 0.14868335
-0.024555711 0.086891398 8.8439369
-0.47348914 0.7586605 5.6855102
-0.44071531 0.69888771 3.9957659
-1.3746972 2.1575692 8.2257299
-0.69506192 1.0849677 3.0951159
-0.87798744 1.3663994 3.0437312
-0.93587595 1.4531853 2.6112356
-0.8903107 1.3808577 2.0437222
-0.3161464 0.51873493 5.6225824
-1.1622903 1.8389397 8.4132414
-1.1904788 1.8698826 6.0822396
-0.7807259 1.2210797 3.06057
-0.94817436 1.4790655 2.9439139
-0.90497267 1.4095253 2.2927732
-0.87524867 1.361158 1.8326229
-0.86253232 1.3326764 1.6397748
-0.83346903 1.2863106 1.3182681
-0.81541759 1.2579781 1.0674905
-0.80115539 1.2350438 0.85715514
-0.78528535 1.2101247 0.6711641
-0.77333701 1.1912658 0.50740957
-0.76805031 1.1822275 0.35913411
-0.75682157 1.1649481 0.21766382
-0.85011172 1.3175234 1.4776781
-0.82584006 1.2789385 1.1920689
-0.80561161 1.247142 0.95808399
-0.78927648 1.2204646 0.75935262
-0.77750242 1.2018071 0.58732271
-0.76858509 1.1875778 0.43189743
-0.75867635 1.172272 0.28696972
-0.74380761 1.148867 0.14888488
-0.024252255 0.08697658 8.8439369
-0.47083801 0.76030862 5.6855102
-0.43827301 0.70042187 3.9957659
-1.3639669 2.1573079 8.2066431
-0.69231838 1.0890362 3.0997183
-0.87321258 1.3694557 3.0437312
-0.93534362 1.4635569 2.6236346
-0.8906672 1.3920568 2.0552347
-0.31405827 0.51937896 5.6176105
-1.1558641 1.8429856 8.4132414
-1.1857876 1.8769448 6.0916252
-0.7764588 1.2237976 3.06057
-0.9486047 1.4911684 2.9609778
-0.90490413 1.4202999 2.3047435
-0.8759625 1.3727787 1.8436482
-0.8617295 1.3416805 1.6467839
-0.83318406 1.2957599 1.3245449
-0.8155455 1.2678502 1.0729734
-0.80163491 1.2452824 0.86179274
-0.78607637 1.2206539 0.67491019
-0.77436984 1.2020235 0.51022971
-0.76658052 1.1890298 0.36006674
-0.75544888 1.1717683 0.21811089
-0.84953398 1.3267716 1.484329
-0.82573205 1.28862 1.1979553
-0.805906 1.2572048 0.96315032
-0.78991389 1.2308514 0.76354873
-0.77840489 1.2124614 0.59060973
-0.76968825 1.1984332 0.43424204
-0.75993186 1.1832466 0.28835109
-0.74519366 1.1598628 0.14928794
-0.023948504 0.087060705 8.8439369
-0.46858779 0.76260972 5.6904492
-0.4363623 0.70281267 4.0006614
-1.351669 2.1544688 8.1780109
-0.68851274 1.0914462 3.0997183
-0.86842692 1.3724954 3.0437312
-0.93625712 1.476319 2.6401665
-0.89095634 1.4032754 2.0667472
-0.31224337 0.52047211 5.6176105
-1.1500877 1.8480762 8.4180794
-1.1847277 1.8898456 6.119782
-0.77218223 1.2265005 3.06057
-0.94757003 1.501087 2.9737756
-0.90477115 1.4310908 2.3167133
-0.87660593 1.3844209 1.8546739
-0.86279088 1.3537025 1.6572976
-0.83284318 1.305223 1.3308219
-0.8156144 1.2777386 1.0784563
-0.79966784 1.2518061 0.86411154
-0.78680331 1.2312031 0.67865622
-0.77275312 1.208761 0.51163971
-0.76242536 1.1916984 0.36006674
-0.75403786 1.1785932 0.21855797
-0.84890217 1.3360319 1.49098
-0.8233977 1.2949054 1.2008984
-0.80613989 1.2672849 0.96821666
-0.78805047 1.2374295 0.76564676
-0.77924222 1.2231363 0.59389675
-0.76811248 1.2052115 0.43541437
-0.75845832 1.1900681 0.28904179
-0.74651212 1.1708821 0.149691
-0.023644457 0.087143771 8.8439369
-0.46592286 0.7642408 5.6904492
-0.43390638 0.70433152 4.0006614
-1.340196 2.1528375 8.154151
-0.6846987 1.0938429 3.0997183
-0.86363077 1.3755186 3.0437312
-0.9355942 1.4867233 2.6525652
-0.89117801 1.4145128 2.0782597
-0.31042469 0.52155888 5.6176105
-1.1436298 1.8520794 8.4180794
-1.1817694 1.8998309 6.1385531
-0.76674294 1.2273421 3.0560689
-0.94786191 1.5132265 2.9908392
-0.90457404 1.4418982 2.3286836
-0.87717861 1.3960842 1.8656992
-0.86377877 1.3657483 1.6678112
-0.83244634 1.3146993 1.3370987
-0.81562424 1.2876427 1.0839393
-0.80003667 1.2620728 0.86874914
-0.78498352 1.2378571 0.6805293
-0.77366841 1.2195525 0.51445979
-0.76352656 1.2026467 0.36193198
-0.75525743 1.1896266 0.21945213
-0.848216 1.345304 1.497631
-0.82318634 1.3046086 1.2067847
-0.80401242 1.2737366 0.97074991
-0.78857529 1.2478461 0.76984292
-0.77749127 1.2298405 0.59554029
-0.76649892 1.2119935 0.43658668
-0.75694644 1.1968937 0.28973246
-0.7450915 1.1777027 0.14989254
-0.023331285 0.087183051 8.8389368
-0.46606585 0.77051729 5.7250242
-0.43144515 0.70584184 4.0006614
-1.3287513 2.1511524 8.130291
-0.68087631 1.0962262 3.0997183
-0.85882401 1.3785248 3.0437312
-0.93337959 1.4947541 2.6608312
-0.89133197 1.4257685 2.0897722
-0.24769631 0.45809492 8.8446474
-0.30860224 0.52263927 5.6176105
-1.1371579 1.8560601 8.4180794
-1.1724117 1.8995389 6.1244745
-0.76245409 1.230011 3.0560689
-0.94532716 1.5209562 2.9993713
-0.90590459 1.4552796 2.3446436
-0.87588704 1.4048915 1.8730495
-0.86279738 1.3747965 1.6748203
-0.83406419 1.3274846 1.3465142
-0.81557465 1.2975622 1.0894222
-0.79798496 1.2686075 0.87106794
-0.78312683 1.2445135 0.68240231
-0.77196223 1.2263055 0.5158698
-0.76194227 1.2094609 0.36286458
-0.75375473 1.1964692 0.21989921
-0.84747535 1.3545873 1.504282
-0.82291728 1.3143259 1.212671
-0.80413771 1.2838421 0.97581625
-0.78903687 1.2582814 0.77403903
-0.77821225 1.2405473 0.5988273
-0.76743084 1.2228959 0.43893132
-0.75802839 1.2079177 0.29111382
-0.74628854 1.1887587 0.1502956
-0.023026817 0.087263964 8.8389368
-0.46257415 0.77080667 5.7151456
-0.42897865 0.70734364 4.0006614
-1.3165547 2.1481409 8.1016588
-0.67704558 1.0985962 3.0997183
-0.85400683 1.3815142 3.0437312
-0.93260229 1.5051793 2.6732299
-0.89141822 1.4370427 2.1012847
-0.24636762 0.45946613 8.8546305
-0.30677599 0.52371329 5.6176105
-1.1306721 1.8600184 8.4180794
-1.1711808 1.91245 6.1526313
-0.75815588 1.2326651 3.0560689
-0.94411898 1.5309063 3.0121689
-0.90556937 1.4661241 2.3566139
-0.87632805 1.4165897 1.8840752
-0.86364847 1.3868818 1.685334
-0.83354354 1.3369939 1.3527911
-0.81546587 1.3074973 1.0949051
-0.79824269 1.278901 0.87570554
-0.78368843 1.2551042 0.68614835
-0.77275956 1.2371298 0.51868987
-0.76031965 1.2162786 0.36379722
-0.75221342 1.2033157 0.22034629
-0.84864938 1.3670542 1.5142586
-0.82259023 1.3240572 1.2185574
-0.8042022 1.2939639 0.98088264
-0.78703743 1.2648815 0.77613705
-0.77637255 1.2472653 0.60047078
-0.76572675 1.2296934 0.44010365
-0.75642496 1.2147601 0.29180449
-0.74477601 1.1955971 0.15049712
-0.022713525 0.087301023 8.8339367
-0.68871117 1.157046 8.5601578
-0.42598224 0.70796412 3.9957659
-1.3051709 2.1463466 8.0777988
-0.67320669 1.1009529 3.0997183
-0.84917915 1.3844869 3.0437312
-0.93028998 1.5132202 2.6814959
-0.89143646 1.4483346 2.1127973
-0.24422213 0.45930272 8.8346643
-0.30494601 0.52478099 5.6176105
-1.1241724 1.8639537 8.4180794
-1.186002 1.9519224 6.2652574
-0.75384843 1.235304 3.0560689
-0.94013059 1.5364174 3.0164349
-0.90674382 1.479553 2.3725739
-0.87669802 1.4283081 1.8951007
-0.86442554 1.3989897 1.6958475
-0.83296674 1.3465158 1.3590679
-0.81309718 1.3138914 1.0976466
-0.79843831 1.2892119 0.88034314
-0.78174412 1.2617731 0.68802142
-0.77096367 1.2438971 0.52009988
-0.75865871 1.2230996 0.36472982
-0.75063342 1.2101661 0.22079337
-0.84778851 1.3763665 1.5209095
-0.82220542 1.3338022 1.2244437
-0.80420578 1.3041017 0.98594898
-0.78738582 1.2753447 0.78033316
-0.77449548 1.2539854 0.60211432
-0.76398456 1.2364938 0.44127598
-0.75738591 1.2258188 0.29318586
-0.74322474 1.2024392 0.15069866
-0.022400256 0.08733695 8.8289366
-0.68308842 1.1567664 8.5404015
-0.42350838 0.70944673 3.9957659
-1.2930447 2.1432204 8.0491676
-0.66935951 1.1032962 3.0997183
-0.84558624 1.3894886 3.0481203
-0.92939806 1.5236657 2.6938949
-0.88971633 1.4569085 2.1204722
-0.30311233 0.52584219 5.6176105
-1.1170141 1.866788 8.4132414
-1.2032343 1.9959551 6.3919625
-0.74953187 1.2379279 3.0560689
-0.93476176 1.5396897 3.0164349
-0.90783548 1.493008 2.3885341
-0.87699682 1.4400462 1.906126
-0.86512858 1.4111198 1.7063613
-0.83233351 1.3560497 1.3653449
-0.81288171 1.3238484 1.1031295
-0.79857165 1.2995394 0.88498074
-0.7797628 1.2684436 0.68989444
-0.77164268 1.2547531 0.52291995
-0.75695932 1.2299238 0.36566246
-0.74901479 1.21702 0.22124045
-0.84881991 1.3888751 1.5308859
-0.82176238 1.3435606 1.23033
-0.80414844 1.3142552 0.99101532
-0.78767067 1.2858257 0.78452927
-0.77258086 1.2607075 0.6037578
-0.76474452 1.2474409 0.44362062
-0.75827873 1.2368988 0.2945672
-0.74163473 1.209285 0.15090019
-0.022095257 0.087414615 8.8289366
-0.67512029 1.1524386 8.4910088
-0.42102936 0.71092075 3.9957659
-1.2817225 2.1413164 8.0253067
-0.66449684 1.1039521 3.0951159
-0.84073091 1.3924317 3.0481203
-0.92698765 1.5317155 2.7021606
-0.88960797 1.4682295 2.1319847
-0.30127496 0.52689707 5.6176105
-1.1104909 1.8706757 8.4132414
-1.1980311 2.0031049 6.4013476
-0.74632692 1.2424028 3.06057
-0.92938149 1.5429432 3.0164349
-0.90728766 1.5039082 2.4005039
-0.87722427 1.4518038 1.9171517
-0.86390418 1.4202249 1.7133703
-0.83164394 1.3655957 1.3716217
-0.81260651 1.3338197 1.1086124
-0.79633653 1.3061013 0.88729954
-0.78015816 1.2790734 0.69364047
-0.76975667 1.261534 0.52433002
-0.75522161 1.236751 0.36659506
-0.74735743 1.2238774 0.22168753
-0.84783834 1.3982152 1.537537
-0.82126123 1.3533319 1.2362163
-0.80402994 1.3244241 0.99608171
-0.78553468 1.2924458 0.78662729
-0.77308196 1.2714665 0.60704482
-0.76291144 1.2542555 0.44479293
-0.75652999 1.243769 0.2952579
-0.74000603 1.2161344 0.15110172
-0.021781895 0.087448329 8.8239374
-0.66953242 1.1521007 8.4712515
-0.41854525 0.71238607 3.9957659
-1.2696676 2.1380765 7.996675
-0.65963775 1.1045874 3.0905132
-0.83586526 1.395358 3.0481203
-0.92453229 1.5397673 2.7104266
-0.88943136 1.4795673 2.1434972
-0.29943392 0.52794552 5.6176105
-1.1039543 1.8745408 8.4132414
-1.1910317 2.0072746 6.4013476
-0.74198562 1.2450004 3.06057
-0.92265213 1.5439391 3.0121689
-0.9082222 1.5174081 2.4164641
-0.87738013 1.4635801 1.928177
-0.86446929 1.4323919 1.7238841
-0.83089769 1.3751533 1.3778987
-0.81227171 1.3438053 1.1140954
-0.79635805 1.3164537 0.89193714
-0.77808893 1.285755 0.69551355
-0.77031702 1.2724205 0.52715003
-0.75344533 1.2435811 0.36752769
-0.7456612 1.2307379 0.22213461
-0.84872669 1.4107646 1.5475135
-0.82278669 1.3665789 1.2450458
-0.80385005 1.3346082 1.001148
-0.78570557 1.302953 0.7908234
-0.77107817 1.2782007 0.60868835
-0.76355135 1.265234 0.44713756
-0.75730109 1.2548819 0.29663923
-0.7409206 1.2272639 0.15150478
-0.021476511 0.087523833 8.8239374
-0.66550672 1.1544307 8.4712515
-0.41605601 0.71384275 3.9957659
-1.2584085 2.1360648 7.9728155
-0.65577799 1.1068832 3.0905132
-0.83098948 1.3982673 3.0481203
-0.92203188 1.5478203 2.7186925
-0.88918638 1.4909216 2.1550097
-0.29732814 0.52852273 5.612639
-1.0980381 1.879468 8.4180794
-1.1875191 2.0173686 6.4201188
-0.73874313 1.2494569 3.0650711
-0.91725725 1.5471504 3.0121689
-0.90907347 1.530933 2.4324241
-0.87746453 1.4753754 1.9392027
-0.86312789 1.4415203 1.7308931
-0.83209604 1.3880607 1.3873141
-0.81187689 1.3538046 1.1195784
-0.7940374 1.3230238 0.89425594
-0.77836859 1.2964126 0.69925964
-0.77081054 1.2833263 0.52997011
-0.75163054 1.2504137 0.3684603
-0.74649179 1.2418698 0.22302876
-0.84762406 1.4201308 1.5541645
-0.82215685 1.3763831 1.250932
-0.80360883 1.3448069 1.0062144
-0.78581274 1.3134773 0.79501951
-0.77146178 1.2889884 0.61197537
-0.76162702 1.2720619 0.44830987
-0.75800377 1.2660153 0.29802063
-0.73919916 1.2341287 0.15170631
-0.021178659 0.087641194 8.8289366
-0.66108739 1.1560721 8.4663115
-0.4135617 0.71529067 3.9957659
-1.247179 2.1340003 7.9489551
-0.65092045 1.1074812 3.0859108
-0.82610357 1.4011594 3.0481203
-0.92091823 1.5582972 2.7310913
-0.89050502 1.5050508 2.1703598
-0.29548144 0.52955735 5.612639
-1.0914708 1.8832895 8.4180794
-1.1787297 2.0185213 6.4107337
-0.73657966 1.2557837 3.0740736
-0.91185105 1.5503428 3.0121689
-0.90984148 1.5444825 2.4483843
-0.87747711 1.4871888 1.950228
-0.8635546 1.4537226 1.7414067
-0.8312248 1.3976476 1.393591
-0.81142223 1.3638175 1.1250613
-0.79394698 1.3333999 0.89889359
-0.77858329 1.3070874 0.70300567
-0.77123749 1.294251 0.53279018
-0.75229329 1.2614678 0.37032557
-0.74470305 1.2487451 0.22347584
-0.84646636 1.4295065 1.5608156
-0.82352906 1.3896765 1.2597615
-0.80330622 1.3550203 1.0112808
-0.78353947 1.3201151 0.79711759
-0.77177936 1.2997941 0.61526239
-0.76214671 1.2830707 0.45065451
-0.756109 1.2729111 0.2987113
-0.73999107 1.2452914 0.15210937
-0.020864962 0.08767163 8.8239374
-0.65704793 1.1583728 8.4663115
-0.41106233 0.71672994 3.9957659
-1.2359793 2.1318836 7.9250956
-0.64705074 1.1097466 3.0859108
-0.82120752 1.4040345 3.0481203
-0.91974252 1.5687852 2.7434902
-0.89011341 1.5164429 2.1818724
-0.29363117 0.53058559 5.612639
-1.0848902 1.8870879 8.4180794
-1.1682168 2.0166504 6.3919625
-0.73328644 1.2602288 3.0785747
-0.90643388 1.5535163 3.0121689
-0.91052574 1.5580555 2.4643445
-0.87741804 1.4990203 1.9612535
-0.86390656 1.4659456 1.7519203
-0.83227462 1.4105978 1.4030064
-0.81090736 1.3738434 1.1305442
-0.79379368 1.3437914 0.90353119
-0.77873296 1.3177794 0.70675176
-0.76915616 1.3010646 0.53420019
-0.7503866 1.2683138 0.3712582
-0.74541104 1.259909 0.22437
-0.84714472 1.442111 1.5707921
-0.82277012 1.3995116 1.2656479
-0.80294204 1.3652477 1.0163471
-0.7835322 1.3306639 0.80131364
-0.77203089 1.3106177 0.61854941
-0.760131 1.2899109 0.45182684
-0.75668931 1.2840755 0.30009267
-0.73817688 1.2521706 0.15231091
-0.020558802 0.087743931 8.8239374
-0.6526196 1.1599821 8.4613733
-0.40855798 0.71816045 3.9957659
-1.2240657 2.1284211 7.8964639
-0.64317304 1.1119986 3.0859108
-0.81630152 1.4068925 3.0481203
-0.91991955 1.5817165 2.7600219
-0.89126569 1.5306205 2.1972225
-0.29177728 0.53160727 5.612639
-1.0782965 1.8908633 8.4180794
-1.1577315 2.0147309 6.3731914
-0.72997111 1.2646662 3.083076
-0.90231186 1.5589281 3.0164349
-0.91112626 1.5716519 2.4803045
-0.87728685 1.5108694 1.972279
-0.86238378 1.4751098 1.7589295
-0.83127785 1.4202129 1.4092834
-0.81033242 1.3838825 1.1360271
-0.79357731 1.3541979 0.90816879
-0.7788173 1.3284885 0.7104978
-0.7694633 1.3120174 0.53702027
-0.75092787 1.2793982 0.37312344
-0.74605024 1.271093 0.22526415
-0.84586537 1.4515113 1.5774431
-0.82398862 1.4128499 1.2744772
-0.80251622 1.375489 1.0214134
-0.7834608 1.3412287 0.80550975
-0.76983368 1.3173816 0.62019289
-0.76052976 1.3009487 0.45417145
-0.7597 1.2995344 0.3021647
-0.73884553 1.2633647 0.15271397
-0.020259738 0.08785817 8.8289366
-0.64818811 1.1615745 8.4564342
-0.40604866 0.7195822 3.9957659
-1.2151494 2.1300876 7.8869195
-0.63928747 1.1142368 3.0859108
-0.81138557 1.4097333 3.0481203
-0.9200173 1.594668 2.7765536
-0.89232981 1.5448244 2.2125723
-0.28991982 0.53262252 5.612639
-1.0716896 1.8946157 8.4180794
-1.1472739 2.0127625 6.3544202
-0.72663367 1.2690958 3.0875771
-0.89686471 1.5620682 3.0164349
-0.91164291 1.5852715 2.4962647
-0.8770836 1.5227357 1.9833045
-0.86259663 1.4873662 1.769443
-0.83217847 1.4332041 1.4186987
-0.80969727 1.3939341 1.14151
-0.79329801 1.3646193 0.91280639
-0.77883649 1.339214 0.71424389
-0.76729119 1.3188418 0.53843033
-0.74892896 1.2862568 0.37405604
-0.74411446 1.2779931 0.22571123
-0.84639913 1.4641526 1.5874195
-0.82309997 1.4227151 1.2803636
-0.8020286 1.3857441 1.0264798
-0.7856006 1.3557361 0.81180394
-0.76996696 1.3282317 0.62347996
-0.75842243 1.3078004 0.45534378
-0.75764352 1.3064623 0.30285537
-0.73693806 1.2702575 0.15291549
-0.019952932 0.087928347 8.8289366
-0.64375341 1.1631501 8.4514952
-0.40353435 0.72099519 3.9957659
-1.2069716 2.1330171 7.8821478
-0.63539422 1.1164616 3.0859108
-0.80645978 1.412557 3.0481203
-0.9200359 1.6076393 2.7930856
-0.89330548 1.5590541 2.2279224
-0.28831178 0.53410059 5.6176105
-1.0650697 1.8983451 8.4180794
-1.1359948 2.009244 6.3309565
-0.72219926 1.2716246 3.0875771
-0.89269716 1.5674556 3.0207007
-0.91356844 1.6015311 2.5162146
-0.87680817 1.534619 1.9943302
-0.86273426 1.4996419 1.7799567
-0.83299845 1.4462188 1.4281141
-0.80900168 1.4039981 1.146993
-0.79516846 1.3788925 0.91976279
-0.77879012 1.3499558 0.71798992
-0.76747847 1.3298217 0.54125035
-0.74934828 1.2973707 0.37592128
-0.74463046 1.2892076 0.2266054
-0.84685498 1.4768155 1.5973961
-0.82215238 1.432591 1.2862499
-0.80147904 1.3960122 1.0315461
-0.7853868 1.3663397 0.81600004
-0.77003384 1.3390986 0.62676698
-0.75870007 1.3188663 0.45768842
-0.75801694 1.3176838 0.30423674
-0.73748344 1.2814822 0.15331855
-0.019645885 0.087997466 8.8289366
-0.63931561 1.1647089 8.4465551
-0.40101513 0.72239941 3.9957659
-1.2141287 2.1632521 7.9775877
-0.63149315 1.1186727 3.0859108
-0.80152416 1.4153634 3.0481203
-0.91997498 1.6206301 2.8096173
-0.89577633 1.5760962 2.2471099
-0.28644565 0.53510374 5.6176105
-1.0584366 1.9020513 8.4180794
-1.1272863 2.0101867 6.3215709
-0.71668774 1.272241 3.083076
-0.88722026 1.5705622 3.0207007
-0.91390771 1.6152008 2.5321748
-0.87646031 1.5465187 2.0053556
-0.86279666 1.5119367 1.7904702
-0.83373761 1.4592565 1.4375293
-0.80824566 1.4140741 1.152476
-0.79474932 1.3893501 0.92440039
-0.77867812 1.3607134 0.72173601
-0.76521522 1.3366557 0.54266042
-0.74725705 1.3042407 0.37685391
-0.74260139 1.2961199 0.22705248
-0.84538674 1.4862536 1.6040471
-0.82114589 1.4424777 1.2921362
-0.80086768 1.4062934 1.0366125
-0.78510857 1.3769584 0.82019615
-0.77003407 1.3499821 0.630054
-0.75650078 1.3257283 0.45886073
-0.75586706 1.324623 0.30492741
-0.73548257 1.2883875 0.15352009
-0.019338597 0.088065505 8.8289366
-0.63487476 1.1662509 8.4416161
-0.39849105 0.72379476 3.9957659
-1.2102 2.1739986 8.0014477
-0.629493 1.1242797 3.0951159
-0.79657871 1.4181527 3.0481203
-0.91845405 1.631188 2.8220162
-0.89656514 1.5903822 2.26246
-0.28457606 0.53610039 5.6176105
-1.0517907 1.9057344 8.4180794
-1.1194237 2.0126011 6.3168778
-0.71118069 1.2728344 3.0785747
-0.88173258 1.5736495 3.0207007
-0.91416258 1.6288922 2.548135
-0.8760401 1.5584345 2.016381
-0.86278373 1.52425 1.800984
-0.83247679 1.4689306 1.4438063
-0.80742908 1.4241619 1.1579589
-0.79426688 1.3998215 0.92903793
-0.77850056 1.3714865 0.72548205
-0.76528215 1.3476616 0.54548049
-0.74755412 1.3153827 0.37871915
-0.74053317 1.3030338 0.22749956
-0.8456974 1.4989513 1.6140234
-0.82008028 1.4523747 1.2980225
-0.80019414 1.4165872 1.0416789
-0.78476566 1.3875916 0.82439226
-0.76764238 1.3567717 0.63169748
-0.75665689 1.336821 0.46120536
-0.7536779 1.331563 0.30561811
-0.73344249 1.2952945 0.15372162
-0.019037815 0.088175587 8.8339367
-0.63079989 1.1684599 8.4416161
-0.39596212 0.7251814 3.9957659
-1.2119821 2.1951981 8.0634823
-0.63315141 1.1401345 3.1319361
-0.79045802 1.4188324 3.0437312
-0.91824251 1.6442116 2.8385479
