# .PCD v0.7 - Point Cloud Data file format
VERSION 0.7
FIELDS x y z
SIZE 4 4 4
TYPE F F F
COUNT 1 1 1
WIDTH 1613
HEIGHT 1
VIEWPOINT 0 0 0 1 0 0 0
POINTS 1613
DATA ascii
1.1199651 1.3645651 30.363688
1.9677923 2.5950615 30.330957
4.6205339 6.3111496 30.151934
4.7467155 6.5287156 22.004795
3.8683457 5.3421106 13.70144
2.1220176 2.9380527 5.998323
7.8362017 10.881251 14.614844
3.1321485 4.3766332 5.3686118
5.4366341 7.6050858 7.6202888
4.8975587 6.8535204 5.607358
5.3836546 7.5392938 4.9359241
15.875415 22.240122 11.128306
17.035925 23.874699 8.7109804
17.667267 24.77776 5.8690538
18.705784 26.234241 2.9855301
5.2164688 7.2675838 8.0488663
4.5764751 6.3806405 5.8010583
5.0121894 6.9906869 5.1403623
15.489034 21.626917 12.384661
16.400146 22.907515 9.8945141
17.21327 24.052134 7.2243052
18.162334 25.378258 4.4448638
2.8578253 3.812295 30.287954
3.7455237 5.0455632 30.234184
6.2469649 8.4982424 33.765388
5.410378 7.4196258 16.895664
4.3142872 5.9273376 10.839937
5.5162859 7.5870438 11.307458
1.1284643 1.3579201 30.368679
1.9840585 2.5826464 30.330957
4.6608458 6.2830033 30.156775
4.7886667 6.5001526 22.009489
3.9001861 5.3135085 13.692437
2.1363242 2.9179749 5.9855251
4.4830275 6.1321206 10.133171
7.9861717 10.935817 14.758176
3.1508403 4.3543949 5.3616028
5.7126131 7.9004345 7.9435501
4.9909072 6.9048653 5.6704121
5.424367 7.5100551 4.9359241
16.026524 22.188692 11.147037
17.177425 23.790852 8.7152109
17.838432 24.715427 5.8783803
18.893198 26.167192 2.990448
5.205874 7.1600852 7.9657288
4.6605077 6.4146967 5.8569784
5.0737514 6.983469 5.1580944
15.641702 21.544806 12.395151
16.495035 22.728519 9.8632879
17.409523 23.988583 7.2395449
18.336067 25.265261 4.4462452
2.8699837 3.802177 30.283014
3.7622349 5.0331154 30.234184
6.2745199 8.4797745 33.770161
5.4109859 7.3717012 16.825439
4.3434939 5.9304023 10.868868
5.4876733 7.5007987 11.203845
1.1320155 1.354961 30.368679
1.9906888 2.5782125 30.335928
4.6769352 6.2726035 30.161613
4.8045349 6.4884319 22.009489
3.9148164 5.3081493 13.70144
2.1182122 2.8795075 5.9172702
4.4862256 6.1073623 10.109231
5.0515223 6.8869705 9.3373089
3.1639199 4.340488 5.3580985
5.6631732 7.7776117 7.8399811
5.0851374 6.9863167 5.7499146
5.4492416 7.4920263 4.9359241
16.123413 22.17573 11.165767
17.314127 23.822136 8.7462311
17.966532 24.737907 5.8961
19.007166 26.17074 2.9967072
5.1210313 7.004766 7.8094301
4.6653628 6.3861537 5.8422623
5.1772394 7.0894156 5.2442226
15.725318 21.556929 12.422426
16.549345 22.694849 9.8649311
17.49695 24.003128 7.2547851
18.523127 25.410881 4.4780164
20.015482 27.468225 1.4646803
2.8772779 3.7966599 30.283014
3.7725017 5.0266967 30.239079
5.4239783 7.3651209 16.829828
4.3544707 5.9258399 10.873
1.13367 1.353577 30.368679
1.9937142 2.5765479 30.3409
4.6842542 6.2687097 30.166454
4.811223 6.4856224 22.014181
3.9220345 5.3082328 13.710443
2.1109405 2.8654299 5.8916745
4.4994168 6.116365 10.129181
5.0310488 6.8515334 9.2932062
5.2511144 7.1748185 8.8170853
5.6009502 7.6640115 7.736412
5.112123 6.9976888 5.7663631
5.4531693 7.4727225 4.928968
16.182817 22.184084 11.182624
17.375631 23.836704 8.7603312
18.011152 24.717596 5.8979654
19.075943 26.188456 3.0016251
5.1217442 6.9903646 7.7994537
4.660109 6.3649588 5.8275466
5.4710512 7.4780316 5.5304718
15.785381 21.591742 12.451798
16.666641 22.813854 9.9224548
17.555155 24.038881 7.2700253
18.689774 25.601927 4.5132413
19.955139 27.345284 1.4592389
2.8903234 3.7877152 30.287954
3.7891502 5.0141592 30.239079
5.4495096 7.3432684 16.825439
4.3828592 5.9188857 10.889532
4.8502064 6.5571675 9.8415308
1.1390945 1.3490154 30.368679
2.004817 2.5685945 30.345871
4.7104712 6.249033 30.166454
4.8393822 6.466794 22.018873
3.9455366 5.2935033 13.714944
2.1047502 2.8310761 5.8404832
4.5224686 6.0918355 10.121201
5.0701647 6.8395276 9.3079071
5.2283311 7.0942073 8.7399855
5.5976696 7.6036654 7.695612
5.1216478 6.9595952 5.7499146
5.4726486 7.4419794 4.9220114
16.232704 22.090101 11.163894
17.462879 23.772858 8.7603312
18.130701 24.691008 5.9072914
19.20878 26.15917 3.0065429
5.1320133 6.9457245 7.77285
4.6592121 6.3104315 5.7951717
5.6200838 7.6145959 5.6469984
15.902626 21.561956 12.47278
16.808058 22.797928 9.9471064
17.697365 24.01292 7.2852654
18.763121 25.468306 4.504262
19.955763 27.097042 1.4511777
2.9040012 3.7782195 30.292894
3.8072462 5.0017123 30.243975
4.1210279 5.4968634 16.244528
4.4018106 5.9012957 10.885399
4.8692355 6.5350566 9.8338556
1.1439837 1.3452507 30.373671
2.01443 2.5624187 30.355814
4.733016 6.2335534 30.171291
4.8630519 6.4490132 22.018873
3.9649117 5.279007 13.714944
2.1151123 2.8233428 5.8404832
4.5501814 6.0824571 10.133171
5.0830255 6.8046021 9.2858562
5.202044 7.0071921 8.6558771
5.5476665 7.480907 7.5920429
5.1185193 6.904726 5.7197585
5.5434184 7.4833431 4.961431
17.535624 23.689415 8.7532816
18.225542 24.639418 5.910089
19.338476 26.144007 3.0123549
5.1685848 6.9418411 7.7894773
4.6509438 6.2511549 5.7569108
5.2569165 7.0681791 5.2619548
15.988621 21.520885 12.481172
16.9354 22.803564 9.9750471
17.818743 24.001732 7.3005052
18.90062 25.459005 4.5146227
19.965626 26.90336 1.4451318
2.917172 3.7680595 30.292894
3.8246825 4.9883919 30.243975
4.1248846 5.4621773 16.184694
4.4173121 5.8791451 10.873
4.8843217 6.5077667 9.8185062
1.1486725 1.3412493 30.373671
2.0236933 2.5557892 30.360785
4.754746 6.2169938 30.171291
4.8865767 6.433373 22.023567
3.991195 5.2755508 13.741951
2.1123867 2.7992885 5.8063555
4.569572 6.0641308 10.129181
5.0374422 6.6947136 9.1609011
5.1773491 6.9233027 8.5752716
5.5993695 7.4957976 7.6265659
5.1300807 6.8700643 5.7060509
5.6198416 7.531404 5.0054884
17.673721 23.693888 12.031109
17.612474 23.620369 8.7504616
18.355465 24.634735 5.9240785
19.450445 26.104296 3.0154843
4.6727362 6.2348819 5.7569108
5.1497378 6.8738356 5.1327629
16.052769 21.450411 12.47278
17.062983 22.80859 10.002986
17.943169 23.993881 7.3169179
19.016062 25.428566 4.5208383
19.942755 26.67745 1.4372721
2.9307849 3.7584662 30.297832
3.842694 4.9758167 30.248869
4.4581857 5.8906159 10.922595
4.9070082 6.4906774 9.8185062
1.1535361 1.33745 30.378662
2.0326023 2.5487094 30.360785
4.7771854 6.201355 30.176132
4.9090037 6.4162765 22.023567
2.1126757 2.7794404 5.7807603
4.5998201 6.0601435 10.149131
4.8723826 6.428524 8.8227863
5.2830219 7.0134325 8.7084446
5.627841 7.4793172 7.6297045
5.161571 6.8621407 5.7142758
5.656743 7.5259042 5.0147634
17.76746 23.646873 12.038601
17.680414 23.539568 8.7434111
18.509163 24.660873 5.9455285
19.562372 26.064121 3.0186138
5.4217334 7.1766939 8.0920973
4.6871657 6.2088552 5.7480812
5.1581211 6.8351736 5.1175637
17.187965 22.809233 10.029283
18.070683 23.98934 7.3345027
19.185156 25.46883 4.5394869
20.372341 27.054665 1.4598435
2.9520397 3.7437747 30.307711
3.8695593 4.9549527 30.248869
4.5108619 5.8894153 10.968059
4.8780894 6.3757567 9.6880312
1.1618744 1.330596 30.383656
2.0485759 2.535888 30.360785
4.8160553 6.171217 30.176132
4.9502783 6.3866701 22.028259
2.1576381 2.8008618 5.853281
4.8508749 6.3127356 8.7088556
3.3016598 4.3356953 5.4351983
5.6446543 7.4177833 7.59832
5.2011547 6.837441 5.7170172
5.7000594 7.4987149 5.0170822
18.033913 23.724428 12.128507
17.820312 23.451916 8.7476416
19.420462 25.566996 6.1870775
19.761889 26.007055 3.0253203
5.4632034 7.1404757 8.0887718
4.7446456 6.2057953 5.7716265
17.392225 22.77282 10.062153
18.273642 23.926908 7.3520875
19.398735 25.400064 4.5498471
20.680347 27.078156 1.4681063
2.9644382 3.7339649 30.307711
3.8865988 4.942894 30.253763
3.8647099 4.9897203 14.928205
2.3536556 3.0541883 5.735745
4.8441939 6.2926798 9.5844183
1.1655445 1.3277664 30.388645
2.0547662 2.5308747 30.360785
4.8318958 6.1604195 30.180971
4.961627 6.3691096 22.009489
4.5144382 5.8180385 15.290368
2.2214551 2.8702061 6.0068545
2.4302495 3.1444767 5.3371615
4.876514 6.3186655 8.7309065
3.3992534 4.4316716 5.5683713
5.5461206 7.2383637 7.4351201
5.1983743 6.7869606 5.6896024
5.7141252 7.4657011 5.0078068
18.130894 23.697111 12.143491
17.882244 23.380571 8.7420006
19.496235 25.509262 6.1870775
19.807224 25.916162 3.0212967
5.5000906 7.1498241 8.1153765
4.7658029 6.1997623 5.777513
4.8971219 6.3728843 4.8085155
16.951998 22.084333 12.957429
17.504217 22.811972 10.096666
18.368086 23.946432 7.3696718
19.686979 25.665863 4.6037202
20.753574 27.066153 1.469517
2.9759889 3.7257597 30.312651
3.9012475 4.9313407 30.253763
3.873493 4.9705267 14.905193
5.2879052 6.8074479 15.864232
2.3535552 3.036483 5.7150803
4.9009938 6.3298154 9.6611681
1.169439 1.3247228 30.393637
2.0618258 2.5251269 30.360785
4.8480072 6.1477485 30.180971
4.9836044 6.3628912 22.032953
4.5309935 5.8079162 15.29487
2.2866232 2.9384768 6.160428
2.4421711 3.1428623 5.3451419
4.8877826 6.3013735 8.7235565
3.3862407 4.3876877 5.5263166
5.5343022 7.17872 7.3911815
5.2351689 6.7956042 5.7087927
5.7322493 7.4462056 5.0054884
18.154587 23.591278 12.115396
17.959166 23.345755 8.7476416
19.344257 25.155357 6.1161985
19.937183 25.935762 3.0297909
5.5873208 7.2240043 8.2151413
4.7820177 6.187264 5.777513
4.8558068 6.2849946 4.7527857
17.021925 22.047686 12.963724
17.630224 22.852062 10.134467
18.475241 23.955997 7.3872571
19.575674 25.382872 4.5629697
20.775558 26.948421 1.4662925
2.9920568 3.7138665 30.317589
3.9225049 4.9157519 30.258659
3.865303 4.9173956 14.794732
5.3175578 6.7843103 15.864232
2.3511791 3.0062356 5.6778836
4.9186993 6.2957416 9.6419802
1.1756305 1.3196179 30.398628
2.0729241 2.5153337 30.355814
4.8777065 6.1258183 30.185812
3.5897951 4.5391545 15.791574
4.5583124 5.7865 15.29487
2.2762742 2.896909 6.0964394
2.4681151 3.1455426 5.369082
4.874609 6.2213717 8.6463776
3.3665934 4.3262134 5.4667397
5.5248532 7.1072779 7.3409662
5.3893085 6.935401 5.8431244
18.167965 23.405161 12.059204
18.071501 23.289272 8.7546911
19.449457 25.07411 6.1161985
20.114256 25.931158 3.0391796
5.6223416 7.2015185 8.2184668
4.7652922 6.1081362 5.7245359
4.8975325 6.2798915 4.7654519
17.163645 22.023912 12.995194
17.805548 22.847574 10.170624
18.636898 23.922939 7.4048414
19.641661 25.212683 4.5498471
20.814915 26.728319 1.4602466
3.0048454 3.7045271 30.322529
3.9387844 4.9027171 30.258659
3.891288 4.9168062 14.831553
5.3355746 6.7609982 15.851064
2.3611352 2.9984224 5.6778836
4.931623 6.2693191 9.6266308
1.1797705 1.315918 30.398628
2.0808163 2.5088089 30.355814
4.8977137 6.111445 30.190651
3.602963 4.5265045 15.78688
4.5859361 5.7840915 15.326378
2.2416823 2.8345125 5.9812589
2.4779847 3.1377733 5.369082
4.8689394 6.1740837 8.6022758
3.3134735 4.2274246 5.3580985
5.5496287 7.0879493 7.3409662
5.4315252 6.9395962 5.8623147
18.172459 23.242994 12.008632
18.15564 23.229828 8.7561016
19.44179 24.89333 6.0882196
20.249182 25.927111 3.0463328
5.5608158 7.0742235 8.0954237
4.685648 5.9651561 5.6068096
4.9183302 6.2636161 4.7654519
17.235554 21.973454 12.997293
17.937363 22.876396 10.206781
18.752775 23.924923 7.4224262
19.780537 25.236141 4.5643516
20.878721 26.646782 1.4592389
3.0177581 3.6940157 30.322529
3.9565146 4.88973 30.263554
3.9120805 4.9077759 14.84536
5.3546715 6.7367077 15.837896
2.3715873 2.9901621 5.6778836
1.1843566 1.3117919 30.398628
2.0895607 2.5015304 30.355814
4.919806 6.0952892 30.195488
3.6489649 4.5515985 15.918277
4.6060977 5.7680483 15.326378
2.2028143 2.7654727 5.853281
2.5395691 3.1927757 5.4768128
4.8440728 6.0986481 8.5214224
3.3613567 4.2578197 5.4106669
5.5256104 7.0092554 5.9363341
7.1802077 9.1146317 6.1602507
18.729174 23.792013 8.9901667
19.401007 24.663158 6.0490499
20.388823 25.918896 3.0534861
5.557663 7.0196409 8.0555172
4.7064414 5.9487638 5.6068096
4.9187708 6.2193599 4.7451863
17.284014 21.877542 12.976312
18.090273 22.90629 10.247869
18.87834 23.912727 7.438839
19.911465 25.221355 4.5740209
21.055176 26.679628 1.4646803
3.0306344 3.6834593 30.322529
3.9735589 4.8758893 30.263554
2.3890359 2.9906602 5.6944151
2.6201589 3.2834828 5.1060505
1.1889284 1.3076497 30.398628
2.09828 2.494221 30.355814
4.9418459 6.0790548 30.200329
3.6735041 4.5495749 15.95582
4.6302977 5.7570238 15.339882
2.1993978 2.7414927 5.8191538
2.6298273 3.2826605 5.6443939
4.8610954 6.0764074 8.5140724
3.4050529 4.2823477 5.4562254
5.7829642 7.2806687 7.5794892
5.5240421 6.9571776 5.9089193
7.2119799 9.0895119 6.1602507
17.472904 22.029552 11.448595
18.812109 23.726492 8.9901667
19.380211 24.460527 6.016408
20.525562 25.906116 3.0601923
5.591444 7.0118756 8.068819
5.7398028 7.2030649 6.7899604
4.929708 6.1886659 4.7350535
17.244411 21.671471 12.890292
18.217155 22.902134 10.274165
19.010098 23.907555 7.4575958
20.03945 25.202085 4.5829997
21.219673 26.695917 1.4693154
3.0421915 3.6739202 30.322529
3.9888573 4.8633823 30.263554
2.4084764 2.9967186 5.719213
2.6178496 3.2606981 5.0830259
1.192803 1.3041162 30.398628
2.1053269 2.4875774 30.350842
4.9606566 6.0653377 30.205168
3.6793702 4.5292797 15.922971
4.6500974 5.746645 15.348884
2.2168713 2.7475181 5.844749
2.8148069 3.4935155 6.0154657
4.8801703 6.0654507 8.5177469
3.4652841 4.330101 5.5298209
5.8106685 7.2685456 7.5857658
5.5275984 6.9169235 5.8897295
7.2914262 9.1338511 6.2043076
17.676989 22.151543 11.538501
18.990116 23.805573 9.0409279
19.803038 24.833513 6.1217937
20.644106 25.888231 3.0655572
8.974515 11.186081 12.854214
5.8218288 7.2616897 6.8605962
4.9415798 6.1681466 4.7299871
17.212198 21.49975 12.818958
18.341087 22.91803 10.305391
19.102203 23.877615 7.4658022
20.145071 25.181185 4.5899062
21.351833 26.699173 1.4727415
3.056417 3.6610823 30.317589
4.008997 4.8481154 30.26845
2.4139197 2.97786 5.7026815
2.631485 3.2497039 5.0830259
1.1982552 1.2991085 30.398628
2.1160743 2.4791424 30.355814
4.9860191 6.0445056 30.205168
3.6994038 4.5151629 15.927663
4.6768808 5.7304893 15.357886
2.2238989 2.7317514 5.8319516
2.8110158 3.4578197 5.9755659
4.917273 6.0572591 8.5361223
3.479646 4.3139877 5.5263166
5.8800511 7.2977057 7.6391196
5.5646091 6.9086742 5.9006953
7.3197007 9.0941553 6.1973515
17.80064 22.123747 11.560977
19.091537 23.736626 9.0437479
19.985676 24.857185 6.146975
20.835236 25.913822 3.0780754
8.9813643 11.099049 12.797681
5.9309826 7.3346725 6.9518337
17.228842 21.329117 12.76231
18.467611 22.87085 10.320184
19.187891 23.771347 7.4587684
20.285856 25.131578 4.5968132
21.53401 26.687405 1.4769737
3.0628023 3.6557422 30.317589
4.0174527 4.8411112 30.26845
5.1441426 6.3097258 14.986416
2.4173374 2.9714594 5.6985483
2.6411955 3.2500806 5.0907006
1.2007471 1.2968056 30.398628
2.121177 2.4754798 30.360785
4.9984169 6.0358901 30.210009
3.7176242 4.518065 15.965206
4.6916323 5.7240491 15.366889
2.822063 3.4565926 5.9835458
3.4422934 4.25247 5.4562254
5.8340421 7.2147937 7.5637965
5.5950589 6.9217153 5.9198856
7.3995833 9.1606255 6.2506838
17.897476 22.164783 11.598437
19.010498 23.543175 8.9845266
20.058043 24.849346 6.1544356
20.972528 25.982275 3.0905936
5.5677414 6.8536153 7.9457755
5.9756241 7.36093 6.9871521
4.6352568 5.7118716 4.4082732
17.309782 21.345354 12.791684
18.570959 22.90872 10.353054
19.453827 24.006359 7.5431752
20.337187 25.096436 4.5975037
21.668491 26.739281 1.4820119
3.0785897 3.6434739 30.322529
4.0376954 4.8242402 30.26845
5.1705275 6.2881227 14.986416
2.4315481 2.9634831 5.7026815
2.6527541 3.2365098 5.086863
1.2061685 1.2917645 30.398628
2.1318762 2.4669764 30.365757
5.0236559 6.0148997 30.210009
4.266613 5.1411843 18.222425
4.7183423 5.7077026 15.375892
2.8154469 3.4191539 5.9396553
5.0908866 6.1912131 8.7676582
3.4239893 4.1938143 5.4001527
5.723989 7.018362 7.3849049
5.5817275 6.846364 5.8760223
7.4015179 9.0849037 6.2205396
17.984306 22.082432 11.594691
19.036245 23.374067 8.9506855
20.149549 24.749872 6.1507049
21.125196 25.948263 3.0968528
8.0054092 9.7703238 11.331136
6.0576186 7.3983836 7.0460148
4.659142 5.6924057 4.4082732
17.436396 21.318329 12.818958
18.687679 22.856319 10.364558
19.726471 24.135418 7.6088247
20.542416 25.133724 4.6196055
21.834055 26.714041 1.485438
3.0881178 3.6354017 30.322529
4.0503116 4.813653 30.26845
3.9984999 4.8249478 14.822348
5.1431584 6.2237773 14.863521
2.5300882 3.0682571 5.9134617
2.6606545 3.2300184 5.086863
1.2088714 1.2892356 30.398628
2.1373878 2.4629085 30.370728
5.0370502 6.0053282 30.214848
3.7462585 4.4965968 15.969897
4.7324667 5.7044845 15.389395
5.3451605 6.4590125 13.783653
2.7235155 3.2957742 5.7361641
5.111392 6.1962848 8.7860336
3.3904247 4.1291137 5.3300619
5.7287545 6.9842939 7.3660741
5.612885 6.8478971 5.8897295
7.3691363 8.9969549 6.1741633
18.091986 22.096252 11.626534
18.996075 23.208694 8.9055643
20.165224 24.654659 6.1385813
21.237617 25.965799 3.1044533
8.075676 9.8140812 11.40097
6.0666776 7.3804946 7.0401292
4.6864829 5.703434 4.4234729
17.494572 21.305859 12.831547
18.767477 22.864199 10.38428
19.814804 24.157324 7.62641
20.630219 25.151438 4.6292748
21.923506 26.737659 1.4884609
3.1007891 3.6245999 30.322529
4.0677476 4.8002625 30.273344
3.9961233 4.7862654 14.748708
5.1613379 6.1993632 14.850354
2.5359218 3.0524695 5.901063
2.6704285 3.2177787 5.0830259
1.2140111 1.2847941 30.40362
2.1468289 2.4546833 30.370728
5.060883 5.9869027 30.219687
4.278398 5.0953803 18.147341
4.7581215 5.6887808 15.398397
5.3693748 6.4355006 13.779387
2.6306391 3.1574883 5.5167131
5.0570765 6.078393 8.650053
3.3775444 4.0842748 5.2880073
5.7828465 7.0002632 7.4037352
5.6965218 6.8982105 5.9500413
17.343588 21.017067 14.350252
18.202351 22.065554 11.645264
19.056595 23.109306 8.8942852
20.199221 24.512348 6.1217937
21.370647 25.933901 3.109818
8.2205572 9.9123316 11.550618
5.7532234 6.942163 6.6486883
4.6845894 5.6546988 4.4006743
17.628336 21.301466 12.869311
18.803961 22.730116 10.35634
19.939495 24.1113 7.6369605
20.787821 25.137108 4.6417074
22.072041 26.699495 1.4910808
3.1139297 3.6143432 30.327469
4.0844793 4.7860341 30.273344
5.2660432 6.2804103 15.087364
2.6816444 3.2084374 5.0830259
1.2184886 1.2805485 30.40362
2.1553843 2.4471745 30.370728
5.0825653 5.9701576 30.224525
4.320673 5.1094036 18.250582
4.7807546 5.6754675 15.4074
5.4220066 6.4526596 13.856174
2.5970964 3.0951958 5.4249425
5.0956817 6.0814915 8.6794538
3.4146037 4.0998631 5.3230529
8.1572571 9.8046131 10.366439
5.7312622 6.8911438 5.9610076
7.3965201 8.8997049 6.1440191
18.368137 22.108854 11.701454
19.471216 23.444891 9.0479784
20.325445 24.490831 6.1339183
21.499207 25.905132 3.1151831
8.2790422 9.9122324 11.583873
5.743751 6.8816977 6.6104274
4.6877294 5.6184525 4.3854752
17.743267 21.288609 12.898685
18.834827 22.606291 10.330045
19.976877 23.985525 7.6193752
20.929317 25.129084 4.6534495
22.155518 26.610771 1.4904763
3.1270361 3.604038 30.332407
4.1011605 4.7717476 30.273344
6.2320867 7.3229051 30.78767
5.2941146 6.2693095 15.104921
2.3939707 2.8410225 5.5290976
2.6907635 3.1966052 5.0791883
1.2229511 1.2762873 30.40362
2.1639132 2.439636 30.370728
5.1041923 5.9533343 30.229366
4.3216987 5.0745845 18.180193
4.8033533 5.662065 15.416403
2.5767658 3.0492871 5.3611021
5.1278114 6.0766225 8.6978302
3.4472294 4.1097775 5.3510895
5.7525964 6.8678899 5.9582658
7.3991084 8.8398628 6.120831
18.555275 22.176157 11.770757
19.617567 23.454052 9.077589
21.650183 25.902529 3.1236777
8.3232069 9.894702 11.597176
8.1735249 9.7236376 9.3328505
4.6657138 5.5525494 4.347477
17.858318 21.275209 12.928057
18.868092 22.486145 10.305391
19.988636 23.829996 7.5924125
21.048731 25.093811 4.660356
22.296421 26.590696 1.4934992
3.1395977 3.5931008 30.332407
4.1177921 4.7574024 30.273344
6.2537246 7.2965727 30.768581
5.3066568 6.2398448 15.078587
2.4056938 2.8347943 5.5332308
2.7081232 3.1945274 5.0907006
1.2275993 1.2722183 30.408613
2.172416 2.4320676 30.370728
5.1257639 5.9364319 30.234205
4.3191633 5.0358901 18.095722
4.8259163 5.6485734 15.425404
2.4675381 2.8953655 6.2926722
2.5698178 3.0196216 5.325192
3.4615541 4.0977192 5.3510895
8.0196667 9.5035019 10.109085
7.4299202 8.8139811 6.120831
18.847658 22.366497 11.905615
19.733313 23.425789 9.0930996
21.798195 25.895374 3.1317248
5.4011898 6.3756943 7.5234375
8.0925055 9.5593071 9.203352
4.7379775 5.5987515 4.3956075
17.973495 21.261267 12.957429
19.226881 22.75197 10.456594
20.109339 23.804636 7.6064806
21.232065 25.133671 4.681076
22.882275 27.096706 1.5243334
3.1526341 3.5827029 30.337347
4.1350427 4.7437673 30.278242
6.2586732 7.2509689 30.668371
3.860163 4.4943628 14.016906
3.8841732 4.5350766 11.00991
2.4119177 2.8221011 5.5249643
2.7150955 3.1801801 5.0830259
1.2318313 1.2677186 30.40362
2.1808922 2.4244697 30.370728
5.1472793 5.9194527 30.239044
3.7828453 4.3795705 15.791574
4.848444 5.6349936 15.434406
2.4742327 2.8827765 6.2841401
2.5724988 3.0014813 5.3092318
3.4619713 4.069314 5.3300619
5.8951459 6.936636 7.4225664
5.2806034 6.2157192 5.4319043
7.4004354 8.7170753 6.0721359
18.667643 21.996592 11.744534
19.780827 23.316526 9.077589
21.946417 25.887499 3.1397724
5.3797908 6.3056731 7.4635782
8.091733 9.4910154 9.1650906
4.7798615 5.6084256 4.4158731
18.091734 21.250237 12.9889
19.391878 22.785408 10.502613
20.409632 23.98974 7.6873698
21.31967 25.059406 4.681076
23.01556 27.062336 1.5267519
3.1651208 3.5716765 30.337347
4.1515765 4.7293043 30.278242
6.2545671 7.1952815 30.525211
3.8438749 4.4439216 13.901843
3.8921583 4.5124235 10.987965
2.430933 2.8243287 5.5456295
2.7073724 3.1488097 5.0484881
1.236249 1.2634109 30.40362
2.189342 2.416842 30.370728
5.1687388 5.9023948 30.243885
3.7731924 4.3376951 15.688333
4.8666592 5.6163902 15.429906
2.4876912 2.8780682 6.2926722
2.5455506 2.9491439 5.2334213
5.979136 6.9367566 10.006188
3.4390292 4.0138736 5.2739892
5.9193234 6.9160156 7.4225664
5.2696486 6.1591225 5.3990073
7.4452128 8.708025 6.0837302
18.690096 21.867863 11.71082
19.815355 23.192629 9.0564384
22.091621 25.875122 3.147373
5.4017692 6.2868557 7.4635782
8.1932745 9.5424461 9.2416134
4.7994094 5.5917068 4.4158731
18.207157 21.235189 13.018273
19.505098 22.757019 10.520692
20.613426 24.058613 7.7319188
21.552008 25.154058 4.7121568
23.142384 27.019773 1.5287671
3.1775692 3.5606062 30.337347
4.1687336 4.7155471 30.283136
6.2353997 7.1228642 30.310472
3.8144495 4.3789186 13.740754
3.882756 4.4698801 10.917739
2.4315608 2.8051941 5.5249643
2.6889725 3.105417 4.9947629
1.2406516 1.2590879 30.40362
2.1977651 2.4091852 30.370728
5.1901417 5.8852592 30.248722
3.7860365 4.3219023 15.678946
4.8862338 5.5993681 15.429906
2.4891605 2.8595316 6.2713428
2.5419915 2.9243214 5.2054911
6.0566497 6.9772863 10.094393
3.8048172 4.4095507 5.8031754
5.9688406 6.9247932 7.4539504
5.239255 6.0805039 5.3469191
18.733047 21.76384 11.690217
19.836744 23.054228 9.0296478
22.243494 25.869593 3.1558671
5.3992496 6.2397275 7.4303231
8.2053843 9.4893274 9.2180681
4.7596993 5.506433 4.3626766
18.334562 21.233337 13.056038
19.599846 22.706669 10.528909
20.754435 24.052753 7.7530203
21.655853 25.09742 4.71561
23.265926 26.972876 1.5305808
3.1899786 3.5494931 30.337347
4.1858459 4.7017269 30.288033
6.2493668 7.0887384 30.25798
3.7498314 4.2745228 13.455398
3.8999121 4.4581027 10.922129
2.4394875 2.7945697 5.5208321
2.7145426 3.1129222 5.0216255
1.2448356 1.2545447 30.398628
2.2061613 2.4014988 30.370728
5.2123227 5.8689857 30.258402
3.8056667 4.3138366 15.697719
4.9014387 5.5773726 15.416403
2.5501988 2.9131632 5.2015009
6.0809679 6.9561024 10.094393
7.8693442 9.0559101 11.869545
5.9980798 6.9097948 7.4602275
6.2278481 7.1770077 6.3146563
18.878744 21.778885 11.733296
20.507694 23.666407 9.294734
22.395601 25.863323 3.1643617
5.4038267 6.201138 7.4070449
8.2676563 9.4941578 9.2504425
4.7109613 5.4117503 4.3018799
18.438349 21.203457 13.077019
19.632519 22.584658 10.504257
20.908407 24.060875 7.7788105
21.951212 25.260902 4.7598138
23.310793 26.834921 1.5275578
3.2028706 3.5389121 30.342285
4.2022324 4.6870866 30.288033
6.2582159 7.0490203 30.181629
3.7880125 4.2877612 13.538243
3.9027843 4.4300857 10.887016
2.4436536 2.7796969 5.5084329
2.7232773 3.1010191 5.0177879
1.2492073 1.2501918 30.398628
2.2148926 2.3941746 30.3757
5.2336159 5.8516927 30.263243
3.8149707 4.2940755 15.674254
4.9338627 5.5749011 15.456914
2.5523813 2.8952024 5.1855407
6.1096921 6.9399219 10.101743
7.9103026 9.0391207 11.883563
6.0605888 6.9327712 7.5073042
6.3354087 7.2496829 6.3969007
18.346157 21.008419 14.686478
19.027821 21.796671 11.778249
20.590179 23.594677 9.294734
22.551205 25.860056 3.1733031
5.4106627 6.1653996 7.3870921
8.3194027 9.4865131 9.2710438
4.7553988 5.4244466 4.3246784
18.518232 21.145794 13.081215
19.655245 22.452034 10.474673
21.043486 24.046268 7.7975683
22.091436 25.24375 4.7708645
23.239849 26.565382 1.5174813
3.215204 3.5277104 30.342285
4.2192502 4.6731453 30.292927
6.2400017 6.9792833 29.976433
3.835422 4.3110023 13.653306
3.9102769 4.4074779 10.86507
2.4514763 2.7690432 5.5043001
2.7340853 3.0914943 5.0177879
1.2535636 1.2458237 30.398628
2.2232366 2.3864286 30.3757
5.2556925 5.8352561 30.272919
4.2936544 4.7990088 17.565439
4.9605346 5.5657701 15.47942
2.5564702 2.8795152 5.1735706
7.9441643 9.0141287 11.887068
6.0410285 6.8619089 7.4539504
6.2943759 7.1521888 6.3311057
18.375498 20.894354 14.651696
19.134399 21.764936 11.79698
20.786419 23.65238 9.3454952
22.687344 25.833567 3.1795626
5.429678 6.1436772 7.3837667
8.3337364 9.4362078 9.2504425
4.7600398 5.3916564 4.3120127
18.715012 21.220583 13.167234
19.742865 22.393915 10.479604
21.178715 24.031012 7.8163247
22.284195 25.28537 4.7929664
23.329136 26.480349 1.5172799
3.2274983 3.5164659 30.342285
4.2362218 4.6591425 30.297821
6.1924105 6.8775897 29.632849
3.8673952 4.3165035 13.71314
3.9160638 4.3830857 10.838736
2.4517636 2.7499671 5.4836354
2.7214098 3.0556028 4.9755754
1.2581103 1.241643 30.40362
2.2319179 2.3790424 30.380671
5.2777181 5.8187366 30.282598
4.3565855 4.8352723 17.753149
4.9915652 5.5613809 15.515429
6.1578403 6.8776131 15.170082
2.5604808 2.8638351 5.1616006
4.8145514 5.3924294 7.91502
3.4990878 3.942574 5.2599711
6.1424093 6.9281545 7.5481043
6.2333264 7.0331655 6.2461195
18.677406 21.088749 14.832561
19.259426 21.753548 11.826948
20.916542 23.633562 9.3666458
22.843363 25.828821 3.188504
5.4560542 6.1302638 7.3904171
6.5158124 7.3261008 7.2226048
4.8160663 5.4168882 4.344944
18.894455 21.273895 13.240667
20.074863 22.610891 10.612728
21.314093 24.015102 7.8350821
22.362457 25.196316 4.7908945
23.461214 26.443598 1.5196981
3.2397535 3.5051782 30.342285
4.252459 4.6443267 30.297821
3.8758948 4.2957249 13.690126
3.9249318 4.3622675 10.821179
2.4575877 2.7372041 5.475369
2.7063775 3.0174518 4.9295254
1.2624367 1.2372438 30.40362
2.2398424 2.3708494 30.3757
5.3005404 5.8030629 30.297117
4.4302588 4.8826575 17.983095
5.0211658 5.5552282 15.546937
6.1835556 6.8580127 15.174347
2.5603805 2.8436837 5.1416507
4.8333454 5.3755903 7.91502
3.4961932 3.9117234 5.2354393
7.4056869 8.2945127 9.0482864
6.2578387 7.011364 6.2461195
18.830517 21.112682 14.895169
19.359924 21.713869 11.841932
22.940008 25.756363 3.1893981
5.4749289 6.1084023 7.3870921
6.7543893 7.5411711 7.4551144
4.8924565 5.4642763 4.3956075
19.071474 21.322828 13.312001
20.266977 22.667408 10.671895
21.452858 24.002165 7.8550115
22.479973 25.151333 4.7971106
23.636593 26.454681 1.5247364
3.2519691 3.4938481 30.342285
4.2693353 4.6302032 30.302717
3.8567066 4.244576 13.57046
3.9353111 4.3432164 10.808012
2.4671273 2.7286088 5.475369
2.6825187 2.9699292 4.8681254
1.2669549 1.2330308 30.408613
2.2481048 2.3630164 30.3757
5.320765 5.7845254 30.297117
5.0507841 5.5489359 15.578445
6.2337551 6.8653488 15.238337
2.5621951 2.8257999 5.1256905
4.8475294 5.3536606 7.90767
7.3825464 8.2107248 8.9855175
6.27389 6.9801488 6.2378955
18.96034 21.10944 14.939226
19.441795 21.653057 11.845678
23.0464 25.694666 3.1916337
5.4937158 6.086482 7.3837667
6.650723 7.3734779 7.3138423
4.9952159 5.54001 4.46907
19.233873 21.35392 13.372844
20.406012 22.663202 10.70312
21.588537 23.984938 7.8737688
22.706776 25.227299 4.8261194
23.795626 26.446291 1.5287671
3.2646768 3.4830422 30.347225
4.2854719 4.6152725 30.302717
3.8688619 4.2282047 13.561256
3.9407618 4.3188381 10.781678
2.6842422 2.9510632 4.8527751
1.271459 1.2288013 30.413603
2.2559705 2.3547697 30.370728
5.3409243 5.7659173 30.297117
5.0760069 5.5376911 15.596451
6.3192797 6.9109111 15.387644
2.5618839 2.8057132 5.1057405
4.8753247 5.3467269 7.9223704
7.4294496 8.205101 9.0074863
6.3094411 6.9706059 6.2488613
19.069571 21.08255 14.967052
20.123562 22.255598 12.210918
23.179346 25.662106 3.1974456
8.3754444 9.2142439 11.171511
6.6655502 7.3382502 7.3020701
5.008728 5.5161567 4.4640036
19.375378 21.360607 13.419001
20.532578 22.644306 10.727774
21.73089 23.97426 7.8948708
22.791372 25.144217 4.8254285
23.964952 26.448215 1.5334022
3.2768149 3.4716253 30.347225
4.3022513 4.6010284 30.307611
3.4054611 3.6777799 16.070871
3.9444695 4.2927113 10.750954
2.6249514 2.8627245 5.7770748
2.6923621 2.9393117 4.8489375
1.2759489 1.2245554 30.418596
2.2641766 2.3468807 30.370728
5.3567314 5.7426429 30.272919
3.777385 4.0765362 15.167435
5.101213 5.5263371 15.614456
6.5076632 7.0672336 15.784375
2.5635037 2.7878811 5.0897803
3.9336691 4.3094969 5.8136892
7.4921393 8.216507 9.0482864
6.3562689 6.9732614 6.270793
20.244827 22.23321 12.237143
21.037813 23.112175 9.2764034
22.684761 24.938988 6.492044
23.3291 25.647352 3.205493
8.2235203 8.9839001 10.928749
5.048315 5.5209084 4.4817357
19.514101 21.363214 13.46306
20.662443 22.62829 10.75407
21.87015 23.959286 7.9147997
22.855633 25.038902 4.8205938
24.124475 26.43821 1.5374329
3.2894485 3.4607289 30.352165
4.3182855 4.5859833 30.307611
3.4192955 3.6669614 16.075644
3.7441337 4.0349727 13.027363
3.9447901 4.2630959 10.711452
2.6502008 2.8700836 5.8101382
2.7091258 2.9369638 4.8604503
1.2804247 1.220293 30.423588
2.2723548 2.338963 30.370728
5.3681383 5.7147484 30.224525
3.7915921 4.0633259 15.167435
6.5659857 7.0808091 15.865428
2.5609357 2.7656505 5.0658402
3.943861 4.2904887 5.8066802
8.1104794 8.8325033 9.7513008
7.2265444 7.8781404 5.6825781
20.563564 22.425503 12.381366
21.141054 23.063353 9.286273
22.632317 24.707516 6.4528742
23.465574 25.61717 3.2117522
8.1561337 8.8480711 10.799055
6.2784534 6.8158698 6.8311644
5.0675559 5.503253 4.4817357
19.631569 21.34173 13.492433
20.795643 22.615118 10.78201
22.016148 23.95079 7.9370742
22.889273 24.900635 4.8095427
24.294363 26.438448 1.5420681
3.3015084 3.4492257 30.352165
4.3349681 4.5716205 30.312508
3.4300313 3.6528275 16.066099
3.7608635 4.024734 13.036568
3.9269919 4.2142568 10.623671
2.6563706 2.856694 5.8018723
2.7193608 2.9274893 4.8604503
1.2846764 1.215816 30.423588
2.2808785 2.3313978 30.3757
5.3794155 5.6868439 30.176132
3.8069344 4.0513234 15.172129
6.6476235 7.1188436 16.00194
2.5623538 2.7478793 5.04988
5.5383496 5.9830375 8.0916443
8.1412611 8.8041391 9.7513008
6.5098157 7.0423265 6.3722272
7.2449832 7.8431053 5.6756215
20.685749 22.401268 12.407588
21.221432 22.989416 9.286273
22.645151 24.548927 6.4323564
23.646021 25.633936 3.2238233
8.2022114 8.8359671 10.819008
6.2334843 6.7198291 6.757585
5.1043215 5.5044956 4.4969349
19.755295 21.326345 13.526001
20.928999 22.601292 10.809949
22.149143 23.927296 7.954658
23.043335 24.893269 4.8233566
24.440794 26.412155 1.5452926
3.3140678 3.4382396 30.357105
4.3508997 4.5564609 30.312508
3.4366078 3.6343253 16.037468
3.7655175 4.0016222 13.004351
3.9089005 4.1655941 10.535889
2.6105456 2.787837 5.6820164
2.7405114 2.9296825 4.8796377
1.2889127 1.2113242 30.423588
2.2890027 2.3234217 30.3757
5.3983665 5.6671214 30.171291
3.8376584 4.0555577 15.237827
6.6902986 7.1145949 16.044598
2.5760555 2.7433114 5.0578599
5.5908132 5.9975805 8.1372032
6.2886252 6.7532258 7.5229969
6.5315089 7.016499 6.3694859
7.2723165 7.8177676 5.6756215
20.880627 22.45454 12.476891
21.379936 22.999525 9.3201151
22.623722 24.354565 6.4025126
23.806532 25.627863 3.233212
8.1973076 8.7690954 10.772451
6.2541437 6.6950755 6.754642
5.138216 5.502398 4.5096011
19.879152 21.310358 13.559571
21.062511 22.586807 10.837889
22.265676 23.885391 7.966382
23.204372 24.892368 4.838551
24.635019 26.436329 1.5513384
3.3260493 3.4266503 30.357105
4.3674841 4.5419793 30.317402
3.4523613 3.6255498 16.051785
3.8184338 4.0295777 13.137824
3.8839386 4.1101475 10.430552
2.6279836 2.7868969 5.6985483
2.7683036 2.9387631 4.9103379
1.2931331 1.2068177 30.423588
2.2974746 2.3157959 30.380671
5.4059334 5.6355438 30.10354
3.8589344 4.0496325 15.265983
6.718679 7.094986 16.053129
2.5980382 2.7474389 5.0818005
3.666759 3.8829875 5.8679538
8.0696144 8.5963421 11.666282
7.7978287 8.3155241 9.2742558
6.5645409 7.002809 6.3777103
7.2480774 7.7373762 5.6362019
20.993738 22.418737 12.497494
21.437141 22.900242 9.3102446
22.597857 24.157063 6.371736
23.970692 25.624617 3.2430477
8.3379164 8.8573313 10.915448
6.1362309 6.5230551 6.6045408
5.2194076 5.5503769 4.5627975
20.003136 21.293762 13.593139
21.192947 22.568228 10.864185
22.40214 23.864223 7.9851389
23.331791 24.854546 4.8468394
24.785267 26.412109 1.5547646
3.3379905 3.4150195 30.357105
4.3833122 4.5267062 30.317402
3.4608629 3.6091673 16.032696
3.8311274 4.014811 13.133222
3.8784499 4.0757451 10.377883
2.5369322 2.6715982 5.4836354
3.1359067 3.3057942 5.5320139
1.2971261 1.2021004 30.418596
2.3059208 2.3081391 30.385643
5.3993726 5.5895181 29.958359
3.8730466 4.0361376 15.265983
6.745204 7.0733771 16.057396
2.6138468 2.7448995 5.0937705
3.6148772 3.8013775 5.7650485
8.0579233 8.5240641 11.606704
7.8401699 8.3024044 9.2899475
5.7938566 6.137598 5.6183243
7.2932796 7.7313614 5.6501145
22.339579 23.697922 9.6627531
22.756145 24.156698 6.3922539
24.12487 25.609657 3.2515421
5.2426267 5.5304332 6.8683133
6.1256056 6.4663835 6.5692234
5.339529 5.638546 4.6489258
20.130365 21.279861 13.628807
21.323509 22.549007 10.890481
22.421865 23.718769 7.9628644
23.496653 24.855719 4.8627253
24.976822 26.430735 1.560609
3.3498907 3.403347 30.357105
4.3997974 4.5121074 30.322298
3.4724035 3.5959909 16.027924
3.8139834 3.9690139 13.027363
3.8744252 4.0431609 10.329602
2.5209589 2.6362875 5.4299068
3.2116339 3.36204 5.6433015
1.3011017 1.1973699 30.413603
2.3143418 2.3004518 30.390614
5.4214802 5.5733399 29.972876
3.8967056 4.0325212 15.303526
3.5852787 3.7244928 10.753145
6.7301121 7.0084047 15.963546
2.6150696 2.7270594 5.0778103
3.7101912 3.8744342 5.8936796
5.1344833 5.3936915 7.3977447
6.136373 6.4528947 7.2625051
5.7662697 6.0658164 5.5717192
7.3537836 7.7411847 5.6756215
22.547667 23.752003 9.7163334
22.904566 24.144831 6.4099741
24.292948 25.608387 3.2618251
5.277369 5.5283046 6.888267
6.1927805 6.4917569 6.6163139
5.359179 5.619873 4.6489258
20.25461 21.262039 13.662375
21.457455 22.532574 10.918421
22.454254 23.587553 7.9452806
23.644733 24.838112 4.8751574
3.3617504 3.3916328 30.357105
4.4155207 4.4967217 30.322298
3.7992845 3.9261944 12.93071
3.8818626 4.0227184 10.312046
2.5301461 2.6274717 5.4299068
3.2833474 3.413177 5.7469139
1.3048469 1.1924317 30.40362
2.3223579 2.2923589 30.390614
5.372292 5.484344 29.595402
3.9035368 4.0114741 15.275369
3.5997727 3.7135179 10.757646
6.7635999 6.9942427 15.984875
2.6538777 2.7482605 5.1336708
3.7495792 3.8883028 5.9341063
5.1286001 5.3499918 7.362699
6.1803966 6.4539251 7.2876124
5.8249974 6.084918 5.607358
7.3807607 7.7154684 5.6756215
20.682661 21.62808 12.179078
22.23929 23.263981 9.5499496
23.005671 24.082489 6.4146366
24.450987 25.595451 3.2707665
5.2888713 5.5017743 6.8782902
6.156599 6.4088869 6.5545073
20.378975 21.243612 13.695945
21.588268 22.512066 10.944716
22.475906 23.445869 7.9241786
23.799828 24.82692 4.8889709
3.3735688 3.3798776 30.357105
4.4319062 4.4820051 30.327192
6.2473054 6.3797488 28.592556
3.8170569 3.9171059 12.944518
3.8925428 4.0057087 10.303268
2.5530155 2.6327646 5.4588375
3.3086224 3.4155083 5.7699389
1.3085736 1.1874819 30.393637
2.3307261 2.2846117 30.395584
5.375514 5.4494505 29.508291
3.9211392 4.0015216 15.289448
3.6066308 3.6946988 10.739641
6.7916121 6.9743285 15.993407
2.6781597 2.7541015 5.1616006
3.6521246 3.7608826 5.761374
5.147244 5.3320575 7.362699
6.1623592 6.390285 7.2405353
5.8345942 6.052506 5.5963926
7.4260874 7.7087989 5.6895342
20.867367 21.669291 12.242762
22.2139 23.075621 9.5048285
23.188353 24.1047 6.4416828
24.605782 25.578135 3.2792611
5.3236256 5.4993749 6.898243
6.1508293 6.3583069 6.5250759
5.3143744 5.4955544 4.5779963
20.500303 21.221306 13.727414
21.722483 22.494318 10.972656
22.584618 23.395247 7.9335566
23.948256 24.807825 4.9014034
3.3853462 3.3680809 30.357105
4.4482427 4.4672294 30.332088
3.8361802 3.9093356 12.962928
3.9048264 3.9903851 10.29888
2.5621898 2.6238368 5.4588375
3.3809555 3.4658856 5.8735514
1.3120669 1.1823275 30.378662
2.3386867 2.2764621 30.395584
5.3909597 5.4270859 29.488934
4.4793224 4.5393167 17.3965
3.6164536 3.678982 10.730639
7.1902537 7.3323069 16.867924
2.7088397 2.7662649 5.2015009
3.5846407 3.6657014 5.6364183
5.1658249 5.3140574 7.362699
6.1819162 6.3659434 7.2373972
5.8673358 6.0441036 5.607358
7.4498663 7.6796508 5.6872153
20.968697 21.622938 12.257745
22.21418 22.915277 9.4709883
23.337294 24.090647 6.4594026
6.1729865 6.3367972 6.5250759
5.3184872 5.4615288 4.5653305
20.624891 21.20167 13.760983
21.863422 22.482677 11.003883
22.733906 23.385973 7.9570036
24.107191 24.798645 4.9159074
3.3970823 3.3562434 30.357105
4.46453 4.4523935 30.336983
6.2916913 6.3359795 28.592556
3.8525491 3.8987005 12.972133
3.9170504 3.9750245 10.29449
2.5792255 2.6229029 5.475369
3.4154949 3.476928 5.9119267
1.3155403 1.1771632 30.363688
2.3466189 2.2682846 30.395584
5.415205 5.4135671 29.517971
4.502439 4.5309978 17.424656
3.6200848 3.6570532 10.703631
7.2524557 7.3442779 16.953241
2.7354054 2.7739565 5.2334213
4.6535678 4.725667 7.2681913
4.0292821 4.1160717 5.7400937
6.2231493 6.3638053 7.2593665
6.0062637 6.148438 4.5857854
21.1315 21.639168 12.308317
22.216961 22.758642 9.4385567
23.489847 24.079363 6.4780545
11.111065 11.318612 14.207692
5.4310856 5.5383434 4.6438589
20.746412 21.178179 13.792455
21.941769 22.406223 11.003883
22.876604 23.368996 7.9781051
24.262892 24.785118 4.9297214
3.4093316 3.344909 30.362043
4.4807682 4.4374986 30.341877
6.3137698 6.3139787 28.592556
3.8399518 3.8589172 12.884685
3.9292154 3.9596274 10.290101
2.5923254 2.617883 5.4836354
3.4614232 3.4991646 5.9694891
1.3209369 1.1737137 30.393637
2.3545225 2.2600794 30.395584
5.4349608 5.3955173 29.52281
4.5719366 4.5689254 17.631138
3.6236064 3.635144 10.676624
7.2762079 7.3170676 16.948975
2.7110996 2.7301812 5.1695805
4.7273264 4.7671676 7.3563952
4.0611515 4.11976 5.764626
6.2398634 6.3364973 7.2530894
5.1819043 5.2639928 4.9274745
6.0245829 6.1242766 4.5834665
21.22316 21.581802 12.317683
22.306356 22.691216 9.4427872
23.642607 24.067307 6.4967074
11.184631 11.314278 14.250924
5.4110079 5.4794769 4.6109281
20.868021 21.154095 13.823924
22.046373 22.356394 11.017032
23.022867 23.354765 8.0003786
24.42922 24.781385 4.9456067
3.4209867 3.3329878 30.362043
4.4962306 4.4218307 30.341877
3.8506324 3.8427298 12.87548
3.943013 3.9458876 10.290101
2.6133702 2.6207733 5.5084329
3.4396851 3.4529991 5.9119267
1.3254589 1.1694773 30.40362
2.3623972 2.251847 30.395584
5.4367537 5.3597465 29.430861
4.5988817 4.5638785 17.673372
3.6362736 3.6224732 10.676624
7.2832513 7.2731967 16.906317
2.7355285 2.7356164 5.1975112
4.664886 4.671474 7.2351151
4.1709805 4.2017345 5.8977985
5.53017 5.5767469 6.4151216
5.0972147 5.1419363 4.8315234
6.1550384 6.2133574 4.6646247
21.435369 21.645939 12.39635
22.439426 22.667759 9.4653482
23.767927 24.026539 6.5078988
7.8733826 7.9092526 10.020887
5.6460733 5.6757627 5.9128985
20.99291 21.132639 13.857494
22.05773 22.21229 10.984161
23.165892 23.336351 8.0214806
3.4326003 3.3210258 30.362043
4.5123668 4.4068203 30.346773
6.3258104 6.2383037 28.449398
3.9550638 3.9304118 10.285711
2.6324723 2.6215632 5.5290976
3.3995073 3.3889248 5.8236637
1.3299677 1.1652238 30.413603
2.3706303 2.2439532 30.400557
5.4500408 5.3354602 29.401823
4.6184716 4.5514307 17.68745
3.6535389 3.614351 10.690127
2.7530141 2.7301524 6.4121184
2.76858 2.7494066 5.2414012
7.7103724 7.7131314 10.797154
5.5386014 5.5463924 6.4025679
5.0944533 5.1033978 4.8123331
6.21736 6.2326055 4.6947689
21.684294 21.744963 12.495621
22.579374 22.650446 9.4907284
23.955656 24.047832 6.5358777
7.9168043 7.897543 10.040841
5.6629906 5.6531634 5.9099555
4.9976821 4.9907503 4.2360177
21.111488 21.104155 13.886867
22.105078 22.105104 10.96937
23.312502 23.320662 8.0437546
3.4447322 3.3095617 30.366982
4.5284529 4.3917513 30.351669
6.3795424 6.2475157 28.592556
4.0166149 3.9527848 13.335732
3.9687595 3.9165819 10.285711
3.2359188 3.2034068 5.5281763
1.3342448 1.1607636 30.418596
2.3784487 2.2356646 30.400557
5.4560132 5.3041377 29.334072
4.617064 4.5183845 17.621752
3.6723454 3.6076782 10.708133
2.758811 2.716866 6.4035869
2.7910333 2.7524202 5.2653418
4.0195513 3.9694247 6.2023931
7.7321887 7.6811428 10.790145
5.5910473 5.5599599 6.4402289
4.955121 4.9292884 4.6670356
6.239078 6.2108645 4.6947689
21.769918 21.678951 12.50124
22.722878 22.635818 9.51752
24.10903 24.033424 6.5545297
8.0265532 7.9513187 10.143931
5.674077 5.624825 5.9011254
5.0456815 5.0036283 4.2613492
21.246225 21.091085 13.92673
22.135193 21.981226 10.946361
23.462732 23.307655 8.0672016
3.4562635 3.2975173 30.366982
4.5437555 4.3759174 30.351669
4.2832932 4.1858845 14.16879
3.9824066 3.9027045 10.285711
2.7992864 2.7490256 5.8349357
3.1876516 3.1336703 5.428401
1.3385071 1.1562877 30.423588
2.3866279 2.2277122 30.405529
5.4645472 5.2754564 29.280838
4.6117692 4.4817953 17.541975
3.684916 3.5948374 10.708133
6.8909907 6.7388449 15.835567
2.8156943 2.7574186 5.2932715
4.0406446 3.9624908 6.213419
7.7818031 7.6766472 10.821686
6.233562 6.1557693 7.1463819
5.1448312 5.0824008 4.8260407
6.1504588 6.08005 4.6136112
21.924572 21.681061 12.546192
22.866545 22.620459 9.5443096
24.255613 24.011328 6.5713167
8.2006559 8.0672665 10.326834
5.6245456 5.5369301 5.8304896
21.348806 21.045469 13.945612
22.255497 21.946928 10.967726
23.60623 23.287054 8.0883026
3.4677532 3.2854323 30.366982
4.5597386 4.360734 30.356565
4.3020844 4.1749892 14.182596
3.9977217 3.89045 10.290101
3.3889377 3.3083606 5.7469139
1.3425351 1.1516083 30.423588
2.3943894 2.2193677 30.405529
5.4765768 5.2502608 29.246962
4.6174512 4.4560838 17.504433
4.6449733 4.4998541 13.435868
6.895762 6.6965809 15.792908
2.838264 2.7601779 5.3172121
4.0010185 3.896328 6.1325655
4.137527 4.0532465 5.7716346
6.4828944 6.3574433 7.4037352
5.275969 5.1756825 4.9302163
6.2285461 6.1144018 4.6553497
21.907503 21.513449 12.493747
23.006964 22.601011 9.5696898
8.2982082 8.1064291 10.413297
5.617825 5.4918327 5.8040013
5.3054805 5.1883001 4.4462714
6.20503 6.0743227 4.1015506
22.399448 21.935186 11.000597
23.760292 23.275942 8.1129217
3.4792001 3.273308 30.366982
4.5749326 4.3447909 30.356565
4.2786493 4.1233444 14.058329
4.0095553 3.8748071 10.285711
3.2611201 3.1581326 6.7400517
3.4672053 3.3612087 5.8582015
1.3465469 1.1469151 30.423588
2.402122 2.2109962 30.405529
5.4857664 5.222446 29.198568
4.6504211 4.4566536 17.570131
4.662221 4.4851217 13.44037
6.9660287 6.7177291 15.899556
2.8587191 2.7607193 5.3371615
3.9829135 3.851701 6.0847878
4.1618757 4.0487261 5.7856531
6.6277423 6.4542584 7.5418277
4.9914913 4.8625402 4.6533279
6.2498517 6.0926232 4.6553497
21.909449 21.365641 12.45254
23.150961 22.584213 9.5964813
8.1629772 7.9188266 10.210442
5.6717639 5.5059752 5.8393197
5.3235588 5.1697493 4.4462714
6.2847714 6.1095695 4.1393151
22.533432 21.912832 11.028536
23.904108 23.253868 8.1340237
3.4906049 3.2611432 30.366982
4.5900707 4.328795 30.356565
4.2859583 4.1016297 14.035316
4.0230565 3.8607876 10.285711
3.2640109 3.1389275 6.7235193
3.5020084 3.3713145 5.8965764
1.3505421 1.1422077 30.423588
2.410219 2.2029574 30.410501
5.471992 5.1730423 29.029188
4.6684494 4.4427733 17.579517
4.6731262 4.4643087 13.426866
7.0308757 6.7330556 15.993407
2.8792126 2.7611518 5.3571119
3.8300574 3.678098 5.834877
4.175983 4.034174 5.7856531
6.7173839 6.4960227 7.6171503
4.9723711 4.8101997 4.6204305
6.1787801 5.9814181 4.5881042
21.923948 21.23098 12.418825
23.295116 22.566681 9.6232719
8.0399837 7.7452207 10.024213
5.7345991 5.5282226 5.8834667
6.3125901 6.0938983 4.1435113
22.674326 21.896368 11.059763
24.055052 23.237827 8.1574697
3.5019672 3.2489388 30.366982
4.6051531 4.3127465 30.356565
6.6502895 6.2890697 29.308353
4.2960014 4.0826068 14.021509
4.0365086 3.8467212 10.285711
3.2851238 3.1372325 6.7441845
3.4766848 3.3236325 5.8351765
1.3545209 1.1374865 30.423588
2.4178939 2.194531 30.410501
5.4506097 5.1169176 28.821093
5.9356637 5.6093292 22.262897
4.6918402 4.4509659 13.435868
6.9862986 6.6437726 15.839833
2.8997438 2.7614746 5.3770623
3.8207922 3.6436496 5.8018007
4.1977606 4.026979 5.7961669
6.8045893 6.534543 7.6893349
5.0494404 4.850749 4.6752596
6.1389446 5.901484 4.5440469
22.088148 21.241085 12.469398
23.432516 22.541763 9.6472425
7.9158807 7.5725722 9.837985
5.7684603 5.5221467 5.8981824
5.0886502 4.8730655 4.2258849
6.3239951 6.0624046 4.137217
22.815376 21.879185 11.090989
3.5138586 3.2372217 30.371922
4.6209249 4.297338 30.36146
6.6939645 6.2862535 29.403795
3.3021805 3.1315551 6.7565832
3.6347158 3.4505014 6.0769391
1.3582615 1.1325667 30.418596
2.4259353 2.1864343 30.415472
5.4693575 5.0987177 28.825933
5.9388499 5.5732255 22.201893
4.6962557 4.4241123 13.40436
2.7392564 2.586869 6.2329493
2.9181232 2.7596173 5.3930221
9.0027952 8.5255032 13.519646
4.2117915 4.0123019 5.7961669
5.6583738 5.3959856 6.3868752
5.0663419 4.8330936 4.6752596
6.0890145 5.8127251 4.4930334
22.21245 21.21188 12.497494
23.590839 22.536043 9.6796722
7.7608938 7.3725982 9.6151772
5.7906299 5.5047622 5.9011254
5.1087537 4.8582439 4.2284179
22.956583 21.861286 11.122216
3.5251369 3.2249362 30.371922
4.6358972 4.2811818 30.36146
4.2060771 3.941638 13.639499
6.0721073 5.7061963 15.337542
3.2823615 3.0910711 6.6945891
3.6840551 3.4729707 6.1383395
1.3622066 1.1278186 30.418596
2.4339499 2.1783082 30.420444
5.4871221 5.0795951 28.825933
5.9948788 5.5865779 22.337982
4.7164397 4.4121537 13.417863
6.7604647 6.3397264 15.229804
2.9343276 2.7556024 5.4049921
9.089303 8.5474424 13.604175
4.210227 3.9828701 5.7751393
5.6715226 5.3708482 6.3805981
5.0619326 4.7952499 4.6560698
6.0385408 5.7243886 4.4420199
22.357 21.201202 12.536828
23.728527 22.509684 9.7036438
7.84905 7.4043922 9.6916628
5.7569041 5.4345722 5.8481488
5.1100097 4.825583 4.2157521
7.8865957 7.4554062 5.1044192
23.094511 21.83942 11.151799
3.5369477 3.2131338 30.37686
4.6515636 4.2656617 30.366356
4.2212405 3.9282627 13.644101
6.0902371 5.6833315 15.333152
3.2746336 3.0622966 6.657393
3.7195549 3.4819942 6.1767144
1.3661351 1.1230568 30.418596
2.4419374 2.1701531 30.425415
5.497416 5.0536051 28.787216
3.6914246 3.4160764 13.731449
4.7254324 4.3897371 13.399858
6.7119336 6.2503276 15.071965
2.9505401 2.751508 5.4169626
4.2500968 3.9925671 5.810185
5.6902356 5.3510184 6.3805981
5.0877776 4.7861466 4.6642942
6.1262207 5.7670383 4.4907146
22.478119 21.167528 12.56305
23.862822 22.479347 9.7262039
5.6131625 5.2582779 6.9314981
5.7581453 5.3978572 5.8304896
5.14569 4.8254085 4.2309513
7.8827915 7.3998752 5.0855365
23.236012 21.820091 11.183026
3.548142 3.2007678 30.37686
4.6671782 4.2500844 30.37125
6.1065254 5.658782 15.324375
3.2502477 3.018295 6.5871325
1.370047 1.1182811 30.418596
2.4494977 2.1616158 30.425415
5.5113101 5.0309954 28.76786
3.7033267 3.4031701 13.731449
4.7327261 4.3658357 13.377353
6.7451992 6.2374845 15.09756
2.9534936 2.73505 5.4049921
4.9078927 4.5511947 7.3343439
4.2848692 3.9971681 5.8382211
6.6078372 6.170589 7.3723507
5.0952859 4.7597947 4.6560698
6.1592584 5.7577195 4.49999
22.589119 21.123766 12.583653
5.6615558 5.2666264 6.9680791
5.6881962 5.2951026 5.7421947
5.1940508 4.8367953 4.2562833
23.374201 21.79682 11.212609
3.5598722 3.1888816 30.3818
4.6827407 4.2344499 30.376144
6.395278 5.8398914 27.733601
3.9721851 3.6450894 12.760416
6.1262412 5.6374321 15.324375
3.2607636 3.0069311 6.5871325
3.5694888 3.2950609 5.8927388
1.3739421 1.113492 30.418596
2.4566274 2.1527011 30.420444
5.5251126 5.0083499 28.748503
3.707535 3.3832436 13.703293
2.6540852 2.4372408 5.9641953
2.971895 2.732882 5.4209523
4.9412069 4.5501108 7.3600707
4.7304759 4.3820667 6.416471
6.7492065 6.2586422 7.5041656
5.0965424 4.7277608 4.6423626
6.1987987 5.7542667 4.5139027
22.747644 21.123653 12.630479
5.7566991 5.31777 7.0611925
5.7185178 5.28619 5.7539678
5.2140675 4.8215618 4.2588162
