# .PCD v0.7 - Point Cloud Data file format
VERSION 0.7
FIELDS x y z
SIZE 4 4 4
TYPE F F F
COUNT 1 1 1
WIDTH 1414
HEIGHT 1
VIEWPOINT 0 0 0 1 0 0 0
POINTS 1414
DATA ascii
-0.96367204 -0.67606223 0.85639757
-0.9474411 -0.6651603 0.69252038
-0.94152647 -0.66124707 0.55316305
-0.92661613 -0.65101093 0.42280763
-0.9121815 -0.6413393 0.30317691
-0.9123705 -0.64146906 0.19307446
-0.99467903 -0.69472247 1.1617556
-0.97283548 -0.67996317 0.94778651
-0.95534712 -0.6679824 0.77062875
-0.94532228 -0.66170114 0.6208812
-0.93655074 -0.65579885 0.48706865
-0.92373145 -0.64705664 0.36273071
-0.91249198 -0.63918066 0.24760097
-0.91217649 -0.63919073 0.1386068
-0.083028734 -0.026653206 8.4889498
-1.1097193 -0.74464852 8.4959478
-1.4560236 -0.98681062 8.4797935
-0.79540086 -0.54479998 3.1292517
-1.0677636 -0.73508281 3.1135259
-1.1118523 -0.76769161 2.5433762
-1.062673 -0.73536235 1.9706287
-1.0317633 -0.71476215 1.5793842
-0.4285945 -0.25859547 8.4952316
-0.76572132 -0.50196898 8.4961119
-1.2368947 -0.84049177 5.7951121
-0.92785579 -0.63499326 3.1117187
-1.1281347 -0.7751711 2.8940251
-1.0795424 -0.74370521 2.2144392
-1.0389421 -0.71679318 1.74614
-1.0134199 -0.7002157 1.4136541
-1.0046833 -0.69858956 1.2823112
-0.98323256 -0.68442684 1.0483608
-0.96259463 -0.67030489 0.85365611
-0.94612277 -0.65931648 0.69020158
-0.94002581 -0.65530545 0.55129004
-0.92494816 -0.64502853 0.4213976
-0.91441464 -0.63815129 0.30317691
-0.91052026 -0.6354304 0.19262739
-0.99402928 -0.68911892 1.15843
-0.97188199 -0.67425931 0.94484335
-0.95413142 -0.66218573 0.76809555
-0.94389898 -0.65580773 0.61878312
-0.93495667 -0.6498307 0.48542514
-0.92199367 -0.64105356 0.36155838
-0.91065174 -0.63316464 0.2469103
-0.91030073 -0.63315004 0.13840528
-0.083121262 -0.02636322 8.4889498
-1.1116651 -0.74033982 8.4910088
-1.4594594 -0.98172218 8.4797935
-0.79606313 -0.54118121 3.1244798
-1.0719361 -0.73245323 3.1181283
-1.1105739 -0.76109833 2.5345981
-1.0605941 -0.72846234 1.9623629
-1.0316108 -0.70934039 1.5755466
-0.42949456 -0.25709781 8.4952316
-0.76746881 -0.49929312 8.4961119
-1.2356522 -0.83335823 5.7757545
-0.9300667 -0.63175052 3.1117187
-1.1272365 -0.76877558 2.8850226
-1.0799789 -0.73846054 2.2101734
-1.0389516 -0.71145988 1.7421501
-1.013062 -0.69475663 1.4099789
-1.0041804 -0.69305271 1.2788066
-0.98241335 -0.67877811 1.0452224
-0.96148866 -0.6645633 0.85091466
-0.94477516 -0.65348995 0.68788278
-0.93849516 -0.64938223 0.54941696
-0.92719406 -0.64179593 0.4213976
-0.91259855 -0.63215834 0.30224431
-0.90863901 -0.62941253 0.19218032
-0.99335271 -0.68352854 1.1551045
-0.97090054 -0.66857034 0.94190019
-0.95288712 -0.65640581 0.76556236
-0.94244617 -0.64993244 0.61668509
-0.93721926 -0.64656311 0.48542514
-0.92022532 -0.63507056 0.36038607
-0.91285634 -0.62998199 0.2469103
-0.91250533 -0.62996864 0.13840528
-0.083170444 -0.026062364 8.4839497
-1.1142426 -0.73645484 8.4910088
-1.4628773 -0.97662169 8.4797935
-0.79670984 -0.5375644 3.1197076
-1.0744864 -0.72870696 3.1181283
-1.1092632 -0.75452334 2.5258198
-1.0608052 -0.72317076 1.9582298
-1.0314331 -0.70392829 1.5717092
-0.4303894 -0.25559703 8.4952316
-0.76965505 -0.49690005 8.5010834
-1.237509 -0.82834089 5.7709146
-0.93226624 -0.6285001 3.1117187
-1.1263075 -0.76239574 2.8760202
-1.078234 -0.73175734 2.2016416
-1.0364444 -0.70444155 1.7341701
-1.0126784 -0.6893087 1.4063038
-1.0036513 -0.68752789 1.2753021
-0.98156667 -0.67314345 1.0420839
-0.96035451 -0.65883768 0.8481732
-0.94705051 -0.65018809 0.68788278
-0.9407562 -0.64610237 0.54941696
-0.92547494 -0.63583916 0.41998756
-0.91075182 -0.62618589 0.30131167
-0.91083062 -0.62623692 0.19218032
-0.99264932 -0.67795122 1.1517791
-0.96989119 -0.66289645 0.93895704
-0.95517254 -0.65307564 0.76556236
-0.94096386 -0.64407521 0.61458701
-0.93557423 -0.64061981 0.48378164
-0.91842645 -0.62910771 0.35921374
-0.91096437 -0.62399328 0.24621962
-0.91469872 -0.62677962 0.13840528
-0.083260916 -0.025771886 8.4839497
-1.1168065 -0.73256093 8.4910088
-1.4662775 -0.9715094 8.4797935
-0.79734099 -0.53394967 3.1149359
-1.0786443 -0.72604263 3.122731
-1.105935 -0.74662679 2.5126526
-1.0609924 -0.71788663 1.9540969
-1.0312302 -0.6985262 1.5678717
-0.43127894 -0.25409314 8.4952316
-0.77138484 -0.49421039 8.5010834
-1.2403929 -0.82401609 5.7709146
-0.93445438 -0.62524205 3.1117187
-1.1235406 -0.75481802 2.8625166
-1.0764554 -0.72507536 2.1931098
-1.0363988 -0.69913435 1.7301799
-1.0122691 -0.68387187 1.4026285
-1.003096 -0.68201536 1.2717975
-0.98069268 -0.66752303 1.0389454
-0.96264845 -0.6554814 0.8481732
-0.9456535 -0.64438391 0.68556398
-0.93917519 -0.64020354 0.54754394
-0.92768878 -0.63260478 0.41998756
-0.9129321 -0.62300295 0.30131167
-0.90889758 -0.62024665 0.19173324
-0.99191898 -0.67238712 1.1484535
-0.96885425 -0.65723789 0.93601388
-0.9538793 -0.64731687 0.76302922
-0.93945223 -0.63823634 0.61248899
-0.93389904 -0.63469583 0.48213813
-0.92061687 -0.625898 0.35921374
-0.9090417 -0.61802548 0.24552894
-0.91688102 -0.62358284 0.13840528
-0.083350368 -0.025481094 8.4839497
-1.1193568 -0.72865808 8.4910088
-1.4688089 -0.96582586 8.4748983
-0.7992 -0.53116322 3.1149359
-1.0827966 -0.72335821 3.1273334
-1.1045549 -0.74009573 2.5038743
-1.0588193 -0.71104133 1.9458311
-1.031002 -0.69313407 1.5640341
-0.43216327 -0.25258616 8.4952316
-0.77310526 -0.49151474 8.5010834
-1.2443112 -0.82037306 5.7757545
-0.9366312 -0.62197644 3.1117187
-1.1225458 -0.74847639 2.853514
-1.0768116 -0.71986407 2.1888437
-1.0363288 -0.69383603 1.7261899
-1.0118341 -0.67844629 1.3989534
-1.0025144 -0.67651492 1.268293
-0.97979134 -0.66191685 1.035807
-0.96146619 -0.64977592 0.84543175
-0.94422776 -0.63859749 0.68324518
-0.94140422 -0.63692123 0.54754394
-0.92591858 -0.62667388 0.41857755
-0.91103405 -0.61705774 0.30037907
-0.90693378 -0.61427748 0.19128615
-0.991162 -0.6668365 1.145128
-0.96778959 -0.65159464 0.93307072
-0.95255756 -0.64157528 0.76049602
-0.94167429 -0.63495314 0.61248899
-0.93610883 -0.63143206 0.48213813
-0.91876686 -0.61996186 0.35804144
-0.90708846 -0.61207867 0.24483825
-0.91491127 -0.61758339 0.13820374
-0.083438806 -0.025189992 8.4839497
-1.1225462 -0.72516787 8.4959478
-1.4721713 -0.96069294 8.4748983
-0.79980302 -0.52754855 3.1101637
-1.0869434 -0.72065353 3.1319361
-1.1031429 -0.73358351 2.4950962
-1.0589532 -0.70578045 1.9416981
-1.0307491 -0.68775219 1.5601966
-0.43304235 -0.25107607 8.4952316
-0.77481622 -0.4888131 8.5010834
-1.2471672 -0.8160246 5.7757545
-0.93879658 -0.61870313 3.1117187
-1.1215206 -0.74215102 2.8445115
-1.0749712 -0.71321744 2.1803117
-1.0337249 -0.68687934 1.7182097
-1.0113739 -0.67303222 1.3952782
-1.0048697 -0.67301142 1.268293
-0.97886294 -0.6563251 1.0326686
-0.96025568 -0.6440866 0.84269029
-0.94645107 -0.6352976 0.68324518
-0.93977296 -0.63104695 0.54567093
-0.92810041 -0.62343806 0.41857755
-0.9091056 -0.61113334 0.29944643
-0.9090724 -0.61110795 0.19128615
-0.9903785 -0.66129935 1.1418025
-0.96669739 -0.64596683 0.93012756
-0.9512074 -0.63585073 0.75796282
-0.94011307 -0.62913811 0.6103909
-0.93438321 -0.62553364 0.48049462
-0.91688669 -0.61404639 0.35686913
-0.9092195 -0.60890865 0.24483825
-0.91706151 -0.61438602 0.13820374
-0.083568707 -0.024908537 8.4889498
-1.1250707 -0.72124499 8.4959478
-1.4755157 -0.95554823 8.4748983
-0.80163968 -0.52475345 3.1101637
-1.0894523 -0.71685499 3.1319361
-1.1016989 -0.72709018 2.4863181
-1.0590633 -0.70052743 1.9375652
-1.030471 -0.68238038 1.5563592
-0.43391612 -0.24956295 8.4952316
-0.77651781 -0.48610553 8.5010834
-1.2521167 -0.81303501 5.7854328
-0.94239491 -0.6163668 3.1164114
-1.1222848 -0.73703682 2.8400104
-1.0752759 -0.70802665 2.1760459
-1.0336007 -0.68160808 1.7142198
-1.0108881 -0.66762954 1.3916031
-1.0042428 -0.66752559 1.2647884
-0.97790754 -0.65074807 1.02953
-0.9590174 -0.63841385 0.83994877
-0.94497627 -0.62953407 0.68092638
-0.93811226 -0.62519181 0.54379785
-0.93027097 -0.62019455 0.41857755
-0.90714711 -0.60523003 0.29851383
-0.90705746 -0.60516715 0.19083907
-0.98956835 -0.65577585 1.138477
-0.96557766 -0.64035457 0.9271844
-0.94982886 -0.6301434 0.75542969
-0.93852288 -0.6233418 0.60829288
-0.93262792 -0.61965507 0.47885111
-0.91497642 -0.60815156 0.3556968
-0.90721512 -0.60298991 0.24414757
-0.91504025 -0.60841501 0.1380022
-0.083655141 -0.024616675 8.4889498
-1.1275815 -0.71731341 8.4959478
-1.4788423 -0.95039189 8.4748983
-0.8034665 -0.52195209 3.1101637
-1.0919479 -0.71304768 3.1319361
-1.1002231 -0.72061592 2.47754
-1.0567971 -0.69373804 1.9292994
-1.0301679 -0.677019 1.5525217
-0.43478462 -0.24804679 8.4952316
-0.77820992 -0.483392 8.5010834
-1.2560037 -0.80934006 5.7902722
-0.94454062 -0.61307347 3.1164114
-1.1230267 -0.7319262 2.8355093
-1.0733742 -0.70141572 2.1675138
-1.0334523 -0.676346 1.7102298
-1.0103769 -0.66223848 1.3879279
-1.0035897 -0.66205245 1.2612839
-0.97692508 -0.64518565 1.0263916
-0.95775115 -0.63275743 0.83720732
-0.94716799 -0.62623167 0.68092638
-0.9402889 -0.62191337 0.54379785
-0.92842948 -0.61429656 0.41716751
-0.90925419 -0.60205978 0.29851383
-0.90501213 -0.59924781 0.19039199
-0.98873174 -0.65026599 1.1351515
-0.96780705 -0.63698018 0.9271844
-0.94842225 -0.62445366 0.75289649
-0.94069302 -0.62006193 0.60829288
-0.93084288 -0.61379635 0.4772076
-0.91303629 -0.60227764 0.35452449
-0.90931445 -0.59981948 0.24414757
-0.90881866 -0.59971392 0.13759914
-0.083740562 -0.024324516 8.4889498
-1.1300784 -0.71337306 8.4959478
-1.4821507 -0.94522399 8.4748983
-0.80528355 -0.51914424 3.1101637
-1.0944303 -0.70923173 3.1319361
-1.0987153 -0.7141608 2.4687617
-1.0568544 -0.68850893 1.9251662
-1.0271554 -0.66991723 1.5448467
-0.43564782 -0.2465276 8.4952316
-0.77943856 -0.48039311 8.4961119
-1.2588212 -0.80495089 5.7902722
-0.946675 -0.60977268 3.1164114
-1.1237469 -0.72681957 2.8310082
-1.0736278 -0.69624585 2.1632481
-1.0307525 -0.66945225 1.7022496
-1.0098405 -0.65685922 1.3842528
-1.002911 -0.65659189 1.2577794
-0.97591579 -0.63963807 1.0232532
-0.95995402 -0.62941039 0.83720732
-0.94564444 -0.6204915 0.67860758
-0.93857843 -0.6160835 0.54192483
-0.93056816 -0.61105204 0.41716751
-0.90724498 -0.59618455 0.2975812
-0.90293652 -0.59335029 0.18994491
-0.98786885 -0.64477009 1.131826
-0.96664059 -0.63138777 0.92424124
-0.94698739 -0.61878121 0.75036329
-0.9390536 -0.61429006 0.60619479
-0.92902845 -0.60795766 0.47556409
-0.91106647 -0.59642464 0.35335216
-0.90725946 -0.59392941 0.24345689
-0.90672708 -0.59380084 0.13739762
-0.083824962 -0.02403206 8.4889498
-1.1325618 -0.70942402 8.4959478
-1.4854412 -0.94004452 8.4748983
-0.80709076 -0.51633012 3.1101637
-1.0952561 -0.70435065 3.1273334
-1.0971762 -0.70772505 2.4599836
-1.0545247 -0.68176025 1.9169004
-1.0267967 -0.66458625 1.5410092
-0.43675774 -0.24514619 8.5002232
-0.78111064 -0.47766942 8.4961119
-1.2616234 -0.80055183 5.7902722
-0.9487977 -0.60646445 3.1164114
-1.1244448 -0.72171676 2.8265069
-1.0716652 -0.6896714 2.1547163
-1.0305504 -0.66421783 1.6982597
-1.0092789 -0.65149176 1.3805776
-1.0022062 -0.65114427 1.2542748
-0.97161674 -0.6319831 1.0169762
-0.9586404 -0.6237753 0.83446586
-0.94780463 -0.61718678 0.67860758
-0.93683869 -0.61027312 0.54005182
-0.93269539 -0.60779995 0.41716751
-0.90520579 -0.59033066 0.29664856
-0.90500224 -0.59019482 0.18994491
-0.9869796 -0.63928813 1.1285006
-0.96883857 -0.62800968 0.92424124
-0.94552469 -0.61312658 0.74783015
-0.93738526 -0.6085372 0.60409671
-0.92718458 -0.60213917 0.47392058
-0.9090668 -0.5905928 0.35217986
-0.90932715 -0.59075886 0.24345689
-0.90460527 -0.58790976 0.13719608
-0.083908334 -0.023739308 8.4889498
-1.1350311 -0.70546627 8.4959478
-1.4887135 -0.93485367 8.4748983
-0.81014854 -0.51430959 3.1149359
-1.097708 -0.7005232 3.1273334
-1.0956055 -0.70130879 2.4512055
-1.0545295 -0.67655575 1.9127675
-1.0237164 -0.65753388 1.5333341
-0.43761081 -0.24362013 8.5002232
-0.78277332 -0.47493994 8.4961119
-1.2644101 -0.79614305 5.7902722
-0.9509089 -0.60314882 3.1164114
-1.1251211 -0.71661806 2.8220057
-1.0718678 -0.68452275 2.1504502
-1.030324 -0.65899307 1.6942697
-1.008692 -0.64613622 1.3769025
-1.0014756 -0.64570957 1.2507702
-0.97054666 -0.626477 1.0138377
-0.95729917 -0.61815709 0.83172441
-0.94623256 -0.61147034 0.67628878
-0.93896317 -0.60699922 0.54005182
-0.93078327 -0.60193563 0.41575748
-0.90726095 -0.58716732 0.29664856
-0.90705693 -0.5870322 0.18994491
-0.9860642 -0.63382024 1.125175
-0.96762538 -0.62243736 0.92129809
-0.94765908 -0.60982239 0.74783015
-0.93950379 -0.60526139 0.60409671
-0.92928076 -0.59889901 0.47392058
-0.90703762 -0.58478224 0.35100752
-0.90722167 -0.58489782 0.2427662
-0.90665197 -0.58474851 0.13719608
-0.083990693 -0.023446269 8.4889498
-1.1368253 -0.70109224 8.4910088
-1.4919677 -0.92965138 8.4748983
-0.81193894 -0.51147842 3.1149359
-1.0984961 -0.69564211 3.122731
-1.0940036 -0.69491214 2.4424274
-1.0545108 -0.67135948 1.9086344
-1.0233023 -0.65223378 1.5294967
-0.4384585 -0.24209109 8.5002232
-0.78396958 -0.47192994 8.4911394
-1.2650495 -0.79039288 5.7805939
-0.95154786 -0.59890682 3.1117187
-1.1276157 -0.71268618 2.8220057
-1.0698448 -0.67798525 2.1419184
-1.030074 -0.65377802 1.6902797
-1.0052191 -0.63897425 1.3695521
-1.0007194 -0.64028794 1.2472657
-0.96944988 -0.62098593 1.0106993
-0.95945114 -0.61481166 0.83172441
-0.94836122 -0.60816365 0.67628878
-0.93717432 -0.60121483 0.5381788
-0.93287873 -0.59868294 0.41575748
-0.90930504 -0.58399677 0.29664856
-0.90910053 -0.58386236 0.18994491
-0.98512268 -0.62836659 1.1218495
-0.96638507 -0.61688119 0.91835493
-0.94614869 -0.60419071 0.74529696
-0.93778688 -0.59953368 0.60199869
-0.92738748 -0.59310746 0.47227708
-0.90907329 -0.58161247 0.35100752
-0.90925771 -0.58172745 0.2427662
-0.90447968 -0.57888699 0.13699456
-0.084072024 -0.023152944 8.4889498
-1.1392657 -0.69711971 8.4910088
-1.4952036 -0.92443776 8.4748983
-0.81498528 -0.50943214 3.1197076
-1.1009176 -0.69180334 3.122731
-1.09237 -0.68853515 2.4336493
-1.0520896 -0.66466868 1.9003686
-1.020155 -0.64523143 1.5218216
-0.43930089 -0.24055912 8.5002232
-0.78561217 -0.46919048 8.4911394
-1.2667322 -0.78530997 5.7757545
-0.95363265 -0.59558165 3.1117187
-1.1282521 -0.70758927 2.8175044
-1.0699971 -0.67285854 2.1376524
-1.0298001 -0.64857268 1.6862897
-1.0045758 -0.63365287 1.3658769
-0.99993759 -0.63487947 1.2437612
-0.97161168 -0.61759818 1.0106993
-0.95806277 -0.6092152 0.82898289
-0.94674104 -0.60247135 0.67396998
-0.93926722 -0.59793979 0.5381788
-0.93091655 -0.59284621 0.41434744
-0.90719545 -0.57817912 0.29571593
-0.91113299 -0.5806855 0.18994491
-0.984155 -0.62292725 1.1185241
-0.96511781 -0.6113413 0.91541177
-0.94825196 -0.60088432 0.74529696
-0.93604147 -0.59382528 0.5999006
-0.92945218 -0.58986664 0.47227708
-0.90699446 -0.57583052 0.34983522
-0.90710211 -0.57589585 0.24207552
-0.90649492 -0.57572621 0.13699456
-0.084152326 -0.022859337 8.4889498
-1.1410279 -0.69273561 8.4860697
-1.4975535 -0.91868061 8.4700031
-0.81675851 -0.50658423 3.1197076
-1.1049836 -0.68898982 3.1273334
-1.0907056 -0.6821782 2.424871
-1.0496347 -0.65800315 1.8921027
-1.019686 -0.63996273 1.517984
-0.44013792 -0.23902421 8.5002232
-0.78724509 -0.46644536 8.4911394
-1.2683951 -0.78022504 5.7709146
-0.95570582 -0.59224921 3.1117187
-1.1288669 -0.70249659 2.8130033
-1.0701265 -0.66773891 2.1333864
-1.0295024 -0.6433773 1.6822997
-1.0039078 -0.62834394 1.3622017
-0.99913025 -0.62948424 1.2402567
-0.97046936 -0.61212641 1.0075608
-0.9601835 -0.60586721 0.82898289
-0.94509268 -0.59679782 0.67165118
-0.93742919 -0.59218162 0.53630573
-0.92892516 -0.58703047 0.4129374
-0.90920818 -0.57500893 0.29571593
-0.9089455 -0.57483977 0.18949783
-0.98316151 -0.61750233 1.1151985
-0.9638238 -0.60581779 0.91246861
-0.95034367 -0.59757066 0.74529696
-0.9342677 -0.58813643 0.59780258
-0.93150556 -0.58661866 0.47227708
-0.90899897 -0.57266104 0.34983522
-0.90910685 -0.57272595 0.24207552
-0.90427238 -0.56989473 0.13679302
-0.084274359 -0.022574218 8.4939499
-1.1427734 -0.68834764 8.4811296
-1.500751 -0.91344756 8.4700031
-0.81852186 -0.50373012 3.1197076
-1.1073818 -0.68512845 3.1273334
-1.0890102 -0.67584127 2.4160929
-1.0495356 -0.65284896 1.8879696
-1.0191928 -0.63470525 1.5141466
-0.44071513 -0.23735 8.4952316
-0.78886855 -0.46369451 8.4911394
-1.2711109 -0.77579278 5.7709146
-0.95629722 -0.58800584 3.1070261
-1.1294599 -0.6974082 2.808502
-1.0702333 -0.66262662 2.1291206
-1.0291809 -0.63819188 1.6783097
-1.003215 -0.62304723 1.3585266
-0.99829745 -0.62410241 1.236752
-0.96930075 -0.60667026 1.0044224
-0.95874834 -0.60029292 0.82624143
-0.9434163 -0.59114319 0.66933239
-0.93949062 -0.58890581 0.53630573
-0.92690444 -0.58123589 0.4115274
-0.907049 -0.56922054 0.29478332
-0.91094655 -0.57166338 0.18949783
-0.98531103 -0.61406672 1.1151985
-0.96250296 -0.60031074 0.90952545
-0.94876647 -0.59196794 0.74276382
-0.93246579 -0.58246732 0.5957045
-0.92954302 -0.58086121 0.47063357
-0.90687072 -0.566908 0.34866288
-0.90690136 -0.56692415 0.24138485
-0.90202034 -0.5640859 0.13659149
-0.084395416 -0.022288524 8.49895
-1.1451691 -0.68435442 8.4811296
-1.5030589 -0.90767723 8.4651089
-0.82027525 -0.50086987 3.1197076
-1.1097666 -0.68125886 3.1273334
-1.0872838 -0.66952449 2.4073148
-1.0494134 -0.64770365 1.8838367
-1.0186753 -0.6294589 1.5103091
-0.44154096 -0.23581018 8.4952316
-0.79048234 -0.46093801 8.4911394
-1.2727357 -0.77070004 5.7660751
-0.95834392 -0.58466417 3.1070261
-1.130031 -0.69232428 2.8040009
-1.0703175 -0.65752172 2.1248546
-1.0288358 -0.63301653 1.6743195
-1.0024976 -0.61776322 1.3548514
-0.99743932 -0.61873418 1.2332475
-0.97141248 -0.60328299 1.0044224
-0.95728606 -0.5947361 0.82349998
-0.94547403 -0.58784646 0.66933239
-0.93760395 -0.58317429 0.53443271
-0.92485464 -0.57546258 0.41011736
-0.90903038 -0.56605095 0.29478332
-0.90870905 -0.56584781 0.18905075
-0.98427278 -0.60865992 1.111873
-0.96115535 -0.59482038 0.9065823
-0.95082706 -0.58865249 0.74276382
-0.93449336 -0.57920885 0.5957045
-0.93156487 -0.57761294 0.47063357
-0.90884405 -0.563739 0.34866288
-0.90887481 -0.56375504 0.24138485
-0.89973879 -0.55829966 0.13638996
-0.084472701 -0.021993794 8.49895
-1.1475511 -0.68035287 8.4811296
-1.5062181 -0.90242505 8.4651089
-0.82329535 -0.49877682 3.1244798
-1.1138065 -0.67839694 3.1319361
-1.0855266 -0.66322798 2.3985367
-1.0468682 -0.64109755 1.8755709
-1.0208664 -0.62589931 1.5103091
-0.44236141 -0.23426747 8.4952316
-0.79208648 -0.45817593 8.4911394
-1.2754182 -0.7662527 5.7660751
-0.95890248 -0.58042192 3.1023331
-1.1305804 -0.68724483 2.7994995
-1.0681522 -0.65106714 2.1163228
-1.0284672 -0.62785143 1.6703296
-1.0017554 -0.61249173 1.3511763
-0.99655586 -0.61337942 1.229743
-0.97019869 -0.59784663 1.0012839
-0.95579678 -0.5891968 0.82075852
-0.94375014 -0.58221686 0.66701359
-0.93568885 -0.57746333 0.53255969
-0.92685777 -0.57223076 0.41011736
-0.90682179 -0.56029236 0.29385069
-0.90644211 -0.56005472 0.18860367
-0.98639148 -0.60522044 1.111873
-0.95978129 -0.58934671 0.90363914
-0.94920278 -0.58307362 0.74023062
-0.93264341 -0.5735659 0.59360647
-0.92955339 -0.57188326 0.46899009
-0.90666682 -0.55801541 0.34749055
-0.90661979 -0.55798346 0.24069417
-0.89742786 -0.55253631 0.13618843
-0.084548965 -0.021698795 8.49895
-1.1499189 -0.67634302 8.4811296
-1.5084838 -0.89664179 8.4602137
-0.8250314 -0.49589995 3.1244798
-1.1161678 -0.67450488 3.1319361
-1.0857869 -0.65819335 2.3941474
-1.0466946 -0.63597834 1.8714379
-1.0203066 -0.62066633 1.5064715
-0.4429206 -0.23258822 8.4902401
-0.79368103 -0.45540825 8.4911394
-1.2780851 -0.76179594 5.7660751
-0.96092272 -0.57707119 3.1023331
-1.1311084 -0.68217015 2.7949984
-1.0681865 -0.64598513 2.112057
-1.0280751 -0.62269664 1.6663395
-1.0038872 -0.60899121 1.3511763
-0.99869084 -0.60989708 1.229743
-0.9689588 -0.59242612 0.99814546
-0.95784765 -0.58585685 0.82075852
-0.94199854 -0.57660639 0.66469479
-0.9376989 -0.5741936 0.53255969
-0.92475897 -0.56648618 0.40870732
-0.90458417 -0.55455619 0.29291809
-0.90839159 -0.55688733 0.18860367
-0.98530871 -0.59983218 1.1085476
-0.95838082 -0.58389002 0.90069598
-0.94755125 -0.57751328 0.73769742
-0.93076557 -0.56794292 0.59150839
-0.92751342 -0.56617475 0.46734658
-0.90860915 -0.55484718 0.34749055
-0.90433556 -0.55223453 0.24000348
-0.89935106 -0.54940033 0.13618843
-0.084624186 -0.021403532 8.49895
-1.152944 -0.67271644 8.4860697
-1.5116044 -0.89137065 8.4602137
-0.82675743 -0.49301702 3.1244798
-1.1201911 -0.67160916 3.1365385
-1.0839728 -0.65193075 2.3853693
-1.044088 -0.62941533 1.8631719
-1.0197226 -0.6154449 1.502634
-0.44372979 -0.23104072 8.4902401
-0.79526579 -0.45263499 8.4911394
-1.2796547 -0.75669038 5.7612362
-0.96144861 -0.57283038 3.0976403
-1.1297463 -0.67598242 2.785996
-1.0659621 -0.63956922 2.1035249
-1.0276595 -0.61755222 1.6623495
-1.0031022 -0.60373527 1.347501
-0.99776357 -0.6045593 1.2262385
-0.96769291 -0.58702159 0.99500704
-0.95631206 -0.58034056 0.81801701
-0.94400555 -0.57331473 0.66469479
-0.93573534 -0.56850994 0.53068668
-0.92673081 -0.56325477 0.40870732
-0.90231758 -0.54884255 0.29198545
-0.90607518 -0.55112511 0.18815659
-0.98420048 -0.59445888 1.105222
-0.95695388 -0.5784502 0.89775282
-0.94587255 -0.57197171 0.73516428
-0.93274242 -0.56469053 0.59150839
-0.92544484 -0.56048745 0.46570307
-0.90638328 -0.54915357 0.34631824
-0.90202242 -0.54650849 0.23931281
-0.89699095 -0.54366815 0.13598689
-0.084655501 -0.02109999 8.4939499
-1.1552852 -0.66868782 8.4860697
-1.5147067 -0.88608879 8.4602137
-0.82847333 -0.4901281 3.1244798
-1.1242077 -0.66869342 3.1411412
-1.0841852 -0.64691597 2.3809803
-1.0438637 -0.62432277 1.8590392
-1.0191147 -0.61023521 1.4987966
-0.44453356 -0.2294904 8.4902401
-0.79684097 -0.44985625 8.4911394
-1.2812039 -0.75158304 5.7563968
-0.96344239 -0.56947076 3.0976403
-1.1302271 -0.67092365 2.7814946
-1.0659469 -0.63451058 2.0992589
-1.0246325 -0.61087549 1.6543695
-1.0052035 -0.60023004 1.347501
-0.99681121 -0.59923553 1.2227339
-0.9697361 -0.58364016 0.99500704
-0.9547497 -0.57484215 0.81527555
-0.94220668 -0.56772983 0.66237599
-0.93771416 -0.56524009 0.53068668
-0.92869133 -0.56001645 0.40870732
-0.90422797 -0.54568952 0.29198545
-0.9079935 -0.54795891 0.18815659
-0.98306674 -0.58910066 1.1018965
-0.95896727 -0.57510632 0.89775282
-0.94416666 -0.56644887 0.73263109
-0.93081713 -0.55909437 0.58941036
-0.92334801 -0.55482155 0.46405956
-0.90829468 -0.54598635 0.34631824
-0.89968026 -0.54080528 0.23862213
-0.89888322 -0.54053372 0.13598689
-0.084728636 -0.020804359 8.4939499
-1.1576123 -0.66465104 8.4860697
-1.5186712 -0.88130701 8.4651089
-0.82889169 -0.48647782 3.1197076
-1.1265351 -0.66476518 3.1411412
-1.0843756 -0.64190769 2.3765912
-1.0436165 -0.61923933 1.8549061
-1.0184828 -0.60503715 1.494959
-0.44533193 -0.2279373 8.4902401
-0.79840642 -0.447072 8.4911394
-1.2838196 -0.74710619 5.7563968
-0.9654243 -0.56610429 3.0976403
-1.1269344 -0.66366065 2.7679911
-1.0636637 -0.62813377 2.0907271
-1.0241649 -0.60576123 1.6503794
-1.0043758 -0.59498984 1.3438259
-0.99583405 -0.59392577 1.2192293
-0.96842551 -0.57825619 0.99186856
-0.95316058 -0.56936169 0.81253409
-0.94038045 -0.56216455 0.66005719
-0.93570274 -0.55958408 0.5288136
-0.9306404 -0.55677128 0.40870732
-0.90191263 -0.54000646 0.29105285
-0.90562803 -0.54222798 0.18770951
-0.98190761 -0.58375758 1.0985711
-0.95749515 -0.56968868 0.89480966
-0.94243395 -0.56094497 0.73009789
-0.93276304 -0.55584174 0.58941036
-0.92122298 -0.54917717 0.46241605
-0.91019499 -0.54281253 0.34631824
-0.90156257 -0.53766149 0.23862213
-0.89647418 -0.53483307 0.13578537
-0.08475779 -0.020500753 8.4889498
-1.1599253 -0.66060615 8.4860697
-1.5217382 -0.87600046 8.4651089
-0.83058476 -0.48358145 3.1197076
-1.1305346 -0.66181552 3.1457434
-1.0845445 -0.63690591 2.3722022
-1.0409213 -0.61273783 1.8466402
-1.0178273 -0.59985101 1.4911215
-0.44612488 -0.22638141 8.4902401
-0.7999621 -0.44428232 8.4911394
-1.2842423 -0.7413637 5.7467175
-0.96739453 -0.56273085 3.0976403
-1.1254846 -0.65752685 2.7589886
-1.0635996 -0.62309891 2.0864613
-1.0236742 -0.60065776 1.6463894
-1.0035237 -0.58976275 1.3401507
-0.99483174 -0.58863008 1.2157247
-0.9670893 -0.57288855 0.98873013
-0.951545 -0.56389946 0.80979264
-0.94233704 -0.5588786 0.66005719
-0.93765038 -0.55631447 0.5288136
-0.92845309 -0.55107099 0.40729728
-0.90379214 -0.53685486 0.29105285
-0.90751523 -0.53906339 0.18770951
-0.9807232 -0.57842982 1.0952456
-0.95599699 -0.56428844 0.89186651
-0.94438624 -0.55765188 0.73009789
-0.93079078 -0.55027282 0.58731234
-0.92313433 -0.54595816 0.46241605
-0.91208422 -0.53963202 0.34631824
-0.89917189 -0.53198963 0.23793145
-0.89833558 -0.53170061 0.13578537
-0.084828831 -0.020204768 8.4889498
-1.1622242 -0.65655327 8.4860697
-1.5247868 -0.87068325 8.4651089
-0.830975 -0.4799329 3.1149359
-1.132838 -0.65786523 3.1457434
-1.0846915 -0.63191074 2.3678129
-1.0406238 -0.60768175 1.8425074
-1.0171478 -0.59467691 1.4872841
-0.44691235 -0.22482276 8.4902401
-0.80150807 -0.44148722 8.4911394
-1.2857316 -0.73625189 5.7418785
-0.9693529 -0.55935061 3.0976403
-1.1240058 -0.65141129 2.7499864
-1.0635132 -0.61807215 2.0821953
-1.0205561 -0.59404927 1.6384094
-1.0026474 -0.58454877 1.3364756
-0.99688041 -0.58515388 1.2157247
-0.96572733 -0.56753731 0.98559165
-0.95350754 -0.56057447 0.80979264
-0.94046402 -0.55333942 0.65773833
-0.93559128 -0.55068654 0.52694058
-0.93037099 -0.54782665 0.40729728
-0.90566063 -0.53369677 0.29105285
-0.90510094 -0.533364 0.18726245
-0.97951359 -0.57311743 1.09192
-0.9579609 -0.56094795 0.89186651
-0.9426074 -0.55217308 0.72756475
-0.93270588 -0.54702044 0.58731234
-0.9209615 -0.54034287 0.46077254
-0.90977043 -0.5339846 0.34514591
-0.90102339 -0.52884769 0.23793145
-0.90018606 -0.52856153 0.13578537
-0.084898844 -0.019908538 8.4889498
-1.1645089 -0.65249234 8.4860697
-1.5278167 -0.86535549 8.4651089
-0.83134985 -0.47628748 3.1101637
-1.1334345 -0.65293181 3.1411412
-1.0827433 -0.6257242 2.3590348
-1.0403036 -0.6026352 1.8383743
-1.0164447 -0.58951485 1.4834466
-0.44769442 -0.22326137 8.4902401
-0.80304426 -0.43868676 8.4911394
-1.2872006 -0.73113865 5.7370391
-0.97279727 -0.55682063 3.1023331
-1.122498 -0.6453141 2.7409837
-1.0611451 -0.6117512 2.0736635
-1.0200139 -0.58897668 1.6344193
-1.001747 -0.57934821 1.3328004
-0.99583495 -0.57987612 1.2122202
-0.96770251 -0.56416285 0.98559165
-0.95184648 -0.55513626 0.80705118
-0.94238979 -0.55005324 0.65773833
-0.93750787 -0.54741734 0.52694058
-0.92813534 -0.54215616 0.40588725
-0.90751803 -0.53053224 0.29105285
-0.90265799 -0.52768815 0.18681537
-0.98150814 -0.56969488 1.09192
-0.95641798 -0.55557048 0.88892335
-0.94452912 -0.54887938 0.72756475
-0.93068671 -0.54147899 0.58521426
-0.91876084 -0.53474945 0.45912904
-0.91162878 -0.53080565 0.34514591
-0.89858437 -0.5232076 0.23724076
-0.89770877 -0.52290159 0.13558383
-0.084967822 -0.019612065 8.4889498
-1.1674588 -0.64880073 8.4910088
-1.5308281 -0.86001712 8.4651089
-0.83300734 -0.47338262 3.1101637
-1.1357068 -0.64897144 3.1411412
-1.0828431 -0.62075001 2.3546457
-1.037521 -0.59619641 1.8301084
-1.0157179 -0.58436489 1.479609
-0.44873008 -0.22182468 8.4952316
-0.80457067 -0.43588093 8.4911394
-1.2886497 -0.72602421 5.7321992
-0.97473502 -0.5534215 3.1023331
-1.1209614 -0.63923544 2.7319813
-1.0610099 -0.60674882 2.0693977
-1.0194489 -0.58391505 1.6304293
-1.0008225 -0.57416105 1.3291253
-0.9947648 -0.5746128 1.2087157
-0.96629643 -0.558833 0.98245323
-0.95015901 -0.54971641 0.80430973
-0.94047046 -0.54454076 0.65541953
-0.93540138 -0.54181796 0.52506757
-0.92587167 -0.53650808 0.40447721
-0.90511495 -0.52489686 0.29012021
-0.90018642 -0.52203578 0.18636829
-0.98025489 -0.56440228 1.0885946
-0.95835143 -0.55222857 0.88892335
-0.9427045 -0.54342628 0.72503155
-0.93257117 -0.53822702 0.58521426
-0.92062187 -0.53153914 0.45912904
-0.90926707 -0.52518922 0.34397361
-0.90040523 -0.52006775 0.23724076
-0.89952856 -0.51976484 0.13558383
-0.085035764 -0.019315353 8.4889498
-1.1697164 -0.64472157 8.4910088
-1.5338207 -0.85466826 8.4651089
-0.83335429 -0.46973926 3.1053917
-1.1362656 -0.64403993 3.1365385
-1.0808393 -0.61459899 2.3458676
-1.037151 -0.59117776 1.8259755
-1.0149677 -0.57922733 1.4757715
-0.44950166 -0.22025697 8.4952316
-0.80608732 -0.4330698 8.4911394
-1.2900788 -0.72090852 5.7273598
-0.97816461 -0.55086231 3.1070261
-1.1193962 -0.63317531 2.7229788
-1.0608529 -0.60175484 2.0651317
-1.016241 -0.57737625 1.6224493
-0.999874 -0.56898743 1.3254501
-0.99367023 -0.56936401 1.2052112
-0.96486503 -0.55351985 0.97931474
-0.95207208 -0.54639637 0.80430973
-0.94236559 -0.54125458 0.65541953
-0.9332673 -0.53623992 0.52319455
-0.92773879 -0.53327292 0.40447721
-0.90694171 -0.52173424 0.29012021
-0.89768654 -0.51640713 0.18592121
-0.97897679 -0.55912548 1.0852691
-0.95676404 -0.54687428 0.88598019
-0.94459563 -0.54013228 0.72503155
-0.93050557 -0.53271365 0.58311623
-0.91837394 -0.52597558 0.45748553
-0.90687734 -0.51959568 0.3428013
-0.90221518 -0.51692158 0.23724076
-0.897003 -0.51413739 0.13538231
-0.08510267 -0.019018404 8.4889498
-1.1719596 -0.6406346 8.4910088
-1.5367948 -0.84930909 8.4651089
-0.83498895 -0.46682745 3.1053917
-1.1385068 -0.64006966 3.1365385
-1.0808918 -0.60964596 2.3414786
-1.0392082 -0.5875538 1.8259755
-1.0141939 -0.57410204 1.4719341
-0.45026776 -0.21868657 8.4952316
-0.80759406 -0.43025339 8.4911394
-1.2914879 -0.7157917 5.7225208
-0.9800815 -0.54744452 3.1070261
-1.1197009 -0.6281991 2.7184777
-1.060674 -0.59676945 2.0608656
-1.015625 -0.57234615 1.6184592
-0.99890172 -0.56382751 1.321775
-0.99255115 -0.56413001 1.2017065
-0.96340829 -0.54822356 0.97617632
-0.95033967 -0.5410012 0.80156827
-0.94040018 -0.5357691 0.65310073
-0.93110573 -0.53068346 0.52132148
-0.92542732 -0.52765524 0.4030672
-0.90449083 -0.51613069 0.28918761
-0.89515829 -0.51080239 0.18547413
-0.98092246 -0.55570483 1.0852691
-0.95866716 -0.54353118 0.88598019
-0.94272566 -0.5347051 0.72249836
-0.9284128 -0.52722126 0.58101815
-0.9202044 -0.52276665 0.45748553
-0.90868551 -0.51642692 0.3428013
-0.89970863 -0.51132232 0.23655009
-0.89879215 -0.51100314 0.13538231
-0.085168533 -0.018721225 8.4889498
-1.1735055 -0.63616967 8.4860697
-1.5397501 -0.84393948 8.4651089
-0.83661336 -0.46390995 3.1053917
-1.1390277 -0.63514036 3.1319361
-1.0788329 -0.60353088 2.3327003
-1.0387983 -0.58254641 1.8218426
-1.0133969 -0.56898928 1.4680965
-0.45128876 -0.2172382 8.5002232
-0.8086195 -0.42718294 8.4861679
-1.2928771 -0.71067387 5.7176814
-0.98349607 -0.54485613 3.1117187
-1.1180823 -0.62216997 2.7094753
-1.0581955 -0.59052181 2.0523336
-1.0149864 -0.56732744 1.6144693
-0.99790555 -0.55868125 1.3180997
-0.99140763 -0.55891067 1.198202
-0.96531606 -0.54485726 0.97617632
-0.95222235 -0.53768057 0.80156827
-0.94226468 -0.53248322 0.65310073
-0.92891675 -0.52514857 0.51944846
-0.9272635 -0.52442163 0.4030672
-0.90628695 -0.51297027 0.28918761
-0.89693588 -0.50767457 0.18547413
-0.97960114 -0.55044842 1.0819435
-0.9570353 -0.53820026 0.88303697
-0.94082922 -0.52929753 0.71996522
-0.93024749 -0.52397734 0.58101815
-0.9179095 -0.51723319 0.45584202
-0.90624845 -0.51086503 0.34162897
-0.90148801 -0.50817865 0.23655009
-0.89621872 -0.50540859 0.13518077
-0.085233368 -0.018423816 8.4889498
-1.1757191 -0.63206947 8.4860697
-1.541792 -0.83807343 8.4602137
-0.83953559 -0.46170589 3.1101637
-1.1429476 -0.63210589 3.1365385
-1.0767443 -0.59743768 2.3239222
-1.0383662 -0.5775491 1.8177097
-1.0125763 -0.56388909 1.464259
-0.45204431 -0.21566159 8.5002232
-0.81010574 -0.42435774 8.4861679
-1.2942461 -0.70555502 5.7128415
-0.98841697 -0.54308146 3.1211042
-1.1164352 -0.61615986 2.7004728
-1.0579684 -0.58556157 2.0480678
-1.014325 -0.56232017 1.6104792
-0.99688566 -0.55354887 1.3144246
-0.9902398 -0.55370623 1.1946975
-0.96381575 -0.53958309 0.97303784
-0.95044512 -0.53231031 0.79882681
-0.94025338 -0.52702498 0.65078193
-0.93074423 -0.52190292 0.51944846
-0.92490458 -0.51883483 0.40165716
-0.90378863 -0.5073989 0.28825498
-0.89436013 -0.50210273 0.18502705
-0.97825515 -0.54520804 1.078618
-0.95537806 -0.53288746 0.88009381
-0.93890667 -0.52390981 0.71743202
-0.92810863 -0.51851344 0.57892013
-0.91970938 -0.51402593 0.45584202
-0.90378362 -0.50532645 0.34045666
-0.90325642 -0.50502872 0.23655009
-0.89361727 -0.49983826 0.13497925
-0.08529716 -0.018126184 8.4889498
-1.1779183 -0.62796158 8.4860697
-1.544708 -0.83268648 8.4602137
-0.84114218 -0.45877254 3.1101637
-1.1451471 -0.62811244 3.1365385
-1.0767249 -0.59252095 2.3195331
-1.0379118 -0.57256192 1.8135767
-1.0117328 -0.55880159 1.4604216
-0.45279434 -0.21408235 8.5002232
-0.81158209 -0.42152736 8.4861679
-1.2955953 -0.70043528 5.7080021
-0.99182206 -0.54045343 3.125797
-1.1147598 -0.61016881 2.6914704
-1.0577196 -0.58061022 2.0438018
-1.0136412 -0.55732447 1.6064892
-0.99584222 -0.54843044 1.3107494
-0.98904771 -0.54851675 1.191193
-0.96229041 -0.53432608 0.96989942
-0.94864208 -0.52695894 0.7960853
-0.93821555 -0.52158737 0.64846313
-0.92850888 -0.51639766 0.51757544
-0.92251807 -0.51327085 0.4002471
-0.90555429 -0.50424099 0.28825498
-0.89610732 -0.49897775 0.18502705
-0.97688448 -0.53998381 1.0752926
-0.95369548 -0.5275929 0.87715065
-0.93695796 -0.51854187 0.71489882
-0.92991298 -0.51527059 0.57892013
-0.91736799 -0.50852311 0.45419851
-0.90554202 -0.5021686 0.34045666
-0.90068299 -0.49947116 0.23585941
-0.8953566 -0.4967159 0.13497925
-0.085359909 -0.01782833 8.4889498
-1.1794162 -0.62348306 8.4811296
-1.5467072 -0.82680947 8.4553185
-0.84273845 -0.45583361 3.1101637
-1.1456163 -0.62317789 3.1319361
-1.0745819 -0.58646452 2.3107548
-1.0374353 -0.56758493 1.8094438
-1.0108659 -0.55372685 1.4565841
-0.45353886 -0.2125005 8.5002232
-0.81257451 -0.41844803 8.4811964
-1.2980324 -0.69590861 5.7080021
-0.99673909 -0.53862852 3.1351826
-1.1149696 -0.60523546 2.6869693
-1.0574493 -0.57566774 2.039536
-1.0129349 -0.55234039 1.6024991
-0.99477512 -0.54332602 1.3070743
-0.98783153 -0.54334241 1.1876884
-0.96074015 -0.52908629 0.96676093
-0.94681323 -0.52162677 0.79334384
-0.94003046 -0.51830918 0.64846313
-0.93030578 -0.51315343 0.51757544
-0.92010397 -0.50772995 0.39883706
-0.90300882 -0.49870217 0.28732237
-0.89348429 -0.49343923 0.18457997
-0.9754892 -0.53477579 1.071967
-0.95198756 -0.52231646 0.8742075
-0.93876231 -0.51526815 0.71489882
-0.92772835 -0.50983572 0.57682204
-0.91499937 -0.50304282 0.452555
-0.90303051 -0.49666229 0.33928433
-0.902421 -0.49632412 0.23585941
-0.89270788 -0.4911792 0.13477771
-0.085378438 -0.017524045 8.4839497
-1.1815853 -0.61936235 8.4811296
-1.5495838 -0.82140535 8.4553185
-0.84432447 -0.45288914 3.1101637
-1.1477846 -0.61917508 3.1319361
-1.0745162 -0.58157015 2.306366
-1.0369368 -0.56261826 1.8053107
-1.0099761 -0.54866499 1.4527465
-0.45427787 -0.21091606 8.5002232
-0.81403029 -0.41560903 8.4811964
-1.2993437 -0.69078344 5.7031631
-1.0001343 -0.53596091 3.1398752
-1.1151586 -0.60030812 2.6824682
-1.0571573 -0.57073414 2.03527
-1.0148568 -0.54880118 1.6024991
-0.99368459 -0.53823572 1.3033991
-0.98972213 -0.53989094 1.1876884
-0.9625811 -0.52572948 0.96676093
-0.94495887 -0.51631379 0.79060239
-0.93794733 -0.51289946 0.64614433
-0.92802423 -0.50767803 0.51570243
-0.92187071 -0.50451505 0.39883706
-0.90474409 -0.49554706 0.28732237
-0.89520127 -0.49031737 0.18457997
-0.97734994 -0.53136742 1.071967
-0.95380497 -0.51899022 0.8742075
-0.93676895 -0.50992721 0.71236569
-0.92950243 -0.50659424 0.57682204
-0.91674972 -0.4998458 0.452555
-0.90475869 -0.49350712 0.33928433
-0.8998006 -0.49079981 0.23516873
-0.8900314 -0.48566702 0.13457619
-0.085439086 -0.017225912 8.4839497
-1.1837401 -0.61523408 8.4811296
-1.5515403 -0.81551772 8.4504232
-0.84721822 -0.45063993 3.1149359
-1.1482162 -0.61424345 3.1273334
-1.072319 -0.57555079 2.2975879
-1.0364163 -0.55766207 1.8011779
-1.0090634 -0.54361612 1.448909
-0.45501134 -0.20932904 8.5002232
-0.81547606 -0.41276503 8.4811964
-1.3017471 -0.68624371 5.7031631
-1.0050471 -0.53408575 3.1492608
-1.1153266 -0.59538674 2.6779668
-1.0568438 -0.56580973 2.0310042
-1.0141107 -0.54383141 1.5985092
-0.99257076 -0.53315979 1.299724
-0.98846394 -0.5347361 1.1841838
-0.96098781 -0.52051258 0.96362251
-0.94675535 -0.51301217 0.79060239
-0.93973196 -0.50962228 0.64614433
-0.92979074 -0.50443554 0.51570243
-0.91941011 -0.49900588 0.39742702
-0.90215182 -0.4900412 0.28638974
-0.89253128 -0.48481256 0.18413289
-0.97591227 -0.52618074 1.0686415
-0.95205355 -0.51373827 0.87126434
-0.9385432 -0.50665414 0.71236569
-0.92727238 -0.50118864 0.57472402
-0.91433501 -0.49439672 0.45091146
-0.90220058 -0.48803329 0.33811203
-0.90150833 -0.48765591 0.23516873
-0.89172131 -0.48255724 0.13457619
-0.085498698 -0.016927568 8.4839497
-1.1858804 -0.61109829 8.4811296
-1.5543776 -0.81009692 8.4504232
-0.85010648 -0.44837603 3.1197076
-1.1469015 -0.60840094 3.1181283
-1.0722072 -0.57067907 2.2931986
-1.0358737 -0.55271631 1.7970449
-1.0109547 -0.54009056 1.448909
-0.45600218 -0.2078587 8.5052147
-0.81738842 -0.41015482 8.4861679
-1.3019066 -0.6805312 5.6934838
-1.0053784 -0.52976996 3.1445682
-1.1135499 -0.58945328 2.6689644
-1.0565087 -0.56089437 2.0267382
-1.0133423 -0.53887355 1.5945191
-0.99143356 -0.52809817 1.2960488
-0.98718178 -0.52959669 1.1806793
-0.96279889 -0.51715493 0.96362251
-0.94485694 -0.507725 0.78786093
-0.93760365 -0.50424081 0.64382553
-0.92746323 -0.49899051 0.51382935
-0.92114633 -0.49579352 0.39742702
-0.90385687 -0.48688909 0.28638974
-0.88983381 -0.47933239 0.18368581
-0.97445035 -0.52101058 1.065316
-0.95384103 -0.51041186 0.87126434
-0.94030601 -0.50337493 0.71236569
-0.92501599 -0.49580482 0.57262594
-0.9160552 -0.49120206 0.45091146
-0.90389866 -0.48488107 0.33811203
-0.8988412 -0.48216522 0.23447806
-0.88899821 -0.47707924 0.13437465
-0.085557267 -0.01662902 8.4839497
-1.1880063 -0.60695511 8.4811296
-1.5571958 -0.80466616 8.4504232
-0.85431206 -0.446789 3.1292517
-1.1490182 -0.60439378 3.1181283
-1.0720747 -0.56581515 2.2888095
-1.0328219 -0.54646522 1.788779
-1.0100014 -0.53505802 1.4450716
-0.45672497 -0.2062657 8.5052147
-0.81881511 -0.4072991 8.4861679
-1.3065063 -0.67713916 5.7031631
-1.005692 -0.52545834 3.1398752
-1.1136732 -0.5845511 2.6644633
-1.0561523 -0.55598831 2.0224721
-1.0125517 -0.53392774 1.5905291
-0.99027306 -0.5230509 1.2923737
-0.98587596 -0.52447277 1.1771748
-0.96116287 -0.51196122 0.96048403
-0.94662344 -0.5044238 0.78786093
-0.9354493 -0.49888048 0.64150673
-0.9291994 -0.49574998 0.51382935
-0.92287135 -0.49257511 0.39742702
-0.9055509 -0.48373112 0.28638974
-0.89150161 -0.47622341 0.18368581
-0.97296423 -0.5158571 1.0619905
-0.95204633 -0.50518471 0.86832118
-0.93824971 -0.49806842 0.70983243
-0.926741 -0.49257284 0.57262594
-0.91776425 -0.48800144 0.45091146
-0.90129441 -0.47944024 0.33693972
-0.90051877 -0.47902477 0.23447806
-0.89065814 -0.47397316 0.13437465
-0.085614786 -0.016330268 8.4839497
-1.1901178 -0.60280442 8.4811296
-1.5599951 -0.79922563 8.4504232
-0.85719174 -0.44449112 3.1340237
-1.1476563 -0.59857267 3.1089232
-1.071921 -0.56095916 2.2844205
-1.0322311 -0.54154944 1.7846459
-1.0090253 -0.53003883 1.441234
-0.45744219 -0.20467018 8.5052147
-0.82023185 -0.40443841 8.4861679
-1.2999173 -0.66797954 5.6644473
-1.0059876 -0.52115095 3.1351826
-1.1118447 -0.57865036 2.6554608
-1.0557746 -0.55109161 2.0182061
-1.0117388 -0.52899396 1.5865391
-0.98908967 -0.51801836 1.2886984
-0.98454636 -0.51936442 1.1736702
-0.95950228 -0.50678533 0.9573456
-0.94468141 -0.499163 0.78511947
-0.93718505 -0.49561208 0.64150673
-0.92682642 -0.49033561 0.51195633
-0.92034525 -0.48710671 0.39601701
-0.90723395 -0.48056719 0.28638974
-0.88875777 -0.47077751 0.18323873
-0.97145402 -0.51072031 1.058665
-0.95380396 -0.50185841 0.86832118
-0.93998259 -0.49479029 0.70983243
-0.92443985 -0.48721898 0.57052791
-0.91946214 -0.48479488 0.45091146
-0.89866322 -0.47402352 0.33576739
-0.89780533 -0.47356811 0.23378737
-0.8923071 -0.47086129 0.13437465
-0.085714556 -0.016036779 8.4889498
-1.1922147 -0.59864646 8.4811296
-1.5636833 -0.7942363 8.4553185
-0.86272097 -0.44354317 3.1483395
-1.1462679 -0.59276843 3.0997183
-1.0717468 -0.55611116 2.2800314
-1.0316187 -0.53664452 1.780513
-1.0080266 -0.52503288 1.4373965
-0.45815384 -0.20307216 8.5052147
-0.82163864 -0.40157279 8.4861679
-1.3078415 -0.66629016 5.6886444
-1.0062655 -0.51684803 3.1304898
-1.1119231 -0.57376766 2.6509595
-1.0576918 -0.54740292 2.0182061
-1.010904 -0.52407241 1.5825491
-0.99089187 -0.51456261 1.2886984
-0.98319316 -0.5142718 1.1701657
-0.96126544 -0.50343293 0.9573456
-0.94641805 -0.49586239 0.78511947
-0.93498611 -0.49028057 0.63918799
-0.9285323 -0.48709738 0.51195633
-0.92203999 -0.48389113 0.39601701
-0.90890586 -0.47739744 0.28638974
-0.89039564 -0.46767232 0.18323873
-0.9732309 -0.50732625 1.058665
-0.9519664 -0.49665645 0.86537802
-0.9378823 -0.48951161 0.70729923
-0.92613494 -0.48398912 0.57052791
-0.92114872 -0.4815824 0.45091146
-0.90031242 -0.47088373 0.33576739
-0.89945292 -0.4704313 0.23378737
-0.88951862 -0.46542752 0.13417313
-0.085813329 -0.015742792 8.4939499
-1.1942971 -0.59448123 8.4811296
-1.5664462 -0.78877318 8.4553185
-0.86160392 -0.43917367 3.1387956
-1.144853 -0.58698118 3.0905132
-1.0715517 -0.55127114 2.2756422
-1.0309846 -0.53175044 1.7763801
-1.0070052 -0.52004045 1.4335591
-0.45859534 -0.20135613 8.5002232
-0.82303542 -0.39870229 8.4861679
-1.3090373 -0.66115439 5.6838055
-1.0065258 -0.5125494 3.125797
-1.111981 -0.56889147 2.6464584
-1.0572758 -0.54251707 2.0139403
-1.0100472 -0.51916319 1.578559
-0.98966777 -0.50954884 1.2850233
-0.98181641 -0.50919491 1.1666611
-0.95956248 -0.49828079 0.95420712
-0.94443256 -0.49062824 0.78237802
-0.93276155 -0.48497051 0.63686919
-0.92611408 -0.48171404 0.51008332
-0.91946799 -0.47845533 0.39460698
-0.90621001 -0.47195286 0.28545713
-0.89202273 -0.4645614 0.18323873
-0.97167873 -0.50221163 1.0553395
-0.950104 -0.49147341 0.86243486
-0.93575686 -0.48425367 0.70476609
-0.92781872 -0.48075336 0.57052791
-0.91863179 -0.47619092 0.44926795
-0.89763564 -0.46550053 0.33459508
-0.89669341 -0.46500906 0.23309669
-0.8911379 -0.4623197 0.13417313
-0.085867755 -0.015443152 8.4939499
-1.1956681 -0.58996511 8.4761906
-1.56919 -0.78330046 8.4553185
-0.86046696 -0.43481737 3.1292517
-1.14167 -0.58032596 3.0767057
-1.0692023 -0.54535127 2.2668641
-1.030329 -0.52686739 1.7722472
-1.0059612 -0.51506156 1.4297215
-0.45903045 -0.1996395 8.4952316
-0.82442212 -0.39582694 8.4861679
-0.76056629 -0.38089564 3.3124871
-1.0052276 -0.50747782 3.1164114
-1.1120185 -0.56402189 2.641957
-1.0568384 -0.53764075 2.0096743
-1.0118532 -0.5156343 1.578559
-0.98842078 -0.50454998 1.2813481
-0.9835878 -0.50576466 1.1666611
-0.95783538 -0.49314666 0.95106864
-0.94242197 -0.48541397 0.77963656
-0.93444878 -0.48171163 0.63686919
-0.92778993 -0.47847834 0.51008332
-0.9211325 -0.47524291 0.39460698
-0.90785187 -0.46878672 0.28545713
-0.89363897 -0.46144482 0.18323873
-0.97010291 -0.49711415 1.052014
-0.95181382 -0.48815396 0.86243486
-0.93360597 -0.47901651 0.7022329
-0.92949116 -0.47751173 0.57052791
-0.92028838 -0.47298142 0.44926795
-0.89925504 -0.46236441 0.33459508
-0.89831114 -0.46187618 0.23309669
-0.89274621 -0.45920622 0.13417313
-0.085921146 -0.015143323 8.4939499
-1.1977202 -0.58578783 8.4761906
-1.5719146 -0.7778182 8.4553185
-0.85931009 -0.4304744 3.1197076
-1.1384547 -0.57370019 3.0628982
-1.068962 -0.54053515 2.2624753
-1.0296518 -0.52199531 1.7681142
-1.0048949 -0.51009631 1.425884
-0.45972452 -0.19803596 8.4952316
-0.82579881 -0.39294675 8.4861679
-0.76414323 -0.37935588 3.3221662
-1.0054497 -0.50319368 3.1117187
-1.1120355 -0.55915898 2.6374559
-1.0540513 -0.53159988 2.0011425
-1.0109572 -0.51074046 1.574569
-0.99017596 -0.50109667 1.2813481
-0.98217005 -0.50070858 1.1631566
-0.95608395 -0.48803067 0.94793022
-0.94411063 -0.48212138 0.77963656
-0.93218005 -0.47643092 0.63455039
-0.92532682 -0.47312644 0.5082103
-0.91851509 -0.46984017 0.39319694
-0.90511012 -0.46337637 0.2845245
-0.89081132 -0.45605326 0.18279165
-0.97183228 -0.49372482 1.052014
-0.94990891 -0.48299661 0.85949171
-0.93527234 -0.47575471 0.7022329
-0.92710817 -0.47220454 0.56842989
-0.91772628 -0.46762228 0.44762444
-0.90086359 -0.45922258 0.33459508
-0.89550602 -0.45648873 0.23240602
-0.89879441 -0.45835683 0.13437465
-0.085973479 -0.014843309 8.4939499
-1.1990584 -0.58126467 8.4712515
-1.5737059 -0.77187818 8.4504232
-0.85813344 -0.42614481 3.1101637
-1.1352069 -0.56710398 3.0490906
-1.0687011 -0.53572732 2.258086
-1.0289533 -0.51713455 1.7639813
-1.003806 -0.50514472 1.4220465
-0.4601472 -0.19631726 8.4902401
-0.82716542 -0.3900618 8.4861679
-0.76207906 -0.3750219 3.3076477
-1.005654 -0.49891418 3.1070261
-1.1120322 -0.55430281 2.6329546
-1.0535678 -0.52675122 1.9968767
-1.0100396 -0.50585926 1.5705789
-0.98888892 -0.4961172 1.277673
-0.98072892 -0.49566862 1.1596521
-0.95430869 -0.48293296 0.94479173
-0.94205719 -0.47693428 0.77689505
-0.93383741 -0.4731741 0.63455039
-0.92697269 -0.46989354 0.5082103
-0.91587114 -0.46446145 0.3917869
-0.90234178 -0.45799088 0.2835919
-0.89239782 -0.45294094 0.18279165
-0.97021496 -0.48865011 1.0486885
-0.94797963 -0.47785857 0.85654855
-0.93307829 -0.47054619 0.6996997
-0.92875081 -0.46896547 0.56842989
-0.91513813 -0.46228689 0.44598094
-0.89812297 -0.4538829 0.33342275
-0.89267421 -0.45112649 0.23171534
-0.9003889 -0.45521668 0.13437465
-0.086024769 -0.014543116 8.4939499
-1.2010801 -0.5770756 8.4712515
-1.5763907 -0.76638025 8.4504232
-0.85961574 -0.42314675 3.1101637
-1.1319271 -0.5605374 3.0352831
-1.066275 -0.52986234 2.2493079
-1.0282333 -0.51228487 1.7598482
-1.0055631 -0.50163776 1.4220465
-0.46082968 -0.19470984 8.4902401
-0.82852191 -0.38717207 8.4861679
-0.76677299 -0.37401193 3.3221662
-1.0073894 -0.49540076 3.1070261
-1.1120083 -0.5494535 2.6284533
-1.0530632 -0.52191234 1.9926107
-1.0091002 -0.50099069 1.5665889
-0.98757911 -0.49115276 1.2739978
-0.98245317 -0.49224222 1.1596521
-0.95598865 -0.47959885 0.94479173
-0.94371629 -0.473643 0.77689505
-0.93152487 -0.46792322 0.63223159
-0.92446494 -0.46457338 0.50633723
-0.90891498 -0.4569523 0.38896683
-0.89954692 -0.4526304 0.28265926
-0.89397341 -0.44982314 0.18279165
-0.96857423 -0.48359272 1.0453631
-0.94964188 -0.47454661 0.85654855
-0.93471515 -0.46728626 0.6996997
-0.92632359 -0.46368921 0.5663318
-0.9167462 -0.45908964 0.44598094
-0.89970183 -0.45074511 0.33342275
-0.88981593 -0.44578958 0.23102465
-0.90197241 -0.45207095 0.13437465
-0.086031608 -0.014238191 8.4889498
-1.2030871 -0.57287955 8.4712515
-1.5781389 -0.76043105 8.4455271
-0.85974598 -0.41948923 3.1053917
-1.1286153 -0.55400062 3.0214753
-1.0659696 -0.52507895 2.2449188
-1.027492 -0.50744665 1.7557154
-1.0044348 -0.49670395 1.418209
-0.46150655 -0.19310006 8.4902401
-0.82986838 -0.38427764 8.4861679
-0.76694208 -0.37078622 3.3173265
-1.0075612 -0.49112532 3.1023331
-1.1100093 -0.54365373 2.6194508
-1.0525378 -0.51708353 1.9883448
-1.0081393 -0.49613482 1.5625988
-0.98624665 -0.48620358 1.2703226
-0.98097134 -0.48722357 1.1561475
-0.95417178 -0.47452581 0.94165331
-0.94162017 -0.46848348 0.77415359
-0.93315256 -0.46466872 0.63223159
-0.926081 -0.46134356 0.50633723
-0.90621102 -0.45163712 0.38755682
-0.89672565 -0.44729504 0.28172666
-0.89108181 -0.44447702 0.18234457
-0.96691 -0.47855273 1.0420375
-0.94767052 -0.46943477 0.85360539
-0.93634057 -0.46402064 0.6996997
-0.92387098 -0.45843562 0.56423378
-0.91411346 -0.45378718 0.44433743
-0.90126973 -0.4476018 0.33342275
-0.8913666 -0.44268084 0.23102465
-0.89907074 -0.44669676 0.13417313
-0.086080782 -0.013937797 8.4889498
-1.2050796 -0.56867653 8.4712515
-1.5807837 -0.75491768 8.4455271
-0.86120504 -0.41648561 3.1053917
-1.1252718 -0.54749393 3.0076678
-1.0656437 -0.5203042 2.2405298
-1.0267296 -0.5026198 1.7515824
-1.0032845 -0.49178419 1.4143715
-0.46217778 -0.19148792 8.4902401
-0.83120465 -0.3813785 8.4861679
-0.76823169 -0.36810684 3.3173265
-1.0092694 -0.4876053 3.1023331
-1.109942 -0.53882527 2.6149497
-1.0496465 -0.511123 1.979813
-1.0071566 -0.49129182 1.5586089
-0.98489177 -0.48126972 1.2666475
-0.9794665 -0.48222128 1.152643
-0.95582235 -0.47119224 0.94165331
-0.93949944 -0.46334434 0.77141213
-0.93079656 -0.45944792 0.62991279
-0.92352903 -0.45605558 0.50446421
-0.90348113 -0.44634643 0.38614678
-0.8938781 -0.44198492 0.28079402
-0.89262789 -0.44136387 0.18234457
