# .PCD v0.7 - Point Cloud Data file format
VERSION 0.7
FIELDS x y z
SIZE 4 4 4
TYPE F F F
COUNT 1 1 1
WIDTH 1459
HEIGHT 1
VIEWPOINT 0 0 0 1 0 0 0
POINTS 1459
DATA ascii
-0.89764959 0.75822997 1.4834466
-0.63235515 0.56243718 7.8498158
-1.1660839 1.0031103 5.9596524
-1.0554878 0.90194321 3.8297122
-1.0091392 0.85902339 2.8040009
-0.93762839 0.79619479 2.0821953
-0.89604795 0.75982291 1.6304293
-0.87536222 0.741247 1.321775
-0.86798602 0.73059261 1.1946975
-0.84543443 0.71086657 0.97303784
-0.83070409 0.69823933 0.7960853
-0.81857449 0.68756586 0.64614433
-0.82785648 0.69512302 0.52506757
-0.80124879 0.67254901 0.39742702
-0.79787338 0.66924781 0.28918761
-0.79726911 0.66874427 0.18636829
-0.85580021 0.72238559 1.078618
-0.84236771 0.71055293 0.88598019
-0.82526362 0.69588464 0.71996522
-0.81310338 0.6849122 0.57892013
-0.80954874 0.68168306 0.45748553
-0.79588795 0.66994894 0.34162897
-0.78791606 0.66324174 0.23585941
-0.78726459 0.66246533 0.13518077
-0.071932435 0.11764107 14.303729
-0.92317063 0.80920899 7.8044519
-1.2134876 1.0538322 7.7504053
-1.0920086 0.93908215 4.6515145
-1.0324192 0.88349855 3.2608066
-0.96036941 0.81954163 2.3809803
-0.92389882 0.7867679 1.8549061
-0.89987987 0.76551265 1.4911215
-0.33564693 0.32397914 7.9062157
-0.63078487 0.5649969 7.8547873
-1.166375 1.0104673 5.9790101
-1.0549487 0.90787351 3.8390975
-1.0077871 0.8639577 2.808502
-0.93682545 0.80115807 2.0864613
-0.89797282 0.76685995 1.6384094
-0.87534887 0.74649793 1.3254501
-0.86815083 0.73592412 1.198202
-0.84591824 0.7163288 0.97617632
-0.82826173 0.70113474 0.7960853
-0.81616938 0.69041908 0.64614433
-0.82542503 0.69800854 0.52506757
-0.80255967 0.67843866 0.39883706
-0.79553241 0.67202878 0.28918761
-0.79873413 0.67473692 0.18681537
-0.85611808 0.72778684 1.0819435
-0.83988231 0.71348906 0.88598019
-0.82611531 0.70155162 0.72249836
-0.81416857 0.69068241 0.58101815
-0.80716431 0.68450481 0.45748553
-0.79354459 0.67272305 0.34162897
-0.78937346 0.66919029 0.23655009
-0.78494734 0.66520941 0.13518077
-0.071521349 0.11789144 14.303729
-0.9203403 0.81242651 7.8044519
-1.2098017 1.0580617 7.7504053
-1.0921087 0.94582021 4.6658306
-1.0308088 0.88837248 3.2654092
-0.96113533 0.82601124 2.3897583
-0.92328286 0.79182011 1.8590392
-0.89963627 0.77073461 1.494959
-0.33451396 0.32514879 7.9062157
-0.6288088 0.56719536 7.8547873
-1.1675762 1.018665 6.0032072
-1.0543811 0.91381115 3.8484831
-1.0080606 0.87031573 2.8175044
-0.93797541 0.80782753 2.0949931
-0.89985937 0.7739197 1.6463894
-0.87530947 0.75175786 1.3291253
-0.86828887 0.74126571 1.2017065
-0.84341258 0.71927726 0.97617632
-0.82899129 0.70673454 0.79882681
-0.81712639 0.69613665 0.64846313
-0.82651287 0.70389146 0.52694058
-0.80018657 0.68123597 0.39883706
-0.79692316 0.67798471 0.29012021
-0.79637396 0.67752087 0.18681537
-0.85640866 0.73319918 1.0852691
-0.84045786 0.71904409 0.88892335
-0.82693732 0.70723295 0.72503155
-0.81175268 0.69352019 0.58101815
-0.80836076 0.69038492 0.45912904
-0.79488814 0.67864501 0.3428013
-0.78703278 0.67194164 0.23655009
-0.78642064 0.67118853 0.13538231
-0.071109399 0.11814038 14.303729
-0.91749883 0.81563419 7.8044519
-1.2061011 1.0622782 7.7504053
-1.0921751 0.95257038 4.6801462
-1.0306522 0.8945266 3.2746143
-0.96186769 0.83249611 2.3985367
-0.92264277 0.79687756 1.8631719
-0.89936721 0.7759642 1.4987966
-0.33420044 0.327124 7.9261823
-0.62682509 0.56938684 7.8547873
-1.1677898 1.0260533 6.0225649
-1.0550849 0.92089063 3.8625612
-1.0083019 0.87668622 2.8265069
-0.93711984 0.81280559 2.0992589
-0.89943004 0.77902895 1.6503794
-0.87268007 0.75480866 1.3291253
-0.86840016 0.74661714 1.2052112
-0.84384936 0.72475302 0.97931474
-0.82969171 0.71234787 0.80156827
-0.81805336 0.70186925 0.65078193
-0.82405078 0.70677221 0.52694058
-0.80144548 0.6871475 0.4002471
-0.79455173 0.68076241 0.29012021
-0.79778588 0.68353683 0.18726245
-0.85667181 0.73862237 1.0885946
-0.84100485 0.72461194 0.89186651
-0.82446367 0.71011519 0.72503155
-0.81276721 0.69930965 0.58311623
-0.80594593 0.69320244 0.45912904
-0.79619992 0.68458456 0.34397361
-0.78843737 0.67791343 0.23724076
-0.7878617 0.67718613 0.13558383
-0.070696577 0.11838788 14.303729
-0.91464609 0.8188318 7.8044519
-1.2023855 1.0664818 7.7504053
-1.0910863 0.95834738 4.6896906
-1.030465 0.90069044 3.2838192
-0.96076119 0.83742231 2.4029255
-0.91985554 0.80009335 1.8631719
-0.90149182 0.78330368 1.5064715
-0.3332617 0.32849169 7.9311738
-0.62483376 0.57157135 7.8547873
-1.1689075 1.0342888 6.046762
-1.0544561 0.92684668 3.8719471
-1.0085108 0.88306892 2.8355093
-0.93820506 0.81950349 2.1077909
-0.90124661 0.78612542 1.6583595
-0.8725962 0.76007712 1.3328004
-0.86848462 0.7519784 1.2087157
-0.84425819 0.73024058 0.98245323
-0.83036298 0.71797466 0.80430973
-0.81895024 0.70761681 0.65310073
-0.82508701 0.71267486 0.5288136
-0.80267286 0.69307601 0.40165716
-0.79588968 0.68674088 0.29105285
-0.79539508 0.68631744 0.18726245
-0.85690755 0.7440564 1.09192
-0.84152329 0.7301923 0.89480966
-0.8252362 0.71581346 0.72756475
-0.81032115 0.70214248 0.58311623
-0.80709052 0.69910324 0.46077254
-0.79747993 0.69054151 0.34514591
-0.78606617 0.6806615 0.23724076
-0.78927028 0.68320179 0.13578537
-0.070303708 0.11867228 14.308729
-0.91178232 0.82201958 7.8044519
-1.1986556 1.0706725 7.7504053
-1.0910882 0.96511751 4.7040062
-1.0302476 0.90686381 3.2930243
-0.96143192 0.84393108 2.4117036
-0.91917384 0.80515379 1.867305
-0.90116411 0.78855646 1.5103091
-0.33170408 0.32924536 7.9211903
-0.62244296 0.57338768 7.8498158
-1.1699818 1.0425442 6.0709591
-1.0550905 0.93395358 3.8860252
-1.0086877 0.88946372 2.8445115
-0.93925506 0.82621878 2.1163228
-0.90076077 0.79125535 1.6623495
-0.87248617 0.7653541 1.3364756
-0.86854219 0.75734925 1.2122202
-0.84463882 0.73573977 0.98559165
-0.8310051 0.72361481 0.80705118
-0.81647521 0.71047115 0.65310073
-0.82259429 0.7155506 0.5288136
-0.80386853 0.69902146 0.4030672
-0.79348761 0.68951488 0.29105285
-0.79299444 0.68908972 0.18726245
-0.85711569 0.74950093 1.0952456
-0.83896929 0.73312533 0.89480966
-0.82597905 0.72152585 0.73009789
-0.81128478 0.70795083 0.58521426
-0.8046453 0.70191622 0.46077254
-0.79506457 0.69332099 0.34514591
-0.78741765 0.68665594 0.23793145
-0.78688073 0.68595272 0.13578537
-0.069909714 0.11895538 14.313727
-0.90890735 0.82519728 7.8044519
-1.1949109 1.0748501 7.7504053
-1.0910562 0.97189915 4.7183223
-1.0285375 0.91175067 3.297627
-0.96206874 0.85045463 2.4204819
-0.91846788 0.81021899 1.8714379
-0.90321541 0.79593581 1.517984
-0.33034909 0.33019668 7.9161992
-0.62043762 0.57555687 7.8498158
-1.1710126 1.05082 6.0951562
-1.055688 0.94107604 3.9001033
-1.0088321 0.89587057 2.853514
-0.94026947 0.83295131 2.1248546
-0.90250683 0.79838812 1.6703296
-0.87234992 0.77063966 1.3401507
-0.86857295 0.76272964 1.2157247
-0.84499145 0.74125051 0.98873013
-0.82847422 0.72651118 0.80705118
-0.81732166 0.71623641 0.65541953
-0.8235786 0.72147244 0.53068668
-0.80503243 0.70498365 0.40447721
-0.79477257 0.69551545 0.29198545
-0.79058427 0.69185358 0.18726245
-0.85729629 0.75495601 1.0985711
-0.83943939 0.73871976 0.89775282
-0.82669193 0.72725201 0.73263109
-0.80880862 0.71077836 0.58521426
-0.80219024 0.70472068 0.46077254
-0.79629183 0.6992994 0.34631824
-0.785016 0.68940032 0.23793145
-0.7882359 0.69199127 0.13598689
-0.069494061 0.11919869 14.313727
-0.90602142 0.82836491 7.8044519
-1.1911517 1.0790144 7.7504053
-1.0921011 0.97968918 4.7374101
-1.0282633 0.9179377 3.3068321
-0.96088302 0.85540032 2.424871
-0.91984135 0.81715816 1.8797038
-0.90282881 0.80121148 1.5218216
-0.32899141 0.33114257 7.9112072
-0.61842483 0.57771909 7.8498158
-1.1720001 1.0591156 6.1193533
-1.0575328 0.94936699 3.9188745
-1.0073214 0.9008379 2.8580153
-0.94124818 0.839701 2.1333864
-0.90196425 0.80353802 1.6743195
-0.87218744 0.7759335 1.3438259
-0.86590523 0.76575691 1.2157247
-0.84531581 0.74677271 0.99186856
-0.82906723 0.73216665 0.80979264
-0.81481653 0.71908504 0.65541953
-0.82105517 0.72434288 0.53068668
-0.80256671 0.70778942 0.40447721
-0.79233998 0.69828546 0.29198545
-0.79190058 0.69790167 0.18770951
-0.85744917 0.7604214 1.1018965
-0.83988065 0.74432647 0.90069598
-0.82414836 0.7301333 0.73263109
-0.80972123 0.71660519 0.58731234
-0.80326217 0.71064562 0.46241605
-0.79384595 0.70207471 0.34631824
-0.78631425 0.69541705 0.23862213
-0.78581566 0.69473851 0.13598689
-0.069097959 0.1194791 14.318727
-0.90312433 0.83152246 7.8044519
-1.187378 1.0831658 7.7504053
-1.0931048 0.98749834 4.7564979
-1.0279585 0.92413396 3.3160369
-0.96145761 0.86194682 2.4336493
-0.91908062 0.82224047 1.8838367
-0.90241641 0.806494 1.5256591
-0.32763121 0.33208302 7.9062157
-0.61640441 0.57987428 7.8498158
-1.1729436 1.0674307 6.1435504
-1.0580524 0.95652485 3.9329526
-1.0074058 0.9072625 2.8670177
-0.94025141 0.8447246 2.1376524
-0.90363961 0.81070638 1.6822997
-0.87199843 0.78123552 1.347501
-0.8658902 0.77114683 1.2192293
-0.84561193 0.75230604 0.99500704
-0.82650644 0.73505616 0.80979264
-0.81561261 0.7248677 0.65773833
-0.82198739 0.73028362 0.53255969
-0.8036778 0.71377212 0.40588725
-0.79357147 0.70430768 0.29291809
-0.78945959 0.70066172 0.18770951
-0.85757428 0.76589704 1.105222
-0.84029287 0.7499451 0.90363914
-0.82481128 0.73587561 0.73516428
-0.81060302 0.7224471 0.58941036
-0.80430239 0.71658647 0.46405956
-0.79502004 0.70807427 0.34749055
-0.78758001 0.70145118 0.23931281
-0.78338575 0.69747728 0.13598689
-0.068639934 0.1196423 14.308729
-0.90021622 0.83466995 7.8044519
-1.1835898 1.087304 7.7504053
-1.0940675 0.9953264 4.7755861
-1.0276227 0.93033916 3.325242
-0.96199816 0.86850786 2.4424274
-0.92038596 0.829211 1.8921027
-0.89959568 0.8096391 1.5256591
-0.32626843 0.33301798 7.9012237
-0.61437654 0.58202243 7.8498158
-1.1738434 1.0757654 6.167748
-1.059811 0.96485972 3.9517241
-1.0058451 0.91223598 2.8715191
-0.94116473 0.85150123 2.1461844
-0.90303993 0.81587589 1.6862897
-0.87430012 0.78881687 1.3548514
-0.86584783 0.77654576 1.2227339
-0.84298074 0.7552532 0.99500704
-0.82705027 0.74072647 0.81253409
-0.81307739 0.72771031 0.65773833
-0.81943327 0.73314846 0.53255969
-0.80118138 0.71657312 0.40588725
-0.79110813 0.70707345 0.29291809
-0.79072201 0.7067318 0.18815659
-0.85767162 0.77138275 1.1085476
-0.84067607 0.75557572 0.9065823
-0.8254441 0.74163133 0.73769742
-0.80807626 0.72527224 0.58941036
-0.8053109 0.72254324 0.46570307
-0.79254353 0.71084505 0.34749055
-0.78881305 0.70750248 0.24000348
-0.784666 0.70354271 0.13618843
-0.068201743 0.11984247 14.303729
-0.89672941 0.83727676 7.7995124
-1.1805345 1.0921204 7.7553005
-1.0949886 1.0031732 4.7946739
-1.0272561 0.93655318 3.3344471
-0.96250457 0.87508303 2.4512055
-0.92165375 0.83620059 1.9003686
-0.89913881 0.81492698 1.5294967
-0.325104 0.33415484 7.9012237
-0.61234111 0.58416343 7.8498158
-1.1746991 1.0841192 6.1919446
-1.0602523 0.97205222 3.9658022
-1.004262 0.91720974 2.8760202
-0.94011444 0.85653788 2.1504502
-0.90241522 0.82105106 1.6902797
-0.87405032 0.79414374 1.3585266
-0.86577839 0.78195387 1.2262385
-0.84322906 0.76079869 0.99814546
-0.82756466 0.7464096 0.81527555
-0.81382281 0.73350996 0.66005719
-0.8203131 0.73910749 0.53443271
-0.79867518 0.71936542 0.40588725
-0.78863519 0.70983058 0.29291809
-0.78825027 0.70948762 0.18815659
-0.85774106 0.77687848 1.111873
-0.8410303 0.76121813 0.90952545
-0.82604682 0.74740052 0.74023062
-0.80890667 0.73113191 0.59150839
-0.80628759 0.7285158 0.46734658
-0.79366446 0.7168653 0.34866288
-0.78633857 0.71025163 0.24000348
-0.78591341 0.70962554 0.13638996
-0.067742988 0.12000225 14.293729
-0.89380133 0.84040183 7.7995124
-1.176715 1.0962346 7.7553005
-1.0947713 1.0100262 4.80899
-1.0268587 0.94277602 3.3436522
-0.96297681 0.88167226 2.4599836
-0.92288405 0.84320921 1.9086344
-0.89628875 0.81806058 1.5294967
-0.3239356 0.33528763 7.9012237
-0.61029834 0.58629733 7.8498158
-1.1764314 1.0933479 6.2209811
-1.0606561 0.97925931 3.9798803
-1.0042586 0.9236573 2.8850226
-0.94096208 0.86334091 2.158982
-0.90176523 0.82623178 1.6942697
-0.87377405 0.79947853 1.3622017
-0.86568171 0.78737092 1.229743
-0.84344894 0.76635498 1.0012839
-0.82495409 0.74929374 0.81527555
-0.81453741 0.73932356 0.66237599
-0.82116133 0.74508166 0.53630573
-0.79971242 0.72537178 0.40729728
-0.7861526 0.71257913 0.29291809
-0.78945863 0.71557933 0.18860367
-0.85502398 0.77986783 1.111873
-0.8413552 0.76687217 0.91246861
-0.82661933 0.75318289 0.74276382
-0.80634958 0.73395103 0.59150839
-0.80723232 0.73450387 0.46899009
-0.79115731 0.71963131 0.34866288
-0.78751785 0.71632433 0.24069417
-0.78712791 0.7157256 0.13659149
-0.067303821 0.12019914 14.288729
-0.89086235 0.84351665 7.7995124
-1.1728814 1.1003354 7.7553005
-1.0956128 1.0179061 4.8280783
-1.0264304 0.94900751 3.3528571
-0.96341467 0.88827544 2.4687617
-0.92200583 0.84833097 1.9127675
-0.89578754 0.82335341 1.5333341
-0.32276323 0.33641633 7.9012237
-0.60863096 0.58879495 7.8547873
-1.177196 1.1017427 6.2451787
-1.0610225 0.98648113 3.9939587
-1.0026253 0.92863649 2.889524
-0.93985826 0.86839014 2.1632481
-0.90330458 0.83346134 1.7022496
-0.87347114 0.80482107 1.3658769
-0.86555779 0.79279685 1.2332475
-0.84364027 0.77192211 1.0044224
-0.82541895 0.75499105 0.81801701
-0.81522143 0.7451511 0.66469479
-0.81855553 0.74794352 0.53630573
-0.80071741 0.73139423 0.40870732
-0.78366047 0.71531898 0.29291809
-0.7906341 0.72168803 0.18905075
-0.85504627 0.78537345 1.1151985
-0.84165078 0.77253765 0.91541177
-0.82716131 0.75897825 0.74529696
-0.80712837 0.73982799 0.59360647
-0.80814511 0.74050748 0.47063357
-0.79222476 0.72567189 0.34983522
-0.7850126 0.71906894 0.24069417
-0.7883094 0.72184277 0.13679302
-0.066864103 0.12039443 14.28373
-0.88847464 0.84715754 7.8044519
-1.1690333 1.1044228 7.7553005
-1.0964127 1.025804 4.8471661
-1.0245411 0.95391595 3.3574595
-0.96557319 0.89652216 2.4819291
-0.92316717 0.85536963 1.9210334
-0.89526016 0.82865262 1.5371716
-0.3213883 0.3373315 7.8962326
-0.60619032 0.59054369 7.8498158
-1.1788307 1.1110184 6.2742147
-1.062611 0.99489701 4.0127296
-1.0025613 0.93510056 2.8985264
-0.94063967 0.87521893 2.1717799
-0.90259719 0.83866072 1.7062398
-0.87314153 0.81017119 1.3695521
-0.86802775 0.8006494 1.2402567
-0.84380299 0.77749991 1.0075608
-0.825854 0.76070076 0.82075852
-0.81587458 0.75099236 0.66701359
-0.81935114 0.7539354 0.5381788
-0.80168998 0.73743242 0.41011736
-0.7811588 0.71805012 0.29291809
-0.78811014 0.7244435 0.18905075
-0.85504049 0.79088879 1.1185241
-0.83894902 0.77547091 0.91541177
-0.82767302 0.76478654 0.74783015
-0.80454093 0.74264091 0.59360647
-0.80902565 0.74652624 0.47227708
-0.79325956 0.73172849 0.35100752
-0.7861377 0.72516239 0.24138485
-0.78945762 0.72797686 0.13699456
-0.066443443 0.12062709 14.28373
-0.88551217 0.8502537 7.8044519
-1.165171 1.1084967 7.7553005
-1.0971706 1.0337198 4.8662539
-1.0240552 0.96015924 3.3666646
-0.9676857 0.90479463 2.4950962
-0.92429042 0.86242658 1.9292994
-0.89470679 0.83395815 1.5410092
-0.32020885 0.33845133 7.8962326
-0.60412526 0.59265608 7.8498158
-1.1795037 1.1194537 6.2984118
-1.0628983 1.0021521 4.0268083
-1.0024644 0.94157541 2.9075289
-0.94138503 0.88206375 2.1803117
-0.90186429 0.84386504 1.7102298
-0.87278515 0.81552881 1.3732272
-0.86784059 0.80610168 1.2437612
-0.84393698 0.78308815 1.0106993
-0.82625914 0.76642257 0.82349998
-0.81649679 0.75684708 0.66933239
-0.82011485 0.75994194 0.54005182
-0.79911095 0.74022633 0.41011736
-0.77864754 0.7207725 0.29291809
-0.78923106 0.73057306 0.18949783
-0.85500669 0.79641372 1.1218495
-0.83919555 0.78114873 0.91835493
-0.82815409 0.77060765 0.75036329
-0.80526787 0.7485348 0.5957045
-0.809874 0.7525602 0.47392058
-0.79070061 0.73449302 0.35100752
-0.7836017 0.72790211 0.24138485
-0.78691167 0.73072809 0.13699456
-0.066041425 0.12089735 14.288729
-0.88309723 0.85387981 7.809391
-1.1605594 1.1118528 7.7504053
-1.0978867 1.0416533 4.8853416
-1.0235382 0.9664107 3.3758698
-0.96975225 0.91309273 2.5082636
-0.92332494 0.86757469 1.9334321
-0.89412707 0.83926988 1.5448467
-0.31882825 0.33935615 7.8912406
-0.60205281 0.59476125 7.8498158
-1.1801318 1.1279069 6.3226094
-1.0631475 1.009421 4.0408864
-1.0023346 0.94806099 2.9165311
-0.94209391 0.8889243 2.1888437
-0.90329909 0.8511411 1.7182097
-0.87240201 0.8208937 1.3769025
-0.86762583 0.81156236 1.2472657
-0.84404218 0.78868681 1.0138377
-0.82663435 0.77215642 0.82624143
-0.81708807 0.76271546 0.67165118
-0.81745714 0.76280004 0.54005182
-0.80003005 0.74628347 0.4115274
-0.77972001 0.72683561 0.29385069
-0.79031879 0.73671919 0.18994491
-0.85494465 0.80194789 1.125175
-0.83941269 0.78683764 0.92129809
-0.82545912 0.77349377 0.75036329
-0.80265003 0.7513411 0.5957045
-0.81069016 0.75860924 0.47556409
-0.79168153 0.74056911 0.35217986
-0.78467244 0.73401594 0.24207552
-0.78800523 0.73688287 0.13719608
-0.065638341 0.12116626 14.293729
-0.88011128 0.8569572 7.809391
-1.1566713 1.1158971 7.7504053
-1.0996399 1.0506357 4.9092016
-1.0229901 0.9726702 3.3850746
-0.97351044 0.92306423 2.5258198
-0.92437887 0.87466085 1.9416981
-0.89352125 0.84458768 1.5486841
-0.31744525 0.3402555 7.8862491
-0.59997308 0.59685922 7.8498158
-1.1807153 1.1363783 6.3468065
-1.0646063 1.0178967 4.0596576
-1.0021715 0.95455706 2.9255335
-0.94276625 0.89580053 2.1973755
-0.90032262 0.854289 1.7182097
-0.87199199 0.82626581 1.3805776
-0.86738342 0.81703126 1.2507702
-0.84411865 0.79429573 1.0169762
-0.8269797 0.77790231 0.82898289
-0.81442076 0.76556301 0.67165118
-0.81478947 0.76564884 0.54005182
-0.80091649 0.75235599 0.4129374
-0.78075957 0.73291498 0.29478332
-0.78774232 0.73947346 0.18994491
-0.85485429 0.8074913 1.1285006
-0.83960027 0.79253763 0.92424124
-0.82588935 0.77932906 0.75289649
-0.80332488 0.75725144 0.59780258
-0.81147385 0.76467294 0.4772076
-0.78909165 0.74332809 0.35217986
-0.78210551 0.73675048 0.24207552
-0.78542823 0.73962903 0.13719608
-0.065234177 0.12143382 14.298729
-0.87711459 0.86002415 7.809391
-1.152769 1.1199278 7.7504053
-1.100268 1.0586081 4.9282899
-1.0224108 0.97893769 3.39428
-0.9772107 0.93307298 2.5433762
-0.92335725 0.87982351 1.9458311
-0.89521068 0.85212147 1.5563592
-0.31605983 0.34114927 7.8812571
-0.5975095 0.59857237 7.8448443
-1.1812538 1.1448672 6.3710032
-1.0647757 1.0251976 4.0737357
-1.0019753 0.96106356 2.934536
-0.94151795 0.9008891 2.2016416
-0.8995136 0.85950834 1.7221999
-0.87155509 0.83164513 1.3842528
-0.86711347 0.82250845 1.2542748
-0.84416622 0.79991472 1.0201148
-0.82729495 0.78365999 0.83172441
-0.81496048 0.77144659 0.67396998
-0.81211191 0.76848829 0.54005182
-0.80177021 0.75844365 0.41434744
-0.78176624 0.73901039 0.29571593
-0.78877521 0.74563974 0.19039199
-0.85473561 0.81304389 1.131826
-0.83975816 0.79824835 0.9271844
-0.82316399 0.78220725 0.75289649
-0.80396831 0.76317567 0.5999006
-0.8122251 0.77075136 0.47885111
-0.7900185 0.74942327 0.35335216
-0.78312165 0.74288422 0.2427662
-0.78284168 0.74236619 0.13719608
-0.064809896 0.12166079 14.298729
-0.87410718 0.86308062 7.809391
-1.1481251 1.1232327 7.7455101
-1.1008539 1.0665973 4.9473777
-1.0217999 0.9852128 3.4034851
-0.97912663 0.94145864 2.5565434
-0.92434126 0.88693821 1.9540969
-0.89454466 0.85745931 1.5601966
-0.31486708 0.34225047 7.8812571
-0.59541649 0.60065442 7.8448443
-1.1817476 1.153374 6.3952003
-1.0636684 1.0313108 4.0831213
-1.0017458 0.96758032 2.9435384
-0.94212341 0.90778959 2.2101734
-0.89867902 0.86473233 1.7261899
-0.87109113 0.83703136 1.3879279
-0.86681587 0.82799363 1.2577794
-0.8441847 0.80554378 1.0232532
-0.82455438 0.78654301 0.83172441
-0.81546903 0.77734315 0.67628878
-0.8094244 0.77131838 0.54005182
-0.7991178 0.76123774 0.41434744
-0.78273976 0.74512172 0.29664856
-0.78616768 0.74838847 0.19039199
-0.85458863 0.81860542 1.1351515
-0.83988643 0.80396992 0.93012756
-0.82354301 0.78805619 0.75542969
-0.80458009 0.76911354 0.60199869
-0.81294364 0.77684432 0.48049462
-0.78739774 0.75217634 0.35335216
-0.78052378 0.74561328 0.2427662
-0.78385866 0.74854463 0.13739762
-0.064384833 0.12188628 14.298729
-0.87053835 0.86557859 7.8044519
-1.1441972 1.1272336 7.7455101
-1.1013974 1.0746037 4.9664655
-1.0225593 0.99285668 3.4172924
-0.98099583 0.94986904 2.5697107
-0.92326307 0.8921147 1.9582298
-0.89615816 0.86502892 1.5678717
-0.31386474 0.34356102 7.8862491
-0.5933162 0.60272914 7.8448443
-1.1821963 1.1618978 6.4193978
-1.0637658 1.0386345 4.0971994
-0.99992269 0.97258908 2.9480395
-0.9426921 0.91470522 2.2187052
-0.89998299 0.87205815 1.7341701
-0.87060028 0.84242445 1.3916031
-0.86649042 0.8334868 1.2612839
-0.84417415 0.81118256 1.0263916
-0.82481927 0.79231316 0.83446586
-0.81594622 0.78325266 0.67860758
-0.810072 0.77734905 0.54192483
-0.79991752 0.76734346 0.41575748
-0.78368014 0.7512489 0.2975812
-0.78714544 0.75457442 0.19083907
-0.85172594 0.82158345 1.1351515
-0.83998495 0.80970204 0.93307072
-0.82389122 0.79391742 0.75796282
-0.80516016 0.775065 0.60409671
-0.81703216 0.78622603 0.48378164
-0.78827018 0.75828999 0.35452449
-0.77791631 0.74833328 0.2427662
-0.78484201 0.75473917 0.13759914
-0.063940197 0.1220709 14.293729
-0.86751157 0.86861199 7.8044519
-1.1402555 1.1312207 7.7455101
-1.1008337 1.0815805 4.9807816
-1.0218809 0.99915189 3.4264975
-0.98110348 0.95663172 2.5784888
-0.92417687 0.89925712 1.9664958
-0.8954314 0.87038594 1.5717092
-0.31266358 0.34465453 7.8862491
-0.59120864 0.60479659 7.8448443
-1.1834931 1.1713232 6.4484344
-1.0625947 1.0447614 4.1065855
-0.99963182 0.97912031 2.957042
-0.94135875 0.91981304 2.222971
-0.8969335 0.87519437 1.7341701
-0.87008238 0.84782434 1.3952782
-0.86613721 0.83898765 1.2647884
-0.84413451 0.81683105 1.02953
-0.82505387 0.79809481 0.83720732
-0.81639218 0.78917497 0.68092638
-0.8106873 0.7833935 0.54379785
-0.79723412 0.77013105 0.41575748
-0.7845872 0.75739163 0.29851383
-0.78450668 0.75731748 0.19083907
-0.85153103 0.82715315 1.138477
-0.84005374 0.81544471 0.93601388
-0.8211149 0.79678851 0.75796282
-0.80570859 0.78102988 0.60619479
-0.8176738 0.79235935 0.48542514
-0.78910965 0.7644189 0.3556968
-0.77885622 0.75448978 0.24345689
-0.78220272 0.75747418 0.13759914
-0.063495062 0.12225389 14.288729
-0.86447424 0.8716349 7.8044519
-1.1370201 1.1359137 7.7504053
-1.1012955 1.0896163 4.9998693
-1.022563 1.0068253 3.4403052
-0.9811759 0.96340674 2.5872669
-0.92304206 0.9044472 1.9706287
-0.89696866 0.87799066 1.5793842
-0.31165138 0.34595874 7.8912406
-0.58909392 0.60685658 7.8448443
-1.1838481 1.1798842 6.472631
-1.0613936 1.0508926 4.1159706
-0.99930751 0.98566133 2.9660444
-0.94186002 0.92675191 2.231503
-0.89602214 0.88043183 1.73816
-0.871957 0.85560536 1.4026285
-0.86575609 0.84449625 1.268293
-0.84406573 0.82248914 1.0326686
-0.82525814 0.80388772 0.83994877
-0.81680661 0.79510987 0.68324518
-0.81127024 0.78945172 0.54567093
-0.79797947 0.77625412 0.41716751
-0.78546089 0.76354975 0.29944643
-0.78542918 0.76352251 0.19128615
-0.85130751 0.83273149 1.1418025
-0.83720219 0.81837201 0.93601388
-0.82141173 0.80266279 0.76049602
-0.80297732 0.78383762 0.60619479
-0.81828254 0.7985068 0.48706865
-0.7899158 0.77056289 0.35686913
-0.77621782 0.75720388 0.24345689
-0.78313065 0.76368797 0.13780068
-0.063104935 0.12255383 14.298729
-0.86088133 0.87409341 7.7995124
-1.1330481 1.1398758 7.7504053
-1.1006572 1.096615 5.014185
-1.0218167 1.0131398 3.4495103
-0.97951001 0.96850991 2.5916562
-0.92388535 0.91161698 1.9788946
-0.89618111 0.88336653 1.5832217
-0.31044185 0.3470445 7.8912406
-0.586972 0.60890919 7.8448443
-1.184158 1.188462 6.4968286
-1.0613846 1.0582466 4.1300488
-0.99894965 0.992212 2.9750469
-0.94232428 0.93370545 2.2400348
-0.89508528 0.88567376 1.7421501
-0.87137645 0.86102682 1.4063038
-0.86534703 0.8500123 1.2717975
-0.84396768 0.82815671 1.035807
-0.825432 0.80969167 0.84269029
-0.81718951 0.80105716 0.68556398
-0.81182069 0.79552352 0.54754394
-0.79526496 0.77903479 0.41716751
-0.78279084 0.76628691 0.29944643
-0.78275919 0.76625955 0.19128615
-0.85371536 0.84093857 1.1484535
-0.83722079 0.82412493 0.93895704
-0.82167739 0.80854869 0.76302922
-0.80347288 0.78981733 0.60829288
-0.81885839 0.80466813 0.48871216
-0.79068863 0.77672178 0.35804144
-0.77710265 0.7633791 0.24414757
-0.78402466 0.76991737 0.1380022
-0.062695123 0.12281293 14.303729
-0.85782492 0.8770932 7.7995124
-1.1290623 1.143824 7.7504053
-1.1010374 1.1046796 5.0332732
-1.0224211 1.0208418 3.4633176
-0.97782034 0.97361308 2.596045
-0.92468965 0.91880339 1.9871606
-0.89536679 0.88874745 1.5870591
-0.30941984 0.3483423 7.8962326
-0.58484298 0.6109544 7.8448443
-1.1853062 1.19795 6.5258651
-1.0613372 1.0656136 4.1441274
-1.0000974 1.0003117 2.9885504
-0.94275153 0.94067359 2.2485666
-0.89198822 0.88879281 1.7421501
-0.87076855 0.86645448 1.4099789
-0.86490995 0.85553575 1.2753021
-0.8438403 0.83383369 1.0389454
-0.8226006 0.81256807 0.84269029
-0.81438828 0.80390483 0.68556398
-0.81233853 0.80160874 0.54941696
-0.7959559 0.78517491 0.41857755
-0.78360951 0.7724632 0.30037907
-0.78362626 0.77248335 0.19173324
-0.85342562 0.84654307 1.1517791
-0.83720952 0.82988805 0.94190019
-0.82191211 0.81444633 0.76556236
-0.80071104 0.7926172 0.60829288
-0.81940103 0.81084311 0.49035567
-0.79142815 0.78289539 0.35921374
-0.77795386 0.76956975 0.24483825
-0.78488475 0.77616233 0.13820374
-0.062284265 0.12307068 14.308729
-0.85475808 0.88008225 7.7995124
-1.1243501 1.1470309 7.7455101
-1.1024244 1.1138213 5.0571332
-1.0229843 1.0285604 3.4771254
-0.97779804 0.98041213 2.6048231
-0.92545503 0.92600667 1.9954264
-0.89679271 0.89639956 1.5947342
-0.308202 0.34942025 7.8962326
-0.58270675 0.61299217 7.8448443
-1.1855216 1.2065636 6.5500622
-1.0612513 1.0729929 4.1582055
-1.0012006 1.0084316 3.0020542
-0.94314146 0.94765592 2.2570984
-0.88888037 0.89190096 1.7421501
-0.87013352 0.87188852 1.4136541
-0.86444485 0.86106646 1.2788066
-0.84092456 0.83677411 1.0389454
-0.82272375 0.81838357 0.84543175
-0.81471878 0.80986571 0.68788278
-0.81282389 0.80770725 0.55129004
-0.79321021 0.78794855 0.41857755
-0.78090829 0.77519381 0.30037907
-0.78092504 0.77521402 0.19173324
-0.85310692 0.85215575 1.1551045
-0.83716822 0.83566105 0.94484335
-0.82211548 0.8203553 0.76809555
-0.8011536 0.79861146 0.6103909
-0.81991059 0.81703168 0.49199918
-0.78869045 0.78565323 0.35921374
-0.7787711 0.77577555 0.24552894
-0.78571069 0.78242266 0.13840528
-0.061890464 0.12336675 14.318727
-0.85222006 0.8836199 7.8044519
-1.1203393 1.1509486 7.7455101
-1.103761 1.1229861 5.0809932
-1.0235058 1.0362953 3.4909327
-0.97605509 0.98552108 2.6092124
-0.92419922 0.93122888 1.9995594
-0.89817607 0.9040724 1.6024091
-0.30698043 0.35049397 7.8962326
-0.58019781 0.61463469 7.8398728
-1.1856914 1.2151932 6.5742593
-1.0623358 1.0816159 4.1769767
-1.0022591 1.0165712 3.0155578
-0.94349414 0.95465243 2.2656305
-0.8878811 0.89714009 1.74614
-0.87185729 0.87973666 1.4210044
-0.86395168 0.86660439 1.2823112
-0.84074801 0.84245956 1.0420839
-0.82281613 0.82420963 0.8481732
-0.81501758 0.81583863 0.69020158
-0.81327647 0.81381887 0.55316305
-0.79384643 0.79410529 0.41998756
-0.7816717 0.78138781 0.30131167
-0.78173625 0.78145599 0.19218032
-0.85012716 0.85512847 1.1551045
-0.83424616 0.83857816 0.94484335
-0.82228762 0.82627571 0.77062875
-0.80156416 0.80461854 0.61248899
-0.81705368 0.81988871 0.49199918
-0.78937483 0.79184389 0.36038607
-0.77955461 0.78199637 0.24621962
-0.78297472 0.78516048 0.13840528
-0.061441511 0.12354227 14.313727
-0.84913045 0.88658929 7.8044519
-1.1163149 1.1548523 7.7455101
-1.1040045 1.1311054 5.100081
-1.023986 1.0440464 3.5047405
-0.97596765 0.99233747 2.6179905
-0.92489344 0.93845803 2.0078254
-0.8995167 0.91176581 1.6100842
-0.3055661 0.35134512 7.8912406
-0.57804877 0.61665624 7.8398728
-1.1866899 1.2247416 6.6032958
-1.0633731 1.0902594 4.1957479
-1.0032731 1.0247304 3.0290616
-0.94380939 0.96166295 2.2741623
-0.88896805 0.90453231 1.7541201
-0.87115902 0.88519096 1.4246795
-0.86343032 0.87214935 1.2858157
-0.84054184 0.84815395 1.0452224
-0.82287782 0.8300463 0.85091466
-0.81528461 0.82182354 0.69252038
-0.81369627 0.81994343 0.55503613
-0.79106957 0.79687148 0.41998756
-0.77893937 0.78411162 0.30131167
-0.78251338 0.78771305 0.19262739
-0.84976012 0.86074787 1.15843
-0.83415455 0.84436071 0.94778651
-0.81939846 0.82914102 0.77062875
-0.80194241 0.81063819 0.61458701
-0.81750828 0.82609224 0.49364269
-0.78660595 0.79459447 0.36038607
-0.78030396 0.78823203 0.2469103
-0.78022927 0.78788877 0.13840528
-0.061009895 0.12375599 14.313727
-0.84603053 0.88954794 7.8044519
-1.1122769 1.158742 7.7455101
-1.1052433 1.140312 5.1239409
-1.0244244 1.0518134 3.5185483
-0.97584438 0.99916518 2.6267686
-0.92358005 0.94369197 2.0119581
-0.89857155 0.91718978 1.6139216
-0.30433783 0.3524096 7.8912406
-0.57589269 0.61867023 7.8398728
-1.1867647 1.2334058 6.6274929
-1.0643628 1.0989234 4.2145185
-1.0027249 1.0313481 3.038064
-0.94408727 0.96868736 2.2826943
-0.89422327 0.91625619 1.7700801
-0.87043333 0.89065117 1.4283547
-0.86288083 0.87770116 1.2893202
-0.84030616 0.85385704 1.0483608
-0.82290882 0.83589351 0.85365611
-0.81551969 0.82782018 0.69483918
-0.81408316 0.8260808 0.55690914
-0.79165077 0.80304414 0.4213976
-0.77964735 0.79032296 0.30224431
-0.78325623 0.79398501 0.19307446
-0.84936422 0.86637527 1.1617556
-0.83403265 0.85015273 0.95072967
-0.81951857 0.83507299 0.77316189
-0.80228835 0.81667018 0.61668509
-0.81461966 0.82894087 0.49364269
-0.7872349 0.80080158 0.36155838
-0.78101933 0.79448247 0.24760097
-0.78097725 0.7941696 0.1386068
-0.060542192 0.12388842 14.303729
-0.8429203 0.89249569 7.8044519
-1.1082253 1.1626174 7.7455101
-1.1064314 1.1495409 5.1478009
-1.0248209 1.0595961 3.5323555
-0.97568524 1.0060041 2.6355469
-0.92224145 0.94892824 2.0160913
-0.89983457 0.92491579 1.6215967
-0.30310583 0.35346979 7.8912406
-0.57372969 0.6206767 7.8398728
-1.1876615 1.2429942 6.6565294
-1.0641087 1.1063635 4.2285967
-1.0036545 1.0395406 3.0515676
-0.94432747 0.97572529 2.2912261
-0.89731038 0.92586368 1.7820503
-0.86968005 0.89611709 1.4320298
-0.86479414 0.88581169 1.2963293
-0.84004098 0.85956883 1.0514992
-0.822909 0.84175104 0.85639757
-0.81572276 0.83382845 0.69715798
-0.81443709 0.83223081 0.55878216
-0.7921986 0.80923057 0.42280763
-0.78032142 0.79654866 0.30317691
-0.78396487 0.80027169 0.19352154
-0.85154372 0.87468559 1.1684066
-0.83388036 0.85595411 0.95367283
-0.81659865 0.83792859 0.77316189
-0.80260199 0.82271445 0.61878312
-0.81172115 0.83177936 0.49364269
-0.7844348 0.8035447 0.36155838
-0.77824134 0.7972039 0.24760097
-0.77820027 0.79689097 0.1386068
-0.060091842 0.12405903 14.298729
-0.83926839 0.89486575 7.7995124
-1.1048602 1.1672184 7.7504053
-1.1065372 1.1577127 5.1668892
-1.0251756 1.0673941 3.5461633
-0.97382891 1.0111288 2.6399357
-0.92087752 0.95416659 2.0202241
-0.89882749 0.9303565 1.6254343
-0.30187014 0.35452569 7.8912406
-0.57155961 0.6226756 7.8398728
-1.1876409 1.2516919 6.6807265
-1.0650076 1.1150632 4.2473679
-1.0045393 1.0477523 3.0650711
-0.94453001 0.98277652 2.299758
-0.90243059 0.93767506 1.7980103
-0.87125152 0.90402961 1.4393802
-0.86417896 0.8913855 1.2998339
-0.83974606 0.86528921 1.0546377
-0.82287824 0.84761858 0.85913903
-0.8128072 0.83667076 0.69715798
-0.81152707 0.83506864 0.55878216
-0.79271281 0.81543058 0.42421767
-0.78096139 0.80278856 0.30410954
-0.78463918 0.80657285 0.19396862
-0.85108036 0.88033718 1.1717321
-0.83369786 0.86176485 0.95661598
-0.81666648 0.84387177 0.77569515
-0.79972529 0.8255111 0.61878312
-0.81209904 0.83799887 0.49528623
-0.78500831 0.80976796 0.36273071
-0.77890062 0.80347121 0.24829166
-0.7788918 0.80318904 0.13880834
-0.059641037 0.12422802 14.293729
-0.83613956 0.89778984 7.7995124
-1.1007791 1.171068 7.7504053
-1.1076268 1.1669819 5.1907487
-1.0254881 1.0752077 3.5599706
-0.97360408 1.0179838 2.6487141
-0.91948825 0.95940691 2.0243571
-0.89779329 0.93580127 1.6292717
-0.30063075 0.35557726 7.8912406
-0.56938255 0.62466693 7.8398728
-1.1884358 1.2613196 6.7097635
-1.0646712 1.1225306 4.2614465
-1.0053786 1.0559825 3.0785747
-0.94469482 0.98984122 2.30829
-0.90539747 0.94735485 1.8099804
-0.87043458 0.90951473 1.4430554
-0.86353546 0.89696586 1.3033384
-0.83942139 0.87101793 1.0577762
-0.81991446 0.8504858 0.85913903
-0.81295729 0.84269106 0.69947678
-0.80860722 0.83789635 0.55878216
-0.79319328 0.82164395 0.42562771
-0.78156734 0.80904275 0.30504215
-0.78181893 0.80930692 0.19396862
-0.8505879 0.88599616 1.1750575
-0.83348483 0.86758465 0.95955914
-0.8167029 0.84982556 0.77822834
-0.79998535 0.83156842 0.6208812
-0.80916893 0.84082854 0.49528623
-0.78554791 0.81600493 0.36390302
-0.77609122 0.80618519 0.24829166
-0.77954888 0.80950159 0.13900986
-0.059189782 0.12439537 14.288729
-0.8330006 0.90070307 7.7995124
-1.0966846 1.1749032 7.7504053
-1.1076415 1.1751866 5.2098365
-1.0257587 1.0830365 3.5737784
-0.97334313 1.0248494 2.6574922
-0.92001349 0.9666878 2.0326231
-0.89894283 0.94357097 1.6369468
-0.29938775 0.35662448 7.8912406
-0.56755608 0.62704599 7.8448443
-1.1891779 1.270968 6.7387996
-1.0642955 1.1300091 4.2755246
-1.006173 1.0642315 3.0920784
-0.94482172 0.99691886 2.3168218
-0.90623337 0.95488089 1.8179604
-0.86958975 0.91500503 1.4467305
-0.8628636 0.90255266 1.306843
-0.84175807 0.87956697 1.0640531
-0.81983227 0.85636318 0.86188054
-0.81307513 0.84872246 0.70179558
-0.80888504 0.84406096 0.56065518
-0.79364002 0.82787067 0.42703772
-0.78213906 0.81531084 0.30597478
-0.78243661 0.81562471 0.1944157
-0.85006636 0.89166242 1.1783831
-0.83324134 0.87341344 0.96250236
-0.81968361 0.85890853 0.78329468
-0.80021268 0.83763748 0.62297922
-0.80949152 0.84706199 0.49692973
-0.78605342 0.82225555 0.36507532
-0.7766943 0.81246895 0.24898234
-0.78017133 0.81582844 0.1392114
-0.05873809 0.12456109 14.28373
-0.83037692 0.90417773 7.8044519
-1.0925767 1.1787243 7.7504053
-1.1076124 1.1834056 5.2289248
-1.025987 1.09088 3.5875859
-0.97140294 1.0299833 2.6618812
-0.92049909 0.97398382 2.040889
-0.89784634 0.94903153 1.6407841
-0.29814106 0.35766736 7.8912406
-0.56536376 0.62902331 7.8448443
-1.1907225 1.2815577 6.7726755
-1.0627018 1.1362381 4.2849102
-1.0054319 1.0709115 3.1010809
-0.94491065 1.0040094 2.3253536
-0.90702784 0.96242446 1.8259404
-0.87104398 0.92296618 1.4540808
-0.86216319 0.90814555 1.3103476
-0.84136391 0.88532144 1.0671915
-0.81971896 0.86225033 0.864622
-0.81010753 0.85155541 0.70179558
-0.80593377 0.84687936 0.56065518
-0.79405296 0.83411044 0.42844775
-0.77928829 0.81803608 0.30597478
-0.78301966 0.82195675 0.19486278
-0.85208237 0.9000473 1.185034
-0.83296728 0.87925112 0.96544552
-0.81964558 0.8648935 0.78582788
-0.80040747 0.84371835 0.62507725
-0.80978018 0.85330772 0.49857324
-0.78652489 0.82851958 0.36624765
-0.77385354 0.81517518 0.24898234
-0.78075904 0.82216948 0.13941292
-0.058268987 0.12468496 14.273729
-0.82721567 0.90707076 7.8044519
-1.0877662 1.1817816 7.7455101
-1.1075392 1.1916386 5.2480125
-1.0261731 1.0987386 3.6013935
-0.97107577 1.0368642 2.6706595
-0.91901922 0.97924304 2.0450218
-0.89891726 0.95683211 1.6484592
-0.29689074 0.35870588 7.8912406
-0.56316465 0.63099295 7.8448443
-1.1913553 1.2912498 6.801712
-1.0622519 1.1437343 4.2989888
-1.0061407 1.0791918 3.1145847
-0.9431808 1.009207 2.3296194
-0.90778065 0.96998507 1.8339207
-0.87013501 0.92847472 1.457756
-0.86143422 0.91374451 1.3138521
-0.84093982 0.89108378 1.07033
-0.82244492 0.87118769 0.87010491
-0.81017208 0.85759819 0.70411438
-0.80615681 0.85305685 0.56252825
-0.79443187 0.84036309 0.42985779
-0.77980387 0.82431984 0.30690739
-0.78014576 0.82468498 0.19486278
-0.85149288 0.90573668 1.1883595
-0.83543211 0.88804156 0.97133183
-0.81957585 0.87088871 0.78836101
-0.80056953 0.84981072 0.62717533
-0.81327385 0.8630026 0.50186026
-0.78696221 0.83479685 0.36741996
-0.77440023 0.82147479 0.24967301
-0.78131193 0.82852459 0.13961446
-0.057816572 0.12484735 14.268729
-0.82404435 0.90995282 7.8044519
-1.0836343 1.1855714 7.7455101
-1.1084341 1.2009823 5.271872
-1.0263168 1.1066114 3.615201
-0.97071236 1.0437552 2.6794376
-0.91943228 0.98656243 2.0532877
-0.89775819 0.96230793 1.6522968
-0.29563683 0.35974005 7.8912406
-0.56095862 0.63295496 7.8448443
-1.192784 1.3018886 6.835588
-1.0617626 1.1512412 4.313067
-1.006804 1.08749 3.1280882
-0.94320029 1.0163168 2.3381512
-0.90644032 0.97535515 1.8379105
-0.87150776 0.93647015 1.4651064
-0.86067659 0.91934943 1.3173567
-0.84048569 0.89685392 1.0734684
-0.82225859 0.87710387 0.87284636
-0.81020439 0.86365181 0.70643318
-0.8031742 0.85586566 0.56252825
-0.79477686 0.84662849 0.43126783
-0.780285 0.83061713 0.30784002
-0.78067195 0.83103281 0.19530986
-0.85087389 0.91143274 1.1916851
-0.83508635 0.893906 0.97427499
-0.81947416 0.87689388 0.79089421
-0.80069876 0.85591447 0.62927336
-0.81348294 0.86928403 0.5035038
-0.78736514 0.84108716 0.36859229
-0.77152801 0.82417297 0.24967301
-0.77841508 0.83124685 0.13961446
-0.057380419 0.1250484 14.268729
-0.82086301 0.91282368 7.8044519
-1.0794892 1.1893468 7.7455101
-1.1082691 1.2092463 5.2909603
-1.0264179 1.1144986 3.6290085
-0.97031277 1.0506564 2.6882157
-0.91980541 0.99389666 2.0615535
-0.89657182 0.96778721 1.6561341
-0.29437929 0.36076981 7.8912406
-0.55909783 0.63530958 7.8498158
-1.193307 1.3116235 6.864625
-1.0612336 1.1587585 4.3271451
-1.0059483 1.0942031 3.1370907
-0.94318157 1.0234387 2.3466833
-0.90711713 0.98294228 1.8458906
-0.87283522 0.94448638 1.4724567
-0.86231828 0.92757213 1.3243657
-0.84000152 0.9026317 1.0766069
-0.82204092 0.88302922 0.87558782
-0.81020415 0.86971599 0.70875198
-0.80334222 0.8620556 0.56440127
-0.79181671 0.84939766 0.43126783
-0.78073162 0.83692783 0.30877262
-0.77776635 0.83375281 0.19530986
-0.85022557 0.91713554 1.1950105
-0.83470988 0.8997789 0.97721815
-0.81934041 0.88290894 0.79342741
-0.80079502 0.86202943 0.63137144
-0.81365812 0.87557757 0.50514728
-0.78773373 0.84739053 0.3697646
-0.77201802 0.83048815 0.25036371
-0.77891088 0.83761752 0.13981599
-0.056943569 0.12524794 14.268729
-0.81767172 0.91568345 7.8044519
-1.0753311 1.1931077 7.7455101
-1.1080596 1.2175238 5.3100481
-1.0277947 1.1238418 3.6474187
-0.97149533 1.0593327 2.7013831
-0.92204255 1.0033176 2.0739524
-0.89752811 0.97562891 1.6638092
-0.29293692 0.36157048 7.8862491
-0.55687678 0.63725728 7.8498158
-1.1946191 1.3223103 6.8985004
-1.0606654 1.1662862 4.3412237
-1.0065256 1.1025313 3.1505942
-0.94488531 1.032497 2.3594811
-0.9057163 0.9883244 1.8498807
-0.8718251 0.9500252 1.4761319
-0.86149412 0.93319702 1.3278702
-0.83948725 0.90841705 1.0797453
-0.82179195 0.88896388 0.87832928
-0.81017143 0.87579072 0.71107078
-0.80347681 0.86825716 0.56627429
-0.79210562 0.85567671 0.43267787
-0.78114367 0.84325171 0.30970526
-0.7782355 0.84011602 0.19575694
-0.84954768 0.92284489 1.198336
-0.83430248 0.90566003 0.98016131
-0.81917477 0.88893372 0.79596055
-0.80085838 0.86815536 0.63346946
-0.81379914 0.88188285 0.50679076
-0.78806788 0.85370666 0.3709369
-0.77583224 0.84045547 0.25174505
-0.77598238 0.84033132 0.13981599
-0.056522433 0.12548637 14.273729
-0.81447035 0.91853207 7.8044519
-1.0711598 1.196854 7.7455101
-1.1088067 1.2269219 5.3339081
-1.0278056 1.1317617 3.6612263
-0.97101653 1.066259 2.7101612
-0.92232835 1.0106874 2.0822184
-0.89627874 0.98112249 1.6676468
-0.29167303 0.36259082 7.8862491
-0.55429971 0.63879448 7.8448443
-1.195032 1.3320867 6.9275374
-1.0600572 1.1738238 4.3553019
-1.007057 1.1108768 3.1640978
-0.94478321 1.0396494 2.3680129
-0.90631676 0.99593735 1.8578608
-0.87307036 0.95807445 1.4834822
-0.86305106 0.94145632 1.3348794
-0.83894283 0.91420972 1.0828838
-0.82151145 0.89490747 0.88107073
-0.81010616 0.88187575 0.71338952
-0.8035779 0.87447011 0.5681473
-0.79236037 0.86196816 0.43408787
-0.77819544 0.84597325 0.30970526
-0.77866971 0.84649265 0.19620402
-0.84884024 0.92856067 1.2016616
-0.83386421 0.91154927 0.98310447
-0.81897688 0.89496797 0.79849374
-0.8008886 0.87429225 0.63556755
-0.81071585 0.88471812 0.50679076
-0.78836757 0.86003542 0.37210923
-0.77623999 0.84680897 0.25243574
-0.77642077 0.84671712 0.14001752
-0.056100331 0.12572341 14.278729
-0.81125915 0.92136955 7.8044519
-1.0669755 1.2005857 7.7455101
-1.1085048 1.2352291 5.3529959
-1.0277734 1.1396953 3.6750338
-0.97210759 1.0749714 2.7233284
-0.92257369 1.0180713 2.0904841
-0.89500207 0.98661923 1.6714844
-0.29058525 0.36383271 7.8912406
-0.55206656 0.64072543 7.8448443
-1.1962268 1.3428205 6.9614134
-1.0594094 1.1813716 4.36938
-1.0089986 1.1208575 3.1821027
-0.94638979 1.0487499 2.3808105
-0.90687513 1.0035664 1.8658408
-0.8742699 0.96614379 1.4908326
-0.86216009 0.94710052 1.3383839
-0.83836806 0.92000967 1.0860223
-0.82119948 0.90085983 0.88381225
-0.81000817 0.88797098 0.71570832
-0.80364537 0.88069433 0.57002032
-0.78934664 0.86472875 0.43408787
-0.77855062 0.85231137 0.31063786
-0.77571011 0.84920549 0.19620402
-0.84810334 0.93428266 1.204987
-0.83339494 0.91744637 0.98604763
-0.81874686 0.90101171 0.80102688
-0.80088574 0.88043988 0.63766557
-0.80762267 0.88754272 0.50679076
-0.78863251 0.86637658 0.37328154
-0.77661276 0.85317552 0.25312641
-0.77346045 0.8494221 0.14001752
-0.055661131 0.12591846 14.278729
-0.808038 0.92419571 7.8044519
-1.0627781 1.2043029 7.7455101
-1.1091511 1.2446635 5.3768559
-1.0276984 1.1476424 3.6888416
-0.97314948 1.0837044 2.7364957
-0.92466098 1.0275611 2.1028829
-0.89584291 0.99450052 1.6791594
-0.28931347 0.36484483 7.8912406
-0.54982662 0.64264858 7.8448443
-1.1973614 1.3535788 6.9952888
-1.0598692 1.1902179 4.3881512
-1.0094321 1.1292421 3.1956065
-0.94620401 1.0559319 2.3893425
-0.90739119 1.0112115 1.8738209
-0.87315792 0.97171146 1.4945077
-0.86363155 0.95539546 1.3453929
-0.83776301 0.92581666 1.0891607
-0.82085598 0.90682101 0.8865537
-0.80987751 0.89407623 0.71802717
-0.80367911 0.88692963 0.57189339
-0.78954506 0.87103307 0.43549791
-0.77887112 0.85866231 0.3115705
-0.77608693 0.85559672 0.1966511
-0.84733671 0.94001085 1.2083125
-0.83289462 0.92335129 0.98899078
-0.81848454 0.90706468 0.80356008
-0.8038919 0.88996619 0.64186168
-0.80451965 0.89035642 0.50679076
-0.78560352 0.86912417 0.37328154
-0.78027111 0.86322862 0.25450778
-0.77384144 0.85582256 0.14021905
-0.055221252 0.12611198 14.278729
-0.80480701 0.92701066 7.8044519
-1.0585679 1.2080053 7.7455101
-1.1097453 1.2541175 5.4007158
-1.0275805 1.1556028 3.7026489
-0.97414219 1.0924574 2.7496629
-0.9248184 1.0349795 2.1111491
-0.89450276 1.0000106 1.6829967
-0.28803816 0.36585248 7.8912406
-0.54723519 0.64415759 7.8398728
-1.1976058 1.3634169 7.0243258
-1.0591371 1.1977887 4.4022293
-1.0112644 1.1392715 3.2136111
-0.94771308 1.0650737 2.4021404
-0.90786487 1.0188723 1.8818009
-0.87427473 0.97981268 1.501858
-0.8626734 0.96105826 1.3488976
-0.83712763 0.93163061 1.0922991
-0.82048076 0.9127906 0.88929516
-0.80675167 0.89689779 0.71802717
-0.80367911 0.89317578 0.57376641
-0.78970903 0.8773492 0.43690795
-0.78244424 0.86867571 0.31343573
-0.77642852 0.86200076 0.19709818
-0.84654039 0.94574499 1.211638
-0.83236325 0.92926389 0.99193394
-0.81819004 0.91312683 0.80609328
-0.80381089 0.89614546 0.6439597
-0.80140686 0.89315933 0.50679076
-0.7858116 0.87547839 0.37445387
-0.78056091 0.8696323 0.25519845
-0.77418703 0.8622359 0.14042059
-0.054764859 0.12626332 14.273729
-0.80156624 0.92981428 7.8044519
-1.0543447 1.211693 7.7455101
-1.1102868 1.2635907 5.4245763
-1.0287124 1.165041 3.7210591
-0.97508579 1.101231 2.76283
-0.92493522 1.0424114 2.119415
-0.89313513 1.0055234 1.6868343
-0.28675935 0.36685571 7.8912406
-0.54498327 0.64606386 7.8398728
-1.1986222 1.3742205 7.0582013
-1.0583651 1.2053691 4.4163079
-1.0130388 1.1493273 3.231616
-0.94916975 1.0742389 2.4149382
-0.90829617 1.0265487 1.889781
-0.87309736 0.98539609 1.5055332
-0.86405921 0.96938831 1.3559066
-0.8364619 0.93745142 1.0954376
-0.82007384 0.91876864 0.89203662
-0.80656689 0.90301222 0.72034597
-0.80364525 0.89943284 0.57563943
-0.78983849 0.88367718 0.43831801
-0.782682 0.87506306 0.31436834
-0.77673477 0.86841762 0.19754526
-0.84571445 0.9514851 1.2149636
-0.83180064 0.935184 0.9948771
-0.81786311 0.91919798 0.80862641
-0.80369639 0.90233505 0.64605778
-0.79828423 0.89595127 0.50679076
-0.78598487 0.88184452 0.37562618
-0.7775206 0.87235165 0.25519845
-0.77449727 0.86866194 0.14062211
-0.054308087 0.126413 14.268729
-0.7983157 0.9326067 7.8044519
-1.0501087 1.215366 7.7455101
-1.1107756 1.2730829 5.4484358
-1.029791 1.1745009 3.7394691
-0.97756112 1.1118227 2.7803864
-0.92501128 1.0498567 2.1276808
-0.89385992 1.0134428 1.6945094
-0.28547701 0.36785445 7.8912406
-0.54272479 0.64796227 7.8398728
-1.1995778 1.3850478 7.0920777
-1.0586871 1.2142593 4.4350791
-1.0147552 1.1594092 3.2496209
-0.94885415 1.0814667 2.42347
-0.90868479 1.0342405 1.897761
-0.8741309 0.99352837 1.5128835
-0.86303365 0.97506905 1.3594111
-0.8357656 0.94327891 1.0985761
-0.81963521 0.92475498 0.89477807
-0.80634922 0.90913635 0.72266477
-0.80357736 0.90570033 0.57751244
-0.78993344 0.89001673 0.43972805
-0.78288466 0.88146251 0.31530097
-0.77700567 0.87484705 0.19799234
-0.84732932 0.9600302 1.2216145
-0.83120686 0.94111145 0.99782026
-0.81750363 0.92527777 0.81115961
-0.80354846 0.90853453 0.64815581
-0.79828095 0.90226901 0.5084343
-0.78934467 0.89186239 0.37797081
-0.77775282 0.87876868 0.25588912
-0.77477205 0.87510079 0.14082365
-0.053850938 0.12656105 14.26373
-0.79505545 0.93538761 7.8044519
-1.0458599 1.2190242 7.7455101
-1.1112115 1.2825937 5.4722958
-1.0308158 1.1839826 3.7578795
-0.97839934 1.120641 2.7935538
-0.92504656 1.057315 2.1359468
-0.89242852 1.0189679 1.6983467
-0.28419125 0.36884871 7.8912406
-0.54080027 0.65026271 7.8448443
-1.2012918 1.3968513 7.1307931
-1.0589597 1.2231665 4.4538498
-1.0164136 1.1695172 3.2676258
-0.95021248 1.0906715 2.4362679
-0.9090308 1.0419475 1.905741
-0.87288791 0.99912679 1.5165586
-0.86197895 0.98075449 1.3629158
-0.8350389 0.94911295 1.1017146
-0.81916475 0.9307493 0.89751953
-0.80609858 0.91526991 0.72498357
-0.80347562 0.91197836 0.57938552
-0.78999358 0.89636755 0.44113809
-0.78305215 0.88787413 0.31623358
-0.77724111 0.88128895 0.19843942
-0.84643394 0.96579015 1.2249401
-0.83058167 0.9470461 1.0007634
-0.81711173 0.93136626 0.81369281
-0.80336702 0.91474408 0.65025389
-0.79512656 0.90505004 0.5084343
-0.78943533 0.89826339 0.37914312
-0.77468055 0.88147819 0.25588912
-0.77171272 0.87779993 0.14082365
-0.053393412 0.12670743 14.258731
-0.79178548 0.93815714 7.8044519
-1.0415983 1.2226675 7.7455101
-1.1115947 1.2921231 5.4961557
-1.0317872 1.1934857 3.7762895
-0.97761905 1.1276689 2.8023319
-0.92504108 1.0647864 2.1442127
-0.89096951 1.0244956 1.7021843
-0.28290197 0.36983848 7.8912406
-0.53852713 0.65214652 7.8448443
-1.2021217 1.4077277 7.164669
-1.0603079 1.2333989 4.477314
-1.0165915 1.1780026 3.2811296
-0.95151812 1.0998993 2.4490657
-0.90933394 1.0496694 1.9137211
-0.87383795 1.0072894 1.523909
-0.8608951 0.98644441 1.3664203
-0.8368423 0.95788461 1.1079915
-0.81866235 0.93675166 0.90026098
-0.80581492 0.92141271 0.72730237
-0.80333966 0.91826659 0.58125854
-0.79317808 0.90633947 0.44395813
-0.78318447 0.89429754 0.31716621
-0.77744108 0.88774312 0.1988865
-0.84795952 0.97437215 1.231591
-0.82992536 0.95298785 1.0037066
-0.81668717 0.93746322 0.81622595
-0.80315197 0.92096341 0.65235192
-0.79506677 0.9113785 0.51007777
-0.789491 0.9046759 0.38031548
-0.77159888 0.88417697 0.25588912
-0.77192938 0.88425195 0.14102517
-0.052935522 0.12685215 14.253731
-0.78850591 0.94091529 7.8044519
-1.0373241 1.2262959 7.7455101
-1.1128942 1.3028058 5.5247879
-1.0327045 1.20301 3.7946997
-0.97836393 1.13652 2.8154991
-0.92499465 1.0722706 2.1524785
-0.89157754 1.0324514 1.7098594
-0.28160927 0.37082374 7.8912406
-0.53624743 0.65402234 7.8448443
-1.2037032 1.4195857 7.2033844
-1.0604771 1.2423429 4.4960847
-1.0138898 1.183197 3.2856307
-0.95277089 1.1091492 2.4618633
-0.90959424 1.0574061 1.9217011
-0.87474149 1.0154709 1.5312593
-0.85978186 0.99213856 1.3699248
-0.83604407 0.96374011 1.11113
-0.81812805 0.94276184 0.9030025
-0.80549818 0.92756468 0.72962117
-0.80316967 0.92456502 0.58313155
-0.79315609 0.91272366 0.44536817
-0.78328139 0.90073264 0.31809881
-0.77433747 0.89045143 0.1988865
-0.8469944 0.9801513 1.2349164
-0.82923752 0.95893645 1.0066497
-0.81623 0.94356865 0.81875914
