# .PCD v0.7 - Point Cloud Data file format
VERSION 0.7
FIELDS x y z
SIZE 4 4 4
TYPE F F F
COUNT 1 1 1
WIDTH 1611
HEIGHT 1
VIEWPOINT 0 0 0 1 0 0 0
POINTS 1611
DATA ascii
3.7207222 5.8180475 9.2194548
6.6941385 10.552434 12.360182
3.7057283 5.8483829 5.6650305
4.2657046 6.7347183 5.3112798
4.6487999 7.3452015 4.6367993
5.8870554 9.3052435 4.5371041
17.415054 27.537281 9.6669827
18.077747 28.607243 6.5162926
19.300537 30.542248 3.3364871
3.5137513 5.5219412 5.9105697
3.7902479 5.9610348 5.2271423
5.9691992 9.39151 6.624805
5.1745701 8.1507139 4.5505333
16.87715 26.594168 11.051545
17.905964 28.2262 8.1527805
18.685682 29.455307 4.9573483
3.4608033 5.272984 30.346773
2.5281546 3.8932867 14.88742
2.7199841 4.2336841 7.4633179
3.1776044 4.9516339 7.1207404
1.8358686 2.7041926 30.440329
4.3093748 6.5832324 30.330994
2.758513 4.2447252 13.820612
4.1504669 6.4305396 12.58919
3.7361116 5.7974262 9.2074852
8.7437496 13.588562 17.595404
6.7155647 10.504963 12.332145
3.7428787 5.8616562 5.6901383
4.320684 6.7691326 5.3496609
4.672029 7.3251948 4.6344805
5.8920865 9.2416382 4.5165005
17.52396 27.496548 9.6740322
18.24082 28.643408 6.5386753
19.468557 30.571306 3.34677
3.5249431 5.4970698 5.8972673
3.8350203 5.9852037 5.2595167
5.1589642 8.0637865 4.5127683
16.985142 26.558962 11.061405
18.035799 28.212666 8.1668482
18.825727 29.448313 4.9670177
3.4797502 5.2617207 30.351669
2.5376425 3.8781927 14.86356
4.4561863 6.8673296 15.069808
2.7362752 4.2265258 7.4674506
3.1687615 4.9001393 7.0631781
1.8452969 2.697768 30.440329
4.3330202 6.5691991 30.335833
2.7827671 4.2495065 13.867538
4.1629348 6.4007092 12.55933
3.7710958 5.8070931 9.2433958
8.8870401 13.705873 17.786512
6.7483306 10.475462 12.325136
3.7843785 5.8812876 5.7215228
4.4076238 6.8524776 5.4264212
4.7071505 7.3237472 4.6437554
5.9844513 9.3146229 4.5614533
17.64576 27.475574 9.6881332
18.361919 28.612635 6.5461364
19.610117 30.557644 3.352582
3.5400572 5.4784603 5.8906169
3.8712368 5.9955502 5.2801185
5.4104462 8.3825655 5.9484463
5.1403551 7.9732533 4.4729052
17.100771 26.535238 11.076198
18.16839 28.202658 8.1820879
18.96059 29.432377 4.975306
20.015923 31.082466 1.5849942
3.4980958 5.2495418 30.351669
2.5733507 3.9029582 14.992403
4.4761992 6.8457203 15.056642
2.7571619 4.2263756 7.4839821
3.1753473 4.8729367 7.040153
1.8547025 2.6913102 30.440329
4.3566208 6.5550809 30.340673
2.8032863 4.2484093 13.895696
4.1981182 6.4057703 12.597723
3.796293 5.8014584 9.2553654
4.9554062 7.5842967 9.8996096
6.8003902 10.475773 12.353172
3.8324142 5.9104972 5.7623224
4.4815516 6.9142447 5.4867339
5.2865505 8.1624327 5.1770797
6.0471621 9.340374 4.5839295
17.772833 27.462135 9.7050533
18.47769 28.573112 6.5517321
19.705847 30.472279 3.3507936
3.557122 5.4629407 5.8872914
3.9252076 6.0328207 5.3242664
5.5501409 8.533473 6.0675058
5.1582656 7.9400377 4.4645133
17.19072 26.47142 11.074554
18.301128 28.192064 8.1973276
19.106354 29.432472 4.9863572
20.352737 31.364443 1.6019228
3.5169666 5.2381449 30.356565
2.605958 3.9225478 15.102159
4.4895263 6.814054 15.021527
2.7703519 4.2143741 7.4798489
3.1800222 4.8430676 7.0132899
1.8640858 2.6848197 30.440329
4.3794756 6.5398335 30.340673
2.8544068 4.2932043 14.07402
4.2305136 6.4063115 12.627584
3.9276567 5.9567175 9.5226974
4.9893069 7.5782785 9.9143095
6.848629 10.469878 12.374201
3.8594096 5.9068594 5.7717381
4.5056591 6.8985591 5.4867339
5.3779583 8.2403812 5.2373681
6.0873284 9.3308573 4.5895491
17.876448 27.411985 9.7092829
19.844721 30.453375 3.3561587
3.5741208 5.4473691 5.883966
3.9817016 6.0731668 5.371357
7.1937914 10.976588 7.797667
5.2903538 8.0814686 4.5526314
17.308874 26.450766 11.090989
18.434017 28.180891 8.2125683
19.230661 29.398752 4.9918823
20.571461 31.460463 1.609984
3.5358002 5.2266798 30.36146
2.6420548 3.9469187 15.231003
4.5742188 6.8901248 15.223425
2.8161256 4.2515988 7.5625086
3.2075202 4.8479767 7.0363154
1.8737516 2.6787333 30.445301
4.4043865 6.5276322 30.35519
4.2803006 6.4327593 12.708637
3.9350853 5.9228926 9.490777
5.0138555 7.5579915 9.910634
8.8673935 13.453305 15.913792
3.9142506 5.9453669 5.8219533
4.4883347 6.8199172 5.4373875
4.7373395 7.2037311 4.5996985
6.0638371 9.2243271 4.5483422
17.987829 27.373472 9.7177439
19.847034 30.225735 3.33917
3.5992918 5.4442039 5.8939424
3.9961927 6.0491133 5.3625274
7.0111399 10.61687 7.5620813
5.3135328 8.0553751 4.5484352
6.7588997 10.25044 4.362463
18.567049 28.16913 8.227808
19.36042 29.372795 4.9987893
20.716885 31.442696 1.6126039
3.5545967 5.215147 30.366356
2.6658323 3.9525223 15.288267
3.541419 5.2783384 15.034063
4.5942473 6.8681436 15.210258
2.8512576 4.2721705 7.6162362
3.2315352 4.8474183 7.0516653
1.8833981 2.6726122 30.450272
4.4278512 6.513257 30.360029
3.1063704 4.6021442 15.153358
4.3462996 6.4827657 12.836615
3.8803046 5.796442 9.3112259
5.0383234 7.5376248 9.9069586
8.7998657 13.249966 15.710527
3.9349802 5.9316678 5.8219533
4.4335418 6.6857243 5.3441777
4.7330928 7.1428385 4.5718727
6.0371175 9.1142101 4.5052624
18.093866 27.326517 9.7233839
19.985394 30.20611 3.3445346
3.6099935 5.4191771 5.88064
4.028482 6.0519505 5.377243
5.2403903 7.8755412 5.644465
5.2963986 7.9687424 4.5106702
6.810318 10.250383 4.372324
18.700224 28.156786 8.2430487
19.492968 29.350409 5.0063863
20.81546 31.353539 1.6117978
2.7274842 3.9321673 30.421314
3.5733557 5.2035465 30.37125
2.7140133 3.9938109 15.483918
3.5598221 5.265944 15.034063
4.598115 6.8222752 15.144423
2.8944187 4.304224 7.6906295
3.2520106 4.8414297 7.0593405
1.8927156 2.6660216 30.450272
4.4505601 6.4977617 30.360029
3.1195045 4.5869918 15.139277
4.3747416 6.4761992 12.85368
3.9005141 5.7828622 9.3112259
5.0608163 7.514369 9.8996096
8.6953268 12.993917 15.444182
3.8583257 5.7722774 5.6807227
4.3964524 6.579813 5.2728996
4.7998137 7.1889033 4.6112924
6.0972047 9.1354971 4.525866
18.189144 27.263191 9.7233839
19.425247 29.137966 6.7401214
20.145962 30.219038 3.3534763
4.0450802 6.0311384 5.371357
4.7109151 7.0265169 5.0567675
5.2686229 7.8672433 4.4645133
6.7961464 10.151993 4.3410974
18.836243 28.147894 8.2594614
19.603565 29.294537 5.0084586
20.841446 31.156115 1.6057519
2.7411933 3.9226227 30.421314
3.5914979 5.1910415 30.37125
2.7178178 3.9695332 15.426655
3.5572853 5.2228074 14.946616
2.8810134 4.252161 7.6162362
3.277873 4.8433213 7.0785275
1.9020103 2.6593986 30.450272
2.6055419 3.7758512 17.700096
4.3694401 6.4199247 12.772626
3.9054332 5.7467813 9.2753162
5.0832081 7.4910469 9.8922586
8.0328655 11.913783 14.200068
3.8719282 5.7490892 5.6713076
4.4077172 6.5470834 5.2591925
5.1141758 7.602138 4.8825917
6.129056 9.1141577 4.525866
18.238701 27.131849 9.6994123
19.463839 28.976192 6.7186708
20.284643 30.198133 3.3588412
4.2396827 6.2691288 6.8217568
4.0638452 6.0136323 5.3684139
4.7354131 7.0100293 5.0567675
5.3138227 7.8751397 4.4791994
6.8526664 10.159527 4.3542457
18.969706 28.134363 8.2747011
19.777679 29.33268 5.0264163
20.910984 31.025177 1.6029305
2.7535269 3.9111242 30.406496
3.609596 5.1784735 30.37125
2.7308099 3.9587932 15.421882
3.5732841 5.2071366 14.937411
2.9164643 4.2722921 7.6699653
3.2911479 4.8265538 7.0708532
1.91097 2.6523106 30.445301
2.6108129 3.7553804 17.646862
3.0396852 4.4032083 14.604303
4.3932981 6.4067841 12.776893
3.8812072 5.6684709 9.1715755
5.1054988 7.4676595 9.8849087
13.737754 20.222168 24.103918
3.9007149 5.7484217 5.6838613
4.4235024 6.521277 5.2509675
5.1680207 7.6245751 4.9080987
6.1946383 9.142601 4.5502152
18.567339 27.413567 9.8220863
19.449228 28.737215 6.6795011
20.42622 30.180763 3.3646533
4.2783599 6.2789755 6.8483605
4.0552382 5.955976 5.3301525
4.7331729 6.9542561 5.0289025
5.3999686 7.9428687 4.5274549
6.8880887 10.135545 4.3542457
19.106037 28.12426 8.2911139
19.941172 29.353582 5.0416112
2.7662637 3.9002211 30.396618
3.6270652 5.1650085 30.366356
2.7650578 3.9786546 15.53641
3.5914385 5.1946316 14.937411
2.9425223 4.2783155 7.6988955
3.3370161 4.8573055 7.1322532
1.918964 2.6438982 30.425415
2.6239059 3.7462442 17.646862
3.0471539 4.3812375 14.566762
4.4111876 6.3849721 12.764094
3.8770151 5.6201634 9.1157141
5.1276884 7.4442086 9.8775578
13.852571 20.238834 24.181015
3.9207568 5.7347703 5.6838613
4.3117557 6.3090196 5.0947042
6.2134457 9.101778 4.5408502
18.825153 27.586329 9.9066877
19.433186 28.49869 6.6403303
20.553888 30.142191 3.3682296
4.0462794 5.8984542 5.2918916
5.6228886 8.1997881 5.9281807
5.4430499 7.9464364 4.5400429
6.9100866 10.091957 4.3460279
19.23978 28.109539 8.3063536
20.079878 29.336924 5.0505905
2.780313 3.8911738 30.401556
3.6462481 5.1539788 30.376144
2.7806413 3.9714241 15.545955
3.6162493 5.1916819 14.965025
3.9770489 5.7266378 12.844544
2.975069 4.2934613 7.7443585
3.3539507 4.8456273 7.1322532
1.92944 2.638905 30.445301
2.6376913 3.7380893 17.651701
4.4334488 6.3695359 12.764094
3.9499207 5.6833005 9.2394056
5.1497765 7.4206939 9.8702068
8.3110495 12.052136 14.466413
3.958415 5.7466931 5.7089686
4.7013173 6.8277435 5.5196314
4.9223175 7.1540318 4.6321616
6.3134847 9.1793451 4.5895491
18.907745 27.500687 9.8996382
19.802364 28.823418 6.7307949
20.68718 30.111309 3.3727007
8.1834345 11.831687 12.894119
4.0530553 5.8643436 5.2742329
5.460444 7.9124475 4.531651
18.08403 26.214327 11.173164
19.376415 28.098228 8.3227663
20.204647 29.299263 5.0561152
2.7934246 3.8808141 30.396618
3.6600797 5.1354151 30.341877
2.8116958 3.986088 15.641393
3.6343496 5.1790271 14.965025
4.0176096 5.7421556 12.91038
2.9690971 4.2530541 7.6906295
3.3415103 4.7918243 7.0708532
1.939272 2.6330123 30.455244
2.6572783 3.7380793 17.695257
3.1324036 4.4373956 14.824863
4.4661369 6.368968 12.793956
3.1159389 4.4501305 7.2683334
5.1717634 7.3971167 9.8628578
8.3551044 12.025982 14.469919
3.9962039 5.7584224 5.7340765
4.9573541 7.1513681 4.6414366
6.4854321 9.3592052 4.6888194
19.052794 27.505499 9.9250193
19.975546 28.859135 6.755043
20.905531 30.2027 3.3905838
8.1862612 11.747909 12.83426
4.1035275 5.8932819 5.3124933
4.7835727 6.872467 5.006104
5.4906206 7.8970647 4.5337491
18.215849 26.209206 11.197817
19.510435 28.082317 8.338007
20.343533 29.281429 5.0650945
2.8064981 3.8704109 30.39168
3.6880796 5.1366687 30.425098
2.8515339 4.0127521 15.784554
3.6557891 5.1710954 14.978834
4.5881963 6.5091538 14.661623
2.9256451 4.159802 7.5418439
3.356374 4.7775087 7.0670156
1.9490867 2.6270831 30.465187
2.6834848 3.7471755 17.782366
3.1788783 4.4700294 14.970339
4.5259624 6.4065919 12.900604
3.0932415 4.3850574 7.1805534
5.1975527 7.3790183 9.8628578
8.1925306 11.704577 14.119464
4.0430441 5.7827177 5.7717381
4.8494749 6.9387035 5.6347728
5.0076513 7.1703377 4.6646247
6.5684838 9.4087343 4.7244072
19.093782 27.360147 9.8968172
20.129551 28.865788 6.7727633
21.124775 30.292934 3.4084668
4.1194315 5.8723035 5.3066072
4.8075323 6.8557272 5.006104
5.5233617 7.8852854 4.5379453
18.366814 26.23056 11.233974
19.650148 28.073774 8.3555918
20.448454 29.214293 5.0657849
2.8209081 3.8618455 30.401556
3.7030036 5.1196384 30.400621
2.8724749 4.0124831 15.822728
3.6896844 5.1805806 15.043269
4.5387807 6.3915572 14.433391
2.8945944 4.0852742 7.4261212
3.3619196 4.7500663 7.0439901
1.9598407 2.6223981 30.490046
2.6987543 3.7408433 17.796885
3.2025023 4.4701281 15.007881
4.5724945 6.4247513 12.968859
3.0666368 4.3152847 7.0847926
5.2154312 7.349772 9.848156
8.1018047 11.48938 13.895172
4.0654464 5.7717519 5.7748766
4.8905172 6.9456663 5.6539631
5.0377474 7.1600599 4.6692624
6.6786294 9.4957151 4.7787251
19.103642 27.17168 9.8531065
20.207596 28.763191 6.7653022
21.256155 30.255688 3.4124908
7.3410006 10.379661 11.404296
4.1445704 5.8644905 5.3124933
4.8413839 6.8529887 5.0162368
5.5508523 7.8659577 4.5379453
18.499094 26.224173 11.258628
19.787241 28.060621 8.3720036
20.63307 29.260101 5.0858145
2.8339105 3.8513491 30.396618
3.7196524 5.1050358 30.390831
2.9039273 4.0266457 15.918169
3.7897489 5.2819571 15.374651
2.8875828 4.0453706 7.3723922
3.3728974 4.7304726 7.0324779
1.9676999 2.6138377 30.470158
2.7125354 3.7324173 17.801723
3.2180867 4.4589224 15.007881
4.6116095 6.4320664 13.015784
3.0694022 4.2874026 7.0568619
5.2390828 7.3287635 9.8444815
11.529044 16.229021 19.64263
4.087821 5.7606993 5.7780147
4.9147329 6.9285526 5.6539631
5.0140381 7.0737653 4.625205
6.6715317 9.4156046 4.7506294
19.081921 26.94042 9.7938862
20.234091 28.588228 6.7410536
21.422054 30.266668 3.4218795
7.3663545 10.338768 11.387669
4.1509495 5.8302312 5.2948346
6.030098 8.4726896 6.1966982
5.5782757 7.8465338 4.5379453
18.617874 26.197926 11.275063
19.927296 28.050819 8.3895884
20.786705 29.260569 5.0982471
2.8440981 3.8370645 30.362043
2.945164 4.0539207 16.066099
3.7475064 5.1847792 15.130716
2.8869007 4.0147047 7.3351965
3.3781698 4.7030506 7.0094533
1.976812 2.6069534 30.470158
4.6576614 6.3618593 30.393906
3.1950686 4.3946233 14.829556
4.6584668 6.4497571 13.08404
3.0861123 4.2791066 7.0608521
5.2606707 7.3049288 9.8371315
11.612605 16.226381 19.688189
4.1599674 5.8192229 5.8501997
4.8805408 6.8297057 5.5881681
4.9280057 6.9012041 4.5254965
6.4619503 9.0526676 4.5820565
19.198132 26.904882 9.8051653
20.293831 28.461428 6.7279968
21.565157 30.244415 3.4276912
7.3893352 10.294791 11.367715
4.1783428 5.8255591 5.3036637
6.4891644 9.0506639 6.6298714
5.5422082 7.7384577 4.4875917
18.769684 26.217251 11.31122
20.064693 28.036428 8.4060011
20.949238 29.2724 5.112751
2.8714216 3.8457906 30.51022
3.7552013 5.0789433 30.390831
2.4224024 3.3100424 13.159962
3.696583 5.0769062 14.854566
4.2719893 5.8843527 13.39318
2.8711812 3.963583 7.2608032
3.3983238 4.6964235 7.0171275
1.9855764 2.5996134 30.465187
4.6835709 6.3506207 30.418104
3.2022316 4.3723063 14.792014
4.6855555 6.4397831 13.096837
3.1010303 4.2683082 7.0608521
4.0040827 5.5193305 7.470325
3.8189707 5.2971625 6.497076
4.2280216 5.8709946 5.9161067
4.8823638 6.7820859 5.5634947
4.9572392 6.8911524 4.5301342
6.5097508 9.05264 4.5932946
19.560728 27.211639 9.9405298
21.696747 30.205359 3.4317153
7.4164753 10.256834 11.354414
4.2010198 5.8142152 5.3066072
6.2784066 8.6924782 6.3866863
5.484211 7.6012864 4.420454
8.1711073 11.329548 4.9508395
20.205074 28.025358 8.4235849
21.091835 29.255331 5.1224208
2.8866966 3.838228 30.529978
3.7783811 5.0731535 30.434889
2.4277413 3.2931559 13.126558
3.7119708 5.0608211 14.84536
4.2896762 5.8655391 13.384401
2.8650935 3.9262588 7.2112074
3.4279132 4.7026634 7.0439901
1.9946387 2.5926666 30.465187
4.7049603 6.3332238 30.413263
3.187763 4.3208313 14.655924
4.7080059 6.4233885 13.096837
3.1123514 4.2525945 7.0528727
4.0433278 5.5326915 7.5070772
3.8353419 5.2809138 6.4935718
4.4153419 6.0861897 6.1452141
4.8642764 6.7074575 5.5168896
4.9812636 6.8738065 4.5301342
6.5331516 9.0185986 4.587676
19.717493 27.228672 9.971549
21.813728 30.145575 3.4335032
7.4522333 10.230883 11.354414
4.2498336 5.8387313 5.3419251
6.2655945 8.6112528 6.3436222
5.5107107 7.5820971 4.420454
8.1939516 11.278035 4.9409785
20.342762 28.009716 8.4399977
21.237474 29.241629 5.132781
22.485851 30.971859 1.6375939
2.345443 3.0960987 24.691774
3.7905672 5.0526032 30.390831
2.4160821 3.2535038 13.002486
3.7284532 5.0462623 14.840758
4.3058629 5.8447447 13.371235
2.8254459 3.8436794 7.0789533
3.4594846 4.7113376 7.0746908
2.0033498 2.5852668 30.460215
2.7809525 3.7163205 17.90819
3.1606219 4.2528911 14.46352
4.7118096 6.3817377 13.045646
3.1307528 4.2465549 7.0608521
4.0324678 5.477592 7.4519496
3.8558583 5.2703719 6.497076
4.4365597 6.0707407 6.1452141
4.8901267 6.6938128 5.5196314
5.0208983 6.8778439 4.5440469
6.5645924 8.995739 4.587676
19.829382 27.182932 9.98001
23.194988 31.819954 7.5673552
21.989227 30.165831 3.4442334
8.0997562 11.038664 12.275578
4.2916994 5.8531981 5.3684139
5.3221221 7.2611656 5.375948
5.6363454 7.6983066 4.4980822
8.2416353 11.260796 4.9459085
20.480595 27.99346 8.4564104
21.386204 29.231266 5.1438322
22.989019 31.433542 1.6645989
2.3581216 3.0903635 24.711533
3.804498 5.0344672 30.36146
2.4140117 3.2271214 12.930906
4.3091111 5.8065996 13.318565
2.8405204 3.836055 7.0830865
2.0123618 2.578258 30.460215
2.7976911 3.7116094 17.932388
3.041002 4.0622458 13.853461
2.8492188 3.831012 7.8796
3.1437602 4.233181 7.0568619
4.0192528 5.4199128 7.3931465
3.8678846 5.2482681 6.4865623
4.4254174 6.0113344 6.1012759
4.8589382 6.6026125 5.4593191
5.0658712 6.8888259 4.5625978
6.5080872 8.85324 4.527739
19.875856 27.047831 9.9560385
23.16927 31.552698 7.5235219
22.144499 30.157129 3.4518337
4.3265138 5.8576889 5.3860726
5.3371935 7.2286716 5.3658152
5.6631832 7.6785851 4.4980822
8.2752886 11.224357 4.9426217
20.621439 27.980488 8.4739952
21.538055 29.224207 5.1555734
23.146017 31.417459 1.6678234
2.9234166 3.8034763 30.495403
3.8245151 5.0243974 30.381041
2.4126852 3.2019858 12.8641
4.2920699 5.7416487 13.204449
2.8505282 3.8216052 7.0748205
2.0213494 2.571218 30.460215
2.8106303 3.7018211 17.932388
3.0468514 4.0405831 13.815919
4.7953405 6.4008689 13.152294
3.174763 4.243897 7.0927725
4.0239458 5.386838 7.3674202
3.8798032 5.2261438 6.4760485
4.3860927 5.9145632 6.0196757
4.8819561 6.5856118 5.4593191
5.1478968 6.9494104 4.6136112
6.5306745 8.8192921 4.5221195
19.90736 26.893463 9.9250193
23.141972 31.286018 7.4796886
22.305902 30.155718 3.4603283
4.3445215 5.8393078 5.3831291
5.3649664 7.2134562 5.3683486
20.762445 27.966877 8.49158
21.693068 29.220413 5.1680059
23.285318 31.376593 1.6698388
2.9366753 3.7932484 30.495403
3.8432693 5.0126324 30.390831
2.4220424 3.1911664 12.854555
4.2703061 5.6711478 13.077167
2.868922 3.8183806 7.0872192
3.8722749 5.1593566 7.7999787
2.0303125 2.5641465 30.460215
2.8258252 3.6949823 17.946907
3.0619807 4.0312972 13.820612
2.8758948 3.8110275 7.8796
3.1931841 4.2376022 7.1007524
4.0162258 5.337543 7.3196435
3.8894794 5.2011452 6.4620304
4.4439826 5.9491096 6.069891
5.1827192 6.9455996 4.6228862
6.6556621 8.9227867 4.585803
19.946632 26.750742 9.8982277
23.069071 30.960829 7.4218664
22.467562 30.153542 3.4688225
5.4414544 7.2553163 8.1586075
4.3624539 5.8208728 5.3801861
5.3151574 7.094635 5.2948861
5.7628798 7.7006345 4.5337491
19.501314 26.067974 11.419691
20.903606 27.952621 8.5091648
21.848318 29.215899 5.180438
23.275047 31.135061 1.6617775
2.9522877 3.7860382 30.5201
3.8713236 5.012886 30.474049
2.4231939 3.1696482 12.802063
4.2495508 5.602778 12.954271
2.8856294 3.8128309 7.0954857
3.8863947 5.1406951 7.7923036
2.0389183 2.556627 30.455244
4.8147736 6.2501464 30.413263
3.0739369 4.0178432 13.811226
2.8891799 3.8009655 7.8796
3.2371056 4.2648325 7.1645927
4.0307374 5.3180876 7.3122931
3.8968823 5.1732941 6.4445076
4.4834433 5.9584422 6.0949988
9.1178703 12.121872 10.029343
5.2521801 6.9876642 4.6623058
6.9513235 9.2515984 4.763741
20.129196 26.799856 9.9419384
22.653391 30.182472 3.4808939
5.4622459 7.2303195 8.1519566
4.3730049 5.7927055 5.3684139
5.3346968 7.0691571 5.2898202
5.7979202 7.6913428 4.5400429
19.629133 26.048773 11.441057
21.04492 27.937721 8.5267496
22.000818 29.206699 5.1921792
23.323483 30.97381 1.6577469
2.9664454 3.7769318 30.529978
3.8837967 4.9929123 30.434889
2.4242249 3.1481612 12.749571
3.818331 4.9835243 14.849962
4.2661738 5.5841036 12.945494
2.9313362 3.8452547 7.1740108
3.9179087 5.1449475 7.8191662
2.0478301 2.5494943 30.455244
4.839644 6.2372746 30.432621
3.0826757 4.0002542 13.787762
3.6448469 4.7484984 12.4411
2.8960879 3.7825739 7.862536
3.239162 4.2367506 7.136663
4.0225329 5.2689557 7.2645164
3.9041386 5.1454549 6.4269853
4.5559402 6.0109997 6.1640453
9.200531 12.143295 10.073206
5.2524738 6.9375024 4.6414366
6.6478491 8.7836905 4.5389771
20.286295 26.813591 9.9729595
21.79159 28.824123 6.9518261
22.755608 30.099241 3.4804466
5.4829283 7.2052655 8.1453056
4.4029846 5.7902756 5.3801861
5.3645573 7.0573559 5.2948861
5.7561183 7.5806932 4.4875917
19.728506 25.991381 11.445988
21.186384 27.922173 8.5443344
22.156517 29.200733 5.2046118
23.386171 30.832497 1.6547239
2.9747903 3.7604604 30.480585
3.9005737 4.9785237 30.429993
2.4233055 3.1243467 12.687535
3.7975073 4.9206738 14.702682
4.2900224 5.574872 12.958661
2.963593 3.8595502 7.2194738
3.9436474 5.1414132 7.8345165
2.0567172 2.5423307 30.455244
4.8613868 6.2203426 30.432621
3.0934463 3.9853802 13.773684
3.6467531 4.7168021 12.391586
2.9029033 3.7641809 7.8454723
3.2410617 4.2087064 7.1087327
4.0223007 5.2306952 7.2314396
3.9264071 5.1374626 6.4339943
4.5934281 6.0167165 6.1860142
5.2336779 6.8627667 4.6043358
6.6784701 8.7604313 4.5389771
20.403032 26.773142 9.9842396
21.951593 28.826042 6.9704781
22.923893 30.102825 3.4898353
5.5035038 7.1801558 8.1386547
4.4305434 5.7844977 5.3890157
5.7825441 7.5605545 4.4875917
19.942444 26.083664 11.516659
21.330944 27.909834 8.5630913
22.312437 29.194035 5.2170439
23.539152 30.810228 1.6577469
2.9835408 3.7445846 30.436132
2.3643038 2.9962349 18.373049
2.4305208 3.1111636 12.668447
4.3197265 5.5731134 12.989385
2.9977069 3.8758926 7.2690687
4.0850282 5.2874093 8.0762787
2.0655789 2.5351357 30.455244
4.8784051 6.1974092 30.403584
3.0924582 3.9555252 13.707985
4.1607685 5.3429742 14.066038
2.8840268 3.7128325 7.7601533
3.2372642 4.1735578 7.0688324
4.0550666 5.235384 7.2571659
3.9443159 5.1237254 6.4339943
4.6096568 5.9944744 6.1797371
9.3156643 12.118552 10.106105
5.2387123 6.8198662 4.5881042
6.6779504 8.696619 4.5183735
20.58399 26.815914 10.026541
22.052082 28.749241 6.9704781
23.077328 30.085846 3.4969888
5.5330973 7.1668124 8.1453056
4.4531775 5.7721977 5.3919592
5.6322017 7.3030586 5.5051398
5.7285767 7.4360595 4.4267483
20.10252 26.103685 11.556102
21.472712 27.892979 8.5806761
22.465561 29.18268 5.2287855
23.722727 30.826855 1.6627852
3.000484 3.7389948 30.475645
2.3753817 2.9887605 18.377943
2.4524434 3.1167371 12.725711
4.3362064 5.5542254 12.980606
3.0336998 3.8942637 7.3227973
4.1585774 5.343945 8.1837292
2.0744154 2.5279102 30.455244
4.9015703 6.182313 30.413263
3.1169233 3.9582639 13.754912
4.160584 5.3044381 14.003021
3.946403 5.0440259 10.545809
3.249958 4.1598577 7.0648422
4.0733171 5.2211976 7.2571659
3.9599919 5.1071076 6.4304895
4.6091022 5.9506521 6.1514912
9.3220701 12.039674 10.067724
5.2082705 6.7314672 4.5417285
6.7054305 8.6695881 4.5165005
20.774298 26.869133 10.073071
21.875998 28.314465 6.8846774
23.154806 29.969643 3.4929647
5.5672488 7.1592445 8.1586075
4.6692309 6.0087576 5.6244683
5.7405872 7.3980894 4.4162583
20.387428 26.283348 11.666217
21.617601 27.879313 8.5994329
22.618879 29.170612 5.2405272
23.85161 30.771498 1.6641959
3.0164478 3.7321241 30.505281
2.3864362 2.981246 18.382839
2.4725797 3.1198559 12.773431
3.0663836 3.9080031 7.3682599
4.2760711 5.4555297 8.3756046
2.0832269 2.5206537 30.455244
2.8916063 3.6212418 17.879154
3.1328661 3.9500637 13.764298
4.1493855 5.2523026 13.903994
3.9736714 5.04251 10.571404
3.2588689 4.1413841 7.0528727
4.0873284 5.2016158 7.249815
3.9755995 5.0904431 6.4269853
4.6274514 5.9314585 6.1483526
6.16256 7.9019732 6.6545987
5.229013 6.7097516 4.5394096
6.7669911 8.6863575 4.5371041
20.971121 26.928921 10.122422
22.010902 28.284452 6.8958688
23.271511 29.904356 3.4947531
5.5991116 7.1485858 8.1685839
4.7923198 6.1229243 5.7451377
6.2647929 8.0070896 6.059906
5.8306565 7.4602513 4.4645133
20.659304 26.442734 11.768115
21.759663 27.861143 8.6170177
22.729708 29.103186 5.2425995
24.054184 30.810127 1.6704433
3.0309291 3.7233799 30.5201
2.3981066 2.9744825 18.39263
4.8254337 6.0926881 14.310497
3.106179 3.930392 7.430254
4.2990608 5.4456019 8.3832798
2.0923541 2.5137761 30.460215
2.9042294 3.6111262 17.879154
3.1477122 3.9404523 13.768991
3.9237082 4.9311647 13.093776
2.8611357 3.6048028 7.5980482
3.3013804 4.1654058 7.1127229
4.107564 5.1899748 7.2534904
3.9911394 5.0737319 6.4234805
9.3881893 11.947475 12.33425
6.1513605 7.831089 6.6134763
5.2633433 6.7053962 4.5486846
6.8287516 8.7028027 4.5577073
21.139009 26.949915 10.157674
22.200409 28.323431 6.9238472
23.440268 29.905247 3.5041418
5.6078429 7.1084781 8.1453056
4.9312754 6.2553492 5.8834667
6.2927051 7.9851723 6.059906
5.8566628 7.4398532 4.4645133
20.868288 26.518894 11.833856
21.904869 27.846148 8.6357756
22.867899 29.070375 5.2508869
24.238792 30.824156 1.6754816
3.0439076 3.7127769 30.5201
2.4091165 2.9668839 18.397524
2.6383414 3.2816699 13.508316
4.894465 6.1357193 14.450948
3.149673 3.956954 7.5005145
4.3419814 5.4606671 8.4293289
2.1011159 2.5064571 30.460215
2.9176078 3.6019428 17.883993
3.1419756 3.9052393 13.684521
3.9436204 4.920836 13.102778
2.8753297 3.5968311 7.6023145
3.3572578 4.2056642 7.2005033
4.1235423 5.1729546 7.249815
4.0066113 5.0569739 6.4199758
9.5844326 12.109963 12.535112
6.0178041 7.6062574 6.4435058
5.3141909 6.7217331 4.5718727
6.8907075 8.7189217 4.5783105
21.328114 26.996414 10.202794
22.512213 28.515656 6.989131
23.556858 29.838879 3.5059302
5.6860461 7.156095 8.2217922
4.9882693 6.2824149 5.9246707
6.3071404 7.9462752 6.0472403
5.8459406 7.3731322 4.4372382
21.075123 26.590219 11.897952
22.044195 27.822849 8.6521873
22.96616 28.986492 5.2501969
24.408276 30.817684 1.6795121
3.0519013 3.6961381 30.470707
2.4194584 2.9584565 18.397524
2.6723258 3.3002813 13.622844
4.9353538 6.1428685 14.508006
3.163466 3.9459352 7.5005145
7.8152494 9.7586088 15.045187
2.1098523 2.4991076 30.460215
2.9579749 3.6258247 18.053375
3.1392913 3.8741374 13.61413
3.9785485 4.9290614 13.161294
2.8845966 3.5827093 7.5937824
3.4172328 4.2502799 7.2962637
4.1734104 5.1981821 7.3049426
4.0220146 5.0401702 6.416471
9.7042847 12.17383 12.635543
5.8514853 7.343214 6.2406373
6.9008904 8.669426 4.5651994
21.416245 26.914293 10.199975
22.590212 28.409985 6.9826026
23.747654 29.865608 3.5184484
4.4045186 5.5037079 6.3595123
5.0884266 6.3628216 6.0159087
5.7357001 7.1824512 4.3365321
21.232626 26.597683 11.93411
22.198784 27.817917 8.6744614
23.1506 29.010658 5.2688451
24.546856 30.771351 1.6815274
3.0598164 3.6794884 30.421314
2.4304178 2.9507787 18.402418
2.6809995 3.2874627 13.608528
4.9642992 6.1349125 14.529951
3.1666131 3.9217322 7.4757161
7.7989573 9.6688986 14.949249
2.1189086 2.4921339 30.465187
2.973805 3.6193619 18.072731
3.1527956 3.8631556 13.61413
3.9929838 4.9117656 13.152292
2.9085836 3.5867982 7.6236439
3.4320483 4.2383256 7.2962637
4.2725334 5.2837563 7.4445992
4.0395837 5.0260997 6.416471
9.7174788 12.10346 12.597881
5.8273544 7.2607841 6.188549
5.7434564 7.1613564 4.8918667
6.9195108 8.6308165 4.5577073
21.456066 26.771997 10.174594
22.680033 28.319454 6.979805
23.895344 29.83695 3.5247073
4.4002714 5.4592299 6.3262572
5.1486392 6.3922396 6.0600567
5.6216998 6.9820437 5.3531494
5.7465153 7.1447043 4.3260417
21.36972 26.578604 11.958761
22.368834 27.831186 8.7025976
23.301363 28.991428 5.2798963
24.716703 30.763372 1.6855582
3.0721424 3.6681893 30.416376
2.4400532 2.9414935 18.397524
2.6479275 3.2238715 13.384245
3.1625285 3.888823 7.4343872
7.7922401 9.5918617 14.872499
2.1275947 2.4847221 30.465187
2.9824138 3.6041174 18.048534
3.0950341 3.7654748 13.3091
2.9210863 3.5766234 7.6236439
3.425873 4.200634 7.2523737
4.2909508 5.2688103 7.4445992
4.0548596 5.0091963 6.4129667
9.6421938 11.92419 12.447235
5.7974625 7.1721096 6.1309786
5.765635 7.1378183 4.8895483
6.9437709 8.5993967 4.5539613
21.50419 26.640945 10.153443
22.707813 28.152174 6.9583545
24.055626 29.823128 3.5327549
4.419301 5.4438372 6.3262572
5.1760135 6.3805056 6.0659423
5.6406069 6.9556818 5.348083
5.7428513 7.089335 4.3050613
21.462368 26.503847 11.958761
22.465847 27.752934 8.7025976
23.458502 28.979195 5.2923279
24.86165 30.723515 1.6879766
3.0879343 3.6610067 30.446009
2.4509587 2.9337394 18.402418
2.6648738 3.2215099 13.412877
3.5392179 4.2996979 13.179247
5.168077 6.2963352 14.995194
3.131506 3.8233356 7.3310633
2.136255 2.4772804 30.465187
2.9925623 3.5907881 18.034016
3.1048577 3.7506607 13.295021
4.1227412 4.9996576 13.462875
2.93521 3.5684192 7.6279097
3.4328642 4.1793356 7.2364135
4.2620158 5.1961331 7.3637452
4.0813341 5.0060682 6.4269853
9.7771597 12.005144 12.566496
5.8251028 7.1550713 6.1337194
5.846427 7.1863742 4.9359241
6.967896 8.5679121 4.5502152
22.217392 27.328775 10.442501
22.867891 28.148989 6.9770064
24.209824 29.800823 3.5399082
4.4217334 5.4081435 6.302979
5.2315001 6.403091 6.1042037
5.6648526 6.9359498 5.348083
5.7933846 7.1008945 4.3239436
21.653244 26.54953 12.012998
22.516512 27.617836 8.6850128
23.612711 28.962383 5.30407
3.1017005 3.6513898 30.455889
2.4703627 2.9360733 18.470953
2.6655924 3.199573 13.360385
3.5604393 4.294837 13.202259
5.2007055 6.2911782 15.025918
3.1108096 3.7711372 7.2525373
7.6001425 9.2230806 14.385136
2.1445396 2.4694057 30.460215
3.0066948 3.5822461 18.043695
3.0891991 3.7053387 13.173009
4.1540771 5.0019832 13.507888
2.9459844 3.5561435 7.6236439
3.4397488 4.1580396 7.2204528
4.2434225 5.1367922 7.3012671
4.0965204 4.9890351 6.4234805
6.1928263 7.5500693 7.9561038
5.7439923 7.0053558 6.0240612
5.820941 7.1042457 4.8941855
6.9889483 8.5327787 4.5445962
22.312651 27.251055 10.442501
23.018894 28.133627 6.9928613
24.395695 29.816345 3.5515325
4.4595718 5.4157343 6.3295827
5.2204313 6.3442149 6.0659423
5.6452131 6.8628669 5.3075523
5.8383055 7.105175 4.3386302
21.613905 26.313229 11.940684
22.566511 27.482723 8.6674271
23.767086 28.944843 5.3158112
3.115438 3.6417215 30.465767
2.4891543 2.9375305 18.53459
2.6661904 3.1776705 13.307893
3.6267464 4.3438687 13.390963
5.1827912 6.225131 14.9118
3.0843925 3.7126367 7.1616125
7.6261501 9.1890955 14.373624
2.1531465 2.461905 30.460215
3.0191808 3.5717289 18.043695
3.1287472 3.7262502 13.285636
3.456171 4.1483231 7.224443
4.2114577 5.0620074 7.2167387
6.2364955 7.5494113 7.9780726
5.7258105 6.9336772 5.9801974
5.8654404 7.1078005 4.9104176
6.9980402 8.4832973 4.5314846
22.392378 27.154497 10.435451
23.176311 28.125132 7.010581
24.585133 29.834772 3.5636034
4.5714059 5.5122204 6.4592772
5.1548519 6.22014 5.9658751
5.6003814 6.7601295 5.2442226
21.579201 26.084803 11.871655
22.600355 27.328871 8.6439819
23.924786 28.930397 5.3282437
3.1286383 3.6314132 30.470707
2.5013762 2.9311473 18.549276
2.6657045 3.1546631 13.250629
3.636858 4.325201 13.372552
3.1009448 3.7061634 7.169878
2.1613748 2.4539742 30.455244
3.0332596 3.5630825 18.053375
3.1707072 3.7495656 13.407648
3.9350414 4.6715059 12.693168
3.4648201 4.1293087 7.2124734
4.2269244 5.0446777 7.2130632
4.2796006 5.138433 6.6512756
6.2652998 7.5305886 7.9812112
5.7018509 6.8557806 5.930851
5.8335872 7.0191464 4.8640413
7.0601974 8.4980421 4.5520883
22.342983 26.902723 10.369179
23.324539 28.104542 7.0255032
24.730469 29.79859 3.5694153
8.5614786 10.250382 11.976282
5.173943 6.1990051 5.9629316
5.6377521 6.7570882 5.2568884
21.715466 26.063742 11.896309
22.698721 27.253546 8.645153
24.073164 28.903786 5.338604
3.1418042 3.6210566 30.475645
2.5129199 2.9239423 18.559067
2.6660581 3.1328344 13.198137
3.670872 4.3348427 13.44159
4.6296673 5.4824848 13.217617
3.1156762 3.6974688 7.1740108
5.1986961 6.1759272 9.7417555
2.1699276 2.4464147 30.455244
3.0383148 3.5438843 18.009819
3.184895 3.739789 13.41234
3.9231577 4.6245408 12.603144
2.912302 3.4414842 7.4444747
3.4597633 4.0941739 7.1725731
4.2379489 5.0221195 7.2020383
4.3273058 5.1589832 6.696835
6.2940478 7.5116558 7.9843497
5.7230616 6.8326292 5.9281096
5.8637395 7.0055346 4.868679
7.1909671 8.5942316 4.6157713
22.365967 26.739937 10.336748
23.479206 28.090797 7.0422902
8.6332607 10.263294 12.026165
5.19555 6.1809077 5.9629316
5.7750077 6.8726816 5.3607488
6.9599199 8.291604 5.0918312
21.851841 26.04204 11.920961
22.884306 27.282143 8.6791506
24.25029 28.910633 5.3551798
3.1544251 3.6100678 30.475645
2.5171132 2.9082239 18.515009
2.6624064 3.1065087 13.126558
3.6606257 4.2922735 13.34954
4.6379151 5.4535198 13.186893
3.1449513 3.7058804 7.2112074
5.2264409 6.1650772 9.7532682
0.46419874 0.48196977 11.41036
2.1784539 2.4388254 30.455244
3.0514886 3.5342083 18.014658
3.9251354 4.5942669 12.558131
2.9192219 3.4253423 7.4316764
3.4994221 4.1119032 7.224443
4.2400856 4.989213 7.1763124
5.5212975 6.5359597 8.4876575
5.7495742 6.8158069 5.930851
6.0023627 7.1205025 4.961431
7.2119608 8.5584431 4.6101522
22.34482 26.525957 10.284576
23.630898 28.072554 7.0581446
8.7993603 10.386936 12.205741
5.8769355 6.9446192 5.4316778
6.9858904 8.263793 5.0897331
22.018812 26.055777 11.962049
23.026449 27.257793 8.6967354
24.411777 28.897684 5.3683033
3.1675208 3.5996182 30.480585
2.5205588 2.8917449 18.466057
2.6722584 3.0960662 13.121786
3.6475816 4.2468653 13.248284
4.6569233 5.4372969 13.186893
3.1560395 3.6927404 7.2070746
5.2833095 6.1882362 9.8185062
0.46587828 0.4803465 11.41036
2.18731 2.4316025 30.460215
3.0778282 3.53966 18.09693
3.1285787 3.6221299 13.069769
3.9368892 4.5755873 12.544628
2.9379556 3.4230478 7.4487405
4.186933 4.8919625 7.0587063
5.5325241 6.5030661 8.4701357
5.7892799 6.8120675 7.290751
5.7814517 6.8052554 5.9390759
6.0357819 7.1096377 4.9683876
7.2657881 8.5614929 4.6251364
22.434175 26.444141 10.283168
23.789099 28.061089 7.0758648
4.6866975 5.4933043 6.512485
5.4011626 6.3351884 6.1454077
5.8116617 6.8190742 5.3506165
7.0294042 8.2566357 5.1002231
22.167782 26.047085 11.993277
23.178148 27.243887 8.7178373
24.563841 28.872643 5.3793535
3.1805816 3.5891209 30.485525
2.5239203 2.875277 18.417107
2.6830494 3.0867193 13.121786
3.640656 4.2089877 13.170042
4.772861 5.5334482 13.459016
3.1652391 3.6774361 7.1988091
5.3132367 6.1794772 9.8338556
2.1961429 2.4243476 30.465187
3.1034153 3.5440247 18.17436
3.1446013 3.6150935 13.083847
3.9742212 4.5864949 12.612146
2.9498863 3.4127712 7.4487405
3.9434857 4.5686679 8.0663385
4.1929169 4.8644786 7.0403309
5.5528698 6.4810057 8.4666309
5.8180847 6.7977319 7.2970276
5.8432293 6.829514 5.9774561
7.3257499 8.5713205 4.6438665
22.604248 26.45685 10.318419
23.94113 28.041388 7.0917192
4.6474447 5.4089432 6.432673
5.4364085 6.3316288 6.1601233
5.8129692 6.7725778 5.3303509
7.0079613 8.1734743 5.0645561
22.237057 25.944448 11.981771
23.32687 27.225561 8.7377663
3.1941254 3.5791562 30.495403
2.5278716 2.8595841 18.373049
2.6928246 3.0762119 13.117014
3.6899741 4.2360282 13.29431
4.9225097 5.6668239 13.823309
3.2573137 3.7577975 7.3765254
5.3179898 6.1415086 9.8031559
2.204592 2.4166667 30.465187
3.1224184 3.5407116 18.213074
3.1628866 3.6105847 13.107311
2.9771926 3.4201577 7.487134
3.9515018 4.5457778 8.0503778
8.7679234 10.100653 14.578094
4.4501696 5.1574626 6.7739348
5.8494015 6.7862263 7.3064432
5.9079752 6.8565917 6.0185781
6.5043807 7.5540733 5.3046131
9.2790804 10.780342 5.8351159
22.749649 26.439598 10.342388
24.106121 28.035866 7.1113038
4.6589675 5.3842173 6.4226966
5.5139976 6.376821 6.22193
5.7745547 6.6804962 5.2746205
7.033484 8.1455278 5.0624585
22.234917 25.759428 11.932466
23.478916 27.210209 8.7588682
3.207119 3.5685625 30.500341
2.5371609 2.8499818 18.368153
2.7025588 3.0656736 13.112242
3.6609328 4.1731887 13.137824
5.0242605 5.7433405 14.051541
3.2833655 3.7612443 7.4054565
4.3724546 5.0140929 8.0417414
0.46966201 0.47421265 11.380409
2.21085 2.4066014 30.435358
3.1497831 3.5467074 18.300184
2.4939003 2.8269758 10.30573
3.0063057 3.4293559 7.5297933
3.9613912 4.5251555 8.0384083
8.8008966 10.067433 14.574418
4.4494319 5.1203628 6.7458987
5.8730545 6.7657666 7.3064432
5.9236517 6.8264527 6.010354
6.5742416 7.5815244 5.339395
9.3348732 10.768905 5.846354
22.87636 26.399906 10.357899
24.261719 28.018391 7.1280913
4.6654687 5.3538475 6.4060693
5.610548 6.4428854 6.3043389
5.7242479 6.5757613 5.2087579
7.0618739 8.1209278 5.0624585
22.299913 25.653143 11.919317
23.634333 27.197798 8.7811422
3.2221632 3.5602262 30.525038
2.5443749 2.8380761 18.348574
2.7033336 3.0450592 13.064523
3.6793575 4.1647763 13.151631
5.0537772 5.7365499 14.077876
3.3039067 3.7582138 7.421988
4.4131961 5.0252914 8.0839539
0.47008947 0.47134575 11.35046
2.2177889 2.3973045 30.415472
3.1654966 3.5394387 18.319542
2.5094838 2.8247035 10.329193
3.0441494 3.4481673 7.5937824
3.9771626 4.5113001 8.0384083
4.2346659 4.8101258 7.02563
4.467278 5.1047997 6.7458987
5.3996501 6.1767225 6.6975822
5.955699 6.8151793 6.0185781
6.6676831 7.635272 5.3927279
9.3541145 10.715301 5.8351159
23.031452 26.392176 10.386099
24.427172 28.01128 7.147676
4.6841288 5.3375292 6.4060693
5.7342768 6.5387411 6.4161787
5.7471666 6.5557399 5.2087579
7.0363569 8.0347691 5.0246935
22.411095 25.600018 11.930822
23.789948 27.184631 8.8034172
3.2392817 3.5541253 30.56949
2.5522189 2.82691 18.333885
2.7069814 3.0278144 13.031117
3.7406232 4.204453 13.317322
4.6875286 5.2835336 13.01133
3.3058133 3.7340167 7.3971906
4.434958 5.014658 8.091629
0.4717319 0.46970198 11.35046
2.2235999 2.3868186 30.380671
3.1929746 3.5451789 18.406652
2.52163 2.8184986 10.338579
4.200098 4.7125745 13.116282
3.0613654 3.443367 7.6065798
3.9988873 4.504149 8.0503778
7.789176 8.7855825 12.806664
4.4897861 5.0945258 6.7529078
5.2257066 5.9358053 6.4590597
5.9877396 6.8037653 6.0268025
6.5714273 7.4722409 5.2953382
9.3577909 10.644284 5.8145123
23.177273 26.372877 10.410069
4.6681151 5.2819777 6.3595123
5.8132548 6.5823069 6.4779849
5.761457 6.5259442 5.2011585
7.0883765 8.0373898 5.0414777
22.572144 25.603104 11.968623
23.945755 27.170708 8.8256903
3.2490411 3.5399346 30.544796
2.5593312 2.8149705 18.314304
2.7095435 3.0094728 12.992942
3.7657065 4.2030106 13.354142
3.3057182 3.7077518 7.3682599
4.2030139 4.7191038 7.6426411
2.2322826 2.379431 30.385643
5.3165655 5.8615642 30.505213
2.5314531 2.8096793 10.338579
4.2165222 4.6978846 13.116282
4.0145855 4.4901628 8.0503778
7.8310852 8.7709837 12.82504
4.4980726 5.0681534 6.7388892
5.0992103 5.7515173 6.2801676
6.7296357 7.5984859 5.399684
9.4471321 10.670562 5.846354
23.329596 26.360065 10.43686
4.6865239 5.2656507 6.3595123
5.8308239 6.5559344 6.4720988
5.7813373 6.5025716 5.1986256
22.727219 25.59831 12.003137
24.08885 27.141485 8.8432751
2.638485 2.8547297 24.711533
2.5677664 2.804518 18.304516
2.7210348 3.001102 12.997714
3.7882071 4.1985426 13.381758
4.8572617 5.3984523 13.375624
3.3092401 3.6857202 7.3475947
4.2194614 4.7044039 7.6426411
2.2405748 2.3716245 30.385643
3.2371445 3.544147 18.51796
2.5458834 2.8059378 10.357349
4.2212167 4.6702175 13.080272
4.0342669 4.4806013 8.0583582
4.2802715 4.7604766 7.01828
4.51336 5.0497622 6.7353849
5.2203569 5.8469172 6.4025679
7.6834202 8.608593 7.6497507
6.8003464 7.6245365 5.4344659
9.5583649 10.720567 5.8913064
23.47892 26.342928 10.462241
4.6226377 5.1575069 6.2497711
6.2447019 6.9721165 6.8988566
5.8040004 6.4823513 5.1986256
22.863647 25.571627 12.02779
24.261183 27.144213 8.8714104
2.6484339 2.8455021 24.711533
2.5740888 2.7917948 18.280039
2.7345135 2.9948926 13.012031
3.7489731 4.1260118 13.193054
3.3126493 3.6637104 7.3269305
4.1542153 4.5992599 7.4968157
2.2488399 2.3637888 30.385643
3.2682176 3.5531781 18.624426
2.5591547 2.8008556 10.371428
4.2682662 4.6892619 13.174798
4.1754823 4.5985718 10.23013
4.0478587 4.4642591 8.054368
4.2786584 4.7254024 6.9888787
4.5357313 5.0392785 6.742394
5.2953863 5.8894405 6.4684753
7.7134233 8.5817213 7.6497507
6.7736382 7.5414324 5.3927279
9.6607704 10.759576 5.9306407
23.63802 26.335779 10.491852
4.6180964 5.116394 6.2198415
6.266294 6.9472747 6.8959136
5.8467994 6.4844623 5.2163577
8.7668161 9.7331514 6.1429553
23.006483 25.551319 12.055729
2.6562247 2.8339725 24.691774
2.5858972 2.7850311 18.294725
2.7459614 2.9864278 13.016803
3.7435696 4.0912805 13.124016
4.6090946 5.0512695 12.598757
3.3178391 3.6438017 7.3103981
4.1961255 4.6131845 7.5428658
2.257077 2.3559244 30.385643
3.278892 3.5399039 18.614748
2.5700846 2.7931752 10.376121
4.2007623 4.5828633 12.918229
4.2055888 4.5993667 10.264257
4.0593538 4.4456525 8.0463886
4.2905588 4.7054281 6.9815283
4.558084 5.0286999 6.7494035
5.3786125 5.940167 6.543798
7.7152719 8.5237436 7.6223359
6.8028932 7.5210271 5.3950462
9.7107058 10.739542 5.9381323
23.778055 26.30649 10.513002
4.575654 5.0339327 6.1400294
6.2905068 6.9253592 6.8959136
5.9621305 6.5661397 5.2974191
8.809885 9.712575 6.1492491
23.149458 25.530325 12.083669
2.6639676 2.8224235 24.672018
2.5969939 2.7774751 18.304516
2.7583976 2.9790151 13.026345
4.6315598 5.0404401 12.611923
3.3229308 3.6239021 7.2938666
4.257668 4.6481428 7.6234531
2.2641766 2.3468807 30.370728
3.2860844 3.522922 18.585711
2.5856833 2.7905157 10.399585
4.1960616 4.5457773 12.855211
4.2216182 4.5846581 10.264257
4.0707679 4.4270191 8.0384083
4.2748561 4.6554632 6.9300761
4.590035 5.0285616 6.7704306
5.2472048 5.7545404 6.3617678
7.7421603 8.4936695 7.6195941
22.557655 24.773193 13.625059
23.921402 26.280087 10.535563
4.6058025 5.0317006 6.1566567
6.3146424 6.9033589 6.8959136
6.1013746 6.6725397 5.3987465
8.7794552 9.611393 6.1051903
23.292564 25.508642 12.111608
2.6738036 2.813107 24.672018
2.6080692 2.7698753 18.314304
2.7687795 2.969368 13.026345
4.4457955 4.8045115 12.063289
3.3260148 3.6019435 7.2732015
4.2977734 4.6591682 7.6656661
2.2719836 2.3385808 30.365757
3.2828703 3.4949393 18.4986
2.5906992 2.7764266 10.380814
4.2119031 4.5311027 12.855211
4.8564897 5.2373042 11.753068
4.0841489 4.4105716 8.0344181
4.2887788 4.6380239 6.9264011
4.5954928 4.9993815 6.7529078
5.1803837 5.6415792 6.2581987
7.7774167 8.4727535 7.6250772
6.6695781 7.2709565 5.2512808
22.618925 24.666967 13.610075
24.071339 26.260078 10.560943
4.6385226 5.0320649 6.1766095
6.319531 6.8604636 6.8753114
6.2647939 6.8034167 5.5203395
8.7883711 9.5539675 6.0884061
23.432608 25.482798 12.137904
2.6825321 2.8026342 24.662138
2.6191232 2.7622321 18.324095
2.7821932 2.9629498 13.040662
4.4086585 4.731143 11.918448
3.3270702 3.5779476 7.248404
4.37291 4.7075434 7.769279
2.2793872 2.3298738 30.355814
2.6098289 2.7774267 10.418356
4.1919889 4.4782305 12.747182
4.899662 5.2470055 11.812791
4.0954099 4.3918805 8.0264378
4.3049426 4.6230249 6.9264011
4.5983801 4.967607 6.7318802
5.1709762 5.5920267 6.2236753
6.1436672 6.6462293 6.0185781
6.6738772 7.2248535 5.2350497
22.82126 24.713881 13.679378
4.6408181 4.9994235 6.1566567
6.3984184 6.8976302 6.934175
6.3236775 6.819438 5.5507374
8.7939081 9.4932661 6.0695233
23.582378 25.466681 12.169131
2.6912203 2.7921343 24.65226
2.6294525 2.7538095 18.328991
2.7935445 2.9543047 13.045434
3.3892977 3.6018283 11.711041
3.3491566 3.576582 7.2690687
4.3893161 4.6922503 7.769279
2.2867577 2.3211436 30.345871
3.3054554 3.4701154 18.488922
2.6195078 2.7682998 10.418356
4.1777301 4.4318895 12.657158
4.9179478 5.2298708 11.812791
4.114841 4.3819518 8.0344181
4.588944 4.9228311 6.6933308
5.2779989 5.667943 6.3272443
6.1383395 6.5941377 5.9911637
6.6206098 7.1171832 5.1747608
22.973684 24.705362 13.718711
4.6556911 4.9804659 6.1533313
12.696921 13.592033 13.626922
6.3503857 6.8004727 5.5532703
8.9043894 9.5454798 6.1219749
23.732317 25.449821 12.200357
2.6998677 2.7816083 24.642384
2.6404607 2.7460818 18.338781
2.8192811 2.9607499 13.117014
3.3978186 3.5857213 11.697233
4.4415803 4.7002497 11.918448
3.3635514 3.5669167 7.2732015
4.3770967 4.6465702 7.7193909
2.2955971 2.313904 30.355814
2.6124883 2.7416494 10.352656
4.0912576 4.3099184 12.351075
4.894928 5.1691175 11.714675
4.1114783 4.3478575 7.998508
4.1183162 4.3611641 6.5809355
4.5816913 4.8807817 6.6582851
5.3270392 5.680717 6.3617678
6.1613197 6.5726705 5.9911637
6.5273037 6.967948 5.0843277
23.116821 24.685926 13.752425
4.6193037 4.9070926 6.0834961
12.871687 13.683057 13.762307
6.2500534 6.6463695 5.446877
8.9314404 9.5077238 6.1177783
23.879194 25.428789 12.22994
2.7084749 2.7710559 24.632504
2.649322 2.7361166 18.333885
2.8347645 2.9562776 13.140874
3.4184067 3.5823193 11.724849
4.5240016 4.7541156 12.094012
3.3798571 3.5592353 7.2814679
4.3668184 4.6033583 7.6733413
1.2907703 1.1962171 30.268845
2.3006456 2.3028603 30.31604
2.6065094 2.716327 10.291651
4.0521226 4.2389612 12.189032
4.3117871 4.5216069 10.289853
4.1328645 4.3400254 8.010478
4.1171613 4.3295655 6.5552092
4.5693016 4.8336592 6.61623
5.3762326 5.6932168 6.3962908
6.1928358 6.5602455 5.9993877
6.4330368 6.8194504 4.9938941
23.256922 24.662422 13.784266
4.5850291 4.8367434 6.0169859
6.5203333 6.8830676 6.9871521
6.2969275 6.6495519 5.4671421
2.7164958 2.7599235 24.617685
2.6652546 2.733413 18.377943
2.8481772 2.9495854 13.15519
3.4200609 3.5590956 11.688028
4.5273123 4.7244616 12.0589
3.4019852 3.5575848 7.3021331
4.3828607 4.5880876 7.6733413
1.2940879 1.1909226 30.24888
2.3067796 2.2929368 30.291183
5.5240273 5.6787548 30.539089
2.6051826 2.6960437 10.249416
4.0412288 4.1981292 12.112511
4.2968349 4.4745498 10.217332
4.1438174 4.3212233 8.0024977
4.1533518 4.3372045 6.5882859
4.5664754 4.7970161 6.5881939
5.353157 5.6292863 6.3460755
6.2156978 6.538588 5.9993877
6.5178208 6.861187 5.0402703
23.413097 24.655046 13.825474
4.6018848 4.8207092 6.0169859
6.5443206 6.8602657 6.9871521
6.3677001 6.6774459 5.5076733
7.0629945 7.4143152 4.8211823
2.725019 2.7493205 24.607807
2.6733527 2.7226398 18.368153
2.8771877 2.9588881 13.241085
3.4161608 3.5302887 11.632798
4.4456534 4.6069489 11.799944
3.4085271 3.5396073 7.2897339
4.4144044 4.5889297 7.7002034
1.3007958 1.1887338 30.308779
2.3128724 2.2829986 30.266327
5.5350199 5.6504583 30.490694
2.6109672 2.6832232 10.235337
4.0982847 4.2277632 12.238545
5.0176835 5.1888175 11.87678
4.1825862 4.3373213 6.6103368
4.5560455 4.7527289 6.5496445
5.2650914 5.4981184 6.2205377
6.2095685 6.4866467 5.9719729
6.5876637 6.8864093 5.0750523
23.531057 24.606676 13.844204
4.6005712 4.7857747 5.9937072
6.5570264 6.8257198 6.975379
6.4178429 6.6831613 5.5304718
7.1202507 7.4223671 4.8421626
2.7378931 2.7430911 24.637444
4.4533844 4.5037246 30.474049
2.9000318 2.9616251 13.298349
3.4243727 3.5141449 11.618991
4.187974 4.30972 11.080134
3.4326158 3.5398083 7.3145313
4.5173717 4.6632767 7.8498659
1.3021566 1.1816654 30.243887
2.3181624 2.2722995 30.231525
2.6251488 2.6790233 10.254109
4.1038938 4.2040854 12.211538
5.0939898 5.2310615 12.013289
4.2047863 4.3299918 6.6213622
4.5750852 4.7393622 6.5531487
5.2599344 5.4544902 6.1922913
6.2234674 6.4558997 5.9637489
6.6577616 6.9112263 5.1098342
23.687553 24.597853 13.88541
4.5964727 4.7482243 5.9671035
6.5189848 6.7388783 6.9106297
6.4561167 6.6762128 5.543138
7.1366572 7.3876753 4.8358688
2.748553 2.7346134 24.647322
4.4669228 4.4859877 30.459364
2.9239771 2.9653008 13.360385
4.1962919 4.288228 11.062579
3.4547815 3.5378714 7.3351965
4.5492892 4.6635399 7.8767285
1.3077755 1.1784648 30.278828
2.3260801 2.264194 30.231525
3.3986638 3.4215322 18.605068
2.6344843 2.6698432 10.254109
4.113965 4.1850767 12.198034
5.0355253 5.1350408 11.834121
4.4544826 4.5488567 8.5052414
4.2364669 4.3322544 6.6470885
4.7805223 4.9177036 6.8194938
5.2626719 5.4193416 6.17346
6.2168398 6.4041348 5.9363341
6.6787605 6.8847642 5.1075153
4.586956 4.7054148 5.9338484
6.5565705 6.7305574 6.9253454
6.5004334 6.6752548 5.5608702
7.1624017 7.3627191 4.8358688
2.7608459 2.7277327 24.672018
4.4753451 4.4631782 30.410412
2.9563982 2.977319 13.460597
4.2162781 4.2786717 11.075746
4.4694328 4.5450497 9.4347343
4.5385866 4.6201935 7.8306789
1.3118811 1.1738926 30.278828
2.3355026 2.2575421 30.251413
3.4114754 3.4105365 18.609907
2.6450043 2.6618552 10.258801
4.1254859 4.1675968 12.189032
4.2452736 4.2990665 9.9528437
4.4682178 4.5311346 8.5012512
4.2349124 4.3005314 6.6213622
4.8001542 4.9035349 6.8229985
6.2157726 6.3584738 5.9144025
6.6748929 6.8328905 5.0866461
4.6059685 4.6920395 5.9371738
6.5687027 6.6960883 6.9135728
6.523695 6.652523 5.5608702
7.2102904 7.3603678 4.8505549
2.7703507 2.7180791 24.672018
4.4959617 4.4525442 30.444679
2.9709952 2.9712031 13.479685
4.236249 4.2690282 11.088913
4.453589 4.4974279 9.3686066
5.918447 5.9829216 10.152369
1.3164027 1.1696894 30.288813
2.3437533 2.2497451 30.256384
3.4233596 3.3986075 18.609907
2.6542797 2.652606 10.258801
4.1476932 4.1608796 12.211538
4.2584152 4.2823725 9.9485779
3.9744291 4.0023618 7.5436454
4.2427368 4.2785006 6.6103368
4.8547959 4.9248452 6.875567
4.8716006 4.9470563 5.6807227
6.2173963 6.3158798 5.8952122
6.6987038 6.8095489 5.0866461
4.6223192 4.6759329 5.9371738
6.5835142 6.6644921 6.9047432
6.6013989 6.6849222 5.6064672
7.2359395 7.3351541 4.8505549
2.778152 2.7067657 24.6572
4.5107503 4.4361091 30.439783
2.9898217 2.9692287 13.51786
3.0554714 3.0492322 10.229029
4.5328465 4.5456181 9.5008612
5.9777508 6.0008297 10.217607
1.3209107 1.1654689 30.298796
2.3531356 2.2430212 30.27627
3.4307265 3.382225 18.585711
2.6647477 2.6445403 10.263494
4.135973 4.1202579 12.135017
4.2807193 4.2748528 9.965642
4.2504592 4.2564683 6.5993109
