# .PCD v0.7 - Point Cloud Data file format
VERSION 0.7
FIELDS x y z
SIZE 4 4 4
TYPE F F F
COUNT 1 1 1
WIDTH 1605
HEIGHT 1
VIEWPOINT 0 0 0 1 0 0 0
POINTS 1605
DATA ascii
1.2311352 9.2280455 29.809414
1.0507543 7.6620603 29.813175
1.8429997 14.609734 14.550524
4.8109884 38.298222 31.20579
3.8671203 30.915327 16.395433
3.8350432 30.702358 12.589272
3.9942145 32.022034 9.5753307
4.1459413 33.333126 6.4687285
4.3499804 34.973564 3.2569072
3.979249 31.192825 28.088331
3.8689303 30.583 14.337948
3.9299004 31.108515 11.002239
4.1003246 32.503147 7.9921722
4.2871361 33.983971 4.8696318
4.5158153 35.847038 1.5511371
0.072974361 0.1494583 17.563604
0.68394035 4.6617908 29.952084
0.87342089 6.1539478 29.906202
1.2649603 9.2355223 29.847589
1.0766176 7.652122 29.788977
1.8921512 14.589064 14.536505
4.9426498 38.265751 31.193235
3.9750113 30.90164 16.395433
3.9439626 30.702576 12.594892
4.128551 32.183941 9.6275015
4.2896962 33.532845 6.5097642
4.4518127 34.800098 3.2426007
4.085681 31.160234 28.071703
3.9797587 30.600813 14.352634
4.0408983 31.11334 11.008814
4.2431412 32.715187 8.0472717
4.4229341 34.101391 4.8882799
4.6248746 35.707195 1.5460988
0.07347513 0.14916414 17.558605
0.70078653 4.6632175 29.976782
0.89431041 6.1468315 29.886621
1.2980214 9.2369633 29.866678
1.1042194 7.6545382 29.813175
1.9411807 14.56823 14.522487
5.0802889 38.279133 31.218344
6.1442342 46.357723 30.74386
4.0828543 30.887577 16.395433
4.0523243 30.697815 12.598638
4.2414956 32.174088 9.628911
4.4323349 33.712479 6.5470686
4.5953326 34.952221 3.2578015
4.1984124 31.175388 28.098307
4.0853491 30.577736 14.348437
4.5458674 34.115196 4.8924246
4.7646446 35.804729 1.5507339
0.074036613 0.14898367 17.568605
0.71741444 4.6630464 29.991598
0.91576141 6.143672 29.886621
1.3332373 9.2530603 29.933485
1.1320351 7.6580977 29.842211
1.9910547 14.554298 14.515477
5.2107239 38.238026 31.199514
6.3054523 46.331848 30.741121
4.1906471 30.873137 16.395433
4.1613235 30.697266 12.604257
4.3550658 32.168598 9.631732
4.551301 33.706539 6.548934
4.719975 34.955704 3.2595894
5.8063068 42.113995 31.03866
4.193294 30.572283 14.352634
4.2900538 31.318295 11.090989
4.6669374 34.113838 4.8944964
4.8895969 35.787884 1.5507339
0.074576974 0.1487627 17.573605
0.73272014 4.6543736 29.952084
0.93904525 6.1525173 29.945366
1.3609492 9.2173405 29.833273
1.1600772 7.6627989 29.876087
2.0403595 14.536665 14.504964
5.352253 38.277428 31.24659
4.2990003 30.862709 16.397753
4.2697291 30.691734 12.608003
4.4699697 32.172207 9.637372
4.6709538 33.705044 6.5517321
4.8419647 34.939014 3.2595894
4.2298775 29.832952 26.917753
5.9521446 42.085464 31.032772
4.3006182 30.561956 14.354733
4.4446955 31.625788 11.204391
4.9415507 35.205643 8.6650829
4.7901187 34.126766 4.8986406
5.016571 35.785439 1.5513384
0.075137578 0.14857809 17.583603
0.74834466 4.6479521 29.927387
0.96035862 6.1481953 29.94047
1.3864191 9.1682549 29.690115
1.1873958 7.6624293 29.890606
2.0895655 14.518865 14.494451
5.4919105 38.300892 31.281113
6.3584447 44.399223 29.491011
4.4073315 30.851902 16.40007
4.3788013 30.690411 12.613621
4.5835972 32.165901 9.640192
4.7906518 33.703121 6.5545297
4.9603915 34.897255 3.2573543
4.3377476 29.84387 26.941032
6.0914745 42.012428 30.994513
4.4092174 30.560232 14.361027
4.5456338 31.544645 11.181382
5.0595641 35.154503 8.6568775
4.909214 34.109837 4.8986406
5.1428771 35.777603 1.5517416
0.075676784 0.14835313 17.588602
0.76405954 4.6422448 29.907631
0.98342091 6.15486 29.989422
1.4193271 9.16926 29.709202
1.2135448 7.6545134 29.876087
2.1376314 14.493842 14.476929
5.6272697 38.293041 31.290529
6.5164247 44.397446 29.504719
4.5156398 30.840714 16.40239
4.487246 30.684114 12.617368
4.6979289 32.163948 9.6444216
4.908977 33.691059 6.5554624
5.0857649 34.904362 3.2595894
4.4490452 29.87656 26.984264
5.9826856 40.271717 29.728952
4.5165296 30.549147 14.363126
4.6626158 31.575302 11.197817
5.1786995 35.112583 8.6510153
5.0304174 34.107185 4.9007125
5.269917 35.774258 1.5523462
0.076194175 0.14808807 17.588602
0.77948588 4.6349521 29.877996
1.0053918 6.1544042 30.004108
1.4515587 9.1657248 29.713974
1.2396532 7.6465082 29.861568
2.1839499 14.458082 14.448892
5.7638001 38.292412 31.306221
6.6682525 44.353752 29.491011
4.6239228 30.82914 16.404709
4.5956998 30.677433 12.621114
4.8123035 32.161587 9.648653
5.0280008 33.683434 6.5573273
5.2002211 34.837147 3.2551188
4.5555582 29.87561 26.997566
6.1305194 40.298542 29.764271
4.6244969 30.542168 14.367321
4.7728057 31.558834 11.197817
5.3121238 35.166386 8.6686001
5.1509228 34.099216 4.9020939
5.3977418 35.775402 1.5531523
0.076710634 0.14782119 17.588602
0.79684448 4.6390953 29.922449
1.0293841 6.1659222 30.077538
1.481635 9.1488132 29.675797
1.2651038 7.6346941 29.832533
2.2305899 14.4257 14.424359
5.8956528 38.260517 31.296804
6.8262153 44.350872 29.504719
4.7328534 30.821571 16.409346
4.7041621 30.67037 12.624861
4.9267187 32.158821 9.6528826
5.1470323 33.675388 6.5591931
6.008749 39.313297 3.6633022
4.6621184 29.874281 27.010866
6.2742596 40.296867 29.778988
4.731081 30.525839 14.367321
4.8540401 31.355316 11.132076
5.2706761 34.085922 4.9027843
5.5256386 35.776096 1.5539584
0.077226155 0.14755253 17.588602
0.81383854 4.6408768 29.952084
1.0509009 6.1622915 30.077538
1.5138052 9.1450596 29.680571
1.2925855 7.6351891 29.851891
1.7816656 10.739681 29.658699
2.2770305 14.393169 14.399828
6.028564 38.235859 31.293667
4.8417873 30.813612 16.413984
4.8126302 30.66292 12.628606
5.0404296 32.150902 9.6557026
5.2668271 33.671776 6.5619907
6.1436319 39.277325 3.6619606
4.764605 29.846766 27.000891
6.414248 40.270725 29.776043
4.8376069 30.509138 14.367321
4.9619842 31.328856 11.12879
5.389626 34.067314 4.9027843
5.6536064 35.776329 1.5547646
0.077719182 0.14724413 17.583603
0.83003324 4.6380076 29.952084
1.0720556 6.156579 30.067747
1.5457182 9.139719 29.680571
1.3194437 7.6318693 29.856731
1.8179897 10.726591 29.639927
2.3238406 14.364011 14.3788
6.1619954 38.214581 31.293667
4.9507232 30.805273 16.418621
4.9218388 30.659668 12.634225
5.1541457 32.14259 9.6585226
5.3858838 33.662888 6.5638556
6.2869925 39.294979 3.6655374
4.871768 29.848377 27.017519
6.5573783 40.26405 29.787817
4.9527917 30.545828 14.392498
5.0358276 31.092258 11.051545
5.2376041 32.373833 8.0003786
5.5093012 34.053185 4.9034753
5.7808461 35.771172 1.5553691
0.078232691 0.14697194 17.583603
0.84482205 4.627439 29.902693
1.0924703 6.1467848 30.038374
1.5788827 9.1416225 29.70443
1.3465128 7.629693 29.866409
1.8583646 10.737184 29.686853
2.3704755 14.334702 14.357774
6.3023152 38.235088 31.32819
5.0603776 30.800917 16.425577
5.0303326 30.651451 12.637972
5.2686405 32.138599 9.6627531
5.5057354 33.658428 6.5666542
6.4160805 39.223652 3.6610665
5.8206205 34.895161 31.590082
5.0608702 30.537306 14.396693
5.2368798 31.633541 11.248766
5.3585091 32.403313 8.0121021
5.6265197 34.023975 4.9020939
5.9089317 35.770489 1.5561754
0.078723408 0.14666016 17.578602
0.85926247 4.6152954 29.843422
1.1133748 6.1399279 30.023689
1.6094873 9.128705 29.680571
1.3735827 7.6274199 29.876087
1.8985353 10.745925 29.729088
2.4169335 14.30524 14.336746
6.4357419 38.212852 31.32819
5.1693292 30.791801 16.430216
5.1388292 30.642847 12.641717
5.3831711 32.134209 9.6669827
5.6248112 33.648693 6.5685191
5.8287692 34.86879 3.2667429
5.0725021 29.76947 26.977612
7.1452456 42.022408 31.121067
5.3472691 31.615068 11.248766
5.4634867 32.336479 8.0003786
5.7452512 34.004128 4.9020939
6.0362525 35.764423 1.5567799
0.079212919 0.14634678 17.573605
0.87565744 4.6137948 29.8533
1.1340594 6.1319995 30.004108
1.6450433 9.1435995 29.747377
1.4004261 7.6238151 29.880928
1.9485875 10.808863 29.921492
2.4668534 14.296716 14.336746
6.5756888 38.228516 31.359573
5.2782784 30.782303 16.434853
5.2473264 30.633863 12.645464
5.4969254 32.124676 9.6698027
5.7447133 33.643379 6.5713167
5.1424656 29.556622 26.801361
7.2939625 42.009159 31.129896
5.577867 32.158722 19.265368
5.4447336 31.521757 11.22247
5.6085629 32.504021 8.0460997
5.876544 34.057068 4.9124541
6.1644521 35.762833 1.5575861
0.079723291 0.14606939 17.573605
0.89279038 4.6160498 29.887875
1.1547025 6.124001 29.984526
1.6785672 9.1466103 29.776009
1.4267983 7.6176448 29.876087
1.9856813 10.7986 29.912106
2.5117941 14.25992 14.308709
4.1508703 23.637463 19.433439
5.3879886 30.776783 16.441809
5.3566227 30.629061 12.651083
5.611505 32.119469 9.6740322
5.8646464 33.637638 6.5741143
5.1509418 29.005434 26.319164
7.4433784 41.999359 31.14167
5.6697965 32.024445 19.196972
5.5268517 31.344442 11.16659
5.7262044 32.508175 8.0519609
6.0014029 34.070484 4.9172893
6.2909808 35.750935 1.557989
0.080254883 0.14582776 17.578602
0.90904814 4.613667 29.892813
1.1751113 6.1149335 29.960051
1.7132303 9.1553669 29.823729
1.4531444 7.6113834 29.871248
2.0246356 10.798388 29.930878
2.563448 14.261597 14.319223
4.2299218 23.603674 19.417747
5.4969449 30.766506 16.446445
5.4659491 30.623867 12.656702
5.7261152 32.113853 9.6782627
5.9854703 33.636307 6.5778451
5.2421737 28.932171 26.269281
7.594254 41.99699 31.159328
5.7861466 32.029911 19.212172
5.6353951 31.320316 11.164948
5.8396444 32.487991 8.0519609
6.4254498 35.782848 1.5602059
0.080763429 0.14554672 17.578602
0.92545325 4.61199 29.902693
1.1954708 6.1057982 29.935575
1.7488142 9.1683931 29.885765
1.4797043 7.6062646 29.871248
2.0619929 10.78956 29.926186
2.615144 14.263084 14.329737
4.3262877 23.665342 19.480516
5.6058955 30.75585 16.451084
5.575304 30.61828 12.66232
5.8398952 32.103111 9.6810827
6.1054792 33.629707 6.5806427
6.3515172 34.984901 3.285073
5.3417764 28.906351 26.262629
7.7422705 41.978172 31.165216
5.90026 32.022236 19.21977
5.7438364 31.295807 11.163303
5.9503827 32.453064 8.0484438
6.5575175 35.799519 1.5618181
0.081248522 0.14522654 17.573605
0.94170201 4.6094928 29.907631
1.2153826 6.0945983 29.901308
1.7836555 9.1768856 29.933485
1.5050242 7.5948882 29.847052
2.1003025 10.785685 29.935572
2.6642601 14.250363 14.326233
5.7132192 30.736094 16.451084
5.6846876 30.612309 12.667939
5.9554205 32.101395 9.6867228
6.226409 33.627514 6.5843735
6.4790397 34.991901 3.2877557
5.4419551 28.88386 26.259306
7.8924894 41.970757 31.17993
6.012002 32.001446 19.21977
5.853044 31.275568 11.163303
6.066309 32.44643 8.0519609
6.6916142 35.825516 1.5638335
0.081754968 0.14494205 17.573605
0.95778638 4.6061773 29.907631
1.2378651 6.0963054 29.930679
1.8208966 9.1969604 30.019381
1.5325209 7.5945177 29.866409
2.1382744 10.77998 29.940264
2.7126517 14.23397 14.319223
5.8320198 30.776896 16.483547
5.7940969 30.605942 12.673558
6.0710049 32.099266 9.6923637
6.3464866 33.620056 6.5871711
6.5974498 34.949497 3.2859674
5.5321832 28.809687 26.209423
8.0419903 41.958824 31.191704
6.126915 31.997204 19.229904
5.7969398 30.359962 14.375713
5.9727988 31.31061 11.183026
6.182261 32.439381 8.0554771
6.5043283 34.129303 4.9380093
6.8231683 35.836292 1.5652442
0.082260408 0.14465578 17.573605
0.97418088 4.6043262 29.917509
1.2579008 6.0859647 29.901308
1.8547593 9.1993284 30.048014
1.5612979 7.6002021 29.909964
2.1762323 10.774141 29.944956
2.7664001 14.245419 14.34025
7.3785448 38.101528 31.375267
5.9469748 30.795494 16.504416
5.9035301 30.599184 12.679177
6.1811986 32.068455 9.6895428
6.4656606 33.607346 6.5890369
6.7278728 34.970264 3.2899909
5.6205268 28.727907 26.152889
8.1915035 41.946369 31.203476
6.2410455 31.988316 19.237503
5.9358177 30.508831 14.455439
6.0829577 31.294203 11.184669
6.3000917 32.441463 8.0613394
6.6120939 34.048058 4.9297214
6.9529772 35.836781 1.5662519
0.082764849 0.14436775 17.573605
0.99057412 4.602417 29.927387
1.2799758 6.0855227 29.920889
1.8862594 9.1898727 30.038469
1.5903907 7.6070099 29.958359
2.2141755 10.768169 29.94965
2.8673229 14.494562 14.599586
7.526566 38.151913 31.438034
6.0578551 30.791933 16.513691
6.012989 30.592043 12.684797
6.2783122 31.971373 9.6669827
6.5848217 33.594212 6.5909019
6.8652272 35.024761 3.2971444
5.7156639 28.68248 26.129612
8.3449717 41.953197 31.229965
6.3560281 31.983246 19.247637
6.0572762 30.563608 14.491105
6.1242843 30.929993 11.063049
6.4132953 32.419273 8.0613394
6.7309036 34.024773 4.9297214
7.0828714 35.836796 1.5672594
0.08329127 0.14411503 17.578602
1.0067998 4.5996904 29.932327
1.3018496 6.0840049 29.935575
1.9183265 9.1832323 30.038469
1.6190268 7.6112471 29.997072
2.2521033 10.762063 29.954342
2.9707222 14.746666 14.862428
7.6596951 38.125408 31.438034
6.1687837 30.787977 16.522966
6.1224675 30.584503 12.690416
6.3418941 31.709362 9.5950708
6.7039709 33.580658 6.5927672
7.037168 35.249649 3.3199453
6.3481059 31.286003 28.513994
8.4873524 41.904003 31.215248
6.4701967 31.973539 19.255236
6.1720076 30.582321 14.509989
6.2396798 30.945461 11.076198
6.5955338 32.739761 8.1457462
6.8339834 33.923393 4.9186702
7.2089081 35.816753 1.567461
0.083816953 0.14386043 17.583603
1.0230184 4.5969062 29.937267
1.3237284 6.082408 29.95026
1.9506805 9.1779404 30.04324
1.6479778 7.6166067 30.040627
2.2896562 10.754137 29.954342
7.7833705 38.052677 31.400375
4.4823284 21.972582 11.825079
6.2328939 30.581114 12.697908
6.513803 31.987867 9.6853123
6.8250628 33.576305 6.596498
7.0768418 34.814934 3.2823906
6.3704224 30.843143 28.131561
8.6360216 41.886002 31.224077
6.5852442 31.967648 19.265368
6.2796359 30.565035 14.512087
6.3552585 30.960499 11.089346
6.7224708 32.778439 8.1609859
7.0150347 34.204948 4.962183
7.3489313 35.864788 1.570484
0.084365122 0.1436408 17.593603
1.0392299 4.5940652 29.942207
1.3458321 6.0817266 29.969841
1.9830213 9.1725349 30.048014
1.6775261 7.6243114 30.093861
2.3275464 10.747766 29.959034
4.926991 23.666893 19.574671
4.4959593 21.653191 11.662763
6.3424292 30.572788 12.703527
6.6390519 32.030697 9.7050533
6.9462056 33.571522 6.6002283
7.2063975 34.829037 3.2859674
8.7763681 41.827911 31.203476
6.7012148 31.965561 19.278032
6.3900046 30.560699 14.520479
6.4642572 30.942745 11.090989
6.8457866 32.797596 8.1715374
7.1728401 34.364468 4.9884291
7.4842768 35.887821 1.5724993
0.084842622 0.14330861 17.588602
1.0552598 4.5904098 29.942207
1.3679472 6.0809655 29.989422
2.015348 9.1670151 30.052784
1.7063249 7.6282225 30.132578
2.3650491 10.739576 29.959034
4.8193216 22.692837 22.877327
5.031352 23.752363 19.659409
4.5522857 21.546349 11.614068
6.4519815 30.56407 12.709146
6.7557693 32.030796 9.7121038
7.0673971 33.566296 6.6039581
7.3340855 34.832905 3.2886498
8.9307594 41.836548 31.232906
6.8127546 31.941975 19.278032
6.4966431 30.538208 14.520479
6.5761552 30.938469 11.097563
6.9612393 32.778255 8.1727095
7.3009796 34.377968 4.9939542
7.6281695 35.949448 1.5761268
0.085318834 0.14297482 17.583603
1.0714536 4.5874548 29.947145
1.3884844 6.0731754 29.974735
2.0473344 9.1599245 30.052784
1.7337781 7.6258965 30.147095
2.4028995 10.732938 29.963726
4.8985047 22.675875 22.877327
5.1101332 23.71563 19.643715
4.6228142 21.508671 11.602473
6.5615511 30.55496 12.714766
6.8735752 32.03516 9.7205639
7.1886382 33.560635 6.6076889
7.463975 34.846046 3.2922263
6.4708767 29.753168 27.20042
9.0818882 41.828823 31.250568
6.9269528 31.930637 19.285633
6.5926428 30.466549 14.4974
6.6891003 30.938404 11.105782
7.0786929 32.768005 8.1762266
7.4282565 34.386158 4.9987893
7.7620425 35.96167 1.5777391
0.085770108 0.1426028 17.573605
1.0882603 4.5834966 29.947145
1.4105037 6.0670538 29.969841
2.0828218 9.1534491 30.057556
1.7673198 7.619483 30.151934
2.4515791 10.721924 29.963726
4.9776287 22.658638 22.877327
5.1478248 23.472425 19.458546
4.6987762 21.4786 11.595517
6.6827879 30.547657 12.722258
6.9770679 31.919493 9.6937733
7.3264451 33.545902 6.6104865
7.6109357 34.819344 3.2926736
6.5978761 29.73674 27.2104
9.2695627 41.812469 31.268227
7.0615487 31.879065 19.272968
6.7249465 30.409727 14.484812
6.8358388 30.91115 11.107425
7.2288356 32.715302 8.1715374
7.5902152 34.350769 4.9987893
7.9452367 35.957455 1.5791498
0.086490788 0.14216685 17.573605
1.1114453 4.57793 29.947145
1.4407225 6.0578556 29.960051
2.1294634 9.1442451 30.062328
1.8055724 7.6092176 30.147095
2.5062094 10.711059 29.96842
5.0992951 22.664465 22.908865
5.2213516 23.244793 19.29221
4.7270355 21.095766 11.403057
6.8403578 30.52701 12.727877
7.1175747 31.790144 9.6655722
7.4982867 33.517982 6.6123524
7.7892489 34.790089 3.2935677
6.7623649 29.76486 27.266932
9.485549 41.784725 31.282942
5.3347168 23.51898 14.257274
6.8707585 30.339891 14.468028
6.9849048 30.843914 11.09592
7.3621469 32.536072 8.1363678
7.7301016 34.162186 4.9773779
8.0918474 35.760853 1.5727009
0.086987309 0.14181243 17.568605
1.1274185 4.5740223 29.947145
1.4616205 6.0518003 29.955156
2.1601183 9.138586 30.067101
1.8284353 7.6050487 30.151934
2.5361106 10.704018 29.96842
5.1799436 22.635195 22.898352
5.2808008 23.131557 19.213747
6.9844093 30.667776 16.550793
6.9456663 30.522242 12.735369
7.2101922 31.710238 9.648653
7.6126604 33.507301 6.61515
7.8863707 34.712032 3.2886498
9.6040087 41.765953 31.288828
5.4322286 23.642635 14.340868
7.095171 30.954403 11.141938
7.4049802 32.331905 8.0906477
7.7564945 33.866688 4.9380093
8.146883 35.599743 1.5668564
0.087457702 0.14147152 17.563604
1.1439438 4.57232 29.961962
1.4820087 6.0436945 29.94047
2.1920049 9.13099 30.067101
1.8539424 7.6001649 30.156775
2.5719957 10.697227 29.973112
5.2484236 22.571817 22.852791
5.3509583 23.067484 19.176086
5.8231716 25.123034 16.992668
4.8362427 20.898252 11.314942
7.0563445 30.515879 12.742861
7.3705144 31.899876 9.7135143
7.7248368 33.48666 6.6160827
8.1402426 35.287399 3.3440874
9.7589359 41.771534 31.318258
5.5147238 23.623529 14.340868
7.2876849 31.317043 11.279993
7.5143576 32.316639 8.0929918
7.911377 34.024067 4.9642553
8.3440361 35.91317 1.5809635
0.087950997 0.14116538 17.563604
1.1604711 4.5705585 29.976782
1.5030961 6.0384846 29.94047
2.2242184 9.1247339 30.071873
1.8807628 7.5948672 30.161613
2.6093204 10.688184 29.973112
5.3707376 22.791044 18.962671
5.8974147 25.04557 16.954287
4.9497137 21.053732 11.407694
7.1670628 30.509115 12.750353
7.5070338 31.981365 9.745944
7.8495264 33.49297 6.622611
8.300868 35.418774 3.3588412
3.3973577 14.293994 13.16681
9.9168196 41.788342 31.356522
4.4364223 18.709167 11.384648
7.3697987 31.176527 11.238905
7.6461143 32.370632 8.1129217
8.5026255 36.024834 1.586808
0.08844322 0.14085752 17.563604
1.1775815 4.5709944 30.006416
1.524664 6.0351753 29.95026
2.2564144 9.1183624 30.076645
1.9075689 7.5894752 30.166454
2.6466131 10.67901 29.973112
4.9192033 20.50593 20.802633
5.4122086 22.613173 18.830854
6.0285707 25.207836 17.077652
4.7278943 19.79974 10.742199
7.2778192 30.501947 12.757846
7.6219611 31.968964 9.7501745
7.9743538 33.498817 6.6291394
3.4393475 14.249381 13.136881
10.057892 41.733822 31.341805
4.4815173 18.609749 11.333984
7.5226746 31.334276 11.304646
7.7647305 32.367374 8.118783
8.6364765 36.028942 1.5882187
0.088934362 0.14054793 17.563604
1.1943163 4.5698633 30.026173
1.5467329 6.033762 29.969841
2.2885933 9.1118784 30.081417
1.9346708 7.5852065 30.176132
2.6842949 10.671381 29.977806
3.9717236 16.049255 21.967583
4.9806237 20.447054 20.760578
5.4442306 22.401249 18.670794
6.1194859 25.19883 17.085876
4.8564811 20.028503 10.874371
7.3886137 30.494381 12.765338
7.7425375 31.979462 9.7614546
8.0981627 33.499424 6.6347351
3.487289 14.230037 13.130231
4.5423546 18.57724 11.323852
7.6208229 31.261951 11.288211
7.8811178 32.354244 8.1222992
8.7621889 35.998577 1.5882187
0.089449026 0.14027269 17.568605
1.2072736 4.5544004 29.952084
1.5688107 6.0322676 29.989422
2.3203859 9.1038342 30.081417
1.9614513 7.5796237 30.180971
2.7215288 10.661946 29.977806
4.0335937 16.058672 21.999502
5.0553918 20.443392 20.774597
5.4832315 22.223391 18.53898
6.1583624 24.978382 16.951546
4.8490634 19.697428 10.705098
7.5005498 30.49091 12.774702
7.8564105 31.961559 9.7642756
8.2220736 33.499573 6.6403303
3.5369399 14.217777 13.130231
6.4756575 26.06949 19.642742
5.799367 23.364325 14.231941
7.75032 31.317671 11.317794
7.997508 32.340694 8.1258173
8.9045715 36.035671 1.5910401
0.089962848 0.13999555 17.573605
1.2251817 4.557662 30.001478
1.5895977 6.0257702 29.984526
2.3525238 9.0971241 30.086187
1.9882164 7.5739465 30.185812
2.7591615 10.654051 29.982498
4.0963235 16.070774 22.035414
5.5324044 22.090845 18.444826
5.7541976 22.993464 15.624675
4.9081254 19.641703 10.684229
7.6103072 30.478037 12.780321
7.9725738 31.952557 9.7699146
8.3460846 33.499271 6.6459265
3.5883753 14.212584 13.136881
5.8777289 23.331396 14.224341
7.8802986 31.372864 11.347377
8.1150818 32.331436 8.1305056
8.5642519 34.120968 4.9987893
9.0290909 35.999523 1.5908387
0.090475805 0.13971652 17.578602
1.2388353 4.5451117 29.947145
1.6140432 6.0329714 30.048164
2.3842642 9.0888567 30.086187
2.0146422 7.5669603 30.185812
2.796773 10.646024 29.98719
3.6860604 14.2943 16.081236
5.5586677 21.871462 18.278488
5.861186 23.078611 15.695954
4.9919024 19.684565 10.716692
7.7223425 30.473755 12.789687
8.087594 31.938488 9.7741451
8.4689884 33.493744 6.6505895
8.87502 35.099533 3.3431933
3.6416714 14.214439 13.150183
5.6577129 22.115585 16.705467
4.7345066 18.520304 11.318786
2.8574221 11.202034 5.4317155
7.9897628 31.345165 11.347377
8.2314901 32.317043 8.1340237
8.6955271 34.138851 5.0056958
9.1620913 35.996838 1.5920478
0.090987943 0.13943565 17.583603
1.2530372 4.5347681 29.907631
1.6377589 6.0371275 30.097116
2.4159758 9.0804787 30.086187
2.0413711 7.5610952 30.190651
2.8343618 10.637864 29.991884
3.7402241 14.297746 16.099611
5.5990186 21.712473 18.162365
5.9271021 23.001324 15.657574
5.0837665 19.757113 10.765388
7.8332872 30.464575 12.797179
8.204999 31.93329 9.7811947
8.5919561 33.48777 6.6552529
8.9764462 34.986336 3.3355932
3.6940851 14.212483 13.160161
5.704412 21.978329 16.617172
4.7753162 18.411863 11.263056
2.893096 11.17881 5.4254212
8.1097689 31.358227 11.362168
8.3503284 32.311642 8.1398849
8.8270321 34.156239 5.0126028
9.2939329 35.988819 1.5930554
0.091499195 0.13915288 17.588602
1.2694879 4.5326114 29.922449
1.6601725 6.036283 30.121593
2.4476578 9.07199 30.086187
2.0677519 7.5539236 30.190651
2.8719277 10.629572 29.996576
3.7979345 14.314093 16.132689
5.6383266 21.553469 18.046242
6.4515224 24.679598 16.808989
5.1896224 19.88069 10.841908
7.9442616 30.454988 12.804671
8.3224678 31.927666 9.7882452
8.713748 33.476589 6.6589832
9.1361494 35.099365 3.3490052
6.7124333 25.49575 19.280731
4.8428473 18.407589 11.270655
2.9459293 11.22132 5.4505978
8.2012062 31.261213 11.337515
8.4679966 32.301105 8.1445742
8.9462051 34.125217 5.0126028
9.4270983 35.985161 1.5942646
0.091984376 0.13883264 17.588602
1.2848773 4.5266576 29.912571
1.6812329 6.0304513 30.121593
2.4797041 9.0648308 30.09096
2.0941076 7.5466595 30.190651
2.9094703 10.621146 30.00127
6.8272438 25.676891 26.189121
5.7105336 21.522369 18.036825
6.0907512 22.97151 15.665797
5.2623887 19.875298 10.848864
8.0540771 30.440516 12.81029
8.4387703 31.916971 9.7938862
8.8368196 33.469715 6.6636457
9.2153912 34.903557 3.3338048
6.4468579 24.144402 18.280058
3.0049329 11.285525 5.4862647
8.2252827 30.91296 11.22247
8.5869427 32.294838 8.1504364
9.0270958 33.950207 4.9918823
9.5616341 35.985836 1.5956753
0.092493773 0.13854623 17.593603
1.3004556 4.5213981 29.907631
1.7031038 6.0274849 30.13628
2.5113308 9.0561199 30.09096
2.1204374 7.5393038 30.190651
2.946527 10.610926 30.00127
3.834425 13.911672 29.90131
6.8964057 25.577154 26.11202
5.7896709 21.51734 18.049379
6.1795845 22.98241 15.687729
5.3639007 19.976603 10.913791
8.1674948 30.439081 12.821528
8.5563412 31.910486 9.8009357
8.9586792 33.457645 6.6673765
4.1710072 15.383851 14.277528
7.0455484 26.021793 19.713377
4.8789148 18.032116 11.062935
3.0585053 11.327548 5.5114417
8.3823452 31.066425 11.288211
8.7046814 32.28344 8.1551256
9.1687546 34.004555 5.0043144
9.6962862 35.986004 1.5970861
0.092976823 0.13822252 17.593603
1.316013 4.5160851 29.902693
1.7238528 6.0205245 30.131382
2.5433316 9.0487356 30.095732
2.1467416 7.5318565 30.190651
2.9840162 10.602237 30.005962
3.8806193 13.889815 29.883305
6.9997516 25.604525 26.164589
5.842207 21.414385 17.980333
6.2201762 22.815472 15.589037
5.4475627 20.009045 10.941616
8.2749138 30.41486 12.823401
8.6739712 31.90357 9.8079863
9.0818491 33.449875 6.67204
4.2276506 15.379999 14.287505
6.4344325 23.440073 17.782665
4.9475312 18.035763 11.075601
3.1375728 11.461258 5.580677
8.4957199 31.055195 11.294785
8.8250084 32.280987 8.162159
9.3148203 34.072655 5.0188184
9.8310595 35.985676 1.5984968
0.093637884 0.13814451 17.628601
1.3313287 4.509973 29.892813
1.7411693 6.0017581 30.067747
2.5753107 9.0412369 30.100504
3.437598 12.181067 29.877205
2.1730196 7.5243168 30.190651
3.0210063 10.591757 30.005962
3.9284868 13.87409 29.878803
7.2462378 26.146994 26.74284
5.9926639 21.667721 18.20944
6.304235 22.80974 15.600002
5.4619799 19.789211 10.832632
8.3958244 30.439421 12.845879
8.7916546 31.896217 9.8150358
9.2050743 33.441654 6.6767035
9.6028557 34.886765 3.3414052
4.2702861 15.325583 14.250924
6.5053792 23.378532 17.753233
5.1167092 18.400476 11.308653
3.1775613 11.450236 5.580677
8.5990238 31.007151 11.288211
8.9441271 32.273403 8.1680202
9.4217958 33.996983 5.0126028
9.9672804 35.989655 1.6001091
0.094119534 0.13781682 17.628601
1.3463956 4.5030656 29.877996
1.7583759 5.982944 30.004108
2.607269 9.0336275 30.105276
3.4854689 12.187778 29.923229
2.1992712 7.5166855 30.190651
3.0579603 10.581147 30.005962
3.9798949 13.870756 29.90131
7.3538589 26.179907 26.802418
7.0594797 25.199419 17.24214
5.2302632 18.694994 10.248295
8.5045223 30.418856 12.849624
8.9093943 31.888437 9.8220863
9.328351 33.432972 6.681366
9.7165442 34.824249 3.3387227
4.3227415 15.30699 14.247598
6.600112 23.402365 17.788551
5.191432 18.419846 11.331451
3.190475 11.342957 5.5345201
8.7225399 31.031494 11.307932
9.0633011 32.265385 8.1738815
9.5712118 34.07354 5.0284882
10.106349 36.002747 1.6021243
0.093928255 0.13657326 17.498606
1.3634574 4.5028 29.907631
1.778959 5.9757938 29.999214
2.6387863 9.0244713 30.105276
3.5296221 12.181166 29.937037
2.225853 7.5101676 30.195488
3.0948768 10.570408 30.005962
4.0270729 13.852598 29.892305
8.909812 31.299051 32.059235
6.1342125 21.59166 18.181194
6.4359131 22.668633 15.534207
5.2664876 18.574341 10.192643
3.2204349 11.365702 4.8611383
9.0271864 31.880222 9.8291368
9.4530172 33.428566 6.6869617
9.8394003 34.794914 3.33917
4.3740926 15.284629 14.240948
6.7017541 23.449137 17.841528
5.2379394 18.339436 11.293454
3.2300501 11.331752 5.5345201
8.8062267 30.914568 11.276706
9.1811962 32.252251 8.1785717
9.6833134 34.016109 5.0250349
10.238794 35.991272 1.6031319
0.094404407 0.13624455 17.498606
1.3800781 4.5009847 29.927387
1.7998077 5.9695477 29.999214
2.6706955 9.0166359 30.110048
3.5732214 12.172521 29.946243
2.2520549 7.5023522 30.195488
3.1317556 10.559541 30.005962
4.0760183 13.840545 29.896807
2.4980326 8.5207882 14.594179
7.536448 26.12793 26.802418
6.1255546 21.278364 17.936396
6.5254073 22.682198 15.558881
5.3630967 18.666538 10.252932
3.2293837 11.247449 4.816186
9.1463528 31.876183 9.8375969
9.5750608 33.414253 6.6906919
9.9813738 34.832161 3.3458757
4.4294987 15.276439 14.247598
6.7711987 23.382895 17.809153
5.2815523 18.250647 11.25039
3.272104 11.329127 5.5387158
8.9298 30.938086 11.296428
9.3018036 32.248028 8.185605
9.8390474 34.110565 5.0436831
10.364365 35.955311 1.6031319
0.094983749 0.13605411 17.518606
1.3964725 4.4983664 29.942207
1.8191473 5.9583597 29.974735
2.7025821 9.0086889 30.11482
3.6134624 12.152484 29.927834
2.278595 7.4956484 30.200329
3.1690929 10.550198 30.010656
4.124928 13.82832 29.90131
2.5203357 8.4870148 14.551521
7.6075988 26.033001 26.732325
6.2128706 21.301691 17.974056
6.581141 22.578991 15.504051
5.4009848 18.554134 10.201919
3.2893438 11.307331 4.8461542
9.2629213 31.862488 9.8432369
9.7012272 33.413651 6.6972203
10.162607 35.002754 3.3651001
4.4838486 15.264466 14.250924
3.3141792 11.326348 5.542912
5.2458982 17.939634 6.5943484
9.4115868 32.206036 8.1832609
9.9511108 34.05225 5.0402298
10.508017 35.981258 1.6057519
0.09545809 0.13572173 17.518606
1.41403 4.4993935 29.98172
1.8399349 5.9519734 29.974735
2.7340119 8.9992008 30.11482
3.655297 12.137925 29.923229
2.3051155 7.4888501 30.205168
3.2064025 10.540721 30.015348
4.1738019 13.815919 29.905809
2.5364242 8.4332104 14.474734
6.1526837 20.784603 21.380884
6.7503953 22.847649 19.29221
6.5426912 22.158865 15.232645
5.4544415 18.496929 10.181049
3.3392773 11.331355 4.8611383
9.3862829 31.871372 9.8559265
9.8150311 33.370159 6.6953554
10.39855 35.354057 3.4013138
4.5392342 15.25588 14.257575
5.0750327 17.08931 10.561365
3.3536954 11.314711 5.542912
5.3017821 17.898577 6.5861311
9.5487843 32.256878 8.2043629
10.069916 34.017307 5.0402298
10.568357 35.723988 1.5964816
0.096062884 0.13556166 17.543604
1.428785 4.4914689 29.961962
1.8613083 5.9474583 29.984526
2.7658472 8.9910278 30.119593
3.6953645 12.117617 29.904819
2.3316164 7.4819584 30.210009
3.2436852 10.531115 30.020041
4.2239141 13.807512 29.919315
2.5498884 8.371913 14.38515
6.2354403 20.797161 21.41593
6.863584 22.935814 19.386362
6.6176043 22.12788 15.227162
5.4898162 18.380154 10.127717
3.3788109 11.31963 4.8611383
9.4974766 31.838415 9.8559265
9.9314556 33.335697 6.6953554
10.459332 35.107544 3.3816423
4.5935364 15.243516 14.2609
6.4495511 21.429638 16.378777
5.1247211 17.038465 10.5411
5.3655839 17.884483 6.5877743
9.6613235 32.223351 8.2043629
10.157309 33.877594 5.0250349
10.62703 35.466736 1.5872111
0.096588403 0.13529493 17.553604
1.4449307 4.4879332 29.971842
1.8845178 5.9486899 30.023689
2.7972145 8.9813185 30.119593
3.7393696 12.110244 29.918625
2.3580973 7.4749727 30.214848
3.2814531 10.523022 30.029425
4.270153 13.786445 29.905809
2.5867822 8.3878832 14.427809
6.2986727 20.744556 21.384388
4.2895527 14.154229 12.007852
6.6681395 22.016605 15.166851
5.5577888 18.373596 10.134673
3.4437912 11.39208 4.8967261
9.6099434 31.809662 9.857337
10.044921 33.29142 6.6934905
10.450911 34.636963 3.3409579
4.6488981 15.234531 14.267551
6.508996 21.35673 16.340515
5.1979818 17.065834 10.568964
3.4220438 11.256284 5.5261278
5.3579698 17.635216 6.5039554
9.789279 32.240589 8.2172585
10.324418 34.003036 5.0485177
10.871173 35.826221 1.6039381
0.097113207 0.13502617 17.563604
1.4608285 4.4836011 29.976782
1.9065148 5.9459538 30.04327
2.8289974 8.9729242 30.124365
3.7827852 12.100847 29.927834
2.3845577 7.4678936 30.219687
3.3186851 10.513149 30.034119
4.3182507 13.771455 29.905809
2.6106048 8.3613768 14.397947
6.3280773 20.582684 21.240702
4.3286567 14.10568 11.979605
7.5014052 24.459743 16.858335
3.4523261 11.278034 4.8536468
4.9061122 16.037209 5.0195146
10.159632 33.251457 6.6925578
10.579028 34.624084 3.3431933
4.7042522 15.225346 14.274202
6.5978084 21.380228 16.375834
5.285471 17.138212 10.624695
9.3324747 30.316936 14.751265
5.3403511 17.35914 6.4102755
9.9731798 32.438519 8.2758741
10.488163 34.113529 5.0699291
11.043118 35.940872 1.6103871
0.097610645 0.13472088 17.568605
1.4767135 4.4792123 29.98172
1.9288299 5.9441051 30.067747
2.8603015 8.9629946 30.124365
3.8255918 12.089432 29.932436
2.4106112 7.4595242 30.219687
3.3558877 10.503144 30.038811
4.3682718 13.762523 29.919315
2.6389894 8.3497267 14.393682
6.3797469 20.495771 21.174114
4.3686295 14.060748 11.954498
7.3759465 23.754541 16.392286
3.2466483 10.468901 5.8240247
3.5095141 11.32348 4.877996
5.0103202 16.175785 5.0674558
10.330807 33.394115 6.7279968
10.710126 34.620251 3.346323
4.7607141 15.219522 14.284179
6.6748104 21.364784 16.38172
5.3760972 17.218416 10.685491
9.5546961 30.676662 11.271776
10.136913 32.565945 8.316905
10.645443 34.199642 5.0878868
11.184832 35.954582 1.6126039
0.098080315 0.13437934 17.568605
1.4933234 4.4769788 30.001478
1.9505202 5.940238 30.082432
2.8920295 8.9543753 30.129137
3.8683639 12.077864 29.937037
2.436635 7.4510636 30.219687
3.3930609 10.493008 30.043505
2.6569941 8.3056879 14.333959
6.4576826 20.493786 21.195143
4.4025021 13.997144 11.913697
6.8983269 21.94557 15.166851
6.0338454 19.21884 10.630897
9.5224228 30.349031 12.93953
9.9353447 31.684397 9.8502865
10.451715 33.371914 6.7307949
10.84877 34.639683 3.3516879
4.8160653 15.20993 14.29083
6.5933371 20.848059 16.004995
5.9922051 18.958788 11.769691
3.8497014 12.202339 6.0023856
5.3407106 16.938627 6.270577
10.262214 32.567448 8.3262835
10.776664 34.200062 5.0934124
11.317772 35.939148 1.6136116
0.098548792 0.13403615 17.568605
1.507948 4.4687939 29.98172
1.9728487 5.9382243 30.106907
2.9237323 8.9456444 30.133907
3.9117053 12.068005 29.946243
2.4630241 7.4437065 30.224525
3.4302042 10.48274 30.048197
2.6747234 8.2616243 14.274235
6.5508537 20.539072 21.265234
4.4477916 13.970563 11.904282
6.9393902 21.809786 15.090089
6.1760278 19.434078 10.76075
9.6311092 30.324444 12.943275
5.1245766 16.144985 5.0688658
10.57408 33.353958 6.7345252
10.984668 34.649071 3.3561587
4.8714075 15.200138 14.297481
6.7190576 20.990448 16.131552
6.1174541 19.122517 11.883684
3.9281681 12.301237 6.0569353
5.0265245 15.75024 5.8432651
5.2950153 16.601519 4.2935114
10.897484 34.166954 5.0941029
11.38398 35.713783 1.6057519
0.099043109 0.13372558 17.573605
1.5222827 4.4598265 29.957024
1.9935648 5.9313016 30.106907
2.955409 8.9368019 30.13868
3.9550238 12.057988 29.955446
2.4889925 7.4350634 30.224525
3.4673176 10.472342 30.052891
4.5169125 13.7305 29.950823
2.7149136 8.2869358 14.333959
6.6334634 20.550018 21.30028
4.497725 13.958659 11.90742
6.851419 21.275972 14.739182
3.3683057 10.472281 5.8448935
9.7369022 30.29064 12.943275
5.1060734 15.894073 4.996954
10.705451 33.363617 6.7438512
11.08729 34.553612 3.3507936
4.9267406 15.190145 14.304132
6.7960248 20.978403 16.140381
6.1602669 19.027225 11.838088
4.8666668 15.067546 5.6000257
5.3424811 16.550556 4.285305
10.958875 33.949627 5.0678573
11.422678 35.407566 1.5944661
0.099536449 0.13341317 17.578602
1.5365732 4.4508133 29.932327
2.0178626 5.9349108 30.160755
2.9865863 8.9264307 30.13868
3.9983211 12.047819 29.964653
3.0197911 9.1741705 14.257886
2.5149305 7.4263301 30.224525
3.5049477 10.463446 30.062275
4.5600004 13.700191 29.919315
2.7462857 8.2848349 14.346756
6.6863313 20.46911 21.240702
4.5524559 13.961375 11.923113
6.9411912 21.299635 14.772079
3.4226649 10.515221 5.8750381
9.8583527 30.304962 12.963879
10.34965 31.834093 9.9292488
10.774815 33.18121 6.7149405
11.201684 34.495754 3.3490052
4.9820628 15.17995 14.310783
5.4980426 16.77182 12.935279
5.0982146 15.598062 5.8005333
5.3715444 16.444017 4.2630305
11.005045 33.689926 5.0353951
11.690397 35.809162 1.6132084
0.10000155 0.13306491 17.578602
1.5508192 4.4417548 29.907631
2.0349243 5.9172397 30.106907
3.0182056 8.9173651 30.143452
4.0422168 12.039345 29.97846
3.0464618 9.1475544 14.233088
2.540838 7.4175057 30.224525
3.5420046 10.452782 30.066969
4.6112685 13.694505 29.941818
2.7834806 8.2999239 14.389415
5.7375083 17.147806 24.018456
6.757741 20.445644 21.240702
4.6072602 13.963881 11.938805
5.4244895 16.450388 11.441198
3.4607346 10.507417 5.8773565
3.9544654 12.013503 5.1982846
5.0744958 15.42514 4.8630009
10.889039 33.138729 6.7140074
11.620512 35.364819 3.4348447
5.0350204 15.162467 14.310783
5.5514646 16.737181 12.923507
5.6893454 17.162886 10.710823
3.8642838 11.677748 5.7736979
4.9539461 14.979404 5.5803037
5.4960299 16.628231 4.3146129
11.304406 34.201424 5.1162047
11.865468 35.919937 1.6196574
0.10046542 0.13271503 17.578602
1.564762 4.4319181 29.877996
2.054898 5.9081774 30.097116
3.0497985 8.9081879 30.148224
4.086102 12.03071 29.992268
3.0765769 9.1315308 14.224821
0.84523994 2.3134785 22.928387
2.567126 7.4097795 30.229366
3.57847 10.440354 30.066969
4.6597457 13.680387 29.946321
2.8149498 8.2975674 14.402214
5.7412972 16.962132 23.787033
4.4388623 13.14442 15.118341
6.8290682 20.42193 21.240702
4.6559749 13.947714 11.938805
5.4739389 16.407553 11.424749
3.4987917 10.499475 5.8796754
5.0919485 15.298095 4.8291597
11.051141 33.24036 6.7419863
5.0891051 15.148338 14.314108
5.5738487 16.610405 12.841098
5.7505908 17.147009 10.713356
3.9323993 11.745958 5.813561
4.2075748 12.575168 4.7043128
10.755039 32.162121 8.2700119
11.414299 34.133579 5.112061
12.000281 35.906731 1.6208668
0.10095561 0.1323974 17.583603
1.583097 4.4344788 29.932327
2.0731437 5.8942442 30.062849
3.0813637 8.8988991 30.152996
4.1268024 12.012678 29.983061
0.85331035 2.310514 22.928387
2.5929754 7.4007735 30.229366
3.6148918 10.4278 30.066969
4.7067614 13.661978 29.941818
2.8599803 8.3345613 14.483266
4.4792385 13.112805 15.099966
6.8648858 20.293245 21.132061
3.5311754 10.474606 5.8727193
4.0693226 12.077861 5.237618
5.1116395 15.180212 4.7981396
11.174934 33.224865 6.7466497
5.1407509 15.126946 14.310783
7.7132101 22.722496 17.556042
5.8034854 17.106421 10.70069
3.9209652 11.577408 5.7380309
4.2302489 12.497785 4.681304
5.6026359 16.561831 4.307579
11.5429 34.121674 5.1162047
12.133546 35.888287 1.6218743
0.10141714 0.1320442 17.583603
1.5990942 4.4303875 29.942207
2.0919998 5.8821759 30.038374
3.1129012 8.8894968 30.157768
4.1680689 11.996356 29.97846
0.86286241 2.311516 22.968159
2.618793 7.3916774 30.229366
3.6512697 10.415118 30.066969
2.9018826 8.3614855 14.547256
6.940299 20.282656 21.14608
8.2106133 24.049807 16.745935
3.572006 10.474793 5.8796754
4.1368818 12.13818 5.2694597
5.1862516 15.225847 4.8178797
11.311412 33.246109 6.7587738
5.19595 15.115973 14.317434
7.7937922 22.699259 17.558985
5.860364 17.077902 10.695623
3.9348788 11.486365 5.7002664
5.2711425 15.395801 5.752872
5.6116314 16.399611 4.2712374
11.66835 34.099915 5.1189675
12.27168 35.883533 1.6234866
0.10187744 0.13168937 17.583603
1.6158813 4.4284277 29.966904
2.1111412 5.8710041 30.018793
3.1449091 8.8813915 30.167313
4.2099185 11.981733 29.97846
0.86471373 2.2920327 22.8041
2.6445789 7.3824911 30.229366
3.687026 10.400682 30.062275
2.9448712 8.3906784 14.615511
7.0413814 20.34593 21.237198
8.3504686 24.183048 16.858335
3.6085479 10.46226 5.8796754
4.1339016 11.992181 5.2132688
5.2596812 15.266612 4.8362103
11.436983 33.234291 6.764369
5.2413263 15.076582 14.297481
7.8438087 22.58791 17.494234
5.9128742 17.03698 10.682958
3.9303749 11.343908 5.6373248
5.3140359 15.346073 5.7413673
5.6481762 16.32021 4.2559972
11.788929 34.06366 5.1196585
12.409927 35.87825 1.6250988
0.1023365 0.13133295 17.583603
1.6321362 4.4249468 29.98172
2.1302304 5.8597717 29.999214
3.176898 8.8731699 30.176855
4.2517166 11.966965 29.97846
0.87650883 2.2989612 22.903528
2.6707604 7.3743963 30.234205
3.7227268 10.386125 30.057583
3.006417 8.4712868 14.77335
4.6276016 13.097146 15.136719
7.1276751 20.364985 21.282757
8.3206425 23.813423 20.422052
3.6289973 10.403592 5.8541689
4.1330047 11.855107 5.1608238
5.3571343 15.374998 4.8756914
11.562613 33.222004 6.7699652
12.360348 35.514072 3.4688225
5.2926826 15.054673 14.294156
8.2065325 23.368891 18.118185
5.970881 17.012169 10.680425
3.9759512 11.347252 5.6457167
5.2942157 15.11796 5.6641221
5.7147436 16.327919 4.2630305
11.914305 34.040993 5.1224208
12.546637 35.867725 1.6265095
0.10279432 0.13097493 17.583603
1.6467578 4.4170389 29.966904
2.1499693 5.850389 29.989422
3.2083597 8.86343 30.181629
4.2934637 11.95205 29.97846
3.1135843 8.7345133 13.69167
0.88510352 2.29738 22.918444
2.6964855 7.3650284 30.234205
3.7589586 10.373067 30.057583
3.0676804 8.5491123 14.926924
4.694962 13.141571 15.206547
5.0272374 14.204503 14.886959
5.6987619 16.128696 13.875233
3.6505547 10.349086 5.8309808
4.1805277 11.858097 5.1683164
5.4426541 15.446693 4.903892
11.686663 33.204605 6.7746282
12.502427 35.522381 3.4737403
5.3514547 15.053697 14.310783
5.0283542 14.160455 11.025168
3.9867373 11.252023 5.6058536
5.3043952 14.979202 5.6197476
5.7522435 16.252886 4.2489629
12.038013 34.013203 5.1244931
12.68509 35.861385 1.6281219
0.10325088 0.13061532 17.583603
1.6621662 4.4112639 29.966904
2.1703782 5.8428488 29.989422
3.2403054 8.8549805 30.191172
4.3351579 11.936991 29.97846
3.1345131 8.6971188 13.650342
2.7226143 7.35675 30.239044
3.7951443 10.359882 30.057583
3.1126239 8.5800304 14.999444
4.7442608 13.134667 15.217571
5.0743866 14.180152 14.879951
5.7576461 16.116037 13.88151
5.1765747 14.497561 10.177382
3.6420121 10.211109 5.7614169
5.5657687 15.621911 4.9645233
11.812378 33.191376 6.7802234
5.9975462 16.686361 15.873769
5.0654597 14.108578 10.998679
5.0368261 14.036513 8.8489361
5.3104873 14.831667 5.5720854
5.8023906 16.214401 4.2442737
12.163342 33.989624 5.1272554
12.823651 35.854523 1.629734
0.10370618 0.1302541 17.583603
1.6775542 4.4054351 29.966904
2.191118 5.8361902 29.994318
3.2717133 8.8450155 30.195944
4.3774719 11.923618 29.983061
3.1667795 8.6914129 13.658607
2.748718 7.3483796 30.243885
3.831883 10.348189 30.062275
2.9131773 7.9137993 17.500463
3.1632082 8.6254301 15.09756
4.7412419 12.98428 15.063215
4.5208464 12.495655 13.13819
3.0912356 8.5582161 7.4194279
5.2172108 14.451874 10.158192
3.6430707 10.102489 5.7080846
4.1516066 11.51897 5.0353308
5.5861244 15.507608 4.9349122
11.938146 33.177677 6.7858195
6.053206 16.658306 15.867118
5.1119189 14.083211 10.992793
5.05933 13.945905 8.803339
3.8148122 10.532622 5.2659693
5.3815155 14.866323 5.5918083
5.8424177 16.148342 4.2325506
12.286969 33.96093 5.1293278
12.960621 35.842426 1.6311446
0.10416022 0.12989131 17.583603
1.6929219 4.3995523 29.966904
2.2121992 5.83041 30.004108
3.3046591 8.8391342 30.215033
4.4190664 11.908265 29.983061
4.4698076 12.155296 15.582438
2.7747962 7.3399148 30.248722
3.8685865 10.336368 30.066969
2.9407837 7.9035826 17.500463
3.1932974 8.614336 15.09756
4.752492 12.875418 14.956635
4.6244617 12.643912 13.309914
3.1197557 8.5437174 7.4162893
5.2561574 14.40215 10.136261
3.6100361 9.9024277 5.6037388
4.1917901 11.504409 5.0353308
5.5926199 15.357301 4.894022
12.063958 33.163494 6.7914152
5.1694016 14.08805 11.010452
5.0871987 13.871497 8.7678738
3.8515549 10.519242 5.2659693
5.4398665 14.865185 5.5983815
11.755719 32.141438 8.3450403
12.412243 33.936436 5.1320901
13.099378 35.834507 1.6327569
0.10455608 0.12946078 17.573605
1.7079872 4.3928919 29.961962
2.2332668 5.824554 30.013899
3.3349655 8.826148 30.210258
4.4612937 11.894597 29.987663
2.8008492 7.3313589 30.253563
3.9052544 10.324415 30.071661
2.9599252 7.8708549 17.450951
3.2242627 8.6055794 15.101827
3.7913878 10.140707 14.410478
4.6784625 12.654454 13.337951
3.1536028 8.5437298 7.4257045
5.3150811 14.407251 10.152709
3.6445799 9.8897657 5.6037388
5.5500746 15.076584 4.8122396
12.189819 33.148846 6.7970109
8.2267084 22.15658 21.131384
5.1101165 13.784942 8.7248106
3.9874954 10.773884 5.3981466
11.908295 32.209621 8.3731756
12.537497 33.911484 5.1348529
13.239969 35.830742 1.6345708
0.10500735 0.12909503 17.573605
1.7238791 4.3883495 29.971842
2.2543206 5.8186216 30.023689
3.3609619 8.8019037 30.167313
4.503479 11.880778 29.992268
2.9959934 7.9624639 12.567509
4.5782294 12.186805 15.663025
2.8264232 7.3215375 30.253563
3.942502 10.313945 30.081045
2.9912491 7.8706512 17.473457
3.247817 8.577198 15.071965
3.8267624 10.127411 14.410478
4.7812605 12.680147 14.769202
3.1874888 8.5436096 7.4351201
3.6821718 9.8852854 5.608376
4.1345181 11.105573 4.876123
5.6060138 15.066111 4.8150597
12.315725 33.13372 6.8026071
6.1512275 16.391251 15.674238
8.1166649 21.651489 16.920319
5.4470892 14.538039 9.2086477
4.03303 10.781154 5.408637
5.6592731 15.136463 5.7134275
12.06149 32.277134 8.4013119
12.664462 33.890705 5.1383066
13.377198 35.81707 1.6359816
0.10560077 0.12889206 17.598602
1.7371802 4.3772502 29.937267
2.2753601 5.8126135 30.03348
3.4024134 8.8179703 30.262751
4.5456219 11.866812 29.996872
3.007766 7.9098725 12.501382
4.6002631 12.116812 15.59395
2.851963 7.3116269 30.253563
3.9784803 10.300119 30.081045
3.0163629 7.8540645 17.459953
3.272145 8.5511951 15.04637
3.8599401 10.108361 14.402497
4.8484297 12.72357 14.83903
4.5424128 12.02763 12.714141
3.1953197 8.4741602 7.3849049
3.7494318 9.9594345 5.6570711
4.1667285 11.073718 4.8686309
5.6602592 15.05094 4.8164697
12.441673 33.118118 6.8082023
13.050961 34.739956 3.4245617
7.3179688 19.295238 18.461008
8.136344 21.475615 16.805534
5.638248 14.889829 9.4417
4.0706382 10.76701 5.408637
5.7387819 15.187295 5.7397237
12.174086 32.234833 8.4013119
12.789684 33.864822 5.1410694
13.525077 35.830914 1.6386014
0.10613646 0.128621 17.613604
1.7559192 4.3798137 29.996536
2.2963848 5.8065295 30.04327
2.7830427 7.1385417 24.541143
4.5877223 11.852693 30.001471
4.6390862 12.091702 15.582438
2.8774681 7.3016272 30.253563
4.0150375 10.287776 30.085739
3.0406101 7.8353701 17.44195
3.896286 10.097636 14.406487
4.8757586 12.662277 14.787578
4.5703816 11.975051 12.675591
3.2124062 8.4302187 7.3566585
3.6737881 9.64604 6.851984
3.8188283 10.037371 5.7080846
4.1822886 10.998441 4.8424087
5.7076492 15.017638 4.8122396
12.56592 33.09745 6.8128657
13.175684 34.703506 3.425456
8.4435778 22.030865 21.094803
8.1794624 21.364035 16.740786
5.6193199 14.684857 9.3251734
3.9656546 10.379648 5.2240081
5.8305054 15.268633 5.777524
12.250134 32.096779 8.3766928
12.923706 33.861607 5.147285
13.65897 35.806824 1.6396091
0.1067872 0.12847844 17.648602
1.7709053 4.3729372 29.991598
2.3162615 5.7975326 30.038374
2.8106794 7.1357274 24.565002
4.6297798 11.838427 30.006075
3.0639324 7.8913054 12.505515
4.5480299 11.731754 15.141125
2.9029379 7.2915387 30.253563
4.0509238 10.273699 30.085739
3.0641267 7.8431039 13.843376
3.9347935 10.092397 14.418456
4.8732162 12.525122 14.647922
4.6095881 11.952371 12.668583
3.2418137 8.4189548 7.3566585
3.7059348 9.6292543 6.8492427
3.8522525 10.019845 5.7057657
4.232295 11.014067 4.8555198
12.690172 33.076313 6.8175282
13.335984 34.759586 3.4352915
6.3104005 16.294603 15.644308
3.4427295 8.8990078 7.0312991
5.6721001 14.669174 9.3277073
3.9855165 10.323403 5.2030277
5.9942656 15.534551 5.8843527
12.493275 32.393951 8.4646168
13.041827 33.816288 5.147285
13.809032 35.824188 1.6424305
0.10723503 0.1281049 17.648602
1.78763 4.3703251 30.016294
2.3361037 5.7884679 30.03348
2.8361225 7.1272597 24.569775
4.6725116 11.825829 30.015282
3.0935149 7.8858018 12.513781
4.5632358 11.650148 15.056699
2.9283724 7.2813611 30.253563
4.0874 10.261099 30.090431
3.1609793 7.9799132 17.811049
3.0886135 7.8250837 13.830579
3.9965031 10.145885 14.514217
4.4902463 11.42267 13.383665
4.6512818 11.936207 12.668583
3.2598908 8.3785686 7.3315511
3.7668035 9.686408 6.8985891
3.8471026 9.9031076 5.6477957
5.8036747 14.955065 4.8051896
12.812655 33.050137 6.821259
13.464437 34.731396 3.4370799
6.3781252 16.300293 15.670913
3.4693573 8.8756418 7.0224695
5.6495409 14.460568 9.2086477
4.0413198 10.360167 5.2282043
6.0415936 15.495934 5.8777785
13.149002 33.742878 5.1431413
13.852406 35.566277 1.6333616
0.1075941 0.12763238 17.6336
1.8055447 4.3705211 30.060747
2.3559103 5.779335 30.028584
2.8554165 7.1034665 24.522055
4.7144866 11.811259 30.019882
3.100286 7.8226342 12.431122
4.5802865 11.574543 14.97995
2.9542441 7.2722588 30.258402
4.1238375 10.248371 30.095125
3.1896241 7.9708524 17.81555
3.105283 7.7876058 13.783653
4.0040412 10.061882 14.414467
4.5263381 11.397475 13.37264
4.700757 11.939807 12.689609
3.2606375 8.2946882 7.2687817
3.7944763 9.6576328 6.8876228
3.8622258 9.8401365 5.6199703
4.4377556 11.312245 4.99787
5.8208199 14.845395 4.776989
12.940485 33.037228 6.8277874
13.601938 34.725918 3.4411039
5.3903794 13.635515 13.140207
3.4676549 8.7807693 6.9577203
5.6762424 14.380614 9.1706495
4.0974288 10.396667 5.2533813
4.5968785 11.669902 4.4544997
13.27759 33.724415 5.147285
13.943542 35.434029 1.629734
0.10800971 0.12722367 17.628601
1.8207897 4.364192 30.060747
2.3756821 5.7701349 30.023689
2.8807564 7.0948391 24.526827
4.7571483 11.798355 30.029089
3.140125 7.8431134 12.480718
4.5587921 11.403721 14.780399
2.9796112 7.2619023 30.258402
4.1608849 10.237109 30.104509
3.2182436 7.9616876 17.820049
3.1100357 7.7210789 13.685535
4.0110416 9.9779482 14.314716
4.5332751 11.2998 13.277085
4.7424059 11.923326 12.689609
3.2263594 8.1240873 7.1306896
3.8189087 9.6210108 6.8711743
3.8998165 9.8348303 5.624608
4.4772158 11.296686 4.99787
6.298378 15.899818 5.1168065
13.07561 33.042099 6.8380461
13.72307 34.678226 3.4411039
5.4310198 13.599279 13.12358
3.4863024 8.7385788 6.934175
8.0304441 20.138762 12.826027
4.1521616 10.428682 5.2764592
4.6375861 11.653785 4.4544997
13.382417 33.645653 5.1424503
14.183417 35.67762 1.6424305
0.10845314 0.12684587 17.628601
1.8339006 4.352798 30.026173
2.3954182 5.7608666 30.018793
