# .PCD v0.7 - Point Cloud Data file format
VERSION 0.7
FIELDS x y z
SIZE 4 4 4
TYPE F F F
COUNT 1 1 1
WIDTH 1370
HEIGHT 1
VIEWPOINT 0 0 0 1 0 0 0
POINTS 1370
DATA ascii
-0.97033668 -0.066076189 2.0748043
-0.91751426 -0.063589998 1.5745492
-0.90444058 -0.063306563 1.2753172
-0.89732206 -0.063425444 1.0534879
-0.88961762 -0.065531999 0.95638841
-0.87641513 -0.065011241 0.7910074
-0.85701358 -0.063718103 0.64804614
-0.86726648 -0.064776704 0.54179835
-0.86069483 -0.064431943 0.43703499
-0.8422544 -0.063194543 0.33820567
-0.84251058 -0.063504368 0.25188279
-0.8390255 -0.063239127 0.16848512
-0.88239831 -0.063756816 0.86911154
-0.87337857 -0.063404255 0.72116315
-0.85737997 -0.062388703 0.59077305
-0.84754497 -0.062111773 0.48031163
-0.84826851 -0.062308472 0.38517112
-0.85815614 -0.06318 0.29825324
-0.85426933 -0.062891312 0.21168561
-0.86667883 -0.063951723 0.12873179
-0.035534646 0.0050624441 2.5841751
-1.4857969 -0.079461113 9.4591026
-1.3391904 -0.077907808 6.4727511
-0.78638673 -0.049622141 2.5661576
-0.98748922 -0.064658649 2.3909295
-0.93949395 -0.062815607 1.7928436
-0.91030788 -0.061806399 1.4126806
-0.90047652 -0.06160298 1.1572587
-0.15990333 -0.0015347084 2.6050742
-0.2820479 -0.012349615 2.5899649
-0.67595601 -0.04021854 2.6446466
-0.91718042 -0.05750896 2.5532794
-0.96838897 -0.06254857 2.070303
-0.91773069 -0.060386889 1.5745492
-0.90465611 -0.060149092 1.2753172
-0.89415544 -0.06006578 1.0498128
-0.88984096 -0.062426258 0.95638841
-0.87663674 -0.061951589 0.7910074
-0.85723078 -0.060726181 0.64804614
-0.86306864 -0.061434578 0.53947955
-0.86091447 -0.061427165 0.43703499
-0.83768487 -0.059911992 0.33679563
-0.84272718 -0.060563065 0.25188279
-0.83924115 -0.060309995 0.16848512
-0.88261551 -0.06067628 0.86911154
-0.87359458 -0.060355209 0.72116315
-0.85759252 -0.059395511 0.59077305
-0.84775656 -0.059152909 0.48031163
-0.85319149 -0.059676487 0.38681462
-0.8632201 -0.060523998 0.29942557
-0.85448366 -0.059908975 0.21168561
-0.86689681 -0.060926061 0.12873179
-0.035516758 0.0051864525 2.5841751
-1.4689924 -0.073424295 9.35044
-1.0873126 -0.0594889 5.2587347
-0.78655511 -0.046876837 2.5661576
-0.98770893 -0.061211277 2.3909295
-0.93970746 -0.059535779 1.7928436
-0.91051811 -0.058628451 1.4126806
-0.90068609 -0.058459353 1.1572587
-0.15990771 -0.00097653212 2.6050742
-0.28208929 -0.011365009 2.5899649
-0.67985731 -0.038068607 2.6591649
-0.9173755 -0.054307055 2.5532794
-0.96642858 -0.059035361 2.0658019
-0.91793585 -0.057183042 1.5745492
-0.90486056 -0.056990884 1.2753172
-0.89435965 -0.056944229 1.0498128
-0.89005339 -0.059319749 0.95638841
-0.87684762 -0.058891177 0.7910074
-0.85743749 -0.057733517 0.64804614
-0.86327785 -0.05842153 0.53947955
-0.86112368 -0.058421642 0.43703499
-0.8378889 -0.056987561 0.33679563
-0.8380326 -0.057286065 0.25095019
-0.83944654 -0.057380129 0.16848512
-0.88282192 -0.057595011 0.86911154
-0.87379998 -0.057305429 0.72116315
-0.85779464 -0.056401592 0.59077305
-0.84795791 -0.056193322 0.48031163
-0.84868282 -0.056384973 0.38517112
-0.87312591 -0.058156386 0.30177018
-0.85468757 -0.056925904 0.21168561
-0.86710423 -0.057899654 0.12873179
-0.03549844 0.0053103976 2.5841751
-1.4304311 -0.066499881 9.1034765
-1.0875137 -0.055693109 5.2587347
-0.78671396 -0.044130962 2.5661576
-0.98596627 -0.057649337 2.386327
-0.93990958 -0.056255229 1.7928436
-0.91071725 -0.055449795 1.4126806
-0.89768541 -0.055118784 1.1534212
-0.15991014 -0.00041834413 2.6050742
-0.28212723 -0.010380263 2.5899649
-0.68249661 -0.035826363 2.6688437
-0.91928262 -0.051200218 2.5579724
-0.96445531 -0.055536602 2.0613005
-0.91812986 -0.053978503 1.5745492
-0.90505391 -0.053831983 1.2753172
-0.89455301 -0.053821981 1.0498128
-0.89025509 -0.056212526 0.95638841
-0.8770479 -0.05583005 0.7910074
-0.85763383 -0.05474015 0.64804614
-0.85905582 -0.055124227 0.53716075
-0.86594874 -0.055712953 0.43890804
-0.83808273 -0.054062434 0.33679563
-0.83822751 -0.054360434 0.25095019
-0.83467221 -0.054127324 0.16803804
-0.88301754 -0.054513033 0.86911154
-0.87399465 -0.054254949 0.72116315
-0.85798627 -0.053406987 0.59077305
-0.84814894 -0.053233061 0.48031163
-0.84887451 -0.053422168 0.38517112
-0.87817454 -0.0554143 0.30294251
-0.85488111 -0.05394214 0.21168561
-0.86730105 -0.054872543 0.12873179
-0.035479687 0.0054342775 2.5841751
-1.4322072 -0.061572775 9.1133556
-1.0897355 -0.051993277 5.2685251
-0.78686321 -0.041384548 2.5661576
-0.98616153 -0.054207321 2.386327
-0.94010013 -0.052973986 1.7928436
-0.91090518 -0.052270461 1.4126806
-0.89787233 -0.05198494 1.1534212
-0.15991063 0.00013984893 2.6050742
-0.28216174 -0.0093953926 2.5899649
-0.68638396 -0.033627339 2.683362
-0.91945571 -0.047991011 2.5579724
-0.96464324 -0.052169684 2.0613005
-0.91570866 -0.050629534 1.5702833
-0.9052363 -0.050672431 1.2753172
-0.8947354 -0.050699085 1.0498128
-0.88688594 -0.052892491 0.95288384
-0.87723744 -0.052768238 0.7910074
-0.85781962 -0.051746115 0.64804614
-0.85924304 -0.052125227 0.53716075
-0.87076533 -0.052971292 0.44078106
-0.83826637 -0.05113665 0.33679563
-0.83841211 -0.051434148 0.25095019
-0.83485603 -0.051213447 0.16803804
-0.88320249 -0.051430397 0.86911154
-0.87417871 -0.051203806 0.72116315
-0.85386413 -0.050159078 0.58823985
-0.8483296 -0.050272141 0.48031163
-0.84434199 -0.050178669 0.38352761
-0.8783626 -0.052348562 0.30294251
-0.85506415 -0.050957721 0.21168561
-0.86250025 -0.05154673 0.12853025
-0.035460502 0.0055580912 2.5841751
-0.40678698 -0.016276019 2.5885952
-1.0939792 -0.048368145 5.288106
-0.78700286 -0.038637631 2.5661576
-0.98634475 -0.050764643 2.386327
-0.94027936 -0.049692102 1.7928436
-0.91108209 -0.049090493 1.4126806
-0.89804834 -0.048850466 1.1534212
-0.15990917 0.00069804047 2.6050742
-0.28219283 -0.0084104072 2.5899649
-0.68649721 -0.031231206 2.683362
-0.91961759 -0.044781219 2.5579724
-0.96481949 -0.048802134 2.0613005
-0.91587979 -0.047432806 1.5702833
-0.90540767 -0.047512256 1.2753172
-0.89490694 -0.047575567 1.0498128
-0.88706523 -0.049796361 0.95288384
-0.87741625 -0.049705788 0.7910074
-0.85799509 -0.048751451 0.64804614
-0.85941976 -0.049125593 0.53716075
-0.87094492 -0.049931433 0.44078106
-0.83843976 -0.048210245 0.33679563
-0.83858651 -0.048507228 0.25095019
-0.83502972 -0.048298944 0.16803804
-0.88337666 -0.04834713 0.86911154
-0.8743521 -0.048152041 0.72116315
-0.85403401 -0.047178227 0.58823985
-0.84849983 -0.047310613 0.48031163
-0.84451199 -0.04723106 0.38352761
-0.87854004 -0.049282186 0.30294251
-0.85523683 -0.047972679 0.21168561
-0.86267489 -0.048535727 0.12853025
-0.035399251 0.0056687826 2.5791752
-0.40062928 -0.014633611 2.5490811
-1.0941415 -0.044549152 5.288106
-0.78713298 -0.03589024 2.5661576
-0.98651588 -0.047321349 2.386327
-0.94044709 -0.046409614 1.7928436
-0.91124797 -0.045909923 1.4126806
-0.89821339 -0.045715392 1.1534212
-0.15990576 0.0012562233 2.6050742
-0.28275335 -0.0074385288 2.5949364
-0.68785781 -0.028887108 2.6882014
-0.91976839 -0.041570883 2.5579724
-0.964984 -0.045433987 2.0613005
-0.91603976 -0.044235501 1.5702833
-0.905568 -0.044351503 1.2753172
-0.89506757 -0.044451468 1.0498128
-0.8836723 -0.046512358 0.94937932
-0.87758446 -0.046642732 0.7910074
-0.85816002 -0.045756191 0.64804614
-0.8551625 -0.045888115 0.53484195
-0.87574321 -0.047140054 0.44265413
-0.8386029 -0.045283251 0.33679563
-0.83875078 -0.04557972 0.25095019
-0.83519322 -0.045383852 0.16803804
-0.88354003 -0.045263276 0.86911154
-0.87451488 -0.045099687 0.72116315
-0.84988844 -0.043974202 0.58570671
-0.84865981 -0.044348508 0.48031163
-0.83995599 -0.044035733 0.3818841
-0.87385279 -0.045959979 0.30177018
-0.85045385 -0.04472702 0.21099493
-0.85785007 -0.045260925 0.12832873
-0.035379246 0.0057923147 2.5791752
-0.40145454 -0.013260148 2.5540206
-1.0942903 -0.040729612 5.288106
-0.78725344 -0.033142418 2.5661576
-0.98667508 -0.043877479 2.386327
-0.94060338 -0.043126553 1.7928436
-0.91140264 -0.042728797 1.4126806
-0.89836752 -0.042579766 1.1534212
-0.1599004 0.001814391 2.6050742
-0.28277761 -0.0064514899 2.5949364
-0.68795443 -0.026485858 2.6882014
-0.91990787 -0.038360041 2.5579724
-0.96513671 -0.042065289 2.0613005
-0.9161886 -0.041037656 1.5702833
-0.90571731 -0.041190211 1.2753172
-0.8952173 -0.041326825 1.0498128
-0.8802672 -0.043252643 0.94587469
-0.87774193 -0.043579105 0.7910074
-0.85413831 -0.042552471 0.64530468
-0.85531747 -0.04290276 0.53484195
-0.87590241 -0.044082854 0.44265413
-0.83875585 -0.042355701 0.33679563
-0.83890474 -0.042651657 0.25095019
-0.83534658 -0.042468209 0.16803804
-0.88369262 -0.042178869 0.86911154
-0.87466699 -0.042046789 0.72116315
-0.85003674 -0.041007269 0.58570671
-0.84880948 -0.041385863 0.48031163
-0.84010458 -0.041103471 0.3818841
-0.86915308 -0.042671092 0.30059788
-0.85060477 -0.041758109 0.21099493
-0.85800284 -0.042266198 0.12832873
-0.035358813 0.0059157759 2.5791752
-0.40382838 -0.011925848 2.5688381
-1.0944258 -0.036909584 5.288106
-0.78736436 -0.030394189 2.5661576
-0.98487014 -0.040353302 2.3817246
-0.94074816 -0.039842978 1.7928436
-0.91154623 -0.039547145 1.4126806
-0.89851069 -0.03944362 1.1534212
-0.1598931 0.0023725366 2.6050742
-0.28333136 -0.0054738619 2.5999079
-0.6880427 -0.02408429 2.6882014
-0.9200362 -0.035148725 2.5579724
-0.96745288 -0.038783062 2.0658019
-0.91632628 -0.037839312 1.5702833
-0.90284497 -0.037902236 1.2713271
-0.89535606 -0.038201686 1.0498128
-0.87685025 -0.040017277 0.94237012
-0.87788874 -0.040514946 0.7910074
-0.8542816 -0.039570712 0.64530468
-0.85546207 -0.039916884 0.53484195
-0.87142003 -0.040808346 0.44078106
-0.8388986 -0.039427642 0.33679563
-0.83904856 -0.039723072 0.25095019
-0.83548969 -0.039552048 0.16803804
-0.88383448 -0.039093949 0.86911154
-0.87077039 -0.038813539 0.71822
-0.85017473 -0.038039837 0.58570671
-0.84894878 -0.038422711 0.48031163
-0.84024298 -0.03817071 0.3818841
-0.86929679 -0.039636921 0.30059788
-0.84579843 -0.038563184 0.21030425
-0.85814518 -0.039270949 0.12832873
-0.035379443 0.0060526561 2.5841751
-0.40386757 -0.010516151 2.5688381
-1.094548 -0.033089098 5.288106
-0.78746569 -0.027645588 2.5661576
-0.98500496 -0.036915217 2.3817246
-0.9384883 -0.036466133 1.7884545
-0.90886688 -0.036253061 1.4085476
-0.89864284 -0.036306992 1.1534212
-0.15959524 0.0029235492 2.6000826
-0.28334877 -0.0044848174 2.5999079
-0.68812257 -0.021682426 2.6882014
-0.92015326 -0.031936988 2.5579724
-0.9675824 -0.035405789 2.0658019
-0.91645277 -0.034640506 1.5702833
-0.9029718 -0.034750488 1.2713271
-0.89209646 -0.034943569 1.0461376
-0.8769846 -0.036956254 0.94237012
-0.87413597 -0.03728459 0.78786892
-0.85441452 -0.036588471 0.64530468
-0.85117048 -0.03673961 0.53252316
-0.87155718 -0.037766278 0.44078106
-0.8390311 -0.036499098 0.33679563
-0.83918208 -0.036794007 0.25095019
-0.83562267 -0.036635403 0.16803804
-0.88396555 -0.036008552 0.86911154
-0.87090057 -0.035773747 0.71822
-0.85460949 -0.035249453 0.58823985
-0.84907776 -0.035459094 0.48031163
-0.84037107 -0.035237484 0.3818841
-0.86942983 -0.03660227 0.30059788
-0.84592789 -0.035610564 0.21030425
-0.85328549 -0.036064275 0.12812719
-0.035358097 0.0061761164 2.5841751
-0.40467864 -0.0091232779 2.5737774
-1.0946568 -0.029268211 5.288106
-0.7875573 -0.024896652 2.5661576
-0.98512787 -0.033476684 2.3817246
-0.93860984 -0.033189975 1.7884545
-0.90898794 -0.033080302 1.4085476
-0.89876413 -0.033169918 1.1534212
-0.15958406 0.003480623 2.6000826
-0.28336269 -0.0034957186 2.5999079
-0.68819404 -0.019280298 2.6882014
-0.92025912 -0.028724859 2.5579724
-0.96987581 -0.032099873 2.070303
-0.9165681 -0.031441279 1.5702833
-0.90308762 -0.031598315 1.2713271
-0.89221299 -0.031829361 1.0461376
-0.87710828 -0.033894785 0.94237012
-0.87426078 -0.03423306 0.78786892
-0.85453707 -0.033605784 0.64530468
-0.8512935 -0.033768248 0.53252316
-0.86705142 -0.034539312 0.43890804
-0.83915341 -0.033570111 0.33679563
-0.8393054 -0.033864491 0.25095019
-0.83574545 -0.033718314 0.16803804
-0.88781703 -0.033061489 0.872437
-0.87102014 -0.032733519 0.71822
-0.85472733 -0.032266095 0.58823985
-0.84919631 -0.03249504 0.48031163
-0.84048897 -0.032303825 0.3818841
-0.86955225 -0.033567172 0.30059788
-0.84604704 -0.032657508 0.21030425
-0.84841406 -0.032892007 0.12792566
-0.035336327 0.0062995013 2.5841751
-0.40470803 -0.0077106296 2.5737774
-1.1090034 -0.025775349 5.3566394
-0.7876395 -0.022147411 2.5661576
-0.98328602 -0.029978424 2.3771222
-0.93632621 -0.029837349 1.7840655
-0.90909785 -0.029907141 1.4085476
-0.89887446 -0.030032447 1.1534212
-0.15957093 0.004037654 2.6000826
-0.28337318 -0.0025065769 2.5999079
-0.6895138 -0.016908426 2.6930408
-0.92035377 -0.025512381 2.5579724
-0.96998191 -0.02871418 2.070303
-0.91667229 -0.028241664 1.5702833
-0.90319234 -0.028445758 1.2713271
-0.89231861 -0.028714763 1.0461376
-0.87722123 -0.030832896 0.94237012
-0.87048513 -0.031042557 0.78473049
-0.85464913 -0.030622691 0.64530468
-0.85140622 -0.030796474 0.53252316
-0.8671667 -0.031512525 0.43890804
-0.83926547 -0.030640716 0.33679563
-0.83941853 -0.030934557 0.25095019
-0.83585811 -0.030800808 0.16803804
-0.88792706 -0.029962229 0.872437
-0.86708945 -0.029555354 0.71527684
-0.85483474 -0.029282343 0.58823985
-0.84930462 -0.029530598 0.48031163
-0.84059662 -0.029369773 0.3818841
-0.86480647 -0.030361181 0.29942557
-0.84120685 -0.029530365 0.20961356
-0.84852374 -0.029930288 0.12792566
-0.03531412 0.0064228098 2.5841751
-0.4047325 -0.0062978882 2.5737774
-1.1060326 -0.02184434 5.3419533
-0.78621978 -0.019361433 2.5613856
-0.98338467 -0.026545933 2.3771222
-0.93642467 -0.026568778 1.7840655
-0.90638387 -0.026651118 1.4044147
-0.89897382 -0.026894607 1.1534212
-0.15955587 0.0045946357 2.6000826
-0.28284711 -0.0015153578 2.5949364
-0.6908254 -0.014527576 2.6978805
-0.92043722 -0.022299591 2.5579724
-0.9679001 -0.025271533 2.0658019
-0.91676533 -0.025041711 1.5702833
-0.90027398 -0.025208717 1.2673371
-0.88902467 -0.025502788 1.0424625
-0.87732351 -0.027770637 0.94237012
-0.87058818 -0.028003806 0.78473049
-0.85475081 -0.02763922 0.64530468
-0.8515085 -0.027824325 0.53252316
-0.862638 -0.028333269 0.43703499
-0.83936733 -0.027710944 0.33679563
-0.83952141 -0.028004253 0.25095019
-0.83596051 -0.027882934 0.16803804
-0.88802624 -0.026862603 0.872437
-0.86718738 -0.026528468 0.71527684
-0.85493171 -0.026298232 0.58823985
-0.84486622 -0.026424026 0.47821358
-0.84069401 -0.026435364 0.3818841
-0.86490721 -0.02734226 0.29942557
-0.84130478 -0.026593825 0.20961356
-0.8436296 -0.026809536 0.12772413
-0.035250183 0.006531971 2.5791752
-0.4055289 -0.0048938841 2.5787168
-1.1101745 -0.018048828 5.3615346
-0.78628254 -0.016616896 2.5613856
-0.98347133 -0.023113117 2.3771222
-0.9341175 -0.023240535 1.7796764
-0.90647143 -0.023487085 1.4044147
-0.89906222 -0.023756439 1.1534212
-0.15953887 0.0051515615 2.6000826
-0.28285068 -0.00052802789 2.5949364
-0.69212866 -0.012137774 2.7027197
-0.91878408 -0.019050991 2.5532794
-0.96798241 -0.021892777 2.0658019
-0.91684711 -0.02184145 1.5702833
-0.90035653 -0.022066021 1.2673371
-0.88910824 -0.022399358 1.0424625
-0.88097996 -0.024808235 0.94587469
-0.87068069 -0.024964716 0.78473049
-0.85484213 -0.024655417 0.64530468
-0.85160047 -0.024851834 0.53252316
-0.85809773 -0.025186017 0.43516198
-0.83945894 -0.024780836 0.33679563
-0.83470398 -0.024927022 0.25001755
-0.83605278 -0.024964716 0.16803804
-0.88811457 -0.023762649 0.872437
-0.86727464 -0.023501256 0.71527684
-0.85501838 -0.023313805 0.58823985
-0.8449533 -0.023474731 0.47821358
-0.84078115 -0.023500634 0.3818841
-0.86013877 -0.024186438 0.29825324
-0.84139252 -0.023656961 0.20961356
-0.83872408 -0.023723317 0.1275226
-0.035227165 0.0066549773 2.5791752
-0.40554354 -0.0034782942 2.5787168
-0.52378869 -0.0068036099 2.5418837
-0.78633577 -0.013872156 2.5613856
-0.98354602 -0.019680021 2.3771222
-0.9341929 -0.019979715 1.7796764
-0.9065479 -0.020322766 1.4044147
-0.89913964 -0.020617981 1.1534212
-0.15980835 0.0057205646 2.6050742
-0.28231776 0.0004576339 2.5899649
-0.69468045 -0.0097563835 2.7123985
-0.918845 -0.015843721 2.5532794
-0.96805292 -0.018513754 2.0658019
-0.9169178 -0.018640922 1.5702833
-0.900428 -0.018923057 1.2673371
-0.88918102 -0.019295653 1.0424625
-0.8810612 -0.021732889 0.94587469
-0.87076253 -0.021925323 0.78473049
-0.85492301 -0.02167131 0.64530468
-0.85168201 -0.021879043 0.53252316
-0.85818046 -0.022190545 0.43516198
-0.8395403 -0.021850428 0.33679563
-0.83478588 -0.02201321 0.25001755
-0.83613479 -0.022046195 0.16803804
-0.88819212 -0.020662406 0.872437
-0.86735141 -0.020473761 0.71527684
-0.85078496 -0.020226778 0.58570671
-0.84503013 -0.02052515 0.47821358
-0.8408581 -0.020565616 0.3818841
-0.86021793 -0.021183847 0.29825324
-0.84146994 -0.020719809 0.20961356
-0.83380741 -0.020671675 0.12732106
-0.035203721 0.0067779026 2.5791752
-0.40555319 -0.002062662 2.5787168
-0.52482736 -0.0049844454 2.5467787
-0.7863794 -0.011127247 2.5613856
-0.98360872 -0.016246686 2.3771222
-0.93425691 -0.016718652 1.7796764
-0.90661335 -0.017158199 1.4044147
-0.89920616 -0.017479273 1.1534212
-0.1597874 0.0062783649 2.6050742
-0.28178138 0.0014395685 2.5849934
-0.6959672 -0.00734438 2.7172382
-0.91889471 -0.012636255 2.5532794
-0.96593493 -0.015100691 2.0613005
-0.91697723 -0.015440169 1.5702833
-0.90048862 -0.01577986 1.2673371
-0.88924295 -0.016191715 1.0424625
-0.8846972 -0.018732589 0.94937932
-0.86694235 -0.018801428 0.78159201
-0.8549934 -0.018686941 0.64530468
-0.85618192 -0.019004168 0.53484195
-0.85361791 -0.019091239 0.43328893
-0.83961153 -0.018919751 0.33679563
-0.83485764 -0.019099128 0.25001755
-0.83122802 -0.019013554 0.16759096
-0.88452578 -0.017488278 0.86911154
-0.86741763 -0.017446015 0.71527684
-0.8508504 -0.017256862 0.58570671
-0.84509665 -0.01757532 0.47821358
-0.83620358 -0.017531456 0.38024059
-0.85542709 -0.018078353 0.29708093
-0.84153718 -0.017782403 0.20961356
-0.83387452 -0.017761016 0.12732106
-0.035179846 0.006900745 2.5791752
-0.40555793 -0.00064700458 2.5787168
-0.52789617 -0.0031694858 2.5614645
-0.78790599 -0.0083978344 2.5661576
-0.98561287 -0.012838382 2.3817246
-0.93430966 -0.013457384 1.7796764
-0.90666765 -0.013993424 1.4044147
-0.89926165 -0.014340349 1.1534212
-0.16005287 0.0068502417 2.6100659
-0.28177464 0.0024231602 2.5849934
-0.6959886 -0.0049149562 2.7172382
-0.91893321 -0.0094286371 2.5532794
-0.96598172 -0.011728856 2.0613005
-0.91702557 -0.012239226 1.5702833
-0.90053821 -0.012636472 1.2673371
-0.88929403 -0.013087579 1.0424625
-0.88475722 -0.015644306 0.94937932
-0.86700267 -0.01577512 0.78159201
-0.85505342 -0.015702343 0.64530468
-0.85624301 -0.016015418 0.53484195
-0.85367936 -0.016111441 0.43328893
-0.83967239 -0.015988845 0.33679563
-0.83491921 -0.016184814 0.25001755
-0.83128929 -0.016111912 0.16759096
-0.88458145 -0.0144006 0.86911154
-0.86747324 -0.014418054 0.71527684
-0.85090542 -0.014286734 0.58570671
-0.84969062 -0.01470369 0.48031163
-0.83625972 -0.014612453 0.38024059
-0.85062498 -0.015006567 0.2959086
-0.8415941 -0.014844784 0.20961356
-0.83393139 -0.014850143 0.12732106
-0.035155546 0.0070235035 2.5791752
-0.40555772 0.00076866068 2.5787168
-0.5289222 -0.0013288978 2.5663595
-0.78793055 -0.0056474782 2.5661576
-0.98565167 -0.0093978727 2.3817246
-0.93435091 -0.010195953 1.7796764
-0.90671098 -0.010828478 1.4044147
-0.89930624 -0.011201254 1.1534212
-0.16002798 0.007408889 2.6100659
-0.28123146 0.0033994662 2.5800219
-0.69725847 -0.0024896408 2.7220774
-0.91896051 -0.0062209046 2.5532794
-0.96601677 -0.0083568795 2.0613005
-0.9170627 -0.0090381354 1.5702833
-0.90057683 -0.009492931 1.2673371
-0.89272428 -0.010021153 1.0461376
-0.88480639 -0.012555832 0.94937932
-0.86705244 -0.01274862 0.78159201
-0.85510302 -0.012717552 0.64530468
-0.85629374 -0.013026476 0.53484195
-0.84909499 -0.013060246 0.43141592
-0.83972311 -0.013057744 0.33679563
-0.83497059 -0.013270305 0.25001755
-0.83134049 -0.013210072 0.16759096
-0.88462633 -0.011312747 0.86911154
-0.86751831 -0.01138992 0.71527684
-0.85095012 -0.011316433 0.58570671
-0.84973675 -0.011737627 0.48031163
-0.83630562 -0.011693273 0.38024059
-0.85067219 -0.012037241 0.2959086
-0.84164077 -0.011906981 0.20961356
-0.83397818 -0.01193909 0.12732106
-0.035130814 0.0071461764 2.5791752
-0.40555257 0.0021843165 2.5787168
-0.5279054 0.00051597168 2.5614645
-0.78794545 -0.002897053 2.5661576
-0.98763222 -0.0059688427 2.386327
-0.93677568 -0.0069519538 1.7840655
-0.90674323 -0.0076634004 1.4044147
-0.89933985 -0.0080620209 1.1534212
-0.16000114 0.007967446 2.6100659
-0.28068492 0.0043720095 2.5750504
-0.69726294 -5.5739354e-05 2.7220774
-0.9189766 -0.0030130961 2.5532794
-0.96604007 -0.0049848007 2.0613005
-0.91708869 -0.0058369343 1.5702833
-0.90060449 -0.006349273 1.2673371
-0.89275384 -0.0069049024 1.0461376
-0.88484484 -0.009467205 0.94937932
-0.86709166 -0.0097219646 0.78159201
-0.85514218 -0.0097326087 0.64530468
-0.85633397 -0.010037374 0.53484195
-0.8491354 -0.010096272 0.43141592
-0.83976358 -0.010126484 0.33679563
-0.83501184 -0.010355633 0.25001755
-0.8313815 -0.010308073 0.16759096
-0.88466042 -0.0082247574 0.86911154
-0.86351091 -0.0083228471 0.71233368
-0.85098445 -0.0083459942 0.58570671
-0.85431081 -0.0088181561 0.48240969
-0.83634132 -0.0087739509 0.38024059
-0.84584874 -0.0090160193 0.29473627
-0.84167719 -0.008969035 0.20961356
-0.83901042 -0.0090819504 0.1275226
-0.035146654 0.0072836932 2.5841751
-0.40554246 0.0035999462 2.5787168
-0.5279004 0.0023587022 2.5614645
-0.78795075 -0.00014659249 2.5661576
-0.9896006 -0.0025261005 2.3909295
-0.93679428 -0.003681954 1.7840655
-0.90676451 -0.0044982294 1.4044147
-0.8993625 -0.0049226903 1.1534212
-0.16026051 0.008543076 2.6150575
-0.28013504 0.0053407792 2.5700788
-0.69851583 0.0023827697 2.726917
-0.91725594 0.00019414721 2.5485868
-0.96605158 -0.0016126611 2.0613005
-0.91710347 -0.0026356622 1.5702833
-0.90062118 -0.0032055378 1.2673371
-0.8927725 -0.0037885681 1.0461376
-0.8848725 -0.0063784621 0.94937932
-0.86712033 -0.0066951909 0.78159201
-0.85517102 -0.0067475466 0.64530468
-0.85636383 -0.0070481496 0.53484195
-0.84916544 -0.0071321744 0.43141592
-0.8397938 -0.0071951007 0.33679563
-0.83504289 -0.0074408338 0.25001755
-0.83141243 -0.0074059465 0.16759096
-0.88468373 -0.0051366654 0.86911154
-0.86757666 -0.0053332727 0.71527684
-0.85100836 -0.0053754533 0.58570671
-0.85433638 -0.0058360007 0.48240969
-0.83636683 -0.0058545214 0.38024059
-0.84587502 -0.0060634012 0.29473627
-0.84170336 -0.0060309777 0.20961356
-0.839037 -0.0061532022 0.1275226
-0.035121016 0.0074063335 2.5841751
-0.40552744 0.0050155316 2.5787168
-0.52687073 0.0041928743 2.5565691
-0.78794646 0.0026038699 2.5661576
-0.99155706 0.00093031116 2.3955321
-0.93680143 -0.00041190942 1.7840655
-0.9067747 -0.0013330032 1.4044147
-0.89937425 -0.0017832989 1.1534212
-0.16022973 0.0091024367 2.6150575
-0.27958176 0.0063057626 2.5651073
-0.69850326 0.0048210304 2.726917
-0.91724968 0.0033959667 2.5485868
-0.96822834 0.0017636776 2.0658019
-0.91971505 0.00056746282 1.5745492
-0.90062684 -6.1763945e-05 1.2673371
-0.8927803 -0.00067218742 1.0461376
-0.8813231 -0.00327657 0.94587469
-0.87103069 -0.0036846397 0.78473049
-0.85518932 -0.0037624016 0.64530468
-0.8563832 -0.0040588384 0.53484195
-0.84918523 -0.0041679908 0.43141592
-0.83501685 -0.0042393492 0.33538559
-0.83506376 -0.0045259455 0.25001755
-0.83143318 -0.0045037307 0.16759096
-0.8846963 -0.0020485118 0.86911154
-0.86759001 -0.0023048327 0.71527684
-0.85102195 -0.0024048472 0.58570671
-0.85889018 -0.0028688253 0.48450777
-0.84110439 -0.0029515042 0.3818841
-0.84103048 -0.0030928939 0.29356396
-0.84171933 -0.003092848 0.20961356
-0.83905333 -0.0032243792 0.1275226
-0.03509495 0.0075288834 2.5841751
-0.40628436 0.0064439382 2.5836561
-0.52685291 0.0060319705 2.5565691
-0.78643996 0.0053438796 2.5613856
-0.99350137 0.0044003506 2.4001346
-0.93679714 0.0028581403 1.7840655
-0.90677381 0.0018322391 1.4044147
-0.89937496 0.0013561138 1.1534212
-0.16019697 0.0096616885 2.6150575
-0.27955803 0.0072816461 2.5651073
-0.68968385 0.0071655582 2.6930408
-0.91723222 0.0065977448 2.5485868
-0.9682163 0.0051434143 2.0658019
-0.91970748 0.0037778639 1.5745492
-0.90062159 0.0030820109 1.2673371
-0.8927772 0.0024442014 1.0461376
-0.88132918 -0.00020015842 0.94587469
-0.87103826 -0.00064415281 0.78473049
-0.85519725 -0.00077721104 0.64530468
-0.85639209 -0.0010694788 0.53484195
-0.84919459 -0.0012037557 0.43141592
-0.8350265 -0.0013245706 0.33538559
-0.83998674 -0.0016204324 0.25095019
-0.83144385 -0.0016014597 0.16759096
-0.88469803 0.0010396671 0.86911154
-0.86759275 0.00072363549 0.71527684
-0.85102516 0.00056578842 0.58570671
-0.85889494 0.00012927818 0.48450777
-0.84110951 -1.5484278e-05 0.3818841
-0.84103614 -0.00015713103 0.29356396
-0.84172499 -0.00015468043 0.20961356
-0.83905953 -0.00029551683 0.1275226
-0.035068456 0.0076513421 2.5841751
-0.40625939 0.0078620957 2.5836561
-0.52682865 0.0078709936 2.5565691
-0.78641647 0.0080890348 2.5613856
-0.99347997 0.0078682909 2.4001346
-0.93678147 0.0061281547 1.7840655
-0.90676188 0.0049974592 1.4044147
-0.89936477 0.0044955099 1.1534212
-0.16016227 0.010220821 2.6150575
-0.27899814 0.0082408842 2.5601358
-0.68337047 0.0094841141 2.6688437
-0.91720361 0.0097994423 2.5485868
-0.96819246 0.0085230889 2.0658019
-0.9196887 0.006988219 1.5745492
-0.90060532 0.006225748 1.2673371
-0.89276326 0.0055605606 1.0461376
-0.88132453 0.0028762557 0.94587469
-0.87103522 0.0023963419 0.78473049
-0.85519475 0.0022079891 0.64530468
-0.85639066 0.0019198941 0.53484195
-0.84919357 0.0017604937 0.43141592
-0.83502609 0.001590224 0.33538559
-0.83998728 0.0013116784 0.25095019
-0.83642435 0.0013086529 0.16803804
-0.88468903 0.0041278331 0.86911154
-0.86758488 0.0037520947 0.71527684
-0.85101801 0.0035364169 0.58570671
-0.8634277 0.0031440142 0.48660582
-0.84110445 0.0029205359 0.3818841
-0.84103161 0.002778634 0.29356396
-0.8417204 0.0027834889 0.20961356
-0.83905542 0.0026333493 0.1275226
-0.035041533 0.0077737072 2.5841751
-0.40622947 0.0092801582 2.5836561
-0.52577996 0.0096907299 2.5516741
-0.79384625 0.010938297 2.5852456
-0.99344647 0.011336136 2.4001346
-0.93675435 0.0093980953 1.7840655
-0.90673888 0.0081626177 1.4044147
-0.89934355 0.0076348512 1.1534212
-0.16012561 0.010779829 2.6150575
-0.27896768 0.0092147188 2.5601358
-0.67202228 0.011670059 2.625289
-0.91716385 0.013001021 2.5485868
-0.96815681 0.011902659 2.0658019
-0.91705084 0.010169358 1.5702833
-0.89756501 0.0093378555 1.263347
-0.8927384 0.0086768512 1.0461376
-0.8848753 0.0059769098 0.94937932
-0.87102151 0.0054368074 0.78473049
-0.85100049 0.0051676198 0.64256322
-0.85194898 0.0048837299 0.53252316
-0.84918225 0.0047247219 0.43141592
-0.83021843 0.004479045 0.33397555
-0.83997756 0.0042437729 0.25095019
-0.83641469 0.0042283107 0.16803804
-0.88093561 0.0071853213 0.86578602
-0.86756659 0.006780508 0.71527684
-0.85100043 0.0065070023 0.58570671
-0.86341143 0.0061579198 0.48660582
-0.84108913 0.0058565205 0.3818841
-0.84101671 0.0057143653 0.29356396
-0.84170556 0.0057216245 0.20961356
-0.83904111 0.005562183 0.1275226
-0.035014182 0.0078959782 2.5841751
-0.4061946 0.010698107 2.5836561
-0.52574295 0.011525986 2.5516741
-0.7997731 0.013813475 2.6043334
-0.99340081 0.014803841 2.4001346
-0.93671584 0.01266792 1.7840655
-0.90670484 0.011327678 1.4044147
-0.89931142 0.0107741 1.1534212
-0.16008702 0.011338706 2.6150575
-0.27946648 0.010208718 2.5651073
-0.66192394 0.013803435 2.5865736
-0.9188382 0.016233159 2.5532794
-0.96593261 0.01524751 2.0613005
-0.91700977 0.013370401 1.5702833
-0.89752698 0.012470885 1.263347
-0.89270264 0.011793038 1.0461376
-0.88484907 0.0090656644 0.94937932
-0.87099725 0.0084772063 0.78473049
-0.85097724 0.0081381341 0.64256322
-0.85192674 0.0078575574 0.53252316
-0.84916061 0.0076888921 0.43141592
-0.83019775 0.0073770215 0.33397555
-0.83995765 0.0071758162 0.25095019
-0.83639485 0.0071479171 0.16803804
-0.88090515 0.010260317 0.86578602
-0.86753756 0.0098088393 0.71527684
-0.85097253 0.0094775083 0.58570671
-0.86338472 0.0091717513 0.48660582
-0.84106356 0.0087924339 0.3818841
-0.84099168 0.0086500263 0.29356396
-0.84168047 0.0086596906 0.20961356
-0.83402091 0.0084403772 0.12732106
-0.034986407 0.0080181519 2.5841751
-0.40693143 0.012139654 2.5885952
-0.5256995 0.0133611 2.5516741
-0.81016672 0.016823947 2.6377373
-0.99138975 0.018235225 2.3955321
-0.93666595 0.015937593 1.7840655
-0.90665984 0.0144926 1.4044147
-0.89926839 0.013913217 1.1534212
-0.16004646 0.011897446 2.6150575
-0.27942914 0.011184176 2.5651073
-0.64679259 0.01574274 2.5285003
-0.91877592 0.019440405 2.5532794
-0.96587354 0.018619152 2.0613005
-0.91434979 0.016523944 1.5660173
-0.89747798 0.015603762 1.263347
-0.89265603 0.014909079 1.0461376
-0.88837796 0.012203479 0.95288384
-0.87096232 0.011517503 0.78473049
-0.8467626 0.011053816 0.63982177
-0.85189414 0.010831288 0.53252316
-0.8491286 0.01065297 0.43141592
-0.830167 0.010274907 0.33397555
-0.83992749 0.010107772 0.25095019
-0.83636475 0.010067437 0.16803804
-0.88086396 0.013335187 0.86578602
-0.86345649 0.012777089 0.71233368
-0.85093427 0.0124479 0.58570671
-0.86334747 0.01218547 0.48660582
-0.8410278 0.011728239 0.3818841
-0.84095633 0.011585582 0.29356396
-0.84164512 0.011597651 0.20961356
-0.83398634 0.011351601 0.12732106
-0.034958206 0.0081402287 2.5841751
-0.40688658 0.013560035 2.5885952
-0.52564967 0.015196053 2.5516741
-0.81010306 0.019651854 2.6377373
-0.99132007 0.021695709 2.3955321
-0.93421012 0.019157749 1.7796764
-0.90379024 0.017602341 1.4002818
-0.89921433 0.017052164 1.1534212
-0.16000396 0.012456039 2.6150575
-0.27992094 0.012183493 2.5700788
-0.6467337 0.018000372 2.5285003
-0.94285458 0.023246109 2.6189783
-0.96362633 0.021940798 2.0567994
-0.91428655 0.01971552 1.5660173
-0.89741808 0.01873645 1.263347
-0.89259857 0.01802494 1.0461376
-0.88832998 0.015304422 0.95288384
-0.87091678 0.014557659 0.78473049
-0.84671885 0.014009502 0.63982177
-0.85185117 0.013804888 0.53252316
-0.84908623 0.013616917 0.43141592
-0.83492249 0.013248853 0.33538559
-0.83497542 0.012963303 0.25001755
-0.83632457 0.012986832 0.16803804
-0.87707895 0.016340172 0.86246049
-0.8634066 0.015791036 0.71233368
-0.8551957 0.015496382 0.58823985
-0.85876185 0.015119042 0.48450777
-0.84098172 0.014663902 0.3818841
-0.84091079 0.014520997 0.29356396
-0.84159952 0.01453547 0.20961356
-0.83394164 0.014262688 0.12732106
-0.034929577 0.0082622059 2.5841751
-0.40761322 0.015009403 2.5935345
-0.5255934 0.01703082 2.5516741
-0.80107677 0.02222945 2.6091056
-0.9912383 0.025155932 2.3955321
-0.93413758 0.022418635 1.7796764
-0.90372324 0.020757049 1.4002818
-0.89914936 0.020190906 1.1534212
-0.15967192 0.012989271 2.6100659
-0.27987668 0.013160526 2.5700788
-0.64666694 0.020257784 2.5285003
-0.96691734 0.027220143 2.6846771
-0.96136761 0.02524698 2.0522981
-0.91421223 0.022906853 1.5660173
-0.89734715 0.021868911 1.263347
-0.8925302 0.021140579 1.0461376
-0.88827115 0.018405179 0.95288384
-0.86696923 0.017518839 0.78159201
-0.84666479 0.016965017 0.63982177
-0.84736884 0.01669096 0.53020442
-0.84903353 0.016580697 0.43141592
-0.83487117 0.016163196 0.33538559
-0.83492512 0.015877834 0.25001755
-0.84125322 0.016000805 0.16848512
-0.8770166 0.019401647 0.86246049
-0.86334628 0.01880479 0.71233368
-0.85513645 0.018481478 0.58823985
-0.85870385 0.018116588 0.48450777
-0.8409254 0.017599387 0.3818841
-0.840855 0.017456235 0.29356396
-0.84154367 0.017473111 0.20961356
-0.8338868 0.017173601 0.12732106
-0.034860015 0.0083678709 2.5791752
-0.40755835 0.016432146 2.5935345
-0.52654827 0.018902333 2.5565691
-0.79204249 0.024744272 2.5804737
-0.99114448 0.028615845 2.3955321
-0.93165952 0.025613209 1.7752873
-0.90364528 0.023911504 1.4002818
-0.90227753 0.023412742 1.1572587
-0.1596256 0.013546551 2.6100659
-0.27982906 0.014137398 2.5700788
-0.64659226 0.022514949 2.5285003
-0.97371572 0.030814374 2.7034481
-0.95909762 0.028537665 2.0477967
-0.91412669 0.02609791 1.5660173
-0.89726537 0.025001103 1.263347
-0.89245099 0.024255963 1.0461376
-0.88820148 0.021505712 0.95288384
-0.86690277 0.020545021 0.78159201
-0.84660035 0.019920325 0.63982177
-0.84730542 0.019648727 0.53020442
-0.84897053 0.019544277 0.43141592
-0.83480966 0.019077342 0.33538559
-0.83486462 0.018792169 0.25001755
-0.84119225 0.018937228 0.16848512
-0.87694353 0.02246289 0.86246049
-0.85923469 0.021716038 0.70939052
-0.85937613 0.021574678 0.59077305
-0.85863537 0.021113914 0.48450777
-0.84085882 0.020534659 0.3818841
-0.8407889 0.020391261 0.29356396
-0.84147751 0.020410541 0.20961356
-0.83382177 0.020084305 0.12732106
-0.034830593 0.0084895045 2.5791752
-0.40749851 0.017854691 2.5935345
-0.52647907 0.020740215 2.5565691
-0.77703333 0.02698792 2.5327537
-0.9910385 0.032075409 2.3955321
-0.93156445 0.028865153 1.7752873
-0.90355629 0.02706567 1.4002818
-0.90219033 0.026562136 1.1572587
-0.15928994 0.014076447 2.6050742
-0.27924573 0.015084527 2.5651073
-0.64650977 0.024771839 2.5285003
-0.96842831 0.034030605 2.6893697
-0.95899218 0.031885363 2.0477967
-0.91663677 0.02937239 1.5702833
-0.89717257 0.02813299 1.263347
-0.88897228 0.027266927 1.0424625
-0.88812095 0.024605982 0.95288384
-0.86682576 0.023570951 0.78159201
-0.84652567 0.022875389 0.63982177
-0.84723169 0.022606257 0.53020442
-0.8488971 0.022507617 0.43141592
-0.83473796 0.021991255 0.33538559
-0.83479387 0.021706274 0.25001755
-0.84112096 0.021873422 0.16848512
-0.88059193 0.025632668 0.86578602
-0.85915363 0.024715193 0.70939052
-0.85929561 0.024574328 0.59077305
-0.85401964 0.023983466 0.48240969
-0.84078205 0.023469679 0.3818841
-0.84071261 0.023326037 0.29356396
-0.8414011 0.023347721 0.20961356
-0.83374655 0.022994762 0.12732106
-0.034800749 0.0086110346 2.5791752
-0.40743369 0.019277018 2.5935345
-0.52742076 0.022621904 2.5614645
-0.77693439 0.029700108 2.5327537
-0.99092048 0.035534587 2.3955321
-0.93145806 0.032116745 1.7752873
-0.90345633 0.030219506 1.4002818
-0.9020921 0.029711206 1.1572587
-0.15895252 0.014604165 2.6000826
-0.27919137 0.016059184 2.5651073
-0.64641935 0.02702843 2.5285003
-0.96657932 0.037344001 2.6846771
-0.95669961 0.035152528 2.0432956
-0.91652864 0.032571871 1.5702833
-0.89706898 0.031264536 1.263347
-0.88887167 0.030369854 1.0424625
-0.88802969 0.027705953 0.95288384
-0.8667382 0.026596593 0.78159201
-0.84644067 0.025830176 0.63982177
-0.85157537 0.025697242 0.53252316
-0.84417951 0.025331536 0.42954287
-0.82986122 0.024761753 0.33397555
-0.83962315 0.024764989 0.25095019
-0.84103948 0.024809349 0.16848512
-0.8804971 0.028706351 0.86578602
-0.85906208 0.027714049 0.70939052
-0.85920459 0.027573681 0.59077305
-0.85393071 0.026964404 0.48240969
-0.84069496 0.026404411 0.3818841
-0.84062606 0.026260529 0.29356396
-0.84131449 0.026284616 0.20961356
-0.83865476 0.026060125 0.1275226
-0.03473014 0.0087158252 2.5741756
-0.40736392 0.020699108 2.5935345
-0.52733856 0.024462806 2.5614645
-0.77682596 0.032411933 2.5327537
-0.9927426 0.039070368 2.4001346
-0.93134028 0.035367943 1.7752873
-0.90334535 0.033372972 1.4002818
-0.89877975 0.032743022 1.1534212
-0.15861337 0.015129699 2.5950909
-0.27860162 0.01700036 2.5601358
-0.64632106 0.02928469 2.5285003
-0.93368447 0.039333321 2.5955145
-0.95874614 0.038579561 2.0477967
-0.91901535 0.035872892 1.5745492
-0.89695436 0.034395702 1.263347
-0.88876027 0.033472408 1.0424625
-0.88792759 0.030805588 0.95288384
-0.86664003 0.029621912 0.78159201
-0.84634537 0.028784648 0.63982177
-0.8559078 0.028818825 0.53484195
-0.84408593 0.028278118 0.42954287
-0.82976973 0.027658358 0.33397555
-0.8395316 0.027695669 0.25095019
-0.84094781 0.027744973 0.16848512
-0.88039154 0.031779684 0.86578602
-0.85896009 0.030712565 0.70939052
-0.85910308 0.030572696 0.59077305
-0.84929568 0.029785829 0.48031163
-0.84059769 0.029338824 0.3818841
-0.84052932 0.029194703 0.29356396
-0.84121764 0.029221192 0.20961356
-0.83855867 0.028987417 0.1275226
-0.034699503 0.0088370023 2.5741756
-0.40651336 0.022078251 2.5885952
-0.52623302 0.026252253 2.5565691
-0.77670807 0.035123363 2.5327537
-0.99650383 0.042703155 2.4093397
-0.93121111 0.038618714 1.7752873
-0.90322334 0.036526032 1.4002818
-0.89866 0.035880148 1.1534212
-0.15855958 0.015683271 2.5950909
-0.27854058 0.017972758 2.5601358
-0.6462149 0.031540591 2.5285003
-0.90251189 0.041172352 2.5110447
-0.95860571 0.041925974 2.0477967
-0.91888458 0.039080635 1.5745492
-0.89682883 0.037526444 1.263347
-0.88863802 0.036574557 1.0424625
-0.88425094 0.033768568 0.94937932
-0.86653137 0.032646868 0.78159201
-0.84623969 0.031738773 0.63982177
-0.85580194 0.031806327 0.53484195
-0.8439821 0.031224357 0.42954287
-0.8296681 0.030554628 0.33397555
-0.8394298 0.030626012 0.25095019
-0.83586913 0.030498644 0.16803804
-0.88027519 0.034852631 0.86578602
-0.86288655 0.033869393 0.71233368
-0.85899115 0.03357134 0.59077305
-0.8446514 0.032575231 0.47821358
-0.84049016 0.032272879 0.3818841
-0.84042227 0.03212852 0.29356396
-0.84111053 0.032157414 0.20961356
-0.8384524 0.031914357 0.1275226
-0.034668446 0.0089580724 2.5741756
-0.40643382 0.023497112 2.5885952
-0.52613819 0.028088989 2.5565691
-0.77658075 0.037834369 2.5327537
-0.99634868 0.046181343 2.4093397
-0.93107069 0.041869007 1.7752873
-0.90590167 0.039802376 1.4044147
-0.89852929 0.039016839 1.1534212
-0.15850388 0.016236652 2.5950909
-0.27847615 0.018944938 2.5601358
-0.64484566 0.033730108 2.5236611
-0.90408623 0.044407353 2.5157373
-0.95845348 0.045271877 2.0477967
-0.91874254 0.042287901 1.5745492
-0.89669234 0.040656734 1.263347
-0.88850492 0.03967626 1.0424625
-0.88412768 0.036854971 0.94937932
-0.86641216 0.035671428 0.78159201
-0.84612375 0.034692504 0.63982177
-0.86011183 0.034973532 0.53716075
-0.84386796 0.03417021 0.42954287
-0.82955641 0.033450522 0.33397555
-0.84422612 0.033752263 0.25188279
-0.83575761 0.033416186 0.16803804
-0.88014823 0.037925154 0.86578602
-0.86276305 0.036881223 0.71233368
-0.85886872 0.036569573 0.59077305
-0.83999807 0.035332572 0.47611555
-0.84037238 0.035206541 0.3818841
-0.84030497 0.035061944 0.29356396
-0.84099317 0.035093237 0.20961356
-0.83833587 0.034840908 0.1275226
-0.034636967 0.0090790335 2.5741756
-0.40557382 0.024867576 2.5836561
-0.52603692 0.029925382 2.5565691
-0.77644396 0.040544908 2.5327537
-0.99618143 0.049658965 2.4093397
-0.93091881 0.045118798 1.7752873
-0.90575719 0.042964321 1.4044147
-0.89838761 0.042153053 1.1534212
-0.15815936 0.016757606 2.5900993
-0.27840832 0.019916885 2.5601358
-0.64472401 0.035980836 2.5236611
-0.90392572 0.047562931 2.5157373
-0.95828962 0.048617229 2.0477967
-0.91598451 0.045365434 1.5702833
-0.89654499 0.043786526 1.263347
-0.88836098 0.042777479 1.0424625
-0.88399369 0.039940931 0.94937932
-0.86628234 0.038695555 0.78159201
-0.84599751 0.037645817 0.63982177
-0.85998452 0.037975669 0.53716075
-0.84374356 0.037115656 0.42954287
-0.82943457 0.036346011 0.33397555
-0.84410316 0.036698956 0.25188279
-0.83066058 0.036116969 0.16759096
-0.88001049 0.040997211 0.86578602
-0.86262912 0.039892606 0.71233368
-0.85873586 0.039567363 0.59077305
-0.83533579 0.038057823 0.4740175
-0.84024435 0.038139772 0.3818841
-0.83532184 0.0377753 0.29239166
-0.84086555 0.038028639 0.20961356
-0.83321828 0.037542142 0.12732106
-0.034605063 0.0091998838 2.5741756
-0.40548453 0.026283143 2.5836561
-0.52491295 0.031699609 2.5516741
-0.77629769 0.043254957 2.5327537
-0.99600202 0.053135987 2.4093397
-0.93075567 0.048368037 1.7752873
-0.90560174 0.046125744 1.4044147
-0.89823502 0.045288756 1.1534212
-0.1580999 0.017309582 2.5900993
-0.27833709 0.020888591 2.5601358
-0.64459443 0.03823112 2.5236611
-0.90375423 0.050717931 2.5157373
-0.96028787 0.052080099 2.0522981
-0.9158206 0.048562542 1.5702833
-0.89337754 0.046758085 1.2593571
-0.88820624 0.045878176 1.0424625
-0.88384885 0.043026399 0.94937932
-0.86614197 0.041719209 0.78159201
-0.84586096 0.040598672 0.63982177
-0.85542196 0.040766355 0.53484195
-0.84360886 0.040060639 0.42954287
-0.82930267 0.039241057 0.33397555
-0.84887677 0.039875742 0.25281543
-0.83052945 0.039016291 0.16759096
-0.87986201 0.044068769 0.86578602
-0.86248457 0.042903502 0.71233368
-0.85859251 0.042564668 0.59077305
-0.83519781 0.040973458 0.4740175
-0.84010607 0.04107254 0.3818841
-0.83518487 0.040690884 0.29239166
-0.84072763 0.040963575 0.20961356
-0.83308214 0.04045039 0.12732106
-0.034572739 0.0093206214 2.5741756
-0.40539032 0.027698388 2.5836561
-0.52479911 0.033531707 2.5516741
-0.776142 0.045964479 2.5327537
-0.99386007 0.056501262 2.4047372
-0.93058115 0.051616687 1.7752873
-0.9054352 0.0492866 1.4044147
-0.89807147 0.048423905 1.1534212
-0.15803851 0.01786135 2.5900993
-0.27826247 0.021860041 2.5601358
-0.64571154 0.040560085 2.5285003
-0.90184909 0.053769372 2.5110447
-0.96010023 0.055431809 2.0522981
-0.91564554 0.051759053 1.5702833
-0.89320886 0.049876269 1.2593571
-0.88465571 0.048791438 1.0387872
-0.88369328 0.046111345 0.94937932
-0.86599112 0.044742353 0.78159201
-0.84571409 0.043551028 0.63982177
-0.8552745 0.043752085 0.53484195
-0.8434639 0.043005142 0.42954287
-0.82916063 0.042135622 0.33397555
-0.84873241 0.042838637 0.25281543
-0.8254146 0.041664064 0.16714388
-0.87970281 0.047139794 0.86578602
-0.86232954 0.045913871 0.71233368
-0.85843867 0.045561455 0.59077305
-0.83504975 0.043888591 0.4740175
-0.83524191 0.043757666 0.38024059
-0.83503771 0.043605976 0.29239166
-0.84057951 0.043898012 0.20961356
-0.83293587 0.043358143 0.12732106
-0.034539994 0.0094412463 2.5741756
-0.40529114 0.029113296 2.5836561
-0.52467889 0.035363391 2.5516741
-0.77597684 0.04867344 2.5327537
-0.99560678 0.060088042 2.4093397
-0.93039531 0.054864705 1.7752873
-0.90525764 0.052446861 1.4044147
-0.89789695 0.051558461 1.1534212
-0.15768866 0.018377664 2.5851076
-0.27818447 0.022831224 2.5601358
-0.64556605 0.042813797 2.5285003
-0.90165591 0.056917083 2.5110447
-0.95990086 0.058782849 2.0522981
-0.91545928 0.054954939 1.5702833
-0.89302933 0.052993845 1.2593571
-0.88448006 0.051879164 1.0387872
-0.88352698 0.049195729 0.94937932
-0.86582965 0.047764953 0.78159201
-0.84555691 0.046502855 0.63982177
-0.85069329 0.046495408 0.53252316
-0.84330863 0.045949116 0.42954287
-0.82900852 0.045029677 0.33397555
-0.84857774 0.045801003 0.25281543
-0.82526416 0.044545043 0.16714388
-0.8758052 0.049997266 0.86246049
-0.86216402 0.048923682 0.71233368
-0.85827446 0.048557688 0.59077305
-0.83489144 0.046803191 0.4740175
-0.83508408 0.04667294 0.38024059
-0.83488047 0.046520535 0.29239166
-0.8404212 0.046831917 0.20961356
-0.83277947 0.046265367 0.12732106
-0.034506828 0.0095617557 2.5741756
-0.40518704 0.030527847 2.5836561
-0.52455223 0.037194643 2.5516741
-0.7758022 0.051381811 2.5327537
-0.99734074 0.063687712 2.4139423
-0.93258846 0.058261603 1.7796764
-0.90506905 0.055606477 1.4044147
-0.89451224 0.054497279 1.1495837
-0.15762356 0.018927988 2.5851076
-0.27810308 0.023802131 2.5601358
-0.64541262 0.045066979 2.5285003
-0.90145177 0.060064103 2.5110447
-0.95968986 0.062133171 2.0522981
-0.91786462 0.058315728 1.5745492
-0.89283895 0.056110777 1.2593571
-0.88429356 0.05496626 1.0387872
-0.88334984 0.052279513 0.94937932
-0.86565769 0.050786972 0.78159201
-0.84538943 0.049454115 0.63982177
-0.84610355 0.049207292 0.53020442
-0.84314311 0.048892535 0.42954287
-0.82884628 0.047923185 0.33397555
-0.84841269 0.048762813 0.25281543
-0.83007538 0.047711279 0.16759096
-0.87562531 0.053054091 0.86246049
-0.86198801 0.051932901 0.71233368
-0.8624028 0.051811993 0.59330624
-0.83925343 0.049987175 0.47611555
-0.83020222 0.049307588 0.37859708
-0.83471298 0.049434528 0.29239166
-0.83530927 0.049472425 0.20892289
-0.83261293 0.049172029 0.12732106
-0.03447324 0.0096821487 2.5741756
-0.40507802 0.031942029 2.5836561
-0.52543455 0.039101433 2.5565691
-0.77561814 0.05408955 2.5327537
-1.00296 0.067563236 2.4277496
-0.93237936 0.061516587 1.7796764
-0.90486944 0.058765423 1.4044147
-0.89431655 0.057619374 1.1495837
-0.15755652 0.019478081 2.5851076
-0.27801833 0.024772746 2.5601358
-0.64525139 0.047319613 2.5285003
-0.90123659 0.063210391 2.5110447
-0.95946711 0.065482728 2.0522981
-0.91765547 0.061519317 1.5745492
-0.88963103 0.059027325 1.255367
-0.88071346 0.057830371 1.0351121
-0.88316196 0.05536266 0.94937932
-0.86547506 0.053808372 0.78159201
-0.84521168 0.052404772 0.63982177
-0.84150523 0.051887695 0.52788562
-0.84296733 0.051835354 0.42954287
-0.8286739 0.050816108 0.33397555
-0.84333414 0.051424999 0.25188279
-0.82990378 0.050608493 0.16759096
-0.87543482 0.05611027 0.86246049
-0.86180145 0.054941483 0.71233368
-0.86221665 0.054822024 0.59330624
-0.84360343 0.053202178 0.47821358
-0.83002502 0.052205231 0.37859708
-0.83453536 0.052347921 0.29239166
-0.83513147 0.052387897 0.20892289
-0.82744998 0.051766135 0.12711954
-0.034439232 0.0098024243 2.5741756
-0.40496406 0.033355821 2.5836561
-0.52529484 0.040935304 2.5565691
-0.77542454 0.056796633 2.5327537
-1.002718 0.071063809 2.4277496
-0.93215895 0.064770825 1.7796764
-0.90465879 0.061923645 1.4044147
-0.89410996 0.060740773 1.1495837
-0.15748757 0.020027939 2.5851076
-0.27793014 0.025743062 2.5601358
-0.64508229 0.049571671 2.5285003
-0.90101045 0.066355906 2.5110447
-0.95923269 0.068831496 2.0522981
-0.91743511 0.064722158 1.5745492
-0.88941956 0.062132359 1.255367
-0.88050628 0.060904283 1.0351121
-0.88296336 0.058445137 0.94937932
-0.865282 0.056829117 0.78159201
-0.84502363 0.055354796 0.63982177
-0.84131896 0.054824781 0.52788562
-0.84278119 0.054777544 0.42954287
-0.82849151 0.053708408 0.33397555
-0.84314948 0.054368466 0.25188279
-0.82972205 0.053505085 0.16759096
-0.87523365 0.059165765 0.86246049
-0.86160445 0.057949398 0.71233368
-0.85771888 0.057542689 0.59077305
-0.84341258 0.056146584 0.47821358
-0.82983774 0.055102244 0.37859708
-0.83434755 0.055260673 0.29239166
-0.83494353 0.055302732 0.20892289
-0.82726425 0.054654155 0.12711954
-0.034404807 0.0099225799 2.5741756
-0.40561926 0.034836248 2.5885952
-0.52616358 0.042851754 2.5614645
-0.77522159 0.059503023 2.5327537
-0.99467081 0.073983021 2.4093397
-0.93192714 0.06802427 1.7796764
-0.90443712 0.065081112 1.4044147
-0.89389253 0.06386143 1.1495837
-0.1574167 0.02057755 2.5851076
-0.27783859 0.02671306 2.5601358
-0.64490533 0.051823132 2.5285003
-0.90077335 0.069500618 2.5110447
-0.95681578 0.072015814 2.0477967
-0.91720361 0.067924209 1.5745492
-0.88919723 0.065236636 1.255367
-0.88028824 0.06397745 1.0351121
-0.88275397 0.061526895 0.94937932
-0.86507839 0.059849169 0.78159201
-0.84482527 0.058304142 0.63982177
-0.84112245 0.057761196 0.52788562
-0.84258485 0.057719067 0.42954287
-0.82829899 0.056600053 0.33397555
-0.84295458 0.057311282 0.25188279
-0.82953024 0.056401033 0.16759096
-0.87502176 0.06222054 0.86246049
-0.86139691 0.060956605 0.71233368
-0.85751283 0.060536336 0.59077305
-0.84321141 0.059090298 0.47821358
-0.83435106 0.058327988 0.38024059
-0.83414954 0.058172751 0.29239166
-0.83968538 0.058561459 0.20961356
-0.82706839 0.057541519 0.12711954
-0.03436996 0.010042614 2.5741756
-0.4054952 0.036251914 2.5885952
-0.52601081 0.044688147 2.5614645
-0.77500916 0.06220869 2.5327537
-0.990511 0.077150784 2.4001346
-0.93168408 0.071276896 1.7796764
-0.90420443 0.068237796 1.4044147
-0.89366412 0.066981308 1.1495837
-0.15734392 0.021126911 2.5851076
-0.27774364 0.027682735 2.5601358
-0.64472049 0.054073948 2.5285003
-0.90052527 0.07264448 2.5110447
-0.95438844 0.075184114 2.0432956
-0.91436076 0.070923537 1.5702833
-0.88896406 0.068340115 1.255367
-0.87667918 0.066792108 1.0314369
-0.88253379 0.064607903 0.94937932
-0.86486417 0.062868491 0.78159201
-0.84461653 0.06125278 0.63982177
-0.84533405 0.061015945 0.53020442
-0.84237826 0.060659882 0.42954287
-0.82809639 0.059491012 0.33397555
-0.84274942 0.060253389 0.25188279
-0.8293283 0.059296288 0.16759096
-0.87479925 0.065274559 0.86246049
-0.86117887 0.063963071 0.71233368
-0.8529973 0.063210525 0.58823985
-0.84300005 0.062033296 0.47821358
-0.83414233 0.061240058 0.38024059
-0.8339414 0.061084121 0.29239166
-0.83947587 0.061492153 0.20961356
-0.82686251 0.060428172 0.12711954
-0.034334697 0.010162527 2.5741756
-0.40613982 0.037739582 2.5935345
-0.52585161 0.046523996 2.5614645
-0.77478731 0.064913593 2.5327537
-0.98439413 0.080131687 2.386327
-0.93142956 0.074528642 1.7796764
