# .PCD v0.7 - Point Cloud Data file format
VERSION 0.7
FIELDS x y z
SIZE 4 4 4
TYPE F F F
COUNT 1 1 1
WIDTH 1489
HEIGHT 1
VIEWPOINT 0 0 0 1 0 0 0
POINTS 1489
DATA ascii
-0.84497148 1.4039525 1.8546739
-0.83370483 1.3759786 1.6608021
-0.80503547 1.3271099 1.3339603
-0.77773917 1.2816148 1.0674905
-0.76646304 1.2620537 0.85947394
-0.75866807 1.2487366 0.67865622
-0.74513072 1.2259816 0.51163971
-0.73519272 1.2086891 0.36006674
-0.73228055 1.2039063 0.21945213
-0.81451207 1.3485552 1.484329
-0.79380786 1.3132528 1.2008984
-0.77495062 1.281559 0.96568352
-0.75742328 1.2511072 0.76354873
-0.75373816 1.2445396 0.59554029
-0.7405718 1.2223277 0.43541437
-0.7312637 1.2069693 0.28904179
-0.7249347 1.1960618 0.15009406
-0.020570749 0.08182478 8.1639624
-0.42823184 0.73964131 5.4336076
-0.55608708 0.95042866 5.3174777
-1.2727727 2.1518528 8.0396233
-0.58580983 0.98483759 2.7591317
-0.70336068 1.1787968 2.5828779
-0.86262816 1.4423585 2.5409758
-0.85721058 1.431617 2.0744221
-0.21972866 0.42553109 8.1208572
-0.42681426 0.75598133 8.053648
-0.69689745 1.1879573 5.3402061
-1.0944672 1.8518701 5.9039149
-0.62425756 1.0516012 2.5924437
-0.78123492 1.3124704 2.5685117
-0.86391371 1.449108 2.3087335
-0.8452794 1.4156257 1.8656992
-0.83257127 1.3849936 1.6678112
-0.80441219 1.3365819 1.3402373
-0.77757418 1.2914863 1.0729734
-0.76662534 1.2723101 0.86411154
-0.75909096 1.2593181 0.68240231
-0.7433238 1.2326832 0.51304972
-0.73604524 1.2196596 0.36193198
-0.73064673 1.2107189 0.21989921
-0.81363797 1.3577957 1.49098
-0.79337633 1.3229486 1.2067847
-0.77269006 1.2879529 0.96821666
-0.75772518 1.2615249 0.76774484
-0.7518214 1.2512107 0.59718376
-0.74130881 1.2332373 0.43775901
-0.73214853 1.218003 0.29042313
-0.72590446 1.207148 0.15049712
-0.020285001 0.081896082 8.1639624
-0.42526066 0.74045771 5.428669
-0.55174404 0.95060247 5.3076868
-1.312086 2.2361062 8.3354864
-0.58534676 0.99192441 2.772939
-0.69924158 1.1812447 2.5828779
-0.8633315 1.4550415 2.5575075
-0.85711884 1.4428678 2.0859349
-0.21824194 0.42629549 8.1208572
-0.42339212 0.75607091 8.0387335
-0.69527489 1.1947285 5.3595638
-1.0897415 1.8586564 5.9133
-0.620583 1.0537739 2.5924437
-0.78062683 1.3219267 2.5813096
-0.86345178 1.4598957 2.3207035
-0.8455162 1.4273182 1.8767248
-0.8313849 1.3940172 1.6748203
-0.80572784 1.3494076 1.3496526
-0.77734977 1.3013724 1.0784563
-0.7667253 1.2825829 0.86874914
-0.75706989 1.265939 0.68427533
-0.7414791 1.2393869 0.51445979
-0.73683006 1.2306507 0.36379722
-0.73153234 1.2218074 0.22079337
-0.81461728 1.3702562 1.5009565
-0.79288691 1.3326575 1.212671
-0.77259898 1.298051 0.97328311
-0.75796354 1.2719599 0.77194095
-0.75228518 1.2619398 0.60047078
-0.73948908 1.239992 0.43893132
-0.73042887 1.2248044 0.29111382
-0.72424597 1.2139649 0.15069866
-0.020006727 0.082009338 8.1689625
-0.4226734 0.74193764 5.428669
-0.54740679 0.95075762 5.2978969
-1.3170371 2.2626045 8.4166098
-0.58385444 0.99733377 2.7821441
-0.69511408 1.1836784 2.5828779
-0.85967457 1.4604713 2.5616403
-0.85858613 1.4568967 2.1012847
-0.21688269 0.4273124 8.1258488
-0.42023316 0.75661194 8.0287905
-0.69235682 1.1993256 5.3692427
-0.61690086 1.0559336 2.5924437
-0.7799623 1.3313947 2.5941074
-0.86292493 1.4706976 2.3326735
-0.84568149 1.4390297 1.8877504
-0.83196151 1.4061188 1.685334
-0.80696356 1.3622583 1.3590679
-0.77706569 1.3112725 1.0839393
-0.76676279 1.2928716 0.87338674
-0.75737727 1.276548 0.68802142
-0.74204504 1.2502179 0.51727986
-0.73754716 1.2416619 0.36566246
-0.72980624 1.228635 0.22124045
-0.81551939 1.3827397 1.510933
-0.79233927 1.3423787 1.2185574
-0.77025503 1.3044521 0.97581625
-0.75813818 1.2824116 0.77613705
-0.75027937 1.2686226 0.60211432
-0.7376312 1.2467492 0.44010365
-0.73119211 1.2358706 0.29249516
-0.7225486 1.2207849 0.15090019
-0.01972034 0.082078673 8.1689625
-0.41969895 0.74273199 5.4237294
-0.54408473 0.95266265 5.2978969
-1.3180872 2.2827005 8.4738731
-0.58135056 1.0010552 2.7867467
-0.69097805 1.1860976 2.5828779
-0.85599023 1.4658935 2.5657735
-0.85834813 1.4681861 2.1127973
-0.21538977 0.42806688 8.1258488
-0.41758955 0.75807416 8.0287905
-0.68754166 1.2006441 5.3644028
-1.1698692 2.0276546 6.4201188
-0.61321121 1.0580806 2.5924437
-0.77924109 1.340874 2.6069052
-0.86233324 1.4815139 2.3446436
-0.84406793 1.4478304 1.8951007
-0.83065861 1.4151655 1.6923431
-0.8061474 1.3717785 1.3653449
-0.77672195 1.3211862 1.0894222
-0.76449144 1.2993584 0.87570554
-0.75761974 1.2871745 0.69176745
-0.74011052 1.2569343 0.51868987
-0.73819625 1.2526931 0.36752769
-0.72804135 1.2354654 0.22168753
-0.81634426 1.3952463 1.5209095
-0.79173338 1.3521127 1.2244437
-0.77005464 1.3145721 0.98088264
-0.75824893 1.2928802 0.78033316
-0.75062567 1.2793797 0.60540134
-0.73819554 1.2577002 0.44244829
-0.72938043 1.2426863 0.29318586
-0.72334218 1.2319161 0.15130325
-0.019426292 0.082104012 8.1639624
-0.41710377 0.74419242 5.4237294
-0.54075599 0.95455605 5.2978969
-1.3256898 2.3144896 8.5740852
-0.58175284 1.0098501 2.8051567
-0.68683356 1.1885023 2.5828779
-0.86779302 1.498093 2.6153688
-0.85804194 1.4794917 2.1243098
-0.21389423 0.42881614 8.1258488
-0.41468549 0.75905931 8.023819
-0.68396711 1.2041298 5.3692427
-1.1833544 2.0676727 6.5327454
-0.60951412 1.0602146 2.5924437
-0.77976555 1.3526241 2.6239688
-0.86318296 1.494953 2.3606038
-0.84410024 1.4595723 1.906126
-0.83109689 1.4273021 1.7028567
-0.807235 1.3846722 1.3747603
-0.77631837 1.3311136 1.0949051
-0.76441711 1.3096707 0.88034314
-0.75779706 1.2978182 0.69551355
-0.74055749 1.2677944 0.52150995
-0.73877728 1.2637439 0.36939296
-0.7262376 1.2422985 0.22213461
-0.81709152 1.4077752 1.5308859
-0.79309928 1.3653535 1.2332731
-0.76979285 1.3247064 0.98594898
-0.75829595 1.3033649 0.78452927
-0.74853057 1.2860733 0.60704482
-0.73624653 1.2644699 0.44362062
-0.72752988 1.2495042 0.29387653
-0.72155213 1.2387505 0.15150478
-0.019139577 0.082171321 8.1639624
-0.41488081 0.74632311 5.428669
-0.53791922 0.95732558 5.3027916
-1.3338233 2.3476565 8.6790686
-0.58306998 1.0203564 2.8281696
-0.68268073 1.1908926 2.5828779
-0.87377369 1.5206327 2.6484323
-0.85926527 1.4935911 2.1396599
-0.21239607 0.42956012 8.1258488
-0.41203335 0.76050222 8.023819
-0.67605865 1.1999389 5.3402061
-1.1863521 2.0898001 6.5890589
-0.60580957 1.0623357 2.5924437
-0.78021741 1.3643939 2.6410327
-0.86245191 1.5058016 2.3725739
-0.84237397 1.4683912 1.9134763
-0.83146065 1.439459 1.7133703
-0.80629367 1.3942205 1.3810372
-0.77376109 1.3374348 1.0976466
-0.76428002 1.3199983 0.88498074
-0.75558579 1.3044671 0.69738662
-0.74093771 1.2786731 0.52433002
-0.73929006 1.2748138 0.3712582
-0.72439504 1.2491339 0.22258168
-0.81776136 1.4203262 1.5408626
-0.79236436 1.3751181 1.2391595
-0.76946968 1.334855 0.99101532
-0.75601035 1.3099347 0.78662729
-0.74875891 1.2968574 0.61033183
-0.73669028 1.27545 0.44596523
-0.72811747 1.2606125 0.2952579
-0.72222269 1.2499131 0.15190785
-0.01884551 0.082194582 8.1589622
-0.41227311 0.74776679 5.428669
-0.53457427 0.95919746 5.3027916
-1.3402759 2.3783076 8.7745094
-0.67851955 1.1932683 2.5828779
-0.87960738 1.5432321 2.6814959
-0.85881209 1.504933 2.1511722
-0.21076883 0.43003944 8.1208572
-0.4093762 0.76193583 8.023819
-0.67002684 1.1989994 5.3256874
-1.1909026 2.1149805 6.654757
-0.60209763 1.0644439 2.5924437
-0.77930987 1.3739147 2.6538305
-0.86165553 1.5166627 2.3845439
-0.84059638 1.4772159 1.9208267
-0.83174962 1.4516357 1.7238841
-0.80529547 1.403779 1.3873141
-0.77325028 1.3473809 1.1031295
-0.76408005 1.3303406 0.88961834
-0.75564688 1.315136 0.70113266
-0.74125087 1.2895695 0.52715003
-0.73973447 1.2859025 0.37312344
-0.7225135 1.2559716 0.22302876
-0.8165018 1.4296567 1.5475135
-0.79157084 1.384894 1.2450458
-0.76908499 1.3450173 0.99608171
-0.75594282 1.3204433 0.7908234
-0.7489211 1.3076587 0.61361885
-0.73465002 1.2822313 0.44713756
-0.72617441 1.2674433 0.29594857
-0.7203396 1.256761 0.15210937
-0.018558482 0.082259864 8.1589622
-0.41003293 0.74988317 5.4336076
-0.53171515 0.96194881 5.3076868
-1.3465304 2.4090316 8.8699484
-1.0363812 1.8435715 5.0419836
-0.67435014 1.1956296 2.5828779
-0.87421513 1.5462931 2.6814959
-0.85829014 1.5162901 2.1626849
-0.20926642 0.43077251 8.1208572
-0.40671405 0.7633602 8.023819
-0.66279149 1.1958334 5.3014908
-1.1902436 2.1311781 6.6922994
-0.59837836 1.0665393 2.5924437
-0.7796241 1.3857189 2.6708941
-0.86227298 1.5301621 2.4005039
-0.84043378 1.4889983 1.9318523
-0.83196354 1.4638318 1.7343976
-0.80424035 1.4133476 1.393591
-0.77267951 1.3573397 1.1086124
-0.76381719 1.3406978 0.89425594
-0.75564259 1.325821 0.70487875
-0.73912096 1.2963164 0.5285601
-0.74011052 1.2970099 0.37498868
-0.72059309 1.2628114 0.22347584
-0.81702727 1.4422444 1.5574901
-0.79071879 1.3946813 1.250932
-0.76863861 1.3551931 1.001148
-0.75357008 1.3270206 0.79292148
-0.74668443 1.3143706 0.61526239
-0.73497295 1.2932397 0.4494822
-0.72663933 1.278581 0.29732993
-0.72088671 1.2679539 0.15251243
-0.018271228 0.08232414 8.1589622
-0.40741286 0.75130987 5.4336076
-0.52786481 0.96290606 5.3027916
-1.3525867 2.4398284 8.9653883
-1.0461122 1.8761866 5.1202264
-0.67017251 1.1979762 2.5828779
-0.86881226 1.5493352 2.6814959
-0.85769933 1.5276616 2.1741974
-0.20776147 0.43150038 8.1208572
-0.40429571 0.76524669 8.0287905
-0.65619171 1.1937333 5.2821326
-1.1911581 2.1504157 6.7392273
-0.59465176 1.0686214 2.5924437
-0.77859455 1.3952643 2.683692
-0.86280668 1.5436839 2.4164641
-0.84019899 1.5007974 1.9428777
-0.83035117 1.4729402 1.7414067
-0.80312818 1.4229256 1.3998679
-0.77410442 1.3709521 1.1168369
-0.76349133 1.3510692 0.89889359
-0.7555728 1.336522 0.70862478
-0.73931432 1.3072395 0.53138018
-0.74041784 1.3081355 0.37685391
-0.72108668 1.2739868 0.22437
-0.81564581 1.4515979 1.5641412
-0.79178905 1.4080024 1.2597615
-0.76813054 1.3653822 1.0062144
-0.75338793 1.3375518 0.79711759
-0.74672812 1.3251972 0.61854941
-0.73522788 1.3042659 0.45182684
-0.7270354 1.2897376 0.2987113
-0.71891034 1.2748141 0.15271397
-0.017983751 0.082387418 8.1589622
-0.40478781 0.75272739 5.4336076
-0.52450043 0.96474278 5.3027916
-1.3577251 2.4693882 9.0560551
-1.0461742 1.8917946 5.1524444
-0.66598672 1.2003082 2.5828779
-0.84288317 1.5154691 2.6195016
-0.85859883 1.5418476 2.1895473
-0.20625399 0.43222296 8.1208572
-0.40162206 0.7666533 8.0287905
-0.65262234 1.1971203 5.286972
-1.190291 2.1666605 6.7767692
-0.59091794 1.0706906 2.5924437
-0.77498227 1.4002556 2.687958
-0.86325634 1.5572281 2.4324241
-0.83989215 1.5126129 1.9539032
-0.83042574 1.4851681 1.7519203
-0.80386019 1.4359095 1.4092834
-0.77340037 1.3809423 1.1223198
-0.76310229 1.3614546 0.90353119
-0.75317025 1.343195 0.7104978
-0.73709363 1.3139962 0.53279018
-0.73825186 1.3149955 0.37778652
-0.71907312 1.2808386 0.22481708
-0.81420898 1.4609592 1.5707921
-0.79080713 1.417818 1.2656479
-0.76756066 1.375584 1.0112808
-0.75314128 1.3480977 0.80131364
-0.74670535 1.3360399 0.62183642
-0.73304272 1.3110669 0.45299914
-0.7249456 1.29659 0.29940197
-0.71933371 1.2860363 0.15311703
-0.017696057 0.082449697 8.1589622
-0.40215784 0.75413585 5.4336076
-0.52064663 0.96567148 5.2978969
-1.3569571 2.4885287 9.1085472
-1.0489582 1.9125649 5.1984696
-0.66179281 1.2026256 2.5828779
-0.81720155 1.4814414 2.5575075
-0.85940963 1.5560585 2.2048974
-0.204744 0.4329403 8.1208572
-0.39918894 0.76852369 8.033761
-0.64784193 1.1982852 5.2821326
-1.1934527 2.1905026 6.8377752
-0.58717698 1.0727469 2.5924437
-0.77008975 1.4029522 2.687958
-0.86362207 1.5707942 2.4483843
-0.83951283 1.5244443 1.9649286
-0.83042496 1.4974141 1.7624339
-0.8026219 1.4455127 1.4155602
-0.77466643 1.3945997 1.1305442
-0.76049757 1.3679817 0.90584999
-0.75298345 1.3539189 0.71424389
-0.73716694 1.3249449 0.53561026
-0.73604691 1.3218561 0.37871915
-0.71944314 1.2920426 0.22571123
-0.81452274 1.4735959 1.5807685
-0.79172271 1.4311804 1.2744772
-0.76692885 1.3857985 1.0163471
-0.75283027 1.3586582 0.80550975
-0.74661583 1.3468986 0.62512344
-0.73317617 1.3221191 0.45534378
-0.72521836 1.3077741 0.30078334
-0.7196874 1.2972767 0.15352009
-0.017414514 0.082554132 8.1639624
-0.39952296 0.75553501 5.4336076
-0.51631284 0.96568692 5.288106
-1.3681414 2.5300157 9.2421637
-1.0534766 1.9368098 5.2536998
-0.65759081 1.2049284 2.5828779
-0.80662334 1.4744098 2.5409758
-0.86167127 1.5731047 2.2240849
-0.2032315 0.43365234 8.1208572
-0.39650387 0.76991242 8.033761
-0.64306146 1.1994315 5.2772937
-1.1874397 2.1976917 6.8471603
-0.5834288 1.0747899 2.5924437
-0.76643461 1.4079224 2.6922238
-0.86390334 1.5843816 2.4643445
-0.84068614 1.5392672 1.9796295
-0.82863015 1.5065534 1.769443
-0.8032037 1.458534 1.4249755
-0.77584648 1.4082828 1.1387686
-0.7599954 1.3783865 0.91048759
-0.75273091 1.3646578 0.71798992
-0.73717266 1.3359102 0.53843033
-0.7361778 1.3330176 0.38058439
-0.71974373 1.303265 0.2266054
-0.81475836 1.4862525 1.5907451
-0.79061043 1.4410226 1.2803636
-0.76623505 1.3960252 1.0214134
-0.75245458 1.3692328 0.80970585
-0.74645954 1.3577726 0.62841046
-0.73089904 1.3289293 0.45651609
-0.72542185 1.3189758 0.3021647
-0.71756315 1.3041582 0.15372162
-0.017126238 0.082614414 8.1639624
-0.39688322 0.75692499 5.4336076
-0.5119853 0.965684 5.2783155
-1.3642392 2.5439849 9.2755671
-1.0476366 1.9421947 5.2583022
-0.65338081 1.2072165 2.5828779
-0.80012989 1.4747429 2.5368426
-0.86229444 1.5873692 2.2394347
-0.20171654 0.4343591 8.1208572
-0.39405611 0.77176666 8.0387335
-0.63887078 1.201669 5.2772937
-1.193615 2.2276824 6.9269376
-0.57967353 1.0768199 2.5924437
-0.76151538 1.4105892 2.6922238
-0.86410028 1.5979899 2.4803045
-0.84015149 1.5511353 1.9906548
-0.82848936 1.5188291 1.7799567
-0.8018387 1.4681611 1.4312525
-0.7749356 1.4183213 1.1442515
-0.75942987 1.3888043 0.91512519
-0.75241244 1.3754112 0.72173601
-0.73711079 1.3468914 0.54125035
-0.73387992 1.3398875 0.38151699
-0.71997464 1.3145049 0.22749956
-0.8149153 1.4989285 1.6007215
-0.78943908 1.4508747 1.2862499
-0.76547921 1.4062638 1.0264798
-0.75201416 1.3798213 0.81390196
-0.74623644 1.3686619 0.63169748
-0.73091078 1.3400068 0.45886073
-0.72555584 1.3301947 0.30354607
-0.71779251 1.3154261 0.15412468
-0.016837757 0.082673691 8.1639624
-0.39388049 0.75761628 5.428669
-0.50766408 0.96566248 5.2685251
-1.3637601 2.5645471 9.3328304
-1.0463792 1.9561763 5.2859173
-0.64803028 1.2073793 2.5784888
-0.79364407 1.4750489 2.5327098
-0.86282855 1.601657 2.2547848
-0.20031923 0.43532312 8.1258488
-0.39135975 0.77313751 8.0387335
-0.63291413 1.2005558 5.2627749
-1.2004049 2.2592666 7.0114074
-0.57591122 1.0788368 2.5924437
-0.75535613 1.4109395 2.687958
-0.86421257 1.6116188 2.4962647
-0.84114832 1.5660051 2.0053556
-0.82657605 1.5279853 1.7869658
-0.80227005 1.4812188 1.4406679
-0.77595603 1.432047 1.152476
-0.7588008 1.399235 0.91976279
-0.74981743 1.3821042 0.72360903
-0.73469305 1.3536724 0.54266042
-0.73154306 1.3467577 0.38244963
-0.72013575 1.3257622 0.22839372
-0.81499368 1.5116237 1.6106981
-0.78820854 1.460736 1.2921362
-0.76466107 1.4165142 1.0315461
-0.75150895 1.3904232 0.81809807
-0.74594635 1.3795661 0.63498449
-0.72854137 1.3468252 0.46003303
-0.72326428 1.3370749 0.30423674
-0.71557415 1.3223175 0.15432622
-0.016549069 0.082731962 8.1639624
-0.3912335 0.75898659 5.428669
-0.50287879 0.96471977 5.2538395
-1.3624579 2.5838163 9.3853226
-1.0459521 1.9718983 5.3181348
-0.64381182 1.2096341 2.5784888
-0.78981483 1.4802929 2.5368426
-0.86025292 1.6103135 2.26246
-0.19879846 0.43601969 8.1258488
-0.38889748 0.77497548 8.043705
-0.63046604 1.2060999 5.2772937
-1.20538 2.2878714 7.0864916
-0.57316017 1.0827646 2.596945
-0.74553525 1.4043531 2.6708941
-0.86282563 1.6226072 2.5082345
-0.84045792 1.5779084 2.016381
-0.82629466 1.5402893 1.7974794
-0.80261981 1.4942971 1.4500831
-0.77491081 1.4421136 1.1579589
-0.75810802 1.4096781 0.92440039
-0.74938124 1.3928783 0.72735512
-0.73451036 1.3646768 0.54548049
-0.7291671 1.3536277 0.38338223
-0.71786535 1.3326522 0.2288408
-0.81675369 1.5276304 1.6240001
-0.78691864 1.4706062 1.2980225
-0.76378077 1.4267758 1.0366125
-0.75093895 1.4010385 0.82229424
-0.7433576 1.3863232 0.63662797
-0.72613323 1.3536434 0.46120536
-0.72327435 1.3483192 0.30561811
-0.71567875 1.3336114 0.15472928
-0.016260181 0.082789227 8.1639624
-0.38858178 0.76034766 5.428669
-0.49950823 0.96646923 5.2538395
-1.3617291 2.6044307 9.4425869
-1.0326972 1.9634336 5.2859173
-0.63958544 1.211874 2.5784888
-0.78464288 1.4830409 2.5368426
-0.85762721 1.6189715 2.2701349
-0.19727527 0.43671098 8.1258488
-0.38642713 0.77680564 8.0486765
-0.63087827 1.2172217 5.316009
-1.2021803 2.3012426 7.1146483
-0.56937712 1.0847588 2.596945
-0.72726649 1.3815604 2.6239688
-0.85996711 1.6309401 2.5162146
-0.83969438 1.5898257 2.0274065
-0.82593745 1.5526098 1.8079931
-0.8028881 1.5073961 1.4594986
-0.77380478 1.4521904 1.1634418
-0.75943607 1.424042 0.93135673
-0.7488789 1.4036661 0.73110116
-0.73425978 1.3756965 0.54830056
-0.72906661 1.3648304 0.38524747
-0.71790195 1.343935 0.22973496
-0.81666291 1.5403688 1.6339766
-0.78746402 1.4840559 1.3068521
-0.76485914 1.4408561 1.0442121
-0.7503038 1.4116664 0.82649034
-0.74294776 1.3972484 0.63991499
-0.72596908 1.3647524 0.46355
-0.72088903 1.3552077 0.30630878
-0.71336615 1.3405118 0.1549308
-0.015971093 0.082845487 8.1639624
-0.38592529 0.76169938 5.428669
-0.49891645 0.97364438 5.2832108
-1.3643078 2.6316974 9.5237103
-1.0204172 1.9566326 5.2583022
-0.63535136 1.2140992 2.5784888
-0.78076851 1.4882628 2.5409758
-0.85495162 1.6276305 2.2778101
-0.19574966 0.43739694 8.1258488
-0.38394871 0.77862793 8.053648
-0.62719983 1.2205344 5.3208485
-1.2123933 2.3406689 7.2225819
-0.56659198 1.0886707 2.6014462
-0.71037281 1.3609699 2.5813096
-0.85706091 1.6392727 2.5241947
-0.8404308 1.6047603 2.0421071
-0.82550424 1.5649464 1.8185068
-0.8030746 1.520515 1.468914
-0.77459115 1.465974 1.1716661
-0.7586022 1.4345163 0.93599433
-0.74831039 1.4144673 0.73484725
-0.73394114 1.386731 0.55112064
-0.72659737 1.3717079 0.3861801
-0.71786839 1.3552343 0.2306291
-0.81823045 1.5564299 1.6472787
-0.78604299 1.4939498 1.3127384
-0.76384062 1.4511464 1.0492785
-0.74960363 1.422307 0.83068645
-0.74026829 1.4040103 0.64155853
-0.72346848 1.3715774 0.46472231
-0.72077477 1.3664759 0.30769014
-0.71334571 1.3518307 0.15533386
-0.015681811 0.082900725 8.1639624
-0.3836126 0.76373631 5.4336076
-0.49689779 0.97810376 5.2978969
-1.35716 2.6404266 9.5380259
-1.0135812 1.9601827 5.2583022
-0.63221246 1.2184356 2.5828779
-0.77556872 1.4909791 2.5409758
-0.85370642 1.6391333 2.2893224
-0.19422166 0.43807757 8.1258488
-0.38169611 0.78092146 8.06359
-0.63377422 1.2439977 5.4127975
-1.2215574 2.3786592 7.3258228
-0.56079215 1.0867726 2.5924437
-0.69842619 1.3495436 2.5557141
-0.8541069 1.6476049 2.5321748
-0.8395108 1.6167104 2.0531328
-0.82499486 1.5772988 1.8290204
-0.8031792 1.5336534 1.4783293
-0.77335012 1.4760766 1.1771491
-0.75770438 1.4450018 0.94063193
-0.74767542 1.4252814 0.73859328
-0.7335543 1.3977798 0.55394071
-0.72408897 1.3785846 0.38711271
-0.71544909 1.3621405 0.23107618
-0.81796986 1.5692095 1.6572551
-0.78643191 1.5074357 1.321568
-0.76475406 1.4652687 1.056878
-0.74883825 1.4329599 0.8348825
-0.7397384 1.4149555 0.64484555
-0.72318172 1.3827087 0.46706694
-0.72059059 1.3777599 0.30907148
-0.71093875 1.3587391 0.1555354
-0.015392337 0.082954966 8.1639624
-0.38094434 0.76507068 5.4336076
-0.49668527 0.9861986 5.3321629
-1.3533564 2.6557879 9.5762014
-1.0031679 1.9567544 5.239892
-0.6279555 1.2206351 2.5828779
-0.77035952 1.4936773 2.5409758
-0.8523913 1.6506473 2.3008351
-0.1926913 0.43875286 8.1258488
-0.37873572 0.78176934 8.0586195
-0.61696404 1.2215172 5.3063297
-1.2367339 2.4290447 7.4666061
-0.56393468 1.1022903 2.6239522
-0.69252062 1.3496529 2.5514481
-0.84972787 1.6532563 2.5361648
-0.84006917 1.6316876 2.0678334
-0.82440931 1.5896667 1.839534
-0.80140817 1.5433564 1.4846063
-0.77397555 1.4898992 1.1853735
-0.75674254 1.4554987 0.94526953
-0.74697417 1.4361085 0.74233937
-0.73309928 1.4088427 0.55676073
-0.72381037 1.3898175 0.38897794
-0.71299022 1.3690466 0.23152326
-0.81763005 1.5820061 1.6672316
-0.78673613 1.520942 1.3303974
-0.76557809 1.4794151 1.0644776
-0.74800754 1.4436245 0.83907861
-0.73914105 1.4259138 0.64813256
-0.72282588 1.3938544 0.46941158
-0.71805662 1.384663 0.30976218
-0.70849222 1.3656472 0.15573692
-0.015102677 0.083008185 8.1639624
-0.37861508 0.76709265 5.4385471
-0.49233043 0.98610413 5.3223724
-1.3494618 2.6711545 9.614377
-1.037932 2.0421019 5.4562106
-0.62369084 1.2228197 2.5828779
-0.76514095 1.4963572 2.5409758
-0.85100621 1.662172 2.3123474
-0.1912732 0.43968779 8.1308403
-0.377157 0.7854898 8.083477
-0.61438429 1.2270355 5.3208485
-1.2344676 2.4456716 7.504148
-0.5659911 1.1159016 2.6509595
-0.68780524 1.352062 2.5514481
-0.84531975 1.658897 2.5401547
-0.84053332 1.6466885 2.0825341
-0.82537806 1.6052212 1.8535522
-0.80136079 1.5565264 1.4940217
-0.77259928 1.5000265 1.1908565
-0.75571668 1.4660063 0.94990712
-0.74620628 1.4469477 0.74608546
-0.73257595 1.4199195 0.5595808
-0.72120833 1.3967003 0.38991058
-0.71277666 1.3803768 0.23241742
-0.81721073 1.5948193 1.6772081
-0.78695565 1.5344689 1.339227
-0.76434481 1.4897493 1.0695438
-0.74918532 1.4583377 0.8453728
-0.73847622 1.4368852 0.65141958
-0.7224012 1.4050146 0.47175622
-0.71774751 1.395969 0.31114352
-0.70829129 1.3769974 0.15613998
-0.014812833 0.083060399 8.1639624
-0.37593511 0.76840955 5.4385471
-0.48707947 0.98416609 5.3027916
-1.3454765 2.6865265 9.6525536
-1.0510153 2.0858414 5.5620689
-0.61941862 1.2249893 2.5828779
-0.76118523 1.5015289 2.5451086
-0.85100156 1.6765651 2.3276975
-0.18973723 0.44035277 8.1308403
-0.37715861 0.79257894 8.1431351
-0.60730392 1.2235428 5.2966514
-1.2359611 2.4700284 7.5651541
-0.56698143 1.1275953 2.6734657
-0.68425578 1.3567834 2.5557141
-0.83952397 1.6618377 2.5401547
-0.84090281 1.6617123 2.0972347
-0.82462847 1.6176243 1.8640658
-0.80123103 1.5697147 1.5034369
-0.77306324 1.5138862 1.1990808
-0.75462651 1.4765242 0.95454472
-0.74537182 1.457799 0.7498315
-0.73198408 1.4310095 0.56240088
-0.72080564 1.4079545 0.39177582
-0.71022332 1.3872893 0.2328645
-0.81671184 1.607649 1.6871846
-0.78525829 1.5444126 1.3451133
-0.76500314 1.5039353 1.0771434
-0.74820971 1.4690324 0.8495689
-0.73774362 1.4478691 0.6547066
-0.72190726 1.4161887 0.47410086
-0.71736825 1.4072899 0.31252488
-0.70574999 1.383912 0.15634152
-0.014522807 0.083111599 8.1639624
-0.3732506 0.76971716 5.4385471
-0.48274463 0.98403198 5.2930012
-1.3400729 2.6992292 9.6811857
-1.0646784 2.1314442 5.6725292
-0.61513883 1.227144 2.5828779
-0.7559393 1.5041766 2.5451086
-0.85090673 1.6909782 2.3430474
-0.18819895 0.44101238 8.1308403
-0.2483311 0.52624506 5.3839498
-0.60081017 1.2211435 5.2772937
-1.2434334 2.506793 7.6637015
-0.56789696 1.1393095 2.6959715
-0.67951554 1.3591636 2.5557141
-0.83776557 1.6728411 2.552125
-0.83965749 1.6737282 2.1082602
-0.8254109 1.6332244 1.8780839
-0.80277634 1.5863938 1.5159907
-0.77155119 1.5240368 1.2045637
-0.75347215 1.4870526 0.95918238
-0.7444706 1.468662 0.75357759
-0.73132366 1.4421127 0.56522095
-0.7203331 1.4192227 0.39364108
-0.70988417 1.3986415 0.23375866
-0.81613332 1.6204942 1.697161
-0.78532034 1.5579724 1.3539426
-0.76363069 1.5142947 1.0822097
-0.74716848 1.4797379 0.85376495
-0.73907256 1.4630803 0.65963709
-0.72134405 1.4273763 0.4764455
-0.71915215 1.4230447 0.31459692
-0.70542318 1.3952842 0.15674458
-0.014232605 0.083161786 8.1639624
-0.37056148 0.77101541 5.4385471
-0.47752646 0.98204786 5.2734203
-1.335256 2.7132659 9.7145891
-1.0893044 2.1999278 5.842823
-0.61085153 1.2292837 2.5828779
-0.75193894 1.5093253 2.5492415
-0.84929103 1.7025429 2.3545601
-0.1867702 0.44193274 8.1358318
-0.24604176 0.52614266 5.3740072
-0.59654397 1.2232332 5.2772937
-1.2438117 2.5297019 7.7200155
-0.56970173 1.1529955 2.7229788
-0.67476708 1.3615273 2.5557141
-0.83995998 1.6919492 2.5760651
-0.83984804 1.688791 2.1229608
-0.82609439 1.6488498 1.8921022
-0.80246967 1.5996238 1.5254062
-0.76997769 1.5341952 1.2100466
-0.75424182 1.5015492 0.96613878
-0.74350262 1.4795363 0.75732362
-0.73059464 1.4532285 0.56804103
-0.71979046 1.4305046 0.39550632
-0.70947444 1.410008 0.23465282
-0.81547505 1.6333551 1.7071376
-0.78529739 1.5715517 1.3627722
-0.76219517 1.5246627 1.0872761
-0.74606162 1.490454 0.85796106
-0.73818976 1.4740961 0.66292417
-0.72071147 1.4385771 0.47879013
-0.72083479 1.4388291 0.31666899
-0.70502549 1.4066706 0.15714765
-0.013937675 0.08316756 8.1589622
-0.36786789 0.77230418 5.4385471
-0.48072368 0.99746871 5.3468485
-1.3283942 2.7232766 9.7336769
-1.101415 2.244055 5.9486809
-0.60655683 1.2314085 2.5828779
-0.74791175 1.5144639 2.5533745
-0.85044616 1.7198632 2.3737476
-0.18522643 0.44258201 8.1358318
-0.24509874 0.52893358 5.3938932
-0.59062976 1.2219127 5.2627749
-1.2440451 2.5526435 7.7763281
-0.5704605 1.1647528 2.7454851
-0.67001033 1.3638743 2.5557141
-0.84070075 1.7083894 2.5960152
-0.83994347 1.7038757 2.1376615
-0.82509249 1.6613055 1.9026158
-0.80381346 1.6163559 1.5379601
-0.77020514 1.5481048 1.2182711
-0.75491929 1.5160691 0.97309518
-0.7424677 1.4904219 0.76106972
-0.72979683 1.4643569 0.57086104
-0.71698534 1.4374042 0.39643893
-0.70899391 1.4213886 0.23554698
-0.8147369 1.6462311 1.7171141
-0.78518897 1.5851493 1.3716016
-0.76069659 1.5350392 1.0923425
-0.74488896 1.5011803 0.86215717
-0.737239 1.4851233 0.66621119
-0.72000945 1.4497907 0.48113477
-0.72021317 1.4502068 0.31805035
-0.70233393 1.4135972 0.15734917
-0.013647282 0.083215706 8.1589622
-0.36516982 0.77358359 5.4385471
-0.4842577 1.0138426 5.4251723
-1.3253767 2.7413363 9.7813969
-1.0952843 2.2513998 5.9578857
-0.60225469 1.2335182 2.5828779
-0.75251764 1.5372853 2.5864379
-0.85007995 1.7343339 2.3890977
-0.18379037 0.4434928 8.1408234
-0.24302885 0.52930135 5.3889213
-0.69223046 1.4450327 6.2064633
-1.2426323 2.5725098 7.823256
-0.57209456 1.1784877 2.7724922
-0.66524541 1.3662049 2.5557141
-0.84397864 1.7302715 2.6239452
-0.83994383 1.7189813 2.1523621
-0.82558876 1.6769738 1.916634
-0.80332917 1.6296256 1.5473754
-0.76849532 1.5582843 1.223754
-0.75550455 1.5306119 0.98005158
-0.74136579 1.5013179 0.76481575
-0.72893023 1.4754971 0.57368112
-0.71631795 1.4487048 0.39830416
-0.70844257 1.432783 0.23644114
-0.81391865 1.6591213 1.7270906
-0.78499526 1.5987653 1.3804312
-0.76103532 1.5492929 1.0999421
-0.74565351 1.5159889 0.86845136
-0.73622018 1.4961617 0.66949821
-0.72138458 1.4653778 0.48465171
-0.72170806 1.4660407 0.32012239
-0.70180982 1.4250039 0.15775223
-0.013356721 0.083262838 8.1589622
-0.36246729 0.77485353 5.4385471
-0.48898956 1.0330143 5.5181818
-1.3235395 2.7621 9.8386612
-1.0992973 2.2798467 6.0223212
-0.59690207 1.233457 2.5784888
-0.75451666 1.5550936 2.6112356
-0.85242414 1.7545888 2.4121227
-0.18235022 0.44439897 8.1458149
-0.24117976 0.53014642 5.3889213
-0.70388985 1.4826424 6.3564849
-1.2440764 2.598623 7.8889542
-0.57363963 1.192248 2.7994995
-0.66047239 1.3685187 2.5557141
-0.83924526 1.73592 2.6279354
-0.83984888 1.7341075 2.1670628
-0.8244217 1.6894606 1.9271477
-0.80447072 1.6464086 1.5599293
-0.76856011 1.5722272 1.2319785
-0.75405055 1.5411979 0.98468918
-0.74019688 1.5122243 0.76856184
-0.72799462 1.486649 0.57650119
-0.7155804 1.4600184 0.4001694
-0.70782024 1.4441907 0.23733529
-0.81302035 1.672026 1.7370671
-0.78471595 1.6123992 1.3892606
-0.75939667 1.5596917 1.1050084
-0.74433488 1.5267417 0.87264746
-0.73513323 1.507211 0.67278522
-0.72052813 1.4766235 0.48699635
-0.7209295 1.477452 0.32150373
-0.70121467 1.4364241 0.15815529
-0.013065998 0.083308958 8.1589622
-0.35976031 0.77611405 5.4385471
-0.49013537 1.0448558 5.5720291
-1.3222133 2.7842326 9.9006968
-1.0980706 2.2977719 6.0591416
-0.5925929 1.2355331 2.5784888
-0.75640041 1.5729344 2.6360335
-0.85463721 1.7748812 2.4351475
-0.18101406 0.44556817 8.1557989
-0.23910904 0.53049886 5.3839498
-0.5831517 1.239405 5.3111696
-1.2394359 2.6123049 7.9171114
-0.5694744 1.1942431 2.7994995
-0.65569139 1.3708159 2.5557141
-0.82667071 1.7252516 2.6079853
-0.83819151 1.7461977 2.1780884
-0.82317752 1.7019595 1.9376613
-0.80380821 1.659716 1.5693445
-0.76853687 1.5861895 1.2402028
-0.75446481 1.5557781 0.99164557
-0.74098432 1.5273119 0.77418089
-0.72698998 1.4978123 0.57932127
-0.71477258 1.4713444 0.40203464
-0.70712692 1.4556116 0.23822945
-0.8120417 1.6849445 1.7470435
-0.78435093 1.6260504 1.39809
-0.7576946 1.5700977 1.1100746
-0.74492478 1.54159 0.87894166
-0.73397803 1.5182707 0.67607224
-0.71960187 1.4878811 0.48934099
-0.72008002 1.4888756 0.3228851
-0.6983723 1.4433603 0.15835683
-0.012775117 0.083354056 8.1589622
-0.35704899 0.77736509 5.4385471
-0.48820126 1.050254 5.59161
-1.3283756 2.822597 10.019997
-1.111783 2.3474987 6.1788068
-0.58827645 1.2375941 2.5784888
-0.75937933 1.5933473 2.664964
-0.8567189 1.7952102 2.4581726
-0.17945763 0.44619733 8.1557989
-0.2372558 0.53133029 5.3839498
-0.58147693 1.2471296 5.3353667
-1.2391201 2.6353555 7.9734244
-0.56809223 1.2021286 2.8130033
-0.65090233 1.3730962 2.5557141
-0.81030345 1.7063509 2.5760651
-0.83645988 1.758297 2.1891139
-0.82185602 1.7144703 1.948175
-0.80306268 1.673039 1.57876
-0.76842541 1.6001707 1.2484273
-0.7528674 1.5663877 0.99628317
-0.73966634 1.5382452 0.77792698
-0.72591639 1.5089868 0.58214134
-0.71602529 1.4871082 0.40483251
-0.70636231 1.4670449 0.23912361
-0.81098282 1.6978765 1.7570201
-0.78390008 1.6397187 1.4069196
-0.75778908 1.5843998 1.1176742
-0.74345976 1.5523674 0.88313776
-0.73275459 1.5293406 0.67935926
-0.7186057 1.4991502 0.4916856
-0.71915942 1.5003113 0.32426646
-0.69765031 1.4547987 0.15875989
-0.012480283 0.083354674 8.1539621
-0.35433331 0.77860671 5.4385471
-0.4819774 1.0464023 5.5622387
-1.3241924 2.8393924 10.062944
-1.1152015 2.3761253 6.2432423
-0.58395284 1.23964 2.5784888
-0.75861967 1.6061664 2.6814959
-0.86003929 1.8184727 2.4850352
-0.17821771 0.44762635 8.1707735
-0.23539966 0.53215522 5.3839498
-0.57553899 1.2457283 5.3208485
-1.2452173 2.672514 8.0719728
-0.99037093 2.1149516 4.8925643
-0.64610541 1.37536 2.5557141
-0.79151243 1.6819042 2.5361648
-0.83609962 1.7734721 2.2038143
-0.82198739 1.7302135 1.9621931
-0.8022337 1.6863765 1.5881753
-0.76822561 1.6141702 1.2566516
-0.75120509 1.5770044 1.0009208
-0.74027544 1.5533727 0.78354609
-0.72683793 1.5245019 0.58637142
-0.71506101 1.4984652 0.40669775
-0.70552653 1.4784907 0.24001777
-0.80984342 1.7108212 1.7669965
-0.7850939 1.6570562 1.4186922
-0.75594664 1.5948261 1.1227406
-0.74192852 1.5631535 0.88733381
-0.73146278 1.5404207 0.68264627
-0.71962535 1.5148207 0.49520257
-0.71816778 1.5117583 0.3256478
-0.69685692 1.4662498 0.15916295
-0.012189245 0.083397731 8.1539621
-0.35161331 0.77983886 5.4385471
-0.48043463 1.0527102 5.5867147
-1.3318043 2.8819385 10.19656
-1.1209052 2.4101188 6.3214855
-0.57962215 1.2416708 2.5784888
-0.76255107 1.6291944 2.7145593
-0.85368639 1.8214638 2.4850352
-0.17665413 0.4482457 8.1707735
-0.23354067 0.53297371 5.3839498
-0.56491041 1.234014 5.2627749
-1.25324 2.714447 8.1845989
-0.64130056 1.3776069 2.5557141
-0.78054285 1.6737331 2.5202048
-0.83564347 1.7886659 2.2185149
-0.8220188 1.7459787 1.9762113
-0.8029812 1.7032493 1.6007291
-0.76793754 1.6281878 1.264876
-0.74947774 1.587629 1.0055584
-0.7388081 1.5643312 0.78729212
-0.72561055 1.5357044 0.5891915
-0.71402621 1.5098336 0.40856299
-0.70249033 1.4854463 0.24046485
-0.80862355 1.7237788 1.7769731
-0.78445828 1.6707628 1.4275216
-0.75587314 1.6091604 1.1303401
-0.7422626 1.5780545 0.893628
-0.73010242 1.55151 0.68593329
-0.71847385 1.5261186 0.49754718
-0.71499562 1.5187364 0.3263385
-0.69599193 1.4777126 0.15956602
-0.011898058 0.083439775 8.1539621
-0.34857234 0.78035188 5.4336076
-0.47675708 1.0543808 5.5867147
-0.84327006 1.8415091 6.5221319
-1.1206614 2.4317603 6.3675108
-0.57528436 1.2436866 2.5784888
-0.75685948 1.6318462 2.7145593
-0.84867305 1.8273396 2.4888728
-0.11623441 0.29704648 5.3554783
-0.2316788 0.53378564 5.3839498
-0.55748516 1.2291096 5.2337389
-1.2451928 2.7219436 8.193985
-1.0274132 2.234556 5.1491332
-0.6364879 1.379837 2.5557141
-0.77343172 1.6737121 2.5162146
-0.83509141 1.8038781 2.2332156
-0.82195008 1.7617648 1.9902295
-0.80197316 1.7166214 1.6101445
-0.76933128 1.646011 1.275842
-0.74956238 1.6022729 1.0125147
-0.73923838 1.5794972 0.79291129
-0.72431386 1.5469166 0.59201157
-0.71292067 1.5212128 0.41042823
-0.70152748 1.4969081 0.24135901
-0.80732292 1.7367486 1.7869495
-0.78373659 1.6844854 1.4363512
-0.75752801 1.627422 1.1404729
-0.74058437 1.5888631 0.89782411
-0.72867352 1.5626085 0.68922031
-0.71725231 1.5374272 0.49989185
-0.71387714 1.5301985 0.32771987
-0.69505543 1.4891874 0.15996908
-0.011606727 0.083480798 8.1539621
-0.3458463 0.78156388 5.4336076
-0.47432202 1.0588266 5.6014009
-0.83745354 1.8458009 6.5269041
-1.1356971 2.4871957 6.5009837
-0.57193738 1.2478645 2.5828779
-0.75938356 1.6523771 2.7434902
-0.84496903 1.8361143 2.4965477
-0.11488658 0.29664183 5.3405032
-0.23002432 0.53508103 5.3889213
-0.55010098 1.2241685 5.2047019
-1.2542045 2.7671402 8.3159971
-1.0241191 2.248034 5.1716394
-0.63166749 1.3820504 2.5557141
-0.76758468 1.6764017 2.5162146
-0.83444321 1.8191079 2.2479162
-0.8217811 1.7775717 2.0042477
-0.80088139 1.7300069 1.6195598
-0.76885247 1.6600691 1.2840662
-0.74769086 1.6129175 1.0171524
-0.73762125 1.5904791 0.79665732
-0.7229476 1.5581384 0.59483165
-0.71174431 1.5326027 0.41229346
-0.70049304 1.5083811 0.24225317
-0.8075037 1.7531215 1.8002516
-0.78462082 1.7018939 1.4481238
-0.75725889 1.6417997 1.1480724
-0.73883969 1.5996792 0.90202022
-0.72717601 1.5737158 0.69250727
-0.71596044 1.5487455 0.50223649
-0.71268725 1.5416712 0.3291012
-0.69404727 1.5006734 0.16037214
-0.011318441 0.083564311 8.1589622
-0.34311602 0.78276634 5.4336076
-0.47062311 1.0604758 5.6014009
-0.83039343 1.8473514 6.5221319
-1.1366707 2.5125051 6.5562143
-0.56757808 1.2498534 2.5828779
-0.75244504 1.6524566 2.739357
-0.83988434 1.8419691 2.5003853
-0.11426029 0.29812065 5.3604698
-0.22815514 0.53588074 5.3889213
-0.54786867 1.2306749 5.2240596
-1.248072 2.7793725 8.3394604
-1.0207433 2.2615163 5.1941457
-0.6268394 1.3842469 2.5557141
-0.76297307 1.681815 2.5202048
-0.83510154 1.8374416 2.2662921
-0.82299691 1.796641 2.0217705
-0.79970598 1.7434057 1.6289753
-0.77002901 1.6779444 1.2950323
-0.74760306 1.6275941 1.0241088
-0.73787206 1.6056818 0.80227643
-0.72151184 1.5693697 0.59765172
-0.71049708 1.5440027 0.4141587
-0.69938707 1.519865 0.24314731
-0.80757982 1.7695166 1.8135536
-0.78539288 1.7193286 1.4598964
-0.75869042 1.6601163 1.1582052
-0.7370283 1.6105024 0.90621626
-0.72757548 1.5891253 0.69743782
-0.71459824 1.5600734 0.50458109
-0.71348822 1.5576562 0.33117324
-0.69504857 1.5167123 0.16097674
-0.011026679 0.083603315 8.1589622
-0.33914471 0.7811079 5.4138508
-0.46528015 1.0583835 5.5818195
-0.82393998 1.8502387 6.5221319
-1.1262954 2.5128918 6.547009
-0.5632118 1.2518269 2.5828779
-0.72815847 1.6140313 2.6732299
-0.83344954 1.8448896 2.5003853
-0.11311743 0.29824737 5.3554783
-0.22628318 0.53667384 5.3889213
-0.54356951 1.2325798 5.2240596
-1.2439734 2.7963262 8.3770027
-1.0235057 2.2889137 5.2481599
-0.62200361 1.3864266 2.5557141
-0.75709778 1.6844682 2.5202048
-0.83424997 1.8527104 2.2809927
-0.82261562 1.8124926 2.0357885
-0.79844671 1.7568173 1.6383907
-0.77108997 1.695848 1.3059981
-0.74558693 1.6382576 1.0287464
-0.73610473 1.616686 0.80602247
-0.721995 1.584975 0.6018818
-0.70917886 1.5554127 0.41602394
-0.69820935 1.5313594 0.24404147
-0.80755126 1.7859335 1.8268557
-0.78605276 1.7367895 1.4716691
-0.76000315 1.6784626 1.1683378
-0.73702466 1.6254656 0.91251045
-0.72787625 1.6045566 0.70236832
-0.7131657 1.5714107 0.50692576
-0.71213961 1.5691559 0.33255461
-0.69388092 1.5282272 0.1613798
-0.010734782 0.083641298 8.1589622
-0.33549595 0.78014535 5.3990331
-0.45995751 1.0562665 5.5622387
-0.81807882 1.8544693 6.5269041
-1.1167241 2.515022 6.5424061
-0.55883867 1.2537853 2.5828779
-0.70874214 1.5857337 2.6236346
-0.82831389 1.8507134 2.5042226
-0.11227682 0.29918164 5.3654613
-0.22440846 0.53746045 5.3889213
-0.53976673 1.2356216 5.228899
-1.2397714 2.8132844 8.4145441
-1.0243258 2.312377 5.2931724
-0.61716026 1.3885893 2.5557141
-0.75121331 1.6871005 2.5202048
-0.83468306 1.8710916 2.2993689
-0.82213366 1.8283635 2.0498068
-0.79710352 1.7702411 1.6478059
-0.77203524 1.7137791 1.3169639
-0.74532622 1.6529652 1.0357027
-0.7342695 1.6276972 0.80976856
-0.72040462 1.5962305 0.60470188
-0.70778966 1.5668321 0.41788921
-0.69695991 1.5428641 0.24493563
-0.80741781 1.8023715 1.8401576
-0.78660023 1.7542757 1.4834417
-0.75943267 1.6929049 1.1759374
-0.73506564 1.6363084 0.91670656
-0.72614235 1.615702 0.7056554
-0.71365583 1.5871898 0.51044267
-0.71071947 1.5806653 0.33393598
-0.69469076 1.5443084 0.16198438
-0.010445487 0.083721809 8.1639624
-0.33003271 0.77487701 5.3545794
-0.45102769 1.0457103 5.498601
-0.81160051 1.8573136 6.5269041
-1.1063653 2.5153284 6.5332012
-0.55445874 1.2557284 2.5828779
-0.68269742 1.5418817 2.5492415
-0.82184869 1.8535935 2.5042226
-0.1112318 0.29957172 5.3654613
-0.22253101 0.53824049 5.3889213
-0.53545028 1.2374982 5.228899
-1.2368469 2.8334107 8.4614725
-1.029368 2.3458407 5.3606901
-0.61230952 1.3907351 2.5557141
-0.7453196 1.6897124 2.5202048
-0.8336277 1.8863976 2.3140695
-0.82009971 1.8409951 2.0603204
-0.79567623 1.7836767 1.6572214
-0.77116048 1.7279187 1.3251883
-0.74497187 1.6676905 1.042659
-0.73425782 1.6429479 0.81538767
-0.7187444 1.6074939 0.60752195
-0.70632929 1.5782605 0.41975445
-0.69563854 1.5543786 0.24582979
-0.80717945 1.8188303 1.8534596
-0.78539431 1.7680928 1.4922713
-0.76052111 1.7113029 1.1860701
-0.73488522 1.6513038 0.92300069
-0.72626013 1.6311686 0.71058589
-0.71206671 1.5985514 0.51278734
-0.70922756 1.5921838 0.33531734
-0.69336313 1.5558506 0.16238745
-0.010153179 0.083757766 8.1639624
-0.3243086 0.7688641 5.3051872
-0.44657508 1.0454054 5.4888101
-0.80570519 1.8615053 6.5316763
-1.0983588 2.5209663 6.5378041
-0.55007207 1.2576561 2.5828779
-0.67505068 1.539101 2.5409758
-0.81666231 1.8593856 2.5080602
-0.11028411 0.30022949 5.3704529
-0.22065084 0.53901398 5.3889213
-0.53063238 1.2382044 5.2240596
-1.2331121 2.8519669 8.5037069
-1.0350565 2.3813643 5.4327097
-0.6074512 1.392864 2.5557141
-0.7394169 1.6923039 2.5202048
-0.83247548 1.9017186 2.3287699
-0.81942737 1.8568976 2.0743387
-0.79416484 1.7971239 1.6666367
-0.7701965 1.7420733 1.3334126
-0.74452376 1.6824335 1.0496155
-0.73227191 1.6539789 0.8191337
-0.71895695 1.6231512 0.61175203
-0.70479774 1.589698 0.42161968
-0.69626373 1.5704552 0.24717103
-0.80683595 1.835309 1.8667616
-0.78572929 1.7856224 1.5040439
-0.75975353 1.7257832 1.1936696
-0.73460895 1.6663176 0.92929488
-0.72437304 1.6423349 0.71387291
-0.71236914 1.614368 0.51630425
-0.70766377 1.6037109 0.33669871
-0.69398105 1.5719725 0.16299205
-0.0098631755 0.083836257 8.1689625
-0.31863058 0.76282066 5.2557945
-0.43300983 1.0235125 5.3664293
-0.79920238 1.8643063 6.5316763
-1.1003883 2.5498977 6.6022391
-0.54567868 1.2595686 2.5828779
-0.6707952 1.544029 2.5451086
-0.80888826 1.8592857 2.5042226
-0.10923544 0.30061263 5.3704529
-0.21876799 0.53978091 5.3889213
-0.52336138 1.2331063 5.1950235
-1.2292627 2.8705313 8.5459423
-1.0379272 2.4109571 5.4912257
-0.60258549 1.3949759 2.5557141
-0.73350513 1.6948746 2.5202048
-0.83122641 1.9170544 2.3434706
-0.81865394 1.8728176 2.088357
-0.79256916 1.8105823 1.6760521
-0.76914293 1.7562418 1.341637
-0.74398178 1.6971937 1.056572
-0.73207968 1.6692617 0.82475281
-0.71906894 1.6388294 0.61598212
-0.70319492 1.6011436 0.42348492
-0.69678503 1.5865549 0.24851227
-0.80489641 1.848384 1.876738
-0.78433645 1.7994699 1.5128733
-0.75889397 1.7402793 1.2012691
-0.73423672 1.6813494 0.93558902
-0.72430736 1.6578351 0.71880347
-0.71256977 1.630206 0.51982123
-0.70404488 1.610709 0.33738938
-0.69249308 1.5835402 0.16339511
-0.0095704729 0.083870173 8.1689625
-0.31418553 0.75961959 5.2261591
-0.42628837 1.0175041 5.3272676
-0.79268986 1.8670847 6.5316763
-1.1014615 2.5770774 6.6620722
-0.54788834 1.2768724 2.6136014
-0.66540146 1.5463611 2.5451086
-0.81253982 1.8856469 2.5349226
-0.10818545 0.3009921 5.3704529
-0.21668431 0.54004639 5.3839498
-0.5175932 1.2314491 5.1805053
-1.2259723 2.8906915 8.5928698
-1.0499949 2.4626265 5.5992546
-0.59771246 1.3970709 2.5557141
-0.72758448 1.6974247 2.5202048
-0.83121812 1.9355197 2.3618467
-0.81919599 1.8920273 2.1058795
-0.79243749 1.8276223 1.6886059
-0.76799977 1.7704241 1.3498615
-0.74687415 1.7200968 1.0681659
-0.73178965 1.6845633 0.83037192
-0.71716809 1.6501286 0.61880219
-0.70348018 1.6171019 0.42628276
-0.69521582 1.5981107 0.24940643
-0.80435419 1.8648965 1.8900402
-0.78285646 1.8133299 1.5217029
-0.75794244 1.7547902 1.2088687
-0.73376846 1.6963989 0.94188321
-0.72226685 1.6690209 0.72209048
-0.71266842 1.646065 0.5233382
-0.70235306 1.6222456 0.33877075
-0.69093269 1.5951165 0.16379817
-0.0092776529 0.083903074 8.1689625
-0.31182629 0.7614308 5.2310982
-0.4313136 1.0396785 5.4349627
-0.78558922 1.8684644 6.5269041
-1.0932206 2.5827057 6.6666746
-0.54811078 1.2897986 2.6355469
-0.65889651 1.5460857 2.5409758
-0.81098497 1.9002638 2.5502727
-0.10713413 0.30136788 5.3704529
-0.21479788 0.5407995 5.3839498
-0.51136005 1.2286062 5.1611471
-1.2205517 2.9060912 8.6257191
-1.0413923 2.4662766 5.5992546
-0.59283209 1.3991487 2.5557141
-0.72165489 1.699954 2.5202048
-0.82976413 1.9508884 2.3765471
-0.81820852 1.9079858 2.1198976
-0.79219645 1.8446832 1.7011597
-0.76676702 1.7846199 1.358086
-0.74611557 1.7349019 1.0751224
-0.73140168 1.6998829 0.83599097
-0.71519709 1.6614342 0.62162226
-0.70171869 1.6285702 0.428148
-0.6955449 1.6142482 0.25074768
-0.80223972 1.8779939 1.9000165
-0.78128928 1.8272012 1.5305324
-0.75689876 1.7693152 1.2164682
-0.73320395 1.7114652 0.94817728
-0.72201723 1.6845528 0.72702098
-0.71074945 1.6574771 0.52568281
-0.69863778 1.6292386 0.33946142
-0.6893 1.6067011 0.16420123
-0.0089847203 0.083934948 8.1689625
-0.3097499 0.763955 5.2409768
-0.42961529 1.0458872 5.4594393
-0.77906227 1.8711952 6.5269041
-1.0849538 2.5883079 6.671277
-0.54917842 1.3049492 2.6618812
-0.65349561 1.5483762 2.5409758
-0.81432891 1.9267024 2.5809729
-0.10608151 0.30174002 5.3704529
-0.21290883 0.54154599 5.3839498
-0.50515318 1.2257348 5.1417894
-1.2229897 2.9406083 8.7148809
-1.0436938 2.4960067 5.6577702
-0.58794451 1.4012096 2.5557141
-0.71571654 1.7024628 2.5202048
-0.82952875 1.9693944 2.394923
-0.81851357 1.9272429 2.1374204
-0.79032254 1.8581828 1.7105752
-0.7670815 1.802676 1.3690518
-0.74699843 1.7537979 1.0843976
-0.73091561 1.7152201 0.84161013
-0.71503711 1.677159 0.62585235
-0.69988579 1.6400459 0.43001324
-0.69381517 1.625827 0.25164184
-0.80149817 1.8945377 1.9133185
-0.77963459 1.8410834 1.5393618
-0.75576293 1.7838545 1.2240678
-0.73254323 1.7265483 0.95447153
-0.72166795 1.7001032 0.73195153
-0.71065938 1.6733698 0.52919978
-0.69681782 1.6407835 0.34084278
-0.68759465 1.6182936 0.16460429
-0.0086916769 0.083965801 8.1689625
-0.30708131 0.76503158 5.2409768
-0.43209627 1.0624727 5.5377626
-0.77252585 1.8739032 6.5269041
-1.0766612 2.5938838 6.6758795
-0.54922569 1.317912 2.6838267
-0.64808679 1.5506479 2.5409758
-0.80759847 1.9295332 2.5809729
-0.10502759 0.30210847 5.3704529
-0.21101718 0.54228586 5.3839498
-0.49944732 1.2239991 5.1272712
-1.2127175 2.9448595 8.7148809
-1.0499637 2.5358393 5.7387924
-0.58304983 1.4032533 2.5557141
-0.70976949 1.7049508 2.5202048
-0.82786924 1.9847937 2.4096236
-0.81731135 1.9432375 2.1514387
-0.78987479 1.8752787 1.723129
-0.76727927 1.8207557 1.3800176
-0.74603677 1.7686393 1.0913539
-0.7285288 1.7263033 0.84535617
-0.71291018 1.6884832 0.62867242
-0.69989347 1.6560533 0.43281111
-0.69201303 1.6374131 0.25253597
-0.80209357 1.9145429 1.9299461
-0.77789259 1.8549763 1.5481913
-0.7545346 1.7984071 1.2316673
-0.73178607 1.7416476 0.96076572
-0.72121882 1.7156717 0.73688203
-0.70858258 1.6848012 0.53154445
-0.69492579 1.6523354 0.34222415
-0.68581676 1.6298937 0.16500735
-0.0084001971 0.084039234 8.1739626
-0.30469564 0.76682097 5.2459159
-0.4276247 1.0620853 5.5279717
-0.76372397 1.87106 6.5078163
-1.0668577 2.5958192 6.671277
-0.54918915 1.3308909 2.7057722
-0.64267004 1.5529007 2.5409758
-0.79472268 1.9175352 2.5617852
-0.10406538 0.30274656 5.3754449
-0.20912297 0.54301912 5.3839498
-0.49328902 1.2210729 5.1079135
-1.2187175 2.9890237 8.8322001
-1.048537 2.5576174 5.7793036
-0.57814801 1.40528 2.5557141
-0.70381379 1.7074178 2.5202048
-0.82740635 2.0033388 2.4279995
-0.81737858 1.9625394 2.1689615
-0.78781891 1.8888015 1.7325443
-0.76736009 1.8388586 1.3909835
-0.74498057 1.7834954 1.0983104
-0.72786105 1.7416681 0.85097528
-0.71256322 1.7042389 0.6329025
-0.69979793 1.6720805 0.43560895
-0.69206095 1.6536005 0.25387722
-0.80112827 1.9311262 1.943248
-0.77761304 1.8726124 1.5599639
-0.75486779 1.8169535 1.2418
-0.73093224 1.7567623 0.96705979
-0.72066975 1.7312573 0.74181259
-0.70643467 1.6962384 0.53388906
-0.69486541 1.6684655 0.34429619
-0.68396628 1.6415009 0.16541041
-0.0081067942 0.084068045 8.1739626
-0.30173296 0.76715672 5.2409768
-0.42466834 1.0654634 5.5377626
-0.75774723 1.8750986 6.5125885
-1.0629442 2.6121948 6.703495
-0.55178571 1.3505368 2.7408845
-0.63724554 1.5551347 2.5409758
-0.78072381 1.9025059 2.5387602
-0.10300796 0.30310798 5.3754449
-0.2072262 0.54374582 5.3839498
-0.48715732 1.2181188 5.0885558
-1.216673 3.0140631 8.8932066
-1.0387841 2.5592449 5.7748022
-0.57323915 1.4072896 2.5557141
-0.69784951 1.7098643 2.5202048
-0.82682407 2.0219045 2.4463751
-0.81732088 1.9818654 2.1864841
-0.78716397 1.9059303 1.7450981
-0.76732373 1.8569843 1.4019494
-0.74382979 1.7983656 1.1052668
-0.72709477 1.7570492 0.85659432
-0.71027994 1.7155802 0.63572258
-0.69959891 1.688127 0.43840683
-0.69009769 1.6652073 0.25477138
-0.80147558 1.9511797 1.9598755
-0.77721977 1.8902686 1.5717366
-0.75344068 1.8315376 1.2493995
-0.7299819 1.7718921 0.97335398
-0.71822113 1.7424941 0.7450996
-0.70421541 1.7076812 0.53623366
-0.69281286 1.680037 0.34567752
-0.68204302 1.6531152 0.16581348
-0.0078132916 0.084095828 8.1739626
-0.29849002 0.76675695 5.2310982
-0.42169362 1.0688338 5.5475531
-1.3914635 3.4785116 12.02423
-1.0574691 2.6249499 6.7265077
-0.54796606 1.3546751 2.7452738
-0.63181323 1.5573496 2.5409758
-0.76322037 1.8784937 2.5042226
-0.10204037 0.30373964 5.3804364
-0.20532691 0.54446584 5.3839498
-0.48475239 1.2244869 5.1079135
-1.2195908 3.0519438 8.9917545
-1.0339025 2.5729551 5.797308
-0.56832331 1.409282 2.5557141
-0.6930055 1.7150836 2.5241947
-0.82612211 2.0404904 2.464751
-0.81579006 1.9979128 2.2005022
-0.78639901 1.9230772 1.7576519
-0.76717007 1.8751315 1.4129152
-0.74258399 1.8132491 1.1122231
-0.72623008 1.772446 0.86221349
-0.70974559 1.731365 0.63995266
-0.6992963 1.7041924 0.4412047
-0.68995225 1.6814275 0.25611261
-0.80169255 1.9712591 1.976503
-0.77671266 1.907945 1.5835092
-0.75192076 1.8461335 1.256999
-0.72893471 1.7870364 0.97964811
-0.71927124 1.7624789 0.75167364
-0.7019248 1.7191288 0.53857833
-0.6925599 1.6961991 0.34774956
-0.68004704 1.6647357 0.16621654
-0.0075196954 0.084122591 8.1739626
-0.29525355 0.76634395 5.22122
-0.41870055 1.0721962 5.5573435
-1.3776642 3.4791834 12.009913
-1.0533652 2.6413281 6.7587252
-0.54857522 1.36992 2.7716084
-0.62637317 1.5595455 2.5409758
-0.75546253 1.8781725 2.5003853
-0.1009795 0.30409399 5.3804364
-0.20342512 0.54517925 5.3839498
-0.48047522 1.2261716 5.1079135
-1.2241629 3.0946953 9.1043806
-1.0273286 2.5826168 5.8108115
-0.56340051 1.4112573 2.5557141
-0.68701452 1.7174922 2.5241947
-0.82530046 2.0590959 2.4831269
-0.8154937 2.0172799 2.218025
-0.78698444 1.94385 1.7733443
-0.76532936 1.8894249 1.4211395
-0.74124342 1.8281459 1.1191796
-0.72526664 1.7878581 0.8678326
-0.70910966 1.7471668 0.6441828
-0.69888997 1.7202761 0.44400257
-0.68782759 1.6930531 0.25700676
-0.80038458 1.9878999 1.9898051
-0.77609146 1.9256406 1.5952818
-0.75192034 1.8647392 1.2671319
-0.72779065 1.8021952 0.9859423
-0.7184214 1.7781138 0.75660414
-0.70138448 1.7350878 0.54209524
-0.69220245 1.7123797 0.3498216
-0.67985123 1.6809937 0.16682112
-0.0072260071 0.084148325 8.1739626
-0.29230013 0.76664382 5.2162805
-0.41605598 1.0765008 5.5720291
