# .PCD v0.7 - Point Cloud Data file format
VERSION 0.7
FIELDS x y z
SIZE 4 4 4
TYPE F F F
COUNT 1 1 1
WIDTH 1406
HEIGHT 1
VIEWPOINT 0 0 0 1 0 0 0
POINTS 1406
DATA ascii
-0.92891741 -0.40067664 0.98217851
-0.91156465 -0.3935616 0.8065148
-0.89602315 -0.38703224 0.6591689
-0.88827962 -0.38423133 0.53486103
-0.88027078 -0.38094407 0.42297181
-0.86547345 -0.3747144 0.31818265
-0.86786878 -0.37574869 0.22411785
-0.87078905 -0.37718788 0.13195628
-0.083162196 -0.0092415446 8.0839653
-0.8685835 -0.35566357 5.9670477
-1.610602 -0.66803139 8.4063654
-1.1859335 -0.49867955 4.1599998
-1.1271952 -0.47719085 2.9432325
-1.0363071 -0.44040549 2.1308026
-0.99467432 -0.42392698 1.6606575
-0.96279079 -0.4109253 1.3299464
-0.42091513 -0.1492099 7.5617914
-0.66815704 -0.26527372 6.6616268
-1.2576194 -0.52343112 5.2821326
-1.1511445 -0.48356053 3.4495978
-1.0784608 -0.45544124 2.4844146
-1.0173242 -0.43107161 1.8774304
-0.97601426 -0.41436058 1.4788084
-0.9494549 -0.40385535 1.1968194
-0.94108683 -0.40359518 1.0860566
-0.91837245 -0.39441332 0.88829952
-0.89330792 -0.38382903 0.72206575
-0.88438582 -0.38035312 0.59049314
-0.89502954 -0.38510996 0.4819878
-0.87713504 -0.3775866 0.3706364
-0.86616051 -0.37321535 0.2705352
-0.86876887 -0.37433642 0.17787378
-0.92687678 -0.39596498 0.97885299
-0.91293287 -0.39037725 0.8065148
-0.8934052 -0.38220674 0.6566357
-0.88544357 -0.37934113 0.53276294
-0.8772549 -0.37600878 0.42132831
-0.86230892 -0.36977547 0.31701031
-0.86917514 -0.37271696 0.22411785
-0.86750919 -0.37217626 0.13175476
-0.08319395 -0.0089511983 8.0839653
-0.87126005 -0.35321289 5.9769263
-1.6119822 -0.66201866 8.4014702
-1.1849108 -0.49338958 4.1504564
-1.1252505 -0.47174293 2.9340274
-1.0334228 -0.43492764 2.1220245
-0.99355543 -0.41935822 1.6565247
-0.96421933 -0.40756202 1.3299464
-0.42470518 -0.14887844 7.6216912
-0.6695751 -0.26313445 6.6665978
-1.2571146 -0.51808053 5.2724543
-1.151232 -0.47887674 3.444905
-1.0740186 -0.44915468 2.4709108
-1.0164177 -0.42650887 1.8731647
-0.97467691 -0.40978342 1.4748185
-0.94773453 -0.39922276 1.1931442
-0.93920738 -0.39891371 1.0825521
-0.9197436 -0.39120519 0.88829952
-0.89464229 -0.38070846 0.72206575
-0.88570815 -0.37726375 0.59049314
-0.89210355 -0.38016605 0.48011476
-0.87844765 -0.37452254 0.3706364
-0.86745799 -0.37018961 0.2705352
-0.8654899 -0.36934695 0.1774267
-0.92825329 -0.39272717 0.97885299
-0.91056788 -0.38561204 0.80357164
-0.89076465 -0.37740424 0.65410256
-0.88258427 -0.37447542 0.53066492
-0.87856203 -0.3729443 0.42132831
-0.86359441 -0.3667632 0.31701031
-0.86591285 -0.36774501 0.22342718
-0.86880302 -0.36914584 0.13175476
-0.083224684 -0.0086607421 8.0839653
-0.87248766 -0.35016948 5.9769263
-1.6133399 -0.65600431 8.396575
-1.1838655 -0.48811278 4.1409121
-1.1232814 -0.46631438 2.9248226
-1.0327241 -0.43039656 2.1176355
-0.98982036 -0.41371745 1.6482588
-0.96267945 -0.40295634 1.3261089
-0.42795205 -0.14833444 7.6716075
-0.66999269 -0.26060265 6.6616268
-1.2554238 -0.51226497 5.257936
-1.1497052 -0.47354117 3.4355197
-1.0675344 -0.44207197 2.4529061
-1.0130835 -0.42095718 1.8646327
-0.97331953 -0.40522072 1.4708283
-0.94912231 -0.39591214 1.1931442
-0.94059414 -0.39563283 1.0825521
-0.91751641 -0.38648146 0.88516104
-0.89211243 -0.37595952 0.71932429
-0.88701963 -0.37416974 0.59049314
-0.88915402 -0.37524727 0.47824174
-0.87974966 -0.37145388 0.3706364
-0.86874491 -0.36715937 0.2705352
-0.8667739 -0.36632359 0.1774267
-0.9261747 -0.38804185 0.97552752
-0.90818083 -0.38086817 0.80062848
-0.88810152 -0.37262487 0.65156937
-0.87970191 -0.36963433 0.52856684
-0.87550533 -0.36804533 0.4196848
-0.86486942 -0.36374646 0.31701031
-0.86719126 -0.36472017 0.22342718
-0.86548138 -0.36417326 0.13155322
-0.083254412 -0.0083701806 8.0839653
-0.87442684 -0.34740847 5.9818659
-1.613731 -0.64960855 8.3867855
-1.1841803 -0.48341337 4.1361403
-1.1212883 -0.46090537 2.9156172
-1.0320061 -0.4258756 2.1132464
-0.98865825 -0.40918383 1.6441258
-0.96111906 -0.39836639 1.3222713
-0.43147361 -0.14786257 7.7265162
-0.67089826 -0.25826237 6.6616268
-1.254873 -0.50693828 5.2482567
-1.1497532 -0.46887359 3.4308267
-1.0650425 -0.43669149 2.4439037
-1.0121348 -0.41642612 1.8603667
-0.97194219 -0.40067247 1.4668382
-0.94736505 -0.39130259 1.1894691
-0.93867737 -0.3909761 1.0790474
-0.9188599 -0.3832764 0.88516104
-0.88956052 -0.3712329 0.71658283
-0.88832033 -0.37107119 0.59049314
-0.89045841 -0.37214124 0.47824174
-0.87661511 -0.3665303 0.3692264
-0.86548984 -0.36222816 0.2696026
-0.86804736 -0.36329573 0.1774267
-0.92752361 -0.38480654 0.97552752
-0.90577179 -0.3761456 0.79768533
-0.88939679 -0.36952254 0.65156937
-0.88098681 -0.36656135 0.52856684
-0.87678468 -0.36498702 0.4196848
-0.86613381 -0.36072531 0.31701031
-0.86388755 -0.35978705 0.22273649
-0.86674732 -0.36114997 0.13155322
-0.083283119 -0.0080795186 8.0839653
-0.87635738 -0.34463814 5.9868045
-1.6131508 -0.64284116 8.3720989
-1.1830924 -0.47815847 4.1265965
-1.1210808 -0.45625231 2.9110148
-1.0312693 -0.42136493 2.1088572
-0.9900806 -0.40573025 1.6441258
-0.95953846 -0.39379224 1.3184339
-0.43472341 -0.14727588 7.7764325
-0.67179567 -0.25591892 6.6616268
-1.2543007 -0.50162172 5.2385783
-1.1481824 -0.46356559 3.4214413
-1.0665604 -0.43297115 2.4439037
-1.0111669 -0.41190687 1.8561009
-0.97054493 -0.39613879 1.4628483
-0.94558716 -0.38671014 1.1857939
-0.93673944 -0.38633755 1.0755429
-0.91659462 -0.3785809 0.88202262
-0.8908509 -0.3681255 0.71658283
-0.8937037 -0.36966118 0.59281194
-0.88746834 -0.3672581 0.4763687
-0.87788922 -0.36346808 0.3692264
-0.86674899 -0.35920483 0.2696026
-0.8693102 -0.36026347 0.1774267
-0.92540741 -0.38014793 0.972202
-0.90707928 -0.37298161 0.79768533
-0.88669461 -0.36477581 0.64903617
-0.88226098 -0.36348391 0.52856684
-0.87805337 -0.36192423 0.4196848
-0.86738771 -0.35769972 0.31701031
-0.86513823 -0.35676929 0.22273649
-0.86338437 -0.35621682 0.13135168
-0.083310813 -0.0077887564 8.0839653
-0.87755501 -0.34157696 5.9868045
-1.6144378 -0.63683277 8.3672037
-1.1819823 -0.47291711 4.1170521
-1.1190422 -0.4508763 2.9018097
-1.0305136 -0.4168646 2.1044683
-0.98888326 -0.401214 1.6399928
-0.95793772 -0.38923404 1.3145963
-0.43797433 -0.14666829 7.8263493
-0.67268491 -0.25357237 6.6616268
-1.2525377 -0.49585277 5.2240596
-1.1481911 -0.45891455 3.4167485
-1.0700853 -0.43005717 2.448405
-1.0101796 -0.40739939 1.8518349
-0.9719218 -0.39274853 1.4628483
-0.9469313 -0.38340706 1.1857939
-0.93478066 -0.38171732 1.0720384
-0.91791052 -0.37537906 0.88202262
-0.88826042 -0.36343032 0.71384138
-0.8949886 -0.36653933 0.59281194
-0.88874495 -0.364158 0.4763687
-0.87471402 -0.35858196 0.36781636
-0.86345303 -0.35431236 0.26866996
-0.86595523 -0.35533631 0.17697962
-0.92672873 -0.37691537 0.972202
-0.90463203 -0.36828905 0.79474217
-0.88796246 -0.36167842 0.64903617
-0.88352442 -0.36040202 0.52856684
-0.87931138 -0.35885707 0.4196848
-0.86863106 -0.35466981 0.31701031
-0.86179364 -0.35187533 0.22204581
-0.86462253 -0.35320088 0.13135168
-0.083337493 -0.0074978997 8.0839653
-0.87946719 -0.33879077 5.991744
-1.1822381 -0.46823886 4.1122804
-1.1187944 -0.44624373 2.8972073
-1.029739 -0.41237471 2.1000791
-0.98766637 -0.39671102 1.63586
-0.9592905 -0.38588786 1.3145963
-0.440952 -0.14594966 7.871274
-0.67306638 -0.2510367 6.6566548
-1.2519201 -0.49056071 5.2143812
-1.1465765 -0.45363438 3.4073629
-1.0715799 -0.42631927 2.448405
-1.0115956 -0.40387073 1.8518349
-0.97048914 -0.3882345 1.4588583
-0.94511712 -0.37883815 1.1821188
-0.9361074 -0.37845197 1.0720384
-0.91560739 -0.37071207 0.87888414
-0.88952357 -0.36032748 0.71384138
-0.90036774 -0.36507741 0.59513074
-0.89001065 -0.3610535 0.4763687
-0.87596035 -0.35552645 0.36781636
-0.86468452 -0.35129619 0.26866996
-0.8671903 -0.3523114 0.17697962
-0.92803878 -0.37367818 0.972202
-0.9059121 -0.36512905 0.79474217
-0.88921958 -0.35857666 0.64903617
-0.88477707 -0.35731575 0.52856684
-0.88055867 -0.35578549 0.4196848
-0.86986375 -0.35163555 0.31701031
-0.86301661 -0.34886494 0.22204581
-0.86121869 -0.34830749 0.13115016
-0.08336316 -0.0072069522 8.0839653
-0.87991828 -0.33544222 5.9868045
-1.1810857 -0.46301988 4.1027365
-1.1167109 -0.4409011 2.8880022
-1.0289458 -0.40789533 2.09569
-0.98904514 -0.39326102 1.63586
-0.95765376 -0.38135126 1.3107588
-0.44420454 -0.14530119 7.9211903
-0.67393851 -0.24868573 6.6566548
-1.2512809 -0.48527899 5.2047019
-1.1465461 -0.44900024 3.4026701
-1.0750871 -0.42337361 2.4529061
-1.0129992 -0.40033713 1.8518349
-0.96903676 -0.38373521 1.4548682
-0.94643372 -0.37553677 1.1821188
-0.93411177 -0.37385708 1.0685339
-0.91689581 -0.36751375 0.87888414
-0.89077598 -0.35722029 0.71384138
-0.90163666 -0.36193234 0.59513074
-0.89126557 -0.35794458 0.4763687
-0.87274486 -0.35067815 0.36640632
-0.86134803 -0.34644273 0.26773736
-0.86841476 -0.34928221 0.17697962
-0.92586899 -0.36905405 0.96887648
-0.90718114 -0.36196461 0.79474217
-0.89046586 -0.35547054 0.64903617
-0.88601893 -0.35422513 0.52856684
-0.88179523 -0.35270962 0.4196848
-0.87108588 -0.34859702 0.31701031
-0.85963154 -0.3440105 0.22135513
-0.86242926 -0.34529918 0.13115016
-0.083387814 -0.0069159167 8.0839653
-0.88108379 -0.3323687 5.9868045
-1.3385447 -0.51191276 6.913321
-1.1799115 -0.45781478 4.0931926
-1.1164235 -0.43628946 2.8833997
-1.0281336 -0.40342644 2.091301
-0.98779327 -0.38877577 1.631727
-0.95599717 -0.37683091 1.3069214
-0.44580859 -0.14410256 7.9411569
-0.67480248 -0.24633174 6.6566548
-1.2506201 -0.48000774 5.1950235
-1.1448882 -0.44374833 3.3932846
-1.07453 -0.41882789 2.448405
-1.0143905 -0.39679867 1.8518349
-0.96756482 -0.37925082 1.4508783
-0.94773889 -0.37223083 1.1821188
-0.93541104 -0.37059414 1.0685339
-0.91455507 -0.36287555 0.87574571
-0.89201748 -0.35410872 0.71384138
-0.9028945 -0.35878283 0.59513074
-0.88820159 -0.35311869 0.47449568
-0.87396359 -0.34762958 0.36640632
-0.8579883 -0.34161681 0.26680472
-0.86962879 -0.34624872 0.17697962
-0.92715156 -0.3658199 0.96887648
-0.9084391 -0.35879576 0.79474217
-0.88769203 -0.35077596 0.64650303
-0.88302988 -0.34946018 0.52646881
-0.88302106 -0.3496294 0.4196848
-0.86777848 -0.34376413 0.31583801
-0.86082709 -0.34100771 0.22135513
-0.86362934 -0.34228665 0.13115016
-0.083411448 -0.0066247964 8.0839653
-0.88151067 -0.32901967 5.9818659
-1.3403234 -0.5072372 6.913321
-1.1787152 -0.45262343 4.0836482
-1.1142952 -0.43098056 2.8741946
-1.0295357 -0.39983511 2.091301
-0.98652214 -0.38430405 1.6275939
-0.95730668 -0.37349156 1.3069214
-0.44796005 -0.14306898 7.971107
-0.67615974 -0.2441555 6.6616268
-1.2499378 -0.47474706 5.1853442
-1.1448189 -0.43913135 3.388592
-1.0759854 -0.4150745 2.448405
-1.0133373 -0.39231396 1.847569
-0.96607339 -0.37478143 1.4468882
-0.94587249 -0.36769214 1.1784436
-0.93337882 -0.36602488 1.0650293
-0.91581625 -0.35968095 0.87574571
-0.89324808 -0.35099283 0.71384138
-0.90414143 -0.35562894 0.59513074
-0.88942885 -0.35001615 0.47449568
-0.87070817 -0.34281939 0.36499628
-0.85460544 -0.3368187 0.26587209
-0.86619896 -0.34138507 0.17653254
-0.92494488 -0.36122322 0.96555102
-0.90592134 -0.35415098 0.79179901
-0.88891107 -0.34767517 0.64650303
-0.88001841 -0.34472042 0.52437073
-0.87983948 -0.34482196 0.41804129
-0.86897314 -0.34073296 0.31583801
-0.86201215 -0.3380008 0.22135513
-0.86481881 -0.33926994 0.13115016
-0.08343406 -0.0063335961 8.0839653
-0.88192481 -0.32567167 5.9769263
-1.3449466 -0.50362629 6.9280071
-1.1774971 -0.44744605 4.0741048
-1.1121436 -0.4256919 2.8649898
-1.030925 -0.39623892 2.091301
-0.98523188 -0.37984598 1.623461
-0.95561439 -0.36899325 1.3030838
-0.4487322 -0.14159071 7.976099
-0.67700791 -0.24179377 6.6616268
-1.2492341 -0.46949697 5.1756659
-1.1447314 -0.43452027 3.3838992
-1.0753939 -0.41053987 2.4439037
-1.0147005 -0.38877439 1.847569
-0.96737576 -0.37140694 1.4468882
-0.94715023 -0.3643882 1.1784436
-0.93465078 -0.36276454 1.0650293
-0.91343826 -0.35507187 0.87260723
-0.8905707 -0.34635717 0.71109986
-0.90124929 -0.35086378 0.59281194
-0.88632536 -0.34522679 0.47262263
-0.86742985 -0.33803624 0.36358625
-0.85577595 -0.33383352 0.26587209
-0.86738533 -0.33835942 0.17653254
-0.92620021 -0.35799235 0.96555102
-0.90715206 -0.35098654 0.79179901
-0.88609898 -0.34301406 0.64396977
-0.87698478 -0.34000602 0.52227271
-0.88103777 -0.34174865 0.41804129
-0.87015724 -0.3376976 0.31583801
-0.86318678 -0.33498976 0.22135513
-0.86134064 -0.33444077 0.13094862
-0.083455659 -0.0060423184 8.0839653
-0.88305622 -0.32259119 5.9769263
-1.3466965 -0.49892849 6.9280071
-1.1762574 -0.44228271 4.0645604
-1.1081415 -0.41973168 2.851182
-1.0323018 -0.39263791 2.091301
-0.98655176 -0.37640455 1.623461
-0.9568966 -0.36565527 1.3030838
-0.44949955 -0.14010881 7.9810901
-0.67835045 -0.23960631 6.6665978
-1.2473305 -0.46381962 5.1611471
-1.1446257 -0.42991519 3.3792064
-1.0727473 -0.40524524 2.4349012
-1.0136126 -0.3843056 1.843303
-0.96584946 -0.36695784 1.4428982
-0.94524795 -0.35987368 1.1747683
-0.93258226 -0.3582212 1.0615247
-0.91467214 -0.35188121 0.87260723
-0.8917743 -0.34324637 0.71109986
-0.90246856 -0.34771571 0.59281194
-0.88752502 -0.34213084 0.47262263
-0.86412877 -0.33328012 0.36217624
-0.85693598 -0.33084425 0.26587209
-0.86391538 -0.33353603 0.17608546
-0.92395681 -0.35342333 0.9622255
-0.90459692 -0.34637263 0.78885585
-0.88729095 -0.33991891 0.64396977
-0.8739289 -0.33531696 0.52017462
-0.8778168 -0.33697888 0.41639778
-0.86679322 -0.33291543 0.31466568
-0.86435086 -0.33197463 0.22135513
-0.86250281 -0.3314321 0.13094862
-0.083519876 -0.0057512638 8.0889654
-0.88417691 -0.31950679 5.9769263
-1.3446056 -0.4928236 6.9084263
-1.1749959 -0.43713349 4.0550165
-1.1059411 -0.41449007 2.8419769
-1.0314246 -0.38818872 2.0869119
-0.98522687 -0.37196478 1.619328
-0.95516908 -0.36117938 1.2992463
-0.45053804 -0.13870762 7.9910736
-0.67918271 -0.23723696 6.6665978
-1.2454029 -0.45816138 5.1466289
-1.142884 -0.42471516 3.3698208
-1.0721163 -0.40073618 2.4304001
-1.0100641 -0.37893328 1.8347712
-0.96430391 -0.362524 1.4389081
-0.94649839 -0.35657194 1.1747683
-0.93382704 -0.35496369 1.0615247
-0.91589487 -0.34868625 0.87260723
-0.88905942 -0.33864316 0.70835841
-0.89953762 -0.34298527 0.59049314
-0.88438243 -0.33737844 0.47074962
-0.86528689 -0.33026174 0.36217624
-0.85808563 -0.327851 0.26587209
-0.86507434 -0.33051836 0.17608546
-0.92169279 -0.34887436 0.95890003
-0.90580046 -0.3432129 0.78885585
-0.8844412 -0.33529165 0.64143664
-0.87085104 -0.33065343 0.5180766
-0.87457335 -0.33223578 0.41475427
-0.86795008 -0.32988772 0.31466568
-0.86550444 -0.32895547 0.22135513
-0.85898477 -0.32664368 0.13074709
-0.083539449 -0.0054596905 8.0889654
-0.88528681 -0.3164185 5.9769263
-1.344403 -0.48743322 6.8986359
-1.1751137 -0.43251389 4.0502448
-1.1037174 -0.40926892 2.8327718
-1.0327734 -0.38458598 2.0869119
-0.9838832 -0.3675389 1.615195
-0.95342189 -0.35671997 1.2954088
-0.45129588 -0.13721749 7.9960656
-0.68051064 -0.23503846 6.6715693
-1.2434509 -0.45252219 5.1321106
-1.1427399 -0.42012787 3.365128
-1.0714666 -0.39623645 2.4258988
-1.0089356 -0.37449777 1.8305051
-0.96273923 -0.35810539 1.4349182
-0.94456059 -0.35208195 1.1710931
-0.93172234 -0.35044652 1.0580202
-0.91346395 -0.34411505 0.86946881
-0.89023608 -0.33553773 0.70835841
-0.90072936 -0.33984321 0.59049314
-0.88555467 -0.33428931 0.47074962
-0.86643445 -0.3272393 0.36217624
-0.85922486 -0.32485372 0.26587209
-0.8662228 -0.32749668 0.17608546
-0.92290503 -0.34565493 0.95890003
-0.9032082 -0.33863014 0.78591269
-0.88560623 -0.33220232 0.64143664
-0.86775136 -0.3260155 0.51597857
-0.87130749 -0.32751951 0.41311076
-0.86909628 -0.32685599 0.31466568
-0.86201227 -0.32418913 0.22066444
-0.8601197 -0.32364327 0.13074709
-0.083601624 -0.0051680421 8.0939655
-0.88638592 -0.31332633 5.9769263
-1.3441794 -0.4820503 6.8888454
-1.1738108 -0.42738825 4.0407004
-1.1033052 -0.40474111 2.8281696
-1.0318621 -0.38015079 2.0825229
-0.97988099 -0.3621515 1.6069292
-0.95466131 -0.35338974 1.2954088
-0.45204875 -0.13572377 8.0010567
-0.68132699 -0.23266162 6.6715693
-1.2426573 -0.44732779 5.1224318
-1.1409558 -0.41495711 3.3557425
-1.0687542 -0.39099836 2.4168963
-1.0077884 -0.37007481 1.8262392
-0.96115547 -0.35370216 1.4309281
-0.94260299 -0.34760985 1.167418
-0.93293995 -0.34719208 1.0580202
-0.9146595 -0.34092435 0.86946881
-0.89140195 -0.33242816 0.70835841
-0.89776009 -0.33514783 0.58817434
-0.88671619 -0.33119613 0.47074962
-0.86307794 -0.3225337 0.3607662
-0.85575271 -0.32013136 0.26493949
-0.87202501 -0.32621583 0.17653254
-0.92060477 -0.34113407 0.95557451
-0.90438467 -0.33547527 0.78591269
-0.88676041 -0.32910895 0.64143664
-0.86888403 -0.32298449 0.51597857
-0.8724454 -0.32447606 0.41311076
-0.86567646 -0.32212523 0.31349337
-0.86313868 -0.32117817 0.22066444
-0.85656226 -0.31889582 0.13054556
-0.083662786 -0.0048760269 8.0989656
-0.88820779 -0.31048653 5.9818659
-1.3429748 -0.4763346 6.8741593
-1.1738912 -0.42278263 4.0359287
-1.1028748 -0.40022108 2.8235669
-1.0309327 -0.37572673 2.0781338
-0.97849613 -0.35776272 1.6027963
-0.95287925 -0.34895316 1.2915714
-0.45279673 -0.13422646 8.0060482
-0.68213493 -0.23028192 6.6715693
-1.2406586 -0.44172308 5.1079135
-1.1407735 -0.41038796 3.3510499
-1.0701126 -0.38726535 2.4168963
-1.0041714 -0.36477417 1.8177074
-0.96238428 -0.35034496 1.4309281
-0.94062579 -0.34315568 1.1637428
-0.93079948 -0.34270138 1.0545157
-0.91219211 -0.33638299 0.86633033
-0.88863385 -0.3278673 0.70561695
-0.89892447 -0.332012 0.58817434
-0.88351834 -0.32649204 0.46887657
-0.86419851 -0.31951904 0.3607662
-0.86147177 -0.3188473 0.26587209
-0.8731584 -0.32316989 0.17653254
-0.92178994 -0.33791846 0.95557451
-0.90175563 -0.33092397 0.78296953
-0.88790381 -0.32601157 0.64143664
-0.86574656 -0.31838316 0.51388049
-0.8691411 -0.31979814 0.41146725
-0.86679554 -0.31910148 0.31349337
-0.85960734 -0.31645256 0.21997377
-0.85767019 -0.3159039 0.13054556
-0.083679296 -0.0045839595 8.0989656
-0.88928616 -0.30738422 5.9818659
-1.3417467 -0.47063324 6.8594737
-1.1725473 -0.41768095 4.0263848
-1.1024262 -0.39570904 2.8189645
-1.0299847 -0.37131375 2.0737445
-0.97709274 -0.35338807 1.5986633
-0.95409155 -0.34562489 1.2915714
-0.45353976 -0.13272558 8.0110407
-0.68293464 -0.22789942 6.6715693
-1.2398217 -0.43655509 5.0982351
-1.1389474 -0.40524676 3.3416643
-1.0694082 -0.38279411 2.4123952
-1.002984 -0.360385 1.8134414
-0.96076626 -0.34596276 1.4269381
-0.94181788 -0.33987021 1.1637428
-0.93199009 -0.33945021 1.0545157
-0.91336071 -0.33319676 0.86633033
-0.88977295 -0.32476339 0.70561695
-0.89591718 -0.32735199 0.58585554
-0.88465261 -0.32340601 0.46887657
-0.86530858 -0.31650048 0.3607662
-0.85335398 -0.31246036 0.26400685
-0.87428117 -0.32012004 0.17653254
-0.92296386 -0.33469877 0.95557451
-0.90290529 -0.32777423 0.78296953
-0.88903642 -0.32291022 0.64143664
-0.86685264 -0.31535918 0.51388049
-0.87025207 -0.31676233 0.41146725
-0.86333704 -0.31441066 0.31232107
-0.85605365 -0.31175554 0.21928309
-0.85876763 -0.31290817 0.13054556
-0.083694786 -0.0042918357 8.0989656
-0.89035374 -0.30427817 5.9818659
-1.3414572 -0.46527979 6.8496833
-1.1725901 -0.41308963 4.0216126
-1.1019596 -0.39120501 2.8143618
-1.0290188 -0.36691201 2.0693557
-0.9756707 -0.34902754 1.5945303
-0.95227468 -0.34121138 1.2877338
-0.45400029 -0.13114162 8.0110407
-0.68423229 -0.22568081 6.6765409
-1.2389637 -0.43139827 5.0885558
-1.1387269 -0.40069598 3.3369715
-1.0686857 -0.37833253 2.4078939
-1.0017784 -0.35600859 1.8091755
-0.95912933 -0.34159616 1.4229481
-0.93980557 -0.33544111 1.1600677
-0.9298141 -0.33498624 1.0510111
-0.9108569 -0.32868549 0.8631919
-0.89090115 -0.32165554 0.70561695
-0.89705443 -0.32422268 0.58585554
-0.8857761 -0.32031602 0.46887657
-0.86640805 -0.31347805 0.3607662
-0.87753272 -0.31784391 0.26866996
-0.87071097 -0.31537038 0.17608546
-0.92412657 -0.33147499 0.95557451
-0.90404397 -0.32462052 0.78296953
-0.89015812 -0.31980494 0.64143664
-0.86794817 -0.31233138 0.51388049
-0.87135249 -0.31372264 0.41146725
-0.86442924 -0.31139511 0.31232107
-0.85713661 -0.30876544 0.21928309
-0.85515475 -0.30821466 0.13034403
-0.083665639 -0.0040002773 8.0939655
-0.89141047 -0.30116838 5.9818659
-1.3401836 -0.45960394 6.8349977
-1.1726154 -0.40850314 4.0168409
-1.1014751 -0.38670909 2.8097594
-1.0280344 -0.3625215 2.0649664
-0.97423005 -0.34468126 1.5903975
-0.95345998 -0.33788523 1.2877338
-0.4547331 -0.12963463 8.0160322
-0.68552291 -0.22345594 6.6815128
-1.2380849 -0.42625284 5.0788774
-1.1368591 -0.39558476 3.3275859
-1.0679451 -0.37388065 2.4033928
-1.0005544 -0.35164499 1.8049095
-0.9574737 -0.3372452 1.4189581
-0.94097078 -0.33215857 1.1600677
-0.92761844 -0.3305417 1.0475066
-0.91199869 -0.325504 0.8631919
-0.8880806 -0.31713763 0.70287549
-0.89400935 -0.31959832 0.58353674
-0.88252372 -0.31566089 0.46700355
-0.86749703 -0.31045181 0.3607662
-0.86938787 -0.31146535 0.26680472
-0.8718065 -0.31232911 0.17608546
-0.92175901 -0.32699895 0.95224905
-0.90136254 -0.32011023 0.78002638
-0.89533103 -0.31813899 0.64396977
-0.8690331 -0.30929977 0.51388049
-0.87244225 -0.31067917 0.41146725
-0.86093223 -0.30674449 0.31114873
-0.85354441 -0.3041096 0.21859241
-0.85622543 -0.30522776 0.13034403
-0.083679087 -0.0037082057 8.0939655
-0.89245629 -0.29805496 5.9818659
-1.3388867 -0.45394266 6.820312
-1.1726228 -0.40392146 4.0120687
-1.1009725 -0.38222128 2.8051567
-1.0270321 -0.35814238 2.0605774
-0.97542733 -0.34127849 1.5903975
-0.95463359 -0.334555 1.2877338
-0.45518282 -0.12804653 8.0160322
-0.68680614 -0.22122477 6.6864839
-1.2371852 -0.42111874 5.0691981
-1.1366011 -0.39105269 3.3228931
-1.0671865 -0.36943859 2.3988914
-0.99931234 -0.3472943 1.8006437
-0.95864511 -0.33390096 1.4189581
-0.93892366 -0.32775477 1.1563925
-0.92876655 -0.32730168 1.0475066
-0.90945899 -0.32102314 0.86005342
-0.88918221 -0.31403571 0.70287549
-0.89511955 -0.31647569 0.58353674
-0.88362014 -0.31257841 0.46700355
-0.86857545 -0.3074218 0.3607662
-0.85657918 -0.30350712 0.26400685
-0.86819738 -0.30762088 0.17563838
-0.92289478 -0.3237794 0.95224905
-0.90247446 -0.31696197 0.78002638
-0.89643615 -0.31501177 0.64396977
-0.86582637 -0.3047576 0.51178247
-0.87352145 -0.30763188 0.41146725
-0.86199766 -0.3037374 0.31114873
-0.85460073 -0.30112833 0.21859241
-0.85728562 -0.30223709 0.13034403
-0.083647899 -0.0034170095 8.0889654
-0.89349127 -0.29493788 5.9818659
-1.3375667 -0.44829607 6.8056264
-1.1711994 -0.39886364 4.0025249
-1.1004521 -0.37774172 2.800554
-1.0260116 -0.35377461 2.0561883
-0.97395331 -0.33695167 1.5862645
-0.95276695 -0.33017132 1.2838963
-0.45590541 -0.12653349 8.0210238
-0.68808222 -0.21898738 6.6914554
-1.2374564 -0.41639692 5.0643587
-1.1363254 -0.38652727 3.3182003
-1.0664097 -0.36500633 2.3943901
-0.99805194 -0.34295657 1.7963778
-0.95695561 -0.32957155 1.414968
-0.94006205 -0.32447532 1.1563925
-0.92653573 -0.32288426 1.0440021
-0.91057402 -0.31784657 0.86005342
-0.8863253 -0.30955139 0.70013404
-0.89203709 -0.31188726 0.58121794
-0.88033003 -0.30796137 0.46513051
-0.86511552 -0.30280331 0.35935616
-0.86456609 -0.30294165 0.1751913
-0.92049181 -0.31933233 0.94892353
-0.90357536 -0.31380981 0.78002638
-0.90160233 -0.31329554 0.64650303
-0.86688489 -0.30173346 0.51178247
-0.87013042 -0.30302787 0.40982375
-0.85846269 -0.29912731 0.3099764
-0.85097033 -0.29651397 0.21790172
-0.85833538 -0.29924276 0.13034403
-0.083659321 -0.0031250035 8.0889654
-0.89451534 -0.29181719 5.9818659
-1.3362236 -0.44266418 6.7909408
-1.1711698 -0.39429685 3.9977524
-1.099914 -0.37327048 2.7959518
-1.0249735 -0.34941843 2.0517993
-0.97246093 -0.33263931 1.5821315
-0.95391369 -0.3268435 1.2838963
-0.45634428 -0.1249413 8.0210238
-0.68935108 -0.21674377 6.6964269
-1.2365168 -0.41128173 5.0546799
-1.136032 -0.38200855 3.3135076
-1.0656153 -0.36058408 2.389889
-0.99677366 -0.3386319 1.7921119
-0.95810026 -0.32622916 1.414968
-0.93798041 -0.32009715 1.1527174
-0.92765713 -0.31964809 1.0440021
-0.91167796 -0.31466615 0.86005342
-0.88740045 -0.30645567 0.70013404
-0.88893366 -0.30732426 0.57889915
-0.88139963 -0.30488655 0.46513051
-0.86616725 -0.29978168 0.35935616
-0.86091274 -0.29829156 0.17474423
-0.92160088 -0.31611726 0.94892353
-0.90084237 -0.30934122 0.77708322
-0.90269047 -0.31014648 0.64650303
-0.86793286 -0.29870564 0.51178247
-0.87118292 -0.29998869 0.40982375
-0.8595016 -0.2961289 0.3099764
-0.85200012 -0.29354176 0.21790172
-0.8593747 -0.2962448 0.13034403
-0.083669715 -0.0028329587 8.0889654
-0.8955285 -0.28869298 5.9818659
-1.3348575 -0.43704721 6.7762551
-1.1697062 -0.38926399 3.9882088
-1.099358 -0.36880761 2.7913492
-1.0239172 -0.34507376 2.0474102
-0.97095031 -0.32834145 1.5779986
-0.9520129 -0.32248357 1.2800589
-0.45649877 -0.12327293 8.0160322
-0.6911217 -0.21465178 6.7063699
-1.2367507 -0.40657055 5.0498405
-1.1357208 -0.37749663 3.308815
-1.0627383 -0.35548142 2.3808868
-0.9930048 -0.33349016 1.7835798
-0.95637727 -0.32192168 1.410978
-0.93587971 -0.31573749 1.1490422
-0.92876726 -0.31640801 1.0440021
-0.90908688 -0.31022489 0.85691494
-0.88846475 -0.3033562 0.70013404
-0.88161761 -0.30135408 0.57426155
-0.87807196 -0.30030793 0.46325746
-0.86266965 -0.29520327 0.35794613
-0.88294613 -0.30248043 0.26866996
-0.86194873 -0.29528457 0.17474423
-0.91916269 -0.31169942 0.94559801
-0.90191668 -0.30619481 0.77708322
-0.90376759 -0.3069936 0.64650303
-0.86897022 -0.29567415 0.51178247
-0.87222475 -0.29694587 0.40982375
-0.85592908 -0.29155964 0.30880409
-0.8530196 -0.29056591 0.21790172
-0.8604036 -0.29324323 0.13034403
-0.083679095 -0.0025408792 8.0889654
-0.89653075 -0.28556526 5.9818659
-1.3324997 -0.43113187 6.7566743
-1.1682218 -0.38424611 3.9786646
-1.0969298 -0.36373845 2.7821441
-1.0228434 -0.34074074 2.0430212
-0.97209054 -0.32495019 1.5779986
-0.95313281 -0.31915846 1.2800589
-0.45692626 -0.1216787 8.0160322
-0.69237649 -0.21239403 6.7113414
-1.2357714 -0.40147462 5.0401616
-1.1353921 -0.37299147 3.304122
-1.0619056 -0.35108638 2.3763855
-0.99168754 -0.32920039 1.7793139
-0.95463592 -0.3176302 1.406988
-0.93697613 -0.31246871 1.1490422
-0.92648631 -0.31202599 1.0404975
-0.91016424 -0.30704972 0.85691494
-0.88951826 -0.30025303 0.70013404
-0.87846744 -0.29685676 0.57194275
-0.87911493 -0.29724106 0.46325746
-0.86369485 -0.29219019 0.35794613
-0.87934399 -0.29782081 0.26773736
-0.85825741 -0.29067656 0.17429715
-0.92024517 -0.30848905 0.94559801
-0.89914799 -0.30175877 0.77414006
-0.90483367 -0.303837 0.64650303
-0.8656953 -0.29119223 0.50968438
-0.86878043 -0.29239324 0.40818024
-0.85694158 -0.28857014 0.30880409
-0.8540287 -0.28758657 0.21790172
-0.86142194 -0.29023808 0.13034403
-0.083687454 -0.0022487699 8.0889654
-0.89752209 -0.28243405 5.9818659
-1.3320568 -0.42585811 6.7468839
-1.1667168 -0.37924343 3.969121
-1.0944797 -0.35869071 2.772939
-1.0240265 -0.33716831 2.0430212
-0.97054684 -0.32067236 1.5738657
-0.9511981 -0.31482252 1.2762213
-0.45706883 -0.12001026 8.0110407
-0.69617522 -0.21090139 6.7411709
-1.2359685 -0.39677447 5.0353222
-1.1350458 -0.36849326 3.2994294
-1.0589861 -0.34602556 2.367383
-0.99035245 -0.3249239 1.775048
-0.9557389 -0.31429598 1.406988
-0.93484133 -0.30813506 1.145367
-0.92756981 -0.30879006 1.0404975
-0.90753806 -0.30263957 0.85377645
-0.89056093 -0.2971462 0.70013404
-0.87949836 -0.29378852 0.57194275
-0.87575024 -0.29270107 0.46138445
-0.86016005 -0.28765225 0.35653609
-0.86640382 -0.29007101 0.26493949
-0.85926682 -0.2876789 0.17429715
-0.91777211 -0.30410069 0.94227254
-0.90019584 -0.29861832 0.77414006
-0.9058888 -0.3006767 0.64650303
-0.86670649 -0.28816861 0.50968438
-0.86979574 -0.28935885 0.40818024
-0.85794365 -0.28557709 0.30880409
-0.85502732 -0.28460369 0.21790172
-0.8624298 -0.28722936 0.13034403
-0.083694793 -0.0019566319 8.0889654
-0.89850259 -0.27929938 5.9818659
-1.3277093 -0.41936663 6.7175121
-1.1666123 -0.3747122 3.9643488
-1.0920078 -0.35366455 2.7637341
-1.0229197 -0.33285084 2.0386319
-0.97166026 -0.31728253 1.5738657
-0.95229119 -0.31150031 1.2762213
-0.45748499 -0.11841407 8.0110407
-0.6994611 -0.20923233 6.7660284
-1.2349495 -0.391698 5.0256433
-1.1330388 -0.36347511 3.2900438
-1.0581158 -0.3416582 2.3628819
-0.99148065 -0.32146493 1.775048
-0.95396435 -0.31002676 1.402998
-0.93591124 -0.30486995 1.145367
-0.9252544 -0.30443591 1.036993
-0.90858895 -0.29946986 0.85377645
-0.89159274 -0.29403576 0.70013404
-0.87631202 -0.28932801 0.56962395
-0.87236464 -0.28818828 0.4595114
-0.86115897 -0.28464797 0.35653609
-0.85342038 -0.28241527 0.26214162
-0.86026579 -0.28467777 0.17429715
-0.91882801 -0.30089521 0.94227254
-0.89739186 -0.29421514 0.7711969
-0.90693277 -0.29751271 0.64650303
-0.86339533 -0.2837247 0.5075863
-0.87080055 -0.28632095 0.40818024
-0.85893524 -0.28258055 0.30880409
-0.85601556 -0.28161734 0.21790172
-0.86342716 -0.28421718 0.13034403
-0.083698079 -0.0018105543 8.0889654
-0.89973104 -0.27795988 5.9868045
-1.3244807 -0.41606063 6.6979313
-1.1643555 -0.3719711 3.9548051
-1.090641 -0.35154033 2.7591317
-1.0233834 -0.33142224 2.0386319
-0.96937114 -0.31522518 1.5697327
-0.94962341 -0.30934402 1.2723838
-0.45758814 -0.11801478 8.0110407
-0.70321983 -0.209686 6.8008285
-1.2328256 -0.39007771 5.0159645
-1.1316485 -0.36215815 3.285351
-1.0562226 -0.34043646 2.3583806
-0.98916751 -0.32014289 1.7707821
-0.95407254 -0.30969375 1.402998
-0.9327938 -0.30349451 1.1416919
-0.92578435 -0.30282059 1.036993
-0.90535963 -0.29682979 0.85063797
-0.88808036 -0.29133165 0.69739258
-0.87671512 -0.28810415 0.56962395
-0.8727662 -0.28696993 0.4595114
-0.8615061 -0.28359565 0.35653609
-0.85843027 -0.28290993 0.26307425
-0.85588324 -0.28206784 0.17385007
-0.91554075 -0.29893449 0.93894702
-0.89759701 -0.29358858 0.7711969
-0.90714025 -0.2968795 0.64650303
-0.85928053 -0.28170809 0.50548828
-0.87095034 -0.28586495 0.40818024
-0.85908312 -0.28213078 0.30880409
-0.85611385 -0.28131852 0.21790172
-0.86352634 -0.28391579 0.13034403
-0.083660297 -0.0015202931 8.0839653
-0.90143919 -0.27504408 5.991744
-1.3152984 -0.40788761 6.644084
-1.1642873 -0.36725211 3.9500329
-1.0882592 -0.3461659 2.7499266
-1.0223671 -0.32676136 2.0342431
-0.97062868 -0.31133136 1.5697327
-0.95085758 -0.30552951 1.2723838
-0.45809871 -0.11601707 8.0110407
-0.71282488 -0.20916204 6.8853445
-1.2321827 -0.38373211 5.0062857
-1.1316344 -0.35650086 3.2806582
-1.05574 -0.33479753 2.3538795
-0.98817998 -0.31468681 1.7665161
-0.95270395 -0.30411148 1.3990079
-0.93426573 -0.29893243 1.1416919
-0.92683578 -0.29958713 1.036993
-0.90644145 -0.29350951 0.85063797
-0.88914222 -0.2880747 0.69739258
-0.87781495 -0.28473568 0.56962395
-0.87386161 -0.28361663 0.4595114
-0.85807496 -0.27865347 0.35512605
-0.859559 -0.27946168 0.26307425
-0.85700858 -0.27862981 0.17385007
-0.91683644 -0.29493687 0.93894702
-0.89507258 -0.28827339 0.76825374
-0.90847814 -0.29275998 0.64650303
-0.86054999 -0.27780589 0.50548828
-0.87228781 -0.28175753 0.40818024
-0.86040306 -0.27807933 0.30880409
-0.85747838 -0.27713141 0.21790172
-0.86490351 -0.27969241 0.13034403
-0.083666921 -0.0010968328 8.0839653
-0.90361136 -0.27054304 5.9966831
-1.3096229 -0.39862442 6.6049218
-1.1634053 -0.36006504 3.9404888
-1.0882511 -0.33969086 2.7453239
-1.0195496 -0.31979188 2.025465
-0.96966797 -0.30506119 1.5655998
-0.94949204 -0.29925087 1.2685463
-0.45905951 -0.11336524 8.0160322
-0.72379023 -0.20771667 6.9798026
-1.2332358 -0.37604707 5.0014462
-1.133791 -0.34958148 3.2806582
-1.0556862 -0.32769695 2.3493781
-0.99008387 -0.3086445 1.7665161
-0.95171964 -0.29722139 1.395018
-0.93612552 -0.2930564 1.1416919
-0.92834026 -0.29489219 1.036993
-0.90796584 -0.28875938 0.85063797
-0.89063835 -0.28341523 0.69739258
-0.8792938 -0.28013557 0.56962395
-0.8709662 -0.27747732 0.45763838
-0.85957009 -0.27400678 0.35512605
-0.8611064 -0.27465665 0.26307425
-0.85859919 -0.27368921 0.17385007
-0.91495895 -0.28852862 0.93562156
-0.8967675 -0.28295687 0.76825374
-0.90608847 -0.28606609 0.64396977
-0.85790348 -0.27117619 0.50339019
-0.87404084 -0.27627125 0.40818024
-0.86213332 -0.2726678 0.30880409
-0.85920268 -0.27173829 0.21790172
-0.86669159 -0.27410132 0.13034403
-0.083669655 -0.0008631869 8.0839653
-0.90580648 -0.26861781 6.0065618
-1.2921388 -0.38961259 6.5119128
-1.1628546 -0.3567836 3.9357171
-1.0872116 -0.33645338 2.7407215
-1.0180408 -0.31658864 2.0210757
-0.9703576 -0.30286029 1.5655998
-0.95016855 -0.29709578 1.2685463
-0.45927632 -0.11248371 8.0160322
-0.73598069 -0.20967938 7.0941477
-1.2315494 -0.37295046 4.9917674
-1.1327493 -0.34709671 3.2759655
-1.0562565 -0.32585394 2.3493781
-0.98812979 -0.30614439 1.7622502
-0.95218539 -0.29572609 1.395018
-0.93334776 -0.29057798 1.1380167
-0.925758 -0.29122859 1.0334884
-0.90500629 -0.28521156 0.84749955
-0.89137733 -0.28108257 0.69739258
-0.88002414 -0.27783263 0.56962395
-0.87164158 -0.27534834 0.45763838
-0.855663 -0.27045995 0.35371602
-0.86172736 -0.27270219 0.26307425
-0.8591705 -0.27189037 0.17385007
-0.91556126 -0.28661174 0.93562156
-0.89345199 -0.28002596 0.76531059
-0.906636 -0.28432599 0.64396977
-0.85837549 -0.26967844 0.50339019
-0.86996889 -0.27348194 0.40653673
-0.86719716 -0.27277163 0.3099764
-0.85490459 -0.26890251 0.21721105
-0.86230797 -0.27139112 0.1301425
-0.083672158 -0.00057112018 8.0839653
-0.90823013 -0.26589048 6.0164404
-1.2515261 -0.37261349 6.3014178
-1.1626642 -0.35228962 3.9309452
-1.0865109 -0.33208537 2.7361188
-1.0168502 -0.31233007 2.0166867
-0.96871966 -0.2986424 1.5614668
-0.94813728 -0.29283157 1.2647089
-0.45994696 -0.11094695 8.0210238
-0.74132729 -0.20840484 7.1388912
-1.230435 -0.36792937 4.9820886
-1.1323023 -0.34264094 3.2712729
-1.0553051 -0.32153064 2.344877
-0.98669857 -0.30193037 1.7579843
-0.95033097 -0.29151702 1.3910279
-0.93435639 -0.28731823 1.1380167
-0.92676896 -0.28799531 1.0334884
-0.90599638 -0.28205073 0.84749955
-0.89235306 -0.27796939 0.69739258
-0.8809886 -0.27475908 0.56962395
-0.8725974 -0.27230406 0.45763838
-0.85660189 -0.26747146 0.35371602
-0.862674 -0.26969251 0.26307425
-0.86011434 -0.26888964 0.17385007
-0.91298896 -0.2823112 0.93229604
-0.89442402 -0.27690554 0.76531059
-0.90350521 -0.27988404 0.64143664
-0.85931164 -0.26668051 0.50339019
-0.87091827 -0.2704435 0.40653673
-0.86814404 -0.26974288 0.3099764
-0.855838 -0.26591671 0.21721105
-0.86325008 -0.26837942 0.1301425
-0.083716936 -0.00034954507 8.0889654
-0.90966958 -0.26372799 6.0213799
-1.2124535 -0.35753497 6.1007137
-1.1621528 -0.34881559 3.926173
-1.0854495 -0.32886323 2.7315164
-1.0153191 -0.30914709 2.0122976
-0.96944648 -0.29627448 1.5614668
-0.94879931 -0.2906796 1.2647089
-0.46019754 -0.10990308 8.0210238
-0.74744749 -0.2082932 7.1935773
-1.2287928 -0.36463672 4.9724097
-1.1297119 -0.33927634 3.2618873
-1.0538924 -0.31868976 2.3403757
-0.98727638 -0.30003548 1.7579843
-0.94800639 -0.28881401 1.3870379
-0.93166387 -0.2845338 1.1343416
-0.92411137 -0.28451881 1.0299838
-0.90301228 -0.27853081 0.84436107
-0.88903427 -0.27455443 0.69465113
-0.8816573 -0.2726056 0.56962395
-0.8732602 -0.27017108 0.45763838
-0.85262424 -0.26410788 0.35230598
-0.86333036 -0.26758382 0.26307425
-0.8607688 -0.26678717 0.17385007
-0.91357827 -0.28039846 0.93229604
-0.89500207 -0.27503166 0.76531059
-0.90408939 -0.27799115 0.64143664
-0.85986829 -0.26488018 0.50339019
-0.87148273 -0.26861885 0.40653673
-0.86870712 -0.26792404 0.3099764
-0.85634696 -0.26427311 0.21721105
-0.86376375 -0.26672161 0.1301425
-0.083717644 -5.7317047e-05 8.0889654
-0.91282582 -0.26119158 6.0361972
-1.1921852 -0.34704348 5.9930191
-1.1605008 -0.34390894 3.9166293
-1.0847756 -0.32432321 2.7269139
-1.0141517 -0.30473465 2.0079086
-0.96783167 -0.29190689 1.5573338
-0.94684011 -0.28610736 1.2608713
-0.4608973 -0.10820062 8.0260153
-0.75441116 -0.20711175 7.2532353
-1.2266272 -0.35864338 4.9578919
-1.1294098 -0.33424911 3.2571945
-1.0530769 -0.31383508 2.3358746
-0.98602587 -0.29514965 1.7537184
-0.9492079 -0.28484049 1.3870379
-0.93284756 -0.28062877 1.1343416
-0.9250989 -0.28129134 1.0299838
-0.903979 -0.27537701 0.84436107
-0.89003462 -0.27129415 0.69465113
-0.88265055 -0.26937234 0.56962395
-0.8698107 -0.26561475 0.45576534
-0.85363203 -0.2608321 0.35230598
-0.86430538 -0.26441774 0.26307425
-0.86174083 -0.26363051 0.17385007
-0.91469646 -0.27672887 0.93229604
-0.89223039 -0.27026504 0.76236743
-0.90107256 -0.27310941 0.63890344
-0.86092466 -0.26142633 0.50339019
-0.86803585 -0.26374564 0.40489322
-0.86977559 -0.26443467 0.3099764
-0.85744643 -0.26068375 0.21721105
-0.86009365 -0.26164716 0.12994097
-0.083717339 0.00023491301 8.0889654
-0.91522765 -0.25842544 6.0460763
-1.1865387 -0.34091285 5.9587522
-1.1602615 -0.33943695 3.9118571
-1.0840273 -0.31998175 2.7223115
-1.0129131 -0.30051172 2.0035193
-0.96614772 -0.28772378 1.553201
-0.94476157 -0.28188428 1.2570338
-0.46127218 -0.10659114 8.0260153
-0.7582171 -0.20531137 7.2830648
-1.2254561 -0.35366273 4.9482126
-1.1289133 -0.32982096 3.2525017
-1.0520774 -0.30954292 2.3313732
-0.98705018 -0.291706 1.7537184
-0.94730717 -0.2806696 1.3830478
-0.93057162 -0.27640569 1.1306664
-0.92607516 -0.27806044 1.0299838
-0.90120739 -0.27109876 0.84122264
-0.88697213 -0.26698059 0.69190961
-0.87934399 -0.26501152 0.56730521
-0.87073255 -0.26257691 0.45576534
-0.85453731 -0.25785077 0.35230598
-0.86522305 -0.26139915 0.26307425
-0.86265582 -0.26062086 0.17385007
-0.91565686 -0.27353427 0.93229604
-0.89316839 -0.26714894 0.76236743
-0.90202034 -0.2699624 0.63890344
-0.85748458 -0.25711614 0.50129217
-0.8689512 -0.26071402 0.40489322
-0.86603802 -0.25999942 0.30880409
-0.85360825 -0.25626525 0.21652037
-0.86100179 -0.2586433 0.12994097
-0.083716005 0.00052713894 8.0889654
-0.92435831 -0.25752041 6.1004076
-1.185762 -0.33621383 5.9489617
-1.158571 -0.33455694 3.9023132
-1.0813863 -0.31510314 2.7131064
-1.013956 -0.29697415 2.0035193
-0.96444637 -0.28355598 1.549068
-0.94573975 -0.27858475 1.2570338
-0.46192309 -0.10504376 8.0310068
-0.76356488 -0.20389864 7.3278079
-1.2230563 -0.34835052 4.9336944
-1.1267414 -0.32492235 3.2431161
-1.051061 -0.30526164 2.3268721
-0.98555869 -0.28752851 1.7494525
-0.94828111 -0.27736115 1.3830478
-0.93153077 -0.27315572 1.1306664
-0.92362094 -0.27381268 1.0264792
-0.90214819 -0.26795131 0.84122264
-0.88389039 -0.26269174 0.6891681
-0.88026375 -0.26194045 0.56730521
-0.87164384 -0.25953588 0.45576534
-0.85543221 -0.25486633 0.35230598
-0.86142296 -0.25697318 0.26214162
-0.85878813 -0.25618449 0.17340299
-0.91660607 -0.27033636 0.93229604
-0.89021891 -0.26288494 0.75942427
-0.9029572 -0.26681212 0.63890344
-0.85837686 -0.25412136 0.50129217
-0.86985594 -0.25767922 0.40489322
-0.86694032 -0.25697482 0.30880409
-0.85449755 -0.25328404 0.21652037
-0.86189938 -0.25563625 0.12994097
-0.083670132 0.00081623171 8.0839653
-0.94098651 -0.25861159 6.2041321
-1.187909 -0.33234686 5.9538565
-1.1582961 -0.33010179 3.897541
-1.0806019 -0.31078666 2.7085037
-1.0126855 -0.292768 1.9991302
-0.96543032 -0.2801877 1.549068
-0.94362861 -0.27438703 1.2531964
-0.46256879 -0.10349315 8.0359983
-0.76324087 -0.20096119 7.3178649
-1.2218446 -0.34339926 4.9240155
-1.1262089 -0.32051513 3.2384233
-1.0521202 -0.30159089 2.3268721
-0.98655629 -0.28408653 1.7494525
-0.94924355 -0.27404937 1.3830478
-0.92922205 -0.26896 1.1269913
-0.92457104 -0.27058697 1.0264792
-0.90307802 -0.26480061 0.84122264
-0.88480198 -0.25960478 0.6891681
-0.88117272 -0.25886616 0.56730521
-0.87254447 -0.25649172 0.45576534
-0.85631663 -0.25187874 0.35230598
-0.8623147 -0.25396466 0.26214162
-0.85967714 -0.25318521 0.17340299
-0.91395921 -0.26609161 0.92897052
-0.8911311 -0.25977591 0.75942427
-0.9038831 -0.26365858 0.63890344
-0.85925871 -0.25112352 0.50129217
-0.86621773 -0.25331593 0.40324971
-0.86316699 -0.25258201 0.30763176
-0.85062373 -0.24890906 0.21582969
-0.86278647 -0.25262609 0.12994097
-0.083664708 0.0012543142 8.0839653
-0.95737964 -0.25754911 6.3029175
-1.1887078 -0.32564595 5.9489617
-1.1572459 -0.32282567 3.8879972
-1.0804404 -0.30421734 2.7039013
-1.0120004 -0.28645548 1.9947413
-0.96432096 -0.27385402 1.544935
-0.94519335 -0.2689476 1.2531964
-0.46319237 -0.10066555 8.0359983
-0.76552129 -0.19642606 7.3278079
-1.2215537 -0.33505085 4.9143367
-1.1282005 -0.31343266 3.2384233
-1.0519491 -0.29420421 2.3223708
-0.98585939 -0.27700442 1.7451864
-0.94809306 -0.26709685 1.3790579
-0.93098545 -0.26279131 1.1269913
-0.92254722 -0.26475862 1.0229747
-0.90075654 -0.25883579 0.83808416
-0.88217491 -0.25365841 0.68642664
-0.88256043 -0.25409478 0.56730521
-0.87841839 -0.25289702 0.45763838
-0.85771 -0.24709226 0.35230598
-0.85904306 -0.24763332 0.26120901
-0.86116445 -0.24807934 0.17340299
-0.91556758 -0.26050362 0.92897052
-0.89270133 -0.25432748 0.75942427
-0.90137589 -0.25679314 0.63637024
-0.86086243 -0.24556948 0.50129217
-0.86783552 -0.2477169 0.40324971
-0.86482322 -0.24685177 0.30763176
-0.85225588 -0.24326208 0.21582969
-0.86448604 -0.24674751 0.12994097
-0.08365982 0.0015463515 8.0839653
-0.9709962 -0.25775823 6.3868847
-1.1897812 -0.3217023 5.9489617
-1.1568154 -0.31879213 3.8832252
-1.0795084 -0.30029809 2.6992986
-1.0105888 -0.28262991 1.990352
-0.96512932 -0.27099162 1.544935
-0.94290161 -0.26527411 1.2493588
-0.46373671 -0.099512555 8.0409908
-0.76548225 -0.19442403 7.3228369
-1.2199425 -0.3314063 4.9046578
-1.1272992 -0.31021732 3.2337308
-1.0484183 -0.29065382 2.3133683
-0.98648536 -0.27476689 1.7451864
-0.94869661 -0.264945 1.3790579
-0.92826909 -0.25992689 1.123316
-0.92346579 -0.26153672 1.0229747
-0.90160996 -0.25584733 0.83808416
-0.88301128 -0.25073162 0.68642664
-0.88339818 -0.2511667 0.56730521
-0.87920856 -0.25013614 0.45763838
-0.858482 -0.24439649 0.35230598
-0.85977405 -0.24508339 0.26120901
-0.86185384 -0.24567357 0.17340299
-0.91624647 -0.25810578 0.92897052
-0.89336413 -0.25198951 0.75942427
-0.90200067 -0.25458992 0.63637024
-0.86141741 -0.24361561 0.50129217
-0.86839533 -0.24574719 0.40324971
-0.86533833 -0.24503994 0.30763176
-0.85276347 -0.24147658 0.21582969
-0.86015141 -0.24372539 0.12973943
-0.083653912 0.0018383685 8.0839653
-0.98692489 -0.25829753 6.4856696
-1.189913 -0.31728506 5.9440665
-1.1564807 -0.31436077 3.8784533
-1.0786661 -0.29601124 2.6946962
-1.0092603 -0.27846375 1.9859631
-0.96335745 -0.26686999 1.5408021
-0.94382185 -0.26198113 1.2493588
-0.46408126 -0.097893208 8.0409908
-0.76615626 -0.19175081 7.3228369
-1.2186636 -0.32649568 4.894979
-1.1267097 -0.30582857 3.2290378
-1.0473266 -0.28641835 2.3088672
-0.98492372 -0.27063093 1.7409205
-0.94671065 -0.26083162 1.3750678
-0.92917073 -0.25668505 1.123316
-0.92093837 -0.25735199 1.0194702
-0.90249747 -0.25269857 0.83808416
-0.87985474 -0.24651985 0.68368518
-0.88426954 -0.24808155 0.56730521
-0.87561291 -0.24581268 0.45576534
-0.85471159 -0.24010105 0.35089597
-0.86062425 -0.24208073 0.26120901
-0.85791218 -0.24131522 0.17295592
-0.9171418 -0.25490591 0.92897052
-0.89423829 -0.24886955 0.75942427
-0.89457828 -0.24912708 0.63130391
-0.86663407 -0.24182695 0.50339019
-0.8646996 -0.24144456 0.4016062
-0.861507 -0.2407099 0.30645946
-0.85360116 -0.23849839 0.21582969
-0.86099696 -0.24072142 0.12973943
-0.083646983 0.0021303643 8.0839653
-1.006631 -0.25969818 6.6091514
-1.1910133 -0.31312957 5.9440665
-1.156129 -0.30993563 3.8736811
-1.0796928 -0.2922442 2.6946962
-1.0079151 -0.27431032 1.9815739
-0.96428311 -0.26350561 1.5408021
-0.94163913 -0.25783867 1.2455213
-0.46442014 -0.096272662 8.0409908
-0.76682091 -0.18907526 7.3228369
-1.217365 -0.32159799 4.8853002
-1.1261034 -0.30144769 3.2243452
-1.0420144 -0.28106055 2.2953637
-0.98334509 -0.26650921 1.7366546
-0.94470745 -0.25673532 1.3710777
-0.92679018 -0.25254893 1.1196409
-0.92183113 -0.25413576 1.0194702
-0.90337408 -0.24954674 0.83808416
-0.88070989 -0.24344707 0.68368518
-0.88513011 -0.24499336 0.56730521
-0.87646562 -0.24275473 0.45576534
-0.85554451 -0.23711608 0.35089597
-0.86146408 -0.23907511 0.26120901
-0.85874933 -0.23831907 0.17295592
-0.91802603 -0.25170296 0.92897052
-0.89510155 -0.24574658 0.75942427
-0.89128566 -0.24486104 0.62877071
-0.86747295 -0.23880038 0.50339019
-0.86553717 -0.23842472 0.4016062
-0.86234206 -0.23770124 0.30645946
-0.8592025 -0.2368332 0.21652037
-0.85701585 -0.23638611 0.12953791
-0.083639041 0.0024223337 8.0839653
-1.0112969 -0.25713912 6.6338477
-1.1920991 -0.30897024 5.9440665
-1.1557606 -0.30551675 3.8689091
-1.0788187 -0.28796992 2.6900938
-1.0065534 -0.27016971 1.977185
-0.96247995 -0.25940591 1.5366691
-0.94253343 -0.25455016 1.2455213
-0.46503636 -0.094707958 8.0459814
-0.76747626 -0.1863974 7.3228369
-1.2172637 -0.31702998 4.8804607
-1.1254802 -0.29707479 3.2196524
-1.0387814 -0.27630273 2.2863612
-0.98174965 -0.26240182 1.7323887
-0.94559789 -0.25343612 1.3710777
-0.92766613 -0.24931228 1.1196409
-0.91927129 -0.24998079 1.0159656
-0.90423965 -0.24639186 0.83808416
-0.88155431 -0.24037133 0.68368518
-0.88597995 -0.24190219 0.56730521
-0.87730765 -0.23969381 0.45576534
-0.85173976 -0.23286323 0.34948593
-0.85755551 -0.23476957 0.26027638
-0.85957599 -0.23532003 0.17295592
-0.91529465 -0.24752232 0.92564505
-0.89595389 -0.24262059 0.75942427
-0.8879742 -0.24062105 0.62623757
-0.86830121 -0.23577087 0.50339019
-0.86636418 -0.23540197 0.4016062
-0.85847622 -0.23341443 0.30528715
-0.86002398 -0.23383257 0.21652037
-0.85783577 -0.23339312 0.12953791
-0.08363007 0.0027142742 8.0839653
-1.0121883 -0.25360748 6.6338477
-1.1931703 -0.30480716 5.9440665
-1.1553756 -0.30110428 3.8641372
-1.0779279 -0.28370529 2.6854911
-1.0074904 -0.26665455 1.977185
-0.96337956 -0.25604466 1.5366691
-0.94031894 -0.25043386 1.2416838
-0.46564731 -0.093140125 8.0509739
-0.76812226 -0.18371728 7.3228369
-1.2159281 -0.31215429 4.8707819
-1.1248401 -0.29270989 3.2149594
-1.0334222 -0.27101886 2.2728574
-0.9826597 -0.25897327 1.7323887
-0.94356352 -0.24936409 1.3670877
-0.92525369 -0.24520434 1.1159657
-0.9201383 -0.24677043 1.0159656
-0.90509427 -0.24323396 0.83808416
-0.882388 -0.23729266 0.68368518
-0.88254142 -0.2376563 0.56498641
-0.87366271 -0.23542385 0.45389232
-0.85254741 -0.22988871 0.34948593
-0.85836977 -0.23177472 0.26027638
-0.86039221 -0.23231812 0.17295592
-0.91615307 -0.24432585 0.92564505
-0.89289021 -0.23844892 0.75648111
-0.88464397 -0.23640718 0.62370437
-0.87350303 -0.23391238 0.50548828
-0.86718059 -0.23237637 0.4016062
-0.85459095 -0.22915754 0.30411482
-0.86083496 -0.23082912 0.21652037
-0.85864526 -0.2303973 0.12953791
-0.083620094 0.003006181 8.0839653
-1.012313 -0.24988674 6.6289082
-1.194227 -0.30064037 5.9440665
-1.1549739 -0.29669824 3.8593652
-1.0770206 -0.27945042 2.6808887
-1.0084151 -0.26313612 1.977185
-0.96154529 -0.25196713 1.5325361
-0.94118738 -0.24715 1.2416838
-0.46653643 -0.091624223 8.060957
-0.76875883 -0.18103491 7.3228369
-1.2157916 -0.30759984 4.8659425
-1.1241834 -0.28835315 3.2102668
-1.0322542 -0.26686522 2.2683563
-0.98103344 -0.25488594 1.7281228
-0.94442821 -0.24606892 1.3670877
-0.92282385 -0.24111624 1.1122906
-0.92099404 -0.24355702 1.0159656
-0.90217531 -0.23907623 0.83494574
-0.87916911 -0.23313944 0.68094373
-0.88336563 -0.2345742 0.56498641
-0.87447917 -0.23237278 0.45389232
-0.84870875 -0.22567867 0.3480759
-0.85442674 -0.22751309 0.25934377
-0.86119789 -0.22931337 0.17295592
-0.91338933 -0.24017705 0.92231953
-0.89371711 -0.2353307 0.75648111
-0.88129526 -0.23221946 0.62117118
-0.87431413 -0.23086186 0.50548828
-0.86798644 -0.22934791 0.4016062
-0.8553856 -0.22617304 0.30411482
-0.86642301 -0.22908865 0.21721105
-0.85944432 -0.22739866 0.12953791
-0.083612494 0.0032104941 8.0839653
-1.0136753 -0.24759659 6.6338477
-1.1949581 -0.29772142 5.9440665
-1.1541973 -0.29370898 3.854593
-1.0757596 -0.27651983 2.676286
-1.0113282 -0.26144665 1.9815739
-0.96207088 -0.24995272 1.5325361
-0.93860108 -0.24437086 1.2378463
-0.46727845 -0.090837345 8.07094
-0.76910502 -0.17955866 7.3228369
-1.2139416 -0.30465356 4.8562636
-1.1230125 -0.28596494 3.205574
-1.034827 -0.2656042 2.2728574
-0.97895139 -0.25252208 1.7238568
-0.94481349 -0.24458514 1.3670877
-0.92320144 -0.23966639 1.1122906
-0.92158645 -0.2413059 1.0159656
-0.90271538 -0.23702863 0.83494574
-0.87969589 -0.23114409 0.68094373
-0.88389564 -0.23256931 0.56498641
-0.874964 -0.23054075 0.45389232
-0.84917951 -0.22390066 0.3480759
-0.85494077 -0.22557388 0.25934377
-0.86167628 -0.22750919 0.17295592
-0.91384876 -0.238423 0.92231953
-0.89021587 -0.23274823 0.75353795
