# .PCD v0.7 - Point Cloud Data file format
VERSION 0.7
FIELDS x y z
SIZE 4 4 4
TYPE F F F
COUNT 1 1 1
WIDTH 1481
HEIGHT 1
VIEWPOINT 0 0 0 1 0 0 0
POINTS 1481
DATA ascii
-0.96407163 -1.9767808 2.9870377
-1.0170211 -2.0890141 2.5970571
-1.1281617 -2.334861 2.628057
-1.1431298 -2.3689797 2.2033129
-1.1090493 -2.2993684 1.7583399
-1.0813948 -2.2440186 1.3904791
-1.0626061 -2.2060032 1.0776123
-1.0344143 -2.1484241 0.7908262
-1.0008411 -2.0805414 0.52980363
-0.99728221 -2.0731373 0.29947928
-1.1598346 -2.3918662 2.448724
-1.1219797 -2.3158441 1.9572906
-1.0905221 -2.251905 1.5559143
-1.0635645 -2.199157 1.2167281
-1.04018 -2.1517513 0.92095506
-1.0193555 -2.1096015 0.65581006
-0.99747854 -2.0643208 0.41198283
-0.99068993 -2.0511737 0.1855635
-0.77867067 -1.5321765 10.926064
-0.84123182 -1.6745515 9.0329552
-0.89180624 -1.7968618 6.4600968
-0.93563473 -1.8966893 5.0419836
-0.95212656 -1.9368755 4.0224957
-0.96779698 -1.9739273 3.3014381
-0.97482771 -1.9908792 2.7306354
-1.158735 -2.219269 23.306221
-0.868415 -1.7338252 7.5034285
-0.94703764 -1.9064074 5.8429089
-0.94720173 -1.9158901 4.4829535
-0.97158414 -1.9712137 3.6648569
-0.97229636 -1.9761071 2.9910276
-1.0243069 -2.0854511 2.5970571
-1.1331794 -2.3244977 2.621048
-1.1394652 -2.3404779 2.1813436
-1.1060904 -2.2729242 1.7418911
-1.0756621 -2.212343 1.3742476
-1.0601678 -2.1814325 1.0682471
-1.0314267 -2.1232259 0.78377604
-0.99737281 -2.0549388 0.52514052
-0.99364036 -2.0472429 0.29724389
-1.1550498 -2.3609722 2.4221201
-1.1194063 -2.2901251 1.9396317
-1.0889139 -2.2287188 1.5432483
-1.059293 -2.170958 1.2041397
-1.0373343 -2.1268861 0.91273755
-1.0160632 -2.0841851 0.64994848
-0.99382794 -2.0385699 0.4085294
-0.98908973 -2.0297387 0.18475738
-0.78543246 -1.5322148 10.94582
-0.84707195 -1.6716048 9.0329552
-0.89874136 -1.7950724 6.4648681
-0.93963814 -1.8881646 5.0281758
-0.95994592 -1.9356858 4.026885
-0.97592908 -1.9730593 3.3055713
-0.98319089 -1.990338 2.734473
-1.1674687 -2.2170973 23.326107
-0.87502885 -1.7319052 7.5082684
-0.95059359 -1.896919 5.8241377
-0.95485538 -1.9145203 4.4874549
-0.97962028 -1.9701455 3.6691229
-0.98052824 -1.9754002 2.9950178
-1.0315802 -2.0818629 2.5970571
-1.1381387 -2.3141274 2.6140387
-1.1356158 -2.312031 2.1593745
-1.1029606 -2.2465286 1.7254423
-1.0716726 -2.1847126 1.3603348
-1.0575712 -2.1569066 1.058882
-1.0261649 -2.0937674 0.77531582
-1.0002191 -2.0426214 0.52327526
-0.98982996 -2.0213993 0.29500848
-1.1500635 -2.3301406 2.3955162
-1.1166672 -2.2644529 1.9219728
-1.0871572 -2.2055712 1.5305824
-1.0568421 -2.1468878 1.1936494
-1.0364128 -2.1063042 0.90616351
-1.0147512 -2.0631793 0.6452592
-0.99219543 -2.0173137 0.4057667
-0.98514807 -2.0038567 0.18374974
-0.79220396 -1.5322243 10.965577
-0.85382879 -1.6704507 9.0427446
-0.90567487 -1.7932566 6.4696403
-0.95060629 -1.8936028 5.0511885
-0.96884012 -1.9366066 4.0356631
-0.98406678 -1.9721583 3.3097041
-0.99156225 -1.9897627 2.7383106
-1.1752006 -2.2130084 23.326107
-0.8816399 -1.7299602 7.5131078
-0.95643055 -1.892049 5.8194447
-0.96251088 -1.9131199 4.4919558
-0.98649144 -1.966714 3.6691229
-0.98876685 -1.9746597 2.9990077
-1.0373251 -2.0752172 2.5933819
-1.1446244 -2.306946 2.6105342
-1.1315818 -2.2836397 2.1374052
-1.0978042 -2.2164361 1.706252
-1.0655385 -2.1531668 1.3441031
-1.0527606 -2.1282694 1.0476437
-1.0228362 -2.0686719 0.76826566
-1.0008159 -2.0259049 0.52047741
-0.98805708 -2.0000722 0.29322016
-1.1465405 -2.3027153 2.3722377
-1.1137625 -2.2388275 1.9043138
-1.0852523 -2.1824634 1.5179166
-1.0542364 -2.1228614 1.1831592
-1.0332607 -2.0815251 0.89794594
-1.0133052 -2.0422082 0.64056993
-0.9882257 -1.9916581 0.40231332
-0.98103768 -1.978027 0.18274207
-0.79862571 -1.5315163 10.980394
-0.8591879 -1.6665553 9.0378504
-0.91328436 -1.7927444 6.4791846
-0.95809323 -1.8920162 5.0557909
-0.97667325 -1.9353511 4.0400519
-0.99221027 -1.9712251 3.3138371
-0.99994129 -1.989153 2.7421479
-1.1861907 -2.2150011 23.390738
-0.88824791 -1.7279899 7.5179467
-0.96067739 -1.8840872 5.8053665
-0.97115368 -1.913631 4.5009584
-0.994528 -1.9655855 3.6733885
-0.99837083 -1.9765754 3.0069876
-1.0445627 -2.0715835 2.5933819
-1.1494776 -2.2965584 2.6035252
-1.120402 -2.2413788 2.1028821
-1.0943201 -2.1901476 1.6898032
-1.0631547 -2.1296175 1.332509
-1.0498334 -2.1038411 1.0382786
-1.0193452 -2.0436258 0.76121551
-1.0034995 -2.0136061 0.51861215
-0.98614758 -1.9787827 0.29143184
-1.1428401 -2.2753434 2.348959
-1.1106926 -2.2132506 1.8866546
-1.0831995 -2.1593962 1.5052506
-1.0514758 -2.0988796 1.1726689
-1.0320626 -2.0610161 0.89137191
-1.0095495 -2.0169261 0.6347084
-0.98630565 -1.9704832 0.39955059
-0.97899479 -1.9567189 0.18193595
-0.80505216 -1.5307821 10.995213
-0.86500007 -1.6635461 9.0378504
-0.92090124 -1.7922008 6.488728
-0.96646929 -1.89214 5.0649962
-0.98450959 -1.9340645 4.0444412
-0.99908513 -1.9677497 3.3138371
-1.009778 -1.9913678 2.7498231
-1.1961957 -2.2150681 23.435482
-0.89601028 -1.7282264 7.5324655
-0.96645886 -1.8791877 5.800674
-0.97881955 -1.9121673 4.5054598
-1.0025687 -1.9644248 3.6776545
-1.0066323 -1.9757633 3.0109777
-1.0517875 -2.0679247 2.5933819
-1.1542723 -2.286165 2.5965159
-1.1229615 -2.2270279 2.0934668
-1.0906662 -2.1639109 1.6733544
-1.0646045 -2.1140242 1.3255527
-1.0446641 -2.0753188 1.0270404
-1.0156916 -2.0186291 0.75416535
-1.0039029 -1.9969245 0.5158143
-0.98410153 -1.9575309 0.28964353
-1.1423378 -2.2546873 2.3323317
-1.107458 -2.1877224 1.8689957
-1.0809989 -2.1363699 1.4925847
-1.0485606 -2.0749431 1.1621786
-1.028605 -2.0363262 0.88315433
-1.0078205 -1.996034 0.63001907
-0.9864819 -1.9537667 0.39747855
-0.97456396 -1.9309893 0.18092829
-0.81148332 -1.5300219 11.010031
-0.87032866 -1.6596148 9.0329552
-0.92852551 -1.791626 6.4982724
-0.97306824 -1.8887548 5.0649962
-0.99344265 -1.9348772 4.0532193
-1.0072304 -1.9667547 3.31797
-1.0196424 -1.9935383 2.757498
-1.2072353 -2.2169642 23.500109
-0.90378511 -1.7284297 7.5469837
-0.97142309 -1.8727388 5.7912879
-0.98648709 -1.9106729 4.5099607
-1.0106134 -1.963232 3.6819205
-1.0149002 -1.9749174 3.0149677
-1.0589995 -2.0642407 2.5933819
-1.1590086 -2.2757664 2.5895069
-1.1254344 -2.2126865 2.0840514
-1.0868425 -2.1377265 1.6569057
-1.0639524 -2.0944974 1.3162776
-1.0414075 -2.0509915 1.0176752
-1.0140474 -1.9979608 0.7485252
-1.0019807 -1.9758837 0.51208383
-0.98191923 -1.9363177 0.28785524
-1.1417054 -2.2340622 2.3157041
-1.1040587 -2.1622446 1.8513367
-1.078651 -2.1133854 1.4799188
-1.0454913 -2.0510528 1.1516885
-1.0249878 -2.0116858 0.87493682
-1.0059581 -1.975179 0.62532979
-0.98430616 -1.9326605 0.39471582
-0.97223222 -1.9097668 0.18012217
-0.81791884 -1.5292351 11.024848
-0.87659264 -1.6574668 9.0378504
-0.9368484 -1.7923422 6.5125885
-0.98055607 -1.88708 5.0695987
-1.0023935 -1.9356511 4.0619974
-1.0153811 -1.965727 3.322103
-1.0280645 -1.9928151 2.7613354
-1.2136836 -2.2104008 23.475252
-0.91157222 -1.7285998 7.5615015
-0.97715437 -1.8678077 5.7865958
-0.99516165 -1.9110795 4.5189633
-1.0186622 -1.962007 3.6861866
-1.0245612 -1.9767132 3.0229478
-1.0677567 -2.0635424 2.5970571
-1.1571679 -2.2526736 2.5684795
-1.1242676 -2.1914289 2.0683591
-1.0828495 -2.1115956 1.6404569
-1.0631769 -2.075001 1.3070024
-1.0379939 -2.0267127 1.0083101
-1.0100852 -1.9730588 0.74147499
-1.0021607 -1.959254 0.50928593
-0.9818688 -1.9195775 0.28651398
-1.1409429 -2.2134693 2.2990766
-1.1004953 -2.136817 1.8336779
-1.0761558 -2.0904438 1.467253
-1.0422682 -2.0272093 1.1411982
-1.0212111 -1.987096 0.86671925
-1.0017415 -1.9500381 0.61946821
-0.98425788 -1.9159982 0.39264378
-0.96976429 -1.8885844 0.17931604
-0.82398981 -1.5277383 11.034726
-0.88237292 -1.6543968 9.0378504
-0.94518769 -1.7930224 6.5269041
-0.9871372 -1.8836457 5.0695987
-1.010253 -1.9342632 4.0663867
-1.0235368 -1.9646664 3.3262358
-1.0379734 -1.9949013 2.7690105
-0.85569668 -1.4143053 28.421932
-1.2182927 -2.2005548 23.415594
-0.91937155 -1.7287365 7.5760202
-0.98205739 -1.8613328 5.7772098
-1.0038509 -1.9114486 4.5279655
-1.0267144 -1.9607495 3.6904523
-1.032851 -1.9757951 3.0269377
-1.0749532 -2.0598028 2.5970571
-1.1568209 -2.2327883 2.550957
-1.1283326 -2.1805773 2.0620823
-1.0786874 -2.0855188 1.6240081
-1.0602446 -2.0516007 1.2954084
-1.0344236 -2.0024831 0.99894488
-1.0103637 -1.9567339 0.73724496
-0.99998468 -1.9382818 0.50555545
-0.9794302 -1.8984355 0.28472567
-1.1400509 -2.1929092 2.282449
-1.0986311 -2.1150277 1.818962
-1.0715272 -2.0637197 1.4520538
-1.0388916 -2.0034139 1.130708
-1.0194486 -1.9667495 0.86014521
-0.99959791 -1.9292665 0.614779
-0.98410547 -1.8993602 0.39057174
-0.96945804 -1.871879 0.17871146
-0.8300603 -1.5262178 11.044605
-0.88910717 -1.6530999 9.0476398
-0.95284235 -1.7923483 6.5364485
-0.99461937 -1.8819158 5.0742011
-1.0181148 -1.9328437 4.0707755
-1.0316975 -1.9635725 3.330369
-1.0479095 -1.996942 2.7766855
-1.2303848 -2.2042007 23.500109
-0.92718285 -1.7288398 7.5905385
-0.98773801 -1.8563701 5.7725172
-1.0115361 -1.9098567 4.5324669
-1.0347705 -1.9594599 3.6947184
-1.0397415 -1.9721777 3.0269377
-1.0821368 -2.0560377 2.5970571
-1.1563495 -2.2129333 2.5334342
-1.1215303 -2.1490204 2.0369747
-1.0762907 -2.0632043 1.6103007
-1.0551145 -2.0243177 1.2814956
-1.0328389 -1.9824147 0.99145275
-1.0083246 -1.9361767 0.73160481
-0.99767458 -1.917349 0.50182498
-0.97685611 -1.8773345 0.28293735
-1.1390291 -2.1723824 2.2658215
-1.0966285 -2.0932782 1.8042463
-1.0667254 -2.0370536 1.4368547
-1.0353615 -1.9796668 1.1202177
-1.0175565 -1.9464397 0.85357118
-0.99732172 -1.9085342 0.61008972
-0.98614252 -1.8871356 0.38919038
-0.96904701 -1.8551987 0.17810686
-0.83613014 -1.5246735 11.054483
-0.89584333 -1.6517762 9.0574312
-0.9605037 -1.7916422 6.5459919
-1.0011824 -1.8784325 5.0742011
-1.0259792 -1.9313931 4.0751648
-1.0411807 -1.9649323 3.3386347
-1.0578724 -1.998938 2.7843604
-0.86630601 -1.4095263 28.44689
-1.2341487 -2.1929252 23.425537
-0.93440807 -1.7278039 7.6002169
-0.99339604 -1.8513905 5.7678246
-1.0202481 -1.9101545 4.5414696
-1.0440561 -1.9604399 3.7032504
-1.048034 -1.9711969 3.0309277
-1.0877177 -2.0492535 2.5933819
-1.1574162 -2.1962638 2.5194161
-1.1163346 -2.1209822 2.0150054
-1.0718044 -2.0372317 1.5938519
-1.0518681 -2.0010171 1.2699015
-1.0289706 -1.9582778 0.98208755
-1.0083851 -1.9199042 0.72737467
-0.99523062 -1.8964559 0.49809453
-0.97646093 -1.8606843 0.28159612
-1.1361327 -2.1485891 2.2458684
-1.0963757 -2.0751419 1.7924737
-1.0637637 -2.0142584 1.424189
-1.033796 -1.9599836 1.1118255
-1.013333 -1.9219902 0.8453536
-0.99491292 -1.8878411 0.60540044
-0.98579729 -1.8705389 0.38711834
-0.96853155 -1.8385446 0.17750227
-0.84257543 -1.5237854 11.069302
-0.90209228 -1.6495323 9.0623264
-0.96746188 -1.7895916 6.5507641
-1.0086583 -1.876647 5.078804
-1.0338458 -1.9299111 4.0795541
-1.0493594 -1.9637676 3.3427677
-1.0678619 -2.0008883 2.7920356
-1.2444273 -2.1932397 23.475252
-0.94223922 -1.7278421 7.6147356
-0.99985254 -1.8479116 5.7678246
-1.0289742 -1.9104146 4.5504718
-1.052127 -1.9590812 3.7075164
-1.0577562 -1.9728377 3.0389078
-1.0948641 -2.0454443 2.5933819
-1.1567069 -2.1764646 2.5018933
-1.1127819 -2.0964446 1.9961747
-1.06911 -2.0150096 1.5801446
-1.0484723 -1.9777644 1.2583076
-1.027117 -1.9382888 0.97459543
-1.0083445 -1.9036556 0.72314465
-0.99265313 -1.8756037 0.49436405
-0.97363198 -1.8396584 0.27980781
-1.1330843 -2.1248429 2.2259157
-1.0922084 -2.0498991 1.7748147
-1.0606561 -1.991509 1.411523
-1.0321057 -1.9403354 1.1034333
-1.0133851 -1.9059333 0.84042311
-0.9923718 -1.8671881 0.60071111
-0.98534846 -1.853968 0.3850463
-0.96791172 -1.8219167 0.17689767
-0.84902483 -1.5228708 11.084119
-0.9088282 -1.6481565 9.0721169
-0.97513193 -1.7888248 6.560308
-1.0170648 -1.8765497 5.0880089
-1.0417145 -1.9283979 4.0839429
-1.0575428 -1.96257 3.3469007
-1.076359 -1.9999712 2.7958732
-0.94887042 -1.7256439 7.6195745
-1.0054703 -1.8428954 5.7631316
-1.0366757 -1.9087241 4.5549731
-1.0602009 -1.9576898 3.711782
-1.0660695 -1.9717841 3.0428979
-1.1019975 -2.04161 2.5933819
-1.1558738 -2.1566973 2.4843705
-1.1090714 -2.0719578 1.977344
-1.0662736 -1.9928312 1.5664372
-1.0449268 -1.9545596 1.2467135
-1.0251368 -1.9183371 0.9671033
-1.0059425 -1.8831992 0.7175045
-0.98994219 -1.8547926 0.49063358
-0.97301298 -1.8230683 0.27846655
-1.1298839 -2.1011441 2.2059627
-1.0897913 -2.028271 1.7600988
-1.0574026 -1.9688059 1.3988571
-1.0281454 -1.9167236 1.092943
-1.0133374 -1.8898991 0.83549255
-0.99199516 -1.8508606 0.59719419
-0.98479605 -1.8374233 0.38297427
-0.96718752 -1.8053155 0.17629308
-0.85547793 -1.5219295 11.098936
-0.91507077 -1.6458641 9.0770121
-0.98137015 -1.78541 6.560308
-1.025483 -1.8764168 5.0972137
-1.0495851 -1.9268527 4.0883317
-1.0670743 -1.9638118 3.3551667
-1.0848625 -1.9990188 2.7997105
-0.95671713 -1.7256191 7.6340933
-1.0118971 -1.8393745 5.7631316
-1.0454235 -1.9089124 4.5639753
-1.0682782 -1.956266 3.716048
-1.0758306 -1.9733419 3.050878
-1.1091173 -2.037751 2.5933819
-1.153221 -2.1338253 2.4633431
-1.1052039 -2.047523 1.9585133
-1.065281 -1.9743773 1.5554714
-1.0433345 -1.9353031 1.2374383
-1.0252291 -1.902504 0.96148425
-1.0034101 -1.8627832 0.71186441
-0.9870984 -1.8340238 0.4869031
-0.97229022 -1.8065052 0.27712533
-1.1247523 -2.0742114 2.1826839
-1.0853112 -2.0031314 1.7424399
-1.0560566 -1.9499406 1.3887243
-1.0261924 -1.8971553 1.0845507
-1.0109444 -1.869735 0.82891852
-0.98920542 -1.8302824 0.59250492
-0.98414022 -1.8209052 0.38090223
-0.96635944 -1.7887421 0.17568849
-0.8623181 -1.5216378 11.118694
-0.92081034 -1.6426599 9.0770121
-0.98904377 -1.7845846 6.5698519
-1.0339125 -1.8762478 5.1064186
-1.0574579 -1.9252765 4.092721
-1.0752749 -1.9625428 3.3592994
-1.0933726 -1.9980316 2.8035481
-0.88203329 -1.3912003 28.3221
-0.96273482 -1.7222691 7.6340933
-1.0191486 -1.8373401 5.7678246
-1.0531329 -1.9071572 4.5684767
-1.0763583 -1.9548098 3.720314
-1.0841639 -1.9722151 3.054868
-1.1178547 -2.0368388 2.5970571
-1.150423 -2.1109986 2.4423161
-1.1030401 -2.0265591 1.9428209
-1.0641729 -1.955955 1.5445056
-1.0416205 -1.9160818 1.2281631
-1.0230097 -1.88262 0.95399201
-1.0007474 -1.8424077 0.7062242
-0.98412162 -1.8132976 0.48317263
-0.96908826 -1.7855927 0.27533701
-1.1230291 -2.0538931 2.1660566
-1.0826069 -1.9815952 1.727724
-1.054592 -1.931109 1.3785917
-1.0262889 -1.8816086 1.0782566
-1.0106834 -1.8537569 0.82398808
-0.98861027 -1.8140144 0.58898795
-0.98101133 -1.8000659 0.37813953
-0.96542734 -1.7721963 0.17508389
-0.86916655 -1.5213168 11.138451
-0.92653865 -1.6394356 9.0770121
-1.0040058 -1.7967576 6.6271157
-1.0423536 -1.8760427 5.115624
-1.0664927 -1.9257638 4.1014996
-1.0848408 -1.9637038 3.3675654
-1.1018888 -1.9970092 2.8073854
-0.88719535 -1.3885993 28.332083
-0.97244424 -1.7254678 7.6631298
-1.025556 -1.8337715 5.7678246
-1.0608428 -1.9053714 4.572978
-1.0844413 -1.9533207 3.72458
-1.0939634 -1.9736897 3.0628481
-1.1265993 -2.0358906 2.6007321
-1.1474797 -2.0882173 2.4212887
-1.1007437 -2.0056355 1.9271286
-1.0629491 -1.9375646 1.5335398
-1.0397853 -1.8968965 1.2188879
-1.0206642 -1.8627751 0.94649988
-0.99795502 -1.8220741 0.70058405
-0.98101228 -1.7926146 0.47944215
-0.96814311 -1.7690934 0.27399579
-1.1193751 -2.0303419 2.1461036
-1.0797657 -1.9601024 1.7130083
-1.0530089 -1.9123116 1.368459
-1.0219148 -1.8581309 1.0677663
-1.0080484 -1.8336654 0.81741405
-0.98791373 -1.7977731 0.58547103
-0.97774893 -1.7792704 0.37537676
-0.96439189 -1.7556791 0.17447931
-0.87602335 -1.5209666 11.158208
-0.93225574 -1.6361915 9.0770121
-1.0197977 -1.810148 6.6891518
-1.0508056 -1.8758016 5.1248288
-1.074376 -1.9241204 4.1058884
-1.0957968 -1.9672798 3.3799641
-1.1104113 -1.9959517 2.811223
-0.98156661 -1.7275269 7.6873269
-1.0327984 -1.8316833 5.7725172
-1.0696187 -1.9054533 4.5819802
-1.0938009 -1.9540747 3.7331119
-1.1023161 -1.9724894 3.066838
-1.1386547 -2.0408273 2.6117578
-1.142663 -2.0623631 2.3967569
-1.0983146 -1.984753 1.9114364
-1.0616097 -1.9192066 1.5225738
-1.0378288 -1.8777473 1.2096127
-1.0204349 -1.8470278 0.94088084
-0.99503279 -1.8017823 0.69494396
-0.97777057 -1.7719754 0.47571161
-0.96709466 -1.7526227 0.27265453
-1.1155705 -2.0068414 2.1261506
-1.0767877 -1.9386538 1.6982924
-1.0513076 -1.8935488 1.3583262
-1.0195907 -1.838676 1.0593741
-1.0052855 -1.8136151 0.81084001
-0.98711592 -1.781559 0.58195406
-0.97435367 -1.7585204 0.37261406
-0.96325272 -1.7391908 0.17387471
-0.8828882 -1.520587 11.177964
-0.9379614 -1.6329273 9.0770121
-1.0275847 -1.8091731 6.6986957
-1.0583078 -1.8738232 5.1294312
-1.0822608 -1.9224453 4.1102772
-1.1054133 -1.9683499 3.3882301
-1.1205078 -1.9976542 2.818898
-0.89576703 -1.3806772 28.297142
-0.99009031 -1.7284527 7.7066846
-1.0408918 -1.8310676 5.7819028
-1.0773357 -1.9036026 4.5864816
-1.1018971 -1.9525161 3.7373779
-1.110674 -1.9712548 3.0708282
-1.1457716 -2.0368402 2.6117578
-1.1376802 -2.0365686 2.372225
-1.0957534 -1.963912 1.8957441
-1.0601556 -1.900882 1.511608
-1.0357515 -1.8586351 1.2003375
-1.0178518 -1.8272548 0.93338877
-0.99431515 -1.7857248 0.69071388
-0.97678536 -1.755674 0.47291377
-0.96594298 -1.7361808 0.27131331
-1.1116158 -1.983393 2.1061976
-1.0736732 -1.9172502 1.6835767
-1.0473825 -1.8710599 1.3456604
-1.0171431 -1.8192601 1.0509819
-1.002395 -1.7936065 0.80426592
-0.98621702 -1.7653723 0.57843715
-0.97082549 -1.7378159 0.36985135
-0.95957458 -1.7183703 0.17306858
-0.88976103 -1.520178 11.197722
-0.94212461 -1.6269999 9.0623264
-1.0309262 -1.8003937 6.6796074
-1.065809 -1.8718154 5.1340342
-1.0901471 -1.9207387 4.1146665
-1.1150506 -1.9693768 3.3964961
-1.1306299 -1.9993109 2.8265731
-0.90073907 -1.3777833 28.302132
-1.0024045 -1.7358706 7.7550788
-1.0489931 -1.8304172 5.7912879
-1.0861319 -1.903612 4.5954843
-1.1112857 -1.9531915 3.7459095
-1.120525 -1.9726058 3.0788083
-1.1428396 -2.0151348 2.5897067
-1.132531 -2.010834 2.3476932
-1.0911518 -1.939721 1.8769133
-1.0585865 -1.8825908 1.5006422
-1.0357233 -1.8434224 1.1933811
-1.0151433 -1.8075224 0.92589664
-0.99349731 -1.7696941 0.68648374
-0.97569805 -1.7394007 0.4701159
-0.96468842 -1.7197685 0.26997206
-1.107511 -1.9599967 2.0862446
-1.07241 -1.8994118 1.671804
-1.0433133 -1.8486217 1.3329945
-1.0145729 -1.7998842 1.0425898
-0.99937719 -1.7736405 0.79769188
-0.98521721 -1.7492137 0.57492018
-0.9671647 -1.7171574 0.36708862
-0.95821398 -1.7019502 0.172464
-0.89664179 -1.5197393 11.217479
-0.94933844 -1.6263393 9.0770121
-1.029741 -1.7838571 6.6318879
-1.0733091 -1.8697778 5.1386366
-1.0980346 -1.9190004 4.1190557
-1.1233132 -1.9679164 3.400629
-1.1423646 -2.0037053 2.8380854
-0.90458918 -1.3731849 28.272181
-1.0122524 -1.7388785 7.7841153
-1.057103 -1.829733 5.800674
-1.094941 -1.903583 4.6044865
-1.1193944 -1.9515626 3.7501755
-1.1303989 -1.973912 3.0867882
-1.1448183 -2.0023041 2.5786812
-1.1272163 -1.9851602 2.3231614
-1.0863948 -1.9155862 1.8580827
-1.0569025 -1.8643339 1.4896762
-1.0334183 -1.8243784 1.1841059
-1.0123096 -1.7878314 0.91840452
-0.99258 -1.7536913 0.68225372
-0.97450936 -1.723157 0.46731806
-0.96333116 -1.7033863 0.26863083
-1.1032565 -1.9366531 2.0662916
-1.0690358 -1.8780931 1.6570883
-1.0412322 -1.8299818 1.3228618
-1.0118796 -1.7805483 1.0341976
-0.99623233 -1.7537175 0.79111785
-0.98171657 -1.7288573 0.5702309
-0.96581697 -1.7008523 0.36501658
-0.95675045 -1.6855605 0.1718594
-0.90353036 -1.5192713 11.237236
-0.95707554 -1.6265254 9.0965929
-1.0359616 -1.7802516 6.6318879
-1.0817864 -1.8694016 5.1478415
-1.1059233 -1.9172304 4.1234446
-1.1315793 -1.9664223 3.404762
-1.1493518 -1.9997054 2.8380854
-0.90937704 -1.370019 28.272181
-1.025315 -1.7472591 7.8373494
-1.0652206 -1.8290139 5.8100591
-1.1048554 -1.9053991 4.61799
-1.1275055 -1.9499012 3.7544415
-1.1402955 -1.9751734 3.0947683
-1.1365637 -1.9718616 2.5456047
-1.1217365 -1.9595487 2.2986295
-1.0814828 -1.8915086 1.8392519
-1.0551044 -1.846112 1.4787103
-1.0309932 -1.8053733 1.1748308
-1.0093509 -1.7681826 0.91091239
-0.99156302 -1.7377164 0.67802358
-0.97565222 -1.71121 0.46545282
-0.96187145 -1.6870346 0.26728958
-1.0988528 -1.9133637 2.0463386
-1.0675377 -1.860327 1.6453156
-1.0368887 -1.8076395 1.3101958
-1.01132 -1.7651913 1.0279033
-0.99296081 -1.7338386 0.78454381
-0.97808599 -1.7085468 0.56554163
-0.96436727 -1.6845776 0.36294454
-0.9551844 -1.6692021 0.17125481
-0.9104265 -1.5187736 11.256993
-0.96482551 -1.6266776 9.1161737
-1.0459462 -1.7830621 6.6557479
-1.0902742 -1.8689891 5.1570468
-1.113813 -1.9154286 4.1278338
-1.1398485 -1.9648943 3.4088948
-1.1515043 -1.9873614 2.8265731
-0.9141537 -1.3668363 28.272181
-1.0397282 -1.757733 7.9002614
-1.0742199 -1.829749 5.8241377
-1.1136971 -1.9052894 4.6269922
-1.1356186 -1.9482067 3.7587075
-1.1502147 -1.9763894 3.1027484
-1.1332201 -1.9502949 2.5235536
-1.1178744 -1.9370887 2.2776024
-1.0783597 -1.8708609 1.8235595
-1.0531919 -1.8279257 1.4677445
-1.028448 -1.7864072 1.1655556
-1.0085797 -1.7525942 0.90529323
-0.98805469 -1.717612 0.67238343
-0.97672349 -1.6992762 0.46358755
-0.96030927 -1.6707143 0.26594836
-1.0961707 -1.89336 2.029711
-1.0639046 -1.8390957 1.6305997
-1.0367184 -1.7928139 1.3025963
-1.0106658 -1.7498604 1.0216092
-0.99192375 -1.7180934 0.77961332
-0.97675526 -1.6924926 0.56202465
-0.96034056 -1.6640449 0.36018181
-0.95351583 -1.6528753 0.17065021
-0.91692823 -1.5175812 11.271811
-0.97206545 -1.6259214 9.1308594
-1.0574828 -1.7883939 6.6891518
-1.097782 -1.866856 5.1616492
-1.1217034 -1.9135952 4.1322227
-1.1481209 -1.9633325 3.4130278
-1.1471179 -1.963956 2.7997105
-0.91988814 -1.3650728 28.302132
-1.0503643 -1.76165 7.9341373
-1.0823581 -1.8289579 5.8335233
-1.1225514 -1.9051415 4.6359949
-1.1424121 -1.9442308 3.7587075
-1.1616808 -1.9801593 3.1147182
-1.12974 -1.9287758 2.5015028
-1.1138691 -1.9146794 2.2565751
-1.0731503 -1.8468932 1.8047289
-1.0511653 -1.8097752 1.4567786
-1.0257829 -1.7674812 1.1562804
-1.0053858 -1.7330232 0.8978011
-0.98441827 -1.6975536 0.66674334
-0.97526079 -1.6831057 0.46078971
-0.95864505 -1.6544254 0.2646071
-1.0933626 -1.8733987 2.0130837
-1.0621727 -1.8214041 1.6188271
-1.034286 -1.7742873 1.2924637
-1.0076331 -1.7306333 1.013217
-0.99078894 -1.7023765 0.77468276
-0.97288018 -1.6722673 0.55733538
-0.95867264 -1.6478415 0.35810977
-0.95425653 -1.6408993 0.17024715
-0.92383701 -1.5170257 11.291568
-0.97931194 -1.6251343 9.145545
-1.0705981 -1.7962314 6.7320995
-1.1062844 -1.8663735 5.1708541
-1.1308132 -1.913792 4.1410012
-1.1563964 -1.9617372 3.4171607
-1.1474613 -1.948892 2.7843604
-0.92286205 -1.3592273 28.247223
-1.0565071 -1.7579727 7.9341373
-1.0905042 -1.828133 5.8429089
-1.1314182 -1.9049547 4.6449971
-1.1505209 -1.942475 3.7629733
-1.1716535 -1.9812794 3.1226983
-1.1261235 -1.907305 2.4794517
-1.1115252 -1.8953984 2.2390523
-1.0717214 -1.8297017 1.7921749
-1.0469123 -1.7880532 1.4430714
-1.0229987 -1.748596 1.1470052
-1.004408 -1.7174976 0.89218199
-0.98307484 -1.6816828 0.6625132
-0.97369713 -1.6669662 0.45799184
-0.9568789 -1.6381686 0.26326588
-1.0904286 -1.85348 1.996456
-1.0582821 -1.800263 1.6041114
-1.033921 -1.7595162 1.2848641
-1.006776 -1.715363 1.0069228
-0.98955655 -1.6866891 0.76975226
-0.9713347 -1.6562828 0.55381846
-0.95690328 -1.63167 0.35603774
-0.95239866 -1.6246285 0.16964257
-0.93034649 -1.5157779 11.306385
-0.98656487 -1.6243168 9.1602306
-1.0783991 -1.7950422 6.7416434
-1.1147966 -1.8658547 5.1800594
-1.1387123 -1.9118906 4.14539
-1.1661121 -1.962527 3.4254265
-1.1460774 -1.931093 2.765173
-0.92450142 -1.3514724 28.152382
-1.0645912 -1.7574992 7.9486556
-1.0986575 -1.8272727 5.852294
-1.1402974 -1.9047292 4.6539998
-1.1599684 -1.9429256 3.7715054
-1.1816481 -1.9823539 3.1306784
-1.1223713 -1.8858831 2.4574008
-1.1072456 -1.8730872 2.218025
-1.0721647 -1.8158945 1.7827597
-1.0425205 -1.7663829 1.429364
-1.020095 -1.7297516 1.13773
-1.0009799 -1.6980066 0.88468987
-0.97919744 -1.6617097 0.65687311
-0.97203273 -1.6508583 0.455194
-0.95501101 -1.6219445 0.26192465
-1.0873691 -1.8336053 1.9798286
-1.0563172 -1.7826484 1.5923386
-1.0312688 -1.7410609 1.2747314
-1.0058246 -1.7001199 1.0006286
-0.98822683 -1.6710308 0.76482171
-0.96968985 -1.6403297 0.55030149
-0.95503289 -1.6155312 0.3539657
-0.95043892 -1.6083908 0.16903797
-0.9372673 -1.5151641 11.326143
-0.99382389 -1.6234682 9.1749163
-1.0846584 -1.7912669 6.7416434
-1.1233188 -1.8652991 5.1892643
-1.1466119 -1.9099574 4.1497793
-1.1758474 -1.9632728 3.4336927
-1.146229 -1.9160783 2.7498231
-1.0707195 -1.7537724 7.9486556
-1.1068181 -1.8263783 5.86168
-1.148064 -1.902601 4.6585007
-1.1680882 -1.9410993 3.7757714
-1.180801 -1.9653029 3.1107283
-1.1184832 -1.8645109 2.4353497
-1.102824 -1.8508294 2.1969979
-1.0725247 -1.8021066 1.7733443
-1.0401282 -1.7483587 1.4183981
-1.0193357 -1.7147567 1.1307735
-0.99979633 -1.6825463 0.87907082
-0.97764242 -1.6459085 0.65264297
-0.96776062 -1.6305581 0.45146352
-0.95304161 -1.6057535 0.2605834
-1.0860997 -1.8169789 1.9665265
-1.0542426 -1.7650701 1.5805659
-1.0285004 -1.7226453 1.2645986
-1.0047792 -1.6849046 0.99433452
-0.9867999 -1.6554025 0.75989115
-0.96794534 -1.6244081 0.54678452
-0.95306158 -1.5994254 0.35189366
-0.94837755 -1.5921868 0.16843337
-0.943784 -1.5138611 11.34096
-1.0005543 -1.6217222 9.1847067
-1.0885713 -1.7836478 6.7273273
-1.1318508 -1.8647068 5.1984696
-1.1545119 -1.9079924 4.1541681
-1.1826935 -1.9591563 3.4336927
-1.1446347 -1.8983415 2.7306354
-1.0774935 -1.7510947 7.953495
-1.1158854 -1.8269213 5.8757582
-1.156961 -1.9023018 4.6675034
-1.1775619 -1.9414697 3.7843029
-1.1720445 -1.9353949 3.0708282
-1.1162139 -1.8460901 2.4169738
-1.0982604 -1.8286252 2.1759706
-1.0707992 -1.7850008 1.7607905
-1.0376228 -1.730373 1.4074323
-1.0162077 -1.6959887 1.1214983
-0.99851692 -1.6671146 0.87345165
-0.97598916 -1.6301386 0.64841288
-0.96588075 -1.6145238 0.44866565
-0.95097083 -1.5895962 0.25924215
-1.0828007 -1.7971861 1.9498991
-1.0520582 -1.7475277 1.5687933
-1.025616 -1.7042706 1.2544659
-1.0036399 -1.6697173 0.98804033
-0.98527604 -1.6398048 0.75496066
-0.96610165 -1.6085192 0.54326761
-0.95098943 -1.5833532 0.3498216
-0.94364315 -1.5717336 0.16762725
-0.9507165 -1.513189 11.360718
-1.0078224 -1.6208136 9.1993933
-1.0932266 -1.7772942 6.7177839
-1.1403921 -1.8640773 5.2076745
-1.1636591 -1.90804 4.1629462
-1.1822109 -1.9429961 3.4130278
-1.1445955 -1.8833783 2.7152855
-0.94456565 -1.3502295 28.332083
-1.0835994 -1.7473228 7.953495
-1.1240654 -1.8259543 5.8851438
-1.164732 -1.9001076 4.6720047
-1.1856922 -1.9395728 3.788569
-1.1709435 -1.9184321 3.050878
-1.1138299 -1.8277081 2.3985982
-1.0954025 -1.8095266 2.1584477
-1.0689676 -1.7679291 1.7482367
-1.0350049 -1.7124265 1.3964664
-1.012961 -1.6772636 1.1122231
-0.99474627 -1.6477439 0.86595953
-0.97423786 -1.6144005 0.6441828
-0.96136415 -1.5943159 0.44493517
-0.94879907 -1.5734732 0.25790092
-1.0813152 -1.7806301 1.9365971
-1.0518612 -1.7334783 1.5599639
-1.022616 -1.6859372 1.2443333
-1.0024071 -1.6545588 0.9817462
-0.98365539 -1.6242381 0.75003016
-0.96415895 -1.5926629 0.53975064
-0.9513815 -1.5715514 0.34844026
-0.94136423 -1.5556073 0.16702266
-0.95765585 -1.5124867 11.380475
-1.0156368 -1.6207366 9.2189732
-1.097064 -1.7696613 6.7034674
-1.1489428 -1.8634112 5.2168798
-1.1715666 -1.9060069 4.1673355
-1.1860437 -1.9340601 3.404762
-1.1427914 -1.8657053 2.6960979
-0.94727558 -1.3440936 28.272181
-0.85000938 -1.3106892 14.526546
-1.0890259 -1.7424639 7.9486556
-1.1331617 -1.8264182 5.8992219
-1.173646 -1.8997341 4.6810069
-1.1924553 -1.9354221 3.788569
-1.1665806 -1.8963675 3.0229478
-1.1131054 -1.812254 2.3838975
-1.0924245 -1.7904704 2.1409249
-1.0650042 -1.7475684 1.7325443
-1.0322741 -1.6945193 1.3855006
-1.0118998 -1.662366 1.1052668
-0.99326235 -1.6323805 0.86034042
-0.97488141 -1.6027929 0.64136273
-0.95926976 -1.578357 0.44213733
-0.94652641 -1.5573847 0.2565597
-1.077778 -1.7609218 1.9199696
-1.0494701 -1.7160031 1.5481913
-1.0217493 -1.6713235 1.2367337
-0.99871534 -1.635556 0.97335398
-0.98193812 -1.6087028 0.7450996
-0.96211737 -1.57684 0.53623366
-0.94912338 -1.5555391 0.34636822
-0.93898422 -1.5395164 0.16641806
-0.9646017 -1.5117544 11.400231
-1.0229195 -1.6197641 9.2336597
-1.1048166 -1.7683529 6.7130117
-1.1575028 -1.862708 5.2260842
-1.1807355 -1.9059777 4.1761136
-1.1898288 -1.9251208 3.3964961
-1.1391943 -1.8453408 2.6730728
-0.95329976 -1.342661 28.312115
-0.85457939 -1.3077141 14.526546
-1.0944315 -1.7375883 7.9438162
-1.14136 -1.8253778 5.908607
-1.1825715 -1.8993218 4.6900096
-1.2005798 -1.9334635 3.792835
-1.163666 -1.8769183 2.9990077
-1.1105022 -1.7939448 2.3655217
-1.0893272 -1.7714573 2.1234024
-1.0609119 -1.7272574 1.7168521
-1.0294313 -1.6766523 1.3745347
-1.0084299 -1.6437201 1.0959915
-0.99168348 -1.6170478 0.85472137
-0.97294873 -1.5871109 0.63713264
-0.95707554 -1.5624323 0.43933943
-0.94675434 -1.5455781 0.25566554
-1.0741168 -1.7412602 1.9033421
-1.0448488 -1.6951251 1.5334755
-1.020793 -1.6567366 1.2291342
-0.99728191 -1.6204642 0.96705979
-0.9825989 -1.5972214 0.74181259
-0.95997721 -1.5610508 0.53271675
-0.94676524 -1.5395617 0.34429619
-0.93650341 -1.5234611 0.16581348
-0.97155428 -1.5109922 11.419989
-1.0307544 -1.6196194 9.2532396
-1.1125735 -1.7670119 6.7225552
-1.166072 -1.8619677 5.2352896
-1.1899182 -1.9059075 4.1848917
-1.1861264 -1.9042363 3.3675654
-1.1354688 -1.8250242 2.6500478
-0.86207175 -1.3091743 14.576261
-1.0998166 -1.7326963 7.9389768
-1.148645 -1.8228425 5.9133
-1.1915084 -1.8988702 4.6990118
-1.2059379 -1.9270501 3.788569
-1.1590331 -1.8549573 2.9710774
-1.107785 -1.7756761 2.3471458
-1.0879892 -1.755519 2.1093841
-1.0587397 -1.7103056 1.7042983
-1.0286766 -1.6623815 1.3663102
-1.0071725 -1.6288871 1.0890352
-0.99000978 -1.601746 0.8491022
-0.97343999 -1.5755432 0.63431257
-0.95478207 -1.5465425 0.43654159
-0.94691145 -1.533789 0.25477138
-1.0723026 -1.7248166 1.8900402
-1.0443605 -1.6811672 1.5246459
-1.0197473 -1.6421769 1.2215346
-0.9933632 -1.6015458 0.95866758
-0.98070323 -1.5817418 0.73688203
-0.96029925 -1.5494276 0.53037208
-0.94691598 -1.5278293 0.34291482
-0.93392217 -1.507442 0.16520888
-0.97893578 -1.5108516 11.444685
-1.038051 -1.6185825 9.2679262
-1.1203344 -1.7656381 6.7320995
-1.1746498 -1.86119 5.2444944
-1.1991149 -1.9057965 4.1936703
-1.1837888 -1.8857844 3.3427677
-1.1316158 -1.8047565 2.6270227
-0.86368799 -1.3017162 14.526546
-1.1045034 -1.726729 7.9292984
-1.1568513 -1.8217356 5.9226861
-1.2004566 -1.8983793 4.7080145
-1.2098745 -1.9184167 3.7800369
-1.1542612 -1.8330516 2.9431474
-1.1067584 -1.7603186 2.3324451
-1.0884426 -1.7426364 2.0988705
-1.0544018 -1.6900879 1.6886059
-1.0256222 -1.6445889 1.3553444
-1.0058236 -1.6140827 1.0820787
-0.9906925 -1.5904106 0.84535617
-0.97386241 -1.5639914 0.6314925
-0.95238942 -1.5306878 0.43374372
-0.94699782 -1.5220177 0.25387722
-1.0703868 -1.7084068 1.876738
-1.0416429 -1.6638077 1.5128733
-1.0186126 -1.6276449 1.2139351
-0.99173039 -1.5865232 0.95237339
-0.97871131 -1.5662949 0.73195153
-0.95797676 -1.5336984 0.52685511
-0.94699639 -1.5161145 0.34153345
-0.93388647 -1.4956974 0.16480581
-0.98632801 -1.5106779 11.46938
-1.0459057 -1.6183695 9.2875061
-1.1280991 -1.7642317 6.7416434
-1.1832366 -1.8603754 5.2536998
-1.2083251 -1.9056443 4.2024479
-1.1783282 -1.8626163 3.3097041
-1.1276352 -1.7845381 2.6039979
-0.97205997 -1.3391435 28.451881
-0.87237602 -1.3048964 14.596147
-1.1091619 -1.7207502 7.9196196
-1.1641334 -1.8191395 5.9273782
-1.2094158 -1.8978488 4.7170167
-1.2179626 -1.9163829 3.7843029
-1.1509651 -1.8137462 2.9192071
-1.1038238 -1.7421263 2.3140695
-1.0869194 -1.7267541 2.0848522
-1.0520076 -1.6732168 1.6760521
-1.0246813 -1.6303779 1.3471199
-1.0020279 -1.5955566 1.0728035
-0.98884344 -1.5751638 0.83973712
-0.9742161 -1.552456 0.62867242
-0.95250738 -1.5190306 0.43187848
-0.94701368 -1.5102646 0.25298306
-1.0663764 -1.688875 1.8601105
-1.0388168 -1.6464878 1.5011007
-1.0150893 -1.6094947 1.2038023
-0.98758572 -1.5676914 0.94398123
-0.97914022 -1.5548773 0.72866452
-0.95814574 -1.5221181 0.5245105
-0.94436854 -1.500227 0.33946142
-0.93378031 -1.4839715 0.16440275
-0.99373114 -1.5104712 11.494078
-1.0532156 -1.6172683 9.3021917
-1.1366765 -1.7640474 6.7559595
-1.1918318 -1.8595232 5.2629046
-1.2175491 -1.9054512 4.2112265
-1.1727204 -1.8395095 3.2766404
-1.1235273 -1.7643696 2.5809729
-0.97672856 -1.3357421 28.451881
-0.87811732 -1.3036114 14.616033
-1.1137919 -1.7147598 7.9099402
-1.1714118 -1.8165152 5.9320712
-1.2183861 -1.8972791 4.7260194
-1.2119848 -1.8923544 3.7459095
-1.145925 -1.7919477 2.8912768
-1.1026001 -1.7268332 2.2993689
-1.0852989 -1.7109038 2.0708342
-1.0495086 -1.656383 1.6634983
-1.0214163 -1.6126614 1.3361541
-1.0004842 -1.5808198 1.0658472
-0.98689997 -1.5599494 0.83411795
-0.97450119 -1.5409372 0.62585235
-0.94993162 -1.5032386 0.42908064
-0.94695914 -1.4985299 0.2520889
-1.0642471 -1.672542 1.8468086
-1.0358826 -1.6292081 1.489328
-1.013764 -1.5950271 1.1962028
-0.98575449 -1.5527401 0.9376871
-0.97697091 -1.5394888 0.72373396
-0.95824569 -1.5105555 0.52216589
-0.94429415 -1.4885582 0.33808005
-0.9336037 -1.4722648 0.16399969
-1.0011446 -1.5102309 11.518774
-1.0605308 -1.6161357 9.3168783
-1.1444533 -1.7625728 6.7655034
-1.2004356 -1.8586339 5.27211
-1.228083 -1.9072303 4.2243934
-1.1669657 -1.8164648 3.243577
-1.1210237 -1.7469492 2.5617852
-0.88475865 -1.3036251 14.650833
-1.1190823 -1.7098098 7.9051008
-1.1796261 -1.8153089 5.9414568
-1.2273669 -1.8966699 4.7350216
-1.2072684 -1.8705825 3.711782
-1.1423793 -1.7727399 2.8673368
-1.1012831 -1.7115703 2.2846682
-1.083581 -1.6950862 2.0568159
-1.0469049 -1.6395872 1.6509445
-1.0180403 -1.5949876 1.3251883
-0.99646783 -1.5623786 1.056572
-0.98486251 -1.5447677 0.82849884
-0.9747178 -1.5294354 0.62303233
-0.94989586 -1.4916269 0.4272154
-0.94683415 -1.4868143 0.25119475
-1.062017 -1.6562446 1.8335066
-1.0328406 -1.6119691 1.4775554
-1.0100253 -1.5769587 1.1860701
-0.98383093 -1.5378205 0.93139297
-0.97725046 -1.5281128 0.72044694
-0.95827651 -1.4990108 0.51982123
-0.94148248 -1.4727359 0.33600801
-0.9333567 -1.4605772 0.16359663
-1.008137 -1.5093113 11.538531
-1.0684124 -1.6158209 9.3364582
-1.1530508 -1.7623141 6.779819
-1.2090477 -1.8577068 5.2813148
-1.234733 -1.9029318 4.2243934
-1.1595353 -1.7911205 3.2063804
-1.1184121 -1.729568 2.5425978
-0.89080888 -1.3027287 14.675691
-1.125736 -1.7069423 7.9099402
-1.1887919 -1.8155111 5.9555349
-1.2363584 -1.8960209 4.7440243
-1.2024149 -1.8488666 3.6776545
-1.1403548 -1.7561059 2.8473866
-1.0998733 -1.6963376 2.2699676
-1.081766 -1.6793014 2.0427978
-1.0441968 -1.6228299 1.6383907
-1.0168157 -1.5808742 1.3169639
-0.99473017 -1.5477113 1.0496155
-0.985237 -1.53352 0.82475281
-0.97227383 -1.5139147 0.61880219
-0.94979072 -1.4800336 0.42535016
-0.94394946 -1.4709266 0.24985351
-1.0596861 -1.6399834 1.8202046
-1.0318836 -1.5981672 1.468726
-1.0085106 -1.5625577 1.1784705
-0.98181522 -1.5229332 0.92509878
-0.97490454 -1.5127844 0.71551645
-0.95560634 -1.4833983 0.51630425
-0.93857211 -1.4569515 0.33393598
-0.93033481 -1.4447091 0.16299205
-1.0147011 -1.5077167 11.553349
-1.0757401 -1.6146235 9.3511448
-1.1616606 -1.762017 6.7941356
-1.2187393 -1.858376 5.2951226
-1.2387465 -1.8946012 4.2156153
-1.1519421 -1.7658507 3.169184
-1.1156931 -1.7122266 2.5234103
-0.89656085 -1.3013666 14.695577
-1.1323835 -1.7040493 7.9147801
-1.1970228 -1.8142312 5.9649205
-1.2441647 -1.893513 4.7485251
-1.1988542 -1.829389 3.6477933
-1.1365781 -1.7369863 2.8234465
-1.0965161 -1.6782976 2.2515917
-1.079854 -1.6635501 2.0287795
-1.0413848 -1.6061118 1.6258368
-1.0132306 -1.5632799 1.3059981
-0.99290228 -1.5330753 1.042659
-0.98302555 -1.518397 0.8191337
-0.96973336 -1.4984299 0.61457211
-0.94961625 -1.4684595 0.42348492
-0.94096535 -1.4550774 0.24851227
-1.0572548 -1.6237588 1.8069026
-1.0286384 -1.5810035 1.4569534
-1.0045574 -1.5445729 1.1683378
-0.97970772 -1.5080792 0.91880459
-0.97246355 -1.497491 0.71058589
-0.95548528 -1.4718997 0.51395965
-0.93825924 -1.445359 0.33255461
-0.92993301 -1.433071 0.16258898
-1.0203941 -1.5048085 11.558288
-1.0836401 -1.6142399 9.3707247
-1.1702822 -1.7616814 6.8084512
-1.2273731 -1.8573701 5.3043275
-1.2321754 -1.8702664 4.1717248
-1.1534618 -1.7547646 3.156785
-1.1146259 -1.6976047 2.5080602
-0.90231442 -1.2999804 14.715463
-1.1397235 -1.702175 7.924459
-1.2062148 -1.8143528 5.9789991
-1.2531704 -1.8927886 4.7575274
-1.1937352 -1.8077825 3.6136658
-1.1343406 -1.7204301 2.8034966
-1.0949107 -1.6631336 2.236891
-1.0758932 -1.6448482 2.0112567
-1.0405978 -1.5926915 1.6164215
-1.0118215 -1.5492309 1.2977736
-0.99340552 -1.5221807 1.0380214
-0.98072058 -1.5033082 0.81351459
-0.96709681 -1.4829813 0.61034197
-0.94937259 -1.4569045 0.42161968
-0.93788224 -1.439267 0.24717103
-1.054723 -1.607571 1.7936004
-1.0275022 -1.5672624 1.4481238
-1.000491 -1.5266352 1.1582052
-0.9775086 -1.4932585 0.91251045
-0.97251356 -1.4861847 0.70729887
-0.95529574 -1.4604201 0.51161504
-0.93516624 -1.4296426 0.33048257
-0.92946148 -1.4214535 0.16218592
-1.0256406 -1.5012375 11.558288
-1.0915505 -1.6138209 9.3903065
-1.1780853 -1.7600664 6.8179955
-1.2360147 -1.8563269 5.3135328
-1.2294235 -1.851987 4.1410012
-1.1533641 -1.7413435 3.1402533
-1.1134703 -1.6830111 2.4927104
-0.90837461 -1.2990066 14.74032
-1.1463614 -1.6992282 7.9292984
-1.2144617 -1.8129987 5.9883842
-1.260978 -1.8902137 4.7620287
-1.18848 -1.7862346 3.5795383
-1.1303341 -1.7014012 2.7795563
-1.0932132 -1.6480013 2.2221904
-1.0737777 -1.6291722 1.9972385
-1.0375894 -1.5760456 1.6038677
-1.0080281 -1.5317181 1.2868078
-0.99141091 -1.5076003 1.0310652
-0.980869 -1.492128 0.80976856
-0.96436435 -1.4675697 0.60611188
-0.94636363 -1.4412633 0.41882181
-0.93743366 -1.4276589 0.24627687
-1.0520914 -1.5914212 1.7802985
-1.0240548 -1.5501761 1.4363512
-0.99868739 -1.512342 1.1506057
-0.97521794 -1.4784716 0.90621626
-0.96989691 -1.4709539 0.70236832
-0.95503789 -1.4489601 0.50927037
-0.93470037 -1.4181001 0.3291012
-0.92892027 -1.4098569 0.16178286
-1.0308746 -1.4976482 11.558288
-1.0994711 -1.6133661 9.4098873
-1.186726 -1.759656 6.8323112
-1.2446641 -1.8552456 5.3227377
-1.2252277 -1.8317587 4.1058884
-1.154749 -1.730285 3.1278543
-1.1122266 -1.6684463 2.4773602
-0.91443908 -1.2980064 14.765178
-1.1536992 -1.6972953 7.9389768
-1.2227138 -1.8116089 5.9977698
-1.268783 -1.8876072 4.76653
-1.1845415 -1.7669114 3.5496764
-1.127885 -1.6849256 2.7596061
-1.0895393 -1.6300828 2.2038143
-1.071566 -1.6135311 1.9832205
-1.0366293 -1.5626835 1.5944521
-1.006436 -1.5177355 1.2785833
-0.9893266 -1.4930525 1.0241088
-0.97839129 -1.4771003 0.80414945
-0.96153611 -1.4521953 0.6018818
-0.94596767 -1.4297576 0.41695657
-0.93691564 -1.4160715 0.24538271
-1.0493599 -1.5753094 1.7669965
-1.0227402 -1.5364978 1.4275216
-0.99440801 -1.4944911 1.1404729
-0.9728362 -1.4637191 0.89992213
-0.96979916 -1.4596931 0.6990813
-0.95202249 -1.4334705 0.50575346
-0.93416536 -1.4065784 0.32771987
-0.92830932 -1.3982813 0.1613798
-1.036539 -1.4946791 11.563227
-1.1074018 -1.6128759 9.4294682
-1.1945392 -1.7579718 6.841855
-1.2522266 -1.8525082 5.3273401
-1.2209057 -1.8115827 4.0707755
-1.1529303 -1.7145681 3.1071897
-1.1108949 -1.653911 2.4620101
-0.92050755 -1.2969795 14.790035
-1.1610374 -1.6953317 7.9486556
-1.230971 -1.8101836 6.0071554
-1.2765849 -1.8849692 4.7710309
-1.1804825 -1.747638 3.519815
-1.1253345 -1.6684877 2.739656
-1.0876476 -1.6150221 2.1891139
-1.0692582 -1.5979253 1.9692023
-1.0355889 -1.5493478 1.5850369
-1.0070815 -1.5072597 1.2731004
-0.98961276 -1.4822217 1.0194712
-0.97839427 -1.4659641 0.80040342
-0.95861238 -1.4368587 0.59765172
-0.94550312 -1.4182724 0.41509131
-0.93632817 -1.4045053 0.24448855
-1.0465289 -1.5592362 1.7536945
-1.0190916 -1.5194908 1.415749
-0.99241698 -1.4802692 1.1328733
-0.97288871 -1.4527724 0.89572603
-0.96700776 -1.4445268 0.69415081
-0.95161396 -1.4220594 0.50340879
-0.93356138 -1.3950779 0.3263385
-0.92762911 -1.3867273 0.16097674
-1.0417501 -1.4910518 11.563227
-1.1159219 -1.6131871 9.4539442
-1.2031983 -1.7574863 6.8561711
-1.2608849 -1.8513551 5.336545
-1.216458 -1.7914594 4.0356631
-1.1525943 -1.7012146 3.0906579
-1.1094751 -1.6394053 2.44666
-1.0125821 -1.3065811 28.421932
-0.92658007 -1.2959262 14.814893
-1.1683762 -1.6933379 7.9583349
-1.239233 -1.8087227 6.016541
-1.2807027 -1.8769054 4.7620287
-1.1777712 -1.7305706 3.4942195
-1.1226834 -1.6520883 2.7197061
-1.0856639 -1.5999947 2.1744132
-1.0668547 -1.5823556 1.9551841
-1.0322936 -1.5328097 1.5724831
-1.0053312 -1.4933294 1.264876
-0.98736274 -1.4677318 1.0125147
-0.97574449 -1.450999 0.79478431
-0.95559347 -1.4215602 0.59342158
-0.94223082 -1.4027301 0.41229346
-0.93844831 -1.3970945 0.24404147
-1.0456903 -1.546295 1.7437181
-1.0175999 -1.5058776 1.4069196
-0.99033874 -1.4660796 1.1252737
-0.97033823 -1.438081 0.88943189
-0.9641223 -1.4293979 0.68922031
-0.95113748 -1.4106688 0.50106418
-0.93012011 -1.379493 0.32426646
-0.92687953 -1.3751954 0.16057368
-1.0482905 -1.4893123 11.578045
-1.1267866 -1.6167995 9.4980011
-1.2110209 -1.7557331 6.865715
-1.2695507 -1.8501642 5.3457503
-1.2105323 -1.7694128 3.9961612
-1.1505927 -1.6855605 3.069993
-1.1079679 -1.6249299 2.4313099
-1.0206921 -1.3075877 28.521765
-0.93265635 -1.2948461 14.83975
-1.175715 -1.6913133 7.9680138
-1.2474999 -1.8072263 6.0259266
-1.2699797 -1.8473094 4.6990118
-1.1749552 -1.7135435 3.4686239
-1.1199315 -1.635728 2.6997557
-1.083589 -1.5850009 2.1597126
-1.0643556 -1.5668223 1.9411659
-1.0310811 -1.5195347 1.5630677
-1.0034958 -1.4794296 1.2566516
-0.98750925 -1.4569427 1.0078771
-0.97560269 -1.4399084 0.79103822
-0.95516956 -1.4102725 0.59060156
-0.94161493 -1.3912964 0.41042823
-0.93773693 -1.3855618 0.24314731
-1.0426717 -1.5302932 1.7304161
-1.0160255 -1.4922929 1.39809
-0.99059933 -1.4554863 1.1202074
-0.97024876 -1.4271786 0.88523579
-0.96379763 -1.4182127 0.68593329
-0.94786161 -1.3952782 0.49754718
-0.92936426 -1.3680453 0.3228851
-0.9260608 -1.3636855 0.16017061
-1.0543818 -1.4869114 11.587923
-1.1371049 -1.6195225 9.5371628
-1.2188462 -1.7539468 6.8752594
-1.2782233 -1.8489352 5.3549552
-1.2058269 -1.7494013 3.9610486
-1.1484958 -1.6699409 3.0493283
-1.1063732 -1.6104851 2.4159601
-1.0240003 -1.302429 28.486822
-0.93873638 -1.2937396 14.864608
-1.1823326 -1.6882282 7.9728527
-1.2567568 -1.8071108 6.0400052
-1.2677431 -1.8303382 4.6675034
-1.1720346 -1.6965574 3.4430282
-1.117079 -1.6194071 2.6798058
-1.0814224 -1.5700412 2.1450119
-1.0617611 -1.5513258 1.9271477
-1.0275918 -1.5030738 1.5505139
-1.0015758 -1.4655613 1.2484273
-0.98509419 -1.4425123 1.0009208
-0.97278148 -1.4250076 0.78541911
-0.95197463 -1.3950425 0.58637142
-0.93816328 -1.3758255 0.40763035
-0.93695641 -1.3740512 0.24225317
-1.0416672 -1.5174096 1.7204396
-1.014369 -1.478738 1.3892606
-0.98836011 -1.441354 1.112608
-0.97009516 -1.4162945 0.88103968
-0.9607386 -1.4031508 0.68100274
-0.94723558 -1.383939 0.49520257
-0.92853987 -1.35662 0.32150373
-0.92235202 -1.348075 0.15956602
-1.060921 -1.4851184 11.602741
-1.1480439 -1.6230241 9.5812197
-1.2266734 -1.7521268 6.8848028
-1.2869029 -1.8476684 5.3641601
-1.1955321 -1.7215761 3.9083796
-1.1463041 -1.654357 3.0286636
-1.1046911 -1.5960714 2.40061
-1.0280023 -1.2981681 28.471849
-0.94482005 -1.2926061 14.889465
-1.1889431 -1.685118 7.9776921
-1.2660282 -1.8069526 6.0540833
-1.2616661 -1.8080497 4.6224909
-1.1690102 -1.6796126 3.4174328
-1.1141266 -1.6031263 2.6598556
-1.0791649 -1.5551159 2.1303113
-1.0590715 -1.5358666 1.9131296
-1.0262084 -1.4898615 1.5410986
-0.9995712 -1.4517243 1.2402028
-0.98510152 -1.4317662 0.99628317
-0.97249544 -1.4139639 0.78167301
-0.95140284 -1.3838052 0.58355141
-0.93739688 -1.3644447 0.40576512
-0.93610716 -1.362563 0.24135901
-1.0384619 -1.5014811 1.7071376
-1.0126301 -1.4652127 1.3804312
-0.98603427 -1.4272553 1.1050084
-0.96987736 -1.4054288 0.87684357
-0.96026766 -1.3920146 0.67771572
-0.94378245 -1.3686198 0.4916856
-0.92764705 -1.345217 0.32012239
-0.92138112 -1.3366207 0.15916295
-1.0674604 -1.4832978 11.617559
-1.1607941 -1.6289567 9.6399632
-1.2345029 -1.7502738 6.8943472
-1.2989558 -1.8511609 5.3871732
-1.1960421 -1.709543 3.8908234
-1.1440178 -1.6388086 3.0079987
-1.101089 -1.5790602 2.3814225
-1.0328877 -1.2950228 28.481833
-0.95059097 -1.2910168 14.909351
-1.1955464 -1.6819819 7.9825315
-1.2753135 -1.8067516 6.0681615
-1.257953 -1.7893879 4.5864816
-1.1673788 -1.6648451 3.3961029
-1.1128024 -1.5893542 2.6438954
-1.0748737 -1.5374475 2.1119354
-1.0562872 -1.5204453 1.8991114
-1.0247452 -1.4766769 1.5316831
-0.99748248 -1.4379194 1.2319785
-0.98252225 -1.4173969 0.98932678
-0.96950382 -1.3991294 0.77605397
-0.9507643 -1.3725888 0.58073127
-0.93376678 -1.3490472 0.40296727
-0.93802339 -1.3551923 0.24091193
-1.0372927 -1.4886568 1.697161
-1.0108093 -1.4517177 1.3716016
-0.986085 -1.4167285 1.0999421
-0.96959555 -1.394582 0.87264746
-0.9570359 -1.3770214 0.67278522
-0.94300747 -1.3573334 0.48934099
-0.92951167 -1.3379037 0.31943169
-0.92319143 -1.3292929 0.15896143
-1.0744562 -1.4820787 11.637316
-1.1658794 -1.6240678 9.6350679
-1.2423345 -1.7483876 6.9038906
-1.3020262 -1.8418295 5.3733649
-1.1923432 -1.6916549 3.8601
-1.141637 -1.6232967 2.9873343
-1.0973812 -1.5620936 2.3622351
-1.0374019 -1.2914095 28.481833
-0.95636243 -1.2894031 14.929237
-1.2014104 -1.6777985 7.9825315
-1.2836128 -1.8051015 6.0775471
-1.2528671 -1.7689977 4.5459704
-1.1641541 -1.6479795 3.3705075
-1.1113957 -1.5756111 2.6279354
-1.0724249 -1.5225997 2.0972347
-1.0534078 -1.5050622 1.885093
-1.0232024 -1.463521 1.5222677
-0.99530947 -1.4241468 1.223754
-0.98239112 -1.406695 0.98468918
-0.96642053 -1.3843329 0.77043486
-0.95005918 -1.361394 0.5779112
-0.93285054 -1.337721 0.40110204
-0.93705112 -1.3437401 0.24001777
-1.0339013 -1.4728031 1.683859
-1.0089068 -1.4382536 1.3627722
-0.98359913 -1.4026893 1.0923425
-0.96925002 -1.3837544 0.86845136
-0.95641971 -1.3659359 0.66949821
-0.94216514 -1.3460695 0.48699635
-0.92849672 -1.3265371 0.31805035
-0.9220975 -1.3178753 0.15855835
-1.0814565 -1.4808288 11.657073
-1.1745251 -1.6241131 9.659544
-1.2492988 -1.7452542 6.9086628
-1.3107141 -1.8404561 5.3825703
-1.1926942 -1.6796718 3.8425436
-1.1391618 -1.6078215 2.9666693
-1.091717 -1.542556 2.33921
-1.0384508 -1.2835183 28.386992
-0.96213412 -1.2877647 14.949123
-1.2065243 -1.6725752 7.9776921
-1.291916 -1.8034155 6.0869322
-1.2489187 -1.7504371 4.5099607
-1.1623383 -1.6332817 3.3491776
-1.1099068 -1.5618973 2.6119754
-1.0698855 -1.5077878 2.0825341
-1.0504344 -1.489718 1.8710749
-1.0193391 -1.4472119 1.5097139
-0.99305254 -1.4104068 1.2155296
-0.97964823 -1.3923886 0.97773278
-0.96591276 -1.3733671 0.76668876
-0.94928747 -1.3502209 0.57509118
-0.93469048 -1.3304372 0.4001694
-0.93601036 -1.3323113 0.23912361
-1.0325683 -1.4600401 1.6738826
-1.0069225 -1.4248204 1.3539426
-0.98351467 -1.3922057 1.0872761
-0.96884072 -1.3729464 0.86425525
-0.95573789 -1.3548717 0.66621119
-0.94125587 -1.3348278 0.48465171
-0.93026781 -1.319241 0.31735966
-0.92093539 -1.3064817 0.15815529
-1.0880005 -1.4789221 11.67189
-1.1801871 -1.6200033 9.659544
-1.253637 -1.7384611 6.8991189
-1.3114358 -1.8279328 5.3595576
-1.1901891 -1.6638112 3.8162091
-1.1349577 -1.590093 2.9418716
-1.0877906 -1.525687 2.3200223
-1.0414648 -1.2780962 28.347057
-0.96694398 -1.2848243 14.954095
-1.2108773 -1.66632 7.9680138
-1.2992132 -1.8002942 6.0916252
-1.2435855 -1.7301581 4.4694495
-1.1589143 -1.6164973 3.3235822
-1.1083357 -1.5482131 2.5960152
-1.0672559 -1.4930123 2.0678334
-1.0473666 -1.4744129 1.8570567
-1.0176272 -1.4341221 1.5002986
-0.99071211 -1.3967005 1.2073052
-0.9793793 -1.3817325 0.97309518
-0.96266031 -1.3586392 0.76106972
-0.94844937 -1.3390698 0.57227111
-0.93649101 -1.3231567 0.3992368
-0.93777829 -1.3249711 0.23867653
-1.0311586 -1.4473044 1.663906
-1.0072013 -1.4147116 1.3480563
-0.98086965 -1.3782278 1.0796765
-0.96836782 -1.3621581 0.86005914
-0.95499057 -1.343829 0.66292417
-0.9402796 -1.323609 0.48230708
-0.92913127 -1.3079115 0.31597832
-0.92259759 -1.2991858 0.15795377
-1.0950073 -1.4776121 11.691648
-1.1858348 -1.6158739 9.659544
-1.2596976 -1.7340745 6.8991189
-1.3052195 -1.8059273 5.3089299
-1.1889881 -1.6499314 3.7942636
-1.1322868 -1.5746983 2.921207
-1.0856299 -1.5114676 2.3046725
-1.0450034 -1.2733377 28.3221
-0.97400004 -1.2848387 14.993867
-1.2144587 -1.6590403 7.953495
-1.3065042 -1.7971438 6.0963182
-1.2394028 -1.7117012 4.4334402
-1.1569147 -1.6018711 3.3022525
-1.1066828 -1.534559 2.5800552
