# .PCD v0.7 - Point Cloud Data file format
VERSION 0.7
FIELDS x y z
SIZE 4 4 4
TYPE F F F
COUNT 1 1 1
WIDTH 1478
HEIGHT 1
VIEWPOINT 0 0 0 1 0 0 0
POINTS 1478
DATA ascii
-1.2864368 -12.117894 9.9082232
-1.1566154 -10.913139 7.2796526
-0.98806024 -9.3538742 5.0101256
-0.99385029 -9.4243832 3.9171302
-2.3475955 -22.298571 6.6805329
-0.36271328 -3.3555777 3.0872202
-1.3105854 -12.163308 8.9914446
-1.0025421 -9.3197107 5.593801
-1.003916 -9.3785839 4.4477291
-0.0060001086 -0.023455109 1.224227
-0.2857939 -2.4341044 7.8821478
-1.2010355 -10.674438 15.849071
-1.313274 -11.72709 14.204774
-0.027689219 -0.16101143 2.6649742
-0.38132435 -3.1479654 12.246064
-1.0169207 -8.631712 23.689499
-1.0598375 -9.1467562 19.102896
-1.1410719 -9.9539328 16.458393
-1.1327271 -9.9423676 13.325191
-1.355667 -11.973285 13.141105
-1.4296546 -12.970831 12.903386
-1.3287283 -12.11333 9.9082232
-1.0112491 -9.2339363 6.1748419
-1.0207053 -9.3503685 5.0101256
-1.0267415 -9.4208565 3.9171302
-2.4254177 -22.290239 6.6805329
-0.37442422 -3.3542912 3.0872202
-1.3543763 -12.170712 9.0002737
-1.0345919 -9.3118696 5.5912681
-1.0366473 -9.3750219 4.4477291
-0.0061016935 -0.023472929 1.2292267
-0.29428878 -2.4330919 7.8821478
-1.1692209 -9.9839087 18.488901
-1.236991 -10.658998 15.832539
-1.3553048 -11.731987 14.216286
-0.028354421 -0.16148184 2.6749575
-0.39355513 -3.1565938 12.28478
-1.0445498 -8.6075525 23.633186
-1.184687 -10.024998 16.582106
-1.1755114 -10.007184 13.416961
-1.3978465 -11.971846 13.144779
-1.4749225 -12.965761 12.903386
-1.3679382 -12.081546 9.8862543
-1.0453542 -9.2469692 6.1858077
-1.0533381 -9.3467493 5.0101256
-1.0601385 -9.4218216 3.9190032
-2.5037456 -22.286404 6.6819429
-0.38613063 -3.3529639 3.0872202
-1.069054 -9.3253336 5.6014009
-1.070395 -9.3803654 4.4519253
-0.0061835917 -0.023451487 1.2292267
-0.30204204 -2.4261246 7.863059
-1.3314286 -10.907454 25.946648
-1.1865635 -9.8347244 18.221167
-1.2758613 -10.668586 15.853203
-1.3970068 -11.73355 14.223961
-0.028917924 -0.16138189 2.6749575
-0.40425149 -3.1527076 12.275102
-1.0803646 -8.6500874 23.759892
-1.2221947 -10.041513 16.616234
-1.2104359 -10.003019 13.416961
-1.4396275 -11.966893 13.144779
-1.5201726 -12.960534 12.903386
-1.4101024 -12.076696 9.8862543
-1.0776258 -9.2432642 6.1858077
-1.0859579 -9.3430157 5.0101256
-1.0930203 -9.4180632 3.9190032
-2.5815244 -22.277529 6.6819429
-2.4387672 -21.109993 4.1259871
-0.40135354 -3.3812575 3.1138241
-1.0901215 -9.2106781 6.8370509
-1.0995753 -9.3044205 5.5912681
-1.1041925 -9.3855858 4.456121
-0.0062654153 -0.023429761 1.2292267
-0.31012967 -2.4220946 7.8535161
-1.3682772 -10.893047 25.923635
-1.2628034 -10.168017 18.844416
-1.1621137 -9.4379711 14.038838
-1.4387361 -11.734965 14.231636
-0.029534724 -0.16156361 2.679949
-0.41426826 -3.1437998 12.246064
-1.1149497 -8.6804953 23.853745
-1.2475138 -9.9595528 16.488255
-1.2390139 -9.9479008 13.34913
-1.4809743 -11.958431 13.141105
-1.5645484 -12.948068 12.896378
-1.4550389 -12.094889 9.9050856
-1.1103829 -9.243597 6.188549
-1.1185644 -9.3391666 5.0101256
-1.1258888 -9.4141903 3.9190032
-2.6598408 -22.273146 6.6833534
-2.51244 -21.101351 4.1259871
-0.41360697 -3.3835423 3.1171498
-1.1207989 -9.1947794 6.8282208
-1.1315262 -9.2962465 5.5887346
-0.43801284 -3.6196723 1.3581285
-0.0063270079 -0.023369048 1.224227
-0.31780308 -2.4150777 7.8344274
-1.4077944 -10.899831 25.951252
-1.3052691 -10.218189 18.945366
-1.1915148 -9.405941 13.99751
-1.477283 -11.710791 14.208611
-0.030043868 -0.16117607 2.6749575
-1.1484053 -8.7005033 23.919445
-0.4776887 -3.6737185 7.7238274
-1.2816051 -9.9499626 16.479723
-1.2725824 -9.9345484 13.33716
-1.5231364 -11.956552 13.144779
-1.609736 -12.942527 12.896378
-0.43089834 -3.4795544 2.9094658
-1.1426424 -9.239665 6.188549
-1.1511574 -9.335206 5.0101256
-1.1593103 -9.4148054 3.9208763
-2.7364016 -22.254204 6.6805329
-2.5866797 -21.097326 4.1269193
-0.43147352 -3.4302371 3.1603813
-1.1543971 -9.2028427 6.8370509
-1.1639693 -9.2922401 5.5887346
-0.46582049 -3.7399561 1.4008597
-0.0064085429 -0.023346821 1.224227
-0.32623136 -2.4139535 7.8344274
-1.5185645 -11.708741 14.212449
-0.030606294 -0.16107021 2.6749575
-1.1762189 -8.6776304 23.867825
-0.49079767 -3.6741862 7.7283287
-1.3088003 -9.8885479 16.385872
-1.313939 -9.9808331 13.404991
-1.5635428 -11.941077 13.133754
-1.6553565 -12.940367 12.899882
-0.44205785 -3.4703069 2.9031887
-1.1748878 -9.2356195 6.188549
-1.1842937 -9.3355255 5.0124445
-1.1915843 -9.4061012 3.9190032
-2.8122604 -22.230238 6.6763034
-2.658463 -21.073547 4.1241217
-0.43913409 -3.3953841 3.1304517
-1.1865141 -9.1987572 6.8370509
-1.2041085 -9.3479776 5.6241994
-0.45247161 -3.5322158 1.3285453
-0.0064899991 -0.023324309 1.224227
-0.33342466 -2.4039288 7.8057961
-1.309679 -9.7127647 18.028048
-1.5585798 -11.697015 14.204774
-0.03111173 -0.16067931 2.6699657
-1.3397973 -9.858077 16.343214
-1.3681499 -10.119517 13.596513
-1.6052155 -11.935548 13.133754
-1.7023761 -12.948653 12.913899
-0.47893116 -3.6578512 3.056973
-1.2076612 -9.2356091 6.1912909
-1.2168736 -9.3313351 5.0124445
-1.2262064 -9.4156752 3.9246221
-2.8780866 -22.129904 6.6495123
-2.7231617 -20.995939 4.1110649
-0.44950783 -3.3827264 3.1204751
-1.2186165 -9.1945591 6.8370509
-1.2423882 -9.3864527 5.6495314
-2.2144785 -16.866152 0.7798782
-0.0065713767 -0.02330151 1.224227
-0.3428655 -2.4101393 7.8296556
-1.3425899 -9.7010155 18.014879
-0.031672414 -0.16056973 2.6699657
-1.2250711 -8.5872059 23.642572
-1.3720388 -9.837842 16.317617
-1.419203 -10.228097 13.748132
-1.6477957 -11.936588 13.141105
-1.2178603 -9.0196934 9.0238533
-0.49065888 -3.6484423 3.0506961
-1.2404488 -9.2354822 6.1940322
-1.2494388 -9.3270302 5.0124445
-1.2578366 -9.4021492 3.9208763
-2.9508696 -22.086437 6.6396422
-2.7341473 -20.518862 4.0215335
-0.46030346 -3.3737381 3.1138241
-1.2507041 -9.1902494 6.8370509
-1.2844344 -9.4504032 5.690062
-1.8556455 -13.742795 3.4353747
-2.129792 -15.793826 0.73654902
-0.0066526742 -0.023278432 1.224227
-0.35127637 -2.4089277 7.8296556
-1.407606 -9.8174133 23.424465
-0.75815409 -5.3813977 8.0543299
-1.6139154 -11.498576 13.978361
-0.032232717 -0.16045819 2.6699657
-1.2550387 -8.5828772 23.642572
-1.4629641 -10.279762 13.823944
-1.2483582 -9.0083218 9.0168447
-1.2603006 -9.1295748 7.5135813
-1.2732502 -9.2352371 6.1967735
-1.2819885 -9.3226118 5.0124445
-1.2906485 -9.3977013 3.9208763
-1.3539578 -9.8714161 3.0186779
-2.6446266 -19.3314 3.7958393
-2.2274611 -16.28204 1.5682895
-0.4705241 -3.3610175 3.1038477
-1.2827764 -9.1858282 6.8370509
-1.3174148 -9.4458618 5.690062
-1.309876 -9.4278326 4.4875917
-1.8355485 -13.245144 3.3157985
-2.3846371 -17.207273 2.5151036
-2.0828545 -15.048929 0.70652092
-0.0067338902 -0.023255067 1.224227
-0.36144802 -2.4194973 7.8678312
-1.4353335 -9.7679834 23.318607
-0.78256679 -5.4177103 8.1121902
-0.032852203 -0.16062719 2.6749575
-1.276554 -8.5221252 23.487709
-1.501448 -10.292482 13.847883
-1.2990764 -8.9489183 9.8812332
-1.2828069 -9.0250931 9.0378714
-1.2916155 -9.1212664 7.5104427
-1.307236 -9.2431564 6.204998
-1.3145226 -9.3180799 5.0124445
-1.3877387 -9.8618793 3.0172679
-2.5174904 -17.935648 3.5300426
-2.1769888 -15.509764 1.4989924
-0.48119214 -3.3519628 3.0971966
-1.3142601 -9.1772938 6.8341074
-1.3479375 -9.4241352 5.6799293
-1.3357344 -9.3737783 4.4645133
-0.49442601 -3.4741287 1.3104666
-1.8776674 -13.209783 3.3087645
-2.2746444 -16.002565 2.3465776
-2.0159974 -14.200691 0.6722607
-0.0068150247 -0.023231421 1.224227
-0.36831096 -2.4078925 7.8344274
-1.4691306 -9.7609825 23.314005
-1.6969566 -11.506054 14.001385
-0.033412695 -0.16051154 2.6749575
-1.3251307 -8.6404305 23.82559
-1.5422657 -10.319961 13.891773
-1.3303061 -8.9443293 9.8812332
-1.3143024 -9.0205603 9.0378714
-1.3234469 -9.1167021 7.5104427
-1.3406928 -9.2468147 6.2104807
-1.3464068 -9.3090506 5.0101256
-1.4338 -9.9376888 3.0412385
-2.4072361 -16.725798 3.2996855
-2.1069651 -14.639462 1.4207536
-0.49125922 -3.3391807 3.0872202
-1.3462869 -9.1726503 6.8341074
-1.3733225 -9.3681908 5.6495314
-1.3671348 -9.3600769 4.4603171
-0.50450492 -3.4583633 1.3055362
-1.9181601 -13.164669 3.299386
-2.243381 -15.396688 2.2623148
-1.9432448 -13.35311 0.63800043
-0.0068960763 -0.023207489 1.224227
-0.3764829 -2.4051173 7.8296556
-1.5046816 -9.7654495 23.337017
-0.69574606 -4.5579228 8.5169125
-1.7572172 -11.633171 14.162561
-0.033972781 -0.16039392 2.6749575
-1.368662 -8.7209921 24.060228
-1.5801028 -10.326429 13.907734
-1.36203 -8.9429827 9.8849087
-1.3447293 -9.0088644 9.0308628
-1.3575525 -9.1274271 7.5229969
-1.3772631 -9.2710304 6.229671
-1.3808414 -9.31744 5.0170822
-0.50786728 -3.4311066 1.4896795
-1.4733914 -9.9658422 3.0511086
-2.3588102 -15.993202 3.1607251
-2.0497856 -13.897944 1.3541387
-0.50179929 -3.3300612 3.080569
-1.3782972 -9.1678944 6.8341074
-1.3989735 -9.3164473 5.6216664
-1.3997993 -9.3552475 4.4603171
-0.51029199 -3.4145486 1.2907445
-1.9641017 -13.157893 3.299386
-2.1640506 -14.497363 2.136611
-1.8903866 -12.679167 0.61079371
-0.0069982703 -0.023221398 1.2292267
-0.38487604 -2.4037883 7.8296556
-1.5390644 -9.7620668 23.341619
-0.71091259 -4.550734 8.5081348
-0.034594987 -0.16055618 2.679949
-1.409216 -8.7792034 24.23386
-1.3932384 -8.9381733 9.8849087
-1.3750901 -8.9970646 9.0238533
-1.3894049 -9.122632 7.5229969
-1.4071013 -9.2496319 6.2187057
-1.4146863 -9.3213224 5.0217199
-0.51636678 -3.4063952 1.4803143
-1.5067333 -9.9511518 3.0482886
-2.2825551 -15.110584 2.9928534
-1.9621664 -12.989593 1.2723233
-0.51228184 -3.3209093 3.0739181
-1.4102907 -9.1630278 6.8341074
-1.4282104 -9.290204 5.6090007
-1.4317594 -9.3458185 4.4582191
-0.52220786 -3.4127467 1.2907445
-2.0034099 -13.107713 3.288835
-2.0911896 -13.682011 2.0226488
-1.8313407 -11.995888 0.583184
-0.0070792851 -0.023196828 1.2292267
-0.39181709 -2.3935919 7.801024
-0.72641522 -4.5458598 8.503746
-1.4021418 -8.8631506 10.820094
-0.035155218 -0.16043444 2.679949
-1.4485161 -8.8270216 24.379335
-1.424964 -8.9366035 9.8885832
-1.4059362 -8.9886866 9.0203495
-1.4212403 -9.1177273 7.5229969
-1.4380931 -9.2363997 6.2132225
-1.4472152 -9.3163271 5.0217199
-0.52683252 -3.3954096 1.4765682
-1.557624 -10.050123 3.0793095
-2.2114284 -14.301522 2.8389709
-1.9093269 -12.347794 1.21465
-0.52328867 -3.3154128 3.0705926
-1.4428958 -9.1620417 6.8370509
-1.457281 -9.2638693 5.5963345
-1.4657795 -9.3497314 4.4624152
-0.53484797 -3.4155684 1.2923881
-2.0491521 -13.10064 3.288835
-2.0187867 -12.906492 1.9142119
-1.7760317 -11.367479 0.55779111
-0.0071387216 -0.023134004 1.224227
-0.40189448 -2.4025152 7.8344274
-0.74575484 -4.56457 8.5432472
-1.4346071 -8.8676939 10.831607
-0.035715029 -0.16031075 2.679949
-1.4827442 -8.8423328 24.435648
-1.6170682 -9.8322639 16.368809
-1.4566954 -8.9349213 9.8922586
-1.4378675 -8.9872456 9.0238533
-1.4530586 -9.11271 7.5229969
-1.46901 -9.2230644 6.2077394
-1.4922413 -9.389967 5.0634584
-0.53650105 -3.3798144 1.4709492
-1.5904421 -10.03041 3.0750792
-2.1300771 -13.46404 2.679493
-1.8512537 -11.701611 1.1565298
-0.53426337 -3.3098798 3.0672669
-1.4755113 -9.1609402 6.839994
-1.4902937 -9.2629814 5.5988679
-1.4998447 -9.3535213 4.4666114
-0.54676729 -3.4136806 1.2923881
-2.0987089 -13.117405 3.2946966
-1.9613378 -12.258793 1.8237329
-1.7447424 -10.917211 0.53965336
-0.0072194315 -0.023108942 1.224227
-0.41027838 -2.4010975 7.8344274
-0.76010567 -4.5524888 8.525691
-1.461892 -8.840497 10.804745
-0.0362744 -0.1601851 2.679949
-1.518845 -8.8677197 24.520119
-1.6621854 -9.8908587 16.475456
-1.4680032 -8.7728167 11.852872
-1.4889897 -8.936471 9.8996096
-1.4761384 -9.0244055 9.0659075
-1.486738 -9.1191072 7.5324121
-1.4998512 -9.2096262 6.2022562
-1.5377988 -9.4634047 5.1051965
-0.54978114 -3.387073 1.4746952
-1.625445 -10.024797 3.0750792
-2.0633056 -12.753387 2.5442631
-1.7982379 -11.114982 1.1037745
-0.54520583 -3.3043106 3.0639415
-1.5081366 -9.1597214 6.842937
-1.5226185 -9.2577238 5.5988679
-1.5332196 -9.3527079 4.4687095
-0.55867988 -3.4117513 1.2923881
-2.0809269 -12.721453 3.199739
-1.8882012 -11.543242 1.7235843
-1.6918024 -10.353901 0.51688033
-0.0073000523 -0.023083603 1.224227
-0.77558953 -4.5474477 8.5213013
-1.497548 -8.8637838 10.839282
-0.036833327 -0.1600575 2.679949
-1.5497899 -8.8623638 24.520119
-1.6962599 -9.8824272 16.471191
-1.4991246 -8.7706089 11.856861
-1.5224502 -8.9445868 9.9143095
-1.5152745 -9.0649242 9.1114674
-0.60501707 -3.6312299 3.0506961
-1.5319897 -9.2043352 6.2022562
-1.5708228 -9.4579792 5.1051965
-0.5608421 -3.3805597 1.4728222
-1.6572909 -10.000133 3.0694392
-1.9851885 -12.004603 2.4015722
-1.743588 -10.543614 1.0523604
-0.55673671 -3.3023872 3.0639415
-1.5407714 -9.1583872 6.84588
-1.5556391 -9.2566032 5.6014009
-1.5673568 -9.3562498 4.4729052
-0.57058579 -3.4097803 1.2923881
-2.0908606 -12.507966 3.1493294
-1.8288733 -10.940695 1.6393212
-1.6489407 -9.8748722 0.49753338
-0.0073586954 -0.023020234 1.2192272
-0.04426432 -0.24287947 1.2103817
-0.79186928 -4.5470715 8.525691
-1.5279342 -8.8553438 10.835444
-0.037391808 -0.15992796 2.679949
-1.5858706 -8.8857813 24.599895
-1.7307454 -9.8764448 16.471191
-1.5286945 -8.7593851 11.848882
-1.5548245 -8.945899 9.9216604
-1.5577126 -9.1228571 9.1745491
-0.59352285 -3.4871225 2.9345734
-1.5641096 -9.1989317 6.2022562
-1.6090152 -9.4830112 5.1214285
-0.57341379 -3.3831522 1.4746952
-1.6913871 -9.9895573 3.0680292
-1.9223297 -11.377621 2.2821968
-1.7189873 -10.174095 1.0192765
-0.57142884 -3.3188219 3.080569
-1.5740997 -9.1609201 6.8517661
-1.5879413 -9.2511168 5.6014009
-1.6007721 -9.355196 4.4750032
-0.5824846 -3.4077678 1.2923881
-2.0207891 -11.834603 2.9863772
-1.7770324 -10.407052 1.5647278
-1.637198 -9.5981922 0.48644915
-0.0074390061 -0.022994407 1.2192272
-0.045298807 -0.24372438 1.2152771
-0.80102986 -4.5065517 8.4554653
-1.5345101 -8.685297 13.026266
-1.5599477 -8.8562698 10.84312
-0.037949834 -0.15979646 2.679949
-0.38197067 -2.0598967 8.1035175
-1.6159506 -8.8750973 24.585817
-1.7606187 -9.8446712 16.428532
-1.5613749 -8.7658625 11.864841
-1.5901872 -8.9637823 9.9473858
-1.5889351 -9.1138496 9.1710443
-0.60569155 -3.4850295 2.9345734
-1.5969255 -9.1975346 6.204998
-1.6239564 -9.3725824 5.0657768
-0.58521968 -3.38113 1.4746952
-1.7254295 -9.9788656 3.0666192
-1.839249 -10.659255 2.1451018
-1.6604985 -9.6233063 0.9696508
-0.58494949 -3.3278396 3.0905457
-1.6067661 -9.1593513 6.8547096
-1.6202239 -9.2455168 5.6014009
-1.6341991 -9.3540211 4.4771013
-0.59437639 -3.4057138 1.2923881
-1.9502177 -11.185832 2.8292866
-1.7478565 -10.025144 1.5115455
-1.5823976 -9.0854702 0.46569151
-0.0075413785 -0.023005892 1.224227
-0.047101509 -0.24856597 1.2397531
-0.81376392 -4.4872322 8.4247417
-1.5638195 -8.6743479 13.018001
-1.5948218 -8.8728542 10.869983
-0.038507394 -0.15966302 2.679949
-0.38728997 -2.0486701 8.0648022
-1.6425097 -8.8456488 24.520119
-1.7954403 -9.8410301 16.432798
-1.5914253 -8.7573948 11.860851
-1.6190516 -8.9448328 9.9326849
-1.6201138 -9.1047363 9.1675406
-0.61173373 -3.4484019 2.9063272
-1.6290212 -9.1919041 6.204998
-1.6443188 -9.2970629 5.028676
-0.59782505 -3.3836319 1.4765682
-1.7569164 -9.9538851 3.0609789
-1.8082726 -10.265748 2.070492
-1.6387897 -9.303565 0.94103765
-0.60051793 -3.3478279 3.1104987
-1.6408654 -9.1656227 6.8635392
-1.652487 -9.2398052 5.6014009
-1.6676376 -9.3527279 4.4791994
-0.60626096 -3.4036183 1.2923881
-1.9126116 -10.748266 2.7237782
-1.707361 -9.5948153 1.4514563
-1.5520192 -8.7306538 0.45138279
-0.0076216385 -0.022979427 1.224227
-0.047387078 -0.24540134 1.2250675
-0.77671117 -4.1994047 7.8936639
-1.6379234 -8.9334383 10.950569
-0.039064489 -0.15952763 2.679949
-0.3949146 -2.0497742 8.074481
-1.6704878 -8.8246021 24.477884
-1.6208863 -8.7458601 11.852872
-1.649034 -8.9324598 9.9253349
-1.642967 -9.049902 9.1184769
-0.61822087 -3.4156046 2.8812196
-1.6618412 -9.1902771 6.2077394
-1.6751883 -9.282548 5.0240388
-0.60963255 -3.3815243 1.4765682
-1.7899508 -9.9382505 3.0581591
-1.761537 -9.8000708 1.9818932
-1.5946064 -8.8713646 0.90214181
-0.61421663 -3.3567295 3.1204751
-1.675028 -9.1717682 6.8723683
-1.6855036 -9.2382212 5.6039343
-1.7002746 -9.3468504 4.4791994
-0.61813807 -3.4014814 1.2923881
-1.8589516 -10.239367 2.6006846
-1.6453069 -9.0625753 1.3768629
-1.5325577 -8.4499025 0.44009706
-0.0076793907 -0.022915246 1.2192272
-0.048440821 -0.24623333 1.2299627
-0.05514241 -0.28712547 0.98185903
-0.78603876 -4.1684256 7.8409948
-1.6714531 -8.9402695 10.965919
-0.039621107 -0.1593903 2.679949
-0.40327826 -2.0545502 8.0986776
-1.6787248 -8.7018023 24.154083
-0.68982327 -3.6132624 7.6698132
-1.6254672 -8.5701466 14.338224
-1.6542023 -8.7549534 11.872821
-1.6795771 -8.9233179 9.9216604
-1.6648077 -8.9915113 9.0659075
-0.62801981 -3.401943 2.871804
-1.6946695 -9.1885328 6.2104807
-1.7091839 -9.2853565 5.028676
-0.62143254 -3.3793757 1.4765682
-1.8003607 -9.7998343 3.0186779
-1.7142311 -9.3493452 1.8960922
-1.5617967 -8.5179634 0.87039918
-0.62250549 -3.3362131 3.1038477
-1.7107337 -9.1857338 6.8870845
-1.7177408 -9.2322817 5.6039343
-1.7362022 -9.3587074 4.4875917
-0.63000774 -3.399303 1.2923881
-1.7876041 -9.6545105 2.4588344
-1.6219341 -8.7597485 1.3347313
-1.5011597 -8.1153564 0.4265945
-0.0077593336 -0.022888301 1.2192272
-0.049099132 -0.24506454 1.2250675
-0.05729384 -0.29279035 1.0009469
-1.7092508 -8.9690151 11.008132
-0.040249575 -0.15953054 2.6849408
-1.6961093 -8.6298513 23.971064
-0.70326328 -3.6151061 7.6788158
-1.6543828 -8.5592995 14.329692
-1.6921601 -8.787591 11.924692
-1.7087988 -8.9074116 9.910634
-1.6955223 -8.9821415 9.0624037
-0.63629103 -3.3806045 2.856112
-1.7275058 -9.1866703 6.2132225
-1.7415854 -9.2793341 5.028676
-0.6332249 -3.3771858 1.4765682
-1.8336743 -9.7887754 3.0172679
-1.6782453 -8.9763317 1.825213
-1.5494205 -8.2872829 0.84983361
-0.62926316 -3.3083436 3.080569
-1.7427874 -9.1797066 6.8870845
-1.7507603 -9.2304659 5.6064672
-1.77139 -9.3659687 4.493886
-0.64186966 -3.397083 1.2923881
-1.7545737 -9.2947683 2.3720829
-1.5854448 -8.3988075 1.2843118
-1.4896661 -7.898963 0.41792864
-0.0078165065 -0.022823798 1.2142273
-0.049954269 -0.24489166 1.2250675
-0.060070459 -0.30137116 1.0295788
-1.0764091 -5.5276933 8.3436356
-1.7405481 -8.9629936 11.008132
-0.040806197 -0.15938906 2.6849408
-1.7194482 -8.5900364 23.877211
-0.71799409 -3.6233063 7.7013216
-1.685258 -8.558589 14.338224
-1.7257248 -8.7964153 11.944642
-1.7411817 -8.9080477 9.917985
-1.7241704 -8.9621601 9.0483856
-0.64368755 -3.3554268 2.837281
-1.76035 -9.1846914 6.2159638
-1.7747982 -9.2775488 5.0309949
-0.64500964 -3.3749549 1.4765682
-1.8309445 -9.5891256 2.9594567
-1.6396769 -8.6036892 1.7543339
-1.5074841 -7.910038 0.81585556
-0.63654459 -3.2841339 3.0606163
-1.770981 -9.1537247 6.8723683
-1.7829701 -9.2242975 5.6064672
-1.8100854 -9.3909235 4.5085721
-0.65372378 -3.3948219 1.2923881
-1.7098714 -8.8876467 2.2736082
-1.5689098 -8.1549406 1.2504684
-1.4672508 -7.6336899 0.40724751
-0.007896129 -0.022796374 1.2142273
-0.050808795 -0.24471579 1.2250675
-0.061717268 -0.30408514 1.0391228
-1.0814615 -5.452136 8.2361784
-1.7631159 -8.9128428 10.954407
-0.041436598 -0.1595246 2.6899323
-0.63574868 -3.0680928 12.100882
-1.7161485 -8.5577688 14.346756
-1.7688189 -8.8523903 12.028433
-1.7722661 -8.9019156 9.917985
-1.7547576 -8.9525871 9.0448809
-0.65166277 -3.3340595 2.8215888
-1.7923998 -9.1784906 6.2159638
-1.8071719 -9.2712975 5.0309949
-0.65678656 -3.372683 1.4765682
-1.607893 -8.2796497 1.6927809
-1.4999596 -7.7238483 0.79931366
-0.64583451 -3.2709026 3.0506394
-1.7997961 -9.1316242 6.8605962
-1.8159908 -9.2222471 5.6090007
-1.8437294 -9.3890018 4.5106702
-0.66556996 -3.3925192 1.2923881
-1.6660892 -8.5000353 2.1798227
-1.5411668 -7.8626986 1.2097183
-1.4468428 -7.3882847 0.39737251
-0.0079756547 -0.022768673 1.2142273
-0.051662702 -0.24453695 1.2250675
-0.062475644 -0.30240616 1.0343508
-1.1071726 -5.4814277 8.2857742
-1.790419 -8.8877821 10.931382
-0.041993193 -0.15937899 2.6899323
-0.64645445 -3.065855 12.100882
-1.7470536 -8.5568371 14.355289
-1.7997086 -8.8461618 12.028433
-1.8060229 -8.9089651 9.9326849
-1.788092 -8.9568996 9.0553951
-0.66329688 -3.3317645 2.8215888
-1.8252436 -9.17628 6.2187057
-1.8403865 -9.2692776 5.0333138
-0.66855544 -3.3703697 1.4765682
-1.6749587 -8.4514856 2.6224589
-1.5872136 -8.0234051 1.6442846
-1.475691 -7.4596448 0.77561849
-0.65503991 -3.257647 3.040663
-1.8308649 -9.1213226 6.8576527
-1.8490188 -9.2200775 5.6115332
-1.8729315 -9.364707 4.5022783
-0.67833328 -3.3948059 1.2940316
-1.6405575 -8.2177067 2.1118283
-1.5055865 -7.5416155 1.1648241
-1.4276716 -7.1578155 0.38810208
-0.0080550835 -0.022740694 1.2142273
-0.052515984 -0.24435511 1.2250675
-0.063530862 -0.30218625 1.0343508
-1.1217651 -5.4554787 8.2527113
-1.8143487 -8.8469391 10.88917
-0.042396817 -0.15867454 2.679949
-0.6571523 -3.0635798 12.100882
-2.2366664 -10.596024 29.503836
-1.7774426 -8.5532408 14.359553
-1.8153001 -8.7660589 11.928682
-1.8405359 -8.9192066 9.9510612
-1.8200569 -8.9540987 9.0588989
-0.67492282 -3.3294289 2.8215888
-1.8580936 -9.1739502 6.221447
-1.8736091 -9.2671385 5.0356326
-0.68031609 -3.3680155 1.4765682
-1.7035005 -8.4408846 2.6210487
-1.5502142 -7.6951776 1.5817991
-1.4574646 -7.2347631 0.7554999
-0.6671561 -3.2589986 3.0439887
-1.8651211 -9.1267576 6.8664823
-1.8820542 -9.2177916 5.6140666
-1.8956472 -9.3091927 4.4791994
-0.69017923 -3.3924174 1.2940316
-1.5888703 -7.8165832 2.0145259
-1.4973773 -7.3664651 1.1406503
-1.4138697 -6.961844 0.38024238
-0.0081344144 -0.022712437 1.2142273
-0.053150322 -0.24317577 1.2201723
-0.064272396 -0.30050308 1.0295788
-0.87168419 -4.1440187 7.827827
-1.1436836 -5.465301 8.2733755
-1.8439094 -8.8342762 10.881495
-0.042873241 -0.15824743 2.6749575
-0.66784221 -3.0612671 12.100882
-2.2721906 -10.581403 29.485064
-0.76217157 -3.5831184 7.6383047
-1.8083673 -8.5520868 14.368086
-1.8427817 -8.7449265 11.908731
-1.8883804 -8.9923544 10.039266
-1.852024 -8.9511824 9.0624037
-0.6865406 -3.3270526 2.8215888
-1.8917941 -9.1755981 6.2269297
-1.906839 -9.2648811 5.0379515
-0.69300228 -3.3701613 1.4784412
-1.6702033 -8.1294584 2.5293968
-1.5306814 -7.4635506 1.537966
-1.4306831 -6.9759526 0.73225176
-0.67852807 -3.25665 3.0439887
-1.8977909 -9.1241484 6.8694253
-1.9142188 -9.2111664 5.6140666
-1.9198407 -9.2625217 4.4603171
-0.70201671 -3.3899875 1.2940316
-1.5787218 -7.6301169 1.969978
-1.4729134 -7.1187258 1.1061163
-1.401752 -6.7807369 0.37298727
-0.008236968 -0.022720782 1.2192272
-0.053998839 -0.24298878 1.2201723
-0.065320961 -0.30027691 1.0295788
-2.0832438 -9.6685715 23.360031
-0.88363814 -4.129241 7.805882
-1.1645122 -5.469533 8.2857742
-1.8707404 -8.8089752 10.85847
-0.043347199 -0.15781888 2.6699657
-0.67689031 -3.0515544 12.071846
-2.3116903 -10.585209 29.517914
-0.77329308 -3.574053 7.6248007
-1.8382087 -8.545722 14.368086
-1.9232997 -9.002285 10.057641
-1.8839929 -8.9481525 9.0659075
-0.69735003 -3.3208265 2.8184502
-1.9238114 -9.1689386 6.2269297
-1.9346273 -9.2364902 5.0263577
-0.70476216 -3.3677218 1.4784412
-1.6435894 -7.8606291 2.4504347
-1.5175805 -7.2706261 1.5015937
-1.424499 -6.8246689 0.71883941
-0.68989182 -3.2542617 3.0439887
-1.9304657 -9.1214228 6.8723683
-1.947252 -9.2086458 5.6166
-1.8865967 -8.9449062 4.3134532
-0.71384573 -3.3875163 1.2940316
-1.538249 -7.3058848 1.8914326
-1.4589823 -6.9294 1.0798705
-1.3863305 -6.5900235 0.36532909
-0.0083162282 -0.022691891 1.2192272
-0.0548467 -0.24279881 1.2201723
-0.066691808 -0.30150437 1.0343508
-2.1140535 -9.6478825 23.327812
-0.89651835 -4.1191106 7.7927146
-1.184193 -5.4681854 8.2899075
-1.9021549 -8.8055239 10.862308
-0.043739546 -0.15711133 2.6599824
-0.68587875 -3.041816 12.042809
-2.3497479 -10.58213 29.531994
-0.78857118 -3.5840883 7.6518078
-1.8724866 -8.5596361 14.402214
-1.2233578 -5.6111159 7.6793065
-1.9575915 -9.0087681 10.072342
-1.9159633 -8.9450092 9.0694122
-0.70893764 -3.318372 2.8184502
-1.9592969 -9.178525 6.2378955
-1.9437748 -9.1213684 4.9683876
-0.7165134 -3.3652411 1.4784412
-1.6131233 -7.5827041 2.3686528
-1.4878447 -7.0058098 1.4512323
-1.4131385 -6.6540298 0.70363873
-0.70124704 -3.2518337 3.0439887
-1.9639951 -9.1225319 6.8782549
-1.9793843 -9.2017918 5.6166
-1.8111699 -8.4412642 4.0784717
-0.7266559 -3.3896213 1.2956752
-1.5148755 -7.0723357 1.8351614
-1.443748 -6.7402601 1.0536246
-1.3654131 -6.379961 0.35686478
-0.0084189661 -0.022699436 1.224227
-0.055693891 -0.24260588 1.2201723
-0.067743845 -0.30126974 1.0343508
-2.1498423 -9.6499786 23.350824
-0.91089123 -4.1159563 7.7927146
-1.2069046 -5.4805069 8.3147049
-1.9370066 -8.8176136 10.885332
-0.044528022 -0.15778978 2.6749575
-0.69565004 -3.0357277 12.028291
-2.3847723 -10.565446 29.50853
-0.79917616 -3.5728161 7.6338034
-1.9068837 -8.5734129 14.43634
-1.244241 -5.6126943 7.6872859
-1.9890261 -9.0018797 10.072342
-1.9479346 -8.9417505 9.072917
-0.71969014 -3.3120739 2.8153119
-1.9913241 -9.1716299 6.2378955
-1.9202373 -8.8591003 4.8315783
-0.7292372 -3.3672504 1.4803143
-1.5868251 -7.3332229 2.2953312
-1.4759871 -6.8325214 1.4185907
-1.3858827 -6.4154077 0.68217891
-0.71339369 -3.2530131 3.0473142
-1.9949621 -9.1116714 6.8753114
-2.0004373 -9.1442928 5.5862021
-1.7835349 -8.173274 3.9546864
-0.73848349 -3.387064 1.2956752
-1.512653 -6.9435244 1.8046812
-1.4114 -6.4787345 1.0170186
-1.382362 -6.3507476 0.35585713
-0.0084981499 -0.022669911 1.224227
-0.056540404 -0.24240999 1.2201723
-0.068795063 -0.30103144 1.0343508
-2.1852398 -9.6500368 23.369236
-0.92472732 -4.110415 7.7883253
-1.2198796 -5.4488001 8.2733755
-1.9705687 -8.8233118 10.900682
-0.044267792 -0.15486264 2.6250408
-0.70367652 -3.0222631 11.984735
-2.421252 -10.555375 29.503836
-0.81164277 -3.5700049 7.6338034
-1.9425502 -8.5921431 14.478999
-1.2598506 -5.5906801 7.6633458
-2.0159783 -8.9750357 10.050291
-1.9806778 -8.9418612 9.0799265
-0.73124701 -3.3095417 2.8153119
-2.0179181 -9.1401243 6.221447
-1.8624741 -8.4500284 4.6159301
-0.74098659 -3.3646843 1.4803143
-1.5639602 -7.1074448 2.2290597
-1.4576682 -6.6354136 1.3812858
-1.4071997 -6.4056668 0.68173182
-0.7247445 -3.2505033 3.0473142
-2.0311472 -9.1243792 6.8900275
-1.9874182 -8.9352713 5.4646091
-1.7599505 -7.932168 3.8434896
-0.75030202 -3.3844655 1.2956752
-1.5032426 -6.7863431 1.767167
-1.4083029 -6.3577318 1.0004423
-1.3494614 -6.0971117 0.34557906
-0.0085772313 -0.022640109 1.224227
-0.057621852 -0.24320172 1.2250675
-0.070183761 -0.30224332 1.0391228
-0.93853593 -4.1048274 7.783937
-1.2457604 -5.4746914 8.3188381
-2.0056133 -8.8351336 10.923707
-0.045054216 -0.15553755 2.6400158
-0.71451122 -3.0210116 11.989575
-2.4576907 -10.545178 29.499144
-0.82262921 -3.5607867 7.6202993
-1.9760349 -8.6005611 14.504596
-1.2820491 -5.5979977 7.6793065
-2.0389948 -8.9315882 10.009864
-2.0118785 -8.9348927 9.0799265
-0.74279505 -3.3069689 2.8153119
-2.0159297 -8.9820671 6.1200123
-1.8357803 -8.1927643 4.4814396
-0.75272703 -3.3620772 1.4803143
-1.5405861 -6.8866 2.1641982
-1.4208599 -6.361814 1.3290591
-1.3828747 -6.1917267 0.66250747
-0.73608643 -3.2479534 3.0473142
-2.0576324 -9.0935802 6.8723683
-1.929235 -8.53304 5.2264905
-1.7187283 -7.6204925 3.6987243
-0.76314956 -3.3864324 1.2973186
-1.4713987 -6.5344763 1.7062066
-1.3978515 -6.2078443 0.97972184
-1.3367404 -5.941267 0.3393316
-0.0086562075 -0.022610031 1.224227
-0.058470435 -0.24299911 1.2250675
-0.071238361 -0.3019965 1.0391228
-0.95231676 -4.099194 7.7795477
-1.2597914 -5.4483767 8.2857742
-2.0378823 -8.8343258 10.931382
-0.044351771 -0.15123181 2.565141
-0.72534579 -3.0197215 11.994415
-2.4944854 -10.536535 29.499144
-0.83505368 -3.5578935 7.6202993
-2.0042658 -8.5859919 14.491798
-1.3070456 -5.6169667 7.7112265
-2.065563 -8.9046011 9.987813
-2.0422595 -8.9243393 9.0764217
-0.75346768 -3.3005612 2.8121734
-2.0389011 -8.9382858 6.0953393
-1.7964932 -7.8882804 4.3214421
-0.7644583 -3.3594294 1.4803143
-1.5178171 -6.6753635 2.1021566
-1.4278336 -6.2897501 1.3160024
-1.3636886 -6.0071745 0.64596558
-0.74825734 -3.2490025 3.0506394
-0.84567726 -3.6778195 2.8314095
-1.8885407 -8.2195568 5.0415683
-1.6946185 -7.3932562 3.5938215
-0.77496576 -3.3837478 1.2973186
-1.4302251 -6.2497506 1.6370398
-1.3830571 -6.0436268 0.95692939
-1.3095845 -5.7271447 0.33066577
-0.0087109897 -0.022543296 1.2192272
-0.059318304 -0.24279353 1.2250675
-0.072292089 -0.30174598 1.0391228
-0.96606964 -4.0935135 7.7751584
-2.0672448 -8.8209171 10.923707
-0.044039682 -0.14831398 2.5152245
-0.73618019 -3.0183923 11.999254
-2.5308461 -10.526086 29.49445
-0.84797287 -3.5570745 7.6248007
-2.0318172 -8.5687923 14.474734
-1.3342696 -5.6446266 7.7551165
-2.0919673 -8.8775377 9.9657612
-0.76498419 -3.2979109 2.8121734
-1.987002 -8.5726519 5.8540907
-1.7600979 -7.6057544 4.173039
-0.77618021 -3.3567405 1.4803143
-1.5022321 -6.5017633 2.0513957
-1.4276965 -6.1889968 1.2973499
-1.3432311 -5.822834 0.62942362
-0.7595939 -3.2463708 3.0506394
-0.8594296 -3.678781 2.8343523
-1.8427424 -7.8938718 4.8490472
-1.6730615 -7.1839652 3.4973111
-0.78677249 -3.3810222 1.2973186
-1.4443263 -6.2115798 1.6288337
-1.3693767 -5.8892369 0.93551826
-1.2990408 -5.5911484 0.32522443
-0.0087896269 -0.022512753 1.2192272
-0.060165446 -0.24258499 1.2250675
-0.073344938 -0.30149183 1.0391228
-0.98035276 -4.0901165 7.7751584
-2.0980229 -8.8136473 10.923707
-0.044557124 -0.14815935 2.5152245
-0.7464096 -3.0145841 11.994415
-2.5688014 -10.522218 29.50853
-2.0586627 -8.5489712 14.453404
-1.3525581 -5.6340752 7.7471366
-2.115052 -8.8372116 9.9290104
-0.7764914 -3.2952206 2.8121734
-1.9383261 -8.2319126 5.6292896
-1.733918 -7.3753276 4.0524616
-0.78895295 -3.3585236 1.4821874
-1.450375 -6.1789117 1.9555132
-1.4145442 -6.0357132 1.2684388
-1.3237767 -5.6484089 0.61377585
-0.77178466 -3.2473323 3.0539651
-0.87133247 -3.6718261 2.8314095
-1.8006622 -7.5937777 4.6717243
-1.6511093 -6.9793334 3.4028988
-0.79856968 -3.3782551 1.2973186
-1.4235402 -6.0267429 1.5842855
-1.3443904 -5.6916432 0.90789109
-1.2898593 -5.4650211 0.32018617
-0.0088681579 -0.022481933 1.2192272
-0.061011862 -0.24237348 1.2250675
-0.074396893 -0.30123395 1.0391228
-0.99519038 -4.0889969 7.7795477
-2.127269 -8.8000383 10.916032
-0.75600868 -3.0083029 11.979897
-2.6026092 -10.50146 29.475679
-2.0841553 -8.5239992 14.423543
-1.356516 -5.5649137 7.6593556
-2.1338775 -8.7803602 9.8738823
-1.8785379 -7.830894 7.9935169
-0.78708309 -3.2887046 2.8090348
-1.9018859 -7.9526253 5.445612
-1.6907189 -7.0805492 3.8971019
-0.80067158 -3.3557494 1.4821874
-1.470822 -6.1691442 1.9541032
-1.3980644 -5.8730407 1.2376623
-1.2938955 -5.4354358 0.59455144
-0.78399134 -3.2482481 3.0572906
-0.88603818 -3.676621 2.8372955
-1.7847693 -7.4114237 4.5653305
-1.6118459 -6.7087522 3.2770157
-0.81035715 -3.375447 1.2973186
-1.4128205 -5.8893943 1.5514605
-1.3399906 -5.5857916 0.89338684
-1.2704966 -5.3001609 0.31353563
-0.0089465799 -0.022450842 1.2192272
-0.061857533 -0.24215904 1.2250675
-0.075447947 -0.3009724 1.0391228
-1.0094576 -4.0854979 7.7795477
-1.3411173 -5.4521165 8.3188381
-2.154918 -8.7801085 10.900682
-0.76526225 -3.0007737 11.960538
-2.6413553 -10.50068 29.499144
-2.1145251 -8.5192032 14.427809
-1.3679705 -5.5279698 7.6154661
-2.1027932 -8.5227079 9.5945702
-1.8560643 -7.6198578 7.7867489
-0.79763877 -3.2821548 2.8058963
-1.8250358 -7.5152249 5.1550164
-1.6809762 -6.932538 3.8205814
-0.81238043 -3.3529341 1.4821874
-1.4178462 -5.856257 1.8610411
-1.3723868 -5.6771364 1.2003574
-1.2999891 -5.3776402 0.58963358
-0.7953251 -3.2454917 3.0572906
-0.89886659 -3.6735058 2.8372955
-1.7451005 -7.1371527 4.4032073
-1.5911516 -6.5223069 3.1909955
-0.82325315 -3.3771861 1.2989621
-1.3931073 -5.7191381 1.5104295
-1.3243207 -5.4367385 0.87266642
-1.2464547 -5.1209426 0.30628052
-0.0090248939 -0.022419475 1.2192272
-0.062446132 -0.24095622 1.2201723
-0.076498076 -0.30070722 1.0391228
-1.0248777 -4.0865946 7.7883253
-1.3587772 -5.4419413 8.3105717
-2.1785793 -8.7445412 10.866145
-0.77510232 -2.9956505 11.95086
-2.6775663 -10.489723 29.49445
-0.89595151 -3.5385573 7.6112971
-2.1436129 -8.5092411 14.423543
-1.3740449 -5.4705563 7.5436454
-1.9282779 -7.6997447 8.6831293
-1.8304287 -7.402153 7.5729718
-0.80909079 -3.2793505 2.8058963
-1.7871966 -7.2489777 4.9795628
-1.6638674 -6.7588735 3.7301481
-0.82407945 -3.3500779 1.4821874
-1.4417149 -5.8652472 1.8652711
-1.3359921 -5.4433198 1.1555917
-1.276019 -5.1989579 0.57353872
-0.80755049 -3.2463191 3.0606163
-0.91168404 -3.6703458 2.8372955
-1.7305403 -6.9720316 4.3069463
-1.5811777 -6.3845506 3.1280539
-0.8350367 -3.3742917 1.2989621
-1.3803909 -5.5821223 1.4776046
-1.3100044 -5.2974796 0.85332739
-1.245147 -5.038959 0.30305603
-0.009127818 -0.022423791 1.224227
-0.063546598 -0.24172129 1.2250675
-0.077547267 -0.30043837 1.0391228
-1.0391363 -4.0829926 7.7883253
-1.3749998 -5.4262543 8.2940407
-0.7849161 -2.9904952 11.941181
-0.90775621 -3.5332999 7.6067963
-2.1778243 -8.5193939 14.453404
-1.386434 -5.4394479 7.5077353
-1.8925129 -7.4465394 8.4074917
-1.8206601 -7.2539015 7.4292855
-0.81958741 -3.2727308 2.8027582
-1.7972627 -7.18185 4.9384408
-1.6187196 -6.4779749 3.5817451
-0.83689147 -3.3516786 1.4840603
-0.94771206 -3.798295 1.2406267
-1.3359838 -5.3623576 1.1406697
-1.2724885 -5.107492 0.56549132
-0.8188774 -3.2434804 3.0606163
-0.92350227 -3.6632218 2.8343523
-1.702212 -6.7569389 4.1802874
-1.5437076 -6.1413064 3.0147591
-0.84796041 -3.3759358 1.3006057
-1.3454361 -5.3604083 1.423678
-1.2911156 -5.1439791 0.83191627
-1.2396362 -4.9425111 0.29922694
-0.0092060361 -0.022391792 1.224227
-0.06412679 -0.2405144 1.2201723
-0.078595527 -0.30016583 1.0391228
-1.0497891 -4.0654268 7.761991
-1.4002396 -5.44595 8.3312368
-2.1750522 -8.4776402 10.555307
-0.79502666 -2.9865224 11.936341
-0.91788775 -3.5216835 7.5887914
-2.2134421 -8.534461 14.491798
-1.4016403 -5.4199882 7.4877844
-1.8160639 -7.0426741 7.9627972
-1.8257239 -7.1680155 7.3486805
-0.83100635 -3.26985 2.8027582
-1.7677695 -6.9607353 4.7931428
-1.6130103 -6.3606439 3.5214562
-0.8485859 -3.348737 1.4840603
-0.9609648 -3.7949638 1.2406267
-1.3257933 -5.2433643 1.1182868
-1.2414778 -4.9098978 0.54760814
-0.82926756 -3.2369852 3.0572906
-0.93528193 -3.6560602 2.8314095
-1.6702684 -6.5337782 4.048562
-1.5292383 -5.9951534 2.9476213
-0.85973948 -3.3729553 1.3006057
-1.3569406 -5.3274174 1.4166441
-1.2931736 -5.0770559 0.82293749
-1.2199123 -4.7929072 0.293181
-0.0093091121 -0.022395302 1.2292267
-0.064965948 -0.24028909 1.2201723
-0.079642817 -0.29988965 1.0391228
-1.0609392 -4.0501537 7.740046
-1.4199512 -5.4437518 8.3353691
-0.80479139 -2.9813018 11.926662
-0.93017513 -3.5184581 7.5887914
-2.2472007 -8.5418148 14.517392
-1.4190218 -5.4092336 7.479805
-1.7702813 -6.7673488 7.6614337
-1.8275336 -7.0718255 7.2575622
-0.84144324 -3.2631602 2.7996197
-1.7440593 -6.7682619 4.6670356
-1.5789046 -6.1361814 3.4031973
-0.86027002 -3.3457544 1.4840603
-0.97539955 -3.796232 1.2420366
-1.2989186 -5.062654 1.0837799
-1.2561338 -4.8958869 0.54671401
-0.84056169 -3.2340708 3.0572906
-0.94702274 -3.6488605 2.8284662
-1.6432818 -6.3359623 3.9320359
-1.503534 -5.8096347 2.8616011
-0.87269038 -3.3745055 1.3022492
-1.3414756 -5.1908803 1.3838192
-1.2799115 -4.9526477 0.8056705
-1.2203954 -4.7257352 0.29056111
-0.0093872296 -0.02236267 1.2292267
-0.081466854 -0.30249217 1.0486668
-1.0719953 -4.0348525 7.7181001
-1.4180712 -5.35987 8.2155142
-1.9543512 -7.4023762 9.2428808
-0.8148613 -2.977262 11.921823
-0.94301498 -3.5172923 7.5932927
-2.2864168 -8.5691977 14.577117
-1.4479674 -5.4421024 7.5316753
-1.7434659 -6.5710754 7.4482746
-1.8323119 -6.9895105 7.1804624
-0.85184366 -3.2564375 2.7964811
-1.7169123 -6.5679483 4.5354447
-1.5656296 -5.9977617 3.3313148
-0.87311381 -3.3472171 1.4859334
-0.98743504 -3.7881627 1.2406267
-1.3004963 -4.9962888 1.0716559
-1.2318188 -4.7324328 0.53196037
-0.85089374 -3.2275066 3.0539651
-0.95975387 -3.6455326 2.8284662
-1.6072575 -6.1092339 3.7977777
-1.4846209 -5.6550989 2.7902672
-0.88446432 -3.3714387 1.3022492
-1.3349349 -5.0921311 1.3603729
-1.258262 -4.7996535 0.78425938
-1.2115628 -4.6247897 0.28653049
-0.0094652325 -0.022329766 1.2292267
-0.080946721 -0.29644674 1.0295788
-1.0823344 -4.017211 7.6917658
-1.4272914 -5.3195553 8.1617861
-1.906394 -7.1199493 8.9013424
-0.8252489 -2.9743996 11.921823
-0.95528686 -3.5139792 7.5932927
-2.3217642 -8.5813036 14.611243
-1.4700949 -5.4486518 7.5476356
-1.749656 -6.5027485 7.3784461
-1.8356215 -6.9038024 7.0998578
-0.86320555 -3.2534442 2.7964811
-1.6926754 -6.3840775 4.4148207
-1.5412035 -5.8209701 3.2385626
-0.88479245 -3.3441489 1.4859334
-1.0006522 -3.7846928 1.2406267
-1.2953572 -4.9062285 1.0548688
-1.2305329 -4.6606941 0.52570128
-0.8621546 -3.2245166 3.0539651
-0.9714306 -3.6382551 2.8255229
-1.6030116 -6.0077896 3.7395144
-1.4821644 -5.5665536 2.7504044
-0.89622742 -3.368331 1.3022492
-1.3252234 -4.9840975 1.3345819
-1.2559208 -4.7234454 0.7738992
-1.205889 -4.5384493 0.28310448
-0.0095431209 -0.022296591 1.2292267
-0.082778841 -0.29903921 1.0391228
-1.0931947 -4.0018568 7.6698208
-1.8531308 -6.8255792 8.5444546
-0.83460546 -2.967871 11.907305
-0.96812558 -3.5127218 7.5977936
-2.3420451 -8.5379353 14.551521
-1.7598522 -6.4508128 7.3269939
-1.8383553 -6.8181577 7.0192537
-0.87354553 -3.2466524 2.7933426
-1.6606616 -6.17623 4.2777472
-1.5213066 -5.6658158 3.1574047
-0.89646029 -3.3410401 1.4859334
-1.013857 -3.7811766 1.2406267
-1.2896051 -4.8162646 1.0380816
-1.224897 -4.5745916 0.51810092
-0.87242788 -3.2178836 3.0506394
-0.9841246 -3.6348422 2.8255229
-1.5778116 -5.8315492 3.635654
-1.4483482 -5.3641739 2.655992
-0.90797961 -3.3651819 1.3022492
-1.3109782 -4.8621154 1.305274
-1.2491952 -4.6329689 0.76146692
-1.1983277 -4.447382 0.27947691
-0.0096208919 -0.022263141 1.2292267
-0.64972353 -2.3120072 7.7246723
-1.1020433 -3.9795516 7.6347084
-1.7910312 -6.5069475 8.156867
-0.83806878 -2.940763 11.810516
-0.98096716 -3.5114176 7.6022949
-2.3662441 -8.5096064 14.517392
-1.7615738 -6.3694782 7.2424645
-1.8405138 -6.7325783 6.9386487
-0.88487315 -3.2435834 2.7933426
-1.6437161 -6.0291991 4.1817961
-1.4875453 -5.4638567 3.05074
-0.9093343 -3.3423638 1.4878064
-1.0245326 -3.7683561 1.2378066
-1.2806671 -4.7169218 1.0194292
-1.2199801 -4.4933925 0.51094764
-0.88365513 -3.214819 3.0506394
-0.9957366 -3.6274867 2.8225796
-1.5320143 -5.584887 3.4887297
-1.4466916 -5.2846684 2.6203251
-0.91972083 -3.3619921 1.3022492
-1.3035885 -4.7684269 1.2829999
-1.2405479 -4.5378213 0.748344
-1.1901456 -4.3564243 0.27584937
-0.0096985465 -0.022229424 1.2292267
-0.65656322 -2.3054183 7.7103562
-1.116575 -3.9779861 7.6390972
-1.7448207 -6.2536707 7.8498659
-0.84658498 -2.9317818 11.78632
-0.99440455 -3.512161 7.6112971
-2.3931038 -8.4912548 14.50033
-1.9478118 -6.9297905 9.6064882
-1.7728156 -6.3241191 7.1983633
-1.8440025 -6.6539421 6.8650532
-0.89515251 -3.2367239 2.7902043
-1.6123976 -5.8339992 4.052947
-1.4912868 -5.4031186 3.0205956
-0.92099583 -3.3391693 1.4878064
-1.035131 -3.7555079 1.2349865
-1.2697476 -4.6129642 0.99984419
-1.21319 -4.4074826 0.50334734
-0.89487147 -3.2117147 3.0506394
-1.0083928 -3.6239889 2.8225796
-1.535331 -5.5213599 3.453265
-1.4372163 -5.1790023 2.5720699
-0.93145078 -3.3587611 1.3022492
-1.2903686 -4.6561136 1.2560366
-1.2338971 -4.4523363 0.73660249
-1.1813434 -4.2655787 0.2722218
-0.0097760828 -0.022195434 1.2292267
-0.43580231 -1.4834239 7.4566917
-0.66543448 -2.3059807 7.7199001
-1.1297987 -3.971761 7.6347084
-1.7169249 -6.0717373 7.6311283
-0.027100712 -0.079495169 1.292268
-1.0072587 -3.510761 7.615798
-2.4220128 -8.480341 14.496063
-1.8952172 -6.6534376 9.2354155
-1.7772768 -6.2559309 7.1285348
-1.8460004 -6.5719309 6.7879534
-0.90644526 -3.2335794 2.7902043
-1.5921447 -5.6833844 3.9542544
-1.4755267 -5.2741666 2.9533503
-0.93389428 -3.3403988 1.4896795
-1.0443612 -3.7380111 1.2307564
-1.2607588 -4.5186043 0.98212433
-1.2058152 -4.3216763 0.49574697
-0.9070918 -3.2121649 3.0539651
-1.0210367 -3.6204469 2.8225796
-1.5288681 -5.4246864 3.3975353
-1.4270213 -5.0734673 2.5238147
-0.94444716 -3.3600354 1.3038926
-1.2855821 -4.5767088 1.2372795
-1.2266648 -4.3669538 0.72486091
-1.1746224 -4.1844687 0.26899731
-0.0098276623 -0.022126015 1.224227
-0.4447549 -1.4945801 7.52033
-0.66845238 -2.2864513 7.6626363
-0.96750766 -3.3392706 8.2499428
-1.1436558 -3.9677932 7.6347084
-1.536998 -5.3533392 8.2527113
-1.7160352 -5.9886765 7.5351906
-0.02767013 -0.080215424 1.307243
-2.3083425 -7.8841486 22.394297
-1.0176841 -3.5009527 7.6022949
-2.4523253 -8.4743414 14.50033
-1.8248408 -6.3225331 8.7885323
-1.7897245 -6.2171102 7.091783
-1.8484248 -6.4934168 6.7143579
-0.91772705 -3.2303958 2.7902043
-1.5777129 -5.5571184 3.8720102
-1.4564682 -5.1368675 2.8814673
-0.94554871 -3.3371186 1.4896795
-1.0534822 -3.7204962 1.2265263
-1.2471169 -4.4101849 0.9616068
-1.1992114 -4.240768 0.4885937
-0.91829884 -3.2089787 3.0539651
-1.0336683 -3.6168606 2.8225796
-1.5063589 -5.2742395 3.3088739
-1.4148631 -4.9637032 2.4734616
-0.95617014 -3.3567181 1.3038926
-1.2802572 -4.4973955 1.2185225
-1.2202076 -4.2864404 0.71381003
-1.1687165 -4.1082635 0.26597434
-0.0099048363 -0.022091575 1.224227
-0.44702971 -1.4832699 7.4713774
-0.9769569 -3.3283751 8.2315331
-1.1561562 -3.9591787 7.6259298
-1.5658938 -5.3830676 8.3064384
-1.7369292 -5.9826498 7.5351906
-0.027949966 -0.080118343 1.307243
-2.3358493 -7.8760433 22.394297
-1.0274385 -3.4890258 7.58429
-1.773322 -6.0645084 8.4414005
-1.7829386 -6.1131887 6.9815283
-1.8473589 -6.4046879 6.6302485
-0.92899764 -3.2271726 2.7902043
-1.5589509 -5.4189687 3.7815418
-1.4438092 -5.0253134 2.8234975
-0.95847112 -3.3382535 1.4915526
-1.0638167 -3.7075746 1.2237064
-1.2422061 -4.3349714 0.94761741
-1.1906861 -4.1551719 0.48099336
-0.93053454 -3.2093399 3.0572906
-1.0451629 -3.6093483 2.8196368
-1.4768267 -5.1033139 3.2075469
-1.400697 -4.8497262 2.4210103
-0.9691909 -3.357897 1.3055362
-1.2730476 -4.4135051 1.1985931
-1.2104585 -4.1965089 0.70137775
-1.1622934 -4.0321522 0.26295137
-0.0099818902 -0.022056865 1.224227
-0.45577285 -1.4933863 7.5301199
-0.9885692 -3.3249445 8.2315331
-1.1733663 -3.9666014 7.6478748
-1.5870609 -5.3856664 8.3188381
-1.7532798 -5.9611759 7.5160036
-0.028229462 -0.080020294 1.307243
-2.3588593 -7.8529668 22.35206
-1.0377444 -3.4791596 7.570786
-1.7174573 -5.7982569 8.0822992
-1.7956213 -6.0776668 6.948452
-1.8546993 -6.3468537 6.5776806
-0.94025701 -3.2239099 2.7902043
-1.5357342 -5.2689767 3.6828492
-1.4303894 -4.9139113 2.7655275
-0.97011799 -3.3348875 1.4915526
-1.0727345 -3.6900194 1.2194762
-1.2340462 -4.250412 0.93176287
-1.1843551 -4.0792532 0.47428718
-0.94278383 -3.2096548 3.0606163
-1.0577556 -3.6056781 2.8196368
-1.4703758 -5.0153942 3.1568832
-1.3895766 -4.7489786 2.3748531
-0.98090631 -3.3544934 1.3055362
-1.265268 -4.329721 1.1786637
-1.2028748 -4.1162057 0.69032693
-1.1567539 -3.9609318 0.26012993
-0.010058822 -0.022021888 1.224227
-0.46038148 -1.4898407 7.52033
-1.0018594 -3.3270855 8.2453403
-1.1858304 -3.9578934 7.6390972
-1.895606 -6.3508205 9.8066998
-1.7749926 -5.9580913 7.5198412
-0.028508613 -0.079921268 1.307243
-2.3912792 -7.8611946 22.398989
-1.0467348 -3.4650967 7.5482802
-1.6857331 -5.6190562 7.8428974
-1.8168254 -6.0713615 6.948452
-1.8515357 -6.2548518 6.490067
-0.95260751 -3.2243407 2.7933426
-1.5032011 -5.0911417 3.5649662
-1.4212216 -4.8196611 2.7168326
-0.98175293 -3.3314807 1.4915526
-1.0828983 -3.6770492 1.2166561
-1.2183813 -4.1424012 0.91124529
-1.1761037 -3.9986527 0.46713394
-0.95504659 -3.2099226 3.0639415
-1.0703353 -3.6019638 2.8196368
-1.4670111 -4.9399796 3.1138194
-1.37906 -4.6527195 2.3307939
-0.99395078 -3.3555765 1.3071797
-1.2569193 -4.2460461 1.1587343
-1.1877173 -4.0122657 0.67582262
-1.1507316 -3.8898001 0.25730851
-0.010135631 -0.021986641 1.224227
-0.46527499 -1.487253 7.5154343
-1.0128971 -3.3216991 8.2407379
-1.2052023 -3.9720647 7.6742101
-1.8640203 -6.1663852 9.5339251
-1.782817 -5.9088984 7.4661155
-0.028888566 -0.080091663 1.3122348
-2.4187052 -7.8527994 22.398989
-1.0569133 -3.4551764 7.5347762
-2.265686 -7.4388337 12.78969
-1.6711744 -5.5006952 7.6872859
-1.839974 -6.0714717 6.9558024
-1.8446801 -6.1527023 6.3919396
-0.96385682 -3.2209959 2.7933426
-1.5125767 -5.0578208 3.5457759
-1.4114137 -4.7255359 2.6681378
-0.99470198 -3.3324757 1.4934255
-1.0916131 -3.6594558 1.2124259
-1.2188078 -4.0910449 0.90191907
-1.1701479 -3.9277055 0.46087483
-0.96624559 -3.2065694 3.0639415
-1.081737 -3.5943351 2.8166935
-1.4569299 -4.8440099 3.0580893
-1.3665837 -4.5522461 2.2846367
-1.007015 -3.3566098 1.3088232
-1.246606 -4.1578269 1.1376325
-1.1874936 -3.9606609 0.66891581
-1.144227 -3.8187594 0.25448707
-0.010212318 -0.021951128 1.224227
-0.4701561 -1.4846491 7.5105391
-1.0273679 -3.327477 8.263751
-1.2260942 -3.9907267 7.7181001
-1.8394073 -6.0091567 9.3024797
-1.7968761 -5.8811822 7.4392533
-0.029167961 -0.079990335 1.3122348
-2.4486706 -7.8525457 22.422451
-1.0721883 -3.4618635 7.5572829
-2.1763477 -7.0570498 12.1498
-1.6566966 -5.3853869 7.535665
-1.847232 -6.0196381 6.9043493
-1.8215926 -5.9994912 6.2412438
-0.97509432 -3.2176116 2.7933426
-1.4878006 -4.9124432 3.4498246
-1.3996836 -4.6272988 2.6171243
-1.0063285 -3.3289831 1.4934255
-1.1016058 -3.6464391 1.2096059
-1.2103772 -4.0115204 0.88699716
-1.1637115 -3.8568494 0.45461568
-0.97852242 -3.2067482 3.0672669
-1.0942769 -3.5905371 2.8166935
-1.4461969 -4.7481723 3.0023594
-1.353423 -4.4519172 2.2384796
-1.0187256 -3.3530741 1.3088232
-1.2356927 -4.0697331 1.1165309
-1.1826079 -3.8948917 0.65993696
-1.1386914 -3.7525933 0.25186718
-0.010342015 -0.02198457 1.2342266
-0.41789496 -1.2832856 8.579916
-0.4753356 -1.4829988 7.5105391
-1.2492654 -4.0161524 7.7751584
-1.7878953 -5.7688541 8.9429131
-1.7899232 -5.7860742 7.3279657
-0.029550036 -0.080157712 1.3172264
-2.4797027 -7.8554697 22.455301
-1.0862199 -3.4643312 7.570786
-2.0797095 -6.6610475 11.484314
-1.6629401 -5.339294 7.479805
-1.8501273 -5.9548793 6.8381972
-1.7943144 -5.8362927 6.0800352
-0.98746186 -3.2179096 2.7964811
-1.4840968 -4.8392601 3.4032195
-1.3885826 -4.5334377 2.5684295
-1.0192995 -3.3298829 1.4952986
-1.1101173 -3.6288095 1.2053758
-1.2014067 -3.9321055 0.87207526
-1.156795 -3.7860875 0.4483566
-0.98971021 -3.2033131 3.0672669
-1.1056117 -3.5828331 2.8137503
-1.432272 -4.6442308 2.9415631
-1.3395792 -4.351738 2.1923225
-1.0318123 -3.3540111 1.3104666
-1.2184662 -3.9631829 1.0907398
-1.178733 -3.8339393 0.65164882
-1.1327081 -3.6865127 0.24924728
-0.010338626 -0.021844778 1.2192272
-0.42212859 -1.2810812 8.574976
-0.48019505 -1.4803622 7.5056438
-1.2711899 -4.0368953 7.8234377
-1.7482078 -5.5719452 8.6494732
-1.7823284 -5.6910872 7.2166781
-0.029829662 -0.080054075 1.3172264
-2.5097346 -7.8549857 22.478765
-1.103575 -3.4771183 7.6067963
-2.0235636 -6.4025836 11.053454
-1.6788492 -5.3248353 7.4678349
-1.8363181 -5.8384299 6.7132416
-1.7648596 -5.6699533 5.9153209
-0.99868846 -3.2144432 2.7964811
-1.4699806 -4.7342157 3.3346829
-1.3755317 -4.4354811 2.517416
-1.0309168 -3.3263047 1.4952986
-1.1185197 -3.6111658 1.2011458
-1.1948 -3.8621879 0.8590185
-1.1508707 -3.7201788 0.44254458
-1.0020005 -3.2034025 3.0705926
-1.1181114 -3.5789518 2.8137503
-1.4202092 -4.5486751 2.885833
-1.3237022 -4.2473769 2.1440673
-1.0435137 -3.350389 1.3104666
-1.2192913 -3.9171367 1.080189
-1.1729754 -3.7683334 0.64266998
-1.1277615 -3.6252911 0.2468289
-0.010441625 -0.021842983 1.224227
-0.43053228 -1.2913929 8.6540041
-0.48504189 -1.4777095 7.5007491
-1.2947292 -4.0620975 7.8804965
-1.7105753 -5.3861146 8.3725662
-1.7934655 -5.6573329 7.1821404
-0.030108919 -0.079949461 1.3172264
-2.5435102 -7.865881 22.535078
-1.1190349 -3.483608 7.629302
-1.967229 -6.1495638 10.631127
-1.6992584 -5.3246841 7.4758148
-1.837146 -5.770607 6.6434131
-1.7439126 -5.5345063 5.7821484
-1.0099028 -3.2109375 2.7964811
-1.4589114 -4.6412978 3.2743707
-1.361814 -4.3376713 2.4664023
-1.0439094 -3.3271091 1.4971716
-1.1282475 -3.5980847 1.1983256
-1.1759751 -3.754864 0.83850092
-1.1459888 -3.6591105 0.43717963
-1.0131764 -3.1998854 3.0705926
-1.1305975 -3.5750272 2.8137503
-1.4035996 -4.4409308 2.8225036
-1.3248651 -4.1994486 2.1230867
-1.0552024 -3.3467259 1.3104666
-1.2139668 -3.8525898 1.0649488
-1.1682628 -3.7075384 0.63438177
-1.1224016 -3.5641496 0.24441053
-0.010463949 -0.021737738 1.2142273
-0.43429196 -1.2876735 8.6391859
-0.48987606 -1.4750413 7.4958534
-1.3096361 -4.059833 7.8848858
