# .PCD v0.7 - Point Cloud Data file format
VERSION 0.7
FIELDS x y z
SIZE 4 4 4
TYPE F F F
COUNT 1 1 1
WIDTH 1497
HEIGHT 1
VIEWPOINT 0 0 0 1 0 0 0
POINTS 1497
DATA ascii
0.44795617 -0.28448302 3.3739374
0.57619464 -0.3623071 3.2957487
0.85277867 -0.53063536 3.2580953
1.1122396 -0.68841624 3.1411412
1.5187535 -0.93716943 3.3377995
4.9536777 -3.0498285 8.6164103
0.33579251 -0.23661149 6.9428253
0.33416128 -0.2171585 3.6737528
0.70568269 -0.44263616 3.2447352
0.98807788 -0.61535448 3.2196524
1.3204935 -0.81894779 3.2766283
1.775861 -1.0984198 3.4856877
5.468142 -3.3771205 8.585041
0.049457524 -0.05511513 6.9790077
0.44630614 -0.28562567 3.3689981
0.57406658 -0.36377087 3.2908533
0.85218579 -0.53440213 3.2628672
1.1098299 -0.69229454 3.1411412
1.5032707 -0.93487579 3.311465
4.9334373 -3.0611668 8.5998783
0.33496451 -0.23778217 6.9428253
0.33384684 -0.21861611 3.6787243
0.70519572 -0.44576865 3.2495747
0.98300081 -0.6169647 3.2102668
1.3176267 -0.82355219 3.2766283
1.769803 -1.1032325 3.4814217
5.4665527 -3.4025567 8.6010017
0.049291514 -0.055321962 6.9840074
0.44465369 -0.28676042 3.3640587
0.57279325 -0.36577252 3.2908533
0.86167067 -0.54455227 3.3058152
1.1090604 -0.69720417 3.1457434
1.4979689 -0.93884546 3.3070757
4.9227219 -3.0783691 8.5998783
0.33436689 -0.23911849 6.9478168
0.33308169 -0.21978013 3.6787243
0.70469534 -0.44890302 3.2544141
0.97792453 -0.61854702 3.2008812
1.3129021 -0.82698619 3.2721272
1.7659413 -1.1094035 3.4814217
5.4674053 -3.4296241 8.6209517
0.049124658 -0.055528309 6.9890075
0.44365001 -0.2883108 3.3640587
0.57065696 -0.36721846 3.2859581
0.86857718 -0.55317092 3.3392189
1.1082703 -0.70211697 3.150346
1.4967076 -0.94534779 3.311465
4.9214692 -3.1015348 8.6164103
0.33353016 -0.24028417 6.9478168
0.33231249 -0.22094145 3.6787243
0.70418173 -0.45203936 3.2592535
0.97284925 -0.62010145 3.1914957
1.3100075 -0.83156407 3.2721272
1.7620579 -1.115561 3.4814217
5.4655886 -3.4551289 8.6369123
0.04895696 -0.055734154 6.9940066
0.44199112 -0.28943163 3.3591194
0.56937164 -0.36920819 3.2859581
0.87292159 -0.56023157 3.3630788
1.1058127 -0.70598125 3.150346
1.4954188 -0.95185262 3.3158541
1.8985639 -1.2057159 3.3758314
0.33292264 -0.24161708 6.9528089
0.33198178 -0.22239725 3.6836958
0.70259953 -0.45449468 3.2592535
0.96777511 -0.62162799 3.1821103
1.3052629 -0.83495849 3.2676258
1.7603515 -1.1231077 3.4856877
5.4712839 -3.4855189 8.6648417
0.048788428 -0.055939518 6.9990067
0.44097811 -0.29097268 3.3591194
0.56807941 -0.37119344 3.2859581
0.87096071 -0.56327522 3.3630788
1.1049844 -0.71089411 3.1549485
1.4920871 -0.95706677 3.3158541
1.901454 -1.2168865 3.3882301
0.33254245 -0.24311963 6.9627919
0.33120346 -0.22355472 3.6836958
0.70206165 -0.45763105 3.2640929
0.9627021 -0.62312663 3.1727247
1.3023404 -0.83950967 3.2676258
1.7564205 -1.1292456 3.4856877
5.4616199 -3.5062242 8.6688318
0.048619058 -0.056144375 7.0040069
0.43995973 -0.29251024 3.3591194
0.56678027 -0.37317413 3.2859581
0.86773872 -0.5654968 3.3583069
1.1041355 -0.71580982 3.1595511
1.4887372 -0.96226925 3.3158541
1.8877352 -1.2174157 3.3716984
0.33192381 -0.24445069 6.9677835
0.33042106 -0.22470948 3.6836958
0.7004599 -0.4600789 3.2640929
0.95907587 -0.62554044 3.1680319
1.299402 -0.84405053 3.2676258
1.7371466 -1.1254427 3.455826
5.4518776 -3.5269041 8.672822
0.048448857 -0.056348737 7.0090065
0.43893602 -0.2940442 3.3591194
0.56547421 -0.37515032 3.2859581
0.85453105 -0.56114662 3.3153591
1.1081722 -0.72393405 3.1779611
1.4853692 -0.9674601 3.3158541
1.8858339 -1.2255312 3.3758314
0.33129993 -0.24578041 6.9727755
0.32919526 -0.22555974 3.6787243
0.69989771 -0.46321511 3.2689323
0.95544446 -0.62793642 3.1633391
1.2964478 -0.84858114 3.2676258
1.7244724 -1.1257967 3.4387622
5.4395332 -3.545913 8.672822
0.048251867 -0.056517512 7.0090065
0.43790692 -0.29557458 3.3591194
0.56416118 -0.37712187 3.2859581
0.84260905 -0.55753505 3.2771833
1.1089019 -0.72994655 3.1871662
1.4839853 -0.97395337 3.3202431
1.8815444 -1.2321064 3.3758314
0.33090165 -0.24728212 6.9827585
0.32840592 -0.22670746 3.6787243
0.69932216 -0.46635303 3.2737718
0.95180804 -0.63031483 3.1586463
1.2916607 -0.85190284 3.2631247
1.711817 -1.1260759 3.4216986
5.4271226 -3.5648789 8.672822
0.048080113 -0.056720763 7.0140066
0.43687251 -0.29710138 3.3591194
0.56199706 -0.3785198 3.2810628
0.83693212 -0.55798823 3.2628672
1.1161151 -0.74029279 3.2147813
1.4805766 -0.97912747 3.3202431
1.8819295 -1.2417666 3.3840973
0.33049691 -0.24878404 6.9927421
0.32761255 -0.22785243 3.6787243
0.69769001 -0.46879125 3.2737718
0.94816667 -0.63267535 3.1539536
1.2868661 -0.8552013 3.2586234
1.6991806 -1.1262804 3.404635
5.4146457 -3.5838017 8.672822
0.047881827 -0.056888249 7.0140066
0.4358328 -0.29862452 3.3591194
0.56067228 -0.38047925 3.2810628
0.83374035 -0.56007367 3.2580953
1.1135241 -0.74418426 3.2147813
1.4771498 -0.98428971 3.3202431
1.8986734 -1.2623509 3.421294
0.32985613 -0.25011116 6.9977341
0.326379 -0.22868827 3.6737528
0.69709009 -0.47192872 3.2786112
0.94595242 -0.63598126 3.1539536
1.2766378 -0.85484278 3.2406185
1.6909012 -1.1293076 3.3961029
5.4021025 -3.6026804 8.672822
0.04768296 -0.057055041 7.0140066
0.43478772 -0.30014405 3.3591194
0.55934078 -0.38243404 3.2810628
0.83672446 -0.56632805 3.2771833
1.1092993 -0.74697536 3.2101789
1.4717166 -0.98810482 3.3158541
1.9433504 -1.3018619 3.5080857
0.32943904 -0.2516126 7.0077171
0.32514358 -0.22951828 3.6687813
0.69647676 -0.47506765 3.2834506
0.94372672 -0.63927937 3.1539536
1.2682325 -0.85564089 3.2271149
1.6847854 -1.133747 3.3918371
5.3869934 -3.6198347 8.6688318
0.047508962 -0.057256576 7.0190058
0.4337374 -0.30165988 3.3591194
0.55800241 -0.38438416 3.2810628
0.83720881 -0.57092768 3.2867272
1.1050684 -0.74974597 3.2055764
1.466275 -0.99189395 3.311465
1.9597857 -1.3228071 3.5452821
0.32878712 -0.25293761 7.0127087
0.32434043 -0.23065184 3.6687813
0.69688576 -0.47892019 3.2931294
0.94148946 -0.64256966 3.1539536
1.2580369 -0.85516697 3.20911
1.6765003 -1.1366937 3.3833053
5.3743248 -3.6386168 8.6688318
0.04730881 -0.057422064 7.0190058
0.43268174 -0.30317208 3.3591194
0.55665725 -0.38632959 3.2810628
0.8376711 -0.57553762 3.2962713
1.1024445 -0.75359887 3.2055764
1.4608245 -0.99565721 3.3070757
2.0296164 -1.3802809 3.6775367
0.32881331 -0.25479329 7.0326753
0.32310033 -0.23147167 3.6638098
0.69624311 -0.48206562 3.2979689
0.94066256 -0.64683008 3.1586463
1.2478601 -0.8546322 3.1911051
1.6703689 -1.1410677 3.3790393
5.3615909 -3.6573546 8.6688318
0.047133293 -0.057622466 7.0240059
0.43162084 -0.30468059 3.3591194
0.55530536 -0.38827035 3.2810628
0.84056586 -0.58185714 3.3153591
1.0981984 -0.7563343 3.200974
1.4533916 -0.99803871 3.2982976
2.0294285 -1.3905383 3.6858025
0.32951197 -0.25718671 7.0676169
0.32185847 -0.23228569 3.6588383
0.69558692 -0.48521233 3.3028083
0.93981743 -0.65109265 3.1633391
1.2394942 -0.85527349 3.1776016
1.6599307 -1.1424552 3.3662415
5.3463082 -3.674341 8.6648417
0.046956949 -0.057822347 7.029006
0.42992172 -0.30573472 3.3541803
0.55477893 -0.390793 3.2859581
0.83852971 -0.58478779 3.3153591
1.0955517 -0.76016307 3.200974
1.4459599 -1.0003804 3.2895195
2.0245621 -1.3976139 3.6858025
0.32974485 -0.25923017 7.0925751
0.32018405 -0.23277991 3.648895
0.6959455 -0.48908332 3.3124871
0.93895394 -0.655357 3.1680319
1.2365011 -0.85959494 3.1776016
1.6473601 -1.1422979 3.3491776
5.335927 -3.6946959 8.6688318
0.046779785 -0.058021694 7.0340056
0.42885187 -0.30723354 3.3541803
0.55341142 -0.39272717 3.2859581
0.83281946 -0.58513618 3.301043
1.0944927 -0.76510209 3.2055764
1.4385297 -1.0026824 3.2807415
2.0173612 -1.4030656 3.6816692
0.33019337 -0.26145816 7.1225252
0.31893981 -0.23358071 3.6439238
0.69423395 -0.49150965 3.3124871
0.93666053 -0.65863061 3.1680319
1.2334931 -0.86390585 3.1776016
1.6326731 -1.1405729 3.3278482
5.3205261 -3.7115753 8.6648417
0.046601795 -0.058220509 7.0390053
0.42714703 -0.30827358 3.349241
0.55203718 -0.39465654 3.2859581
0.82468069 -0.58372688 3.2771833
1.0950097 -0.77116799 3.2147813
1.4291412 -1.0035684 3.2675743
1.9963193 -1.3987949 3.6527388
0.33040509 -0.26351187 7.1474838
0.31726533 -0.23405877 3.6339808
0.69046772 -0.49246976 3.3028083
0.9343558 -0.66189617 3.1680319
1.2358059 -0.87197179 3.1911051
1.6180182 -1.1387595 3.3065183
5.307538 -3.7301247 8.6648417
0.046422996 -0.058418788 7.0440049
0.42606834 -0.30976275 3.349241
0.55313426 -0.39836705 3.3006437
0.81656188 -0.58226794 3.2533233
1.0891246 -0.77272433 3.2055764
1.4041229 -0.99333489 3.2192943
1.9937234 -1.4073777 3.6568718
0.33083105 -0.26575151 7.1774335
0.31559137 -0.23452796 3.6240377
0.68772388 -0.49414331 3.2979689
0.93203962 -0.66515362 3.1680319
1.2398517 -0.88132572 3.20911
1.6012686 -1.1353492 3.2809229
5.2944851 -3.7486289 8.6648417
0.04624337 -0.058616526 7.049005
0.42498446 -0.31124812 3.349241
0.55174029 -0.40029538 3.3006437
0.81331217 -0.58424366 3.2485511
1.0864207 -0.77652144 3.2055764
1.3850448 -0.9871093 3.1841817
1.9887986 -1.4143286 3.6568718
0.32990137 -0.26690471 7.1774335
0.31391799 -0.23498833 3.6140947
0.68395865 -0.4950664 3.28829
0.92831111 -0.66739553 3.1633391
1.2420772 -0.88945085 3.2226136
1.5866848 -1.1333518 3.259593
5.2813678 -3.7670872 8.6648417
0.046062935 -0.058813725 7.0540051
0.42327043 -0.31226805 3.3443017
0.55773646 -0.40762857 3.3447008
0.81126785 -0.58707899 3.2485511
1.0757769 -0.77460057 3.1825638
1.3660272 -0.98076284 3.1490691
1.9701242 -1.4114287 3.6320739
0.32919109 -0.26823756 7.182425
0.31267056 -0.23576127 3.6091232
0.68121088 -0.49671006 3.2834506
0.92457831 -0.6696195 3.1586463
1.2460265 -0.89887601 3.2406185
1.5721347 -1.1312666 3.2382634
5.265739 -3.7837415 8.6608524
0.045881685 -0.059010375 7.0590043
0.42217782 -0.31374362 3.3443017
0.56040901 -0.41259265 3.3691771
0.80921358 -0.58990729 3.2485511
1.0604156 -0.76917315 3.1457434
1.3548334 -0.97991049 3.1315129
1.9149865 -1.3820658 3.5411494
0.32847551 -0.26956871 7.187417
0.31142154 -0.23652838 3.6041517
0.67846 -0.49834064 3.2786112
0.92084134 -0.67182553 3.1539536
1.2481643 -0.90705967 3.2541223
1.5576185 -1.1290938 3.2169337
5.2524996 -3.802099 8.6608524
0.045699626 -0.059206478 7.0640044
0.42045832 -0.31474942 3.3393624
0.56468886 -0.41879386 3.4034436
0.81436765 -0.59803069 3.2771833
1.0419511 -0.76134264 3.0997183
1.3533403 -0.98604423 3.1359019
1.8623544 -1.3539904 3.4543574
0.32775459 -0.27089807 7.1924081
0.31059402 -0.23761401 3.6041517
0.67570603 -0.49995798 3.2737718
0.91849053 -0.67503577 3.1539536
1.2520163 -0.91655505 3.2721272
1.5389246 -1.1237572 3.1870723
5.2391953 -3.8204105 8.6608524
0.045516752 -0.05940203 7.0690041
0.41935706 -0.31621516 3.3393624
0.56567019 -0.42259142 3.4181292
0.8206746 -0.60708493 3.3105872
1.0392871 -0.76497507 3.0997183
1.3576127 -0.99643093 3.1534581
1.841725 -1.3488436 3.4254265
0.32702842 -0.27222574 7.1974001
0.30976269 -0.23869674 3.6041517
0.67395675 -0.50231361 3.2737718
0.91474181 -0.67721081 3.1492608
1.2488092 -0.92091984 3.2721272
1.5307909 -1.1260313 3.1785405
5.2258277 -3.8386755 8.6608524
0.045333073 -0.059597027 7.0740042
0.41825074 -0.31767708 3.3393624
0.56337821 -0.42395091 3.413234
0.81496006 -0.6072697 3.2962713
1.0319028 -0.76510704 3.0859108
1.363755 -1.0082835 3.1754036
1.8279476 -1.3485813 3.4088948
0.32607618 -0.27336562 7.1974001
0.3089276 -0.23977657 3.6041517
0.6711942 -0.50390822 3.2689323
0.91237235 -0.68039978 3.1492608
1.2351023 -0.91748393 3.2451198
1.5331371 -1.1360261 3.1913381
5.2123966 -3.8568935 8.6608524
0.045148585 -0.059791457 7.0790038
0.41775611 -0.31960759 3.3443017
0.56270617 -0.42653021 3.4181292
0.81402892 -0.61100698 3.301043
1.0307909 -0.76987356 3.0905132
1.36791 -1.0187603 3.1929598
1.8141949 -1.3482395 3.3923631
0.32534012 -0.27468893 7.2023916
0.30850834 -0.24118222 3.6091232
0.66842866 -0.50548965 3.2640929
0.90861207 -0.68254375 3.1445682
1.2214347 -0.91396362 3.2181125
1.541702 -1.1507314 3.2169337
5.1989017 -3.8750648 8.6608524
0.044986989 -0.06002197 7.0890036
0.41663796 -0.32106388 3.3443017
0.56202292 -0.42910993 3.4230244
0.80951011 -0.61204398 3.2914991
1.0280973 -0.773467 3.0905132
1.3720086 -1.0292784 3.2105162
1.7982142 -1.3461319 3.3716984
0.32459879 -0.27601042 7.2073836
0.30766457 -0.24225764 3.6091232
0.66666013 -0.50781977 3.2640929
0.90622407 -0.68571126 3.1445682
1.2182369 -0.91822165 3.2181125
1.5480986 -1.1639429 3.2382634
5.1853433 -3.893189 8.6608524
0.044800766 -0.060215361 7.0940032
0.41551468 -0.32251623 3.3443017
0.56132859 -0.43169013 3.4279196
0.80736876 -0.6148659 3.2914991
1.0269481 -0.77823114 3.0951159
1.3722287 -1.0369493 3.2192943
1.786764 -1.3473176 3.3592994
0.32407102 -0.27751839 7.2173667
0.30681705 -0.24333011 3.6091232
0.66388643 -0.50937843 3.2592535
0.90382499 -0.68887037 3.1445682
1.2271607 -0.93168378 3.2496209
1.5544212 -1.1772127 3.259593
5.1741252 -3.9130831 8.6648417
0.044637177 -0.060444985 7.104003
0.41438636 -0.32396472 3.3443017
0.56062305 -0.43427074 3.4328148
0.81469154 -0.62495005 3.329675
1.0273311 -0.78418213 3.104321
1.3705064 -1.0431836 3.2236834
1.7484372 -1.3280144 3.2973053
0.32331851 -0.27883697 7.2223582
0.30596581 -0.24439962 3.6091232
0.66210425 -0.51169276 3.2592535
0.90141487 -0.69202113 3.1445682
1.2360052 -0.94521934 3.2811296
1.5585966 -1.1889591 3.2766569
5.1604347 -3.9311199 8.6648417
0.04447253 -0.060674202 7.1140027
0.41386318 -0.32589024 3.349241
0.55910379 -0.43622503 3.4328148
0.81722921 -0.6314413 3.348763
1.0276849 -0.79014534 3.1135259
1.3668566 -1.0479611 3.2236834
1.7080325 -1.3067502 3.231178
0.32277825 -0.2803435 7.2323413
0.30469584 -0.24513155 3.6041517
0.66031408 -0.51400077 3.2592535
0.89899373 -0.69516343 3.1445682
1.2344227 -0.95085663 3.2856307
1.5565048 -1.1959815 3.2809229
5.1466813 -3.9491096 8.6648417
0.044326123 -0.060835101 7.1190019
0.41295153 -0.3270447 3.349241
0.55788344 -0.43778464 3.4328148
0.82017678 -0.63738543 3.3678508
1.0287039 -0.79522306 3.122731
1.3641083 -1.051536 3.2236834
1.6979142 -1.30607 3.2187793
5.6462746 -4.3387337 8.6020174
0.32230932 -0.2813217 7.2373333
0.30409601 -0.24587536 3.6041517
0.66004604 -0.51638746 3.2640929
0.89729244 -0.69735801 3.1445682
1.2305406 -0.95232254 3.2811296
1.5537871 -1.19951 3.2809229
5.1377077 -3.9607766 8.6648417
0.044117015 -0.061094336 7.1290021
0.4115206 -0.32884341 3.349241
0.55437171 -0.43895 3.4230244
0.82091147 -0.64372194 3.3821669
1.029705 -0.80348891 3.1365385
1.3593227 -1.0577153 3.2236834
1.6853024 -1.3085837 3.2063804
5.6391902 -4.3741331 8.6212044
0.32136294 -0.28327626 7.2473168
0.30289081 -0.2473585 3.6041517
0.65751463 -0.51960683 3.2640929
0.89375132 -0.70189065 3.1445682
1.1963906 -0.9359479 3.2046089
1.5474852 -1.2076292 3.2809229
5.1192756 -3.9894757 8.6688318
0.04392641 -0.06128509 7.1340017
0.41103297 -0.33069363 3.3541803
0.55211717 -0.44015104 3.4181292
0.81877226 -0.64644063 3.3821669
1.0316433 -0.81052035 3.150346
1.357693 -1.0636944 3.2280724
1.6853871 -1.3176316 3.2146463
5.6271806 -4.3947821 8.625042
0.32068691 -0.28447655 7.2523084
0.30170077 -0.24796993 3.5991802
0.65981328 -0.52480054 3.2834506
0.8916648 -0.70453942 3.1445682
1.16624 -0.9179489 3.1325896
1.5438955 -1.2122153 3.2809229
5.1050448 -4.0027876 8.6648417
0.043842237 -0.06139883 7.1390018
0.41045517 -0.33141056 3.3541803
0.55063003 -0.44038153 3.413234
0.8247757 -0.65328783 3.4107988
1.0335796 -0.81437844 3.1595511
1.3562064 -1.065589 3.2280724
1.6859909 -1.3214257 3.2187793
5.6218071 -4.4016533 8.625042
0.32065386 -0.28494856 7.2572999
0.30148426 -0.24823309 3.5991802
0.66141284 -0.52682769 3.2931294
0.89523226 -0.70837462 3.1586463
1.1640494 -0.91721195 3.1280882
1.5432606 -1.2130234 3.2809229
5.1036472 -4.0045695 8.6648417
0.043650374 -0.061588738 7.144001
0.40929583 -0.33284128 3.3541803
0.54821962 -0.44175759 3.4083388
0.83754128 -0.66841292 3.4728346
1.0335045 -0.82077128 3.1687562
1.3539822 -1.0722755 3.2324615
1.6828805 -1.3299279 3.2229121
5.6091237 -4.4281578 8.6327171
0.31962201 -0.28653815 7.2622914
0.30039829 -0.2495462 3.5991802
0.65999484 -0.53061152 3.2979689
0.9014464 -0.71996933 3.1914957
1.1665279 -0.92810911 3.1460929
1.5416126 -1.2235252 3.2894547
5.0863781 -4.0313344 8.6688318
0.043480318 -0.061815381 7.1540012
0.40813148 -0.33426794 3.3541803
0.54667431 -0.44366857 3.4083388
0.83287638 -0.66946173 3.4632907
1.0306332 -0.8243739 3.1687562
1.3539757 -1.0799824 3.2412398
1.6804297 -1.3375467 3.2270451
5.5961418 -4.4497056 8.6365547
0.31861985 -0.28765211 7.2622914
0.29952535 -0.25059327 3.5991802
0.67181259 -0.54398894 3.3657207
0.9056502 -0.72852039 3.2149594
1.181967 -0.94715095 3.1956065
1.5332581 -1.225642 3.2809229
2.0697508 -1.6521814 3.5815511
0.043286741 -0.06200419 7.1590009
0.40696222 -0.33569059 3.3541803
0.54512227 -0.4455741 3.4083388
1.0292706 -0.82919228 3.1733589
1.3520645 -1.0862021 3.2456288
1.6757505 -1.3434043 3.2270451
5.5830765 -4.4712157 8.6403913
0.31782696 -0.28895724 7.2672834
0.2986488 -0.25163728 3.5991802
0.68549263 -0.55904448 3.4431517
0.92455333 -0.74906087 3.2900438
1.1871234 -0.95810765 3.2181125
1.5269392 -1.2293509 3.2766569
2.0710161 -1.6650604 3.5935211
0.043114714 -0.062229875 7.1690001
0.40578794 -0.33710909 3.3541803
0.5435636 -0.44747421 3.4083388
0.8212418 -0.66959935 3.4346588
1.0248529 -0.83154899 3.1687562
1.3501266 -1.0924217 3.2500179
1.671051 -1.3492457 3.2270451
5.5699301 -4.4926896 8.6442289
0.31702888 -0.29026037 7.272275
0.29776862 -0.25267825 3.5991802
0.68159467 -0.55983782 3.4334726
0.94466048 -0.77083296 3.3698208
1.2091091 -0.98284417 3.2856307
1.5044076 -1.2198892 3.2382634
2.0651913 -1.6722796 3.5935211
0.042941637 -0.062455114 7.1790004
0.40460873 -0.33852351 3.3541803
0.54278195 -0.45001903 3.413234
1.2260721 -1.0069174 5.1191688
1.021944 -0.83512127 3.1687562
1.3444486 -1.0956148 3.2456288
1.6663311 -1.3550704 3.2270451
5.5567017 -4.5141253 8.6480665
0.31622553 -0.29156142 7.2772665
0.29647994 -0.25336936 3.5942087
0.67866802 -0.56141227 3.4286335
0.95529509 -0.78508371 3.4167485
1.2039868 -0.98567969 3.2811296
1.4779209 -1.2069857 3.1913381
2.0313201 -1.6566247 3.5456409
0.042811658 -0.062755175 7.1989994
0.40342459 -0.33993378 3.3541803
0.54198915 -0.45256379 3.4181292
1.2029973 -0.99501574 5.0380454
1.0175145 -0.83744186 3.1641538
1.3350623 -1.0957425 3.2324615
1.6615908 -1.3608788 3.2270451
5.5433912 -4.5355244 8.6519041
0.31541696 -0.29286039 7.282258
0.29519007 -0.25405455 3.5892372
0.68056643 -0.56699693 3.4479911
0.95254886 -0.78841358 3.4167485
1.1686275 -0.96356148 3.1956065
1.4475149 -1.1905988 3.1358809
1.9905983 -1.6350161 3.4857907
0.042592343 -0.062904239 7.1989994
0.40223557 -0.34133995 3.3541803
0.54040611 -0.45445296 3.4181292
1.0145849 -0.84098852 3.1641538
1.3219998 -1.0927662 3.2105162
1.6568304 -1.3666705 3.2270451
5.5299993 -4.5568852 8.6557417
0.31481361 -0.29435495 7.2922416
0.293899 -0.25473383 3.5842657
0.67569482 -0.56694466 3.4334726
0.93653673 -0.78068292 3.3698208
1.1501846 -0.95511717 3.1550953
1.4353166 -1.188989 3.1188173
1.9152263 -1.5843331 3.3660898
0.042372506 -0.063052528 7.1989994
0.40163201 -0.34324706 3.3591194
0.53648615 -0.45436165 3.4034436
0.80723876 -0.67716241 3.4155707
1.0101435 -0.84327286 3.1595511
1.3071339 -1.0881796 3.1841817
1.658543 -1.3778403 3.239444
5.5189919 -4.5802546 8.6634169
0.31399387 -0.29565042 7.2972331
0.29300803 -0.25575817 3.5842657
0.67275178 -0.56848836 3.4286335
0.92059034 -0.77285028 3.3228931
1.1384945 -0.95214283 3.1325896
1.4271524 -1.1906505 3.1102853
1.8471785 -1.5389307 3.2583592
0.042173829 -0.06323792 7.203999
0.40043142 -0.34464693 3.3591194
0.53334785 -0.45490956 3.3936532
0.83223301 -0.70309955 3.5300984
1.0042032 -0.84427899 3.150346
1.2923162 -1.0835028 3.1578474
1.6472489 -1.378204 3.2270451
5.5103478 -4.6056581 8.6749296
0.31337801 -0.29714292 7.3072166
0.29211348 -0.2567794 3.5842657
0.66980624 -0.57001841 3.4237938
0.85463876 -0.72257227 3.0976403
1.1318341 -0.95330614 3.1235871
1.4309742 -1.202336 3.1273491
1.8025544 -1.5124421 3.1905289
0.027431184 -0.037811637 3.8341277
0.39981279 -0.34655184 3.3640587
1.1873298 -1.0202522 7.5497007
0.82636344 -0.70309794 3.5157826
0.99826825 -0.84525406 3.1411412
1.2738875 -1.0756453 3.1227345
1.6359724 -1.3785055 3.2146463
5.5040464 -4.6331215 8.69028
0.31254727 -0.29843488 7.3122082
0.29121539 -0.25779751 3.5842657
0.66590393 -0.57071668 3.414115
0.84291482 -0.71771884 3.064791
1.1235194 -0.95302618 3.1100833
1.4327412 -1.212378 3.140147
1.7880579 -1.5109453 3.1745687
0.027256204 -0.03783112 3.8241279
0.39860067 -0.34794533 3.3640587
1.174523 -1.0163939 7.4909582
0.76723576 -0.65740752 3.2771833
0.99233878 -0.84619802 3.1319361
1.2628274 -1.0738791 3.1051781
1.6225685 -1.3769244 3.1981144
5.5025091 -4.664742 8.7133045
0.31191885 -0.29992518 7.3221912
0.29031372 -0.25881249 3.5842657
0.66200495 -0.57139462 3.4044361
0.83909458 -0.71953326 3.0600982
1.1152205 -0.9526999 3.0965798
1.4384251 -1.2258303 3.1614769
1.828667 -1.5562365 3.254369
0.027145263 -0.037964124 3.8291276
0.39796692 -0.34984788 3.3689981
1.1709679 -1.0204875 7.4909582
0.7626763 -0.65813088 3.2676392
0.98789692 -0.84838384 3.1273334
1.2645282 -1.0829545 3.1183455
1.5963606 -1.3642968 3.156785
5.4983816 -4.6943274 8.7324924
0.31128389 -0.30141476 7.3321748
0.28940853 -0.25982428 3.5842657
0.65810937 -0.57205236 3.3947573
0.83135408 -0.71794569 3.0413272
1.1052876 -0.95090735 3.0785747
1.4638226 -1.2563232 3.2254655
1.9330418 -1.6567359 3.4458902
0.026991431 -0.038020484 3.8241279
0.39732483 -0.35175034 3.3739374
0.53000504 -0.46499893 3.413234
0.78290558 -0.68037522 3.3630788
0.97901922 -0.84671462 3.1089232
1.2589267 -1.0857977 3.1139565
1.578792 -1.3588462 3.1319873
5.5014048 -4.7302094 8.7631922
0.3106423 -0.30290356 7.3421578
0.28889483 -0.26119083 3.5892372
0.65327168 -0.57186174 3.3802392
0.83144689 -0.72310847 3.0507126
1.1019615 -0.95475978 3.0785747
1.4890244 -1.2870079 3.2894547
2.0093639 -1.7343547 3.5895314
0.026879562 -0.03815271 3.8291276
0.39667422 -0.35365245 3.3788764
0.52914155 -0.46752059 3.4181292
0.77715641 -0.6801542 3.348763
0.97900391 -0.85269338 3.1181283
1.2551289 -1.0901855 3.1139565
1.5527756 -1.345917 3.0906579
5.4872828 -4.751482 8.7670298
0.31019965 -0.30459428 7.3571329
0.28798133 -0.26219767 3.5892372
0.64655793 -0.56998152 3.3560419
0.82891768 -0.72600639 3.0507126
1.1035427 -0.96289468 3.0920784
1.4845229 -1.2921978 3.2894547
2.0078456 -1.7453117 3.5975113
0.026767103 -0.038284618 3.8341277
0.3960152 -0.35555437 3.3838158
1.1115472 -0.98936069 7.1776633
0.77477747 -0.68286282 3.348763
0.97749013 -0.85739398 3.122731
1.2513157 -1.09456 3.1139565
1.5480679 -1.351329 3.0906579
5.4779105 -4.7769275 8.7785425
0.30954415 -0.30608216 7.3671165
0.28706434 -0.26320133 3.5892372
0.63986534 -0.56806153 3.331845
0.82767248 -0.73003703 3.0554056
1.1099861 -0.97536325 3.1190858
1.4780422 -1.2956526 3.2851889
1.9972069 -1.7483404 3.5895314
0.026633302 -0.038377818 3.8341277
0.39592382 -0.35797742 3.3936944
1.1171843 -1.0013914 7.2364063
0.7712729 -0.68457216 3.343991
0.97741944 -0.86338776 3.1319361
1.2456905 -1.0973381 3.1095674
1.5348879 -1.3492925 3.074126
5.4587941 -4.7939043 8.7747049
0.30908614 -0.30777329 7.3820915
0.28614384 -0.26420176 3.5892372
0.63225716 -0.56526375 3.3028083
0.82511908 -0.73292172 3.0554056
1.1212465 -0.99221683 3.1595967
1.4715554 -1.299078 3.2809229
1.9820508 -1.7473305 3.5735712
0.026519787 -0.038509008 3.8391273
0.39582032 -0.36040413 3.4035728
1.0993233 -0.99232 7.1433969
0.75997639 -0.67930073 3.3058152
0.97585934 -0.86809301 3.1365385
1.2364777 -1.0969112 3.0964
1.5217409 -1.3471805 3.0575943
5.444428 -4.8150535 8.7785425
0.30841669 -0.3092601 7.3920751
0.28521985 -0.26519898 3.5892372
0.62280846 -0.56073731 3.2640929
0.82126969 -0.7346468 3.0507126
1.1324022 -1.0091606 3.2001076
1.4670118 -1.3042067 3.2809229
1.9669259 -1.746236 3.5576108
0.026385203 -0.038601346 3.8391273
0.39570466 -0.36283448 3.4134514
1.0883192 -0.98930126 7.0944448
0.7531634 -0.6779542 3.2867272
0.97718823 -0.87540519 3.150346
1.2272835 -1.0964336 3.0832329
1.5149287 -1.3506114 3.0534613
5.4251933 -4.8318973 8.7747049
0.307538 -0.31054041 7.3970666
0.28429243 -0.26619297 3.5892372
0.62736452 -0.5688194 3.2979689
0.81870025 -0.73750907 3.0507126
1.1402131 -1.0232861 3.231616
1.4469062 -1.2954022 3.2467954
1.9473406 -1.7410406 3.5336709
0.026250299 -0.038693212 3.8391273
0.39500633 -0.364741 3.4183908
0.51489401 -0.47118312 3.3789675
0.74526328 -0.6755656 3.2628672
0.97412658 -0.87881094 3.150346
1.2163271 -1.0943031 3.0656767
1.5206742 -1.3652916 3.074126
5.415452 -4.8572254 8.7862177
0.30705798 -0.31223091 7.4120417
0.28336149 -0.26718372 3.5892372
0.63094348 -0.5760923 3.3270054
0.81484288 -0.7392028 3.04602
1.1366342 -1.0272599 3.231616
1.432691 -1.2917125 3.2254655
1.9278157 -1.7357301 3.5097306
0.026115075 -0.038784608 3.8391273
0.3948682 -0.36717644 3.4282691
0.51100057 -0.47090682 3.3642817
0.73959363 -0.67514336 3.2485511
0.971053 -0.88220584 3.150346
1.2054008 -1.0921097 3.0481203
1.5305102 -1.3838027 3.1030567
5.3960857 -4.873951 8.7823801
0.30757603 -0.31495684 7.4519749
0.28242713 -0.26817119 3.5892372
0.62337816 -0.57318532 3.2979689
0.81098372 -0.74087858 3.0413272
1.1185527 -1.0180329 3.1911051
1.4127268 -1.2826799 3.1913381
1.9038873 -1.7262561 3.4778104
0.025979532 -0.038875531 3.8391273
0.3930172 -0.36802113 3.4233298
0.77571982 -0.72003722 5.1118779
0.73283738 -0.67367941 3.2294633
0.95787847 -0.87635803 3.1181283
1.1962738 -1.0914676 3.0349529
1.5402353 -1.4023989 3.1319873
5.3908949 -4.9035406 8.8015671
0.3086803 -0.31831327 7.5068827
0.28148931 -0.26915541 3.5892372
0.61584079 -0.57023269 3.2689323
0.80712277 -0.74253637 3.0366344
1.110178 -1.0175182 3.1776016
1.4024668 -1.2823237 3.1785405
1.8822739 -1.7186687 3.4498804
0.025823737 -0.038927168 3.8341277
0.39173016 -0.36939076 3.4233298
0.77468908 -0.72413146 5.1216683
0.72610039 -0.67217654 3.2103753
0.95050353 -0.87572467 3.104321
1.187166 -1.0907754 3.021786
1.5457008 -1.417276 3.152652
2.11444 -1.9367719 3.5096488
0.30896577 -0.32084766 7.5418248
0.28093165 -0.27050653 3.5942087
0.60925084 -0.56809181 3.2447352
0.80326021 -0.74417633 3.0319417
1.0986214 -1.0140042 3.1550953
1.3960636 -1.2854447 3.1742744
1.8585188 -1.7089118 3.4179602
0.025687696 -0.039017074 3.8341277
0.38987523 -0.37022057 3.4183908
0.7773456 -0.73171759 5.1559353
0.71938276 -0.67063493 3.1912875
0.94171262 -0.87372166 3.0859108
1.1780777 -1.0900328 3.0086186
1.5428115 -1.4245719 3.156785
2.1053107 -1.9419675 3.5058112
0.15676436 -0.16321956 3.7531557
0.28036797 -0.27185699 3.5991802
0.60268342 -0.56591201 3.2205381
0.79939592 -0.74579835 3.0272489
1.0918863 -1.0148686 3.1460929
1.3896557 -1.2885367 3.1700087
1.832644 -1.6969627 3.38205
0.025551347 -0.039106503 3.8341277
0.38745797 -0.37050462 3.4085121
0.77404779 -0.73372585 5.1510396
0.71159679 -0.66803282 3.1674278
0.93294728 -0.87166804 3.0675008
1.1707613 -1.0908729 2.9998405
1.5440117 -1.4356976 3.169184
2.0961709 -1.9471233 3.5019739
0.15639196 -0.16397555 3.7581472
0.27979827 -0.27320683 3.6041517
0.59613866 -0.56369328 3.196341
0.7967878 -0.74858421 3.0272489
1.0867478 -1.0171862 3.1415918
1.3965863 -1.3040597 3.1956041
1.8090792 -1.6869093 3.3501298
0.025414683 -0.039195456 3.8341277
0.38560289 -0.37131557 3.4035728
0.77148187 -0.73642337 5.1510396
0.70383775 -0.66538459 3.1435676
0.92563075 -0.87090266 3.0536931
1.1634535 -1.0916752 2.9910622
1.5410448 -1.443002 3.1733167
2.0893614 -1.9544283 3.5019739
0.15562105 -0.16430999 3.7531557
0.27960226 -0.27493018 3.6140947
0.58870673 -0.56056881 3.1673045
0.79416984 -0.75136095 3.0272489
1.0800225 -1.0179869 3.1325896
1.4034252 -1.3196467 3.2211998
1.7790176 -1.670524 3.3062396
0.025277711 -0.039283931 3.8341277
0.38374692 -0.37211812 3.3986337
0.76817274 -0.73840612 5.1461444
0.69610596 -0.6626904 3.1197076
0.9197489 -0.87144077 3.044488
1.1561543 -1.0924398 2.9822841
1.5359985 -1.4483724 3.1733167
2.0848594 -1.9639074 3.5058112
0.15544024 -0.16527455 3.763139
0.27901927 -0.27627996 3.619066
0.58221102 -0.55826956 3.1431072
0.79154229 -0.75412852 3.0272489
1.0733048 -1.0187531 3.1235871
1.4291091 -1.3532298 3.2894547
1.7600392 -1.6643014 3.2822993
0.025140431 -0.039371926 3.8341277
0.38133445 -0.37236908 3.3887551
0.76485902 -0.74037462 5.1412492
0.69055641 -0.66201675 3.1053917
0.91528797 -0.87329727 3.0398853
1.1505989 -1.0948178 2.977895
1.5268523 -1.4498497 3.165051
2.0779912 -1.9711729 3.5058112
0.15466627 -0.16560426 3.7581472
0.27843022 -0.27762902 3.6240377
0.5721224 -0.5524385 3.0995526
0.78890502 -0.7568869 3.0272489
1.0681685 -1.0209891 3.1190858
1.4508004 -1.3834081 3.3491776
1.7214873 -1.6392649 3.2224488
2.3347344 -2.2201641 3.5709758
0.35977754 -0.34009516 0.16126597
0.025002843 -0.039459445 3.8341277
0.37947854 -0.37315279 3.3838158
0.76154101 -0.74232912 5.136354
0.68609381 -0.66234934 3.0958478
0.91082549 -0.87513322 3.0352831
1.1484995 -1.1004846 2.9822841
1.5177143 -1.4512807 3.156785
2.0710981 -1.9784144 3.5058112
0.15428264 -0.16635568 3.763139
0.27783516 -0.27897733 3.629009
0.56928957 -0.55355573 3.094713
0.79122198 -0.76443285 3.04602
1.0598931 -1.0201823 3.1055822
1.4516059 -1.3938832 3.3619757
1.6831321 -1.6139801 3.1625988
2.3269703 -2.2283003 3.5709758
0.33348101 -0.31744805 0.1564312
0.024845967 -0.039507192 3.8291276
0.37762186 -0.37392813 3.3788764
0.75821871 -0.74426949 5.1314588
0.68163729 -0.66265893 3.0863039
0.9063611 -0.8769486 3.0306804
1.1480979 -1.107813 2.9910622
1.5025043 -1.44681 3.1361201
2.0641794 -1.9856319 3.5058112
0.15370101 -0.16689321 3.763139
0.27685967 -0.27994546 3.629009
0.56555802 -0.55378038 3.0850341
0.80215281 -0.78042871 3.0976403
1.0563256 -1.0238757 3.1055822
1.4467314 -1.3989418 3.3619757
1.6428071 -1.5863546 3.0987582
2.3191781 -2.2364094 3.5709758
0.32393786 -0.30944645 0.13316588
0.35739449 -0.34259859 0.16126597
0.024707912 -0.039593678 3.8291276
0.37576446 -0.37469509 3.3739374
0.75489205 -0.74619561 5.1265635
0.67718709 -0.66294545 3.0767601
0.90189534 -0.87874359 3.026078
1.1545293 -1.1218286 3.0173967
1.485324 -1.4402916 3.1113224
2.0572357 -1.9928252 3.5058112
0.15311751 -0.16742872 3.763139
0.27550769 -0.28052947 3.6240377
0.56272674 -0.55486846 3.080195
0.80928391 -0.79288656 3.1351826
1.0589762 -1.0336394 3.1235871
1.4138126 -1.3766903 3.2979865
1.613497 -1.5689712 3.054868
2.3113573 -2.2444911 3.5709758
0.31567782 -0.30367032 0.13227172
0.34194517 -0.33008656 0.15850325
0.024569552 -0.039679684 3.8291276
0.3739062 -0.37545353 3.3689981
0.75156128 -0.74810773 5.1216683
0.67380595 -0.66425711 3.0719879
0.89882249 -0.88188648 3.026078
1.1745707 -1.1493031 3.0788438
1.470221 -1.4356375 3.0906579
2.0525613 -2.0022323 3.5096488
0.15253215 -0.16796218 3.763139
0.27415502 -0.28110743 3.619066
0.55900288 -0.55505764 3.0705161
0.81879431 -0.80782777 3.1821103
1.0584664 -1.0403819 3.1325896
1.3829293 -1.3560525 3.2382634
1.5886347 -1.5556196 3.0189579
2.31078 -2.2596567 3.5820012
0.35282192 -0.34177807 0.18473415
0.3253465 -0.3151654 0.13361296
0.33368927 -0.32437459 0.15712188
0.024430895 -0.039765205 3.8291276
0.37204733 -0.37620372 3.3640587
0.74678844 -0.74856365 5.1069827
0.67042404 -0.66555327 3.0672159
0.89434898 -0.88364524 3.0214753
1.1961401 -1.1786119 3.14468
1.4511559 -1.4269491 3.0617273
2.0455596 -2.0093849 3.5096488
0.15194491 -0.16849358 3.763139
0.27317211 -0.28206268 3.619066
0.55528462 -0.55522758 3.060837
0.807401 -0.80216622 3.1492608
1.0579227 -1.0471333 3.1415918
1.3410733 -1.324221 3.1529448
1.5767583 -1.554808 3.0069876
2.3052938 -2.2700875 3.5856764
0.3375617 -0.32928687 0.18100367
0.32067963 -0.31282169 0.13316588
8.9424372 -8.7692795 7.4455547
8.8971195 -8.7157164 5.8450317
0.33963242 -0.33246574 0.15850325
0.02429194 -0.039850242 3.8291276
0.3696436 -0.37639076 3.3541803
0.73987204 -0.7468248 5.077611
0.66704118 -0.66683394 3.062444
0.89125901 -0.88676178 3.0214753
1.2005187 -1.191215 3.1666255
1.4381679 -1.4240857 3.0451953
2.040812 -2.0187671 3.5134864
0.15135583 -0.16902295 3.763139
0.27181676 -0.28262994 3.6140947
0.55245763 -0.55627042 3.0559978
0.7960574 -0.79643506 3.1164114
1.0588863 -1.0554305 3.1550953
1.3290454 -1.3215381 3.1358809
1.5777358 -1.5666723 3.0189579
2.30217 -2.2828948 3.5930264
0.35042727 -0.34423289 0.18473415
0.31958571 -0.31393918 0.13316588
8.9301767 -8.8186159 7.4607544
8.866642 -8.7467203 5.8450317
0.024152689 -0.039934795 3.8291276
0.3677853 -0.37712219 3.349241
0.73583287 -0.74795097 5.067821
0.66470945 -0.66915828 3.062444
0.89643836 -0.89816493 3.0490906
1.1946591 -1.1937053 3.1622362
1.4331883 -1.4290972 3.0451953
2.0382941 -2.0304027 3.5211611
0.15076491 -0.16955024 3.763139
0.27082855 -0.28357702 3.6140947
0.54874766 -0.55640519 3.046319
0.78841025 -0.79430932 3.0976403
1.0567321 -1.0606626 3.1595967
1.3059956 -1.3077148 3.0932217
1.5786494 -1.5785621 3.0309277
2.2941873 -2.2909169 3.5930264
0.35271576 -0.34890866 0.18566677
0.32556868 -0.32205737 0.13406004
8.8993397 -8.8497343 7.4607544
8.810297 -8.7520285 5.8282475
0.024013141 -0.04001886 3.8291276
0.36538619 -0.37728679 3.3393624
0.66236961 -0.67147452 3.062444
0.89604801 -0.904064 3.0582957
1.1786677 -1.1859765 3.1315129
1.4301766 -1.436085 3.0493283
2.017617 -2.0238855 3.4981363
0.15017214 -0.17007549 3.763139
0.26983702 -0.28452066 3.6140947
0.5468021 -0.5583173 3.046319
0.77957654 -0.79091084 3.0741765
1.0484302 -1.0597019 3.1460929
1.2904046 -1.3011546 3.067626
1.6007318 -1.6118586 3.0827982
2.2766144 -2.2892957 3.5783257
0.34801555 -0.34667093 0.18473415
8.9049463 -8.9173479 7.4911523
0.023873305 -0.040102437 3.8291276
0.3635287 -0.37799957 3.3344233
0.47682863 -0.49138787 3.3153296
0.66002166 -0.67378247 3.062444
0.90247887 -0.9169336 3.0905132
1.1610627 -1.1764458 3.0964
1.425155 -1.4410686 3.0493283
1.9992653 -2.0195262 3.4789488
0.14957756 -0.17059864 3.763139
0.26884222 -0.28546083 3.6140947
0.54397368 -0.55932128 3.0414793
0.77198315 -0.78869379 3.0554056
1.0401481 -1.0586963 3.1325896
1.2876847 -1.3075093 3.071892
1.6183691 -1.6410372 3.1266885
2.2757559 -2.3044655 3.5893517
0.35720742 -0.35832044 0.18753201
8.8768005 -8.9514389 7.4936852
8.4740028 -8.5363197 5.6478148
0.023733174 -0.040185526 3.8291276
0.36113438 -0.37814182 3.3245447
0.4751105 -0.49304929 3.3153296
0.65974706 -0.67822254 3.0719879
0.89654171 -0.91728371 3.0813081
1.1603017 -1.1839128 3.1051781
1.4220878 -1.4480424 3.0534613
1.9832158 -2.0173497 3.4635987
0.14898115 -0.17111972 3.763139
0.26784414 -0.28639752 3.6140947
0.54201794 -0.56121671 3.0414793
0.76682013 -0.78890854 3.04602
1.0318857 -1.0576457 3.1190858
1.2904066 -1.3194547 3.0889559
1.6252805 -1.6595936 3.1506286
5.6050625 -5.7156429 8.7566328
0.34904274 -0.35258308 0.18566677
8.8394499 -8.9762268 7.4886189
8.4186649 -8.5399904 5.6310306
0.34487545 -0.34958804 0.20915711
0.023610499 -0.040307991 3.8341277
0.35927784 -0.37883601 3.3196054
0.47409022 -0.4954406 3.3202245
0.65841252 -0.68159515 3.0767601
0.89333439 -0.92040765 3.0813081
1.1628432 -1.1948214 3.1227345
1.4150598 -1.4509828 3.0493283
1.9649669 -2.0127923 3.444411
0.14838292 -0.17163873 3.763139
0.26648048 -0.28693971 3.6091232
0.54005563 -0.56310529 3.0414793
0.76166493 -0.78909689 3.0366344
1.0221289 -1.0549868 3.1010809
1.3003283 -1.3389189 3.1230834
1.6173768 -1.6630964 3.1466384
5.5803466 -5.7303162 8.7492819
0.34436622 -0.35029626 0.18473415
8.3729296 -8.5531101 5.6205401
0.34365308 -0.35078976 0.20915711
0.023469653 -0.04039016 3.8341277
0.35742089 -0.37952191 3.3146663
0.47446141 -0.49930748 3.3349104
0.65809566 -0.68604404 3.0863039
0.8914718 -0.92492718 3.0859108
1.1653228 -1.2057621 3.140291
1.4099863 -1.4559135 3.0493283
1.949005 -2.0104337 3.4290612
0.14796996 -0.17237552 3.7681305
0.26547724 -0.28786817 3.6091232
0.53808677 -0.564987 3.0414793
0.75651789 -0.78925896 3.0272489
1.0139123 -1.0538417 3.0875771
1.3101296 -1.3584683 3.1572106
1.6010958 -1.6578944 3.1266885
5.5532393 -5.7424493 8.7382565
8.3430223 -8.5822849 5.6205401
0.34242651 -0.35198721 0.20915711
0.02332852 -0.040471841 3.8341277
0.35556352 -0.3801994 3.309727
0.46922275 -0.4972567 3.3104341
0.65775567 -0.69049901 3.0958478
0.88148415 -0.92097592 3.0628982
1.1677397 -1.2167346 3.1578474
1.4029452 -1.4587982 3.0451953
1.926415 -2.0010607 3.4021988
0.14736736 -0.17289099 3.7681305
0.26411119 -0.28839961 3.6041517
0.53697479 -0.56777531 3.046319
0.75137907 -0.78939462 3.0178635
1.0057164 -1.0526522 3.0740736
1.3107911 -1.3686842 3.1700087
1.5848708 -1.6525987 3.1067383
5.52142 -5.7495723 8.7198811
7.1476598 -7.3886595 6.8245692
7.6729364 -7.9261222 5.861125
7.4193492 -7.6936617 6.3664212
8.3508387 -8.6505375 5.6457167
0.33781868 -0.34968451 0.20798479
0.023204427 -0.040593069 3.8391273
0.35423425 -0.38143826 3.309727
0.46609217 -0.49740514 3.3006437
0.65841818 -0.69604445 3.1101637
0.87422657 -0.91979873 3.0490906
1.1700945 -1.2277386 3.1754036
1.3959008 -1.4616512 3.0410624
1.9105588 -1.9985054 3.3868487
0.14676297 -0.17340434 3.7681305
0.26274469 -0.28892502 3.5991802
0.53498966 -0.56964618 3.046319
0.74624854 -0.78950423 3.0084779
0.99754107 -1.0514183 3.06057
1.3078028 -1.3751413 3.1742744
1.5687026 -1.6472106 3.0867882
5.5200338 -5.7884383 8.7492819
7.1218252 -7.4135642 6.8245692
7.6329427 -7.9400845 5.85185
7.5541835 -7.8911548 8.0378599
6.9809985 -7.2898579 6.0168419
8.3111706 -8.6698074 5.6394229
0.35342032 -0.36839968 0.21384639
0.023062589 -0.040673822 3.8391273
0.35237417 -0.38210094 3.3047879
0.462273 -0.4967922 3.2859581
0.65802819 -0.70051479 3.1197076
0.86564708 -0.91716111 3.0306804
1.1723864 -1.2387738 3.1929598
1.388854 -1.4644731 3.0369296
1.9146049 -2.0167851 3.4060364
0.14634152 -0.17413741 3.7731223
0.26137772 -0.28944439 3.5942087
0.53385502 -0.57242966 3.0511582
0.74703062 -0.79587936 3.0225561
0.99386495 -1.054894 3.06057
1.2994134 -1.3759056 3.1657426
1.5546618 -1.6439189 3.0708282
5.5161119 -5.8249021 8.7750082
7.1391964 -7.4837618 6.8656912
7.6051803 -7.9666796 5.85185
7.5182366 -7.9086866 8.0290308
6.1712627 -6.4894896 5.348083
0.3588374 -0.37666979 0.21619101
0.022920473 -0.040754076 3.8391273
0.35103822 -0.38332862 3.3047879
0.45984527 -0.49765471 3.2810628
0.65863305 -0.70608258 3.1340237
0.85843271 -0.91590053 3.0168729
1.1713352 -1.2463492 3.2017381
1.3818045 -1.4672636 3.0327964
1.9251424 -2.0421147 3.4367363
0.14573278 -0.17464718 3.7731223
0.26036581 -0.290355 3.5942087
0.53270751 -0.57521212 3.0559978
0.74895376 -0.80353206 3.0413272
0.99017662 -1.0583568 3.06057
1.2892509 -1.3747258 3.1529448
1.5386003 -1.6383526 3.050878
5.5096807 -5.8589406 8.79706
7.11303 -7.508637 6.8656912
7.5468493 -7.9610295 5.8286619
7.4850354 -7.9290028 8.0231438
6.1396937 -6.5015888 5.3404832
7.1249204 -7.5369968 4.8820257
0.37422186 -0.39557523 0.2220526
0.022778071 -0.040833838 3.8391273
0.3491756 -0.38397649 3.2998483
0.45810533 -0.49925688 3.2810628
0.65616435 -0.7083773 3.1340237
0.85389948 -0.91746122 3.0122702
1.1735135 -1.2574345 3.2192943
1.3766743 -1.4720781 3.0327964
1.935526 -2.0675418 3.4674363
0.14512226 -0.17515482 3.7731223
0.25899661 -0.29086357 3.5892372
0.53154701 -0.57799345 3.060837
0.74966055 -0.80994135 3.0554056
0.98647618 -1.0618067 3.06057
1.2702255 -1.3639486 3.1188173
1.5287619 -1.6393059 3.0428979
5.5007639 -5.8905253 8.8154354
7.0638566 -7.5090556 6.8437595
7.5038319 -7.9711967 5.8170681
7.4241409 -7.9196963 7.9878263
6.1051669 -6.5104032 5.3303509
7.0612926 -7.5221133 4.8568487
0.36951074 -0.39333636 0.22088028
0.022635397 -0.040913098 3.8391273
0.34731272 -0.38461602 3.2949092
0.45635977 -0.50085288 3.2810628
0.66581213 -0.72384876 3.1912875
0.85334355 -0.92330599 3.0214753
1.1902795 -1.2843603 3.2763524
1.3715274 -1.4768746 3.0327964
1.9370263 -2.0836761 3.4827864
0.14450997 -0.17566031 3.7731223
0.2576271 -0.29136616 3.5842657
0.53122115 -0.58170217 3.0705161
0.75149924 -0.81763583 3.0741765
0.98276377 -1.0652436 3.06057
1.2530621 -1.3549706 3.0889559
1.5250776 -1.6468431 3.0468879
5.4986105 -5.9295778 8.8448362
7.4608359 -7.9811616 5.8054743
7.3551397 -7.901185 7.9436793
6.0148349 -6.4591141 5.2720876
7.0783186 -7.5931935 4.8862219
7.0887413 -7.6017213 3.7067029
0.37476668 -0.40173239 0.22322492
0.022492446 -0.040991861 3.8391273
0.34544966 -0.38524723 3.2899699
0.45460871 -0.50244284 3.2810628
0.67636633 -0.74049836 3.2533233
0.85143632 -0.92771858 3.026078
1.2198453 -1.3255174 3.3685231
1.3720868 -1.4878592 3.0451953
1.9319152 -2.0927801 3.486624
0.14371428 -0.17593929 3.7681305
0.25625721 -0.2918627 3.5792942
0.5300315 -0.58448422 3.0753555
0.75213015 -0.82407832 3.0882547
0.97903943 -1.0686677 3.06057
1.2359768 -1.3458893 3.0590942
1.5172802 -1.6499387 3.0428979
5.4824715 -5.9537234 8.8521872
6.8122025 -7.3435984 6.6518569
7.4329314 -8.0071554 5.8054743
5.971765 -6.4579153 5.2543554
7.0548534 -7.6211863 4.88832
7.0525374 -7.6160245 3.7017722
0.022349222 -0.041070126 3.8391273
0.34410277 -0.38645074 3.2899699
0.45217183 -0.50326908 3.2761676
0.6737774 -0.74285477 3.2533233
0.85082448 -0.93357319 3.0352831
1.1861306 -1.2979428 3.2895195
1.3706856 -1.4967904 3.0534613
1.9181007 -2.0924222 3.4751112
0.14309926 -0.17643988 3.7681305
0.25523683 -0.29275542 3.5792942
0.52966982 -0.58819926 3.0850341
0.74924898 -0.82669872 3.0882547
0.97530311 -1.0720786 3.06057
1.2189705 -1.3367054 3.0292325
1.5115116 -1.6552249 3.0428979
5.4616561 -5.9728246 8.8521872
5.528677 -6.0018249 5.4346461
7.4199481 -8.0493383 5.8170681
6.8579507 -7.4370699 4.1756086
7.0346656 -7.6635036 7.6581922
5.9171138 -6.4437943 5.2264905
6.9360642 -7.5455251 4.8253784
7.0227132 -7.6371202 3.7001288
0.022222061 -0.041188348 3.8441272
0.34223735 -0.38706711 3.2850308
0.4504123 -0.50484431 3.2761676
0.67517555 -0.74963933 3.2724111
0.84887123 -0.93798602 3.0398853
1.1477957 -1.2648283 3.1973488
1.3711318 -1.5078119 3.0658603
1.9129426 -2.1014755 3.4789488
0.14230242 -0.17671266 3.763139
0.25386494 -0.2932412 3.5743227
0.52845103 -0.59098178 3.0898738
0.74520445 -0.82802624 3.0835621
0.97155493 -1.0754765 3.06057
1.2020435 -1.3274195 2.9993713
1.5057247 -1.660491 3.0428979
5.440774 -5.9918528 8.8521872
5.502048 -6.0149155 5.429163
7.3618951 -8.0425138 5.7938805
6.8789105 -7.5122495 4.2037039
6.9915347 -7.6700892 7.6405334
5.9149175 -6.4867072 5.2442226
6.9188633 -7.5797477 4.8316727
6.9800911 -7.6441526 3.6919115
0.022094348 -0.041306179 3.8491268
0.34088415 -0.38825941 3.2850308
0.44864732 -0.50641346 3.2761676
0.66956979 -0.74865323 3.2580953
0.84820342 -0.94384992 3.0490906
1.103294 -1.2243456 3.0876219
1.369632 -1.5167661 3.074126
1.901297 -2.1033845 3.4712739
0.14168473 -0.17720832 3.763139
0.2528398 -0.29412556 3.5743227
0.5280537 -0.59470308 3.0995526
0.7411598 -0.82933557 3.0788693
0.96924847 -1.080482 3.0650711
1.1834526 -1.3160925 2.9652438
1.5019354 -1.667976 3.0468879
5.4198251 -6.0108085 8.8521872
5.4782071 -6.0309901 5.4264212
9.2526379 -10.179183 7.2871871
6.8807154 -7.5670853 4.220561
0.34239104 -0.37639567 0.23950337
6.9647183 -7.694447 7.6405334
5.9067049 -6.5232916 5.2568884
6.962882 -7.678966 3.696842
0.021950027 -0.04138305 3.8491268
0.3395268 -0.38944694 3.2850308
0.44687691 -0.50797647 3.2761676
0.6649704 -0.74875343 3.2485511
0.84490365 -0.94680494 3.0490906
1.0862379 -1.2139105 3.0525093
1.3662078 -1.523633 3.078259
1.9089301 -2.1267056 3.4981363
0.14106528 -0.1777018 3.763139
0.25146592 -0.29460052 3.5693512
0.52680564 -0.59748566 3.1043918
0.73711509 -0.83062679 3.0741765
0.96691883 -1.0854843 3.0695722
1.1771144 -1.3182701 2.9609778
1.4961039 -1.6732086 3.0468879
5.3988104 -6.0296903 8.8521872
5.4655242 -6.059391 5.4346461
8.8875856 -9.8464108 7.0298004
6.9101825 -7.6529918 4.2542758
0.34750599 -0.38470826 0.24232344
6.9675393 -7.75178 7.6729083
5.9011917 -6.5631032 5.2720876
6.9477577 -7.7189441 4.88832
6.9328747 -7.6997142 3.6951985
0.021821355 -0.041500047 3.8541267
0.33867356 -0.3912175 3.2899699
0.44510099 -0.50953329 3.2761676
0.66531414 -0.75442916 3.2628672
0.84288907 -0.95121074 3.0536931
1.0899476 -1.2266469 3.0744548
1.3590096 -1.5262909 3.074126
1.8929644 -2.123785 3.4827864
0.14044413 -0.17819314 3.763139
0.25043604 -0.2954765 3.5693512
0.52554458 -0.60026687 3.1092315
0.73535192 -0.83448958 3.0788693
0.96600831 -1.0921142 3.0785747
1.1690452 -1.3184679 2.9524457
1.492255 -1.6806742 3.050878
5.3799829 -6.0510325 8.8558626
5.4415498 -6.0753169 5.4319043
7.7917266 -8.6931391 6.1973515
6.8215308 -7.6080341 4.2168155
0.34295797 -0.38234788 0.24091341
6.9350562 -7.7700233 7.6670218
5.8782463 -6.5836625 5.2720876
6.9389176 -7.7634525 4.9009085
6.9028077 -7.7203474 3.6935549
0.02167636 -0.041575965 3.8541267
0.33730587 -0.39239731 3.2899699
0.44331968 -0.5110839 3.2761676
0.66365987 -0.75787002 3.2676392
0.83827311 -0.95268041 3.0490906
1.0840746 -1.2286482 3.0700655
1.3536737 -1.5310254 3.074126
1.8600481 -2.101577 3.4367363
0.13982126 -0.1786823 3.763139
0.24906033 -0.29594067 3.5643797
0.52427053 -0.60304648 3.1140707
0.73243457 -0.83705139 3.0788693
0.96506321 -1.0987509 3.0875771
1.1627126 -1.3205831 2.94818
1.4863791 -1.6858728 3.050878
5.3610716 -6.0723166 8.8595381
5.4453197 -6.122395 5.4565778
7.7436647 -8.7004309 6.1834388
6.8473387 -7.6906605 4.2486572
0.34481174 -0.38712493 0.24232344
6.9186149 -7.8062835 7.6787944
5.8695288 -6.6202698 5.2847533
6.9178014 -7.7944155 4.9051046
6.8319249 -7.6949587 3.6705458
0.021531099 -0.041651376 3.8541267
0.33593407 -0.39357233 3.2899699
0.44153297 -0.51262826 3.2761676
0.67276198 -0.77370077 3.324903
0.83365721 -0.95412934 3.044488
1.0829356 -1.2360277 3.0788438
1.3483211 -1.5357413 3.074126
1.7934558 -2.0406439 3.3292859
0.13919669 -0.17916927 3.763139
0.24768445 -0.29639882 3.5594082
0.52380466 -0.60677612 3.1237495
0.75893211 -0.87347519 3.2008812
0.96694517 -1.1086758 3.1055822
1.1546627 -1.3207067 2.9396482
1.4804853 -1.691051 3.050878
5.351017 -6.1037397 8.8779135
5.4349871 -6.1539016 5.4675436
7.7132473 -8.7274084 6.1834388
6.8204513 -7.7145147 4.2486572
0.36570439 -0.4134796 0.25219366
6.9020052 -7.8425231 7.690567
7.1196747 -8.0870171 6.4170842
6.890552 -7.8185153 4.9051046
6.8706017 -7.7931442 3.7050595
0.021385578 -0.04172628 3.8541267
0.33455822 -0.39474255 3.2899699
0.4397409 -0.51416636 3.2761676
0.67786014 -0.78508419 3.3630788
0.83160186 -0.95850939 3.0490906
1.0770426 -1.2379934 3.0744548
1.3429523 -1.5404385 3.074126
1.6366918 -1.8754281 3.0568233
0.13874574 -0.17988344 3.7681305
0.24630839 -0.29685101 3.5544367
0.52250129 -0.60955542 3.1285892
0.78518391 -0.91009361 3.3228931
0.96306926 -1.1120445 3.1055822
1.1585938 -1.3345767 2.9609778
1.4745734 -1.6962085 3.050878
1.8550032 -2.1308563 3.1409814
7.6535168 -8.7209854 6.1602507
6.7384281 -7.6755667 4.2149425
0.34843162 -0.39673153 0.2451435
6.9091644 -7.9061346 7.728828
7.1992168 -8.2351484 6.5133452
6.8572402 -7.83569 4.9009085
6.8931241 -7.8739281 3.7313554
0.021239797 -0.041800678 3.8541267
0.33317828 -0.39590797 3.2899699
0.4386023 -0.51647449 3.2810628
0.6877439 -0.8021794 3.4251149
0.83080095 -0.96436685 3.0582957
1.0554932 -1.2218084 3.0261748
1.3375669 -1.5451168 3.074126
1.5797588 -1.822994 2.9647233
0.13811699 -0.18036665 3.7681305
0.24493219 -0.29729718 3.5494652
0.52118486 -0.61233294 3.1334283
0.80220854 -0.9364205 3.4073629
0.96627808 -1.1236527 3.1280882
1.1777668 -1.366269 3.0207007
1.4647057 -1.6967833 3.0428979
1.849771 -2.1398833 3.1446567
6.9405837 -7.9729247 8.6057644
5.7516212 -6.6047864 5.8266759
7.6201181 -8.7443085 6.1579318
6.7146406 -7.7025356 4.2168155
6.8947706 -7.9454684 7.7435441
7.3145461 -8.4262533 6.6425371
6.7971001 -7.8218942 4.8778296
6.9833212 -8.0333681 3.7938092
0.021093756 -0.041874561 3.8541267
0.33179426 -0.39706859 3.2899699
0.43679678 -0.51800239 3.2810628
0.68106979 -0.80002809 3.4060268
0.83885807 -0.98062307 3.0997183
1.0403073 -1.21276 2.9954512
1.3339995 -1.5519104 3.078259
1.5587519 -1.8114899 2.9378607
0.13748653 -0.18084767 3.7681305
0.24355589 -0.29773736 3.5444937
0.51904428 -0.6141485 3.1334283
0.7698673 -0.90503657 3.285351
0.94962817 -1.1121182 3.0875771
1.1950365 -1.39613 3.0761578
1.458774 -1.7018859 3.0428979
5.2779737 -6.1491489 8.8632126
6.8923483 -7.973546 8.5806561
5.7969065 -6.7038965 5.8952122
7.5315752 -8.7038574 6.1115556
6.8749089 -7.9786725 7.7523732
5.7033463 -6.6166801 5.2188907
6.81423 -7.8971152 4.9093003
6.9151254 -8.0112257 3.7724433
0.020932397 -0.041906986 3.8491268
