# .PCD v0.7 - Point Cloud Data file format
VERSION 0.7
FIELDS x y z
SIZE 4 4 4
TYPE F F F
COUNT 1 1 1
WIDTH 1478
HEIGHT 1
VIEWPOINT 0 0 0 1 0 0 0
POINTS 1478
DATA ascii
-0.98565131 -1.7572443 2.4888728
-1.7530676 -3.0837054 9.7003622
-0.69881111 -1.2348349 2.9975529
-0.74938124 -1.3279209 2.5642459
-0.95979369 -1.7034854 2.6638458
-1.0792844 -1.9186517 2.464751
-1.2194265 -2.1828966 2.5369387
-1.1848904 -2.1236656 2.0432515
-1.1314423 -2.0286963 1.6075593
-1.0831922 -1.9437643 1.2513511
-1.0607163 -1.9042039 0.96897638
-1.0386556 -1.8653562 0.7175045
-1.0102209 -1.8157704 0.48597044
-0.99741822 -1.7927538 0.27712533
-1.2138458 -2.1657884 2.2924254
-1.1566237 -2.0653689 1.8071893
-1.1105531 -1.9839056 1.4216557
-1.0725145 -1.918295 1.1034333
-1.0461663 -1.8719262 0.83549255
-1.024146 -1.833266 0.59719419
-0.99739224 -1.7853708 0.37744883
-0.9839325 -1.7619894 0.17508389
-0.90664309 -1.5490103 11.41011
-1.1442174 -1.9759089 11.000835
-1.1822608 -2.0646389 7.6530924
-1.5269586 -2.6816099 7.3294377
-0.73074019 -1.2875535 2.7803864
-0.76286763 -1.3474022 2.3467271
-0.99177921 -1.7537931 2.4888728
-0.41659263 -0.69470912 7.511754
-1.3656456 -2.3828764 7.5229192
-0.70311731 -1.2323881 2.9975529
-0.75530177 -1.3275639 2.5685117
-0.96722245 -1.7027447 2.6678357
-1.0859752 -1.9148725 2.464751
-1.2270389 -2.1786265 2.5369387
-1.1808459 -2.0991626 2.024421
-1.1282694 -2.0065107 1.5938519
-1.0856308 -1.9322475 1.2467135
-1.0582762 -1.8843215 0.96148425
-1.0357673 -1.8449875 0.71186441
-1.00694 -1.795096 0.48223996
-0.99636096 -1.7762314 0.27578411
-1.2103771 -2.1420343 2.2724726
-1.1538897 -2.0437202 1.7924737
-1.1089963 -1.9650004 1.411523
-1.0702895 -1.8987249 1.095041
-1.0434217 -1.8518069 0.82891852
-1.0209976 -1.8127396 0.59250492
-0.99632746 -1.7689341 0.37537676
-0.98027307 -1.7411306 0.17427778
-0.91283453 -1.5471743 11.419989
-1.1531612 -1.97542 11.020417
-1.1902069 -2.0617921 7.6578641
-1.519774 -2.64746 7.251195
-0.73523021 -1.284995 2.7803864
-0.76756626 -1.344731 2.3467271
-0.99948269 -1.7531048 2.4927104
-0.41901508 -0.69325066 7.511754
-1.3774086 -2.3840716 7.5416903
-0.70632935 -1.2280394 2.9930518
-0.75993121 -1.3249192 2.5685117
-0.97465783 -1.7019728 2.6718256
-1.09097 -1.9081271 2.461076
-1.2328753 -2.1712294 2.5334342
-1.1766447 -2.0747135 2.00559
-1.1270177 -1.9880102 1.5828861
-1.0836356 -1.9130287 1.2374383
-1.0579945 -1.8685133 0.95586509
-1.0351125 -1.8288366 0.70763427
-1.0059454 -1.7787428 0.47944215
-0.99520057 -1.7597383 0.27444285
-1.2067574 -2.1183305 2.2525196
-1.1510185 -2.0221162 1.7777578
-1.1051892 -1.9423836 1.3988571
-1.0679408 -1.879194 1.0866488
-1.042882 -1.8358358 0.82398808
-1.0201186 -1.7964845 0.58898795
-0.99516034 -1.752527 0.37330475
-0.98141229 -1.7290084 0.17387471
-0.91822958 -1.5439785 11.419989
-1.1585002 -1.9687499 11.005731
-1.1981475 -2.0589149 7.6626363
-1.5162845 -2.6201577 7.1913624
-0.73971117 -1.2824206 2.7803864
-0.77225554 -1.3420435 2.3467271
-1.005596 -1.7496054 2.4927104
-0.42309779 -0.69451433 7.5415826
-1.3848536 -2.377758 7.5369973
-0.71388787 -1.2312158 3.0065553
-0.76455146 -1.3222586 2.5685117
-0.98209953 -1.7011698 2.6758156
-1.0976239 -1.9043072 2.461076
-1.2315878 -2.1514375 2.5159113
-1.1742196 -2.0536988 1.9898978
-1.123576 -1.9659126 1.5691788
-1.0837164 -1.8976946 1.230482
-1.055317 -1.8487045 0.94837296
-1.03198 -1.8085462 0.70199412
-1.0048491 -1.7624183 0.47664425
-0.99147081 -1.7389491 0.27265453
-1.2029872 -2.0946786 2.2325666
-1.148011 -2.0005572 1.7630421
-1.1033827 -1.9235567 1.3887243
-1.0654691 -1.8597029 1.0782566
-1.0398967 -1.8157933 0.81741405
-1.0167239 -1.7760396 0.58429867
-0.99389082 -1.7361495 0.37123269
-0.97751641 -1.7082275 0.17306858
-0.92401296 -1.5414301 11.424928
-1.1648459 -1.9638186 11.000835
-1.2068379 -2.0572953 7.6721807
-1.5224676 -2.6097865 7.1775546
-0.74418318 -1.2798308 2.7803864
-0.77834761 -1.341774 2.3508601
-1.0133041 -1.7488577 2.4965477
-0.42886937 -0.69848257 7.6012406
-1.0672499 -1.8042511 8.1083565
-1.3913976 -2.3699331 7.5276117
-0.7104907 -1.2155607 2.9750469
-0.76916236 -1.3195817 2.5685117
-0.98954749 -1.7003355 2.6798058
-1.1025612 -1.8975331 2.4574008
-1.2266121 -2.125504 2.4913795
-1.1697184 -2.0293541 1.9710671
-1.122081 -1.9474862 1.5582129
-1.081493 -1.8785436 1.2212067
-1.0548267 -1.8329554 0.94275385
-1.0311108 -1.7924585 0.69776398
-1.0036509 -1.7461234 0.47384638
-0.99008965 -1.7225249 0.27131331
-1.1990666 -2.0710793 2.2126136
-1.1448669 -1.9790443 1.7483262
-1.0993005 -1.901035 1.3760586
-1.0651444 -1.8441821 1.0719625
-1.0391454 -1.7998837 0.81248349
-1.0156285 -1.7598503 0.58078176
-0.99251926 -1.7198026 0.36916068
-0.97598386 -1.6918225 0.172464
-0.9297899 -1.5388603 11.429867
-0.84403163 -1.4118228 7.931529
-1.2147715 -2.0543547 7.6769524
-1.530578 -2.602772 7.1729527
-0.74743479 -1.2751591 2.7759972
-0.78302658 -1.3390487 2.3508601
-1.0210192 -1.7480776 2.5003853
-0.42877829 -0.69290304 7.5564971
-1.3979037 -2.3620915 7.5182261
-0.71804512 -1.2186999 2.9885504
-0.77376384 -1.3168888 2.5685117
-0.99547666 -1.696871 2.6798058
-1.1091782 -1.8936727 2.4574008
-1.2232639 -2.1027141 2.4703522
-1.1670172 -2.0084319 1.9553747
-1.1183715 -1.9254791 1.5445056
-1.0791494 -1.8594321 1.2119315
-1.051913 -1.8132224 0.93526173
-1.0277352 -1.7722493 0.69212389
-1.0023516 -1.7298588 0.47104853
-0.98860615 -1.7061317 0.26997206
-1.1949962 -2.0475328 2.1926606
-1.1415868 -1.9575777 1.7336103
-1.0972457 -1.8822893 1.3659258
-1.0624406 -1.8247643 1.0635703
-1.0382957 -1.7840015 0.80755287
-1.0119884 -1.7394888 0.57609248
-0.99104571 -1.7034862 0.36708862
-0.9743489 -1.6754491 0.1718594
-0.93515581 -1.5356053 11.429867
-0.846852 -1.4053797 7.9119477
-1.2234639 -2.0526662 7.6864963
-1.5406502 -2.5990942 7.1775546
-0.75188142 -1.2725424 2.7759972
-0.78912503 -1.3387314 2.3549929
-1.0287414 -1.7472651 2.5042226
-0.43204132 -0.69275862 7.5714121
-1.021538 -1.6997974 7.6728086
-1.403488 -2.3527517 7.504148
-1.7039688 -2.8688564 6.9631224
-0.77835596 -1.3141799 2.5685117
-1.0029277 -1.6959795 2.6837957
-1.1140578 -1.8868703 2.4537256
-1.2197716 -2.0799737 2.4493251
-1.1641842 -1.9875531 1.9396824
-1.1145216 -1.9035213 1.5307982
-1.0766857 -1.8403598 1.2026563
-1.0512151 -1.797534 0.92964268
-1.0266525 -1.756227 0.68789381
-1.0034287 -1.7178659 0.4691833
-0.98953205 -1.6940702 0.2690779
-1.190776 -2.0240405 2.1727076
-1.1402193 -1.9396428 1.7218376
-1.0950732 -1.8635812 1.3557931
-1.0619119 -1.8093022 1.057276
-1.037348 -1.7681477 0.80262244
-1.0106773 -1.7233675 0.57257551
-0.98947042 -1.6872016 0.36501658
-0.97261149 -1.6591082 0.17125481
-0.94051045 -1.5323317 11.429867
-0.85492462 -1.4076363 7.9413185
-1.2321591 -2.0509419 7.6960402
-1.5497133 -2.5937004 7.1775546
-0.75631881 -1.2699101 2.7759972
-0.7937932 -1.3359687 2.3549929
-1.0364701 -1.7464198 2.5080602
-0.43275353 -0.68853927 7.5415826
-1.0229059 -1.6886958 7.6389322
-1.4099135 -2.3448806 7.4947624
-0.72541744 -1.2117896 2.9840493
-0.78160155 -1.3092155 2.5642459
-1.0103846 -1.6950566 2.6877859
-1.1189035 -1.8800566 2.4500504
-1.2161357 -2.0572836 2.4282978
-1.16122 -1.966719 1.9239902
-1.1105326 -1.8816146 1.5170909
-1.0763522 -1.8251432 1.1956999
-1.048066 -1.7778791 0.92215055
-1.0254704 -1.7402341 0.68366367
-1.0019418 -1.701654 0.46638545
-0.98785907 -1.6777318 0.26773667
-1.1883112 -2.0038142 2.15608
-1.1366801 -1.9182645 1.707122
-1.0927839 -1.8449116 1.3456604
-1.058977 -1.78996 1.0488838
-1.0338986 -1.7482575 0.7960484
-1.0092663 -1.7072763 0.56905854
-0.99031377 -1.6752117 0.36363521
-0.97077209 -1.6427997 0.17065021
-0.94626242 -1.5297 11.434806
-0.87206239 -1.4246156 8.0539093
-1.2408574 -2.0491822 7.705584
-1.5587575 -2.5882752 7.1775546
-0.76074702 -1.2672622 2.7759972
-0.79989773 -1.3356038 2.3591259
-1.0442053 -1.7455416 2.5118976
-1.0268291 -1.6818967 7.6244144
-1.4154067 -2.3355174 7.4806843
-1.6958358 -2.8102944 6.8505921
-0.78616679 -1.3064792 2.5642459
-1.0178472 -1.6941022 2.6917758
-1.1237153 -1.8732324 2.4463751
-1.2141818 -2.037708 2.4107749
-1.1581246 -1.94593 1.9082979
-1.1064042 -1.8597587 1.5033835
-1.0736622 -1.806144 1.1864247
-1.0471607 -1.7622536 0.91653144
-1.0241892 -1.7242711 0.67943364
-1.0003539 -1.6854733 0.46358755
-0.98608422 -1.6614258 0.26639542
-1.1838038 -1.9804249 2.136127
-1.1330056 -1.8969343 1.6924061
-1.0903776 -1.8262807 1.3355277
-1.0582451 -1.7745588 1.0425898
-1.032741 -1.7324694 0.79111785
-1.0077553 -1.6912165 0.56554163
-0.98855048 -1.6589823 0.36156318
-0.97138733 -1.6308166 0.17024715
-0.95159632 -1.5263877 11.434806
-0.88344675 -1.4319608 8.1126518
-1.2495581 -2.0473864 7.7151279
-1.567783 -2.582818 7.1775546
-0.76516598 -1.264599 2.7759972
-0.80600941 -1.3352125 2.3632588
-1.050292 -1.7418861 2.5118976
-1.0340115 -1.6804432 7.6340933
-1.4217514 -2.3276172 7.4712982
-1.6931912 -2.7838986 6.8010788
-0.79072249 -1.303727 2.5642459
-1.0237545 -1.6905389 2.6917758
-1.1302474 -1.8692985 2.4463751
-1.2139423 -2.0212283 2.3967569
-1.1569006 -1.9285245 1.8957441
-1.1042873 -1.8415411 1.4924177
-1.0731297 -1.7909855 1.1794683
-1.0461595 -1.7466565 0.91091239
-1.0228091 -1.7083381 0.6752035
-0.99866551 -1.6693249 0.46078971
-0.98676431 -1.6494265 0.26550126
-1.1810747 -1.96029 2.1194994
-1.1291963 -1.8756536 1.6776904
-1.0878545 -1.8076892 1.3253949
-1.0550802 -1.7552944 1.0341976
-1.0290538 -1.7126632 0.78454381
-1.0061445 -1.6751881 0.56202465
-0.98923582 -1.6470311 0.36018181
-0.96935922 -1.6145662 0.16964257
-0.95650506 -1.5223988 11.429867
-0.89381742 -1.4375145 8.1616039
-1.2574794 -2.0442834 7.7199001
-1.5757695 -2.5756633 7.1729527
-0.76957554 -1.2619205 2.7759972
-0.81212801 -1.3347949 2.3673918
-1.0580308 -1.7409483 2.5157351
-1.0405335 -1.6778915 7.6389322
-1.4271535 -2.3182318 7.4572201
-1.6960716 -2.7668357 6.7740712
-0.79526854 -1.3009591 2.5642459
-1.0312192 -1.689527 2.6957657
-1.1350012 -1.8624469 2.4427001
-1.2117561 -2.001725 2.3792341
-1.1535555 -1.9078207 1.8800519
-1.1020569 -1.823361 1.4814519
-1.0702143 -1.7720611 1.1701932
-1.0450622 -1.7310878 0.90529323
-1.0213304 -1.692436 0.67097336
-0.99687666 -1.6532089 0.45799184
-0.98480117 -1.6331781 0.26416004
-1.1782199 -1.9401987 2.1028721
-1.1273489 -1.8578782 1.6659176
-1.0874509 -1.7928238 1.3177954
-1.0541456 -1.7399557 1.0279033
-1.0276872 -1.6969432 0.77961332
-1.0069516 -1.6633496 0.55968004
-0.98728544 -1.6308593 0.35810977
-0.96981615 -1.6026241 0.16923951
-0.96139765 -1.5183944 11.424928
-0.89720744 -1.4317974 8.1469183
-1.2661809 -2.042419 7.7294445
-1.5847505 -2.5701473 7.1729527
-0.77397573 -1.2592264 2.7759972
-0.81825346 -1.3343508 2.3715248
-1.0641013 -1.7372445 2.5157351
-0.44725767 -0.69003165 7.6260982
-1.0470504 -1.6753153 7.6437721
-1.4315974 -2.3073707 7.4384494
-1.6931328 -2.7405269 6.7245579
-0.79980487 -1.2981751 2.5642459
-1.0386895 -1.6884835 2.6997557
-1.1414955 -1.8584738 2.4427001
-1.2094483 -1.9822614 2.3617113
-1.15008 -1.8871639 1.8643595
-1.0997131 -1.8052193 1.470486
-1.0694834 -1.7569629 1.1632369
-1.041459 -1.7115878 0.8978011
-1.0197533 -1.6765652 0.66674334
-0.99498761 -1.6371256 0.455194
-0.98273677 -1.6169636 0.26281881
-1.1752392 -1.9201511 2.0862446
-1.1232827 -1.8366908 1.651202
-1.0847083 -1.7743053 1.3076627
-1.053117 -1.7246454 1.0216092
-1.0262234 -1.6812538 0.77468276
-1.0051564 -1.6473769 0.55616307
-0.98523414 -1.6147212 0.35603774
-0.96760005 -1.5864335 0.16863491
-0.96627396 -1.5143744 11.419989
-0.9027437 -1.4295177 8.1518135
-1.2748846 -2.0405185 7.7389884
-1.5937123 -2.5645998 7.1729527
-0.77836663 -1.2565171 2.7759972
-0.82438588 -1.3338801 2.3756578
-1.0718428 -1.7362469 2.5195727
-0.44966361 -0.68846625 7.6260982
-1.052892 -1.6716501 7.6437721
-1.431408 -2.2891912 7.396214
-1.6946337 -2.7216644 6.6930499
-0.80433148 -1.2953753 2.5642459
-1.046165 -1.6874086 2.7037458
-1.1461912 -1.8515952 2.4390249
-1.2070198 -1.9628386 2.3441887
-1.1464744 -1.8665549 1.8486671
-1.0994442 -1.7906795 1.4622616
-1.0686601 -1.7418915 1.1562804
-1.0401562 -1.6960863 0.89218199
-1.0180777 -1.6607261 0.6625132
-0.99299836 -1.621076 0.45239612
-0.98057115 -1.6007836 0.26147756
-1.1721331 -1.9001482 2.069617
-1.1212033 -1.8189951 1.6394293
-1.0818497 -1.755828 1.2975299
-1.0519942 -1.7093631 1.0153151
-1.0246629 -1.6655954 0.76975226
-1.0058084 -1.6355774 0.55381846
-0.98308229 -1.5986174 0.3539657
-0.96789914 -1.5745341 0.16823184
-0.97113395 -1.5103388 11.41505
-0.90718132 -1.4254988 8.1469183
-1.2835903 -2.0385821 7.7485318
-1.6026549 -2.5590212 7.1729527
-0.78274792 -1.2537924 2.7759972
-0.82903695 -1.3309944 2.3756578
-1.0795902 -1.7352164 2.5234103
-0.44883797 -0.68199611 7.5714121
-1.0600681 -1.670087 7.653451
-1.4274291 -2.2652016 7.3352084
-1.6786665 -2.6751659 6.5940228
-0.80884826 -1.2925597 2.5642459
-1.0520487 -1.6837465 2.7037458
-1.1526475 -1.8475829 2.4390249
-1.2025915 -1.9404258 2.3231614
-1.1427391 -1.8459942 1.8329749
-1.0990871 -1.7761638 1.4540372
-1.0677447 -1.7268474 1.1493239
-1.0387583 -1.6806148 0.88656294
-1.0163044 -1.6449194 0.65828311
-0.99348986 -1.6092402 0.45053089
-0.98092067 -1.5888762 0.2605834
-1.1689016 -1.8801906 2.0529895
-1.116881 -1.7979033 1.6247134
-1.0788755 -1.7373924 1.2873973
-1.0507778 -1.69411 1.0090209
-1.0254939 -1.6539818 0.76646519
-1.0038296 -1.6196623 0.55030149
-0.98083025 -1.5825487 0.35189366
-0.965496 -1.558405 0.16762725
-0.97597748 -1.5062876 11.41011
-0.91215175 -1.4223236 8.1469183
-1.2922982 -2.0366096 7.7580757
-1.6136633 -2.5567153 7.1821575
-0.78711975 -1.2510525 2.7759972
-0.83517408 -1.3304756 2.3797905
-1.0873433 -1.7341528 2.5272477
-0.45210034 -0.68175751 7.5863261
-1.4353273 -2.2602053 7.3352084
-1.6845037 -2.6637702 6.5805192
-0.81335521 -1.2897285 2.5642459
-1.0595254 -1.6826136 2.7077358
-1.1572852 -1.8406783 2.4353497
-1.1999111 -1.9210927 2.3056388
-1.1388743 -1.8254825 1.8172827
-1.0964295 -1.7581246 1.4430714
-1.0643948 -1.7080716 1.1400487
-1.0372647 -1.6651738 0.88094378
-1.014433 -1.6291455 0.65405303
-0.99131584 -1.5932502 0.44773304
-0.97856826 -1.5727574 0.25924215
-1.1675277 -1.8634429 2.0396876
-1.1145704 -1.7802899 1.6129408
-1.0757858 -1.718999 1.2772646
-1.0494678 -1.6788865 1.0027267
-1.023754 -1.6383783 0.76153469
-1.0017521 -1.6037809 0.54678452
-0.98110139 -1.5707151 0.3505123
-0.96563798 -1.5465499 0.16722418
-0.98122942 -1.5028716 11.41011
-0.91766387 -1.419986 8.1518135
-1.3018121 -2.0358591 7.7723923
-1.611044 -2.5329344 7.1315298
-0.79148191 -1.2482973 2.7759972
-0.83981323 -1.3275522 2.3797905
-1.0933901 -1.7303466 2.5272477
-1.6771947 -2.6018271 11.9557
-1.4432082 -2.2551811 7.3352084
-1.6633719 -2.6101427 6.4634876
-0.8178522 -1.2868816 2.5642459
-1.0670068 -1.6814491 2.711726
-1.1637034 -1.8366274 2.4353497
-1.1952106 -1.898784 2.2846115
-1.1369522 -1.8083156 1.8047289
-1.0958844 -1.7436657 1.4348469
-1.0632827 -1.6930918 1.1330924
-1.0356765 -1.6497641 0.87532473
-1.0124639 -1.6134048 0.64982289
-0.98904234 -1.5772948 0.44493517
-0.97876102 -1.5608938 0.25834802
-1.1640577 -1.8435708 2.0230601
-1.1121505 -1.7627147 1.6011682
-1.0748807 -1.704295 1.269665
-1.0480642 -1.6636926 0.99643254
-1.0219177 -1.6228069 0.75660414
-0.99957609 -1.5879339 0.54326761
-0.97866392 -1.5547082 0.34844026
-0.96304846 -1.5304844 0.1666196
-0.9860422 -1.4987882 11.40517
-0.92428213 -1.4193337 8.1665001
-1.3105278 -2.0338118 7.7819357
-1.6198758 -2.5272954 7.1315298
-0.79583442 -1.2455269 2.7759972
-0.84444213 -1.3246125 2.3797905
-1.1011451 -1.729223 2.5310853
-1.6876361 -2.5980649 11.965378
-1.4492009 -2.2472293 7.3258228
-1.6536506 -2.5750132 6.3914685
-0.82374597 -1.2862151 2.5685117
-1.0744932 -1.6802528 2.7157159
-1.1682829 -1.8296967 2.4316745
-1.1922795 -1.8795433 2.2670887
-1.1349243 -1.7911845 1.7921749
-1.0930145 -1.7256999 1.4238811
-1.0620791 -1.6781405 1.1261359
-1.033993 -1.6343857 0.86970562
-1.0103976 -1.5976977 0.64559281
-0.98929387 -1.5655276 0.44306993
-0.97622269 -1.5448382 0.25700676
-1.1624678 -1.8268958 2.009758
-1.1096215 -1.7451782 1.5893955
-1.0715736 -1.6859801 1.2595323
-1.0441351 -1.6446978 0.98804033
-1.0199854 -1.6072688 0.75167364
-0.99990547 -1.5762262 0.54092294
-0.97877944 -1.5429193 0.34705889
-0.96303397 -1.5186752 0.16621654
-0.99126804 -1.4953371 11.40517
-0.93034834 -1.417801 8.1762905
-1.3200581 -2.0329807 7.7962518
-1.6117274 -2.4953682 7.0578895
-0.80017734 -1.2427412 2.7759972
-0.84906077 -1.3216568 2.3797905
-1.1071746 -1.7253687 2.5310853
-1.6973832 -2.5932095 11.970217
-1.4579767 -2.2436037 7.3305159
-1.6401564 -2.5345011 6.3059449
-0.82823068 -1.2833319 2.5685117
-1.081984 -1.6790248 2.7197061
-1.1746625 -1.8256074 2.4316745
-1.1873078 -1.8573418 2.2460613
-1.1327906 -1.7740896 1.7796211
-1.0900326 -1.7077755 1.4129152
-1.0607842 -1.6632186 1.1191796
-1.0322152 -1.6190394 0.86408657
-1.010812 -1.5860703 0.64277273
-0.98683655 -1.5496345 0.44027206
-0.97625917 -1.5330201 0.25611261
-1.1587604 -1.8071117 1.9931306
-1.106984 -1.7276813 1.5776229
-1.070477 -1.671339 1.2519327
-1.0425323 -1.6295739 0.9817462
-1.0179571 -1.591764 0.74674314
-0.99754727 -1.5604404 0.53740603
-0.97882468 -1.5311488 0.34567752
-0.96025872 -1.5026751 0.16561194
-0.99648166 -1.4918679 11.40517
-0.93697673 -1.4170926 8.1909752
-1.3287812 -2.0308585 7.8057961
-1.5884554 -2.4406064 6.9198136
-0.80451041 -1.2399405 2.7759972
-0.85366899 -1.3186851 2.3797905
-1.1149311 -1.7241851 2.5349226
-1.7161146 -2.6019588 12.03797
-1.4667449 -2.2399445 7.3352084
-1.628778 -2.4977617 6.229425
-0.83270532 -1.2804329 2.5685117
-1.0894796 -1.6777649 2.723696
-1.1791835 -1.8186514 2.4279995
-1.1841272 -1.8381959 2.2285385
-1.1305515 -1.7570318 1.7670673
-1.0892011 -1.69341 1.4046907
-1.0593982 -1.6483262 1.1122231
-1.0328485 -1.6076257 0.86034042
-1.0085655 -1.5704232 0.63854265
-0.98693377 -1.537912 0.43840683
-0.9735356 -1.5170294 0.25477138
-1.1569556 -1.790512 1.9798286
-1.1042377 -1.7102239 1.5658503
-1.0692915 -1.6567267 1.2443333
-1.0408365 -1.6144813 0.97545201
-1.0158331 -1.5762931 0.74181259
-0.99772352 -1.5487765 0.53506136
-0.97611797 -1.5152336 0.34360549
-0.96008843 -1.4909132 0.16520888
-1.0012492 -1.4877359 11.400231
-0.94361162 -1.4163554 8.2056618
-1.3383274 -2.0299463 7.8201122
-1.5969651 -2.4350467 6.9198136
-0.81014442 -1.2391293 2.7803864
-0.85826683 -1.3156971 2.3797905
-1.1226928 -1.7229682 2.5387602
-1.7251868 -2.5959525 12.03797
-1.4745548 -2.2348111 7.3352084
-1.6207497 -2.4665909 6.1664076
-0.83716977 -1.2775184 2.5685117
-1.0969794 -1.676473 2.7276859
-1.181816 -1.8088484 2.4206491
-1.1808275 -1.8190949 2.2110159
-1.1282073 -1.7400113 1.7545135
-1.0860084 -1.6755624 1.3937249
-1.0579212 -1.633464 1.1052668
-1.0308955 -1.5923361 0.85472137
-1.0088285 -1.5588387 0.63572258
-0.98429358 -1.522083 0.43560895
-0.97341657 -1.5052586 0.25387722
-1.1550491 -1.7739468 1.9665265
-1.1035876 -1.696195 1.5570207
-1.0680169 -1.642143 1.2367337
-1.0390483 -1.5994208 0.96915793
-1.0161854 -1.5648168 0.73852557
-0.99783045 -1.5371305 0.53271675
-0.97600836 -1.5035098 0.34222415
-0.95984781 -1.4791709 0.16480581
-1.0064363 -1.4842317 11.400231
-0.94854993 -1.4130528 8.2056618
-1.346231 -2.0265055 7.8248835
-1.5903751 -2.4066391 6.8553782
-0.81446487 -1.2362938 2.7803864
-0.8628543 -1.3126932 2.3797905
-1.1304593 -1.721718 2.5425978
-1.7342378 -2.5899146 12.03797
-1.4823468 -2.2296503 7.3352084
-1.611322 -2.4336917 6.0988894
-0.84162408 -1.2745883 2.5685117
-1.1044834 -1.6751492 2.7316759
-1.1862586 -1.8018804 2.4169738
-1.1774088 -1.8000396 2.1934931
-1.1236292 -1.7197704 1.7388211
-1.0849909 -1.6612587 1.3855006
-1.0563533 -1.6186321 1.0983104
-1.0288483 -1.5770797 0.8491022
-1.0090231 -1.5472715 0.6329025
-0.9842369 -1.5104067 0.43374372
-0.97322726 -1.4935068 0.25298306
-1.153041 -1.757417 1.9532245
-1.1006368 -1.6788114 1.545248
-1.0666537 -1.6275885 1.2291342
-1.0371675 -1.5843922 0.96286368
-1.0138844 -1.5494062 0.73359501
-0.99786842 -1.5255028 0.53037208
-0.97311807 -1.4876611 0.34015211
-0.95953697 -1.4674487 0.16440275
-1.0111727 -1.4800681 11.395292
-0.95176494 -1.4072031 8.1909752
-1.3557879 -2.0255153 7.8391995
-1.5901033 -2.3880641 6.8185577
-0.81877536 -1.2334433 2.7803864
-0.86587721 -1.3073274 2.3756578
-1.138231 -1.7204345 2.5464354
-1.7439706 -2.584887 12.042809
-1.4862788 -2.2187276 7.3164372
-1.6028929 -2.4026997 6.0358725
-0.84606802 -1.2716428 2.5685117
-1.1119915 -1.6737934 2.735666
-1.1869187 -1.7892534 2.4059484
-1.1758347 -1.7840085 2.1794751
-1.1210639 -1.7028339 1.7262673
-1.083887 -1.6469827 1.3772761
-1.054695 -1.6038312 1.0913539
-1.029254 -1.565731 0.84535617
-1.0065147 -1.531713 0.62867242
-0.9814145 -1.4946434 0.43094587
-0.97023445 -1.4776123 0.25164184
-1.1488727 -1.7378083 1.9365971
-1.0998064 -1.6648418 1.5364187
-1.065202 -1.6130636 1.2215346
-1.0376937 -1.5731851 0.95866758
-1.0114883 -1.5340307 0.72866452
-0.99516237 -1.5098351 0.52685511
-0.9728545 -1.4759859 0.33877075
-0.9591561 -1.4557468 0.16399969
-1.0163329 -1.4765295 11.395292
-0.95552427 -1.4021897 8.1811857
-1.3720316 -2.0343828 7.8916917
-1.5929871 -2.3743875 6.7955451
-0.82307589 -1.2305777 2.7803864
-0.87043542 -1.3042969 2.3756578
-1.1460075 -1.7191179 2.5502727
-1.7515695 -2.5767047 12.033131
-1.4833941 -2.1977925 7.2648168
-1.5942671 -2.3717961 5.9728551
-0.85050178 -1.2686818 2.5685117
-1.1195036 -1.6724056 2.739656
-1.1893893 -1.7794626 2.3985982
-1.1721897 -1.7650393 2.1619523
-1.1162426 -1.6826929 1.7105752
-1.0826967 -1.6327348 1.3690518
-1.0529462 -1.589062 1.0843976
-1.0270329 -1.550534 0.83973712
-1.0065584 -1.5201908 0.62585235
-0.98120469 -1.4830151 0.42908064
-0.96989053 -1.4659101 0.25074768
-1.1466517 -1.7213578 1.9232951
-1.096652 -1.6475335 1.5246459
-1.0636619 -1.5985689 1.2139351
-1.0356421 -1.5582138 0.95237339
-1.0116105 -1.5226243 0.7253775
-0.9950484 -1.4982542 0.5245105
-0.97252136 -1.4643308 0.33738938
-0.95870513 -1.4440655 0.16359663
-1.0210378 -1.4723344 11.390353
-0.95926011 -1.3971671 8.1713953
-1.4051346 -2.0678535 8.0396233
-1.6012655 -2.3688126 6.7955451
-0.82736641 -1.2276971 2.7803864
-0.87498295 -1.3012506 2.3756578
-1.1520014 -1.7151071 2.5502727
-1.7655256 -2.5778341 12.067006
-1.4832932 -2.1811857 7.2272749
-1.5854454 -2.3409829 5.9098387
-0.8549251 -1.2657052 2.5685117
-1.1270196 -1.6709858 2.7436461
-1.1899121 -1.7668642 2.3875725
-1.1684269 -1.7461176 2.1444294
-1.1134574 -1.6658422 1.6980213
-1.0814201 -1.6185151 1.3608273
-1.0511073 -1.5743244 1.0774411
-1.0247183 -1.5353715 0.83411795
-1.0038718 -1.5046966 0.62162226
-0.97820103 -1.4673194 0.42628276
-0.96947688 -1.4542284 0.24985351
-1.1443299 -1.704944 1.9099932
-1.095642 -1.6336249 1.5158166
-1.0620338 -1.5841047 1.2063355
-1.0360241 -1.5470473 0.94817728
-1.0116655 -1.5112356 0.72209048
-0.99216253 -1.482653 0.52099353
-0.97211874 -1.452696 0.33600801
-0.95540673 -1.4282525 0.16299205
-1.025726 -1.4681244 11.385413
-0.96239322 -1.3912982 8.1567087
-1.442704 -2.1072755 8.2114143
-1.6095244 -2.3632085 6.7955451
-0.83030128 -1.2228203 2.7759972
-0.87951982 -1.2981883 2.3756578
-1.1597778 -1.7137299 2.5541103
-1.7795109 -2.5788972 12.100882
-1.4821187 -2.163183 7.18504
-1.575201 -2.3084621 5.84232
-0.8593381 -1.2627132 2.5685117
-1.1345392 -1.6695337 2.7476361
-1.1903616 -1.7542843 2.3765471
-1.1645463 -1.7272439 2.1269066
-1.1105683 -1.6490318 1.6854674
-1.0800575 -1.6043247 1.3526028
-1.0491785 -1.5596193 1.0704848
-1.0248976 -1.5240914 0.83037192
-1.0037656 -1.4932209 0.61880219
-0.97783881 -1.4557405 0.42441753
-0.96899348 -1.4425676 0.24895935
-1.1398157 -1.6854746 1.8933655
-1.0922849 -1.6163945 1.5040439
-1.0603178 -1.5696716 1.1987361
-1.0338024 -1.532135 0.94188321
-1.0090126 -1.4959506 0.71715993
-0.99189728 -1.4711205 0.51864892
-0.97164679 -1.4410819 0.33462667
-0.95480198 -1.4166232 0.16258898
-1.0303971 -1.4638997 11.380475
-0.96724391 -1.3879302 8.1567087
-1.4441174 -2.0936258 8.1780109
-1.6166583 -2.3559651 6.7909427
-0.83456469 -1.2199146 2.7759972
-0.88563251 -1.2974344 2.3797905
-1.1675584 -1.7123193 2.5579479
-1.7920896 -2.5778301 12.125078
-1.4837781 -2.1494756 7.1568832
-1.567216 -2.2796292 5.7838044
-0.8637405 -1.2597059 2.5685117
-1.1403601 -1.6655633 2.7476361
-1.1907377 -1.7417225 2.3655217
-1.1625524 -1.7113688 2.1128886
-1.1097611 -1.6354829 1.6760521
-1.0786092 -1.5901635 1.3443786
-1.0471598 -1.5449469 1.0635283
-1.0224102 -1.5089906 0.82475281
-1.0009013 -1.4777926 0.61457211
-0.97740775 -1.444182 0.42255229
-0.96844053 -1.4309279 0.24806519
-1.1372824 -1.6691434 1.8800635
-1.0910959 -1.6025485 1.4952143
-1.0585139 -1.5552696 1.1911365
-1.0314891 -1.5172572 0.93558902
-1.0089198 -1.4846081 0.71387291
-0.99156368 -1.459608 0.51630425
-0.96832281 -1.4253926 0.33255461
-0.95412767 -1.4050157 0.16218592
-1.0350513 -1.4596604 11.375536
-0.96740133 -1.3778795 8.117547
-1.4505649 -2.0873463 8.1732388
-1.6248723 -2.3503077 6.7909427
-0.83881789 -1.2169939 2.7759972
-0.88856137 -1.2920166 2.3756578
-1.1753435 -1.710875 2.5617852
-1.4833893 -2.1329496 7.1193409
-1.5528512 -2.2419331 5.7027826
-0.86813241 -1.2566832 2.5685117
-1.1478781 -1.664053 2.7516263
-1.1891178 -1.7263879 2.350821
-1.1604619 -1.6955285 2.0988705
-1.1066761 -1.6187468 1.6634983
-1.0770752 -1.576032 1.3361541
-1.0450517 -1.530308 1.056572
-1.0224437 -1.4977552 0.82100672
-1.0006459 -1.4663651 0.61175203
-0.97690791 -1.4326445 0.42068705
-0.96501261 -1.4151955 0.24672395
-1.134649 -1.6528506 1.8667616
-1.0898237 -1.5887308 1.486385
-1.0566225 -1.5408996 1.1835369
-1.0290848 -1.5024143 0.92929488
-1.0060924 -1.4693884 0.70894241
-0.98841643 -1.4441047 0.51278734
-0.96769845 -1.413831 0.33117324
-0.95056301 -1.3893071 0.16158132
-1.0392367 -1.454774 11.365657
-0.9739694 -1.3769878 8.1322336
-1.4604107 -2.0859385 8.1875544
-1.6330667 -2.3446214 6.7909427
-0.84306091 -1.2140585 2.7759972
-0.89306593 -1.2889071 2.3756578
-1.1831325 -1.7093973 2.5656228
-1.4888452 -2.1249321 7.1099558
-1.5482092 -2.218647 5.6577702
-0.87251383 -1.2536452 2.5685117
-1.1553994 -1.6625102 2.7556162
-1.1874053 -1.7110858 2.3361204
-1.1562505 -1.6767883 2.0813477
-1.1056958 -1.6052574 1.6540829
-1.0754559 -1.561931 1.3279297
-1.0428541 -1.5157024 1.0496155
-1.0197841 -1.482718 0.81538767
-1.0003228 -1.4549575 0.60893196
-0.97633964 -1.421128 0.41882181
-0.96712679 -1.4077137 0.24627687
-1.1319158 -1.6365968 1.8534596
-1.0884683 -1.5749415 1.4775554
-1.057094 -1.5301086 1.1784705
-1.0265895 -1.4876069 0.92300069
-1.0058523 -1.4580934 0.7056554
-0.98793244 -1.4326428 0.51044267
-0.96700507 -1.4022911 0.3297919
-0.94973582 -1.3777539 0.16117826
-1.0434004 -1.4498764 11.355778
-0.98172498 -1.3777254 8.1567087
-1.4676832 -2.080828 8.1875544
-1.6401187 -2.3373077 6.7863402
-0.84866667 -1.2130706 2.7803864
-0.89433795 -1.281167 2.3673918
-1.1890924 -1.7052571 2.5656228
-1.4952582 -2.1183121 7.1052628
-1.5434235 -2.1954207 5.6127582
-0.87838191 -1.2527273 2.5727777
-1.1629241 -1.6609354 2.7596061
-1.1856005 -1.6958169 2.3214197
-1.1539572 -1.6610266 2.0673294
-1.1024158 -1.5885971 1.6415291
-1.071368 -1.5444249 1.3169639
-1.0430912 -1.5047717 1.0449779
-1.0196726 -1.4715283 0.81164157
-0.99720079 -1.4396266 0.60470188
-0.97570282 -1.4096332 0.41695657
-0.96636611 -1.3961396 0.24538271
-1.129083 -1.6203821 1.8401576
-1.0870303 -1.5611814 1.468726
-1.0550406 -1.5157951 1.170871
-1.0265942 -1.4765617 0.91880459
-1.005546 -1.4468182 0.70236832
-0.98738074 -1.4212021 0.50809807
-0.96624315 -1.3907732 0.32841054
-0.94883972 -1.3662235 0.1607752
-1.0479989 -1.4455965 11.350839
-0.9889037 -1.3775985 8.1762905
-1.4809905 -2.0842094 8.2209578
-1.6482674 -2.3315682 6.7863402
-0.85289592 -1.2101009 2.7803864
-0.89718562 -1.2757357 2.3632588
-1.2116207 -1.7247002 2.6001604
-1.5026435 -2.1130798 7.1052628
-1.5384949 -2.1722553 5.5677462
-0.88274938 -1.2496535 2.5727777
-1.1704516 -1.6593281 2.7635963
-1.1817514 -1.6778098 2.3030438
-1.1515682 -1.6453019 2.0533113
-1.1012634 -1.5751694 1.6321138
-1.0695662 -1.5303936 1.3087394
-1.0407282 -1.490226 1.0380214
-1.0168418 -1.4565563 0.80602247
-0.99672943 -1.4282694 0.6018818
-0.97499788 -1.3981602 0.41509131
-0.96553659 -1.3845882 0.24448855
-1.1261511 -1.6042074 1.8268557
-1.0831881 -1.5441414 1.4569534
-1.0529002 -1.5015147 1.1632714
-1.0239307 -1.4618175 0.91251045
-1.0051731 -1.435563 0.6990813
-0.98676109 -1.4097826 0.50575346
-0.96541256 -1.3792779 0.32702917
-0.94787467 -1.3547162 0.16037214
-1.0530387 -1.4419295 11.350839
-0.99430323 -1.3749633 8.1811857
-1.4934704 -2.0863094 8.2495909
-1.6529957 -2.3210266 6.7725325
-0.85711473 -1.2071162 2.7803864
-0.89837962 -1.2680041 2.3549929
-1.1991165 -1.6942978 2.5617852
-2.1861453 -3.0303538 14.423805
-1.5090052 -2.1064191 7.1005697
-1.5321591 -2.1473792 5.5182328
-0.88710618 -1.2465645 2.5727777
-1.1797277 -1.6601448 2.7715764
-1.1777914 -1.6598508 2.2846682
-1.1490836 -1.6296141 2.0392931
-1.1000308 -1.5617692 1.6226983
-1.0676799 -1.516394 1.3005152
-1.0408255 -1.4793383 1.033384
-1.0165858 -1.4454142 0.80227643
-0.99619079 -1.4169329 0.59906173
-0.97422463 -1.3867095 0.41322607
-0.96463823 -1.3730599 0.24359439
-1.125276 -1.5911213 1.816879
-1.081573 -1.5304483 1.4481238
-1.050673 -1.4872679 1.155672
-1.0237935 -1.4508179 0.90831435
-1.002012 -1.4204695 0.69415081
-0.98607391 -1.3983849 0.50340879
-0.9645136 -1.3678055 0.3256478
-0.94971937 -1.3473158 0.16017061
-1.0589865 -1.4394965 11.360718
-0.99849689 -1.3706611 8.1762905
-1.5068562 -2.0895581 8.2829943
-1.6599487 -2.3136551 6.7679305
-0.86132318 -1.2041171 2.7803864
-0.89953035 -1.2602797 2.3467271
-1.186415 -1.6640043 2.5234103
-2.1568036 -2.9677985 14.162477
-1.5163488 -2.1011388 7.1005697
-1.5256684 -2.1225736 5.4687195
-0.89145201 -1.2434604 2.5727777
-1.1872696 -1.6584668 2.7755663
-1.1737204 -1.6419398 2.2662921
-1.1465037 -1.613964 2.025275
-1.0964656 -1.5452228 1.6101445
-1.0657089 -1.5024264 1.2922907
-1.0382981 -1.4648542 1.0264276
-1.0162648 -1.4342915 0.79853034
-0.99558538 -1.4056178 0.59624165
-0.97338349 -1.3752811 0.41136083
-0.96367133 -1.3615546 0.24270025
-1.1221566 -1.5750203 1.8035771
-1.0798755 -1.5167854 1.4392942
-1.0483593 -1.4730548 1.1480724
-1.0209624 -1.4361384 0.90202022
-1.0014935 -1.4092649 0.69086379
-0.98531926 -1.3870094 0.50106418
-0.96354645 -1.3563564 0.32426646
-0.94863129 -1.3358458 0.15976755
-1.0640049 -1.4357911 11.360718
-1.0020703 -1.3655257 8.1665001
-1.5185277 -2.0903237 8.3068542
-1.6600035 -2.2967632 6.7357125
-0.86552101 -1.2011031 2.7803864
-0.90885288 -1.263986 2.3591259
-1.1622972 -1.6182009 2.4620101
-2.1203694 -2.8963573 13.857593
-1.5226593 -2.0944374 7.0958776
-1.5190234 -2.0978401 5.4192061
-0.89578712 -1.2403411 2.5727777
-1.1948141 -1.656756 2.7795563
-1.1695386 -1.6240776 2.2479162
-1.1459041 -1.6012518 2.0147614
-1.0950619 -1.5318866 1.6007291
-1.0636533 -1.4884909 1.2840662
-1.0382565 -1.454011 1.02179
-1.0158782 -1.4231889 0.79478431
-0.99491316 -1.3943243 0.59342158
-0.9724744 -1.3638757 0.40949559
-0.96263576 -1.350073 0.24180609
-1.1189388 -1.5589606 1.7902751
-1.0780962 -1.5031533 1.4304649
-1.0459592 -1.4588764 1.1404729
-1.020684 -1.4251862 0.89782411
-1.0009087 -1.3980812 0.68757677
-0.98449713 -1.375656 0.49871951
-0.96251112 -1.3449305 0.3228851
-0.9503817 -1.3284631 0.15956602
-1.0699401 -1.4333135 11.370596
-1.0068308 -1.3620195 8.1665001
-1.5363942 -2.0994649 8.3641176
-1.6530608 -2.2704234 6.6758795
-0.86970842 -1.1980746 2.7803864
-0.91491026 -1.2630847 2.3632588
-1.1679388 -1.6141338 2.4620101
-2.0857017 -2.8282428 13.567228
-1.5289412 -2.0877173 7.0911846
-1.5109416 -2.0714202 5.3651915
-0.90011126 -1.2372066 2.5727777
-1.2005899 -1.6525754 2.7795563
-1.1652468 -1.6062649 2.2295406
-1.1431441 -1.5856708 2.0007432
-1.0935787 -1.5185794 1.5913138
-1.0615137 -1.4745885 1.275842
-1.035565 -1.4395899 1.0148336
-1.0127203 -1.4083427 0.78916514
-0.9941743 -1.3830526 0.59060156
-0.96863186 -1.3485038 0.40669775
-0.96153188 -1.3386152 0.24091193
-1.1178104 -1.5459682 1.7802985
-1.0762348 -1.4895521 1.4216353
-1.0459971 -1.4482273 1.1354066
-1.0203415 -1.4142535 0.893628
-0.99749613 -1.3830889 0.68264627
-0.98360795 -1.3643255 0.49637488
-0.9614079 -1.3335286 0.32150373
-0.94917113 -1.3170315 0.15916295
-1.0749367 -1.42957 11.370596
-1.0146201 -1.3625796 8.1909752
-1.5437133 -2.0940893 8.3641176
-1.6505766 -2.2504616 6.6344571
-0.87529898 -1.1969645 2.7847755
-0.92097247 -1.2621565 2.3673918
-1.1773422 -1.6152273 2.4696853
-2.0595798 -2.7725136 13.334935
-1.5351946 -2.0809789 7.0864916
-1.5039829 -2.0468369 5.3156781
-0.90288258 -1.2319535 2.5685117
-1.2099104 -1.6532376 2.7875364
-1.1628453 -1.5912391 2.2148399
-1.1402893 -1.5701287 1.986725
-1.0920159 -1.5053012 1.5818983
-1.0592899 -1.4607191 1.2676175
-1.035385 -1.4287922 1.010196
-1.0121907 -1.3972903 0.78541911
-0.99336886 -1.3718032 0.58778149
-0.96757376 -1.3371553 0.40483251
-0.96035987 -1.3271817 0.24001777
-1.1144066 -1.5299848 1.7669965
-1.0742916 -1.4759823 1.4128059
-1.0434372 -1.4341099 1.127807
-1.0172671 -1.3996694 0.88733381
-0.99676657 -1.3719579 0.67935926
-0.97979534 -1.3490853 0.49285793
-0.96023673 -1.3221509 0.32012239
-0.94789237 -1.3056246 0.15875989
-1.0794512 -1.4251897 11.365657
-1.0285363 -1.3712467 8.2644043
-1.5474538 -2.0838943 8.3450298
-1.6433293 -2.2242596 6.5746241
-0.87947184 -1.1939019 2.7847755
-0.93870652 -1.2770725 2.4004555
-1.179179 -1.6059408 2.4620101
-1.1504273 -1.5375447 7.4308376
-1.54142 -2.0742223 7.081799
-1.4968714 -2.0223274 5.2661648
-0.90717745 -1.2287945 2.5685117
-1.2103096 -1.6417283 2.7755663
-1.1583432 -1.5735197 2.1964641
-1.1373401 -1.554626 1.9727067
-1.0903739 -1.4920524 1.5724831
-1.0569826 -1.4468836 1.2593931
-1.0325304 -1.4144359 1.0032395
-1.0115964 -1.386259 0.78167301
-0.98967004 -1.3567009 0.58355141
-0.96644825 -1.3258305 0.40296727
-0.9591198 -1.3157727 0.23912361
-1.1131138 -1.5170547 1.7570201
-1.0722671 -1.4624444 1.4039763
-1.0433401 -1.4235052 1.1227406
-1.0167844 -1.3887861 0.88313776
-0.99318278 -1.3570385 0.6744287
-0.97875851 -1.3378114 0.49051329
-0.956074 -1.3068012 0.31805035
-0.9465456 -1.2942427 0.15835683
-1.0839479 -1.4207954 11.360718
-1.036386 -1.3717096 8.2888803
-1.5547185 -2.07848 8.3450298
-1.6370859 -2.1997035 6.5193939
-0.88363397 -1.1908247 2.7847755
-1.1866837 -1.6043917 2.4658477
-1.1580572 -1.5365309 7.4453554
-1.5476168 -2.0674479 7.0771065
-1.4909084 -1.9996382 5.2211523
-0.90990478 -1.2235276 2.5642459
-1.2142364 -1.6350743 2.7715764
-1.1557512 -1.5585746 2.1817634
-1.1342968 -1.5391632 1.9586885
-1.0863451 -1.4756993 1.5599293
-1.0570699 -1.4364496 1.2539102
-1.0322127 -1.4036856 0.99860191
-1.0109377 -1.3752489 0.77792698
-0.98871851 -1.3455068 0.58073127
-0.96525544 -1.3145301 0.40110204
-0.96075934 -1.3084028 0.23867653
-1.1117444 -1.5041522 1.7470435
-1.0701612 -1.4489387 1.395147
-1.040621 -1.4094507 1.115141
-1.0162382 -1.3779233 0.87894166
-0.99230921 -1.3459617 0.67114168
-0.97765505 -1.3265612 0.48816866
-0.95475388 -1.2954831 0.31666899
-0.945131 -1.2828863 0.15795377
-1.0879538 -1.415771 11.350839
-1.0559696 -1.3875277 8.4063654
-1.5709476 -2.0849617 8.3927498
-1.6306913 -2.1752179 6.4641638
-0.8892194 -1.1896514 2.7891645
-1.2117546 -1.6246219 3.0493283
-1.1846166 -1.5899588 2.4504976
-1.159613 -1.5274736 7.4211583
-1.5548241 -2.0620332 7.0771065
-1.4848057 -1.9770153 5.1761408
-0.91260636 -1.2182567 2.5599799
-1.2109115 -1.6187619 2.7516263
-1.153069 -1.5436666 2.1670628
-1.1311593 -1.5237406 1.9446703
-1.084534 -1.4625189 1.5505139
-1.054607 -1.4226736 1.2456857
-1.0291958 -1.3893954 0.99164557
-1.0102143 -1.3642604 0.77418089
-0.98770106 -1.334336 0.5779112
-0.9639957 -1.3032541 0.3992368
-0.95939767 -1.2970337 0.23778237
-1.1102988 -1.4912781 1.7370671
-1.0703868 -1.4387085 1.3892606
-1.0403894 -1.3988917 1.1100746
-1.0156287 -1.3670814 0.87474555
-0.9913705 -1.3349075 0.66785467
-0.97648495 -1.315335 0.48582402
-0.95631832 -1.2881664 0.31597832
-0.94364882 -1.2715557 0.15755071
-1.0919377 -1.4107358 11.34096
-1.0738176 -1.4008017 8.5091658
-1.5782158 -2.0794652 8.3927498
-1.6265006 -2.1539223 6.4181385
-0.89336663 -1.1865401 2.7891645
-1.2681298 -1.6878746 3.1733167
-1.180539 -1.5729964 2.4313099
-1.1672287 -1.5264118 7.4356771
-1.5609688 -2.0552189 7.0724134
-1.4785631 -1.9544597 5.1311283
-0.91528237 -1.2129819 2.5557141
-1.2020471 -1.5952731 2.7197061
-1.1523353 -1.5315053 2.1560371
-1.1300641 -1.5112151 1.9341568
-1.0826445 -1.4493694 1.5410986
-1.0520612 -1.4089326 1.2374614
-1.0287409 -1.3786936 0.98700798
-1.0094266 -1.3532938 0.77043486
-0.98661774 -1.3231889 0.57509118
-0.96560407 -1.2959422 0.39830416
-0.95796835 -1.2856901 0.23688821
-1.1065364 -1.475445 1.7237651
-1.06813 -1.4252601 1.3804312
-1.0375121 -1.3849016 1.1024752
-1.0122365 -1.3526267 0.86845136
-0.99036688 -1.3238766 0.66456765
-0.97815943 -1.308026 0.48465171
-0.95487756 -1.2768887 0.31459692
-0.94209903 -1.260251 0.15714765
-1.0958998 -1.4056903 11.331082
-1.0849243 -1.4051031 8.5581179
-1.5664258 -2.0490413 8.2925386
-1.6186328 -2.1280177 6.3583055
-0.89895034 -1.1853226 2.7935538
-1.2655226 -1.6722183 3.152652
-1.1782906 -1.5586388 2.4159601
-1.1771524 -1.5283026 7.4647131
-1.5670848 -2.0483871 7.0677209
-1.4735008 -1.9337033 5.0906172
-0.91951084 -1.2097796 2.5557141
-1.1948557 -1.5742664 2.6917758
-1.1494831 -1.5166665 2.1413364
-1.1267494 -1.4958671 1.9201386
-1.0806762 -1.4362509 1.5316831
-1.0494323 -1.3952266 1.229237
-1.0255625 -1.3644711 0.98005158
-1.0057899 -1.3386431 0.76481575
-0.98546869 -1.3120655 0.57227111
-0.96422434 -1.2847062 0.39643893
-0.95647162 -1.2743725 0.23599406
-1.1049278 -1.462636 1.7137885
-1.0657924 -1.411845 1.3716016
-1.0371466 -1.3743896 1.0974088
-1.011488 -1.3418369 0.86425525
-0.99214005 -1.3166401 0.66292417
-0.97687024 -1.2968388 0.48230708
-0.95634931 -1.2695924 0.31390625
-0.94348717 -1.2529639 0.15694611
-1.0979201 -1.3981901 11.301446
-1.0910729 -1.4029149 8.5679083
-1.5480672 -2.0104465 8.1589222
-1.6224865 -2.1177025 6.3444982
-0.90308243 -1.1821775 2.7935538
-1.2542917 -1.6454117 3.1113224
-1.1604215 -1.5239161 2.36991
-1.1855624 -1.5281565 7.4840708
-1.5605314 -2.0251353 7.0067148
-1.468312 -1.9130065 5.0501065
-0.9205572 -1.2024212 2.5471821
-1.1911927 -1.5581172 2.6718256
-1.1465415 -1.5018663 2.126636
-1.1254971 -1.4834019 1.9096249
-1.0809808 -1.4262658 1.5254062
-1.0492458 -1.3848892 1.223754
-1.0249712 -1.3538195 0.97541398
-1.0048611 -1.327731 0.76106972
-0.984254 -1.3009665 0.56945103
-0.9657405 -1.2774141 0.39550632
-0.95490766 -1.2630811 0.2350999
-1.1009824 -1.446885 1.7004865
-1.0633745 -1.3984638 1.3627722
-1.0341115 -1.3604653 1.0898093
-1.0079318 -1.3274541 0.85796106
-0.9910199 -1.3056462 0.65963709
-0.97551513 -1.2856767 0.47996244
-0.95478857 -1.2583563 0.31252488
-0.94181681 -1.241702 0.15654305
-1.1080971 -1.4010521 11.355778
-1.1009873 -1.4055096 8.60707
-1.5422672 -1.9885182 8.0921154
-1.6024151 -2.0764539 6.2386398
-0.9072035 -1.179018 2.7935538
-1.2480308 -1.6254002 3.082392
-1.1501276 -1.4995104 2.33921
-1.1963075 -1.5309414 7.5179467
-1.5665325 -2.0183122 7.0020218
-1.4643282 -1.8940918 5.0140967
-0.93111968 -1.2074611 2.5642459
-1.1855931 -1.5396253 2.6478853
-1.1455772 -1.4897928 2.1156106
-1.1241717 -1.4709637 1.8991114
-1.0788671 -1.4132025 1.5159907
-1.046463 -1.3712462 1.2155296
-1.0243181 -1.3431885 0.97077638
-1.0038685 -1.3168417 0.75732362
-0.98297405 -1.2898921 0.56663096
-0.9642415 -1.2662191 0.39364108
-0.95327657 -1.2518162 0.23420574
-1.0992121 -1.4341428 1.69051
-1.060876 -1.3851167 1.3539426
-1.0336128 -1.3500019 1.0847429
-1.0070449 -1.3167176 0.85376495
-0.98983514 -1.2946762 0.65635008
-0.97409391 -1.2745398 0.47761783
-0.95616817 -1.2510812 0.31183422
-0.94007933 -1.230467 0.15613998
-1.1105598 -1.3941371 11.331082
-1.1084099 -1.4048551 8.6266508
-1.5317379 -1.9607733 8.0014477
-1.5928671 -2.0492537 6.1742048
-0.91131347 -1.1758441 2.7935538
-1.2450887 -1.6099042 3.0617273
-1.1318392 -1.4650497 2.29316
-1.2031994 -1.5287316 7.527626
-1.5576248 -1.9924397 6.9316306
-1.4602305 -1.8752284 4.9780869
-0.93692881 -1.2062633 2.5685117
-1.1928071 -1.5378585 2.6518755
-1.1424665 -1.475064 2.1009099
-1.1205975 -1.4557271 1.885093
-1.0766753 -1.4001715 1.5065755
-1.0461465 -1.3609548 1.2100466
-1.0236034 -1.3325789 0.96613878
-1.002812 -1.3059757 0.75357759
-0.98162866 -1.2788424 0.56381088
-0.96267611 -1.2550502 0.39177582
-0.95157862 -1.2405782 0.23331158
-1.0950844 -1.4184754 1.6772081
-1.0582976 -1.3718044 1.3451133
-1.0304211 -1.3361449 1.0771434
-1.0060954 -1.3060038 0.8495689
-0.98858601 -1.2837305 0.65306306
-0.97260684 -1.2634288 0.47527319
-0.9544878 -1.2398881 0.31045285
-0.93827498 -1.2192594 0.15573692
-1.1202762 -1.4097452 8.6804981
-1.5247265 -1.9378188 7.9298677
-1.5795358 -2.0175309 6.0959616
-0.91393852 -1.170768 2.7891645
-1.2403243 -1.5922288 3.0369296
-1.1349777 -1.4585603 2.2893224
-1.2046235 -1.5195975 7.5034285
-1.5560291 -1.9761444 6.8940883
-1.4573625 -1.8581296 4.9465785
-0.93791944 -1.1988773 2.5599799
-1.1777613 -1.5075661 2.6079853
-1.1413525 -1.4630482 2.0898843
-1.1191163 -1.4433519 1.8745794
-1.0744058 -1.3871731 1.4971601
-1.043211 -1.3473761 1.2018223
-1.0228273 -1.3219906 0.96150118
-0.99885595 -1.2914662 0.74795848
-0.98021829 -1.2678181 0.56099087
-0.96404791 -1.247795 0.39084318
-0.9498139 -1.2293674 0.23241742
-1.093153 -1.4058019 1.6672316
-1.0556391 -1.3585268 1.3362837
-1.0297899 -1.3257313 1.072077
-1.0078658 -1.2988983 0.84747082
-0.98727244 -1.2728094 0.64977604
-0.97105426 -1.2523438 0.47292855
-0.95577556 -1.2326354 0.30976218
-0.93946463 -1.2120281 0.1555354
-1.1200995 -1.3994673 8.6413364
-1.5157193 -1.9125979 7.8487439
-1.5708418 -1.9920627 6.036129
-0.91801977 -1.1675706 2.7891645
-1.2354518 -1.5746064 3.0121319
-1.1420394 -1.4571124 2.29316
-1.2091361 -1.5144011 7.498589
-1.5457597 -1.9490683 6.8190041
-1.4543931 -1.841074 4.9150701
-1.1532018 -1.4655579 2.5441449
-1.1380742 -1.4483927 2.0751836
-1.1153673 -1.4281942 1.8605614
-1.0720588 -1.3742077 1.4877448
-1.0427649 -1.337132 1.1963394
-1.0219896 -1.3114241 0.95686358
-0.99765974 -1.2806573 0.74421245
-0.97874302 -1.2568192 0.5581708
-0.9623639 -1.2366688 0.38897794
-0.94798249 -1.2181841 0.23152326
-1.0911465 -1.3931592 1.6572551
-1.0553923 -1.3484677 1.3303974
-1.0290986 -1.3153384 1.0670106
-1.006804 -1.2882204 0.84327471
-0.98589498 -1.2619132 0.64648902
-0.96943617 -1.2412851 0.47058392
-0.95397621 -1.221486 0.30838081
-0.93754077 -1.2008656 0.15513234
-1.1230605 -1.3931711 8.6266508
-1.5065546 -1.8874633 7.7676201
-1.5619893 -1.9666799 5.9762959
-0.92060268 -1.1624814 2.7847755
-1.2234924 -1.5482067 2.9708023
-1.1451327 -1.4506012 2.2893224
-1.2136275 -1.5091919 7.4937501
-1.5514767 -1.9423126 6.8143115
-1.4513223 -1.8240618 4.8835616
-1.247846 -1.5722541 3.3534436
-1.1171337 -1.4095715 2.4563644
-1.1368111 -1.4364363 2.0641582
-1.113731 -1.4158832 1.8500476
-1.0696346 -1.3612757 1.4783293
-1.0422601 -1.3269073 1.1908565
-1.0183556 -1.2973951 0.94990712
-0.9964003 -1.2698725 0.7404663
-0.98016357 -1.2496207 0.55676073
-0.96061409 -1.2255697 0.38711271
-0.94608468 -1.2070287 0.2306291
-1.0890652 -1.3805478 1.6472787
-1.0525858 -1.3352529 1.321568
-1.0256791 -1.3015808 1.0594112
-1.0056801 -1.2775658 0.83907861
-0.98445344 -1.2510421 0.64320201
-0.9677527 -1.2302529 0.46823925
-0.95211077 -1.2103642 0.30699944
-0.93555057 -1.1897312 0.15472928
-1.1240654 -1.3844998 8.5972795
-1.4981685 -1.8635799 7.6912684
-1.5480973 -1.9352813 5.8980532
-0.92316139 -1.1573887 2.7803864
-1.2166213 -1.5285147 2.9418716
-1.1481943 -1.4440863 2.285485
-1.2180969 -1.5039696 7.4889107
-1.5506747 -1.9274734 6.7814622
-1.4467895 -1.8053949 4.8475518
-1.2028426 -1.504739 3.2211998
-1.0994883 -1.3774041 2.408484
-1.1333655 -1.4218554 2.0494576
-1.109808 -1.400806 1.8360294
-1.0671329 -1.3483776 1.468914
-1.0416967 -1.3167026 1.1853735
-1.0173835 -1.2868825 0.94526953
-0.99507785 -1.2591125 0.73672026
-0.97857207 -1.2386634 0.55394071
-0.95879865 -1.2144979 0.38524747
-0.94720644 -1.1998103 0.23018204
-1.0869092 -1.3679677 1.637302
-1.0522134 -1.3252395 1.3156817
-1.0248562 -1.2912395 1.0543448
-1.0016743 -1.2633787 0.83278447
-0.98294801 -1.2401967 0.63991499
-0.96902281 -1.2230576 0.46706694
-0.95325464 -1.2031519 0.30630878
-0.9365961 -1.1825421 0.15452774
-1.1192218 -1.3687453 8.5238514
-1.4896342 -1.8397781 7.6149163
-1.5462629 -1.9192169 5.8658357
-0.92569566 -1.1522921 2.7759972
-1.1973064 -1.4935212 2.8840106
-1.1492209 -1.4350661 2.2778101
-1.2249284 -1.5016563 7.498589
-1.5476152 -1.9099824 6.7392273
-1.4421439 -1.786782 4.811542
-1.0419817 -1.2960625 2.2768133
-1.1319546 -1.4099602 2.0384321
-1.1080177 -1.3885611 1.8255159
-1.0669808 -1.3385571 1.4626372
-1.0384688 -1.3032478 1.1771491
-1.0163504 -1.2763926 0.94063193
-0.99369258 -1.2483772 0.73297417
-0.97691602 -1.2277328 0.55112064
-0.95691758 -1.2034539 0.38338223
-0.94518995 -1.1887008 0.22928788
-1.0846786 -1.35542 1.6273257
-1.0492594 -1.3120883 1.3068521
-1.0239737 -1.2809201 1.0492785
-1.000414 -1.2527815 0.82858837
-0.98137897 -1.229377 0.63662797
-0.96722263 -1.2120692 0.46472231
-0.951271 -1.1920757 0.30492741
-0.93448722 -1.1714545 0.15412468
-1.4790653 -1.8137455 7.5290208
-1.5418732 -1.9001547 5.8244128
-0.9297123 -1.1490538 2.7759972
-1.1989768 -1.484954 2.8757446
-1.1501986 -1.4260561 2.2701349
-1.2269707 -1.4934868 7.4792314
-1.5542728 -1.9045686 6.7392273
-1.4387596 -1.7699131 4.7800336
-0.97512686 -1.2025825 2.6026392
-1.0351217 -1.2783669 2.2528732
-1.1283426 -1.3954557 2.0237315
-1.1061555 -1.3763459 1.8150022
-1.0643362 -1.325719 1.4532217
-1.0377772 -1.293093 1.1716661
-1.0152568 -1.2659258 0.93599433
-0.99514437 -1.241284 0.73110116
-0.97519577 -1.2168286 0.54830056
-0.95804197 -1.1962723 0.38244963
-0.94310749 -1.1776202 0.22839372
-1.0823739 -1.3429044 1.617349
-1.0487622 -1.302122 1.3009658
-1.0230317 -1.2706226 1.0442121
-0.9990921 -1.2422088 0.82439226
-0.98270541 -1.2222638 0.63498449
-0.96840256 -1.204897 0.46355
-0.94922173 -1.1810281 0.30354607
-0.93231237 -1.1603962 0.15372162
-1.0988443 -1.3248513 8.2986708
-1.472123 -1.792423 7.462213
-1.5386058 -1.8826596 5.7875924
-0.93371755 -1.1458015 2.7759972
-1.2041531 -1.4807596 2.8757446
-1.1491063 -1.4145691 2.2586224
-1.2329779 -1.4901631 7.4840708
-1.5565283 -1.8937992 6.7204561
-1.4311376 -1.7480363 4.7350216
-0.98261839 -1.2032113 2.6111712
-1.0186286 -1.2490598 2.2089827
-1.1246436 -1.3809938 2.0090308
-1.1042217 -1.3641605 1.8044887
-1.0640626 -1.3159425 1.4469448
-1.0370274 -1.2829589 1.1661832
-1.0141023 -1.2554821 0.93135673
-0.99364626 -1.2305889 0.72735512
-0.97642434 -1.2096844 0.54689056
-0.95604384 -1.1852738 0.38058439
-0.94408584 -1.1704447 0.22794664
-1.0823483 -1.3333204 1.6106981
-1.0482081 -1.2921752 1.2950795
-1.0220302 -1.2603474 1.0391457
-0.9977085 -1.2316606 0.82019615
-0.98102236 -1.2114863 0.63169748
-0.96648604 -1.1939534 0.46120536
-0.95022279 -1.1738586 0.30285537
-0.93321449 -1.1532509 0.15352009
-1.4583894 -1.7631202 7.3620014
-1.5339936 -1.8637022 5.7461696
-0.93771148 -1.1425352 2.7759972
-1.2075313 -1.4743704 2.8716116
-1.1499777 -1.405588 2.2509475
-1.2389768 -1.4868157 7.4889107
-1.5642298 -1.8896836 6.7251492
-1.4233807 -1.7262347 4.6900096
-0.98846906 -1.2017881 2.615437
-1.024895 -1.247825 2.2129729
-1.1230072 -1.3691961 1.9980052
-1.1022162 -1.3520056 1.7939749
-1.0637337 -1.3061842 1.4406679
-1.0335796 -1.2696031 1.1579589
-1.0128874 -1.245062 0.92671913
-0.99501079 -1.2235162 0.72548205
-0.97458881 -1.1988242 0.54407042
-0.95707798 -1.1781166 0.37965176
-0.94188559 -1.1594115 0.22705248
-1.0799057 -1.3208624 1.6007215
-1.0475974 -1.2822483 1.2891932
-1.0209697 -1.2500947 1.0340793
-0.99913245 -1.2246537 0.81809807
-0.97927612 -1.2007358 0.62841046
-0.9675765 -1.1868052 0.46003303
-0.9480561 -1.1628582 0.30147403
-0.93092185 -1.142241 0.15311703
-1.4597576 -1.7522845 7.3381414
-1.5305147 -1.8463041 5.7093496
-0.9447459 -1.1429468 2.7847755
-1.2126704 -1.4701463 2.8716116
-1.1487619 -1.3941444 2.2394347
-1.7298464 -2.0610962 10.397405
-1.5708166 -1.8842119 6.7251492
-1.4168801 -1.7061833 4.6494985
-0.99598569 -1.202347 2.6239688
-1.025403 -1.2395964 2.2049928
-1.1191431 -1.354813 1.9833045
-1.1001394 -1.3398814 1.7834612
-1.0608813 -1.2934347 1.4312525
-1.0327024 -1.2595206 1.152476
-1.0116122 -1.2346658 0.92208159
-0.99340045 -1.2128627 0.72173601
-0.97268951 -1.1879916 0.54125035
