# .PCD v0.7 - Point Cloud Data file format
VERSION 0.7
FIELDS x y z
SIZE 4 4 4
TYPE F F F
COUNT 1 1 1
WIDTH 1511
HEIGHT 1
VIEWPOINT 0 0 0 1 0 0 0
POINTS 1511
DATA ascii
3.3385313 -0.33952606 12.95746
3.9193933 -0.3779895 8.2054577
5.7524509 -0.54774392 9.5219851
4.1995063 -0.39690825 5.6603537
4.0481935 -0.37976664 4.4860916
7.3374529 -0.66255981 6.0228143
5.9908037 -0.539904 4.0282736
4.7929344 -0.43026444 2.6055303
5.1815677 -0.4642477 2.1901937
7.4655199 -0.68857169 6.7585721
7.8474154 -0.72104263 5.82166
5.3506036 -0.49068126 3.2430112
5.2892437 -0.48226902 2.5426972
0.051160414 -0.018986005 4.7390928
2.0417821 -0.22692364 13.059822
2.5914342 -0.2758072 12.552623
3.6322846 -0.36880669 11.718822
3.5199363 -0.34874615 8.392621
2.7177193 -0.2654317 5.071486
3.5912592 -0.34510952 4.3961124
0.28852299 -0.045764659 4.8912539
2.5522556 -0.31204078 23.937603
3.343576 -0.35183564 12.981657
3.5117404 -0.35782146 9.6534348
3.9202156 -0.39188498 8.2099581
2.9007525 -0.28639108 4.8379889
4.1980953 -0.41156483 5.6603537
3.7499127 -0.36499014 4.1626773
5.173522 -0.48808432 5.1863756
7.2459636 -0.67980558 5.9506302
6.0013728 -0.56198221 4.0364985
4.8443308 -0.45193017 2.6333559
5.1152925 -0.47631428 2.1639714
7.40732 -0.70928818 6.7086897
7.844851 -0.74843079 5.82166
5.3488579 -0.50935531 3.2430112
5.2694545 -0.49901736 2.5343051
0.051093828 -0.019164473 4.7390928
2.0425212 -0.23422667 13.0697
2.5813465 -0.28384888 12.508566
3.630975 -0.3814835 11.718822
3.5439627 -0.36362398 8.4524546
2.7143931 -0.27467546 5.0670967
3.1982782 -0.32029098 4.7934327
3.5549488 -0.35414758 4.3538995
0.28836149 -0.046771511 4.8912539
2.5511508 -0.32094792 23.937603
3.3310812 -0.36228102 12.938102
3.5018895 -0.36917269 9.6299715
3.9079974 -0.40444598 8.1874523
2.9204912 -0.29863781 4.8721161
4.0420704 -0.4076786 4.4824162
5.1646876 -0.50544548 5.1793666
7.2241764 -0.70320892 5.9349375
4.8956342 -0.47395995 2.6611814
5.1135993 -0.49416709 2.1639714
7.5162635 -0.74620694 6.8084545
7.8381681 -0.77541196 5.818717
5.2998586 -0.52336305 3.2151463
5.2179956 -0.51252776 2.5112264
0.051026624 -0.019342706 4.7390928
2.0432346 -0.24153763 13.079579
2.5874224 -0.29366216 12.542833
3.651881 -0.39657384 11.790402
3.5485003 -0.37661123 8.4662619
2.7253277 -0.2853964 5.0890422
6.3208437 -0.65535843 9.4058027
0.28791183 -0.0477296 4.8862619
2.5494864 -0.32978266 23.932632
3.3260489 -0.37348548 12.923584
3.5005796 -0.38139433 9.6299715
3.9173844 -0.41924345 8.2099581
2.9323986 -0.31020251 4.893446
3.9194188 -0.41188547 5.2932715
4.0878286 -0.42671379 4.5338688
5.1380558 -0.52095217 5.1548347
7.1790786 -0.72412473 5.9004149
5.6187067 -0.56574303 3.7870247
4.8939495 -0.49104601 2.6611814
5.0657144 -0.50739336 2.145241
7.6733232 -0.78885901 6.9514508
5.004662 -0.51273429 3.7467322
5.2979994 -0.54185981 3.2151463
5.2026291 -0.52936053 2.5049322
0.050958794 -0.019520706 4.7390928
2.0431502 -0.2487624 13.084518
2.5904264 -0.30316591 12.562413
3.7098105 -0.41597444 11.981282
3.5607579 -0.39048672 8.4984798
2.7290769 -0.29542345 5.0978203
6.2681541 -0.67201829 9.3314104
3.7244959 -0.39731944 4.5611248
0.28774348 -0.048734307 4.8862619
2.5483196 -0.33868003 23.932632
3.3147364 -0.38393578 12.884869
3.5112307 -0.39496198 9.6628199
4.7489419 -0.52503133 9.9429255
2.9520385 -0.3227044 4.9275737
3.9299395 -0.42686599 5.3092318
5.1468463 -0.54000062 5.1653481
7.2268333 -0.75443393 5.9412146
5.5459962 -0.57798386 3.7404199
4.9142365 -0.51041442 2.6727755
5.0500789 -0.52363849 2.139622
7.577702 -0.80576861 6.8683133
4.9907832 -0.52892262 3.7379029
5.2231984 -0.55263889 3.1720822
4.7177973 -0.4966723 2.2804408
0.050929356 -0.01971801 4.7440929
2.0353308 -0.25502241 13.040065
2.5944068 -0.31281617 12.586889
3.6964734 -0.42754903 11.943106
3.6098456 -0.40862864 8.618145
2.7256486 -0.30468175 5.093431
6.1902533 -0.6855303 9.219821
3.9652183 -0.43700674 4.8527751
0.28785589 -0.049788605 4.8912539
2.5476499 -0.3476454 23.937603
3.3146238 -0.39565307 12.889708
3.4995458 -0.4060224 9.6346636
4.7946644 -0.54703492 10.041953
2.9508941 -0.33300698 4.9275737
3.9344146 -0.44125319 5.3172121
3.6703267 -0.40904951 4.0818233
3.9820189 -0.43183595 4.0158572
7.1544986 -0.77213776 5.8847222
5.0482202 -0.5412634 2.139622
7.5711317 -0.83180702 6.8649879
5.0009604 -0.54766059 3.7467322
5.066968 -0.55399984 3.080888
4.7024989 -0.51166457 2.2741463
0.050860215 -0.019895667 4.7440929
2.032887 -0.26192668 13.030187
2.5963304 -0.32224694 12.601575
3.6549389 -0.4356775 11.814262
3.5831711 -0.41828132 8.5583124
2.7198105 -0.31364533 5.0846529
6.1990056 -0.70841223 9.236352
3.8139875 -0.43381777 4.6724124
0.28768036 -0.050793108 4.8912539
2.5469487 -0.35661024 23.942574
3.3157175 -0.40752766 12.899386
3.4981072 -0.41823566 9.6346636
4.8878546 -0.57496005 10.240005
2.9574852 -0.34421018 4.940371
3.9597898 -0.45810118 5.3531218
3.722764 -0.42805573 4.1406264
4.0301046 -0.45128986 4.0649209
5.6198916 -0.6263631 4.6418934
5.068068 -0.56396592 3.4278929
4.844511 -0.53738338 2.6379933
4.8712058 -0.53948915 2.0684466
7.5570526 -0.85696799 6.8550119
4.9829526 -0.56329763 3.7349596
5.0564361 -0.5707165 3.0758214
4.6420522 -0.52148932 2.2468719
0.050829329 -0.020092895 4.7490926
2.0288794 -0.26861283 13.010429
2.5921597 -0.33092079 12.586889
3.6785829 -0.45152554 11.895386
3.5816891 -0.43078637 8.5583124
2.7139423 -0.32257181 5.0758748
6.2132635 -0.73202229 9.2611504
3.5482266 -0.41613606 4.3538995
0.28750128 -0.051796991 4.8912539
2.5467436 -0.3656503 23.952517
3.3180161 -0.41957247 12.913905
3.8225424 -0.46315962 8.0254087
2.9562657 -0.35453165 4.940371
3.9581666 -0.47192064 5.3531218
3.761646 -0.44583669 4.1847281
5.6864839 -0.65689623 5.7050486
5.3624601 -0.61662805 4.4347553
5.0660686 -0.58165336 3.4278929
4.8029966 -0.54975671 2.6171243
4.8831105 -0.55806875 2.0740657
7.5206385 -0.87943864 6.8250823
4.916719 -0.57319868 3.6878691
4.9302387 -0.57390797 3.0023594
4.640204 -0.53768992 2.2468719
0.05075888 -0.0202702 4.7490926
2.6000748 -0.34116006 12.630946
3.6695797 -0.46342802 11.871527
3.5685308 -0.44184545 8.5306969
2.7080455 -0.33146119 5.0670967
3.2020431 -0.3885566 4.8099647
3.4703825 -0.41929087 4.2617998
0.28760248 -0.052853398 4.8962455
2.5465066 -0.37469324 23.96246
3.315285 -0.43098983 12.909066
3.7928202 -0.47299713 7.9668932
3.0456033 -0.37603638 5.0896788
3.9893939 -0.48977381 5.3970122
3.8004489 -0.46389425 4.2288303
5.8010168 -0.69065589 5.8206987
5.0224829 -0.59441894 3.4004781
4.7174616 -0.55665541 2.5730669
4.8811326 -0.57511061 2.0740657
7.773303 -0.93650222 7.0545421
4.910675 -0.58987558 3.6849258
4.8554435 -0.58238631 2.9592953
4.660831 -0.55657476 2.2573621
0.050687816 -0.020447258 4.7490926
2.6170316 -0.35268328 12.719061
3.6620183 -0.47546539 11.852438
3.6076643 -0.45948386 8.6273499
2.6973672 -0.33971468 5.0495405
3.2146289 -0.40147543 4.8306293
4.0318871 -0.50142646 4.9410381
0.28741625 -0.053856995 4.8962455
2.5457103 -0.38365945 23.967432
3.3050389 -0.44139451 12.87519
3.9076512 -0.50877535 10.770313
3.7760313 -0.48429474 7.9353848
3.0727315 -0.39028069 5.1366043
3.9786916 -0.50256342 5.3850422
3.7786243 -0.47462216 4.206779
5.8906045 -0.72218508 5.9118171
7.8462024 -0.95779639 6.4559216
5.0162268 -0.61144108 3.3977368
4.7814522 -0.58113629 2.6078491
4.842278 -0.587677 2.0590816
7.7922196 -0.96638775 7.0744948
4.9286437 -0.60949397 3.6996417
4.6950841 -0.57978278 2.8655677
4.6318326 -0.56951737 2.2447739
0.050577469 -0.020603847 4.7440929
2.6349478 -0.36446857 12.81207
3.636663 -0.48508659 11.776087
3.5304906 -0.46218178 8.4478512
2.6914146 -0.34851289 5.0407619
3.2020435 -0.41125995 4.8140974
4.1159539 -0.52647865 5.0446506
0.28750992 -0.054915078 4.9012375
2.5454092 -0.39270601 23.977373
3.2984967 -0.4522453 12.855832
3.9058516 -0.52241248 10.770313
3.7764761 -0.49775714 7.9398861
3.1075554 -0.40573204 5.1963272
4.0366759 -0.52421045 5.4648428
3.9383314 -0.50865507 4.3831873
5.8526654 -0.73827916 5.8767715
7.7926054 -0.97887206 6.4151216
5.0140615 -0.62894726 3.3977368
4.9420295 -0.61816692 2.6936448
4.8263969 -0.60285234 2.0534625
7.8258362 -0.99830669 7.1077499
4.934505 -0.62771457 3.7055278
4.6374373 -0.58910555 2.8326364
4.6973553 -0.59422618 2.2762444
0.05050524 -0.020780269 4.7440929
2.6387 -0.37437961 12.836546
3.6408632 -0.49858829 11.795174
3.5288558 -0.47450268 8.4478512
3.1977987 -0.42206639 4.8099647
4.0409999 -0.53123319 4.956388
0.28731647 -0.05591834 4.9012375
2.5445495 -0.40167195 23.982346
3.2931643 -0.46323103 12.841314
3.7809112 -0.51913786 10.432434
3.0957808 -0.41519007 5.1792636
4.0885839 -0.54547131 5.5366631
4.0239091 -0.53399587 4.4787412
5.8040757 -0.7527411 5.831212
5.1332941 -0.66301835 4.2558632
5.0450125 -0.65072525 3.4196684
5.0277133 -0.64671743 2.7400208
4.8104687 -0.61792386 2.0478432
7.8741326 -1.0324137 7.1543069
4.9763708 -0.65070039 3.7379029
4.7422156 -0.61924452 2.8959658
4.7402592 -0.61647272 2.2972252
0.050432399 -0.02095644 4.7440929
2.6393921 -0.38388136 12.846336
3.7115312 -0.52147371 12.029002
3.5175018 -0.48548201 8.424839
5.3703451 -0.73365039 10.000422
3.1851521 -0.43171418 4.7934327
2.8987882 -0.3913593 3.5787239
0.28711954 -0.056920923 4.9012375
2.5436578 -0.41063666 23.987316
3.2877946 -0.47418496 12.826796
3.6406636 -0.51283067 10.05232
3.0710597 -0.42279205 5.1408701
4.0836701 -0.55933094 5.5326734
4.2907495 -0.58465886 4.7727542
4.0091648 -0.53417796 4.0544076
4.9418826 -0.6558404 4.1020789
5.063436 -0.67107862 3.4333756
4.9507685 -0.65439504 2.7006011
4.7761097 -0.63046479 2.0347321
6.072103 -0.81770176 5.5381136
5.0141292 -0.67344797 3.7673342
4.7699332 -0.63980609 2.9136982
4.8280492 -0.64503622 2.3391862
0.050320487 -0.021111727 4.7390928
2.6350148 -0.39264178 12.831651
3.7318501 -0.53761977 12.100581
3.5273919 -0.49940094 8.4524546
5.3298025 -0.74707204 9.9301968
3.1585407 -0.43934011 4.7562361
2.9005795 -0.40191555 3.5825615
0.28720185 -0.057980902 4.9062285
2.5432608 -0.41968697 23.997259
3.2836323 -0.48529094 12.817117
3.4253585 -0.49469498 9.465724
3.1392894 -0.44335821 5.2560501
4.1174998 -0.57861447 5.5805535
4.2819676 -0.59869385 4.7654042
3.9754758 -0.54381883 4.0228662
5.4949236 -0.74876678 4.5540171
5.0859222 -0.69213253 3.4498246
4.9572325 -0.67286402 2.7052386
4.77388 -0.64713269 2.0347321
5.9989381 -0.82917863 5.4749293
5.0477848 -0.69591498 3.7938228
4.7676711 -0.65645236 2.9136982
4.825768 -0.66188532 2.3391862
0.050246485 -0.021287249 4.7390928
1.9986846 -0.31447619 12.862251
2.6285956 -0.40106899 12.807175
3.719614 -0.54911667 12.067178
3.5314274 -0.5125528 8.4662619
5.2844911 -0.75953817 9.8511925
3.1820605 -0.45394006 4.7934327
2.908679 -0.41339123 3.594074
0.28699771 -0.058983069 4.9062285
2.5428317 -0.42873949 24.007202
3.2707331 -0.49505639 12.773561
3.8896413 -0.57563227 10.746849
4.8914361 -0.7143591 10.285018
3.1919262 -0.46216312 5.3456349
4.0051041 -0.57708198 5.4329224
4.2798519 -0.61363709 4.7654042
3.9135156 -0.5492655 3.963289
7.6663885 -1.071947 6.3241067
5.1124635 -0.71392965 3.4690146
4.8890424 -0.68099672 2.6704566
4.7624087 -0.66251516 2.0309861
4.6060119 -0.65303069 4.2245412
5.0733399 -0.717493 3.8144248
4.633029 -0.65439987 2.8351696
4.8234282 -0.67872632 2.3391862
0.050171874 -0.021462513 4.7390928
1.9891366 -0.32009181 12.80792
2.6100774 -0.40757003 12.723956
3.6733963 -0.55540079 11.924018
3.5296168 -0.52487665 8.4662619
5.3078713 -0.78181934 9.8994732
3.272342 -0.47848213 4.9298201
2.9167333 -0.42492831 3.6055863
0.28679007 -0.05998452 4.9062285
2.5428956 -0.43788466 24.022118
3.2602904 -0.50512278 12.739686
3.9797423 -0.60317302 11.000259
4.8738422 -0.72917402 10.25351
3.1954532 -0.47406781 5.354167
3.7765148 -0.55760479 5.1296806
4.2307258 -0.62167215 4.7139516
3.9045143 -0.56190675 3.9562798
7.6895704 -1.1025684 6.3460755
5.1099405 -0.73177117 3.4690146
4.9304886 -0.70432311 2.6936448
4.6037045 -0.66910464 4.2245412
5.1588087 -0.74795789 3.8791742
4.6221843 -0.66933256 2.8301034
0.05009665 -0.021637514 4.7390928
1.9795735 -0.32564467 12.753588
2.6046171 -0.41603571 12.704375
3.6729107 -0.56844831 11.92879
3.462096 -0.52719253 8.3097763
5.2672186 -0.79462558 9.8292475
3.3875363 -0.50741208 5.103404
3.8472462 -0.57423115 4.7338128
0.28657895 -0.060985241 4.9062285
2.5429265 -0.44703549 24.037033
3.2411268 -0.51374435 12.671934
3.7934437 -0.58848459 10.493441
3.8792706 -0.59420848 8.1784496
3.188622 -0.48443553 5.3456349
3.694102 -0.55861801 5.0219498
4.2385874 -0.63795018 4.724977
5.2432017 -0.77326685 5.2880073
5.5907574 -0.82154697 4.6387548
5.0825324 -0.74596041 3.4525661
4.928 -0.72152942 2.6936448
5.1921501 -0.77130651 3.9056628
4.577178 -0.67913574 2.8047714
5.9410024 -0.87832958 2.8636992
0.050058976 -0.021833414 4.7440929
1.9876198 -0.33409965 12.81286
2.6202321 -0.42791632 12.787595
3.6989164 -0.58570242 12.019458
3.4833987 -0.54288512 8.3650055
5.2573123 -0.81191003 9.8160801
3.4580636 -0.53032589 5.2108607
0.28636432 -0.061985213 4.9062285
2.5434492 -0.4562861 24.056919
3.2231839 -0.52243948 12.609021
3.8513651 -0.6037001 8.1244354
3.1766031 -0.49395975 5.3285713
3.79933 -0.5881049 5.1655908
4.2262826 -0.65119284 4.7139516
3.710079 -0.56038761 3.7670343
5.6494384 -0.85032696 4.6889706
5.096437 -0.76618385 3.463532
4.9298315 -0.73938394 2.6959634
4.9386005 -0.73982304 2.1059072
6.0864358 -0.92805266 5.5647173
5.1214933 -0.77909136 3.855629
4.7452545 -0.72101259 2.9060984
6.234066 -0.94390601 3.0021708
0.049982458 -0.022008019 4.7440929
1.9833782 -0.34050936 12.793102
2.6478472 -0.44192338 12.929556
3.721899 -0.60266763 12.100581
3.59531 -0.57319188 8.6365547
5.2165961 -0.8242752 9.7458553
3.4839909 -0.5467568 5.2521901
4.0458145 -0.63277698 4.979413
0.28614619 -0.062984437 4.9062285
2.5434141 -0.46544975 24.071833
3.2114201 -0.53204322 12.570306
3.4468641 -0.55937731 9.5501938
3.8298888 -0.61403805 8.0839252
3.1851621 -0.5066843 5.3456349
3.8895147 -0.6159761 5.2892814
4.2641692 -0.67227727 4.7580538
5.2764435 -0.81584674 5.3265572
5.6387424 -0.86885655 4.6826935
5.0482717 -0.776972 3.4333756
4.9726467 -0.76268017 2.1208916
6.0167556 -0.93892986 5.504859
5.0628276 -0.78825796 3.8144248
4.8364201 -0.75214648 2.9618285
4.8179669 -0.74670094 2.3412843
0.049905334 -0.022182357 4.7440929
1.9737589 -0.3459537 12.73877
2.6693738 -0.45510113 13.042146
3.722718 -0.61614347 12.110126
3.7629683 -0.61340314 9.0415764
5.2018652 -0.84056902 9.7239094
3.4848399 -0.55936092 5.2563229
4.037251 -0.6458829 4.9717379
0.28592458 -0.063982889 4.9062285
2.54387 -0.47471657 24.091719
3.1859961 -0.53926295 12.478357
3.4465928 -0.57168818 9.5548868
3.2013936 -0.52073091 5.3754964
3.8546214 -0.62424994 5.2453914
4.2818785 -0.69039613 4.7801046
5.2770863 -0.83481735 5.3300619
5.6010718 -0.88307816 4.6544476
5.0042233 -0.78808397 3.405961
4.969954 -0.78003329 2.1208916
4.5644164 -0.72860837 4.1979375
5.0560536 -0.80528998 3.8114817
4.8805947 -0.77647471 2.9896934
4.8198133 -0.76422489 2.3433821
0.04978966 -0.022334864 4.7390928
1.965656 -0.35160899 12.694318
2.6697752 -0.46476567 13.051936
3.6955237 -0.62490243 12.029002
3.4428351 -0.57355297 8.2821608
5.2083516 -0.8602832 9.7414656
3.549511 -0.58245927 5.3555136
4.0666041 -0.66514587 5.0101128
0.28598079 -0.06504555 4.9112206
2.5442917 -0.48399222 24.111605
3.2101047 -0.55487829 12.579985
3.453083 -0.58515745 9.5783501
3.6215415 -0.60659152 7.6563091
3.1686835 -0.52676964 5.3243051
3.8018813 -0.62933487 5.1775608
4.3095474 -0.71030074 4.8131814
5.2706189 -0.8526631 5.3265572
7.7152691 -1.2440375 6.3837366
5.0096984 -0.8068769 3.4114439
5.792182 -0.9308446 3.1574047
4.9672008 -0.79737693 2.1208916
5.9879436 -0.97730261 5.4849057
5.097096 -0.83008093 3.8438563
4.8778548 -0.7935065 2.9896934
4.8171163 -0.7810446 2.3433821
0.049711395 -0.022508526 4.7390928
1.956773 -0.35707229 12.644925
3.6536052 -0.63093847 11.900158
3.4465899 -0.58655071 8.2959681
5.2431016 -0.88483584 9.8116913
3.514153 -0.58926088 5.3059182
4.0642576 -0.67933691 5.0101128
0.28603306 -0.066109389 4.9162121
2.5446801 -0.49327666 24.131491
3.2316673 -0.57023156 12.671934
3.4340155 -0.59426415 9.5314226
3.6301308 -0.62106526 7.6788158
3.1385424 -0.53302318 5.27738
3.6511083 -0.61747617 4.9780598
4.3070421 -0.72533953 4.8131814
5.2394633 -0.86640114 5.298521
7.7070389 -1.2703282 6.3805981
5.0316067 -0.82843518 3.4278929
5.7932682 -0.95177549 3.1597233
6.0897689 -0.99940246 2.5816576
6.0434217 -1.0080276 5.5381136
5.122077 -0.85251355 3.8644586
4.9090743 -0.81618482 3.0099587
4.8054056 -0.79637057 2.3391862
0.049632523 -0.022681916 4.7390928
1.9509315 -0.36304694 12.61529
3.6249199 -0.63902241 11.814262
3.4445217 -0.59857792 8.2959681
5.2706637 -0.90842104 9.8687487
3.487112 -0.59724802 5.2687216
4.0839777 -0.69729614 5.0369759
0.28608137 -0.067174383 4.9212041
2.5445116 -0.50246626 24.146404
3.2642946 -0.58774722 12.807438
3.4285216 -0.60564703 9.5220375
3.6622522 -0.63972741 7.7508349
3.1469414 -0.54575825 5.2944436
3.5746987 -0.6173951 4.8783092
4.314507 -0.74209362 4.8242068
5.2258577 -0.88290256 5.2880073
5.5608115 -0.93651152 4.6293397
5.0286841 -0.8459937 3.4278929
5.7243805 -0.96099085 3.1249413
6.365139 -1.067425 2.6959126
6.0361857 -1.0284897 5.5347877
5.0871921 -0.86496729 3.8409133
4.931695 -0.83764702 3.0251579
4.816021 -0.8154127 2.3454802
0.049553044 -0.022855027 4.7390928
1.9519423 -0.37028953 12.630107
3.5771248 -0.64347744 11.666331
3.4250987 -0.6075266 8.2545452
5.3122768 -0.93469965 9.9521418
3.4794624 -0.60844713 5.2604561
4.1067801 -0.7159518 5.0676756
0.28612572 -0.068240508 4.9261951
2.5474453 -0.51229185 24.191149
3.2486241 -0.59663987 12.754205
3.4416714 -0.62036675 9.5642729
3.6621401 -0.65288937 7.7553363
3.4716275 -0.61207896 4.7426481
4.3619761 -0.76594502 4.879334
5.1981435 -0.8968941 5.2634759
5.5728521 -0.958556 4.6418934
5.0133376 -0.86141765 3.4196684
5.6336699 -0.96599352 3.0785656
5.0841417 -0.88271958 3.8409133
4.9584732 -0.86001366 3.0428901
4.7952566 -0.82912564 2.3370881
0.049472965 -0.02302786 4.7390928
1.9460609 -0.37621528 12.600471
3.5851338 -0.65784621 11.699735
3.4344914 -0.62156653 8.2821608
5.2948384 -0.95069766 9.925807
3.5576541 -0.63492817 5.3803115
4.0663881 -0.7235443 5.0216255
0.28644648 -0.069376677 4.9361787
2.5503411 -0.52214402 24.235891
3.219341 -0.60288441 12.647737
3.4445765 -0.63331294 9.5783501
3.6962492 -0.67229205 7.8318572
2.9864988 -0.53943294 5.0342216
3.4131229 -0.61405504 4.6668377
4.2691774 -0.76502001 4.7801046
5.1668844 -0.91008431 5.2354393
7.9156651 -1.3900115 6.5626287
4.9855886 -0.87457711 3.4032195
5.3340473 -0.94721544 4.9062686
5.1685896 -0.91597915 3.9056628
5.0063782 -0.88633507 3.0732882
4.8012724 -0.84743702 2.3412843
0.049392279 -0.023200411 4.7390928
1.9485472 -0.38375726 12.625167
3.540266 -0.66239369 11.561347
3.434222 -0.63390607 8.2867632
5.2679296 -0.96485901 9.881916
3.5637217 -0.64885515 5.3927102
4.0291467 -0.73143613 4.979413
0.28676277 -0.070515923 4.9461617
2.5531998 -0.5320226 24.280636
3.1900542 -0.60893184 12.541269
3.4525216 -0.64724118 9.6065073
3.7067223 -0.68757278 7.8588643
2.9589493 -0.54512858 4.9915624
3.3991036 -0.62378955 4.650878
4.2664809 -0.7799176 4.7801046
5.2057958 -0.93568552 5.277494
5.4625797 -0.97890007 4.5571551
5.2418127 -0.93839794 3.575932
6.1151924 -1.0925618 3.3382711
5.330708 -0.96582901 4.9062686
5.2647977 -0.95199651 3.9792418
4.9947696 -0.90227246 3.068222
0.049310993 -0.023372682 4.7390928
1.9456724 -0.3902508 12.61529
3.5965829 -0.68593574 11.752227
3.4454279 -0.6484195 8.3189802
5.2668839 -0.98368138 9.8863058
3.594636 -0.66745633 5.4423056
4.054934 -0.7507481 5.0139503
0.2870746 -0.071658216 4.9561453
2.55602 -0.54192752 24.325378
3.1977799 -0.621984 12.579985
3.4587164 -0.66090852 9.6299715
3.7192729 -0.7033394 7.8903728
2.9544652 -0.55497235 4.9872961
3.6131196 -0.67611414 4.9421496
4.2237396 -0.78735012 4.7360029
5.2445912 -0.96156937 5.3195486
8.1737881 -1.4942364 6.782321
5.3948145 -0.98523664 3.6801078
6.1156993 -1.1146955 3.34059
5.3273044 -0.98443067 4.9062686
5.2614427 -0.97036827 3.9792418
5.021266 -0.92517 3.0859542
0.049229108 -0.023544667 4.7390928
1.9442983 -0.3970401 12.61529
3.6278682 -0.70503688 11.861982
3.4316316 -0.65823388 8.2913656
5.2093058 -0.99175739 9.7853565
3.5867543 -0.67895305 5.4340401
4.068037 -0.7678706 5.0331383
0.28710231 -0.072731704 4.9611373
2.5582814 -0.55174613 24.365152
3.1955895 -0.63314253 12.579985
3.4546945 -0.67264777 9.6252785
3.710382 -0.71508169 7.8768687
2.9525099 -0.56528199 4.9872961
3.6788146 -0.70170861 5.0339203
4.2442789 -0.80651933 4.7617288
5.2482133 -0.98118132 5.3265572
8.1914806 -1.5270392 6.8011513
5.4817781 -1.020905 3.7404199
5.2363753 -0.9733175 2.874511
5.2798047 -0.99472463 4.8663626
5.1785755 -0.9737882 3.9203787
5.0180058 -0.9426918 3.0859542
0.049146622 -0.023716364 4.7390928
4.2288609 -0.87930495 27.457758
3.6444204 -0.72146523 11.924018
3.4024699 -0.66496158 8.2269306
5.2857509 -1.0254447 9.9345856
3.6119931 -0.69679981 5.475369
4.0779219 -0.78448826 5.0484881
0.28740537 -0.073879071 4.9711204
2.5579016 -0.56101573 24.380066
3.1785743 -0.64130938 12.521913
3.4455545 -0.68335974 9.6065073
3.7164083 -0.729707 7.8948741
2.9300404 -0.57158935 4.9531689
3.5195744 -0.68407309 4.8224487
4.1948419 -0.81230605 4.7102766
4.5861549 -0.87397909 4.6677027
8.1975718 -1.5578034 6.8105669
5.543911 -1.0525129 3.7842834
5.2432995 -1.0068115 4.8364329
4.9806271 -0.95457667 3.7761636
4.9596438 -0.9496628 3.0530229
0.049063534 -0.023887774 4.7390928
4.2219644 -0.8932566 27.433064
3.6579757 -0.73742777 11.97651
3.3828835 -0.67340106 8.1855078
2.7046919 -0.53447586 5.1197658
3.7420762 -0.73545462 5.6737509
4.0908852 -0.80180067 5.0676756
0.28714576 -0.074881852 4.9711204
2.5585291 -0.57052153 24.404922
3.1861665 -0.65442449 12.560628
3.4329991 -0.69333267 9.5783501
3.7159731 -0.74310213 7.899375
2.9126797 -0.57876354 4.9275737
3.4876068 -0.69050181 4.7825484
4.6688313 -0.90411001 3.9169099
5.5525188 -1.0742412 3.7925079
5.098969 -0.98465222 2.8049471
5.2617393 -1.0294095 4.8563862
4.6678333 -0.91152889 3.5465972
4.8970642 -0.95541257 3.0175586
0.048979852 -0.024058891 4.7390928
4.184639 -0.9006294 27.210796
3.7109435 -0.76159769 12.157845
2.7122014 -0.54580396 5.1373219
3.739486 -0.74851239 5.6737509
4.0880613 -0.81607568 5.0676756
0.28688261 -0.075883724 4.9711204
2.5591214 -0.58003855 24.429783
3.2195432 -0.67300284 12.700971
4.1320343 -0.84955943 11.525848
3.7154896 -0.75650322 7.9038763
2.8953042 -0.58582348 4.9019775
3.4231451 -0.69016415 4.6987581
2.9891982 -0.6005069 3.3835423
4.5729451 -0.90459096 4.6606936
4.650372 -0.91738838 3.9043562
5.499505 -1.0839133 3.7596102
5.0955009 -1.0024449 2.8049471
5.2581139 -1.04777 4.8563862
4.7003021 -0.93491417 3.5730855
0.048895575 -0.024229718 4.7390928
4.1814694 -0.91523105 27.210796
2.5603564 -0.547732 12.611366
3.6863453 -0.76996791 12.086266
2.7032409 -0.55382574 5.1241546
4.0883293 -0.83097923 5.0715127
0.28661597 -0.076884665 4.9711204
2.558639 -0.58932716 24.444696
3.2220924 -0.6852833 12.720328
4.1053963 -0.85902894 11.46015
3.7170894 -0.77035165 7.9128785
2.888133 -0.59487396 4.893446
3.4089084 -0.69968539 4.6827979
2.9837625 -0.61025804 3.3798671
4.5732555 -0.92125219 4.6641984
4.6814857 -0.94051576 3.9326024
5.0355053 -1.0089117 2.7748027
5.9167399 -1.2005064 5.4583015
4.8000112 -0.97217774 3.6496079
5.3254666 -1.0776432 3.2784758
0.048810698 -0.024400247 4.7390928
4.1600475 -0.92576951 27.092255
2.5594237 -0.55688256 12.616261
3.679255 -0.78189993 12.07195
2.6966019 -0.56228054 5.1153765
3.778255 -0.78374624 5.7398782
4.0728483 -0.84264725 5.0561628
0.28634587 -0.077884667 4.9711204
2.5627947 -0.59971344 24.504353
3.2098525 -0.6943996 12.681613
3.8458219 -0.81872904 10.746849
3.7079878 -0.78197426 7.899375
2.8988018 -0.60762745 4.9147758
3.4182434 -0.71404517 4.6987581
3.0081661 -0.62619728 3.4092684
4.5350766 -0.93004543 4.6291528
4.6362276 -0.94827151 3.8980794
5.1558695 -1.0536284 3.5348101
4.9191027 -1.0034617 2.714514
5.8649778 -1.2113342 5.4150705
4.8520103 -1.0003539 3.6908119
5.3132281 -1.0944864 3.2734096
0.048725229 -0.02457048 4.7390928
4.1340551 -0.93514067 26.944077
2.555476 -0.56537312 12.606471
3.7013059 -0.80010068 12.153072
3.392257 -0.72464973 8.2315331
2.6969657 -0.57218719 5.1197658
3.783756 -0.79867363 5.7522769
0.28607225 -0.07888373 4.9711204
2.5606856 -0.60865563 24.504353
3.1190217 -0.68615043 12.333174
3.8159554 -0.8263042 10.671765
3.7180066 -0.79765302 7.9263821
2.9017642 -0.61883044 4.9233074
3.4216249 -0.72722566 4.706738
3.0225449 -0.64020663 3.4276443
4.4619823 -0.93129665 4.559062
4.5833516 -0.95413625 3.8572795
4.5053377 -0.93708009 3.1016581
4.9849668 -1.0350356 2.7516148
4.8484888 -1.0172845 3.6908119
5.047792 -1.0581882 3.1163523
0.048639167 -0.024740413 4.7390928
1.9287165 -0.44320613 12.580714
2.5614338 -0.576078 12.645633
3.6868274 -0.81045157 12.114897
3.3839796 -0.73524195 8.2177258
2.7019751 -0.58311367 5.1329327
3.6901524 -0.79237914 5.6158895
2.8915613 -0.61931133 3.6170988
0.28579515 -0.079881832 4.9711204
2.5564728 -0.61708969 24.484467
3.0491416 -0.68194091 12.067006
4.1854959 -0.92164373 11.708867
3.7407224 -0.81619596 7.9803972
2.9123302 -0.6317203 4.9446373
3.4337916 -0.74234885 4.7266879
3.0368621 -0.654324 3.4460201
4.4517269 -0.94538438 4.5520525
4.5266833 -0.95883697 3.8133409
4.5674925 -0.96665382 3.1455219
4.9813232 -1.05243 2.7516148
5.2539253 -1.1234249 4.8663626
4.7698026 -1.01817 3.634892
4.7531652 -1.0137564 2.9415631
0.048552509 -0.024910044 4.7390928
1.9286711 -0.45028943 12.590592
2.5594075 -0.58501554 12.645633
3.6854327 -0.82364166 12.119669
3.3890233 -0.74873585 8.2361355
2.7069411 -0.59408224 5.1461
3.5389059 -0.77283198 5.3927102
2.8862505 -0.62871879 3.6132615
0.28551456 -0.080878951 4.9711204
2.553268 -0.62575579 24.474524
3.0173264 -0.68589163 11.95086
4.2529807 -0.95208353 11.905963
3.7569773 -0.83349234 8.0209074
2.9101074 -0.64188242 4.9446373
3.4488373 -0.75821286 4.7506285
3.0776103 -0.67435437 3.4937973
4.4658289 -0.96468318 4.5695753
4.4928684 -0.96807301 3.7882333
4.5640907 -0.98259139 3.1455219
4.9732885 -1.0688809 2.7492959
5.2244329 -1.1362032 4.8430843
4.9012585 -1.0632429 3.0327575
0.048465259 -0.025079373 4.7390928
1.9301115 -0.45773664 12.61035
2.5573499 -0.59394598 12.645633
3.6898134 -0.83815479 12.143529
3.4054503 -0.76484293 8.2821608
2.7212136 -0.60717911 5.1768236
3.4125669 -0.75772929 5.2067275
2.8715208 -0.63601708 3.5979116
0.28523049 -0.081875093 4.9711204
2.5515854 -0.63479334 24.479496
3.010015 -0.69528806 11.931501
4.0510783 -0.92174041 11.352217
3.7816522 -0.85282815 8.0794239
2.9154835 -0.65374881 4.9574347
3.4491098 -0.77090418 4.7546182
3.0719283 -0.68435591 3.4901221
4.4450183 -0.97644001 4.5520525
4.4894619 -0.9837501 3.7882333
4.9565439 -1.0833966 2.7423396
5.2678285 -1.1649139 4.8863158
5.1691146 -1.1411991 3.9380374
4.9438233 -1.0905598 3.0606225
0.048377421 -0.025248395 4.7390928
1.9322789 -0.46538144 12.635046
2.5532787 -0.60240138 12.635841
3.6868653 -0.85102946 12.143529
3.4313297 -0.78324783 8.3511992
2.7097349 -0.614555 5.1592674
3.5087197 -0.79194266 5.3555136
2.8880446 -0.65026134 3.6209364
0.28494298 -0.082870238 4.9711204
2.5509043 -0.64408785 24.49441
3.0185831 -0.70837587 11.975057
4.0226164 -0.930044 11.281825
3.7807741 -0.86650974 8.0839252
2.9131837 -0.66392177 4.9574347
3.4111373 -0.77492815 4.706738
3.046376 -0.68983334 3.464396
4.4381027 -0.99117279 4.5485482
4.4822016 -0.99856883 3.7850947
4.8918047 -1.0889349 3.370322
5.1611552 -1.1583506 3.9350944
4.8558593 -1.0889441 3.0099587
0.048288994 -0.02541711 4.7390928
1.9306426 -0.47212353 12.635046
2.5531409 -0.61178505 12.645633
3.6577134 -0.85775834 12.057633
3.4704435 -0.80493301 8.4524546
2.6935701 -0.62078232 5.1329327
3.5662754 -0.81802779 5.4464388
2.8795085 -0.65890855 3.6132615
0.28437534 -0.083781853 4.9661288
2.5507057 -0.65351778 24.514297
3.0209825 -0.72007442 11.994415
3.9303086 -0.92316371 11.033108
3.7226009 -0.86686361 7.9668932
3.40254 -0.7854749 4.6987581
3.0142152 -0.6936202 3.4313195
4.403316 -0.9995532 4.5170074
4.5811858 -1.0374202 3.8698332
4.9206004 -1.1133866 3.3922536
5.2988539 -1.1970403 2.9301622
5.2814078 -1.2066516 4.9062686
5.1255546 -1.1691679 3.9115491
4.7175326 -1.0752321 2.9288971
0.0482364 -0.025609542 4.7440929
1.9312451 -0.47942179 12.649864
3.6546967 -0.87052095 12.057633
3.4676125 -0.81704217 8.4524546
2.6843913 -0.62854266 5.1197658
3.6072474 -0.84069151 5.5125656
4.0666552 -0.94553399 5.0753503
0.28408116 -0.084773995 4.9661288
2.5489249 -0.66255164 24.519268
3.0135641 -0.72943217 11.975057
3.9253838 -0.93647689 11.028416
3.6644721 -0.86682212 7.8498616
3.3880429 -0.79459488 4.6827979
3.0150766 -0.70490932 3.4349947
4.4171753 -1.0189257 4.5345302
4.6496067 -1.0699909 3.9294639
4.9655848 -1.1418006 3.4251513
5.3119135 -1.2194943 2.9394374
5.2880745 -1.2276129 4.9162455
5.133255 -1.1897902 3.9203787
4.9195323 -1.1393527 3.0530229
0.048146714 -0.025777761 4.7440929
1.9310665 -0.48654005 12.659742
3.6516359 -0.88327289 12.057633
2.6728611 -0.63569224 5.1022091
3.6508422 -0.86429954 5.5828261
3.9915836 -0.94277662 4.9870882
0.2837835 -0.085765108 4.9661288
2.5476277 -0.67171699 24.529211
3.0036757 -0.73814672 11.94602
3.6741242 -0.88265961 7.8768687
3.4292166 -0.81689119 4.7426481
3.0488803 -0.72404659 3.4754214
4.4135914 -1.0343384 4.5345302
4.5814118 -1.0711496 3.8761103
4.8842053 -1.1410524 3.3730636
5.5535221 -1.2953869 3.0716093
5.2764893 -1.2443501 4.9095941
5.0498052 -1.1881119 3.1340847
0.048092693 -0.025969947 4.7490926
1.9308621 -0.49366292 12.669621
3.6253366 -0.89031714 11.981282
3.4599257 -0.84076917 8.4478512
2.6659694 -0.6438936 5.093431
3.6943159 -0.88822198 5.6530862
3.8822968 -0.93128216 4.8566127
0.2834824 -0.086755179 4.9661288
2.5457823 -0.68074363 24.534184
3.0108373 -0.75106144 11.984735
3.7763143 -0.92881984 10.62953
3.671021 -0.89547932 7.8768687
5.455843 -1.323863 9.2532301
3.4878485 -0.84373587 4.8264389
3.1254301 -0.75376159 3.5636251
4.4168925 -1.0513901 4.5415392
4.5852189 -1.0889341 3.8823872
4.8801923 -1.1580945 3.3730636
5.5489664 -1.3147645 3.0716093
5.2830067 -1.26537 4.9195704
4.731709 -1.1315821 3.6260626
5.0456271 -1.2057319 3.1340847
0.048001748 -0.026137661 4.7490926
1.9306312 -0.5007903 12.6795
3.5903425 -0.89502186 11.876298
2.6590538 -0.65205473 5.0846529
3.7239974 -0.90912122 5.7026815
3.3184698 -0.80828393 4.1658621
0.28317785 -0.087744184 4.9661288
2.5444198 -0.68990505 24.544127
3.0179455 -0.76403511 12.023451
3.7730491 -0.94199598 10.62953
3.6847773 -0.91247475 7.9128785
5.5423517 -1.3653588 9.4068041
3.5229239 -0.86524951 4.8783092
3.1227801 -0.7646668 3.5636251
4.558785 -1.1019963 4.6887302
4.5776062 -1.1040202 3.8792486
4.5549817 -1.0977275 3.1564877
5.522809 -1.3289441 3.0600152
5.2749295 -1.2829211 4.9162455
4.7827201 -1.1614463 3.6672666
4.9534135 -1.2019888 3.080888
0.047910213 -0.026305061 4.7490926
1.9311258 -0.50811994 12.694318
3.5539131 -0.89912713 11.766542
2.6242244 -0.65323234 5.0232058
3.7399209 -0.92685354 5.7316117
3.2658439 -0.8075515 4.1044621
0.28259468 -0.088644788 4.9611373
2.5430238 -0.69906527 24.55407
3.0237818 -0.77675462 12.057327
3.759701 -0.95261717 10.601374
3.7807996 -0.95027465 8.1244354
5.6488767 -1.4125358 9.5945053
3.6280606 -0.90451348 5.0259399
3.1168015 -0.77474475 3.5599499
4.5583739 -1.1187527 4.6922345
4.5699439 -1.1190665 3.8761103
5.2619019 -1.2875475 3.6362443
5.513833 -1.3471627 3.0576963
4.7943344 -1.1820042 3.6790392
4.9450021 -1.2182411 3.0783546
0.047782108 -0.026447482 4.7440929
1.9308416 -0.51525861 12.704195
3.5117161 -0.90150416 11.637698
3.4566121 -0.87839848 8.4616594
2.5847762 -0.65300143 4.9529805
3.7148309 -0.93441075 5.6985483
3.1946111 -0.80177981 4.0200367
0.28228351 -0.089630686 4.9611373
2.5446756 -0.70908314 24.593842
3.0344317 -0.79079252 12.110561
3.7680523 -0.96874338 10.634223
3.7837875 -0.96508044 8.1379395
5.6514959 -1.4341701 9.6073027
3.4057922 -0.86173427 4.7266879
3.1075039 -0.78396106 3.5525999
4.3571939 -1.085515 4.4924755
4.6491117 -1.1556697 3.9451561
4.6324277 -1.1506692 3.2140586
5.5262952 -1.3706671 3.0669715
4.7744951 -1.1948074 3.6672666
0.047689497 -0.026614111 4.7440929
1.9297812 -0.52219838 12.709135
3.5229928 -0.91751945 11.685418
3.4894681 -0.89972776 8.5491066
2.5824809 -0.66201997 4.9529805
3.1226029 -0.79703337 4.8058314
0.28196895 -0.090615489 4.9611373
2.5452631 -0.71883118 24.623671
3.0450201 -0.80491406 12.163794
3.7780061 -0.98537505 10.671765
3.8520508 -0.99682707 8.2909803
5.6515064 -1.4551896 9.6158352
3.1167419 -0.80017954 4.3356657
3.1047485 -0.79480344 3.5525999
3.2850294 -0.8305825 3.4095707
4.554472 -1.1490388 3.8698332
4.4134903 -1.1126558 3.0687606
5.5343642 -1.3931934 3.0739279
4.8760719 -1.23833 3.7467322
4.6146441 -1.1710838 2.8833001
0.047596306 -0.026780417 4.7440929
1.9294453 -0.52934277 12.719013
3.5558484 -0.93934405 11.804718
2.5917437 -0.67404503 4.974926
3.1879053 -0.82556665 4.9091554
3.0058422 -0.77674556 3.7936239
0.28165093 -0.091599196 4.9611373
2.5458128 -0.72859192 24.653498
3.0191245 -0.80935317 12.071846
3.7878895 -1.002088 10.709307
3.8653924 -1.0146894 8.3269901
5.4697576 -1.4287666 9.3172197
4.1082702 -1.0700605 5.6962643
3.0986738 -0.80478394 3.5489244
3.2890186 -0.84381676 3.4165797
4.4825606 -1.1475537 3.8133409
4.7903709 -1.2254713 3.3264587
5.5466352 -1.416889 3.0832031
5.1769657 -1.3359203 4.8430843
4.8717198 -1.2553431 3.7467322
4.5646071 -1.1753601 2.8554349
0.047502533 -0.026946396 4.7440929
1.9283344 -0.53628284 12.723953
3.5525477 -0.95175058 11.804718
2.5801122 -0.6806438 4.9573698
3.136014 -0.82381886 4.8347621
2.9845097 -0.78235632 3.7705991
0.28105554 -0.092490606 4.9561453
2.5463259 -0.73836535 24.683329
3.0077906 -0.81757849 12.03797
3.7960355 -1.0184345 10.742156
3.9649057 -1.0556225 8.5475492
5.5832262 -1.4792455 9.5177183
4.165689 -1.1005586 5.7800546
3.0958457 -0.81559545 3.5489244
3.2722483 -0.85169923 3.4025614
5.3224049 -1.3823783 4.5163555
4.7860641 -1.2421855 3.3264587
5.5759606 -1.4451327 3.1017535
5.1722708 -1.353983 4.8430843
4.9455199 -1.2927865 3.8055954
4.5646477 -1.192376 2.8579681
0.047408182 -0.027112046 4.7440929
1.9264505 -0.54301077 12.723953
3.5376799 -0.96101451 11.766542
2.5730932 -0.68840784 4.9485912
2.9726894 -0.79201353 4.5909185
2.9724679 -0.79029852 3.7590868
0.28073096 -0.09347111 4.9561453
2.5468016 -0.74815112 24.713158
3.000071 -0.82673657 12.018612
3.7808015 -1.0285077 10.709307
3.9506884 -1.0666188 8.5250435
4.1589112 -1.114313 5.7760644
3.0962553 -0.82727224 3.5525999
3.2761517 -0.86493701 3.4095707
5.4756298 -1.4425977 4.6481705
4.6361279 -1.2205586 3.2277656
5.5023346 -1.4465661 3.0646527
5.2036004 -1.3816113 4.8763394
4.9058137 -1.3007183 3.7791069
4.6813006 -1.2403207 2.9314303
0.047313258 -0.027277367 4.7440929
1.9245434 -0.54973203 12.723953
3.5731599 -0.98406017 11.895386
3.4577184 -0.94321871 8.5030823
4.4591093 -1.2097539 8.5344687
3.0296719 -0.8185336 4.6818428
0.28040299 -0.094450474 4.9561453
2.5472398 -0.75794917 24.742985
2.9826396 -0.8331449 11.960538
3.785506 -1.0439931 10.732771
3.9280438 -1.0752295 8.4845324
4.4278412 -1.2062607 7.5767183
4.1433649 -1.1256634 5.7601047
3.0933487 -0.8380751 3.5525999
3.2696676 -0.87544525 3.4060662
5.5156856 -1.4737599 4.685832
4.5429616 -1.2130029 3.1674535
5.4587288 -1.4554925 3.0437834
5.2384052 -1.4104455 4.9129195
4.7893472 -1.2868568 2.999826
0.047265578 -0.027359901 4.7440929
1.9235809 -0.55309016 12.723953
3.6176414 -1.0024287 12.048089
3.4545138 -0.94752872 8.4984798
4.4273791 -1.2077843 8.4774113
3.3572702 -0.91145164 5.1819296
0.28032047 -0.094695136 4.9561453
2.5496418 -0.76108706 24.772816
2.9747951 -0.83319253 11.931501
3.8446522 -1.0631958 10.901711
3.9505737 -1.083621 8.5340462
4.432241 -1.2099526 7.5852504
5.0355949 -1.3699645 6.9850421
3.096328 -0.84004253 3.5562751
3.2715778 -0.88207895 3.4095707
4.3894811 -1.1802272 3.7474334
4.5087452 -1.2114569 3.1455219
5.4652491 -1.4654076 3.0484211
5.3164711 -1.4364425 4.9860806
4.3812723 -1.181303 3.3876665
5.0007281 -1.3473982 3.1290183
0.047134355 -0.027499257 4.7390928
1.9216386 -0.55980128 12.723953
3.6139429 -1.0156813 12.048089
4.4619465 -1.235642 8.5520258
3.4132645 -0.94138229 5.2728548
4.0038009 -1.10202 5.0484881
0.2799046 -0.095917359 4.9561453
2.5488472 -0.7729786 24.797672
2.9697745 -0.84633851 11.926662
3.8630443 -1.0871769 10.96741
3.9118772 -1.0928528 8.4620266
4.4239769 -1.2301267 7.5809841
5.1101418 -1.4171038 7.0967622
3.0954528 -0.8560676 3.5599499
3.2615991 -0.89161265 3.4025614
4.3888812 -1.197332 3.750572
4.5042744 -1.2279742 3.1455219
5.342555 -1.4685329 5.0160098
4.3174 -1.1851228 3.3435192
4.9613047 -1.3609536 3.1087527
0.047038075 -0.027663616 4.7390928
1.9196728 -0.56650567 12.723953
3.6003263 -1.0254276 12.014686
4.5014172 -1.263508 8.6354179
3.5942447 -1.0048143 5.5538955
4.0184536 -1.1211576 5.0715127
0.27956808 -0.096893825 4.9561453
2.547662 -0.78234071 24.812586
2.9812937 -0.86088526 11.984735
3.8409712 -1.0954481 10.915789
3.9101334 -1.1070944 8.4665279
4.4196563 -1.2455617 7.5809841
5.0819573 -1.4284097 7.0648422
3.0957103 -0.86778265 3.5636251
3.2481565 -0.90013498 3.3920479
5.3638101 -1.483447 4.5697088
4.556385 -1.2592845 3.1839023
5.9452481 -1.6565453 5.5780196
4.3327074 -1.2056041 3.3582351
4.8776121 -1.35632 3.0606225
0.046941224 -0.027827641 4.7390928
1.9176836 -0.57320309 12.723953
3.5866857 -1.035091 11.981282
2.5458376 -0.72415209 4.9178681
3.5934227 -1.0181215 5.5580282
4.051527 -1.1456442 5.1175632
0.27922815 -0.097869113 4.9561453
2.5525506 -0.79360402 24.887159
2.9794769 -0.87163967 11.989575
3.8371241 -1.1088489 10.915789
3.9229851 -1.1255399 8.5025377
4.4228048 -1.2631305 7.5937824
3.0861404 -0.87673044 3.5562751
3.234695 -0.90857446 3.3815343
5.4485474 -1.5273765 4.6450319
4.5439091 -1.2729255 3.1784194
6.0292602 -1.7026566 5.6611571
0.046843804 -0.027991328 4.7390928
1.9156711 -0.57989359 12.723953
3.518579 -1.0287519 11.766542
3.4499819 -0.99958867 8.521492
2.5478969 -0.73436105 4.9266462
3.5276375 -1.012797 5.4629703
4.0351782 -1.1562477 5.1022129
0.27888483 -0.098843202 4.9561453
2.5573916 -0.80491114 24.961733
2.9860573 -0.88489228 12.028291
3.8034196 -1.1135077 10.831319
3.8500488 -1.1191723 8.3539982
4.4233794 -1.2800113 7.6023145
3.190064 -0.92070037 4.4713264
3.0960925 -0.8912493 3.5709758
5.3832765 -1.5293667 4.5948167
4.5555282 -1.2933472 3.1893852
5.8868718 -1.6846553 5.5347877
4.8022113 -1.372443 3.7202437
4.4700999 -1.2766867 2.8174374
0.046745811 -0.028154673 4.7390928
1.9136353 -0.586577 12.723953
3.456286 -1.0236456 11.570891
3.5214541 -1.0336368 8.7055922
2.54072 -0.74190754 4.9178681
0.27880955 -0.099914402 4.9611373
2.5545664 -0.81383318 24.961733
3.0106394 -0.90362269 12.139597
3.7912376 -1.1243238 10.807856
3.8335891 -1.1289145 8.3269901
3.1405566 -0.91829872 4.407486
3.1320171 -0.91344202 3.6150777
4.1054707 -1.1841588 4.278698
4.6260839 -1.3317151 3.9639871
4.5590219 -1.3115531 3.1948681
5.5582108 -1.6116112 5.2354932
4.8362164 -1.4004405 3.7496755
4.4821796 -1.2970759 2.82757
0.046647247 -0.028317675 4.7390928
1.911576 -0.59325325 12.723953
3.3797746 -1.0138279 11.327519
3.6582711 -1.0876849 9.0507822
2.5358181 -0.75009233 4.9134789
3.110194 -0.91649008 4.8347621
0.27845907 -0.10088702 4.9611373
2.5577977 -0.82470918 25.021391
3.0291142 -0.92070735 12.226707
3.7476246 -1.1256359 10.69523
3.8004198 -1.1335773 8.2639732
3.137332 -0.92925566 4.407486
3.1645727 -0.93493557 3.6555042
4.1115808 -1.2014832 4.2892118
4.6251435 -1.3489448 3.9671257
4.6025887 -1.3414999 3.2277656
5.3196945 -1.562602 5.0193357
4.7692413 -1.3991079 3.7025845
4.485898 -1.3151391 2.8326364
0.046548117 -0.02848033 4.7390928
1.9094936 -0.5999223 12.723953
3.3333678 -1.0126014 11.184361
3.7180545 -1.1196024 9.2072678
2.5308902 -0.75825202 4.9090896
3.0746183 -0.91768253 4.7851667
3.2303209 -0.9623276 4.1121368
0.2781052 -0.10185841 4.9611373
2.5533831 -0.83313626 25.006477
3.0571167 -0.94089037 12.352532
3.7453237 -1.1392128 10.699923
3.8422856 -1.1606869 8.3629999
2.9986434 -0.90184063 5.1920614
3.1254108 -0.93760371 4.3955159
3.2002642 -0.95763946 3.6996062
4.1142015 -1.2178527 4.2962208
4.4636288 -1.3187606 3.8353105
4.5738163 -1.3504535 3.2113171
5.256948 -1.5641247 4.9661279
4.7604542 -1.414596 3.6996417
4.5350018 -1.3467438 2.8655677
0.046448417 -0.028642641 4.7390928
1.9073879 -0.60658401 12.723953
3.4139893 -1.0501269 11.465908
3.635639 -1.1086386 9.0139618
2.5351036 -0.76916814 4.9222569
3.0148299 -0.91130948 4.6983747
3.2422853 -0.97822708 4.1313243
0.27774796 -0.10282855 4.9611373
2.5479283 -0.8412081 24.981617
3.1126158 -0.96988201 12.589664
3.8864543 -1.1969829 11.112885
3.844456 -1.1760025 8.3765039
2.995477 -0.91230232 5.1920614
3.0356252 -0.92222893 4.2758155
3.1871688 -0.96585494 3.6885808
4.0757651 -1.2219644 4.2611752
4.4664564 -1.3365655 3.8415871
4.5650682 -1.3652127 3.2085755
4.7167821 -1.4195553 3.6702099
4.604579 -1.3849151 2.911165
0.046348155 -0.0288046 4.7390928
1.9059985 -0.61347651 12.728892
3.4103029 -1.0620376 11.465908
3.631747 -1.1213226 9.0139618
2.5392711 -0.78012288 4.9354243
3.5820754 -1.0964478 5.5745597
3.2357855 -0.98860234 4.1274872
0.27711728 -0.10369536 4.9561453
2.5485156 -0.85127968 25.016418
3.1259935 -0.9860357 12.657415
3.8789577 -1.2095143 11.103499
3.883996 -1.2029409 8.4710283
2.9698446 -0.91583544 5.1536679
3.0093472 -0.92573148 4.2438951
4.0510001 -1.2299672 4.2401481
4.5362639 -1.3747262 3.9043562
4.520256 -1.3690189 3.1811607
5.7208695 -1.7457273 5.4084191
4.6924663 -1.4301194 3.655494
4.6904392 -1.4286125 2.9668949
0.046247326 -0.028966213 4.7390928
1.9038453 -0.62012595 12.728892
3.3951857 -1.0703443 11.427732
2.5411065 -0.79040468 4.9442024
3.640048 -1.1281056 5.6696177
3.2353768 -1.0008385 4.1313243
0.27648395 -0.10455901 4.9511538
2.5445187 -0.85982913 25.006477
3.130914 -0.99961799 12.691292
3.7792659 -1.1929164 10.831319
3.8880825 -1.2190968 8.4890337
3.0089512 -0.93941075 5.2261887
2.9744511 -0.92637366 4.2000051
3.9314463 -1.2214478 4.5412188
4.0262294 -1.2378123 4.219121
4.5351586 -1.3916943 3.9074948
4.4874659 -1.376207 3.1619706
5.7183084 -1.7667886 5.4117446
4.7531047 -1.4667524 3.7055278
4.7183795 -1.4551399 2.9871604
0.046145931 -0.029127469 4.7390928
1.9024071 -0.62701112 12.733831
3.3947279 -1.07415 8.4478512
2.5497537 -0.80286694 4.9661479
3.5367444 -1.1096344 5.5166988
3.2104526 -1.0054202 4.1044621
0.27584797 -0.10541951 4.9461617
2.5354493 -0.86663598 24.946817
3.110661 -1.0051292 12.62354
3.7076831 -1.1845665 10.638916
3.8941782 -1.2359544 8.5115395
2.9782991 -0.94126242 5.1792636
2.9711993 -0.93675077 4.2000051
3.9368606 -1.2382151 4.5522447
4.0252891 -1.2529188 4.2226253
4.530273 -1.4075165 3.9074948
4.4626684 -1.385663 3.1482632
5.6622167 -1.7711326 5.3651876
4.7479553 -1.483335 3.7055278
4.7132711 -1.4716014 2.9871604
0.046043977 -0.02928837 4.7390928
1.9002067 -0.63364804 12.733831
3.4913237 -1.1275128 11.776087
3.3835156 -1.0836096 8.4294415
2.5469358 -0.81176233 4.9661479
3.2008126 -1.0146834 4.096787
0.2754783 -0.10638175 4.9461617
2.5288823 -0.87426126 24.912016
3.1525321 -1.0308286 12.807438
3.7856233 -1.22405 10.873554
3.8836222 -1.2475425 8.4980364
2.9650595 -0.94847417 5.1622
2.9822643 -0.95169717 4.2199554
3.9809704 -1.2673767 4.6073718
4.0310955 -1.2701775 4.233139
4.5030546 -1.4163144 3.8886642
4.4099364 -1.3861854 3.1153655
4.0684247 -1.288193 3.8820145
4.7311873 -1.496243 3.6966984
4.7409883 -1.498438 3.0074258
0.045975793 -0.029475845 4.7440929
1.8972471 -0.6400286 12.728892
3.4816911 -1.1378379 11.756998
3.385288 -1.0972209 8.4432487
2.5372486 -0.81844187 4.9529805
3.2931581 -1.0585153 5.1529994
3.2979665 -1.0581669 4.2234249
0.27483672 -0.10723686 4.9411707
2.5212867 -0.88149929 24.867273
3.1501079 -1.0422217 12.812277
3.9371362 -1.2882432 11.319367
3.8150654 -1.2402259 8.3584986
2.8823311 -0.93311185 5.0256896
2.9760568 -0.96117532 4.2159653
3.9539344 -1.2739871 4.581646
4.0334325 -1.2864082 4.2401481
4.4535766 -1.4178547 3.8510025
4.3971019 -1.3990349 3.1098828
4.9028273 -1.5580701 2.7794404
4.0639033 -1.3023865 3.8820145
4.6874399 -1.5004262 3.6672666
4.7562585 -1.5215453 3.0200918
0.045872625 -0.02963615 4.7440929
1.8950015 -0.64664739 12.728892
3.3907194 -1.1120757 8.4662619
2.5298231 -0.82580703 4.9442024
3.294795 -1.0717452 5.1612649
3.3460777 -1.0865015 4.288662
0.27419248 -0.10808876 4.9361787
2.5161843 -0.88958389 24.847387
3.1488347 -1.0540094 12.821956
3.9522738 -1.3084875 11.37568
3.7548795 -1.2351676 8.2369661
2.8294885 -0.9269278 4.940371
3.0041893 -0.98185545 4.2598553
3.9591329 -1.2909341 4.5926714
4.0323114 -1.3015752 4.2436528
4.3967338 -1.4166796 3.8070643
4.408112 -1.4195019 3.1208487
4.901576 -1.5765311 2.7817593
4.0593319 -1.3165642 3.8820145
4.6052685 -1.4918654 3.6084034
4.7878284 -1.5500888 3.0428901
0.045803037 -0.029823262 4.7490926
1.8919983 -0.65300459 12.723953
3.3066258 -1.1062269 11.193905
3.3886707 -1.1245201 8.4708633
2.5223765 -0.83313024 4.9354243
3.1921351 -1.0506852 5.0083461
3.4518871 -1.1341956 4.4268126
0.27381352 -0.10904521 4.9361787
2.5140674 -0.89872056 24.85733
3.0629888 -1.0371732 12.488035
3.6927099 -1.2290167 8.1109324
2.7569201 -0.91382122 4.8209252
3.0207696 -0.998959 4.2877855
3.9546025 -1.3047462 4.5926714
4.0277433 -1.3156426 4.2436528
4.388061 -1.4308116 3.8039258
4.4110808 -1.4374716 3.1263313
4.90868 -1.5977443 2.7887156
4.0405211 -1.3260685 3.8687124
4.4233513 -1.4500127 3.4730182
4.7004576 -1.5399497 2.9922266
0.045698654 -0.029982964 4.7490926
1.8897073 -0.65960491 12.723953
3.3168831 -1.1225483 11.241624
2.519453 -0.84192991 4.9354243
3.1403911 -1.0458162 4.9339533
3.4387822 -1.1432043 4.4152999
0.27316374 -0.10989168 4.9311872
2.5033958 -0.90477186 24.782759
3.0522149 -1.0454143 12.459
3.7779701 -1.2801093 10.901711
3.7626696 -1.266909 8.2729759
2.711678 -0.90934169 4.748404
3.0401247 -1.0171463 4.319706
3.905004 -1.3035139 4.5412188
4.0231266 -1.3296942 4.2436528
4.3719511 -1.4424614 3.7945104
4.3941231 -1.4489321 3.1181071
4.0464983 -1.3436948 3.8786893
4.3568792 -1.445084 3.4259276
4.7932577 -1.5889016 3.0530229
0.045593716 -0.030142298 4.7490926
1.8844627 -0.66516227 12.704195
3.308708 -1.1326691 11.227308
2.0432847 -0.69388539 5.143239
2.4960794 -0.84381574 4.8959227
3.0860531 -1.0397005 4.8554268
3.4226186 -1.1511137 4.3999496
0.27251139 -0.11073493 4.9261951
2.5037267 -0.91478598 24.817558
3.0164793 -1.0449514 12.328335
3.7734787 -1.2932891 10.901711
3.7808917 -1.2877564 8.3224888
2.6220453 -0.88947541 4.5990963
2.9908884 -1.0122948 4.2558651
3.7912238 -1.2802575 4.4162631
4.0184603 -1.3437293 4.2436528
4.4001174 -1.4688059 3.8227565
4.4049048 -1.4695549 3.1290729
4.0453229 -1.3590004 3.8820145
4.3134885 -1.4474247 3.3964958
4.8408141 -1.6234428 3.0859542
0.045454364 -0.030273743 4.7440929
1.8865199 -0.6733039 12.733831
3.301913 -1.1432348 11.217764
2.0445454 -0.70228297 5.1524444
2.4817879 -0.84864855 4.8739772
3.0557697 -1.0413885 4.8140974
3.4671307 -1.1795725 4.46135
0.27212322 -0.1116855 4.9261951
2.5035183 -0.92462862 24.847387
2.9784119 -1.0434208 12.187992
3.7412231 -1.296844 10.821934
3.8340037 -1.3208011 8.4485226
3.0129938 -1.0315131 4.2917752
3.6808631 -1.2573192 4.2949829
4.0373926 -1.3657478 4.2681847
4.4318409 -1.4966097 3.854141
4.4869094 -1.5143396 3.1893852
4.0440893 -1.3743144 3.88534
4.3122373 -1.4637719 3.3994391
4.9126811 -1.6666446 3.1340847
0.045348417 -0.030432224 4.7440929
1.8826965 -0.67935735 12.723953
3.2894492 -1.1517935 11.189133
2.0291634 -0.70492715 5.1202264
2.4561765 -0.84947753 4.8300862
2.9217565 -1.0071117 4.6115828
3.4538994 -1.1885389 4.4498372
0.27199802 -0.11274616 4.9311872
2.5037713 -0.93466741 24.882189
2.9569795 -1.0475141 12.1154
3.7138748 -1.3019024 10.756235
3.6793017 -1.2818878 8.119935
3.1232698 -1.0814639 4.4513764
3.5322583 -1.2203413 4.1296005
4.0528455 -1.38676 4.2892118
4.3897567 -1.4994885 3.8227565
4.5013819 -1.5367476 3.2030926
5.326129 -1.8162502 3.0321896
4.0392675 -1.3884225 3.88534
4.2650495 -1.464377 3.3670645
4.9068336 -1.6837828 3.1340847
0.045241911 -0.030590335 4.7440929
1.8781239 -0.68512589 12.709135
3.2755594 -1.159781 11.155729
2.0285337 -0.71265358 5.1248288
2.4464145 -0.85567361 4.8169193
3.0245101 -1.0543591 4.7769008
3.4436753 -1.198481 4.4421625
0.27160278 -0.11369492 4.9311872
2.5029869 -0.94434273 24.907045
2.9331884 -1.0506227 12.033131
