# .PCD v0.7 - Point Cloud Data file format
VERSION 0.7
FIELDS x y z
SIZE 4 4 4
TYPE F F F
COUNT 1 1 1
WIDTH 1442
HEIGHT 1
VIEWPOINT 0 0 0 1 0 0 0
POINTS 1442
DATA ascii
-0.92211038 0.19828044 1.6129426
-0.89536244 0.1918859 1.2872872
-0.8830325 0.18861103 1.0571631
-0.87638879 0.18447699 0.95989293
-0.86006999 0.18058132 0.7910074
-0.84107077 0.1764434 0.64804614
-0.8468793 0.17736143 0.53947955
-0.84026802 0.17582881 0.43516198
-0.82674521 0.17285347 0.33820567
-0.82707733 0.17262687 0.25188279
-0.82365531 0.17191522 0.16848512
-0.86912316 0.18422014 0.872437
-0.85275245 0.18044625 0.71822
-0.83683664 0.17693041 0.58823985
-0.85373223 0.18004413 0.49080193
-0.83227777 0.1753726 0.38517112
-0.83250648 0.17527431 0.2959086
-0.8382048 0.17647675 0.21168561
-0.82108819 0.17272842 0.1275226
-0.10007279 0.057632282 11.733826
-1.6221392 0.37569073 10.585254
-1.310257 0.29697534 6.4825411
-0.77950621 0.17266221 2.5995615
-0.99149865 0.21715896 2.4507625
-0.94814819 0.20629618 1.8455126
-0.905496 0.19603759 1.4333454
-0.89790726 0.19391246 1.1764462
-0.54385382 0.15397897 9.6133633
-0.66918081 0.15074724 2.6785226
-0.90894836 0.20171279 2.586129
-0.97539258 0.21453497 2.1288188
-0.92141265 0.201498 1.6129426
-0.89468718 0.19501013 1.2872872
-0.88568157 0.19241212 1.0608382
-0.87573946 0.18753502 0.95989293
-0.85943443 0.18358241 0.7910074
-0.84044975 0.1793782 0.64804614
-0.84625506 0.18031651 0.53947955
-0.83964914 0.17876083 0.43516198
-0.82613683 0.1757383 0.33820567
-0.82646972 0.17551285 0.25188279
-0.82792145 0.17582379 0.1689322
-0.86847484 0.18725282 0.872437
-0.85211742 0.18342182 0.71822
-0.84042829 0.180757 0.59077305
-0.85309857 0.18302312 0.49080193
-0.83166051 0.17827673 0.38517112
-0.83188957 0.17817923 0.2959086
-0.83758372 0.17940155 0.21168561
-0.82048023 0.1755935 0.1275226
-0.09987101 0.057981245 11.733826
-1.6185489 0.38081646 10.570436
-1.3161578 0.30314812 6.516808
-0.77889878 0.17538214 2.5995615
-0.99264157 0.22104347 2.4553649
-0.94976074 0.21012212 1.8499017
-0.90755439 0.1998024 1.4374783
-0.89409435 0.19635782 1.1726087
-0.54331297 0.15587644 9.6133633
-0.66987574 0.15336305 2.683362
-0.90823871 0.20488438 2.586129
-0.97676218 0.21841367 2.1333199
-0.92070365 0.20471309 1.6129426
-0.89400101 0.19813199 1.2872872
-0.88500452 0.19550256 1.0608382
-0.87856406 0.19134989 0.9633975
-0.85878837 0.18658128 0.7910074
-0.84390467 0.18319803 0.65078765
-0.84129125 0.18233101 0.53716075
-0.83902001 0.18169066 0.43516198
-0.82551837 0.17862098 0.33820567
-0.82585204 0.1783967 0.25188279
-0.82730269 0.17871273 0.1689322
-0.86781591 0.19028322 0.872437
-0.85147196 0.18639514 0.71822
-0.83979225 0.18368955 0.59077305
-0.85245448 0.18599987 0.49080193
-0.83103317 0.18117867 0.38517112
-0.83126253 0.18108198 0.2959086
-0.83695239 0.18232416 0.21168561
-0.81986231 0.17845644 0.1275226
-0.099668011 0.058329508 11.733826
-1.6209882 0.38736758 10.595133
-1.3160831 0.30797267 6.5217032
-0.77828181 0.17809995 2.5995615
-0.99186397 0.22450709 2.4553649
-0.94902146 0.21343613 1.8499017
-0.90685141 0.20296915 1.4374783
-0.89340347 0.1994776 1.1726087
-0.5430426 0.15785307 9.6183548
-1.2868245 0.3223078 12.329141
-0.66933638 0.15570042 2.683362
-0.90751797 0.20805347 2.586129
-0.97811663 0.22230454 2.1378212
-0.92252725 0.20850085 1.6172085
-0.89330399 0.20125142 1.2872872
-0.88431668 0.19859062 1.0608382
-0.87789083 0.19441548 0.9633975
-0.85813183 0.18957788 0.7910074
-0.84326005 0.1861427 0.65078765
-0.84064966 0.18526655 0.53716075
-0.83838069 0.18461828 0.43516198
-0.82488978 0.18150149 0.33820567
-0.82522428 0.18127838 0.25188279
-0.82667387 0.18159945 0.1689322
-0.87079072 0.19412389 0.87576252
-0.85081607 0.18936619 0.71822
-0.8391459 0.18661985 0.59077305
-0.85180002 0.18897437 0.49080193
-0.83039564 0.18407843 0.38517112
-0.83062541 0.18398252 0.2959086
-0.83631086 0.18524455 0.21168561
-0.8241123 0.18239681 0.12772413
-0.099463791 0.058677059 11.733826
-1.6225777 0.3940402 10.614889
-1.317917 0.31350169 6.5363889
-0.77759224 0.18108702 2.5995615
-0.99099457 0.22831391 2.4553649
-0.9505294 0.21761319 1.8542906
-0.9060294 0.20660783 1.4374783
-0.89259553 0.20306233 1.1726087
-0.54234868 0.16022103 9.6183548
-1.2853487 0.32814389 12.329141
-0.66862291 0.15873615 2.683362
-0.90656453 0.2121695 2.586129
-0.97705817 0.22691132 2.1378212
-0.92153442 0.21284582 1.6172085
-0.89528197 0.20613505 1.2912773
-0.88333565 0.20290981 1.0608382
-0.87720686 0.19747873 0.9633975
-0.85743123 0.19272183 0.7910074
-0.84257215 0.18923214 0.65078765
-0.83996505 0.18834645 0.53716075
-0.83766568 0.18783605 0.43516198
-0.82886779 0.18571639 0.3396157
-0.82928354 0.18566282 0.25281543
-0.82590592 0.18506061 0.1689322
-0.86993539 0.19792157 0.87576252
-0.85392332 0.19397227 0.72116315
-0.84249413 0.1913809 0.59330624
-0.85090005 0.19298626 0.49080193
-0.82951903 0.1879895 0.38517112
-0.82971638 0.18803951 0.2959086
-0.83539563 0.18932931 0.21168561
-0.82317859 0.18656567 0.12772413
-0.099118777 0.059173021 11.728827
-1.6227545 0.40309289 10.629707
-1.318236 0.32087988 6.5461793
-0.77808529 0.18550238 2.6043334
-0.99168694 0.23394836 2.4599674
-0.94937694 0.22258714 1.8542906
-0.90493518 0.21134894 1.4374783
-0.89464164 0.20846072 1.1764462
-0.54177868 0.16314228 9.6233463
-1.2949594 0.33783346 12.438514
-0.6677826 0.16223486 2.683362
-0.90544122 0.21691334 2.586129
-0.97797447 0.23252781 2.1423223
-0.92294538 0.21826844 1.6214744
-0.89419043 0.2108199 1.2912773
-0.8822611 0.20753215 1.0608382
-0.8761608 0.20206903 0.9633975
-0.86020344 0.19808225 0.79414582
-0.84156978 0.19364123 0.65078765
-0.83896732 0.19274189 0.53716075
-0.8366707 0.19221947 0.43516198
-0.82788402 0.19005376 0.3396157
-0.82830006 0.19000238 0.25281543
-0.8249256 0.18938249 0.1689322
-0.86888719 0.20247383 0.87576252
-0.85289598 0.19844073 0.72116315
-0.84148049 0.19578955 0.59330624
-0.84987789 0.1974389 0.49080193
-0.82852328 0.19233026 0.38517112
-0.82872039 0.19238131 0.2959086
-0.83439285 0.19370082 0.21168561
-0.8221904 0.19087325 0.12772413
-0.098875292 0.059494499 11.723827
-1.6296965 0.41056132 10.684039
-1.3201301 0.32598236 6.5608654
-0.77749866 0.18794589 2.6043334
-0.99094707 0.23706266 2.4599674
-0.94867301 0.22556859 1.8542906
-0.90430409 0.21403299 1.4374783
-0.89401919 0.21111424 1.1764462
-0.54134965 0.16456009 9.6233463
-1.2941301 0.34099662 12.438514
-0.66738421 0.16386607 2.683362
-0.90490848 0.21912511 2.586129
-0.97744435 0.23474616 2.1423223
-0.92244774 0.22036196 1.6214744
-0.89664096 0.21354651 1.2952673
-0.88182455 0.20937949 1.0608382
-0.87545007 0.20512618 0.9633975
-0.85954183 0.20093371 0.79414582
-0.84092301 0.19643091 0.65078765
-0.83832353 0.19552293 0.53716075
-0.83606261 0.194847 0.43516198
-0.82728285 0.1926537 0.3396157
-0.83251727 0.19357169 0.25374803
-0.82924414 0.19281325 0.16937928
-0.86835414 0.20474787 0.87576252
-0.85237354 0.20067292 0.72116315
-0.8409996 0.19784509 0.59330624
-0.84942776 0.1993667 0.49080193
-0.82808483 0.19420964 0.38517112
-0.82831568 0.19411655 0.2959086
-0.83398533 0.19544794 0.21168561
-0.82182246 0.19245139 0.12772413
-0.098630756 0.059814997 11.718827
-1.6342754 0.41778815 10.723554
-1.3209593 0.33108386 6.5706553
-0.77683789 0.19065872 2.6043334
-0.9901135 0.24052027 2.4599674
-0.94787985 0.22887871 1.8542906
-0.90628743 0.21784617 1.4416113
-0.89327681 0.21423367 1.1764462
-0.54104775 0.16653419 9.6283379
-0.66558856 0.16589037 2.6785226
-0.90413809 0.22228248 2.586129
-0.97661901 0.23815665 2.1423223
-0.92167288 0.22358057 1.6214744
-0.89589012 0.21667507 1.2952673
-0.88108826 0.21245636 1.0608382
-0.87472874 0.20818083 0.9633975
-0.85883522 0.20393284 0.79414582
-0.84430069 0.20033057 0.65352911
-0.8419463 0.19946937 0.53947955
-0.8353774 0.19776422 0.43516198
-0.82660532 0.19554028 0.3396157
-0.83183652 0.19647653 0.25374803
-0.82856601 0.19570668 0.16937928
-0.86763412 0.20777774 0.87576252
-0.85559899 0.20458719 0.72410631
-0.83611107 0.19977756 0.59077305
-0.84872663 0.20233054 0.49080193
-0.82740182 0.197099 0.38517112
-0.82763308 0.19700673 0.2959086
-0.83329803 0.19835791 0.21168561
-0.81628537 0.1941628 0.1275226
-0.098421358 0.060158912 11.718827
-1.6410799 0.42563748 10.777884
-1.3217691 0.33619517 6.5804462
-0.77616763 0.19336924 2.6043334
-0.98926789 0.24397495 2.4599674
-0.94940126 0.23275653 1.8586799
-0.90552157 0.22100838 1.4416113
-0.89252359 0.21735048 1.1764462
-0.54046315 0.16842179 9.6283379
-1.325672 0.35923538 12.766633
-0.66500539 0.1682127 2.6785226
-0.90335667 0.22543715 2.586129
-0.97578174 0.24156424 2.1423223
-0.92088681 0.22679645 1.6214744
-0.89512831 0.21980099 1.2952673
-0.88034129 0.21553063 1.0608382
-0.87399673 0.21123293 0.9633975
-0.85811812 0.20692949 0.79414582
-0.84359622 0.20327652 0.65352911
-0.84555185 0.20344347 0.54179835
-0.83468199 0.20067902 0.43516198
-0.82125342 0.19730382 0.33820567
-0.83114558 0.19937898 0.25374803
-0.82787782 0.19859771 0.16937928
-0.86690354 0.21080507 0.87576252
-0.85487962 0.20757255 0.72410631
-0.83540863 0.20269491 0.59077305
-0.84801519 0.20529191 0.49080193
-0.82670879 0.19998597 0.38517112
-0.8269403 0.1998945 0.2959086
-0.83260053 0.20126545 0.21168561
-0.8156026 0.19701099 0.1275226
-0.098210767 0.060502104 11.718827
-1.6425898 0.43215463 10.797643
-1.3225592 0.34131613 6.5902362
-0.77404088 0.19571124 2.5995615
-0.98841023 0.24742664 2.4599674
-0.94858301 0.23606913 1.8586799
-0.90474457 0.2241679 1.4416113
-0.89175946 0.22046465 1.1764462
-0.53987193 0.17030734 9.6283379
-1.3367451 0.36725369 12.885949
-0.66441417 0.17053297 2.6785226
-0.90256423 0.22858909 2.586129
-0.97493255 0.24496886 2.1423223
-0.92008954 0.23000956 1.6214744
-0.8943556 0.22292425 1.2952673
-0.8795836 0.2186023 1.0608382
-0.87325406 0.21428245 0.9633975
-0.85739058 0.20992362 0.79414582
-0.84288156 0.20621997 0.65352911
-0.84483653 0.20639376 0.54179835
-0.83397639 0.20359138 0.43516198
-0.82055968 0.20016932 0.33820567
-0.83044457 0.202279 0.25374803
-0.82717955 0.20148633 0.16937928
-0.86616242 0.21382986 0.87576252
-0.85414982 0.21055536 0.72410631
-0.83469599 0.2056098 0.59077305
-0.84729344 0.20825079 0.49080193
-0.8260057 0.2028705 0.38517112
-0.8262375 0.20277986 0.2959086
-0.83189291 0.20417054 0.21168561
-0.81490993 0.19985677 0.1275226
-0.098062642 0.060741894 11.718827
-1.6370234 0.43496898 10.768006
-1.323692 0.3450608 6.6000271
-0.77359486 0.19746697 2.5995615
-0.98974037 0.25014758 2.46457
-0.94804496 0.23822078 1.8586799
-0.90427309 0.2260623 1.4416113
-0.89129573 0.22233185 1.1764462
-0.53926897 0.17125562 9.6233463
-1.3360376 0.36981937 12.885949
-0.66408557 0.17180824 2.6785226
-0.90216386 0.23016402 2.586129
-0.97450352 0.24667008 2.1423223
-0.91968668 0.23161507 1.6214744
-0.89692694 0.22506239 1.2992573
-0.87923914 0.21998367 1.0608382
-0.87272787 0.21641557 0.9633975
-0.85691208 0.21186844 0.79414582
-0.84241146 0.20813188 0.65352911
-0.84866691 0.20937125 0.54411715
-0.83804947 0.20644656 0.43703499
-0.82013863 0.20188746 0.33820567
-0.82998347 0.20416272 0.25374803
-0.82675576 0.20321834 0.16937928
-0.86575031 0.21549237 0.87576252
-0.85378104 0.21204582 0.72410631
-0.83433592 0.20706631 0.59077305
-0.84689212 0.2098771 0.49080193
-0.82565033 0.20431185 0.38517112
-0.82588238 0.20422159 0.2959086
-0.82672805 0.20443337 0.21099493
-0.81944525 0.20233421 0.12772413
-0.097785987 0.061186261 11.718827
-1.6372055 0.44328797 10.782825
-1.323035 0.35155627 6.6049218
-0.77262062 0.2012451 2.5995615
-0.9885062 0.25498137 2.46457
-0.94686943 0.24285094 1.8586799
-0.90307707 0.23079392 1.4416113
-0.89011937 0.2269956 1.1764462
-0.53830409 0.17426477 9.6233463
-0.66308498 0.17563024 2.6785226
-0.90078223 0.23551349 2.586129
-0.97302258 0.2524485 2.1423223
-0.9182961 0.23706849 1.6214744
-0.89553535 0.23053716 1.2992573
-0.87783962 0.22550371 1.0608382
-0.87519425 0.22124787 0.96690202
-0.85590416 0.21590418 0.79414582
-0.84142137 0.21209933 0.65352911
-0.84333795 0.21243395 0.54179835
-0.83699381 0.21068564 0.43703499
-0.81910634 0.20603594 0.33820567
-0.82417542 0.20716347 0.25281543
-0.82568038 0.20754442 0.16937928
-0.86453331 0.22032425 0.87576252
-0.85254562 0.2169597 0.72410631
-0.83730727 0.21293087 0.59330624
-0.84566927 0.21475133 0.49080193
-0.82438689 0.20935161 0.38517112
-0.8293308 0.21045843 0.29708093
-0.82546377 0.20947972 0.21099493
-0.81815779 0.20747891 0.12772413
-0.097571813 0.061527226 11.718827
-1.6454673 0.45138863 10.847035
-1.3238283 0.35647151 6.6147127
-0.77194899 0.2038061 2.5995615
-0.98954517 0.25875241 2.4691725
-0.94605893 0.24598956 1.8586799
-0.90234751 0.23362987 1.4416113
-0.88940185 0.22979087 1.1764462
-0.5375104 0.17577097 9.6183548
-0.66380608 0.17780676 2.683362
-0.90012097 0.238028 2.586129
-0.97441941 0.25571752 2.1468236
-0.92015392 0.24029112 1.6257404
-0.8948881 0.23303707 1.2992573
-0.88052756 0.2286534 1.0645134
-0.87441665 0.22430152 0.96690202
-0.85514528 0.21889053 0.79414582
-0.84067583 0.21503514 0.65352911
-0.8426289 0.21522938 0.54179835
-0.83629054 0.21346006 0.43703499
-0.82306677 0.20993675 0.3396157
-0.82352054 0.20975167 0.25281543
-0.82502431 0.21013734 0.16937928
-0.86387581 0.22288841 0.87576252
-0.85189813 0.21948829 0.72410631
-0.83667177 0.21541427 0.59330624
-0.84946191 0.21824148 0.49289995
-0.82840979 0.21268348 0.38681462
-0.82877696 0.2126289 0.29708093
-0.82491255 0.21164006 0.21099493
-0.82245123 0.21086088 0.12792566
-0.097392194 0.061892476 11.723827
-1.6334016 0.45421347 10.777884
-1.3235582 0.36135873 6.6196079
-0.7712329 0.20649947 2.5995615
-0.9886359 0.26220495 2.4691725
-0.94519448 0.24929041 1.8586799
-0.90152645 0.23677824 1.4416113
-0.88859433 0.23289405 1.1764462
-0.53689361 0.17764615 9.6183548
-0.66318136 0.18012281 2.683362
-0.89928466 0.24116857 2.586129
-0.97352082 0.25911731 2.1468236
-0.9193095 0.24350157 1.6257404
-0.89406919 0.23615938 1.2992573
-0.87972403 0.23172562 1.0645134
-0.87362838 0.22735243 0.96690202
-0.85437602 0.22187422 0.79414582
-0.83992004 0.21796833 0.65352911
-0.84187245 0.21816941 0.54179835
-0.83554035 0.21637794 0.43703499
-0.82232893 0.2128085 0.3396157
-0.82278335 0.212625 0.25281543
-0.82428575 0.21301591 0.16937928
-0.86670452 0.22684811 0.87908798
-0.85112673 0.22246064 0.72410631
-0.84008563 0.21942303 0.59583938
-0.84869498 0.22120534 0.49289995
-0.82766235 0.21557389 0.38681462
-0.82802969 0.21552056 0.29708093
-0.82416874 0.21451823 0.21099493
-0.82171017 0.21373048 0.12792566
-0.097175553 0.062232062 11.723827
-1.6318063 0.45991233 10.777884
-1.3232701 0.36624837 6.6245031
-0.7705074 0.20919032 2.5995615
-0.98960125 0.26616201 2.4737751
-0.94663209 0.25320727 1.8630688
-0.90341365 0.24064824 1.4457443
-0.88777596 0.23599443 1.1764462
-0.5362702 0.17951918 9.6183548
-0.66376024 0.18277062 2.6882014
-0.89843732 0.24430619 2.586129
-0.97261041 0.26251394 2.1468236
-0.92097259 0.24738584 1.6300063
-0.89323944 0.23927884 1.2992573
-0.87890977 0.234795 1.0645134
-0.87282944 0.23040059 0.96690202
-0.85359633 0.2248552 0.79414582
-0.83915412 0.22089887 0.65352911
-0.84110576 0.22110675 0.54179835
-0.83926368 0.22047119 0.43890804
-0.82158113 0.21567768 0.3396157
-0.82203615 0.21549575 0.25281543
-0.82353711 0.21589191 0.16937928
-0.86590737 0.22987209 0.87908798
-0.85034508 0.22543027 0.72410631
-0.83931452 0.22235411 0.59583938
-0.84791762 0.2241665 0.49289995
-0.82690477 0.21846165 0.38681462
-0.82727236 0.21840963 0.29708093
-0.82341492 0.21739383 0.21099493
-0.82095909 0.21659748 0.12792566
-0.096957728 0.062570892 11.723827
-1.6242142 0.46389741 10.738371
-1.3219836 0.37086523 6.6245031
-0.76977247 0.2118786 2.5995615
-0.99055088 0.27012891 2.4783776
-0.94574249 0.25651011 1.8630688
-0.9025681 0.24380027 1.4457443
-0.89004153 0.23992634 1.1802837
-0.5356403 0.18139002 9.6183548
-1.4002858 0.41646314 13.58196
-0.66432887 0.18542472 2.6930408
-0.89757907 0.24744084 2.586129
-0.97168821 0.26590738 2.1468236
-0.92010343 0.25059912 1.6300063
-0.89239877 0.24239537 1.2992573
-0.87808484 0.23786153 1.0645134
-0.87201983 0.23344593 0.96690202
-0.85280621 0.22783342 0.79414582
-0.84241784 0.22490543 0.65627056
-0.84032887 0.2240414 0.54179835
-0.83848906 0.22339943 0.43890804
-0.82082319 0.21854423 0.3396157
-0.8260262 0.21962617 0.25374803
-0.82277852 0.21876529 0.16937928
-0.86509967 0.23289327 0.87908798
-0.85345638 0.22944669 0.72704947
-0.84269643 0.22640117 0.59837258
-0.84712994 0.2271249 0.49289995
-0.82613719 0.22134677 0.38681462
-0.82650489 0.22129601 0.29708093
-0.82265109 0.22026676 0.21099493
-0.82019806 0.21946184 0.12792566
-0.096703246 0.062883541 11.718827
-1.6166142 0.46783519 10.698856
-1.3226396 0.37603471 6.6342936
-0.76902819 0.21456431 2.5995615
-0.99148494 0.27410573 2.4829803
-0.94715059 0.26044503 1.867458
-0.90442562 0.24769284 1.4498771
-0.8891986 0.2430317 1.1802837
-0.53527683 0.18335268 9.6233463
-1.4003546 0.42181021 13.596874
-0.66488701 0.188085 2.6978805
-0.89670986 0.25057247 2.586129
-0.97075409 0.2692976 2.1468236
-0.91922307 0.25380936 1.6300063
-0.89154714 0.24550892 1.2992573
-0.87724924 0.24092519 1.0645134
-0.87119967 0.23648842 0.96690202
-0.85576266 0.23182677 0.79728431
-0.84162766 0.22784466 0.65627056
-0.83954167 0.22697335 0.54179835
-0.83770412 0.22632493 0.43890804
-0.82005537 0.22140808 0.3396157
-0.82525456 0.22250819 0.25374803
-0.82200992 0.22163598 0.16937928
-0.86428148 0.23591161 0.87908798
-0.85265028 0.23242444 0.72704947
-0.84190106 0.22934133 0.59837258
-0.84633201 0.23008056 0.49289995
-0.82535952 0.22422917 0.38681462
-0.83041823 0.22545329 0.29825324
-0.82187718 0.22313701 0.21099493
-0.81942701 0.22232354 0.12792566
-0.096483156 0.063220717 11.718827
-1.6127347 0.47281918 10.684039
-1.3193623 0.38008526 6.6245031
-0.76827449 0.21724743 2.5995615
-0.99240315 0.27809229 2.4875827
-0.94623572 0.2637496 1.867458
-0.90355551 0.25084838 1.4498771
-0.88834482 0.2461341 1.1802837
-0.53517878 0.18541001 9.6333294
-1.4085603 0.42965358 13.691333
-0.6666429 0.19109809 2.7075593
-0.89582974 0.25370103 2.586129
-0.97190374 0.27327397 2.1513247
-0.9183315 0.25701651 1.6300063
-0.89068478 0.24861951 1.2992573
-0.87640291 0.24398589 1.0645134
-0.8703689 0.23952803 0.96690202
-0.85494816 0.23481254 0.79728431
-0.84082717 0.23078108 0.65627056
-0.84301645 0.23107366 0.54411715
-0.83690894 0.22924769 0.43890804
-0.81927752 0.22426926 0.3396157
-0.82921124 0.2266829 0.25468066
-0.82123125 0.22450399 0.16937928
-0.86345273 0.23892708 0.87908798
-0.85572964 0.23647608 0.72999263
-0.84109539 0.2322787 0.59837258
-0.84552372 0.2330334 0.49289995
-0.82457179 0.22710884 0.38681462
-0.8296262 0.22835061 0.29825324
-0.82109332 0.22600453 0.21099493
-0.81382889 0.22385751 0.12772413
-0.096261881 0.063557126 11.718827
-1.6051159 0.47667512 10.644525
-1.3141178 0.38354662 6.6049218
-0.76751149 0.21992786 2.5995615
-0.99518502 0.28262258 2.4967875
-0.94530928 0.26705095 1.867458
-0.90538311 0.25476325 1.4540101
-0.89056605 0.25010031 1.1841213
-0.53507286 0.18746887 9.6433125
-1.4141818 0.43677208 13.760934
-0.66717875 0.19377483 2.7123985
-0.89493871 0.25682652 2.586129
-0.97094393 0.27666488 2.1513247
-0.91742873 0.26022053 1.6300063
-0.88981146 0.25172707 1.2992573
-0.87554586 0.24704362 1.0645134
-0.86952746 0.24256474 0.96690202
-0.85412335 0.23779544 0.79728431
-0.8359881 0.23259376 0.65352911
-0.84220475 0.23401491 0.54411715
-0.84057057 0.23340812 0.44078106
-0.81848967 0.22712773 0.3396157
-0.82841486 0.22957601 0.25468066
-0.82044256 0.22736925 0.16937928
-0.8626135 0.24193963 0.87908798
-0.85489899 0.23946171 0.72999263
-0.83612818 0.23405111 0.59583938
-0.84907627 0.23720469 0.49499801
-0.82377398 0.22998574 0.38681462
-0.82882404 0.23124518 0.29825324
-0.82029939 0.22886932 0.21099493
-0.81304258 0.22669694 0.12772413
-0.096039444 0.063892752 11.718827
-1.6160907 0.48608193 10.728492
-1.3108182 0.38755372 6.5951319
-0.76673913 0.22260566 2.5995615
-0.99606985 0.28663516 2.5013902
-0.94437134 0.27034909 1.867458
-0.90448833 0.25792208 1.4540101
-0.8896876 0.25320745 1.1841213
-0.74435836 0.26413414 13.496873
-1.426384 0.44600496 13.895165
-0.66770405 0.19645767 2.7172382
-0.89403677 0.25994888 2.586129
-0.97206366 0.28065649 2.1558261
-0.91651481 0.26342136 1.6300063
-0.88892734 0.25483155 1.2992573
-0.87467819 0.25009832 1.0645134
-0.86867547 0.24559847 0.96690202
-0.85703403 0.24183261 0.80042273
-0.8351711 0.2355105 0.65352911
-0.84138274 0.23695333 0.54411715
-0.83975065 0.23634082 0.44078106
-0.81769186 0.2299834 0.3396157
-0.82760847 0.23246633 0.25468066
-0.81964391 0.23023175 0.16937928
-0.86176366 0.24494924 0.87908798
-0.85405791 0.24244441 0.72999263
-0.83530611 0.23696832 0.59583938
-0.84824306 0.24016708 0.49499801
-0.82296616 0.23285986 0.38681462
-0.82801181 0.23413688 0.29825324
-0.82426071 0.23307879 0.21168561
-0.81224626 0.2295336 0.12772413
-0.09581583 0.064227603 11.718827
-1.6322222 0.4971568 10.847035
-1.3026299 0.39008123 6.5608654
-0.76595742 0.22528072 2.5995615
-0.99506325 0.29011035 2.5013902
-0.9434219 0.27364388 1.867458
-0.90358251 0.26107776 1.4540101
-0.88879836 0.25631148 1.1841213
-0.74180216 0.2661438 13.466923
-1.4354898 0.45436227 13.999566
-0.66942328 0.19950582 2.726917
-0.89146864 0.26258025 2.5814362
-0.97316748 0.28465927 2.1603272
-0.91809374 0.26734835 1.6342722
-0.88803244 0.25793296 1.2992573
-0.87705606 0.25409356 1.0681885
-0.87124109 0.2496116 0.97040659
-0.85618466 0.24482274 0.80042273
-0.83434391 0.23842433 0.65352911
-0.84481019 0.24110469 0.54643595
-0.83892059 0.23927067 0.44078106
-0.82149738 0.23415127 0.34102574
-0.82679194 0.2353538 0.25468066
-0.81883526 0.23309143 0.16937928
-0.86090344 0.24795587 0.87908798
-0.8532064 0.24542412 0.72999263
-0.83447385 0.23988262 0.59583938
-0.84739959 0.24312653 0.49499801
-0.82214832 0.23573111 0.38681462
-0.82718945 0.23702577 0.29825324
-0.82344204 0.2359546 0.21168561
-0.81144011 0.23236746 0.12772413
-0.095591053 0.064561673 11.718827
-1.6572051 0.51109946 11.024848
-1.3041834 0.39551285 6.5755506
-0.7651664 0.22795302 2.5995615
-0.99404454 0.29358202 2.5013902
-0.94246095 0.2769354 1.867458
-0.90266562 0.26423025 1.4540101
-0.88789827 0.25941238 1.1841213
-0.74303883 0.26952186 13.506856
-1.433895 0.45937032 13.999566
-0.66992605 0.20220484 2.7317562
-0.89054662 0.26569045 2.5814362
-0.97216785 0.28805453 2.1603272
-0.91715491 0.27055147 1.6342722
-0.89001733 0.26188195 1.3032473
-0.87616372 0.25715351 1.0681885
-0.87036449 0.25265127 0.97040659
-0.85906339 0.2488932 0.80356121
-0.83752298 0.24249838 0.65627056
-0.84396344 0.24405216 0.54643595
-0.83808029 0.24219759 0.44078106
-0.82067502 0.23701741 0.34102574
-0.8259654 0.23823839 0.25468066
-0.81801665 0.23594828 0.16937928
-0.86361682 0.25200552 0.88241351
-0.85234451 0.24840088 0.72999263
-0.8336314 0.24279404 0.59583938
-0.84654576 0.24608301 0.49499801
-0.82132047 0.23859954 0.38681462
-0.82635707 0.23991175 0.29825324
-0.82261342 0.23882751 0.21168561
-0.81062406 0.23519848 0.12772413
-0.095365107 0.064894952 11.718827
-1.650961 0.51549083 10.995213
-1.2989016 0.39886665 6.5559697
-0.76436603 0.23062256 2.5995615
-0.99488527 0.29761016 2.5059927
-0.9414885 0.28022349 1.867458
-0.90173781 0.26737952 1.4540101
-0.88698733 0.26251018 1.1841213
-0.73694605 0.270219 13.412015
-1.439381 0.46667638 14.069167
-0.67041814 0.20490979 2.7365959
-0.88961375 0.26879746 2.5814362
-0.97115648 0.29144627 2.1603272
-0.91870373 0.27449811 1.6385381
-0.88909775 0.26498708 1.3032473
-0.87526071 0.26021031 1.0681885
-0.86947727 0.25568789 0.97040659
-0.85818928 0.25189036 0.80356121
-0.83667147 0.24542041 0.65627056
-0.84310639 0.24699666 0.54643595
-0.84167892 0.24642427 0.44265413
-0.8198427 0.23988064 0.34102574
-0.82041371 0.23974222 0.25374803
-0.82196808 0.24019912 0.16982636
-0.86273193 0.25501859 0.88241351
-0.8514722 0.25137463 0.72999263
-0.83277881 0.24570248 0.59583938
-0.84568161 0.24903652 0.49499801
-0.82501262 0.24279828 0.38845813
-0.82551461 0.24279483 0.29825324
-0.82177478 0.24169752 0.21168561
-0.81459129 0.23943555 0.12792566
-0.095137998 0.065227449 11.718827
-1.6506333 0.52171928 11.005092
-1.3004181 0.40430558 6.5706553
-0.76355636 0.2332893 2.5995615
-0.9938404 0.30108115 2.5059927
-0.94050461 0.28350821 1.867458
-0.90079898 0.27052557 1.4540101
-0.88606554 0.26560473 1.1841213
-0.73572779 0.2726891 13.407023
-1.4448335 0.47402635 14.138768
-0.66969877 0.20724873 2.7365959
-0.88867009 0.2719011 2.5814362
-0.97221607 0.2954677 2.1648283
-0.92023611 0.27845886 1.642804
-0.88816732 0.268089 1.3032473
-0.87434715 0.26326394 1.0681885
-0.87199724 0.25973961 0.97391111
-0.85730481 0.25488448 0.80356121
-0.83580965 0.24833943 0.65627056
-0.83799237 0.24867778 0.54411715
-0.84081364 0.24936078 0.44265413
-0.81900036 0.24274097 0.34102574
-0.81957185 0.24260455 0.25374803
-0.82112461 0.24306688 0.16982636
-0.86183649 0.25802854 0.88241351
-0.85058957 0.25434527 0.72999263
-0.8360464 0.24984235 0.59837258
-0.84480715 0.25198698 0.49499801
-0.8241601 0.24567662 0.38845813
-0.82466203 0.24567491 0.29825324
-0.82092601 0.24456456 0.21168561
-0.81375051 0.24227755 0.12792566
-0.095024012 0.065393396 11.718827
-1.6549032 0.52624846 11.039666
-1.3133862 0.41060343 6.6391888
-0.76318896 0.23448841 2.5995615
-0.99341899 0.30246854 2.5059927
-0.94239986 0.28551573 1.8718469
-0.90046781 0.27162591 1.4540101
-0.8857404 0.26668707 1.1841213
-0.73359609 0.27262464 13.372081
-1.4378374 0.47311917 14.074139
-0.67075431 0.20808896 2.7414351
-0.88848001 0.27252147 2.5814362
-0.97206128 0.2959767 2.1648283
-0.9200902 0.27894065 1.642804
-0.89095807 0.26927096 1.3072374
-0.87425518 0.26356915 1.0681885
-0.87154257 0.26126114 0.97391111
-0.85690337 0.2562308 0.80356121
-0.83541852 0.24965201 0.65627056
-0.83764428 0.24984761 0.54411715
-0.84046459 0.25053453 0.44265413
-0.81870317 0.24374138 0.34102574
-0.81456631 0.24220558 0.25281543
-0.82082701 0.24406989 0.16982636
-0.86161095 0.25878054 0.88241351
-0.85041177 0.25493902 0.72999263
-0.83587176 0.25042596 0.59837258
-0.84463102 0.25257671 0.49499801
-0.828556 0.24745956 0.39010164
-0.82453328 0.24610667 0.29825324
-0.8208406 0.24485111 0.21168561
-0.81366593 0.24256158 0.12792566
-0.094680317 0.065890044 11.718827
-1.6446402 0.53279871 10.990273
-1.3130127 0.41855115 6.6489792
-0.76182574 0.23888016 2.5995615
-0.99347216 0.30893856 2.5105953
-0.94068897 0.29110298 1.8718469
-0.90143228 0.27810809 1.4581431
-0.88404727 0.27224705 1.1841213
-0.73032612 0.2772254 13.347123
-1.4369406 0.4842478 14.098996
-0.66921097 0.21300021 2.7414351
-0.88645852 0.27902699 2.5814362
-0.96975964 0.30343279 2.1648283
-0.92041093 0.28677416 1.6470701
-0.88881576 0.27626014 1.3072374
-0.87211096 0.27057958 1.0681885
-0.87016273 0.26582089 0.97391111
-0.85545897 0.26101264 0.80356121
-0.83801073 0.2555337 0.65901202
-0.83619142 0.25466791 0.54411715
-0.83452833 0.25416672 0.44078106
-0.81719899 0.24873798 0.34102574
-0.81302845 0.24731883 0.25281543
-0.81923378 0.24936542 0.16982636
-0.8633517 0.26588848 0.88573903
-0.84856576 0.26101789 0.72999263
-0.83401358 0.25654644 0.59837258
-0.84271169 0.25890842 0.49499801
-0.82663125 0.25381505 0.39010164
-0.82257497 0.25257489 0.29825324
-0.81884843 0.25143328 0.21168561
-0.81642461 0.25069439 0.12812719
-0.094449736 0.066220134 11.718827
-1.6347425 0.53558707 10.935941
-1.3116175 0.42290297 6.6489792
-0.7610715 0.2412723 2.5995615
-0.99622387 0.31323043 2.5198004
-0.9397698 0.2940568 1.8718469
-0.90060318 0.28078148 1.4581431
-0.88629603 0.27582148 1.1879587
-0.72878933 0.27882594 13.332148
-1.4347436 0.48741424 14.089053
-0.66868854 0.21463478 2.7414351
-0.88577402 0.28119215 2.5814362
-0.96906871 0.30563232 2.1648283
-0.91975784 0.28886172 1.6470701
-0.89106202 0.27917716 1.3112274
-0.87477803 0.27341706 1.0718638
-0.8692295 0.26885673 0.97391111
-0.85458869 0.26384801 0.80356121
-0.83715874 0.25831121 0.65901202
-0.83110899 0.25613466 0.54179835
-0.83372569 0.25678721 0.44078106
-0.81641352 0.25130406 0.34102574
-0.81229103 0.24973004 0.25281543
-0.8185342 0.25165218 0.16982636
-0.86265266 0.2681478 0.88573903
-0.84787947 0.26323852 0.72999263
-0.83338428 0.25858355 0.59837258
-0.84212208 0.26081979 0.49499801
-0.8305642 0.25708634 0.39174515
-0.82204413 0.25429714 0.29825324
-0.81831998 0.25314772 0.21168561
-0.81594181 0.25226134 0.12812719
-0.094252482 0.066576168 11.723827
-1.6358131 0.54226869 10.955698
-1.314005 0.42874274 6.66856
-0.7602247 0.24392748 2.5995615
-0.99698597 0.31729865 2.5244026
-0.94102085 0.29805881 1.8762361
-0.90230107 0.28477058 1.462276
-0.88532782 0.27891353 1.1879587
-0.72700423 0.28105485 13.317174
-1.4315212 0.49189937 14.074139
-0.66913056 0.21735625 2.7462747
-0.88478714 0.28428239 2.5814362
-0.97006977 0.30967537 2.1693296
-0.91874397 0.29207054 1.6470701
-0.89008212 0.28228587 1.3112274
-0.87381834 0.2764689 1.0718638
-0.86828572 0.27188927 0.97391111
-0.85366249 0.26682949 0.80356121
-0.83625197 0.26123187 0.65901202
-0.83020985 0.25903419 0.54179835
-0.83282423 0.25969589 0.44078106
-0.81553137 0.25415236 0.34102574
-0.81141436 0.25256395 0.25281543
-0.81765079 0.25450787 0.16982636
-0.86171138 0.27115741 0.88573903
-0.84695548 0.26619655 0.72999263
-0.83247656 0.261491 0.59837258
-0.84553713 0.26511574 0.49709606
-0.82966167 0.25998399 0.39174515
-0.816513 0.25571233 0.29708093
-0.81743139 0.25600263 0.21168561
-0.81505626 0.25510797 0.12812719
-0.094019517 0.066904768 11.723827
-1.6361202 0.54871702 10.970516
-1.2960644 0.42789754 6.585341
-0.7593686 0.24657966 2.5995615
-0.99773186 0.32137606 2.5290053
-0.93997467 0.30134177 1.8762361
-0.9013015 0.28791845 1.462276
-0.88434887 0.28200221 1.1879587
-0.72548115 0.28338009 13.30719
-1.4287885 0.49654299 14.064196
-0.6683678 0.21969064 2.7462747
-0.88378936 0.28736913 2.5814362
-0.97105426 0.31372911 2.1738307
-0.92020142 0.29607475 1.651336
-0.88909131 0.28539112 1.3112274
-0.87284797 0.27951741 1.0718638
-0.86733133 0.2749185 0.97391111
-0.85272592 0.2698077 0.80356121
-0.83533502 0.26414937 0.65901202
-0.8335247 0.26326489 0.54411715
-0.8319127 0.26260141 0.44078106
-0.81921405 0.25844085 0.34243578
-0.8105278 0.25539476 0.25281543
-0.81675744 0.25736046 0.16982636
-0.86075956 0.27416366 0.88573903
-0.84987289 0.27037692 0.73293579
-0.83155876 0.26439533 0.59837258
-0.84460652 0.2680656 0.49709606
-0.82874912 0.26287845 0.39174515
-0.81561542 0.25856093 0.29708093
-0.81653279 0.25885445 0.21168561
-0.81416082 0.2579515 0.12812719
-0.093819678 0.067259535 11.728827
-1.6341949 0.55442476 10.970516
-1.2897344 0.43080536 6.5608654
-0.75850326 0.24922885 2.5995615
-0.99846137 0.32546246 2.5336077
-0.9389171 0.30462107 1.8762361
-0.90296853 0.29192868 1.466409
-0.88640934 0.28607208 1.1917962
-0.7242192 0.28580448 13.302198
-1.4255381 0.50099677 14.049281
-0.66878945 0.22241928 2.7511139
-0.8844201 0.29099193 2.586129
-0.97202241 0.31779352 2.1783321
-0.91916233 0.29928508 1.651336
-0.88808972 0.28849289 1.3112274
-0.87509197 0.2836079 1.0755389
-0.86976218 0.27903399 0.97741568
-0.85177892 0.27278262 0.80356121
-0.83440787 0.26706359 0.65901202
-0.83260065 0.26617283 0.54411715
-0.83099091 0.26550373 0.44078106
-0.81830692 0.26129887 0.34243578
-0.80963141 0.25822249 0.25281543
-0.8205986 0.26172316 0.17027344
-0.85979736 0.2771666 0.88573903
-0.84892386 0.27334189 0.73293579
-0.83063072 0.26729637 0.59837258
-0.84366572 0.27101219 0.49709606
-0.8278265 0.26576975 0.39174515
-0.81470793 0.26140639 0.29708093
-0.81562424 0.2617031 0.21168561
-0.81325543 0.26079187 0.12812719
-0.093584329 0.067586616 11.728827
-1.6329843 0.56037807 10.975455
-0.93422484 0.31562078 4.7643166
-0.75762862 0.25187501 2.5995615
-0.99917454 0.32955793 2.5382104
-0.94012338 0.30864388 1.8806251
-0.90194404 0.29507884 1.466409
-0.88540542 0.28916448 1.1917962
-0.72294909 0.28822345 13.297207
-1.4222738 0.50543386 14.034367
-0.6692003 0.22515357 2.7559536
-0.88339895 0.2940774 2.586129
-0.97297382 0.32186845 2.1828332
-0.91811204 0.30249169 1.651336
-0.88707727 0.29159114 1.3112274
-0.87409663 0.28666082 1.0755389
-0.86878288 0.28206828 0.97741568
-0.85082155 0.27575421 0.80356121
-0.83347052 0.26997462 0.65901202
-0.83588111 0.27044126 0.54643595
-0.83005911 0.26840279 0.44078106
-0.81738985 0.26415369 0.34243578
-0.81339985 0.26255605 0.25374803
-0.81967998 0.26458597 0.17027344
-0.85882461 0.28016618 0.88573903
-0.84796458 0.27630353 0.73293579
-0.82969266 0.2701942 0.59837258
-0.84271455 0.27395546 0.49709606
-0.82689375 0.26865777 0.39174515
-0.8184135 0.26574987 0.29825324
-0.81470579 0.26454857 0.21168561
-0.8123402 0.26362908 0.12812719
-0.09334784 0.067912877 11.728827
-1.6288165 0.56531024 10.960638
-0.94082487 0.32151577 4.8034787
-0.75674486 0.25451809 2.5995615
-0.99801809 0.33304369 2.5382104
-0.9390403 0.31192362 1.8806251
-0.90090847 0.29822543 1.466409
-0.88439059 0.29225338 1.1917962
-0.72193861 0.29074526 13.297207
-1.4189961 0.50985426 14.019453
-0.66960007 0.22789344 2.7607927
-0.88400233 0.29771018 2.5908215
-0.97390878 0.32595396 2.1873345
-0.91705054 0.30569467 1.651336
-0.88891321 0.29563698 1.3152174
-0.87309062 0.28971022 1.0755389
-0.86779296 0.28509921 0.97741568
-0.85355222 0.27993557 0.80669963
-0.83252305 0.27288231 0.65901202
-0.83493203 0.27335739 0.54643595
-0.83352321 0.27274045 0.44265413
-0.81646276 0.26700529 0.34243578
-0.81247842 0.26539373 0.25374803
-0.81875145 0.26744559 0.17027344
-0.86138695 0.28433284 0.88906449
-0.84699494 0.27926177 0.73293579
-0.82874447 0.27308872 0.59837258
-0.83744186 0.27547714 0.49499801
-0.82595092 0.27154252 0.39174515
-0.81748086 0.26860505 0.29825324
-0.81848192 0.26893669 0.21237628
-0.81141496 0.26646307 0.12812719
-0.093110204 0.068238303 11.728827
-1.6261001 0.57073498 10.955698
-0.94739503 0.32746062 4.8426404
-0.75585181 0.25715807 2.5995615
-0.99684942 0.33652538 2.5382104
-0.940216 0.3159627 1.8850143
-0.89986199 0.30136836 1.466409
-0.88640481 0.29635519 1.1956338
-0.72091931 0.29326352 13.297207
-1.4162058 0.51444006 14.009509
-0.66998893 0.23063882 2.7656324
-0.88622451 0.30190751 2.6002071
-0.97276503 0.32935151 2.1873345
-0.91844916 0.30972749 1.6556019
-0.88787585 0.29873806 1.3152174
-0.87207407 0.29275614 1.0755389
-0.87017655 0.28925171 0.9809202
-0.85256982 0.28291333 0.80669963
-0.8315655 0.2757867 0.65901202
-0.83817774 0.27766329 0.54875475
-0.83256608 0.27564833 0.44265413
-0.81552577 0.26985365 0.34243578
-0.81621116 0.26976982 0.25468066
-0.81781286 0.27030194 0.17027344
-0.86038917 0.2873379 0.88906449
-0.84601498 0.28221664 0.73293579
-0.83187556 0.27734348 0.60090578
-0.83647519 0.27839866 0.49499801
-0.82499796 0.27442399 0.39174515
-0.8211506 0.27299041 0.29942557
-0.8175382 0.27179211 0.21237628
-0.81047988 0.26929381 0.12812719
-0.09287145 0.068562903 11.728827
-1.6204368 0.57510751 10.931002
-0.94912946 0.3317742 4.857326
-0.75494951 0.25979492 2.5995615
-0.99566871 0.34000298 2.5382104
-0.93910736 0.31924275 1.8850143
-0.90146965 0.30541077 1.470542
-0.88536495 0.29944751 1.1956338
-0.71989125 0.29577821 13.297207
-1.4139011 0.51919657 14.004538
-0.67036676 0.23338971 2.7704716
-0.88679677 0.3055616 2.6048999
-0.97366881 0.33345059 2.1918356
-0.91736239 0.31293163 1.6556019
-0.88968015 0.30280656 1.3192074
-0.87104684 0.29579845 1.0755389
-0.86916155 0.29228741 0.9809202
-0.8515771 0.28588766 0.80669963
-0.83059776 0.27868775 0.65901202
-0.83720344 0.2805874 0.54875475
-0.83159882 0.27855286 0.44265413
-0.81912774 0.27422166 0.34384581
-0.81992316 0.27417514 0.2556133
-0.81686437 0.27315497 0.17027344
-0.85938096 0.29033947 0.88906449
-0.8450247 0.28516805 0.73293579
-0.8309024 0.28024557 0.60090578
-0.83979952 0.28276515 0.49709606
-0.82403505 0.27730209 0.39174515
-0.82019269 0.27585506 0.29942557
-0.81658447 0.27464417 0.21237628
-0.8142705 0.27371311 0.12832873
-0.092631549 0.068886667 11.728827
-1.6133004 0.57892251 10.896427
-0.95276523 0.33678305 4.8818021
-0.75262839 0.26193768 2.5947895
-0.99632227 0.34411442 2.5428128
-0.93798721 0.32251891 1.8850143
-0.90039814 0.3085556 1.470542
-0.8843143 0.30253619 1.1956338
-0.71885437 0.2982893 13.297207
-1.4115804 0.52394319 13.999566
-0.67073357 0.23614602 2.7753112
-0.88735425 0.30922329 2.6095927
-0.97455597 0.33756 2.196337
-0.91872978 0.31698272 1.6598678
-0.88861775 0.30591029 1.3192074
-0.87000901 0.29883716 1.0755389
-0.86813605 0.29531959 0.9809202
-0.85057396 0.28885844 0.80669963
-0.83357942 0.28292942 0.66175348
-0.83621883 0.28350806 0.54875475
-0.83501208 0.28294182 0.44452715
-0.81816554 0.27707925 0.34384581
-0.81896108 0.27703553 0.2556133
-0.82062322 0.27760053 0.17072052
-0.85836226 0.29333749 0.88906449
-0.84402412 0.28811601 0.73293579
-0.8299191 0.28314427 0.60090578
-0.8388074 0.2856949 0.49709606
-0.82753235 0.28169861 0.39338866
-0.82382637 0.28028202 0.30059788
-0.81562084 0.27749291 0.21237628
-0.81331009 0.27655378 0.12832873
-0.09239053 0.069209591 11.728827
-1.6098092 0.58402026 10.886549
-0.95062506 0.33976385 4.8769069
-0.75170946 0.26456326 2.5947895
-0.99511504 0.34759015 2.5428128
-0.93685573 0.32579112 1.8850143
-0.90197438 0.31261846 1.4746748
-0.88325286 0.30562118 1.1956338
-0.71780878 0.30079675 13.297207
-1.4092438 0.52867997 13.994595
-0.66990513 0.23848587 2.7753112
-0.88789696 0.31289265 2.6142855
-0.9754262 0.34167963 2.2008381
-0.92008007 0.32104716 1.6641337
-0.89039016 0.31000122 1.3231975
-0.86896056 0.30187225 1.0755389
-0.86709988 0.29834816 0.9809202
-0.8495605 0.29182574 0.80669963
-0.83258671 0.28583744 0.66175348
-0.83103395 0.28498822 0.54643595
-0.83401936 0.28585485 0.44452715
-0.81719333 0.27993351 0.34384581
-0.82263678 0.28148291 0.2565459
-0.81964928 0.28046334 0.17072052
-0.86086202 0.2975519 0.89239001
-0.846834 0.29237977 0.735879
-0.82892573 0.2860395 0.60090578
-0.84209597 0.29009947 0.49919412
-0.82654399 0.28458554 0.39338866
-0.82284302 0.28315601 0.30059788
-0.8146472 0.28033829 0.21237628
-0.81233978 0.27939111 0.12832873
-0.092148378 0.069531679 11.728827
-1.6004663 0.58695936 10.837156
-0.94751823 0.34238759 4.8671165
-0.75078136 0.2671856 2.5947895
-0.99389565 0.35106164 2.5428128
-0.93571281 0.32905939 1.8850143
-0.90087759 0.31576502 1.4746748
-0.88218063 0.30870244 1.1956338
-0.71675444 0.30330053 13.297207
-1.4068915 0.53340679 13.989623
-0.67025113 0.24124882 2.7801504
-0.88842487 0.31656957 2.6189783
-0.97627956 0.34580949 2.2053394
-0.91895378 0.32425684 1.6641337
-0.88930261 0.3131074 1.3231975
-0.8679015 0.30490366 1.0755389
-0.86605316 0.30137306 0.9809202
-0.84853667 0.29478949 0.80669963
-0.83158392 0.28874198 0.66175348
-0.83003414 0.28788733 0.54643595
-0.8330164 0.28876439 0.44452715
-0.81621122 0.28278434 0.34384581
-0.82164919 0.28435272 0.2565459
-0.81866527 0.28332275 0.17072052
-0.8598181 0.30055505 0.89239001
-0.84580827 0.29533398 0.735879
-0.82792217 0.28893125 0.60090578
-0.84107822 0.29303718 0.49919412
-0.82554555 0.28746897 0.39338866
-0.81725907 0.28442881 0.29942557
-0.81366372 0.28318021 0.21237628
-0.81135958 0.28222498 0.12832873
-0.091905102 0.069852911 11.728827
-1.5765524 0.5844363 10.688978
-0.94536096 0.34534335 4.8622212
-0.74984413 0.26980469 2.5947895
-0.99082446 0.35387155 2.5382104
-0.93455845 0.33232364 1.8850143
-0.90242213 0.319848 1.4788078
-0.88411933 0.31284934 1.1994712
-0.71569139 0.30580062 13.297207
-1.4045233 0.53812367 13.984652
-0.66940498 0.24358696 2.7801504
-0.88893789 0.32025391 2.6236711
-0.97506648 0.34921524 2.2053394
-0.92027265 0.32833922 1.6683997
-0.88820422 0.3162097 1.3231975
-0.87002641 0.30906633 1.0792141
-0.86835986 0.30557832 0.98442477
-0.85117471 0.29903996 0.80983812
-0.83451617 0.29302844 0.66449493
-0.82902414 0.29078293 0.54643595
-0.83637822 0.29320416 0.4464002
-0.81521916 0.28563172 0.34384581
-0.82065159 0.28721908 0.2565459
-0.8176713 0.28617871 0.17072052
-0.85876375 0.30355453 0.89239001
-0.84477222 0.29828462 0.735879
-0.83097357 0.29325417 0.60343897
-0.84005016 0.29597127 0.49919412
-0.8245371 0.29034892 0.39338866
-0.81626123 0.28727987 0.29942557
-0.80799907 0.28437465 0.21168561
-0.81508237 0.28671324 0.12853025
-0.091734149 0.07007727 11.728827
-1.5751196 0.58828682 10.688978
-0.92922699 0.34202158 4.7838979
-0.74923003 0.27150533 2.5947895
-0.99001896 0.35611877 2.5382104
-0.93380207 0.33444321 1.8850143
-0.90440065 0.32268316 1.4829408
-0.88346213 0.31470034 1.1994712
-0.71510291 0.30717409 13.297207
-1.4029902 0.54062736 13.979681
-0.67011636 0.24530406 2.7849901
-0.88999999 0.32239285 2.6283638
-0.97650355 0.35165426 2.2098405
-0.91969818 0.32994491 1.6683997
-0.88770646 0.31760454 1.3231975
-0.86953986 0.31043258 1.0792141
-0.86761063 0.3076992 0.98442477
-0.85049403 0.30097041 0.80983812
-0.83384913 0.29492116 0.66449493
-0.82836223 0.29266319 0.54643595
-0.83576232 0.29495519 0.4464002
-0.81461918 0.2873385 0.34384581
-0.81999785 0.28908035 0.2565459
-0.81707013 0.28789058 0.17072052
-0.85817933 0.30520269 0.89239001
-0.84425026 0.29975855 0.735879
-0.83046055 0.29470405 0.60343897
-0.8394804 0.29758352 0.49919412
-0.81957769 0.29021126 0.39174515
-0.82034075 0.29032576 0.30059788
-0.80750149 0.28578442 0.21168561
-0.81463104 0.28799322 0.12853025
-0.091415204 0.070492819 11.728827
-1.5033075 0.56953877 10.219749
-0.91139048 0.34033757 4.7006788
-0.74789429 0.2751635 2.5947895
-0.98826683 0.36095265 2.5382104
-0.93440711 0.33982134 1.8894032
-0.90534401 0.32837382 1.4870737
-0.88481593 0.32041332 1.2033087
-0.71337622 0.31116319 13.297207
-1.399949 0.54845464 13.979681
-0.66869241 0.24915956 2.7849901
-0.88807118 0.32766852 2.6283638
-0.97439963 0.35744271 2.2098405
-0.91772407 0.33539665 1.6683997
-0.88574976 0.32302126 1.3231975
-0.86757225 0.31588989 1.0792141
-0.86620539 0.31163311 0.98442477
-0.84540319 0.30365902 0.80669963
-0.83245015 0.29884729 0.66449493
-0.83109158 0.29820397 0.54875475
-0.83425874 0.29918158 0.4464002
-0.81315434 0.29145795 0.34384581
-0.82314867 0.29488373 0.25747854
-0.81555158 0.2921648 0.17072052
-0.85646141 0.30999088 0.89239001
-0.84631097 0.30599058 0.73882216
-0.82874936 0.29948223 0.60343897
-0.83775252 0.30241361 0.49919412
-0.81778967 0.29521233 0.39174515
-0.8185519 0.29533151 0.30059788
-0.80574071 0.29071182 0.21168561
-0.81280541 0.29310599 0.12853025
-0.0912797 0.070668198 11.728827
-1.5094715 0.57519197 10.269142
-0.88500154 0.33241394 4.5685072
-0.74731636 0.27672932 2.5947895
-0.98750865 0.36302164 2.5382104
-0.93369335 0.34177762 1.8894032
-0.90465426 0.33026925 1.4870737
-0.88414294 0.32226577 1.2033087
-0.71266836 0.31278098 13.297207
-1.398701 0.5516296 13.979681
-0.66934592 0.25100115 2.7898293
-0.88732547 0.32968262 2.6283638
-0.9756282 0.3604072 2.2143419
-0.91696072 0.33747804 1.6683997
-0.88495779 0.32518455 1.3231975
-0.8668533 0.31785753 1.0792141
-0.86560547 0.31329554 0.98442477
-0.84842569 0.30675253 0.80983812
-0.83575481 0.30201128 0.66723639
-0.83051753 0.299799 0.54875475
-0.83363026 0.30092818 0.4464002
-0.81254214 0.29316038 0.34384581
-0.81790829 0.29494068 0.2565459
-0.81488657 0.29401448 0.17072052
-0.85581028 0.31178397 0.89239001
-0.84561449 0.30791003 0.73882216
-0.82806778 0.30136183 0.60343897
-0.83706427 0.30431363 0.49919412
-0.81711775 0.29706708 0.39174515
-0.81787974 0.29718798 0.30059788
-0.80507904 0.29253924 0.21168561
-0.81208682 0.29509115 0.12853025
-0.090953976 0.071157701 11.733826
-1.4920486 0.57721514 10.170357
-0.92801785 0.35395327 4.798583
-0.74590611 0.28050822 2.5947895
-0.98565865 0.36801523 2.5382104
-0.93195152 0.34649909 1.8894032
-0.90560937 0.33582243 1.4912066
-0.88550621 0.32784975 1.2071462
-0.71107614 0.31638408 13.297207
-1.3963858 0.55890018 13.984652
-0.670416 0.25528094 2.7995081
-0.88241649 0.33295074 2.6189783
-0.97379148 0.36534068 2.2143419
-0.91524082 0.34211484 1.6683997
-0.88330054 0.32965955 1.3231975
-0.86523336 0.32224098 1.0792141
-0.86400867 0.31767273 0.98442477
-0.8468622 0.31104285 0.80983812
-0.83421552 0.30623755 0.66723639
-0.83314848 0.30552402 0.55107355
-0.83209652 0.30514368 0.4464002
-0.81104797 0.29726925 0.34384581
-0.81640494 0.29907668 0.2565459
-0.81338799 0.29813519 0.17072052
-0.85422128 0.31611159 0.89239001
-0.84404522 0.31218609 0.73882216
-0.83057511 0.30704403 0.60597211
-0.83551323 0.30854648 0.49919412
-0.81560367 0.30119905 0.39174515
-0.82092494 0.30300698 0.30177018
-0.80823368 0.29832515 0.21237628
-0.81058276 0.2991977 0.12853025
-0.090738058 0.071503274 11.738826
-1.4937446 0.58357406 10.195052
-0.95629126 0.36838159 4.9503355
-0.74362582 0.28232011 2.5900176
-0.98632556 0.3717992 2.5428128
-0.93310058 0.35026708 1.8937924
-0.90460902 0.33850798 1.4912066
-0.88452959 0.33047566 1.2071462
-0.7105087 0.31836301 13.302198
-1.3954121 0.5627535 13.989623
-0.67091882 0.2574859 2.8043478
-0.87837422 0.33387914 2.6095927
-0.97289592 0.36771899 2.2143419
-0.91684282 0.3452695 1.6726656
-0.88537091 0.33272305 1.3271875
-0.86767429 0.32539392 1.0828893
-0.86289454 0.32068673 0.98442477
-0.84582609 0.31384945 0.80983812
-0.83319545 0.30900222 0.66723639
-0.83213073 0.30828518 0.55107355
-0.83113372 0.3077563 0.4464002
-0.81011003 0.29981577 0.34384581
-0.81551397 0.30149767 0.2565459
-0.81255221 0.30040541 0.17072052
-0.85683316 0.31980154 0.89571548
-0.843225 0.31439471 0.73882216
-0.82976842 0.30921742 0.60597211
-0.83901042 0.31216985 0.50129217
-0.81491816 0.30304882 0.39174515
-0.82023531 0.30486879 0.30177018
-0.80755472 0.30015817 0.21237628
-0.80995435 0.30089474 0.12853025
-0.090520836 0.071848199 11.743826
-1.4931439 0.58935553 10.204931
-1.2747402 0.49625054 6.6000271
-0.74263579 0.28491417 2.5900176
-0.98502177 0.37523985 2.5428128
-0.93187225 0.35352206 1.8937924
-0.90342188 0.34166357 1.4912066
-0.88636917 0.33469367 1.2109838
-0.70939308 0.32084119 13.302198
-1.3939328 0.56782222 13.994595
-0.67118776 0.260281 2.8091869
-0.87398171 0.33570522 2.6002071
-0.97363991 0.37188971 2.218843
-0.91563201 0.34846777 1.6726656
-0.88420409 0.33581156 1.3271875
-0.86653316 0.32842067 1.0828893
-0.86176986 0.32369685 0.98442477
-0.84472543 0.31680003 0.80983812
-0.83211178 0.31190872 0.66723639
-0.83519804 0.31274149 0.55339235
-0.8300544 0.31065562 0.4464002
-0.80905855 0.30264175 0.34384581
-0.81445658 0.30434254 0.2565459
-0.8114987 0.30323994 0.17072052
-0.85571164 0.32279053 0.89571548
-0.84212244 0.3173362 0.73882216
-0.83271819 0.31363153 0.60850531
-0.83791566 0.31509665 0.50129217
-0.81385535 0.30589157 0.39174515
-0.82371622 0.30943945 0.30294251
-0.81113774 0.30471677 0.21306697
-0.8088991 0.30372018 0.12853025
-0.090302311 0.07219249 11.748826
-1.4910777 0.59456396 10.204931
-0.74163669 0.2875047 2.5900176
-0.98552912 0.37937799 2.5474155
-0.93286884 0.35763028 1.8981816
-0.90222377 0.34481502 1.4912066
-0.88519543 0.33778563 1.2109838
-0.70826882 0.32331547 13.302198
-1.3919423 0.57268447 13.994595
-0.67027509 0.2626223 2.8091869
-0.8695873 0.33750471 2.5908215
-0.97233582 0.37528607 2.218843
-0.91684425 0.35259813 1.6769315
-0.88583964 0.3399758 1.3311775
-0.86538148 0.33144346 1.0828893
-0.86063474 0.32670301 0.98442477
-0.84725398 0.32112637 0.81297654
-0.83101791 0.31481144 0.66723639
-0.83410126 0.31565496 0.55339235
-0.82896495 0.31355116 0.4464002
-0.81248426 0.30716047 0.34525582
-0.8133893 0.30718365 0.2565459
-0.81509405 0.30783024 0.1711676
-0.85457963 0.32577553 0.89571548
-0.84478688 0.32171246 0.74176532
-0.83161831 0.31653637 0.60850531
-0.84105313 0.31963199 0.50339019
-0.81719708 0.31040746 0.39338866
-0.82263106 0.31231287 0.30294251
-0.81469887 0.30930403 0.21375765
-0.80783403 0.30654192 0.12853025
-0.090049766 0.072507262 11.748826
-1.4933171 0.60150784 10.234567
-1.2721908 0.50551385 6.6049218
-0.74062866 0.29009175 2.5900176
-0.98419887 0.38281584 2.5474155
-0.93161476 0.36088443 1.8981816
-0.90101463 0.34796229 1.4912066
-0.88401097 0.34087348 1.2109838
-0.70713592 0.32578582 13.302198
-1.3894426 0.57733512 13.989623
-0.66935426 0.26496041 2.8091869
-0.86679739 0.33990788 2.586129
-0.97304797 0.37946901 2.2233443
-0.91803873 0.35674122 1.6811975
-0.88464749 0.34306589 1.3311775
-0.8673808 0.33568594 1.0865644
-0.85948908 0.32970521 0.98442477
-0.84612793 0.32408187 0.81297654
-0.82991397 0.31771034 0.66723639
-0.83299434 0.31856459 0.55339235
-0.82786542 0.31644288 0.4464002
-0.81140715 0.3099947 0.34525582
-0.81231207 0.31002104 0.2565459
